ply
format ascii 1.0
element vertex 1597
property float32 x
property float32 y
property float32 z
property float32 I
end_header
9.4561 -0.0818 -1.9989 0.9621
9.4257 0.7629 -1.9989 0.9621
9.3200 1.6016 -1.9989 0.9621
9.1400 2.4275 -1.9990 0.9621
8.8871 3.2341 -1.9991 0.9621
8.5632 4.0150 -1.9992 0.9621
8.1709 4.7639 -1.9993 0.9621
1.2968 8.6514 -1.8492 0.9649
0.5191 8.7337 -1.8494 0.9649
-1.0430 8.6890 -1.8499 0.9649
-2.5726 8.3670 -1.8503 0.9648
-3.3099 8.1048 -1.8506 0.9648
-5.9404 6.4360 -1.8514 0.9648
-6.4920 5.8803 -1.8515 0.9648
-7.4356 4.6325 -1.8518 0.9648
-7.8201 3.9502 -1.8519 0.9648
-8.8014 3.4984 -2.0020 0.9620
-9.0900 2.7018 -2.0045 0.9620
-9.3651 -1.4937 -2.0046 0.9620
-9.1941 -2.3240 -2.0046 0.9620
-8.6334 -3.9221 -2.0044 0.9620
-8.2482 -4.6771 -2.0043 0.9620
-6.7120 -6.6944 -2.0038 0.9620
-5.4131 -7.7800 -2.0034 0.9620
-4.6962 -8.2314 -2.0032 0.9620
-3.9420 -8.6169 -2.0030 0.9620
-2.3458 -9.1785 -2.0025 0.9620
0.1708 -9.4684 -2.0018 0.9620
1.0155 -9.4141 -2.0015 0.9620
1.8518 -9.2846 -2.0012 0.9620
4.2449 -8.4587 -2.0005 0.9620
4.9827 -8.0449 -2.0003 0.9621
6.3330 -7.0289 -1.9999 0.9621
6.9347 -6.4347 -1.9997 0.9621
7.4810 -5.7892 -1.9995 0.9621
7.9675 -5.0977 -1.9994 0.9621
9.0321 -2.8032 -1.9990 0.9621
9.4514 -0.3090 -1.9989 0.9621
9.4413 0.5362 -1.9989 0.9621
9.1956 2.2072 -1.9990 0.9621
8.6571 3.8080 -1.9991 0.9621
7.8426 5.2878 -1.9994 0.9621
6.2626 6.0978 -1.8477 0.9649
5.6936 6.6333 -1.8478 0.9649
5.0790 7.1159 -1.8480 0.9649
4.4238 7.5419 -1.8482 0.9649
3.7331 7.9077 -1.8484 0.9649
2.2674 8.4476 -1.8489 0.9649
1.5042 8.6174 -1.8491 0.9649
-3.1141 8.1818 -1.8505 0.9648
-3.8327 7.8719 -1.8507 0.9648
-4.5209 7.4991 -1.8509 0.9648
-6.3487 6.0345 -1.8515 0.9648
-6.8628 5.4439 -1.8516 0.9648
-7.3220 4.8097 -1.8518 0.9648
-7.7228 4.1369 -1.8519 0.9648
-8.6999 3.7025 -1.9986 0.9621
-9.0223 2.9195 -2.0045 0.9620
-9.3983 1.2681 -2.0046 0.9620
-9.3983 -1.2683 -2.0046 0.9620
-9.2473 -2.1024 -2.0046 0.9620
-8.7252 -3.7135 -2.0044 0.9620
-8.3583 -4.4776 -2.0043 0.9620
-7.9246 -5.2057 -2.0042 0.9620
-7.4275 -5.8921 -2.0040 0.9620
-6.2599 -7.1181 -2.0037 0.9620
-5.5986 -7.6479 -2.0035 0.9620
-4.1480 -8.5200 -2.0031 0.9620
-1.7409 -9.3113 -2.0023 0.9620
-0.0568 -9.4701 -2.0018 0.9620
0.7890 -9.4361 -2.0016 0.9620
5.4973 -7.7016 -2.0001 0.9621
6.1624 -7.1792 -1.9999 0.9621
7.3399 -5.9674 -1.9996 0.9621
8.9623 -3.0194 -1.9991 0.9621
9.1957 -2.2070 -1.9990 0.9621
9.3558 -1.3770 -1.9989 0.9621
9.4413 -0.5360 -1.9989 0.9621
9.4514 0.3092 -1.9989 0.9621
9.3861 1.1520 -1.9989 0.9621
9.2460 1.9856 -1.9990 0.9621
6.5013 6.0328 -1.8748 0.9644
5.2484 6.9917 -1.8480 0.9649
4.6036 7.4332 -1.8482 0.9649
3.2087 8.1354 -1.8486 0.9649
2.4697 8.3904 -1.8488 0.9649
1.7108 8.5785 -1.8490 0.9649
-2.1675 8.4804 -1.8502 0.9648
-5.6241 6.7136 -1.8513 0.9648
-6.7298 5.6071 -1.8516 0.9648
-7.2042 4.9841 -1.8517 0.9648
-7.6210 4.3212 -1.8519 0.9648
-8.4298 3.8293 -1.9571 0.9629
-9.4612 0.6513 -2.0046 0.9620
-9.4816 -0.1962 -2.0046 0.9620
-9.4261 -1.0421 -2.0046 0.9620
-7.5671 -5.7121 -2.0041 0.9620
-5.7810 -7.5114 -2.0036 0.9620
-5.0866 -7.9968 -2.0033 0.9620
-3.5822 -8.7721 -2.0029 0.9620
-1.9642 -9.2671 -2.0024 0.9620
-1.1287 -9.4043 -2.0021 0.9620
0.5620 -9.4527 -2.0016 0.9620
1.4037 -9.3635 -2.0014 0.9620
3.8339 -8.6534 -2.0006 0.9620
4.5907 -8.2755 -2.0004 0.9620
5.3108 -7.8317 -2.0002 0.9621
5.9883 -7.3254 -2.0000 0.9621
7.1945 -6.1422 -1.9996 0.9621
8.1711 -4.7638 -1.9993 0.9621
8.5634 -4.0148 -1.9992 0.9621
9.4257 -0.7627 -1.9989 0.9621
9.4111 0.9261 -1.9989 0.9621
9.2909 1.7628 -1.9990 0.9621
8.4924 4.1628 -1.9992 0.9621
6.0054 6.3518 -1.8477 0.9649
3.4031 8.0557 -1.8485 0.9649
2.6705 8.3284 -1.8487 0.9649
1.1467 8.6727 -1.8492 0.9649
0.3678 8.7416 -1.8494 0.9649
-0.4144 8.7407 -1.8497 0.9649
-1.9631 8.5297 -1.8501 0.9648
-2.7172 8.3214 -1.8504 0.9648
-3.4499 8.0465 -1.8506 0.9648
-4.8273 7.3061 -1.8510 0.9648
-6.5930 5.7671 -1.8516 0.9648
-7.0822 5.1557 -1.8517 0.9648
-7.5149 4.5030 -1.8518 0.9648
-8.8715 3.3495 -2.0045 0.9620
-9.1355 2.5440 -2.0045 0.9620
-9.4428 0.8784 -2.0046 0.9620
-9.4836 0.0317 -2.0046 0.9620
-9.4485 -0.8153 -2.0046 0.9620
-9.3378 -1.6557 -2.0046 0.9620
-8.5640 -4.0710 -2.0044 0.9620
-7.7023 -5.5287 -2.0041 0.9620
-7.1773 -6.1939 -2.0040 0.9620
-5.2774 -7.8725 -2.0034 0.9620
-4.5529 -8.3114 -2.0032 0.9620
-3.0011 -8.9866 -2.0027 0.9620
-1.3543 -9.3748 -2.0022 0.9620
-0.5117 -9.4571 -2.0020 0.9620
0.3348 -9.4638 -2.0017 0.9620
1.1784 -9.3949 -2.0014 0.9620
2.0123 -9.2509 -2.0012 0.9620
3.6249 -8.7433 -2.0007 0.9620
4.3907 -8.3837 -2.0005 0.9620
5.8107 -7.4674 -2.0000 0.9621
7.0450 -6.3135 -1.9997 0.9621
8.0545 -4.9588 -1.9993 0.9621
8.4646 -4.2195 -1.9992 0.9621
8.8071 -3.4466 -1.9991 0.9621
9.4047 -0.9890 -1.9989 0.9621
9.4306 0.6997 -1.9989 0.9621
9.3306 1.5391 -1.9989 0.9621
9.1561 2.3662 -1.9990 0.9621
8.9085 3.1744 -1.9991 0.9621
8.5899 3.9574 -1.9992 0.9621
8.2026 4.7089 -1.9993 0.9621
6.1562 6.2055 -1.8477 0.9649
2.8697 8.2615 -1.8487 0.9649
1.3548 8.6424 -1.8491 0.9649
-0.2042 8.7478 -1.8496 0.9649
-0.9847 8.6957 -1.8498 0.9649
-1.7575 8.5741 -1.8501 0.9648
-2.5164 8.3840 -1.8503 0.9648
-3.2554 8.1268 -1.8505 0.9648
-5.8971 6.4756 -1.8513 0.9648
-6.4524 5.9237 -1.8515 0.9648
-7.7934 4.0026 -1.8519 0.9648
-8.7735 3.5556 -2.0011 0.9620
-9.4189 1.1051 -2.0046 0.9620
-9.4801 0.2596 -2.0046 0.9620
-9.3749 -1.4309 -2.0046 0.9620
-9.2095 -2.2623 -2.0046 0.9620
-8.2794 -4.6217 -2.0043 0.9620
-7.8331 -5.3422 -2.0042 0.9620
-6.7568 -6.6493 -2.0038 0.9620
-5.4652 -7.7436 -2.0035 0.9620
-4.7514 -8.1998 -2.0032 0.9620
-3.9997 -8.5904 -2.0030 0.9620
-2.4073 -9.1627 -2.0025 0.9620
-1.5793 -9.3399 -2.0023 0.9620
0.1073 -9.4694 -2.0018 0.9620
0.9523 -9.4208 -2.0015 0.9620
1.7895 -9.2969 -2.0013 0.9620
2.6123 -9.0989 -2.0010 0.9620
4.1881 -8.4871 -2.0005 0.9620
7.4420 -5.8393 -1.9995 0.9621
7.9331 -5.1510 -1.9994 0.9621
8.3608 -4.4218 -1.9993 0.9621
9.2325 -2.0473 -1.9990 0.9621
9.2102 2.1455 -1.9990 0.9621
8.6824 3.7498 -1.9991 0.9621
8.3133 4.5104 -1.9992 0.9621
7.8778 5.2351 -1.9994 0.9621
5.1266 7.0817 -1.8480 0.9649
4.4742 7.5120 -1.8482 0.9649
1.5620 8.6071 -1.8491 0.9649
0.0036 5.2403 -1.1077 0.9788
-1.5509 8.6136 -1.8500 0.9649
-2.3142 8.4417 -1.8502 0.9648
-4.4704 7.5292 -1.8509 0.9648
-5.1254 7.1007 -1.8511 0.9648
-5.7396 6.6153 -1.8513 0.9648
-6.3080 6.0769 -1.8515 0.9648
-6.8260 5.4898 -1.8516 0.9648
-7.2896 4.8587 -1.8518 0.9648
-7.6948 4.1886 -1.8519 0.9648
-9.0025 2.9799 -2.0045 0.9620
-9.3896 1.3311 -2.0046 0.9620
-9.4711 0.4873 -2.0046 0.9620
-9.0418 -2.8591 -2.0045 0.9620
-8.3882 -4.4215 -2.0043 0.9620
-7.4669 -5.8422 -2.0041 0.9620
-5.6498 -7.6103 -2.0035 0.9620
-2.6268 -9.1025 -2.0026 0.9620
-1.8033 -9.2995 -2.0024 0.9620
1.5657 -9.3376 -2.0013 0.9620
3.9830 -8.5855 -2.0006 0.9620
4.7333 -8.1946 -2.0004 0.9620
5.4456 -7.7383 -2.0001 0.9621
6.1142 -7.2204 -1.9999 0.9621
6.7339 -6.6450 -1.9998 0.9621
7.8072 -5.3403 -1.9994 0.9621
8.2523 -4.6214 -1.9993 0.9621
8.6315 -3.8659 -1.9992 0.9621
9.3464 -1.4397 -1.9989 0.9621
9.0506 2.7427 -1.9990 0.9621
8.7698 3.5401 -1.9991 0.9621
8.0012 5.0442 -1.9993 0.9621
6.7800 6.2073 -1.9431 0.9631
5.8946 6.4550 -1.8478 0.9649
5.2951 6.9563 -1.8479 0.9649
4.6533 7.4021 -1.8481 0.9649
3.9742 7.7889 -1.8483 0.9649
3.2632 8.1136 -1.8486 0.9649
2.5259 8.3736 -1.8488 0.9649
0.9964 8.6915 -1.8492 0.9649
-0.5657 8.7324 -1.8497 0.9649
-1.3434 8.6481 -1.8500 0.9649
-2.1106 8.4946 -1.8502 0.9648
-2.8611 8.2732 -1.8504 0.9648
-4.9532 7.2215 -1.8511 0.9648
-5.5789 6.7511 -1.8512 0.9648
-6.6920 5.6521 -1.8516 0.9648
-7.5918 4.3722 -1.8519 0.9648
-8.3032 3.8392 -1.9337 0.9633
-4.0443 -7.5020 -2.0030 0.9656
-3.3579 -7.8323 -2.0028 0.9656
-1.9107 -8.3029 -2.0024 0.9656
-1.1615 -8.4394 -2.0022 0.9656
3.3131 -7.8421 -2.0008 0.9656
5.2715 -6.6815 -2.0002 0.9656
5.8466 -6.1835 -2.0000 0.9656
6.3749 -5.6363 -1.9999 0.9656
7.6393 -3.7444 -1.9995 0.9656
7.9427 -3.0471 -1.9994 0.9656
8.1828 -2.3256 -1.9993 0.9656
8.3575 -1.5855 -1.9992 0.9657
7.9941 2.9092 -1.9993 0.9656
7.7027 3.6116 -1.9994 0.9656
7.3498 4.2852 -1.9995 0.9656
5.4999 5.6189 -1.8479 0.9682
4.9766 6.0880 -1.8480 0.9682
4.4135 6.5087 -1.8482 0.9682
3.8150 6.8775 -1.8484 0.9682
1.8563 7.6451 -1.8490 0.9682
1.1663 7.7812 -1.8492 0.9682
0.4669 7.8552 -1.8494 0.9682
-1.6323 7.7007 -1.8500 0.9682
-2.3137 7.5250 -1.8503 0.9682
-4.2268 6.6447 -1.8508 0.9682
-4.8037 6.2413 -1.8510 0.9682
-5.8383 5.2882 -1.8513 0.9682
-7.5840 3.8309 -1.9969 0.9657
-8.0481 -2.8198 -2.0042 0.9656
-7.7638 -3.5270 -2.0041 0.9656
-7.0118 -4.8513 -2.0039 0.9656
-6.5502 -5.4577 -2.0038 0.9656
-5.4740 -6.5347 -2.0035 0.9656
-3.5452 -7.7496 -2.0029 0.9656
-0.6075 -8.4966 -2.0020 0.9656
0.9133 -8.4672 -2.0015 0.9656
2.4044 -8.1678 -2.0011 0.9656
3.1238 -7.9196 -2.0009 0.9656
3.8181 -7.6082 -2.0006 0.9656
4.4818 -7.2362 -2.0004 0.9656
5.1096 -6.8064 -2.0002 0.9656
5.6964 -6.3224 -2.0001 0.9656
6.7292 -5.2074 -1.9998 0.9656
7.8673 -3.2371 -1.9994 0.9656
8.1246 -2.5215 -1.9993 0.9656
8.4432 -1.0360 -1.9992 0.9657
8.5019 -0.2780 -1.9992 0.9657
7.7872 3.4254 -1.9994 0.9656
5.1213 5.9666 -1.8480 0.9682
4.5685 6.4006 -1.8482 0.9682
3.9790 6.7837 -1.8483 0.9682
3.3577 7.1126 -1.8485 0.9682
2.7095 7.3848 -1.8487 0.9682
1.3529 7.7507 -1.8491 0.9682
-2.1322 7.5782 -1.8502 0.9682
-4.0658 6.7442 -1.8508 0.9682
-4.6522 6.3548 -1.8510 0.9682
-5.7094 5.4268 -1.8513 0.9682
-6.1717 4.8957 -1.8514 0.9681
-8.3159 1.8904 -2.0043 0.9656
-8.5198 0.3811 -2.0044 0.9656
-8.5198 -0.3813 -2.0044 0.9656
-8.4517 -1.1405 -2.0043 0.9656
-8.3159 -1.8906 -2.0043 0.9656
-7.5165 -4.0266 -2.0041 0.9656
-7.1265 -4.6815 -2.0039 0.9656
-6.1792 -5.8736 -2.0037 0.9656
-5.0350 -6.8780 -2.0033 0.9656
-3.7305 -7.6624 -2.0029 0.9656
-3.0310 -7.9641 -2.0027 0.9656
-2.3075 -8.2020 -2.0025 0.9656
-1.5657 -8.3744 -2.0023 0.9656
-0.8116 -8.4798 -2.0020 0.9656
2.2075 -8.2235 -2.0011 0.9656
2.9327 -7.9926 -2.0009 0.9656
4.3067 -7.3420 -2.0005 0.9656
5.5430 -6.4576 -2.0001 0.9656
7.0547 -4.7564 -1.9997 0.9656
7.4508 -4.1072 -1.9995 0.9656
8.0618 -2.7160 -1.9993 0.9656
8.4159 -1.2386 -1.9992 0.9657
8.5018 0.2781 -1.9992 0.9657
7.5470 3.9270 -1.9995 0.9656
6.7289 5.2075 -1.9997 0.9656
6.2157 5.7677 -1.9929 0.9658
5.2631 5.8417 -1.8480 0.9682
4.7208 6.2889 -1.8481 0.9682
4.1408 6.6859 -1.8483 0.9682
3.5276 7.0297 -1.8485 0.9682
2.8860 7.3174 -1.8487 0.9682
2.2213 7.5467 -1.8489 0.9682
1.5387 7.7157 -1.8491 0.9682
0.8437 7.8232 -1.8493 0.9682
-1.2604 7.7697 -1.8499 0.9682
-1.9494 7.6270 -1.8501 0.9682
-2.6230 7.4233 -1.8503 0.9682
-3.2757 7.1601 -1.8505 0.9682
-3.9024 6.8397 -1.8507 0.9682
-4.4981 6.4646 -1.8509 0.9682
-6.0521 5.0425 -1.8514 0.9681
-7.7558 3.5232 -2.0020 0.9656
-8.0481 2.8196 -2.0042 0.9656
-8.5082 0.5857 -2.0044 0.9656
-8.5265 -0.1764 -2.0044 0.9656
-8.4767 -0.9371 -2.0043 0.9656
-8.3590 -1.6903 -2.0043 0.9656
-8.1744 -2.4299 -2.0043 0.9656
-7.9245 -3.1500 -2.0042 0.9656
-7.2371 -4.5089 -2.0040 0.9656
-5.1989 -6.7552 -2.0034 0.9656
-4.5745 -7.1917 -2.0032 0.9656
-3.9137 -7.5708 -2.0030 0.9656
-3.2216 -7.8892 -2.0028 0.9656
-2.5040 -8.1444 -2.0026 0.9656
-1.0151 -8.4581 -2.0021 0.9656
-0.2557 -8.5140 -2.0019 0.9656
0.5055 -8.5018 -2.0016 0.9656
1.2625 -8.4217 -2.0014 0.9656
2.7399 -8.0610 -2.0010 0.9656
3.4484 -7.7833 -2.0008 0.9656
6.9385 -4.9246 -1.9997 0.9656
8.2218 -2.1835 -1.9993 0.9656
8.4787 -0.6861 -1.9992 0.9657
8.3575 1.5857 -1.9992 0.9657
7.2746 4.4119 -1.9996 0.9656
6.8520 5.0442 -1.9997 0.9656
4.8705 6.1735 -1.8481 0.9682
3.6953 6.9427 -1.8484 0.9682
3.0609 7.2457 -1.8486 0.9682
2.4020 7.4909 -1.8488 0.9682
-0.3727 7.8613 -1.8497 0.9682
-1.7655 7.6714 -1.8501 0.9682
-4.9112 6.1573 -1.8510 0.9682
-5.4419 5.6946 -1.8512 0.9682
-5.9291 5.1863 -1.8514 0.9682
-6.7580 4.0495 -1.8516 0.9681
-8.2153 2.2877 -2.0043 0.9656
-8.5283 0.0285 -2.0044 0.9656
-8.4967 -0.7331 -2.0044 0.9656
-8.3972 -1.4889 -2.0043 0.9656
-8.2305 -2.2328 -2.0043 0.9656
-7.9980 -2.9587 -2.0042 0.9656
-7.7015 -3.6610 -2.0041 0.9656
-6.9266 -4.9719 -2.0039 0.9656
-5.9309 -6.1239 -2.0036 0.9656
-5.3599 -6.6284 -2.0034 0.9656
-4.7461 -7.0799 -2.0032 0.9656
-2.6991 -8.0822 -2.0026 0.9656
-0.4602 -8.5056 -2.0019 0.9656
0.3011 -8.5118 -2.0017 0.9656
1.0598 -8.4499 -2.0015 0.9656
4.6064 -7.1573 -2.0004 0.9656
5.2266 -6.7167 -2.0002 0.9656
7.2451 -4.4605 -1.9996 0.9656
7.6140 -3.7955 -1.9995 0.9656
8.3467 -1.6416 -1.9993 0.9657
8.4831 0.6294 -1.9992 0.9657
8.2361 2.1284 -1.9993 0.9656
7.3784 4.2358 -1.9995 0.9656
6.9711 4.8780 -1.9996 0.9656
6.5075 5.4809 -1.9996 0.9656
5.5374 5.5818 -1.8479 0.9682
5.0173 6.0545 -1.8480 0.9682
3.2341 7.1698 -1.8486 0.9682
1.9075 7.6324 -1.8490 0.9682
1.2185 7.7732 -1.8492 0.9682
0.5196 7.8518 -1.8494 0.9682
-0.1837 7.8678 -1.8496 0.9682
-0.8856 7.8208 -1.8498 0.9682
-3.5691 7.0189 -1.8506 0.9682
-4.7617 6.2733 -1.8510 0.9682
-5.3033 5.8236 -1.8512 0.9682
-5.8027 5.3272 -1.8513 0.9682
-7.5212 3.8628 -1.9872 0.9659
-7.9032 3.2029 -2.0042 0.9656
-8.3474 1.7461 -2.0043 0.9656
-8.5252 0.2334 -2.0044 0.9656
-8.4306 -1.2867 -2.0043 0.9656
-8.2819 -2.0344 -2.0043 0.9656
-8.0669 -2.7657 -2.0042 0.9656
-7.0442 -4.8042 -2.0039 0.9656
-6.5867 -5.4136 -2.0038 0.9656
-6.0764 -5.9797 -2.0036 0.9656
-4.9150 -6.9640 -2.0033 0.9656
-2.1650 -8.2406 -2.0025 0.9656
0.0965 -8.5168 -2.0018 0.9656
0.8565 -8.4732 -2.0015 0.9656
2.3496 -8.1838 -2.0011 0.9656
3.0706 -7.9405 -2.0009 0.9656
5.6539 -6.3605 -2.0001 0.9656
6.1988 -5.8297 -1.9999 0.9656
6.6941 -5.2525 -1.9998 0.9656
7.5207 -3.9774 -1.9995 0.9656
7.8455 -3.2898 -1.9994 0.9656
8.1075 -2.5760 -1.9993 0.9656
8.3049 -1.8416 -1.9993 0.9657
8.4360 -1.0927 -1.9992 0.9657
8.4957 0.4254 -1.9992 0.9657
8.4239 1.1823 -1.9992 0.9657
8.0796 2.6621 -1.9993 0.9656
7.4779 4.0572 -1.9995 0.9656
6.6378 5.3233 -1.9997 0.9656
5.8308 5.6017 -1.9003 0.9673
4.6113 6.3698 -1.8482 0.9682
4.0244 6.7568 -1.8483 0.9682
2.7589 7.3664 -1.8487 0.9682
2.0903 7.5842 -1.8489 0.9682
1.4049 7.7414 -1.8491 0.9682
0.7081 7.8368 -1.8493 0.9682
0.0036 5.1808 -1.2176 0.9789
-0.6974 7.8396 -1.8498 0.9682
-2.7512 7.3769 -1.8504 0.9682
-4.0204 6.7712 -1.8508 0.9682
-4.6094 6.3858 -1.8510 0.9682
-5.6729 5.4650 -1.8513 0.9682
-6.1387 4.9370 -1.8514 0.9681
-6.5555 4.3694 -1.8515 0.9681
-7.1504 3.8922 -1.9133 0.9671
-8.0958 2.6797 -2.0042 0.9656
-8.4438 1.1970 -2.0043 0.9656
-8.3284 -1.8348 -2.0043 0.9656
-8.1310 -2.5711 -2.0042 0.9656
-7.8687 -3.2868 -2.0042 0.9656
-7.5434 -3.9761 -2.0041 0.9656
-5.6724 -6.3636 -2.0035 0.9656
-3.0844 -7.9436 -2.0027 0.9656
-1.6219 -8.3638 -2.0023 0.9656
1.4082 -8.3984 -2.0014 0.9656
2.8790 -8.0122 -2.0009 0.9656
3.5826 -7.7223 -2.0007 0.9656
5.4996 -6.4946 -2.0001 0.9656
6.5661 -5.4119 -1.9998 0.9656
7.4231 -4.1570 -1.9995 0.9656
7.7642 -3.4774 -1.9994 0.9656
8.0434 -2.7701 -1.9993 0.9656
8.2583 -2.0407 -1.9993 0.9656
8.4893 -0.5391 -1.9992 0.9657
8.5035 0.2211 -1.9992 0.9657
8.4499 0.9796 -1.9992 0.9657
8.3288 1.7302 -1.9992 0.9657
8.1412 2.4672 -1.9993 0.9656
7.5731 3.8763 -1.9995 0.9656
4.7629 6.2570 -1.8481 0.9682
2.9350 7.2978 -1.8487 0.9682
2.2719 7.5315 -1.8489 0.9682
1.5904 7.7052 -1.8491 0.9682
-0.5088 7.8539 -1.8497 0.9682
-3.2276 7.1819 -1.8505 0.9682
-3.8564 6.8657 -1.8507 0.9682
-4.4546 6.4945 -1.8509 0.9682
-5.5398 5.5996 -1.8512 0.9682
-6.0182 5.0829 -1.8514 0.9681
-6.4485 4.5255 -1.8515 0.9681
-6.8273 3.9319 -1.8516 0.9681
-4.2646 -6.4548 -2.0031 0.9685
-1.7343 -7.5365 -2.0023 0.9686
-1.0543 -7.6604 -2.0021 0.9686
1.0135 -7.6635 -2.0015 0.9686
3.0075 -7.1186 -2.0009 0.9686
4.2250 -6.4689 -2.0005 0.9686
4.7854 -6.0653 -2.0003 0.9686
6.6041 -4.0051 -1.9998 0.9686
6.9350 -3.3992 -1.9997 0.9686
7.4285 -2.1112 -1.9995 0.9686
7.5871 -1.4394 -1.9995 0.9686
7.4638 1.9823 -1.9995 0.9686
7.2572 2.6410 -1.9996 0.9686
6.6722 3.8901 -1.9997 0.9686
6.2986 4.4706 -1.9999 0.9686
4.0064 5.9085 -1.8483 0.9709
1.0587 7.0633 -1.8492 0.9709
-2.1001 6.8303 -1.8502 0.9709
-3.2823 6.3490 -1.8505 0.9709
-4.3601 5.6649 -1.8509 0.9709
-4.8489 5.2534 -1.8510 0.9709
-7.1924 2.8588 -2.0039 0.9685
-7.4192 2.2052 -2.0040 0.9685
-7.5867 1.5339 -2.0041 0.9685
-7.7387 0.1600 -2.0041 0.9685
-7.6437 -1.2192 -2.0041 0.9685
-6.7322 -3.8175 -2.0038 0.9685
-2.5766 -7.2926 -2.0026 0.9685
-1.9150 -7.4928 -2.0024 0.9686
-1.2381 -7.6331 -2.0022 0.9686
2.1825 -7.4143 -2.0011 0.9686
2.8356 -7.1890 -2.0009 0.9686
4.0684 -6.5688 -2.0006 0.9686
5.6626 -5.2542 -2.0001 0.9686
6.1087 -4.7273 -1.9999 0.9686
6.8514 -3.5649 -1.9997 0.9686
7.1420 -2.9387 -1.9996 0.9686
7.6649 -0.9405 -1.9995 0.9686
7.7099 0.4379 -1.9994 0.9686
7.3185 2.4658 -1.9995 0.9686
6.7637 3.7286 -1.9997 0.9686
5.5149 5.3698 -1.9930 0.9687
4.1471 5.8103 -1.8483 0.9709
3.6121 6.1580 -1.8485 0.9709
0.5950 7.1179 -1.8494 0.9709
-0.0311 5.1603 -1.3361 0.9789
-0.6808 7.1117 -1.8498 0.9709
-1.9354 6.8786 -1.8501 0.9709
-2.5421 6.6789 -1.8503 0.9709
-3.1287 6.4259 -1.8505 0.9709
-3.6903 6.1214 -1.8507 0.9709
-4.7212 5.3682 -1.8510 0.9709
-5.1821 4.9256 -1.8511 0.9709
-6.0133 3.9500 -1.8628 0.9707
-7.3640 2.3828 -2.0040 0.9685
-7.5476 1.7158 -2.0041 0.9685
-7.7326 0.3459 -2.0041 0.9685
-7.7326 -0.3460 -2.0041 0.9685
-7.5476 -1.7160 -2.0041 0.9685
-7.3640 -2.3830 -2.0040 0.9685
-7.1215 -3.0310 -2.0039 0.9685
-6.0625 -4.8093 -2.0036 0.9685
-5.6085 -5.3311 -2.0035 0.9685
-5.1096 -5.8102 -2.0033 0.9685
-3.9939 -6.6253 -2.0030 0.9685
-1.4212 -7.6014 -2.0022 0.9686
-0.7366 -7.6971 -2.0020 0.9686
0.6441 -7.7038 -2.0016 0.9686
1.3294 -7.6147 -2.0014 0.9686
2.6621 -7.2553 -2.0010 0.9686
3.2990 -6.9879 -2.0008 0.9686
3.9095 -6.6648 -2.0006 0.9686
5.0318 -5.8621 -2.0003 0.9686
5.5348 -5.3889 -2.0001 0.9686
5.9935 -4.8728 -2.0000 0.9686
6.4042 -4.3178 -1.9998 0.9686
6.7639 -3.7285 -1.9997 0.9686
7.6648 0.9407 -1.9994 0.9686
7.5503 1.6214 -1.9995 0.9686
7.1419 2.9388 -1.9996 0.9686
6.5059 4.1627 -1.9998 0.9686
6.1085 4.7274 -1.9999 0.9686
5.6507 5.2435 -1.9959 0.9687
4.7778 5.3030 -1.8481 0.9709
4.2855 5.7089 -1.8483 0.9709
2.0164 6.8504 -1.8489 0.9709
1.3968 7.0038 -1.8491 0.9709
0.0931 5.1670 -1.3381 0.9789
-1.1441 7.0525 -1.8499 0.9709
-1.7695 6.9229 -1.8501 0.9709
-2.9733 6.4990 -1.8505 0.9709
-3.5421 6.2082 -1.8506 0.9709
-4.0827 5.8676 -1.8508 0.9709
-4.5907 5.4800 -1.8509 0.9709
-5.0621 5.0486 -1.8511 0.9709
-5.8802 4.0682 -1.8513 0.9709
-7.0465 3.2010 -2.0039 0.9685
-7.3045 2.5591 -2.0040 0.9685
-7.5041 1.8966 -2.0040 0.9685
-7.7221 0.5316 -2.0041 0.9685
-7.5867 -1.5341 -2.0041 0.9685
-7.4192 -2.2054 -2.0040 0.9685
-7.1924 -2.8590 -2.0040 0.9685
-6.9080 -3.4897 -2.0039 0.9685
-6.5685 -4.0924 -2.0038 0.9685
-6.1764 -4.6623 -2.0037 0.9685
-5.7351 -5.1949 -2.0035 0.9685
-5.2479 -5.6859 -2.0034 0.9685
-4.7188 -6.1313 -2.0032 0.9685
-3.5523 -6.8717 -2.0029 0.9685
-2.2728 -7.3926 -2.0025 0.9685
-0.9214 -7.6774 -2.0021 0.9686
-0.2321 -7.7282 -2.0019 0.9686
1.1460 -7.6446 -2.0015 0.9686
1.8239 -7.5110 -2.0012 0.9686
2.4871 -7.3174 -2.0010 0.9686
4.3363 -6.3947 -2.0005 0.9686
6.2987 -4.4706 -1.9999 0.9686
7.6109 -1.3077 -1.9995 0.9686
7.6972 -0.6228 -1.9994 0.9686
7.7220 0.0670 -1.9994 0.9686
7.4284 2.1113 -1.9995 0.9686
7.2104 2.7663 -1.9996 0.9686
6.9348 3.3993 -1.9997 0.9686
6.6039 4.0052 -1.9998 0.9686
6.2202 4.5791 -1.9999 0.9686
4.4213 5.6041 -1.8482 0.9709
3.9035 5.9771 -1.8484 0.9709
3.3545 6.3023 -1.8485 0.9709
2.1804 6.7998 -1.8489 0.9709
0.9362 7.0807 -1.8493 0.9709
0.3002 7.1367 -1.8495 0.9709
-0.3383 7.1358 -1.8497 0.9709
-2.2182 6.7930 -1.8502 0.9709
-3.3918 6.2913 -1.8506 0.9709
-4.4576 5.5886 -1.8509 0.9709
-5.7807 4.2082 -1.8513 0.9709
-7.6121 1.4023 -2.0041 0.9685
-7.7070 0.7170 -2.0041 0.9685
-7.4701 -2.0265 -2.0040 0.9685
-6.9900 -3.3227 -2.0039 0.9685
-4.8649 -6.0163 -2.0033 0.9685
1.6429 -7.5528 -2.0013 0.9686
2.3106 -7.3752 -2.0011 0.9686
5.7527 -5.1553 -2.0000 0.9686
7.4142 -2.1610 -1.9995 0.9686
7.7214 -0.1186 -1.9994 0.9686
7.6194 1.2568 -1.9995 0.9686
6.3284 4.4283 -1.9998 0.9686
4.5546 5.4962 -1.8482 0.9709
4.0459 5.8814 -1.8483 0.9709
3.5049 6.2198 -1.8485 0.9709
2.9358 6.5085 -1.8487 0.9709
2.3431 6.7453 -1.8488 0.9709
-1.4347 6.9995 -1.8500 0.9709
-3.2396 6.3708 -1.8505 0.9709
-4.3219 5.6940 -1.8509 0.9709
-5.2667 4.8351 -1.8512 0.9709
-5.6778 4.3458 -1.8513 0.9709
-7.7375 0.2119 -2.0041 0.9685
-7.6517 -1.1679 -2.0041 0.9685
-7.3216 -2.5102 -2.0040 0.9685
-7.0679 -3.1539 -2.0039 0.9685
-6.3935 -4.3604 -2.0037 0.9685
-5.9782 -4.9136 -2.0036 0.9685
-4.4611 -6.3209 -2.0031 0.9685
-2.6255 -7.2752 -2.0026 0.9685
-1.9652 -7.4798 -2.0024 0.9686
-1.2893 -7.6247 -2.0022 0.9686
0.0876 -7.7308 -2.0018 0.9686
0.7775 -7.6913 -2.0016 0.9686
1.4610 -7.5904 -2.0014 0.9686
2.1328 -7.4288 -2.0012 0.9686
2.7874 -7.2080 -2.0010 0.9686
4.0243 -6.5960 -2.0006 0.9686
4.5968 -6.2097 -2.0004 0.9686
5.1326 -5.7739 -2.0002 0.9686
5.6272 -5.2921 -2.0001 0.9686
6.0769 -4.7682 -1.9999 0.9686
6.8274 -3.6108 -1.9997 0.9686
7.3602 -2.3385 -1.9996 0.9686
7.5394 -1.6719 -1.9995 0.9686
7.6584 -0.9919 -1.9995 0.9686
7.7163 -0.3041 -1.9994 0.9686
7.6474 1.0733 -1.9995 0.9686
7.0900 3.0621 -1.9996 0.9686
6.7885 3.6831 -1.9997 0.9686
6.4329 4.2749 -1.9998 0.9686
5.5531 5.3349 -1.9938 0.9687
4.6852 5.3850 -1.8481 0.9709
4.1860 5.7824 -1.8483 0.9709
3.0912 6.4359 -1.8486 0.9709
2.5044 6.6869 -1.8488 0.9709
0.6427 7.1137 -1.8494 0.9709
0.0036 5.1686 -1.3382 0.9789
-0.6331 7.1160 -1.8497 0.9709
-1.2661 7.0318 -1.8499 0.9709
-1.8892 6.8914 -1.8501 0.9709
-2.4972 6.6958 -1.8503 0.9709
-3.6492 6.1460 -1.8507 0.9709
-4.1838 5.7961 -1.8508 0.9709
-4.6850 5.3998 -1.8510 0.9709
-5.5716 4.4809 -1.8512 0.9709
-5.9499 3.9657 -1.8514 0.9709
-6.7830 3.6923 -1.9996 0.9686
-7.3478 2.4321 -2.0040 0.9685
-7.5359 1.7664 -2.0041 0.9685
-7.7301 0.3977 -2.0041 0.9685
-7.7348 -0.2942 -2.0041 0.9685
-7.6775 -0.9837 -2.0041 0.9685
-7.5589 -1.6653 -2.0041 0.9685
-7.3798 -2.3336 -2.0040 0.9685
-6.8465 -3.6088 -2.0039 0.9685
-6.4965 -4.2055 -2.0038 0.9685
-6.0947 -4.7686 -2.0036 0.9685
-5.1485 -5.7758 -2.0034 0.9685
-3.4326 -6.9321 -2.0028 0.9685
-2.7997 -7.2102 -2.0026 0.9685
-2.1444 -7.4307 -2.0024 0.9685
-1.4722 -7.5917 -2.0022 0.9686
-0.7883 -7.6920 -2.0020 0.9686
0.5925 -7.7080 -2.0016 0.9686
1.2783 -7.6235 -2.0014 0.9686
4.9924 -5.8957 -2.0003 0.9686
5.9607 -4.9129 -2.0000 0.9686
7.3019 -2.5147 -1.9996 0.9686
7.6324 -1.1757 -1.9995 0.9686
7.6709 0.8893 -1.9994 0.9686
7.3907 2.2397 -1.9995 0.9686
7.1614 2.8908 -1.9996 0.9686
6.8750 3.5189 -1.9997 0.9686
4.3236 5.6800 -1.8482 0.9709
2.0623 6.8367 -1.8489 0.9709
1.4437 6.9943 -1.8491 0.9709
0.8134 7.0960 -1.8493 0.9709
0.1275 5.1579 -1.3359 0.9789
-1.0967 7.0600 -1.8499 0.9709
-2.3356 6.7537 -1.8503 0.9709
-2.9296 6.5188 -1.8504 0.9709
-4.0432 5.8948 -1.8508 0.9709
-5.4623 4.6134 -1.8512 0.9709
-6.6836 3.8492 -1.9970 0.9686
-1.5862 -6.8927 -2.0023 0.9710
-0.3347 -7.0636 -2.0019 0.9710
0.2973 -7.0646 -2.0017 0.9710
0.9269 -7.0091 -2.0015 0.9710
1.5490 -6.8977 -2.0013 0.9710
2.7507 -6.5110 -2.0010 0.9710
3.3209 -6.2388 -2.0008 0.9710
3.8644 -5.9168 -2.0006 0.9710
4.3770 -5.5477 -2.0005 0.9711
5.6897 -4.1884 -2.0001 0.9711
6.0406 -3.6634 -2.0000 0.9711
6.3433 -3.1092 -1.9999 0.9711
6.7948 -1.9311 -1.9997 0.9711
6.9399 -1.3166 -1.9997 0.9711
7.0633 -0.0611 -1.9996 0.9711
6.9616 1.1963 -1.9997 0.9711
6.8271 1.8132 -1.9997 0.9711
6.6381 2.4157 -1.9998 0.9711
6.1030 3.5582 -1.9999 0.9711
5.7611 4.0892 -2.0000 0.9711
5.3733 4.5876 -2.0001 0.9711
4.9270 5.0336 -1.9940 0.9711
3.1675 5.7103 -1.8486 0.9732
2.1016 6.1838 -1.8489 0.9732
0.9683 6.4602 -1.8493 0.9732
-0.7788 6.4876 -1.8498 0.9732
-1.9207 6.2468 -1.8501 0.9732
-2.4711 6.0509 -1.8503 0.9732
-3.0018 5.8066 -1.8505 0.9732
-3.5086 5.5158 -1.8506 0.9732
-4.8462 4.3895 -1.8510 0.9732
-6.3176 3.1912 -2.0037 0.9710
-6.5776 2.6144 -2.0038 0.9710
-6.7850 2.0167 -2.0038 0.9710
-6.9381 1.4028 -2.0039 0.9710
-7.0358 0.7777 -2.0039 0.9710
-7.0771 0.1463 -2.0039 0.9710
-7.0619 -0.4863 -2.0039 0.9710
-6.8626 -1.7347 -2.0039 0.9710
-6.6801 -2.3405 -2.0038 0.9710
-6.1568 -3.4912 -2.0037 0.9710
-4.0410 -5.8080 -2.0030 0.9710
-3.5060 -6.1451 -2.0029 0.9710
-2.9429 -6.4331 -2.0027 0.9710
-0.5044 -7.0537 -2.0020 0.9710
0.7583 -7.0296 -2.0016 0.9710
1.9962 -6.7813 -2.0012 0.9710
2.5936 -6.5754 -2.0010 0.9710
3.1701 -6.3170 -2.0008 0.9710
4.2425 -5.6514 -2.0005 0.9711
5.9509 -3.8075 -2.0000 0.9711
6.2669 -3.2607 -1.9999 0.9711
6.5327 -2.6880 -1.9998 0.9711
6.7464 -2.0938 -1.9997 0.9711
6.9063 -1.4830 -1.9997 0.9711
7.0110 -0.8603 -1.9997 0.9711
7.0598 -0.2308 -1.9996 0.9711
6.9883 1.0287 -1.9997 0.9711
6.6941 2.2555 -1.9997 0.9711
6.4662 2.8443 -1.9998 0.9711
5.4819 4.4571 -2.0001 0.9711
5.0531 4.9201 -1.9966 0.9711
3.7932 5.3145 -1.8484 0.9732
2.7878 5.9054 -1.8487 0.9732
2.2496 6.1313 -1.8489 0.9732
1.6932 6.3083 -1.8490 0.9732
1.1232 6.4349 -1.8492 0.9732
0.5442 6.5101 -1.8494 0.9732
-0.6226 6.5043 -1.8497 0.9732
-3.3750 5.5984 -1.8506 0.9732
-3.8618 5.2750 -1.8507 0.9732
-5.1228 4.0637 -1.8511 0.9732
-5.8957 3.8728 -1.9969 0.9711
-6.5128 2.7717 -2.0037 0.9710
-6.7345 2.1792 -2.0038 0.9710
-7.0150 0.9465 -2.0039 0.9710
-7.0716 0.3163 -2.0039 0.9710
-7.0716 -0.3164 -2.0039 0.9710
-6.7345 -2.1793 -2.0038 0.9710
-6.5128 -2.7719 -2.0038 0.9710
-6.2390 -3.3422 -2.0037 0.9710
-4.6730 -5.3137 -2.0032 0.9710
-3.6527 -6.0592 -2.0029 0.9710
-3.0967 -6.3607 -2.0027 0.9710
-1.9156 -6.8089 -2.0024 0.9710
1.2159 -6.9645 -2.0014 0.9710
1.8327 -6.8275 -2.0012 0.9710
3.0175 -6.3914 -2.0009 0.9710
3.5758 -6.0959 -2.0007 0.9710
4.6024 -5.3618 -2.0004 0.9711
5.0625 -4.9291 -2.0003 0.9711
6.4663 -2.8442 -1.9998 0.9711
6.6942 -2.2553 -1.9998 0.9711
6.8687 -1.6485 -1.9997 0.9711
6.9883 -1.0285 -1.9997 0.9711
7.0522 -0.4004 -1.9996 0.9711
7.0597 0.2310 -1.9996 0.9711
6.9062 1.4831 -1.9997 0.9711
6.7464 2.0939 -1.9997 0.9711
6.5326 2.6881 -1.9998 0.9711
6.2667 3.2608 -1.9999 0.9711
5.9508 3.8076 -2.0000 0.9711
4.4510 4.9403 -1.8825 0.9727
3.4381 5.5513 -1.8485 0.9732
2.3962 6.0753 -1.8488 0.9732
0.7004 6.4950 -1.8493 0.9732
-0.4662 6.5172 -1.8497 0.9732
-1.6183 6.3316 -1.8500 0.9732
-2.1774 6.1623 -1.8502 0.9732
-3.7338 5.3662 -1.8507 0.9732
-5.0236 4.1856 -1.8511 0.9732
-5.7019 3.9448 -1.9628 0.9716
-6.1557 3.4904 -2.0033 0.9710
-6.6801 2.3403 -2.0038 0.9710
-6.8626 1.7345 -2.0038 0.9710
-7.0772 -0.1464 -2.0039 0.9710
-7.0358 -0.7778 -2.0039 0.9710
-6.9381 -1.4030 -2.0039 0.9710
-6.7850 -2.0169 -2.0038 0.9710
-6.3175 -3.1914 -2.0037 0.9710
-6.0071 -3.7426 -2.0036 0.9710
-5.6485 -4.2639 -2.0035 0.9710
-4.7994 -5.2000 -2.0032 0.9710
-3.2488 -6.2846 -2.0028 0.9710
-2.6744 -6.5490 -2.0026 0.9710
-0.8427 -7.0217 -2.0021 0.9710
-0.2123 -7.0682 -2.0019 0.9710
0.4197 -7.0583 -2.0017 0.9710
1.0482 -6.9919 -2.0015 0.9710
1.6682 -6.8697 -2.0013 0.9710
2.8631 -6.4623 -2.0009 0.9710
3.4284 -6.1802 -2.0008 0.9710
3.9663 -5.8489 -2.0006 0.9710
5.7613 -4.0891 -2.0000 0.9711
6.1031 -3.5581 -1.9999 0.9711
6.9616 -1.1962 -1.9997 0.9711
7.0296 0.6917 -1.9996 0.9711
6.9398 1.3167 -1.9997 0.9711
6.5953 2.5303 -1.9998 0.9711
6.0405 3.6635 -1.9999 0.9711
5.2931 4.6800 -2.0002 0.9711
4.7836 5.0595 -1.9711 0.9715
3.5704 5.4669 -1.8485 0.9732
1.9942 6.2193 -1.8490 0.9732
0.2746 6.5273 -1.8495 0.9732
-3.1020 5.7538 -1.8505 0.9732
-3.6037 5.4543 -1.8506 0.9732
-4.0767 5.1111 -1.8508 0.9732
-4.5171 4.7269 -1.8509 0.9732
-4.9215 4.3050 -1.8511 0.9732
-5.4479 3.9660 -1.9077 0.9724
-7.0786 0.0237 -2.0039 0.9710
-7.0524 -0.6085 -2.0039 0.9710
-6.9698 -1.2358 -2.0039 0.9710
-6.6385 -2.4558 -2.0038 0.9710
-6.3925 -3.0387 -2.0037 0.9710
-6.0953 -3.5972 -2.0036 0.9710
-5.3577 -4.6236 -2.0034 0.9710
-4.9230 -5.0832 -2.0033 0.9710
-3.9397 -5.8770 -2.0030 0.9710
-2.8310 -6.4830 -2.0027 0.9710
-2.2406 -6.7093 -2.0025 0.9710
-1.6324 -6.8820 -2.0023 0.9710
-0.3821 -7.0612 -2.0019 0.9710
0.2500 -7.0665 -2.0017 0.9710
1.5027 -6.9080 -2.0013 0.9710
2.1133 -6.7456 -2.0012 0.9710
2.7070 -6.5294 -2.0010 0.9710
3.8247 -5.9427 -2.0006 0.9710
4.8200 -5.1668 -2.0003 0.9711
5.2618 -4.7154 -2.0002 0.9711
5.6615 -4.2264 -2.0001 0.9711
6.0160 -3.7038 -2.0000 0.9711
6.3224 -3.1516 -1.9999 0.9711
6.5783 -2.5744 -1.9998 0.9711
6.7817 -1.9766 -1.9997 0.9711
7.0248 -0.7387 -1.9996 0.9711
6.8391 1.7674 -1.9997 0.9711
6.4160 2.9559 -1.9998 0.9711
6.1267 3.5172 -1.9999 0.9711
5.7884 4.0504 -2.0000 0.9711
4.9624 5.0022 -1.9947 0.9711
4.1659 5.0271 -1.8483 0.9732
3.7006 5.3795 -1.8484 0.9732
3.2058 5.6889 -1.8486 0.9732
2.6852 5.9530 -1.8487 0.9732
1.0116 6.4535 -1.8492 0.9732
-0.1203 5.1534 -1.4593 0.9788
-0.7352 6.4927 -1.8498 0.9732
-1.3122 6.4017 -1.8500 0.9732
-1.8788 6.2595 -1.8501 0.9732
-3.4715 5.5391 -1.8506 0.9732
-3.9526 5.2074 -1.8508 0.9732
-4.4022 4.8340 -1.8509 0.9732
-5.2091 3.9871 -1.8571 0.9731
-5.9668 3.7732 -1.9986 0.9711
-6.2960 3.2335 -2.0037 0.9710
-6.5598 2.6585 -2.0038 0.9710
-6.9285 1.4493 -2.0039 0.9710
-7.0760 0.1937 -2.0039 0.9710
-6.9976 -1.0680 -2.0039 0.9710
-6.6957 -2.2956 -2.0038 0.9710
-6.1801 -3.4498 -2.0037 0.9710
-5.8470 -3.9877 -2.0036 0.9710
-5.4673 -4.4936 -2.0034 0.9710
-4.0799 -5.7808 -2.0030 0.9710
-2.9860 -6.4133 -2.0027 0.9710
-2.4012 -6.6537 -2.0025 0.9710
-1.7973 -6.8409 -2.0023 0.9710
-1.1791 -6.9734 -2.0022 0.9710
-0.5517 -7.0502 -2.0020 0.9710
0.0801 -7.0706 -2.0018 0.9710
0.7111 -7.0346 -2.0016 0.9710
1.3363 -6.9423 -2.0014 0.9710
2.5494 -6.5927 -2.0010 0.9710
3.1277 -6.3381 -2.0008 0.9710
3.6808 -6.0330 -2.0007 0.9710
4.2045 -5.6797 -2.0005 0.9710
5.1471 -4.8406 -2.0002 0.9711
6.5146 -2.7317 -1.9998 0.9711
6.8962 -1.5293 -1.9997 0.9711
7.0547 0.3532 -1.9996 0.9711
6.9950 0.9818 -1.9997 0.9711
6.8795 1.6025 -1.9997 0.9711
6.7091 2.2105 -1.9997 0.9711
6.4851 2.8009 -1.9998 0.9711
6.2094 3.3689 -1.9999 0.9711
5.8840 3.9101 -2.0000 0.9711
4.2854 4.9255 -1.8483 0.9732
3.3415 5.6101 -1.8485 0.9732
2.8274 5.8866 -1.8487 0.9732
1.7355 6.2967 -1.8490 0.9732
0.5878 6.5062 -1.8494 0.9732
0.0036 5.1563 -1.4597 0.9788
-0.5790 6.5083 -1.8497 0.9732
-1.1579 6.4312 -1.8499 0.9732
-2.2839 6.1238 -1.8502 0.9732
-2.8219 5.8959 -1.8504 0.9732
-4.7089 4.5363 -1.8510 0.9732
-5.0954 4.0980 -1.8511 0.9732
-6.2164 3.3838 -2.0036 0.9710
-7.0085 0.9935 -2.0039 0.9710
-7.0693 0.3637 -2.0039 0.9710
-6.7490 -2.1341 -2.0038 0.9710
-6.2613 -3.3003 -2.0037 0.9710
-5.9413 -3.8461 -2.0036 0.9710
-3.6933 -6.0346 -2.0029 0.9710
-1.3464 -6.9433 -2.0022 0.9710
-0.7209 -7.0351 -2.0020 0.9710
-0.0898 -7.0707 -2.0018 0.9710
0.5419 -7.0498 -2.0016 0.9710
1.1691 -6.9726 -2.0014 0.9710
1.7869 -6.8397 -2.0013 0.9710
2.3903 -6.6522 -2.0011 0.9710
2.9745 -6.4116 -2.0009 0.9710
3.5349 -6.1198 -2.0007 0.9710
4.0669 -5.7793 -2.0006 0.9710
4.5664 -5.3926 -2.0004 0.9711
5.0293 -4.9629 -2.0003 0.9711
5.4521 -4.4937 -2.0001 0.9711
5.8312 -3.9887 -2.0000 0.9711
6.4471 -2.8875 -1.9998 0.9711
6.6790 -2.3002 -1.9998 0.9711
7.0493 -0.4477 -1.9996 0.9711
6.2884 3.2187 -1.9999 0.9711
4.5350 4.9661 -1.9038 0.9724
3.4752 5.5281 -1.8485 0.9732
1.8862 6.2531 -1.8490 0.9732
0.1272 5.1467 -1.4574 0.9788
-1.5758 6.3423 -1.8500 0.9732
-3.6977 5.3911 -1.8507 0.9732
-4.1647 5.0398 -1.8508 0.9732
-4.5984 4.6481 -1.8510 0.9732
-4.9954 4.2191 -1.8511 0.9732
-6.1301 3.5304 -2.0026 0.9710
-6.4244 2.9705 -2.0037 0.9710
-3.0898 -5.7315 -2.0027 0.9731
-2.5655 -5.9840 -2.0026 0.9731
-2.0207 -6.1887 -2.0024 0.9731
0.2737 -6.5022 -2.0017 0.9731
0.8531 -6.4512 -2.0015 0.9731
1.4257 -6.3487 -2.0014 0.9731
1.9868 -6.1955 -2.0012 0.9731
4.4683 -4.7258 -2.0004 0.9731
4.8722 -4.3077 -2.0003 0.9732
5.8388 -2.8619 -2.0000 0.9732
6.0708 -2.3290 -1.9999 0.9732
6.2544 -1.7775 -1.9999 0.9732
5.8873 2.7604 -2.0000 0.9732
4.9459 4.2227 -2.0003 0.9732
4.5432 4.6415 -1.9977 0.9732
3.3729 4.9742 -1.8485 0.9752
2.9155 5.2559 -1.8487 0.9752
1.4185 5.8421 -1.8491 0.9752
0.8913 5.9460 -1.8493 0.9752
-0.7168 5.9711 -1.8498 0.9751
-1.7678 5.7494 -1.8501 0.9751
-2.2743 5.5690 -1.8502 0.9751
-3.2292 5.0764 -1.8505 0.9751
-4.0813 4.4217 -1.8508 0.9751
-4.4601 4.0398 -1.8509 0.9751
-5.1810 3.9107 -1.9966 0.9732
-5.5285 3.4443 -2.0034 0.9731
-5.8142 2.9370 -2.0035 0.9731
-6.2443 1.8560 -2.0037 0.9731
-6.3852 1.2910 -2.0037 0.9731
-6.4992 -0.4475 -2.0037 0.9731
-6.4332 -1.0261 -2.0037 0.9731
-6.3158 -1.5964 -2.0037 0.9731
-5.0038 -4.1693 -2.0033 0.9731
-4.6113 -4.5992 -2.0032 0.9731
-4.1819 -4.9922 -2.0031 0.9731
-3.7191 -5.3454 -2.0029 0.9731
-3.2267 -5.6557 -2.0028 0.9731
-1.6119 -6.3071 -2.0023 0.9731
-1.0422 -6.4253 -2.0021 0.9731
-0.4642 -6.4921 -2.0019 0.9731
0.1174 -6.5071 -2.0018 0.9731
1.2728 -6.3813 -2.0014 0.9731
1.8374 -6.2416 -2.0012 0.9731
2.9178 -5.8143 -2.0009 0.9731
3.4251 -5.5301 -2.0008 0.9731
3.9050 -5.2017 -2.0006 0.9731
4.7674 -4.4236 -2.0003 0.9732
5.4776 -3.5046 -2.0001 0.9732
6.0132 -2.4742 -2.0000 0.9732
6.2099 -1.9273 -1.9999 0.9732
6.3570 -1.3650 -1.9999 0.9732
6.4983 -0.2125 -1.9998 0.9732
6.4325 0.9469 -1.9998 0.9732
6.3224 1.5175 -1.9999 0.9732
5.9519 2.6181 -2.0000 0.9732
5.6946 3.1392 -2.0000 0.9732
4.6588 4.5362 -2.0000 0.9732
3.0409 5.1843 -1.8486 0.9752
2.5660 5.4355 -1.8488 0.9752
2.0705 5.6434 -1.8489 0.9752
-0.0309 5.1411 -1.5813 0.9787
-1.1054 5.9119 -1.8499 0.9751
-1.6291 5.7901 -1.8501 0.9751
-2.1398 5.6219 -1.8502 0.9751
-3.1062 5.1525 -1.8505 0.9751
-3.9738 4.5184 -1.8508 0.9751
-5.0098 3.9741 -1.9669 0.9736
-5.4406 3.5738 -2.0022 0.9731
-6.1979 2.0055 -2.0036 0.9731
-6.3524 1.4441 -2.0037 0.9731
-6.4560 0.8711 -2.0037 0.9731
-6.3523 -1.4442 -2.0037 0.9731
-5.7419 -3.0759 -2.0035 0.9731
-3.8466 -5.2545 -2.0030 0.9731
-2.8501 -5.8541 -2.0027 0.9731
-2.3158 -6.0847 -2.0025 0.9731
-1.7630 -6.2667 -2.0023 0.9731
-1.1963 -6.3985 -2.0022 0.9731
-0.6201 -6.4793 -2.0020 0.9731
1.6869 -6.2841 -2.0013 0.9731
3.7789 -5.2942 -2.0006 0.9731
4.6598 -4.5369 -2.0004 0.9731
5.9520 -2.6180 -2.0000 0.9732
6.1618 -2.0759 -1.9999 0.9732
6.4325 -0.9467 -1.9998 0.9732
6.4913 -0.3685 -1.9998 0.9732
6.4534 0.7920 -1.9998 0.9732
6.0131 2.4743 -1.9999 0.9732
5.7683 3.0015 -2.0000 0.9732
5.1429 3.9800 -2.0002 0.9732
3.1645 5.1096 -1.8486 0.9752
2.2055 5.5919 -1.8489 0.9752
1.6975 5.7670 -1.8490 0.9752
1.1758 5.8960 -1.8492 0.9752
0.0927 5.1481 -1.5837 0.9787
-0.9631 5.9366 -1.8498 0.9751
-2.5027 5.4704 -1.8503 0.9751
-3.8640 4.6125 -1.8507 0.9751
-4.7922 3.9927 -1.9185 0.9742
-5.3476 3.6997 -2.0001 0.9732
-6.1478 2.1538 -2.0036 0.9731
-6.3158 1.5963 -2.0037 0.9731
-6.4332 1.0260 -2.0037 0.9731
-6.4992 0.4474 -2.0037 0.9731
-6.4751 -0.7158 -2.0037 0.9731
-6.2443 -1.8562 -2.0037 0.9731
-6.0534 -2.4063 -2.0036 0.9731
-5.8142 -2.9371 -2.0035 0.9731
-5.5284 -3.4444 -2.0035 0.9731
-5.1985 -3.9242 -2.0034 0.9731
-4.8271 -4.3724 -2.0033 0.9731
-3.9718 -5.1607 -2.0030 0.9731
-3.4948 -5.4944 -2.0029 0.9731
-2.9900 -5.7840 -2.0027 0.9731
-2.4614 -6.0275 -2.0025 0.9731
-0.7756 -6.4626 -2.0020 0.9731
0.3863 -6.4964 -2.0017 0.9731
1.5354 -6.3230 -2.0013 0.9731
2.0937 -6.1601 -2.0012 0.9731
3.1556 -5.6885 -2.0008 0.9731
4.1166 -5.0357 -2.0005 0.9731
4.9460 -4.2226 -2.0003 0.9732
5.6177 -3.2751 -2.0001 0.9732
5.8875 -2.7603 -2.0000 0.9732
6.1102 -2.2234 -1.9999 0.9732
6.2842 -1.6689 -1.9999 0.9732
6.4806 -0.5244 -1.9998 0.9732
6.5015 0.0564 -1.9998 0.9732
5.5600 3.3721 -2.0001 0.9732
3.2863 5.0320 -1.8486 0.9752
2.8241 5.3057 -1.8487 0.9752
2.3392 5.5372 -1.8488 0.9752
0.2527 6.0077 -1.8495 0.9751
-0.2848 6.0068 -1.8496 0.9751
-0.8201 5.9579 -1.8498 0.9751
-1.3490 5.8614 -1.8500 0.9751
-1.8672 5.7180 -1.8501 0.9751
-2.3705 5.5289 -1.8503 0.9751
-3.3167 5.0198 -1.8506 0.9751
-3.7520 4.7039 -1.8507 0.9751
-4.1573 4.3504 -1.8508 0.9751
-4.5847 4.0104 -1.8735 0.9748
-5.2518 3.8232 -1.9980 0.9732
-5.5873 3.3480 -2.0035 0.9731
-6.0943 2.3009 -2.0036 0.9731
-6.4866 0.6034 -2.0037 0.9731
-6.4145 -1.1374 -2.0037 0.9731
-6.1096 -2.2601 -2.0036 0.9731
-5.8831 -2.7966 -2.0036 0.9731
-5.2914 -3.7982 -2.0034 0.9731
-4.5309 -4.6783 -2.0032 0.9731
-4.0947 -5.0639 -2.0030 0.9731
-3.1282 -5.7107 -2.0027 0.9731
-2.0622 -6.1750 -2.0024 0.9731
-0.3517 -6.4991 -2.0019 0.9731
1.3831 -6.3582 -2.0014 0.9731
1.9452 -6.2087 -2.0012 0.9731
2.4916 -6.0097 -2.0010 0.9731
3.5203 -5.4698 -2.0007 0.9731
3.9944 -5.1333 -2.0006 0.9731
5.2111 -3.8902 -2.0002 0.9732
5.5374 -3.4092 -2.0001 0.9732
5.8195 -2.9010 -2.0000 0.9732
6.2423 -1.8194 -1.9999 0.9732
6.3797 -1.2547 -1.9998 0.9732
6.5010 -0.0999 -1.9998 0.9732
6.4840 0.4811 -1.9998 0.9732
6.4152 1.0582 -1.9998 0.9732
6.1249 2.1825 -1.9999 0.9732
5.9057 2.7208 -2.0000 0.9732
3.4062 4.9515 -1.8485 0.9752
2.9507 5.2362 -1.8487 0.9752
2.4715 5.4792 -1.8488 0.9752
1.9725 5.6785 -1.8490 0.9752
0.9311 5.9398 -1.8493 0.9752
0.3970 5.9998 -1.8494 0.9752
-0.6767 5.9758 -1.8498 0.9751
-1.2077 5.8920 -1.8499 0.9751
-2.2369 5.5841 -1.8502 0.9751
-3.6378 4.7926 -1.8507 0.9751
-4.4329 4.0697 -1.8509 0.9751
-5.7943 2.9759 -2.0035 0.9731
-6.0372 2.4467 -2.0036 0.9731
-6.2317 1.8979 -2.0037 0.9731
-6.3764 1.3338 -2.0037 0.9731
-6.4702 0.7591 -2.0037 0.9731
-6.4400 -0.9829 -2.0037 0.9731
-6.3263 -1.5540 -2.0037 0.9731
-6.1622 -2.1127 -2.0036 0.9731
-5.9487 -2.6544 -2.0036 0.9731
-5.6877 -3.1749 -2.0035 0.9731
-5.3812 -3.6700 -2.0034 0.9731
-4.2153 -4.9641 -2.0031 0.9731
-3.7549 -5.3203 -2.0029 0.9731
-3.2646 -5.6340 -2.0028 0.9731
-2.2100 -6.1238 -2.0025 0.9731
-0.5078 -6.4889 -2.0019 0.9731
0.0737 -6.5078 -2.0018 0.9731
1.2299 -6.3897 -2.0014 0.9731
2.3465 -6.0680 -2.0011 0.9731
3.3880 -5.5530 -2.0008 0.9731
4.3211 -4.8611 -2.0005 0.9731
4.7376 -4.4555 -2.0004 0.9732
5.7482 -3.0400 -2.0000 0.9732
5.9964 -2.5145 -2.0000 0.9732
6.1968 -1.9689 -1.9999 0.9732
6.3477 -1.4076 -1.9999 0.9732
6.3324 1.4751 -1.9999 0.9732
5.7155 3.1010 -2.0000 0.9732
5.0732 4.0686 -2.0002 0.9732
4.6899 4.5056 -2.0003 0.9732
4.2074 4.8358 -1.9716 0.9735
2.1083 5.6293 -1.8489 0.9752
1.0735 5.9156 -1.8492 0.9752
0.5410 5.9884 -1.8494 0.9752
-1.5902 5.8008 -1.8500 0.9751
-2.5971 5.4264 -1.8503 0.9751
-5.9766 2.5910 -2.0036 0.9731
-6.4500 0.9144 -2.0037 0.9731
-6.5099 -0.2476 -2.0037 0.9731
-6.3619 -1.4016 -2.0037 0.9731
-6.2112 -1.9641 -2.0037 0.9731
-6.0108 -2.5108 -2.0036 0.9731
-5.7624 -3.0374 -2.0035 0.9731
-5.4679 -3.5396 -2.0034 0.9731
-4.7506 -4.4553 -2.0032 0.9731
-4.3334 -4.8615 -2.0031 0.9731
-3.8817 -5.2287 -2.0030 0.9731
-3.3991 -5.5540 -2.0028 0.9731
-2.8893 -5.8349 -2.0027 0.9731
-2.3566 -6.0691 -2.0025 0.9731
-1.2392 -6.3904 -2.0022 0.9731
-0.0827 -6.5078 -2.0018 0.9731
2.2001 -6.1228 -2.0011 0.9731
2.7378 -5.9014 -2.0010 0.9731
3.2536 -5.6329 -2.0008 0.9731
3.7434 -5.3194 -2.0007 0.9731
4.6293 -4.5681 -2.0004 0.9731
5.0184 -4.1362 -2.0003 0.9732
5.3674 -3.6714 -2.0002 0.9732
5.6735 -3.1773 -2.0001 0.9732
5.9344 -2.6578 -2.0000 0.9732
6.1478 -2.1172 -1.9999 0.9732
6.3121 -1.5598 -1.9999 0.9732
6.4261 -0.9898 -1.9998 0.9732
6.4887 -0.4121 -1.9998 0.9732
6.4996 0.1690 -1.9998 0.9732
6.3660 1.3225 -1.9998 0.9732
6.0295 2.4339 -1.9999 0.9732
5.5008 3.4679 -2.0001 0.9732
5.1694 3.9454 -2.0002 0.9732
4.7967 4.3915 -2.0003 0.9732
4.3726 4.7883 -1.9944 0.9732
3.6400 4.7819 -1.8485 0.9752
2.2429 5.5769 -1.8489 0.9752
1.2153 5.8880 -1.8492 0.9752
0.1270 5.1353 -1.5800 0.9787
-0.3888 6.0011 -1.8497 0.9751
-0.9232 5.9429 -1.8498 0.9751
-1.4503 5.8372 -1.8500 0.9751
-1.9659 5.6849 -1.8502 0.9751
-2.9463 5.2454 -1.8505 0.9751
-3.8329 4.6383 -1.8507 0.9751
-5.3211 3.7344 -1.9995 0.9732
-5.6446 3.2508 -2.0035 0.9731
-3.3213 -5.0271 -2.0028 0.9749
-1.3508 -5.8700 -2.0022 0.9749
-0.2851 -6.0157 -2.0019 0.9749
0.2532 -6.0166 -2.0017 0.9749
1.3192 -5.8746 -2.0014 0.9749
2.3428 -5.5454 -2.0011 0.9749
2.8284 -5.3137 -2.0009 0.9749
3.2914 -5.0395 -2.0008 0.9749
4.5085 -3.9862 -2.0004 0.9750
4.8462 -3.5675 -2.0003 0.9750
5.1452 -3.1203 -2.0002 0.9750
5.9113 -1.1214 -2.0000 0.9750
5.9970 0.4854 -2.0000 0.9750
5.9298 1.0190 -2.0000 0.9750
5.8152 1.5445 -2.0000 0.9750
5.6542 2.0576 -2.0001 0.9750
5.4480 2.5544 -2.0001 0.9750
5.1983 3.0308 -2.0002 0.9750
4.9071 3.4830 -2.0003 0.9750
2.2529 5.0854 -1.8489 0.9768
1.7900 5.2667 -1.8490 0.9768
1.3126 5.4059 -1.8492 0.9768
-1.1540 5.4442 -1.8499 0.9768
-1.6357 5.3199 -1.8501 0.9768
-2.1044 5.1529 -1.8502 0.9768
-2.9879 4.6971 -1.8505 0.9768
-3.3956 4.4118 -1.8506 0.9768
-3.7762 4.0912 -1.8507 0.9768
-5.1152 3.1868 -2.0033 0.9749
-5.6009 2.2263 -2.0035 0.9749
-5.9911 0.6622 -2.0036 0.9749
-6.0263 0.1246 -2.0036 0.9749
-5.9523 -0.9494 -2.0036 0.9749
-5.6883 -1.9930 -2.0035 0.9749
-5.2427 -2.9728 -2.0034 0.9749
-4.9561 -3.4290 -2.0033 0.9749
-4.2666 -4.2554 -2.0031 0.9749
-3.8694 -4.6191 -2.0030 0.9749
0.1086 -6.0211 -2.0018 0.9749
0.6458 -5.9868 -2.0016 0.9749
1.7002 -5.7756 -2.0013 0.9749
2.2089 -5.6002 -2.0011 0.9749
4.0286 -4.4713 -2.0006 0.9750
4.4115 -4.0934 -2.0005 0.9750
4.7592 -3.6829 -2.0003 0.9750
5.3379 -2.7774 -2.0002 0.9750
5.9719 -0.7328 -2.0000 0.9750
6.0134 -0.1966 -2.0000 0.9750
5.9525 0.8762 -2.0000 0.9750
5.8506 1.4043 -2.0000 0.9750
5.7019 1.9212 -2.0000 0.9750
5.5077 2.4227 -2.0001 0.9750
5.2696 2.9050 -2.0002 0.9750
4.3118 4.1983 -2.0005 0.9750
3.9103 4.5557 -1.9957 0.9750
2.8139 4.7972 -1.8487 0.9768
2.3744 5.0297 -1.8488 0.9768
1.4421 5.3727 -1.8491 0.9768
0.9566 5.4804 -1.8493 0.9768
-0.5303 5.5393 -1.8497 0.9768
-2.4367 5.0047 -1.8503 0.9768
-4.2239 4.0148 -1.9371 0.9757
-4.7130 3.7386 -1.9997 0.9750
-5.3127 2.8459 -2.0034 0.9749
-5.5458 2.3602 -2.0034 0.9749
-5.7346 1.8556 -2.0035 0.9749
-5.8775 1.3361 -2.0036 0.9749
-5.7345 -1.8557 -2.0035 0.9749
-5.0371 -3.3089 -2.0033 0.9749
-4.3677 -4.1517 -2.0031 0.9749
-2.6372 -5.4167 -2.0026 0.9749
-1.6313 -5.7985 -2.0023 0.9749
-0.5738 -5.9953 -2.0020 0.9749
0.5017 -6.0007 -2.0016 0.9749
1.5609 -5.8149 -2.0013 0.9749
2.5700 -5.4436 -2.0010 0.9749
3.0456 -5.1920 -2.0009 0.9749
4.3120 -4.1983 -2.0005 0.9750
4.6694 -3.7963 -2.0004 0.9750
4.9895 -3.3640 -2.0003 0.9750
5.5078 -2.4226 -2.0001 0.9750
5.9525 -0.8761 -2.0000 0.9750
6.0134 0.1967 -2.0000 0.9750
5.7464 1.7836 -2.0000 0.9750
5.5643 2.2896 -2.0001 0.9750
5.3378 2.7775 -2.0001 0.9750
4.7590 3.6830 -2.0003 0.9750
4.4114 4.0935 -2.0004 0.9750
3.4626 4.6127 -1.9172 0.9760
2.9283 4.7282 -1.8487 0.9768
2.4945 4.9711 -1.8488 0.9768
0.5965 5.5315 -1.8494 0.9768
0.0925 5.1355 -1.7074 0.9786
-0.3970 5.5503 -1.8497 0.9768
-1.3782 5.3921 -1.8500 0.9768
-1.8543 5.2479 -1.8501 0.9768
-2.3157 5.0617 -1.8503 0.9768
-2.7587 4.8351 -1.8504 0.9768
-3.1796 4.5697 -1.8505 0.9768
-4.6177 3.8473 -1.9979 0.9750
-5.4874 2.4928 -2.0034 0.9749
-6.0133 0.4139 -2.0036 0.9749
-6.0263 -0.1247 -2.0036 0.9749
-5.9079 -1.1946 -2.0036 0.9749
-5.7775 -1.7174 -2.0035 0.9749
-5.3796 -2.7176 -2.0034 0.9749
-4.8100 -3.6308 -2.0032 0.9749
-4.4663 -4.0456 -2.0031 0.9749
-2.7666 -5.3519 -2.0026 0.9749
-2.2775 -5.5771 -2.0025 0.9749
-1.2489 -5.8924 -2.0022 0.9749
-0.7177 -5.9799 -2.0020 0.9749
0.8927 -5.9548 -2.0015 0.9749
1.4208 -5.8508 -2.0014 0.9749
3.3782 -4.9817 -2.0008 0.9749
4.2099 -4.3008 -2.0005 0.9750
4.5769 -3.9074 -2.0004 0.9750
4.9073 -3.4829 -2.0003 0.9750
5.9298 -1.0189 -2.0000 0.9750
5.7876 1.6450 -2.0000 0.9750
4.8461 3.5675 -2.0003 0.9750
3.6750 4.6582 -1.9723 0.9753
3.0410 4.6563 -1.8486 0.9768
2.1645 5.1237 -1.8489 0.9768
1.2188 5.4279 -1.8492 0.9768
0.7293 5.5155 -1.8493 0.9768
0.2166 5.1488 -1.7130 0.9785
-0.7589 5.5129 -1.8498 0.9768
-1.2482 5.4235 -1.8499 0.9768
-2.1934 5.1158 -1.8502 0.9768
-2.6416 4.8999 -1.8504 0.9768
-3.4716 4.3524 -1.8506 0.9768
-4.5199 3.9537 -1.9961 0.9750
-4.8713 3.5462 -2.0029 0.9749
-5.4259 2.6239 -2.0034 0.9749
-5.6387 2.1289 -2.0035 0.9749
-6.0053 -0.5182 -2.0036 0.9749
-5.9349 -1.0523 -2.0036 0.9749
-5.1904 -3.0632 -2.0034 0.9749
-4.8959 -3.5143 -2.0033 0.9749
-4.1922 -4.3286 -2.0031 0.9749
-2.8945 -5.2839 -2.0027 0.9749
-0.8612 -5.9610 -2.0021 0.9749
0.7494 -5.9746 -2.0016 0.9749
1.2798 -5.8834 -2.0014 0.9749
2.3056 -5.5610 -2.0011 0.9749
2.7927 -5.3325 -2.0009 0.9749
4.4817 -4.0163 -2.0004 0.9750
4.8222 -3.5999 -2.0003 0.9750
5.1242 -3.1548 -2.0002 0.9750
5.7765 -1.6836 -2.0000 0.9750
5.9036 -1.1611 -2.0000 0.9750
6.0159 -0.0924 -2.0000 0.9750
5.9364 0.9792 -2.0000 0.9750
5.8254 1.5054 -2.0000 0.9750
5.2185 2.9958 -2.0002 0.9750
4.9304 3.4500 -2.0003 0.9750
3.8280 4.6194 -1.9942 0.9750
2.7304 4.8453 -1.8487 0.9768
1.3488 5.3969 -1.8491 0.9768
0.3674 5.5517 -1.8494 0.9768
-2.0698 5.1669 -1.8502 0.9768
-3.3659 4.4345 -1.8506 0.9768
-3.7487 4.1165 -1.8507 0.9768
-4.3602 4.0030 -1.9675 0.9754
-4.7803 3.6588 -2.0010 0.9749
-5.0937 3.2211 -2.0033 0.9749
-5.9865 0.7024 -2.0036 0.9749
-6.0253 0.1650 -2.0036 0.9749
-5.9585 -0.9094 -2.0036 0.9749
-5.8534 -1.4379 -2.0036 0.9749
-5.2625 -2.9376 -2.0034 0.9749
-4.6556 -3.8265 -2.0032 0.9749
-3.9003 -4.5931 -2.0030 0.9749
-2.5429 -5.4615 -2.0026 0.9749
-1.5306 -5.8258 -2.0023 0.9749
-0.4698 -6.0042 -2.0019 0.9749
0.0682 -6.0217 -2.0018 0.9749
1.1381 -5.9126 -2.0014 0.9749
3.1350 -5.1384 -2.0008 0.9749
3.9985 -4.4982 -2.0006 0.9750
4.3840 -4.1229 -2.0005 0.9750
4.7344 -3.7148 -2.0004 0.9750
5.0469 -3.2770 -2.0003 0.9750
5.3192 -2.8131 -2.0002 0.9750
5.8740 -1.3026 -2.0000 0.9750
6.0119 -0.2369 -2.0000 0.9750
6.0091 0.3009 -2.0000 0.9750
5.9582 0.8363 -2.0000 0.9750
5.7147 1.8829 -2.0000 0.9750
4.3398 4.1693 -2.0004 0.9750
3.9419 4.5306 -1.9962 0.9750
3.3165 4.5813 -1.8800 0.9764
2.8460 4.7782 -1.8487 0.9768
1.9509 5.2090 -1.8490 0.9768
-0.9861 5.4770 -1.8499 0.9768
-1.4714 5.3675 -1.8500 0.9768
-1.9450 5.2150 -1.8501 0.9768
-3.2583 4.5140 -1.8505 0.9768
-3.6548 4.2123 -1.8538 0.9768
-4.1722 4.0193 -1.9257 0.9759
-4.6867 3.7692 -1.9992 0.9750
-5.0148 3.3425 -2.0033 0.9749
-5.2935 2.8814 -2.0034 0.9749
-6.0196 0.3097 -2.0036 0.9749
-6.0232 -0.2291 -2.0036 0.9749
-5.9787 -0.7660 -2.0036 0.9749
-5.8863 -1.2968 -2.0036 0.9749
-5.3316 -2.8103 -2.0034 0.9749
-5.0592 -3.2751 -2.0033 0.9749
-4.3955 -4.1224 -2.0031 0.9749
-3.1451 -5.1390 -2.0027 0.9749
-2.1805 -5.6156 -2.0025 0.9749
-1.6702 -5.7875 -2.0023 0.9749
-0.0765 -6.0217 -2.0018 0.9749
0.4615 -6.0040 -2.0017 0.9749
0.9957 -5.9383 -2.0015 0.9749
1.5219 -5.8252 -2.0013 0.9749
2.0358 -5.6656 -2.0012 0.9749
3.0107 -5.2123 -2.0009 0.9749
3.8894 -4.5931 -2.0006 0.9749
4.2837 -4.2271 -2.0005 0.9750
5.4915 -2.4595 -2.0001 0.9750
6.0045 -0.3813 -2.0000 0.9750
6.0146 0.1564 -2.0000 0.9750
5.9766 0.6929 -2.0000 0.9750
5.7582 1.7450 -2.0000 0.9750
5.0903 3.2091 -2.0002 0.9750
4.4387 4.0638 -2.0004 0.9750
2.0755 5.1605 -1.8489 0.9768
1.6065 5.3257 -1.8491 0.9768
1.1246 5.4483 -1.8492 0.9768
-0.3597 5.5529 -1.8497 0.9768
-0.8542 5.4990 -1.8498 0.9768
-1.3420 5.4012 -1.8500 0.9768
-2.2817 5.0771 -1.8503 0.9768
-2.7261 4.8534 -1.8504 0.9768
-4.5906 3.8773 -1.9974 0.9750
-5.2226 3.0078 -2.0033 0.9749
-2.2064 -5.1466 -2.0025 0.9765
-1.7379 -5.3227 -2.0023 0.9765
-1.2556 -5.4562 -2.0022 0.9765
-0.7633 -5.5461 -2.0020 0.9765
1.2263 -5.4607 -2.0014 0.9765
1.7089 -5.3290 -2.0013 0.9765
2.6292 -4.9393 -2.0010 0.9765
3.0596 -4.6845 -2.0009 0.9765
3.4654 -4.3923 -2.0007 0.9765
4.1910 -3.7054 -2.0005 0.9765
4.5049 -3.3162 -2.0004 0.9765
5.0226 -2.4618 -2.0003 0.9765
5.3801 -1.5290 -2.0001 0.9765
5.4950 -1.0425 -2.0001 0.9765
5.5661 -0.5476 -2.0001 0.9765
5.4057 1.4357 -2.0001 0.9765
5.0644 2.3745 -2.0002 0.9765
4.5615 3.2377 -2.0004 0.9765
4.2544 3.6323 -2.0005 0.9765
3.9132 3.9979 -2.0006 0.9765
3.0507 4.4990 -1.9439 0.9772
2.5078 4.5210 -1.8488 0.9783
1.2201 5.0250 -1.8492 0.9783
0.7666 5.1142 -1.8493 0.9783
0.3069 5.1627 -1.8495 0.9783
-0.1536 5.1094 -1.8280 0.9785
-0.6165 5.1357 -1.8497 0.9783
-1.0727 5.0605 -1.8499 0.9783
-1.5204 4.9449 -1.8500 0.9783
-3.1562 4.1008 -1.8505 0.9783
-4.7545 2.9621 -2.0032 0.9765
-5.2059 2.0692 -2.0033 0.9765
-5.4912 1.1103 -2.0034 0.9765
-5.4315 -1.3729 -2.0034 0.9765
-4.8729 -2.7632 -2.0033 0.9765
-4.6066 -3.1871 -2.0032 0.9765
-4.3033 -3.5856 -2.0031 0.9765
-3.9658 -3.9553 -2.0030 0.9765
-3.1986 -4.5972 -2.0028 0.9765
-2.7751 -4.8641 -2.0026 0.9765
-2.3295 -5.0922 -2.0025 0.9765
-1.3864 -5.4246 -2.0022 0.9765
-0.3993 -5.5838 -2.0019 0.9765
0.6003 -5.5650 -2.0016 0.9765
3.3589 -4.4744 -2.0008 0.9765
3.7448 -4.1563 -2.0007 0.9765
4.7118 -3.0147 -2.0004 0.9765
4.9620 -2.5818 -2.0003 0.9765
5.1726 -2.1283 -2.0002 0.9765
5.3418 -1.6579 -2.0002 0.9765
5.4684 -1.1742 -2.0001 0.9765
5.5514 -0.6812 -2.0001 0.9765
5.5900 -0.1828 -2.0001 0.9765
5.5840 0.3171 -2.0001 0.9765
5.3004 1.7859 -2.0002 0.9765
5.1199 2.2521 -2.0002 0.9765
4.6380 3.1271 -2.0004 0.9765
4.0081 3.9027 -2.0005 0.9765
1.7810 4.8541 -1.8490 0.9783
1.3405 4.9941 -1.8492 0.9783
-0.4929 5.1489 -1.8497 0.9783
-0.9508 5.0847 -1.8498 0.9783
-1.4011 4.9799 -1.8500 0.9783
-1.8404 4.8352 -1.8501 0.9783
-2.2649 4.6519 -1.8502 0.9783
-3.0567 4.1753 -1.8505 0.9783
-4.0499 3.8495 -1.9981 0.9765
-4.6819 3.0754 -2.0032 0.9765
-5.4629 1.2419 -2.0034 0.9765
-5.5968 0.2503 -2.0035 0.9765
-5.5521 -0.7492 -2.0035 0.9765
-5.4629 -1.2420 -2.0034 0.9765
