ply
format ascii 1.0
element vertex 1594
property float32 x
property float32 y
property float32 z
property float32 I
end_header
0.8073 5.9652 -1.8515 0.9751
0.2715 6.0112 -1.8508 0.9751
-0.2660 6.0092 -1.8501 0.9751
-1.8466 5.7174 -1.8480 0.9752
-2.8317 5.2940 -1.8466 0.9752
-3.7253 4.7028 -1.8453 0.9752
-5.2205 3.8282 -1.9912 0.9733
-5.5516 3.3531 -1.9948 0.9732
-5.8274 2.8434 -1.9944 0.9732
-6.2376 1.7612 -1.9936 0.9732
-6.3690 1.1972 -1.9933 0.9732
-6.3834 -1.1071 -1.9927 0.9733
-6.0852 -2.2246 -1.9928 0.9732
-5.8628 -2.7592 -1.9930 0.9732
-5.5938 -3.2719 -1.9932 0.9732
-5.2802 -3.7587 -1.9935 0.9732
-4.9244 -4.2158 -1.9939 0.9732
-4.5294 -4.6395 -1.9943 0.9732
-1.5256 -6.3135 -1.9978 0.9732
-0.9563 -6.4268 -1.9985 0.9732
0.7815 -6.4577 -2.0007 0.9731
1.3554 -6.3646 -2.0015 0.9731
1.9188 -6.2205 -2.0023 0.9731
2.4674 -6.0267 -2.0030 0.9731
4.8380 -4.3760 -2.0065 0.9731
5.2108 -3.9278 -2.0071 0.9731
6.2617 -1.8575 -2.0089 0.9730
6.4035 -1.2914 -2.0092 0.9730
6.5325 -0.1322 -2.0097 0.9730
6.5186 0.4515 -2.0098 0.9730
5.9478 2.7040 -2.0096 0.9730
5.0029 4.1699 -2.0032 0.9731
4.3125 4.3023 -1.8736 0.9748
3.4435 4.9499 -1.8547 0.9751
0.4300 6.0026 -1.8510 0.9751
-0.1075 6.0148 -1.8503 0.9751
-0.6437 5.9789 -1.8496 0.9751
-1.6953 5.7648 -1.8482 0.9752
-3.1586 5.1039 -1.8462 0.9752
-4.0130 4.4579 -1.8449 0.9752
-6.1893 1.9253 -1.9937 0.9732
-6.4757 0.2165 -1.9929 0.9732
-6.4688 -0.3624 -1.9928 0.9733
-5.0336 -4.0842 -1.9938 0.9732
-2.7776 -5.8659 -1.9963 0.9732
-1.6914 -6.2704 -1.9976 0.9732
-0.5499 -6.4759 -1.9990 0.9732
0.6109 -6.4753 -2.0005 0.9731
1.7539 -6.2683 -2.0020 0.9731
2.3073 -6.0890 -2.0028 0.9731
3.8423 -5.2658 -2.0050 0.9731
4.7205 -4.5017 -2.0063 0.9731
5.4489 -3.5926 -2.0075 0.9731
6.0037 -2.5677 -2.0084 0.9730
6.3669 -1.4598 -2.0091 0.9730
6.4727 -0.8857 -2.0094 0.9730
6.5266 -0.3044 -2.0096 0.9730
6.2209 1.9990 -2.0098 0.9730
6.0172 2.5462 -2.0096 0.9730
5.4673 3.5747 -2.0092 0.9730
5.1172 4.0412 -2.0056 0.9731
4.5426 4.2988 -1.9237 0.9742
3.1244 5.1559 -1.8543 0.9751
2.6509 5.4126 -1.8538 0.9751
1.1210 5.9156 -1.8519 0.9751
0.0512 6.0162 -1.8505 0.9751
-1.0186 5.9249 -1.8491 0.9752
-1.5428 5.8081 -1.8484 0.9752
-2.0543 5.6451 -1.8477 0.9752
-2.5491 5.4372 -1.8470 0.9752
-3.0232 5.1860 -1.8463 0.9752
-3.4728 4.8937 -1.8457 0.9752
-3.8944 4.5627 -1.8451 0.9752
-4.2848 4.1955 -1.8445 0.9752
-5.3649 3.6397 -1.9940 0.9732
-5.6701 3.1472 -1.9946 0.9732
-5.9270 2.6279 -1.9942 0.9732
-6.4082 0.9632 -1.9932 0.9732
-6.4679 0.3873 -1.9930 0.9732
-6.4762 -0.1916 -1.9928 0.9732
-5.9999 -2.4460 -1.9929 0.9732
-5.7581 -2.9721 -1.9931 0.9732
-5.4705 -3.4747 -1.9933 0.9732
-3.4352 -5.5037 -1.9955 0.9732
-1.8560 -6.2230 -1.9974 0.9732
-1.2936 -6.3660 -1.9981 0.9732
1.0176 -6.4257 -2.0010 0.9731
1.5877 -6.3117 -2.0018 0.9731
2.1456 -6.1471 -2.0026 0.9731
3.2068 -5.6718 -2.0041 0.9731
3.7017 -5.3648 -2.0048 0.9731
4.1672 -5.0147 -2.0055 0.9731
4.9956 -4.1964 -2.0067 0.9731
5.3518 -3.7348 -2.0073 0.9731
5.6653 -3.2430 -2.0078 0.9731
4.0035 -4.5131 -2.0054 0.9749
4.3917 -4.1389 -2.0060 0.9749
4.7449 -3.7314 -2.0065 0.9749
5.0603 -3.2938 -2.0070 0.9749
5.5678 -2.3425 -2.0079 0.9749
5.7557 -1.8365 -2.0083 0.9749
5.8976 -1.3156 -2.0086 0.9749
5.9922 -0.7840 -2.0088 0.9748
5.9869 0.8318 -2.0092 0.9748
5.7434 1.8830 -2.0091 0.9748
3.7406 4.2849 -1.8907 0.9763
2.8622 4.7867 -1.8539 0.9768
2.4229 5.0217 -1.8534 0.9768
1.9643 5.2164 -1.8528 0.9768
0.5116 5.5450 -1.8510 0.9768
0.0146 5.5666 -1.8504 0.9768
-0.4822 5.5437 -1.8497 0.9768
-3.2404 4.5097 -1.8459 0.9769
-5.2649 2.8818 -1.9951 0.9750
-5.6912 1.8990 -1.9943 0.9750
-5.8371 1.3832 -1.9940 0.9750
-5.9365 0.8565 -1.9938 0.9750
-5.9887 0.3231 -1.9936 0.9750
-5.7226 -1.7930 -1.9934 0.9750
-5.5400 -2.2968 -1.9935 0.9750
-5.3134 -2.7824 -1.9937 0.9750
-4.7352 -3.6838 -1.9942 0.9750
-4.3883 -4.0925 -1.9946 0.9750
-4.0063 -4.4688 -1.9950 0.9750
-3.5922 -4.8097 -1.9955 0.9750
-2.6811 -5.3746 -1.9965 0.9750
-2.1913 -5.5941 -1.9971 0.9750
-1.6837 -5.7692 -1.9977 0.9750
-1.1624 -5.8983 -1.9983 0.9750
-0.6314 -5.9805 -1.9990 0.9750
0.4424 -6.0017 -2.0004 0.9750
2.0188 -5.6760 -2.0025 0.9749
2.9980 -5.2302 -2.0039 0.9749
3.4540 -4.9433 -2.0046 0.9749
3.8827 -4.6167 -2.0052 0.9749
4.2806 -4.2529 -2.0058 0.9749
4.9713 -3.4259 -2.0069 0.9749
5.2585 -2.9691 -2.0074 0.9749
5.8606 -1.4706 -2.0085 0.9749
5.9693 -0.9418 -2.0088 0.9748
5.9227 1.2071 -2.0092 0.9748
5.6132 2.2408 -2.0090 0.9748
5.3903 2.7327 -2.0089 0.9748
4.8172 3.6467 -2.0083 0.9749
3.9416 4.2817 -1.9345 0.9758
3.3971 4.4255 -1.8545 0.9768
2.9877 4.7099 -1.8540 0.9768
2.5547 4.9564 -1.8535 0.9768
0.6577 5.5301 -1.8512 0.9768
0.1614 5.5648 -1.8506 0.9768
-0.8301 5.5010 -1.8493 0.9768
-1.3173 5.4030 -1.8486 0.9768
-1.7937 5.2620 -1.8480 0.9768
-4.0041 4.0846 -1.9013 0.9762
-4.8983 3.4717 -1.9957 0.9750
-5.1874 3.0199 -1.9952 0.9750
-5.6394 2.0485 -1.9944 0.9750
-5.9120 1.0128 -1.9938 0.9750
-5.8912 -1.1200 -1.9933 0.9750
-5.3848 -2.6412 -1.9936 0.9750
-4.1225 -4.3613 -1.9949 0.9750
-3.7175 -4.7130 -1.9953 0.9750
-3.2828 -5.0272 -1.9958 0.9750
-2.3379 -5.5339 -1.9969 0.9750
-1.8351 -5.7222 -1.9975 0.9750
-0.7889 -5.9612 -1.9988 0.9750
1.3491 -5.8685 -2.0016 0.9749
2.3728 -5.5390 -2.0030 0.9749
3.7592 -4.7171 -2.0050 0.9749
4.1666 -4.3640 -2.0056 0.9749
4.5408 -3.9758 -2.0062 0.9749
5.6503 -2.1373 -2.0081 0.9749
6.0172 -0.5641 -2.0089 0.9748
6.0440 -0.0247 -2.0091 0.9748
5.8348 1.5776 -2.0092 0.9748
5.6705 2.0920 -2.0091 0.9748
5.2072 3.0664 -2.0087 0.9748
3.1112 4.6298 -1.8542 0.9768
2.6848 4.8877 -1.8537 0.9768
1.7718 5.2841 -1.8526 0.9768
-1.1745 5.4365 -1.8488 0.9768
-2.1210 5.1374 -1.8475 0.9768
-2.5702 4.9259 -1.8469 0.9769
-3.4029 4.3875 -1.8457 0.9769
-4.4510 4.0021 -1.9897 0.9751
-5.5837 2.1967 -1.9945 0.9750
-5.7565 1.6892 -1.9942 0.9750
-5.9636 0.6385 -1.9937 0.9750
-5.8091 -1.4887 -1.9934 0.9750
-5.6532 -2.0013 -1.9934 0.9750
-5.4524 -2.4982 -1.9936 0.9750
-4.9225 -3.4287 -1.9941 0.9750
-4.2358 -4.2508 -1.9948 0.9750
-3.4140 -4.9385 -1.9957 0.9750
-2.9603 -5.2249 -1.9962 0.9750
-2.4828 -5.4698 -1.9967 0.9750
-1.9852 -5.6713 -1.9973 0.9750
-1.4715 -5.8277 -1.9980 0.9750
-0.9458 -5.9377 -1.9986 0.9750
0.1252 -6.0154 -2.0000 0.9750
1.1937 -5.9015 -2.0014 0.9749
1.7163 -5.7734 -2.0021 0.9749
2.2256 -5.5991 -2.0028 0.9749
2.7174 -5.3799 -2.0035 0.9749
5.0939 -3.2419 -2.0071 0.9749
5.3642 -2.7749 -2.0075 0.9749
5.5916 -2.2854 -2.0079 0.9749
6.0000 -0.7226 -2.0088 0.9748
6.0411 -0.1841 -2.0090 0.9748
5.9781 0.8931 -2.0092 0.9748
5.7238 1.9417 -2.0091 0.9748
5.5272 2.4448 -2.0090 0.9748
5.0033 3.3879 -2.0085 0.9749
4.6802 3.8203 -2.0082 0.9749
3.2324 4.5465 -1.8543 0.9768
2.8130 4.8156 -1.8538 0.9768
2.3712 5.0461 -1.8533 0.9768
0.9487 5.4888 -1.8516 0.9768
0.4548 5.5497 -1.8509 0.9768
-0.0424 5.5662 -1.8503 0.9768
-1.0308 5.4661 -1.8490 0.9768
-1.9849 5.1921 -1.8477 0.9768
-2.8746 4.7531 -1.8464 0.9769
-3.2863 4.4761 -1.8458 0.9769
-3.6716 4.1636 -1.8453 0.9769
-4.7041 3.7218 -1.9939 0.9750
-5.5241 2.3434 -1.9946 0.9750
-5.9449 0.7956 -1.9937 0.9750
-5.9421 -0.8077 -1.9934 0.9750
-5.2847 -2.8367 -1.9937 0.9750
-5.0110 -3.2975 -1.9940 0.9750
-3.5428 -4.8464 -1.9955 0.9750
-3.0969 -5.1446 -1.9960 0.9750
-2.6260 -5.4020 -1.9966 0.9750
-2.1339 -5.6165 -1.9972 0.9750
-0.0335 -6.0160 -1.9998 0.9750
1.0375 -5.9303 -2.0012 0.9749
1.5633 -5.8160 -2.0019 0.9749
2.5743 -5.4492 -2.0033 0.9749
3.5046 -4.9078 -2.0046 0.9749
3.9299 -4.5768 -2.0053 0.9749
4.3241 -4.2090 -2.0059 0.9749
4.6838 -3.8073 -2.0064 0.9749
5.0063 -3.3749 -2.0069 0.9749
5.2888 -2.9152 -2.0074 0.9749
5.8754 -1.4106 -2.0085 0.9749
5.9787 -0.8806 -2.0088 0.9748
5.9995 0.7351 -2.0092 0.9748
5.7731 1.7901 -2.0091 0.9748
5.5899 2.2982 -2.0090 0.9748
4.7795 3.6957 -2.0083 0.9749
3.8625 4.2830 -1.9171 0.9760
3.3515 4.4599 -1.8544 0.9768
1.5769 5.3448 -1.8523 0.9768
1.0932 5.4624 -1.8517 0.9768
0.6010 5.5363 -1.8511 0.9768
0.1044 5.5660 -1.8505 0.9768
-4.6001 3.8411 -1.9921 0.9751
-4.9335 3.4213 -1.9957 0.9750
-5.2179 2.9665 -1.9952 0.9750
-5.4607 2.4884 -1.9948 0.9750
-5.6600 1.9906 -1.9944 0.9750
-5.9220 0.9522 -1.9938 0.9750
-5.9959 -0.1160 -1.9934 0.9750
-5.9614 -0.6507 -1.9934 0.9750
-5.8794 -1.1802 -1.9934 0.9750
-5.7508 -1.7004 -1.9934 0.9750
-5.5763 -2.2070 -1.9935 0.9750
-5.3575 -2.6962 -1.9937 0.9750
-5.0960 -3.1641 -1.9939 0.9750
-4.7939 -3.6068 -1.9942 0.9750
-4.4536 -4.0211 -1.9945 0.9750
-4.0777 -4.4034 -1.9949 0.9750
-3.2312 -5.0607 -1.9959 0.9750
-2.2811 -5.5577 -1.9970 0.9750
-1.2573 -5.8785 -1.9982 0.9750
0.3454 -6.0077 -2.0003 0.9750
0.8806 -5.9549 -2.0010 0.9749
1.9269 -5.7075 -2.0024 0.9749
2.4295 -5.5146 -2.0031 0.9749
3.8075 -4.6785 -2.0051 0.9749
4.2112 -4.3212 -2.0057 0.9749
5.2097 -3.0535 -2.0073 0.9749
5.4627 -2.5768 -2.0077 0.9749
5.6720 -2.0793 -2.0081 0.9749
6.0227 -0.5025 -2.0089 0.9748
6.0440 0.0372 -2.0091 0.9748
5.8184 1.6372 -2.0092 0.9748
5.6487 2.1500 -2.0091 0.9748
5.1754 3.1195 -2.0087 0.9748
3.4682 4.3703 -1.8546 0.9768
3.0635 4.6613 -1.8541 0.9768
2.6345 4.9148 -1.8536 0.9768
1.7175 5.3018 -1.8525 0.9768
1.2370 5.4322 -1.8519 0.9768
0.2512 5.5619 -1.8507 0.9768
-0.2462 5.5601 -1.8500 0.9768
-1.2301 5.4239 -1.8487 0.9768
-1.7087 5.2906 -1.8481 0.9768
-2.6204 4.8991 -1.8468 0.9769
-4.8419 3.5505 -1.9958 0.9750
-5.1382 3.1034 -1.9953 0.9750
-5.6058 2.1394 -1.9945 0.9750
-5.9765 -0.4932 -1.9934 0.9750
-5.9085 -1.0247 -1.9933 0.9750
-5.7935 -1.5481 -1.9934 0.9750
-4.5579 -3.9020 -1.9944 0.9750
-4.1922 -4.2941 -1.9948 0.9750
-3.7929 -4.6522 -1.9952 0.9750
-3.3634 -4.9733 -1.9957 0.9750
-2.9067 -5.2551 -1.9962 0.9750
-2.4267 -5.4951 -1.9968 0.9750
-0.8849 -5.9473 -1.9987 0.9750
-0.3506 -6.0046 -1.9994 0.9750
0.1868 -6.0141 -2.0001 0.9750
3.2403 -5.0848 -2.0042 0.9749
3.6824 -4.7769 -2.0049 0.9749
4.0954 -4.4304 -2.0055 0.9749
4.4758 -4.0484 -2.0061 0.9749
4.8206 -3.6337 -2.0066 0.9749
5.1270 -3.1896 -2.0071 0.9749
5.3925 -2.7198 -2.0076 0.9749
6.0072 -0.6611 -2.0089 0.9748
6.0298 0.4176 -2.0092 0.9748
5.8596 1.4832 -2.0092 0.9748
4.6395 3.8670 -2.0077 0.9749
4.2608 4.2507 -2.0006 0.9749
2.3193 5.0699 -1.8532 0.9768
0.8924 5.4980 -1.8515 0.9768
-0.5956 5.5322 -1.8496 0.9768
-1.5687 5.3344 -1.8483 0.9768
-2.0379 5.1713 -1.8476 0.9768
-3.3319 4.4421 -1.8458 0.9769
-4.3690 4.0578 -1.9820 0.9752
-5.0549 3.2380 -1.9955 0.9750
-5.3226 2.7733 -1.9950 0.9750
-5.7287 1.7820 -1.9942 0.9750
-5.8640 1.2633 -1.9939 0.9750
-5.9526 0.7347 -1.9937 0.9750
-5.9939 0.2004 -1.9935 0.9750
-5.4919 -2.4098 -1.9936 0.9750
-5.2554 -2.8907 -1.9938 0.9750
-4.9770 -3.3487 -1.9940 0.9750
-3.4931 -4.8825 -1.9956 0.9750
-3.0441 -5.1762 -1.9961 0.9750
-2.5706 -5.4288 -1.9966 0.9750
-1.0414 -5.9214 -1.9985 0.9750
-0.5089 -5.9927 -1.9992 0.9750
0.0281 -6.0163 -1.9999 0.9750
1.6228 -5.7999 -2.0020 0.9749
2.1348 -5.6339 -2.0027 0.9749
2.6301 -5.4227 -2.0034 0.9749
3.1047 -5.1680 -2.0040 0.9749
4.7227 -3.7592 -2.0065 0.9749
5.0407 -3.3235 -2.0070 0.9749
5.3185 -2.8610 -2.0075 0.9749
5.9874 -0.8193 -2.0088 0.9748
6.0373 -0.2816 -2.0090 0.9748
5.9917 0.7965 -2.0092 0.9748
5.8967 1.3281 -2.0092 0.9748
5.7544 1.8491 -2.0091 0.9748
5.5660 2.3553 -2.0090 0.9748
5.3331 2.8424 -2.0088 0.9748
4.7413 3.7444 -2.0083 0.9749
4.3759 4.1410 -2.0026 0.9749
3.3055 4.4939 -1.8544 0.9768
2.8905 4.7698 -1.8539 0.9768
1.0372 5.4731 -1.8517 0.9768
0.5443 5.5420 -1.8511 0.9768
-0.9425 5.4824 -1.8491 0.9768
-1.4276 5.3745 -1.8485 0.9768
-2.3589 5.0315 -1.8472 0.9768
-3.2138 4.5288 -1.8459 0.9769
-3.6041 4.2226 -1.8454 0.9769
-5.4858 2.4323 -1.9947 0.9750
-5.9867 0.3585 -1.9936 0.9750
-5.8671 -1.2404 -1.9934 0.9750
-5.7331 -1.7592 -1.9934 0.9750
-5.3297 -2.7510 -1.9937 0.9750
-4.7568 -3.6558 -1.9942 0.9750
-4.4123 -4.0666 -1.9946 0.9750
-4.0325 -4.4451 -1.9950 0.9750
-3.6204 -4.7884 -1.9954 0.9750
-3.1793 -5.0937 -1.9959 0.9750
-1.7177 -5.7590 -1.9977 0.9750
-1.1971 -5.8913 -1.9983 0.9750
-0.1306 -6.0143 -1.9997 0.9750
0.4070 -6.0040 -2.0004 0.9750
0.9416 -5.9458 -2.0011 0.9749
1.4691 -5.8401 -2.0018 0.9749
1.9853 -5.6877 -2.0025 0.9749
2.4859 -5.4897 -2.0032 0.9749
3.4247 -4.9635 -2.0045 0.9749
3.8553 -4.6394 -2.0051 0.9749
4.2553 -4.2780 -2.0057 0.9749
4.9509 -3.4551 -2.0068 0.9749
5.2408 -3.0001 -2.0073 0.9749
5.4889 -2.5208 -2.0078 0.9749
3.3306 -4.5085 -2.0045 0.9765
3.7208 -4.1944 -2.0051 0.9765
4.4097 -3.4678 -2.0061 0.9765
4.9583 -2.6296 -2.0070 0.9764
5.1742 -2.1769 -2.0074 0.9764
5.5684 -0.7286 -2.0083 0.9764
5.6117 -0.2286 -2.0085 0.9764
5.5634 0.7730 -2.0086 0.9764
5.4722 1.2665 -2.0086 0.9764
5.3372 1.7498 -2.0086 0.9764
5.1593 2.2191 -2.0084 0.9764
4.9402 2.6706 -2.0083 0.9764
4.0524 3.8805 -2.0064 0.9764
3.1024 4.2703 -1.8876 0.9778
2.2517 4.6670 -1.8531 0.9782
-0.4482 5.1529 -1.8497 0.9783
-1.7957 4.8452 -1.8479 0.9783
-2.2203 4.6641 -1.8473 0.9783
-2.6270 4.4459 -1.8467 0.9783
-4.0043 3.8748 -1.9926 0.9766
-4.3425 3.5086 -1.9964 0.9766
-4.8949 2.6793 -1.9955 0.9766
-5.1136 2.2312 -1.9951 0.9766
-5.2914 1.7656 -1.9948 0.9766
-5.3208 -1.6671 -1.9940 0.9766
-5.1510 -2.1355 -1.9941 0.9766
-4.9402 -2.5870 -1.9942 0.9766
-4.4026 -3.4251 -1.9947 0.9766
-3.7247 -4.1548 -1.9954 0.9766
-3.3397 -4.4717 -1.9959 0.9766
-2.9279 -4.7530 -1.9963 0.9766
-1.0806 -5.4832 -1.9986 0.9765
0.9079 -5.5217 -2.0011 0.9765
1.8765 -5.2758 -2.0024 0.9765
3.2102 -4.5944 -2.0043 0.9765
4.3164 -3.5826 -2.0060 0.9765
4.6201 -3.1838 -2.0065 0.9764
5.3017 -1.8471 -2.0077 0.9764
5.5471 -0.8752 -2.0082 0.9764
5.6152 0.1252 -2.0085 0.9764
5.5819 0.6259 -2.0086 0.9764
5.5037 1.1217 -2.0086 0.9764
5.3815 1.6085 -2.0086 0.9764
5.2162 2.0823 -2.0085 0.9764
5.0091 2.5394 -2.0083 0.9764
4.7619 2.9761 -2.0081 0.9764
4.1556 3.7743 -2.0075 0.9764
3.7916 4.1188 -2.0020 0.9765
2.3742 4.6064 -1.8532 0.9782
1.9530 4.7986 -1.8527 0.9782
1.0680 5.0664 -1.8516 0.9782
0.6113 5.1400 -1.8510 0.9783
0.1500 5.1724 -1.8505 0.9783
-0.3122 5.1634 -1.8499 0.9783
-0.7716 5.1133 -1.8492 0.9783
-1.2245 5.0223 -1.8486 0.9783
-1.6674 4.8914 -1.8480 0.9783
-2.9010 4.2708 -1.8463 0.9783
-3.3618 4.1060 -1.8977 0.9777
-3.8977 3.9761 -1.9911 0.9766
-4.2483 3.6219 -1.9964 0.9766
-5.3915 1.4288 -1.9946 0.9766
-5.4968 0.9417 -1.9943 0.9766
-5.5757 -0.0507 -1.9940 0.9766
-5.5487 -0.5482 -1.9939 0.9766
-5.4776 -1.0413 -1.9939 0.9766
-5.3629 -1.5261 -1.9939 0.9766
-4.7679 -2.8931 -1.9944 0.9766
-4.1787 -3.6959 -1.9950 0.9766
-3.0520 -4.6738 -1.9962 0.9766
-2.1734 -5.1447 -1.9972 0.9766
-0.7334 -5.5416 -1.9990 0.9765
-0.2358 -5.5867 -1.9996 0.9765
0.2639 -5.5873 -2.0003 0.9765
2.2054 -5.1483 -2.0029 0.9765
2.6570 -4.9325 -2.0035 0.9765
3.0877 -4.6770 -2.0041 0.9765
3.4938 -4.3841 -2.0047 0.9765
3.8723 -4.0558 -2.0053 0.9765
4.5342 -3.3043 -2.0063 0.9764
5.4080 -1.5098 -2.0079 0.9764
5.5916 -0.5242 -2.0084 0.9764
5.4221 1.4660 -2.0086 0.9764
4.2539 3.6635 -2.0076 0.9764
2.8913 4.3027 -1.8538 0.9782
1.6467 4.9111 -1.8523 0.9782
1.2014 5.0370 -1.8518 0.9782
0.7468 5.1225 -1.8512 0.9782
-1.5380 4.9341 -1.8482 0.9783
-1.9716 4.7756 -1.8476 0.9783
-2.3893 4.5791 -1.8470 0.9783
-2.7876 4.3462 -1.8465 0.9783
-3.1938 4.1178 -1.8636 0.9781
-3.7888 4.0746 -1.9897 0.9766
-4.1480 3.7296 -1.9948 0.9766
-4.4676 3.3469 -1.9962 0.9766
-4.7474 2.9341 -1.9958 0.9766
-4.9893 2.4981 -1.9954 0.9766
-5.3522 1.5706 -1.9947 0.9766
-5.5752 0.0964 -1.9940 0.9766
-5.5613 -0.4017 -1.9939 0.9766
-5.4012 -1.3841 -1.9939 0.9766
-5.0695 -2.3227 -1.9941 0.9766
-4.8424 -2.7663 -1.9943 0.9766
-4.2745 -3.5842 -1.9949 0.9766
-3.9382 -3.9521 -1.9952 0.9766
-3.5704 -4.2888 -1.9956 0.9766
-2.3082 -5.0852 -1.9971 0.9766
-1.3680 -5.4176 -1.9982 0.9765
0.1164 -5.5917 -2.0001 0.9765
1.1096 -5.4855 -2.0014 0.9765
2.5257 -5.0004 -2.0033 0.9765
3.7637 -4.1562 -2.0051 0.9765
4.1208 -3.8047 -2.0057 0.9765
4.4451 -3.4225 -2.0062 0.9764
4.9851 -2.5787 -2.0071 0.9764
5.1963 -2.1239 -2.0075 0.9764
5.3661 -1.6518 -2.0078 0.9764
5.5757 -0.6715 -2.0083 0.9764
5.6138 -0.1711 -2.0085 0.9764
5.6070 0.3307 -2.0086 0.9764
5.3189 1.8044 -2.0086 0.9764
5.1363 2.2718 -2.0084 0.9764
4.9126 2.7210 -2.0082 0.9764
4.3493 3.5502 -2.0077 0.9764
4.0110 3.9203 -2.0057 0.9765
3.6338 4.2497 -1.9995 0.9765
2.2037 4.6897 -1.8530 0.9782
1.7758 4.8663 -1.8525 0.9782
1.3340 5.0040 -1.8519 0.9782
0.4227 5.1582 -1.8508 0.9783
-0.9581 5.0809 -1.8490 0.9783
-1.8451 4.8264 -1.8478 0.9783
-3.0551 4.1612 -1.8461 0.9783
-3.6054 4.0886 -1.9494 0.9771
-4.6687 3.0585 -1.9959 0.9766
-4.9220 2.6290 -1.9955 0.9766
-5.1360 2.1787 -1.9951 0.9766
-5.3091 1.7113 -1.9948 0.9766
-5.5709 0.2434 -1.9941 0.9766
-5.5700 -0.2548 -1.9940 0.9766
-5.5249 -0.7510 -1.9939 0.9766
-5.3035 -1.7215 -1.9940 0.9766
-4.0409 -3.8467 -1.9951 0.9766
-3.2938 -4.5057 -1.9959 0.9766
-2.8792 -4.7829 -1.9964 0.9766
-2.4413 -5.0221 -1.9969 0.9766
-1.5103 -5.3792 -1.9980 0.9765
-1.0244 -5.4942 -1.9986 0.9765
0.9644 -5.5123 -2.0012 0.9765
2.3927 -5.0648 -2.0031 0.9765
2.8362 -4.8325 -2.0038 0.9765
3.2572 -4.5614 -2.0044 0.9765
4.3530 -3.5383 -2.0060 0.9765
4.6525 -3.1364 -2.0065 0.9764
5.1382 -2.2601 -2.0074 0.9764
5.3204 -1.7927 -2.0077 0.9764
5.4600 -1.3108 -2.0080 0.9764
5.5559 -0.8183 -2.0082 0.9764
5.6072 -0.3191 -2.0084 0.9764
4.9828 2.5906 -2.0083 0.9764
4.7311 3.0247 -2.0081 0.9764
4.4416 3.4344 -2.0078 0.9764
3.7480 4.1560 -2.0013 0.9765
2.7316 4.4052 -1.8536 0.9782
2.3269 4.6303 -1.8531 0.9782
1.4656 4.9675 -1.8521 0.9782
1.0161 5.0769 -1.8516 0.9782
0.5586 5.1458 -1.8510 0.9783
0.0971 5.1734 -1.8504 0.9783
-1.2758 5.0094 -1.8486 0.9783
-2.9445 4.2407 -1.8462 0.9783
-3.4287 4.1013 -1.9117 0.9775
-4.5867 3.1808 -1.9961 0.9766
-4.8512 2.7581 -1.9956 0.9766
-5.2624 1.8508 -1.9949 0.9766
-5.5061 0.8853 -1.9943 0.9766
-5.5626 0.3903 -1.9941 0.9766
-5.5428 -0.6050 -1.9939 0.9766
-5.3470 -1.5810 -1.9939 0.9766
-4.7381 -2.9418 -1.9944 0.9766
-4.4572 -3.3535 -1.9947 0.9766
-3.7912 -4.0940 -1.9954 0.9766
-3.4113 -4.4170 -1.9958 0.9766
-2.1207 -5.1668 -1.9973 0.9766
-1.6515 -5.3370 -1.9978 0.9765
-0.6766 -5.5490 -1.9991 0.9765
0.3211 -5.5845 -2.0003 0.9765
1.3098 -5.4419 -2.0017 0.9765
3.1355 -4.6453 -2.0042 0.9765
3.5387 -4.3482 -2.0048 0.9765
4.2578 -3.6517 -2.0059 0.9765
4.5679 -3.2578 -2.0064 0.9764
4.8415 -2.8377 -2.0068 0.9764
5.0766 -2.3947 -2.0073 0.9764
5.2710 -1.9323 -2.0076 0.9764
5.4233 -1.4543 -2.0079 0.9764
5.5211 1.0327 -2.0086 0.9764
5.4068 1.5214 -2.0086 0.9764
5.2492 1.9979 -2.0085 0.9764
4.8094 2.8989 -2.0082 0.9764
4.5309 3.3162 -2.0079 0.9764
4.2161 3.7068 -2.0076 0.9764
3.3853 4.2658 -1.9475 0.9771
2.8470 4.3319 -1.8538 0.9782
2.4484 4.5676 -1.8533 0.9782
2.0303 4.7667 -1.8528 0.9782
0.6943 5.1297 -1.8511 0.9782
0.2335 5.1696 -1.8506 0.9783
-1.1434 5.0418 -1.8487 0.9783
-1.5883 4.9179 -1.8481 0.9783
-2.0203 4.7550 -1.8475 0.9783
-2.4360 4.5542 -1.8470 0.9783
-2.8319 4.3173 -1.8464 0.9783
-3.2583 4.1133 -1.8765 0.9780
-3.8313 4.0367 -1.9902 0.9766
-4.5015 3.3009 -1.9962 0.9766
-4.7771 2.8853 -1.9957 0.9766
-5.4810 1.0303 -1.9944 0.9766
-5.5505 0.5369 -1.9942 0.9766
-5.5759 0.0393 -1.9940 0.9766
-5.0455 -2.3746 -1.9941 0.9766
-4.8139 -2.8157 -1.9943 0.9766
-4.5439 -3.2346 -1.9946 0.9766
-4.2377 -3.6279 -1.9949 0.9766
-3.5264 -4.3252 -1.9957 0.9766
-2.7024 -4.8856 -1.9966 0.9766
-0.3260 -5.5818 -1.9995 0.9765
0.1737 -5.5905 -2.0002 0.9765
0.6722 -5.5545 -2.0008 0.9765
1.6503 -5.3499 -2.0021 0.9765
2.1219 -5.1829 -2.0028 0.9765
2.5769 -4.9744 -2.0034 0.9765
3.0116 -4.7260 -2.0040 0.9765
4.1597 -3.7624 -2.0057 0.9765
4.4800 -3.3769 -2.0063 0.9764
5.0113 -2.5276 -2.0071 0.9764
5.6153 -0.1136 -2.0085 0.9764
5.6033 0.3881 -2.0086 0.9764
5.5464 0.8867 -2.0086 0.9764
5.3001 1.8588 -2.0085 0.9764
2.5682 4.5018 -1.8534 0.9782
1.7258 4.8841 -1.8524 0.9782
-1.4582 4.9586 -1.8483 0.9783
-1.8944 4.8071 -1.8477 0.9783
-2.7173 4.3909 -1.8466 0.9783
-3.0979 4.1301 -1.8463 0.9783
-4.0852 3.7943 -1.9938 0.9766
-4.4132 3.4187 -1.9963 0.9766
-5.1580 2.1259 -1.9951 0.9766
-5.4521 1.1746 -1.9945 0.9766
-5.5346 0.6831 -1.9942 0.9766
-5.5169 -0.8075 -1.9939 0.9766
-5.1063 -2.2406 -1.9941 0.9766
-4.6275 -3.1135 -1.9945 0.9766
-4.3317 -3.5146 -1.9948 0.9766
-4.0013 -3.8880 -1.9951 0.9766
-2.8301 -4.8123 -1.9964 0.9766
-2.3898 -5.0470 -1.9970 0.9766
-1.9303 -5.2416 -1.9975 0.9766
-0.9681 -5.5046 -1.9987 0.9765
1.5084 -5.3911 -2.0019 0.9765
1.9843 -5.2366 -2.0026 0.9765
2.4446 -5.0402 -2.0032 0.9765
2.8856 -4.8034 -2.0038 0.9765
4.6845 -3.0887 -2.0066 0.9764
5.1612 -2.2074 -2.0074 0.9764
5.3386 -1.7381 -2.0077 0.9764
5.6116 0.2402 -2.0086 0.9764
5.5679 0.7401 -2.0086 0.9764
5.4796 1.2342 -2.0086 0.9764
5.3474 1.7183 -2.0086 0.9764
4.9559 2.6414 -2.0083 0.9764
4.6998 3.0729 -2.0081 0.9764
3.7039 4.1927 -2.0006 0.9765
3.1406 4.2697 -1.8955 0.9777
1.4146 4.9821 -1.8520 0.9782
0.5059 5.1510 -1.8509 0.9783
0.0440 5.1740 -1.8503 0.9783
-0.4178 5.1556 -1.8497 0.9783
-1.3271 4.9958 -1.8485 0.9783
-1.7671 4.8558 -1.8479 0.9783
-2.1928 4.6772 -1.8473 0.9783
-3.4965 4.0964 -1.9260 0.9774
-3.9807 3.8977 -1.9923 0.9766
-4.6189 3.1336 -1.9960 0.9766
-4.8791 2.7082 -1.9956 0.9766
-5.1004 2.2614 -1.9952 0.9766
-5.5148 0.8289 -1.9943 0.9766
-5.4551 -1.1533 -1.9939 0.9766
-5.3305 -1.6357 -1.9940 0.9766
-3.7491 -4.1327 -1.9954 0.9766
-3.3660 -4.4518 -1.9958 0.9766
-2.0677 -5.1885 -1.9973 0.9766
-1.5968 -5.3538 -1.9979 0.9765
-0.6197 -5.5558 -1.9991 0.9765
-0.1214 -5.5908 -1.9998 0.9765
0.3783 -5.5811 -2.0004 0.9765
1.3656 -5.4285 -2.0017 0.9765
1.8453 -5.2866 -2.0024 0.9765
2.3106 -5.1024 -2.0030 0.9765
3.5831 -4.3119 -2.0049 0.9765
3.9548 -3.9759 -2.0054 0.9765
4.6011 -3.2109 -2.0064 0.9764
5.1009 -2.3426 -2.0073 0.9764
3.8082 -3.5890 -2.0053 0.9778
4.3877 -2.8560 -2.0063 0.9778
4.8274 -2.0310 -2.0070 0.9778
5.1131 -1.1406 -2.0076 0.9778
5.1951 -0.6797 -2.0078 0.9778
5.1052 1.1816 -2.0081 0.9778
4.3677 2.8927 -2.0076 0.9778
4.0915 3.2706 -2.0073 0.9778
3.7826 3.6222 -2.0070 0.9778
3.4397 3.9402 -2.0044 0.9778
3.0661 4.2203 -1.9991 0.9779
2.5445 4.2552 -1.9000 0.9790
2.1009 4.3545 -1.8528 0.9795
-0.8455 4.7504 -1.8491 0.9795
-1.6757 4.5216 -1.8479 0.9796
-2.4518 4.1494 -1.8470 0.9796
-3.3992 3.9352 -1.9927 0.9780
-4.0529 3.2747 -1.9968 0.9779
-4.5687 2.5007 -1.9959 0.9779
-5.1519 0.7433 -1.9947 0.9779
-5.1972 0.2804 -1.9946 0.9780
-5.2012 -0.1846 -1.9945 0.9780
-5.1638 -0.6481 -1.9944 0.9780
-5.0854 -1.1065 -1.9944 0.9780
-4.8079 -1.9933 -1.9945 0.9780
-4.6112 -2.4147 -1.9947 0.9779
-4.1093 -3.1969 -1.9952 0.9779
-3.4765 -3.8779 -1.9958 0.9779
-3.1171 -4.1736 -1.9962 0.9779
-2.7327 -4.4361 -1.9967 0.9779
-1.9012 -4.8537 -1.9976 0.9779
-1.4608 -5.0054 -1.9982 0.9779
-1.0084 -5.1172 -1.9987 0.9779
-0.5478 -5.1883 -1.9993 0.9779
-0.0825 -5.2181 -1.9999 0.9779
1.3042 -5.0581 -2.0017 0.9779
1.7510 -4.9230 -2.0024 0.9779
2.1841 -4.7485 -2.0030 0.9779
2.9954 -4.2869 -2.0041 0.9778
3.3670 -4.0035 -2.0047 0.9778
4.5594 -2.5744 -2.0065 0.9778
4.9463 -1.7233 -2.0072 0.9778
5.0811 -1.2750 -2.0075 0.9778
5.1346 1.0465 -2.0081 0.9778
4.8664 1.9427 -2.0080 0.9778
4.6732 2.3691 -2.0079 0.9778
1.4150 4.6209 -1.8520 0.9795
-0.2913 4.8182 -1.8498 0.9795
-0.7200 4.7715 -1.8492 0.9795
-1.9567 4.4062 -1.8475 0.9796
-2.3415 4.2127 -1.8470 0.9796
-3.2921 4.0210 -1.9915 0.9780
-4.2504 3.0125 -1.9964 0.9779
-4.5014 2.6205 -1.9960 0.9779
-4.8939 1.7777 -1.9953 0.9779
-5.0323 1.3336 -1.9950 0.9779
-5.2044 -0.0473 -1.9945 0.9780
-5.1128 -0.9720 -1.9944 0.9780
-4.4503 -2.7004 -1.9948 0.9779
-4.1920 -3.0872 -1.9951 0.9779
-3.5774 -3.7846 -1.9957 0.9779
-3.2259 -4.0896 -1.9961 0.9779
-2.8485 -4.3622 -1.9965 0.9779
-2.4484 -4.6001 -1.9970 0.9779
-1.5922 -4.9647 -1.9980 0.9779
-0.6844 -5.1716 -1.9991 0.9779
0.2463 -5.2140 -2.0003 0.9779
2.0579 -4.8040 -2.0028 0.9779
2.4793 -4.6025 -2.0034 0.9779
2.8810 -4.3640 -2.0039 0.9778
3.2600 -4.0906 -2.0045 0.9778
3.9374 -3.4475 -2.0055 0.9778
4.2304 -3.0830 -2.0060 0.9778
4.4897 -2.6936 -2.0064 0.9778
4.7131 -2.2825 -2.0068 0.9778
4.8989 -1.8530 -2.0072 0.9778
5.0585 1.3677 -2.0081 0.9778
4.9160 1.8137 -2.0080 0.9778
4.7342 2.2451 -2.0079 0.9778
4.2586 3.0505 -2.0075 0.9778
3.9688 3.4180 -2.0072 0.9778
3.6472 3.7580 -2.0069 0.9778
2.8564 4.2507 -1.9626 0.9783
-0.1641 4.8247 -1.8500 0.9795
-1.8399 4.4567 -1.8477 0.9796
-4.1697 3.1238 -1.9966 0.9779
-5.1058 1.0140 -1.9949 0.9779
-5.1755 0.5542 -1.9947 0.9780
-5.2039 0.0899 -1.9945 0.9780
-5.1909 -0.3749 -1.9944 0.9780
-4.7319 -2.1680 -1.9946 0.9780
-3.9897 -3.3454 -1.9953 0.9779
-3.6758 -3.6888 -1.9956 0.9779
-1.7224 -4.9206 -1.9979 0.9779
-1.2767 -5.0561 -1.9984 0.9779
-0.3575 -5.2055 -1.9996 0.9779
1.4887 -5.0076 -2.0020 0.9779
1.9303 -4.8562 -2.0026 0.9779
2.3568 -4.6659 -2.0032 0.9779
3.8448 -3.5499 -2.0054 0.9778
4.4168 -2.8109 -2.0063 0.9778
5.0064 -1.5411 -2.0074 0.9778
5.2018 -0.6265 -2.0078 0.9778
5.2310 0.3085 -2.0081 0.9778
4.7919 2.1195 -2.0079 0.9778
4.3378 2.9372 -2.0076 0.9778
4.0577 3.3122 -2.0073 0.9778
3.7453 3.6607 -2.0070 0.9778
3.3981 3.9740 -2.0037 0.9779
2.0562 4.3756 -1.8527 0.9795
1.6570 4.5405 -1.8523 0.9795
1.2447 4.6690 -1.8518 0.9795
0.3944 4.8132 -1.8507 0.9795
-0.8941 4.7414 -1.8490 0.9795
-1.3134 4.6412 -1.8484 0.9796
-1.7219 4.5041 -1.8479 0.9796
-2.5041 4.1405 -1.8543 0.9795
-3.0154 4.1071 -1.9526 0.9784
-3.7821 3.5856 -1.9972 0.9779
-4.0861 3.2329 -1.9967 0.9779
-4.5939 2.4538 -1.9959 0.9779
-4.7938 2.0335 -1.9955 0.9779
-5.1592 0.6905 -1.9947 0.9779
-5.1990 -0.2379 -1.9945 0.9780
-5.1569 -0.7010 -1.9944 0.9780
-5.0738 -1.1585 -1.9944 0.9780
-4.9502 -1.6068 -1.9945 0.9780
-4.5862 -2.4618 -1.9947 0.9779
-4.3486 -2.8617 -1.9949 0.9779
-4.0764 -3.2388 -1.9952 0.9779
-3.7716 -3.5903 -1.9955 0.9779
-3.0742 -4.2054 -1.9963 0.9779
-2.6872 -4.4640 -1.9967 0.9779
-1.8515 -4.8731 -1.9977 0.9779
0.4371 -5.2022 -2.0006 0.9779
0.9000 -5.1440 -2.0012 0.9779
3.0392 -4.2561 -2.0042 0.9778
3.4079 -3.9689 -2.0047 0.9778
4.7939 -2.1086 -2.0070 0.9778
4.9637 -1.6725 -2.0073 0.9778
5.1833 -0.7634 -2.0078 0.9778
5.2372 0.1704 -2.0081 0.9778
5.2013 0.6373 -2.0081 0.9778
5.1237 1.0990 -2.0081 0.9778
4.8462 1.9924 -2.0080 0.9778
4.6487 2.4169 -2.0078 0.9778
4.1439 3.2042 -2.0074 0.9778
3.8407 3.5608 -2.0071 0.9778
3.5046 3.8862 -2.0054 0.9778
2.6378 4.2540 -1.9182 0.9788
2.1710 4.3202 -1.8529 0.9795
1.7763 4.4956 -1.8524 0.9795
1.3675 4.6350 -1.8519 0.9795
0.9481 4.7372 -1.8514 0.9795
-1.1906 4.6746 -1.8486 0.9795
-1.6026 4.5483 -1.8480 0.9796
-2.0016 4.3858 -1.8475 0.9796
-2.8593 4.1180 -1.9212 0.9788
-4.2809 2.9687 -1.9964 0.9779
-4.7387 2.1594 -1.9956 0.9779
-4.9117 1.7275 -1.9953 0.9779
-5.0456 1.2820 -1.9950 0.9779
-5.1921 0.3643 -1.9946 0.9780
-5.1736 -0.5647 -1.9944 0.9780
-4.6495 -2.3399 -1.9947 0.9780
-4.4225 -2.7459 -1.9949 0.9779
-4.1602 -3.1301 -1.9951 0.9779
-3.8648 -3.4894 -1.9954 0.9779
-3.5385 -3.8212 -1.9958 0.9779
-3.1839 -4.1226 -1.9961 0.9779
-2.8038 -4.3913 -1.9966 0.9779
-2.4012 -4.6251 -1.9970 0.9779
-1.5413 -4.9809 -1.9981 0.9779
-1.0908 -5.1000 -1.9986 0.9779
-0.6314 -5.1785 -1.9992 0.9779
0.2997 -5.2114 -2.0004 0.9779
1.2223 -5.0782 -2.0016 0.9779
1.6712 -4.9503 -2.0022 0.9779
3.9726 -3.4071 -2.0056 0.9778
4.2619 -3.0396 -2.0060 0.9778
4.5171 -2.6476 -2.0065 0.9778
4.7363 -2.2342 -2.0069 0.9778
4.9177 -1.8028 -2.0072 0.9778
5.0597 -1.3568 -2.0075 0.9778
5.1612 -0.8999 -2.0077 0.9778
5.2162 0.4998 -2.0081 0.9778
5.1509 0.9635 -2.0081 0.9778
5.0442 1.4194 -2.0081 0.9778
4.8972 1.8639 -2.0080 0.9778
4.7109 2.2935 -2.0079 0.9778
4.4870 2.7046 -2.0077 0.9778
4.2271 3.0939 -2.0074 0.9778
3.9335 3.4584 -2.0072 0.9778
3.6085 3.7950 -2.0068 0.9778
3.2467 4.0912 -2.0015 0.9779
2.2853 4.2635 -1.8538 0.9795
1.4894 4.5977 -1.8521 0.9795
1.0728 4.7109 -1.8515 0.9795
-0.2135 4.8226 -1.8499 0.9795
-0.6429 4.7828 -1.8493 0.9795
-1.4823 4.5894 -1.8482 0.9796
-1.8854 4.4375 -1.8476 0.9796
-3.2256 4.0721 -1.9908 0.9780
-3.5839 3.7760 -1.9950 0.9779
-4.4587 2.6929 -1.9961 0.9779
-4.6803 2.2837 -1.9957 0.9779
-4.8647 1.8565 -1.9954 0.9779
-5.1159 0.9617 -1.9948 0.9779
-5.2045 0.0367 -1.9945 0.9780
-5.1868 -0.4281 -1.9944 0.9780
-4.8882 -1.7870 -1.9945 0.9780
-4.4932 -2.6282 -1.9948 0.9779
-3.9553 -3.3861 -1.9953 0.9779
-2.9185 -4.3155 -1.9964 0.9779
-1.2249 -5.0691 -1.9985 0.9779
-0.7677 -5.1596 -1.9990 0.9779
-0.3042 -5.2091 -1.9996 0.9779
0.1621 -5.2170 -2.0002 0.9779
0.6273 -5.1833 -2.0008 0.9779
1.0878 -5.1082 -2.0014 0.9779
1.9800 -4.8363 -2.0027 0.9779
2.4045 -4.6416 -2.0033 0.9779
2.8101 -4.4098 -2.0038 0.9778
3.1934 -4.1425 -2.0044 0.9778
3.5514 -3.8419 -2.0049 0.9778
3.8811 -3.5104 -2.0054 0.9778
4.4455 -2.7656 -2.0063 0.9778
4.6755 -2.3582 -2.0067 0.9778
5.0220 -1.4898 -2.0074 0.9778
5.2388 -0.1060 -2.0080 0.9778
5.0800 1.2859 -2.0081 0.9778
4.5569 2.5853 -2.0078 0.9778
4.3074 2.9815 -2.0075 0.9778
4.0235 3.3536 -2.0072 0.9778
3.7075 3.6987 -2.0069 0.9778
3.3562 4.0073 -2.0031 0.9779
2.9560 4.2491 -1.9836 0.9781
2.0158 4.4065 -1.8570 0.9795
1.1968 4.6814 -1.8517 0.9795
0.3451 4.8168 -1.8506 0.9795
-0.0862 4.8269 -1.8501 0.9795
-0.9426 4.7318 -1.8489 0.9795
-1.3608 4.6273 -1.8484 0.9796
-1.7679 4.4860 -1.8478 0.9796
-2.5603 4.1372 -1.8645 0.9794
-3.0773 4.1027 -1.9654 0.9783
-3.4808 3.8667 -1.9937 0.9780
-4.1189 3.1908 -1.9967 0.9779
-4.6187 2.4065 -1.9958 0.9779
-5.0889 1.0963 -1.9949 0.9779
-5.1659 0.6376 -1.9947 0.9779
-5.0616 -1.2104 -1.9944 0.9780
-4.9335 -1.6575 -1.9945 0.9780
-4.7662 -2.0913 -1.9946 0.9780
-4.5608 -2.5087 -1.9947 0.9779
-3.0311 -4.2367 -1.9963 0.9779
-2.6414 -4.4914 -1.9968 0.9779
-2.2304 -4.7104 -1.9972 0.9779
-1.8016 -4.8919 -1.9978 0.9779
0.4903 -5.1976 -2.0007 0.9779
1.8516 -4.8864 -2.0025 0.9779
2.2811 -4.7030 -2.0031 0.9779
2.6925 -4.4820 -2.0037 0.9779
3.0827 -4.2249 -2.0042 0.9778
3.4485 -3.9339 -2.0048 0.9778
4.0951 -3.2597 -2.0058 0.9778
4.3707 -2.8817 -2.0062 0.9778
4.6114 -2.4806 -2.0066 0.9778
4.8153 -2.0594 -2.0070 0.9778
5.1063 -1.1707 -2.0076 0.9778
5.1909 -0.7103 -2.0078 0.9778
5.1121 1.1514 -2.0081 0.9778
4.9888 1.6031 -2.0081 0.9778
4.3847 2.8669 -2.0076 0.9778
0.8995 4.7465 -1.8513 0.9795
0.4721 4.8065 -1.8508 0.9795
0.0411 4.8280 -1.8502 0.9795
-0.8175 4.7554 -1.8491 0.9795
-1.2384 4.6620 -1.8485 0.9795
-1.6491 4.5315 -1.8480 0.9796
-4.3110 2.9247 -1.9963 0.9779
-4.5539 2.5277 -1.9959 0.9779
-4.9291 1.6771 -1.9953 0.9779
-5.0918 -1.0765 -1.9944 0.9780
-4.8196 -1.9649 -1.9945 0.9780
-4.6253 -2.3874 -1.9947 0.9779
-4.3942 -2.7910 -1.9949 0.9779
-4.1280 -3.1725 -1.9951 0.9779
-3.4993 -3.8573 -1.9958 0.9779
-3.1416 -4.1551 -1.9962 0.9779
-2.7587 -4.4199 -1.9966 0.9779
-1.9298 -4.8423 -1.9976 0.9779
-1.4902 -4.9966 -1.9981 0.9779
-1.0386 -5.1111 -1.9987 0.9779
-0.5784 -5.1849 -1.9993 0.9779
0.3530 -5.2082 -2.0005 0.9779
0.8168 -5.1575 -2.0011 0.9779
2.1560 -4.7611 -2.0029 0.9779
2.9700 -4.3044 -2.0041 0.9778
3.3433 -4.0232 -2.0046 0.9778
3.6900 -3.7097 -2.0051 0.9778
4.7591 -2.1856 -2.0069 0.9778
2.9095 -3.9385 -2.0041 0.9791
3.2503 -3.6640 -2.0046 0.9791
3.5652 -3.3601 -2.0051 0.9790
3.8518 -3.0291 -2.0055 0.9790
4.3308 -2.2968 -2.0063 0.9790
4.6716 -1.4906 -2.0069 0.9790
4.7866 -1.0678 -2.0072 0.9790
4.8996 0.2386 -2.0076 0.9790
4.7792 1.1061 -2.0077 0.9790
4.5060 1.9381 -2.0075 0.9790
4.3146 2.3324 -2.0074 0.9790
4.0888 2.7080 -2.0072 0.9790
2.8767 3.9596 -2.0031 0.9791
2.5061 4.1912 -1.9986 0.9791
1.5984 4.2448 -1.8564 0.9806
0.8159 4.4488 -1.8511 0.9806
0.0118 4.5205 -1.8501 0.9807
-0.7917 4.4480 -1.8491 0.9807
-2.8421 3.9554 -1.9934 0.9792
-3.1898 3.6928 -1.9972 0.9791
-3.5073 3.3939 -1.9975 0.9791
-4.2785 2.3419 -1.9963 0.9791
-4.7440 1.1241 -1.9954 0.9791
-1.9433 0.1049 -0.7965 0.9916
-1.9307 -0.0685 -0.7907 0.9917
-4.7626 -1.0363 -1.9948 0.9792
-4.6512 -1.4573 -1.9949 0.9792
-4.0998 -2.6381 -1.9953 0.9791
-3.2557 -3.6316 -1.9962 0.9791
-2.5591 -4.1543 -1.9970 0.9791
-1.7804 -4.5452 -1.9979 0.9791
-0.5129 -4.8583 -1.9994 0.9791
-0.0772 -4.8861 -2.0000 0.9791
0.7933 -4.8247 -2.0011 0.9791
1.6395 -4.6094 -2.0023 0.9791
2.4343 -4.2468 -2.0034 0.9791
4.2684 -2.4101 -2.0062 0.9790
4.4673 -2.0198 -2.0066 0.9790
4.6305 -1.6132 -2.0069 0.9790
4.8447 -0.7643 -2.0073 0.9790
4.9041 0.1093 -2.0076 0.9790
4.8749 0.5467 -2.0077 0.9790
4.8067 0.9796 -2.0077 0.9790
4.7000 1.4048 -2.0077 0.9790
4.5556 1.8186 -2.0076 0.9790
4.1590 2.5993 -2.0072 0.9790
3.6295 3.2965 -2.0067 0.9790
2.9823 3.8851 -2.0045 0.9791
0.9330 4.4261 -1.8513 0.9806
0.5341 4.4905 -1.8508 0.9806
0.1311 4.5190 -1.8503 0.9807
-0.6742 4.4677 -1.8492 0.9807
-2.2962 4.1313 -1.9345 0.9798
-2.7354 4.0270 -1.9924 0.9792
-3.4168 3.4855 -1.9976 0.9791
-3.9804 2.8211 -1.9968 0.9791
-4.2155 2.4541 -1.9964 0.9791
-4.4169 2.0676 -1.9960 0.9791
-4.5832 1.6649 -1.9957 0.9791
-4.7129 1.2489 -1.9954 0.9791
-1.9072 -0.0174 -0.7806 0.9918
-2.2095 -0.4200 -0.9205 0.9903
-4.6880 -1.3341 -1.9949 0.9792
-4.5504 -1.7473 -1.9949 0.9792
-4.3765 -2.1467 -1.9951 0.9792
-4.1678 -2.5290 -1.9952 0.9792
-3.9259 -2.8913 -1.9955 0.9791
-3.0210 -3.8299 -1.9964 0.9791
-2.6676 -4.0851 -1.9968 0.9791
-1.8995 -4.4964 -1.9977 0.9791
-1.0703 -4.7649 -1.9987 0.9791
0.2306 -4.8822 -2.0004 0.9791
1.0957 -4.7661 -2.0015 0.9791
1.5172 -4.6506 -2.0021 0.9791
2.3212 -4.3092 -2.0032 0.9791
3.9605 -2.8863 -2.0057 0.9790
4.2031 -2.5217 -2.0061 0.9790
4.4123 -2.1368 -2.0065 0.9790
4.8227 -0.8918 -2.0073 0.9790
4.9052 -0.0201 -2.0076 0.9790
4.8876 0.4179 -2.0077 0.9790
4.7354 1.2803 -2.0077 0.9790
4.6021 1.6978 -2.0076 0.9790
4.4319 2.1017 -2.0075 0.9790
4.2262 2.4887 -2.0073 0.9790
3.4144 3.5181 -2.0065 0.9790
2.3267 4.2359 -1.9780 0.9793
1.4385 4.2901 -1.8519 0.9806
0.2503 4.5143 -1.8504 0.9806
-0.5561 4.4843 -1.8494 0.9807
-0.9539 4.4155 -1.8488 0.9807
-2.1598 4.1393 -1.9109 0.9800
-3.6289 3.2629 -1.9973 0.9791
-4.1495 2.5646 -1.9965 0.9791
-4.5378 1.7852 -1.9958 0.9791
-4.7818 0.9496 -1.9953 0.9791
-1.9570 0.2095 -0.8055 0.9915
-1.9151 0.0331 -0.7839 0.9918
-1.9527 -0.1410 -0.8013 0.9916
-2.0609 -0.3357 -0.8546 0.9910
-4.7215 -1.2100 -1.9948 0.9792
-4.5948 -1.6266 -1.9949 0.9792
-3.1208 -3.7487 -1.9963 0.9791
-2.7743 -4.0131 -1.9967 0.9791
-2.4055 -4.2456 -1.9971 0.9791
-1.6130 -4.6078 -1.9981 0.9791
-1.1955 -4.7346 -1.9986 0.9791
-0.3348 -4.8744 -1.9997 0.9791
0.1017 -4.8862 -2.0002 0.9791
0.5376 -4.8590 -2.0008 0.9791
1.3939 -4.6886 -2.0019 0.9791
1.8073 -4.5468 -2.0025 0.9791
2.9498 -3.9086 -2.0041 0.9791
3.2878 -3.6306 -2.0046 0.9791
3.5996 -3.3235 -2.0051 0.9790
3.8827 -2.9895 -2.0056 0.9790
4.3541 -2.2524 -2.0064 0.9790
4.6867 -1.4427 -2.0070 0.9790
4.8696 -0.5865 -2.0074 0.9790
4.8517 0.7248 -2.0077 0.9790
4.7676 1.1550 -2.0077 0.9790
4.6453 1.5759 -2.0076 0.9790
4.2905 2.3765 -2.0074 0.9790
3.5062 3.4270 -2.0066 0.9790
2.4625 4.2156 -1.9981 0.9791
1.9923 4.2396 -1.9172 0.9800
1.1653 4.3714 -1.8516 0.9806
0.7703 4.4568 -1.8511 0.9806
0.3693 4.5065 -1.8506 0.9806
-0.0345 4.5202 -1.8501 0.9807
-0.4377 4.4978 -1.8495 0.9807
-0.8372 4.4395 -1.8490 0.9807
-1.2298 4.3458 -1.8485 0.9807
-1.6123 4.2175 -1.8479 0.9807
-2.8831 3.9269 -1.9938 0.9792
-3.8265 3.0275 -1.9970 0.9791
-4.0807 2.6733 -1.9966 0.9791
-1.9495 0.2609 -0.8050 0.9915
-1.9367 0.0846 -0.7934 0.9917
-1.9381 -0.0887 -0.7940 0.9916
-4.7518 -1.0850 -1.9948 0.9792
-4.0726 -2.6800 -1.9953 0.9791
-3.8176 -3.0332 -1.9956 0.9791
-3.5321 -3.3624 -1.9959 0.9791
-3.2184 -3.6649 -1.9962 0.9791
-2.8790 -3.9383 -1.9966 0.9791
-2.5165 -4.1804 -1.9970 0.9791
-1.7338 -4.5633 -1.9979 0.9791
-1.3199 -4.7011 -1.9984 0.9791
-0.8952 -4.8014 -1.9990 0.9791
-0.4632 -4.8635 -1.9995 0.9791
-0.0272 -4.8867 -2.0001 0.9791
0.8427 -4.8165 -2.0012 0.9791
1.2696 -4.7234 -2.0018 0.9791
1.6866 -4.5925 -2.0023 0.9791
2.0904 -4.4249 -2.0029 0.9791
2.4777 -4.2218 -2.0035 0.9791
3.8023 -3.0907 -2.0054 0.9790
4.0638 -2.7395 -2.0059 0.9790
4.6468 -1.5658 -2.0069 0.9790
4.7687 -1.1449 -2.0071 0.9790
4.8971 -0.2787 -2.0075 0.9790
4.9027 0.1595 -2.0076 0.9790
4.5367 1.8652 -2.0076 0.9790
3.8793 2.9996 -2.0070 0.9790
3.5955 3.3334 -2.0067 0.9790
0.8876 4.4353 -1.8512 0.9806
0.0848 4.5199 -1.8502 0.9807
-0.3189 4.5082 -1.8497 0.9807
-0.7199 4.4604 -1.8492 0.9807
-1.1148 4.3771 -1.8486 0.9807
-1.8960 4.1542 -1.8689 0.9805
-2.3501 4.1280 -1.9441 0.9797
-3.4522 3.4502 -1.9976 0.9791
-4.0090 2.7802 -1.9967 0.9791
-4.4378 2.0223 -1.9960 0.9791
-4.7253 1.2006 -1.9954 0.9791
-2.0437 0.3286 -0.8472 0.9911
-1.9518 0.1369 -0.8008 0.9916
-1.9170 -0.0371 -0.7847 0.9917
-1.9567 -0.2136 -0.8056 0.9915
-4.7787 -0.9593 -1.9948 0.9792
-4.6741 -1.3820 -1.9949 0.9792
-3.6194 -3.2679 -1.9958 0.9791
-3.3138 -3.5785 -1.9961 0.9791
-2.9817 -3.8607 -1.9965 0.9791
-1.8534 -4.5157 -1.9978 0.9791
-1.4433 -4.6643 -1.9983 0.9791
-1.0215 -4.7757 -1.9988 0.9791
-0.5912 -4.8492 -1.9993 0.9791
-0.1561 -4.8839 -1.9999 0.9791
1.5648 -4.6350 -2.0022 0.9791
2.7392 -4.0581 -2.0038 0.9791
3.4188 -3.5082 -2.0048 0.9791
3.7192 -3.1897 -2.0053 0.9790
3.9899 -2.8456 -2.0057 0.9790
4.4340 -2.0916 -2.0065 0.9790
4.6037 -1.6877 -2.0068 0.9790
4.7366 -1.2702 -2.0071 0.9790
4.8316 -0.8424 -2.0073 0.9790
4.8880 -0.4078 -2.0075 0.9790
4.8219 0.9019 -2.0077 0.9790
4.7221 1.3287 -2.0077 0.9790
4.2004 2.5319 -2.0073 0.9790
3.3781 3.5528 -2.0065 0.9790
2.6848 4.0851 -2.0007 0.9791
2.2709 4.2366 -1.9673 0.9794
1.3945 4.3045 -1.8519 0.9806
0.6065 4.4815 -1.8509 0.9806
0.2040 4.5165 -1.8504 0.9806
-0.6020 4.4782 -1.8493 0.9807
-0.9991 4.4054 -1.8488 0.9807
-1.7692 4.1639 -1.8516 0.9806
-2.2124 4.1363 -1.9198 0.9799
-2.6693 4.0694 -1.9918 0.9792
-3.0272 3.8216 -1.9953 0.9791
-3.3603 3.5403 -1.9977 0.9791
-3.9345 2.8851 -1.9968 0.9791
-4.1755 2.5219 -1.9964 0.9791
-4.3831 2.1387 -1.9961 0.9791
-4.6922 1.3249 -1.9955 0.9791
-2.2008 0.4137 -0.9165 0.9904
-1.9579 0.1894 -0.8051 0.9915
-1.9051 0.0134 -0.7797 0.9918
-1.9566 -0.1615 -0.8035 0.9916
-4.7089 -1.2583 -1.9948 0.9792
-4.2080 -2.4614 -1.9952 0.9792
-3.9719 -2.8275 -1.9954 0.9791
-3.7042 -3.1711 -1.9957 0.9791
-2.7331 -4.0414 -1.9968 0.9791
-1.1470 -4.7468 -1.9986 0.9791
-0.7189 -4.8315 -1.9992 0.9791
1.4418 -4.6743 -2.0020 0.9791
2.2513 -4.3458 -2.0031 0.9791
2.6309 -4.1287 -2.0037 0.9791
2.9898 -3.8783 -2.0042 0.9791
3.6335 -3.2865 -2.0052 0.9790
3.9132 -2.9497 -2.0056 0.9790
4.3771 -2.2077 -2.0064 0.9790
4.7013 -1.3946 -2.0070 0.9790
4.8076 -0.9695 -2.0072 0.9790
4.8937 0.3390 -2.0077 0.9790
4.8440 0.7744 -2.0077 0.9790
4.7555 1.2037 -2.0077 0.9790
4.2659 2.4202 -2.0073 0.9790
4.0324 2.7911 -2.0071 0.9790
3.7666 3.1395 -2.0069 0.9790
3.4708 3.4626 -2.0066 0.9790
1.5076 4.2665 -1.8520 0.9806
1.1219 4.3885 -1.8539 0.9806
0.3231 4.5099 -1.8505 0.9806
-0.0808 4.5195 -1.8500 0.9807
-0.8826 4.4305 -1.8489 0.9807
-1.2742 4.3328 -1.8484 0.9807
-2.0779 4.1441 -1.8973 0.9802
-2.5471 4.1159 -1.9810 0.9793
-2.9237 3.8979 -1.9942 0.9792
-3.8573 2.9881 -1.9970 0.9791
-4.1077 2.6313 -1.9965 0.9791
-4.5086 1.8583 -1.9958 0.9791
-1.9446 -0.1089 -0.7971 0.9916
-4.4637 -1.9586 -1.9950 0.9792
-4.0450 -2.7216 -1.9954 0.9791
-3.7864 -3.0722 -1.9956 0.9791
-3.4976 -3.3984 -1.9959 0.9791
-3.1808 -3.6977 -1.9963 0.9791
-2.8385 -3.9676 -1.9966 0.9791
-2.0887 -4.4111 -1.9975 0.9791
-1.2717 -4.7145 -1.9985 0.9791
-0.4134 -4.8681 -1.9996 0.9791
0.0228 -4.8869 -2.0001 0.9791
0.8920 -4.8077 -2.0013 0.9791
1.7336 -4.5751 -2.0024 0.9791
2.5209 -4.1963 -2.0035 0.9791
3.2286 -3.6831 -2.0046 0.9791
4.6627 -1.5181 -2.0069 0.9790
4.8998 -0.2285 -2.0075 0.9790
4.9009 0.2098 -2.0076 0.9790
4.6702 1.5007 -2.0076 0.9790
4.1047 2.6838 -2.0072 0.9790
3.8483 3.0392 -2.0069 0.9790
3.5611 3.3700 -2.0066 0.9790
3.2455 3.6738 -2.0063 0.9790
2.5312 4.1769 -1.9989 0.9791
0.8421 4.4440 -1.8512 0.9806
0.4420 4.5002 -1.8507 0.9806
0.0385 4.5204 -1.8502 0.9807
-1.5441 4.2432 -1.8480 0.9807
-1.9463 4.1515 -1.8765 0.9804
-2.8184 3.9716 -1.9932 0.9792
-3.7773 3.0890 -1.9971 0.9791
-4.2647 2.3671 -1.9963 0.9791
-4.7373 1.1521 -1.9954 0.9791
-1.9613 0.2948 -0.8117 0.9915
-1.9467 0.1166 -0.7982 0.9916
-1.9259 -0.0570 -0.7886 0.9917
-4.7686 -1.0082 -1.9948 0.9792
-4.6597 -1.4298 -1.9949 0.9792
-4.5137 -1.8402 -1.9950 0.9792
-4.1152 -2.6139 -1.9953 0.9791
-3.8660 -2.9711 -1.9955 0.9791
-3.5858 -3.3048 -1.9958 0.9791
-2.5835 -4.1391 -1.9969 0.9791
-1.8072 -4.5346 -1.9978 0.9791
-0.9725 -4.7861 -1.9989 0.9791
-0.5416 -4.8551 -1.9994 0.9791
0.3306 -4.8768 -2.0005 0.9791
2.4092 -4.2610 -2.0034 0.9791
2.7806 -4.0300 -2.0039 0.9791
4.0190 -2.8047 -2.0058 0.9790
4.2541 -2.4352 -2.0062 0.9790
4.4553 -2.0461 -2.0065 0.9790
3.0520 -3.4405 -2.0044 0.9801
4.0664 -2.1566 -2.0060 0.9801
4.3863 -1.3996 -2.0066 0.9801
4.4943 -1.0026 -2.0068 0.9801
4.6017 -0.1875 -2.0072 0.9801
4.3765 1.4349 -2.0072 0.9801
4.2307 1.8197 -2.0072 0.9801
3.3250 3.1839 -2.0063 0.9801
3.0270 3.4674 -2.0060 0.9801
2.7049 3.7231 -2.0056 0.9801
2.3581 3.9436 -2.0025 0.9802
1.1721 4.2225 -1.9098 0.9811
0.3901 4.2282 -1.8505 0.9816
-0.3678 4.2279 -1.8496 0.9817
-1.5390 4.1525 -1.9300 0.9809
-2.3282 3.9402 -1.9946 0.9802
-2.6746 3.7223 -1.9976 0.9802
-3.2941 3.1876 -1.9977 0.9802
-3.5647 2.8802 -1.9973 0.9802
-3.8069 2.5500 -1.9969 0.9802
-4.0186 2.1996 -1.9966 0.9802
-4.1982 1.8318 -1.9962 0.9802
-1.5878 0.5298 -0.7295 0.9927
-1.5360 0.3640 -0.6880 0.9931
-1.5295 0.0825 -0.6676 0.9933
-1.5284 -0.0542 -0.6665 0.9933
-1.5214 -0.3310 -0.6786 0.9932
-1.5799 -0.4950 -0.7215 0.9928
-4.2294 -1.7534 -1.9954 0.9802
-4.0562 -2.1241 -1.9955 0.9802
-3.8508 -2.4779 -1.9957 0.9802
-3.3497 -3.1239 -1.9962 0.9802
-3.0579 -3.4110 -1.9965 0.9802
-2.7417 -3.6710 -1.9968 0.9802
-2.0461 -4.1016 -1.9976 0.9802
-1.2847 -4.4021 -1.9985 0.9802
-0.4817 -4.5627 -1.9995 0.9802
0.3374 -4.5781 -2.0006 0.9802
0.7450 -4.5309 -2.0011 0.9802
1.1467 -4.4475 -2.0017 0.9802
1.5396 -4.3285 -2.0022 0.9802
2.6334 -3.7689 -2.0038 0.9801
3.7892 -2.6112 -2.0055 0.9801
4.5488 -0.7177 -2.0070 0.9801
4.5951 -0.3088 -2.0071 0.9801
4.4129 1.3190 -2.0073 0.9801
4.2773 1.7075 -2.0072 0.9801
3.9049 2.4405 -2.0069 0.9801
3.6711 2.7790 -2.0067 0.9801
3.1175 3.3866 -2.0061 0.9801
2.8023 3.6507 -2.0057 0.9801
2.4628 3.8823 -2.0037 0.9801
1.2930 4.2225 -1.9246 0.9809
0.8899 4.2216 -1.8803 0.9814
0.5022 4.2222 -1.8531 0.9816
-0.2561 4.2365 -1.8497 0.9817
-0.6334 4.1973 -1.8500 0.9816
-1.0184 4.1770 -1.8737 0.9814
-1.4176 4.1586 -1.9148 0.9810
-1.8370 4.1366 -1.9726 0.9804
-2.5743 3.7898 -1.9967 0.9802
-2.9047 3.5478 -1.9983 0.9802
-3.7385 2.6497 -1.9970 0.9802
-3.9594 2.3050 -1.9967 0.9802
-4.1486 1.9420 -1.9963 0.9802
-1.5546 0.4120 -0.7009 0.9930
-1.5287 0.1230 -0.6684 0.9933
-1.5659 -0.4456 -0.7095 0.9929
-4.1108 -2.0163 -1.9954 0.9802
-2.8374 -3.5972 -1.9967 0.9802
-2.1534 -4.0460 -1.9975 0.9802
-1.7840 -4.2230 -1.9979 0.9802
-1.4003 -4.3664 -1.9984 0.9802
-0.6019 -4.5480 -1.9994 0.9802
-0.1935 -4.5848 -1.9999 0.9802
0.6251 -4.5486 -2.0010 0.9802
1.4247 -4.3673 -2.0021 0.9802
1.8094 -4.2238 -2.0026 0.9801
2.1798 -4.0465 -2.0031 0.9801
2.5329 -3.8367 -2.0036 0.9801
2.8660 -3.5962 -2.0041 0.9801
3.4613 -3.0306 -2.0050 0.9801
4.1429 -2.0064 -2.0061 0.9801
4.5282 -0.8374 -2.0069 0.9801
4.5852 -0.4299 -2.0071 0.9801
4.5890 0.3924 -2.0073 0.9801
4.5358 0.8004 -2.0073 0.9801
3.7433 2.6813 -2.0067 0.9801
2.8978 3.5757 -2.0058 0.9801
2.5659 3.8184 -2.0049 0.9801
1.8391 4.1979 -1.9974 0.9802
1.0071 4.2221 -1.8917 0.9812
0.6151 4.2195 -1.8583 0.9816
0.2350 4.2392 -1.8503 0.9816
-0.1443 4.2421 -1.8499 0.9816
-0.5223 4.2112 -1.8494 0.9817
-0.9034 4.1818 -1.8645 0.9815
-1.2980 4.1644 -1.9010 0.9811
-1.7106 4.1435 -1.9536 0.9806
-2.1155 4.0544 -1.9930 0.9802
-2.8103 3.6234 -1.9985 0.9802
-3.1218 3.3573 -1.9980 0.9802
-3.8974 2.4087 -1.9968 0.9802
-4.0961 2.0509 -1.9964 0.9802
-4.2622 1.6768 -1.9961 0.9802
-1.5706 0.4609 -0.7133 0.9929
-1.5250 0.1633 -0.6684 0.9933
-1.5293 -0.1105 -0.6682 0.9933
-1.5079 -0.2456 -0.6658 0.9934
-1.5491 -0.3970 -0.6970 0.9930
-1.5941 -0.5643 -0.7370 0.9926
-4.1624 -1.9071 -1.9954 0.9802
-3.9759 -2.2712 -1.9956 0.9802
-3.5095 -2.9427 -1.9960 0.9802
-3.2332 -3.2447 -1.9963 0.9802
-1.8947 -4.1742 -1.9978 0.9802
-1.5149 -4.3276 -1.9983 0.9802
0.5049 -4.5631 -2.0008 0.9802
1.6972 -4.2697 -2.0024 0.9802
3.0872 -3.4092 -2.0044 0.9801
3.3800 -3.1207 -2.0049 0.9801
3.8825 -2.4709 -2.0057 0.9801
4.4005 -1.3546 -2.0066 0.9801
4.6034 -0.1403 -2.0072 0.9801
4.5978 0.2712 -2.0073 0.9801
4.5553 0.6805 -2.0073 0.9801
4.4763 1.0844 -2.0073 0.9801
4.3616 1.4796 -2.0072 0.9801
4.2119 1.8629 -2.0071 0.9801
3.8128 2.5817 -2.0068 0.9801
3.2921 3.2177 -2.0063 0.9801
2.9913 3.4982 -2.0059 0.9801
2.6666 3.7506 -2.0056 0.9801
2.3171 3.9666 -2.0021 0.9802
0.7294 4.2205 -1.8666 0.9815
-0.7894 4.1863 -1.8566 0.9816
-1.5866 4.1500 -1.9363 0.9808
-2.3688 3.9168 -1.9949 0.9802
-3.0324 3.4387 -1.9981 0.9802
-3.8327 2.5108 -1.9969 0.9802
-4.0408 2.1583 -1.9965 0.9802
-1.5836 0.5104 -0.7251 0.9928
-1.5281 0.3456 -0.6828 0.9932
-1.5291 0.0668 -0.6670 0.9933
-1.5292 -0.0700 -0.6671 0.9933
-1.5177 -0.2063 -0.6675 0.9933
-1.5297 -0.3493 -0.6838 0.9932
-1.5845 -0.5143 -0.7260 0.9928
-4.2112 -1.7966 -1.9954 0.9802
-4.0343 -2.1655 -1.9955 0.9802
-3.8253 -2.5172 -1.9957 0.9802
-3.5857 -2.8490 -1.9959 0.9802
-3.3175 -3.1581 -1.9962 0.9802
-2.3635 -3.9263 -1.9973 0.9802
-2.0040 -4.1225 -1.9977 0.9802
-1.2396 -4.4152 -1.9986 0.9802
-0.4350 -4.5675 -1.9996 0.9802
1.9630 -4.1552 -2.0028 0.9801
2.3267 -3.9644 -2.0033 0.9801
2.6719 -3.7418 -2.0038 0.9801
2.9960 -3.4892 -2.0043 0.9801
3.5703 -2.9021 -2.0052 0.9801
3.8158 -2.5723 -2.0056 0.9801
4.2138 -1.8535 -2.0063 0.9801
4.4774 -1.0749 -2.0068 0.9801
4.5560 -0.6710 -2.0070 0.9801
4.2596 1.7512 -2.0072 0.9801
3.8797 2.4804 -2.0069 0.9801
3.3760 3.1299 -2.0064 0.9801
2.7647 3.6791 -2.0057 0.9801
2.0600 4.0992 -1.9994 0.9802
0.8448 4.2213 -1.8762 0.9814
0.4584 4.2230 -1.8512 0.9816
-0.2995 4.2335 -1.8497 0.9817
-1.0634 4.1750 -1.8776 0.9814
-3.2424 3.2405 -1.9978 0.9802
-3.5179 2.9375 -1.9974 0.9802
-3.7653 2.6112 -1.9970 0.9802
-3.9827 2.2643 -1.9966 0.9802
-1.5934 0.5604 -0.7361 0.9927
-1.5262 -0.0295 -0.6653 0.9934
-1.5246 -0.1664 -0.6684 0.9933
-1.5076 -0.3026 -0.6702 0.9933
-4.2571 -1.6849 -1.9953 0.9802
-4.0899 -2.0583 -1.9955 0.9802
-3.8902 -2.4154 -1.9956 0.9802
-3.6595 -2.7533 -1.9959 0.9802
-3.1125 -3.3611 -1.9964 0.9802
-2.4661 -3.8624 -1.9971 0.9802
-0.1466 -4.5867 -2.0000 0.9802
0.2635 -4.5827 -2.0005 0.9802
0.6717 -4.5421 -2.0010 0.9802
2.2211 -4.0241 -2.0032 0.9801
2.5721 -3.8107 -2.0037 0.9801
3.2103 -3.2942 -2.0046 0.9801
3.4923 -2.9951 -2.0051 0.9801
3.7464 -2.6719 -2.0055 0.9801
4.5366 -0.7910 -2.0069 0.9801
4.5894 -0.3829 -2.0071 0.9801
4.5848 0.4393 -2.0073 0.9801
4.4336 1.2476 -2.0073 0.9801
4.3044 1.6383 -2.0072 0.9801
3.4575 3.0399 -2.0064 0.9801
3.1719 3.3359 -2.0061 0.9801
2.1686 4.0456 -2.0005 0.9802
1.3678 4.2223 -1.9343 0.9808
0.5712 4.2206 -1.8562 0.9816
-1.3443 4.1622 -1.9062 0.9811
-1.7594 4.1409 -1.9608 0.9806
-2.1572 4.0331 -1.9933 0.9802
-2.5121 3.8298 -1.9961 0.9802
-3.4394 3.0294 -1.9975 0.9802
-3.6954 2.7098 -1.9971 0.9802
-3.9218 2.3687 -1.9967 0.9802
-4.2791 1.6330 -1.9961 0.9802
-1.5238 0.0107 -0.6641 0.9934
-1.5034 -0.2607 -0.6650 0.9934
-1.5969 -0.5838 -0.7410 0.9926
-4.1427 -1.9497 -1.9954 0.9802
-3.7307 -2.6557 -1.9958 0.9802
-3.4792 -2.9785 -1.9960 0.9802
-3.1999 -3.2777 -1.9963 0.9802
-2.5670 -3.7958 -1.9970 0.9802
-2.2183 -4.0105 -1.9974 0.9802
-1.8519 -4.1935 -1.9979 0.9802
-1.4705 -4.3430 -1.9983 0.9802
-0.2675 -4.5809 -1.9998 0.9802
0.1425 -4.5877 -2.0003 0.9802
0.9565 -4.4916 -2.0014 0.9802
1.3540 -4.3895 -2.0020 0.9802
1.7409 -4.2522 -2.0025 0.9802
3.1220 -3.3775 -2.0045 0.9801
4.1099 -2.0729 -2.0061 0.9801
4.2791 -1.6980 -2.0064 0.9801
4.4142 -1.3095 -2.0067 0.9801
4.5776 -0.5038 -2.0071 0.9801
4.5948 0.3183 -2.0073 0.9801
4.5481 0.7271 -2.0073 0.9801
4.4650 1.1302 -2.0073 0.9801
4.3462 1.5242 -2.0072 0.9801
4.1925 1.9060 -2.0071 0.9801
3.5366 2.9478 -2.0065 0.9801
3.2589 3.2512 -2.0062 0.9801
2.9552 3.5286 -2.0059 0.9801
1.4919 4.2220 -1.9515 0.9807
1.0794 4.2223 -1.8993 0.9812
0.6850 4.2201 -1.8633 0.9815
0.3034 4.2350 -1.8504 0.9816
-0.8336 4.1846 -1.8595 0.9816
-1.6345 4.1475 -1.9429 0.9807
-2.0493 4.0871 -1.9926 0.9802
-2.4092 3.8930 -1.9952 0.9802
-4.0626 2.1168 -1.9965 0.9802
-4.2347 1.7454 -1.9962 0.9802
-1.5197 0.3274 -0.6775 0.9932
-1.5296 -0.0857 -0.6677 0.9933
-1.5376 -0.3677 -0.6890 0.9931
-4.1926 -1.8397 -1.9954 0.9802
-3.5564 -2.8856 -1.9960 0.9802
-2.3232 -3.9504 -1.9973 0.9802
-1.9617 -4.1429 -1.9977 0.9802
-1.5845 -4.3024 -1.9982 0.9802
-1.1944 -4.4277 -1.9987 0.9802
-0.7945 -4.5178 -1.9992 0.9802
-0.3882 -4.5719 -1.9997 0.9802
0.0215 -4.5895 -2.0002 0.9802
0.4312 -4.5705 -2.0007 0.9802
0.8377 -4.5149 -2.0013 0.9802
1.2377 -4.4233 -2.0018 0.9802
1.6280 -4.2964 -2.0023 0.9802
2.3672 -3.9405 -2.0034 0.9801
3.3290 -3.1747 -2.0048 0.9801
3.5999 -2.8655 -2.0052 0.9801
3.8420 -2.5332 -2.0056 0.9801
4.2327 -1.8103 -2.0063 0.9801
4.5626 -0.6244 -2.0070 0.9801
4.5657 0.6069 -2.0073 0.9801
