ply
format ascii 1.0
element vertex 1592
property float32 x
property float32 y
property float32 z
property float32 I
end_header
-9.7267 4.0561 -1.9808 0.9580
-10.3465 2.2754 -1.9912 0.9578
-10.5068 1.3435 -1.9910 0.9578
-10.5838 0.4011 -1.9908 0.9578
-10.4861 -1.4855 -1.9907 0.9578
-10.0566 -3.3251 -1.9909 0.9578
-6.9590 -8.0040 -1.9936 0.9578
-6.2196 -8.5957 -1.9942 0.9577
-5.4302 -9.1196 -1.9950 0.9577
-2.8261 -10.2447 -1.9975 0.9577
-0.9620 -10.5937 -1.9994 0.9576
-0.0134 -10.6424 -2.0004 0.9576
0.9362 -10.6064 -2.0013 0.9576
4.5944 -9.6280 -2.0052 0.9575
5.4372 -9.1840 -2.0061 0.9575
6.9883 -8.0789 -2.0078 0.9575
7.6839 -7.4264 -2.0086 0.9574
8.3186 -6.7139 -2.0093 0.9574
8.8872 -5.9473 -2.0100 0.9574
10.4157 -2.4669 -2.0119 0.9574
10.6909 -0.5773 -2.0124 0.9574
10.7004 0.3784 -2.0125 0.9574
10.6241 1.3312 -2.0125 0.9574
9.8724 4.0875 -2.0084 0.9574
8.3180 5.3451 -1.8584 0.9606
7.2323 6.7343 -1.8575 0.9606
6.6009 7.3502 -1.8569 0.9606
1.9187 9.6664 -1.8524 0.9607
-3.2758 9.2645 -1.8470 0.9608
-4.0870 8.9312 -1.8461 0.9608
-7.5274 6.2778 -1.8423 0.9609
-8.5175 4.8376 -1.8412 0.9609
-8.9832 4.0898 -1.8553 0.9606
-9.9971 3.5131 -1.9917 0.9578
-10.4587 1.6806 -1.9910 0.9578
-10.5657 0.7411 -1.9908 0.9578
-10.5284 -1.1476 -1.9907 0.9578
-10.3844 -2.0821 -1.9907 0.9578
-9.4659 -4.7581 -1.9913 0.9578
-7.2118 -7.7753 -1.9933 0.9578
-5.7198 -8.9391 -1.9947 0.9577
-3.1535 -10.1469 -1.9972 0.9577
-2.2370 -10.3924 -1.9981 0.9577
-1.3018 -10.5555 -1.9990 0.9576
-0.3555 -10.6346 -2.0000 0.9576
1.5410 -10.5389 -2.0020 0.9576
5.9546 -8.8610 -2.0066 0.9575
6.7240 -8.2981 -2.0075 0.9575
7.4402 -7.6685 -2.0083 0.9574
10.3304 -2.8002 -2.0118 0.9574
10.5406 -1.8680 -2.0121 0.9574
10.6614 0.9890 -2.0125 0.9574
10.5306 1.9358 -2.0125 0.9574
10.3154 2.8671 -2.0124 0.9574
8.4861 5.0753 -1.8586 0.9606
7.9979 5.8106 -1.8581 0.9606
6.1690 7.7135 -1.8565 0.9606
5.4545 8.2300 -1.8558 0.9606
4.6970 8.6802 -1.8551 0.9606
3.9025 9.0608 -1.8543 0.9606
2.2288 9.6014 -1.8527 0.9607
-0.3917 9.8348 -1.8500 0.9607
-2.1306 9.5994 -1.8482 0.9608
-3.7984 9.0595 -1.8465 0.9608
-4.5891 8.6807 -1.8456 0.9608
-6.7148 7.1472 -1.8433 0.9609
-7.3227 6.5174 -1.8426 0.9609
-7.8720 5.8364 -1.8419 0.9609
-8.3585 5.1095 -1.8414 0.9609
-8.7784 4.3425 -1.8408 0.9609
-9.8612 3.8257 -1.9881 0.9579
-10.5903 0.1364 -1.9907 0.9578
-10.5599 -0.8086 -1.9907 0.9578
-10.2489 -2.6719 -1.9908 0.9578
-8.6731 -6.0906 -1.9920 0.9578
-8.0974 -6.8415 -1.9925 0.9578
-7.4572 -7.5386 -1.9931 0.9578
-6.7573 -8.1762 -1.9937 0.9577
-6.0034 -8.7494 -1.9944 0.9577
-4.3570 -9.6844 -1.9960 0.9577
-3.4774 -10.0387 -1.9969 0.9577
-2.5695 -10.3135 -1.9978 0.9577
2.1411 -10.4369 -2.0026 0.9576
3.0648 -10.2093 -2.0035 0.9575
3.9650 -9.9000 -2.0045 0.9575
5.6658 -9.0464 -2.0063 0.9575
7.1888 -7.9026 -2.0080 0.9575
7.8679 -7.2327 -2.0088 0.9574
8.4846 -6.5045 -2.0095 0.9574
9.0338 -5.7238 -2.0101 0.9574
10.2344 -3.1306 -2.0116 0.9574
10.4746 -2.2058 -2.0120 0.9574
10.6310 -1.2630 -2.0123 0.9574
10.7022 -0.3099 -2.0124 0.9574
10.4025 2.5341 -2.0124 0.9574
10.1342 3.4514 -2.0123 0.9574
8.6455 4.8003 -1.8587 0.9606
7.0612 6.9124 -1.8573 0.9606
6.4145 7.5122 -1.8567 0.9606
5.7170 8.0515 -1.8561 0.9606
4.9743 8.5260 -1.8554 0.9606
4.1924 8.9320 -1.8546 0.9606
3.3777 9.2663 -1.8538 0.9607
1.6762 9.7101 -1.8521 0.9607
0.8032 9.8162 -1.8512 0.9607
-1.8212 9.6646 -1.8485 0.9608
-3.5058 9.1785 -1.8468 0.9608
-4.3084 8.8252 -1.8459 0.9608
-5.0760 8.4020 -1.8451 0.9608
-8.6351 4.6229 -1.8410 0.9609
-9.5528 4.0640 -1.9513 0.9586
-10.3301 2.3494 -1.9912 0.9578
-10.5807 0.4767 -1.9908 0.9578
-10.5805 -0.4687 -1.9907 0.9578
-10.4965 -1.4104 -1.9907 0.9578
-9.7510 -4.1396 -1.9911 0.9578
-9.3444 -4.9935 -1.9914 0.9578
-7.6948 -7.2942 -1.9929 0.9578
-7.0158 -7.9538 -1.9935 0.9578
-4.6653 -9.5379 -1.9957 0.9577
-3.7978 -9.9201 -1.9966 0.9577
1.8042 -10.4985 -2.0022 0.9576
3.6440 -10.0206 -2.0042 0.9575
4.5253 -9.6602 -2.0051 0.9575
5.3712 -9.2224 -2.0060 0.9575
6.1750 -8.7104 -2.0069 0.9575
6.9301 -8.1284 -2.0077 0.9575
8.8442 -6.0105 -2.0099 0.9574
9.7768 -4.3462 -2.0110 0.9574
10.1277 -3.4577 -2.0115 0.9574
10.6864 -0.6538 -2.0124 0.9574
10.7028 0.3019 -2.0125 0.9574
10.6334 1.2552 -2.0125 0.9574
10.4788 2.1984 -2.0125 0.9574
10.2403 3.1239 -2.0123 0.9574
7.8496 6.0083 -1.8580 0.9606
7.2805 6.6826 -1.8575 0.9606
5.2465 8.3628 -1.8556 0.9606
4.4780 8.7939 -1.8549 0.9606
3.6744 9.1544 -1.8541 0.9606
2.8421 9.4414 -1.8533 0.9607
1.9878 9.6528 -1.8524 0.9607
-0.3374 5.1984 -0.9792 0.9790
-2.3696 9.5418 -1.8480 0.9608
-3.2095 9.2880 -1.8471 0.9608
-4.0232 8.9606 -1.8462 0.9608
-4.8041 8.5622 -1.8454 0.9608
-5.5461 8.0961 -1.8446 0.9608
-6.2434 7.5660 -1.8438 0.9609
-6.8906 6.9763 -1.8431 0.9609
-8.4829 4.8985 -1.8412 0.9609
-8.8836 4.1214 -1.8407 0.9609
-10.4465 1.7554 -1.9911 0.9578
-10.5602 0.8166 -1.9908 0.9578
-10.5364 -1.0723 -1.9907 0.9578
-10.3990 -2.0077 -1.9907 0.9578
-10.1791 -2.9273 -1.9908 0.9578
-9.4995 -4.6903 -1.9913 0.9578
-8.5187 -6.3059 -1.9921 0.9578
-6.5515 -8.3434 -1.9939 0.9577
-4.9688 -9.3816 -1.9954 0.9577
-2.3112 -10.3758 -1.9980 0.9577
-1.3772 -10.5455 -1.9990 0.9576
0.5186 -10.6327 -2.0009 0.9576
3.3195 -10.1308 -2.0038 0.9575
4.2117 -9.7991 -2.0048 0.9575
5.0712 -9.3887 -2.0057 0.9575
5.8909 -8.9030 -2.0066 0.9575
6.6643 -8.3457 -2.0074 0.9575
8.0471 -7.0345 -2.0090 0.9574
8.6454 -6.2910 -2.0097 0.9574
9.6311 -4.6578 -2.0109 0.9574
10.3100 -2.8740 -2.0118 0.9574
10.6682 0.9127 -2.0125 0.9574
10.3357 2.7933 -2.0124 0.9574
10.0444 3.7035 -2.0122 0.9574
8.0394 5.7534 -1.8582 0.9606
6.2241 7.6694 -1.8565 0.9606
5.5134 8.1910 -1.8559 0.9606
4.7591 8.6467 -1.8551 0.9606
3.9673 9.0329 -1.8544 0.9606
2.2975 9.5856 -1.8527 0.9607
1.4328 9.7477 -1.8519 0.9607
-0.3214 9.8377 -1.8501 0.9607
-2.0620 9.6147 -1.8483 0.9608
-2.9098 9.3880 -1.8474 0.9608
-3.7337 9.0868 -1.8465 0.9608
-4.5271 8.7136 -1.8457 0.9608
-5.2838 8.2714 -1.8448 0.9608
-6.6637 7.1952 -1.8433 0.9609
-7.2761 6.5698 -1.8426 0.9609
-7.8303 5.8927 -1.8420 0.9609
-9.8281 3.8940 -1.9870 0.9579
-10.1591 3.0087 -1.9915 0.9578
-10.5289 1.1557 -1.9909 0.9578
-9.9959 -3.5042 -1.9909 0.9578
-9.6448 -4.3822 -1.9912 0.9578
-8.1460 -6.7833 -1.9925 0.9578
-7.5107 -7.4849 -1.9930 0.9578
-6.0656 -8.7060 -1.9944 0.9577
-5.2670 -9.2157 -1.9951 0.9577
-4.4260 -9.6527 -1.9960 0.9577
-3.5490 -10.0132 -1.9968 0.9577
-1.7153 -10.4940 -1.9986 0.9576
-0.7729 -10.6102 -1.9996 0.9576
0.1765 -10.6420 -2.0006 0.9576
2.0663 -10.4515 -2.0025 0.9576
5.6008 -9.0864 -2.0063 0.9575
6.3915 -8.5544 -2.0071 0.9575
9.8831 -4.1007 -2.0112 0.9574
10.2116 -3.2037 -2.0116 0.9574
10.6996 -0.3865 -2.0124 0.9574
10.5987 1.5206 -2.0125 0.9574
9.7834 4.2568 -2.0054 0.9575
8.6798 4.7384 -1.8587 0.9606
7.6964 6.2022 -1.8579 0.9606
7.1106 6.8619 -1.8574 0.9606
-9.3157 1.4287 -1.9922 0.9622
-9.4051 0.5921 -1.9920 0.9622
-9.2260 -1.9185 -1.9919 0.9622
-8.7398 -3.5276 -1.9922 0.9622
-7.9765 -5.0257 -1.9928 0.9622
-6.9599 -6.3656 -1.9937 0.9622
-6.3662 -6.9629 -1.9943 0.9622
-5.0312 -7.9881 -1.9955 0.9621
-4.3002 -8.4079 -1.9962 0.9621
-3.5346 -8.7612 -1.9970 0.9621
-1.9234 -9.2571 -1.9986 0.9621
-1.0906 -9.3957 -1.9994 0.9621
-0.2485 -9.4595 -2.0002 0.9621
0.5964 -9.4481 -2.0011 0.9620
1.4372 -9.3613 -2.0020 0.9620
2.2673 -9.1998 -2.0028 0.9620
3.0801 -8.9648 -2.0037 0.9620
3.8689 -8.6580 -2.0045 0.9620
4.6275 -8.2818 -2.0054 0.9620
5.3498 -7.8392 -2.0061 0.9619
8.2238 -4.7683 -2.0094 0.9619
8.6183 -4.0169 -2.0099 0.9619
8.9441 -3.2330 -2.0103 0.9619
9.1984 -2.4229 -2.0107 0.9619
9.3791 -1.5931 -2.0109 0.9619
9.4847 -0.7504 -2.0111 0.9618
9.5144 0.0985 -2.0113 0.9618
8.8782 3.4185 -2.0110 0.9619
7.5092 4.5643 -1.8575 0.9647
7.0708 5.2147 -1.8571 0.9647
6.5760 5.8231 -1.8567 0.9647
5.4338 6.8949 -1.8556 0.9647
1.7181 5.3593 -1.1896 0.9773
1.9203 8.5496 -1.8522 0.9648
1.1497 8.6832 -1.8515 0.9648
0.3706 8.7474 -1.8507 0.9648
-1.1883 8.6666 -1.8491 0.9649
-4.1366 7.6910 -1.8460 0.9649
-4.8041 7.2886 -1.8452 0.9649
-5.4329 6.8286 -1.8445 0.9650
-6.5551 5.7508 -1.8433 0.9650
-7.4682 4.4922 -1.8422 0.9650
-8.3913 4.0765 -1.9720 0.9626
-9.2654 1.7275 -1.9923 0.9622
-9.3902 -0.7866 -1.9919 0.9622
-9.2827 -1.6209 -1.9919 0.9622
-9.1016 -2.4425 -1.9920 0.9622
-7.6774 -5.4738 -1.9931 0.9622
-5.9592 -7.3165 -1.9946 0.9622
-4.5677 -8.2642 -1.9960 0.9621
-3.8138 -8.6418 -1.9967 0.9621
1.1354 -9.4012 -2.0017 0.9620
1.9701 -9.2665 -2.0025 0.9620
2.7899 -9.0578 -2.0034 0.9620
3.5881 -8.7766 -2.0042 0.9620
5.7902 -7.5227 -2.0066 0.9619
6.4403 -6.9788 -2.0074 0.9619
7.5826 -5.7274 -2.0087 0.9619
8.0655 -5.0298 -2.0092 0.9619
8.8349 -3.5186 -2.0102 0.9619
9.3226 -1.8937 -2.0109 0.9619
9.4554 -1.0548 -2.0111 0.9618
9.5125 -0.2074 -2.0112 0.9618
9.2280 2.3180 -2.0112 0.9618
8.9838 3.1315 -2.0111 0.9619
7.6626 4.3265 -1.8601 0.9647
7.2353 4.9851 -1.8573 0.9647
6.7604 5.6092 -1.8569 0.9647
5.6533 6.7174 -1.8558 0.9647
5.0301 7.1925 -1.8553 0.9648
4.3671 7.6099 -1.8546 0.9648
2.1945 8.4847 -1.8525 0.9648
0.6517 8.7323 -1.8510 0.9648
-0.1296 8.7518 -1.8502 0.9648
-1.6809 8.5821 -1.8486 0.9649
-2.4385 8.3944 -1.8478 0.9649
-3.8878 7.8212 -1.8462 0.9649
-5.2113 7.0006 -1.8448 0.9649
-5.8128 6.5056 -1.8441 0.9650
-7.3206 4.7304 -1.8424 0.9650
-8.9896 2.8378 -1.9927 0.9622
-9.3482 1.1953 -1.9921 0.9622
-9.4168 0.3568 -1.9920 0.9622
-9.4107 -0.4844 -1.9919 0.9622
-9.3300 -1.3217 -1.9919 0.9622
-7.3533 -5.9042 -1.9934 0.9622
-6.1907 -7.1204 -1.9944 0.9622
-5.5327 -7.6465 -1.9950 0.9621
-4.8304 -8.1121 -1.9957 0.9621
-3.3148 -8.8477 -1.9972 0.9621
-1.6916 -9.3034 -1.9988 0.9621
-0.0120 -9.4639 -2.0005 0.9620
1.6710 -9.3236 -2.0022 0.9620
2.4969 -9.1414 -2.0031 0.9620
3.3036 -8.8860 -2.0039 0.9620
4.0846 -8.5596 -2.0048 0.9620
4.8336 -8.1645 -2.0056 0.9620
5.5446 -7.7039 -2.0064 0.9619
7.3938 -5.9675 -2.0084 0.9619
7.8988 -5.2859 -2.0090 0.9619
9.0226 -3.0085 -2.0104 0.9619
9.4163 -1.3582 -2.0110 0.9619
9.0801 2.8412 -2.0111 0.9618
8.7897 3.6393 -2.0109 0.9619
8.2396 4.3090 -1.9655 0.9627
6.9378 5.3895 -1.8570 0.9647
5.8669 6.5329 -1.8560 0.9647
5.2593 7.0279 -1.8555 0.9647
3.9244 7.8451 -1.8542 0.9648
1.7058 8.5939 -1.8520 0.9648
0.1518 8.7529 -1.8505 0.9648
-0.3719 5.1594 -1.0934 0.9791
-2.9132 8.2392 -1.8473 0.9649
-4.3271 7.5844 -1.8457 0.9649
-4.9843 7.1655 -1.8450 0.9649
-5.6014 6.6899 -1.8443 0.9650
-6.1735 6.1616 -1.8437 0.9650
-7.1655 4.9637 -1.8426 0.9650
-7.5776 4.3038 -1.8421 0.9650
-8.8944 3.1255 -1.9928 0.9622
-9.1361 2.3195 -1.9925 0.9622
-9.3053 1.4953 -1.9922 0.9622
-9.4007 0.6594 -1.9920 0.9622
-9.4215 -0.1816 -1.9919 0.9622
-9.3676 -1.0211 -1.9919 0.9622
-9.2394 -1.8525 -1.9919 0.9622
-9.0379 -2.6693 -1.9920 0.9622
-8.7647 -3.4650 -1.9922 0.9622
-8.4219 -4.2334 -1.9925 0.9622
-7.5387 -5.6643 -1.9932 0.9622
-7.0051 -6.3156 -1.9937 0.9622
-6.4157 -6.9170 -1.9942 0.9622
-5.0880 -7.9517 -1.9955 0.9621
-4.3601 -8.3767 -1.9962 0.9621
-3.5970 -8.7354 -1.9969 0.9621
-1.9895 -9.2428 -1.9985 0.9621
-0.3161 -9.4572 -2.0002 0.9621
0.5288 -9.4518 -2.0010 0.9620
1.3702 -9.3710 -2.0019 0.9620
3.8068 -8.6852 -2.0045 0.9620
5.9770 -7.3763 -2.0068 0.9619
6.6134 -6.8163 -2.0075 0.9619
7.1973 -6.2014 -2.0082 0.9619
7.7241 -5.5365 -2.0088 0.9619
8.9206 -3.2968 -2.0103 0.9619
9.4791 -0.8182 -2.0111 0.9618
9.5149 0.0304 -2.0113 0.9618
9.1670 2.5479 -2.0112 0.9618
7.5418 4.5105 -1.8575 0.9647
7.1080 5.1641 -1.8572 0.9647
6.6176 5.7761 -1.8567 0.9647
6.0745 6.3416 -1.8562 0.9647
5.4831 6.8560 -1.8557 0.9647
1.9815 8.5359 -1.8523 0.9648
1.2118 8.6750 -1.8515 0.9648
0.4331 8.7448 -1.8507 0.9648
-0.3483 8.7448 -1.8499 0.9649
-4.0816 7.7207 -1.8460 0.9649
-5.3841 6.8674 -1.8446 0.9650
-5.9730 6.3576 -1.8439 0.9650
-6.5140 5.7977 -1.8433 0.9650
-7.0030 5.1921 -1.8428 0.9650
-7.4360 4.5456 -1.8422 0.9650
-8.7899 3.4101 -1.9929 0.9622
-9.0574 2.6121 -1.9926 0.9622
-9.3750 0.9613 -1.9921 0.9622
-9.4226 0.1213 -1.9919 0.9622
-8.5532 -3.9603 -1.9924 0.9622
-8.1672 -4.7080 -1.9927 0.9622
-7.7162 -5.4187 -1.9931 0.9622
-6.0113 -7.2735 -1.9946 0.9622
-5.3404 -7.7831 -1.9952 0.9621
-4.6265 -8.2312 -1.9959 0.9621
0.2246 -9.4624 -2.0007 0.9620
4.2978 -8.4558 -2.0050 0.9620
5.7361 -7.5636 -2.0066 0.9619
6.9934 -6.4288 -2.0080 0.9619
7.5413 -5.7813 -2.0086 0.9619
8.8094 -3.5816 -2.0101 0.9619
9.0954 -2.7822 -2.0105 0.9619
9.3087 -1.9603 -2.0108 0.9619
9.4475 -1.1224 -2.0111 0.9618
9.4088 1.4186 -2.0113 0.9618
9.0061 3.0672 -2.0111 0.9618
7.7800 4.3197 -1.8810 0.9643
7.2709 4.9333 -1.8573 0.9647
6.2759 6.1436 -1.8564 0.9647
5.7013 6.6769 -1.8559 0.9647
4.4216 7.5786 -1.8547 0.9648
0.7141 8.7277 -1.8510 0.9648
-2.3785 8.4120 -1.8478 0.9649
-5.7662 6.5472 -1.8442 0.9650
-6.8332 5.4151 -1.8430 0.9650
-7.2867 4.7827 -1.8424 0.9650
-7.6874 4.1155 -1.8432 0.9650
-9.4141 0.4242 -1.9920 0.9622
-9.3392 -1.2549 -1.9919 0.9622
-9.1903 -2.0829 -1.9919 0.9622
-8.9686 -2.8944 -1.9921 0.9622
-7.3952 -5.8513 -1.9933 0.9622
-6.8456 -6.4892 -1.9938 0.9622
-6.2413 -7.0758 -1.9944 0.9622
-5.5871 -7.6065 -1.9950 0.9621
-3.3779 -8.8235 -1.9971 0.9621
-1.7581 -9.2907 -1.9987 0.9621
-0.9229 -9.4144 -1.9996 0.9621
1.6042 -9.3350 -2.0022 0.9620
2.4314 -9.1587 -2.0030 0.9620
4.0231 -8.5883 -2.0047 0.9620
4.7750 -8.1986 -2.0055 0.9620
5.4892 -7.7431 -2.0063 0.9619
6.7824 -6.6495 -2.0077 0.9619
7.8607 -5.3421 -2.0090 0.9619
8.3080 -4.6211 -2.0095 0.9619
9.2404 -2.2584 -2.0107 0.9619
9.4062 -1.4255 -2.0110 0.9619
9.5112 0.2682 -2.0113 0.9618
9.4496 1.1154 -2.0113 0.9618
7.4263 4.6974 -1.8574 0.9647
6.9763 5.3398 -1.8570 0.9647
6.4707 5.9393 -1.8566 0.9647
5.3096 6.9903 -1.8555 0.9647
1.7673 8.5818 -1.8521 0.9648
0.9945 8.7016 -1.8513 0.9648
0.2144 8.7518 -1.8505 0.9648
-0.3373 5.1974 -1.1009 0.9789
-1.3426 8.6432 -1.8489 0.9649
-2.1072 8.4854 -1.8481 0.9649
-4.9331 7.2012 -1.8451 0.9649
-5.5535 6.7300 -1.8444 0.9650
-6.1295 6.2058 -1.8438 0.9650
-7.1300 5.0150 -1.8426 0.9650
-7.5468 4.3579 -1.8421 0.9650
-8.5297 3.9572 -1.9876 0.9623
-8.8719 3.1891 -1.9928 0.9622
-9.1194 2.3848 -1.9925 0.9622
-9.3958 0.7266 -1.9920 0.9622
-9.3747 -0.9541 -1.9919 0.9622
-8.4518 -4.1730 -1.9924 0.9622
-8.0474 -4.9109 -1.9928 0.9622
-7.5789 -5.6102 -1.9932 0.9622
-6.4649 -6.8708 -1.9942 0.9622
-4.4198 -8.3451 -1.9961 0.9621
-2.8691 -9.0043 -1.9976 0.9621
-2.0555 -9.2280 -1.9984 0.9621
-1.2248 -9.3785 -1.9993 0.9621
-0.3837 -9.4544 -2.0001 0.9621
0.4611 -9.4550 -2.0010 0.9620
1.3031 -9.3803 -2.0018 0.9620
4.5083 -8.3466 -2.0052 0.9620
5.2368 -7.9144 -2.0060 0.9619
5.9240 -7.4187 -2.0068 0.9619
7.6841 -5.5915 -2.0088 0.9619
8.1544 -4.8853 -2.0093 0.9619
8.5597 -4.1396 -2.0098 0.9619
9.1625 -2.5541 -2.0106 0.9619
9.4729 -0.8859 -2.0111 0.9618
9.4805 0.8111 -2.0113 0.9618
9.1851 2.4823 -2.0112 0.9618
8.9263 3.2913 -2.0110 0.9619
8.5808 4.0665 -2.0072 0.9619
7.5739 4.4565 -1.8576 0.9647
7.1449 5.1132 -1.8572 0.9647
6.1199 6.2981 -1.8563 0.9647
5.5322 6.8168 -1.8557 0.9647
3.5267 8.0297 -1.8538 0.9648
1.7565 5.2209 -1.1644 0.9777
1.2738 8.6664 -1.8516 0.9648
-0.2858 8.7474 -1.8500 0.9649
-1.0643 8.6833 -1.8492 0.9649
-1.8336 8.5500 -1.8484 0.9649
-2.5878 8.3489 -1.8476 0.9649
-3.3206 8.0814 -1.8468 0.9649
-5.3350 6.9060 -1.8446 0.9650
-6.4726 5.8443 -1.8434 0.9650
-8.1206 4.0896 -1.9219 0.9635
-8.7654 3.4729 -1.9930 0.9622
-9.0386 2.6768 -1.9926 0.9622
-9.2399 1.8598 -1.9923 0.9622
-9.4216 0.1887 -1.9919 0.9622
-9.4005 -0.6522 -1.9919 0.9622
-9.3049 -1.4880 -1.9919 0.9622
-9.1355 -2.3120 -1.9920 0.9622
-8.5812 -3.8989 -1.9923 0.9622
-8.2005 -4.6494 -1.9927 0.9622
-7.7547 -5.3632 -1.9930 0.9622
-6.6817 -6.6588 -1.9940 0.9622
-5.3957 -7.7445 -1.9952 0.9621
-4.6851 -8.1976 -1.9959 0.9621
-3.9368 -8.5859 -1.9966 0.9621
-3.1566 -8.9062 -1.9973 0.9621
-1.5255 -9.3328 -1.9990 0.9621
1.8373 -9.2931 -2.0024 0.9620
3.4619 -8.8264 -2.0041 0.9620
6.3395 -7.0698 -2.0072 0.9619
6.9471 -6.4785 -2.0079 0.9619
7.9924 -5.1444 -2.0091 0.9619
8.4215 -4.4123 -2.0097 0.9619
9.0752 -2.8471 -2.0105 0.9619
9.5016 0.5059 -2.0113 0.9618
9.2603 2.1858 -2.0112 0.9618
9.0278 3.0027 -2.0111 0.9618
7.9074 4.3168 -1.9043 0.9638
7.3061 4.8813 -1.8573 0.9647
6.8402 5.5122 -1.8569 0.9647
-8.4631 0.5328 -1.9930 0.9658
-8.4764 -0.2240 -1.9929 0.9658
-8.4226 -0.9791 -1.9928 0.9658
-8.3019 -1.7264 -1.9929 0.9658
-7.5508 -3.8634 -1.9934 0.9657
-7.1772 -4.5221 -1.9937 0.9657
-6.2622 -5.7275 -1.9945 0.9657
-5.1478 -6.7524 -1.9955 0.9657
-4.5264 -7.1867 -1.9961 0.9657
-3.8686 -7.5641 -1.9968 0.9657
-3.1797 -7.8816 -1.9974 0.9657
-2.4650 -8.1366 -1.9981 0.9657
-1.7302 -8.3271 -1.9989 0.9657
-0.9810 -8.4514 -1.9996 0.9656
0.5364 -8.4978 -2.0012 0.9656
1.2926 -8.4194 -2.0019 0.9656
2.0391 -8.2738 -2.0027 0.9656
2.7699 -8.0620 -2.0035 0.9656
4.1612 -7.4473 -2.0050 0.9656
5.4218 -6.5941 -2.0064 0.9655
6.5110 -5.5294 -2.0076 0.9655
7.3935 -4.2869 -2.0086 0.9655
7.7481 -3.6113 -2.0091 0.9655
8.0408 -2.9065 -2.0094 0.9655
8.2692 -2.1781 -2.0097 0.9655
8.4316 -1.4322 -2.0100 0.9655
8.5113 0.8510 -2.0103 0.9655
7.9813 3.0732 -2.0100 0.9655
7.6745 3.7723 -2.0098 0.9655
5.9121 5.2353 -1.8560 0.9681
4.8855 6.1991 -1.8550 0.9681
1.7054 5.3196 -1.3129 0.9773
1.7268 7.6883 -1.8519 0.9681
1.0339 7.8087 -1.8513 0.9682
0.3333 7.8668 -1.8505 0.9682
-1.7590 7.6655 -1.8484 0.9682
-3.0904 7.2255 -1.8470 0.9682
-4.3218 6.5568 -1.8456 0.9682
-5.8976 5.1740 -1.8439 0.9683
-7.6274 3.7054 -1.9930 0.9658
-7.9307 3.0117 -1.9938 0.9657
-8.1664 2.2920 -1.9934 0.9657
-8.4794 0.0485 -1.9929 0.9658
-8.3530 -1.4586 -1.9928 0.9658
-7.9619 -2.9197 -1.9931 0.9658
-5.9258 -6.0768 -1.9948 0.9657
-4.7545 -7.0367 -1.9959 0.9657
-4.1093 -7.4350 -1.9965 0.9657
-2.7249 -8.0522 -1.9979 0.9657
-1.9967 -8.2661 -1.9986 0.9657
-1.2520 -8.4143 -1.9993 0.9656
-0.4968 -8.4957 -2.0001 0.9656
1.7719 -8.3339 -2.0024 0.9656
3.2267 -7.8926 -2.0040 0.9656
3.9191 -7.5762 -2.0047 0.9656
5.2064 -6.7642 -2.0061 0.9655
6.3292 -5.7352 -2.0074 0.9655
6.8174 -5.1494 -2.0079 0.9655
7.6274 -3.8582 -2.0089 0.9655
7.9427 -3.1632 -2.0093 0.9655
8.1945 -2.4427 -2.0096 0.9655
8.3808 -1.7024 -2.0099 0.9655
8.5001 -0.9483 -2.0101 0.9655
8.5514 -0.1865 -2.0103 0.9655
8.5342 0.5769 -2.0103 0.9655
8.0762 2.8151 -2.0101 0.9655
7.7921 3.5238 -2.0099 0.9655
7.4238 4.1917 -2.0037 0.9656
5.6026 5.5636 -1.8557 0.9681
4.5226 6.4669 -1.8547 0.9681
3.9267 6.8423 -1.8541 0.9681
3.2997 7.1629 -1.8535 0.9681
1.9734 7.6298 -1.8522 0.9681
1.2846 7.7725 -1.8515 0.9681
-2.1934 7.5506 -1.8479 0.9682
-2.8570 7.3221 -1.8472 0.9682
-4.1093 6.6932 -1.8459 0.9682
-5.7289 5.3615 -1.8441 0.9683
-7.8303 3.2653 -1.9939 0.9657
-8.2832 1.8217 -1.9933 0.9658
-8.4681 -0.4358 -1.9928 0.9658
-8.3955 -1.1893 -1.9928 0.9658
-8.2562 -1.9334 -1.9929 0.9658
-8.0514 -2.6621 -1.9930 0.9658
-7.7827 -3.3699 -1.9932 0.9658
-7.4521 -4.0511 -1.9935 0.9657
-7.0623 -4.7003 -1.9938 0.9657
-5.5699 -6.4064 -1.9951 0.9657
-4.9778 -6.8795 -1.9957 0.9657
-4.3457 -7.2982 -1.9963 0.9657
-1.5217 -8.3686 -1.9991 0.9657
-0.7696 -8.4742 -1.9998 0.9656
0.7487 -8.4827 -2.0014 0.9656
1.5028 -8.3854 -2.0022 0.9656
2.9709 -7.9911 -2.0037 0.9656
3.6731 -7.6972 -2.0044 0.9656
6.6477 -5.3653 -2.0077 0.9655
7.4989 -4.1011 -2.0087 0.9655
7.8364 -3.4167 -2.0092 0.9655
8.3214 -1.9708 -2.0098 0.9655
8.4650 -1.2210 -2.0101 0.9655
8.5408 -0.4612 -2.0102 0.9655
8.5483 0.3023 -2.0103 0.9655
8.1627 2.5541 -2.0102 0.9655
7.9017 3.2716 -2.0100 0.9655
7.5702 3.9590 -2.0078 0.9655
5.7790 5.3810 -1.8558 0.9681
4.7287 6.3188 -1.8549 0.9681
4.1451 6.7133 -1.8543 0.9681
1.5340 7.7283 -1.8518 0.9681
-0.3712 5.1501 -1.2135 0.9790
-1.2631 7.7648 -1.8489 0.9682
-1.9498 7.6183 -1.8482 0.9682
-3.2697 7.1453 -1.8468 0.9682
-4.4839 6.4461 -1.8455 0.9683
-5.0392 6.0186 -1.8449 0.9683
-5.5542 5.5434 -1.8443 0.9683
-6.0246 5.0246 -1.8437 0.9683
-6.4470 4.4660 -1.8432 0.9683
-7.2139 4.0972 -1.9498 0.9665
-7.7218 3.5155 -1.9940 0.9657
-8.2208 2.0871 -1.9934 0.9657
-8.4591 0.5933 -1.9930 0.9658
-8.4778 -0.1634 -1.9929 0.9658
-8.4293 -0.9188 -1.9928 0.9658
-6.3029 -5.6825 -1.9945 0.9657
-5.7724 -6.2234 -1.9950 0.9657
-5.1958 -6.7152 -1.9955 0.9657
-4.5776 -7.1539 -1.9961 0.9657
-3.9225 -7.5360 -1.9967 0.9657
-3.2359 -7.8584 -1.9974 0.9657
-2.5231 -8.1186 -1.9981 0.9657
-1.7896 -8.3143 -1.9988 0.9657
1.2323 -8.4281 -2.0019 0.9656
1.9798 -8.2879 -2.0027 0.9656
2.7121 -8.0814 -2.0034 0.9656
3.4233 -7.8103 -2.0042 0.9656
4.7598 -7.0830 -2.0056 0.9655
8.4210 -1.4924 -2.0100 0.9655
8.5535 0.0274 -2.0103 0.9655
8.4127 1.5465 -2.0103 0.9655
7.1846 4.2969 -1.9675 0.9662
5.9495 5.1929 -1.8560 0.9681
3.1194 7.2425 -1.8533 0.9681
1.7101 5.2059 -1.2878 0.9777
1.0898 7.8014 -1.8513 0.9682
-0.3133 7.8648 -1.8499 0.9682
-1.7042 7.6781 -1.8484 0.9682
-4.2749 6.5878 -1.8457 0.9682
-4.8437 6.1782 -1.8451 0.9683
-5.8606 5.2162 -1.8439 0.9683
-6.3007 4.6714 -1.8434 0.9683
-6.7416 4.1211 -1.8570 0.9681
-7.5975 3.7583 -1.9921 0.9658
-7.9091 3.0683 -1.9938 0.9657
-8.1499 2.3504 -1.9935 0.9657
-8.3259 1.6140 -1.9932 0.9658
-8.4359 0.8650 -1.9930 0.9658
-8.4545 -0.6474 -1.9928 0.9658
-8.3632 -1.3988 -1.9928 0.9658
-8.2054 -2.1392 -1.9929 0.9658
-7.6963 -3.5635 -1.9933 0.9658
-7.3489 -4.2363 -1.9936 0.9657
-6.9430 -4.8756 -1.9939 0.9657
-5.4084 -6.5441 -1.9953 0.9657
-4.8046 -7.0023 -1.9959 0.9657
-2.7824 -8.0322 -1.9978 0.9657
-2.0557 -8.2513 -1.9985 0.9657
-1.3121 -8.4049 -1.9993 0.9656
-0.5576 -8.4917 -2.0000 0.9656
0.9606 -8.4622 -2.0016 0.9656
3.1701 -7.9152 -2.0039 0.9656
4.5291 -7.2314 -2.0054 0.9655
5.1577 -6.8010 -2.0061 0.9655
5.7456 -6.3160 -2.0067 0.9655
6.2879 -5.7802 -2.0073 0.9655
6.7802 -5.1979 -2.0079 0.9655
7.2186 -4.5737 -2.0084 0.9655
8.1767 -2.5012 -2.0096 0.9655
8.3684 -1.7623 -2.0099 0.9655
8.4931 -1.0090 -2.0101 0.9655
8.5498 -0.2476 -2.0102 0.9655
8.5381 0.5159 -2.0103 0.9655
7.8172 3.4680 -2.0099 0.9655
6.5366 4.4351 -1.8565 0.9681
6.1139 4.9994 -1.8561 0.9681
5.6423 5.5235 -1.8557 0.9681
4.5689 6.4345 -1.8547 0.9681
3.9756 6.8143 -1.8541 0.9681
3.3510 7.1393 -1.8535 0.9681
1.3402 7.7634 -1.8516 0.9681
0.6422 7.8490 -1.8509 0.9682
-0.0603 7.8719 -1.8501 0.9682
-0.5012 5.1530 -1.2168 0.9790
-1.4567 7.7300 -1.8487 0.9682
-2.1394 7.5663 -1.8480 0.9682
-2.8046 7.3426 -1.8473 0.9682
-3.4470 7.0606 -1.8466 0.9682
-4.0615 6.7226 -1.8459 0.9682
-5.1876 5.8902 -1.8447 0.9683
-6.1479 4.8720 -1.8436 0.9683
-6.5562 4.3032 -1.8431 0.9683
-7.4586 3.9930 -1.9883 0.9658
-8.0705 2.6113 -1.9936 0.9657
-8.4039 1.1357 -1.9931 0.9658
-8.4038 -1.1292 -1.9928 0.9658
-8.2698 -1.8743 -1.9929 0.9658
-7.8065 -3.3141 -1.9932 0.9658
-6.1593 -5.8386 -1.9946 0.9657
-3.7333 -7.6324 -1.9969 0.9657
-3.0388 -7.9376 -1.9976 0.9657
0.6880 -8.4875 -2.0013 0.9656
2.1866 -8.2367 -2.0029 0.9656
3.6178 -7.7231 -2.0044 0.9656
4.2937 -7.3723 -2.0051 0.9656
7.4692 -4.1545 -2.0087 0.9655
8.3070 -2.0303 -2.0098 0.9655
8.1809 2.4957 -2.0102 0.9655
7.9250 3.2151 -2.0100 0.9655
6.8066 4.3054 -1.8929 0.9674
6.2719 4.8006 -1.8563 0.9681
5.8175 5.3397 -1.8559 0.9681
4.7738 6.2850 -1.8549 0.9681
3.5792 7.0288 -1.8538 0.9681
2.2720 7.5476 -1.8525 0.9681
-0.3384 5.2139 -1.2280 0.9788
-4.4378 6.4782 -1.8455 0.9682
-4.9962 6.0546 -1.8449 0.9683
-6.4150 4.5121 -1.8433 0.9683
-7.1049 4.1028 -1.9282 0.9669
-7.9829 2.8696 -1.9937 0.9657
-8.2057 2.1459 -1.9934 0.9657
-8.3634 1.4053 -1.9931 0.9658
-8.4547 0.6538 -1.9930 0.9658
-8.4788 -0.1028 -1.9929 0.9658
-8.4357 -0.8585 -1.9928 0.9658
-8.3256 -1.6075 -1.9929 0.9658
-7.2410 -4.4188 -1.9937 0.9657
-6.8193 -5.0479 -1.9940 0.9657
-6.3433 -5.6372 -1.9944 0.9657
-5.2436 -6.6777 -1.9954 0.9657
-4.6285 -7.1209 -1.9960 0.9657
-3.2920 -7.8349 -1.9973 0.9657
-1.1017 -8.4360 -1.9995 0.9656
1.9204 -8.3016 -2.0026 0.9656
3.3673 -7.8343 -2.0041 0.9656
4.0540 -7.5056 -2.0049 0.9656
5.3266 -6.6706 -2.0062 0.9655
6.4309 -5.6217 -2.0075 0.9655
6.9086 -5.0271 -2.0080 0.9655
7.6954 -3.7216 -2.0090 0.9655
8.2370 -2.2961 -2.0097 0.9655
8.2571 2.2315 -2.0102 0.9655
6.4234 4.5969 -1.8564 0.9681
5.9866 5.1503 -1.8560 0.9681
4.9739 6.1289 -1.8551 0.9681
1.7469 5.1922 -1.2875 0.9777
1.1456 7.7936 -1.8514 0.9682
0.4458 7.8617 -1.8507 0.9682
-0.9572 7.8098 -1.8492 0.9682
-1.6493 7.6903 -1.8485 0.9682
-2.3276 7.5097 -1.8478 0.9682
-2.9869 7.2694 -1.8471 0.9682
-3.6220 6.9715 -1.8464 0.9682
-5.3328 5.7582 -1.8445 0.9683
-5.8233 5.2581 -1.8440 0.9683
-7.5672 3.8109 -1.9913 0.9658
-7.8870 3.1249 -1.9938 0.9657
-8.4590 -0.5869 -1.9928 0.9658
-8.3729 -1.3389 -1.9928 0.9658
-8.0027 -2.8054 -1.9931 0.9658
-7.3789 -4.1836 -1.9935 0.9657
-6.9775 -4.8258 -1.9939 0.9657
-5.4550 -6.5051 -1.9953 0.9657
-4.2150 -7.3750 -1.9964 0.9657
-2.8397 -8.0119 -1.9978 0.9657
-2.1146 -8.2362 -1.9985 0.9657
-0.6182 -8.4872 -2.0000 0.9656
0.1412 -8.5118 -2.0007 0.9656
0.9000 -8.4686 -2.0015 0.9656
2.3921 -8.1804 -2.0031 0.9656
3.8102 -7.6310 -2.0046 0.9656
5.1088 -6.8376 -2.0060 0.9655
6.2462 -5.8249 -2.0073 0.9655
6.7428 -5.2461 -2.0078 0.9655
7.5712 -3.9668 -2.0088 0.9655
8.3555 -1.8221 -2.0099 0.9655
8.4856 -1.0697 -2.0101 0.9655
8.5478 -0.3087 -2.0102 0.9655
8.5416 0.4548 -2.0103 0.9655
8.3247 1.9650 -2.0103 0.9655
7.8419 3.4121 -2.0099 0.9655
6.1495 4.9556 -1.8562 0.9681
5.6818 5.4831 -1.8557 0.9681
-7.6119 1.1674 -1.9939 0.9687
-7.6972 -0.2034 -1.9937 0.9687
-7.6483 -0.8891 -1.9936 0.9687
-7.5387 -1.5677 -1.9937 0.9687
-6.5172 -4.1062 -1.9944 0.9687
-5.6861 -5.2006 -1.9952 0.9687
-4.6740 -6.1309 -1.9961 0.9686
-4.1097 -6.5251 -1.9966 0.9686
-3.5124 -6.8675 -1.9972 0.9686
-2.8868 -7.1556 -1.9978 0.9686
-1.5707 -7.5595 -1.9991 0.9686
1.8508 -7.5098 -2.0026 0.9685
2.5141 -7.3174 -2.0033 0.9685
3.7766 -6.7589 -2.0047 0.9685
4.3657 -6.3972 -2.0053 0.9685
4.9203 -5.9842 -2.0059 0.9685
5.9084 -5.0177 -2.0070 0.9685
6.3340 -4.4719 -2.0075 0.9685
6.7090 -3.8901 -2.0080 0.9685
7.2961 -2.6373 -2.0087 0.9685
7.6504 -1.2995 -2.0092 0.9684
7.7606 0.0803 -2.0095 0.9684
7.7227 0.7721 -2.0095 0.9684
7.6230 1.4578 -2.0095 0.9684
7.2418 2.7885 -2.0092 0.9684
6.9636 3.4228 -2.0090 0.9684
6.6190 4.0232 -2.0055 0.9685
5.8239 4.2951 -1.8736 0.9705
5.3647 4.7505 -1.8553 0.9708
4.9186 5.2089 -1.8549 0.9708
3.3616 6.3201 -1.8535 0.9709
0.3025 7.1404 -1.8504 0.9709
-0.9701 7.0755 -1.8491 0.9709
-2.8056 6.5595 -1.8472 0.9710
-3.9237 5.9528 -1.8460 0.9710
-4.4375 5.5775 -1.8454 0.9710
-4.9159 5.1580 -1.8449 0.9710
-5.7510 4.2004 -1.8439 0.9710
-6.5860 3.9615 -1.9900 0.9687
-7.4155 2.0813 -1.9942 0.9687
-7.5707 1.4115 -1.9940 0.9687
-7.6657 0.7306 -1.9938 0.9687
-7.6730 -0.6428 -1.9936 0.9687
-7.5851 -1.3245 -1.9936 0.9687
-6.2727 -4.4722 -1.9946 0.9687
-3.7310 -6.7504 -1.9970 0.9686
-3.1150 -7.0583 -1.9976 0.9686
-2.4739 -7.3103 -1.9982 0.9686
-1.1366 -7.6386 -1.9995 0.9686
0.2387 -7.7244 -2.0009 0.9686
2.2773 -7.3935 -2.0031 0.9685
2.9286 -7.1634 -2.0037 0.9685
4.7249 -6.1386 -2.0057 0.9685
6.1864 -4.6728 -2.0073 0.9685
6.5800 -4.1034 -2.0078 0.9685
6.9212 -3.5009 -2.0082 0.9685
7.7435 0.5235 -2.0095 0.9684
7.6659 1.2120 -2.0095 0.9684
7.3280 2.5543 -2.0093 0.9684
7.0703 3.1974 -2.0091 0.9684
5.5151 4.5760 -1.8555 0.9708
2.9946 6.5005 -1.8531 0.9709
-0.1058 7.1444 -1.8500 0.9709
-0.5397 5.1648 -1.3445 0.9788
-1.3724 7.0070 -1.8487 0.9709
-1.9911 6.8543 -1.8481 0.9709
-3.1750 6.3871 -1.8468 0.9710
-3.7307 6.0766 -1.8462 0.9710
-4.7480 5.3139 -1.8451 0.9710
-5.2015 4.8679 -1.8446 0.9710
-5.6135 4.3835 -1.8441 0.9710
-6.3567 4.1075 -1.9596 0.9692
-6.8187 3.5879 -1.9950 0.9687
-7.5217 1.6542 -1.9940 0.9687
-7.6897 -0.3958 -1.9936 0.9687
-7.4973 -1.7556 -1.9937 0.9687
-7.3112 -2.4174 -1.9938 0.9687
-7.0672 -3.0601 -1.9940 0.9687
-6.4128 -4.2680 -1.9945 0.9687
-5.5547 -5.3414 -1.9953 0.9687
-5.0574 -5.8169 -1.9957 0.9687
-4.5196 -6.2463 -1.9962 0.9686
-3.3399 -6.9538 -1.9974 0.9686
-2.7073 -7.2262 -1.9980 0.9686
-2.0527 -7.4412 -1.9986 0.9686
-1.3814 -7.5971 -1.9993 0.9686
-0.0098 -7.7271 -2.0007 0.9686
0.6796 -7.6999 -2.0014 0.9686
2.0382 -7.4619 -2.0028 0.9685
4.5246 -6.2866 -2.0055 0.9685
6.0325 -4.8688 -2.0072 0.9685
6.4442 -4.3124 -2.0076 0.9685
7.3600 -2.4542 -2.0088 0.9685
7.7495 -0.4185 -2.0094 0.9684
7.7010 0.9649 -2.0095 0.9684
6.8756 3.5957 -2.0090 0.9684
6.5072 4.1815 -2.0027 0.9685
5.6597 4.3966 -1.8556 0.9708
5.2440 4.8829 -1.8552 0.9708
4.7866 5.3299 -1.8548 0.9708
4.2911 5.7341 -1.8543 0.9708
3.2024 6.4016 -1.8533 0.9709
1.3922 7.0142 -1.8515 0.9709
0.1239 7.1450 -1.8502 0.9709
-0.3734 5.1797 -1.3446 0.9788
-2.3788 6.7279 -1.8476 0.9709
-2.9684 6.4867 -1.8470 0.9710
-4.0709 5.8524 -1.8458 0.9710
-5.0429 5.0331 -1.8447 0.9710
-5.4702 4.5621 -1.8443 0.9710
-5.9596 4.1284 -1.8771 0.9705
-6.6916 3.8006 -1.9925 0.9687
-7.0116 3.1922 -1.9947 0.9687
-7.4649 1.8952 -1.9941 0.9687
-7.6985 -0.1484 -1.9937 0.9687
-7.5497 -1.5137 -1.9937 0.9687
-7.3850 -2.1811 -1.9938 0.9687
-7.1616 -2.8312 -1.9939 0.9687
-6.8813 -3.4590 -1.9941 0.9687
-6.5463 -4.0595 -1.9944 0.9687
-6.1592 -4.6279 -1.9947 0.9687
-5.7231 -5.1597 -1.9951 0.9687
-5.2413 -5.6508 -1.9956 0.9687
-4.1562 -6.4954 -1.9966 0.9686
-0.9454 -7.6653 -1.9997 0.9686
0.4317 -7.7168 -2.0011 0.9686
1.1186 -7.6502 -2.0018 0.9686
1.7970 -7.5226 -2.0025 0.9685
2.4616 -7.3350 -2.0032 0.9685
3.7280 -6.7855 -2.0046 0.9685
4.8773 -6.0191 -2.0059 0.9685
5.8723 -5.0597 -2.0070 0.9685
6.3017 -4.5170 -2.0075 0.9685
6.6809 -3.9379 -2.0079 0.9685
7.0069 -3.3270 -2.0083 0.9685
7.2769 -2.6893 -2.0087 0.9685
7.7319 -0.6674 -2.0094 0.9684
7.7280 0.7169 -2.0095 0.9684
5.9091 4.2931 -1.8911 0.9703
5.3987 4.7121 -1.8554 0.9708
4.9558 5.1737 -1.8550 0.9708
4.4736 5.5937 -1.8545 0.9708
3.9559 5.9688 -1.8540 0.9708
1.7042 5.1878 -1.4138 0.9777
0.9891 7.0807 -1.8511 0.9709
0.3536 7.1382 -1.8505 0.9709
-0.2844 7.1388 -1.8498 0.9709
-1.5470 6.9698 -1.8485 0.9709
-2.7587 6.5796 -1.8472 0.9710
-4.3977 5.6092 -1.8455 0.9710
-5.7209 4.2416 -1.8440 0.9710
-7.6603 0.7855 -1.9938 0.9687
-7.6774 -0.5879 -1.9936 0.9687
-7.4511 -1.9425 -1.9937 0.9687
-7.2487 -2.5995 -1.9938 0.9687
-6.6731 -3.8467 -1.9943 0.9687
-5.8856 -4.9727 -1.9950 0.9687
-5.4198 -5.4790 -1.9954 0.9687
-4.3624 -6.3578 -1.9964 0.9686
-3.7790 -6.7234 -1.9969 0.9686
-3.1653 -7.0357 -1.9975 0.9686
-2.5260 -7.2922 -1.9982 0.9686
-1.8662 -7.4909 -1.9988 0.9686
-1.1912 -7.6300 -1.9995 0.9686
-0.5061 -7.7085 -2.0002 0.9686
0.8720 -7.6812 -2.0016 0.9686
1.5541 -7.5755 -2.0023 0.9686
2.2243 -7.4094 -2.0030 0.9685
2.8772 -7.1839 -2.0037 0.9685
3.5076 -6.9011 -2.0044 0.9685
4.1104 -6.5629 -2.0050 0.9685
4.6808 -6.1721 -2.0056 0.9685
5.7061 -5.2454 -2.0068 0.9685
6.1527 -4.7168 -2.0073 0.9685
6.5504 -4.1503 -2.0078 0.9685
6.8958 -3.5503 -2.0082 0.9685
7.1863 -2.9217 -2.0086 0.9685
7.5931 -1.5990 -2.0091 0.9684
7.7062 -0.9156 -2.0093 0.9684
7.7470 0.4681 -2.0095 0.9684
7.5404 1.8369 -2.0094 0.9684
6.7833 3.7663 -2.0089 0.9685
6.3127 4.2832 -1.9752 0.9690
5.5477 4.5365 -1.8555 0.9708
5.1200 5.0121 -1.8551 0.9708
4.6515 5.4475 -1.8547 0.9708
4.1461 5.8391 -1.8542 0.9708
3.6078 6.1839 -1.8537 0.9709
3.0411 6.4791 -1.8532 0.9709
1.2163 7.0461 -1.8514 0.9709
-0.0547 7.1452 -1.8501 0.9709
-0.5040 5.1823 -1.3481 0.9787
-1.9421 6.8685 -1.8481 0.9709
-2.5460 6.6656 -1.8475 0.9709
-3.6873 6.1033 -1.8462 0.9710
-4.2155 5.7483 -1.8457 0.9710
-5.1667 4.9051 -1.8446 0.9710
-6.2654 4.1123 -1.9404 0.9695
-7.3284 2.3712 -1.9943 0.9687
-7.5097 1.7080 -1.9941 0.9687
-7.6313 1.0313 -1.9939 0.9687
-7.6924 0.3466 -1.9937 0.9687
-7.6923 -0.3408 -1.9936 0.9687
-7.5096 -1.7020 -1.9937 0.9687
-7.3283 -2.3650 -1.9938 0.9687
-6.7930 -3.6301 -1.9942 0.9687
-5.0987 -5.7804 -1.9957 0.9687
-4.5641 -6.2137 -1.9962 0.9686
-2.7589 -7.2064 -1.9979 0.9686
0.6245 -7.7043 -2.0013 0.9686
1.3096 -7.6206 -2.0020 0.9686
1.9847 -7.4761 -2.0027 0.9685
3.8968 -6.6909 -2.0048 0.9685
4.4794 -6.3187 -2.0054 0.9685
5.0266 -5.8958 -2.0060 0.9685
5.5340 -5.4256 -2.0066 0.9685
5.9973 -4.9117 -2.0071 0.9685
6.4130 -4.3583 -2.0076 0.9685
7.0882 -3.1510 -2.0084 0.9685
7.3422 -2.5067 -2.0088 0.9685
7.5375 -1.8422 -2.0090 0.9684
7.6726 -1.1628 -2.0092 0.9684
7.7463 -0.4739 -2.0094 0.9684
7.5957 1.5936 -2.0095 0.9684
7.4229 2.2645 -2.0094 0.9684
6.9012 3.5465 -2.0090 0.9684
5.2789 4.8453 -1.8553 0.9708
4.8247 5.2956 -1.8548 0.9708
4.3321 5.7034 -1.8544 0.9708
3.8052 6.0653 -1.8539 0.9708
2.6655 6.6409 -1.8528 0.9709
0.8117 7.1025 -1.8509 0.9709
0.1750 7.1441 -1.8503 0.9709
-0.4627 7.1288 -1.8496 0.9709
-1.0962 7.0566 -1.8490 0.9709
-3.4896 6.2193 -1.8465 0.9710
-4.5361 5.4971 -1.8453 0.9710
-5.0069 5.0692 -1.8448 0.9710
-5.4375 4.6012 -1.8443 0.9710
-5.8756 4.1327 -1.8599 0.9708
-6.9887 3.2423 -1.9948 0.9687
-7.2488 2.6057 -1.9944 0.9687
-7.4512 1.9486 -1.9941 0.9687
-7.5945 1.2761 -1.9939 0.9687
-7.6774 0.5937 -1.9938 0.9687
-7.6994 -0.0933 -1.9937 0.9687
-7.6603 -0.7796 -1.9936 0.9687
-7.5603 -1.4597 -1.9937 0.9687
-7.4004 -2.1282 -1.9937 0.9687
-7.1816 -2.7799 -1.9939 0.9687
-6.9058 -3.4097 -1.9941 0.9687
-5.2815 -5.6131 -1.9955 0.9687
-4.2024 -6.4653 -1.9965 0.9686
-2.9887 -7.1132 -1.9977 0.9686
-2.3432 -7.3537 -1.9983 0.9686
-1.6786 -7.5359 -1.9990 0.9686
-0.3133 -7.7195 -2.0004 0.9686
0.3765 -7.7194 -2.0011 0.9686
1.0638 -7.6578 -2.0018 0.9686
3.0562 -7.1105 -2.0039 0.9685
4.8340 -6.0537 -2.0058 0.9685
5.8358 -5.1015 -2.0069 0.9685
7.2574 -2.7413 -2.0087 0.9685
7.6310 -1.4087 -2.0092 0.9684
7.7269 -0.7227 -2.0094 0.9684
7.7609 -0.0307 -2.0095 0.9684
7.4920 2.0247 -2.0094 0.9684
7.0119 3.3229 -2.0091 0.9684
4.9928 5.1382 -1.8550 0.9708
4.5136 5.5617 -1.8546 0.9708
3.9986 5.9405 -1.8541 0.9708
3.4519 6.2717 -1.8536 0.9709
2.8779 6.5525 -1.8530 0.9709
1.6670 6.9551 -1.8518 0.9709
1.0397 7.0737 -1.8512 0.9709
0.4046 7.1357 -1.8505 0.9709
-0.8689 7.0891 -1.8492 0.9709
-2.1130 6.8172 -1.8479 0.9709
-2.7116 6.5993 -1.8473 0.9710
-3.2882 6.3291 -1.8467 0.9710
-4.3575 5.6406 -1.8455 0.9710
-4.8418 5.2280 -1.8450 0.9710
-5.7038 4.2924 -1.8483 0.9709
-6.8813 3.4655 -1.9949 0.9687
-7.1617 2.8375 -1.9945 0.9687
-7.6546 0.8402 -1.9938 0.9687
-7.6985 0.1542 -1.9937 0.9687
-7.4648 -1.8892 -1.9937 0.9687
-6.3358 -4.3820 -1.9946 0.9687
-3.8269 -6.6960 -1.9969 0.9686
-3.2155 -7.0127 -1.9975 0.9686
-1.2457 -7.6211 -1.9994 0.9686
-0.5612 -7.7045 -2.0001 0.9686
0.1282 -7.7266 -2.0008 0.9686
3.4581 -6.9258 -2.0043 0.9685
4.0632 -6.5920 -2.0050 0.9685
5.6683 -5.2859 -2.0067 0.9685
7.1651 -2.9730 -2.0085 0.9685
7.5814 -1.6533 -2.0091 0.9684
7.7558 -0.2801 -2.0094 0.9684
7.6825 1.1022 -2.0095 0.9684
7.5534 1.7829 -2.0094 0.9684
7.3639 2.4493 -2.0093 0.9684
6.8101 3.7177 -2.0089 0.9684
6.4074 4.2808 -1.9952 0.9687
5.5801 4.4968 -1.8555 0.9708
5.1558 4.9755 -1.8551 0.9708
-6.9641 1.0680 -1.9945 0.9711
-7.0311 0.4427 -1.9944 0.9711
-6.9976 -0.8134 -1.9943 0.9711
-6.2729 -3.2096 -1.9948 0.9711
-5.9625 -3.7567 -1.9950 0.9711
-4.7579 -5.2038 -1.9961 0.9711
-4.2758 -5.6087 -1.9966 0.9711
-3.2130 -6.2822 -1.9976 0.9711
-2.0470 -6.7570 -1.9987 0.9711
-0.1856 -7.0644 -2.0006 0.9710
0.4453 -7.0551 -2.0012 0.9710
1.0731 -6.9895 -2.0019 0.9710
4.9707 -5.0504 -2.0061 0.9710
5.7916 -4.0890 -2.0070 0.9710
6.1344 -3.5569 -2.0074 0.9710
6.8603 -1.8070 -2.0083 0.9709
7.0735 -0.5596 -2.0087 0.9709
7.0955 0.0734 -2.0088 0.9709
6.9696 1.3328 -2.0088 0.9709
6.8227 1.9490 -2.0087 0.9709
6.6212 2.5495 -2.0086 0.9709
6.3669 3.1295 -2.0084 0.9709
6.0616 3.6844 -2.0081 0.9709
5.6899 4.1963 -2.0014 0.9710
4.9052 4.3437 -1.8548 0.9731
4.4974 4.7629 -1.8545 0.9731
4.0538 5.1438 -1.8540 0.9731
3.5781 5.4835 -1.8536 0.9731
3.0740 5.7793 -1.8531 0.9732
2.5456 6.0287 -1.8526 0.9732
1.6667 5.1989 -1.5456 0.9776
0.8582 6.4817 -1.8509 0.9732
-0.3067 6.5268 -1.8497 0.9732
-3.0901 5.7454 -1.8468 0.9732
-3.5892 5.4453 -1.8463 0.9733
-4.0593 5.1021 -1.8458 0.9733
-4.4970 4.7185 -1.8453 0.9733
-5.6338 4.1148 -1.9750 0.9714
-6.3400 3.0800 -1.9954 0.9711
-6.5884 2.5019 -1.9951 0.9711
-6.9264 1.2914 -1.9946 0.9711
-7.0447 0.0403 -1.9943 0.9711
-6.9397 -1.2118 -1.9943 0.9711
-6.3726 -3.0062 -1.9947 0.9711
-5.3519 -4.5878 -1.9956 0.9711
-4.4535 -5.4679 -1.9964 0.9711
-3.4130 -6.1751 -1.9974 0.9711
0.2183 -7.0649 -2.0010 0.9710
1.4709 -6.9182 -2.0023 0.9710
2.0827 -6.7617 -2.0029 0.9710
2.6782 -6.5510 -2.0036 0.9710
3.8017 -5.9747 -2.0048 0.9710
4.3206 -5.6134 -2.0053 0.9710
5.2519 -4.7590 -2.0064 0.9710
6.5897 -2.6244 -2.0080 0.9709
7.0517 -0.7867 -2.0087 0.9709
7.0941 -0.1547 -2.0088 0.9709
7.0089 1.1081 -2.0088 0.9709
6.8820 1.7287 -2.0088 0.9709
6.7000 2.3354 -2.0086 0.9709
6.4644 2.9234 -2.0085 0.9709
4.6485 4.6162 -1.8546 0.9731
3.2585 5.6780 -1.8533 0.9732
2.7384 5.9444 -1.8528 0.9732
1.8469 5.1816 -1.5573 0.9774
1.6378 6.3326 -1.8517 0.9732
-0.5405 5.1726 -1.4723 0.9786
-1.8212 6.2693 -1.8482 0.9732
-3.4126 5.5585 -1.8465 0.9732
-4.7584 4.4532 -1.8450 0.9733
-5.2931 4.1333 -1.9012 0.9725
-6.2381 3.2824 -1.9955 0.9711
-6.5049 2.7126 -1.9952 0.9711
-6.8815 1.5134 -1.9947 0.9711
-7.0399 0.2668 -1.9944 0.9711
-6.8593 -1.6062 -1.9944 0.9711
-6.6891 -2.2117 -1.9945 0.9711
-6.4657 -2.7997 -1.9946 0.9711
-6.1910 -3.3655 -1.9948 0.9711
-3.6094 -6.0616 -1.9972 0.9711
-3.0552 -6.3611 -1.9977 0.9711
-1.8777 -6.8066 -1.9989 0.9711
1.8640 -6.8243 -2.0027 0.9710
3.0486 -6.3887 -2.0040 0.9710
5.0957 -4.9250 -2.0062 0.9710
5.8923 -3.9431 -2.0071 0.9710
6.2217 -3.4026 -2.0075 0.9710
6.5015 -2.8347 -2.0079 0.9709
6.7294 -2.2439 -2.0082 0.9709
6.9036 -1.6350 -2.0084 0.9709
7.0853 -0.3826 -2.0087 0.9709
4.7949 4.4647 -1.8547 0.9731
3.4397 5.5709 -1.8535 0.9731
2.9284 5.8539 -1.8530 0.9732
0.6959 6.5005 -1.8508 0.9732
0.1133 6.5346 -1.8502 0.9732
-1.0487 6.4466 -1.8490 0.9732
-2.1759 6.1538 -1.8478 0.9732
-2.7152 5.9334 -1.8472 0.9732
-4.1853 4.9987 -1.8456 0.9733
-4.6132 4.6043 -1.8451 0.9733
-5.7792 4.0034 -1.9903 0.9712
-6.4147 2.9204 -1.9953 0.9711
-6.6486 2.3364 -1.9950 0.9711
-6.8296 1.7339 -1.9948 0.9711
-6.9563 1.1178 -1.9946 0.9711
-7.0278 0.4929 -1.9944 0.9711
-6.7566 -1.9955 -1.9944 0.9711
-6.5522 -2.5903 -1.9946 0.9711
-5.9891 -3.7139 -1.9950 0.9711
-5.6349 -4.2339 -1.9953 0.9711
-5.2358 -4.7204 -1.9957 0.9711
-4.3157 -5.5778 -1.9965 0.9711
-3.8020 -5.9419 -1.9970 0.9711
-3.2578 -6.2590 -1.9975 0.9711
-2.6874 -6.5264 -1.9981 0.9711
-2.0953 -6.7420 -1.9987 0.9711
-1.4861 -6.9041 -1.9993 0.9711
-0.8647 -7.0113 -1.9999 0.9711
-0.2361 -7.0627 -2.0005 0.9710
0.3949 -7.0579 -2.0012 0.9710
1.0231 -6.9968 -2.0018 0.9710
1.6435 -6.8799 -2.0025 0.9710
2.2512 -6.7081 -2.0031 0.9710
2.8414 -6.4826 -2.0037 0.9710
4.4600 -5.5041 -2.0055 0.9710
5.3696 -4.6266 -2.0065 0.9710
6.1087 -3.6006 -2.0074 0.9710
6.4067 -3.0420 -2.0077 0.9709
6.6535 -2.4589 -2.0081 0.9709
6.9861 -1.2381 -2.0085 0.9709
7.0958 0.0227 -2.0088 0.9709
7.0657 0.6554 -2.0088 0.9709
6.6394 2.5021 -2.0086 0.9709
6.0879 3.6410 -2.0082 0.9709
5.7217 4.1569 -2.0021 0.9710
4.0906 5.1148 -1.8541 0.9731
3.6173 5.4579 -1.8536 0.9731
3.1153 5.7573 -1.8532 0.9732
2.5887 6.0105 -1.8526 0.9732
1.6982 5.1696 -1.5404 0.9776
1.4789 6.3710 -1.8515 0.9732
0.9046 6.4755 -1.8510 0.9732
-0.2601 6.5290 -1.8498 0.9732
-0.8410 6.4777 -1.8492 0.9732
-1.4149 6.3749 -1.8486 0.9732
-1.9772 6.2213 -1.8480 0.9732
-3.5502 5.4710 -1.8463 0.9733
-4.0228 5.1311 -1.8458 0.9733
-4.8679 4.3326 -1.8448 0.9733
-5.5558 4.1191 -1.9579 0.9717
-6.0142 3.6764 -1.9955 0.9711
-6.3179 3.1253 -1.9954 0.9711
-6.5704 2.5490 -1.9951 0.9711
-6.9170 1.3409 -1.9946 0.9711
-7.0085 0.7186 -1.9945 0.9711
-7.0443 0.0907 -1.9944 0.9711
-6.8171 -1.7772 -1.9944 0.9711
-6.6319 -2.3783 -1.9945 0.9711
-6.3939 -2.9605 -1.9947 0.9711
-6.1051 -3.5193 -1.9949 0.9711
-3.9907 -5.8161 -1.9968 0.9711
-3.4570 -6.1504 -1.9973 0.9711
-2.3106 -6.6704 -1.9984 0.9711
-1.0895 -6.9791 -1.9997 0.9711
-0.4629 -7.0507 -2.0003 0.9711
0.1678 -7.0661 -2.0009 0.9710
2.0342 -6.7762 -2.0029 0.9710
2.6312 -6.5699 -2.0035 0.9710
3.2077 -6.3110 -2.0041 0.9710
4.2803 -5.6440 -2.0053 0.9710
5.2176 -4.7964 -2.0063 0.9710
5.9894 -3.7948 -2.0072 0.9710
6.7836 -2.0751 -2.0082 0.9709
6.9425 -1.4620 -2.0085 0.9709
7.0831 0.4280 -2.0088 0.9709
7.0167 1.0579 -2.0088 0.9709
6.8942 1.6794 -2.0088 0.9709
6.4852 2.8771 -2.0085 0.9709
5.8618 3.9772 -2.0053 0.9710
5.2333 4.2794 -1.9138 0.9723
4.6815 4.5829 -1.8546 0.9731
3.2991 5.6547 -1.8533 0.9732
2.7809 5.9248 -1.8528 0.9732
1.8887 5.1814 -1.5612 0.9773
1.6831 6.3209 -1.8518 0.9732
0.5331 6.5153 -1.8506 0.9732
-0.0501 6.5348 -1.8500 0.9732
-0.5047 5.1886 -1.4758 0.9786
-1.7764 6.2823 -1.8482 0.9732
-2.3288 6.0970 -1.8476 0.9732
-3.3729 5.5829 -1.8465 0.9732
-3.8562 5.2583 -1.8460 0.9733
-4.3086 4.8921 -1.8455 0.9733
-4.7265 4.4872 -1.8450 0.9733
-6.7047 2.1694 -1.9949 0.9711
-6.8706 1.5626 -1.9947 0.9711
-6.9819 0.9436 -1.9945 0.9711
-7.0378 0.3171 -1.9944 0.9711
-7.0378 -0.3118 -1.9943 0.9711
-6.9819 -0.9382 -1.9943 0.9711
-6.7047 -2.1638 -1.9945 0.9711
-6.4855 -2.7533 -1.9946 0.9711
-5.8947 -3.8626 -1.9951 0.9711
-5.5276 -4.3736 -1.9954 0.9711
-5.1164 -4.8501 -1.9958 0.9711
-4.6645 -5.2881 -1.9962 0.9711
-3.6526 -6.0355 -1.9971 0.9711
-3.1006 -6.3389 -1.9977 0.9711
-2.5236 -6.5920 -1.9982 0.9711
-1.9262 -6.7928 -1.9988 0.9711
-1.3132 -6.9397 -1.9994 0.9711
-0.6893 -7.0313 -2.0001 0.9711
-0.0595 -7.0670 -2.0007 0.9710
0.5712 -7.0465 -2.0013 0.9710
1.8151 -6.8373 -2.0026 0.9710
3.5636 -6.1186 -2.0045 0.9710
4.0962 -5.7781 -2.0051 0.9710
4.5965 -5.3913 -2.0056 0.9710
5.4839 -4.4912 -2.0066 0.9710
6.4810 -2.8811 -2.0078 0.9709
6.7131 -2.2919 -2.0081 0.9709
6.8916 -1.6843 -2.0084 0.9709
7.0151 -1.0631 -2.0086 0.9709
7.0824 -0.4333 -2.0087 0.9709
7.0471 0.8319 -2.0088 0.9709
6.7868 2.0704 -2.0087 0.9709
6.5746 2.6672 -2.0085 0.9709
6.3099 3.2426 -2.0083 0.9709
5.9948 3.7919 -2.0081 0.9709
5.5790 4.2703 -1.9889 0.9712
2.9702 5.8329 -1.8530 0.9732
2.4375 6.0728 -1.8525 0.9732
1.8857 6.2642 -1.8520 0.9732
0.7423 6.4955 -1.8508 0.9732
-0.4232 6.5199 -1.8496 0.9732
-1.0026 6.4541 -1.8490 0.9732
-2.1319 6.1694 -1.8478 0.9732
-4.5803 4.6373 -1.8452 0.9733
-4.9743 4.2093 -1.8447 0.9733
-5.7486 4.0434 -1.9896 0.9712
-6.6318 2.3839 -1.9950 0.9711
-7.0241 0.5432 -1.9944 0.9711
-7.0085 -0.7133 -1.9943 0.9711
-6.9170 -1.3355 -1.9943 0.9711
-6.7706 -1.9471 -1.9944 0.9711
-6.5705 -2.5433 -1.9945 0.9711
-6.3181 -3.1195 -1.9947 0.9711
-6.0155 -3.6710 -1.9950 0.9711
-5.6650 -4.1934 -1.9953 0.9711
-5.2693 -4.6828 -1.9956 0.9711
-4.8317 -5.1351 -1.9960 0.9711
-3.3024 -6.2354 -1.9975 0.9711
-2.7340 -6.5068 -1.9980 0.9711
-2.1434 -6.7267 -1.9986 0.9711
0.3444 -7.0604 -2.0011 0.9710
1.5942 -6.8913 -2.0024 0.9710
2.2031 -6.7239 -2.0031 0.9710
3.3647 -6.2294 -2.0043 0.9710
3.9080 -5.9062 -2.0049 0.9710
4.8977 -5.1208 -2.0060 0.9710
5.7323 -4.1712 -2.0069 0.9710
6.0827 -3.6442 -2.0074 0.9710
6.6356 -2.5064 -2.0080 0.9709
6.8336 -1.9049 -2.0083 0.9709
7.0647 -0.6607 -2.0087 0.9709
7.0958 -0.0281 -2.0088 0.9709
7.0702 0.6049 -2.0088 0.9709
6.9880 1.2330 -2.0088 0.9709
6.6571 2.4546 -2.0086 0.9709
6.4111 3.0382 -2.0084 0.9709
6.1139 3.5974 -2.0082 0.9709
5.7533 4.1174 -2.0028 0.9710
4.9831 4.2870 -1.8609 0.9730
4.1271 5.0855 -1.8541 0.9731
3.6563 5.4320 -1.8537 0.9731
2.6317 5.9920 -1.8527 0.9732
0.9509 6.4690 -1.8510 0.9732
0.3700 6.5260 -1.8504 0.9732
-0.2134 6.5309 -1.8498 0.9732
-1.9327 6.2354 -1.8480 0.9732
-2.4803 6.0363 -1.8475 0.9732
-3.5111 5.4963 -1.8464 0.9733
-5.9857 3.7181 -1.9948 0.9711
-6.7566 2.0010 -1.9949 0.9711
-6.9073 1.3903 -1.9946 0.9711
-7.0032 0.7687 -1.9945 0.9711
-7.0278 -0.4876 -1.9943 0.9711
-6.9563 -1.1124 -1.9943 0.9711
-6.4149 -2.9146 -1.9947 0.9711
-6.1301 -3.4755 -1.9949 0.9711
-5.4168 -4.5106 -1.9955 0.9711
-4.0321 -5.7873 -1.9968 0.9711
-3.5008 -6.1254 -1.9973 0.9711
-1.7560 -6.8394 -1.9990 0.9711
-1.1394 -6.9709 -1.9996 0.9711
0.1172 -7.0670 -2.0009 0.9710
0.7472 -7.0306 -2.0015 0.9710
1.3717 -6.9382 -2.0022 0.9710
1.9856 -6.7904 -2.0028 0.9710
2.5841 -6.5884 -2.0035 0.9710
3.1624 -6.3336 -2.0041 0.9710
5.1831 -4.8335 -2.0063 0.9710
5.5948 -4.3530 -2.0068 0.9710
6.2817 -3.2912 -2.0076 0.9709
7.0911 -0.2561 -2.0088 0.9709
7.0241 1.0077 -2.0088 0.9709
6.7328 2.2394 -2.0087 0.9709
6.5057 2.8307 -2.0085 0.9709
6.2266 3.3992 -2.0083 0.9709
5.8922 3.9366 -2.0061 0.9710
4.7143 4.5494 -1.8547 0.9731
-6.4115 0.9833 -1.9951 0.9732
-6.4732 0.4075 -1.9950 0.9732
-6.4424 -0.7489 -1.9949 0.9732
-6.2072 -1.8816 -1.9950 0.9732
-4.3801 -4.7906 -1.9965 0.9732
-3.4608 -5.4949 -1.9974 0.9732
-2.4308 -6.0253 -1.9984 0.9732
-1.8843 -6.2198 -1.9989 0.9732
-0.1708 -6.5023 -2.0006 0.9731
0.9877 -6.4330 -2.0018 0.9731
1.5579 -6.3212 -2.0024 0.9731
2.1160 -6.1589 -2.0030 0.9731
2.6576 -5.9473 -2.0036 0.9731
4.5742 -4.6475 -2.0057 0.9731
6.1383 -2.2188 -2.0076 0.9731
6.4362 -1.0932 -2.0080 0.9730
6.5085 -0.5149 -2.0081 0.9730
6.5288 0.0676 -2.0082 0.9730
6.4129 1.2264 -2.0082 0.9730
6.2778 1.7933 -2.0081 0.9730
5.5776 3.3902 -2.0076 0.9731
5.2498 3.8717 -2.0063 0.9731
4.1385 4.3827 -1.8540 0.9751
3.7304 4.7334 -1.8537 0.9751
1.6596 5.1768 -1.6721 0.9775
1.3191 5.8727 -1.8513 0.9751
-0.8167 5.9563 -1.8492 0.9752
-3.3039 5.0125 -1.8465 0.9752
-4.1397 4.3436 -1.8456 0.9752
-4.7148 4.1363 -1.9291 0.9741
-5.2351 3.8237 -1.9940 0.9732
-6.3768 1.1889 -1.9952 0.9732
-6.4569 0.6154 -1.9950 0.9732
-6.4858 0.0371 -1.9949 0.9732
-6.4631 -0.5414 -1.9949 0.9732
-6.3891 -1.1157 -1.9949 0.9732
-5.2832 -3.7668 -1.9957 0.9732
-4.9270 -4.2236 -1.9960 0.9732
-4.5315 -4.6470 -1.9964 0.9732
-4.0998 -5.0336 -1.9968 0.9732
-3.1418 -5.6845 -1.9977 0.9732
-2.6230 -5.9435 -1.9982 0.9732
-1.5262 -6.3184 -1.9993 0.9732
-0.9569 -6.4311 -1.9999 0.9732
-0.3797 -6.4927 -2.0004 0.9731
0.7803 -6.4607 -2.0016 0.9731
1.3537 -6.3673 -2.0022 0.9731
1.9168 -6.2230 -2.0028 0.9731
2.4648 -6.0291 -2.0034 0.9731
3.4987 -5.4983 -2.0045 0.9731
5.2053 -3.9317 -2.0064 0.9731
5.5363 -3.4525 -2.0068 0.9731
5.8231 -2.9455 -2.0072 0.9731
6.0635 -2.4148 -2.0075 0.9731
6.5275 -0.1423 -2.0082 0.9730
6.5143 0.4404 -2.0082 0.9730
6.3323 1.5906 -2.0082 0.9730
6.1649 2.1489 -2.0081 0.9730
5.6840 3.2093 -2.0077 0.9731
5.0074 4.1547 -2.0013 0.9731
4.3051 4.2751 -1.8661 0.9749
3.4534 4.9380 -1.8534 0.9751
2.9986 5.2251 -1.8530 0.9751
2.5200 5.4704 -1.8525 0.9751
1.5073 5.8279 -1.8515 0.9751
0.9813 5.9374 -1.8510 0.9751
0.4477 5.9995 -1.8505 0.9751
-1.1553 5.8988 -1.8488 0.9752
-1.6763 5.7705 -1.8483 0.9752
-2.6733 5.3778 -1.8472 0.9752
-3.1413 5.1166 -1.8467 0.9752
-3.9983 4.4748 -1.8457 0.9752
-4.4359 4.1514 -1.8687 0.9749
-5.4515 3.5226 -1.9964 0.9732
-5.7429 3.0218 -1.9960 0.9732
-6.3355 1.3933 -1.9952 0.9732
-6.4339 0.8227 -1.9951 0.9732
-6.4772 -0.3334 -1.9949 0.9732
-6.4216 -0.9097 -1.9949 0.9732
-6.3151 -1.4788 -1.9949 0.9732
-6.1583 -2.0362 -1.9950 0.9732
-5.9526 -2.5775 -1.9952 0.9732
-5.6996 -3.0984 -1.9954 0.9732
-5.4013 -3.5948 -1.9956 0.9732
-4.6782 -4.4986 -1.9963 0.9732
-4.2592 -4.8988 -1.9966 0.9732
-3.8062 -5.2603 -1.9971 0.9732
-3.3226 -5.5800 -1.9975 0.9732
-2.2796 -6.0846 -1.9985 0.9732
-1.7284 -6.2654 -1.9991 0.9732
-0.5881 -6.4765 -2.0002 0.9732
-0.0082 -6.5050 -2.0008 0.9731
0.5721 -6.4818 -2.0014 0.9731
1.7156 -6.2808 -2.0026 0.9731
2.2695 -6.1045 -2.0032 0.9731
2.8057 -5.8795 -2.0038 0.9731
3.8076 -5.2904 -2.0048 0.9731
6.3522 -1.5045 -2.0079 0.9731
6.2309 1.9497 -2.0081 0.9730
6.0318 2.4974 -2.0080 0.9730
5.7844 3.0251 -2.0078 0.9731
5.4909 3.5285 -2.0075 0.9731
5.1456 3.9972 -2.0041 0.9731
4.5835 4.2679 -1.9263 0.9741
4.0274 4.4846 -1.8539 0.9751
3.1653 5.1265 -1.8531 0.9751
1.6940 5.7770 -1.8517 0.9751
0.1043 6.0142 -1.8501 0.9751
-0.3757 5.2123 -1.6074 0.9784
-2.0028 5.6643 -1.8479 0.9752
-3.4279 4.9280 -1.8464 0.9752
-3.8527 4.6015 -1.8459 0.9752
-4.2467 4.2385 -1.8455 0.9752
-5.3345 3.6954 -1.9960 0.9732
-5.6431 3.2051 -1.9961 0.9732
-5.9055 2.6886 -1.9958 0.9732
-6.1209 2.1509 -1.9955 0.9732
-6.2876 1.5963 -1.9953 0.9732
-6.4702 0.4538 -1.9950 0.9732
-6.4846 -0.1250 -1.9949 0.9732
-6.4475 -0.7028 -1.9949 0.9732
-6.3593 -1.2750 -1.9949 0.9732
-4.8201 -4.3456 -1.9961 0.9732
-4.4142 -4.7591 -1.9965 0.9732
-3.5000 -5.4699 -1.9974 0.9732
-2.9990 -5.7616 -1.9978 0.9732
-2.4738 -6.0077 -1.9984 0.9732
-1.9287 -6.2060 -1.9989 0.9732
-1.3679 -6.3550 -1.9994 0.9732
-0.2173 -6.5007 -2.0006 0.9731
0.9416 -6.4398 -2.0018 0.9731
2.6150 -5.9660 -2.0036 0.9731
3.1375 -5.7107 -2.0041 0.9731
5.3022 -3.8006 -2.0065 0.9731
5.6211 -3.3132 -2.0069 0.9731
5.8952 -2.7992 -2.0073 0.9731
6.1222 -2.2626 -2.0075 0.9731
6.4282 -1.1392 -2.0080 0.9730
6.5046 -0.5614 -2.0081 0.9730
6.5013 0.6031 -2.0082 0.9730
6.4216 1.1805 -2.0082 0.9730
6.2905 1.7484 -2.0082 0.9730
4.8804 4.2598 -1.9925 0.9733
4.1698 4.3531 -1.8541 0.9751
3.7642 4.7067 -1.8537 0.9751
3.3287 5.0225 -1.8533 0.9751
2.8668 5.2981 -1.8528 0.9751
2.3823 5.5312 -1.8524 0.9751
1.6926 5.1526 -1.6681 0.9776
0.8325 5.9596 -1.8508 0.9751
0.2976 6.0083 -1.8503 0.9751
-0.2394 6.0092 -1.8498 0.9751
-0.7741 5.9621 -1.8492 0.9752
-1.3023 5.8676 -1.8487 0.9752
-2.3226 5.5396 -1.8476 0.9752
-4.6512 4.1398 -1.9152 0.9743
-5.2061 3.8599 -1.9934 0.9732
