ply
format ascii 1.0
element vertex 1592
property float32 x
property float32 y
property float32 z
property float32 I
end_header
-6.9382 -10.2072 -2.0332 0.9512
-2.9075 -11.8890 -2.0163 0.9516
0.3405 -12.1512 -2.0026 0.9519
3.5204 -11.5493 -1.9890 0.9522
5.4925 -10.6948 -1.9806 0.9524
6.4115 -10.1422 -1.9767 0.9525
7.2766 -9.5122 -1.9730 0.9526
8.0816 -8.8100 -1.9695 0.9527
10.0805 -6.3288 -1.9608 0.9529
11.0210 -4.4283 -1.9567 0.9530
11.6163 -2.3969 -1.9540 0.9531
11.8502 -0.2953 -1.9528 0.9531
11.2190 3.8708 -1.9551 0.9530
10.3711 5.8122 -1.9585 0.9529
7.8507 7.7458 -1.8168 0.9563
7.1404 8.4286 -1.8198 0.9562
4.6812 10.0744 -1.8301 0.9560
1.7766 10.5312 -1.7594 0.9576
-0.1195 10.4397 -1.7199 0.9586
-0.9216 9.1179 -1.5097 0.9635
-1.9906 10.3494 -1.7362 0.9582
-2.9549 10.3029 -1.7657 0.9575
-5.0209 10.1883 -1.8711 0.9550
-5.9216 9.7199 -1.8750 0.9549
-6.7779 9.1711 -1.8787 0.9548
-8.3287 7.8492 -1.8854 0.9547
-9.0095 7.0863 -1.8883 0.9546
-10.1516 5.3875 -1.8933 0.9545
-10.6027 4.4655 -1.8953 0.9544
-11.5344 3.6863 -1.9949 0.9521
-12.3690 1.6266 -2.0552 0.9507
-12.1540 -2.7995 -2.0547 0.9507
-10.9539 -5.9026 -2.0499 0.9508
-10.3719 -6.8478 -2.0475 0.9509
-9.7070 -7.7350 -2.0447 0.9509
-7.2775 -9.9788 -2.0346 0.9512
-4.3505 -11.4795 -2.0224 0.9515
-1.1494 -12.1400 -2.0089 0.9518
-0.0622 -12.1662 -2.0043 0.9519
1.0205 -12.0955 -1.9997 0.9520
3.1386 -11.6691 -1.9907 0.9522
4.1575 -11.3179 -1.9863 0.9523
5.1393 -10.8791 -1.9821 0.9524
6.0765 -10.3565 -1.9781 0.9525
6.9624 -9.7547 -1.9743 0.9526
7.7903 -9.0786 -1.9707 0.9527
9.2494 -7.5262 -1.9644 0.9528
9.8700 -6.6623 -1.9617 0.9529
10.4121 -5.7487 -1.9594 0.9529
10.8720 -4.7924 -1.9573 0.9530
11.2464 -3.8007 -1.9557 0.9530
11.8478 0.3704 -1.9528 0.9531
10.9892 4.4966 -1.9560 0.9530
10.5539 5.4635 -1.9578 0.9530
9.4376 7.2682 -1.9624 0.9529
8.0984 7.4773 -1.8158 0.9563
6.6633 8.8257 -1.8218 0.9562
5.8605 9.4020 -1.8251 0.9561
4.1136 10.3347 -1.8325 0.9559
3.1571 10.5978 -1.8217 0.9562
0.2266 10.4564 -1.7230 0.9585
-0.7050 10.4115 -1.7191 0.9586
-1.6400 10.3663 -1.7290 0.9583
-2.5933 10.3204 -1.7530 0.9578
-4.6235 10.2224 -1.8483 0.9555
-5.5922 9.9032 -1.8736 0.9549
-7.2906 8.7865 -1.8809 0.9548
-8.0592 8.1156 -1.8842 0.9547
-10.4452 4.8124 -1.8946 0.9544
-12.0696 3.1227 -2.0538 0.9507
-12.4431 0.9299 -2.0556 0.9507
-12.4779 -0.1833 -2.0558 0.9507
-12.4107 -1.2951 -2.0556 0.9507
-11.9736 -3.4762 -2.0540 0.9507
-11.6077 -4.5267 -2.0525 0.9507
-10.5978 -6.5035 -2.0484 0.9508
-9.9630 -7.4132 -2.0458 0.9509
-8.4620 -9.0374 -2.0396 0.9510
-7.6091 -9.7390 -2.0360 0.9511
-1.5521 -12.1055 -2.0106 0.9517
-0.4655 -12.1678 -2.0060 0.9518
0.6199 -12.1329 -2.0014 0.9519
1.6955 -12.0019 -1.9968 0.9521
5.7345 -10.5599 -1.9796 0.9525
6.6402 -9.9868 -1.9757 0.9525
7.4904 -9.3377 -1.9720 0.9526
8.2788 -8.6177 -1.9686 0.9527
10.2204 -6.0930 -1.9602 0.9529
10.7112 -5.1517 -1.9580 0.9530
11.4370 -3.1620 -1.9548 0.9530
11.8062 -1.0792 -1.9531 0.9531
11.6726 2.0843 -1.9533 0.9531
11.4454 3.1182 -1.9542 0.9530
10.7252 5.1092 -1.9571 0.9530
9.0210 7.7919 -1.9637 0.9528
7.6733 7.9278 -1.8176 0.9563
6.9474 8.5946 -1.8206 0.9562
6.1643 9.1964 -1.8239 0.9561
5.3299 9.7279 -1.8274 0.9560
4.4502 10.1850 -1.8310 0.9559
-0.3598 10.4281 -1.7189 0.9586
-5.2571 10.0753 -1.8722 0.9550
2.6036 9.4307 -1.8389 0.9610
-1.7405 9.7268 -1.8573 0.9606
-2.6060 9.5518 -1.8610 0.9605
-3.4541 9.2994 -1.8646 0.9604
-4.2775 8.9712 -1.8681 0.9604
-5.0696 8.5696 -1.8715 0.9603
-5.8236 8.0973 -1.8747 0.9602
-7.1918 6.9560 -1.8806 0.9601
-8.3350 5.5826 -1.8856 0.9600
-9.2128 4.0215 -1.8894 0.9599
-10.3130 3.4439 -2.0437 0.9567
-10.7862 1.5610 -2.0485 0.9566
-10.8851 0.5931 -2.0490 0.9566
-10.8167 -1.3497 -2.0489 0.9566
-10.6500 -2.3081 -2.0483 0.9566
-10.0592 -4.1584 -2.0459 0.9567
-9.1439 -5.8683 -2.0422 0.9567
-7.9367 -7.3811 -2.0372 0.9568
-7.2366 -8.0479 -2.0343 0.9569
-6.4801 -8.6477 -2.0311 0.9570
-5.6737 -9.1758 -2.0278 0.9570
-2.0922 -10.5018 -2.0127 0.9574
1.6977 -10.4863 -1.9967 0.9577
3.5196 -9.9791 -1.9889 0.9578
4.3872 -9.6075 -1.9852 0.9579
5.2170 -9.1616 -1.9817 0.9580
6.0029 -8.6452 -1.9783 0.9581
8.0411 -6.7181 -1.9695 0.9582
8.5975 -5.9670 -1.9671 0.9583
9.8427 -3.4690 -1.9616 0.9584
10.1066 -2.5760 -1.9604 0.9584
10.4197 0.1906 -1.9588 0.9585
10.2236 2.0391 -1.9595 0.9585
10.0054 2.9438 -1.9603 0.9584
9.3362 4.6806 -1.9630 0.9584
6.6006 7.1005 -1.8222 0.9613
5.2505 8.1852 -1.8278 0.9612
4.5074 8.6354 -1.8309 0.9611
2.0727 9.5737 -1.8412 0.9609
-0.5383 9.8394 -1.8522 0.9607
-2.2866 9.6258 -1.8596 0.9605
-3.1420 9.4019 -1.8633 0.9605
-5.5488 8.2805 -1.8735 0.9602
-6.2755 7.7657 -1.8767 0.9602
-6.9537 7.1864 -1.8796 0.9601
-7.5777 6.5471 -1.8823 0.9601
-8.1419 5.8529 -1.8847 0.9600
-8.6413 5.1095 -1.8869 0.9600
-9.0716 4.3230 -1.8888 0.9599
-10.0987 3.7484 -2.0247 0.9571
-10.7271 1.9171 -2.0482 0.9566
-10.8587 0.9532 -2.0489 0.9566
-10.8562 -0.9908 -2.0490 0.9566
-10.5007 -2.9015 -2.0477 0.9566
-9.8050 -4.7141 -2.0449 0.9567
-8.7938 -6.3679 -2.0408 0.9568
-8.1808 -7.1178 -2.0382 0.9568
-6.7669 -8.4333 -2.0323 0.9569
-4.2715 -9.8726 -2.0219 0.9572
-2.4406 -10.4344 -2.0142 0.9573
-1.4975 -10.5895 -2.0102 0.9574
0.4057 -10.6443 -2.0022 0.9576
1.3505 -10.5445 -1.9981 0.9577
2.2808 -10.3616 -1.9942 0.9577
4.0694 -9.7542 -1.9866 0.9579
5.7169 -8.8448 -1.9795 0.9580
6.4722 -8.2861 -1.9763 0.9581
7.1742 -7.6643 -1.9732 0.9582
7.8180 -6.9842 -1.9705 0.9582
8.3989 -6.2512 -1.9679 0.9583
8.9127 -5.4712 -1.9657 0.9583
9.3557 -4.6500 -1.9637 0.9584
9.7250 -3.7941 -1.9621 0.9584
10.2322 -2.0040 -1.9598 0.9585
10.3667 -1.0833 -1.9592 0.9585
10.3929 0.7752 -1.9589 0.9585
10.2844 1.6992 -1.9593 0.9585
10.0956 2.6104 -1.9600 0.9584
9.8279 3.5021 -1.9610 0.9584
9.0638 5.2003 -1.9641 0.9584
8.0094 6.7388 -1.9674 0.9583
6.8285 6.8745 -1.8213 0.9613
6.1973 7.4667 -1.8239 0.9613
5.5154 8.0020 -1.8267 0.9612
4.7878 8.4760 -1.8298 0.9612
4.0200 8.8847 -1.8330 0.9611
3.2177 9.2247 -1.8363 0.9610
2.3869 9.4929 -1.8398 0.9609
1.5339 9.6869 -1.8434 0.9609
0.6653 9.8045 -1.8471 0.9608
-0.2120 9.8445 -1.8508 0.9607
-1.9651 9.6891 -1.8583 0.9606
-2.8268 9.4940 -1.8619 0.9605
-3.6692 9.2218 -1.8655 0.9604
-4.4852 8.8745 -1.8690 0.9603
-5.2681 8.4543 -1.8723 0.9603
-7.3529 6.7909 -1.8813 0.9601
-8.4639 5.3907 -1.8861 0.9600
-8.9203 4.6194 -1.8881 0.9599
-10.8962 0.3422 -2.0491 0.9566
-10.7821 -1.5985 -2.0488 0.9566
-10.3176 -3.4852 -2.0470 0.9566
-9.0037 -6.0757 -2.0416 0.9568
-5.4584 -9.3000 -2.0269 0.9571
-4.5992 -9.7323 -2.0233 0.9571
-1.8487 -10.5419 -2.0117 0.9574
-0.8996 -10.6435 -2.0077 0.9575
1.9378 -10.4390 -1.9957 0.9577
2.8553 -10.2047 -1.9917 0.9578
4.6052 -9.4994 -1.9843 0.9579
6.1979 -8.5010 -1.9774 0.9581
8.7301 -5.7656 -1.9665 0.9583
9.1998 -4.9591 -1.9644 0.9584
9.9182 -3.2408 -1.9612 0.9584
10.1620 -2.3422 -1.9601 0.9584
10.1749 2.2743 -1.9597 0.9585
9.9363 3.1740 -1.9606 0.9584
9.6199 4.0500 -1.9619 0.9584
6.4376 7.2534 -1.8229 0.9613
5.7739 7.8103 -1.8256 0.9612
5.0627 8.3076 -1.8286 0.9612
3.5190 9.1068 -1.8351 0.9610
1.8525 9.6237 -1.8421 0.9609
0.0609 5.2505 -0.9870 0.9789
-1.6420 9.7417 -1.8569 0.9606
-4.1860 9.0120 -1.8677 0.9604
-5.7406 8.1541 -1.8744 0.9602
-6.4554 7.6222 -1.8774 0.9602
-7.1202 7.0269 -1.8803 0.9601
-7.7292 6.3730 -1.8829 0.9600
-8.2772 5.6655 -1.8853 0.9600
-8.7591 4.9104 -1.8874 0.9600
-10.2684 3.5444 -2.0418 0.9568
-10.7695 1.6695 -2.0484 0.9566
-10.8784 0.7028 -2.0490 0.9566
-10.8986 -0.2700 -2.0491 0.9566
-9.6915 -4.9377 -2.0444 0.9567
-9.2036 -5.7765 -2.0424 0.9567
-8.6421 -6.5668 -2.0401 0.9568
-5.7671 -9.1199 -2.0282 0.9570
-4.9223 -9.5811 -2.0246 0.9571
-4.0409 -9.9636 -2.0209 0.9572
-3.1305 -10.2648 -2.0171 0.9573
-2.1984 -10.4825 -2.0132 0.9573
-1.2525 -10.6157 -2.0092 0.9574
2.5177 -10.3010 -1.9932 0.9578
3.4195 -10.0162 -1.9893 0.9578
4.2910 -9.6533 -1.9856 0.9579
5.1254 -9.2156 -1.9820 0.9580
6.6586 -8.1315 -1.9755 0.9581
9.4582 -4.4322 -1.9633 0.9584
9.8080 -3.5684 -1.9617 0.9584
10.0807 -2.6779 -1.9605 0.9584
10.2746 -1.7676 -1.9596 0.9585
10.4211 0.0856 -1.9588 0.9585
9.7462 3.7282 -1.9614 0.9584
8.9438 5.4091 -1.9646 0.9584
6.6708 7.0325 -1.8219 0.9613
5.3318 8.1304 -1.8275 0.9612
4.5933 8.5879 -1.8306 0.9611
3.0058 9.3009 -1.8372 0.9610
1.3109 9.7246 -1.8444 0.9608
0.4395 9.8223 -1.8481 0.9608
-0.4390 9.8421 -1.8518 0.9607
-2.1890 9.6462 -1.8592 0.9605
-3.0464 9.4311 -1.8629 0.9605
-3.8826 9.1393 -1.8664 0.9604
-6.1957 7.8271 -1.8763 0.9602
-8.5883 5.1957 -1.8867 0.9600
-9.8463 3.7681 -1.9816 0.9580
-10.8483 1.0626 -2.0488 0.9566
-10.9015 0.0910 -2.0491 0.9566
-10.7416 -1.8463 -2.0486 0.9566
-10.5300 -2.7957 -2.0478 0.9566
-9.3935 -5.4707 -2.0432 0.9567
-8.8587 -6.2797 -2.0410 0.9568
-7.5828 -7.7333 -2.0357 0.9569
-6.8528 -8.3662 -2.0327 0.9569
-3.4711 -10.1627 -2.0185 0.9572
-1.6045 -10.5762 -2.0107 0.9574
-0.6537 -10.6558 -2.0066 0.9575
2.1767 -10.3863 -1.9946 0.9577
3.0881 -10.1311 -1.9908 0.9578
3.9717 -9.7968 -1.9870 0.9579
7.0978 -7.7375 -1.9736 0.9582
7.7484 -7.0637 -1.9708 0.9582
8.3366 -6.3364 -1.9682 0.9583
8.8581 -5.5614 -1.9659 0.9583
9.3094 -4.7446 -1.9639 0.9584
9.6871 -3.8923 -1.9623 0.9584
9.9887 -3.0109 -1.9609 0.9584
10.3556 -1.1878 -1.9592 0.9585
10.4184 -0.2596 -1.9589 0.9585
10.4001 0.6704 -1.9589 0.9585
9.8620 3.4026 -1.9609 0.9584
9.5259 4.2714 -1.9623 0.9584
8.6317 5.9065 -1.9659 0.9583
8.0800 6.6603 -1.9682 0.9583
6.2712 7.4026 -1.8236 0.9613
4.1085 8.8420 -1.8326 0.9611
-0.1127 9.8439 -1.8504 0.9607
-0.9252 9.1531 -1.7292 0.9632
-2.7304 9.5199 -1.8615 0.9605
-3.5752 9.2564 -1.8651 0.9604
-4.3946 8.9174 -1.8686 0.9603
-5.1816 8.5053 -1.8720 0.9603
-5.9295 8.0231 -1.8752 0.9602
-7.2829 6.8636 -1.8810 0.9601
-8.8723 4.7085 -1.8879 0.9599
-10.3689 3.3139 -2.0461 0.9567
-10.8921 0.4520 -2.0491 0.9566
-10.7980 -1.4897 -2.0488 0.9566
-10.6186 -2.4458 -2.0481 0.9566
-10.0033 -4.2879 -2.0457 0.9567
-8.4859 -6.7620 -2.0395 0.9568
-6.3660 -8.7289 -2.0307 0.9570
-4.6980 -9.6875 -2.0237 0.9571
-3.8085 -10.0492 -2.0200 0.9572
-1.9553 -10.5250 -2.0121 0.9574
-1.0071 -10.6362 -2.0081 0.9574
4.5101 -9.5473 -1.9847 0.9579
5.3340 -9.0910 -1.9812 0.9580
6.1130 -8.5646 -1.9778 0.9581
7.5141 -7.3202 -1.9718 0.9582
8.1260 -6.6121 -1.9691 0.9583
8.6727 -5.8541 -1.9667 0.9583
9.1504 -5.0521 -1.9646 0.9584
9.5557 -4.2122 -1.9629 0.9584
9.8858 -3.3408 -1.9614 0.9584
10.1384 -2.4446 -1.9602 0.9584
10.3117 -1.5302 -1.9594 0.9585
10.4046 -0.6045 -1.9590 0.9585
10.4163 0.3256 -1.9588 0.9585
8.8191 5.6152 -1.9651 0.9583
7.1144 6.5688 -1.8201 0.9614
6.5094 7.1869 -1.8226 0.9613
5.8514 7.7504 -1.8253 0.9612
5.1452 8.2545 -1.8283 0.9612
4.3962 8.6953 -1.8314 0.9611
2.7920 9.3723 -1.8381 0.9610
1.9490 9.6024 -1.8417 0.9609
1.0871 9.7572 -1.8453 0.9608
0.2132 9.8349 -1.8490 0.9608
-2.4119 9.5981 -1.8602 0.9605
-3.2644 9.3630 -1.8638 0.9604
-4.0941 9.0518 -1.8673 0.9604
-6.3771 7.6855 -1.8771 0.9602
-8.2185 5.7479 -1.8851 0.9600
-8.7081 4.9979 -1.8872 0.9600
-9.1280 4.2056 -1.8891 0.9599
-10.8705 0.8124 -2.0489 0.9566
-10.6953 -2.0932 -2.0484 0.9566
-10.1426 -3.9554 -2.0463 0.9567
-8.7091 -6.4802 -2.0404 0.9568
-7.3998 -7.9030 -2.0350 0.9569
-3.2345 -10.2349 -2.0175 0.9573
-1.3597 -10.6049 -2.0096 0.9574
-0.4079 -10.6625 -2.0056 0.9575
0.5434 -10.6350 -2.0016 0.9576
1.4866 -10.5231 -1.9976 0.9577
2.4142 -10.3282 -1.9936 0.9577
3.3191 -10.0523 -1.9898 0.9578
4.1943 -9.6980 -1.9860 0.9579
5.8296 -8.7678 -1.9790 0.9581
6.5775 -8.1997 -1.9758 0.9581
7.2714 -7.5690 -1.9728 0.9582
7.9063 -6.8809 -1.9701 0.9582
9.7723 -3.6673 -1.9619 0.9584
10.0539 -2.7796 -1.9606 0.9584
10.2568 -1.8711 -1.9597 0.9585
10.3796 -0.9488 -1.9591 0.9585
10.4215 -0.0195 -1.9588 0.9585
10.3821 0.9099 -1.9589 0.9585
8.9969 5.3181 -1.9644 0.9584
7.9136 6.8354 -1.9655 0.9583
6.7402 6.9638 -1.8216 0.9613
5.4125 8.0747 -1.8271 0.9612
4.6788 8.5395 -1.8302 0.9611
2.2643 9.5257 -1.8404 0.9609
1.4086 9.7087 -1.8440 0.9609
-4.6011 8.8180 -1.8695 0.9603
3.0507 8.1381 -1.8371 0.9651
2.3168 8.3919 -1.8402 0.9650
1.5620 8.5798 -1.8434 0.9650
0.7921 8.7002 -1.8467 0.9649
0.0079 5.2394 -1.1075 0.9788
-1.5471 8.6458 -1.8566 0.9647
-4.5024 7.6107 -1.8692 0.9645
-5.1710 7.1899 -1.8720 0.9644
-5.7999 6.7099 -1.8747 0.9644
-6.3836 6.1742 -1.8773 0.9643
-6.9172 5.5873 -1.8796 0.9643
-7.8160 4.2787 -1.8835 0.9642
-8.7329 3.8120 -2.0142 0.9618
-9.4020 2.2313 -2.0426 0.9613
-9.5671 1.3845 -2.0434 0.9612
-9.6635 -0.3369 -2.0439 0.9612
-9.5940 -1.1971 -2.0437 0.9612
-9.4464 -2.0473 -2.0431 0.9613
-8.5527 -4.4666 -2.0396 0.9613
-7.6088 -5.9035 -2.0357 0.9614
-7.0440 -6.5510 -2.0334 0.9614
-6.4237 -7.1439 -2.0308 0.9615
-5.7532 -7.6777 -2.0280 0.9615
-5.0382 -8.1480 -2.0250 0.9616
-3.4996 -8.8850 -2.0185 0.9617
2.3317 -9.1399 -1.9939 0.9622
3.1321 -8.8803 -1.9905 0.9622
3.9049 -8.5515 -1.9872 0.9623
4.6445 -8.1562 -1.9840 0.9624
5.3452 -7.6979 -1.9810 0.9624
6.6093 -6.6078 -1.9755 0.9625
7.1634 -5.9849 -1.9731 0.9626
8.0959 -4.6078 -1.9691 0.9626
8.7723 -3.0918 -1.9661 0.9627
9.0081 -2.2960 -1.9650 0.9627
9.2365 0.9975 -1.9638 0.9627
8.3202 4.1713 -1.9674 0.9627
7.4603 5.5928 -1.9709 0.9626
6.9167 6.2221 -1.9666 0.9627
3.3166 8.0278 -1.8360 0.9651
2.5918 8.3053 -1.8391 0.9651
1.0791 8.6635 -1.8454 0.9649
0.3028 8.7408 -1.8487 0.9649
-2.0322 8.5548 -1.8586 0.9647
-2.7918 8.3540 -1.8619 0.9646
-4.2454 7.7511 -1.8681 0.9645
-9.6694 -0.0167 -2.0439 0.9612
-9.6289 -0.8788 -2.0438 0.9612
-6.6600 -6.9306 -2.0318 0.9615
-3.7942 -8.7696 -2.0198 0.9617
-2.9922 -9.0578 -2.0164 0.9618
-2.1688 -9.2726 -2.0129 0.9618
-1.3310 -9.4125 -2.0094 0.9619
-0.4856 -9.4768 -2.0058 0.9619
0.3607 -9.4654 -2.0022 0.9620
2.8381 -8.9849 -1.9917 0.9622
3.6218 -8.6814 -1.9884 0.9623
5.0901 -7.8750 -1.9821 0.9624
5.7636 -7.3790 -1.9792 0.9624
8.3373 -4.1438 -1.9680 0.9627
8.6671 -3.3814 -1.9665 0.9627
8.9288 -2.5935 -1.9654 0.9627
9.2406 -0.9656 -1.9639 0.9627
9.2886 -0.1378 -1.9636 0.9627
9.2640 0.6910 -1.9637 0.9627
9.1671 1.5146 -1.9640 0.9627
8.7594 3.1213 -1.9656 0.9627
8.0770 4.6341 -1.9684 0.9626
7.1346 6.0028 -1.9709 0.9626
6.0827 6.1236 -1.8245 0.9653
4.9114 7.1257 -1.8293 0.9652
4.2627 7.5464 -1.8321 0.9652
3.5785 7.9088 -1.8349 0.9651
2.8637 8.2098 -1.8379 0.9651
2.1238 8.4467 -1.8410 0.9650
0.5917 8.7202 -1.8475 0.9649
-3.2598 8.1929 -1.8639 0.9646
-3.9840 7.8827 -1.8670 0.9645
-4.6784 7.5080 -1.8699 0.9645
-5.9550 6.5768 -1.8754 0.9644
-6.5263 6.0275 -1.8779 0.9643
-7.0462 5.4281 -1.8801 0.9643
-7.5102 4.7833 -1.8822 0.9643
-9.2301 2.8476 -2.0418 0.9613
-9.5971 1.1638 -2.0435 0.9612
-9.6644 0.3035 -2.0439 0.9612
-9.5633 -1.4178 -2.0436 0.9612
-9.3959 -2.2642 -2.0429 0.9613
-9.1522 -3.0915 -2.0420 0.9613
-8.8346 -3.8928 -2.0407 0.9613
-8.4457 -4.6615 -2.0391 0.9613
-7.9891 -5.3910 -2.0373 0.9614
-7.4687 -6.0756 -2.0351 0.9614
-6.8891 -6.7094 -2.0327 0.9614
-6.2552 -7.2875 -2.0301 0.9615
-5.5727 -7.8053 -2.0272 0.9615
-4.0850 -8.6444 -2.0210 0.9617
-1.6431 -9.3694 -2.0107 0.9619
-0.7997 -9.4618 -2.0072 0.9619
0.0471 -9.4784 -2.0036 0.9620
0.8905 -9.4196 -2.0000 0.9621
4.8293 -8.0438 -1.9832 0.9624
6.1634 -7.0377 -1.9775 0.9625
6.7576 -6.4517 -1.9749 0.9625
7.7786 -5.1372 -1.9705 0.9626
8.1980 -4.4190 -1.9686 0.9626
8.8398 -2.8884 -1.9658 0.9627
9.0576 -2.0876 -1.9648 0.9627
9.2792 -0.4453 -1.9637 0.9627
9.2115 1.2101 -1.9638 0.9627
9.0693 2.0272 -1.9644 0.9627
8.5736 3.6095 -1.9663 0.9627
8.2235 4.3627 -1.9678 0.9627
7.8085 5.0830 -1.9695 0.9626
6.2794 5.9162 -1.8237 0.9653
3.1320 8.1055 -1.8368 0.9651
2.4008 8.3665 -1.8399 0.9650
1.6481 8.5619 -1.8430 0.9650
0.8796 8.6900 -1.8463 0.9649
0.0608 5.2493 -1.1097 0.9788
-0.6804 8.7392 -1.8529 0.9648
-1.4595 8.6592 -1.8562 0.9647
-2.2298 8.5096 -1.8595 0.9647
-2.9848 8.2911 -1.8627 0.9646
-3.7185 8.0054 -1.8658 0.9646
-6.3201 6.2374 -1.8770 0.9643
-6.8597 5.6560 -1.8793 0.9643
-7.3449 5.0275 -1.8814 0.9643
-7.7716 4.3568 -1.8833 0.9642
-8.5328 3.8275 -1.9768 0.9625
-9.1287 3.1511 -2.0414 0.9613
-9.3785 2.3258 -2.0425 0.9613
-9.5523 1.4809 -2.0433 0.9613
-9.6057 -1.1004 -2.0437 0.9612
-8.1662 -5.1254 -2.0380 0.9613
-7.6689 -5.8272 -2.0359 0.9614
-7.1107 -6.4805 -2.0336 0.9614
-6.4963 -7.0798 -2.0311 0.9615
-5.8312 -7.6205 -2.0283 0.9615
-4.3717 -8.5094 -2.0222 0.9616
-1.1133 -9.4363 -2.0085 0.9619
-0.2670 -9.4811 -2.0049 0.9620
0.5784 -9.4502 -2.0013 0.9620
1.4163 -9.3443 -1.9978 0.9621
2.2399 -9.1647 -1.9943 0.9622
3.0430 -8.9132 -1.9908 0.9622
5.2682 -7.7527 -1.9813 0.9624
6.5433 -6.6751 -1.9758 0.9625
8.0499 -4.6896 -1.9693 0.9626
8.7413 -3.1803 -1.9662 0.9627
8.9850 -2.3868 -1.9651 0.9627
9.2599 -0.7524 -1.9638 0.9627
8.6864 3.3228 -1.9659 0.9627
8.3611 4.0869 -1.9672 0.9627
7.9698 4.8200 -1.9688 0.9626
6.9837 6.1562 -1.9679 0.9627
5.3667 6.7779 -1.8275 0.9653
3.3967 7.9925 -1.8357 0.9651
2.6749 8.2772 -1.8387 0.9651
1.9295 8.4972 -1.8419 0.9650
0.3908 8.7355 -1.8484 0.9649
-0.3903 8.7512 -1.8517 0.9648
-1.1712 8.6970 -1.8550 0.9648
-2.7069 8.3801 -1.8615 0.9646
-3.4492 8.1192 -1.8647 0.9646
-5.5009 6.9493 -1.8735 0.9644
-6.1071 6.4401 -1.8761 0.9644
-6.6656 5.8774 -1.8785 0.9643
-7.1715 5.2658 -1.8807 0.9643
-7.6204 4.6102 -1.8826 0.9642
-9.0094 3.4478 -2.0391 0.9613
-9.2946 2.6346 -2.0421 0.9613
-9.4968 1.7962 -2.0430 0.9613
-9.5275 -1.6376 -2.0435 0.9612
-9.3402 -2.4798 -2.0427 0.9613
-7.3246 -6.2442 -2.0345 0.9614
-6.7305 -6.8641 -2.0321 0.9615
-6.0835 -7.4271 -2.0294 0.9615
-5.3893 -7.9286 -2.0265 0.9616
-4.6538 -8.3648 -2.0234 0.9616
-1.4262 -9.4005 -2.0098 0.9619
0.2654 -9.4705 -2.0027 0.9620
1.1068 -9.3923 -1.9991 0.9621
2.7479 -9.0148 -1.9921 0.9622
3.5348 -8.7191 -1.9887 0.9623
4.2912 -8.3556 -1.9855 0.9623
5.6898 -7.4379 -1.9795 0.9624
6.3217 -6.8914 -1.9768 0.9625
7.8929 -4.9554 -1.9700 0.9626
8.2958 -4.2281 -1.9682 0.9626
8.6333 -3.4689 -1.9667 0.9627
9.2306 -1.0587 -1.9640 0.9627
9.2868 -0.2314 -1.9637 0.9627
9.2704 0.5976 -1.9637 0.9627
9.0211 2.2358 -1.9646 0.9627
8.4896 3.8067 -1.9667 0.9627
8.1225 4.5520 -1.9682 0.9626
7.6912 5.2629 -1.9699 0.9626
6.1433 6.0612 -1.8242 0.9653
5.5855 6.5932 -1.8265 0.9653
4.9822 7.0747 -1.8291 0.9652
3.6573 7.8709 -1.8346 0.9651
2.2084 8.4232 -1.8407 0.9650
1.4510 8.6015 -1.8439 0.9650
0.6795 8.7120 -1.8471 0.9649
-0.0614 5.3616 -1.1334 0.9783
-2.4263 8.4597 -1.8603 0.9647
-4.6017 7.5534 -1.8696 0.9645
-5.8875 6.6355 -1.8751 0.9644
-6.4643 6.0921 -1.8776 0.9643
-7.4608 4.8582 -1.8819 0.9643
-8.8669 3.7345 -2.0337 0.9614
-9.2003 2.9404 -2.0417 0.9613
-9.5846 1.2605 -2.0434 0.9612
-9.6607 0.4009 -2.0438 0.9612
-9.5773 -1.3213 -2.0436 0.9612
-9.4186 -2.1694 -2.0430 0.9613
-9.1835 -2.9993 -2.0421 0.9613
-8.4931 -4.5765 -2.0393 0.9613
-8.0439 -5.3108 -2.0375 0.9614
-7.5305 -6.0007 -2.0354 0.9614
-4.9311 -8.2108 -2.0245 0.9616
-4.1728 -8.6043 -2.0214 0.9617
-3.3833 -8.9274 -2.0181 0.9617
-2.5695 -9.1780 -2.0146 0.9618
-1.7378 -9.3542 -2.0111 0.9618
-0.8952 -9.4551 -2.0076 0.9619
-0.0485 -9.4803 -2.0040 0.9620
0.7956 -9.4300 -2.0004 0.9620
1.6305 -9.3050 -1.9969 0.9621
4.0145 -8.4982 -1.9867 0.9623
6.6931 -6.5204 -1.9752 0.9625
7.7273 -5.2160 -1.9707 0.9626
8.8108 -2.9776 -1.9659 0.9627
9.0365 -2.1789 -1.9649 0.9627
9.1914 -1.3640 -1.9642 0.9627
9.2744 -0.5389 -1.9637 0.9627
9.2850 0.2903 -1.9636 0.9627
9.2230 1.1171 -1.9638 0.9627
8.6089 3.5226 -1.9662 0.9627
8.2663 4.2793 -1.9676 0.9627
7.8585 5.0035 -1.9693 0.9626
7.3883 5.6899 -1.9712 0.9626
6.5817 6.0769 -1.8936 0.9640
5.7979 6.4015 -1.8257 0.9653
5.2110 6.9022 -1.8281 0.9653
3.9137 7.7409 -1.8335 0.9652
2.4846 8.3402 -1.8395 0.9650
0.9670 8.6790 -1.8459 0.9649
0.1165 5.3756 -1.1366 0.9783
-0.5921 8.7439 -1.8525 0.9648
-2.1434 8.5299 -1.8591 0.9647
-2.9005 8.3192 -1.8623 0.9646
-3.6369 8.0410 -1.8655 0.9646
-6.8014 5.7241 -1.8791 0.9643
-7.2930 5.1006 -1.8812 0.9643
-8.3399 3.8424 -1.9410 0.9632
-9.0958 3.2427 -2.0412 0.9613
-9.4865 -1.8566 -2.0433 0.9613
-7.7282 -5.7503 -2.0362 0.9614
-7.1766 -6.4093 -2.0339 0.9614
-5.9087 -7.5625 -2.0286 0.9615
-5.2032 -8.0476 -2.0257 0.9616
-4.4580 -8.4664 -2.0226 0.9616
-2.8738 -9.0936 -2.0159 0.9618
-2.0480 -9.2976 -2.0124 0.9618
-1.2086 -9.4265 -2.0089 0.9619
1.3223 -9.3600 -1.9982 0.9621
3.7331 -8.6317 -1.9879 0.9623
5.8576 -7.3022 -1.9788 0.9625
7.0432 -6.1297 -1.9737 0.9625
8.0030 -4.7711 -1.9695 0.9626
9.1423 -1.6678 -1.9644 0.9627
9.2521 -0.8457 -1.9639 0.9627
8.7189 3.2349 -1.9658 0.9627
8.0172 4.7390 -1.9686 0.9626
7.0501 6.0896 -1.9692 0.9626
6.0039 6.2031 -1.8248 0.9653
5.4340 6.7224 -1.8272 0.9653
4.1655 7.6027 -1.8325 0.9652
3.4765 7.9564 -1.8354 0.9651
2.0147 8.4757 -1.8415 0.9650
-1.0833 8.7067 -1.8546 0.9648
-2.6218 8.4053 -1.8611 0.9646
-4.0867 7.8322 -1.8674 0.9645
3.9919 6.7016 -1.8333 0.9685
3.3832 7.0406 -1.8358 0.9684
2.7459 7.3249 -1.8385 0.9684
1.4054 7.7198 -1.8441 0.9683
0.7126 7.8267 -1.8471 0.9682
-0.6912 7.8540 -1.8530 0.9681
-2.0819 7.6306 -1.8589 0.9680
-2.7583 7.4261 -1.8618 0.9680
-3.4146 7.1613 -1.8646 0.9679
-4.0454 6.8382 -1.8673 0.9679
-5.7332 5.5451 -1.8746 0.9678
-6.6409 4.4479 -1.8785 0.9677
-8.5872 1.2427 -2.0392 0.9650
-8.6735 -0.3024 -2.0397 0.9650
-8.4790 -1.8376 -2.0390 0.9650
-7.6782 -4.0099 -2.0358 0.9650
-6.3258 -5.8829 -2.0303 0.9651
-3.1451 -7.9849 -2.0170 0.9654
-1.6716 -8.3907 -2.0108 0.9655
2.8188 -7.9920 -1.9917 0.9658
4.1813 -7.3427 -1.9859 0.9659
6.4525 -5.3909 -1.9761 0.9660
7.2939 -4.1513 -1.9724 0.9661
7.6293 -3.4818 -1.9710 0.9661
8.1174 -2.0690 -1.9688 0.9662
8.2666 -1.3365 -1.9681 0.9662
8.3511 -0.5939 -1.9676 0.9662
8.3701 0.1531 -1.9675 0.9662
8.3237 0.8989 -1.9676 0.9662
7.7970 3.0731 -1.9697 0.9661
6.7206 5.0383 -1.9741 0.9661
5.2952 5.6963 -1.8278 0.9685
4.2096 6.5624 -1.8324 0.9685
2.9853 7.2260 -1.8375 0.9684
2.3326 7.4745 -1.8402 0.9683
0.2724 7.8623 -1.8489 0.9682
-0.4304 7.8679 -1.8519 0.9681
-1.1321 7.8107 -1.8549 0.9681
-2.5094 7.5091 -1.8607 0.9680
-4.4267 6.6061 -1.8689 0.9679
-7.7985 3.7163 -2.0303 0.9651
-8.3670 2.2808 -2.0382 0.9650
-8.5404 1.5263 -2.0390 0.9650
-8.6447 0.7588 -2.0395 0.9650
-8.6425 -0.7888 -2.0396 0.9650
-8.1175 -3.0450 -2.0376 0.9650
-7.8088 -3.7544 -2.0364 0.9650
-5.3960 -6.7249 -2.0264 0.9652
-4.7687 -7.1699 -2.0238 0.9652
-3.4097 -7.8807 -2.0181 0.9653
-1.9497 -8.3356 -2.0119 0.9654
-1.1968 -8.4629 -2.0088 0.9655
0.3245 -8.5135 -2.0023 0.9656
1.0806 -8.4371 -1.9991 0.9657
1.8257 -8.2940 -1.9959 0.9657
3.9379 -7.4811 -1.9869 0.9659
5.1900 -6.6446 -1.9816 0.9659
5.7547 -6.1478 -1.9791 0.9660
6.2729 -5.6038 -1.9769 0.9660
6.7406 -5.0170 -1.9748 0.9661
7.1546 -4.3920 -1.9730 0.9661
7.5117 -3.7335 -1.9715 0.9661
7.8095 -3.0468 -1.9702 0.9661
8.0457 -2.3371 -1.9691 0.9662
8.2188 -1.6097 -1.9683 0.9662
8.2610 1.3649 -1.9679 0.9662
8.1088 2.0967 -1.9684 0.9662
6.8815 4.8114 -1.9734 0.9661
4.4224 6.4163 -1.8315 0.9685
3.2212 7.1193 -1.8365 0.9684
1.9112 7.6010 -1.8420 0.9683
0.5323 7.8443 -1.8478 0.9682
-0.8723 7.8393 -1.8538 0.9681
-1.5704 7.7426 -1.8567 0.9681
-2.2581 7.5837 -1.8597 0.9680
-4.7946 6.3526 -1.8705 0.9678
-5.8611 5.4132 -1.8751 0.9677
-6.3273 4.8742 -1.8771 0.9677
-7.4766 3.8718 -1.9788 0.9660
-8.0198 3.2829 -2.0366 0.9650
-8.6141 1.0446 -2.0394 0.9650
-6.7065 -5.4555 -2.0318 0.9651
-5.6183 -6.5455 -2.0273 0.9652
-4.3550 -7.4200 -2.0220 0.9653
-2.2259 -8.2712 -2.0131 0.9654
-1.4772 -8.4236 -2.0099 0.9655
-0.7191 -8.5081 -2.0067 0.9655
0.0424 -8.5246 -2.0035 0.9656
2.2861 -8.1704 -1.9940 0.9657
3.0010 -7.9219 -1.9909 0.9658
3.6899 -7.6114 -1.9880 0.9658
4.9695 -6.8161 -1.9825 0.9659
6.0863 -5.8109 -1.9777 0.9660
7.0075 -4.6280 -1.9737 0.9661
7.3861 -3.9814 -1.9720 0.9661
7.7061 -3.3045 -1.9706 0.9661
7.9654 -2.6027 -1.9695 0.9662
8.2946 -1.1456 -1.9679 0.9662
8.3623 -0.4013 -1.9676 0.9662
8.3011 1.0905 -1.9677 0.9662
8.1728 1.8268 -1.9682 0.9662
7.0348 4.5794 -1.9728 0.9661
6.0680 5.7170 -1.9594 0.9663
5.1641 5.8185 -1.8284 0.9685
4.6303 6.2634 -1.8306 0.9685
4.0587 6.6600 -1.8330 0.9685
3.4534 7.0050 -1.8355 0.9684
0.7913 7.8177 -1.8467 0.9682
0.0601 5.1835 -1.2183 0.9789
-0.6119 7.8592 -1.8527 0.9681
-2.6828 7.4522 -1.8615 0.9680
-3.3417 7.1942 -1.8643 0.9679
-4.5794 6.5047 -1.8696 0.9678
-5.1479 6.0784 -1.8720 0.9678
-5.6762 5.6019 -1.8743 0.9678
-6.1600 5.0791 -1.8764 0.9677
-6.5950 4.5142 -1.8783 0.9677
-6.9839 3.9152 -1.8817 0.9676
-8.1946 2.8286 -2.0374 0.9650
-8.4183 2.0877 -2.0384 0.9650
-8.6217 -0.9877 -2.0396 0.9650
-8.4974 -1.7521 -2.0391 0.9650
-8.3042 -2.5019 -2.0383 0.9650
-7.3317 -4.6017 -2.0344 0.9651
-6.8860 -5.2324 -2.0326 0.9651
-5.2379 -6.8452 -2.0257 0.9652
-1.7564 -8.3749 -2.0111 0.9654
0.5203 -8.5002 -2.0015 0.9656
2.0155 -8.2464 -1.9951 0.9657
2.7385 -8.0214 -1.9921 0.9658
4.7434 -6.9804 -1.9835 0.9659
5.3400 -6.5211 -1.9809 0.9660
5.8931 -6.0118 -1.9785 0.9660
6.3986 -5.4563 -1.9763 0.9660
6.8527 -4.8592 -1.9744 0.9661
7.2523 -4.2250 -1.9726 0.9661
7.8764 -2.8656 -1.9699 0.9661
8.2530 -1.4198 -1.9681 0.9662
8.3448 -0.6781 -1.9677 0.9662
8.3713 0.0687 -1.9675 0.9662
8.2279 1.5550 -1.9680 0.9662
8.0592 2.2832 -1.9686 0.9662
7.8271 2.9941 -1.9696 0.9662
6.7703 4.9698 -1.9739 0.9661
6.2963 5.5502 -1.9726 0.9661
4.8330 6.1038 -1.8298 0.9685
4.2749 6.5187 -1.8321 0.9685
3.6816 6.8832 -1.8346 0.9684
1.7362 7.6461 -1.8428 0.9683
1.0492 7.7826 -1.8456 0.9682
-3.0999 7.2968 -1.8633 0.9679
-3.7437 7.0017 -1.8660 0.9679
-5.4852 5.7843 -1.8735 0.9678
-6.4396 4.7284 -1.8776 0.9677
-6.8419 4.1392 -1.8794 0.9677
-7.7551 3.7920 -2.0289 0.9652
-8.3432 2.3649 -2.0381 0.9650
-8.6364 0.8459 -2.0395 0.9650
-8.6785 0.0725 -2.0397 0.9650
-8.3838 -2.2259 -2.0387 0.9650
-8.1482 -2.9632 -2.0377 0.9650
-7.8469 -3.6758 -2.0365 0.9650
-6.5773 -5.6071 -2.0313 0.9651
-5.4643 -6.6710 -2.0267 0.9652
-4.1813 -7.5156 -2.0213 0.9653
-2.7717 -8.1150 -2.0154 0.9654
-2.0340 -8.3170 -2.0123 0.9654
-1.2822 -8.4519 -2.0091 0.9655
-0.5226 -8.5189 -2.0059 0.9655
1.7423 -8.3134 -1.9963 0.9657
3.8629 -7.5216 -1.9872 0.9659
4.5119 -7.1372 -1.9845 0.9659
5.1235 -6.6976 -1.9818 0.9659
6.2168 -5.6675 -1.9771 0.9660
6.6905 -5.0852 -1.9751 0.9661
7.1107 -4.4643 -1.9732 0.9661
7.7789 -3.1256 -1.9703 0.9661
8.0222 -2.4182 -1.9692 0.9662
8.3183 -0.9541 -1.9678 0.9662
8.3543 0.5385 -1.9675 0.9662
8.2742 1.2815 -1.9678 0.9662
8.1292 2.0148 -1.9684 0.9662
6.4846 5.3452 -1.9750 0.9661
4.4863 6.3705 -1.8312 0.9685
3.2923 7.0853 -1.8362 0.9684
1.9873 7.5800 -1.8417 0.9683
1.3056 7.7391 -1.8446 0.9683
0.6112 7.8371 -1.8475 0.9682
-0.7931 7.8463 -1.8534 0.9681
-4.7297 6.3996 -1.8702 0.9678
-5.2882 5.9601 -1.8726 0.9678
-6.2771 4.9372 -1.8769 0.9677
-7.9857 3.3633 -2.0365 0.9650
-8.2587 2.6395 -2.0377 0.9650
-8.4651 1.8934 -2.0386 0.9650
-8.6688 -0.4148 -2.0397 0.9650
-8.4541 -1.9473 -2.0389 0.9650
-7.9662 -3.4147 -2.0370 0.9650
-6.2480 -5.9635 -2.0299 0.9651
-5.6848 -6.4894 -2.0276 0.9652
-4.4302 -7.3768 -2.0224 0.9653
-3.0407 -8.0233 -2.0165 0.9654
-2.3096 -8.2498 -2.0135 0.9654
-1.5624 -8.4097 -2.0103 0.9655
0.7157 -8.4825 -2.0007 0.9656
1.4669 -8.3715 -1.9975 0.9657
2.2040 -8.1944 -1.9943 0.9657
2.9215 -7.9531 -1.9913 0.9658
3.6136 -7.6495 -1.9883 0.9658
6.5208 -5.3060 -1.9758 0.9660
6.9612 -4.6989 -1.9739 0.9661
7.3462 -4.0560 -1.9722 0.9661
7.9392 -2.6830 -1.9696 0.9662
8.1430 -1.9635 -1.9686 0.9662
8.2829 -1.2292 -1.9680 0.9662
8.3579 -0.4856 -1.9676 0.9662
8.3674 0.2616 -1.9675 0.9662
8.3115 1.0067 -1.9677 0.9662
7.7572 3.1741 -1.9698 0.9661
7.0799 4.5078 -1.9726 0.9661
5.2218 5.7654 -1.8282 0.9685
4.1250 6.6177 -1.8327 0.9685
2.2360 7.5058 -1.8406 0.9683
1.5602 7.6871 -1.8435 0.9683
-0.5325 7.8635 -1.8523 0.9681
-1.2335 7.7972 -1.8553 0.9681
-2.6071 7.4776 -1.8612 0.9680
-3.2684 7.2263 -1.8640 0.9679
-5.0856 6.1290 -1.8718 0.9678
-5.6188 5.6581 -1.8741 0.9678
-6.5485 4.5799 -1.8781 0.9677
-6.9370 3.9814 -1.8798 0.9677
-8.1651 2.9109 -2.0373 0.9650
-8.6540 0.6467 -2.0396 0.9650
-8.6314 -0.9007 -2.0396 0.9650
-8.3295 -2.4182 -2.0384 0.9650
-8.0767 -3.1497 -2.0374 0.9650
-7.7587 -3.8549 -2.0362 0.9650
-7.3785 -4.5279 -2.0346 0.9651
-6.9392 -5.1632 -2.0328 0.9651
-6.4446 -5.7556 -2.0307 0.9651
-2.5830 -8.1735 -2.0146 0.9654
4.6735 -7.0289 -1.9838 0.9659
5.8329 -6.0717 -1.9788 0.9660
6.8041 -4.9285 -1.9746 0.9661
7.2100 -4.2983 -1.9728 0.9661
7.8477 -2.9451 -1.9700 0.9661
8.0748 -2.2324 -1.9690 0.9662
8.2385 -1.5029 -1.9682 0.9662
8.3377 -0.7622 -1.9677 0.9662
8.3399 0.7309 -1.9676 0.9662
7.8565 2.9149 -1.9694 0.9662
6.8194 4.9008 -1.9737 0.9661
6.3557 5.4897 -1.9738 0.9661
5.4076 5.5869 -1.8274 0.9686
3.7502 6.8447 -1.8343 0.9684
3.1294 7.1620 -1.8369 0.9684
2.4819 7.4235 -1.8396 0.9683
0.4307 7.8524 -1.8483 0.9682
-3.6723 7.0379 -1.8657 0.9679
3.6267 6.0884 -1.8349 0.9711
2.4940 6.6530 -1.8396 0.9711
-0.6273 7.1284 -1.8528 0.9709
-1.8890 6.9236 -1.8582 0.9708
-2.5023 6.7370 -1.8608 0.9707
-3.6690 6.2020 -1.8658 0.9707
-4.7238 5.4649 -1.8703 0.9706
-5.6311 4.5485 -1.8742 0.9705
-6.0197 4.0319 -1.8759 0.9705
-6.8648 3.7580 -2.0263 0.9682
-7.1968 3.1415 -2.0332 0.9681
-7.4524 2.4886 -2.0343 0.9681
-7.7817 1.1262 -2.0358 0.9680
-7.5020 -2.3430 -2.0349 0.9680
-6.9591 -3.6343 -2.0327 0.9681
-6.1933 -4.8052 -2.0296 0.9681
-5.7348 -5.3333 -2.0277 0.9682
-4.6861 -6.2537 -2.0233 0.9682
-4.1049 -6.6386 -2.0209 0.9683
-2.8530 -7.2433 -2.0157 0.9683
-0.1399 -7.7395 -2.0042 0.9685
0.5500 -7.7099 -2.0013 0.9686
1.2335 -7.6190 -1.9984 0.9686
1.9052 -7.4680 -1.9955 0.9687
2.5599 -7.2582 -1.9927 0.9687
3.1926 -6.9916 -1.9900 0.9687
4.3726 -6.2972 -1.9850 0.9688
4.9109 -5.8754 -1.9827 0.9689
6.2721 -4.3531 -1.9768 0.9689
6.6301 -3.7735 -1.9752 0.9690
7.5158 -1.2151 -1.9712 0.9690
7.5927 -0.5400 -1.9709 0.9690
7.6101 0.1392 -1.9707 0.9690
7.4662 1.4891 -1.9712 0.9690
7.0883 2.7937 -1.9727 0.9690
5.6756 5.1056 -1.9766 0.9689
4.8120 5.1765 -1.8299 0.9712
3.8246 5.9623 -1.8341 0.9712
1.5068 6.9599 -1.8438 0.9710
-0.3907 7.1414 -1.8518 0.9709
-2.8791 6.5916 -1.8624 0.9707
-3.4600 6.3171 -1.8649 0.9707
-4.0146 5.9910 -1.8672 0.9706
-4.5382 5.6159 -1.8695 0.9706
-5.0266 5.1948 -1.8716 0.9706
-5.8810 4.2276 -1.8753 0.9705
-6.6069 3.9066 -1.9873 0.9688
-7.3645 2.7335 -2.0339 0.9681
-7.5826 2.0670 -2.0349 0.9680
-7.7394 1.3831 -2.0356 0.9680
-7.8645 -0.0136 -2.0363 0.9680
-7.8317 -0.7148 -2.0362 0.9680
-7.0773 -3.4027 -2.0332 0.9681
-6.7411 -4.0175 -2.0319 0.9681
-6.3510 -4.5990 -2.0303 0.9681
-5.9104 -5.1423 -2.0284 0.9681
-5.4229 -5.6432 -2.0264 0.9682
-4.8927 -6.0977 -2.0242 0.9682
-1.7690 -7.5632 -2.0111 0.9684
-1.0860 -7.6798 -2.0082 0.9685
-0.3963 -7.7348 -2.0053 0.9685
0.2945 -7.7280 -2.0024 0.9686
0.9810 -7.6598 -1.9995 0.9686
3.5771 -6.7957 -1.9884 0.9688
4.7157 -6.0374 -1.9835 0.9688
5.2294 -5.5866 -1.9813 0.9689
5.7008 -5.0928 -1.9793 0.9689
6.1265 -4.5599 -1.9774 0.9689
6.5033 -3.9921 -1.9758 0.9690
7.3146 -2.1247 -1.9722 0.9690
7.5711 -0.7912 -1.9710 0.9690
7.6106 -0.1129 -1.9707 0.9690
7.5905 0.5662 -1.9708 0.9690
7.1757 2.5570 -1.9724 0.9690
6.9227 3.1883 -1.9734 0.9690
6.6150 3.7953 -1.9746 0.9690
6.2549 4.3733 -1.9761 0.9690
5.8450 4.9178 -1.9778 0.9689
5.2356 5.2708 -1.9235 0.9698
4.5169 5.4421 -1.8312 0.9712
4.0182 5.8298 -1.8332 0.9712
3.4866 6.1723 -1.8355 0.9711
2.3409 6.7110 -1.8403 0.9711
1.7355 6.9025 -1.8428 0.9710
-0.7917 7.1147 -1.8535 0.9709
-2.6578 6.6800 -1.8614 0.9707
-3.8122 6.1178 -1.8664 0.9707
-4.3479 5.7606 -1.8687 0.9706
-5.7358 4.4186 -1.8747 0.9705
-6.1870 3.9405 -1.8992 0.9701
-7.2684 2.9753 -2.0335 0.9681
-7.5087 2.3166 -2.0346 0.9681
-7.6885 1.6385 -2.0354 0.9680
-7.8061 0.9466 -2.0359 0.9680
-7.4452 -2.5149 -2.0347 0.9681
-7.1877 -3.1672 -2.0337 0.9681
-6.8723 -3.7930 -2.0324 0.9681
-5.6089 -5.4626 -2.0272 0.9682
-5.0941 -5.9347 -2.0250 0.9682
-4.5394 -6.3581 -2.0227 0.9682
-3.3295 -7.0456 -2.0177 0.9683
-2.6844 -7.3046 -2.0150 0.9684
-1.3405 -7.6437 -2.0093 0.9684
0.0385 -7.7377 -2.0035 0.9685
2.0760 -7.4194 -1.9948 0.9687
2.7255 -7.1948 -1.9920 0.9687
3.3517 -6.9138 -1.9894 0.9688
3.9498 -6.5789 -1.9868 0.9688
4.5151 -6.1929 -1.9844 0.9688
5.0435 -5.7590 -1.9821 0.9689
5.9741 -4.7619 -1.9781 0.9689
7.0054 -3.0040 -1.9736 0.9690
7.2415 -2.3661 -1.9725 0.9690
7.4205 -1.7103 -1.9717 0.9690
7.6029 -0.3649 -1.9708 0.9690
7.2553 2.3176 -1.9720 0.9690
7.0230 2.9567 -1.9730 0.9690
6.0027 4.7200 -1.9771 0.9689
4.6927 5.2874 -1.8304 0.9712
1.9622 6.8377 -1.8419 0.9710
1.3465 6.9953 -1.8445 0.9710
-0.5553 7.1332 -1.8525 0.9709
-3.0312 6.5258 -1.8630 0.9707
-3.6058 6.2378 -1.8655 0.9707
-4.6678 5.5115 -1.8701 0.9706
-5.1464 5.0790 -1.8721 0.9706
-5.5844 4.6045 -1.8740 0.9705
-5.9782 4.0919 -1.8757 0.9705
-6.8222 3.8246 -2.0250 0.9682
-7.1643 3.2137 -2.0330 0.9681
-7.4265 2.5635 -2.0342 0.9681
-7.7698 1.2045 -2.0358 0.9680
-7.8477 0.5070 -2.0362 0.9680
-7.8129 -0.8950 -2.0361 0.9680
-7.7004 -1.5878 -2.0357 0.9680
-7.2901 -2.9280 -2.0341 0.9681
-6.6455 -4.1709 -2.0315 0.9681
-5.2900 -5.7651 -2.0259 0.9682
-4.1722 -6.5978 -2.0212 0.9683
-2.2682 -7.4373 -2.0132 0.9684
-1.5937 -7.5992 -2.0104 0.9684
0.4723 -7.7163 -2.0016 0.9686
1.1568 -7.6323 -1.9987 0.9686
1.8301 -7.4880 -1.9959 0.9687
3.7315 -6.7092 -1.9877 0.9688
4.3095 -6.3419 -1.9853 0.9688
4.8521 -5.9253 -1.9829 0.9689
5.8152 -4.9588 -1.9788 0.9689
6.2285 -4.4165 -1.9770 0.9689
6.9036 -3.2351 -1.9740 0.9690
7.3608 -1.9554 -1.9720 0.9690
7.5034 -1.2908 -1.9713 0.9690
7.5756 0.7409 -1.9708 0.9690
7.4807 1.4137 -1.9712 0.9690
7.3270 2.0758 -1.9718 0.9690
7.1158 2.7220 -1.9726 0.9690
6.5270 3.9474 -1.9750 0.9690
4.8634 5.1271 -1.8297 0.9712
4.3915 5.5463 -1.8317 0.9712
3.3445 6.2530 -1.8361 0.9711
2.7772 6.5348 -1.8384 0.9711
1.5766 6.9432 -1.8435 0.9710
0.9526 7.0662 -1.8461 0.9710
0.3192 7.1333 -1.8488 0.9709
-2.8120 6.6193 -1.8621 0.9707
-4.4808 5.6607 -1.8693 0.9706
-4.9734 5.2445 -1.8714 0.9706
-5.4269 4.7852 -1.8733 0.9705
-5.8375 4.2863 -1.8751 0.9705
-6.4751 3.9173 -1.9594 0.9692
-7.5610 2.1432 -2.0348 0.9680
-7.7248 1.4610 -2.0356 0.9680
-7.8262 0.7666 -2.0360 0.9680
-7.8386 -0.6358 -2.0362 0.9680
-7.7494 -1.3320 -2.0359 0.9680
-7.1117 -3.3314 -2.0334 0.9681
-4.9546 -6.0488 -2.0245 0.9682
-3.7923 -6.8163 -2.0196 0.9683
-3.1652 -7.1180 -2.0170 0.9683
-1.1636 -7.6697 -2.0085 0.9685
-0.4743 -7.7317 -2.0056 0.9685
0.2166 -7.7319 -2.0027 0.9685
0.9039 -7.6706 -1.9998 0.9686
2.2456 -7.3670 -1.9941 0.9687
4.0990 -6.4840 -1.9862 0.9688
5.1734 -5.6397 -1.9815 0.9689
5.6498 -5.1506 -1.9795 0.9689
6.0808 -4.6219 -1.9776 0.9689
7.0717 -2.8414 -1.9733 0.9690
7.4573 -1.5388 -1.9715 0.9690
7.5629 -0.8674 -1.9710 0.9690
7.6092 -0.1896 -1.9708 0.9690
7.5957 0.4896 -1.9708 0.9690
7.5228 1.1651 -1.9710 0.9690
7.3908 1.8318 -1.9715 0.9690
6.9540 3.1182 -1.9732 0.9690
6.2981 4.3096 -1.9759 0.9690
5.8937 4.8582 -1.9776 0.9689
5.4215 5.3490 -1.9719 0.9690
2.4080 6.6860 -1.8400 0.9711
1.8047 6.8836 -1.8425 0.9710
0.5549 7.1150 -1.8478 0.9709
-0.0590 5.1504 -1.3336 0.9789
-0.7198 7.1212 -1.8532 0.9709
-1.3539 7.0388 -1.8559 0.9708
-1.9790 6.9000 -1.8585 0.9708
-2.5899 6.7054 -1.8612 0.9707
-3.1818 6.4565 -1.8637 0.9707
-3.7498 6.1551 -1.8661 0.9707
-4.2890 5.8034 -1.8684 0.9706
-5.2634 4.9604 -1.8726 0.9706
-6.9185 3.6717 -2.0280 0.9682
-7.2375 3.0482 -2.0334 0.9681
-7.4846 2.3920 -2.0345 0.9681
-7.6713 1.7158 -2.0353 0.9680
-7.8575 0.3260 -2.0362 0.9680
-7.8555 -0.3759 -2.0363 0.9680
-7.7899 -1.0747 -2.0360 0.9680
-7.4706 -2.4398 -2.0348 0.9680
-6.9107 -3.7238 -2.0325 0.9681
-6.5463 -4.3221 -2.0311 0.9681
-4.0178 -6.6901 -2.0206 0.9683
-3.4009 -7.0127 -2.0180 0.9683
-2.0955 -7.4849 -2.0125 0.9684
-1.4177 -7.6310 -2.0096 0.9684
-0.0396 -7.7390 -2.0038 0.9685
2.0014 -7.4412 -1.9951 0.9687
3.2823 -6.9482 -1.9897 0.9687
4.4530 -6.2390 -1.9846 0.9688
5.9265 -4.8224 -1.9783 0.9689
6.6777 -3.6869 -1.9750 0.9690
6.9752 -3.0747 -1.9737 0.9690
7.2176 -2.4392 -1.9726 0.9690
7.4032 -1.7851 -1.9718 0.9690
7.5989 -0.4415 -1.9708 0.9690
7.6077 0.2378 -1.9707 0.9690
7.5568 0.9153 -1.9709 0.9690
7.4466 1.5858 -1.9713 0.9690
7.2779 2.2443 -1.9719 0.9690
7.0521 2.8856 -1.9728 0.9690
6.7706 3.5049 -1.9740 0.9690
6.4355 4.0975 -1.9754 0.9690
3.7477 6.0124 -1.8344 0.9712
3.2006 6.3305 -1.8367 0.9711
2.0307 6.8166 -1.8416 0.9710
0.7898 7.0889 -1.8468 0.9710
0.1119 5.1605 -1.3365 0.9789
-0.4833 7.1373 -1.8522 0.9709
-1.7485 6.9580 -1.8576 0.9708
-2.9648 6.5551 -1.8628 0.9707
-4.0926 5.9396 -1.8676 0.9706
-5.5371 4.6601 -1.8738 0.9705
-7.1310 3.2855 -2.0329 0.9681
-7.3999 2.6381 -2.0341 0.9681
-7.6092 1.9687 -2.0350 0.9680
-7.7570 1.2827 -2.0357 0.9680
-7.7162 -1.5101 -2.0358 0.9680
-7.0319 -3.4938 -2.0330 0.9681
-6.6878 -4.1041 -2.0316 0.9681
-6.2901 -4.6803 -2.0300 0.9681
-5.8424 -5.2178 -2.0282 0.9682
-4.8125 -6.1595 -2.0239 0.9682
-3.6330 -6.8996 -2.0189 0.9683
-1.6705 -7.5839 -2.0107 0.9684
-0.9862 -7.6916 -2.0078 0.9685
1.7548 -7.5073 -1.9962 0.9686
3.0519 -7.0566 -1.9906 0.9687
4.2459 -6.3858 -1.9855 0.9688
5.3005 -5.5175 -1.9810 0.9689
6.5537 -3.9071 -1.9755 0.9690
7.4943 1.3382 -1.9711 0.9690
7.1425 2.6500 -1.9725 0.9690
6.8814 3.2781 -1.9735 0.9690
5.7816 4.9938 -1.9780 0.9689
2.2542 6.7421 -1.8406 0.9711
1.0236 7.0551 -1.8458 0.9710
0.3910 7.1286 -1.8485 0.9709
-0.2466 7.1455 -1.8512 0.9709
-0.8840 7.1054 -1.8539 0.9708
-2.1382 6.8550 -1.8592 0.9708
-3.3309 6.3837 -1.8643 0.9707
3.3194 5.5726 -1.8362 0.9734
1.7324 6.2751 -1.8429 0.9733
1.1675 6.4128 -1.8453 0.9733
0.5918 6.4999 -1.8477 0.9732
-0.5737 6.5190 -1.8526 0.9732
-2.2876 6.1589 -1.8599 0.9731
-3.3534 5.6685 -1.8645 0.9730
-3.8499 5.3530 -1.8666 0.9730
-4.3165 4.9937 -1.8686 0.9729
-4.7493 4.5935 -1.8705 0.9729
-5.1447 4.1556 -1.8722 0.9729
-5.8745 3.9346 -2.0016 0.9710
-6.5738 2.8695 -2.0306 0.9706
-6.9853 1.6577 -2.0324 0.9706
-7.1072 1.0286 -2.0330 0.9706
-7.1718 0.3908 -2.0333 0.9706
-7.1269 -0.8893 -2.0332 0.9706
-6.8520 -2.1400 -2.0322 0.9706
-6.6310 -2.7412 -2.0313 0.9706
-5.2395 -4.8727 -2.0256 0.9707
-4.7796 -5.3155 -2.0237 0.9707
-4.2822 -5.7147 -2.0216 0.9707
-3.1918 -6.3700 -2.0170 0.9708
-2.6079 -6.6212 -2.0146 0.9708
-0.7596 -7.0480 -2.0068 0.9710
0.5031 -7.0520 -2.0014 0.9710
2.9216 -6.3980 -1.9911 0.9712
3.4763 -6.1047 -1.9888 0.9712
4.0023 -5.7639 -1.9865 0.9712
4.4954 -5.3783 -1.9844 0.9713
5.3691 -4.4857 -1.9806 0.9713
5.7429 -3.9858 -1.9790 0.9714
6.3510 -2.8984 -1.9763 0.9714
6.5808 -2.3194 -1.9753 0.9714
6.9698 0.1275 -1.9734 0.9714
6.9311 0.7485 -1.9735 0.9714
6.8379 1.3638 -1.9739 0.9714
6.6910 1.9687 -1.9745 0.9714
6.2406 3.1287 -1.9763 0.9714
5.9404 3.6750 -1.9775 0.9714
4.6499 5.0021 -1.9334 0.9720
3.5007 5.4573 -1.8355 0.9734
3.0035 5.7543 -1.8375 0.9734
2.4814 6.0063 -1.8397 0.9733
1.9384 6.2113 -1.8420 0.9733
0.8063 6.4736 -1.8468 0.9732
0.1788 5.1619 -1.4622 0.9788
-5.0026 4.3222 -1.8716 0.9729
-5.5148 3.9644 -1.9227 0.9722
-6.1597 3.6422 -2.0258 0.9707
-6.9256 1.8879 -2.0321 0.9706
-7.0687 1.2632 -2.0328 0.9706
-7.1546 0.6280 -2.0332 0.9706
-7.1527 -0.6528 -2.0333 0.9706
-7.0649 -1.2878 -2.0330 0.9706
-6.7194 -2.5206 -2.0316 0.9706
-6.1579 -3.6699 -2.0294 0.9706
-4.4709 -5.5719 -2.0224 0.9707
-2.8271 -6.5342 -2.0155 0.9708
-1.6174 -6.9149 -2.0104 0.9709
-0.9931 -7.0224 -2.0078 0.9709
-0.3624 -7.0736 -2.0051 0.9710
0.2694 -7.0683 -2.0024 0.9710
0.8974 -7.0067 -1.9998 0.9711
1.5166 -6.8897 -1.9971 0.9711
2.7093 -6.4943 -1.9920 0.9712
3.2737 -6.2192 -1.9896 0.9712
3.8108 -5.8957 -1.9873 0.9712
4.3166 -5.5264 -1.9852 0.9713
4.7872 -5.1142 -1.9831 0.9713
5.6094 -4.1750 -1.9796 0.9713
6.2529 -3.1079 -1.9767 0.9714
6.5015 -2.5365 -1.9756 0.9714
6.9340 -0.7246 -1.9737 0.9714
6.9703 -0.1034 -1.9735 0.9714
6.8788 1.1365 -1.9737 0.9714
6.7517 1.7458 -1.9742 0.9714
6.5715 2.3417 -1.9749 0.9714
6.0574 3.4754 -1.9770 0.9714
5.7273 4.0044 -1.9784 0.9714
4.9206 4.9537 -1.9766 0.9714
4.1349 4.9819 -1.8328 0.9734
2.1420 6.1409 -1.8412 0.9733
1.0198 6.4402 -1.8459 0.9733
0.4420 6.5141 -1.8483 0.9732
-1.3030 6.4244 -1.8557 0.9731
-1.8731 6.2908 -1.8582 0.9731
-2.9682 5.8728 -1.8628 0.9730
-4.4315 4.8943 -1.8691 0.9729
-5.2402 4.0368 -1.8726 0.9729
-6.0245 3.8370 -2.0220 0.9707
-6.3665 3.2969 -2.0296 0.9706
-7.0222 1.4965 -2.0326 0.9706
-7.1294 0.8646 -2.0331 0.9706
-7.1791 0.2254 -2.0333 0.9706
-7.1042 -1.0532 -2.0331 0.9706
-6.2775 -3.4648 -2.0298 0.9706
-5.9395 -4.0080 -2.0285 0.9707
-4.6547 -5.4228 -2.0231 0.9707
-4.1483 -5.8102 -2.0210 0.9708
-3.6097 -6.1501 -2.0188 0.9708
-3.0433 -6.4399 -2.0164 0.9708
-1.8464 -6.8609 -2.0114 0.9709
-1.2257 -6.9891 -2.0088 0.9709
-0.5968 -7.0612 -2.0061 0.9710
0.6652 -7.0361 -2.0007 0.9710
1.8994 -6.7882 -1.9955 0.9711
3.0673 -6.3270 -1.9905 0.9712
4.6170 -5.2719 -1.9839 0.9713
5.0637 -4.8345 -1.9819 0.9713
5.4698 -4.3599 -1.9802 0.9713
5.8321 -3.8517 -1.9786 0.9714
6.4152 -2.7509 -1.9760 0.9714
6.6317 -2.1669 -1.9751 0.9714
6.7959 -1.5664 -1.9743 0.9714
6.9122 0.9080 -1.9736 0.9714
6.8051 1.5211 -1.9740 0.9714
6.6445 2.1225 -1.9746 0.9714
6.1678 3.2721 -1.9766 0.9714
5.8552 3.8115 -1.9778 0.9714
5.4961 4.3217 -1.9793 0.9714
5.0895 4.7951 -1.9795 0.9713
3.8512 5.2095 -1.8340 0.9734
3.3750 5.5381 -1.8360 0.9734
2.8710 5.8237 -1.8381 0.9734
2.3431 6.0638 -1.8403 0.9733
1.7953 6.2564 -1.8426 0.9733
0.6572 6.4927 -1.8474 0.9732
-0.5079 6.5235 -1.8524 0.9732
-1.0890 6.4608 -1.8548 0.9731
-2.7708 5.9652 -1.8620 0.9730
-3.7952 5.3908 -1.8664 0.9730
-4.2654 5.0364 -1.8684 0.9729
-4.7022 4.6407 -1.8703 0.9729
-5.1020 4.2068 -1.8720 0.9729
-6.2502 3.5039 -2.0285 0.9707
-6.9679 1.7280 -2.0323 0.9706
-7.0963 1.1001 -2.0329 0.9706
-7.1674 0.4630 -2.0333 0.9706
-7.1806 -0.1779 -2.0334 0.9706
-7.1356 -0.8174 -2.0333 0.9706
-6.8735 -2.0709 -2.0322 0.9706
-6.6587 -2.6744 -2.0314 0.9706
-6.0706 -3.8101 -2.0290 0.9706
-4.8335 -5.2676 -2.0239 0.9707
-4.3401 -5.6719 -2.0218 0.9707
-3.8129 -6.0297 -2.0196 0.9708
-3.2563 -6.3384 -2.0173 0.9708
-2.6749 -6.5955 -2.0149 0.9708
-0.8307 -7.0410 -2.0071 0.9710
-0.1993 -7.0776 -2.0044 0.9710
0.4320 -7.0577 -2.0017 0.9710
3.4150 -6.1403 -1.9890 0.9712
4.4415 -5.4240 -1.9846 0.9713
5.3241 -4.5401 -1.9808 0.9713
6.3219 -2.9625 -1.9764 0.9714
6.8719 -1.1822 -1.9740 0.9714
6.9708 0.0572 -1.9734 0.9714
6.9382 0.6786 -1.9735 0.9714
6.8511 1.2948 -1.9738 0.9714
6.7102 1.9010 -1.9744 0.9714
6.2714 3.0654 -1.9761 0.9714
5.9767 3.6146 -1.9773 0.9714
4.8003 5.0606 -1.9746 0.9714
4.0201 5.0771 -1.8333 0.9734
3.5551 5.4211 -1.8352 0.9734
3.0610 5.7229 -1.8373 0.9734
2.5415 5.9802 -1.8395 0.9733
2.0006 6.1906 -1.8418 0.9733
0.2919 6.5248 -1.8490 0.9732
-0.2914 6.5335 -1.8514 0.9732
-1.4512 6.3948 -1.8564 0.9731
-3.1036 5.8047 -1.8634 0.9730
-4.0947 5.1729 -1.8677 0.9729
-4.5443 4.7921 -1.8696 0.9729
-4.9583 4.3720 -1.8714 0.9729
-5.4108 3.9730 -1.9003 0.9725
-6.4418 3.1499 -2.0300 0.9706
-7.0553 1.3344 -2.0327 0.9706
-7.0777 -1.2166 -2.0330 0.9706
-6.9392 -1.8423 -2.0325 0.9706
-5.4474 -4.6439 -2.0264 0.9707
-4.5273 -5.5272 -2.0226 0.9707
-4.0122 -5.9026 -2.0205 0.9708
-2.8932 -6.5063 -2.0158 0.9708
-1.0640 -7.0131 -2.0081 0.9709
-0.4338 -7.0706 -2.0054 0.9710
0.8268 -7.0165 -2.0001 0.9711
1.4473 -6.9057 -1.9974 0.9711
2.0546 -6.7404 -1.9948 0.9711
2.6441 -6.5221 -1.9923 0.9712
3.7516 -5.9346 -1.9876 0.9712
5.1725 -4.7154 -1.9815 0.9713
5.5676 -4.2318 -1.9797 0.9713
6.2217 -3.1710 -1.9769 0.9714
6.4760 -2.6021 -1.9758 0.9714
6.8297 -1.4092 -1.9742 0.9714
6.9689 -0.1736 -1.9735 0.9714
6.7687 1.6776 -1.9742 0.9714
6.0917 3.4139 -1.9769 0.9714
5.7669 3.9462 -1.9782 0.9714
5.3962 4.4481 -1.9797 0.9713
4.1844 4.9394 -1.8326 0.9734
3.7312 5.2983 -1.8345 0.9734
3.2475 5.6160 -1.8365 0.9734
2.7369 5.8901 -1.8387 0.9734
2.2035 6.1181 -1.8409 0.9733
1.6513 6.2982 -1.8432 0.9733
0.5076 6.5083 -1.8481 0.9732
-0.6583 6.5123 -1.8530 0.9732
-1.2380 6.4362 -1.8555 0.9731
-1.8093 6.3085 -1.8579 0.9731
-2.9084 5.9016 -1.8626 0.9730
-3.4271 5.6255 -1.8648 0.9730
-4.3815 4.9381 -1.8689 0.9729
-5.9821 3.8953 -2.0209 0.9708
-6.3325 3.3607 -2.0295 0.9706
-6.8362 2.1848 -2.0317 0.9706
-7.1202 0.9364 -2.0330 0.9706
-7.1764 0.2978 -2.0333 0.9706
-6.8233 -2.2285 -2.0320 0.9706
-6.5945 -2.8267 -2.0311 0.9706
-5.5999 -4.4623 -2.0271 0.9707
-3.1085 -6.4097 -2.0167 0.9708
-1.9157 -6.8429 -2.0117 0.9709
-0.6681 -7.0558 -2.0064 0.9710
0.5943 -7.0435 -2.0010 0.9710
1.2184 -6.9532 -1.9984 0.9711
1.8311 -6.8080 -1.9958 0.9711
2.4278 -6.6092 -1.9932 0.9712
3.0037 -6.3585 -1.9908 0.9712
3.5545 -6.0581 -1.9884 0.9712
4.5641 -5.3188 -1.9841 0.9713
5.7935 -3.9106 -1.9788 0.9714
6.6098 -2.2337 -1.9752 0.9714
6.7800 -1.6348 -1.9744 0.9714
6.8969 -1.0235 -1.9738 0.9714
6.9676 0.2178 -1.9734 0.9714
6.8199 1.4524 -1.9740 0.9714
6.6652 2.0553 -1.9746 0.9714
6.2000 3.2096 -1.9764 0.9714
5.5389 4.2657 -1.9791 0.9714
3.9031 5.1698 -1.8338 0.9734
2.9292 5.7937 -1.8379 0.9734
2.4038 6.0390 -1.8401 0.9733
1.8580 6.2371 -1.8424 0.9733
1.2962 6.3861 -1.8447 0.9733
0.1116 5.1497 -1.4582 0.9788
-0.4420 6.5273 -1.8521 0.9732
-1.5986 6.3619 -1.8570 0.9731
-2.1623 6.2020 -1.8594 0.9731
-3.2376 5.7334 -1.8640 0.9730
-3.7402 5.4281 -1.8661 0.9730
-4.2139 5.0785 -1.8682 0.9729
-4.6547 4.6873 -1.8701 0.9729
-5.6521 3.9530 -1.9526 0.9717
-6.2110 3.5647 -2.0273 0.9707
-6.9499 1.7981 -2.0322 0.9706
-7.0847 1.1716 -2.0329 0.9706
-7.1623 0.5353 -2.0332 0.9706
-7.1820 -0.1055 -2.0334 0.9706
-7.1436 -0.7455 -2.0333 0.9706
-7.0474 -1.3792 -2.0329 0.9706
-6.6857 -2.6073 -2.0315 0.9706
-6.4232 -3.1914 -2.0304 0.9706
-5.3378 -4.7671 -2.0260 0.9707
-3.8740 -5.9917 -2.0199 0.9708
-3.3205 -6.3061 -2.0176 0.9708
-2.7417 -6.5691 -2.0151 0.9708
-2.1423 -6.7789 -2.0126 0.9709
-0.9018 -7.0333 -2.0074 0.9710
-0.2707 -7.0763 -2.0047 0.9710
0.3609 -7.0628 -2.0020 0.9710
2.2086 -6.6891 -1.9942 0.9711
2.7928 -6.4574 -1.9917 0.9712
4.3871 -5.4691 -1.9849 0.9713
4.8524 -5.0510 -1.9828 0.9713
5.2786 -4.5940 -1.9810 0.9713
5.6624 -4.1015 -1.9793 0.9714
6.0011 -3.5776 -1.9779 0.9714
6.2921 -3.0263 -1.9766 0.9714
6.5334 -2.4518 -1.9755 0.9714
6.8598 -1.2514 -1.9740 0.9714
6.9446 0.6086 -1.9735 0.9714
6.8637 1.2256 -1.9738 0.9714
6.7288 1.8332 -1.9743 0.9714
6.3016 3.0019 -1.9760 0.9714
6.0124 3.5540 -1.9772 0.9714
5.2935 4.5722 -1.9802 0.9713
4.8532 5.0141 -1.9755 0.9714
4.0706 5.0358 -1.8331 0.9734
3.1181 5.6910 -1.8371 0.9734
2.6013 5.9534 -1.8392 0.9734
0.9364 6.4541 -1.8462 0.9733
0.3576 6.5205 -1.8487 0.9732
-0.2255 6.5352 -1.8512 0.9732
-1.9548 6.2672 -1.8585 0.9731
-3.0446 5.8349 -1.8632 0.9730
3.0571 5.1322 -1.8374 0.9753
2.5900 5.3900 -1.8393 0.9753
1.5951 5.7775 -1.8435 0.9752
1.0748 5.9037 -1.8457 0.9752
0.5448 5.9833 -1.8479 0.9752
0.0078 5.1441 -1.5822 0.9787
-2.6045 5.4624 -1.8613 0.9750
-3.0846 5.2141 -1.8634 0.9750
-4.3675 4.2243 -1.8689 0.9749
-4.9326 3.9843 -1.9503 0.9738
-5.4648 3.6602 -2.0231 0.9728
-6.0438 2.6382 -2.0283 0.9728
-6.2579 2.0898 -2.0293 0.9728
-6.4217 1.5240 -2.0300 0.9728
-6.5929 0.3592 -2.0309 0.9727
-6.5517 -0.8175 -2.0308 0.9727
-5.5456 -3.5590 -2.0268 0.9728
-4.8181 -4.4808 -2.0238 0.9728
-4.3955 -4.8883 -2.0220 0.9729
-3.4506 -5.5805 -2.0181 0.9729
-2.9361 -5.8596 -2.0159 0.9729
-0.6990 -6.4859 -2.0065 0.9731
1.6047 -6.2902 -1.9967 0.9732
2.1567 -6.1149 -1.9944 0.9732
3.2014 -5.6219 -1.9899 0.9733
3.6860 -5.3085 -1.9878 0.9733
4.1406 -4.9538 -1.9859 0.9733
4.9460 -4.1323 -1.9824 0.9734
5.2908 -3.6720 -1.9809 0.9734
5.5934 -3.1835 -1.9795 0.9734
5.8516 -2.6705 -1.9784 0.9734
6.2276 -1.5873 -1.9767 0.9735
6.4078 -0.4557 -1.9759 0.9735
6.3868 0.6897 -1.9759 0.9735
6.3008 1.2567 -1.9762 0.9735
5.7499 2.8827 -1.9784 0.9734
5.4731 3.3859 -1.9795 0.9734
4.3813 4.7131 -1.9793 0.9734
2.7660 5.2992 -1.8386 0.9753
2.2850 5.5308 -1.8406 0.9753
1.7847 5.7190 -1.8427 0.9752
0.7423 5.9593 -1.8471 0.9752
0.1781 5.1392 -1.5817 0.9787
-1.3947 5.8714 -1.8562 0.9751
-2.4212 5.5433 -1.8605 0.9750
-2.9091 5.3113 -1.8626 0.9750
-3.3747 5.0361 -1.8646 0.9749
-3.8142 4.7199 -1.8665 0.9749
-5.3317 3.8327 -2.0197 0.9729
-5.6719 3.3537 -2.0267 0.9728
-5.9519 2.8363 -2.0279 0.9728
-6.1843 2.2955 -2.0290 0.9728
-6.3669 1.7356 -2.0298 0.9728
-6.4948 -1.1839 -2.0306 0.9728
-6.3617 -1.7578 -2.0301 0.9728
-5.9434 -2.8575 -2.0284 0.9728
-5.6617 -3.3742 -2.0272 0.9728
-5.3348 -3.8631 -2.0259 0.9728
-3.6349 -5.4652 -2.0188 0.9729
-3.1298 -5.7615 -2.0167 0.9729
-2.0520 -6.2119 -2.0122 0.9730
-1.4882 -6.3626 -2.0098 0.9730
0.8260 -6.4498 -2.0000 0.9732
1.3962 -6.3427 -1.9976 0.9732
2.4947 -5.9798 -1.9929 0.9732
3.0146 -5.7272 -1.9907 0.9733
3.5096 -5.4297 -1.9886 0.9733
5.1677 -3.8463 -1.9814 0.9734
5.7611 -2.8634 -1.9788 0.9734
6.3058 -1.2350 -1.9764 0.9735
6.3895 -0.6677 -1.9760 0.9735
6.4059 0.4778 -1.9758 0.9735
6.3385 1.0473 -1.9760 0.9735
5.5810 3.2020 -1.9791 0.9734
3.3875 4.9148 -1.8360 0.9753
2.4659 5.4498 -1.8398 0.9753
1.9723 5.6544 -1.8419 0.9753
-0.1104 5.1257 -1.5769 0.9788
-0.6663 5.9877 -1.8531 0.9751
-1.1990 5.9117 -1.8553 0.9751
-2.2353 5.6180 -1.8597 0.9750
-2.7305 5.4025 -1.8619 0.9750
-3.6544 4.8419 -1.8658 0.9749
-5.5543 3.5375 -2.0255 0.9728
-5.8535 3.0312 -2.0275 0.9728
