ply
format ascii 1.0
element vertex 1595
property float32 x
property float32 y
property float32 z
property float32 I
end_header
-8.1385 2.3844 -1.9931 0.9658
-8.4296 0.8997 -1.9924 0.9658
-8.4751 0.1440 -1.9921 0.9658
-7.9889 -2.8291 -1.9918 0.9658
-6.9565 -4.8450 -1.9924 0.9658
-6.4977 -5.4472 -1.9927 0.9658
-5.9870 -6.0064 -1.9931 0.9658
-4.8266 -6.9784 -1.9942 0.9657
-2.8091 -8.0152 -1.9961 0.9657
-2.0837 -8.2369 -1.9968 0.9657
1.6823 -8.3461 -2.0010 0.9656
2.4213 -8.1663 -2.0018 0.9656
4.5031 -7.2428 -2.0044 0.9656
5.7232 -6.3323 -2.0060 0.9655
7.2034 -4.5956 -2.0082 0.9655
7.9101 -3.2441 -2.0093 0.9655
8.1700 -2.5261 -2.0098 0.9655
8.3645 -1.7875 -2.0102 0.9655
8.3203 2.0021 -2.0113 0.9654
7.8315 3.4487 -2.0111 0.9654
7.4712 4.1219 -2.0054 0.9655
6.1315 4.9869 -1.8575 0.9680
4.5888 6.4280 -1.8562 0.9681
3.9958 6.8098 -1.8556 0.9681
2.7202 7.4066 -1.8544 0.9681
1.3595 7.7662 -1.8530 0.9681
-0.0423 7.8777 -1.8515 0.9681
-2.1241 7.5755 -1.8491 0.9682
-1.9529 5.1461 -1.2936 0.9776
-4.0491 6.7339 -1.8467 0.9682
-4.6319 6.3432 -1.8459 0.9682
-6.1393 4.8847 -1.8439 0.9683
-6.5484 4.3161 -1.8432 0.9683
-8.0646 2.6255 -1.9933 0.9658
-8.4674 0.3960 -1.9922 0.9658
-8.0694 -2.5902 -1.9918 0.9658
-7.8065 -3.3000 -1.9919 0.9658
-7.4816 -3.9836 -1.9921 0.9658
-7.0972 -4.6358 -1.9923 0.9658
-6.6564 -5.2513 -1.9926 0.9658
-5.6195 -6.3533 -1.9935 0.9657
-5.0315 -6.8311 -1.9940 0.9657
-4.4033 -7.2548 -1.9945 0.9657
-3.7397 -7.6212 -1.9952 0.9657
-3.0459 -7.9271 -1.9959 0.9657
0.6786 -8.4820 -1.9998 0.9656
1.4332 -8.3912 -2.0007 0.9656
2.1771 -8.2335 -2.0016 0.9656
3.6088 -7.7222 -2.0033 0.9656
4.2851 -7.3725 -2.0041 0.9656
5.5317 -6.4989 -2.0058 0.9655
6.6035 -5.4164 -2.0073 0.9655
7.4659 -4.1593 -2.0086 0.9655
8.5395 -0.5268 -2.0108 0.9655
8.5534 0.2372 -2.0110 0.9655
8.3761 1.7538 -2.0113 0.9654
6.2775 4.8026 -1.8576 0.9680
5.8228 5.3425 -1.8572 0.9681
5.3218 5.8394 -1.8568 0.9681
4.7784 6.2893 -1.8564 0.9681
4.1970 6.6886 -1.8558 0.9681
3.5824 7.0342 -1.8552 0.9681
2.9396 7.3233 -1.8546 0.9681
-7.5962 -1.2372 -1.9927 0.9687
-7.4554 -1.9100 -1.9927 0.9687
-7.2554 -2.5675 -1.9927 0.9687
-6.6845 -3.8166 -1.9930 0.9687
-5.9015 -4.9452 -1.9935 0.9687
-5.4377 -5.4530 -1.9939 0.9687
-3.8024 -6.7032 -1.9954 0.9687
-2.5521 -7.2767 -1.9966 0.9686
-1.8934 -7.4779 -1.9973 0.9686
-1.2191 -7.6197 -1.9980 0.9686
0.8431 -7.6792 -2.0002 0.9686
2.1962 -7.4130 -2.0018 0.9686
4.0855 -6.5744 -2.0041 0.9685
5.1927 -5.7479 -2.0056 0.9685
5.6867 -5.2635 -2.0063 0.9685
6.8837 -3.5729 -2.0081 0.9685
7.1768 -2.9452 -2.0086 0.9685
7.5892 -1.6236 -2.0094 0.9684
7.7511 0.4442 -2.0102 0.9684
7.6810 1.1341 -2.0103 0.9684
7.3573 2.4811 -2.0103 0.9684
7.1063 3.1275 -2.0102 0.9684
6.7983 3.7487 -2.0101 0.9684
6.3002 4.2481 -1.9674 0.9691
5.1376 5.0011 -1.8564 0.9708
4.6700 5.4383 -1.8560 0.9708
3.6273 6.1786 -1.8551 0.9708
3.0607 6.4757 -1.8545 0.9708
2.4700 6.7208 -1.8539 0.9708
1.2354 7.0479 -1.8527 0.9709
-0.0368 7.1499 -1.8513 0.9709
-1.3059 7.0241 -1.8498 0.9709
-1.9266 6.8769 -1.8491 0.9709
-1.9597 5.1673 -1.4309 0.9774
-3.1157 6.4200 -1.8477 0.9709
-4.2038 5.7597 -1.8463 0.9710
-4.6992 5.3598 -1.8456 0.9710
-5.1569 4.9175 -1.8450 0.9710
-5.5733 4.4363 -1.8444 0.9710
-6.3122 4.1623 -1.9577 0.9692
-7.0822 3.0302 -1.9945 0.9687
-7.5048 1.7226 -1.9937 0.9687
-7.6892 0.3613 -1.9931 0.9687
-7.6298 -1.0108 -1.9927 0.9687
-7.0898 -2.9952 -1.9928 0.9687
-6.7949 -3.6160 -1.9929 0.9687
-2.7671 -7.1968 -1.9964 0.9686
-2.1147 -7.4174 -1.9970 0.9686
-1.4450 -7.5792 -1.9977 0.9686
-0.7633 -7.6807 -1.9985 0.9686
-0.0751 -7.7210 -1.9992 0.9686
0.6143 -7.6999 -2.0000 0.9686
1.2993 -7.6174 -2.0008 0.9686
1.9745 -7.4740 -2.0015 0.9686
3.2739 -7.0096 -2.0031 0.9685
5.0189 -5.8990 -2.0054 0.9685
5.5271 -5.4296 -2.0061 0.9685
6.7738 -3.7757 -2.0079 0.9685
7.3406 -2.5129 -2.0089 0.9684
7.5371 -1.8484 -2.0093 0.9684
7.7607 0.2135 -2.0101 0.9684
7.7112 0.9051 -2.0103 0.9684
7.1963 2.9148 -2.0103 0.9684
6.9070 3.5450 -2.0101 0.9684
5.2844 4.8464 -1.8565 0.9708
4.8300 5.2975 -1.8561 0.9708
4.3371 5.7059 -1.8557 0.9708
3.2522 6.3824 -1.8547 0.9708
2.6690 6.6451 -1.8541 0.9708
-0.4625 7.1332 -1.8508 0.9709
-1.0966 7.0607 -1.8501 0.9709
-1.7215 6.9320 -1.8493 0.9709
-4.0312 5.8829 -1.8465 0.9710
-5.0090 5.0692 -1.8452 0.9710
-6.6663 3.8468 -1.9928 0.9687
-6.9895 3.2397 -1.9947 0.9687
-7.2490 2.6026 -1.9942 0.9687
-7.5932 1.2724 -1.9934 0.9687
-7.6754 0.5898 -1.9931 0.9687
-7.3951 -2.1317 -1.9927 0.9687
-6.8992 -3.4123 -1.9929 0.9687
-6.5679 -4.0146 -1.9931 0.9687
-6.1844 -4.5852 -1.9933 0.9687
-5.2729 -5.6133 -1.9940 0.9687
-3.6010 -6.8144 -1.9956 0.9687
-1.6696 -7.5320 -1.9975 0.9686
-0.9913 -7.6536 -1.9982 0.9686
-0.3046 -7.7144 -1.9990 0.9686
1.0721 -7.6516 -2.0005 0.9686
3.0636 -7.1030 -2.0029 0.9685
3.6865 -6.8039 -2.0036 0.9685
4.2805 -6.4504 -2.0044 0.9685
5.3626 -5.5910 -2.0058 0.9685
5.8419 -5.0919 -2.0065 0.9685
6.2749 -4.5519 -2.0071 0.9685
6.6579 -3.9751 -2.0077 0.9685
7.2621 -2.7299 -2.0088 0.9685
7.4783 -2.0716 -2.0092 0.9684
7.7300 -0.7098 -2.0098 0.9684
7.7634 -0.0173 -2.0101 0.9684
7.2799 2.6996 -2.0103 0.9684
5.9294 4.2610 -1.8905 0.9703
4.5052 5.5749 -1.8559 0.9708
3.9889 5.9531 -1.8554 0.9708
3.4409 6.2835 -1.8549 0.9708
2.2680 6.7908 -1.8537 0.9709
1.6526 6.9636 -1.8531 0.9709
1.0243 7.0808 -1.8524 0.9709
-0.2502 7.1447 -1.8510 0.9709
-1.5148 6.9811 -1.8496 0.9709
-2.1307 6.8154 -1.8489 0.9709
-3.3055 6.3233 -1.8474 0.9709
-3.8550 6.0009 -1.8467 0.9710
-4.3733 5.6310 -1.8460 0.9710
-4.8566 5.2165 -1.8454 0.9710
-5.3008 4.7608 -1.8448 0.9710
-5.7026 4.2676 -1.8442 0.9710
-7.1689 2.8172 -1.9943 0.9687
-7.3900 2.1660 -1.9939 0.9687
-7.6963 0.1316 -1.9930 0.9687
-7.4552 -1.9108 -1.9927 0.9687
-7.2551 -2.5683 -1.9927 0.9687
-6.9974 -3.2055 -1.9928 0.9687
-6.6841 -3.8174 -1.9930 0.9687
-6.3177 -4.3990 -1.9932 0.9687
-5.9009 -4.9459 -1.9935 0.9687
-4.3834 -6.3360 -1.9948 0.9687
-3.1894 -7.0181 -1.9960 0.9686
-2.5513 -7.2770 -1.9966 0.9686
-1.2183 -7.6198 -1.9980 0.9686
-0.5338 -7.7010 -1.9987 0.9686
0.1554 -7.7208 -1.9995 0.9686
0.8440 -7.6791 -2.0002 0.9686
2.8507 -7.1900 -2.0026 0.9685
5.1933 -5.7473 -2.0056 0.9685
7.4129 -2.2929 -2.0090 0.9684
7.5893 -1.6227 -2.0094 0.9684
7.7511 0.4451 -2.0102 0.9684
7.6809 1.1349 -2.0103 0.9684
6.7979 3.7494 -2.0101 0.9684
6.2987 4.2482 -1.9671 0.9691
4.1645 5.8324 -1.8556 0.9708
3.6266 6.1790 -1.8551 0.9708
3.0600 6.4760 -1.8545 0.9708
2.4692 6.7210 -1.8539 0.9708
1.8591 6.9122 -1.8533 0.9709
1.2346 7.0480 -1.8526 0.9709
0.4373 5.1894 -1.3484 0.9787
-0.0376 7.1499 -1.8513 0.9709
-1.9274 6.8766 -1.8491 0.9709
-3.6753 6.1137 -1.8469 0.9710
-4.2045 5.7592 -1.8463 0.9710
-4.6998 5.3592 -1.8456 0.9710
-6.7857 3.6501 -1.9950 0.9687
-7.3229 2.3849 -1.9940 0.9687
-7.5050 1.7218 -1.9937 0.9687
-7.6274 1.0451 -1.9933 0.9687
-7.6892 0.3604 -1.9931 0.9687
-7.6900 -0.3269 -1.9929 0.9687
-6.4454 -4.2090 -1.9931 0.9687
-6.0450 -4.7679 -1.9934 0.9687
-5.1034 -5.7686 -1.9942 0.9687
-3.9990 -6.5870 -1.9952 0.9687
-2.7663 -7.1971 -1.9964 0.9686
-0.7625 -7.6807 -1.9985 0.9686
-0.0742 -7.7210 -1.9992 0.9686
0.6152 -7.6998 -2.0000 0.9686
1.9753 -7.4738 -2.0015 0.9686
2.6353 -7.2706 -2.0023 0.9686
3.2747 -7.0093 -2.0031 0.9685
3.8885 -6.6917 -2.0039 0.9685
4.4717 -6.3205 -2.0046 0.9685
5.5277 -5.4290 -2.0061 0.9685
6.7742 -3.7749 -2.0079 0.9685
7.3409 -2.5122 -2.0089 0.9684
7.7607 0.2144 -2.0101 0.9684
7.1959 2.9156 -2.0103 0.9684
6.9066 3.5457 -2.0101 0.9684
6.5430 4.1353 -2.0041 0.9685
4.8294 5.2980 -1.8561 0.9708
3.8091 6.0690 -1.8552 0.9708
2.0641 6.8547 -1.8535 0.9709
0.8125 7.1073 -1.8522 0.9709
0.1751 7.1488 -1.8515 0.9709
-0.4633 7.1332 -1.8508 0.9709
-1.7222 6.9318 -1.8493 0.9709
-1.7870 5.1688 -1.4160 0.9777
-5.0095 5.0686 -1.8452 0.9710
-5.4400 4.6000 -1.8446 0.9710
-5.9463 4.1790 -1.8818 0.9704
-6.9898 3.2390 -1.9947 0.9687
-7.2492 2.6018 -1.9942 0.9687
-7.6754 0.5890 -1.9931 0.9687
-7.6565 -0.7843 -1.9928 0.9687
-7.1753 -2.7838 -1.9927 0.9687
-5.7510 -5.1201 -1.9937 0.9687
-5.2723 -5.6139 -1.9940 0.9687
-4.7515 -6.0632 -1.9945 0.9687
-4.1927 -6.4646 -1.9950 0.9687
-3.6002 -6.8148 -1.9956 0.9687
-2.9788 -7.1109 -1.9962 0.9686
-2.3333 -7.3507 -1.9968 0.9686
0.3858 -7.7137 -1.9997 0.9686
1.0729 -7.6515 -2.0005 0.9686
3.0644 -7.1026 -2.0029 0.9685
4.2812 -6.4499 -2.0044 0.9685
5.3632 -5.5904 -2.0058 0.9685
5.8425 -5.0913 -2.0065 0.9685
6.2754 -4.5512 -2.0071 0.9685
6.6584 -3.9743 -2.0077 0.9685
6.9883 -3.3654 -2.0083 0.9685
7.4785 -2.0708 -2.0092 0.9684
7.7634 -0.0165 -2.0101 0.9684
7.7345 0.6763 -2.0102 0.9684
7.2796 2.7004 -2.0103 0.9684
6.6742 3.9454 -2.0074 0.9685
5.4260 4.6880 -1.8566 0.9708
3.9882 5.9535 -1.8554 0.9708
2.8650 6.5638 -1.8543 0.9708
1.0236 7.0809 -1.8524 0.9709
-0.2510 7.1447 -1.8510 0.9709
-0.8870 7.0910 -1.8503 0.9709
-3.3062 6.3229 -1.8474 0.9709
-4.3740 5.6305 -1.8460 0.9710
-4.8571 5.2160 -1.8454 0.9710
-5.3013 4.7602 -1.8448 0.9710
-6.5395 4.0365 -1.9898 0.9687
-7.1692 2.8165 -1.9943 0.9687
-7.3903 2.1651 -1.9939 0.9687
-7.5526 1.4969 -1.9935 0.9687
-7.6963 0.1308 -1.9930 0.9687
-7.6766 -0.5563 -1.9928 0.9687
-7.5959 -1.2389 -1.9927 0.9687
-6.9971 -3.2063 -1.9928 0.9687
-6.6837 -3.8181 -1.9930 0.9687
-6.3172 -4.3997 -1.9932 0.9687
-5.9004 -4.9465 -1.9935 0.9687
-3.8009 -6.7040 -1.9954 0.9687
-1.8918 -7.4783 -1.9973 0.9686
-0.5330 -7.7010 -1.9987 0.9686
0.8448 -7.6790 -2.0002 0.9686
3.4829 -6.9093 -2.0034 0.9685
4.6589 -6.1850 -2.0049 0.9685
5.1940 -5.7467 -2.0056 0.9685
5.6879 -5.2622 -2.0063 0.9685
6.1367 -4.7353 -2.0069 0.9685
6.5366 -4.1702 -2.0075 0.9685
7.4131 -2.2921 -2.0090 0.9684
7.5895 -1.6219 -2.0094 0.9684
7.7510 0.4459 -2.0102 0.9684
7.5490 1.8165 -2.0104 0.9684
7.3567 2.4827 -2.0103 0.9684
7.1056 3.1290 -2.0102 0.9684
6.7975 3.7502 -2.0101 0.9684
6.2973 4.2482 -1.9668 0.9691
5.5633 4.5248 -1.8567 0.9708
4.6688 5.4394 -1.8560 0.9708
4.1639 5.8328 -1.8556 0.9708
1.8584 6.9124 -1.8533 0.9709
1.2338 7.0482 -1.8526 0.9709
0.4368 5.1894 -1.3484 0.9787
-0.0384 7.1499 -1.8513 0.9709
-0.6759 7.1152 -1.8506 0.9709
-1.9281 6.8764 -1.8491 0.9709
-3.1171 6.4193 -1.8476 0.9709
-3.6759 6.1133 -1.8469 0.9710
-4.2051 5.7588 -1.8463 0.9710
-4.7004 5.3587 -1.8456 0.9710
-5.1580 4.9163 -1.8450 0.9710
-5.5742 4.4351 -1.8444 0.9710
-6.3150 4.1622 -1.9583 0.9692
-7.0828 3.0286 -1.9945 0.9687
-7.3231 2.3841 -1.9940 0.9687
-7.6275 1.0443 -1.9933 0.9687
-7.6899 -0.3278 -1.9929 0.9687
-7.6295 -1.0125 -1.9927 0.9687
-7.3280 -2.3522 -1.9927 0.9687
-7.0892 -2.9967 -1.9928 0.9687
-6.4449 -4.2097 -1.9931 0.9687
-2.7655 -7.1974 -1.9964 0.9686
-2.1131 -7.4179 -1.9970 0.9686
-0.0734 -7.7211 -1.9992 0.9686
0.6160 -7.6998 -2.0000 0.9686
2.6360 -7.2704 -2.0023 0.9686
3.2755 -7.0089 -2.0031 0.9685
4.4724 -6.3200 -2.0046 0.9685
5.0202 -5.8980 -2.0054 0.9685
5.5283 -5.4284 -2.0061 0.9685
5.9925 -4.9152 -2.0067 0.9685
6.4091 -4.3623 -2.0073 0.9685
6.7747 -3.7742 -2.0079 0.9685
7.6735 -1.1671 -2.0097 0.9684
6.9062 3.5465 -2.0101 0.9684
5.6958 4.3576 -1.8568 0.9708
3.2508 6.3831 -1.8547 0.9708
2.6676 6.6457 -1.8541 0.9708
-7.0237 -0.5075 -1.9936 0.9711
-6.8213 -1.7475 -1.9934 0.9712
-6.6383 -2.3492 -1.9935 0.9712
-6.1159 -3.4920 -1.9937 0.9711
-5.7806 -4.0241 -1.9939 0.9711
-4.5109 -5.4140 -1.9949 0.9711
-2.9184 -6.4200 -1.9964 0.9711
-1.7320 -6.8405 -1.9976 0.9711
-1.1152 -6.9701 -1.9983 0.9711
-0.4891 -7.0441 -1.9989 0.9711
0.1414 -7.0621 -1.9996 0.9711
0.7712 -7.0238 -2.0003 0.9711
1.3952 -6.9295 -2.0011 0.9710
2.0086 -6.7798 -2.0018 0.9710
3.1838 -6.3195 -2.0032 0.9710
4.2592 -5.6569 -2.0046 0.9710
5.9760 -3.8144 -2.0070 0.9710
6.7774 -2.0972 -2.0084 0.9709
6.9387 -1.4844 -2.0087 0.9709
7.0445 -0.8596 -2.0090 0.9709
7.0939 -0.2277 -2.0093 0.9709
7.0866 0.4062 -2.0094 0.9709
7.0224 1.0368 -2.0096 0.9709
6.9021 1.6592 -2.0096 0.9709
6.4970 2.8593 -2.0095 0.9709
6.2155 3.4273 -2.0093 0.9709
5.8758 3.9620 -2.0062 0.9710
5.2313 4.2529 -1.9086 0.9724
4.6974 4.5725 -1.8558 0.9731
3.8084 5.3323 -1.8550 0.9731
3.3166 5.6494 -1.8546 0.9731
1.7007 6.3206 -1.8530 0.9732
0.4369 5.1770 -1.4708 0.9786
-0.6167 6.5074 -1.8504 0.9732
-1.1944 6.4241 -1.8498 0.9732
-3.3612 5.5925 -1.8471 0.9732
-4.2987 4.9029 -1.8459 0.9733
-4.7175 4.4984 -1.8453 0.9733
-5.2518 4.1805 -1.9003 0.9725
-6.4793 2.7723 -1.9951 0.9711
-6.6994 2.1827 -1.9947 0.9711
-6.9784 0.9570 -1.9940 0.9711
-7.0351 0.3306 -1.9938 0.9711
-7.0359 -0.2984 -1.9936 0.9711
-6.9808 -0.9248 -1.9935 0.9712
-6.7052 -2.1507 -1.9934 0.9712
-6.2169 -3.3085 -1.9937 0.9711
-5.1208 -4.8385 -1.9944 0.9711
-4.6696 -5.2771 -1.9948 0.9711
-4.1811 -5.6739 -1.9952 0.9711
-3.6591 -6.0257 -1.9957 0.9711
-1.3218 -6.9330 -1.9980 0.9711
-0.6982 -7.0257 -1.9987 0.9711
1.1884 -6.9671 -2.0008 0.9710
1.8059 -6.8357 -2.0015 0.9710
2.9941 -6.4106 -2.0030 0.9710
3.5554 -6.1200 -2.0037 0.9710
4.0886 -5.7804 -2.0044 0.9710
4.5895 -5.3944 -2.0050 0.9710
5.0541 -4.9650 -2.0057 0.9710
5.4786 -4.4956 -2.0063 0.9710
6.1937 -3.4523 -2.0074 0.9710
7.0155 -1.0686 -2.0090 0.9709
7.0501 0.8275 -2.0095 0.9709
6.9483 1.4533 -2.0096 0.9709
6.5793 2.6649 -2.0095 0.9709
5.9999 3.7911 -2.0092 0.9709
4.4161 4.8435 -1.8555 0.9731
2.4405 6.0763 -1.8537 0.9731
1.8881 6.2679 -1.8532 0.9732
1.3210 6.4093 -1.8526 0.9732
0.5925 5.1780 -1.4754 0.9786
-1.0029 6.4575 -1.8500 0.9732
-1.7942 5.1917 -1.5550 0.9774
-2.6742 5.9550 -1.8480 0.9732
-3.1937 5.6907 -1.8474 0.9732
-4.1514 5.0291 -1.8461 0.9733
-4.5821 4.6372 -1.8455 0.9733
-4.9760 4.2086 -1.8450 0.9733
-6.1060 3.5234 -1.9957 0.9711
-6.8167 1.7796 -1.9944 0.9711
-6.9472 1.1642 -1.9941 0.9711
-7.0053 -0.7168 -1.9935 0.9711
-6.0092 -3.6731 -1.9938 0.9711
-5.6582 -4.1951 -1.9940 0.9711
-4.8242 -5.1356 -1.9947 0.9711
-4.3476 -5.5466 -1.9951 0.9711
-3.8364 -5.9137 -1.9956 0.9711
-1.5272 -6.8899 -1.9978 0.9711
-0.9067 -7.0010 -1.9985 0.9711
-0.2786 -7.0564 -1.9992 0.9711
0.3522 -7.0556 -1.9999 0.9711
0.9806 -6.9985 -2.0006 0.9710
2.8018 -6.4960 -2.0027 0.9710
3.3714 -6.2223 -2.0034 0.9710
3.9145 -5.8988 -2.0041 0.9710
4.4266 -5.5279 -2.0048 0.9710
4.9037 -5.1126 -2.0055 0.9710
5.7377 -4.1622 -2.0067 0.9710
6.3893 -3.0778 -2.0077 0.9709
6.6399 -2.4960 -2.0081 0.9709
6.9803 -1.2767 -2.0089 0.9709
7.0673 -0.6490 -2.0091 0.9709
6.8495 1.8645 -2.0096 0.9709
6.4086 3.0519 -2.0094 0.9709
3.6472 5.4432 -1.8549 0.9731
2.6204 6.0016 -1.8539 0.9731
2.0739 6.2096 -1.8533 0.9732
-0.2288 6.5341 -1.8509 0.9732
-0.8105 6.4853 -1.8502 0.9732
-1.3854 6.3848 -1.8496 0.9732
-1.9488 6.2335 -1.8489 0.9732
-3.5262 5.4891 -1.8469 0.9732
-4.0005 5.1509 -1.8463 0.9733
-4.8492 4.3552 -1.8451 0.9733
-5.9990 3.7038 -1.9959 0.9711
-6.3040 3.1530 -1.9954 0.9711
-6.7611 1.9816 -1.9946 0.9711
-7.0035 0.7483 -1.9939 0.9711
-7.0416 0.1204 -1.9937 0.9711
-7.0237 -0.5082 -1.9936 0.9711
-6.9500 -1.1328 -1.9935 0.9712
-6.6381 -2.3499 -1.9935 0.9712
-6.4022 -2.9329 -1.9936 0.9711
-4.9744 -4.9895 -1.9946 0.9711
-2.3339 -6.6570 -1.9970 0.9711
0.1422 -7.0621 -1.9996 0.9711
0.7719 -7.0237 -2.0003 0.9711
2.0094 -6.7796 -2.0018 0.9710
2.6071 -6.5757 -2.0025 0.9710
3.1845 -6.3191 -2.0032 0.9710
3.7369 -6.0119 -2.0039 0.9710
4.2598 -5.6565 -2.0046 0.9710
4.7490 -5.2556 -2.0053 0.9710
5.2006 -4.8124 -2.0059 0.9710
6.5623 -2.6922 -2.0080 0.9709
6.7777 -2.0964 -2.0084 0.9709
6.9389 -1.4836 -2.0087 0.9709
7.0446 -0.8588 -2.0090 0.9709
7.0940 -0.2269 -2.0093 0.9709
6.2151 3.4280 -2.0093 0.9709
5.2302 4.2529 -1.9084 0.9724
4.6969 4.5730 -1.8558 0.9731
4.2693 4.9729 -1.8554 0.9731
1.7001 6.3208 -1.8530 0.9732
-0.6174 6.5073 -1.8504 0.9732
-1.1951 6.4240 -1.8498 0.9732
-2.8504 5.8718 -1.8478 0.9732
-3.3618 5.5922 -1.8471 0.9732
-3.8460 5.2682 -1.8465 0.9732
-4.2992 4.9024 -1.8459 0.9733
-5.2530 4.1804 -1.9005 0.9725
-6.2079 3.3394 -1.9955 0.9711
-6.6997 2.1820 -1.9947 0.9711
-6.8664 1.5753 -1.9943 0.9711
-7.0351 0.3298 -1.9938 0.9711
-7.0359 -0.2991 -1.9936 0.9711
-6.9807 -0.9256 -1.9935 0.9712
-6.4865 -2.7411 -1.9935 0.9711
-5.5307 -4.3623 -1.9941 0.9711
-4.6690 -5.2776 -1.9948 0.9711
-4.1805 -5.6743 -1.9952 0.9711
-3.6584 -6.0261 -1.9957 0.9711
-2.5306 -6.5840 -1.9968 0.9711
-1.3211 -6.9332 -1.9980 0.9711
-0.6975 -7.0257 -1.9987 0.9711
1.8066 -6.8355 -2.0015 0.9710
2.4102 -6.6495 -2.0023 0.9710
2.9948 -6.4103 -2.0030 0.9710
3.5560 -6.1197 -2.0037 0.9710
5.0546 -4.9644 -2.0057 0.9710
6.1940 -3.4516 -2.0074 0.9710
6.4788 -2.8859 -2.0078 0.9709
6.7119 -2.2969 -2.0083 0.9709
6.8913 -1.6892 -2.0086 0.9709
7.0838 -0.4377 -2.0092 0.9709
7.0953 0.1960 -2.0094 0.9709
7.0500 0.8283 -2.0095 0.9709
6.5790 2.6656 -2.0095 0.9709
6.3145 3.2417 -2.0094 0.9709
5.9995 3.7918 -2.0092 0.9709
4.8311 4.4316 -1.8559 0.9731
4.4156 4.8440 -1.8555 0.9731
3.9650 5.2176 -1.8552 0.9731
2.9731 5.8362 -1.8542 0.9731
0.1601 6.5376 -1.8513 0.9732
-3.1943 5.6903 -1.8474 0.9732
-3.6880 5.3808 -1.8467 0.9732
-4.1520 5.0286 -1.8461 0.9733
-4.5826 4.6367 -1.8455 0.9733
-6.1064 3.5228 -1.9957 0.9711
-6.3948 2.9632 -1.9952 0.9711
-6.8169 1.7789 -1.9944 0.9711
-7.0225 0.5389 -1.9939 0.9711
-5.6577 -4.1957 -1.9940 0.9711
-5.2616 -4.6844 -1.9943 0.9711
-4.8236 -5.1361 -1.9947 0.9711
-4.3470 -5.5471 -1.9951 0.9711
-3.8357 -5.9142 -1.9956 0.9711
-1.5265 -6.8901 -1.9978 0.9711
0.9813 -6.9984 -2.0006 0.9710
1.6024 -6.8854 -2.0013 0.9710
3.3721 -6.2220 -2.0035 0.9710
3.9151 -5.8984 -2.0041 0.9710
4.9043 -5.1120 -2.0055 0.9710
5.3424 -4.6555 -2.0061 0.9710
5.7381 -4.1615 -2.0067 0.9710
6.0882 -3.6340 -2.0072 0.9710
6.6402 -2.4953 -2.0081 0.9709
6.8376 -1.8933 -2.0085 0.9709
6.9804 -1.2760 -2.0089 0.9709
7.0674 -0.6482 -2.0091 0.9709
7.0978 -0.0151 -2.0093 0.9709
7.0714 0.6183 -2.0095 0.9709
6.6554 2.4688 -2.0096 0.9709
6.4083 3.0526 -2.0094 0.9709
6.1098 3.6118 -2.0093 0.9709
4.9610 4.2862 -1.8560 0.9731
4.5580 4.7109 -1.8557 0.9731
2.0732 6.2098 -1.8533 0.9732
0.2815 5.1860 -1.4703 0.9786
-0.2295 6.5340 -1.8509 0.9732
-0.8113 6.4852 -1.8502 0.9732
-1.9495 6.2333 -1.8489 0.9732
-2.4969 6.0323 -1.8482 0.9732
-3.5268 5.4887 -1.8469 0.9732
-4.4431 4.7714 -1.8457 0.9733
-4.8496 4.3546 -1.8451 0.9733
-5.5676 4.1656 -1.9685 0.9715
-5.9994 3.7031 -1.9959 0.9711
-7.0036 0.7475 -1.9939 0.9711
-7.0236 -0.5090 -1.9936 0.9711
-6.8209 -1.7490 -1.9934 0.9712
-6.6378 -2.3506 -1.9935 0.9712
-6.4019 -2.9336 -1.9936 0.9711
-6.1152 -3.4933 -1.9937 0.9711
-5.3983 -4.5256 -1.9942 0.9711
-4.5098 -5.4150 -1.9949 0.9711
-3.4773 -6.1331 -1.9959 0.9711
-2.9170 -6.4206 -1.9964 0.9711
-2.3332 -6.6572 -1.9970 0.9711
-1.7305 -6.8409 -1.9976 0.9711
-1.1136 -6.9703 -1.9983 0.9711
-0.4875 -7.0442 -1.9989 0.9711
2.0101 -6.7794 -2.0018 0.9710
3.1852 -6.3187 -2.0032 0.9710
5.6113 -4.3299 -2.0065 0.9710
6.5626 -2.6915 -2.0080 0.9709
6.7779 -2.0957 -2.0084 0.9709
7.0940 -0.2261 -2.0093 0.9709
7.0865 0.4077 -2.0094 0.9709
7.0222 1.0384 -2.0096 0.9709
6.7260 2.2699 -2.0096 0.9709
6.4963 2.8607 -2.0095 0.9709
5.8749 3.9632 -2.0062 0.9710
5.2291 4.2530 -1.9081 0.9724
4.6964 4.5735 -1.8558 0.9731
4.2688 4.9733 -1.8554 0.9731
3.8072 5.3332 -1.8550 0.9731
2.7973 5.9218 -1.8541 0.9731
2.2572 6.1460 -1.8535 0.9731
1.1283 6.4453 -1.8524 0.9732
-0.0351 6.5387 -1.8511 0.9732
-0.6181 6.5072 -1.8504 0.9732
-1.7635 6.2893 -1.8491 0.9732
-1.9728 5.1984 -1.5740 0.9772
-2.8511 5.8715 -1.8478 0.9732
-3.3624 5.5918 -1.8471 0.9732
-4.2998 4.9019 -1.8459 0.9733
-4.7185 4.4974 -1.8453 0.9733
-5.2541 4.1804 -1.9008 0.9725
-6.8665 1.5745 -1.9943 0.9711
-6.9786 0.9555 -1.9940 0.9711
-6.9806 -0.9264 -1.9935 0.9712
-6.8699 -1.5454 -1.9934 0.9712
-6.4862 -2.7418 -1.9935 0.9711
-6.2161 -3.3098 -1.9937 0.9711
-5.5303 -4.3629 -1.9941 0.9711
-5.1198 -4.8397 -1.9944 0.9711
-2.5299 -6.5842 -1.9968 0.9711
-1.3203 -6.9333 -1.9980 0.9711
0.5634 -7.0427 -2.0001 0.9711
1.1899 -6.9668 -2.0008 0.9710
1.8074 -6.8354 -2.0015 0.9710
2.9955 -6.4099 -2.0030 0.9710
3.5567 -6.1193 -2.0037 0.9710
4.5907 -5.3934 -2.0050 0.9710
5.4795 -4.4944 -2.0063 0.9710
6.4791 -2.8852 -2.0078 0.9709
6.8915 -1.6885 -2.0086 0.9709
7.0839 -0.4370 -2.0092 0.9709
7.0953 0.1968 -2.0094 0.9709
6.5787 2.6663 -2.0095 0.9709
5.9990 3.7924 -2.0092 0.9709
5.5453 4.2425 -1.9766 0.9714
4.8306 4.4321 -1.8559 0.9731
4.4151 4.8445 -1.8555 0.9731
2.4392 6.0768 -1.8537 0.9731
-6.4666 -0.4672 -1.9942 0.9732
-6.3989 -1.0422 -1.9941 0.9732
-5.8947 -2.6996 -1.9942 0.9732
-5.6308 -3.2150 -1.9943 0.9732
-5.3220 -3.7049 -1.9945 0.9732
-4.9709 -4.1655 -1.9948 0.9732
-4.5802 -4.5931 -1.9951 0.9732
-4.1529 -4.9843 -1.9955 0.9732
-3.2024 -5.6454 -1.9963 0.9732
-2.1492 -6.1279 -1.9974 0.9732
-1.5944 -6.2970 -1.9979 0.9732
1.8487 -6.2400 -2.0018 0.9731
2.3988 -6.0522 -2.0024 0.9731
3.9196 -5.2059 -2.0043 0.9731
4.7852 -4.4291 -2.0055 0.9731
5.1627 -3.9856 -2.0061 0.9731
5.4991 -3.5100 -2.0066 0.9731
5.7917 -3.0061 -2.0070 0.9731
6.0380 -2.4779 -2.0075 0.9731
6.2362 -1.9297 -2.0078 0.9731
6.3845 -1.3658 -2.0082 0.9730
6.5272 -0.2095 -2.0087 0.9730
6.5204 0.3737 -2.0088 0.9730
6.4613 0.9540 -2.0089 0.9730
6.3506 1.5267 -2.0090 0.9730
6.1890 2.0871 -2.0089 0.9730
5.9779 2.6309 -2.0089 0.9730
5.7189 3.1535 -2.0087 0.9730
5.0525 4.1075 -2.0028 0.9731
3.9289 4.5753 -1.8549 0.9751
3.0519 5.1985 -1.8541 0.9751
2.0784 5.6553 -1.8532 0.9751
1.5651 5.8165 -1.8527 0.9751
1.0396 5.9312 -1.8521 0.9751
-0.5676 5.9890 -1.8504 0.9751
-1.0993 5.9126 -1.8497 0.9751
-1.6218 5.7890 -1.8491 0.9752
-2.6231 5.4050 -1.8479 0.9752
-3.9571 4.5132 -1.8462 0.9752
-5.0662 4.0327 -1.9916 0.9733
-5.4189 3.5733 -1.9965 0.9732
-5.7148 3.0749 -1.9960 0.9732
-5.9650 2.5522 -1.9956 0.9732
-6.1678 2.0095 -1.9952 0.9732
-6.4770 0.3043 -1.9944 0.9732
-6.4271 -0.8515 -1.9941 0.9732
-6.3254 -1.4215 -1.9941 0.9732
-5.9723 -2.5231 -1.9941 0.9732
-5.0924 -4.0156 -1.9947 0.9732
-3.8492 -5.2235 -1.9957 0.9732
-3.3686 -5.5473 -1.9962 0.9732
-0.6427 -6.4671 -1.9989 0.9732
0.5172 -6.4825 -2.0002 0.9732
1.0938 -6.4126 -2.0009 0.9731
1.6621 -6.2916 -2.0015 0.9731
2.7556 -5.8999 -2.0029 0.9731
3.2721 -5.6323 -2.0035 0.9731
3.7627 -5.3196 -2.0041 0.9731
4.2236 -4.9643 -2.0048 0.9731
5.0415 -4.1370 -2.0059 0.9731
5.3918 -3.6717 -2.0064 0.9731
5.9613 -2.6562 -2.0073 0.9731
6.1757 -2.1141 -2.0077 0.9731
6.5284 0.1796 -2.0088 0.9730
6.3931 1.3371 -2.0089 0.9730
5.1791 3.9605 -2.0054 0.9731
4.6280 4.2444 -1.9315 0.9741
4.0635 4.4568 -1.8550 0.9751
3.6489 4.8006 -1.8547 0.9751
2.7364 5.3702 -1.8538 0.9751
2.2458 5.5915 -1.8534 0.9751
0.5897 5.1539 -1.5956 0.9785
-0.3893 6.0039 -1.8506 0.9751
-0.9231 5.9433 -1.8499 0.9751
-1.8022 5.2148 -1.6971 0.9772
-2.4615 5.4813 -1.8481 0.9752
-3.3942 4.9534 -1.8469 0.9752
-3.8215 4.6294 -1.8464 0.9752
-4.2180 4.2687 -1.8458 0.9752
-4.9269 4.1671 -1.9848 0.9734
-5.3099 3.7326 -1.9963 0.9732
-5.8869 2.7287 -1.9957 0.9732
-6.2758 1.6384 -1.9950 0.9732
-6.4653 0.4968 -1.9945 0.9732
-6.4833 -0.0819 -1.9943 0.9732
-6.3649 -1.2327 -1.9941 0.9732
-6.2295 -1.7957 -1.9941 0.9732
-5.2093 -3.8623 -1.9946 0.9732
-4.8446 -4.3122 -1.9949 0.9732
-4.4413 -4.7280 -1.9952 0.9732
-1.9655 -6.1899 -1.9975 0.9732
-1.4059 -6.3424 -1.9981 0.9732
-0.2565 -6.4952 -1.9994 0.9732
0.3242 -6.4943 -2.0000 0.9732
0.9025 -6.4416 -2.0007 0.9731
2.0343 -6.1828 -2.0020 0.9731
3.6025 -5.4286 -2.0039 0.9731
5.2798 -3.8300 -2.0062 0.9731
5.6018 -3.3446 -2.0067 0.9731
6.1097 -2.2967 -2.0076 0.9731
6.2914 -1.7428 -2.0080 0.9730
6.4227 -1.1747 -2.0083 0.9730
6.5307 -0.0146 -2.0087 0.9730
6.4300 1.1464 -2.0089 0.9730
6.3022 1.7155 -2.0090 0.9730
5.8966 2.8080 -2.0088 0.9730
5.6221 3.3227 -2.0087 0.9730
5.3016 3.8098 -2.0080 0.9730
4.9028 4.2350 -1.9927 0.9733
4.1945 4.3342 -1.8552 0.9751
3.3561 5.0087 -1.8544 0.9751
2.8952 5.2869 -1.8540 0.9751
1.9085 5.7142 -1.8530 0.9751
1.3907 5.8600 -1.8525 0.9751
-0.7460 5.9688 -1.8501 0.9751
-1.7937 5.7374 -1.8489 0.9752
-3.2458 5.0526 -1.8471 0.9752
-4.0896 4.3927 -1.8460 0.9752
-4.6544 4.1802 -1.9242 0.9742
-5.5227 3.4097 -1.9963 0.9732
-5.8036 2.9027 -1.9959 0.9732
-6.2246 1.8244 -1.9951 0.9732
-6.3616 1.2616 -1.9948 0.9732
-6.4479 0.6889 -1.9945 0.9732
-6.4830 0.1109 -1.9943 0.9732
-5.6304 -3.2156 -1.9943 0.9732
-4.9705 -4.1660 -1.9948 0.9732
-4.1524 -4.9847 -1.9955 0.9732
-3.6919 -5.3364 -1.9959 0.9732
-2.6860 -5.9104 -1.9968 0.9732
-2.1485 -6.1281 -1.9974 0.9732
-0.4495 -6.4841 -1.9991 0.9732
0.1309 -6.5004 -1.9998 0.9732
2.3995 -6.0520 -2.0024 0.9731
3.4391 -5.5328 -2.0037 0.9731
4.7857 -4.4285 -2.0055 0.9731
5.4995 -3.5094 -2.0066 0.9731
6.0383 -2.4772 -2.0075 0.9731
6.2364 -1.9290 -2.0078 0.9731
6.5272 -0.2088 -2.0087 0.9730
6.5203 0.3744 -2.0088 0.9730
6.4612 0.9547 -2.0089 0.9730
6.3504 1.5274 -2.0090 0.9730
6.1888 2.0878 -2.0089 0.9730
5.7186 3.1541 -2.0087 0.9730
5.4138 3.6513 -2.0085 0.9730
5.0520 4.1080 -2.0028 0.9731
4.3682 4.2530 -1.8752 0.9748
3.9284 4.5758 -1.8549 0.9751
3.5038 4.9070 -1.8546 0.9751
3.0513 5.1989 -1.8541 0.9751
2.0778 5.6555 -1.8532 0.9751
1.5645 5.8167 -1.8527 0.9751
1.0390 5.9313 -1.8521 0.9751
0.4352 5.1645 -1.5941 0.9785
-0.0317 6.0177 -1.8510 0.9751
-0.5682 5.9890 -1.8504 0.9751
-1.0999 5.9124 -1.8497 0.9751
-3.0944 5.1475 -1.8473 0.9752
-4.3975 4.1923 -1.8687 0.9749
-5.0666 4.0321 -1.9916 0.9733
-5.4193 3.5727 -1.9965 0.9732
-6.1680 2.0088 -1.9952 0.9732
-6.4248 0.8804 -1.9946 0.9732
-6.4771 0.3036 -1.9944 0.9732
-6.4270 -0.8522 -1.9941 0.9732
-5.9720 -2.5237 -1.9941 0.9732
-5.0919 -4.0162 -1.9947 0.9732
-4.7140 -4.4551 -1.9950 0.9732
-3.3680 -5.5477 -1.9962 0.9732
-2.3296 -6.0610 -1.9972 0.9732
-1.2161 -6.3821 -1.9983 0.9732
-0.6420 -6.4672 -1.9989 0.9732
1.6628 -6.2914 -2.0015 0.9731
2.2182 -6.1200 -2.0022 0.9731
2.7563 -5.8996 -2.0029 0.9731
3.2727 -5.6320 -2.0035 0.9731
3.7633 -5.3192 -2.0041 0.9731
4.2241 -4.9638 -2.0048 0.9731
4.6515 -4.5685 -2.0053 0.9731
5.0419 -4.1364 -2.0059 0.9731
5.6996 -3.1761 -2.0069 0.9731
5.9615 -2.6555 -2.0073 0.9731
6.1759 -2.1135 -2.0077 0.9731
6.4552 -0.9826 -2.0084 0.9730
6.5284 0.1804 -2.0088 0.9730
6.3930 1.3378 -2.0089 0.9730
6.2481 1.9029 -2.0089 0.9730
6.0533 2.4526 -2.0089 0.9730
5.5202 3.4889 -2.0086 0.9730
5.1786 3.9611 -2.0054 0.9731
4.6270 4.2444 -1.9313 0.9741
3.6484 4.8010 -1.8547 0.9751
2.7358 5.3705 -1.8538 0.9751
1.7369 5.7681 -1.8528 0.9751
-1.8028 5.2146 -1.6971 0.9772
-2.4621 5.4810 -1.8481 0.9752
-2.9403 5.2378 -1.8475 0.9752
-5.3103 3.7320 -1.9963 0.9732
-5.6216 3.2431 -1.9962 0.9732
-5.8872 2.7280 -1.9957 0.9732
-6.1059 2.1915 -1.9953 0.9732
-6.2760 1.6377 -1.9950 0.9732
-6.4654 0.4961 -1.9945 0.9732
-6.4833 -0.0827 -1.9943 0.9732
-6.4496 -0.6607 -1.9941 0.9732
-6.2293 -1.7963 -1.9941 0.9732
-6.0443 -2.3450 -1.9941 0.9732
-5.5321 -3.3823 -1.9944 0.9732
-4.8442 -4.3127 -1.9949 0.9732
-4.4408 -4.7285 -1.9952 0.9732
-4.0020 -5.1068 -1.9956 0.9732
-3.5312 -5.4446 -1.9960 0.9732
-3.0321 -5.7393 -1.9965 0.9732
-2.5086 -5.9885 -1.9970 0.9732
-1.9648 -6.1901 -1.9975 0.9732
-0.8340 -6.4445 -1.9987 0.9732
0.3249 -6.4943 -2.0000 0.9732
1.4748 -6.3373 -2.0013 0.9731
2.0350 -6.1825 -2.0020 0.9731
2.5793 -5.9783 -2.0026 0.9731
3.6031 -5.4282 -2.0039 0.9731
4.0742 -5.0867 -2.0046 0.9731
4.5131 -4.7043 -2.0051 0.9731
5.2802 -3.8295 -2.0062 0.9731
5.8795 -2.8314 -2.0072 0.9731
6.2915 -1.7421 -2.0080 0.9730
6.4299 1.1471 -2.0089 0.9730
4.9017 4.2350 -1.9924 0.9733
4.1940 4.3347 -1.8552 0.9751
3.7898 4.6907 -1.8548 0.9751
2.8946 5.2872 -1.8540 0.9751
2.4107 5.5230 -1.8535 0.9751
1.9079 5.7145 -1.8530 0.9751
0.2801 5.1610 -1.5898 0.9786
-2.7835 5.3235 -1.8477 0.9752
-3.6830 4.7410 -1.8465 0.9752
-4.0901 4.3922 -1.8460 0.9752
-5.1908 3.8836 -1.9940 0.9732
-5.5231 3.4091 -1.9963 0.9732
-5.8039 2.9021 -1.9959 0.9732
-6.2248 1.8237 -1.9951 0.9732
-6.3617 1.2609 -1.9948 0.9732
-6.4480 0.6882 -1.9945 0.9732
-6.4830 0.1102 -1.9943 0.9732
-6.4665 -0.4686 -1.9942 0.9732
-6.3987 -1.0436 -1.9941 0.9732
-6.2799 -1.6103 -1.9941 0.9732
-6.1113 -2.1642 -1.9941 0.9732
-5.8941 -2.7009 -1.9942 0.9732
-5.3212 -3.7061 -1.9945 0.9732
-4.9700 -4.1666 -1.9948 0.9732
-4.5792 -4.5941 -1.9951 0.9732
-3.2011 -5.6462 -1.9963 0.9732
-2.6853 -5.9107 -1.9968 0.9732
-2.1479 -6.1283 -1.9974 0.9732
-1.0251 -6.4162 -1.9985 0.9732
1.2856 -6.3777 -2.0011 0.9731
2.4001 -6.0517 -2.0024 0.9731
2.9314 -5.8153 -2.0031 0.9731
4.3708 -4.8360 -2.0050 0.9731
5.7923 -3.0048 -2.0070 0.9731
6.0386 -2.4766 -2.0075 0.9731
6.4819 -0.7895 -2.0084 0.9730
6.5272 -0.2081 -2.0087 0.9730
6.4611 0.9554 -2.0089 0.9730
6.1885 2.0885 -2.0089 0.9730
5.7182 3.1547 -2.0087 0.9730
4.3672 4.2530 -1.8750 0.9748
3.5032 4.9074 -1.8546 0.9751
3.0508 5.1992 -1.8541 0.9751
2.0771 5.6557 -1.8532 0.9751
1.0383 5.9314 -1.8521 0.9751
-0.0323 6.0177 -1.8510 0.9751
-0.5689 5.9889 -1.8504 0.9751
-1.1006 5.9123 -1.8497 0.9751
-3.5407 4.8490 -1.8467 0.9752
-3.9580 4.5124 -1.8462 0.9752
-5.0671 4.0316 -1.9917 0.9733
-5.4197 3.5721 -1.9965 0.9732
-5.7154 3.0736 -1.9960 0.9732
-5.9656 2.5509 -1.9956 0.9732
-6.3217 1.4496 -1.9949 0.9732
-6.4777 -0.2761 -1.9942 0.9732
-6.3251 -1.4228 -1.9941 0.9732
-6.1729 -1.9815 -1.9941 0.9732
-5.9717 -2.5244 -1.9941 0.9732
-5.4289 -3.5461 -1.9945 0.9732
-5.0915 -4.0167 -1.9947 0.9732
-4.7135 -4.4556 -1.9950 0.9732
-2.8597 -5.8277 -1.9967 0.9732
-2.3289 -6.0612 -1.9972 0.9732
-1.7794 -6.2466 -1.9977 0.9732
-1.2154 -6.3823 -1.9983 0.9732
0.5186 -6.4824 -2.0002 0.9732
1.0952 -6.4124 -2.0009 0.9731
2.2189 -6.1197 -2.0022 0.9731
2.7569 -5.8993 -2.0029 0.9731
3.2733 -5.6316 -2.0035 0.9731
3.7639 -5.3188 -2.0041 0.9731
4.6520 -4.5680 -2.0053 0.9731
5.7000 -3.1755 -2.0069 0.9731
6.4553 -0.9818 -2.0084 0.9730
6.5284 0.1811 -2.0088 0.9730
6.0530 2.4533 -2.0089 0.9730
5.5198 3.4895 -2.0086 0.9730
5.1782 3.9616 -2.0054 0.9731
4.0625 4.4576 -1.8550 0.9751
3.6479 4.8014 -1.8547 0.9751
3.2043 5.1066 -1.8543 0.9751
2.7353 5.3708 -1.8538 0.9751
2.2446 5.5920 -1.8534 0.9751
-5.9853 -0.4324 -1.9947 0.9750
-5.9226 -0.9646 -1.9946 0.9750
-5.8128 -1.4892 -1.9946 0.9750
-4.2391 -4.2510 -1.9956 0.9750
-3.8436 -4.6130 -1.9959 0.9750
-2.9638 -5.2248 -1.9967 0.9750
-1.9890 -5.6711 -1.9977 0.9750
-0.9500 -5.9375 -1.9987 0.9750
0.1204 -6.0153 -1.9999 0.9750
0.6568 -5.9823 -2.0005 0.9750
2.7111 -5.3813 -2.0030 0.9749
4.7763 -3.6873 -2.0057 0.9749
5.5858 -2.2923 -2.0070 0.9749
5.7690 -1.7851 -2.0074 0.9749
5.9961 -0.7316 -2.0079 0.9749
5.2904 2.9172 -2.0082 0.9749
4.6857 3.8093 -2.0073 0.9749
3.6498 4.2503 -1.8623 0.9767
2.8234 4.8093 -1.8538 0.9768
1.9228 5.2321 -1.8529 0.9768
1.4480 5.3813 -1.8524 0.9768
-1.0171 5.4709 -1.8497 0.9768
-1.9720 5.1998 -1.8486 0.9768
-2.4273 5.0016 -1.8480 0.9768
-2.8630 4.7637 -1.8475 0.9768
-3.6821 4.1997 -1.8566 0.9767
-4.7003 3.7414 -1.9969 0.9750
-5.0151 3.3070 -1.9969 0.9750
-5.2890 2.8458 -1.9964 0.9750
-5.8507 1.3429 -1.9954 0.9750
-5.9464 0.8155 -1.9951 0.9750
-5.9956 -0.2543 -1.9948 0.9750
-5.8546 -1.3157 -1.9946 0.9750
-5.7139 -1.8327 -1.9946 0.9750
-5.5277 -2.3353 -1.9947 0.9750
-5.2977 -2.8193 -1.9948 0.9750
-5.0254 -3.2810 -1.9950 0.9750
-4.7132 -3.7166 -1.9952 0.9750
-3.9788 -4.4964 -1.9958 0.9750
-3.5625 -4.8344 -1.9962 0.9750
-3.1176 -5.1340 -1.9966 0.9750
-2.6477 -5.3929 -1.9970 0.9750
-2.1566 -5.6089 -1.9975 0.9750
-1.1260 -5.9060 -1.9986 0.9750
-0.0585 -6.0156 -1.9997 0.9750
1.5380 -5.8216 -2.0015 0.9749
2.0519 -5.6629 -2.0021 0.9749
2.5497 -5.4590 -2.0028 0.9749
3.4813 -4.9218 -2.0039 0.9749
4.3030 -4.2271 -2.0050 0.9749
4.6641 -3.8274 -2.0056 0.9749
4.9882 -3.3968 -2.0060 0.9749
5.2725 -2.9389 -2.0065 0.9749
5.7131 -1.9558 -2.0073 0.9749
5.8657 -1.4385 -2.0076 0.9749
6.0392 0.1662 -2.0082 0.9749
5.5999 2.2682 -2.0083 0.9749
5.1069 3.2269 -2.0081 0.9749
4.7982 3.6692 -2.0078 0.9749
4.4401 4.0721 -2.0026 0.9749
3.3757 4.4411 -1.8543 0.9768
2.9654 4.7236 -1.8539 0.9768
2.0778 5.1730 -1.8531 0.9768
1.1247 5.4570 -1.8521 0.9768
0.5874 5.1340 -1.7177 0.9785
0.1369 5.5669 -1.8510 0.9768
-1.3409 5.3995 -1.8493 0.9768
-1.7588 5.0891 -1.7898 0.9776
-2.7204 4.8472 -1.8476 0.9768
-3.5365 4.2841 -1.8466 0.9769
-4.1290 4.1787 -1.9527 0.9755
-4.9149 3.4550 -1.9970 0.9750
-5.2024 3.0020 -1.9966 0.9750
-5.4484 2.5254 -1.9962 0.9750
-5.6509 2.0289 -1.9958 0.9750
-5.8085 1.5164 -1.9955 0.9750
-5.9198 0.9920 -1.9952 0.9750
-5.9840 0.4598 -1.9950 0.9750
-6.0007 -0.0759 -1.9948 0.9750
-5.8911 -1.1410 -1.9946 0.9750
-5.7658 -1.6620 -1.9946 0.9750
-5.5947 -2.1698 -1.9947 0.9750
-5.3790 -2.6604 -1.9948 0.9750
-4.4839 -3.9911 -1.9954 0.9750
-3.7044 -4.7260 -1.9960 0.9750
-3.2687 -5.0386 -1.9964 0.9750
-2.8067 -5.3113 -1.9969 0.9750
-2.3222 -5.5419 -1.9973 0.9750
-1.8190 -5.7284 -1.9978 0.9750
-1.3010 -5.8694 -1.9984 0.9750
-0.7724 -5.9637 -1.9989 0.9750
0.8352 -5.9607 -2.0007 0.9749
1.8824 -5.7209 -2.0019 0.9749
2.3860 -5.5318 -2.0026 0.9749
2.8708 -5.2985 -2.0032 0.9749
3.3331 -5.0227 -2.0037 0.9749
3.7690 -4.7067 -2.0043 0.9749
4.8846 -3.5433 -2.0059 0.9749
6.0155 -0.5524 -2.0080 0.9749
6.0188 0.5256 -2.0083 0.9749
5.9481 1.0605 -2.0084 0.9749
5.8298 1.5870 -2.0084 0.9749
5.6649 2.1007 -2.0084 0.9749
5.4547 2.5976 -2.0083 0.9749
4.5645 3.9428 -2.0049 0.9749
4.0989 4.2355 -1.9592 0.9755
3.5065 4.3390 -1.8544 0.9768
3.1048 4.6336 -1.8540 0.9768
2.2308 5.1093 -1.8532 0.9768
1.2866 5.4217 -1.8522 0.9768
0.7976 5.5133 -1.8517 0.9768
0.2795 5.1398 -1.7110 0.9785
-0.6902 5.5228 -1.8501 0.9768
-1.1799 5.4375 -1.8495 0.9768
-1.6598 5.3089 -1.8489 0.9768
-2.1261 5.1381 -1.8484 0.9768
-3.0036 4.6757 -1.8473 0.9768
-3.4078 4.3878 -1.8468 0.9769
-3.9005 4.1896 -1.9027 0.9762
-4.4603 4.0059 -1.9928 0.9750
-4.8104 3.5999 -1.9972 0.9750
-5.1112 3.1556 -1.9967 0.9750
-5.5884 2.1961 -1.9959 0.9750
-6.0004 0.1026 -1.9949 0.9750
-5.9852 -0.4331 -1.9947 0.9750
-5.8127 -1.4898 -1.9946 0.9750
-5.6567 -2.0025 -1.9946 0.9750
-4.9255 -3.4296 -1.9950 0.9750
-4.6004 -3.8558 -1.9953 0.9750
-4.2387 -4.2515 -1.9956 0.9750
-3.8431 -4.6135 -1.9959 0.9750
-2.9632 -5.2251 -1.9967 0.9750
-2.4858 -5.4699 -1.9972 0.9750
-1.4749 -5.8276 -1.9982 0.9750
-0.9493 -5.9375 -1.9987 0.9750
-0.4159 -6.0003 -1.9993 0.9750
1.1889 -5.9016 -2.0011 0.9749
3.1819 -5.1191 -2.0036 0.9749
3.6270 -4.8162 -2.0041 0.9749
4.0434 -4.4747 -2.0047 0.9749
5.3583 -2.7804 -2.0066 0.9749
5.5860 -2.2917 -2.0070 0.9749
5.9063 -1.2629 -2.0077 0.9749
5.9962 -0.7310 -2.0079 0.9749
6.0381 -0.1931 -2.0081 0.9749
6.0317 0.3463 -2.0083 0.9749
5.9770 0.8831 -2.0084 0.9749
5.8745 1.4129 -2.0084 0.9749
5.7249 1.9313 -2.0084 0.9749
4.3117 4.1980 -2.0004 0.9750
3.6490 4.2503 -1.8621 0.9767
3.2414 4.5395 -1.8542 0.9768
1.9223 5.2323 -1.8529 0.9768
0.9613 5.4877 -1.8519 0.9768
0.4342 5.1518 -1.7186 0.9784
-0.5258 5.5414 -1.8503 0.9768
-1.0177 5.4707 -1.8497 0.9768
-1.5013 5.3565 -1.8491 0.9768
-2.4279 5.0014 -1.8480 0.9768
-3.2761 4.4876 -1.8469 0.9769
-4.3349 4.1327 -1.9909 0.9751
-4.7007 3.7409 -1.9969 0.9750
-5.2893 2.8452 -1.9964 0.9750
-5.7086 1.8592 -1.9957 0.9750
-5.8508 1.3423 -1.9954 0.9750
-5.9949 0.2810 -1.9949 0.9750
-5.9956 -0.2549 -1.9948 0.9750
-5.9486 -0.7888 -1.9947 0.9750
-5.8544 -1.3163 -1.9946 0.9750
-5.5275 -2.3359 -1.9947 0.9750
-5.2974 -2.8199 -1.9948 0.9750
-5.0251 -3.2815 -1.9950 0.9750
-4.7128 -3.7172 -1.9952 0.9750
-3.5619 -4.8348 -1.9962 0.9750
-2.6471 -5.3931 -1.9970 0.9750
-1.1254 -5.9062 -1.9986 0.9750
-0.5941 -5.9847 -1.9991 0.9750
-0.0578 -6.0156 -1.9997 0.9750
1.0128 -5.9337 -2.0009 0.9749
1.5386 -5.8215 -2.0015 0.9749
3.0280 -5.2110 -2.0034 0.9749
3.9081 -4.5925 -2.0045 0.9749
4.3035 -4.2267 -2.0050 0.9749
4.6646 -3.8268 -2.0056 0.9749
5.2729 -2.9383 -2.0065 0.9749
5.5151 -2.4567 -2.0069 0.9749
5.7133 -1.9552 -2.0073 0.9749
5.9716 -0.9089 -2.0078 0.9749
5.5996 2.2688 -2.0083 0.9749
4.4396 4.0725 -2.0026 0.9749
2.9649 4.7239 -1.8539 0.9768
1.6070 5.3365 -1.8526 0.9768
0.1363 5.5669 -1.8510 0.9768
-0.3608 5.5552 -1.8505 0.9768
-0.8547 5.4991 -1.8499 0.9768
-2.2783 5.0719 -1.8482 0.9768
-3.5369 4.2837 -1.8466 0.9769
-5.8086 1.5158 -1.9955 0.9750
-5.9199 0.9913 -1.9952 0.9750
-5.9841 0.4592 -1.9950 0.9750
-5.7656 -1.6626 -1.9946 0.9750
-5.3788 -2.6610 -1.9948 0.9750
-5.1203 -3.1305 -1.9949 0.9750
-4.8211 -3.5752 -1.9951 0.9750
-4.4835 -3.9916 -1.9954 0.9750
-4.1101 -4.3763 -1.9957 0.9750
-2.3216 -5.5421 -1.9973 0.9750
-1.8184 -5.7286 -1.9978 0.9750
-0.7718 -5.9638 -1.9989 0.9750
0.3006 -6.0096 -2.0001 0.9750
0.8358 -5.9606 -2.0007 0.9749
1.3647 -5.8640 -2.0013 0.9749
1.8830 -5.7207 -2.0019 0.9749
2.3866 -5.5316 -2.0026 0.9749
3.7695 -4.7062 -2.0043 0.9749
4.1755 -4.3524 -2.0049 0.9749
4.8850 -3.5428 -2.0059 0.9749
5.4392 -2.6194 -2.0068 0.9749
5.6523 -2.1241 -2.0071 0.9749
5.8202 -1.6116 -2.0075 0.9749
5.9416 -1.0861 -2.0078 0.9749
6.0413 -0.0128 -2.0082 0.9749
5.9480 1.0611 -2.0084 0.9749
5.6647 2.1013 -2.0084 0.9749
5.4544 2.5982 -2.0083 0.9749
4.9049 3.5256 -2.0079 0.9749
4.5640 3.9432 -2.0049 0.9749
4.0981 4.2355 -1.9591 0.9755
3.5060 4.3394 -1.8544 0.9768
3.1043 4.6339 -1.8540 0.9768
2.6779 4.8914 -1.8536 0.9768
2.2303 5.1096 -1.8532 0.9768
1.2860 5.4218 -1.8522 0.9768
0.2790 5.1402 -1.7111 0.9785
-0.1954 5.5640 -1.8506 0.9768
-0.6908 5.5227 -1.8501 0.9768
-1.1804 5.4374 -1.8495 0.9768
-1.6603 5.3087 -1.8489 0.9768
-2.1267 5.1379 -1.8484 0.9768
-2.5758 4.9262 -1.8478 0.9768
-3.0041 4.6753 -1.8473 0.9768
-3.4083 4.3874 -1.8467 0.9769
-4.4608 4.0055 -1.9928 0.9750
-4.8108 3.5993 -1.9972 0.9750
-5.5887 2.1955 -1.9959 0.9750
-5.9224 -0.9659 -1.9946 0.9750
-5.2110 -2.9768 -1.9949 0.9750
-4.9251 -3.4302 -1.9950 0.9750
-4.6000 -3.8563 -1.9953 0.9750
-4.2382 -4.2520 -1.9956 0.9750
-3.8426 -4.6139 -1.9959 0.9750
-3.4163 -4.9393 -1.9963 0.9750
-2.9626 -5.2254 -1.9967 0.9750
-2.4852 -5.4702 -1.9972 0.9750
-1.9877 -5.6715 -1.9977 0.9750
-1.4742 -5.8277 -1.9982 0.9750
-0.9487 -5.9377 -1.9987 0.9750
0.1218 -6.0152 -1.9999 0.9750
0.6581 -5.9822 -2.0005 0.9750
1.1896 -5.9014 -2.0011 0.9749
1.7119 -5.7735 -2.0017 0.9749
2.2208 -5.5995 -2.0024 0.9749
3.6275 -4.8158 -2.0041 0.9749
4.0438 -4.4742 -2.0047 0.9749
4.4281 -4.0967 -2.0052 0.9749
5.0881 -3.2461 -2.0062 0.9749
5.3586 -2.7798 -2.0066 0.9749
5.5863 -2.2911 -2.0070 0.9749
5.7694 -1.7839 -2.0074 0.9749
5.9064 -1.2622 -2.0077 0.9749
5.9962 -0.7303 -2.0079 0.9749
5.9769 0.8838 -2.0084 0.9749
5.5293 2.4349 -2.0083 0.9749
5.0078 3.3783 -2.0080 0.9749
3.6483 4.2505 -1.8620 0.9767
3.2409 4.5399 -1.8542 0.9768
2.8224 4.8099 -1.8538 0.9768
1.9217 5.2325 -1.8529 0.9768
-0.5264 5.5414 -1.8503 0.9768
-1.5019 5.3563 -1.8491 0.9768
-2.4284 5.0011 -1.8480 0.9768
-2.8640 4.7631 -1.8475 0.9768
-3.6837 4.1996 -1.8569 0.9767
-4.3354 4.1323 -1.9909 0.9751
-5.0158 3.3059 -1.9969 0.9750
-5.5212 2.3609 -1.9960 0.9750
-5.8510 1.3416 -1.9954 0.9750
-5.9466 0.8142 -1.9951 0.9750
-5.9949 0.2804 -1.9949 0.9750
-5.8543 -1.3169 -1.9946 0.9750
-5.2971 -2.8205 -1.9948 0.9750
-5.0247 -3.2821 -1.9950 0.9750
-3.5614 -4.8352 -1.9962 0.9750
-3.1165 -5.1347 -1.9966 0.9750
-2.6465 -5.3934 -1.9970 0.9750
-0.5935 -5.9848 -1.9991 0.9750
-0.0572 -6.0156 -1.9997 0.9750
1.0135 -5.9336 -2.0009 0.9749
1.5393 -5.8213 -2.0015 0.9749
2.0531 -5.6625 -2.0021 0.9749
3.0286 -5.2106 -2.0034 0.9749
3.4824 -4.9211 -2.0039 0.9749
4.3039 -4.2262 -2.0050 0.9749
4.6650 -3.8263 -2.0056 0.9749
5.5153 -2.4560 -2.0069 0.9749
5.7135 -1.9545 -2.0073 0.9749
5.8660 -1.4372 -2.0076 0.9749
5.9717 -0.9083 -2.0078 0.9749
6.0391 0.1675 -2.0082 0.9749
6.0004 0.7057 -2.0083 0.9749
5.7797 1.7609 -2.0084 0.9749
5.3743 2.7598 -2.0082 0.9749
5.1062 3.2280 -2.0081 0.9749
4.7974 3.6703 -2.0078 0.9749
3.8672 4.2433 -1.9084 0.9761
3.3747 4.4418 -1.8543 0.9768
2.9644 4.7242 -1.8539 0.9768
2.0766 5.1734 -1.8531 0.9768
-5.5648 -0.4021 -1.9952 0.9766
-5.4045 -1.3846 -1.9951 0.9766
-5.2595 -1.8612 -1.9951 0.9766
-4.8455 -2.7666 -1.9953 0.9766
-4.5797 -3.1881 -1.9955 0.9766
-3.5734 -4.2888 -1.9963 0.9766
-3.1771 -4.5913 -1.9967 0.9766
-2.7554 -4.8574 -1.9970 0.9766
-1.3717 -5.4174 -1.9984 0.9765
-0.8831 -5.5196 -1.9989 0.9765
-0.3873 -5.5778 -1.9995 0.9765
2.0631 -5.2052 -2.0023 0.9765
3.7575 -4.1593 -2.0045 0.9765
4.1146 -3.8084 -2.0050 0.9765
4.9795 -2.5845 -2.0063 0.9764
5.1911 -2.1303 -2.0066 0.9764
5.3614 -1.6590 -2.0070 0.9764
5.4887 -1.1742 -2.0072 0.9764
5.6112 -0.1801 -2.0076 0.9764
5.6053 0.3213 -2.0078 0.9764
5.3204 1.7942 -2.0079 0.9764
5.1389 2.2616 -2.0078 0.9764
4.9164 2.7109 -2.0077 0.9764
4.3555 3.5408 -2.0073 0.9764
4.0172 3.9104 -2.0048 0.9765
3.6290 4.2261 -1.9920 0.9766
2.6240 4.4696 -1.8535 0.9782
2.2143 4.6849 -1.8531 0.9782
0.8940 5.1003 -1.8517 0.9782
-0.0267 5.1752 -1.8507 0.9783
-0.4881 5.1508 -1.8502 0.9783
-0.9454 5.0852 -1.8497 0.9783
-1.3950 4.9792 -1.8491 0.9783
-1.8331 4.8335 -1.8486 0.9783
-3.0678 4.2032 -1.8609 0.9781
-4.0392 3.8517 -1.9959 0.9766
-4.9171 2.6457 -1.9968 0.9766
-5.1326 2.1961 -1.9964 0.9766
-5.3072 1.7291 -1.9961 0.9766
-5.5286 0.7582 -1.9956 0.9766
-5.5737 0.2619 -1.9954 0.9766
-5.5744 -0.2364 -1.9952 0.9766
-5.5308 -0.7327 -1.9951 0.9766
-5.4433 -1.2232 -1.9951 0.9766
-5.3125 -1.7040 -1.9951 0.9766
-5.1394 -2.1712 -1.9952 0.9766
-3.3120 -4.4945 -1.9965 0.9766
-2.4615 -5.0136 -1.9973 0.9766
-2.0049 -5.2144 -1.9978 0.9765
-0.5529 -5.5633 -1.9993 0.9765
-0.0544 -5.5920 -1.9998 0.9765
0.4449 -5.5761 -2.0004 0.9765
0.9408 -5.5157 -2.0010 0.9765
1.4296 -5.4114 -2.0015 0.9765
1.9072 -5.2637 -2.0021 0.9765
2.3699 -5.0740 -2.0027 0.9765
3.2357 -4.5746 -2.0038 0.9765
3.9992 -3.9287 -2.0048 0.9765
4.3348 -3.5571 -2.0053 0.9765
4.9001 -2.7313 -2.0061 0.9765
5.1252 -2.2836 -2.0065 0.9764
5.3094 -1.8176 -2.0068 0.9764
5.4512 -1.3369 -2.0071 0.9764
5.6123 0.1544 -2.0077 0.9764
5.2040 2.1078 -2.0078 0.9764
4.9949 2.5636 -2.0077 0.9764
4.7459 2.9988 -2.0076 0.9764
4.4590 3.4099 -2.0074 0.9764
2.7623 4.4000 -1.8579 0.9782
2.3528 4.6173 -1.8532 0.9782
1.9311 4.8077 -1.8528 0.9782
1.4941 4.9597 -1.8523 0.9782
1.0454 5.0719 -1.8519 0.9782
0.5855 5.1171 -1.8419 0.9784
0.1273 5.1742 -1.8509 0.9783
-0.3348 5.1635 -1.8504 0.9783
-2.5288 4.5059 -1.8478 0.9783
-4.5693 3.2120 -1.9973 0.9766
-5.2537 1.8863 -1.9962 0.9766
-5.5038 0.9223 -1.9956 0.9766
-5.5791 -0.0705 -1.9953 0.9766
-5.5502 -0.5679 -1.9952 0.9766
-5.4773 -1.0608 -1.9951 0.9766
-5.3608 -1.5452 -1.9951 0.9766
-5.2016 -2.0174 -1.9951 0.9766
-4.4827 -3.3235 -1.9956 0.9766
-1.2095 -5.4564 -1.9986 0.9765
-0.2206 -5.5874 -1.9996 0.9765
2.2177 -5.1418 -2.0025 0.9765
3.0980 -4.6684 -2.0036 0.9765
3.5030 -4.3745 -2.0041 0.9765
4.5397 -3.2931 -2.0056 0.9765
5.0547 -2.4349 -2.0064 0.9764
5.5903 -0.5133 -2.0075 0.9764
5.5933 0.4884 -2.0078 0.9764
5.5276 0.9855 -2.0079 0.9764
5.4177 1.4748 -2.0079 0.9764
5.0690 2.4140 -2.0078 0.9764
4.8331 2.8564 -2.0076 0.9764
4.2477 3.6691 -2.0072 0.9764
3.8947 4.0244 -2.0027 0.9765
3.4209 4.2331 -1.9463 0.9771
2.8854 4.3063 -1.8537 0.9782
2.0733 4.7485 -1.8529 0.9782
1.1958 5.0390 -1.8520 0.9782
0.7413 5.1243 -1.8516 0.9782
0.2785 5.1214 -1.8342 0.9784
-1.0967 5.0543 -1.8495 0.9783
-1.5428 4.9349 -1.8490 0.9783
-1.9764 4.7762 -1.8484 0.9783
-2.7922 4.3465 -1.8474 0.9783
-3.7965 4.0779 -1.9924 0.9766
-4.1562 3.7328 -1.9977 0.9765
-4.7518 2.9337 -1.9970 0.9766
-5.1956 2.0418 -1.9963 0.9766
-5.3562 1.5699 -1.9960 0.9766
-5.4742 1.0856 -1.9957 0.9766
-5.5486 0.5928 -1.9955 0.9766
-5.5788 0.0954 -1.9953 0.9766
-5.5064 -0.8975 -1.9951 0.9766
-5.4043 -1.3852 -1.9951 0.9766
-5.0724 -2.3237 -1.9952 0.9766
-4.8452 -2.7671 -1.9953 0.9766
-4.2771 -3.5849 -1.9957 0.9766
-3.9408 -3.9527 -1.9960 0.9766
-3.1766 -4.5917 -1.9967 0.9766
-2.7548 -4.8577 -1.9970 0.9766
-1.8485 -5.2723 -1.9979 0.9765
-1.3711 -5.4175 -1.9984 0.9765
-0.3866 -5.5779 -1.9995 0.9765
0.6112 -5.5609 -2.0006 0.9765
1.5906 -5.3668 -2.0017 0.9765
2.0637 -5.2050 -2.0023 0.9765
3.3711 -4.4764 -2.0039 0.9765
4.1150 -3.8079 -2.0050 0.9765
4.4394 -3.4264 -2.0054 0.9765
4.7284 -3.0173 -2.0059 0.9765
4.9798 -2.5840 -2.0063 0.9764
5.3615 -1.6584 -2.0070 0.9764
5.4889 -1.1736 -2.0072 0.9764
5.6112 -0.1795 -2.0076 0.9764
5.6053 0.3219 -2.0078 0.9764
5.5544 0.8207 -2.0079 0.9764
5.4591 1.3130 -2.0079 0.9764
4.3551 3.5413 -2.0073 0.9764
4.0167 3.9108 -2.0048 0.9765
3.0314 4.2454 -1.8655 0.9781
2.6235 4.4699 -1.8535 0.9782
2.2138 4.6852 -1.8531 0.9782
1.7866 4.8629 -1.8526 0.9782
1.3453 5.0016 -1.8522 0.9782
0.8934 5.1004 -1.8517 0.9782
-0.0272 5.1752 -1.8507 0.9783
-0.4887 5.1507 -1.8502 0.9783
-1.3955 4.9790 -1.8491 0.9783
-1.8336 4.8333 -1.8486 0.9783
-2.2569 4.6491 -1.8481 0.9783
-2.6619 4.4280 -1.8476 0.9783
-3.0685 4.2032 -1.8610 0.9781
-3.6620 4.1758 -1.9862 0.9767
-4.0397 3.8512 -1.9959 0.9766
-4.6628 3.0740 -1.9972 0.9766
-5.1329 2.1955 -1.9964 0.9766
-5.3074 1.7285 -1.9961 0.9766
-5.4397 1.2480 -1.9958 0.9766
-5.5737 0.2613 -1.9954 0.9766
-5.3123 -1.7046 -1.9951 0.9766
-5.1392 -2.1718 -1.9952 0.9766
-4.3817 -3.4560 -1.9956 0.9766
-4.0564 -3.8336 -1.9959 0.9766
-3.6987 -4.1808 -1.9962 0.9766
-2.8979 -4.7733 -1.9969 0.9766
-1.5314 -5.3739 -1.9983 0.9765
-1.0462 -5.4905 -1.9988 0.9765
0.9414 -5.5156 -2.0010 0.9765
2.3704 -5.0738 -2.0027 0.9765
2.8144 -4.8434 -2.0032 0.9765
4.3352 -3.5566 -2.0053 0.9765
5.3096 -1.8170 -2.0068 0.9764
5.6122 0.1550 -2.0077 0.9764
5.5763 0.6552 -2.0078 0.9764
5.4958 1.1501 -2.0079 0.9764
5.2037 2.1084 -2.0078 0.9764
4.9946 2.5641 -2.0077 0.9764
4.7456 2.9993 -2.0076 0.9764
4.4586 3.4104 -2.0074 0.9764
3.2218 4.2395 -1.9042 0.9776
2.7616 4.4001 -1.8578 0.9782
1.9305 4.8080 -1.8528 0.9782
1.4935 4.9598 -1.8523 0.9782
1.0448 5.0720 -1.8519 0.9782
-0.3353 5.1634 -1.8504 0.9783
-0.7944 5.1115 -1.8499 0.9783
-1.6893 4.8861 -1.8488 0.9783
-2.5293 4.5056 -1.8478 0.9783
-2.9204 4.2608 -1.8473 0.9783
-3.9199 3.9662 -1.9941 0.9766
-4.2658 3.6072 -1.9978 0.9765
-4.5696 3.2115 -1.9973 0.9766
-5.0656 2.3473 -1.9965 0.9766
-5.5636 0.4269 -1.9954 0.9766
-5.4772 -1.0614 -1.9951 0.9766
-5.2014 -2.0180 -1.9951 0.9766
-5.0009 -2.4741 -1.9952 0.9766
-4.1684 -3.7111 -1.9958 0.9766
-2.6088 -4.9381 -1.9972 0.9766
0.2794 -5.5863 -2.0002 0.9765
0.7769 -5.5407 -2.0008 0.9765
1.7503 -5.3174 -2.0019 0.9765
2.2183 -5.1415 -2.0025 0.9765
2.6689 -4.9245 -2.0030 0.9765
3.5035 -4.3742 -2.0041 0.9765
3.8808 -4.0452 -2.0046 0.9765
4.8167 -2.8751 -2.0060 0.9765
5.0550 -2.4343 -2.0064 0.9764
5.5217 -1.0093 -2.0073 0.9764
5.5903 -0.5127 -2.0075 0.9764
5.6142 -0.0119 -2.0077 0.9764
5.5932 0.4890 -2.0078 0.9764
5.5275 0.9861 -2.0079 0.9764
3.4202 4.2331 -1.9462 0.9771
2.8850 4.3066 -1.8537 0.9782
2.0728 4.7488 -1.8529 0.9782
1.6405 4.9136 -1.8525 0.9782
1.1953 5.0391 -1.8520 0.9782
0.7407 5.1244 -1.8516 0.9782
-0.1817 5.1716 -1.8505 0.9783
-1.5433 4.9347 -1.8490 0.9783
-2.3944 4.5793 -1.8479 0.9783
-3.2586 4.1947 -1.8995 0.9777
-3.7970 4.0775 -1.9924 0.9766
-4.4724 3.3462 -1.9975 0.9766
-4.7521 2.9332 -1.9970 0.9766
-4.9939 2.4970 -1.9967 0.9766
-5.5486 0.5922 -1.9955 0.9766
-5.5789 0.0948 -1.9953 0.9766
-5.4042 -1.3857 -1.9951 0.9766
-5.2591 -1.8624 -1.9951 0.9766
-4.2767 -3.5853 -1.9957 0.9766
-3.5725 -4.2896 -1.9963 0.9766
-2.3104 -5.0854 -1.9975 0.9766
-1.8479 -5.2725 -1.9979 0.9765
-1.3705 -5.4177 -1.9984 0.9765
-0.8819 -5.5197 -1.9989 0.9765
0.1132 -5.5916 -2.0000 0.9765
1.1057 -5.4856 -2.0011 0.9765
2.0642 -5.2047 -2.0023 0.9765
2.9580 -4.7577 -2.0034 0.9765
3.7584 -4.1584 -2.0045 0.9765
4.1155 -3.8075 -2.0050 0.9765
4.4398 -3.4259 -2.0054 0.9765
4.7287 -3.0168 -2.0059 0.9765
4.9800 -2.5834 -2.0063 0.9764
5.1916 -2.1292 -2.0066 0.9764
5.3617 -1.6578 -2.0070 0.9764
5.6113 -0.1789 -2.0076 0.9764
5.6052 0.3225 -2.0078 0.9764
5.4590 1.3136 -2.0079 0.9764
5.3200 1.7954 -2.0079 0.9764
5.1384 2.2628 -2.0078 0.9764
4.9158 2.7120 -2.0077 0.9764
4.6538 3.1395 -2.0075 0.9764
4.3547 3.5418 -2.0073 0.9764
3.0307 4.2454 -1.8653 0.9781
2.6230 4.4702 -1.8535 0.9782
2.2133 4.6854 -1.8531 0.9782
1.7860 4.8631 -1.8526 0.9782
1.3447 5.0018 -1.8522 0.9782
0.8929 5.1005 -1.8517 0.9782
0.4325 5.1391 -1.8443 0.9783
-0.9466 5.0850 -1.8497 0.9783
-1.3960 4.9789 -1.8491 0.9783
-2.6624 4.4277 -1.8476 0.9783
-3.6627 4.1757 -1.9863 0.9767
-4.0401 3.8508 -1.9959 0.9766
-4.9177 2.6446 -1.9968 0.9766
-5.1331 2.1949 -1.9964 0.9766
-5.3076 1.7279 -1.9961 0.9766
-5.5288 0.7570 -1.9956 0.9766
-5.5737 0.2607 -1.9954 0.9766
-5.4430 -1.2244 -1.9951 0.9766
-5.1389 -2.1723 -1.9952 0.9766
-4.9249 -2.6223 -1.9953 0.9766
-4.3813 -3.4564 -1.9956 0.9766
-3.3110 -4.4953 -1.9965 0.9766
-2.8974 -4.7736 -1.9969 0.9766
-2.4604 -5.0141 -1.9973 0.9766
-2.0037 -5.2148 -1.9978 0.9765
-1.0456 -5.4906 -1.9988 0.9765
-0.0531 -5.5920 -1.9998 0.9765
0.9421 -5.5155 -2.0010 0.9765
1.4308 -5.4110 -2.0015 0.9765
2.8150 -4.8431 -2.0032 0.9765
3.6328 -4.2680 -2.0043 0.9765
4.0001 -3.9279 -2.0048 0.9765
5.1257 -2.2825 -2.0065 0.9764
5.3098 -1.8164 -2.0068 0.9764
5.5496 -0.8441 -2.0074 0.9764
5.5762 0.6558 -2.0078 0.9764
5.4956 1.1507 -2.0079 0.9764
4.4583 3.4108 -2.0074 0.9764
3.7686 4.1352 -2.0007 0.9765
2.7610 4.4002 -1.8577 0.9782
1.9300 4.8082 -1.8528 0.9782
-5.1940 -0.3753 -1.9956 0.9779
-5.1396 -0.8371 -1.9955 0.9779
-5.0444 -1.2923 -1.9955 0.9779
-4.7346 -2.1683 -1.9956 0.9779
