ply
format ascii 1.0
element vertex 1594
property float32 x
property float32 y
property float32 z
property float32 I
end_header
-10.6575 -1.0353 -2.0126 0.9574
-10.3089 -2.9132 -2.0136 0.9573
-10.0097 -3.8215 -2.0139 0.9573
-9.1734 -5.5399 -2.0143 0.9573
-8.6431 -6.3359 -2.0143 0.9573
-7.3794 -7.7696 -2.0141 0.9573
-5.0573 -9.4410 -2.0131 0.9573
-4.1942 -9.8518 -2.0126 0.9574
-1.4356 -10.5998 -2.0105 0.9574
-0.4845 -10.6813 -2.0097 0.9574
1.4193 -10.5879 -2.0079 0.9575
2.3566 -10.4141 -2.0069 0.9575
5.0211 -9.4044 -2.0038 0.9575
5.8366 -8.9144 -2.0027 0.9576
7.3194 -7.7276 -2.0006 0.9576
8.5666 -6.2979 -1.9985 0.9576
9.0895 -5.5062 -1.9975 0.9577
9.5396 -4.6714 -1.9965 0.9577
9.9136 -3.8004 -1.9956 0.9577
10.2085 -2.9000 -1.9947 0.9577
10.4222 -1.9773 -1.9939 0.9577
10.5531 -1.0397 -1.9932 0.9578
10.6002 -0.0945 -1.9925 0.9578
10.5632 0.8509 -1.9919 0.9578
10.4425 1.7889 -1.9914 0.9578
10.2392 2.7124 -1.9910 0.9578
8.8803 4.1540 -1.8427 0.9609
8.4569 4.9190 -1.8389 0.9610
6.8537 6.9823 -1.8390 0.9610
6.2045 7.5665 -1.8392 0.9610
2.3323 9.5154 -1.8415 0.9609
0.6054 9.7858 -1.8429 0.9609
-0.2697 9.8050 -1.8437 0.9609
-1.1434 9.7463 -1.8445 0.9608
-2.8593 9.3974 -1.8463 0.9608
-5.2529 8.3186 -1.8492 0.9607
-7.2790 6.6423 -1.8522 0.9607
-8.3518 5.2491 -1.8541 0.9606
-9.8866 3.9779 -2.0031 0.9576
-10.4737 2.1663 -2.0103 0.9574
-10.6292 1.2242 -2.0111 0.9574
-10.6998 0.2716 -2.0118 0.9574
-10.5840 -1.6343 -2.0130 0.9573
-10.3984 -2.5722 -2.0134 0.9573
-9.7793 -4.3797 -2.0140 0.9573
-8.8469 -6.0480 -2.0143 0.9573
-8.2723 -6.8127 -2.0143 0.9573
-6.9295 -8.1725 -2.0140 0.9573
-6.1722 -8.7565 -2.0137 0.9573
-5.3657 -9.2702 -2.0133 0.9573
-4.5166 -9.7094 -2.0128 0.9574
-3.6318 -10.0706 -2.0122 0.9574
-1.7840 -10.5483 -2.0108 0.9574
-0.8359 -10.6612 -2.0100 0.9574
1.0701 -10.6308 -2.0083 0.9574
2.0129 -10.4880 -2.0073 0.9575
2.9386 -10.2616 -2.0063 0.9575
9.4038 -0.7467 -1.9940 0.9622
9.2589 1.7675 -1.9925 0.9622
9.0627 2.5856 -1.9921 0.9622
8.7948 3.3829 -1.9918 0.9622
8.1333 3.9942 -1.9153 0.9636
7.4405 4.5188 -1.8401 0.9650
7.0078 5.1642 -1.8401 0.9650
6.5196 5.7687 -1.8401 0.9650
5.9796 6.3274 -1.8402 0.9650
4.7618 7.2908 -1.8407 0.9650
4.0934 7.6879 -1.8411 0.9650
3.3924 8.0241 -1.8415 0.9650
2.6641 8.2968 -1.8420 0.9650
1.9142 8.5039 -1.8425 0.9650
1.1486 8.6435 -1.8431 0.9650
-0.4053 8.7166 -1.8445 0.9650
-1.1814 8.6493 -1.8453 0.9649
-2.7014 8.3092 -1.8469 0.9649
-4.8111 7.3081 -1.8495 0.9649
-6.0385 6.3434 -1.8513 0.9648
-7.0759 5.1747 -1.8530 0.9648
-8.8787 3.3782 -2.0080 0.9619
-9.1481 2.5740 -2.0088 0.9619
-9.3446 1.7487 -2.0096 0.9619
-9.5127 0.0610 -2.0108 0.9619
-9.1960 -2.4607 -2.0122 0.9618
-8.9413 -3.2714 -2.0125 0.9618
-7.2347 -6.1921 -2.0129 0.9618
-6.0188 -7.3776 -2.0126 0.9618
-4.6111 -8.3266 -2.0119 0.9618
-3.8493 -8.7027 -2.0115 0.9618
-3.0572 -9.0089 -2.0110 0.9619
-2.2410 -9.2429 -2.0104 0.9619
1.9656 -9.2869 -2.0065 0.9619
2.7847 -9.0706 -2.0057 0.9620
4.3476 -8.4238 -2.0038 0.9620
5.0790 -7.9988 -2.0028 0.9620
6.4129 -6.9627 -2.0009 0.9620
7.0049 -6.3601 -2.0000 0.9621
7.5407 -5.7075 -1.9990 0.9621
8.0159 -5.0101 -1.9981 0.9621
8.4271 -4.2735 -1.9973 0.9621
9.2468 -1.8884 -1.9949 0.9622
9.3752 -1.0560 -1.9943 0.9622
9.4291 -0.2157 -1.9936 0.9622
8.5653 3.8618 -1.9860 0.9623
7.5854 4.2715 -1.8401 0.9650
7.1740 4.9307 -1.8401 0.9650
5.6140 6.6547 -1.8404 0.9650
4.3440 7.5484 -1.8409 0.9650
3.6544 7.9074 -1.8413 0.9650
2.9354 8.2038 -1.8418 0.9650
0.6600 8.6965 -1.8435 0.9650
-1.6673 8.5713 -1.8458 0.9649
-5.2167 7.0276 -1.8500 0.9649
-6.9005 5.4039 -1.8527 0.9648
-8.7602 3.6676 -2.0075 0.9619
-9.0572 2.8734 -2.0085 0.9619
-9.4303 1.2197 -2.0100 0.9619
-9.5045 0.3741 -2.0106 0.9619
-9.2714 -2.1565 -2.0121 0.9618
-9.0437 -2.9751 -2.0124 0.9618
-7.4347 -5.9507 -2.0129 0.9618
-5.5931 -7.7043 -2.0124 0.9618
-4.1341 -8.5720 -2.0117 0.9618
-1.7164 -9.3526 -2.0100 0.9619
-0.0278 -9.5019 -2.0085 0.9619
1.6592 -9.3481 -2.0069 0.9619
2.4850 -9.1588 -2.0060 0.9619
3.2903 -8.8967 -2.0051 0.9620
6.7929 -6.5884 -2.0003 0.9620
8.2832 -4.5493 -1.9976 0.9621
8.6522 -3.7909 -1.9967 0.9621
8.9522 -3.0031 -1.9959 0.9621
9.3365 -1.3642 -1.9945 0.9622
9.4179 -0.5260 -1.9939 0.9622
9.4246 0.3158 -1.9933 0.9622
8.9992 2.7972 -1.9920 0.9622
7.7221 4.0196 -1.8402 0.9650
6.8849 5.3270 -1.8401 0.9650
4.5898 7.4008 -1.8408 0.9650
3.9123 7.7821 -1.8412 0.9650
3.2036 8.1019 -1.8416 0.9650
2.4690 8.3576 -1.8421 0.9650
0.9458 8.6689 -1.8433 0.9650
-0.6096 8.7056 -1.8447 0.9649
-1.3840 8.6202 -1.8455 0.9649
-2.1481 8.4661 -1.8463 0.9649
-2.8958 8.2446 -1.8471 0.9649
-6.1863 6.2009 -1.8515 0.9648
-7.1961 5.0080 -1.8532 0.9648
-7.6174 4.3483 -1.8540 0.9648
-8.9564 3.1695 -2.0083 0.9619
-9.2069 2.3591 -2.0090 0.9619
-9.3839 1.5293 -2.0097 0.9619
-9.4623 -1.0098 -2.0115 0.9618
-9.3367 -1.8500 -2.0120 0.9618
-9.1362 -2.6757 -2.0123 0.9618
-8.1046 -4.9999 -2.0129 0.9618
-6.4917 -6.9661 -2.0128 0.9618
-5.8440 -7.5163 -2.0125 0.9618
-5.1497 -8.0063 -2.0122 0.9618
-4.4144 -8.4320 -2.0118 0.9618
-3.6441 -8.7900 -2.0114 0.9618
0.5074 -9.4860 -2.0080 0.9619
1.3507 -9.3991 -2.0072 0.9619
3.7852 -8.6947 -2.0045 0.9620
6.5735 -6.8096 -2.0007 0.9620
8.8497 -3.2967 -1.9962 0.9621
9.1049 -2.4934 -1.9955 0.9621
9.2877 -1.6710 -1.9947 0.9622
9.3966 -0.8359 -1.9941 0.9622
9.2754 1.6797 -1.9925 0.9622
8.8266 3.2995 -1.9919 0.9622
8.3144 3.9857 -1.9490 0.9630
7.4831 4.4481 -1.8401 0.9650
5.4566 6.7847 -1.8404 0.9650
4.8306 7.2452 -1.8407 0.9650
1.9947 8.4850 -1.8425 0.9650
1.2305 8.6319 -1.8431 0.9650
0.4560 8.7104 -1.8437 0.9650
-0.3226 8.7197 -1.8444 0.9650
-1.0993 8.6597 -1.8452 0.9649
-1.8679 8.5308 -1.8460 0.9649
-2.6224 8.3340 -1.8468 0.9649
-3.3566 8.0707 -1.8476 0.9649
-4.7413 7.3530 -1.8494 0.9649
-5.9778 6.4000 -1.8512 0.9648
-6.5277 5.8443 -1.8520 0.9648
-7.0261 5.2413 -1.8529 0.9648
-8.8459 3.4621 -2.0080 0.9619
-9.4571 0.9984 -2.0102 0.9619
-9.5114 0.1512 -2.0108 0.9619
-8.6529 -3.9742 -2.0127 0.9618
-8.2647 -4.7303 -2.0129 0.9618
-6.7177 -6.7488 -2.0128 0.9618
-5.4108 -7.8329 -2.0123 0.9618
-3.1426 -8.9798 -2.0110 0.9619
-2.3286 -9.2216 -2.0104 0.9619
0.1949 -9.4990 -2.0083 0.9619
1.0408 -9.4399 -2.0075 0.9619
2.6987 -9.0970 -2.0057 0.9619
5.0032 -8.0470 -2.0029 0.9620
5.6981 -7.5652 -2.0020 0.9620
6.3469 -7.0236 -2.0010 0.9620
6.9446 -6.4266 -2.0001 0.9621
8.3866 -4.3534 -1.9974 0.9621
8.7377 -3.5867 -1.9965 0.9621
9.3651 -1.1449 -1.9943 0.9622
9.4269 -0.3051 -1.9937 0.9622
9.4140 0.5366 -1.9932 0.9622
9.1649 2.1993 -1.9923 0.9622
8.9308 3.0072 -1.9920 0.9622
8.6073 3.7829 -1.9874 0.9623
7.6256 4.1994 -1.8402 0.9650
7.2205 4.8625 -1.8401 0.9650
6.7582 5.4870 -1.8401 0.9650
6.2422 6.0680 -1.8402 0.9650
5.6768 6.6011 -1.8403 0.9650
5.0662 7.0819 -1.8406 0.9650
1.5138 8.5857 -1.8428 0.9650
0.7424 8.6895 -1.8435 0.9650
-0.0354 8.7243 -1.8442 0.9650
-1.5859 8.5863 -1.8457 0.9649
-2.3462 8.4144 -1.8465 0.9649
-3.0886 8.1754 -1.8473 0.9649
-5.7628 6.5922 -1.8508 0.9648
-7.7181 4.1691 -1.8542 0.9648
-8.7187 3.7478 -2.0060 0.9619
-9.5002 0.4642 -2.0106 0.9619
-9.5065 -0.3850 -2.0111 0.9618
-9.2912 -2.0684 -2.0121 0.9618
-9.0713 -2.8892 -2.0124 0.9618
-8.7787 -3.6871 -2.0127 0.9618
-8.4157 -4.4556 -2.0128 0.9618
-7.9852 -5.1885 -2.0129 0.9618
-6.9364 -6.5242 -2.0129 0.9618
-6.3264 -7.1161 -2.0127 0.9618
-5.6660 -7.6510 -2.0125 0.9618
-4.9604 -8.1244 -2.0121 0.9618
-0.9650 -9.4568 -2.0093 0.9619
4.7364 -8.2087 -2.0033 0.9620
6.7305 -6.6529 -2.0004 0.9620
7.7980 -5.3465 -1.9986 0.9621
8.9237 -3.0880 -1.9960 0.9621
9.1600 -2.2791 -1.9953 0.9621
9.4275 0.2264 -1.9934 0.9622
9.0255 2.7118 -1.9921 0.9622
8.7465 3.5053 -1.9918 0.9622
7.8779 4.0062 -1.8682 0.9645
6.9351 5.2615 -1.8401 0.9650
6.4385 5.8591 -1.8401 0.9650
5.8908 6.4104 -1.8403 0.9650
3.2802 8.0710 -1.8416 0.9650
1.0279 8.6592 -1.8432 0.9650
-0.5270 8.7106 -1.8446 0.9650
-1.3021 8.6325 -1.8454 0.9649
-3.5453 7.9908 -1.8479 0.9649
-4.2457 7.6464 -1.8487 0.9649
-5.5417 6.7771 -1.8505 0.9648
-6.1269 6.2590 -1.8514 0.9648
-6.6637 5.6903 -1.8523 0.9648
-7.5754 4.4202 -1.8540 0.9648
-8.5692 4.0227 -2.0010 0.9620
-9.1837 2.4462 -2.0089 0.9619
-9.3686 1.6181 -2.0097 0.9619
-9.5131 -0.0718 -2.0109 0.9619
-9.3536 -1.7613 -2.0119 0.9618
-9.1610 -2.5888 -2.0123 0.9618
-8.1516 -4.9228 -2.0129 0.9618
-7.1475 -6.2924 -2.0129 0.9618
-6.5575 -6.9043 -2.0128 0.9618
-5.9151 -7.4607 -2.0126 0.9618
-5.2255 -7.9572 -2.0123 0.9618
-2.9310 -9.0503 -2.0109 0.9619
-2.1117 -9.2729 -2.0103 0.9619
-1.2760 -9.4211 -2.0096 0.9619
2.0950 -9.2579 -2.0064 0.9619
2.9108 -9.0302 -2.0055 0.9620
6.5090 -6.8720 -2.0008 0.9620
7.6191 -5.6013 -1.9989 0.9621
8.4854 -4.1552 -1.9971 0.9621
8.8185 -3.3806 -1.9963 0.9621
9.0813 -2.5797 -1.9955 0.9621
9.3885 -0.9250 -1.9942 0.9622
9.3982 0.7570 -1.9930 0.9622
9.2911 1.5917 -1.9926 0.9622
8.8576 3.2157 -1.9919 0.9622
8.5019 3.9769 -1.9840 0.9624
7.5249 4.3769 -1.8401 0.9650
7.1045 5.0304 -1.8401 0.9650
6.6277 5.6439 -1.8401 0.9650
1.3122 8.6196 -1.8430 0.9650
-1.0171 8.6694 -1.8451 0.9649
-1.7869 8.5478 -1.8459 0.9649
-2.5431 8.3581 -1.8467 0.9649
-3.2798 8.1017 -1.8476 0.9649
-3.9910 7.7807 -1.8484 0.9649
-4.6711 7.3973 -1.8493 0.9649
-5.3147 6.9546 -1.8502 0.9648
-6.9758 5.3075 -1.8528 0.9648
-7.4246 4.6664 -1.8536 0.9648
-8.0651 4.1153 -1.9139 0.9637
-8.8123 3.5456 -2.0079 0.9619
-9.0970 2.7468 -2.0087 0.9619
-9.3091 1.9254 -2.0094 0.9619
-8.3091 -4.6517 -2.0129 0.9618
-7.8615 -5.3743 -2.0130 0.9618
-7.3509 -6.0538 -2.0129 0.9618
-6.7814 -6.6849 -2.0128 0.9618
-6.1577 -7.2623 -2.0126 0.9618
-4.7683 -8.2380 -2.0120 0.9618
-2.4160 -9.1994 -2.0105 0.9619
0.1049 -9.5008 -2.0084 0.9619
0.9513 -9.4498 -2.0076 0.9619
2.6125 -9.1226 -2.0058 0.9619
3.4139 -8.8493 -2.0049 0.9620
4.1875 -8.5056 -2.0040 0.9620
8.3700 -1.4241 -1.9954 0.9657
8.4852 0.0853 -1.9943 0.9657
8.4418 0.8414 -1.9938 0.9657
8.1551 2.3267 -1.9931 0.9658
7.9141 3.0442 -1.9929 0.9658
6.3062 4.6472 -1.8411 0.9683
5.8668 5.1911 -1.8411 0.9683
4.8522 6.1516 -1.8414 0.9683
3.6834 6.9178 -1.8420 0.9683
3.0525 7.2202 -1.8423 0.9683
1.7223 7.6515 -1.8433 0.9683
1.0335 7.7769 -1.8438 0.9683
-0.3646 7.8420 -1.8451 0.9683
-1.0629 7.7812 -1.8457 0.9682
-1.7531 7.6584 -1.8464 0.9682
-2.4300 7.4745 -1.8472 0.9682
-3.0882 7.2311 -1.8480 0.9682
-6.3630 4.6534 -1.8527 0.9681
-6.8395 4.1198 -1.8765 0.9677
-7.6722 3.7332 -2.0053 0.9655
-7.9832 3.0375 -2.0074 0.9655
-8.2251 2.3143 -2.0082 0.9655
-8.4015 1.5722 -2.0088 0.9655
-8.2667 -2.2120 -2.0112 0.9654
-7.7441 -3.6461 -2.0117 0.9654
-6.9739 -4.9642 -2.0119 0.9654
-6.5034 -5.5662 -2.0118 0.9654
-5.4104 -6.6319 -2.0115 0.9654
-4.7969 -7.0870 -2.0113 0.9654
-4.1451 -7.4853 -2.0110 0.9655
-3.4605 -7.8235 -2.0105 0.9655
-2.0147 -8.3097 -2.0095 0.9655
-1.2654 -8.4537 -2.0090 0.9655
0.2562 -8.5384 -2.0076 0.9655
1.0162 -8.4784 -2.0069 0.9655
3.9099 -7.5758 -2.0036 0.9656
5.1889 -6.7550 -2.0019 0.9656
6.3009 -5.7209 -2.0002 0.9656
6.7831 -5.1341 -1.9994 0.9656
7.2110 -4.5070 -1.9985 0.9657
7.5812 -3.8445 -1.9978 0.9657
7.8909 -3.1520 -1.9970 0.9657
8.3196 -1.6991 -1.9957 0.9657
8.4354 -0.9501 -1.9950 0.9657
8.4842 -0.1941 -1.9945 0.9657
8.4656 0.5631 -1.9940 0.9657
8.3799 1.3154 -1.9936 0.9657
7.7296 3.4850 -1.9927 0.9658
6.4558 4.4371 -1.8411 0.9683
5.5653 5.5136 -1.8412 0.9683
4.4983 6.4157 -1.8415 0.9683
3.9089 6.7924 -1.8418 0.9683
2.6413 7.3818 -1.8426 0.9683
1.9730 7.5899 -1.8431 0.9683
1.2888 7.7378 -1.8436 0.9683
0.5938 7.8243 -1.8442 0.9683
-0.1063 7.8488 -1.8448 0.9683
-3.4915 7.0475 -1.8485 0.9682
-4.1078 6.7109 -1.8492 0.9682
-4.6919 6.3206 -1.8500 0.9682
-5.7449 5.3913 -1.8516 0.9681
-6.6167 4.2886 -1.8532 0.9681
-8.3442 1.8477 -2.0086 0.9655
-8.4783 1.0966 -2.0092 0.9655
-8.5447 0.3363 -2.0098 0.9655
-8.5428 -0.4271 -2.0103 0.9655
-8.1297 -2.6745 -2.0114 0.9654
-7.1335 -4.7319 -2.0119 0.9654
-6.1793 -5.9235 -2.0118 0.9654
-5.6260 -6.4504 -2.0116 0.9654
-5.0278 -6.9256 -2.0114 0.9654
-4.3896 -7.3453 -2.0111 0.9655
-3.7164 -7.7060 -2.0107 0.9655
-3.0138 -8.0049 -2.0103 0.9655
-0.7869 -8.5099 -2.0086 0.9655
-0.0250 -8.5433 -2.0079 0.9655
0.7367 -8.5084 -2.0072 0.9655
1.4919 -8.4056 -2.0064 0.9655
2.9589 -8.0005 -2.0048 0.9656
4.9646 -6.9232 -2.0022 0.9656
5.5597 -6.4502 -2.0014 0.9656
6.1101 -5.9262 -2.0005 0.9656
6.6115 -5.3555 -1.9997 0.9656
7.4516 -4.0926 -1.9980 0.9657
7.7839 -3.4105 -1.9973 0.9657
8.0541 -2.7018 -1.9966 0.9657
8.2915 1.7852 -1.9934 0.9657
8.0980 2.5171 -1.9930 0.9658
7.8404 3.2288 -1.9928 0.9658
7.4975 3.9027 -1.9865 0.9659
6.5984 4.2222 -1.8411 0.9683
6.1956 4.7937 -1.8411 0.9683
5.7436 5.3273 -1.8411 0.9683
5.2461 5.8186 -1.8413 0.9683
2.8826 7.2902 -1.8424 0.9683
2.2216 7.5200 -1.8429 0.9683
1.5426 7.6903 -1.8434 0.9683
0.8510 7.7996 -1.8440 0.9683
0.1521 7.8470 -1.8446 0.9683
-1.9324 7.6160 -1.8466 0.9682
-3.2572 7.1575 -1.8482 0.9682
-3.8841 6.8414 -1.8489 0.9682
-6.0411 5.0604 -1.8521 0.9681
-8.5282 0.6173 -2.0096 0.9655
-8.5515 -0.1456 -2.0101 0.9655
-8.5064 -0.9078 -2.0106 0.9655
-8.3933 -1.6631 -2.0110 0.9655
-7.9667 -3.1284 -2.0115 0.9654
-7.6567 -3.8267 -2.0117 0.9654
-6.3711 -5.7170 -2.0118 0.9654
-5.2533 -6.7567 -2.0115 0.9654
-4.6293 -7.1972 -2.0112 0.9654
-3.2760 -7.9020 -2.0104 0.9655
-1.0668 -8.4804 -2.0088 0.9655
-0.3062 -8.5389 -2.0081 0.9655
2.6943 -8.0947 -2.0051 0.9656
3.4040 -7.8191 -2.0042 0.9656
4.7347 -7.0840 -2.0025 0.9656
5.3452 -6.6307 -2.0017 0.9656
7.3139 -4.3363 -1.9983 0.9657
7.9618 -2.9659 -1.9968 0.9657
8.4858 0.0048 -1.9944 0.9657
8.3463 1.5114 -1.9935 0.9657
7.9427 2.9691 -1.9929 0.9658
7.6376 3.6613 -1.9906 0.9658
6.7709 4.0247 -1.8512 0.9682
6.3500 4.5872 -1.8411 0.9683
5.9158 5.1352 -1.8411 0.9683
3.7488 6.8825 -1.8419 0.9683
1.7947 7.6346 -1.8432 0.9683
1.1071 7.7665 -1.8438 0.9683
0.4103 7.8368 -1.8443 0.9683
-0.2903 7.8449 -1.8450 0.9683
-1.6804 7.6743 -1.8464 0.9682
-2.3590 7.4969 -1.8471 0.9682
-3.0193 7.2597 -1.8479 0.9682
-6.3183 4.7133 -1.8526 0.9681
-7.6316 3.8033 -2.0040 0.9656
-7.9537 3.1129 -2.0074 0.9655
-8.2025 2.3921 -2.0081 0.9655
-8.5509 0.1359 -2.0099 0.9655
-8.5310 -0.6273 -2.0104 0.9655
-8.4429 -1.3858 -2.0108 0.9655
-7.7783 -3.5725 -2.0117 0.9654
-7.0207 -4.8978 -2.0119 0.9654
-6.0386 -6.0667 -2.0117 0.9654
-5.4731 -6.5804 -2.0116 0.9654
-4.8640 -7.0413 -2.0113 0.9654
-4.2160 -7.4458 -2.0110 0.9655
-3.5346 -7.7906 -2.0106 0.9655
0.1753 -8.5407 -2.0077 0.9655
0.9358 -8.4880 -2.0070 0.9655
2.4268 -8.1804 -2.0054 0.9655
3.1452 -7.9281 -2.0046 0.9656
5.1249 -6.8042 -2.0020 0.9656
5.7088 -6.3173 -2.0011 0.9656
6.7344 -5.1985 -1.9994 0.9656
7.5447 -3.9164 -1.9978 0.9657
8.1145 -2.5121 -1.9964 0.9657
8.4263 -1.0301 -1.9951 0.9657
8.4822 -0.2745 -1.9946 0.9657
8.3922 1.2359 -1.9936 0.9657
8.0365 2.7061 -1.9930 0.9658
7.2629 3.9997 -1.9487 0.9665
6.0815 4.9376 -1.8411 0.9683
5.1084 5.9401 -1.8413 0.9683
3.9731 6.7549 -1.8418 0.9683
2.7111 7.3562 -1.8426 0.9683
2.0449 7.5706 -1.8430 0.9683
1.3620 7.7250 -1.8435 0.9683
0.6680 7.8181 -1.8441 0.9683
-0.7319 7.8178 -1.8454 0.9683
-2.1106 7.5694 -1.8468 0.9682
-2.7783 7.3540 -1.8476 0.9682
-4.0438 6.7493 -1.8492 0.9682
-5.6933 5.4453 -1.8515 0.9681
-6.5755 4.3510 -1.8531 0.9681
-7.8458 3.3726 -2.0071 0.9655
-8.4673 1.1769 -2.0091 0.9655
-8.4833 -1.1070 -2.0107 0.9655
-7.8914 -3.3144 -2.0116 0.9654
-7.1780 -4.6640 -2.0118 0.9654
-6.7336 -5.2855 -2.0119 0.9654
-5.0934 -6.8777 -2.0114 0.9654
-3.0896 -7.9762 -2.0103 0.9655
-2.3655 -8.2179 -2.0098 0.9655
-0.8676 -8.5023 -2.0086 0.9655
1.4122 -8.4198 -2.0065 0.9655
2.1565 -8.2570 -2.0057 0.9655
2.8830 -8.0286 -2.0049 0.9656
4.2597 -7.3825 -2.0032 0.9656
5.4986 -6.5029 -2.0014 0.9656
8.0284 -2.7782 -1.9966 0.9657
8.2414 -2.0505 -1.9960 0.9657
8.4828 0.2037 -1.9942 0.9657
8.4290 0.9591 -1.9938 0.9657
8.3082 1.7066 -1.9934 0.9657
8.1217 2.4402 -1.9931 0.9658
5.7938 5.2725 -1.8411 0.9683
5.3010 5.7685 -1.8412 0.9683
4.1930 6.6200 -1.8417 0.9683
2.9515 7.2624 -1.8424 0.9683
1.6154 7.6751 -1.8433 0.9683
0.9248 7.7909 -1.8439 0.9683
-0.4741 7.8366 -1.8452 0.9683
-1.1714 7.7660 -1.8458 0.9682
-2.5343 7.4404 -1.8473 0.9682
-3.8188 6.8776 -1.8489 0.9682
-4.9841 6.0952 -1.8505 0.9682
-5.9926 5.1173 -1.8520 0.9681
-7.0482 4.1126 -1.9179 0.9670
-7.7295 3.6285 -2.0068 0.9655
-8.0252 2.9259 -2.0076 0.9655
-8.4230 1.4548 -2.0089 0.9655
-8.5145 -0.8271 -2.0105 0.9655
-8.4085 -1.5834 -2.0109 0.9655
-8.2352 -2.3272 -2.0113 0.9654
-7.9959 -3.0527 -2.0115 0.9654
-7.6926 -3.7539 -2.0117 0.9654
-6.4250 -5.6564 -2.0118 0.9654
-5.8947 -6.2064 -2.0117 0.9654
-4.6974 -7.1531 -2.0112 0.9654
-2.6350 -8.1363 -2.0100 0.9655
0.3754 -8.5335 -2.0075 0.9655
1.8838 -8.3248 -2.0060 0.9655
2.6176 -8.1204 -2.0052 0.9656
3.3298 -7.8513 -2.0043 0.9656
4.0150 -7.5199 -2.0035 0.9656
4.6676 -7.1289 -2.0026 0.9656
5.2824 -6.6814 -2.0018 0.9656
5.8546 -6.1811 -2.0009 0.9656
6.3798 -5.6320 -2.0001 0.9656
7.6337 -3.7381 -1.9976 0.9657
8.1704 -2.3210 -1.9962 0.9657
8.1980 2.1717 -1.9932 0.9658
6.9075 4.0178 -1.8781 0.9677
6.3932 4.5267 -1.8411 0.9683
5.4878 5.5908 -1.8412 0.9683
4.9678 6.0584 -1.8414 0.9683
4.4084 6.4780 -1.8416 0.9683
3.8138 6.8465 -1.8419 0.9683
2.5381 7.4182 -1.8427 0.9683
1.8670 7.6170 -1.8432 0.9683
1.1807 7.7554 -1.8437 0.9683
0.4846 7.8323 -1.8443 0.9683
-0.9150 7.7993 -1.8456 0.9682
-2.2877 7.5186 -1.8470 0.9682
-2.9502 7.2877 -1.8478 0.9682
-3.5898 6.9985 -1.8486 0.9682
-4.7800 6.2549 -1.8502 0.9682
-5.3210 5.8063 -1.8510 0.9682
-6.2730 4.7728 -1.8525 0.9681
-6.6764 4.1961 -1.8533 0.9681
-8.3696 1.7311 -2.0087 0.9655
-8.4932 0.9782 -2.0093 0.9655
-8.5490 0.2170 -2.0098 0.9655
-8.3069 -2.0548 -2.0111 0.9654
-8.0917 -2.7877 -2.0114 0.9654
-7.8117 -3.4985 -2.0117 0.9654
-7.4692 -4.1815 -2.0118 0.9654
-7.0668 -4.8310 -2.0119 0.9654
-6.6078 -5.4419 -2.0118 0.9654
-5.5354 -6.5283 -2.0116 0.9654
-2.9017 -8.0459 -2.0102 0.9655
-2.1721 -8.2705 -2.0097 0.9655
-0.6680 -8.5196 -2.0085 0.9655
0.8553 -8.4968 -2.0070 0.9655
1.6090 -8.3835 -2.0063 0.9655
2.3492 -8.2033 -2.0055 0.9655
7.6657 0.7640 -1.9946 0.9687
7.5656 1.4443 -1.9942 0.9687
7.4056 2.1128 -1.9940 0.9687
7.1868 2.7644 -1.9937 0.9687
6.5567 3.9821 -1.9862 0.9688
5.7268 4.2202 -1.8419 0.9710
5.3278 4.7141 -1.8419 0.9710
4.4063 5.5863 -1.8422 0.9710
2.1767 6.7789 -1.8434 0.9710
1.5639 6.9477 -1.8439 0.9710
0.3051 7.1190 -1.8449 0.9710
-0.3311 7.1201 -1.8455 0.9710
-0.9650 7.0645 -1.8461 0.9710
-2.2061 6.7857 -1.8474 0.9709
-4.4461 5.5948 -1.8503 0.9709
-4.9292 5.1781 -1.8510 0.9709
-5.7750 4.2233 -1.8524 0.9709
-6.6162 3.9853 -1.9998 0.9686
-6.9676 3.3904 -2.0063 0.9685
-7.6485 -1.3300 -2.0101 0.9684
-7.5006 -2.0070 -2.0104 0.9684
-7.2927 -2.6682 -2.0106 0.9684
-7.0264 -3.3082 -2.0108 0.9684
-6.7038 -3.9218 -2.0109 0.9684
-5.9006 -5.0502 -2.0109 0.9684
-5.4265 -5.5560 -2.0108 0.9684
-4.3524 -6.4303 -2.0104 0.9684
-3.1399 -7.0988 -2.0098 0.9684
-1.1482 -7.6712 -2.0083 0.9685
0.2325 -7.7484 -2.0071 0.9685
0.9222 -7.6943 -2.0064 0.9685
1.6041 -7.5787 -2.0057 0.9685
4.1462 -6.5298 -2.0027 0.9685
6.1579 -4.6609 -1.9996 0.9686
6.5466 -4.0917 -1.9989 0.9686
7.6594 -0.8627 -1.9957 0.9687
7.7039 -0.1762 -1.9952 0.9687
7.6872 0.5113 -1.9948 0.9687
7.2742 2.5265 -1.9938 0.9687
6.6962 3.7708 -1.9898 0.9687
5.8793 4.0409 -1.8471 0.9710
5.4800 4.5361 -1.8419 0.9710
5.0539 5.0069 -1.8420 0.9710
4.5876 5.4380 -1.8421 0.9710
4.0849 5.8261 -1.8423 0.9710
2.9860 6.4611 -1.8429 0.9710
-1.9812 6.8537 -1.8472 0.9710
-2.5855 6.6522 -1.8479 0.9709
-3.1696 6.3976 -1.8486 0.9709
-4.2589 5.7373 -1.8500 0.9709
-4.7554 5.3367 -1.8508 0.9709
-6.3327 4.1045 -1.9539 0.9693
-6.8514 3.6174 -2.0060 0.9685
-7.3899 2.3444 -2.0074 0.9685
-7.5719 1.6766 -2.0080 0.9685
-7.7535 0.3051 -2.0091 0.9684
-7.7515 -0.3875 -2.0095 0.9684
-7.5622 -1.7590 -2.0103 0.9684
-7.1312 -3.0750 -2.0107 0.9684
-6.8291 -3.6989 -2.0109 0.9684
-6.4723 -4.2933 -2.0110 0.9684
-6.0637 -4.8533 -2.0110 0.9684
-5.6065 -5.3745 -2.0109 0.9684
-4.5619 -6.2838 -2.0105 0.9684
-3.9828 -6.6647 -2.0103 0.9684
-2.7346 -7.2635 -2.0095 0.9684
-0.7141 -7.7223 -2.0080 0.9685
-0.0227 -7.7528 -2.0073 0.9685
1.3539 -7.6284 -2.0060 0.9685
2.0280 -7.4746 -2.0053 0.9685
3.3210 -6.9902 -2.0038 0.9685
3.9296 -6.6637 -2.0030 0.9685
6.0020 -4.8618 -1.9999 0.9686
7.0671 -3.0965 -1.9977 0.9686
7.6946 -0.4298 -1.9954 0.9687
7.7005 0.2580 -1.9949 0.9687
7.6453 0.9434 -1.9945 0.9687
7.5294 1.6211 -1.9942 0.9687
7.3538 2.2858 -1.9939 0.9687
7.1199 2.9321 -1.9937 0.9687
5.6263 4.3532 -1.8419 0.9710
4.2743 5.6882 -1.8422 0.9710
3.1968 6.3589 -1.8428 0.9710
1.4007 6.9829 -1.8440 0.9710
0.7727 7.0819 -1.8445 0.9710
0.1381 7.1247 -1.8451 0.9710
-0.4979 7.1110 -1.8457 0.9710
-1.7543 6.9142 -1.8469 0.9710
-2.3648 6.7327 -1.8476 0.9709
-2.9568 6.4975 -1.8483 0.9709
-4.0671 5.8735 -1.8498 0.9709
-5.0497 5.0616 -1.8512 0.9709
-5.9196 4.1197 -1.8673 0.9706
-7.7595 -0.1322 -2.0094 0.9684
-7.7184 -0.8237 -2.0098 0.9684
-7.6156 -1.5090 -2.0101 0.9684
-7.4518 -2.1824 -2.0104 0.9684
-7.2283 -2.8385 -2.0107 0.9684
-6.2202 -4.6511 -2.0110 0.9684
-5.7805 -5.1871 -2.0109 0.9684
-5.2946 -5.6816 -2.0108 0.9684
-4.7665 -6.1305 -2.0106 0.9684
-4.2003 -6.5303 -2.0104 0.9684
-3.6007 -6.8777 -2.0100 0.9684
-2.9725 -7.1701 -2.0097 0.9684
-2.3208 -7.4049 -2.0092 0.9684
-0.9680 -7.6954 -2.0082 0.9685
-0.2779 -7.7488 -2.0076 0.9685
0.4140 -7.7402 -2.0069 0.9685
1.1022 -7.6699 -2.0063 0.9685
1.7811 -7.5383 -2.0056 0.9685
2.4453 -7.3468 -2.0048 0.9685
3.0895 -7.0968 -2.0041 0.9685
3.7086 -6.7904 -2.0033 0.9685
4.2977 -6.4301 -2.0025 0.9685
4.8521 -6.0189 -2.0017 0.9686
5.3674 -5.5601 -2.0009 0.9686
7.2288 -2.6929 -1.9973 0.9686
7.5876 -1.3651 -1.9961 0.9686
7.7055 0.0044 -1.9951 0.9687
7.4254 2.0425 -1.9940 0.9687
6.5976 3.9217 -1.9872 0.9688
4.9352 5.1241 -1.8420 0.9710
3.9473 5.9204 -1.8424 0.9710
3.4042 6.2498 -1.8427 0.9710
2.8338 6.5296 -1.8430 0.9710
2.2408 6.7578 -1.8434 0.9710
0.3725 7.1155 -1.8449 0.9710
-2.1415 6.8060 -1.8474 0.9709
-2.7410 6.5904 -1.8481 0.9709
-4.3926 5.6365 -1.8502 0.9709
-4.8796 5.2243 -1.8509 0.9709
-5.7344 4.2777 -1.8524 0.9709
-6.5745 4.0456 -1.9987 0.9686
-6.9349 3.4561 -2.0062 0.9685
-7.2179 2.8249 -2.0069 0.9685
-7.6097 1.4988 -2.0081 0.9685
-7.7151 0.8145 -2.0087 0.9685
-7.7408 -0.5692 -2.0096 0.9684
-7.6606 -1.2574 -2.0100 0.9684
-7.5192 -1.9358 -2.0103 0.9684
-7.3176 -2.5989 -2.0106 0.9684
-7.0574 -3.2414 -2.0108 0.9684
-5.9482 -4.9941 -2.0109 0.9684
-5.4789 -5.5043 -2.0109 0.9684
-4.9659 -5.9705 -2.0107 0.9684
-3.8254 -6.7559 -2.0102 0.9684
-2.5635 -7.3251 -2.0094 0.9684
-1.8996 -7.5228 -2.0089 0.9684
0.8493 -7.7029 -2.0065 0.9685
2.2025 -7.4243 -2.0051 0.9685
2.8547 -7.1956 -2.0043 0.9685
6.1137 -4.7193 -1.9997 0.9686
6.5078 -4.1538 -1.9990 0.9686
6.8498 -3.5557 -1.9982 0.9686
7.1371 -2.9297 -1.9976 0.9686
7.6207 1.1223 -1.9944 0.9687
5.9890 4.0332 -1.8695 0.9706
5.1011 4.9587 -1.8420 0.9710
3.0470 6.4324 -1.8429 0.9710
2.4618 6.6798 -1.8432 0.9710
1.8568 6.8743 -1.8437 0.9710
1.2367 7.0143 -1.8441 0.9710
0.6065 7.0986 -1.8447 0.9710
-0.0289 7.1266 -1.8452 0.9710
-1.2952 7.0128 -1.8465 0.9710
-2.5222 6.6761 -1.8478 0.9709
-3.6708 6.1266 -1.8492 0.9709
-5.1675 4.9424 -1.8514 0.9709
-6.2099 4.1091 -1.9280 0.9697
-6.8146 3.6810 -2.0054 0.9685
-7.6834 1.0679 -2.0085 0.9685
-7.7500 0.3787 -2.0090 0.9684
-7.3988 -2.3565 -2.0105 0.9684
-7.1600 -3.0072 -2.0107 0.9684
-6.8638 -3.6340 -2.0109 0.9684
-6.5127 -4.2317 -2.0110 0.9684
-6.1094 -4.7956 -2.0110 0.9684
-5.1599 -5.8040 -2.0108 0.9684
-4.0459 -6.6267 -2.0103 0.9684
-3.4383 -6.9599 -2.0100 0.9684
-2.8035 -7.2374 -2.0096 0.9684
-2.1465 -7.4568 -2.0091 0.9684
-1.4726 -7.6166 -2.0086 0.9685
-0.0962 -7.7525 -2.0074 0.9685
1.2816 -7.6412 -2.0061 0.9685
3.2547 -7.0217 -2.0039 0.9685
4.4468 -6.3270 -2.0023 0.9686
4.9913 -5.9029 -2.0015 0.9686
6.3684 -4.3663 -1.9992 0.9686
6.7299 -3.7797 -1.9985 0.9686
7.4829 -1.8618 -1.9965 0.9686
7.7028 0.1850 -1.9950 0.9687
7.5445 1.5497 -1.9942 0.9687
6.8630 3.4901 -1.9935 0.9687
5.6673 4.2997 -1.8419 0.9710
5.2615 4.7880 -1.8419 0.9710
4.3279 5.6474 -1.8422 0.9710
2.6802 6.5946 -1.8431 0.9710
1.4668 6.9691 -1.8440 0.9710
0.2057 7.1229 -1.8450 0.9710
-1.0635 7.0508 -1.8462 0.9710
-2.3007 6.7546 -1.8476 0.9709
-3.4666 6.2433 -1.8490 0.9709
-4.0111 5.9116 -1.8497 0.9709
-5.8337 4.1426 -1.8525 0.9709
-6.6767 3.8958 -2.0015 0.9686
-7.7602 -0.0586 -2.0093 0.9684
-7.6294 -1.4367 -2.0101 0.9684
-7.2549 -2.7698 -2.0107 0.9684
-5.3483 -5.6311 -2.0108 0.9684
-4.8244 -6.0851 -2.0106 0.9684
-4.2621 -6.4903 -2.0104 0.9684
-2.3910 -7.3828 -2.0093 0.9684
-1.7227 -7.5647 -2.0088 0.9685
1.0295 -7.6802 -2.0063 0.9685
1.7097 -7.5552 -2.0056 0.9685
2.3757 -7.3699 -2.0049 0.9685
3.0222 -7.1260 -2.0041 0.9685
4.2367 -6.4708 -2.0026 0.9685
4.7950 -6.0649 -2.0018 0.9686
5.7915 -5.1128 -2.0003 0.9686
6.6027 -3.9997 -1.9988 0.9686
7.2032 -2.7614 -1.9974 0.9686
7.6791 0.6185 -1.9947 0.9687
7.5919 1.3006 -1.9943 0.9687
7.4445 1.9721 -1.9940 0.9687
7.2381 2.6277 -1.9938 0.9687
5.4161 4.6122 -1.8419 0.9710
4.9835 5.0770 -1.8420 0.9710
4.5113 5.5016 -1.8421 0.9710
4.0032 5.8827 -1.8424 0.9710
3.4632 6.2171 -1.8426 0.9710
2.8956 6.5023 -1.8430 0.9710
2.3047 6.7360 -1.8433 0.9710
1.6953 6.9164 -1.8438 0.9710
1.0721 7.0419 -1.8443 0.9710
-0.8308 7.0811 -1.8460 0.9710
-2.0769 6.8257 -1.8473 0.9710
-3.2587 6.3531 -1.8487 0.9709
-4.8297 5.2702 -1.8509 0.9709
-5.2825 4.8204 -1.8516 0.9709
-5.6934 4.3318 -1.8523 0.9709
-6.5195 4.0975 -1.9937 0.9687
-6.9016 3.5216 -2.0061 0.9685
-7.5949 1.5709 -2.0081 0.9685
-7.7068 0.8876 -2.0086 0.9685
-7.7456 -0.4957 -2.0096 0.9684
-7.6721 -1.1847 -2.0100 0.9684
-6.7769 -3.7939 -2.0109 0.9684
-5.9953 -4.9375 -2.0109 0.9684
-4.4737 -6.3468 -2.0105 0.9684
-3.8893 -6.7194 -2.0102 0.9684
-2.6329 -7.3007 -2.0094 0.9684
-1.9709 -7.5046 -2.0090 0.9684
-1.2936 -7.6485 -2.0084 0.9685
0.0856 -7.7520 -2.0072 0.9685
0.7762 -7.7109 -2.0066 0.9685
3.4181 -6.9428 -2.0037 0.9685
7.0491 0.0708 -1.9956 0.9711
7.0133 0.6990 -1.9953 0.9711
6.9219 1.3214 -1.9949 0.9711
6.5755 2.5293 -1.9944 0.9711
6.3233 3.1053 -1.9943 0.9711
6.0162 3.6538 -1.9926 0.9712
4.8746 4.3131 -1.8426 0.9733
4.0315 5.1111 -1.8428 0.9733
1.9914 6.2018 -1.8440 0.9733
0.8585 6.4600 -1.8449 0.9733
0.2791 6.5126 -1.8453 0.9733
-0.3029 6.5134 -1.8459 0.9733
-0.8827 6.4624 -1.8464 0.9732
-1.4559 6.3600 -1.8470 0.9732
-2.0179 6.2069 -1.8477 0.9732
-3.5926 5.4572 -1.8496 0.9732
-4.0663 5.1169 -1.8503 0.9732
-4.5080 4.7356 -1.8509 0.9732
-4.9141 4.3163 -1.8516 0.9732
-5.6073 4.1008 -1.9666 0.9715
-6.0673 3.6547 -2.0051 0.9710
-6.3715 3.1003 -2.0059 0.9710
-6.6246 2.5206 -2.0065 0.9710
-7.0952 0.0455 -2.0086 0.9709
-7.0724 -0.5875 -2.0090 0.9709
-6.9930 -1.2160 -2.0094 0.9709
-6.6675 -2.4395 -2.0099 0.9709
-6.1290 -3.5855 -2.0102 0.9709
-5.7850 -4.1178 -2.0102 0.9709
-5.3947 -4.6172 -2.0102 0.9709
-4.9612 -5.0797 -2.0101 0.9709
-4.4882 -5.5014 -2.0099 0.9709
-3.4387 -6.2096 -2.0095 0.9709
-2.8708 -6.4904 -2.0091 0.9709
-2.2802 -6.7193 -2.0087 0.9709
1.4669 -6.9305 -2.0054 0.9710
2.6728 -6.5553 -2.0041 0.9710
3.7921 -5.9720 -2.0027 0.9710
4.7891 -5.1997 -2.0012 0.9710
5.2319 -4.7503 -2.0005 0.9710
5.6327 -4.2633 -1.9998 0.9711
5.9884 -3.7428 -1.9992 0.9711
6.2962 -3.1929 -1.9985 0.9711
6.5538 -2.6179 -1.9979 0.9711
6.7592 -2.0225 -1.9973 0.9711
6.9107 -1.4113 -1.9968 0.9711
7.0330 0.4678 -1.9954 0.9711
6.9620 1.0929 -1.9950 0.9711
6.4222 2.8955 -1.9943 0.9711
6.1381 3.4565 -1.9942 0.9711
5.7851 3.9761 -1.9872 0.9712
4.6240 4.5810 -1.8427 0.9733
4.1974 4.9754 -1.8428 0.9733
3.7374 5.3304 -1.8430 0.9733
3.2476 5.6432 -1.8432 0.9733
2.7319 5.9113 -1.8435 0.9733
2.1943 6.1325 -1.8438 0.9733
0.4933 6.4992 -1.8452 0.9733
-0.0883 6.5191 -1.8457 0.9733
-0.6694 6.4872 -1.8462 0.9733
-1.2456 6.4037 -1.8468 0.9732
-2.3649 6.0847 -1.8481 0.9732
-3.4105 5.5718 -1.8494 0.9732
-6.5373 2.7370 -2.0063 0.9710
-6.7574 2.1438 -2.0069 0.9710
-7.0288 -0.9851 -2.0093 0.9709
-6.9140 -1.6082 -2.0096 0.9709
-6.2436 -3.3818 -2.0101 0.9709
-4.6670 -5.3508 -2.0100 0.9709
-3.6415 -6.0934 -2.0096 0.9709
-1.8978 -6.8362 -2.0085 0.9709
-1.2803 -6.9765 -2.0080 0.9709
-0.0207 -7.0892 -2.0069 0.9710
0.6113 -7.0607 -2.0063 0.9710
1.8546 -6.8354 -2.0050 0.9710
3.0372 -6.3929 -2.0036 0.9710
4.6160 -5.3553 -2.0015 0.9710
6.1884 -3.3988 -1.9987 0.9711
6.4648 -2.8326 -1.9981 0.9711
6.6897 -2.2441 -1.9975 0.9711
7.0396 -0.3932 -1.9960 0.9711
7.0451 0.2360 -1.9955 0.9711
6.7282 2.0913 -1.9946 0.9711
6.5142 2.6827 -1.9944 0.9711
5.2272 4.0444 -1.8710 0.9729
4.3587 4.8344 -1.8427 0.9733
2.3948 6.0565 -1.8437 0.9733
1.8456 6.2472 -1.8441 0.9733
1.2814 6.3883 -1.8445 0.9733
0.7069 6.4788 -1.8450 0.9733
-0.4555 6.5050 -1.8460 0.9733
-1.0340 6.4405 -1.8466 0.9732
-1.6047 6.3247 -1.8472 0.9732
-2.1631 6.1585 -1.8478 0.9732
-2.7045 5.9431 -1.8485 0.9732
-3.2248 5.6803 -1.8491 0.9732
-3.7198 5.3720 -1.8498 0.9732
-4.1855 5.0207 -1.8504 0.9732
-5.0144 4.2003 -1.8517 0.9732
-6.1522 3.5120 -2.0055 0.9710
-6.4430 2.9503 -2.0061 0.9710
-6.8686 1.7600 -2.0073 0.9710
-7.0001 1.1408 -2.0078 0.9709
-7.0756 0.5122 -2.0083 0.9709
-6.8130 -1.9953 -2.0097 0.9709
-6.6087 -2.5951 -2.0099 0.9709
-6.3514 -3.1744 -2.0101 0.9709
-6.0433 -3.7282 -2.0102 0.9709
-5.6868 -4.2523 -2.0102 0.9709
-1.5094 -6.9312 -2.0082 0.9709
-0.2541 -7.0854 -2.0071 0.9710
0.3786 -7.0778 -2.0065 0.9710
1.0079 -7.0136 -2.0059 0.9710
1.6288 -6.8936 -2.0053 0.9710
2.8255 -6.4902 -2.0039 0.9710
3.3918 -6.2102 -2.0032 0.9710
4.9093 -5.0856 -2.0010 0.9710
5.7305 -4.1298 -1.9997 0.9711
6.8042 -1.8634 -1.9972 0.9711
7.0496 0.0040 -1.9957 0.9711
6.0534 3.5983 -1.9936 0.9711
4.9152 4.2667 -1.8426 0.9733
4.5154 4.6882 -1.8427 0.9733
4.0797 5.0726 -1.8428 0.9733
2.5927 5.9740 -1.8436 0.9733
2.0500 6.1825 -1.8439 0.9733
-0.2411 6.5158 -1.8458 0.9733
-1.3955 6.3733 -1.8470 0.9732
-2.5071 6.0281 -1.8482 0.9732
-3.5405 5.4908 -1.8495 0.9732
-4.0175 5.1551 -1.8502 0.9732
-4.4627 4.7780 -1.8509 0.9732
-4.8727 4.3625 -1.8515 0.9732
-6.8063 1.9849 -2.0071 0.9710
-6.9580 1.3705 -2.0076 0.9709
-7.0942 0.1128 -2.0086 0.9709
-7.0041 -1.1496 -2.0093 0.9709
-6.8747 -1.7699 -2.0096 0.9709
-6.6903 -2.3761 -2.0099 0.9709
-5.8237 -4.0628 -2.0102 0.9709
-5.4382 -4.5659 -2.0102 0.9709
-4.5402 -5.4587 -2.0100 0.9709
-2.9323 -6.4631 -2.0092 0.9709
-1.7369 -6.8784 -2.0083 0.9709
-0.4872 -7.0739 -2.0073 0.9710
3.1859 -6.3193 -2.0034 0.9710
3.7354 -6.0079 -2.0027 0.9710
4.2547 -5.6489 -2.0020 0.9710
5.1868 -4.7999 -2.0006 0.9710
5.5922 -4.3167 -1.9999 0.9711
5.9528 -3.7996 -1.9992 0.9711
6.7399 -2.0866 -1.9974 0.9711
6.8972 -1.4768 -1.9968 0.9711
7.0373 0.4011 -1.9954 0.9711
6.4494 2.8346 -1.9943 0.9711
5.8251 3.9228 -1.9881 0.9712
4.6672 4.5370 -1.8426 0.9733
3.7877 5.2947 -1.8429 0.9733
2.2523 6.1112 -1.8438 0.9733
1.1314 6.4170 -1.8446 0.9733
0.5548 6.4940 -1.8451 0.9733
-1.1848 6.4150 -1.8468 0.9732
-1.7527 6.2859 -1.8474 0.9732
-2.8433 5.8786 -1.8486 0.9732
-3.8451 5.2838 -1.8500 0.9732
-4.3025 4.9216 -1.8506 0.9732
-4.7259 4.5200 -1.8513 0.9732
-5.8937 3.8998 -2.0007 0.9710
-7.0253 0.9765 -2.0079 0.9709
-7.0903 -0.2871 -2.0088 0.9709
-7.0377 -0.9184 -2.0092 0.9709
-6.2753 -3.3224 -2.0101 0.9709
-5.9543 -3.8689 -2.0102 0.9709
-4.2252 -5.7054 -2.0098 0.9709
-3.1437 -6.3634 -2.0093 0.9709
-1.9626 -6.8180 -2.0085 0.9709
-0.7199 -7.0547 -2.0075 0.9710
1.1719 -6.9875 -2.0057 0.9710
1.7898 -6.8529 -2.0051 0.9710
2.9765 -6.4216 -2.0037 0.9710
4.0670 -5.7866 -2.0023 0.9710
4.5652 -5.3990 -2.0016 0.9710
5.0266 -4.9686 -2.0009 0.9710
5.4478 -4.4990 -2.0002 0.9711
5.8253 -3.9940 -1.9995 0.9711
6.1562 -3.4575 -1.9988 0.9711
6.4379 -2.8938 -1.9982 0.9711
7.0027 0.7968 -1.9952 0.9711
6.9026 1.4178 -1.9949 0.9711
6.7478 2.0274 -1.9946 0.9711
6.2792 3.1932 -1.9943 0.9711
5.9605 3.7348 -1.9913 0.9712
5.3238 4.0391 -1.8918 0.9726
4.8139 4.3808 -1.8426 0.9733
4.4044 4.7929 -1.8427 0.9733
3.9598 5.1670 -1.8429 0.9733
2.4521 6.0334 -1.8437 0.9733
1.3419 6.3757 -1.8445 0.9733
0.7682 6.4716 -1.8449 0.9733
0.1882 6.5161 -1.8454 0.9733
-1.5446 6.3394 -1.8471 0.9732
-2.1045 6.1785 -1.8478 0.9732
-2.6479 5.9683 -1.8484 0.9732
-3.1707 5.7104 -1.8490 0.9732
-3.6686 5.4068 -1.8497 0.9732
-6.1184 3.5701 -2.0054 0.9710
-6.4145 3.0112 -2.0060 0.9710
-6.6595 2.4280 -2.0066 0.9710
-6.8514 1.8250 -2.0072 0.9710
-5.7269 -4.1982 -2.0102 0.9709
-5.3297 -4.6921 -2.0102 0.9709
-4.8898 -5.1484 -2.0101 0.9709
-3.8968 -5.9339 -2.0097 0.9709
-3.3516 -6.2569 -2.0094 0.9709
-1.5751 -6.9168 -2.0082 0.9709
-0.9519 -7.0279 -2.0077 0.9709
0.9414 -7.0231 -2.0060 0.9710
2.1725 -6.7398 -2.0047 0.9710
3.8748 -5.9181 -2.0025 0.9710
4.3856 -5.5471 -2.0018 0.9710
4.8610 -5.1321 -2.0011 0.9710
5.2974 -4.6765 -2.0004 0.9711
5.6913 -4.1841 -1.9997 0.9711
6.3399 -3.1045 -1.9984 0.9711
6.5894 -2.5261 -1.9978 0.9711
6.7865 -1.9278 -1.9972 0.9711
6.9295 -1.3147 -1.9967 0.9711
7.0494 -0.0628 -1.9957 0.9711
6.9459 1.1899 -1.9950 0.9711
6.8112 1.8043 -1.9947 0.9711
6.6224 2.4042 -1.9945 0.9711
6.3811 2.9849 -1.9943 0.9711
4.5596 4.6452 -1.8427 0.9733
3.6627 5.3822 -1.8430 0.9733
2.1085 6.1627 -1.8439 0.9733
-0.1793 6.5175 -1.8458 0.9733
-1.3350 6.3860 -1.8469 0.9732
-1.8997 6.2436 -1.8475 0.9732
-2.4498 6.0514 -1.8482 0.9732
-2.9806 5.8109 -1.8488 0.9732
-3.9683 5.1927 -1.8501 0.9732
-4.4171 4.8199 -1.8508 0.9732
-6.5752 2.6456 -2.0064 0.9710
-6.9446 1.4364 -2.0076 0.9709
-7.0927 0.1800 -2.0085 0.9709
-6.7124 -2.3126 -2.0099 0.9709
-6.4801 -2.9021 -2.0100 0.9709
-5.8620 -4.0074 -2.0102 0.9709
-5.0567 -4.9847 -2.0101 0.9709
-4.5918 -5.4154 -2.0100 0.9709
-3.5560 -6.1435 -2.0095 0.9709
-0.5543 -7.0692 -2.0074 0.9710
0.0782 -7.0885 -2.0068 0.9710
0.7098 -7.0511 -2.0062 0.9710
1.3353 -6.9575 -2.0056 0.9710
2.5482 -6.6053 -2.0042 0.9710
3.1260 -6.3495 -2.0035 0.9710
6.4007 -1.0890 -1.9970 0.9732
6.4708 -0.5138 -1.9966 0.9732
6.4896 0.0652 -1.9962 0.9732
6.4568 0.6435 -1.9958 0.9732
6.0539 2.3287 -1.9950 0.9732
5.8217 2.8590 -1.9949 0.9732
5.2093 3.8388 -1.9903 0.9733
4.5799 4.0524 -1.8809 0.9747
4.1162 4.3556 -1.8433 0.9752
3.2776 5.0184 -1.8436 0.9752
2.8174 5.2914 -1.8438 0.9752
2.3347 5.5224 -1.8441 0.9752
0.2569 5.9953 -1.8457 0.9752
-0.2788 5.9959 -1.8462 0.9752
-0.8126 5.9488 -1.8467 0.9752
-2.8446 5.2959 -1.8490 0.9752
-3.7426 4.7095 -1.8502 0.9751
-4.1490 4.3585 -1.8508 0.9751
-4.6774 4.1085 -1.9149 0.9743
-5.2515 3.8405 -2.0011 0.9731
-6.2804 1.7671 -2.0067 0.9731
-6.4146 1.2004 -2.0072 0.9731
-6.4345 -1.1189 -2.0088 0.9730
-6.1348 -2.2446 -2.0093 0.9730
-5.3227 -3.7888 -2.0096 0.9730
-4.9636 -4.2483 -2.0095 0.9730
-4.5648 -4.6738 -2.0095 0.9730
-4.1296 -5.0619 -2.0093 0.9730
-3.6614 -5.4094 -2.0091 0.9730
-2.6416 -5.9721 -2.0086 0.9730
-2.0981 -6.1828 -2.0082 0.9730
-1.5381 -6.3440 -2.0078 0.9731
-0.9661 -6.4544 -2.0073 0.9731
0.7761 -6.4748 -2.0058 0.9731
1.9127 -6.2302 -2.0046 0.9731
2.4599 -6.0329 -2.0039 0.9731
3.9650 -5.1617 -2.0020 0.9731
4.4081 -4.7860 -2.0013 0.9731
5.1848 -3.9243 -2.0000 0.9732
5.7958 -2.9392 -1.9988 0.9732
6.2223 -1.8618 -1.9977 0.9732
6.3619 -1.2993 -1.9972 0.9732
6.4749 0.4307 -1.9959 0.9732
6.4096 1.0061 -1.9956 0.9732
6.1275 2.1282 -1.9951 0.9732
5.9128 2.6659 -1.9950 0.9732
5.6512 3.1823 -1.9948 0.9732
5.3404 3.6704 -1.9931 0.9732
4.8755 4.0358 -1.9467 0.9739
3.8644 4.5808 -1.8434 0.9752
2.0201 5.6458 -1.8443 0.9752
0.9856 5.9173 -1.8451 0.9752
-1.1466 5.8947 -1.8471 0.9752
-2.1768 5.6008 -1.8482 0.9752
-2.6684 5.3861 -1.8488 0.9752
-3.5851 4.8296 -1.8500 0.9751
-5.4696 3.5451 -2.0048 0.9731
-6.4730 0.8372 -2.0075 0.9731
-6.5232 0.2567 -2.0080 0.9730
-6.4674 -0.9064 -2.0087 0.9730
-6.2052 -2.0413 -2.0092 0.9730
-5.9990 -2.5868 -2.0094 0.9730
-5.1008 -4.0826 -2.0096 0.9730
-4.7163 -4.5211 -2.0095 0.9730
-4.2941 -4.9234 -2.0094 0.9730
-3.8376 -5.2862 -2.0092 0.9730
-2.8369 -5.8823 -2.0087 0.9730
-2.3007 -6.1108 -2.0083 0.9730
-1.1781 -6.4196 -2.0075 0.9731
-0.6009 -6.4976 -2.0070 0.9731
0.5626 -6.4975 -2.0060 0.9731
1.1394 -6.4196 -2.0054 0.9731
1.7068 -6.2905 -2.0048 0.9731
2.7953 -5.8836 -2.0035 0.9731
3.7934 -5.2900 -2.0022 0.9731
5.0533 -4.0933 -2.0002 0.9732
5.6966 -3.1287 -1.9990 0.9732
6.3163 -1.5081 -1.9974 0.9732
6.4808 -0.3620 -1.9964 0.9732
6.4860 0.2173 -1.9961 0.9732
6.3422 1.3655 -1.9954 0.9732
5.9975 2.4699 -1.9950 0.9732
5.7530 2.9946 -1.9949 0.9732
5.4629 3.4956 -1.9948 0.9732
5.1128 3.9560 -1.9884 0.9733
3.6004 4.7915 -1.8435 0.9752
3.1592 5.0940 -1.8437 0.9752
1.6991 5.7513 -1.8446 0.9752
0.6507 5.9643 -1.8454 0.9752
0.1163 6.0001 -1.8458 0.9752
-2.4894 5.4703 -1.8486 0.9752
-3.4237 4.9444 -1.8498 0.9751
-4.8944 4.0999 -1.9638 0.9736
-6.1493 2.1761 -2.0063 0.9731
-6.3205 1.6196 -2.0069 0.9731
-6.5108 0.4713 -2.0078 0.9731
-6.4934 -0.6930 -2.0086 0.9730
-6.2688 -1.8359 -2.0091 0.9730
-6.0807 -2.3878 -2.0093 0.9730
-5.8439 -2.9207 -2.0095 0.9730
-5.5604 -3.4303 -2.0095 0.9730
-4.4540 -4.7795 -2.0094 0.9730
-3.0292 -5.7860 -2.0088 0.9730
-0.8145 -6.4749 -2.0072 0.9731
-0.2338 -6.5201 -2.0067 0.9731
2.6004 -5.9731 -2.0038 0.9731
3.1216 -5.7156 -2.0031 0.9731
3.6177 -5.4127 -2.0024 0.9731
4.9164 -4.2580 -2.0005 0.9731
5.5911 -3.3149 -1.9992 0.9732
6.2638 -1.7154 -1.9976 0.9732
6.4658 -0.5752 -1.9966 0.9732
5.8486 2.8037 -1.9949 0.9732
5.5750 3.3139 -1.9948 0.9732
5.2475 3.7908 -1.9911 0.9733
4.6630 4.0477 -1.8992 0.9745
3.7561 4.6702 -1.8434 0.9752
2.8674 5.2643 -1.8438 0.9752
2.3869 5.4999 -1.8441 0.9752
1.8873 5.6918 -1.8444 0.9752
1.3725 5.8386 -1.8448 0.9752
0.8466 5.9391 -1.8452 0.9752
-0.2219 5.9981 -1.8462 0.9752
-1.2846 5.8667 -1.8472 0.9752
-1.8031 5.7305 -1.8478 0.9752
-2.3077 5.5487 -1.8484 0.9752
-3.2587 5.0538 -1.8496 0.9751
-3.6976 4.7446 -1.8502 0.9751
-4.5927 4.1118 -1.8960 0.9745
-6.0738 2.3771 -2.0061 0.9731
-6.4912 0.6853 -2.0076 0.9731
-6.5278 0.1038 -2.0081 0.9730
-6.5123 -0.4788 -2.0084 0.9730
-6.4447 -1.0578 -2.0088 0.9730
-6.3255 -1.6285 -2.0090 0.9730
-5.9368 -2.7267 -2.0094 0.9730
-5.6703 -3.2454 -2.0095 0.9730
-5.3584 -3.7382 -2.0096 0.9730
-4.6090 -4.6303 -2.0095 0.9730
-4.1774 -5.0225 -2.0093 0.9730
-3.7126 -5.3745 -2.0091 0.9730
-3.2181 -5.6835 -2.0089 0.9730
-2.6981 -5.9469 -2.0086 0.9730
-1.0273 -6.4451 -2.0074 0.9731
-0.4484 -6.5094 -2.0069 0.9731
0.1338 -6.5218 -2.0064 0.9731
2.4026 -6.0562 -2.0040 0.9731
2.9322 -5.8160 -2.0033 0.9731
3.4380 -5.5295 -2.0027 0.9731
3.9160 -5.1992 -2.0020 0.9731
4.3626 -4.8277 -2.0014 0.9731
4.7742 -4.4180 -2.0007 0.9731
5.1475 -3.9734 -2.0001 0.9732
5.4796 -3.4975 -1.9995 0.9732
5.7679 -2.9941 -1.9989 0.9732
6.0102 -2.4671 -1.9983 0.9732
6.2045 -1.9208 -1.9977 0.9732
6.4871 -0.2100 -1.9963 0.9732
6.3082 1.5138 -1.9954 0.9732
6.1474 2.0700 -1.9951 0.9732
5.9378 2.6097 -1.9950 0.9732
4.2970 4.1771 -1.8432 0.9752
3.9076 4.5439 -1.8433 0.9752
3.4872 4.8747 -1.8435 0.9752
3.0390 5.1668 -1.8437 0.9752
1.5639 5.7898 -1.8447 0.9752
0.5108 5.9783 -1.8455 0.9752
-1.0907 5.9051 -1.8470 0.9752
-3.0902 5.1577 -1.8493 0.9752
-3.9599 4.5297 -1.8506 0.9751
-4.3494 4.1599 -1.8512 0.9751
-5.4356 3.5967 -2.0047 0.9731
-5.9916 2.5755 -2.0059 0.9731
-6.1991 2.0315 -2.0065 0.9731
-5.4785 -3.5598 -2.0096 0.9730
-5.1393 -4.0341 -2.0096 0.9730
-3.8876 -5.2496 -2.0092 0.9730
-3.4036 -5.5747 -2.0090 0.9730
-2.3586 -6.0888 -2.0084 0.9730
-0.6625 -6.4918 -2.0071 0.9731
-0.0809 -6.5233 -2.0066 0.9731
0.5009 -6.5028 -2.0060 0.9731
1.6471 -6.3066 -2.0049 0.9731
2.7394 -5.9100 -2.0036 0.9731
4.2019 -4.9693 -2.0016 0.9731
5.0145 -4.1412 -2.0003 0.9732
6.1386 -2.1242 -1.9979 0.9732
6.3019 -1.5680 -1.9974 0.9732
6.4772 -0.4234 -1.9965 0.9732
6.4878 0.1558 -1.9961 0.9732
6.2125 1.8666 -1.9952 0.9732
6.0207 2.4129 -1.9950 0.9732
5.7812 2.9400 -1.9949 0.9732
5.4958 3.4436 -1.9948 0.9732
3.2073 5.0638 -1.8436 0.9752
2.2575 5.5546 -1.8442 0.9752
1.7535 5.7348 -1.8445 0.9752
1.2354 5.8696 -1.8449 0.9752
-0.3625 5.9917 -1.8463 0.9752
-0.8956 5.9372 -1.8468 0.9752
-1.4219 5.8354 -1.8474 0.9752
-1.9371 5.6869 -1.8479 0.9752
-2.4373 5.4935 -1.8485 0.9752
-3.3766 4.9764 -1.8497 0.9751
-4.2096 4.3003 -1.8509 0.9751
-4.8054 4.1034 -1.9436 0.9739
-5.6306 3.2854 -2.0051 0.9731
-6.3047 1.6794 -2.0068 0.9731
-6.4310 1.1107 -2.0073 0.9731
-6.5058 0.5330 -2.0078 0.9731
-6.4996 -0.6314 -2.0085 0.9730
-6.4184 -1.2086 -2.0088 0.9730
-5.8713 -2.8652 -2.0095 0.9730
-5.2693 -3.8627 -2.0096 0.9730
-4.9038 -4.3172 -2.0095 0.9730
-4.4991 -4.7370 -2.0094 0.9730
-3.5855 -5.4599 -2.0091 0.9730
-3.0839 -5.7571 -2.0088 0.9730
-2.5579 -6.0083 -2.0085 0.9730
-1.4494 -6.3646 -2.0077 0.9731
-0.2956 -6.5177 -2.0068 0.9731
0.8663 -6.4630 -2.0057 0.9731
1.4388 -6.3581 -2.0051 0.9731
2.5437 -5.9977 -2.0038 0.9731
3.0674 -5.7451 -2.0032 0.9731
3.5663 -5.4469 -2.0025 0.9731
4.8760 -4.3045 -2.0006 0.9731
5.2388 -3.8514 -1.9999 0.9732
5.5596 -3.3679 -1.9993 0.9732
5.8361 -2.8578 -1.9987 0.9732
6.2474 -1.7747 -1.9976 0.9732
6.4680 0.5210 -1.9959 0.9732
6.2708 1.6612 -1.9953 0.9732
6.0971 2.2135 -1.9951 0.9732
5.8749 2.7481 -1.9949 0.9732
4.7477 4.0430 -1.9180 0.9742
2.9172 5.2368 -1.8438 0.9752
2.4389 5.4769 -1.8441 0.9752
1.9412 5.6736 -1.8444 0.9752
0.9029 5.9307 -1.8452 0.9752
-0.6996 5.9628 -1.8466 0.9752
-2.7435 5.3486 -1.8489 0.9752
-3.6523 4.7793 -1.8501 0.9751
-4.0653 4.4360 -1.8507 0.9751
-4.5095 4.1150 -1.8777 0.9748
-5.1731 3.9359 -1.9993 0.9732
-5.5188 3.4686 -2.0049 0.9731
-5.8079 2.9635 -2.0055 0.9731
-6.0508 2.4345 -2.0061 0.9731
-6.2454 1.8858 -2.0066 0.9731
-6.3903 1.3217 -2.0071 0.9731
-6.3406 -1.5684 -2.0090 0.9730
-5.7008 -3.1915 -2.0095 0.9730
-5.3936 -3.6872 -2.0096 0.9730
-4.6527 -4.5864 -2.0095 0.9730
-3.7634 -5.3391 -2.0092 0.9730
-3.2719 -5.6528 -2.0089 0.9730
-2.7544 -5.9212 -2.0086 0.9730
-0.5101 -6.5051 -2.0070 0.9731
0.0720 -6.5230 -2.0064 0.9731
0.6532 -6.4887 -2.0059 0.9731
2.3452 -6.0789 -2.0041 0.9731
2.8770 -5.8437 -2.0034 0.9731
5.9888 -0.4755 -1.9970 0.9750
5.7736 1.6472 -1.9958 0.9750
4.4812 3.9650 -1.9889 0.9751
3.4353 4.3553 -1.8439 0.9769
3.0336 4.6448 -1.8441 0.9769
2.6076 4.8974 -1.8443 0.9769
1.6968 5.2843 -1.8449 0.9769
0.7314 5.5039 -1.8456 0.9769
-0.2580 5.5489 -1.8465 0.9769
-0.7520 5.5053 -1.8470 0.9769
-1.2402 5.4177 -1.8475 0.9768
-1.7189 5.2871 -1.8480 0.9768
-3.4630 4.3577 -1.8502 0.9768
-3.9144 4.1121 -1.8872 0.9764
-4.8669 3.5593 -2.0042 0.9749
-5.9344 1.1105 -2.0069 0.9749
-6.0201 -0.5001 -2.0080 0.9749
-5.9524 -1.0351 -2.0083 0.9749
-5.6751 -2.0764 -2.0087 0.9748
-5.2166 -3.0518 -2.0090 0.9748
-4.9238 -3.5049 -2.0090 0.9748
-4.5916 -3.9299 -2.0090 0.9748
-4.2227 -4.3235 -2.0089 0.9748
-3.8201 -4.6826 -2.0088 0.9748
-3.3871 -5.0041 -2.0086 0.9749
-2.9270 -5.2856 -2.0084 0.9749
-2.4437 -5.5247 -2.0081 0.9749
-1.9410 -5.7197 -2.0078 0.9749
-1.4230 -5.8689 -2.0074 0.9749
-0.8938 -5.9712 -2.0070 0.9749
2.2760 -5.5820 -2.0038 0.9749
2.7638 -5.3552 -2.0032 0.9749
3.6689 -4.7762 -2.0020 0.9749
4.0789 -4.4287 -2.0014 0.9749
4.4563 -4.0461 -2.0008 0.9749
4.7979 -3.6315 -2.0002 0.9750
5.1011 -3.1883 -1.9996 0.9750
5.3636 -2.7200 -1.9990 0.9750
5.8879 -1.2024 -1.9976 0.9750
6.0054 -0.1374 -1.9967 0.9750
5.9323 0.9312 -1.9961 0.9750
5.2306 2.9455 -1.9954 0.9750
4.9470 3.4001 -1.9953 0.9750
4.0913 4.0533 -1.9144 0.9760
3.1847 4.5422 -1.8440 0.9769
1.3965 5.3722 -1.8451 0.9769
0.9121 5.4764 -1.8455 0.9769
0.4202 5.5371 -1.8459 0.9769
-0.0752 5.5539 -1.8463 0.9769
-2.0144 5.1828 -1.8483 0.9768
-2.4692 4.9840 -1.8489 0.9768
-4.3628 4.0942 -1.9888 0.9751
-4.7437 3.7149 -2.0028 0.9749
-5.0606 3.2800 -2.0046 0.9749
-5.3344 2.8165 -2.0052 0.9749
-5.5658 2.3302 -2.0057 0.9749
-5.7529 1.8251 -2.0062 0.9749
-6.0347 0.2375 -2.0075 0.9749
-6.0329 -0.3016 -2.0079 0.9749
-5.8851 -1.3689 -2.0085 0.9749
-5.7402 -1.8884 -2.0087 0.9748
-5.5494 -2.3929 -2.0088 0.9748
-4.7185 -3.7767 -2.0090 0.9748
-4.3629 -4.1823 -2.0089 0.9748
-3.9723 -4.5544 -2.0088 0.9748
-2.6244 -5.4416 -2.0082 0.9749
-2.1283 -5.6531 -2.0079 0.9749
-0.0176 -6.0354 -2.0062 0.9749
0.5205 -6.0114 -2.0057 0.9749
1.5791 -5.8201 -2.0046 0.9749
3.0606 -5.1900 -2.0028 0.9749
3.5101 -4.8949 -2.0022 0.9749
4.6762 -3.7879 -2.0004 0.9750
5.2717 -2.8953 -1.9992 0.9750
5.6992 -1.9119 -1.9982 0.9750
5.8456 -1.3957 -1.9977 0.9750
5.9454 -0.8687 -1.9973 0.9750
5.9980 -0.3350 -1.9969 0.9750
6.0029 0.2011 -1.9965 0.9750
5.9601 0.7355 -1.9962 0.9750
5.8700 1.2639 -1.9959 0.9750
5.3248 2.7717 -1.9954 0.9750
5.0562 3.2354 -1.9954 0.9750
4.7440 3.6705 -1.9938 0.9750
4.3542 4.0386 -1.9741 0.9753
2.9240 4.7147 -1.8441 0.9769
1.5725 5.3229 -1.8450 0.9769
1.0918 5.4430 -1.8453 0.9769
-1.3670 5.3876 -1.8476 0.9768
-3.1680 4.5751 -1.8498 0.9768
-3.5645 4.2757 -1.8504 0.9768
-4.0953 4.1050 -1.9275 0.9759
-5.6892 2.0133 -2.0060 0.9749
-5.9591 0.9712 -2.0070 0.9749
-6.0392 -0.1029 -2.0078 0.9749
-6.0070 -0.6411 -2.0081 0.9749
-5.7991 -1.6983 -2.0086 0.9749
-5.6250 -2.2089 -2.0088 0.9748
-5.4060 -2.7018 -2.0089 0.9748
-5.1437 -3.1733 -2.0090 0.9748
-4.4982 -4.0364 -2.0090 0.9748
-4.1202 -4.4213 -2.0089 0.9748
-3.7092 -4.7707 -2.0087 0.9748
-3.2687 -5.0820 -2.0085 0.9749
-2.8022 -5.3525 -2.0083 0.9749
-2.3134 -5.5803 -2.0080 0.9749
-1.8063 -5.7634 -2.0077 0.9749
-1.2849 -5.9003 -2.0073 0.9749
-0.7535 -5.9901 -2.0068 0.9749
1.3868 -5.8696 -2.0048 0.9749
1.9042 -5.7209 -2.0042 0.9749
2.4060 -5.5267 -2.0036 0.9749
3.3474 -5.0084 -2.0024 0.9749
3.7795 -4.6885 -2.0018 0.9749
4.8813 -3.5178 -2.0000 0.9750
5.1741 -3.0676 -1.9995 0.9750
5.6337 -2.0986 -1.9984 0.9750
5.9141 -1.0640 -1.9974 0.9750
5.9814 0.5389 -1.9963 0.9750
5.7890 1.5924 -1.9958 0.9750
5.6234 2.1021 -1.9956 0.9750
5.1600 3.0672 -1.9954 0.9750
3.4764 4.3225 -1.8439 0.9769
2.6539 4.8723 -1.8443 0.9769
1.7468 5.2679 -1.8448 0.9769
0.7835 5.4966 -1.8456 0.9769
0.2904 5.5458 -1.8460 0.9769
-0.2054 5.5510 -1.8464 0.9769
-0.6997 5.5120 -1.8469 0.9769
-1.1888 5.4291 -1.8474 0.9768
-3.0154 4.6764 -1.8496 0.9768
-3.4214 4.3902 -1.8502 0.9768
-3.8433 4.1148 -1.8716 0.9765
-4.8328 3.6051 -2.0042 0.9749
-5.3993 2.6909 -2.0053 0.9749
-5.6193 2.1993 -2.0058 0.9749
-5.7944 1.6898 -2.0063 0.9749
-5.9234 1.1667 -2.0068 0.9749
-5.9619 -0.9786 -2.0083 0.9749
-5.4919 -2.5224 -2.0089 0.9748
-5.2453 -3.0022 -2.0090 0.9748
-4.9568 -3.4580 -2.0090 0.9748
-4.2636 -4.2833 -2.0089 0.9748
-3.4344 -4.9718 -2.0086 0.9749
-2.4960 -5.5014 -2.0081 0.9749
-1.9952 -5.7011 -2.0078 0.9749
-0.9504 -5.9626 -2.0070 0.9749
0.1238 -6.0337 -2.0061 0.9749
1.1930 -5.9126 -2.0050 0.9749
1.7150 -5.7811 -2.0044 0.9749
3.6236 -4.8109 -2.0020 0.9749
4.0369 -4.4673 -2.0014 0.9749
4.7634 -3.6770 -2.0002 0.9750
5.0708 -3.2366 -1.9997 0.9750
5.9638 -0.7291 -1.9972 0.9750
6.0039 -0.1943 -1.9968 0.9750
5.9963 0.3418 -1.9964 0.9750
5.8385 1.4010 -1.9959 0.9750
5.6898 1.9159 -1.9957 0.9750
5.2583 2.8957 -1.9954 0.9750
3.6168 4.2056 -1.8438 0.9769
1.4474 5.3586 -1.8450 0.9769
0.4727 5.5328 -1.8458 0.9769
-0.0225 5.5542 -1.8463 0.9769
-0.5179 5.5315 -1.8467 0.9769
-1.4930 5.3545 -1.8477 0.9768
-1.9651 5.2015 -1.8483 0.9768
-2.4218 5.0070 -1.8488 0.9768
-2.8595 4.7726 -1.8494 0.9768
-3.6640 4.1913 -1.8505 0.9768
-4.2841 4.0974 -1.9705 0.9753
-4.7064 3.7582 -2.0020 0.9749
-5.5433 2.3828 -2.0056 0.9749
-5.8813 1.3609 -2.0066 0.9749
-6.0321 0.2947 -2.0075 0.9749
-5.5718 -2.3402 -2.0088 0.9748
-5.0679 -3.2930 -2.0090 0.9748
-4.7541 -3.7318 -2.0090 0.9748
-4.4023 -4.1407 -2.0090 0.9748
-3.1486 -5.1571 -2.0085 0.9749
-1.1462 -5.9285 -2.0072 0.9749
-0.6129 -6.0058 -2.0067 0.9749
-0.0749 -6.0351 -2.0062 0.9749
0.9978 -5.9493 -2.0052 0.9749
1.5239 -5.8350 -2.0046 0.9749
2.0376 -5.6742 -2.0041 0.9749
3.0113 -5.2189 -2.0029 0.9749
3.4636 -4.9281 -2.0023 0.9749
4.6403 -3.8322 -2.0005 0.9750
4.9621 -3.4021 -1.9999 0.9750
5.2442 -2.9453 -1.9993 0.9750
5.4844 -2.4652 -1.9988 0.9750
5.6810 -1.9659 -1.9983 0.9750
5.8322 -1.4511 -1.9978 0.9750
5.9371 -0.9251 -1.9973 0.9750
5.9947 -0.3919 -1.9969 0.9750
5.9669 0.6790 -1.9962 0.9750
5.8818 1.2081 -1.9960 0.9750
5.7500 1.7276 -1.9957 0.9750
5.5725 2.2333 -1.9956 0.9750
5.3508 2.7211 -1.9954 0.9750
4.4232 4.0252 -1.9880 0.9751
3.7531 4.0842 -1.8438 0.9769
3.3742 4.4029 -1.8439 0.9769
2.9685 4.6867 -1.8441 0.9769
2.5391 4.9334 -1.8443 0.9769
2.0893 5.1409 -1.8446 0.9769
1.1433 5.4323 -1.8453 0.9769
0.6545 5.5138 -1.8457 0.9769
-0.8288 5.4944 -1.8470 0.9768
-1.3158 5.4001 -1.8476 0.9768
-1.7926 5.2628 -1.8481 0.9768
-3.1244 4.6048 -1.8497 0.9768
-3.5236 4.3092 -1.8503 0.9768
-4.0212 4.1079 -1.9108 0.9761
-4.5739 3.9058 -1.9993 0.9750
-4.9163 3.4911 -2.0043 0.9749
-5.8328 1.5537 -2.0065 0.9749
-5.9495 1.0276 -2.0069 0.9749
-6.0398 -0.0456 -2.0077 0.9749
-6.0127 -0.5841 -2.0081 0.9749
-5.9375 -1.1181 -2.0083 0.9749
-5.8148 -1.6432 -2.0086 0.9749
-5.4313 -2.6504 -2.0089 0.9748
-4.5363 -3.9936 -2.0090 0.9748
-3.3168 -5.0508 -2.0086 0.9749
-1.3408 -5.8880 -2.0073 0.9749
-0.8103 -5.9829 -2.0069 0.9749
0.2652 -6.0288 -2.0059 0.9749
0.8015 -5.9795 -2.0054 0.9749
1.8499 -5.7389 -2.0043 0.9749
