ply
format ascii 1.0
element vertex 1597
property float32 x
property float32 y
property float32 z
property float32 I
end_header
4.4919 -3.9370 -1.9855 0.9751
4.8217 -3.5183 -1.9841 0.9752
5.1130 -3.0725 -1.9829 0.9752
5.3637 -2.6030 -1.9818 0.9752
5.5719 -2.1134 -1.9809 0.9752
5.8549 -1.0895 -1.9796 0.9752
5.9276 -0.5630 -1.9792 0.9752
5.9328 0.4988 -1.9791 0.9752
5.8653 1.0259 -1.9793 0.9752
5.7516 1.5450 -1.9796 0.9752
5.5925 2.0523 -1.9802 0.9752
4.8567 3.4640 -1.9830 0.9752
4.5313 3.8857 -1.9842 0.9752
4.1578 4.2650 -1.9799 0.9752
2.6762 4.8430 -1.8393 0.9769
2.2359 5.0671 -1.8410 0.9769
1.7769 5.2514 -1.8428 0.9769
0.8176 5.4948 -1.8466 0.9769
-1.1598 5.4573 -1.8545 0.9768
-2.1151 5.1752 -1.8584 0.9767
-4.3520 3.9453 -1.9526 0.9755
-4.8441 3.6606 -2.0183 0.9747
-5.4332 2.7502 -2.0242 0.9747
-5.6595 2.2558 -2.0252 0.9746
-5.9141 -1.4829 -2.0267 0.9746
-5.7568 -2.0038 -2.0262 0.9746
-5.5531 -2.5082 -2.0254 0.9746
-4.3159 -4.2812 -2.0207 0.9747
-3.9140 -4.6454 -2.0192 0.9747
-3.0215 -5.2576 -2.0157 0.9748
-2.5382 -5.5009 -2.0138 0.9748
-2.0356 -5.6997 -2.0118 0.9748
-0.9889 -5.9583 -2.0077 0.9749
0.0849 -6.0263 -2.0034 0.9749
0.6213 -5.9883 -2.0012 0.9749
1.1515 -5.9028 -1.9991 0.9750
2.6644 -5.3710 -1.9930 0.9750
3.5694 -4.8035 -1.9893 0.9751
3.9801 -4.4623 -1.9876 0.9751
4.3586 -4.0864 -1.9860 0.9751
4.7022 -3.6789 -1.9846 0.9751
5.0083 -3.2428 -1.9833 0.9752
5.4988 -2.2993 -1.9812 0.9752
5.6796 -1.7991 -1.9804 0.9752
5.9058 -0.7613 -1.9794 0.9752
5.4707 2.3613 -1.9807 0.9752
5.2406 2.8409 -1.9815 0.9752
4.9690 3.2986 -1.9825 0.9752
4.6579 3.7307 -1.9837 0.9752
3.8088 4.3698 -1.9269 0.9759
2.8360 4.7490 -1.8387 0.9770
2.4035 4.9875 -1.8404 0.9769
1.9511 5.1870 -1.8421 0.9769
1.4824 5.3457 -1.8440 0.9769
1.0009 5.4622 -1.8459 0.9769
0.0148 5.5649 -1.8498 0.9768
-1.4632 5.3877 -1.8558 0.9767
-1.9397 5.2412 -1.8577 0.9767
-2.8454 4.8229 -1.8614 0.9767
-4.7116 3.8152 -2.0152 0.9748
-5.0514 3.3922 -2.0226 0.9747
-5.3370 2.9301 -2.0238 0.9747
-5.7779 1.9374 -2.0257 0.9746
-6.0337 0.8808 -2.0269 0.9746
-6.0891 0.3394 -2.0272 0.9746
-6.0526 -0.7475 -2.0272 0.9746
-5.8214 -1.8100 -2.0264 0.9746
-5.4032 -2.8130 -2.0249 0.9746
-4.0687 -4.5130 -2.0198 0.9747
-3.6471 -4.8539 -2.0182 0.9747
-2.2263 -5.6304 -2.0126 0.9748
-1.7137 -5.8006 -2.0106 0.9748
-1.1885 -5.9242 -2.0085 0.9749
-0.6548 -6.0002 -2.0063 0.9749
0.4204 -6.0082 -2.0020 0.9749
1.4777 -5.8256 -1.9978 0.9750
1.9892 -5.6647 -1.9957 0.9750
2.4839 -5.4593 -1.9937 0.9750
3.4076 -4.9220 -1.9899 0.9751
3.8295 -4.5946 -1.9882 0.9751
4.5775 -3.8354 -1.9851 0.9751
5.9204 0.6306 -1.9791 0.9752
5.8413 1.1562 -1.9793 0.9752
5.7162 1.6727 -1.9798 0.9752
4.0594 4.3538 -1.9787 0.9752
3.3994 4.3697 -1.8403 0.9769
2.9926 4.6497 -1.8380 0.9770
2.1231 5.1168 -1.8415 0.9769
-0.7910 5.5183 -1.8531 0.9768
-2.2303 5.1282 -1.8589 0.9767
-2.6813 4.9138 -1.8607 0.9767
-3.1116 4.6595 -1.8625 0.9767
-3.5178 4.3674 -1.8641 0.9766
-4.5311 3.9276 -1.9932 0.9750
-4.9293 3.5556 -2.0203 0.9747
-6.0740 0.5432 -2.0271 0.9746
-6.0988 -0.0005 -2.0273 0.9746
-6.0010 -1.0836 -2.0270 0.9746
-5.7103 -2.1312 -2.0260 0.9746
-5.4954 -2.6308 -2.0252 0.9746
-4.9356 -3.5613 -2.0231 0.9747
-2.9031 -5.3223 -2.0152 0.9748
-2.4147 -5.5547 -2.0133 0.9748
-1.9079 -5.7421 -2.0113 0.9748
-0.8559 -5.9773 -2.0071 0.9749
0.2189 -6.0213 -2.0028 0.9749
0.7541 -5.9714 -2.0007 0.9749
1.2822 -5.8742 -1.9986 0.9750
1.7990 -5.7304 -1.9965 0.9750
2.3004 -5.5416 -1.9945 0.9750
2.7826 -5.3092 -1.9925 0.9750
3.2418 -5.0352 -1.9906 0.9751
4.7821 -3.5727 -1.9842 0.9752
5.5480 -2.1762 -1.9810 0.9752
5.8424 -1.1554 -1.9797 0.9752
5.7685 1.4801 -1.9796 0.9752
5.6151 1.9891 -1.9801 0.9752
5.1767 2.9572 -1.9817 0.9752
4.8950 3.4088 -1.9828 0.9752
3.1457 4.5454 -1.8374 0.9770
-0.1090 5.5654 -1.8503 0.9768
-0.6055 5.5395 -1.8523 0.9768
-1.0981 5.4693 -1.8543 0.9768
-3.3684 4.4814 -1.8635 0.9766
-4.2641 3.9539 -1.9330 0.9758
-5.1265 3.2795 -2.0229 0.9747
-5.8202 1.8085 -2.0259 0.9746
-5.9601 1.2828 -2.0265 0.9746
-6.0521 0.7464 -2.0270 0.9746
-6.0343 -0.8819 -2.0271 0.9746
-5.3387 -2.9322 -2.0246 0.9747
-5.0533 -3.3947 -2.0236 0.9747
-4.7276 -3.8294 -2.0223 0.9747
-3.9665 -4.6015 -2.0194 0.9747
-3.0808 -5.2239 -2.0159 0.9748
-1.5838 -5.8358 -2.0100 0.9748
0.0170 -6.0277 -2.0037 0.9749
0.5538 -5.9958 -2.0015 0.9749
1.0851 -5.9162 -1.9994 0.9750
4.3128 -4.1357 -1.9862 0.9751
5.2432 -2.8412 -1.9823 0.9752
5.4729 -2.3612 -1.9813 0.9752
5.8010 -1.3506 -1.9799 0.9752
5.9464 -0.2987 -1.9791 0.9752
5.9491 0.2327 -1.9790 0.9752
5.8144 1.2859 -1.9794 0.9752
5.6779 1.7996 -1.9799 0.9752
5.2720 2.7816 -1.9814 0.9752
4.6992 3.6777 -1.9836 0.9752
3.2952 4.4360 -1.8369 0.9770
2.8890 4.7162 -1.8384 0.9770
2.0092 5.1640 -1.8419 0.9769
1.5423 5.3279 -1.8437 0.9769
1.0622 5.4499 -1.8457 0.9769
-1.4022 5.4031 -1.8555 0.9767
-1.8803 5.2621 -1.8575 0.9767
-2.7906 4.8541 -1.8612 0.9767
-3.6149 4.2890 -1.8645 0.9766
-4.0120 3.9784 -1.8781 0.9765
-5.0123 3.4486 -2.0224 0.9747
-5.3032 2.9898 -2.0237 0.9747
-5.5516 2.5064 -2.0247 0.9747
-5.7555 2.0023 -2.0256 0.9746
-6.0232 0.9488 -2.0268 0.9746
-6.0848 0.4080 -2.0272 0.9746
-6.0973 -0.1362 -2.0273 0.9746
-6.0607 -0.6793 -2.0272 0.9746
-5.8416 -1.7443 -2.0265 0.9746
-5.4349 -2.7521 -2.0250 0.9746
-5.1653 -3.2241 -2.0240 0.9747
-4.8544 -3.6697 -2.0228 0.9747
-4.5049 -4.0852 -2.0215 0.9747
-3.7020 -4.8130 -2.0184 0.9747
-1.7792 -5.7817 -2.0108 0.9748
-0.7225 -5.9933 -2.0066 0.9749
1.4122 -5.8426 -1.9980 0.9750
1.9255 -5.6875 -1.9960 0.9750
2.4225 -5.4877 -1.9940 0.9750
2.8993 -5.2447 -1.9920 0.9751
3.7779 -4.6379 -1.9884 0.9751
4.1730 -4.2791 -1.9868 0.9751
4.8596 -3.4649 -1.9839 0.9752
5.5945 -2.0520 -1.9808 0.9752
5.8663 -1.0251 -1.9795 0.9752
5.9270 0.5639 -1.9791 0.9752
5.1103 3.0720 -1.9820 0.9752
4.8187 3.5174 -1.9831 0.9752
3.4773 4.3675 -1.8557 0.9767
2.6232 4.8726 -1.8395 0.9769
1.2437 5.4091 -1.8449 0.9769
-0.2329 5.5631 -1.8508 0.9768
-2.6254 4.9431 -1.8605 0.9767
-3.0586 4.6937 -1.8622 0.9767
-3.4680 4.4063 -1.8639 0.9766
-4.4396 3.9367 -1.9723 0.9753
-4.8864 3.6090 -2.0193 0.9747
-5.4635 2.6905 -2.0244 0.9747
-5.6843 2.1937 -2.0253 0.9746
-5.9876 1.1499 -2.0267 0.9746
-6.0674 0.6116 -2.0271 0.9746
-6.0802 -0.4758 -2.0273 0.9746
-5.8973 -1.5477 -2.0267 0.9746
-5.2715 -3.0498 -2.0244 0.9747
-4.2683 -4.3280 -2.0206 0.9747
-3.8624 -4.6877 -2.0190 0.9747
-1.9727 -5.7210 -2.0116 0.9748
-1.4532 -5.8681 -2.0095 0.9748
-0.9233 -5.9680 -2.0074 0.9749
-0.3871 -6.0202 -2.0053 0.9749
0.1511 -6.0242 -2.0031 0.9749
2.2381 -5.5678 -1.9947 0.9750
3.1853 -5.0720 -1.9908 0.9751
4.7420 -3.6267 -1.9844 0.9751
5.5234 -2.2387 -1.9811 0.9752
5.6988 -1.7366 -1.9803 0.9752
5.8292 -1.2212 -1.9797 0.9752
5.9515 -0.1664 -1.9791 0.9752
5.9425 0.3650 -1.9790 0.9752
5.8867 0.8934 -1.9792 0.9752
5.7846 1.4150 -1.9795 0.9752
5.4447 2.4214 -1.9807 0.9752
5.2094 2.8985 -1.9816 0.9752
4.9328 3.3532 -1.9827 0.9752
4.2556 4.1729 -1.9812 0.9752
2.3489 5.0142 -1.8406 0.9769
1.8943 5.2087 -1.8424 0.9769
1.4238 5.3623 -1.8442 0.9769
-0.0463 5.5655 -1.8501 0.9768
-0.5429 5.5452 -1.8521 0.9768
5.0669 -2.2524 -1.9829 0.9767
5.5366 0.1557 -1.9807 0.9767
5.4218 1.1367 -1.9810 0.9767
4.4080 3.3724 -1.9848 0.9767
4.0923 3.7543 -1.9860 0.9767
3.7376 4.1003 -1.9841 0.9767
2.7344 4.3557 -1.8391 0.9784
2.3371 4.5860 -1.8407 0.9784
1.4881 4.9371 -1.8440 0.9783
0.5887 5.1329 -1.8476 0.9783
0.1288 5.1701 -1.8494 0.9783
-0.3330 5.1661 -1.8513 0.9782
-0.7931 5.1210 -1.8531 0.9782
-1.2477 5.0348 -1.8550 0.9782
-2.5429 4.5379 -1.8602 0.9781
-2.9400 4.2968 -1.8618 0.9781
-3.9099 3.9633 -1.9909 0.9766
-4.6202 3.2541 -2.0209 0.9763
-5.4763 1.4363 -2.0246 0.9762
-5.6466 0.4410 -2.0254 0.9762
-5.6638 -0.0643 -2.0255 0.9762
-5.4430 -1.5604 -2.0249 0.9762
-5.2807 -2.0389 -2.0243 0.9762
-5.0760 -2.5007 -2.0235 0.9762
-4.8306 -2.9420 -2.0226 0.9763
-4.5466 -3.3592 -2.0215 0.9763
-4.2264 -3.7489 -2.0203 0.9763
-3.8727 -4.1081 -2.0189 0.9763
-3.4884 -4.4337 -2.0175 0.9763
-1.7124 -5.3549 -2.0105 0.9764
-1.2270 -5.4810 -2.0086 0.9764
-0.7327 -5.5631 -2.0066 0.9764
-0.2335 -5.6007 -2.0046 0.9765
2.1966 -5.1275 -1.9948 0.9766
2.6426 -4.9068 -1.9930 0.9766
3.4662 -4.3520 -1.9896 0.9766
3.8375 -4.0225 -1.9881 0.9767
4.1779 -3.6618 -1.9867 0.9767
4.4848 -3.2725 -1.9854 0.9767
4.7560 -2.8580 -1.9842 0.9767
5.4467 -1.0135 -1.9812 0.9767
5.5194 0.4640 -1.9807 0.9767
5.3506 1.4373 -1.9813 0.9767
5.2025 1.9092 -1.9818 0.9767
5.0134 2.3663 -1.9825 0.9767
4.7845 2.8051 -1.9833 0.9767
4.5176 3.2221 -1.9843 0.9767
4.2148 3.6142 -1.9855 0.9767
3.4987 4.2966 -1.9815 0.9767
2.9310 4.3387 -1.8724 0.9780
2.4887 4.5036 -1.8401 0.9784
1.6522 4.8828 -1.8434 0.9783
-0.1596 5.1724 -1.8506 0.9783
-0.6208 5.1427 -1.8524 0.9782
-1.0779 5.0719 -1.8543 0.9782
-1.5274 4.9605 -1.8561 0.9782
-1.9654 4.8091 -1.8579 0.9782
-4.1729 3.7829 -2.0142 0.9764
-5.2566 2.0952 -2.0236 0.9762
-5.4244 1.6188 -2.0243 0.9762
-5.6284 0.6299 -2.0253 0.9762
-5.6627 0.1256 -2.0255 0.9762
-5.6514 -0.3799 -2.0255 0.9762
-5.4927 -1.3772 -2.0250 0.9762
-4.0093 -3.9770 -2.0195 0.9763
-3.6361 -4.3156 -2.0180 0.9763
-2.8073 -4.8849 -2.0148 0.9764
-0.4212 -5.5918 -2.0053 0.9765
0.0790 -5.6015 -2.0033 0.9765
1.0705 -5.4875 -1.9994 0.9765
1.5540 -5.3650 -1.9974 0.9766
2.9104 -4.7493 -1.9919 0.9766
3.3194 -4.4671 -1.9902 0.9766
3.7016 -4.1500 -1.9886 0.9767
4.9063 -2.5876 -1.9836 0.9767
5.1152 -2.1389 -1.9827 0.9767
5.2836 -1.6737 -1.9820 0.9767
5.5347 -0.2155 -1.9808 0.9767
5.5317 0.2788 -1.9807 0.9767
5.3954 1.2571 -1.9811 0.9767
5.2630 1.7336 -1.9816 0.9767
4.3325 3.4701 -1.9850 0.9767
4.0084 3.8450 -1.9863 0.9767
3.6435 4.1802 -1.9830 0.9767
2.6374 4.4163 -1.8395 0.9784
2.2350 4.6379 -1.8411 0.9784
1.3783 4.9702 -1.8445 0.9783
0.9305 5.0782 -1.8462 0.9783
0.4745 5.1460 -1.8480 0.9783
0.0138 5.1729 -1.8499 0.9783
-0.4480 5.1587 -1.8517 0.9782
-0.9070 5.1033 -1.8536 0.9782
-1.8025 4.8706 -1.8572 0.9782
-2.6438 4.4812 -1.8606 0.9781
-5.1826 2.2698 -2.0233 0.9763
-5.5072 1.3142 -2.0247 0.9762
-5.6212 -0.6942 -2.0255 0.9762
-5.4066 -1.6810 -2.0247 0.9762
-5.2336 -2.1557 -2.0241 0.9762
-4.7634 -3.0483 -2.0224 0.9763
-4.1413 -3.8414 -2.0200 0.9763
-3.7797 -4.1924 -2.0186 0.9763
-2.5293 -5.0311 -2.0137 0.9764
-2.0687 -5.2318 -2.0119 0.9764
-1.5925 -5.3904 -2.0100 0.9764
-1.1045 -5.5056 -2.0081 0.9764
0.3908 -5.5850 -2.0021 0.9765
2.3096 -5.0762 -1.9944 0.9766
3.1689 -4.5772 -1.9908 0.9766
3.9253 -3.9355 -1.9877 0.9767
4.2576 -3.5673 -1.9863 0.9767
4.5558 -3.1715 -1.9851 0.9767
4.8178 -2.7511 -1.9840 0.9767
5.5380 0.0933 -1.9807 0.9767
5.5077 0.5867 -1.9808 0.9767
5.4341 1.0756 -1.9810 0.9767
5.1592 2.0246 -1.9819 0.9767
4.9600 2.4775 -1.9827 0.9767
4.4454 3.3223 -1.9846 0.9767
4.1340 3.7077 -1.9858 0.9767
2.7923 4.3385 -1.8450 0.9783
1.9742 4.7579 -1.8421 0.9784
1.5435 4.9195 -1.8438 0.9783
1.0998 5.0423 -1.8456 0.9783
-1.6377 4.9264 -1.8565 0.9782
-2.4913 4.5657 -1.8600 0.9781
-2.8911 4.3292 -1.8616 0.9781
-3.8303 3.9711 -1.9731 0.9768
-4.2598 3.6924 -2.0160 0.9763
-4.5829 3.3057 -2.0207 0.9763
-4.8622 2.8856 -2.0219 0.9763
-5.1027 2.4418 -2.0229 0.9763
-5.5728 1.0053 -2.0250 0.9762
-5.6412 0.5045 -2.0254 0.9762
-5.6641 -0.0005 -2.0255 0.9762
-5.4604 -1.4990 -2.0249 0.9762
-4.8637 -2.8876 -2.0227 0.9763
-4.2688 -3.7014 -2.0205 0.9763
-3.9191 -4.0645 -2.0191 0.9763
-3.1301 -4.6889 -2.0161 0.9763
-2.6973 -4.9451 -2.0144 0.9764
-1.7729 -5.3359 -2.0107 0.9764
-0.2966 -5.5984 -2.0049 0.9765
0.7010 -5.5510 -2.0009 0.9765
1.1920 -5.4610 -1.9989 0.9765
2.1389 -5.1526 -1.9950 0.9766
2.5874 -4.9368 -1.9932 0.9766
3.4173 -4.3913 -1.9898 0.9766
3.7923 -4.0659 -1.9883 0.9767
4.4480 -3.3231 -1.9855 0.9767
4.7238 -2.9116 -1.9844 0.9767
4.9621 -2.4775 -1.9834 0.9767
5.1610 -2.0244 -1.9825 0.9767
5.3191 -1.5556 -1.9818 0.9767
5.4351 -1.0748 -1.9813 0.9767
5.5242 0.4018 -1.9807 0.9767
5.2235 1.8504 -1.9817 0.9767
5.0395 2.3095 -1.9824 0.9767
4.8155 2.7508 -1.9832 0.9767
4.2549 3.5662 -1.9853 0.9767
3.9219 3.9333 -1.9863 0.9767
3.5478 4.2580 -1.9820 0.9767
2.1318 4.6875 -1.8415 0.9784
1.7069 4.8633 -1.8432 0.9783
1.2676 5.0008 -1.8449 0.9783
0.8175 5.0989 -1.8467 0.9783
-1.0206 5.0831 -1.8540 0.9782
-1.9109 4.8304 -1.8576 0.9782
-5.0171 2.6110 -2.0226 0.9763
-5.2324 2.1542 -2.0235 0.9762
-5.4056 1.6797 -2.0243 0.9762
-5.5355 1.1914 -2.0249 0.9762
-5.6208 0.6932 -2.0253 0.9762
-5.6609 0.1893 -2.0255 0.9762
-5.6553 -0.3162 -2.0255 0.9762
-5.6043 -0.8191 -2.0254 0.9762
-5.5080 -1.3153 -2.0251 0.9762
-4.9587 -2.7234 -2.0231 0.9763
-4.6937 -3.1532 -2.0221 0.9763
-4.3914 -3.5571 -2.0209 0.9763
-4.0542 -3.9319 -2.0197 0.9763
-3.6848 -4.2747 -2.0182 0.9763
-3.2865 -4.5827 -2.0167 0.9763
-2.4162 -5.0850 -2.0133 0.9764
-0.9815 -5.5275 -2.0076 0.9764
-0.4843 -5.5874 -2.0056 0.9765
1.0087 -5.4999 -1.9996 0.9765
1.4936 -5.3828 -1.9977 0.9765
1.9657 -5.2232 -1.9957 0.9766
2.8570 -4.7823 -1.9921 0.9766
3.2692 -4.5047 -1.9904 0.9766
3.6549 -4.1919 -1.9888 0.9767
4.0112 -3.8465 -1.9874 0.9767
4.3352 -3.4711 -1.9860 0.9767
4.6246 -3.0689 -1.9848 0.9767
4.8772 -2.6429 -1.9837 0.9767
5.3965 -1.2565 -1.9815 0.9767
5.4859 -0.7701 -1.9810 0.9767
5.5320 -0.2779 -1.9808 0.9767
5.5345 0.2164 -1.9807 0.9767
4.9041 2.5875 -1.9829 0.9767
4.3710 3.4209 -1.9849 0.9767
3.6914 4.1400 -1.9835 0.9767
3.2247 4.3411 -1.9339 0.9773
1.8682 4.8017 -1.8425 0.9784
1.4340 4.9538 -1.8442 0.9783
-0.3897 5.1628 -1.8515 0.9782
-0.8494 5.1126 -1.8533 0.9782
-4.3448 3.6000 -2.0178 0.9763
-4.6560 3.2034 -2.0210 0.9763
-5.1564 2.3279 -2.0232 0.9763
-5.3456 1.8597 -2.0240 0.9762
-5.5494 -1.1301 -2.0252 0.9762
-5.2578 -2.0967 -2.0242 0.9762
-5.0480 -2.5562 -2.0234 0.9762
-3.0244 -4.7564 -2.0156 0.9763
-2.1278 -5.2088 -2.0121 0.9764
-1.6534 -5.3728 -2.0102 0.9764
-0.6715 -5.5701 -2.0063 0.9764
0.3279 -5.5897 -2.0024 0.9765
1.3129 -5.4318 -1.9984 0.9765
1.7902 -5.2880 -1.9965 0.9766
3.1174 -4.6131 -1.9911 0.9766
4.7868 -2.8054 -1.9841 0.9767
5.2043 -1.9088 -1.9823 0.9767
5.5198 -0.4631 -1.9809 0.9767
5.1815 1.9663 -1.9819 0.9767
4.9873 2.4213 -1.9826 0.9767
4.7536 2.8576 -1.9834 0.9767
4.1751 3.6606 -1.9857 0.9767
3.8312 4.0173 -1.9852 0.9767
3.4505 4.3337 -1.9810 0.9767
1.1563 5.0290 -1.8453 0.9783
0.7040 5.1170 -1.8471 0.9783
-0.6773 5.1362 -1.8527 0.9782
-1.1337 5.0604 -1.8545 0.9782
-1.5819 4.9440 -1.8563 0.9782
-2.0184 4.7878 -1.8581 0.9782
-3.7521 3.9788 -1.9557 0.9770
-4.5450 3.3569 -2.0206 0.9763
-4.8291 2.9400 -2.0218 0.9763
-5.2795 2.0375 -2.0237 0.9762
-5.4421 1.5592 -2.0244 0.9762
-5.5609 1.0680 -2.0250 0.9762
-5.6350 0.5680 -2.0253 0.9762
-5.6638 0.0633 -2.0255 0.9762
-5.5845 -0.9435 -2.0254 0.9762
-5.4771 -1.4375 -2.0250 0.9762
-5.1316 -2.3859 -2.0237 0.9762
-4.8963 -2.8328 -2.0229 0.9763
-4.3105 -3.6533 -2.0206 0.9763
-3.9650 -4.0205 -2.0193 0.9763
-1.8331 -5.3162 -2.0110 0.9764
-1.3505 -5.4533 -2.0090 0.9764
-0.3598 -5.5954 -2.0051 0.9765
0.6385 -5.5593 -2.0011 0.9765
2.0809 -5.1769 -1.9953 0.9766
2.5319 -4.9662 -1.9934 0.9766
3.7466 -4.1088 -1.9885 0.9767
4.4107 -3.3733 -1.9857 0.9767
5.1381 -2.0825 -1.9826 0.9767
5.4228 -1.1360 -1.9813 0.9767
5.5014 -0.6479 -1.9810 0.9767
5.5367 -0.1548 -1.9807 0.9767
5.5284 0.3395 -1.9807 0.9767
5.4765 0.8312 -1.9808 0.9767
5.3814 1.3163 -1.9812 0.9767
5.2439 1.7914 -1.9816 0.9767
5.0649 2.2525 -1.9823 0.9767
4.8459 2.6963 -1.9831 0.9767
3.9662 3.8891 -1.9865 0.9767
2.5890 4.4455 -1.8397 0.9784
1.7614 4.8432 -1.8429 0.9783
1.3237 4.9856 -1.8447 0.9783
0.8748 5.0887 -1.8465 0.9783
0.4180 5.1515 -1.8483 0.9783
-0.0430 5.1734 -1.8501 0.9783
-0.5046 5.1541 -1.8520 0.9782
-0.9632 5.0937 -1.8538 0.9782
5.0264 -1.2286 -1.9829 0.9781
5.1630 -0.3162 -1.9823 0.9781
5.0631 1.0615 -1.9825 0.9781
4.9493 1.5090 -1.9829 0.9781
4.7963 1.9449 -1.9834 0.9781
4.6055 2.3656 -1.9841 0.9781
4.3781 2.7680 -1.9850 0.9781
3.1351 4.1251 -1.9856 0.9780
2.1954 4.3078 -1.8529 0.9795
1.7928 4.4622 -1.8429 0.9796
0.5494 4.7904 -1.8478 0.9796
-1.5798 4.5792 -1.8563 0.9795
-1.9836 4.4240 -1.8580 0.9794
-3.6898 3.7402 -2.0134 0.9777
-4.0187 3.4049 -2.0185 0.9777
-5.2653 0.4112 -2.0239 0.9776
-5.2548 -0.5306 -2.0240 0.9776
-5.1860 -0.9969 -2.0238 0.9776
-5.0755 -1.4551 -2.0234 0.9776
-4.9243 -1.9013 -2.0228 0.9776
-4.7335 -2.3320 -2.0221 0.9776
-3.9417 -3.4963 -2.0191 0.9777
-3.6120 -3.8315 -2.0179 0.9777
-2.0384 -4.8376 -2.0117 0.9778
-0.6836 -5.1907 -2.0063 0.9778
-0.2179 -5.2261 -2.0045 0.9778
0.2487 -5.2199 -2.0026 0.9779
1.6168 -4.9543 -1.9971 0.9779
2.4668 -4.5804 -1.9937 0.9780
2.8630 -4.3387 -1.9920 0.9780
3.2360 -4.0630 -1.9905 0.9780
3.5828 -3.7556 -1.9891 0.9780
4.4409 -2.6687 -1.9855 0.9781
4.6590 -2.2610 -1.9846 0.9781
4.9829 -1.3965 -1.9831 0.9781
5.1497 -0.4891 -1.9823 0.9781
4.8583 1.7829 -1.9832 0.9781
4.4676 2.6193 -1.9846 0.9781
3.6210 3.7143 -1.9879 0.9780
3.2738 4.0205 -1.9869 0.9780
2.3818 4.3102 -1.8872 0.9791
1.9407 4.3983 -1.8423 0.9796
1.1306 4.6812 -1.8455 0.9796
0.7094 4.7676 -1.8472 0.9796
0.2817 4.8163 -1.8489 0.9795
-1.8336 4.4866 -1.8574 0.9795
-3.0921 4.0186 -1.9431 0.9785
-3.5582 3.8572 -2.0110 0.9778
-4.2038 3.1768 -2.0192 0.9777
-4.4728 2.7909 -2.0204 0.9777
-4.9019 1.9538 -2.0222 0.9776
-5.0583 1.5095 -2.0229 0.9776
-5.1741 1.0528 -2.0234 0.9776
-5.2483 0.5874 -2.0238 0.9776
-5.2697 -0.3542 -2.0240 0.9776
-5.2168 -0.8226 -2.0239 0.9776
-4.9858 -1.7354 -2.0231 0.9776
-4.8096 -2.1723 -2.0224 0.9776
-4.5950 -2.5915 -2.0216 0.9777
-4.3436 -2.9895 -2.0207 0.9777
-3.7392 -3.7092 -2.0184 0.9777
-3.3914 -4.0251 -2.0170 0.9777
-2.6186 -4.5566 -2.0140 0.9777
-2.2001 -4.7681 -2.0124 0.9778
-0.8575 -5.1667 -2.0070 0.9778
-0.3930 -5.2177 -2.0052 0.9778
0.0737 -5.2271 -2.0033 0.9779
0.5389 -5.1949 -2.0015 0.9779
0.9991 -5.1214 -1.9996 0.9779
1.4504 -5.0073 -1.9978 0.9779
1.8894 -4.8538 -1.9960 0.9779
3.0989 -4.1703 -1.9911 0.9780
3.4558 -3.8745 -1.9896 0.9780
4.0837 -3.1949 -1.9870 0.9780
4.5814 -2.4162 -1.9849 0.9781
5.0522 -1.1165 -1.9828 0.9781
5.1307 -0.6614 -1.9824 0.9781
5.1659 0.2604 -1.9822 0.9781
4.5522 2.4677 -1.9843 0.9781
4.3159 2.8651 -1.9852 0.9781
4.0454 3.2402 -1.9862 0.9780
3.0413 4.1921 -1.9847 0.9781
2.5753 4.3123 -1.9248 0.9787
2.0864 4.3294 -1.8417 0.9796
1.2864 4.6391 -1.8449 0.9796
0.8685 4.7396 -1.8465 0.9796
0.4428 4.8025 -1.8482 0.9796
-0.8463 4.7617 -1.8534 0.9795
-1.2687 4.6716 -1.8551 0.9795
-1.6817 4.5440 -1.8568 0.9795
-2.4662 4.1802 -1.8599 0.9794
-2.8961 4.0370 -1.9040 0.9789
-3.7752 3.6602 -2.0150 0.9777
-4.0941 3.3151 -2.0188 0.9777
-4.8329 2.1167 -2.0219 0.9777
-5.0043 1.6780 -2.0227 0.9776
-5.1354 1.2255 -2.0232 0.9776
-5.2732 0.2939 -2.0239 0.9776
-5.2787 -0.1774 -2.0240 0.9776
-5.2416 -0.6473 -2.0239 0.9776
-5.0416 -1.5675 -2.0233 0.9776
-4.8804 -2.0102 -2.0227 0.9776
-4.6800 -2.4365 -2.0219 0.9777
-1.4857 -5.0290 -2.0095 0.9778
-0.5679 -5.2034 -2.0059 0.9778
1.2822 -5.0548 -1.9985 0.9779
1.7263 -4.9160 -1.9967 0.9779
3.3250 -3.9892 -1.9901 0.9780
3.6648 -3.6743 -1.9887 0.9780
4.2539 -2.9613 -1.9863 0.9780
4.4986 -2.5689 -1.9852 0.9781
4.7077 -2.1565 -1.9843 0.9781
5.0124 -1.2853 -1.9830 0.9781
5.1592 -0.3744 -1.9823 0.9781
5.1717 0.0871 -1.9822 0.9781
5.1435 0.5479 -1.9822 0.9781
5.0747 1.0044 -1.9824 0.9781
4.6316 2.3135 -1.9840 0.9781
3.5380 3.7946 -1.9882 0.9780
3.1821 4.0904 -1.9860 0.9780
1.8460 4.4489 -1.8458 0.9796
1.4407 4.5919 -1.8443 0.9796
1.0265 4.7062 -1.8459 0.9796
0.6033 4.7833 -1.8476 0.9796
0.1746 4.8225 -1.8493 0.9795
-0.2564 4.8234 -1.8510 0.9795
-0.6860 4.7858 -1.8527 0.9795
-1.1111 4.7099 -1.8545 0.9795
-2.3241 4.2592 -1.8594 0.9794
-2.7076 4.0545 -1.8684 0.9793
-3.6460 3.7800 -2.0126 0.9778
-4.2741 3.0829 -2.0195 0.9777
-4.5344 2.6910 -2.0206 0.9777
-4.7585 2.2771 -2.0216 0.9777
-5.0910 1.3967 -2.0230 0.9776
-5.1965 0.9374 -2.0235 0.9776
-5.2605 -0.4713 -2.0240 0.9776
-5.1970 -0.9384 -2.0238 0.9776
-4.5357 -2.6928 -2.0214 0.9777
-1.2025 -5.1011 -2.0084 0.9778
-0.7422 -5.1833 -2.0066 0.9778
-0.2768 -5.2239 -2.0047 0.9778
1.1125 -5.0967 -1.9991 0.9779
1.9965 -4.8095 -1.9956 0.9779
2.4153 -4.6084 -1.9939 0.9780
3.1903 -4.0996 -1.9907 0.9780
3.5406 -3.7960 -1.9892 0.9780
4.1532 -3.1028 -1.9867 0.9780
4.6335 -2.3135 -1.9847 0.9781
4.9671 -1.4526 -1.9832 0.9781
5.0755 -1.0037 -1.9827 0.9781
5.1588 0.3752 -1.9822 0.9781
5.0113 1.2858 -1.9826 0.9781
4.7059 2.1567 -1.9837 0.9781
4.4966 2.5687 -1.9845 0.9781
4.2516 2.9608 -1.9854 0.9781
3.9729 3.3298 -1.9865 0.9780
2.4460 4.3110 -1.8994 0.9790
1.9900 4.3757 -1.8421 0.9796
1.5932 4.5395 -1.8437 0.9796
1.1832 4.6676 -1.8453 0.9796
0.7630 4.7588 -1.8469 0.9796
0.3359 4.8123 -1.8486 0.9795
-0.9523 4.7428 -1.8538 0.9795
-1.3726 4.6433 -1.8555 0.9795
-1.7827 4.5064 -1.8572 0.9795
-2.5592 4.1251 -1.8603 0.9794
-3.5131 3.8955 -2.0102 0.9778
-3.8588 3.5782 -2.0167 0.9777
-4.4408 2.8409 -2.0202 0.9777
-4.6788 2.4349 -2.0212 0.9777
-5.0408 1.5664 -2.0228 0.9776
-5.1617 1.1110 -2.0234 0.9776
-5.2786 0.1765 -2.0240 0.9776
-5.2734 -0.2948 -2.0240 0.9776
-5.1361 -1.2265 -2.0236 0.9776
-4.8340 -2.1181 -2.0225 0.9776
-4.3773 -2.9405 -2.0208 0.9777
-3.7811 -3.6671 -2.0185 0.9777
-3.0654 -4.2745 -2.0157 0.9777
-2.6700 -4.5273 -2.0142 0.9777
-2.2539 -4.7435 -2.0126 0.9778
-0.4519 -5.2136 -2.0054 0.9778
0.0148 -5.2282 -2.0036 0.9779
0.4804 -5.2012 -2.0017 0.9779
0.9414 -5.1329 -1.9998 0.9779
1.8348 -4.8753 -1.9962 0.9779
2.2602 -4.6882 -1.9945 0.9780
2.6670 -4.4643 -1.9928 0.9780
3.4123 -3.9136 -1.9898 0.9780
4.0478 -3.2410 -1.9871 0.9780
4.3181 -2.8655 -1.9860 0.9780
4.7540 -2.0511 -1.9841 0.9781
5.1230 -0.7192 -1.9825 0.9781
5.1661 -0.2595 -1.9822 0.9781
5.1301 0.6622 -1.9823 0.9781
5.0513 1.1171 -1.9825 0.9781
4.9326 1.5634 -1.9829 0.9781
4.5794 2.4162 -1.9842 0.9781
4.3477 2.8161 -1.9851 0.9781
3.4533 3.8730 -1.9885 0.9780
1.3385 4.6238 -1.8447 0.9796
-0.3637 4.8176 -1.8514 0.9795
-1.2158 4.6851 -1.8549 0.9795
-2.0322 4.4025 -1.8582 0.9794
-2.8320 4.0430 -1.8916 0.9791
-3.7322 3.7010 -2.0142 0.9777
-4.3422 2.9875 -2.0198 0.9777
-4.8085 2.1709 -2.0218 0.9777
-4.9848 1.7342 -2.0226 0.9776
-5.1211 1.2832 -2.0232 0.9776
-5.2695 0.3533 -2.0239 0.9776
-5.2803 -0.1179 -2.0240 0.9776
-4.7074 -2.3837 -2.0220 0.9777
-4.2052 -3.1789 -2.0201 0.9777
-3.2078 -4.1705 -2.0163 0.9777
-2.4123 -4.6667 -2.0132 0.9777
-0.1605 -5.2276 -2.0043 0.9778
0.3060 -5.2162 -2.0024 0.9779
1.2253 -5.0696 -1.9987 0.9779
1.6710 -4.9357 -1.9969 0.9779
2.5167 -4.5525 -1.9934 0.9780
2.9102 -4.3065 -1.9918 0.9780
3.6235 -3.7157 -1.9889 0.9780
3.9378 -3.3756 -1.9876 0.9780
4.2206 -3.0092 -1.9864 0.9780
4.4697 -2.6196 -1.9854 0.9781
4.6833 -2.2096 -1.9844 0.9781
4.8598 -1.7825 -1.9837 0.9781
5.0964 -0.8905 -1.9826 0.9781
5.1547 -0.4325 -1.9823 0.9781
5.1724 0.0288 -1.9822 0.9781
5.1493 0.4899 -1.9822 0.9781
4.9817 1.3971 -1.9827 0.9781
4.8386 1.8362 -1.9833 0.9781
4.6571 2.2610 -1.9839 0.9781
4.1853 3.0550 -1.9857 0.9780
3.8983 3.4179 -1.9868 0.9780
3.5803 3.7542 -1.9880 0.9780
1.8925 4.4198 -1.8425 0.9796
1.4922 4.5748 -1.8441 0.9796
1.0793 4.6938 -1.8457 0.9796
0.6571 4.7757 -1.8474 0.9796
-0.6320 4.7926 -1.8525 0.9795
-1.0578 4.7215 -1.8542 0.9795
-1.4759 4.6126 -1.8559 0.9795
-1.8830 4.4666 -1.8576 0.9794
-3.1580 4.0124 -1.9567 0.9784
-4.2388 3.1307 -2.0194 0.9777
-4.5035 2.7418 -2.0205 0.9777
-4.7323 2.3304 -2.0215 0.9777
-4.9233 1.9000 -2.0223 0.9776
-5.0747 1.4539 -2.0230 0.9776
-5.2812 0.0591 -2.0240 0.9776
-5.2655 -0.4121 -2.0240 0.9776
-5.2074 -0.8798 -2.0238 0.9776
-4.7853 -2.2249 -2.0223 0.9776
-4.3102 -3.0368 -2.0205 0.9777
-3.3467 -4.0618 -2.0168 0.9777
-2.5682 -4.5847 -2.0138 0.9777
-2.1474 -4.7915 -2.0121 0.9778
-1.7101 -4.9596 -2.0104 0.9778
-1.2600 -5.0878 -2.0086 0.9778
-0.8006 -5.1752 -2.0068 0.9778
0.1311 -5.2254 -2.0031 0.9779
1.5051 -4.9906 -1.9976 0.9779
3.4979 -3.8360 -1.9894 0.9780
3.8234 -3.5065 -1.9881 0.9780
4.3802 -2.7684 -1.9857 0.9780
4.6074 -2.3657 -1.9848 0.9781
4.9506 -1.5086 -1.9833 0.9781
5.0640 -1.0609 -1.9828 0.9781
5.1375 -0.6050 -1.9824 0.9781
5.1705 -0.1445 -1.9822 0.9781
5.1142 0.7762 -1.9823 0.9781
5.0254 1.2293 -1.9826 0.9781
4.8969 1.6728 -1.9830 0.9781
3.3652 3.9476 -1.9879 0.9780
2.0389 4.3525 -1.8419 0.9796
1.2355 4.6534 -1.8451 0.9796
0.8164 4.7493 -1.8467 0.9796
-0.4709 4.8094 -1.8519 0.9795
-0.8987 4.7527 -1.8536 0.9795
4.4328 -1.9705 -1.9854 0.9793
4.5893 -1.5669 -1.9847 0.9793
4.7094 -1.1512 -1.9842 0.9793
4.7924 -0.7265 -1.9838 0.9793
4.8375 -0.2963 -1.9836 0.9793
4.8444 0.1362 -1.9835 0.9793
4.8131 0.5676 -1.9835 0.9793
4.7438 0.9946 -1.9838 0.9793
4.4938 1.8222 -1.9846 0.9793
4.3148 2.2163 -1.9853 0.9793
3.8559 2.9500 -1.9870 0.9792
3.5795 3.2838 -1.9881 0.9792
2.9428 3.8721 -1.9905 0.9792
2.1842 4.2858 -1.9687 0.9794
1.7192 4.2791 -1.8874 0.9803
1.3009 4.3158 -1.8449 0.9807
-0.6928 4.4737 -1.8528 0.9806
-3.1249 3.7913 -2.0108 0.9790
-3.7610 3.1865 -2.0175 0.9789
-4.0324 2.8401 -2.0186 0.9789
-4.4769 2.0807 -2.0205 0.9789
-4.6462 1.6738 -2.0212 0.9789
-2.1158 0.3571 -0.8782 0.9908
-1.9551 0.1527 -0.8026 0.9916
-4.6078 -1.7791 -2.0216 0.9789
-4.4294 -2.1822 -2.0209 0.9789
-4.2155 -2.5674 -2.0201 0.9789
-3.9680 -2.9317 -2.0192 0.9789
-2.6862 -4.1237 -2.0142 0.9790
-2.3061 -4.3435 -2.0127 0.9790
-1.0717 -4.7873 -2.0078 0.9790
-0.2040 -4.8931 -2.0044 0.9791
0.2329 -4.8876 -2.0026 0.9791
0.6671 -4.8431 -2.0009 0.9791
1.0954 -4.7602 -1.9992 0.9791
1.5142 -4.6397 -1.9975 0.9791
3.0312 -3.8058 -1.9913 0.9792
3.6542 -3.2028 -1.9887 0.9792
3.9230 -2.8626 -1.9876 0.9792
4.3649 -2.1183 -1.9857 0.9792
4.5347 -1.7200 -1.9850 0.9793
4.7656 -0.8868 -1.9839 0.9793
4.7743 0.8350 -1.9837 0.9793
4.6815 1.2576 -1.9840 0.9793
4.5518 1.6704 -1.9844 0.9793
4.3861 2.0702 -1.9850 0.9793
3.6867 3.1614 -1.9877 0.9792
2.7198 4.0262 -1.9886 0.9792
1.8894 4.2819 -1.9155 0.9800
1.4471 4.2769 -1.8479 0.9807
-0.1395 4.5195 -1.8506 0.9806
-0.5424 4.4930 -1.8522 0.9806
-0.9416 4.4306 -1.8538 0.9806
-1.3340 4.3326 -1.8554 0.9806
-1.7165 4.1999 -1.8569 0.9806
-2.1127 4.0855 -1.8825 0.9803
-2.5728 4.0447 -1.9619 0.9795
-2.9930 3.8899 -2.0088 0.9790
-3.3373 3.6178 -2.0144 0.9790
-4.1857 2.6118 -2.0193 0.9789
-4.7332 1.4125 -2.0216 0.9789
-1.9562 0.2189 -0.8056 0.9915
-1.9196 0.0426 -0.7858 0.9917
-1.9505 -0.1311 -0.8001 0.9916
-2.0188 -0.3183 -0.8365 0.9912
-4.7926 -1.2017 -2.0222 0.9789
-4.6653 -1.6239 -2.0218 0.9789
-4.5006 -2.0328 -2.0212 0.9789
-3.7972 -3.1473 -2.0185 0.9789
-3.1740 -3.7672 -2.0161 0.9789
-2.8236 -4.0324 -2.0147 0.9789
-2.4510 -4.2650 -2.0133 0.9790
-1.2319 -4.7503 -2.0085 0.9790
0.0690 -4.8942 -2.0033 0.9791
1.3583 -4.6893 -1.9981 0.9791
2.1660 -4.3663 -1.9948 0.9792
2.5447 -4.1526 -1.9933 0.9792
3.2372 -3.6294 -1.9904 0.9792
3.5456 -3.3242 -1.9892 0.9792
4.0751 -2.6386 -1.9869 0.9792
4.2922 -2.2637 -1.9860 0.9792
4.4751 -1.8712 -1.9852 0.9793
4.7336 -1.0460 -1.9841 0.9793
4.8428 -0.1886 -1.9835 0.9793
4.8402 0.2439 -1.9835 0.9793
4.7207 1.1000 -1.9838 0.9793
4.2649 2.3120 -1.9855 0.9793
3.5060 3.3631 -1.9884 0.9792
2.4891 4.1680 -1.9869 0.9792
2.0647 4.2844 -1.9465 0.9797
0.8133 4.4385 -1.8468 0.9807
0.4147 4.4971 -1.8484 0.9807
0.0120 4.5201 -1.8500 0.9807
-0.3914 4.5071 -1.8516 0.9806
-1.1877 4.3735 -1.8548 0.9806
-1.5743 4.2538 -1.8564 0.9806
-1.9508 4.1038 -1.8597 0.9806
-2.8581 3.9840 -2.0067 0.9790
-3.2107 3.7235 -2.0123 0.9790
-3.5375 3.4297 -2.0165 0.9789
-3.8315 3.1025 -2.0178 0.9789
-4.3261 2.3751 -2.0198 0.9789
-4.6827 1.5702 -2.0214 0.9789
-4.8054 1.1467 -2.0219 0.9789
-1.9438 0.2838 -0.8040 0.9915
-1.9292 -0.0648 -0.7900 0.9917
-4.8305 -1.0405 -2.0223 0.9789
-4.7176 -1.4668 -2.0220 0.9789
-4.3794 -2.2800 -2.0207 0.9789
-3.9013 -3.0188 -2.0189 0.9789
-3.2993 -3.6596 -2.0166 0.9789
-2.2084 -4.3929 -2.0123 0.9790
-1.8065 -4.5687 -2.0107 0.9790
-1.3909 -4.7078 -2.0091 0.9790
-0.9648 -4.8090 -2.0074 0.9790
-0.0951 -4.8954 -2.0039 0.9791
0.7746 -4.8260 -2.0005 0.9791
1.2007 -4.7337 -1.9987 0.9791
1.6167 -4.6039 -1.9971 0.9791
2.4048 -4.2367 -1.9939 0.9792
3.4330 -3.4419 -1.9896 0.9792
3.9852 -2.7742 -1.9873 0.9792
4.2146 -2.4067 -1.9864 0.9792
4.4105 -2.0204 -1.9855 0.9793
4.6963 -1.2042 -1.9843 0.9793
4.7840 -0.7805 -1.9838 0.9793
4.8339 -0.3508 -1.9836 0.9793
4.7547 0.9411 -1.9837 0.9793
4.3393 2.1675 -1.9852 0.9793
4.1304 2.5468 -1.9860 0.9792
3.6160 3.2431 -1.9879 0.9792
2.9861 3.8385 -1.9904 0.9792
2.6287 4.0843 -1.9879 0.9792
2.2457 4.2865 -1.9805 0.9793
1.7759 4.2801 -1.8965 0.9802
-0.2400 4.5162 -1.8510 0.9806
-0.6423 4.4808 -1.8526 0.9806
-1.4304 4.3028 -1.8558 0.9806
-2.2241 4.0759 -1.9004 0.9801
-3.0809 3.8250 -2.0101 0.9790
-3.4195 3.5452 -2.0159 0.9789
-3.7246 3.2284 -2.0173 0.9789
-4.4529 2.1308 -2.0204 0.9789
-4.6269 1.7260 -2.0211 0.9789
-1.9579 0.1751 -0.8045 0.9915
-1.9579 -0.1754 -0.8045 0.9915
-4.6278 -1.7271 -2.0216 0.9789
-4.4539 -2.1322 -2.0210 0.9789
-3.7257 -3.2305 -2.0182 0.9789
-2.7327 -4.0935 -2.0144 0.9790
-2.3551 -4.3177 -2.0129 0.9790
-1.1257 -4.7755 -2.0081 0.9790
-0.2592 -4.8911 -2.0046 0.9791
0.1778 -4.8904 -2.0029 0.9791
0.6126 -4.8509 -2.0011 0.9791
1.0418 -4.7728 -1.9994 0.9791
1.4620 -4.6569 -1.9977 0.9791
3.3166 -3.5559 -1.9901 0.9792
3.8908 -2.9068 -1.9877 0.9792
4.5153 -1.7711 -1.9851 0.9793
4.6538 -1.3610 -1.9844 0.9793
4.8196 -0.5126 -1.9837 0.9793
4.8457 -0.0808 -1.9835 0.9793
4.5702 1.6190 -1.9844 0.9793
4.4090 2.0206 -1.9849 0.9793
4.2128 2.4065 -1.9857 0.9792
2.7655 3.9960 -1.9889 0.9792
1.9477 4.2827 -1.9256 0.9799
1.1080 4.3712 -1.8456 0.9807
0.7145 4.4564 -1.8472 0.9807
-0.4917 4.4983 -1.8520 0.9806
-1.2850 4.3469 -1.8552 0.9806
-1.6689 4.2186 -1.8568 0.9806
-2.5126 4.0502 -1.9507 0.9796
-4.1558 2.6586 -2.0191 0.9789
-4.3783 2.2785 -2.0201 0.9789
-4.5659 1.8798 -2.0209 0.9789
-1.9437 -0.2841 -0.8039 0.9915
-4.8060 -1.1477 -2.0223 0.9789
-4.6835 -1.5713 -2.0218 0.9789
-4.5234 -1.9820 -2.0213 0.9789
-3.5386 -3.4319 -2.0175 0.9789
-3.2165 -3.7315 -2.0163 0.9789
-2.4991 -4.2375 -2.0135 0.9790
-1.2855 -4.7366 -2.0087 0.9790
-0.4231 -4.8812 -2.0053 0.9790
0.0138 -4.8952 -2.0035 0.9791
0.8816 -4.8066 -2.0000 0.9791
1.7183 -4.5658 -1.9966 0.9791
2.4980 -4.1814 -1.9935 0.9792
2.8588 -3.9391 -1.9920 0.9792
3.1964 -3.6659 -1.9906 0.9792
3.7919 -3.0362 -1.9881 0.9792
4.4540 -1.9216 -1.9853 0.9793
4.7216 -1.0993 -1.9841 0.9793
4.8000 -0.6738 -1.9838 0.9793
4.8426 0.1894 -1.9835 0.9793
4.4737 1.8715 -1.9847 0.9793
4.2904 2.2637 -1.9854 0.9793
4.0732 2.6383 -1.9862 0.9792
3.8235 2.9924 -1.9872 0.9792
3.5434 3.3232 -1.9882 0.9792
2.5363 4.1404 -1.9872 0.9792
2.1248 4.2851 -1.9576 0.9795
1.2535 4.3303 -1.8450 0.9807
0.4653 4.4917 -1.8482 0.9807
-0.7420 4.4663 -1.8530 0.9806
-2.3375 4.0659 -1.9195 0.9799
-2.8121 4.0146 -2.0061 0.9790
-3.4983 3.4691 -2.0164 0.9789
-4.0636 2.7958 -2.0187 0.9789
-4.2988 2.4235 -2.0197 0.9789
-4.6645 1.6228 -2.0213 0.9789
-4.7920 1.2007 -2.0219 0.9789
-1.9504 0.1308 -0.8000 0.9916
-1.9562 -0.2192 -0.8056 0.9915
-4.8420 -0.9860 -2.0224 0.9789
-4.7339 -1.4136 -2.0220 0.9789
-4.5879 -1.8296 -2.0215 0.9789
-4.4050 -2.2306 -2.0208 0.9789
-4.1869 -2.6134 -2.0200 0.9789
-3.6524 -3.3121 -2.0180 0.9789
-3.3406 -3.6225 -2.0168 0.9789
-2.2580 -4.3682 -2.0125 0.9790
-1.8581 -4.5486 -2.0110 0.9790
-1.4439 -4.6923 -2.0093 0.9790
-1.0190 -4.7983 -2.0076 0.9790
0.7202 -4.8350 -2.0007 0.9791
3.3943 -3.4807 -1.9898 0.9792
3.6889 -3.1622 -1.9886 0.9792
3.9539 -2.8191 -1.9875 0.9792
4.5532 -1.6700 -1.9849 0.9793
4.6826 -1.2570 -1.9843 0.9793
4.7750 -0.8344 -1.9839 0.9793
4.8246 0.4590 -1.9835 0.9793
4.7649 0.8874 -1.9837 0.9793
4.6676 1.3090 -1.9840 0.9793
3.6520 3.2019 -1.9878 0.9792
3.0289 3.8043 -1.9902 0.9792
2.6750 4.0551 -1.9882 0.9792
1.8331 4.2810 -1.9060 0.9801
1.3975 4.2845 -1.8445 0.9807
1.0107 4.3957 -1.8460 0.9807
0.6153 4.4721 -1.8476 0.9807
-0.1891 4.5182 -1.8508 0.9806
-0.5917 4.4872 -1.8524 0.9806
-1.3817 4.3182 -1.8556 0.9806
-2.1675 4.0808 -1.8911 0.9802
-3.0365 3.8581 -2.0094 0.9790
-3.9668 2.9298 -2.0183 0.9789
-4.2144 2.5658 -2.0194 0.9789
-4.6070 1.7779 -2.0211 0.9789
-1.9577 0.1973 -0.8053 0.9915
-1.9093 0.0214 -0.7815 0.9918
-1.9552 -0.1530 -0.8026 0.9916
-2.1203 -0.3583 -0.8801 0.9907
-3.7622 -3.1886 -2.0184 0.9789
-3.4609 -3.5093 -2.0172 0.9789
-2.7789 -4.0628 -2.0146 0.9790
-0.7495 -4.8451 -2.0066 0.9790
-0.3143 -4.8884 -2.0048 0.9791
1.4095 -4.6736 -1.9979 0.9791
1.8191 -4.5256 -1.9962 0.9791
2.5899 -4.1240 -1.9931 0.9792
2.9452 -3.8738 -1.9916 0.9792
3.5816 -3.2848 -1.9890 0.9792
4.1036 -2.5935 -1.9868 0.9792
4.3165 -2.2163 -1.9859 0.9792
4.6383 -1.4134 -1.9845 0.9793
4.7447 -0.9940 -1.9840 0.9793
4.8136 -0.5669 -1.9837 0.9793
4.7085 1.1518 -1.9839 0.9793
4.5880 1.5673 -1.9843 0.9793
4.4312 1.9707 -1.9849 0.9793
4.2394 2.3588 -1.9856 0.9793
4.0139 2.7286 -1.9864 0.9792
3.4691 3.4017 -1.9885 0.9792
3.1539 3.6997 -1.9897 0.9792
2.8109 3.9654 -1.9893 0.9792
2.4428 4.1944 -1.9866 0.9792
2.0066 4.2836 -1.9360 0.9798
1.5551 4.2761 -1.8622 0.9805
0.3653 4.5019 -1.8486 0.9807
-0.0376 4.5205 -1.8502 0.9807
-0.8414 4.4497 -1.8534 0.9806
4.1651 -1.8515 -1.9865 0.9803
4.5226 0.5334 -1.9847 0.9803
4.3572 1.3285 -1.9853 0.9803
3.8539 2.4366 -1.9871 0.9803
2.7647 3.6377 -1.9913 0.9803
2.0732 4.0681 -1.9899 0.9803
1.2809 4.2496 -1.9344 0.9808
0.4848 4.2273 -1.8544 0.9816
-1.0278 4.1473 -1.8622 0.9815
-1.8331 4.0884 -1.9527 0.9806
-2.2483 4.0122 -2.0044 0.9801
-2.6031 3.8045 -2.0090 0.9801
-3.5304 2.9911 -2.0166 0.9800
-3.7850 2.6658 -2.0176 0.9800
-4.2020 1.9529 -2.0194 0.9800
-1.5957 0.5748 -0.7392 0.9926
-1.5529 0.4073 -0.6997 0.9930
-1.5054 0.2541 -0.6654 0.9934
-1.5289 0.1194 -0.6684 0.9933
-1.5261 -0.1541 -0.6685 0.9933
-1.5670 -0.4492 -0.7105 0.9929
-4.3248 -1.6698 -2.0204 0.9800
-3.4626 -3.0714 -2.0172 0.9800
-2.5217 -3.8712 -2.0135 0.9800
-2.1650 -4.0778 -2.0121 0.9801
-0.1916 -4.5949 -2.0043 0.9801
0.2187 -4.5899 -2.0026 0.9801
0.6266 -4.5485 -2.0010 0.9802
1.0288 -4.4708 -1.9994 0.9802
1.4222 -4.3578 -1.9978 0.9802
1.8037 -4.2104 -1.9963 0.9802
2.1703 -4.0298 -1.9948 0.9802
2.5191 -3.8175 -1.9933 0.9802
2.8476 -3.5753 -1.9920 0.9803
3.6858 -2.6895 -1.9885 0.9803
3.9090 -2.3490 -1.9876 0.9803
4.4780 -0.8332 -1.9851 0.9803
4.5538 -0.0246 -1.9847 0.9803
4.5379 0.3815 -1.9847 0.9803
4.4861 0.7846 -1.9848 0.9803
4.2770 1.5696 -1.9855 0.9803
4.1212 1.9452 -1.9861 0.9803
3.1869 3.2690 -1.9897 0.9803
2.8844 3.5422 -1.9908 0.9803
2.5587 3.7877 -1.9921 0.9803
1.8423 4.1751 -1.9888 0.9803
1.0249 4.2432 -1.9024 0.9811
0.6296 4.2313 -1.8644 0.9815
0.2478 4.2356 -1.8491 0.9817
-0.1310 4.2443 -1.8506 0.9816
-0.5093 4.2191 -1.8521 0.9816
-0.8845 4.1618 -1.8543 0.9816
-3.4274 3.1071 -2.0161 0.9800
-4.3052 1.7160 -2.0199 0.9800
-1.5731 0.4694 -0.7154 0.9929
-1.5240 0.1706 -0.6683 0.9933
-1.5267 0.0338 -0.6655 0.9934
-1.5295 -0.1028 -0.6681 0.9933
-1.5100 -0.2381 -0.6662 0.9934
-1.5455 -0.3875 -0.6944 0.9931
-1.5924 -0.5543 -0.7348 0.9927
-4.2242 -1.9079 -2.0200 0.9800
-4.0359 -2.2762 -2.0193 0.9800
-2.3010 -4.0040 -2.0126 0.9801
-1.5510 -4.3427 -2.0097 0.9801
-0.7538 -4.5419 -2.0065 0.9801
-0.3456 -4.5873 -2.0049 0.9801
0.0648 -4.5961 -2.0033 0.9801
2.3904 -3.9008 -1.9939 0.9802
3.3311 -3.1230 -1.9900 0.9803
4.0328 -2.1269 -1.9870 0.9803
4.2048 -1.7582 -1.9863 0.9803
4.3435 -1.3759 -1.9857 0.9803
4.5170 -0.5823 -1.9849 0.9803
4.5097 0.6339 -1.9847 0.9803
4.4358 1.0336 -1.9850 0.9803
4.1836 1.8058 -1.9859 0.9803
3.7991 2.5220 -1.9873 0.9803
3.0008 3.4428 -1.9904 0.9803
2.3430 3.9233 -1.9915 0.9803
1.6010 4.2560 -1.9817 0.9804
1.1778 4.2471 -1.9208 0.9810
0.7762 4.2360 -1.8769 0.9814
-0.7441 4.1863 -1.8531 0.9816
-1.1246 4.1409 -1.8700 0.9815
-1.5221 4.1129 -1.9113 0.9810
-2.3383 3.9634 -2.0055 0.9801
-2.6887 3.7479 -2.0103 0.9801
-3.0185 3.5006 -2.0145 0.9800
-3.5965 2.9122 -2.0169 0.9800
-3.8438 2.5813 -2.0179 0.9800
-4.0605 2.2293 -2.0188 0.9800
-4.2448 1.8591 -2.0196 0.9800
-1.5212 -0.1879 -0.6680 0.9933
-1.5197 -0.3273 -0.6775 0.9932
-1.5788 -0.4909 -0.7206 0.9928
-4.1104 -2.1399 -2.0196 0.9800
-3.9017 -2.4969 -2.0188 0.9800
-3.0971 -3.4353 -2.0158 0.9800
-2.7767 -3.6954 -2.0145 0.9800
-2.4345 -3.9257 -2.0132 0.9800
-1.6961 -4.2895 -2.0103 0.9801
-1.3059 -4.4202 -2.0087 0.9801
-0.9059 -4.5155 -2.0071 0.9801
0.7275 -4.5325 -2.0006 0.9802
1.5185 -4.3243 -1.9974 0.9802
1.8965 -4.1685 -1.9959 0.9802
2.2590 -3.9798 -1.9944 0.9802
2.6030 -3.7599 -1.9930 0.9802
3.4987 -2.9315 -1.9893 0.9803
4.2955 -1.5208 -1.9859 0.9803
4.5532 0.0767 -1.9846 0.9803
4.5283 0.4824 -1.9847 0.9803
4.3718 1.2793 -1.9852 0.9803
4.0773 2.0366 -1.9863 0.9803
3.3973 3.0470 -1.9888 0.9803
3.1138 3.3396 -1.9899 0.9803
1.3337 4.2508 -1.9416 0.9807
0.9249 4.2404 -1.8915 0.9812
0.1535 4.2409 -1.8495 0.9817
-2.5593 3.8324 -2.0084 0.9801
-2.8980 3.5979 -2.0134 0.9800
-3.4962 3.0305 -2.0164 0.9800
-3.7545 2.7081 -2.0175 0.9800
-3.9829 2.3637 -2.0185 0.9800
-1.5222 -0.0001 -0.6634 0.9934
-1.5001 -0.2709 -0.6643 0.9934
-1.5603 -0.4283 -0.7052 0.9930
-4.1804 -2.0013 -2.0199 0.9800
-3.7555 -2.7098 -2.0183 0.9800
-3.2111 -3.3303 -2.0162 0.9800
-2.8997 -3.6012 -2.0150 0.9800
-1.8394 -4.2314 -2.0108 0.9801
-1.0570 -4.4839 -2.0077 0.9801
-0.6524 -4.5567 -2.0061 0.9801
-0.2434 -4.5930 -2.0045 0.9801
0.1670 -4.5926 -2.0029 0.9801
0.5753 -4.5557 -2.0012 0.9802
1.3731 -4.3740 -1.9980 0.9802
1.7563 -4.2309 -1.9964 0.9802
4.2426 -1.6641 -1.9861 0.9803
4.4684 -0.8837 -1.9851 0.9803
4.5287 -0.4817 -1.9848 0.9803
4.4119 1.1320 -1.9851 0.9803
4.1427 1.8986 -1.9860 0.9803
3.9583 2.2612 -1.9867 0.9803
3.7424 2.6062 -1.9875 0.9803
3.2233 3.2327 -1.9895 0.9803
2.9239 3.5092 -1.9907 0.9803
2.2545 3.9733 -1.9910 0.9803
1.0759 4.2446 -1.9084 0.9811
0.6787 4.2329 -1.8683 0.9815
-0.8372 4.1696 -1.8534 0.9816
-1.2221 4.1343 -1.8789 0.9814
-1.6241 4.1053 -1.9241 0.9809
-2.4273 3.9126 -2.0067 0.9801
-2.7732 3.6895 -2.0115 0.9801
-3.0961 3.4331 -2.0148 0.9800
-3.3919 3.1453 -2.0160 0.9800
-3.6609 2.8319 -2.0171 0.9800
-3.9008 2.4954 -2.0181 0.9800
-4.1095 2.1386 -2.0190 0.9800
-4.2855 1.7644 -2.0198 0.9800
-1.5196 0.3271 -0.6774 0.9932
-1.5213 0.1876 -0.6680 0.9933
-1.5282 0.0511 -0.6664 0.9934
-1.5143 -0.2213 -0.6670 0.9933
-1.5374 -0.3671 -0.6888 0.9931
-4.2456 -1.8603 -2.0201 0.9800
-3.8448 -2.5829 -2.0186 0.9800
-3.5975 -2.9140 -2.0177 0.9800
-3.3216 -3.2215 -2.0166 0.9800
-1.9807 -4.1686 -2.0114 0.9801
-1.6000 -4.3253 -2.0099 0.9801
-1.2070 -4.4473 -2.0083 0.9801
1.2262 -4.4189 -1.9986 0.9802
1.6140 -4.2886 -1.9970 0.9802
2.6855 -3.7004 -1.9927 0.9802
3.2959 -3.1606 -1.9901 0.9803
3.5626 -2.8525 -1.9890 0.9803
3.8008 -2.5223 -1.9880 0.9803
4.1850 -1.8056 -1.9864 0.9803
4.5483 -0.2285 -1.9847 0.9803
4.5504 0.1780 -1.9846 0.9803
4.5165 0.5830 -1.9847 0.9803
4.3425 1.3763 -1.9853 0.9803
4.0313 2.1270 -1.9864 0.9803
3.8271 2.4789 -1.9872 0.9803
3.5924 2.8115 -1.9881 0.9803
3.0392 3.4085 -1.9902 0.9803
2.7248 3.6682 -1.9915 0.9803
2.3874 3.8973 -1.9918 0.9803
2.0282 4.0902 -1.9897 0.9803
0.8259 4.2375 -1.8815 0.9813
-0.3198 4.2360 -1.8514 0.9816
-1.0755 4.1442 -1.8659 0.9815
-2.6455 3.7768 -2.0096 0.9801
-3.2839 3.2565 -2.0156 0.9800
-4.0349 2.2748 -2.0187 0.9800
-4.2234 1.9067 -2.0195 0.9800
-1.5267 -0.0341 -0.6655 0.9934
-4.3060 -1.7172 -2.0203 0.9800
-4.1345 -2.0936 -2.0197 0.9800
-3.9298 -2.4530 -2.0189 0.9800
-3.4284 -3.1090 -2.0170 0.9800
-2.8184 -3.6642 -2.0147 0.9800
-2.4788 -3.8983 -2.0133 0.9800
-2.1199 -4.1010 -2.0119 0.9801
-1.3557 -4.4057 -2.0089 0.9801
0.2691 -4.5868 -2.0024 0.9802
0.6764 -4.5408 -2.0008 0.9802
1.4698 -4.3415 -1.9976 0.9802
1.8496 -4.1900 -1.9961 0.9802
2.5607 -3.7893 -1.9932 0.9802
2.8864 -3.5435 -1.9918 0.9803
3.1889 -3.2700 -1.9906 0.9803
3.7149 -2.6487 -1.9884 0.9803
3.9344 -2.3058 -1.9875 0.9803
4.1227 -1.9451 -1.9867 0.9803
4.2782 -1.5692 -1.9860 0.9803
4.3999 -1.1812 -1.9854 0.9803
4.4868 -0.7840 -1.9850 0.9803
4.5334 0.4313 -1.9847 0.9803
4.4773 0.8339 -1.9848 0.9803
4.3858 1.2300 -1.9852 0.9803
4.2596 1.6165 -1.9856 0.9803
3.1510 3.3040 -1.9898 0.9803
2.8455 3.5740 -1.9910 0.9803
1.7961 4.1947 -1.9886 0.9803
1.3869 4.2519 -1.9491 0.9807
-0.1776 4.2430 -1.8508 0.9816
-0.5557 4.2137 -1.8523 0.9816
-0.9314 4.1572 -1.8567 0.9816
-2.1562 4.0596 -2.0033 0.9801
-2.5152 3.8598 -2.0078 0.9801
-2.8564 3.6292 -2.0128 0.9800
-3.1722 3.3639 -2.0151 0.9800
-3.4616 3.0695 -2.0163 0.9800
-4.3240 1.6687 -2.0199 0.9800
-1.5002 0.2881 -0.6657 0.9934
-1.5247 0.0171 -0.6645 0.9934
-4.2028 -1.9541 -2.0200 0.9800
-4.0104 -2.3203 -2.0192 0.9800
-3.7860 -2.6675 -2.0184 0.9800
-2.9403 -3.5685 -2.0151 0.9800
-1.1075 -4.4722 -2.0079 0.9801
0.1152 -4.5947 -2.0031 0.9801
0.5240 -4.5624 -2.0014 0.9802
1.3239 -4.3897 -1.9982 0.9802
1.7087 -4.2508 -1.9966 0.9802
2.4329 -3.8740 -1.9937 0.9802
2.7667 -3.6391 -1.9923 0.9803
3.0782 -3.3758 -1.9910 0.9803
3.3649 -3.0860 -1.9898 0.9803
3.6247 -2.7722 -1.9888 0.9803
3.8556 -2.4368 -1.9878 0.9803
4.2237 -1.7119 -1.9862 0.9803
4.4583 -0.9340 -1.9852 0.9803
4.5231 -0.5326 -1.9849 0.9803
4.5521 -0.1272 -1.9847 0.9803
4.5453 0.2791 -1.9846 0.9803
4.3110 1.4727 -1.9854 0.9803
4.1637 1.8517 -1.9860 0.9803
2.9630 3.4758 -1.9905 0.9803
2.6430 3.7285 -1.9918 0.9803
2.2994 3.9483 -1.9912 0.9803
1.5475 4.2551 -1.9733 0.9804
0.7279 4.2345 -1.8725 0.9814
-0.0353 4.2452 -1.8502 0.9816
-0.4140 4.2287 -1.8517 0.9816
4.0620 -1.3869 -1.9868 0.9813
4.1685 -1.0189 -1.9863 0.9813
4.2820 -0.2623 -1.9858 0.9813
4.2881 0.1206 -1.9857 0.9813
3.9775 1.6128 -1.9867 0.9813
3.6302 2.2952 -1.9880 0.9812
2.6039 3.4262 -1.9920 0.9812
1.2418 4.1197 -1.9917 0.9812
0.4825 4.2065 -1.9599 0.9815
0.1044 4.1909 -1.9405 0.9817
-0.2690 4.1727 -1.9355 0.9817
-1.4096 4.0857 -2.0006 0.9811
-2.1206 3.7842 -2.0079 0.9811
-2.7666 3.3566 -2.0135 0.9810
-3.3226 2.8151 -2.0158 0.9810
-3.5621 2.5089 -2.0168 0.9810
-1.3124 0.6099 -0.6699 0.9936
-1.3333 0.4803 -0.6560 0.9938
-1.3361 -0.1349 -0.6216 0.9941
-1.3116 -0.2521 -0.6183 0.9941
-1.3221 -0.3790 -0.6366 0.9940
-1.3310 -0.5139 -0.6604 0.9937
-3.9123 -1.9274 -2.0188 0.9810
-3.5051 -2.5897 -2.0173 0.9810
-3.2587 -2.8905 -2.0163 0.9810
-2.6906 -3.4197 -2.0141 0.9810
-2.3735 -3.6437 -2.0129 0.9810
-2.0378 -3.8383 -2.0116 0.9810
-0.9473 -4.2317 -2.0073 0.9811
-0.5658 -4.2960 -2.0057 0.9811
-0.1804 -4.3261 -2.0042 0.9811
0.2059 -4.3216 -2.0027 0.9811
0.5900 -4.2827 -2.0011 0.9811
0.9687 -4.2098 -1.9996 0.9811
1.3392 -4.1036 -1.9981 0.9812
1.6985 -3.9650 -1.9966 0.9812
2.9697 -3.1129 -1.9914 0.9812
3.4717 -2.5333 -1.9893 0.9812
3.6821 -2.2127 -1.9885 0.9812
4.0137 -1.5224 -1.9870 0.9813
4.2183 -0.7849 -1.9861 0.9813
4.2748 0.3594 -1.9857 0.9813
3.7045 2.1719 -1.9877 0.9813
3.4975 2.4945 -1.9885 0.9812
3.2626 2.7977 -1.9894 0.9812
2.7167 3.3362 -1.9915 0.9812
2.4098 3.5673 -1.9927 0.9812
2.0835 3.7704 -1.9940 0.9812
0.2455 4.1971 -1.9461 0.9816
-0.1290 4.1798 -1.9357 0.9817
-0.5022 4.1600 -1.9396 0.9817
-1.2659 4.1112 -1.9912 0.9812
-2.3313 3.6650 -2.0106 0.9810
-3.6975 2.3071 -2.0173 0.9810
-3.8900 1.9690 -2.0182 0.9810
-1.3072 0.2660 -0.6175 0.9941
-1.3343 0.1493 -0.6215 0.9941
-1.3364 0.0296 -0.6187 0.9941
-1.3234 -0.2087 -0.6201 0.9941
-1.3166 -0.5947 -0.6687 0.9937
-3.7980 -2.1420 -2.0184 0.9810
-3.5905 -2.4712 -2.0176 0.9810
-3.0916 -3.0667 -2.0157 0.9810
-2.1658 -3.7688 -2.0121 0.9810
-1.8200 -3.9442 -2.0107 0.9810
-0.7097 -4.2759 -2.0063 0.9811
-0.3253 -4.3188 -2.0048 0.9811
0.4462 -4.3013 -2.0017 0.9811
0.8273 -4.2411 -2.0002 0.9811
3.3855 -2.6487 -1.9897 0.9812
3.6065 -2.3352 -1.9888 0.9812
3.7988 -2.0035 -1.9880 0.9812
3.9609 -1.6562 -1.9873 0.9813
4.0916 -1.2961 -1.9867 0.9813
4.2867 -0.1669 -1.9857 0.9813
4.2483 0.5971 -1.9858 0.9813
4.1786 0.9736 -1.9860 0.9813
3.1026 2.9761 -1.9900 0.9812
2.8264 3.2427 -1.9911 0.9812
2.5275 3.4838 -1.9923 0.9812
1.8699 3.8802 -1.9938 0.9812
1.1497 4.1460 -1.9915 0.9812
0.3875 4.2030 -1.9538 0.9816
0.0112 4.1866 -1.9379 0.9817
-0.3619 4.1677 -1.9364 0.9817
-0.7369 4.1461 -1.9493 0.9816
-1.5007 4.0550 -2.0014 0.9811
-2.5343 3.5327 -2.0125 0.9810
-2.8410 3.2948 -2.0138 0.9810
-3.1253 3.0301 -2.0149 0.9810
-3.3848 2.7408 -2.0160 0.9810
-3.6175 2.4293 -2.0170 0.9810
-3.8213 2.0980 -2.0179 0.9810
-1.3206 0.5784 -0.6673 0.9937
-1.3328 0.4469 -0.6507 0.9938
-1.3050 0.3114 -0.6210 0.9941
-1.3374 -0.0450 -0.6194 0.9941
-3.8682 -2.0138 -2.0186 0.9810
-3.6719 -2.3498 -2.0179 0.9810
-3.4463 -2.6667 -2.0170 0.9810
-3.1932 -2.9620 -2.0161 0.9810
-2.6134 -3.4782 -2.0138 0.9810
-1.2293 -4.1610 -2.0084 0.9811
-0.8528 -4.2509 -2.0069 0.9811
-0.0841 -4.3282 -2.0038 0.9811
0.6850 -4.2677 -2.0007 0.9811
1.4299 -4.0721 -1.9977 0.9812
1.7860 -3.9255 -1.9963 0.9812
2.1274 -3.7480 -1.9949 0.9812
2.4515 -3.5410 -1.9936 0.9812
3.0378 -3.0456 -1.9911 0.9812
3.2954 -2.7612 -1.9901 0.9812
3.5268 -2.4551 -1.9891 0.9812
4.2788 -0.3105 -1.9858 0.9813
4.2892 0.0722 -1.9857 0.9813
4.2087 0.8330 -1.9859 0.9813
4.1183 1.2051 -1.9862 0.9813
3.8407 1.9184 -1.9872 0.9813
3.4415 2.5720 -1.9887 0.9812
3.1999 2.8700 -1.9897 0.9812
2.9328 3.1455 -1.9907 0.9812
2.6422 3.3964 -1.9918 0.9812
2.3302 3.6206 -1.9930 0.9812
1.9994 3.8165 -1.9943 0.9812
1.6500 3.9765 -1.9928 0.9812
0.9167 4.2031 -1.9913 0.9812
0.5308 4.2082 -1.9633 0.9815
-0.2219 4.1751 -1.9353 0.9817
-1.7262 3.9693 -2.0036 0.9811
-2.4136 3.6142 -2.0117 0.9810
-2.7284 3.3873 -2.0133 0.9810
-1.3160 0.2374 -0.6190 0.9941
-1.3375 0.1196 -0.6216 0.9941
-1.3375 -0.1198 -0.6216 0.9941
-1.3159 -0.2376 -0.6190 0.9941
-3.9340 -1.8833 -2.0189 0.9810
-3.0222 -3.1343 -2.0154 0.9810
-2.4146 -3.6170 -2.0130 0.9810
-1.7315 -3.9831 -2.0104 0.9810
-0.2291 -4.3242 -2.0044 0.9811
0.9213 -4.2209 -1.9998 0.9811
1.2930 -4.1188 -1.9983 0.9812
1.6539 -3.9842 -1.9968 0.9812
2.0011 -3.8182 -1.9954 0.9812
2.9346 -3.1464 -1.9916 0.9812
3.2017 -2.8706 -1.9905 0.9812
3.4432 -2.5724 -1.9895 0.9812
3.8420 -1.9183 -1.9878 0.9812
4.1192 -1.2047 -1.9866 0.9813
4.2093 -0.8324 -1.9861 0.9813
4.2661 -0.4537 -1.9859 0.9813
4.0452 1.4330 -1.9865 0.9813
2.7539 3.3052 -1.9914 0.9812
2.4497 3.5397 -1.9926 0.9812
0.2931 4.1991 -1.9484 0.9816
-0.0819 4.1821 -1.9362 0.9817
-0.4550 4.1626 -1.9383 0.9817
-0.8313 4.1403 -1.9547 0.9816
-1.2164 4.1147 -1.9861 0.9813
-1.5912 4.0223 -2.0022 0.9811
-1.9471 3.8714 -2.0059 0.9811
-2.2892 3.6900 -2.0100 0.9810
-2.6127 3.4760 -2.0128 0.9810
-2.9140 3.2312 -2.0141 0.9810
-3.1924 2.9602 -2.0152 0.9810
-1.3268 0.5463 -0.6642 0.9937
-1.3023 0.2803 -0.6166 0.9941
-1.3321 0.1643 -0.6213 0.9941
-1.3385 -0.0748 -0.6205 0.9941
-1.3267 -0.1939 -0.6206 0.9941
-1.3328 -0.4471 -0.6507 0.9938
-3.1261 -3.0319 -2.0158 0.9810
-2.8418 -3.2967 -2.0147 0.9810
-2.2083 -3.7445 -2.0122 0.9810
-1.8644 -3.9238 -2.0109 0.9810
-1.5061 -4.0716 -2.0095 0.9810
-0.7579 -4.2680 -2.0065 0.9811
-0.3740 -4.3153 -2.0050 0.9811
0.3978 -4.3065 -2.0019 0.9811
1.1546 -4.1610 -1.9988 0.9811
1.5199 -4.0385 -1.9974 0.9812
1.8726 -3.8841 -1.9959 0.9812
2.8282 -3.2437 -1.9920 0.9812
3.1043 -2.9769 -1.9909 0.9812
3.3556 -2.6868 -1.9898 0.9812
3.7761 -2.0463 -1.9881 0.9812
3.9421 -1.7008 -1.9873 0.9813
4.1793 -0.9731 -1.9863 0.9813
4.2547 0.5492 -1.9858 0.9813
3.9597 1.6565 -1.9868 0.9813
3.7974 2.0035 -1.9874 0.9813
3.3838 2.6482 -1.9890 0.9812
3.1357 2.9408 -1.9899 0.9812
2.5663 3.4548 -1.9921 0.9812
2.2495 3.6721 -1.9934 0.9812
1.5608 4.0116 -1.9925 0.9812
1.1964 4.1329 -1.9916 0.9812
0.8220 4.2174 -1.9889 0.9812
0.0584 4.1888 -1.9391 0.9817
-0.3148 4.1703 -1.9358 0.9817
-0.6893 4.1490 -1.9468 0.9816
-1.0704 4.1247 -1.9725 0.9814
-2.1625 3.7616 -2.0084 0.9811
-2.4942 3.5608 -2.0123 0.9810
-1.3167 0.5944 -0.6687 0.9937
-1.3385 0.0897 -0.6210 0.9941
-1.3364 -0.0298 -0.6187 0.9941
-1.3071 -0.2662 -0.6175 0.9941
-3.6983 -2.3084 -2.0180 0.9810
-3.2266 -2.9260 -2.0162 0.9810
-2.6527 -3.4488 -2.0140 0.9810
-2.3332 -3.6693 -2.0127 0.9810
-1.9954 -3.8601 -2.0114 0.9810
-0.5185 -4.3016 -2.0056 0.9811
-0.1328 -4.3274 -2.0040 0.9811
1.0148 -4.1985 -1.9994 0.9811
1.3841 -4.0883 -1.9979 0.9812
1.7418 -3.9457 -1.9965 0.9812
2.4116 -3.5687 -1.9937 0.9812
3.0035 -3.0799 -1.9913 0.9812
4.2898 0.0239 -1.9857 0.9813
4.2706 0.4063 -1.9857 0.9813
4.1315 1.1586 -1.9862 0.9813
3.6806 2.2126 -1.9878 0.9812
3.4701 2.5329 -1.9886 0.9812
2.9679 3.1120 -1.9906 0.9812
1.3344 4.0911 -1.9919 0.9812
0.9640 4.1926 -1.9913 0.9812
0.1992 4.1951 -1.9440 0.9817
-0.5482 4.1573 -1.9410 0.9817
-0.9262 4.1342 -1.9611 0.9815
-1.3144 4.1077 -1.9964 0.9812
-2.6898 3.4176 -2.0132 0.9810
-2.9856 3.1660 -2.0144 0.9810
-3.2579 2.8888 -2.0155 0.9810
-3.5043 2.5882 -2.0165 0.9810
-3.7228 2.2665 -2.0174 0.9810
-3.9116 1.9263 -2.0183 0.9810
-1.3221 0.3788 -0.6366 0.9940
-1.3117 0.2519 -0.6183 0.9941
-1.3350 0.0149 -0.6180 0.9941
-1.3382 -0.1047 -0.6213 0.9941
-1.3143 -0.3449 -0.6290 0.9940
-1.3333 -0.4805 -0.6560 0.9938
-3.7741 -2.1835 -2.0183 0.9810
-3.5630 -2.5103 -2.0175 0.9810
-3.3234 -2.8167 -2.0166 0.9810
-2.4554 -3.5899 -2.0132 0.9810
-1.0426 -4.2101 -2.0076 0.9811
-0.6626 -4.2830 -2.0061 0.9811
-0.2779 -4.3217 -2.0046 0.9811
