ply
format ascii 1.0
element vertex 1594
property float32 x
property float32 y
property float32 z
property float32 I
end_header
-3.5014 -4.3696 -2.0024 0.9765
-3.0977 -4.6642 -2.0023 0.9765
-2.6694 -4.9217 -2.0022 0.9765
-2.2199 -5.1399 -2.0022 0.9765
-1.7527 -5.3171 -2.0021 0.9765
-1.2715 -5.4519 -2.0020 0.9765
-0.7803 -5.5434 -2.0019 0.9765
-0.2829 -5.5906 -2.0018 0.9765
0.7145 -5.5514 -2.0016 0.9765
1.2066 -5.4654 -2.0015 0.9765
3.0405 -4.6979 -2.0012 0.9765
3.4472 -4.4079 -2.0011 0.9765
4.1750 -3.7253 -2.0010 0.9765
4.7700 -2.9244 -2.0008 0.9765
5.0117 -2.4873 -2.0008 0.9765
5.3736 -1.5576 -2.0007 0.9765
5.4910 -1.0722 -2.0007 0.9765
5.5647 -0.5784 -2.0007 0.9765
5.5941 -0.0799 -2.0007 0.9765
5.4159 1.4035 -2.0007 0.9765
5.2692 1.8808 -2.0007 0.9765
5.0806 2.3432 -2.0008 0.9765
4.2796 3.6045 -2.0009 0.9765
2.1293 4.7121 -1.8491 0.9783
1.7007 4.8834 -1.8492 0.9783
1.2586 5.0158 -1.8493 0.9783
0.8064 5.1083 -1.8494 0.9783
0.3477 5.1601 -1.8495 0.9783
-0.1121 5.0926 -1.8216 0.9786
-1.0305 5.0688 -1.8497 0.9783
-1.9146 4.8056 -1.8499 0.9783
-2.3356 4.6160 -1.8500 0.9783
-2.7379 4.3895 -1.8501 0.9783
-3.1185 4.1281 -1.8501 0.9783
-3.6596 4.0382 -1.9489 0.9771
-4.1073 3.7901 -1.9986 0.9765
-4.9740 2.5732 -2.0027 0.9765
-5.3522 1.6488 -2.0027 0.9765
-5.5600 0.6720 -2.0028 0.9765
-5.5396 -0.8235 -2.0028 0.9765
-5.4441 -1.3141 -2.0028 0.9765
-5.3052 -1.7943 -2.0027 0.9765
-4.9019 -2.7079 -2.0027 0.9765
-4.6408 -3.1341 -2.0026 0.9765
-3.6456 -4.2502 -2.0024 0.9765
-2.8325 -4.8298 -2.0023 0.9765
-2.3905 -5.0629 -2.0022 0.9765
-1.9294 -5.2556 -2.0021 0.9765
-0.9652 -5.5143 -2.0019 0.9765
0.0296 -5.5975 -2.0017 0.9765
0.5286 -5.5723 -2.0016 0.9765
1.0232 -5.5027 -2.0015 0.9765
1.5097 -5.3893 -2.0015 0.9765
2.4428 -5.0350 -2.0013 0.9765
2.8819 -4.7970 -2.0012 0.9765
3.2980 -4.5207 -2.0011 0.9765
3.6878 -4.2085 -2.0010 0.9765
4.0482 -3.8628 -2.0010 0.9765
4.3764 -3.4864 -2.0009 0.9765
5.1426 -2.2037 -2.0008 0.9765
5.4521 -1.2552 -2.0007 0.9765
5.5423 -0.7640 -2.0007 0.9765
5.4597 1.2217 -2.0007 0.9765
5.3291 1.7036 -2.0007 0.9765
5.1561 2.1721 -2.0008 0.9765
4.3977 3.4594 -2.0009 0.9765
4.0718 3.8379 -2.0010 0.9765
3.7135 4.1858 -2.0010 0.9765
3.3150 4.4860 -1.9947 0.9766
2.7103 4.4493 -1.8630 0.9781
2.2855 4.6382 -1.8491 0.9783
1.4255 4.9709 -1.8493 0.9783
0.9766 5.0784 -1.8494 0.9783
0.5200 5.1455 -1.8494 0.9783
0.0585 5.1213 -1.8315 0.9785
-0.4023 5.1565 -1.8496 0.9783
-1.3119 5.0035 -1.8498 0.9783
-2.1799 4.6914 -1.8499 0.9783
-2.5896 4.4785 -1.8500 0.9783
-2.9788 4.2299 -1.8501 0.9783
-3.4369 4.0571 -1.9015 0.9777
-4.3206 3.5616 -2.0023 0.9765
-4.6215 3.1625 -2.0026 0.9765
-4.8852 2.7380 -2.0027 0.9765
-5.1100 2.2915 -2.0027 0.9765
-5.4359 1.3475 -2.0028 0.9765
-5.5345 0.8575 -2.0028 0.9765
-5.5988 -0.1392 -2.0028 0.9765
-5.1967 -2.0876 -2.0027 0.9765
-4.9898 -2.5426 -2.0027 0.9765
-4.7431 -2.9773 -2.0026 0.9765
-4.4586 -3.3882 -2.0026 0.9765
-3.7856 -4.1260 -2.0024 0.9765
-3.4025 -4.4470 -2.0024 0.9765
-2.9924 -4.7325 -2.0023 0.9765
-2.5584 -4.9802 -2.0022 0.9765
-0.6558 -5.5594 -2.0019 0.9765
1.3288 -5.4369 -2.0015 0.9765
2.2731 -5.1140 -2.0013 0.9765
2.7200 -4.8907 -2.0012 0.9765
4.2574 -3.6307 -2.0009 0.9765
4.5641 -3.2366 -2.0009 0.9765
4.8344 -2.8167 -2.0008 0.9765
5.5945 0.0455 -2.0007 0.9765
5.5681 0.5442 -2.0007 0.9765
5.4975 1.0385 -2.0007 0.9765
5.2257 1.9985 -2.0008 0.9765
5.0268 2.4565 -2.0008 0.9765
4.5108 3.3105 -2.0009 0.9765
4.1978 3.6996 -2.0010 0.9765
3.8513 4.0593 -2.0010 0.9765
3.4672 4.3779 -1.9971 0.9766
2.9385 4.4797 -1.9159 0.9775
2.4420 4.5643 -1.8512 0.9782
0.6917 5.1252 -1.8494 0.9783
0.2306 5.1374 -1.8390 0.9784
-0.2297 5.1670 -1.8496 0.9783
-0.6895 5.1262 -1.8497 0.9783
-3.8153 4.0248 -1.9832 0.9767
-4.1943 3.6998 -2.0001 0.9765
-4.5132 3.3152 -2.0026 0.9765
-5.0305 2.4610 -2.0027 0.9765
-5.2300 2.0027 -2.0027 0.9765
-5.3878 1.5284 -2.0027 0.9765
-5.5027 1.0420 -2.0028 0.9765
-5.5737 0.5472 -2.0028 0.9765
-5.5198 -0.9474 -2.0028 0.9765
-5.4132 -1.4358 -2.0028 0.9765
-5.0720 -2.3744 -2.0027 0.9765
-4.5694 -3.2374 -2.0026 0.9765
-4.2624 -3.6318 -2.0025 0.9765
-3.5493 -4.3308 -2.0024 0.9765
-1.8111 -5.2975 -2.0021 0.9765
-1.3315 -5.4377 -2.0020 0.9765
-0.8413 -5.5345 -2.0019 0.9765
-0.3444 -5.5872 -2.0018 0.9765
0.1551 -5.5954 -2.0017 0.9765
0.6533 -5.5590 -2.0016 0.9765
1.1463 -5.4783 -2.0015 0.9765
1.6302 -5.3541 -2.0014 0.9765
2.5550 -4.9790 -2.0013 0.9765
4.4534 -3.3874 -2.0009 0.9765
4.7376 -2.9767 -2.0009 0.9765
4.9840 -2.5424 -2.0008 0.9765
5.5580 -0.6396 -2.0007 0.9765
5.5929 -0.1415 -2.0007 0.9765
5.2896 1.8227 -2.0007 0.9765
4.6189 3.1578 -2.0009 0.9765
4.3191 3.5572 -2.0009 0.9765
3.1925 4.5293 -1.9816 0.9767
2.5929 4.4796 -1.8509 0.9783
1.7544 4.8644 -1.8492 0.9783
0.8625 5.0991 -1.8494 0.9783
-0.0562 5.1082 -1.8268 0.9785
-0.9746 5.0798 -1.8497 0.9783
-2.2846 4.6414 -1.8500 0.9783
-2.6894 4.4194 -1.8500 0.9783
-4.9203 1.7609 -2.0027 0.9779
-5.0578 1.3152 -2.0027 0.9779
-5.2256 -0.0703 -2.0027 0.9779
-5.1300 -0.9973 -2.0027 0.9779
-5.0206 -1.4507 -2.0027 0.9779
-4.6829 -2.3193 -2.0026 0.9779
-4.4574 -2.7275 -2.0026 0.9779
-4.1963 -3.1140 -2.0025 0.9779
-3.2222 -4.1132 -2.0023 0.9779
-2.8426 -4.3840 -2.0023 0.9779
-2.0185 -4.8188 -2.0021 0.9779
-1.5808 -4.9794 -2.0020 0.9779
-1.1304 -5.1003 -2.0020 0.9779
-0.6712 -5.1805 -2.0019 0.9779
0.2597 -5.2169 -2.0017 0.9779
0.7237 -5.1728 -2.0016 0.9779
1.6309 -4.9615 -2.0014 0.9779
2.8855 -4.3525 -2.0012 0.9779
3.2619 -4.0777 -2.0011 0.9779
3.6124 -3.7705 -2.0011 0.9779
3.9341 -3.4333 -2.0010 0.9779
4.2245 -3.0688 -2.0009 0.9779
4.4811 -2.6798 -2.0009 0.9779
4.8857 -1.8412 -2.0008 0.9779
5.0303 -1.3982 -2.0008 0.9779
5.1986 -0.4825 -2.0008 0.9779
4.7169 2.2387 -2.0009 0.9779
4.4986 2.6504 -2.0009 0.9779
2.9061 4.3220 -1.9959 0.9779
2.4119 4.3870 -1.9185 0.9788
1.5368 4.5743 -1.8492 0.9795
0.7000 4.7750 -1.8494 0.9795
0.2714 4.8186 -1.8495 0.9795
-1.0136 4.7192 -1.8497 0.9795
-1.4304 4.6102 -1.8498 0.9795
-1.8359 4.4645 -1.8499 0.9795
-2.2267 4.2832 -1.8500 0.9795
-3.1370 4.0588 -1.9658 0.9783
-3.5441 3.8252 -1.9983 0.9779
-3.8790 3.5011 -2.0025 0.9779
-4.1758 3.1414 -2.0025 0.9779
-4.8587 1.9244 -2.0026 0.9779
-5.0110 1.4835 -2.0027 0.9779
-5.1949 0.5699 -2.0027 0.9779
-5.2250 0.1044 -2.0027 0.9779
-5.2135 -0.3619 -2.0027 0.9779
-5.0663 -1.2821 -2.0027 0.9779
-4.5461 -2.5771 -2.0026 0.9779
-4.2981 -2.9721 -2.0025 0.9779
-4.0159 -3.3434 -2.0025 0.9779
-2.9875 -4.2866 -2.0023 0.9779
-2.1785 -4.7487 -2.0021 0.9779
-0.8440 -5.1553 -2.0019 0.9779
-0.3809 -5.2098 -2.0018 0.9779
0.5504 -5.1941 -2.0016 0.9779
1.0113 -5.1242 -2.0016 0.9779
3.1239 -4.1846 -2.0012 0.9779
3.4844 -3.8892 -2.0011 0.9779
3.8172 -3.5629 -2.0010 0.9779
4.1196 -3.2083 -2.0010 0.9779
4.3891 -2.8281 -2.0009 0.9779
4.6237 -2.4255 -2.0009 0.9779
5.1005 -1.1152 -2.0008 0.9779
5.1796 -0.6560 -2.0008 0.9779
5.2174 -0.1916 -2.0008 0.9779
5.2137 0.2744 -2.0008 0.9779
4.9553 1.6445 -2.0008 0.9779
4.5846 2.4986 -2.0009 0.9779
4.3437 2.8975 -2.0009 0.9779
4.0681 3.2733 -2.0010 0.9779
3.7602 3.6231 -2.0010 0.9779
3.0520 4.2267 -1.9979 0.9779
2.6230 4.4147 -1.9679 0.9782
2.0866 4.3548 -1.8505 0.9795
1.2791 4.6531 -1.8493 0.9795
0.8592 4.7488 -1.8494 0.9795
0.4323 4.8067 -1.8495 0.9795
0.0020 4.8263 -1.8495 0.9795
-0.4283 4.8075 -1.8496 0.9795
-1.2755 4.6554 -1.8498 0.9795
-1.6856 4.5233 -1.8499 0.9795
-2.9376 4.0754 -1.9252 0.9787
-3.4111 3.9379 -1.9965 0.9779
-3.7581 3.6272 -2.0016 0.9779
-4.3448 2.9035 -2.0026 0.9779
-4.9585 1.6502 -2.0027 0.9779
-5.0860 1.2015 -2.0027 0.9779
-5.2186 0.2790 -2.0027 0.9779
-5.2227 -0.1874 -2.0027 0.9779
-5.1852 -0.6523 -2.0027 0.9779
-5.1063 -1.1120 -2.0027 0.9779
-4.8275 -2.0013 -2.0026 0.9779
-4.6297 -2.4237 -2.0026 0.9779
-4.1254 -3.2073 -2.0025 0.9779
-3.8229 -3.5623 -2.0025 0.9779
-3.4899 -3.8888 -2.0024 0.9779
-3.1292 -4.1844 -2.0023 0.9779
-2.7435 -4.4466 -2.0023 0.9779
-2.3360 -4.6733 -2.0022 0.9779
-0.5548 -5.1942 -2.0018 0.9779
1.2958 -5.0596 -2.0015 0.9779
1.7417 -4.9237 -2.0014 0.9779
2.5883 -4.5357 -2.0013 0.9779
2.9823 -4.2867 -2.0012 0.9779
4.0101 -3.3442 -2.0010 0.9779
4.5401 -2.5787 -2.0009 0.9779
4.7518 -2.1635 -2.0008 0.9779
4.9257 -1.7312 -2.0008 0.9779
5.2081 -0.3659 -2.0008 0.9779
5.2200 0.1000 -2.0008 0.9779
5.1903 0.5650 -2.0008 0.9779
4.1752 3.1355 -2.0010 0.9779
2.8067 4.3832 -1.9946 0.9780
1.8389 4.4613 -1.8492 0.9795
1.4339 4.6077 -1.8493 0.9795
1.0174 4.7174 -1.8493 0.9795
0.1633 4.8235 -1.8495 0.9795
-2.7458 4.0909 -1.8881 0.9791
-3.2747 4.0461 -1.9947 0.9779
-3.9565 3.4133 -2.0025 0.9779
-4.5001 2.6564 -2.0026 0.9779
-4.7192 2.2447 -2.0026 0.9779
-5.1452 0.9157 -2.0027 0.9779
-5.2260 -0.0127 -2.0027 0.9779
-5.2041 -0.4786 -2.0027 0.9779
-5.1406 -0.9407 -2.0027 0.9779
-4.7082 -2.2676 -2.0026 0.9779
-4.4871 -2.6783 -2.0026 0.9779
-4.2304 -3.0677 -2.0025 0.9779
-3.9399 -3.4325 -2.0025 0.9779
-2.4910 -4.5927 -2.0022 0.9779
-2.0715 -4.7963 -2.0021 0.9779
-1.1865 -5.0875 -2.0020 0.9779
-0.7282 -5.1729 -2.0019 0.9779
-0.2640 -5.2170 -2.0018 0.9779
0.2022 -5.2195 -2.0017 0.9779
0.6667 -5.1804 -2.0016 0.9779
1.1259 -5.1001 -2.0015 0.9779
1.5762 -4.9792 -2.0014 0.9779
2.8374 -4.3840 -2.0012 0.9779
3.2169 -4.1134 -2.0011 0.9779
4.6769 -2.3212 -2.0009 0.9779
4.8651 -1.8949 -2.0008 0.9779
5.2204 -0.0746 -2.0008 0.9779
5.1507 0.8539 -2.0008 0.9779
4.7412 2.1867 -2.0008 0.9779
3.6780 3.7065 -2.0010 0.9779
1.9870 4.3973 -1.8492 0.9795
-1.3796 4.6256 -1.8498 0.9795
-3.0704 4.0644 -1.9520 0.9784
-3.5006 3.8628 -1.9977 0.9779
-4.1410 3.1872 -2.0025 0.9779
-4.4088 2.8053 -2.0026 0.9779
-4.6415 2.4011 -2.0026 0.9779
-4.8372 1.9777 -2.0026 0.9779
-4.9943 1.5386 -2.0027 0.9779
-5.1883 0.6271 -2.0027 0.9779
-5.2172 -0.3044 -2.0027 0.9779
-5.1692 -0.7684 -2.0027 0.9779
-4.9504 -1.6743 -2.0027 0.9779
-4.7814 -2.1090 -2.0026 0.9779
-4.5742 -2.5269 -2.0026 0.9779
-4.3306 -2.9246 -2.0026 0.9779
-3.7421 -3.6471 -2.0024 0.9779
-3.0346 -4.2534 -2.0023 0.9779
0.0276 -5.2234 -2.0017 0.9779
0.4933 -5.1999 -2.0016 0.9779
1.4089 -5.0292 -2.0015 0.9779
1.8516 -4.8833 -2.0014 0.9779
2.6893 -4.4765 -2.0012 0.9779
3.0776 -4.2187 -2.0012 0.9779
3.4414 -3.9273 -2.0011 0.9779
4.3577 -2.8763 -2.0009 0.9779
4.5967 -2.4762 -2.0009 0.9779
4.7991 -2.0565 -2.0008 0.9779
5.0950 1.1401 -2.0008 0.9779
4.8116 2.0270 -2.0008 0.9779
4.3753 2.8495 -2.0009 0.9779
4.1039 3.2283 -2.0010 0.9779
3.7998 3.5815 -2.0010 0.9779
2.6949 4.4241 -1.9852 0.9781
2.1450 4.3531 -1.8597 0.9794
0.0552 4.8260 -1.8495 0.9795
-0.3754 4.8119 -1.8496 0.9795
-0.8030 4.7595 -1.8497 0.9795
-1.6357 4.5416 -1.8498 0.9795
-2.0342 4.3778 -1.8499 0.9795
-3.3665 3.9740 -1.9959 0.9779
-4.3125 2.9511 -2.0025 0.9779
-4.9401 1.7046 -2.0027 0.9779
-5.1644 0.8001 -2.0027 0.9779
-5.2152 0.3365 -2.0027 0.9779
-5.2244 -0.1299 -2.0027 0.9779
-5.1182 -1.0558 -2.0027 0.9779
-5.0037 -1.5079 -2.0027 0.9779
-4.8492 -1.9480 -2.0026 0.9779
-4.6561 -2.3726 -2.0026 0.9779
-4.4259 -2.7782 -2.0026 0.9779
-4.1605 -3.1617 -2.0025 0.9779
-3.8619 -3.5200 -2.0025 0.9779
-1.0722 -5.1128 -2.0019 0.9779
-0.1470 -5.2215 -2.0018 0.9779
0.7827 -5.1641 -2.0016 0.9779
1.2400 -5.0736 -2.0015 0.9779
1.6874 -4.9426 -2.0014 0.9779
2.5382 -4.5639 -2.0013 0.9779
2.9349 -4.3193 -2.0012 0.9779
3.9730 -3.3882 -2.0010 0.9779
4.2592 -3.0204 -2.0009 0.9779
4.7277 -2.2157 -2.0009 0.9779
5.0459 -1.3408 -2.0008 0.9779
5.1962 0.5078 -2.0008 0.9779
4.6910 2.2924 -2.0009 0.9779
2.8557 4.3534 -1.9952 0.9779
2.3423 4.3779 -1.9027 0.9790
1.4845 4.5916 -1.8493 0.9795
1.0693 4.7059 -1.8493 0.9795
0.2164 4.8214 -1.8495 0.9795
-0.2143 4.8217 -1.8496 0.9795
-0.6434 4.7836 -1.8497 0.9795
-1.4830 4.5936 -1.8498 0.9795
-3.2069 4.0529 -1.9805 0.9781
-4.2114 3.0936 -2.0025 0.9779
-4.6942 2.2965 -2.0026 0.9779
-5.0276 1.4262 -2.0027 0.9779
-5.2010 0.5106 -2.0027 0.9779
-5.2090 -0.4213 -2.0027 0.9779
-5.1507 -0.8841 -2.0027 0.9779
-5.0513 -1.3398 -2.0027 0.9779
-4.5164 -2.6288 -2.0026 0.9779
-4.2639 -3.0209 -2.0025 0.9779
-3.9774 -3.3890 -2.0025 0.9779
-3.6593 -3.7300 -2.0024 0.9779
-2.5414 -4.5650 -2.0022 0.9779
-1.6900 -4.9434 -2.0021 0.9779
-0.7851 -5.1646 -2.0019 0.9779
0.6097 -5.1875 -2.0016 0.9779
1.5212 -4.9963 -2.0015 0.9779
1.9606 -4.8406 -2.0014 0.9779
2.3843 -4.6463 -2.0013 0.9779
2.7890 -4.4150 -2.0012 0.9779
3.1714 -4.1486 -2.0011 0.9779
3.5285 -3.8492 -2.0011 0.9779
3.8576 -3.5191 -2.0010 0.9779
4.1559 -3.1611 -2.0010 0.9779
4.8440 -1.9483 -2.0008 0.9779
4.9983 -1.5087 -2.0008 0.9779
5.1129 -1.0570 -2.0008 0.9779
5.2193 -0.1320 -2.0008 0.9779
5.2103 0.3339 -2.0008 0.9779
4.7650 2.1343 -2.0008 0.9779
4.3103 2.9469 -2.0009 0.9779
4.0305 3.3195 -2.0010 0.9779
3.7186 3.6658 -2.0010 0.9779
2.5498 4.4051 -1.9505 0.9784
2.0353 4.3751 -1.8492 0.9795
1.6371 4.5393 -1.8492 0.9795
1.2259 4.6674 -1.8493 0.9795
0.3774 4.8114 -1.8495 0.9795
-0.4832 4.8023 -1.8496 0.9795
-0.9095 4.7403 -1.8497 0.9795
-2.5096 4.1240 -1.8500 0.9795
-4.6069 1.6487 -2.0026 0.9791
-4.7356 1.2314 -2.0026 0.9791
-1.9575 -0.2018 -0.8054 0.9915
-4.8032 -0.9338 -2.0026 0.9791
-4.7008 -1.3583 -2.0026 0.9791
-4.5609 -1.7720 -2.0026 0.9791
-4.3847 -2.1716 -2.0026 0.9791
-4.1735 -2.5538 -2.0025 0.9791
-2.6615 -4.1048 -2.0022 0.9791
-2.2849 -4.3256 -2.0022 0.9791
-1.8900 -4.5119 -2.0021 0.9791
-1.4801 -4.6623 -2.0020 0.9791
-0.1934 -4.8872 -2.0018 0.9791
0.2431 -4.8848 -2.0017 0.9791
1.1068 -4.7635 -2.0015 0.9791
1.5270 -4.6457 -2.0015 0.9791
2.3277 -4.3003 -2.0013 0.9791
3.6837 -3.2148 -2.0010 0.9791
3.9556 -2.8735 -2.0010 0.9791
4.4029 -2.1251 -2.0009 0.9791
4.7102 -1.3093 -2.0009 0.9791
4.8081 -0.8841 -2.0008 0.9791
4.5859 1.6941 -2.0009 0.9791
4.4167 2.0963 -2.0009 0.9791
4.2123 2.4818 -2.0009 0.9791
3.9743 2.8475 -2.0010 0.9791
3.7047 3.1906 -2.0010 0.9791
3.4055 3.5083 -2.0011 0.9791
3.0792 3.7981 -2.0012 0.9791
2.7265 4.0549 -1.9998 0.9791
1.8942 4.3180 -1.9298 0.9798
0.2542 4.5118 -1.8495 0.9807
-0.1492 4.5167 -1.8496 0.9807
-0.5513 4.4856 -1.8496 0.9807
-0.9491 4.4187 -1.8497 0.9807
-1.7190 4.1802 -1.8499 0.9807
-2.6076 4.0798 -1.9817 0.9793
-2.9854 3.8626 -1.9980 0.9791
-3.3251 3.5888 -2.0024 0.9791
-3.6320 3.2782 -2.0024 0.9791
-3.9099 2.9413 -2.0025 0.9791
-4.1567 2.5811 -2.0025 0.9791
-4.3703 2.2002 -2.0026 0.9791
-4.5492 1.8018 -2.0026 0.9791
-1.9566 0.2146 -0.8056 0.9915
-1.9176 0.0383 -0.7850 0.9917
-4.4548 -2.0238 -2.0026 0.9791
-4.2565 -2.4129 -2.0025 0.9791
-4.0243 -2.7828 -2.0025 0.9791
-3.4659 -3.4531 -2.0024 0.9791
-3.1441 -3.7483 -2.0023 0.9791
-2.7973 -4.0136 -2.0023 0.9791
-2.0398 -4.4463 -2.0021 0.9791
-1.6351 -4.6103 -2.0020 0.9791
0.5154 -4.8635 -2.0016 0.9791
0.9470 -4.7979 -2.0016 0.9791
1.3709 -4.6942 -2.0015 0.9791
2.9250 -3.9182 -2.0012 0.9791
3.2626 -3.6417 -2.0011 0.9791
3.5742 -3.3362 -2.0011 0.9791
4.1098 -2.6481 -2.0010 0.9791
4.3294 -2.2711 -2.0009 0.9791
4.6638 -1.4660 -2.0009 0.9791
4.7759 -1.0443 -2.0008 0.9791
4.8500 -0.6143 -2.0008 0.9791
4.8819 0.2569 -2.0008 0.9791
4.2928 2.3396 -2.0009 0.9791
4.0672 2.7131 -2.0010 0.9791
3.5208 3.3925 -2.0011 0.9791
3.2044 3.6930 -2.0011 0.9791
1.6072 4.3020 -1.8796 0.9803
0.8045 4.4465 -1.8494 0.9807
0.0019 4.5191 -1.8495 0.9807
-1.9740 4.1287 -1.8730 0.9804
-2.4280 4.0942 -1.9482 0.9796
-2.8524 3.9573 -1.9965 0.9791
-3.2007 3.6950 -2.0007 0.9791
-3.5203 3.3977 -2.0024 0.9791
-3.8094 3.0704 -2.0025 0.9791
-4.0680 2.7185 -2.0025 0.9791
-4.2943 2.3450 -2.0025 0.9791
-4.6427 1.5451 -2.0026 0.9791
-1.9526 -0.2456 -0.8054 0.9915
-4.7811 -1.0412 -2.0026 0.9791
-4.6691 -1.4633 -2.0026 0.9791
-4.3348 -2.2693 -2.0026 0.9791
-4.1151 -2.6467 -2.0025 0.9791
-3.8627 -3.0031 -2.0025 0.9791
-2.9299 -3.9179 -2.0023 0.9791
-1.7883 -4.5531 -2.0021 0.9791
-1.3752 -4.6943 -2.0020 0.9791
-0.0838 -4.8903 -2.0018 0.9791
0.3526 -4.8781 -2.0017 0.9791
0.7861 -4.8270 -2.0016 0.9791
1.6308 -4.6103 -2.0014 0.9791
2.4235 -4.2470 -2.0013 0.9791
3.4608 -3.4538 -2.0011 0.9791
3.7548 -3.1314 -2.0010 0.9791
4.4494 -2.0259 -2.0009 0.9791
4.6123 -1.6210 -2.0009 0.9791
4.8267 -0.7760 -2.0008 0.9791
4.8767 -0.3426 -2.0008 0.9791
4.7935 0.9603 -2.0008 0.9791
4.6888 1.3839 -2.0009 0.9791
4.5468 1.7965 -2.0009 0.9791
3.9095 2.9359 -2.0010 0.9791
2.9933 3.8662 -2.0012 0.9791
2.2510 4.3211 -1.9941 0.9792
1.7772 4.3116 -1.9087 0.9800
0.5550 4.4846 -1.8494 0.9807
0.1529 4.5164 -1.8495 0.9807
-0.6517 4.4721 -1.8497 0.9807
-1.0479 4.3964 -1.8497 0.9807
-1.4358 4.2856 -1.8498 0.9807
-2.7166 4.0474 -1.9951 0.9792
-3.0729 3.7968 -1.9991 0.9791
-3.4048 3.5134 -2.0024 0.9791
-3.7046 3.1959 -2.0024 0.9791
-4.2135 2.4873 -2.0025 0.9791
-4.4186 2.1017 -2.0026 0.9791
-4.5885 1.6994 -2.0026 0.9791
-4.7218 1.2835 -2.0026 0.9791
-1.9004 -0.0046 -0.7778 0.9918
-4.7154 -1.3065 -2.0026 0.9791
-4.5801 -1.7217 -2.0026 0.9791
-4.4083 -2.1232 -2.0026 0.9791
-3.3876 -3.5300 -2.0024 0.9791
-3.0593 -3.8178 -2.0023 0.9791
-2.3324 -4.3002 -2.0022 0.9791
-1.9396 -4.4909 -2.0021 0.9791
-1.5314 -4.6458 -2.0020 0.9791
-1.1110 -4.7636 -2.0019 0.9791
-0.6818 -4.8435 -2.0019 0.9791
-0.2472 -4.8848 -2.0018 0.9791
0.6243 -4.8506 -2.0016 0.9791
1.0543 -4.7755 -2.0015 0.9791
1.8856 -4.5119 -2.0014 0.9791
2.2803 -4.3257 -2.0013 0.9791
2.6568 -4.1050 -2.0012 0.9791
3.0121 -3.8516 -2.0012 0.9791
3.6481 -3.2552 -2.0011 0.9791
3.9237 -2.9169 -2.0010 0.9791
4.1681 -2.5553 -2.0010 0.9791
4.5555 -1.7743 -2.0009 0.9791
4.6955 -1.3610 -2.0009 0.9791
4.8882 -0.0698 -2.0008 0.9791
4.8229 0.7995 -2.0008 0.9791
4.4395 2.0475 -2.0009 0.9791
4.2393 2.4352 -2.0009 0.9791
3.4439 3.4706 -2.0011 0.9791
3.1209 3.7640 -2.0012 0.9791
2.7718 4.0258 -2.0005 0.9791
2.3962 4.2469 -1.9957 0.9791
1.9526 4.3211 -1.9407 0.9797
1.4960 4.2955 -1.8616 0.9805
-0.0994 4.5180 -1.8496 0.9807
-0.5019 4.4913 -1.8496 0.9807
-2.5478 4.0847 -1.9703 0.9794
-3.2846 3.6244 -2.0019 0.9791
-3.8773 2.9842 -2.0025 0.9791
-4.5291 1.8518 -2.0026 0.9791
-4.7861 1.0179 -2.0026 0.9791
-1.9541 0.2362 -0.8056 0.9915
-1.9459 -0.1135 -0.7978 0.9916
-4.7565 -1.1481 -2.0026 0.9791
-4.0548 -2.7383 -2.0025 0.9791
-3.7944 -3.0889 -2.0025 0.9791
-3.5037 -3.4148 -2.0024 0.9791
-3.1852 -3.7135 -2.0023 0.9791
-2.8413 -3.9826 -2.0023 0.9791
-2.4748 -4.2199 -2.0022 0.9791
-2.0886 -4.4236 -2.0021 0.9791
-1.2696 -4.7239 -2.0020 0.9791
0.4618 -4.8689 -2.0017 0.9791
0.8941 -4.8081 -2.0016 0.9791
1.3192 -4.7091 -2.0015 0.9791
2.1344 -4.3995 -2.0013 0.9791
2.8817 -3.9502 -2.0012 0.9791
3.5373 -3.3753 -2.0011 0.9791
3.8241 -3.0464 -2.0010 0.9791
4.0804 -2.6932 -2.0010 0.9791
4.3042 -2.3186 -2.0009 0.9791
4.6474 -1.5172 -2.0009 0.9791
4.7641 -1.0968 -2.0008 0.9791
4.8831 -0.2332 -2.0008 0.9791
4.7708 1.0675 -2.0008 0.9791
4.5054 1.8980 -2.0009 0.9791
4.3183 2.2922 -2.0009 0.9791
4.0968 2.6681 -2.0010 0.9791
3.2449 3.6575 -2.0011 0.9791
2.5390 4.1680 -1.9974 0.9791
2.1339 4.3306 -1.9759 0.9794
1.6627 4.3051 -1.8888 0.9803
1.2456 4.3434 -1.8493 0.9807
0.0516 4.5187 -1.8495 0.9807
-1.1463 4.3718 -1.8498 0.9807
-1.9203 4.1327 -1.8651 0.9805
-2.8080 3.9874 -1.9960 0.9791
-3.1589 3.7290 -2.0002 0.9791
-3.7753 3.1121 -2.0024 0.9791
-4.6254 1.5961 -2.0026 0.9791
-4.7494 1.1773 -2.0026 0.9791
-1.9492 0.1258 -0.7994 0.9916
-4.7922 -0.9885 -2.0026 0.9791
-4.5404 -1.8240 -2.0026 0.9791
-4.1440 -2.6013 -2.0025 0.9791
-3.8955 -2.9603 -2.0025 0.9791
-3.6159 -3.2958 -2.0024 0.9791
-3.3076 -3.6050 -2.0024 0.9791
-2.9729 -3.8854 -2.0023 0.9791
-1.8384 -4.5332 -2.0021 0.9791
-0.5730 -4.8575 -2.0018 0.9791
0.7329 -4.8354 -2.0016 0.9791
1.5800 -4.6279 -2.0014 0.9791
3.4226 -3.4917 -2.0011 0.9791
3.7202 -3.1725 -2.0010 0.9791
3.9881 -2.8281 -2.0010 0.9791
4.4268 -2.0747 -2.0009 0.9791
4.7248 -1.2554 -2.0009 0.9791
4.8179 -0.8291 -2.0008 0.9791
4.8038 0.9074 -2.0008 0.9791
4.7038 1.3322 -2.0009 0.9791
4.5663 1.7463 -2.0009 0.9791
4.3925 2.1465 -2.0009 0.9791
3.9416 2.8927 -2.0010 0.9791
3.6680 3.2327 -2.0010 0.9791
3.3653 3.5470 -2.0011 0.9791
3.0357 3.8330 -2.0012 0.9791
2.6792 4.0845 -1.9992 0.9791
1.0012 4.4063 -1.8493 0.9807
0.2026 4.5144 -1.8495 0.9807
-0.9995 4.4076 -1.8497 0.9807
-2.1977 4.1121 -1.9083 0.9801
-3.9432 2.8966 -2.0025 0.9791
-4.1859 2.5335 -2.0025 0.9791
-4.7073 1.3354 -2.0026 0.9791
-1.9578 0.1922 -0.8051 0.9915
-4.5988 -1.6712 -2.0026 0.9791
-4.4314 -2.0745 -2.0026 0.9791
-3.9923 -2.8285 -2.0025 0.9791
-3.7241 -3.1731 -2.0024 0.9791
-2.7513 -4.0452 -2.0023 0.9791
-2.3796 -4.2743 -2.0022 0.9791
-1.9889 -4.4693 -2.0021 0.9791
-1.5824 -4.6286 -2.0020 0.9791
-0.7351 -4.8357 -2.0019 0.9791
0.5709 -4.8572 -2.0016 0.9791
1.0016 -4.7868 -2.0016 0.9791
1.8358 -4.5324 -2.0014 0.9791
2.2325 -4.3505 -2.0013 0.9791
2.6114 -4.1340 -2.0012 0.9791
2.9695 -3.8846 -2.0012 0.9791
3.6121 -3.2952 -2.0011 0.9791
4.3551 -2.2216 -2.0009 0.9791
4.5357 -1.8243 -2.0009 0.9791
4.6803 -1.4126 -2.0009 0.9791
4.7875 -0.9897 -2.0008 0.9791
4.8871 -0.1236 -2.0008 0.9791
4.8314 0.7464 -2.0008 0.9791
4.6221 1.5927 -2.0009 0.9791
4.0360 2.7593 -2.0010 0.9791
3.7740 3.1083 -2.0010 0.9791
3.1621 3.7294 -2.0011 0.9791
2.0116 4.3242 -1.9519 0.9796
1.5503 4.2987 -1.8703 0.9804
1.1479 4.3703 -1.8493 0.9807
-0.4524 4.4966 -1.8496 0.9807
-1.2440 4.3451 -1.8498 0.9807
-1.6265 4.2170 -1.8498 0.9807
-2.4886 4.0894 -1.9592 0.9795
-1.5951 0.5709 -0.7383 0.9926
-1.5064 0.2510 -0.6656 0.9934
-1.5291 0.1162 -0.6683 0.9933
-1.5251 -0.0205 -0.6647 0.9934
-1.5022 -0.2920 -0.6669 0.9933
-1.5683 -0.4532 -0.7114 0.9929
-4.2830 -1.6640 -2.0025 0.9802
-3.9192 -2.3982 -2.0025 0.9802
-3.4308 -3.0561 -2.0024 0.9802
-3.1445 -3.3497 -2.0023 0.9802
-1.3900 -4.3783 -2.0020 0.9802
-0.1816 -4.5896 -2.0018 0.9802
1.0394 -4.4735 -2.0015 0.9802
1.8173 -4.2174 -2.0014 0.9802
2.5373 -3.8273 -2.0013 0.9802
3.1766 -3.3156 -2.0011 0.9802
3.9405 -2.3565 -2.0010 0.9802
4.4235 -1.2296 -2.0009 0.9802
4.5911 -0.0150 -2.0009 0.9802
4.4314 1.2006 -2.0009 0.9802
4.3068 1.5909 -2.0009 0.9802
3.4791 2.9964 -2.0011 0.9802
3.1982 3.2947 -2.0011 0.9802
2.8918 3.5669 -2.0012 0.9802
0.2388 4.2389 -1.8503 0.9816
-0.1401 4.2416 -1.8496 0.9817
-0.5177 4.2124 -1.8496 0.9817
-0.8977 4.1794 -1.8630 0.9815
-1.2894 4.1555 -1.8962 0.9812
-2.1117 4.0619 -1.9952 0.9802
-2.4693 3.8635 -1.9983 0.9802
-2.8091 3.6346 -2.0020 0.9802
-3.1225 3.3702 -2.0023 0.9802
-3.6717 2.7622 -2.0024 0.9802
-3.9034 2.4238 -2.0025 0.9802
-1.5719 0.4654 -0.7144 0.9929
-1.5244 0.1672 -0.6684 0.9933
-1.5263 0.0305 -0.6653 0.9934
-1.5471 -0.3915 -0.6955 0.9931
-1.5931 -0.5584 -0.7357 0.9927
-3.9972 -2.2659 -2.0025 0.9802
-3.7792 -2.6132 -2.0024 0.9802
-3.5310 -2.9397 -2.0024 0.9802
-2.9526 -3.5200 -2.0023 0.9802
-2.6269 -3.7691 -2.0022 0.9802
-1.9155 -4.1755 -2.0021 0.9802
-1.5356 -4.3295 -2.0020 0.9802
-0.3349 -4.5810 -2.0018 0.9802
2.0498 -4.1093 -2.0014 0.9802
2.4080 -3.9100 -2.0013 0.9802
3.0640 -3.4199 -2.0012 0.9802
3.3566 -3.1331 -2.0011 0.9802
3.6225 -2.8212 -2.0011 0.9802
3.8596 -2.4869 -2.0010 0.9802
4.3799 -1.3767 -2.0009 0.9802
4.4852 -0.9807 -2.0009 0.9802
4.5880 -0.1685 -2.0009 0.9802
4.2113 1.8289 -2.0009 0.9802
4.0315 2.1971 -2.0010 0.9802
3.5773 2.8784 -2.0011 0.9802
3.0093 3.4682 -2.0012 0.9802
2.3448 3.9464 -2.0006 0.9802
0.3814 4.2402 -1.8554 0.9816
0.0018 4.2438 -1.8495 0.9817
-0.7543 4.1892 -1.8551 0.9816
-1.1411 4.1649 -1.8820 0.9813
-2.3374 3.9414 -1.9971 0.9802
-2.6842 3.7238 -2.0005 0.9802
-3.3059 3.1907 -2.0024 0.9802
-3.5773 2.8833 -2.0024 0.9802
-4.0327 2.2022 -2.0025 0.9802
-4.2131 1.8339 -2.0025 0.9802
-1.5206 -0.1913 -0.6679 0.9933
-1.5216 -0.3314 -0.6787 0.9932
-1.5799 -0.4952 -0.7216 0.9928
-4.2446 -1.7596 -2.0025 0.9802
-3.6273 -2.8201 -2.0024 0.9802
-3.3614 -3.1322 -2.0024 0.9802
-3.0686 -3.4194 -2.0023 0.9802
-2.4123 -3.9098 -2.0022 0.9802
-2.0541 -4.1092 -2.0021 0.9802
-1.6794 -4.2758 -2.0021 0.9802
0.3311 -4.5810 -2.0017 0.9802
0.7382 -4.5330 -2.0016 0.9802
1.1394 -4.4490 -2.0015 0.9802
1.5315 -4.3295 -2.0015 0.9802
1.9114 -4.1756 -2.0014 0.9802
2.2760 -3.9884 -2.0013 0.9802
2.9480 -3.5205 -2.0012 0.9802
3.5262 -2.9407 -2.0011 0.9802
3.7743 -2.6146 -2.0010 0.9802
4.4499 -1.1301 -2.0009 0.9802
4.5798 -0.3217 -2.0009 0.9802
4.5903 0.0879 -2.0009 0.9802
4.5017 0.9018 -2.0009 0.9802
3.6715 2.7572 -2.0010 0.9802
3.4111 3.0736 -2.0011 0.9802
3.1235 3.3656 -2.0012 0.9802
2.8111 3.6308 -2.0012 0.9802
2.1182 4.0661 -1.9981 0.9802
1.3272 4.2650 -1.9467 0.9807
0.9178 4.2555 -1.8972 0.9812
0.5252 4.2439 -1.8637 0.9815
0.1436 4.2414 -1.8495 0.9817
-0.2351 4.2374 -1.8496 0.9817
-0.6122 4.2007 -1.8501 0.9816
-1.3900 4.1489 -1.9070 0.9811
-1.8034 4.1203 -1.9602 0.9806
-2.8903 3.5712 -2.0023 0.9802
-3.4789 3.0012 -2.0024 0.9802
-3.9568 2.3357 -2.0025 0.9802
-1.5587 0.4237 -0.7040 0.9930
-1.5013 0.2672 -0.6646 0.9934
-1.5274 -0.1405 -0.6685 0.9933
-1.4989 -0.2743 -0.6641 0.9934
-4.3011 -1.6168 -2.0025 0.9802
-4.1397 -1.9938 -2.0025 0.9802
-3.1812 -3.3149 -2.0023 0.9802
-2.8729 -3.5853 -2.0023 0.9802
-2.1903 -4.0383 -2.0022 0.9802
-1.8214 -4.2173 -2.0021 0.9802
-1.4381 -4.3628 -2.0020 0.9802
-1.0433 -4.4735 -2.0019 0.9802
-0.2322 -4.5873 -2.0018 0.9802
0.5863 -4.5552 -2.0016 0.9802
0.9901 -4.4847 -2.0016 0.9802
1.7708 -4.2372 -2.0014 0.9802
2.4950 -3.8550 -2.0013 0.9802
3.4260 -3.0570 -2.0011 0.9802
3.6849 -2.7393 -2.0010 0.9802
3.9143 -2.3998 -2.0010 0.9802
4.1126 -2.0411 -2.0010 0.9802
4.2782 -1.6663 -2.0009 0.9802
4.5060 -0.8799 -2.0009 0.9802
4.5665 -0.4746 -2.0009 0.9802
4.5782 0.3440 -2.0009 0.9802
3.7615 2.6329 -2.0010 0.9802
3.5119 2.9579 -2.0011 0.9802
3.2343 3.2593 -2.0011 0.9802
2.6041 3.7822 -2.0012 0.9802
1.8859 4.1736 -1.9960 0.9802
1.4886 4.2742 -1.9725 0.9804
0.6706 4.2485 -1.8745 0.9814
-1.2403 4.1586 -1.8913 0.9812
-1.6460 4.1315 -1.9382 0.9808
-2.7683 3.6644 -2.0015 0.9802
-3.0852 3.4044 -2.0023 0.9802
-3.6410 2.8024 -2.0024 0.9802
-4.0811 2.1112 -2.0025 0.9802
-1.5776 0.4860 -0.7194 0.9928
-1.5219 0.1839 -0.6681 0.9933
-1.5296 -0.0893 -0.6678 0.9933
-1.5134 -0.2250 -0.6668 0.9933
-3.5632 -2.9007 -2.0024 0.9802
-3.2903 -3.2068 -2.0024 0.9802
-2.3241 -3.9629 -2.0022 0.9802
-1.9614 -4.1542 -2.0021 0.9802
-1.1923 -4.4362 -2.0020 0.9802
-0.7920 -4.5246 -2.0019 0.9802
-0.3853 -4.5771 -2.0018 0.9802
2.0045 -4.1316 -2.0014 0.9802
2.3648 -3.9363 -2.0013 0.9802
2.7063 -3.7097 -2.0012 0.9802
3.0262 -3.4535 -2.0012 0.9802
3.5913 -2.8609 -2.0011 0.9802
3.8320 -2.5293 -2.0010 0.9802
4.0421 -2.1775 -2.0010 0.9802
4.2201 -1.8084 -2.0009 0.9802
4.4741 -1.0300 -2.0009 0.9802
4.5871 0.1908 -2.0009 0.9802
4.4804 1.0025 -2.0009 0.9802
4.3732 1.3980 -2.0009 0.9802
4.2311 1.7824 -2.0009 0.9802
4.0554 2.1526 -2.0010 0.9802
3.8474 2.5057 -2.0010 0.9802
3.3413 3.1494 -2.0011 0.9802
3.0473 3.4348 -2.0012 0.9802
2.7290 3.6930 -2.0012 0.9802
2.0256 4.1108 -1.9972 0.9802
1.6484 4.2682 -1.9941 0.9802
1.2224 4.2627 -1.9326 0.9808
0.4285 4.2406 -1.8575 0.9816
0.0485 4.2435 -1.8495 0.9817
-0.3301 4.2311 -1.8496 0.9817
-0.7074 4.1932 -1.8533 0.9816
-1.0928 4.1678 -1.8778 0.9814
-1.4918 4.1421 -1.9187 0.9810
-1.9109 4.1125 -1.9763 0.9804
-2.2934 3.9661 -1.9967 0.9802
-2.6424 3.7522 -2.0001 0.9802
-2.9697 3.5056 -2.0023 0.9802
-3.5453 2.9225 -2.0024 0.9802
-4.1926 1.8801 -2.0025 0.9802
-1.5436 0.3826 -0.6931 0.9931
-1.5111 0.2341 -0.6664 0.9934
-1.5296 0.0987 -0.6680 0.9933
-1.5270 -0.0380 -0.6657 0.9934
-1.5123 -0.3119 -0.6730 0.9933
-4.0940 -2.0861 -2.0025 0.9802
-3.3957 -3.0950 -2.0024 0.9802
-3.1061 -3.3854 -2.0023 0.9802
-2.7918 -3.6487 -2.0023 0.9802
-2.4552 -3.8830 -2.0022 0.9802
-2.0992 -4.0863 -2.0021 0.9802
-1.3399 -4.3939 -2.0020 0.9802
-0.9428 -4.4957 -2.0019 0.9802
0.2806 -4.5844 -2.0017 0.9802
1.0903 -4.4613 -2.0015 0.9802
1.4838 -4.3461 -2.0015 0.9802
1.8653 -4.1964 -2.0014 0.9802
2.2319 -4.0132 -2.0013 0.9802
2.9091 -3.5528 -2.0012 0.9802
3.2142 -3.2791 -2.0011 0.9802
3.4937 -2.9794 -2.0011 0.9802
3.7453 -2.6560 -2.0010 0.9802
3.9671 -2.3114 -2.0010 0.9802
4.1573 -1.9484 -2.0010 0.9802
4.4372 -1.1790 -2.0009 0.9802
4.5693 0.4466 -2.0009 0.9802
4.4174 1.2511 -2.0009 0.9802
3.9290 2.3757 -2.0010 0.9802
3.1604 3.3310 -2.0011 0.9802
2.8509 3.5997 -2.0012 0.9802
2.1633 4.0434 -1.9986 0.9802
1.3799 4.2679 -1.9548 0.9806
0.5729 4.2454 -1.8670 0.9815
-0.5658 4.2062 -1.8496 0.9817
-0.9471 4.1766 -1.8664 0.9815
-1.3405 4.1522 -1.9016 0.9811
-2.1583 4.0383 -1.9955 0.9802
-2.5138 3.8359 -1.9987 0.9802
-2.8508 3.6028 -2.0023 0.9802
-3.1608 3.3344 -2.0023 0.9802
-3.4456 3.0394 -2.0024 0.9802
-3.9308 2.3791 -2.0025 0.9802
-4.1274 2.0192 -2.0025 0.9802
-1.5654 0.4441 -0.7092 0.9929
-1.4978 0.2836 -0.6644 0.9934
-1.5265 0.1499 -0.6685 0.9933
-1.5241 0.0131 -0.6643 0.9934
-1.5964 -0.5801 -0.7402 0.9926
-3.9711 -2.3114 -2.0025 0.9802
-3.7491 -2.6562 -2.0024 0.9802
-3.4972 -2.9798 -2.0024 0.9802
-3.2175 -3.2797 -2.0023 0.9802
-2.9122 -3.5534 -2.0023 0.9802
-2.5837 -3.7988 -2.0022 0.9802
-2.2346 -4.0139 -2.0022 0.9802
-1.0925 -4.4617 -2.0019 0.9802
-0.2826 -4.5845 -2.0018 0.9802
0.5361 -4.5614 -2.0016 0.9802
1.3377 -4.3934 -2.0015 0.9802
1.7240 -4.2564 -2.0014 0.9802
2.4524 -3.8823 -2.0013 0.9802
3.1028 -3.3848 -2.0012 0.9802
3.6545 -2.7797 -2.0011 0.9802
3.8877 -2.4427 -2.0010 0.9802
4.0899 -2.0863 -2.0010 0.9802
4.4568 1.1027 -2.0009 0.9802
4.1901 1.8768 -2.0010 0.9802
4.0062 2.2430 -2.0010 0.9802
3.7903 2.5913 -2.0010 0.9802
3.2699 3.2235 -2.0011 0.9802
2.9696 3.5023 -2.0012 0.9802
2.6455 3.7533 -2.0012 0.9802
2.2990 3.9719 -2.0001 0.9802
0.7189 4.2499 -1.8785 0.9814
-0.4249 4.2227 -1.8496 0.9817
-1.5949 4.1351 -1.9315 0.9808
-2.3827 3.9153 -1.9975 0.9802
-1.3134 0.3415 -0.6282 0.9940
-1.3206 0.2201 -0.6197 0.9941
-1.3358 -0.1377 -0.6216 0.9941
-1.3228 -0.3822 -0.6373 0.9939
-1.3307 -0.5170 -0.6608 0.9937
-3.8766 -1.9200 -2.0025 0.9811
-3.6900 -2.2580 -2.0024 0.9811
-3.2301 -2.8773 -2.0023 0.9811
-2.6675 -3.4051 -2.0022 0.9811
-2.3532 -3.6293 -2.0022 0.9811
-1.6711 -3.9893 -2.0021 0.9811
0.2150 -4.3191 -2.0017 0.9811
0.9786 -4.2119 -2.0016 0.9811
1.3502 -4.1077 -2.0015 0.9811
1.7110 -3.9708 -2.0014 0.9811
2.3890 -3.6036 -2.0013 0.9811
3.2572 -2.8426 -2.0011 0.9811
4.2515 -0.7817 -2.0009 0.9811
4.3227 -0.0141 -2.0009 0.9811
4.2565 0.7539 -2.0009 0.9811
3.9054 1.8536 -2.0010 0.9811
3.5142 2.5179 -2.0011 0.9811
2.4125 3.5878 -2.0013 0.9811
1.7353 3.9557 -1.9995 0.9811
1.3738 4.0891 -1.9968 0.9812
1.0027 4.1912 -1.9948 0.9812
0.6196 4.2270 -1.9775 0.9813
-0.5138 4.1808 -1.9498 0.9816
-1.2770 4.1158 -1.9947 0.9812
-1.9921 3.8319 -1.9991 0.9811
-2.3293 3.6445 -2.0021 0.9811
-2.6452 3.4225 -2.0022 0.9811
-3.2112 2.8984 -2.0023 0.9811
-3.4569 2.6006 -2.0024 0.9811
-3.8640 1.9453 -2.0025 0.9811
-1.3081 0.2632 -0.6176 0.9941
-1.3347 0.1464 -0.6215 0.9941
-1.3361 0.0267 -0.6186 0.9941
-1.3385 -0.0929 -0.6210 0.9941
-1.3108 -0.3317 -0.6259 0.9941
-1.3336 -0.4675 -0.6541 0.9938
-3.7634 -2.1334 -2.0024 0.9811
-3.5581 -2.4604 -2.0024 0.9811
-3.0644 -3.0531 -2.0023 0.9811
-2.7799 -3.3141 -2.0023 0.9811
-2.4732 -3.5486 -2.0022 0.9811
-1.8035 -3.9313 -2.0021 0.9811
-1.4457 -4.0763 -2.0020 0.9811
-0.6987 -4.2680 -2.0019 0.9811
-0.3153 -4.3131 -2.0018 0.9811
0.4557 -4.3002 -2.0017 0.9811
1.2122 -4.1506 -2.0015 0.9811
3.4108 -2.6563 -2.0011 0.9811
3.6340 -2.3415 -2.0011 0.9811
4.2230 -0.9234 -2.0009 0.9811
4.2885 -0.5431 -2.0009 0.9811
4.3198 -0.1586 -2.0009 0.9811
4.3168 0.2272 -2.0009 0.9811
3.1132 2.9997 -2.0012 0.9811
2.5310 3.5052 -2.0013 0.9811
2.2085 3.7170 -2.0013 0.9811
1.8676 3.8978 -2.0006 0.9811
1.1426 4.1567 -1.9954 0.9812
-2.2049 3.7181 -2.0009 0.9811
-3.1125 3.0041 -2.0023 0.9811
-3.3680 2.7147 -2.0024 0.9811
-3.5967 2.4036 -2.0024 0.9811
-1.3040 0.3080 -0.6202 0.9941
-1.3273 0.1907 -0.6207 0.9941
-1.3384 0.0716 -0.6204 0.9941
-1.3376 -0.0480 -0.6196 0.9941
-1.3316 -0.1675 -0.6212 0.9941
-1.3012 -0.2834 -0.6164 0.9941
-1.3288 -0.4165 -0.6446 0.9939
-1.3262 -0.5498 -0.6645 0.9937
-3.4152 -2.6551 -2.0024 0.9811
-3.1648 -2.9490 -2.0023 0.9811
-2.8891 -3.2194 -2.0023 0.9811
-2.2712 -3.6811 -2.0022 0.9811
-1.9339 -3.8688 -2.0021 0.9811
-1.5812 -4.0257 -2.0020 0.9811
-1.2159 -4.1505 -2.0020 0.9811
-0.4593 -4.3002 -2.0018 0.9811
-0.0741 -4.3239 -2.0018 0.9811
1.0728 -4.1889 -2.0015 0.9811
1.4420 -4.0764 -2.0015 0.9811
1.7996 -3.9314 -2.0014 0.9811
2.4691 -3.5491 -2.0013 0.9811
3.0601 -3.0539 -2.0012 0.9811
3.3201 -2.7688 -2.0011 0.9811
3.5537 -2.4617 -2.0011 0.9811
3.7590 -2.1350 -2.0010 0.9811
3.9343 -1.7913 -2.0010 0.9811
4.0783 -1.4334 -2.0010 0.9811
4.1898 -1.0640 -2.0010 0.9811
4.2385 0.8491 -2.0009 0.9811
4.1460 1.2237 -2.0010 0.9811
4.0204 1.5885 -2.0010 0.9811
3.8628 1.9407 -2.0010 0.9811
3.6745 2.2774 -2.0010 0.9811
3.4568 2.5960 -2.0011 0.9811
2.9409 3.1689 -2.0012 0.9811
2.6467 3.4186 -2.0012 0.9811
2.3315 3.6411 -2.0013 0.9811
1.9976 3.8346 -2.0014 0.9811
1.6456 3.9922 -1.9987 0.9811
1.2814 4.1177 -1.9962 0.9812
0.9083 4.2117 -1.9944 0.9812
-0.2328 4.1945 -1.9446 0.9817
-0.9902 4.1541 -1.9768 0.9814
-1.3693 4.0870 -1.9952 0.9812
-2.7213 3.3623 -2.0022 0.9811
-3.0103 3.1064 -2.0023 0.9811
-3.5144 2.5224 -2.0024 0.9811
-3.7253 2.1991 -2.0024 0.9811
-1.3175 0.3581 -0.6320 0.9940
-1.3168 0.2344 -0.6191 0.9941
-1.3337 -0.0033 -0.6174 0.9941
-1.3373 -0.1230 -0.6216 0.9941
-1.3151 -0.2407 -0.6188 0.9941
-1.3192 -0.3655 -0.6336 0.9940
-3.8976 -1.8772 -2.0025 0.9811
-2.9952 -3.1210 -2.0023 0.9811
-2.7049 -3.3756 -2.0022 0.9811
-2.3930 -3.6032 -2.0022 0.9811
-2.0622 -3.8021 -2.0021 0.9811
-1.7149 -3.9707 -2.0021 0.9811
-1.3540 -4.1076 -2.0020 0.9811
-0.6028 -4.2825 -2.0019 0.9811
-0.2186 -4.3190 -2.0018 0.9811
0.1674 -4.3212 -2.0017 0.9811
0.5520 -4.2889 -2.0016 0.9811
0.9322 -4.2224 -2.0016 0.9811
1.3049 -4.1224 -2.0015 0.9811
1.6672 -3.9894 -2.0014 0.9811
2.0162 -3.8248 -2.0014 0.9811
2.9563 -3.1545 -2.0012 0.9811
3.4694 -2.5792 -2.0011 0.9811
3.6855 -2.2595 -2.0010 0.9811
4.1519 -1.2035 -2.0010 0.9811
4.2426 -0.8285 -2.0009 0.9811
4.2996 -0.4469 -2.0009 0.9811
4.0712 1.4532 -2.0010 0.9811
3.7485 2.1533 -2.0010 0.9811
3.5417 2.4790 -2.0011 0.9811
3.3066 2.7850 -2.0011 0.9811
2.4518 3.5611 -2.0013 0.9811
1.7791 3.9371 -1.9998 0.9811
1.0489 4.1803 -1.9950 0.9812
-0.4675 4.1831 -1.9484 0.9816
-0.8463 4.1626 -1.9662 0.9815
-1.5963 4.0067 -1.9964 0.9812
-2.2886 3.6692 -2.0017 0.9811
-2.9048 3.2053 -2.0023 0.9811
-3.4281 2.6385 -2.0024 0.9811
-3.6497 2.3224 -2.0024 0.9811
-3.8423 1.9877 -2.0025 0.9811
-1.3276 0.4090 -0.6430 0.9939
-1.3372 0.0415 -0.6193 0.9941
-1.3385 -0.0781 -0.6206 0.9941
-1.3260 -0.1971 -0.6205 0.9941
-1.3062 -0.3153 -0.6220 0.9941
-1.3332 -0.4509 -0.6515 0.9938
-3.7867 -2.0918 -2.0024 0.9811
-3.5850 -2.4211 -2.0024 0.9811
-3.0978 -3.0192 -2.0023 0.9811
-2.5122 -3.5212 -2.0022 0.9811
-2.1881 -3.7311 -2.0021 0.9811
-1.1225 -4.1767 -2.0019 0.9811
-0.7456 -4.2600 -2.0019 0.9811
0.0229 -4.3244 -2.0017 0.9811
0.4083 -4.3050 -2.0017 0.9811
0.7905 -4.2513 -2.0016 0.9811
1.5330 -4.0430 -2.0015 0.9811
2.2265 -3.7062 -2.0013 0.9811
2.8493 -3.2516 -2.0012 0.9811
3.3813 -2.6937 -2.0011 0.9811
3.6080 -2.3814 -2.0011 0.9811
4.1094 -1.3416 -2.0010 0.9811
4.2822 -0.5903 -2.0009 0.9811
4.2858 0.5640 -2.0009 0.9811
4.2185 0.9439 -2.0009 0.9811
3.9838 1.6782 -2.0010 0.9811
3.8184 2.0268 -2.0010 0.9811
3.6225 2.3592 -2.0011 0.9811
3.3978 2.6729 -2.0011 0.9811
2.5695 3.4771 -2.0013 0.9811
2.2493 3.6924 -2.0013 0.9811
1.5551 4.0266 -1.9980 0.9812
1.1885 4.1444 -1.9957 0.9812
0.8135 4.2303 -1.9940 0.9812
0.4265 4.2208 -1.9637 0.9815
-1.8188 3.9141 -1.9978 0.9812
-2.1634 3.7415 -2.0006 0.9811
-2.4905 3.5366 -2.0022 0.9811
-3.0792 3.0381 -2.0023 0.9811
-3.3379 2.7516 -2.0024 0.9811
-1.3088 0.3244 -0.6242 0.9941
-1.3242 0.2052 -0.6203 0.9941
-1.3338 -0.1529 -0.6214 0.9941
-1.3260 -0.3996 -0.6411 0.9939
-1.3287 -0.5337 -0.6628 0.9937
-3.8545 -1.9641 -2.0025 0.9811
-3.1970 -2.9140 -2.0023 0.9811
-2.9244 -3.1874 -2.0023 0.9811
-2.3116 -3.6559 -2.0022 0.9811
-1.6254 -4.0081 -2.0020 0.9811
-1.2615 -4.1369 -2.0020 0.9811
-0.5067 -4.2949 -2.0018 0.9811
1.3970 -4.0920 -2.0015 0.9811
2.1015 -3.7786 -2.0013 0.9811
3.0263 -3.0874 -2.0012 0.9811
3.2894 -2.8052 -2.0011 0.9811
3.5264 -2.5007 -2.0011 0.9811
3.7352 -2.1763 -2.0010 0.9811
3.9143 -1.8345 -2.0010 0.9811
4.0623 -1.4782 -2.0010 0.9811
4.1778 -1.1101 -2.0010 0.9811
4.2601 -0.7331 -2.0009 0.9811
4.3085 -0.3504 -2.0009 0.9811
4.3226 0.0352 -2.0009 0.9811
4.3022 0.4205 -2.0009 0.9811
4.2476 0.8024 -2.0009 0.9811
4.0377 1.5441 -2.0010 0.9811
3.6993 2.2368 -2.0010 0.9811
3.2433 2.8584 -2.0011 0.9811
2.6842 3.3892 -2.0012 0.9811
2.0397 3.8123 -2.0014 0.9811
1.6897 3.9745 -1.9991 0.9811
1.3268 4.1039 -1.9964 0.9812
0.5702 4.2255 -1.9737 0.9814
0.1891 4.2123 -1.9518 0.9816
-0.5620 4.1783 -1.9515 0.9816
-2.3709 3.6178 -2.0022 0.9811
-2.9759 3.1393 -2.0023 0.9811
-3.2441 2.8616 -2.0023 0.9811
-3.4864 2.5610 -2.0024 0.9811
-3.7009 2.2400 -2.0024 0.9811
-1.3314 0.5098 -0.6599 0.9937
-1.3212 0.3748 -0.6357 0.9940
-1.3127 0.2486 -0.6184 0.9941
-1.3381 -0.1082 -0.6214 0.9941
-1.3190 -0.2264 -0.6195 0.9941
-1.3153 -0.3489 -0.6299 0.9940
-1.3331 -0.4844 -0.6565 0.9938
-3.5298 -2.5008 -2.0024 0.9811
-3.2927 -2.8055 -2.0024 0.9811
-2.1039 -3.7792 -2.0021 0.9811
-0.6499 -4.2756 -2.0019 0.9811
-0.2661 -4.3164 -2.0018 0.9811
0.1198 -4.3228 -2.0017 0.9811
0.8856 -4.2325 -2.0016 0.9811
1.2595 -4.1365 -2.0015 0.9811
1.9740 -3.8468 -2.0014 0.9811
3.4408 -2.6172 -2.0011 0.9811
3.8508 -1.9644 -2.0010 0.9811
4.0106 -1.6131 -2.0010 0.9811
4.2333 -0.8751 -2.0009 0.9811
4.3139 0.2764 -2.0009 0.9811
4.2721 0.6600 -2.0009 0.9811
4.1962 1.0383 -2.0010 0.9811
4.0870 1.4083 -2.0010 0.9811
3.7720 2.1119 -2.0010 0.9811
3.3370 2.7484 -2.0011 0.9811
3.0788 3.0351 -2.0012 0.9811
2.1659 3.7420 -2.0013 0.9811
0.7155 4.2299 -1.9858 0.9813
-0.7992 4.1653 -1.9632 0.9815
-1.1858 4.1420 -1.9943 0.9812
-1.5519 4.0235 -1.9961 0.9812
-1.9067 3.8736 -1.9985 0.9811
-2.2476 3.6934 -2.0013 0.9811
-1.1559 0.4137 -0.6022 0.9945
-1.1581 0.3011 -0.5870 0.9947
-1.1951 0.0908 -0.5879 0.9947
-1.1926 -0.1229 -0.5881 0.9947
-1.1757 -0.2286 -0.5875 0.9947
-1.1306 -0.5599 -0.6189 0.9944
-3.4820 -2.1307 -2.0024 0.9820
-3.0480 -2.7152 -2.0023 0.9820
-2.7937 -2.9760 -2.0023 0.9820
-1.9063 -3.6090 -2.0021 0.9820
-1.5769 -3.7645 -2.0020 0.9820
-0.1614 -4.0777 -2.0018 0.9820
0.5654 -4.0412 -2.0016 0.9820
0.9235 -3.9746 -2.0016 0.9820
1.2741 -3.8763 -2.0015 0.9820
1.9423 -3.5881 -2.0014 0.9820
2.2544 -3.4006 -2.0013 0.9820
2.5485 -3.1859 -2.0013 0.9820
2.8224 -2.9459 -2.0012 0.9820
3.5012 -2.0938 -2.0011 0.9820
3.9303 -1.0925 -2.0010 0.9820
4.0792 -0.0133 -2.0010 0.9820
4.0168 0.7114 -2.0010 0.9820
3.9374 1.0667 -2.0010 0.9820
3.5148 2.0708 -2.0011 0.9820
3.3162 2.3760 -2.0011 0.9820
3.0912 2.6623 -2.0012 0.9820
2.5693 3.1692 -2.0013 0.9820
2.2766 3.3857 -2.0013 0.9820
1.6391 3.7365 -2.0014 0.9820
1.2988 3.8659 -2.0005 0.9820
0.9481 3.9626 -1.9986 0.9820
0.5906 4.0287 -1.9973 0.9820
-0.1343 4.0673 -1.9962 0.9820
-0.4965 4.0397 -1.9965 0.9820
-0.8551 3.9809 -1.9973 0.9820
-1.8827 3.6214 -2.0021 0.9820
-2.1981 3.4392 -2.0021 0.9820
-2.4961 3.2296 -2.0022 0.9820
-1.1590 0.3431 -0.5929 0.9946
-1.1955 -0.0830 -0.5878 0.9947
-1.1582 -0.2931 -0.5861 0.9947
-1.1566 -0.4054 -0.6012 0.9946
-1.1406 -0.5182 -0.6145 0.9944
-3.5513 -2.0131 -2.0024 0.9820
-3.3576 -2.3217 -2.0024 0.9820
-2.8917 -2.8810 -2.0023 0.9820
-2.6232 -3.1273 -2.0022 0.9820
-2.0259 -3.5433 -2.0021 0.9820
-1.0158 -3.9528 -2.0019 0.9820
2.1395 -3.4740 -2.0013 0.9820
2.4407 -3.2694 -2.0013 0.9820
2.7224 -3.0386 -2.0012 0.9820
2.9824 -2.7837 -2.0012 0.9820
3.9852 -0.8714 -2.0010 0.9820
4.0383 0.5768 -2.0010 0.9820
3.8717 1.2849 -2.0010 0.9820
3.7418 1.6250 -2.0010 0.9820
3.3938 2.2638 -2.0011 0.9820
3.1784 2.5575 -2.0011 0.9820
2.9378 2.8308 -2.0012 0.9820
2.3884 3.3077 -2.0013 0.9820
2.0841 3.5076 -2.0013 0.9820
1.4279 3.8220 -2.0013 0.9820
-0.3612 4.0537 -1.9963 0.9820
-0.7214 4.0065 -1.9969 0.9820
-1.0764 3.9285 -1.9980 0.9820
-1.4235 3.8200 -1.9997 0.9820
-1.7603 3.6818 -2.0018 0.9820
-2.0819 3.5107 -2.0021 0.9820
-2.9371 2.8348 -2.0023 0.9820
-3.1782 2.5617 -2.0023 0.9820
-3.3940 2.2681 -2.0024 0.9820
-1.1445 0.4982 -0.6123 0.9945
-1.1579 0.3853 -0.5986 0.9946
-1.1638 0.2749 -0.5866 0.9947
-1.1962 0.0640 -0.5876 0.9947
-1.1694 -0.2547 -0.5871 0.9947
-3.2227 -2.5055 -2.0023 0.9820
-2.9864 -2.7828 -2.0023 0.9820
-2.4445 -3.2688 -2.0022 0.9820
-2.1432 -3.4737 -2.0021 0.9820
-1.8249 -3.6508 -2.0021 0.9820
-0.7936 -4.0032 -2.0019 0.9820
0.2942 -4.0701 -2.0017 0.9820
1.6982 -3.7100 -2.0014 0.9820
2.0222 -3.5437 -2.0014 0.9820
2.3300 -3.3491 -2.0013 0.9820
2.8877 -2.8819 -2.0012 0.9820
3.1331 -2.6129 -2.0012 0.9820
3.5472 -2.0148 -2.0011 0.9820
3.9538 -1.0041 -2.0010 0.9820
4.0692 -0.2859 -2.0010 0.9820
3.9998 0.8013 -2.0010 0.9820
3.9125 1.1548 -2.0010 0.9820
3.7940 1.4990 -2.0010 0.9820
3.6453 1.8314 -2.0011 0.9820
3.4675 2.1491 -2.0011 0.9820
3.0308 2.7309 -2.0012 0.9820
2.7753 2.9904 -2.0012 0.9820
1.2115 3.8930 -1.9999 0.9820
0.5000 4.0404 -1.9970 0.9820
-0.2255 4.0633 -1.9962 0.9820
-1.2946 3.8641 -1.9990 0.9820
-1.6356 3.7369 -2.0009 0.9820
-2.5679 3.1728 -2.0022 0.9820
-2.8407 2.9313 -2.0023 0.9820
-3.0908 2.6664 -2.0023 0.9820
-1.1956 -0.0029 -0.5865 0.9947
-1.1588 -0.3210 -0.5898 0.9947
-1.1540 -0.4338 -0.6047 0.9945
-1.1341 -0.5462 -0.6175 0.9944
-3.3047 -2.3964 -2.0024 0.9820
-3.0778 -2.6814 -2.0023 0.9820
-2.2582 -3.4001 -2.0022 0.9820
-1.6183 -3.7469 -2.0020 0.9820
-1.2777 -3.8762 -2.0020 0.9820
-0.9269 -3.9745 -2.0019 0.9820
1.5733 -3.7647 -2.0014 0.9820
1.9026 -3.6093 -2.0014 0.9820
2.5133 -3.2138 -2.0013 0.9820
2.7898 -2.9768 -2.0012 0.9820
3.0440 -2.7162 -2.0012 0.9820
3.6541 -1.8136 -2.0011 0.9820
3.9181 -1.1357 -2.0010 0.9820
4.0037 -0.7818 -2.0010 0.9820
4.0574 -0.4217 -2.0010 0.9820
4.0678 0.3057 -2.0010 0.9820
3.8419 1.3714 -2.0010 0.9820
3.7044 1.7085 -2.0010 0.9820
3.5374 2.0320 -2.0011 0.9820
3.3422 2.3394 -2.0011 0.9820
2.8736 2.8959 -2.0012 0.9820
2.6041 3.1407 -2.0012 0.9820
2.3137 3.3604 -2.0013 0.9820
1.6801 3.7182 -2.0014 0.9820
1.3415 3.8518 -2.0007 0.9820
0.6349 4.0222 -1.9974 0.9820
0.2736 4.0610 -1.9966 0.9820
-1.1644 3.9040 -1.9984 0.9820
-1.5092 3.7880 -2.0001 0.9820
-1.8427 3.6419 -2.0021 0.9820
-2.4604 3.2569 -2.0022 0.9820
-2.9999 2.7682 -2.0023 0.9820
-3.2349 2.4898 -2.0023 0.9820
-1.1493 0.4699 -0.6091 0.9945
-1.1708 0.2490 -0.5872 0.9947
-1.1903 0.1439 -0.5881 0.9947
-1.1960 -0.0698 -0.5877 0.9947
-2.9232 -2.8490 -2.0023 0.9820
-2.6575 -3.0982 -2.0022 0.9820
-2.0648 -3.5208 -2.0021 0.9820
-1.4065 -3.8313 -2.0020 0.9820
-0.3424 -4.0666 -2.0018 0.9820
1.7810 -3.6709 -2.0014 0.9820
2.1011 -3.4974 -2.0013 0.9820
2.4045 -3.2960 -2.0013 0.9820
2.6888 -3.0684 -2.0012 0.9820
2.9516 -2.8164 -2.0012 0.9820
3.1909 -2.5420 -2.0011 0.9820
3.5915 -1.9347 -2.0011 0.9820
3.7496 -1.6067 -2.0010 0.9820
3.9753 -0.9152 -2.0010 0.9820
4.0757 0.1695 -2.0010 0.9820
3.8856 1.2422 -2.0010 0.9820
3.7594 1.5837 -2.0010 0.9820
3.6033 1.9126 -2.0011 0.9820
3.4185 2.2263 -2.0011 0.9820
2.9688 2.7982 -2.0012 0.9820
2.4247 3.2812 -2.0013 0.9820
1.4700 3.8063 -2.0015 0.9820
1.1236 3.9183 -1.9995 0.9820
0.7692 3.9997 -1.9979 0.9820
0.4093 4.0502 -1.9968 0.9820
-0.3165 4.0574 -1.9963 0.9820
-0.6772 4.0140 -1.9968 0.9820
-1.0330 3.9397 -1.9979 0.9820
-1.3812 3.8350 -1.9994 0.9820
-2.3501 3.3373 -2.0022 0.9820
-2.6384 3.1145 -2.0022 0.9820
-2.9057 2.8669 -2.0023 0.9820
-3.1498 2.5965 -2.0023 0.9820
-1.1957 0.0771 -0.5878 0.9947
-1.1964 -0.0297 -0.5870 0.9947
-1.1912 -0.1365 -0.5881 0.9947
-1.1589 -0.3493 -0.5937 0.9946
-1.1505 -0.4622 -0.6082 0.9945
-2.4803 -3.2417 -2.0022 0.9820
-2.1814 -3.4499 -2.0021 0.9820
-1.8650 -3.6305 -2.0021 0.9820
-1.5338 -3.7822 -2.0020 0.9820
-0.8376 -3.9943 -2.0019 0.9820
-0.4781 -4.0529 -2.0018 0.9820
-0.1148 -4.0793 -2.0018 0.9820
0.2493 -4.0731 -2.0017 0.9820
0.6115 -4.0345 -2.0016 0.9820
0.9688 -3.9638 -2.0016 0.9820
1.9831 -3.5657 -2.0014 0.9820
2.2930 -3.3746 -2.0013 0.9820
2.5847 -3.1566 -2.0013 0.9820
3.3277 -2.3598 -2.0011 0.9820
3.5248 -2.0537 -2.0011 0.9820
3.6939 -1.7312 -2.0010 0.9820
3.9425 -1.0476 -2.0010 0.9820
4.0658 -0.3306 -2.0010 0.9820
4.0791 0.0332 -2.0010 0.9820
4.0599 0.3968 -2.0010 0.9820
4.0084 0.7572 -2.0010 0.9820
3.9249 1.1116 -2.0010 0.9820
3.4909 2.1108 -2.0011 0.9820
3.2889 2.4137 -2.0011 0.9820
3.0606 2.6974 -2.0012 0.9820
1.9248 3.5976 -2.0014 0.9820
0.9027 3.9728 -1.9984 0.9820
0.1825 4.0659 -1.9964 0.9820
-1.2519 3.8777 -1.9988 0.9820
-1.9239 3.5997 -2.0021 0.9820
-2.8082 2.9624 -2.0023 0.9820
-3.2899 2.4166 -2.0024 0.9820
-3.4923 2.1137 -2.0024 0.9820
-1.1531 0.4416 -0.6057 0.9945
-1.1770 0.2229 -0.5876 0.9947
-1.1931 0.1171 -0.5881 0.9947
-1.1811 -0.2027 -0.5878 0.9947
-1.1554 -0.4199 -0.6030 0.9945
-2.8586 -2.9138 -2.0023 0.9820
-1.6594 -3.7289 -2.0021 0.9820
-1.3203 -3.8619 -2.0020 0.9820
-0.2511 -4.0732 -2.0018 0.9820
0.1131 -4.0792 -2.0017 0.9820
0.8357 -3.9940 -2.0016 0.9820
2.7569 -3.0074 -2.0012 0.9820
3.0140 -2.7495 -2.0012 0.9820
3.4542 -2.1704 -2.0011 0.9820
3.7847 -1.5223 -2.0010 0.9820
3.9053 -1.1787 -2.0010 0.9820
3.9948 -0.8258 -2.0010 0.9820
4.0709 0.2609 -2.0010 0.9820
4.0315 0.6228 -2.0010 0.9820
3.7230 1.6676 -2.0010 0.9820
3.5595 1.9929 -2.0011 0.9820
3.1491 2.5936 -2.0011 0.9820
2.3505 3.3348 -2.0013 0.9820
1.3840 3.8374 -2.0010 0.9820
1.0353 3.9416 -1.9990 0.9820
0.6792 4.0153 -1.9976 0.9820
-1.4672 3.8039 -1.9999 0.9820
-2.1219 3.4867 -2.0021 0.9820
-1.0933 0.1822 -0.5750 0.9950
-1.1029 -0.1137 -0.5752 0.9950
-1.0873 -0.2114 -0.5747 0.9950
-1.0637 -0.3074 -0.5744 0.9950
-1.0555 -0.4101 -0.5875 0.9949
-2.8820 -2.5672 -2.0023 0.9828
-2.3801 -3.0382 -2.0022 0.9828
-2.0996 -3.2382 -2.0021 0.9828
-1.8025 -3.4124 -2.0021 0.9828
-1.1677 -3.6781 -2.0020 0.9828
-0.8350 -3.7674 -2.0019 0.9828
-0.1526 -3.8556 -2.0018 0.9828
0.5346 -3.8211 -2.0016 0.9828
1.8365 -3.3927 -2.0014 0.9828
2.9064 -2.5364 -2.0012 0.9828
3.1209 -2.2671 -2.0012 0.9828
3.3105 -1.9798 -2.0011 0.9828
3.4738 -1.6767 -2.0011 0.9828
3.7163 -1.0330 -2.0010 0.9828
3.7981 0.6727 -2.0010 0.9828
3.3234 1.9581 -2.0011 0.9828
3.1356 2.2466 -2.0011 0.9828
2.9229 2.5173 -2.0012 0.9828
1.5498 3.5330 -2.0014 0.9828
0.5594 3.8161 -2.0009 0.9828
0.2168 3.8493 -2.0001 0.9828
-1.1436 3.6856 -2.0020 0.9828
-1.4677 3.5691 -2.0020 0.9828
-1.7801 3.4241 -2.0021 0.9828
-2.3601 3.0537 -2.0022 0.9828
-2.6231 2.8311 -2.0022 0.9828
-2.8651 2.5860 -2.0023 0.9828
-3.0844 2.3203 -2.0023 0.9828
-0.9794 0.6082 -0.5981 0.9948
-1.0287 0.5179 -0.5975 0.9948
-1.0857 0.2184 -0.5745 0.9950
-1.1022 0.1209 -0.5752 0.9950
-1.0946 -0.1750 -0.5751 0.9950
-1.0602 -0.3716 -0.5828 0.9950
-1.0435 -0.4741 -0.5946 0.9948
-2.7341 -2.7241 -2.0023 0.9828
-2.4803 -2.9569 -2.0022 0.9828
-2.2067 -3.1662 -2.0022 0.9828
-1.9156 -3.3503 -2.0021 0.9828
-1.2900 -3.6370 -2.0020 0.9828
0.4066 -3.8369 -2.0017 0.9828
0.7471 -3.7853 -2.0016 0.9828
1.0816 -3.7035 -2.0015 0.9828
1.4074 -3.5922 -2.0015 0.9828
1.7221 -3.4523 -2.0014 0.9828
2.0230 -3.2849 -2.0014 0.9828
2.3078 -3.0913 -2.0013 0.9828
2.5741 -2.8732 -2.0013 0.9828
3.0434 -2.3702 -2.0012 0.9828
3.2425 -2.0893 -2.0011 0.9828
3.4159 -1.7919 -2.0011 0.9828
3.5620 -1.4801 -2.0011 0.9828
3.6797 -1.1566 -2.0010 0.9828
3.6609 1.2149 -2.0011 0.9828
3.5380 1.5365 -2.0011 0.9828
2.7779 2.6766 -2.0012 0.9828
1.9706 3.3166 -2.0014 0.9828
1.3502 3.6141 -2.0015 0.9828
0.3454 3.8403 -2.0003 0.9828
-0.3421 3.8399 -1.9999 0.9828
-0.6833 3.7951 -2.0005 0.9828
-1.0195 3.7211 -2.0016 0.9828
-1.3476 3.6161 -2.0020 0.9828
-1.6647 3.4817 -2.0020 0.9828
-2.2567 3.1308 -2.0022 0.9828
-2.5269 2.9172 -2.0022 0.9828
-1.0118 0.5525 -0.5981 0.9948
-1.0761 0.2542 -0.5737 0.9950
-1.0974 0.1577 -0.5752 0.9950
-1.1066 -0.0397 -0.5745 0.9950
-1.0629 -0.3331 -0.5779 0.9950
-1.0514 -0.4358 -0.5904 0.9949
-3.2463 -2.0879 -2.0023 0.9828
-3.0471 -2.3690 -2.0023 0.9828
-2.0265 -3.2844 -2.0021 0.9828
-1.7255 -3.4519 -2.0021 0.9828
-0.7504 -3.7852 -2.0019 0.9828
0.6202 -3.8082 -2.0016 0.9828
0.9572 -3.7376 -2.0016 0.9828
1.6057 -3.5079 -2.0014 0.9828
1.9121 -3.3507 -2.0014 0.9828
2.4767 -2.9576 -2.0013 0.9828
2.7305 -2.7250 -2.0012 0.9828
2.9625 -2.4706 -2.0012 0.9828
3.1709 -2.1966 -2.0011 0.9828
3.5105 -1.5984 -2.0011 0.9828
3.6390 -1.2790 -2.0011 0.9828
3.8477 -0.2703 -2.0010 0.9828
3.6995 1.0919 -2.0010 0.9828
3.4468 1.7316 -2.0011 0.9828
0.4737 3.8272 -2.0006 0.9828
-0.2136 3.8490 -1.9999 0.9828
-1.2259 3.6591 -2.0020 0.9828
-1.8565 3.3834 -2.0021 0.9828
-2.1508 3.2044 -2.0021 0.9828
-2.4280 3.0000 -2.0022 0.9828
-2.9224 2.5212 -2.0023 0.9828
-3.1356 2.2506 -2.0023 0.9828
-0.9930 0.5862 -0.5982 0.9948
-1.0650 0.2895 -0.5725 0.9950
-1.0910 0.1942 -0.5749 0.9950
-1.1059 -0.0027 -0.5737 0.9950
-1.1040 -0.1015 -0.5751 0.9950
-1.0573 -0.3974 -0.5860 0.9949
-0.9901 -0.5910 -0.5982 0.9948
-1.2081 -3.6650 -2.0020 0.9828
-0.5379 -3.8211 -2.0018 0.9828
0.4925 -3.8268 -2.0016 0.9828
0.8317 -3.7675 -2.0016 0.9828
1.4876 -3.5597 -2.0015 0.9828
