ply
format ascii 1.0
element vertex 1596
property float32 x
property float32 y
property float32 z
property float32 I
end_header
0.7726 -7.0277 -2.0015 0.9710
2.0082 -6.7763 -2.0008 0.9710
3.1791 -6.3096 -2.0001 0.9711
4.7340 -5.2406 -1.9993 0.9711
5.5885 -4.3150 -1.9988 0.9711
5.9505 -3.7990 -1.9986 0.9711
6.2650 -3.2529 -1.9984 0.9711
6.9014 -1.4780 -1.9980 0.9711
7.0539 -0.2283 -1.9979 0.9711
6.8629 1.6474 -1.9980 0.9711
6.6889 2.2530 -1.9981 0.9711
6.1831 3.4061 -1.9984 0.9711
5.8552 3.9443 -1.9986 0.9711
5.4806 4.4513 -1.9988 0.9711
5.0533 4.9142 -1.9955 0.9711
4.2536 4.9483 -1.8473 0.9732
3.7958 5.3087 -1.8475 0.9732
3.3077 5.6269 -1.8478 0.9732
2.7931 5.9004 -1.8481 0.9732
0.5538 6.5090 -1.8493 0.9732
-1.1898 6.4267 -1.8503 0.9732
-1.7585 6.2961 -1.8506 0.9732
-3.3642 5.6086 -1.8515 0.9732
-3.8516 5.2870 -1.8518 0.9732
-4.3084 4.9231 -1.8520 0.9732
-4.7309 4.5198 -1.8523 0.9732
-5.1158 4.0803 -1.8525 0.9732
-5.8886 3.8914 -1.9981 0.9711
-6.2345 3.3627 -2.0053 0.9710
-6.7337 2.2018 -2.0056 0.9710
-6.9036 1.5925 -2.0057 0.9710
-7.0183 0.9705 -2.0057 0.9710
-7.0770 0.3406 -2.0058 0.9710
-6.5293 -2.7486 -2.0055 0.9710
-5.9361 -3.8643 -2.0052 0.9710
-4.6997 -5.2962 -2.0045 0.9710
-1.9502 -6.8013 -2.0030 0.9710
-1.3356 -6.9469 -2.0026 0.9710
-0.7105 -7.0371 -2.0023 0.9710
-0.0800 -7.0712 -2.0019 0.9710
1.7939 -6.8366 -2.0009 0.9710
3.5381 -6.1148 -1.9999 0.9711
4.0687 -5.7740 -1.9996 0.9711
4.5669 -5.3873 -1.9994 0.9711
5.0285 -4.9579 -1.9991 0.9711
5.8281 -3.9847 -1.9986 0.9711
6.4422 -2.8853 -1.9983 0.9711
6.6734 -2.2990 -1.9982 0.9711
6.9751 -1.0767 -1.9980 0.9711
7.0432 -0.4503 -1.9979 0.9711
6.9113 1.4304 -1.9980 0.9711
6.7565 2.0412 -1.9981 0.9711
6.5478 2.6358 -1.9982 0.9711
5.9763 3.7579 -1.9985 0.9711
5.6178 4.2763 -1.9987 0.9711
4.5536 4.9716 -1.9086 0.9724
2.4477 6.0526 -1.8483 0.9732
1.8985 6.2478 -1.8486 0.9732
0.7585 6.4879 -1.8492 0.9732
-0.4065 6.5217 -1.8498 0.9732
-0.9867 6.4606 -1.8502 0.9732
-2.1196 6.1846 -1.8508 0.9732
-3.1857 5.7115 -1.8514 0.9732
-4.9845 4.2392 -1.8524 0.9732
-5.5924 3.9542 -1.9389 0.9719
-6.1209 3.5547 -2.0038 0.9710
-6.4187 2.9970 -2.0054 0.9710
-6.8499 1.8091 -2.0056 0.9710
-6.9842 1.1910 -2.0057 0.9710
-7.0849 -0.0688 -2.0058 0.9710
-6.3593 -3.1212 -2.0054 0.9710
-5.7025 -4.2006 -2.0050 0.9710
-5.3046 -4.6920 -2.0048 0.9710
-4.8643 -5.1458 -2.0046 0.9710
-4.3854 -5.5584 -2.0043 0.9710
-3.3271 -6.2473 -2.0037 0.9710
-2.7562 -6.5181 -2.0034 0.9710
-2.1635 -6.7369 -2.0031 0.9710
-1.5538 -6.9018 -2.0028 0.9710
-0.9318 -7.0117 -2.0024 0.9710
0.3287 -7.0632 -2.0017 0.9710
0.9572 -7.0045 -2.0014 0.9710
2.1857 -6.7207 -2.0007 0.9710
3.3439 -6.2235 -2.0000 0.9711
4.3952 -5.5287 -1.9994 0.9711
4.8701 -5.1140 -1.9992 0.9711
5.3062 -4.6587 -1.9989 0.9711
6.0482 -3.6410 -1.9985 0.9711
6.7949 -1.9095 -1.9981 0.9711
6.9378 -1.2958 -1.9980 0.9711
7.0574 -0.0426 -1.9979 0.9711
7.0331 0.5871 -1.9979 0.9711
6.8173 1.8274 -1.9981 0.9711
6.6275 2.4283 -1.9982 0.9711
5.3617 4.5941 -1.9988 0.9711
4.9153 5.0384 -1.9927 0.9712
3.6550 5.4070 -1.8476 0.9732
3.1586 5.7123 -1.8479 0.9732
2.0941 6.1846 -1.8485 0.9732
-0.7827 6.4881 -1.8500 0.9732
-2.4737 6.0525 -1.8510 0.9732
-3.5108 5.5184 -1.8516 0.9732
-3.9895 5.1840 -1.8518 0.9732
-4.4366 4.8082 -1.8521 0.9732
-5.2700 3.9810 -1.8697 0.9729
-6.3210 3.1975 -2.0053 0.9710
-6.7894 2.0239 -2.0056 0.9710
-7.0836 0.1543 -2.0058 0.9710
-6.9981 -1.1067 -2.0057 0.9710
-6.8713 -1.7264 -2.0057 0.9710
-6.6896 -2.3323 -2.0056 0.9710
-5.8322 -4.0191 -2.0051 0.9710
-4.0565 -5.8020 -2.0041 0.9710
-2.9603 -6.4285 -2.0035 0.9710
0.1061 -7.0705 -2.0018 0.9710
0.7361 -7.0317 -2.0015 0.9710
1.9731 -6.7866 -2.0008 0.9710
2.5701 -6.5825 -2.0005 0.9711
3.1464 -6.3260 -2.0001 0.9711
3.6976 -6.0193 -1.9998 0.9711
4.2191 -5.6647 -1.9995 0.9711
4.7069 -5.2651 -1.9993 0.9711
5.5661 -4.3440 -1.9988 0.9711
5.9307 -3.8298 -1.9986 0.9711
6.2481 -3.2853 -1.9984 0.9711
6.7315 -2.1226 -1.9981 0.9711
6.8937 -1.5137 -1.9980 0.9711
7.0010 -0.8928 -1.9980 0.9711
7.0526 -0.2648 -1.9979 0.9711
7.0481 0.3653 -1.9979 0.9711
6.9875 0.9925 -1.9980 0.9711
6.8714 1.6118 -1.9980 0.9711
6.7005 2.2183 -1.9981 0.9711
6.4763 2.8073 -1.9982 0.9711
6.2006 3.3740 -1.9984 0.9711
5.8755 3.9139 -1.9986 0.9711
5.5035 4.4228 -1.9988 0.9711
5.0802 4.8893 -1.9960 0.9711
4.2792 4.9262 -1.8472 0.9732
1.7335 6.2959 -1.8487 0.9732
0.5875 6.5060 -1.8493 0.9732
0.0038 5.1563 -1.4597 0.9788
-0.5780 6.5091 -1.8499 0.9732
-1.7259 6.3050 -1.8506 0.9732
-2.2817 6.1270 -1.8509 0.9732
-3.3351 5.6259 -1.8515 0.9732
-5.0945 4.1067 -1.8525 0.9732
-5.8669 3.9209 -1.9976 0.9711
-6.2169 3.3949 -2.0053 0.9710
-6.8952 1.6283 -2.0057 0.9710
-7.0752 0.3773 -2.0058 0.9710
-6.9224 -1.5092 -2.0057 0.9710
-6.7599 -2.1205 -2.0056 0.9710
-4.7271 -5.2718 -2.0045 0.9710
-3.1614 -6.3324 -2.0036 0.9710
-2.5836 -6.5881 -2.0033 0.9710
-1.9854 -6.7911 -2.0030 0.9710
-0.7470 -7.0334 -2.0023 0.9710
-0.1166 -7.0708 -2.0020 0.9710
1.1411 -6.9766 -2.0013 0.9710
2.9458 -6.4224 -2.0003 0.9711
3.5064 -6.1331 -1.9999 0.9711
4.0388 -5.7950 -1.9996 0.9711
5.0028 -4.9839 -1.9991 0.9711
5.8074 -4.0148 -1.9987 0.9711
6.1417 -3.4805 -1.9985 0.9711
6.4272 -2.9186 -1.9983 0.9711
6.8427 -1.7301 -1.9981 0.9711
6.9694 -1.1128 -1.9980 0.9711
7.0408 -0.4868 -1.9979 0.9711
7.0561 0.1432 -1.9979 0.9711
6.9186 1.3946 -1.9980 0.9711
6.3036 3.1769 -1.9983 0.9711
5.9956 3.7268 -1.9985 0.9711
5.6399 4.2471 -1.9987 0.9711
4.6228 4.9950 -1.9267 0.9721
3.5116 5.5015 -1.8477 0.9732
3.0074 5.7937 -1.8479 0.9732
2.4790 6.0398 -1.8482 0.9732
1.9308 6.2378 -1.8485 0.9732
1.3669 6.3863 -1.8489 0.9732
0.7921 6.4838 -1.8492 0.9732
-2.0875 6.1954 -1.8508 0.9732
-2.6322 5.9856 -1.8511 0.9732
-4.5618 4.6899 -1.8522 0.9732
-4.9625 4.2649 -1.8524 0.9732
-5.5378 3.9588 -1.9271 0.9721
-6.1009 3.5854 -2.0033 0.9710
-6.6483 2.4472 -2.0055 0.9710
-6.8404 1.8446 -2.0056 0.9710
-7.0598 0.5999 -2.0058 0.9710
-6.6258 -2.5074 -2.0055 0.9710
-6.3754 -3.0882 -2.0054 0.9710
-6.0740 -3.6442 -2.0052 0.9710
-5.7242 -4.1710 -2.0051 0.9710
-4.8910 -5.1205 -2.0046 0.9710
-4.4142 -5.5356 -2.0043 0.9710
6.4842 0.4035 -1.9983 0.9732
6.1466 2.1058 -1.9984 0.9732
5.9346 2.6458 -1.9985 0.9732
5.6754 3.1648 -1.9987 0.9732
4.6346 4.5539 -1.9985 0.9732
3.4687 4.9046 -1.8477 0.9752
2.5428 5.4444 -1.8482 0.9752
2.0473 5.6503 -1.8485 0.9752
0.4787 5.9935 -1.8494 0.9752
-1.1256 5.9093 -1.8502 0.9751
-1.6485 5.7862 -1.8505 0.9751
-2.1583 5.6170 -1.8508 0.9751
-2.6511 5.4029 -1.8511 0.9751
-3.5698 4.8473 -1.8516 0.9751
-3.9884 4.5101 -1.8518 0.9751
-4.3753 4.1369 -1.8521 0.9751
-5.0336 3.9722 -1.9722 0.9735
-5.7533 3.0648 -2.0050 0.9731
-6.0042 2.5396 -2.0052 0.9731
-6.2071 1.9941 -2.0053 0.9731
-6.3605 1.4326 -2.0054 0.9731
-6.5132 -0.3024 -2.0055 0.9731
-6.4602 -0.8821 -2.0054 0.9731
-6.3556 -1.4547 -2.0054 0.9731
-4.2998 -4.8963 -2.0043 0.9731
-3.8454 -5.2597 -2.0040 0.9731
-2.8490 -5.8576 -2.0035 0.9731
-1.7624 -6.2687 -2.0029 0.9731
-0.0399 -6.5085 -2.0019 0.9731
4.2293 -4.9371 -1.9995 0.9732
4.6523 -4.5396 -1.9993 0.9732
5.3837 -3.6401 -1.9989 0.9732
5.9438 -2.6252 -1.9986 0.9732
6.3150 -1.5272 -1.9984 0.9732
6.4259 -0.9579 -1.9983 0.9732
6.4856 -0.3809 -1.9983 0.9732
6.4937 0.1991 -1.9982 0.9732
6.4501 0.7775 -1.9983 0.9732
6.3552 1.3497 -1.9983 0.9732
6.2097 1.9112 -1.9984 0.9732
6.0148 2.4576 -1.9985 0.9732
5.4833 3.4876 -1.9988 0.9732
5.1508 3.9632 -1.9990 0.9732
4.7773 4.4072 -1.9992 0.9732
2.7128 5.3613 -1.8481 0.9752
2.2241 5.5827 -1.8484 0.9752
1.7176 5.7597 -1.8487 0.9752
0.6672 5.9751 -1.8492 0.9752
0.1125 5.1404 -1.5815 0.9787
-1.4654 5.8349 -1.8504 0.9751
-2.9591 5.2412 -1.8513 0.9751
-3.4153 4.9571 -1.8515 0.9751
-3.8443 4.6333 -1.8518 0.9751
-4.7490 3.9966 -1.9091 0.9744
-5.6538 3.2444 -2.0050 0.9731
-5.9211 2.7274 -2.0051 0.9731
-6.1411 2.1886 -2.0052 0.9731
-6.3122 1.6322 -2.0053 0.9731
-6.4328 1.0627 -2.0054 0.9731
-6.5021 0.4847 -2.0055 0.9731
-6.3983 -1.2539 -2.0054 0.9731
-6.0732 -2.3705 -2.0052 0.9731
-5.8372 -2.9025 -2.0051 0.9731
-4.8592 -4.3431 -2.0046 0.9731
-4.0093 -5.1362 -2.0041 0.9731
-3.5348 -5.4726 -2.0038 0.9731
-2.5055 -6.0119 -2.0033 0.9731
-1.9590 -6.2104 -2.0030 0.9731
-0.2449 -6.5044 -2.0020 0.9731
0.3362 -6.4993 -2.0017 0.9731
2.0438 -6.1754 -2.0008 0.9731
2.5860 -5.9677 -2.0005 0.9731
3.6042 -5.4117 -1.9999 0.9732
4.5072 -4.6841 -1.9994 0.9732
5.5847 -3.3227 -1.9988 0.9732
6.3926 -1.1598 -1.9983 0.9732
6.4704 -0.5850 -1.9983 0.9732
6.4967 -0.0055 -1.9982 0.9732
6.3945 1.1489 -1.9983 0.9732
6.2667 1.7147 -1.9984 0.9732
5.2729 3.7989 -1.9989 0.9732
4.9136 4.2544 -1.9991 0.9732
4.5076 4.6685 -1.9960 0.9732
3.3385 4.9944 -1.8478 0.9752
2.8802 5.2730 -1.8480 0.9752
1.8980 5.7025 -1.8486 0.9752
1.3821 5.8499 -1.8488 0.9752
-0.2160 6.0100 -1.8497 0.9751
-0.7513 5.9677 -1.8500 0.9751
-1.2808 5.8779 -1.8503 0.9751
-1.8002 5.7411 -1.8506 0.9751
-4.4864 4.0237 -1.8536 0.9751
-5.5487 3.4207 -2.0049 0.9731
-6.2576 1.8301 -2.0053 0.9731
-6.3961 1.2648 -2.0054 0.9731
-6.4836 0.6892 -2.0054 0.9731
-6.5193 0.1082 -2.0055 0.9731
-6.5029 -0.4737 -2.0055 0.9731
-6.3150 -1.6214 -2.0054 0.9731
-5.9258 -2.7173 -2.0052 0.9731
-5.6595 -3.2348 -2.0050 0.9731
-4.9938 -4.1881 -2.0047 0.9731
-4.5998 -4.6163 -2.0044 0.9731
-4.1693 -5.0076 -2.0042 0.9731
-3.7056 -5.3588 -2.0039 0.9731
-3.2124 -5.6672 -2.0037 0.9731
-1.5968 -6.3126 -2.0028 0.9731
-1.0272 -6.4289 -2.0025 0.9731
-0.4496 -6.4938 -2.0021 0.9731
0.7111 -6.4683 -2.0015 0.9731
1.8484 -6.2371 -2.0009 0.9731
2.9263 -5.8077 -2.0003 0.9732
3.4321 -5.5228 -2.0000 0.9732
4.7699 -4.4155 -1.9992 0.9732
5.1442 -3.9720 -1.9990 0.9732
5.4775 -3.4971 -1.9988 0.9732
6.0107 -2.4678 -1.9985 0.9732
6.4862 0.3699 -1.9983 0.9732
6.4274 0.9469 -1.9983 0.9732
6.3175 1.5165 -1.9983 0.9732
4.6593 4.5310 -1.9990 0.9732
4.1388 4.8148 -1.9529 0.9738
2.0766 5.6396 -1.8485 0.9752
1.0419 5.9206 -1.8490 0.9752
0.5097 5.9909 -1.8493 0.9752
-0.0228 5.1427 -1.5818 0.9787
-0.5630 5.9881 -1.8499 0.9751
-1.6185 5.7946 -1.8505 0.9751
-2.6230 5.4165 -1.8511 0.9751
-3.5447 4.8657 -1.8516 0.9751
-3.9650 4.5307 -1.8518 0.9751
-4.9855 3.9764 -1.9615 0.9737
-5.4339 3.5909 -2.0033 0.9731
-5.7374 3.0946 -2.0050 0.9731
-6.4586 0.8931 -2.0054 0.9731
-6.5126 0.3135 -2.0055 0.9731
-6.5147 -0.2686 -2.0055 0.9731
-6.4647 -0.8486 -2.0054 0.9731
-6.3630 -1.4218 -2.0054 0.9731
-5.7587 -3.0551 -2.0051 0.9731
-5.1234 -4.0289 -2.0047 0.9731
-3.8726 -5.2397 -2.0040 0.9731
-3.3894 -5.5635 -2.0038 0.9731
-2.3464 -6.0754 -2.0032 0.9731
-1.2292 -6.3937 -2.0026 0.9731
-0.6539 -6.4768 -2.0023 0.9731
1.0835 -6.4157 -2.0013 0.9731
1.6512 -6.2926 -2.0010 0.9731
2.2055 -6.1193 -2.0007 0.9731
3.7452 -5.3148 -1.9998 0.9732
4.2037 -4.9589 -1.9996 0.9732
5.0168 -4.1322 -1.9991 0.9732
5.6701 -3.1745 -1.9987 0.9732
5.9302 -2.6560 -1.9986 0.9732
6.1431 -2.1163 -1.9985 0.9732
6.3070 -1.5599 -1.9984 0.9732
6.4208 -0.9911 -1.9983 0.9732
6.2195 1.8790 -1.9984 0.9732
5.7874 2.9545 -1.9986 0.9732
5.5013 3.4592 -1.9988 0.9732
5.1713 3.9364 -1.9990 0.9732
4.8001 4.3824 -1.9992 0.9732
3.6460 4.7739 -1.8476 0.9752
3.2061 5.0807 -1.8478 0.9752
1.2277 5.8846 -1.8489 0.9752
0.6981 5.9715 -1.8492 0.9752
-0.3741 6.0025 -1.8498 0.9751
-3.3895 4.9746 -1.8515 0.9751
-3.8202 4.6531 -1.8517 0.9751
-4.2205 4.2943 -1.8520 0.9751
-4.7039 4.0005 -1.8993 0.9745
-5.3108 3.7551 -2.0006 0.9731
-5.6369 3.2736 -2.0050 0.9731
-6.1297 2.2203 -2.0052 0.9731
-6.5199 -0.0634 -2.0055 0.9731
-6.4882 -0.6446 -2.0055 0.9731
-6.4047 -1.2207 -2.0054 0.9731
-6.2701 -1.7870 -2.0053 0.9731
-6.0854 -2.3390 -2.0052 0.9731
-5.8522 -2.8723 -2.0051 0.9731
-5.5723 -3.3825 -2.0050 0.9731
-4.4766 -4.7356 -2.0044 0.9731
-3.5631 -5.4543 -2.0039 0.9731
-3.0620 -5.7495 -2.0036 0.9731
-2.5366 -5.9989 -2.0033 0.9731
-1.9912 -6.2003 -2.0030 0.9731
-1.4300 -6.3522 -2.0027 0.9731
-0.8576 -6.4534 -2.0024 0.9731
0.3025 -6.5010 -2.0017 0.9731
1.4523 -6.3418 -2.0011 0.9731
2.0118 -6.1860 -2.0008 0.9731
2.5551 -5.9810 -2.0005 0.9731
3.0779 -5.7285 -2.0002 0.9732
3.5761 -5.4303 -1.9999 0.9732
4.4829 -4.7074 -1.9994 0.9732
4.8843 -4.2883 -1.9992 0.9732
5.5674 -3.3516 -1.9988 0.9732
5.8437 -2.8415 -1.9986 0.9732
6.0735 -2.3088 -1.9985 0.9732
6.4673 -0.6185 -1.9983 0.9732
6.1008 2.2353 -1.9985 0.9732
5.2925 3.7715 -1.9989 0.9732
4.9355 4.2289 -1.9991 0.9732
4.5328 4.6462 -1.9965 0.9732
3.8524 4.7277 -1.8758 0.9748
2.4272 5.4971 -1.8483 0.9752
1.9275 5.6925 -1.8485 0.9752
1.4123 5.8427 -1.8488 0.9752
-0.1657 5.3872 -1.6578 0.9777
-1.2503 5.8844 -1.8503 0.9751
-2.2766 5.5703 -1.8509 0.9751
-2.7648 5.3459 -1.8512 0.9751
-3.6716 4.7709 -1.8517 0.9751
-4.4619 4.0436 -1.8521 0.9751
-5.1829 3.9152 -1.9979 0.9732
-5.5309 3.4494 -2.0049 0.9731
-6.2480 1.8625 -2.0053 0.9731
-6.5053 -0.4400 -2.0055 0.9731
-5.6762 -3.2055 -2.0050 0.9731
-5.0154 -4.1622 -2.0047 0.9731
-4.6237 -4.5925 -2.0044 0.9731
-4.1952 -4.9860 -2.0042 0.9731
-3.2417 -5.6505 -2.0037 0.9731
-2.7244 -5.9163 -2.0034 0.9731
-2.1856 -6.1348 -2.0031 0.9731
0.0976 -6.5077 -2.0018 0.9731
1.2519 -6.3847 -2.0012 0.9731
2.3656 -6.0588 -2.0006 0.9731
3.4035 -5.5405 -2.0000 0.9732
3.8836 -5.2142 -1.9997 0.9732
5.1236 -3.9986 -1.9990 0.9732
5.9979 -2.4989 -1.9985 0.9732
6.1965 -1.9539 -1.9984 0.9732
6.3458 -1.3934 -1.9983 0.9732
6.4880 0.3362 -1.9983 0.9732
6.4322 0.9136 -1.9983 0.9732
6.3253 1.4837 -1.9983 0.9732
6.1680 2.0420 -1.9984 0.9732
5.9616 2.5842 -1.9985 0.9732
5.0660 4.0712 -1.9990 0.9732
4.1980 4.8328 -1.9690 0.9736
3.5192 4.8684 -1.8477 0.9752
2.1057 5.6287 -1.8484 0.9752
1.5956 5.7950 -1.8487 0.9752
1.0725 5.9151 -1.8490 0.9752
0.5407 5.9881 -1.8493 0.9752
-0.5320 5.9909 -1.8499 0.9751
-1.5884 5.8029 -1.8505 0.9751
-2.1000 5.6389 -1.8508 0.9751
-2.5949 5.4300 -1.8511 0.9751
-3.9415 4.5511 -1.8518 0.9751
-4.9380 3.9805 -1.9508 0.9738
-5.4140 3.6182 -2.0029 0.9731
-5.9775 2.6017 -2.0052 0.9731
-6.1861 2.0583 -2.0053 0.9731
-6.3453 1.4984 -2.0054 0.9731
-6.5109 0.3472 -2.0055 0.9731
-6.5160 -0.2349 -2.0055 0.9731
-6.2208 -1.9514 -2.0053 0.9731
-5.7744 -3.0252 -2.0051 0.9731
-5.4812 -3.5279 -2.0049 0.9731
-5.1442 -4.0023 -2.0047 0.9731
-4.7662 -4.4448 -2.0045 0.9731
-3.8998 -5.2196 -2.0041 0.9731
-3.4182 -5.5459 -2.0038 0.9731
-2.3778 -6.0633 -2.0032 0.9731
-1.8273 -6.2502 -2.0029 0.9731
-0.1074 -6.5079 -2.0020 0.9731
0.4734 -6.4905 -2.0016 0.9731
1.6185 -6.3011 -2.0010 0.9731
2.7115 -5.9115 -2.0004 0.9731
3.7176 -5.3341 -1.9998 0.9732
4.1780 -4.9807 -1.9996 0.9732
5.9164 -2.6867 -1.9986 0.9732
6.1320 -2.1481 -1.9985 0.9732
6.2989 -1.5926 -1.9984 0.9732
6.4156 -1.0244 -1.9983 0.9732
6.4954 0.1318 -1.9982 0.9732
6.3688 1.2838 -1.9983 0.9732
6.2292 1.8468 -1.9984 0.9732
6.0399 2.3951 -1.9985 0.9732
5.8026 2.9244 -1.9986 0.9732
4.8227 4.3574 -1.9991 0.9732
4.4035 4.7581 -1.9941 0.9732
3.2323 5.0640 -1.8478 0.9752
1.7772 5.7415 -1.8486 0.9752
1.2582 5.8781 -1.8489 0.9752
0.7290 5.9678 -1.8492 0.9752
0.1656 5.1347 -1.5801 0.9787
-1.4048 5.8497 -1.8504 0.9751
-1.9212 5.7020 -1.8507 0.9751
-2.4225 5.5087 -1.8510 0.9751
-3.3637 4.9921 -1.8515 0.9751
-4.6592 4.0043 -1.8896 0.9746
-5.2901 3.7817 -2.0001 0.9732
-5.6198 3.3028 -2.0050 0.9731
-6.2949 1.6975 -2.0053 0.9731
-6.4215 1.1293 -2.0054 0.9731
-6.2793 -1.7545 -2.0053 0.9731
-6.0975 -2.3075 -2.0053 0.9731
-5.5897 -3.3537 -2.0050 0.9731
-5.2679 -3.8385 -2.0048 0.9731
6.0101 -0.1633 -1.9985 0.9750
6.0007 0.3734 -1.9985 0.9750
5.4920 2.4485 -1.9988 0.9750
4.9703 3.3858 -1.9991 0.9750
4.2905 4.2158 -1.9994 0.9750
3.2261 4.5616 -1.8572 0.9767
2.7926 4.8075 -1.8481 0.9768
2.3530 5.0380 -1.8483 0.9768
1.8945 5.2285 -1.8486 0.9768
-0.0492 5.1214 -1.7025 0.9786
-2.4529 4.9991 -1.8510 0.9768
-2.8894 4.7610 -1.8512 0.9768
-3.3030 4.4849 -1.8515 0.9768
-4.7258 3.7293 -2.0011 0.9749
-5.0485 3.2988 -2.0046 0.9749
-5.3230 2.8356 -2.0048 0.9749
-5.5551 2.3497 -2.0049 0.9749
-5.8801 -1.3459 -2.0051 0.9749
-5.3132 -2.8541 -2.0048 0.9749
-4.3669 -4.1578 -2.0043 0.9749
-3.9782 -4.5302 -2.0041 0.9749
-3.5579 -4.8664 -2.0039 0.9749
-3.1093 -5.1637 -2.0036 0.9749
-2.6360 -5.4198 -2.0033 0.9749
-2.1418 -5.6325 -2.0031 0.9749
-1.1067 -5.9218 -2.0025 0.9749
-0.5740 -5.9960 -2.0022 0.9749
-0.0370 -6.0224 -2.0019 0.9749
1.0333 -5.9314 -2.0013 0.9749
2.0701 -5.6518 -2.0007 0.9749
3.4911 -4.9001 -1.9999 0.9750
4.6623 -3.7999 -1.9993 0.9750
4.9821 -3.3686 -1.9991 0.9750
5.5006 -2.4294 -1.9988 0.9750
5.6950 -1.9290 -1.9987 0.9750
5.8441 -1.4133 -1.9986 0.9750
6.0020 -0.3525 -1.9985 0.9750
5.8813 1.2490 -1.9986 0.9750
4.7666 3.6675 -1.9992 0.9750
4.4210 4.0784 -1.9994 0.9750
4.0349 4.4513 -1.9971 0.9750
3.4894 4.6183 -1.9241 0.9759
2.0581 5.1660 -1.8485 0.9768
1.1078 5.4511 -1.8490 0.9768
0.6173 5.5290 -1.8493 0.9768
-0.8688 5.4976 -1.8501 0.9768
-2.2942 5.0736 -1.8509 0.9768
-2.7379 4.8494 -1.8511 0.9768
-3.1599 4.5865 -1.8514 0.9768
-3.5568 4.2869 -1.8516 0.9768
-5.2309 3.0017 -2.0047 0.9749
-5.6818 2.0248 -2.0050 0.9749
-5.8400 1.5101 -2.0051 0.9749
-5.9516 0.9832 -2.0052 0.9749
-5.6189 -2.1932 -2.0050 0.9749
-5.4006 -2.6854 -2.0049 0.9749
-4.8368 -3.6017 -2.0046 0.9749
-2.8055 -5.3343 -2.0034 0.9749
-1.8126 -5.7463 -2.0029 0.9749
0.3111 -6.0139 -2.0017 0.9749
1.8912 -5.7144 -2.0008 0.9749
2.3930 -5.5222 -2.0006 0.9750
3.3352 -5.0079 -2.0000 0.9750
4.5404 -3.9449 -1.9994 0.9750
5.1682 -3.0749 -1.9990 0.9750
5.4215 -2.6015 -1.9989 0.9750
6.0123 -0.0051 -1.9985 0.9750
5.9177 1.0632 -1.9986 0.9750
5.7994 1.5868 -1.9986 0.9750
5.4258 2.5922 -1.9988 0.9750
4.8796 3.5155 -1.9991 0.9750
1.2789 5.4132 -1.8489 0.9768
0.7911 5.5065 -1.8492 0.9768
-0.6952 5.5219 -1.8500 0.9768
-1.6657 5.3121 -1.8505 0.9768
-2.1332 5.1431 -1.8508 0.9768
-3.4199 4.3966 -1.8515 0.9768
-3.7989 4.0745 -1.8517 0.9768
-5.6151 2.2027 -2.0050 0.9749
-5.7894 1.6932 -2.0051 0.9749
-5.9176 1.1701 -2.0051 0.9749
-5.9985 0.6377 -2.0052 0.9749
-6.0316 0.1001 -2.0052 0.9749
-6.0164 -0.4382 -2.0052 0.9749
-5.8426 -1.5001 -2.0051 0.9749
-4.9479 -3.4477 -2.0046 0.9749
-4.6203 -3.8749 -2.0044 0.9749
-4.2559 -4.2711 -2.0042 0.9749
-3.8575 -4.6332 -2.0040 0.9749
-2.9723 -5.2436 -2.0035 0.9749
-1.9928 -5.6867 -2.0030 0.9749
-1.4774 -5.8409 -2.0027 0.9749
-0.9505 -5.9486 -2.0024 0.9749
-0.4160 -6.0087 -2.0021 0.9749
0.1215 -6.0210 -2.0018 0.9749
0.6580 -5.9853 -2.0015 0.9749
1.7104 -5.7715 -2.0009 0.9749
2.7079 -5.3743 -2.0004 0.9750
3.6187 -4.8064 -1.9999 0.9750
4.4141 -4.0861 -1.9994 0.9750
5.7437 -1.7785 -1.9987 0.9750
5.8792 -1.2591 -1.9986 0.9750
5.2672 2.9015 -1.9989 0.9750
4.9878 3.3600 -1.9991 0.9750
4.6686 3.7918 -1.9992 0.9750
3.9120 4.5509 -1.9948 0.9750
3.2682 4.5707 -1.8678 0.9766
2.3790 5.0257 -1.8483 0.9768
1.9216 5.2186 -1.8486 0.9768
-0.0227 5.1302 -1.7053 0.9786
-1.0132 5.4730 -1.8502 0.9768
-1.4975 5.3616 -1.8505 0.9768
-2.8647 4.7759 -1.8512 0.9768
-3.2796 4.5019 -1.8514 0.9768
-3.6685 4.1919 -1.8517 0.9768
-4.2043 4.0167 -1.9328 0.9758
-4.7055 3.7530 -2.0007 0.9749
-5.0313 3.3249 -2.0046 0.9749
-5.7332 1.8746 -2.0050 0.9749
-5.9754 0.8263 -2.0052 0.9749
-6.0254 0.2900 -2.0052 0.9749
-6.0273 -0.2485 -2.0052 0.9749
-5.9810 -0.7851 -2.0052 0.9749
-5.8870 -1.3154 -2.0051 0.9749
-5.5591 -2.3402 -2.0050 0.9749
-5.3279 -2.8266 -2.0048 0.9749
-4.7402 -3.7276 -2.0045 0.9749
-4.3884 -4.1351 -2.0043 0.9749
-4.0017 -4.5096 -2.0041 0.9749
-3.5831 -4.8480 -2.0039 0.9749
-3.1360 -5.1476 -2.0036 0.9749
-0.6051 -5.9930 -2.0022 0.9749
-0.0681 -6.0222 -2.0019 0.9749
0.4692 -6.0033 -2.0016 0.9749
1.5279 -5.8228 -2.0010 0.9749
2.5374 -5.4571 -2.0005 0.9750
3.4657 -4.9182 -2.0000 0.9750
5.6850 -1.9585 -1.9987 0.9750
5.9420 -0.9172 -1.9986 0.9750
5.7557 1.7389 -1.9986 0.9750
5.3558 2.7342 -1.9989 0.9750
5.0910 3.2012 -1.9990 0.9750
4.0588 4.4314 -1.9975 0.9750
3.5345 4.6280 -1.9357 0.9758
2.9668 4.7016 -1.8480 0.9768
2.0848 5.1553 -1.8485 0.9768
1.6170 5.3214 -1.8487 0.9768
0.6460 5.5256 -1.8493 0.9768
0.1386 5.1217 -1.7031 0.9786
-0.8403 5.5019 -1.8501 0.9768
-1.8050 5.2666 -1.8506 0.9768
-2.2678 5.0854 -1.8509 0.9768
-3.1361 4.6027 -1.8514 0.9768
-3.5346 4.3052 -1.8516 0.9768
-4.5795 3.8947 -1.9983 0.9750
-5.8321 1.5403 -2.0051 0.9749
-5.9464 1.0140 -2.0051 0.9749
-6.0133 0.4796 -2.0052 0.9749
-5.9256 -1.1294 -2.0051 0.9749
-5.8010 -1.6533 -2.0051 0.9749
-5.6302 -2.1640 -2.0050 0.9749
-4.8554 -3.5766 -2.0046 0.9749
-3.7342 -4.7329 -2.0040 0.9749
-3.2967 -5.0465 -2.0037 0.9749
-2.8331 -5.3198 -2.0035 0.9749
-2.3471 -5.5505 -2.0032 0.9749
-1.8424 -5.7369 -2.0029 0.9749
-1.3232 -5.8775 -2.0026 0.9749
-0.2578 -6.0173 -2.0020 0.9749
0.2799 -6.0155 -2.0017 0.9749
0.8152 -5.9656 -2.0014 0.9749
1.3438 -5.8683 -2.0011 0.9749
1.8616 -5.7242 -2.0009 0.9749
3.3093 -5.0251 -2.0000 0.9750
3.7438 -4.7094 -1.9998 0.9750
4.1484 -4.3562 -1.9996 0.9750
5.1522 -3.1017 -1.9990 0.9750
5.4079 -2.6296 -1.9989 0.9750
5.6206 -2.1366 -1.9987 0.9750
5.7885 -1.6267 -1.9987 0.9750
5.9915 0.5001 -1.9985 0.9750
5.9231 1.0325 -1.9986 0.9750
5.8076 1.5567 -1.9986 0.9750
5.1891 3.0392 -1.9990 0.9750
4.8977 3.4902 -1.9991 0.9750
4.2005 4.3056 -1.9995 0.9750
3.1133 4.6056 -1.8479 0.9768
1.7836 5.2676 -1.8486 0.9768
1.3069 5.4065 -1.8489 0.9768
0.8196 5.5023 -1.8492 0.9768
0.3256 5.5543 -1.8494 0.9768
-0.1581 5.1418 -1.7100 0.9785
-1.1569 5.4447 -1.8503 0.9768
-1.6382 5.3206 -1.8505 0.9768
-2.1065 5.1540 -1.8508 0.9768
-2.5581 4.9463 -1.8510 0.9768
-2.9895 4.6990 -1.8513 0.9768
-3.7777 4.0941 -1.8517 0.9768
-5.3818 2.7225 -2.0048 0.9749
-5.6036 2.2318 -2.0049 0.9749
-5.7806 1.7232 -2.0051 0.9749
-6.0310 0.1314 -2.0052 0.9749
-6.0186 -0.4070 -2.0052 0.9749
-5.9583 -0.9422 -2.0052 0.9749
-5.6956 -1.9857 -2.0050 0.9749
-5.2516 -2.9657 -2.0048 0.9749
-4.9658 -3.4220 -2.0046 0.9749
-3.8815 -4.6132 -2.0040 0.9749
-3.4542 -4.9404 -2.0038 0.9749
-2.9994 -5.2281 -2.0036 0.9749
-2.0222 -5.6763 -2.0030 0.9749
-1.5077 -5.8333 -2.0027 0.9749
-0.4472 -6.0066 -2.0021 0.9749
0.6270 -5.9887 -2.0015 0.9749
1.6805 -5.7803 -2.0010 0.9749
2.1891 -5.6066 -2.0007 0.9749
2.6800 -5.3883 -2.0004 0.9750
3.1495 -5.1271 -2.0001 0.9750
4.0094 -4.4848 -1.9997 0.9750
4.3929 -4.1089 -1.9994 0.9750
5.3226 -2.7986 -1.9989 0.9750
5.5506 -2.3126 -1.9988 0.9750
5.8726 -1.2895 -1.9986 0.9750
5.9641 -0.7606 -1.9985 0.9750
6.0081 -0.2256 -1.9985 0.9750
6.0042 0.3112 -1.9985 0.9750
5.9526 0.8455 -1.9985 0.9750
5.5170 2.3915 -1.9988 0.9750
5.2821 2.8742 -1.9989 0.9750
4.6882 3.7675 -1.9992 0.9750
3.3107 4.5799 -1.8785 0.9765
2.4050 5.0133 -1.8483 0.9768
1.9486 5.2085 -1.8485 0.9768
1.4764 5.3623 -1.8488 0.9768
0.0038 5.1314 -1.7057 0.9786
-0.4922 5.5434 -1.8499 0.9768
-1.4697 5.3693 -1.8504 0.9768
-2.4010 5.0241 -1.8510 0.9768
-4.1645 4.0201 -1.9241 0.9759
-4.6851 3.7766 -2.0003 0.9750
-5.5304 2.4071 -2.0049 0.9749
-5.8706 1.3863 -2.0051 0.9749
-6.0238 0.3212 -2.0052 0.9749
-5.9850 -0.7541 -2.0052 0.9749
-5.5712 -2.3114 -2.0050 0.9749
-5.0712 -3.2640 -2.0047 0.9749
-4.7595 -3.7030 -2.0045 0.9749
-4.4098 -4.1124 -2.0043 0.9749
-3.6082 -4.8294 -2.0039 0.9749
-3.1627 -5.1313 -2.0036 0.9749
-2.6921 -5.3923 -2.0034 0.9749
-1.6907 -5.7832 -2.0028 0.9749
-0.6361 -5.9898 -2.0022 0.9749
-0.0993 -6.0218 -2.0019 0.9749
0.4381 -6.0057 -2.0016 0.9749
2.0115 -5.6730 -2.0008 0.9749
2.5091 -5.4702 -2.0005 0.9750
2.9866 -5.2239 -2.0002 0.9750
3.4402 -4.9361 -2.0000 0.9750
3.8663 -4.6091 -1.9997 0.9750
4.2615 -4.2454 -1.9995 0.9750
4.6227 -3.8480 -1.9993 0.9750
4.9470 -3.4200 -1.9991 0.9750
5.2319 -2.9649 -1.9990 0.9750
5.9372 -0.9480 -1.9986 0.9750
5.9980 -0.4147 -1.9985 0.9750
5.8939 1.1880 -1.9986 0.9750
5.3699 2.7063 -1.9989 0.9750
4.4629 4.0324 -1.9994 0.9750
4.0826 4.4113 -1.9979 0.9750
3.5802 4.6377 -1.9475 0.9756
2.9911 4.6861 -1.8480 0.9768
2.5616 4.9349 -1.8482 0.9768
1.1642 5.4392 -1.8490 0.9768
0.6746 5.5222 -1.8492 0.9768
0.1651 5.1182 -1.7022 0.9786
-0.8118 5.5062 -1.8501 0.9768
-1.2998 5.4126 -1.8503 0.9768
-1.7777 5.2759 -1.8506 0.9768
-2.2415 5.0970 -1.8509 0.9768
-2.6875 4.8774 -1.8511 0.9768
-3.1122 4.6189 -1.8514 0.9768
-4.9058 3.5070 -2.0046 0.9749
-5.1995 3.0557 -2.0047 0.9749
-5.4517 2.5800 -2.0049 0.9749
-5.6604 2.0836 -2.0050 0.9749
-5.8240 1.5705 -2.0051 0.9749
-6.0107 0.5108 -2.0052 0.9749
-6.0323 -0.0274 -2.0052 0.9749
-6.0058 -0.5653 -2.0052 0.9749
-5.8095 -1.6233 -2.0051 0.9749
-5.4281 -2.6294 -2.0049 0.9749
-3.7587 -4.7136 -2.0040 0.9749
5.5872 -0.1518 -1.9988 0.9765
5.5785 0.3471 -1.9988 0.9765
5.5253 0.8433 -1.9988 0.9765
5.2879 1.8117 -1.9989 0.9765
5.1055 2.2762 -1.9990 0.9765
4.8825 2.7227 -1.9991 0.9765
4.6205 3.1475 -1.9993 0.9765
4.3217 3.5474 -1.9994 0.9765
3.9884 3.9190 -1.9996 0.9765
3.6210 4.2567 -1.9985 0.9765
2.1873 4.6832 -1.8484 0.9783
1.3207 4.9986 -1.8489 0.9783
0.4117 5.1552 -1.8494 0.9783
-0.5109 5.1477 -1.8499 0.9783
-1.4178 4.9764 -1.8504 0.9783
-1.8562 4.8308 -1.8507 0.9783
-2.2800 4.6465 -1.8509 0.9783
-3.0700 4.1685 -1.8513 0.9782
-3.5775 4.0454 -1.9312 0.9773
-4.0625 3.8411 -1.9993 0.9765
-4.9474 2.6355 -2.0046 0.9765
-5.1630 2.1838 -2.0047 0.9765
-5.5576 0.7392 -2.0049 0.9765
-5.5550 -0.7585 -2.0049 0.9765
-5.4651 -1.2509 -2.0049 0.9765
-5.1555 -2.2018 -2.0047 0.9765
-4.9382 -2.6527 -2.0046 0.9765
-4.3877 -3.4874 -2.0043 0.9765
-4.0588 -3.8644 -2.0041 0.9765
-3.6976 -4.2106 -2.0039 0.9765
-3.3070 -4.5232 -2.0037 0.9765
-2.8900 -4.7995 -2.0035 0.9765
-2.4501 -5.0376 -2.0032 0.9765
-1.9908 -5.2354 -2.0030 0.9765
-1.5157 -5.3913 -2.0027 0.9765
-1.0287 -5.5043 -2.0025 0.9765
-0.5336 -5.5734 -2.0022 0.9765
0.4650 -5.5779 -2.0016 0.9765
0.9605 -5.5135 -2.0014 0.9765
2.3849 -5.0605 -2.0006 0.9765
2.8264 -4.8270 -2.0003 0.9765
3.2453 -4.5552 -2.0001 0.9765
4.0021 -3.9052 -1.9997 0.9765
5.1135 -2.2585 -1.9990 0.9765
5.2943 -1.7933 -1.9989 0.9765
5.5283 -0.8241 -1.9988 0.9765
5.5796 -0.3277 -1.9988 0.9765
5.5491 0.6689 -1.9988 0.9765
5.3423 1.6442 -1.9989 0.9765
5.1746 2.1143 -1.9990 0.9765
4.7172 3.0004 -1.9992 0.9765
4.4311 3.4094 -1.9994 0.9765
4.1098 3.7914 -1.9995 0.9765
3.7556 4.1432 -1.9997 0.9765
3.3620 4.4496 -1.9943 0.9766
1.9132 4.8022 -1.8486 0.9783
1.4774 4.9543 -1.8488 0.9783
0.5738 5.1394 -1.8493 0.9783
-0.8076 5.1101 -1.8501 0.9783
-1.2603 5.0183 -1.8503 0.9783
-2.1324 4.7158 -1.8508 0.9783
-2.9371 4.2630 -1.8513 0.9782
-4.2860 3.6070 -2.0033 0.9765
-4.5932 3.2122 -2.0044 0.9765
-5.0916 2.3453 -2.0047 0.9765
-5.2808 1.8819 -2.0048 0.9765
-5.4278 1.4035 -2.0049 0.9765
-5.5315 0.9138 -2.0049 0.9765
-5.5762 -0.5832 -2.0050 0.9765
-5.5018 -1.0782 -2.0049 0.9765
-5.3836 -1.5646 -2.0049 0.9765
-5.0194 -2.4959 -2.0047 0.9765
-4.7765 -2.9335 -2.0045 0.9765
-4.1786 -3.7348 -2.0042 0.9765
-3.4479 -4.4169 -2.0038 0.9765
-3.0399 -4.7063 -2.0036 0.9765
-2.1548 -5.1703 -2.0031 0.9765
-1.6848 -5.3412 -2.0028 0.9765
-1.2016 -5.4694 -2.0026 0.9765
-0.2106 -5.5944 -2.0020 0.9765
0.7865 -5.5413 -2.0015 0.9765
1.2774 -5.4483 -2.0012 0.9765
1.7580 -5.3119 -2.0009 0.9765
2.2245 -5.1333 -2.0007 0.9765
3.5028 -4.3597 -1.9999 0.9765
3.8773 -4.0295 -1.9997 0.9765
5.2352 -1.9592 -1.9990 0.9765
5.3889 -1.4843 -1.9989 0.9765
5.5674 0.4938 -1.9988 0.9765
5.5013 0.9884 -1.9988 0.9765
5.3914 1.4751 -1.9989 0.9765
5.2385 1.9502 -1.9989 0.9765
5.0440 2.4098 -1.9990 0.9765
4.2270 3.6599 -1.9995 0.9765
3.0000 4.4880 -1.9305 0.9773
2.0634 4.7393 -1.8485 0.9783
1.6326 4.9051 -1.8487 0.9783
1.1888 5.0319 -1.8490 0.9783
-0.1858 5.1692 -1.8497 0.9783
-0.6462 5.1327 -1.8500 0.9783
-1.1016 5.0553 -1.8502 0.9783
-1.5483 4.9376 -1.8505 0.9783
-1.9827 4.7804 -1.8507 0.9783
-5.0151 2.5044 -2.0046 0.9765
-5.2188 2.0473 -2.0047 0.9765
-5.4999 1.0876 -2.0049 0.9765
-5.5751 0.5927 -2.0049 0.9765
-5.5331 -0.9044 -2.0049 0.9765
-5.0957 -2.3367 -2.0047 0.9765
-4.8666 -2.7817 -2.0046 0.9765
-4.5988 -3.2044 -2.0044 0.9765
-3.9556 -3.9698 -2.0041 0.9765
-3.5854 -4.3064 -2.0039 0.9765
-2.3166 -5.1001 -2.0032 0.9765
-1.8523 -5.2857 -2.0029 0.9765
-1.3733 -5.4291 -2.0026 0.9765
-0.8835 -5.5292 -2.0024 0.9765
1.5899 -5.3649 -2.0010 0.9765
2.5172 -4.9958 -2.0005 0.9765
3.3639 -4.4680 -2.0000 0.9765
3.7486 -4.1497 -1.9998 0.9765
4.1034 -3.7985 -1.9996 0.9765
4.9614 -2.5760 -1.9991 0.9765
5.3395 -1.6533 -1.9989 0.9765
5.5863 -0.1808 -1.9988 0.9765
5.5802 0.3182 -1.9988 0.9765
5.5296 0.8146 -1.9988 0.9765
5.4351 1.3046 -1.9988 0.9765
5.2972 1.7842 -1.9989 0.9765
5.1172 2.2497 -1.9990 0.9765
3.6437 4.2387 -1.9989 0.9765
3.2408 4.5324 -1.9925 0.9766
2.6231 4.4622 -1.8510 0.9783
1.7862 4.8510 -1.8486 0.9783
1.3466 4.9917 -1.8489 0.9783
0.8961 5.0926 -1.8491 0.9783
0.4384 5.1529 -1.8494 0.9783
-0.0227 5.1175 -1.8301 0.9785
-0.4842 5.1503 -1.8499 0.9783
-1.3919 4.9836 -1.8504 0.9783
-1.8311 4.8403 -1.8506 0.9783
-2.6626 4.4390 -1.8511 0.9783
-3.5429 4.0483 -1.9238 0.9774
-4.0419 3.8615 -1.9990 0.9765
-4.6763 3.0903 -2.0044 0.9765
-4.9336 2.6610 -2.0046 0.9765
-5.1516 2.2105 -2.0047 0.9765
-5.3285 1.7423 -2.0048 0.9765
-5.4629 1.2602 -2.0049 0.9765
-5.5537 0.7680 -2.0049 0.9765
-5.5589 -0.7297 -2.0049 0.9765
-5.4715 -1.2226 -2.0049 0.9765
-5.1668 -2.1751 -2.0047 0.9765
-4.4057 -3.4646 -2.0043 0.9765
-3.7194 -4.1915 -2.0039 0.9765
-3.3304 -4.5060 -2.0037 0.9765
-2.4762 -5.0248 -2.0033 0.9765
-1.5436 -5.3835 -2.0027 0.9765
0.4361 -5.5803 -2.0016 0.9765
1.4202 -5.4126 -2.0011 0.9765
2.3587 -5.0728 -2.0006 0.9765
2.8014 -4.8416 -2.0003 0.9765
3.2217 -4.5719 -2.0001 0.9765
3.9819 -3.9259 -1.9997 0.9765
4.3158 -3.5548 -1.9995 0.9765
4.6152 -3.1554 -1.9993 0.9765
5.2849 -1.8207 -1.9989 0.9765
5.5239 -0.8527 -1.9988 0.9765
5.5525 0.6401 -1.9988 0.9765
5.1854 2.0874 -1.9990 0.9765
4.9789 2.5417 -1.9991 0.9765
4.4487 3.3864 -1.9994 0.9765
4.1293 3.7700 -1.9995 0.9765
1.0560 5.0616 -1.8490 0.9783
0.1383 5.1108 -1.8283 0.9785
-0.7811 5.1141 -1.8501 0.9783
-1.6777 4.8953 -1.8506 0.9783
-2.5214 4.5205 -1.8510 0.9783
-3.3378 4.0655 -1.8811 0.9779
-3.9143 3.9828 -1.9970 0.9766
-4.2665 3.6285 -2.0029 0.9765
-4.5765 3.2359 -2.0044 0.9765
-4.8473 2.8150 -2.0045 0.9765
-5.0794 2.3716 -2.0047 0.9765
-5.2709 1.9093 -2.0048 0.9765
-5.5267 0.9425 -2.0049 0.9765
-5.5888 0.4458 -2.0050 0.9765
-5.6063 -0.0545 -2.0050 0.9765
-5.5073 -1.0497 -2.0049 0.9765
-5.2328 -2.0113 -2.0048 0.9765
-4.5128 -3.3242 -2.0044 0.9765
-4.1980 -3.7131 -2.0042 0.9765
-3.8497 -4.0724 -2.0040 0.9765
-3.4707 -4.3991 -2.0038 0.9765
-3.0642 -4.6906 -2.0036 0.9765
-1.2299 -5.4632 -2.0026 0.9765
-0.2396 -5.5932 -2.0020 0.9765
0.2602 -5.5916 -2.0017 0.9765
0.7578 -5.5453 -2.0015 0.9765
3.0762 -4.6713 -2.0002 0.9765
3.8564 -4.0495 -1.9997 0.9765
4.5137 -3.2993 -1.9994 0.9765
5.2250 -1.9862 -1.9990 0.9765
5.4944 -1.0262 -1.9988 0.9765
5.5639 -0.5321 -1.9988 0.9765
5.5891 -0.0337 -1.9988 0.9765
5.5699 0.4649 -1.9988 0.9765
5.5063 0.9599 -1.9988 0.9765
5.0564 2.3836 -1.9990 0.9765
4.8239 2.8253 -1.9992 0.9765
4.5530 3.2445 -1.9993 0.9765
3.9048 4.0025 -1.9997 0.9765
3.5275 4.3290 -1.9969 0.9766
3.0395 4.4964 -1.9409 0.9772
2.0879 4.7285 -1.8485 0.9783
1.6580 4.8966 -1.8487 0.9783
-0.1573 5.1129 -1.8293 0.9785
-0.6196 5.1359 -1.8500 0.9783
-1.5227 4.9455 -1.8505 0.9783
-1.9579 4.7906 -1.8507 0.9783
-2.3777 4.5975 -1.8509 0.9783
-2.7786 4.3676 -1.8512 0.9782
-5.0020 2.5304 -2.0046 0.9765
-5.5720 0.6216 -2.0049 0.9765
-5.6053 0.1221 -2.0050 0.9765
-5.5377 -0.8757 -2.0049 0.9765
-5.4374 -1.3661 -2.0049 0.9765
-5.2937 -1.8456 -2.0048 0.9765
-5.1077 -2.3102 -2.0047 0.9765
-4.8810 -2.7564 -2.0046 0.9765
-4.6154 -3.1806 -2.0044 0.9765
-4.3129 -3.5792 -2.0043 0.9765
-3.6077 -4.2877 -2.0039 0.9765
-2.7879 -4.8594 -2.0034 0.9765
-2.3430 -5.0881 -2.0032 0.9765
-1.8796 -5.2761 -2.0029 0.9765
-0.4156 -5.5832 -2.0021 0.9765
0.5828 -5.5667 -2.0016 0.9765
3.3408 -4.4854 -2.0000 0.9765
3.7271 -4.1691 -1.9998 0.9765
4.4077 -3.4399 -1.9994 0.9765
4.6966 -3.0328 -1.9993 0.9765
4.9480 -2.6017 -1.9991 0.9765
5.1600 -2.1498 -1.9990 0.9765
5.3309 -1.6810 -1.9989 0.9765
5.5853 -0.2097 -1.9988 0.9765
5.5818 0.2893 -1.9988 0.9765
5.5338 0.7860 -1.9988 0.9765
5.4417 1.2765 -1.9988 0.9765
4.6528 3.0995 -1.9993 0.9765
4.0288 3.8775 -1.9996 0.9765
3.6663 4.2206 -1.9992 0.9765
3.2648 4.5164 -1.9929 0.9766
2.6471 4.4502 -1.8517 0.9782
2.2356 4.6602 -1.8484 0.9783
1.8113 4.8417 -1.8486 0.9783
1.3724 4.9846 -1.8489 0.9783
0.0038 5.1188 -1.8305 0.9785
-1.8060 4.8497 -1.8506 0.9783
-3.0266 4.2001 -1.8513 0.9782
-3.5085 4.0512 -1.9165 0.9775
-4.0211 3.8817 -1.9987 0.9765
-4.3635 3.5174 -2.0043 0.9765
-5.4563 1.2885 -2.0049 0.9765
-5.5496 0.7967 -2.0049 0.9765
-5.6030 -0.2020 -2.0050 0.9765
-5.5626 -0.7009 -2.0049 0.9765
-5.1780 -2.1483 -2.0047 0.9765
-4.9655 -2.6014 -2.0046 0.9765
-4.7134 -3.0337 -2.0045 0.9765
-4.4236 -3.4417 -2.0043 0.9765
-4.0987 -3.8222 -2.0042 0.9765
-2.9396 -4.7694 -2.0035 0.9765
-0.0923 -5.5974 -2.0019 0.9765
0.4072 -5.5826 -2.0017 0.9765
0.9034 -5.5232 -2.0014 0.9765
1.3922 -5.4199 -2.0011 0.9765
1.8698 -5.2734 -2.0008 0.9765
3.9615 -3.9465 -1.9997 0.9765
4.5988 -3.1793 -1.9993 0.9765
4.8637 -2.7563 -1.9992 0.9765
5.4190 -1.3701 -1.9989 0.9765
5.5760 -0.3855 -1.9988 0.9765
5.5881 0.1134 -1.9988 0.9765
5.5557 0.6113 -1.9988 0.9765
5.4792 1.1044 -1.9988 0.9765
4.9920 2.5159 -1.9991 0.9765
4.7480 2.9513 -1.9992 0.9765
4.4662 3.3633 -1.9994 0.9765
2.3812 4.5873 -1.8483 0.9783
1.9628 4.7820 -1.8485 0.9783
1.5287 4.9387 -1.8488 0.9783
0.6270 5.1331 -1.8493 0.9783
-0.2950 5.1643 -1.8498 0.9783
-1.6523 4.9039 -1.8505 0.9783
-2.0834 4.7376 -1.8508 0.9783
-2.4980 4.5335 -1.8510 0.9783
-2.8927 4.2931 -1.8512 0.9782
-4.2469 3.6499 -2.0025 0.9765
-5.0670 2.3979 -2.0047 0.9765
-5.2610 1.9365 -2.0048 0.9765
-5.5217 0.9711 -2.0049 0.9765
-5.5864 0.4747 -2.0050 0.9765
-5.5819 -0.5254 -2.0050 0.9765
-5.5127 -1.0211 -2.0049 0.9765
-5.3995 -1.5087 -2.0049 0.9765
-5.2432 -1.9842 -2.0048 0.9765
-5.0451 -2.4438 -2.0047 0.9765
-4.2172 -3.6914 -2.0042 0.9765
-3.8707 -4.0524 -2.0040 0.9765
5.2143 -0.1417 -1.9990 0.9779
5.1566 0.7870 -1.9990 0.9779
4.9350 1.6908 -1.9991 0.9779
4.0332 3.3106 -1.9996 0.9779
0.3842 4.8107 -1.8494 0.9795
-0.0464 4.8264 -1.8496 0.9795
-0.9034 4.7426 -1.8501 0.9795
-1.7321 4.5077 -1.8506 0.9795
-2.1275 4.3358 -1.8508 0.9795
-3.4545 3.9064 -1.9984 0.9779
-3.7991 3.5921 -2.0036 0.9779
-4.1054 3.2397 -2.0041 0.9778
-4.3783 2.8609 -2.0043 0.9778
-4.6163 2.4591 -2.0044 0.9778
-4.9803 1.6000 -2.0046 0.9778
-5.1033 1.1494 -2.0047 0.9778
-5.0993 -1.1672 -2.0047 0.9778
-4.9747 -1.6173 -2.0046 0.9778
-4.3684 -2.8761 -2.0043 0.9778
-4.0941 -3.2540 -2.0041 0.9778
-3.4502 -3.9290 -2.0038 0.9779
-2.2863 -4.7007 -2.0032 0.9779
-1.8577 -4.8853 -2.0029 0.9779
1.3515 -5.0440 -2.0011 0.9779
1.7958 -4.9027 -2.0009 0.9779
3.3953 -3.9635 -2.0000 0.9779
4.0448 -3.2966 -1.9996 0.9779
4.3223 -2.9224 -1.9995 0.9779
4.5654 -2.5251 -1.9993 0.9779
4.7722 -2.1077 -1.9992 0.9779
5.2073 -0.3058 -1.9990 0.9779
5.1788 0.6242 -1.9990 0.9779
4.4023 2.8001 -1.9994 0.9779
4.1353 3.1818 -1.9995 0.9779
3.8354 3.5383 -1.9997 0.9779
3.5048 3.8666 -1.9999 0.9779
2.2060 4.3597 -1.8724 0.9793
1.3787 4.6234 -1.8489 0.9795
0.1056 4.8252 -1.8496 0.9795
-0.3252 4.8161 -1.8498 0.9795
-1.9898 4.4005 -1.8507 0.9795
-2.8148 4.0855 -1.9013 0.9790
-3.3269 4.0097 -1.9966 0.9779
-3.6806 3.7064 -2.0017 0.9779
-4.5365 2.6032 -2.0044 0.9778
-4.9274 1.7560 -2.0046 0.9778
-5.1613 0.8527 -2.0047 0.9778
-5.2169 0.3889 -2.0047 0.9778
-5.2030 -0.5442 -2.0047 0.9778
-5.1336 -1.0060 -2.0047 0.9778
-5.0233 -1.4598 -2.0047 0.9778
-4.8728 -1.9020 -2.0046 0.9778
-4.6835 -2.3289 -2.0045 0.9778
-4.4569 -2.7372 -2.0043 0.9778
-4.1947 -3.1236 -2.0042 0.9778
-3.8991 -3.4850 -2.0040 0.9778
-3.5724 -3.8185 -2.0039 0.9778
-3.2173 -4.1215 -2.0037 0.9779
-2.4333 -4.6265 -2.0032 0.9779
-2.0107 -4.8246 -2.0030 0.9779
-1.5722 -4.9841 -2.0028 0.9779
2.4946 -4.5856 -2.0005 0.9779
3.2689 -4.0686 -2.0001 0.9779
4.7035 -2.2570 -1.9993 0.9779
4.8858 -1.8284 -1.9992 0.9779
5.1326 -0.9312 -1.9990 0.9779
5.1341 0.9224 -1.9990 0.9779
4.7073 2.2490 -1.9992 0.9779
4.4882 2.6600 -1.9993 0.9779
3.6247 3.7542 -1.9998 0.9779
2.3949 4.3846 -1.9146 0.9788
1.5236 4.5775 -1.8488 0.9795
1.1094 4.6957 -1.8490 0.9795
0.6862 4.7765 -1.8492 0.9795
0.2575 4.8193 -1.8495 0.9795
-0.1734 4.8237 -1.8497 0.9795
-0.6030 4.7896 -1.8500 0.9795
-2.2413 4.2793 -1.8512 0.9795
-3.8930 3.4915 -2.0040 0.9778
-4.1893 3.1306 -2.0042 0.9778
-4.6795 2.3368 -2.0044 0.9778
-4.8695 1.9103 -2.0045 0.9778
-5.0207 1.4684 -2.0046 0.9778
-5.1318 1.0148 -2.0047 0.9778
-5.2175 -0.3800 -2.0048 0.9778
-4.9304 -1.7476 -2.0046 0.9778
-4.7547 -2.1803 -2.0045 0.9778
-4.5410 -2.5955 -2.0044 0.9778
-4.0070 -3.3605 -2.0041 0.9778
-3.3456 -4.0183 -2.0037 0.9779
-2.5779 -4.5478 -2.0033 0.9779
-1.7284 -4.9323 -2.0028 0.9779
-0.8244 -5.1596 -2.0023 0.9779
-0.3609 -5.2119 -2.0021 0.9779
0.5707 -5.1918 -2.0016 0.9779
1.9241 -4.8536 -2.0008 0.9779
2.7552 -4.4335 -2.0004 0.9779
3.1393 -4.1697 -2.0001 0.9779
3.4983 -3.8727 -1.9999 0.9779
4.3976 -2.8076 -1.9994 0.9779
4.6302 -2.4041 -1.9993 0.9779
4.8259 -1.9814 -1.9992 0.9779
4.9832 -1.5430 -1.9991 0.9779
5.1777 -0.6330 -1.9990 0.9779
5.2078 0.2970 -1.9990 0.9779
5.1606 0.7603 -1.9990 0.9779
4.9437 1.6652 -1.9991 0.9779
4.7757 2.0996 -1.9992 0.9779
4.5697 2.5173 -1.9993 0.9779
4.0503 3.2896 -1.9996 0.9779
3.0303 4.2381 -1.9966 0.9779
2.5927 4.4105 -1.9606 0.9783
2.0638 4.3598 -1.8485 0.9795
-0.4519 4.8060 -1.8499 0.9795
-1.7087 4.5166 -1.8506 0.9795
-2.1050 4.3467 -1.8508 0.9795
-2.4846 4.1421 -1.8510 0.9795
-2.9672 4.0731 -1.9311 0.9786
-3.4337 3.9236 -1.9981 0.9779
-3.7798 3.6111 -2.0033 0.9779
-4.0885 3.2609 -2.0041 0.9778
-4.8069 2.0626 -2.0045 0.9778
-4.9719 1.6257 -2.0046 0.9778
-5.0973 1.1759 -2.0047 0.9778
-5.1820 0.7166 -2.0047 0.9778
-5.2253 0.2515 -2.0048 0.9778
-5.2269 -0.2155 -2.0048 0.9778
-5.1053 -1.1407 -2.0047 0.9778
-4.9831 -1.5915 -2.0046 0.9778
-4.8210 -2.0295 -2.0045 0.9778
-4.1110 -3.2328 -2.0042 0.9778
-3.4706 -3.9111 -2.0038 0.9779
-3.1076 -4.2046 -2.0036 0.9779
-2.3106 -4.6888 -2.0032 0.9779
-1.8830 -4.8756 -2.0029 0.9779
-1.4404 -5.0235 -2.0027 0.9779
-0.9865 -5.1313 -2.0024 0.9779
-0.5248 -5.1982 -2.0022 0.9779
-0.0591 -5.2236 -2.0019 0.9779
0.4070 -5.2074 -2.0017 0.9779
0.8697 -5.1497 -2.0014 0.9779
1.3254 -5.0510 -2.0011 0.9779
3.3748 -3.9810 -2.0000 0.9779
3.7160 -3.6638 -1.9998 0.9779
4.3072 -2.9448 -1.9995 0.9779
4.5523 -2.5487 -1.9993 0.9779
4.7612 -2.1324 -1.9992 0.9779
5.2056 -0.3328 -1.9990 0.9779
5.2146 0.1328 -1.9990 0.9779
5.1081 1.0572 -1.9990 0.9779
4.9936 1.5086 -1.9991 0.9779
4.8394 1.9481 -1.9992 0.9779
3.8536 3.5183 -1.9997 0.9779
2.7758 4.3989 -1.9933 0.9780
2.2365 4.3637 -1.8791 0.9792
1.8122 4.4811 -1.8523 0.9795
1.4027 4.6161 -1.8488 0.9795
0.9855 4.7234 -1.8491 0.9795
0.5603 4.7931 -1.8493 0.9795
0.1306 4.8246 -1.8496 0.9795
-0.3003 4.8176 -1.8498 0.9795
-0.7289 4.7723 -1.8500 0.9795
-1.1517 4.6888 -1.8503 0.9795
-1.5655 4.5680 -1.8505 0.9795
-2.7853 4.0879 -1.8956 0.9790
-3.3056 4.0264 -1.9964 0.9779
-3.6608 3.7248 -2.0014 0.9779
-3.9837 3.3880 -2.0040 0.9778
-4.2703 3.0194 -2.0042 0.9778
-4.9182 1.7815 -2.0046 0.9778
-5.1568 0.8794 -2.0047 0.9778
-5.2311 -0.0508 -2.0048 0.9778
-4.2108 -3.1018 -2.0042 0.9778
-3.9171 -3.4647 -2.0040 0.9778
-3.2386 -4.1048 -2.0037 0.9779
-2.8593 -4.3768 -2.0035 0.9779
-2.4572 -4.6139 -2.0032 0.9779
-2.0357 -4.8141 -2.0030 0.9779
-1.1477 -5.0979 -2.0025 0.9779
-0.2236 -5.2194 -2.0020 0.9779
1.1657 -5.0904 -2.0012 0.9779
2.0511 -4.8011 -2.0007 0.9779
2.4708 -4.5985 -2.0005 0.9779
2.8708 -4.3593 -2.0003 0.9779
4.2124 -3.0791 -1.9995 0.9779
4.8763 -1.8537 -1.9992 0.9779
5.2161 -0.0315 -1.9990 0.9779
5.1388 0.8958 -1.9990 0.9779
5.0386 1.3506 -1.9990 0.9779
4.8982 1.7947 -1.9991 0.9779
4.5019 2.6367 -1.9993 0.9779
4.2491 3.0279 -1.9995 0.9779
3.9624 3.3951 -1.9996 0.9779
3.6441 3.7353 -1.9998 0.9779
3.2968 4.0458 -2.0000 0.9779
2.9155 4.3131 -1.9951 0.9779
1.5473 4.5695 -1.8488 0.9795
1.1337 4.6898 -1.8490 0.9795
0.7110 4.7729 -1.8492 0.9795
0.2825 4.8179 -1.8495 0.9795
-0.5782 4.7926 -1.8499 0.9795
-1.4209 4.6148 -1.8504 0.9795
-2.6096 4.1019 -1.8631 0.9794
-3.5384 3.8348 -1.9996 0.9779
-4.4379 2.7677 -2.0043 0.9778
-4.8596 1.9355 -2.0045 0.9778
-5.2301 0.1139 -2.0048 0.9778
-5.2194 -0.3530 -2.0048 0.9778
-5.1671 -0.8171 -2.0047 0.9778
-5.0735 -1.2747 -2.0047 0.9778
-4.9394 -1.7221 -2.0046 0.9778
-4.3065 -2.9678 -2.0043 0.9778
-3.3664 -4.0009 -2.0037 0.9779
-2.9958 -4.2848 -2.0035 0.9779
-1.7540 -4.9233 -2.0029 0.9779
-1.3077 -5.0595 -2.0026 0.9779
-0.8511 -5.1553 -2.0024 0.9779
-0.3879 -5.2100 -2.0021 0.9779
1.0049 -5.1248 -2.0013 0.9779
1.8990 -4.8635 -2.0008 0.9779
2.3249 -4.6742 -2.0006 0.9779
3.4782 -3.8907 -1.9999 0.9779
3.8110 -3.5647 -1.9998 0.9779
4.1134 -3.2103 -1.9996 0.9779
4.3831 -2.8304 -1.9994 0.9779
4.6177 -2.4280 -1.9993 0.9779
4.8156 -2.0064 -1.9992 0.9779
5.0951 -1.1188 -1.9990 0.9779
5.1744 -0.6599 -1.9990 0.9779
5.2093 0.2700 -1.9990 0.9779
5.1645 0.7335 -1.9990 0.9779
4.0672 3.2685 -1.9996 0.9779
3.4224 3.9399 -1.9999 0.9779
1.6903 4.5183 -1.8487 0.9795
1.2807 4.6516 -1.8489 0.9795
0.8609 4.7479 -1.8491 0.9795
0.4340 4.8064 -1.8494 0.9795
-0.8542 4.7516 -1.8501 0.9795
-1.2748 4.6571 -1.8503 0.9795
-1.6853 4.5254 -1.8506 0.9795
-2.4631 4.1549 -1.8510 0.9795
-2.9369 4.0756 -1.9251 0.9787
-4.0715 3.2820 -2.0041 0.9778
-4.9634 1.6515 -2.0046 0.9778
-5.0911 1.2022 -2.0047 0.9778
-5.1782 0.7434 -2.0047 0.9778
-5.2239 0.2786 -2.0048 0.9778
-5.2280 -0.1885 -2.0048 0.9778
-4.9913 -1.5657 -2.0046 0.9778
-4.8315 -2.0045 -2.0045 0.9778
-4.6332 -2.4273 -2.0044 0.9778
-4.3980 -2.8307 -2.0043 0.9778
-4.1277 -3.2115 -2.0042 0.9778
-3.8245 -3.5665 -2.0040 0.9778
-3.4908 -3.8930 -2.0038 0.9779
-3.1294 -4.1885 -2.0036 0.9779
-2.3349 -4.6768 -2.0032 0.9779
-1.4665 -5.0160 -2.0027 0.9779
-1.0131 -5.1262 -2.0024 0.9779
-0.5518 -5.1955 -2.0022 0.9779
0.3800 -5.2095 -2.0017 0.9779
0.8430 -5.1542 -2.0014 0.9779
1.2992 -5.0578 -2.0012 0.9779
2.1766 -4.7453 -2.0007 0.9779
2.5909 -4.5318 -2.0004 0.9779
3.6970 -3.6830 -1.9998 0.9779
4.0104 -3.3383 -1.9996 0.9779
4.2919 -2.9671 -1.9995 0.9779
4.7501 -2.1571 -1.9992 0.9779
4.9233 -1.7247 -1.9991 0.9779
5.1850 0.5705 -1.9990 0.9779
5.1135 1.0307 -1.9990 0.9779
5.0014 1.4827 -1.9991 0.9779
4.6588 2.3480 -1.9993 0.9779
4.1681 3.1388 -1.9995 0.9779
3.8718 3.4983 -1.9997 0.9779
3.5447 3.8300 -1.9999 0.9779
3.1875 4.1290 -1.9989 0.9779
2.7990 4.3851 -1.9936 0.9780
2.2672 4.3678 -1.8859 0.9791
1.8317 4.4626 -1.8486 0.9795
1.4265 4.6088 -1.8488 0.9795
1.0099 4.7182 -1.8491 0.9795
0.1556 4.8238 -1.8495 0.9795
-0.7041 4.7760 -1.8500 0.9795
-2.3309 4.2303 -1.8509 0.9795
-2.7560 4.0902 -1.8901 0.9791
-3.6409 3.7432 -2.0011 0.9779
-4.5092 2.6501 -2.0043 0.9778
-4.9089 1.8069 -2.0046 0.9778
-5.0507 1.3620 -2.0046 0.9778
-5.1522 0.9061 -2.0047 0.9778
-5.2313 -0.0237 -2.0048 0.9778
-5.1438 -0.9528 -2.0047 0.9778
-4.7075 -2.2802 -2.0045 0.9778
-3.9350 -3.4444 -2.0041 0.9778
4.8752 0.3033 -1.9991 0.9791
4.7439 1.1647 -1.9992 0.9791
4.6212 1.5833 -1.9993 0.9791
4.4618 1.9892 -1.9994 0.9791
4.2668 2.3793 -1.9995 0.9791
4.0379 2.7506 -1.9996 0.9791
3.1664 3.7223 -2.0001 0.9791
2.4491 4.2162 -1.9956 0.9791
1.5577 4.2990 -1.8714 0.9804
0.7600 4.4539 -1.8492 0.9807
-0.8459 4.4406 -1.8501 0.9807
-1.2387 4.3479 -1.8503 0.9806
-2.0241 4.1252 -1.8806 0.9803
-3.2413 3.6652 -2.0025 0.9791
-3.5576 3.3637 -2.0038 0.9791
-4.3221 2.3024 -2.0042 0.9791
-4.7780 1.0762 -2.0045 0.9791
-1.9499 0.2593 -0.8051 0.9915
-1.9362 0.0831 -0.7931 0.9917
-1.9385 -0.0900 -0.7943 0.9916
-1.9484 -0.2660 -0.8048 0.9915
-4.5038 -1.9235 -2.0044 0.9791
-4.3141 -2.3174 -2.0043 0.9791
-3.8332 -3.0466 -2.0040 0.9791
-3.2304 -3.6786 -2.0037 0.9791
-2.8891 -3.9517 -2.0035 0.9791
-2.1406 -4.4012 -2.0031 0.9791
-1.3243 -4.7105 -2.0026 0.9791
-0.4662 -4.8697 -2.0021 0.9791
-0.0300 -4.8912 -2.0019 0.9791
0.4063 -4.8738 -2.0017 0.9791
1.6815 -4.5907 -2.0009 0.9791
2.0840 -4.4220 -2.0007 0.9791
2.4698 -4.2180 -2.0005 0.9791
3.4974 -3.4127 -1.9999 0.9791
3.7875 -3.0869 -1.9998 0.9791
4.0474 -2.7366 -1.9996 0.9791
4.2751 -2.3645 -1.9995 0.9791
4.4687 -1.9737 -1.9994 0.9791
4.6267 -1.5672 -1.9993 0.9791
4.8313 -0.7202 -1.9992 0.9791
4.8495 0.5845 -1.9992 0.9791
4.7782 1.0148 -1.9992 0.9791
4.5222 1.8477 -1.9993 0.9791
4.3396 2.2438 -1.9994 0.9791
4.1224 2.6220 -1.9995 0.9791
3.8723 2.9795 -1.9997 0.9791
3.2819 3.6206 -2.0000 0.9791
2.5827 4.1402 -1.9972 0.9791
1.7163 4.3081 -1.8980 0.9802
1.2910 4.3291 -1.8489 0.9807
0.5014 4.4907 -1.8493 0.9807
0.0989 4.5181 -1.8496 0.9807
-1.4880 4.2694 -1.8505 0.9806
-1.8705 4.1365 -1.8580 0.9806
-3.4498 3.4740 -2.0037 0.9791
-3.7462 3.1527 -2.0039 0.9791
-4.0127 2.8062 -2.0041 0.9791
-4.7417 1.2261 -2.0045 0.9791
-2.0798 0.3436 -0.8627 0.9909
-1.9129 -0.0285 -0.7830 0.9918
-4.7030 -1.3668 -2.0045 0.9791
-4.5622 -1.7807 -2.0044 0.9791
-4.3850 -2.1804 -2.0043 0.9791
-3.9273 -2.9245 -2.0041 0.9791
-3.0123 -3.8589 -2.0035 0.9791
-2.2783 -4.3318 -2.0031 0.9791
-0.6194 -4.8528 -2.0022 0.9791
-0.1840 -4.8881 -2.0020 0.9791
1.1162 -4.7607 -2.0013 0.9791
1.9438 -4.4856 -2.0008 0.9791
2.3359 -4.2939 -2.0006 0.9791
2.7093 -4.0680 -2.0004 0.9791
3.3883 -3.5212 -2.0000 0.9791
3.9594 -2.8628 -1.9997 0.9791
4.4044 -2.1135 -1.9994 0.9791
4.5752 -1.7121 -1.9993 0.9791
4.8648 -0.4398 -1.9992 0.9791
4.8655 0.4315 -1.9992 0.9791
4.5780 1.7043 -1.9993 0.9791
3.9642 2.8560 -1.9996 0.9791
2.7141 4.0602 -1.9988 0.9791
2.3358 4.2764 -1.9943 0.9792
1.8795 4.3171 -1.9271 0.9799
0.6425 4.4725 -1.8493 0.9807
0.2411 4.5125 -1.8495 0.9807
-0.1623 4.5166 -1.8497 0.9807
-1.7323 4.1766 -1.8506 0.9806
-4.8047 0.9501 -2.0045 0.9791
-1.9145 0.0318 -0.7837 0.9918
-1.9530 -0.1423 -0.8014 0.9916
-4.6161 -1.6362 -2.0044 0.9791
-4.4516 -2.0413 -2.0043 0.9791
-4.2515 -2.4301 -2.0042 0.9791
-2.4136 -4.2581 -2.0032 0.9791
-2.0240 -4.4559 -2.0030 0.9791
-1.6183 -4.6181 -2.0028 0.9791
-0.7719 -4.8311 -2.0023 0.9791
0.5344 -4.8613 -2.0016 0.9791
1.3893 -4.6879 -2.0011 0.9791
2.5799 -4.1515 -2.0004 0.9791
3.2758 -3.6263 -2.0001 0.9791
3.5859 -3.3194 -1.9999 0.9791
4.1180 -2.6291 -1.9996 0.9791
4.3358 -2.2512 -1.9995 0.9791
4.8485 -0.5928 -1.9992 0.9791
4.8820 -0.1580 -1.9991 0.9791
4.7498 1.1401 -1.9992 0.9791
4.6294 1.5593 -1.9993 0.9791
3.1856 3.7058 -2.0001 0.9791
2.8426 3.9756 -2.0003 0.9791
-0.0200 4.5193 -1.8496 0.9807
-0.4231 4.5000 -1.8499 0.9807
-0.8229 4.4449 -1.8501 0.9807
-2.4546 4.0922 -1.9530 0.9796
-3.2218 3.6815 -2.0022 0.9791
-3.8279 3.0531 -2.0040 0.9791
-4.3101 2.3247 -2.0042 0.9791
-4.5005 1.9311 -2.0043 0.9791
-4.6550 1.5221 -2.0044 0.9791
-4.7723 1.1009 -2.0045 0.9791
-1.9397 0.0934 -0.7948 0.9916
-1.9349 -0.0798 -0.7926 0.9917
-1.9506 -0.2560 -0.8052 0.9915
-4.7798 -1.0680 -2.0045 0.9791
-4.6654 -1.4900 -2.0045 0.9791
-4.1038 -2.6716 -2.0041 0.9791
-3.2494 -3.6618 -2.0037 0.9791
-2.5466 -4.1801 -2.0033 0.9791
-2.1634 -4.3901 -2.0031 0.9791
-0.9237 -4.8046 -2.0024 0.9791
-0.4914 -4.8672 -2.0022 0.9791
0.3811 -4.8759 -2.0017 0.9791
0.8143 -4.8219 -2.0014 0.9791
1.2410 -4.7295 -2.0012 0.9791
1.6577 -4.5994 -2.0010 0.9791
2.0611 -4.4327 -2.0007 0.9791
3.1601 -3.7278 -2.0001 0.9791
3.4797 -3.4308 -1.9999 0.9791
3.7715 -3.1065 -1.9998 0.9791
4.0332 -2.7575 -1.9996 0.9791
4.2628 -2.3867 -1.9995 0.9791
4.4585 -1.9968 -1.9994 0.9791
4.7419 -1.1728 -1.9992 0.9791
4.8275 -0.7452 -1.9992 0.9791
4.8830 0.1244 -1.9991 0.9791
4.6761 1.4127 -1.9992 0.9791
4.5316 1.8242 -1.9993 0.9791
4.1359 2.6006 -1.9995 0.9791
3.8877 2.9593 -1.9997 0.9791
3.6085 3.2946 -1.9998 0.9791
2.9663 3.8840 -2.0002 0.9791
2.2211 4.3337 -1.9931 0.9792
1.3134 4.3224 -1.8489 0.9807
-0.2811 4.5109 -1.8498 0.9807
-0.6824 4.4684 -1.8500 0.9807
-1.0784 4.3902 -1.8502 0.9807
-1.8464 4.1403 -1.8554 0.9806
-2.2898 4.1051 -1.9238 0.9799
-2.7467 4.0311 -1.9964 0.9791
-3.1018 3.7780 -2.0006 0.9791
-3.4317 3.4918 -2.0037 0.9791
-3.7298 3.1720 -2.0039 0.9791
-4.2346 2.4592 -2.0042 0.9791
-4.4373 2.0719 -2.0043 0.9791
-4.6047 1.6679 -2.0044 0.9791
-1.9557 0.1560 -0.8030 0.9916
-1.9078 -0.0185 -0.7809 0.9918
-1.9578 -0.1945 -0.8052 0.9915
-2.2115 -0.4215 -0.9214 0.9903
-4.7101 -1.3424 -2.0045 0.9791
-4.5714 -1.7571 -2.0044 0.9791
-3.9425 -2.9041 -2.0041 0.9791
-3.6674 -3.2439 -2.0039 0.9791
-3.3632 -3.5578 -2.0037 0.9791
-3.0322 -3.8432 -2.0036 0.9791
-2.3007 -4.3200 -2.0032 0.9791
-1.4962 -4.6590 -2.0027 0.9791
-0.6445 -4.8495 -2.0022 0.9791
1.0915 -4.7664 -2.0013 0.9791
3.9445 -2.8832 -1.9997 0.9791
4.1856 -2.5198 -1.9995 0.9791
4.5662 -1.7358 -1.9993 0.9791
4.8677 0.4063 -1.9991 0.9791
4.5868 1.6806 -1.9993 0.9791
3.4123 3.4977 -1.9999 0.9791
3.0870 3.7885 -2.0001 0.9791
2.7354 4.0466 -1.9991 0.9791
2.3582 4.2648 -1.9945 0.9792
-0.1389 4.5173 -1.8497 0.9807
-0.5414 4.4875 -1.8499 0.9807
-1.3304 4.3209 -1.8504 0.9806
-1.7106 4.1855 -1.8506 0.9806
-2.1294 4.1173 -1.8971 0.9802
-2.5963 4.0809 -1.9796 0.9793
-3.6279 3.2878 -2.0038 0.9791
-3.9070 2.9514 -2.0040 0.9791
-4.1550 2.5913 -2.0041 0.9791
