ply
format ascii 1.0
element vertex 1553
property float32 x
property float32 y
property float32 z
property float32 I
end_header
1.2040 10.4118 -0.0590 0.9589
14.2645 10.3182 -0.0991 0.9320
12.0895 10.5103 -0.0902 0.9379
10.1149 10.5202 -0.0822 0.9433
5.6366 10.3783 -0.0665 0.9539
3.4301 10.3950 -0.0616 0.9572
2.4692 10.5779 -0.0612 0.9575
1.4661 10.4098 -0.0592 0.9588
-0.8972 6.9543 -0.0395 0.9723
15.2041 10.4337 -0.1038 0.9289
8.7421 10.3549 -0.0763 0.9472
7.3447 10.4698 -0.0720 0.9501
3.7176 10.3928 -0.0621 0.9568
1.7300 10.4078 -0.0594 0.9587
1.0197 13.5143 -0.0763 0.9472
15.8467 10.3063 -0.1064 0.9272
13.1411 10.3267 -0.0941 0.9353
10.9766 10.3380 -0.0849 0.9415
7.7040 10.4225 -0.0730 0.9495
6.3190 10.3732 -0.0684 0.9526
2.9779 10.3984 -0.0609 0.9577
2.0296 10.5812 -0.0607 0.9578
13.8268 10.3215 -0.0971 0.9333
11.5376 10.3388 -0.0872 0.9399
9.8171 10.5224 -0.0810 0.9441
7.9835 10.2584 -0.0732 0.9493
5.4372 10.3798 -0.0660 0.9542
4.3807 10.5634 -0.0644 0.9553
3.2582 10.3963 -0.0613 0.9574
-7.7907 -18.1472 -0.1112 0.9240
14.7426 10.4461 -0.1017 0.9303
6.1346 5.2288 -0.0454 0.9683
8.4807 10.3569 -0.0754 0.9479
7.1136 10.4715 -0.0713 0.9506
2.5783 10.5770 -0.0613 0.9574
1.5699 10.4090 -0.0593 0.9588
1.0488 17.3764 -0.0980 0.9327
6.0618 10.2960 -0.0673 0.9533
3.8322 10.3920 -0.0624 0.9567
2.8099 10.3997 -0.0607 0.9578
8.2053 -17.4763 -0.1087 0.9257
13.4062 10.3247 -0.0953 0.9346
9.5275 10.5246 -0.0799 0.9448
3.8534 5.1079 -0.0360 0.9747
6.4582 10.3721 -0.0688 0.9523
4.1268 10.3897 -0.0629 0.9563
2.1368 10.5804 -0.0608 0.9577
1.1487 10.4122 -0.0590 0.9590
10.0099 10.5210 -0.0818 0.9436
8.2254 10.3588 -0.0745 0.9485
6.7520 10.2677 -0.0692 0.9520
5.5666 10.3789 -0.0663 0.9540
3.3699 10.3954 -0.0615 0.9572
2.4108 10.5783 -0.0611 0.9575
-0.9362 6.9683 -0.0396 0.9723
15.1119 10.4875 -0.1036 0.9291
10.3409 10.3428 -0.0823 0.9432
5.9010 10.3763 -0.0672 0.9534
4.8135 10.5602 -0.0653 0.9546
3.6563 10.3933 -0.0620 0.9569
1.0282 14.6526 -0.0827 0.9429
15.6683 10.3076 -0.1056 0.9277
10.8627 10.3389 -0.0844 0.9418
9.0924 10.3523 -0.0776 0.9464
6.2449 10.3737 -0.0682 0.9527
5.1323 10.5578 -0.0661 0.9541
3.9477 10.3911 -0.0626 0.9565
2.9191 10.3988 -0.0608 0.9577
1.9721 10.5816 -0.0606 0.9579
0.9967 10.4764 -0.0593 0.9588
16.3736 10.3023 -0.5447 0.9255
13.5513 10.3236 -0.4797 0.9341
9.6278 10.5239 -0.4016 0.9445
3.8676 5.0711 -0.1796 0.9748
5.3090 10.3808 -0.3283 0.9544
4.1899 10.3893 -0.3154 0.9562
3.1472 10.3971 -0.3059 0.9575
2.1946 10.5799 -0.3042 0.9577
10.1148 10.5202 -0.4109 0.9433
8.3139 10.3581 -0.3740 0.9482
2.4692 10.5779 -0.3059 0.9575
1.4661 10.4098 -0.2960 0.9588
-0.8810 6.8292 -0.1939 0.9728
10.4492 10.3420 -0.4140 0.9429
7.3447 10.4698 -0.3601 0.9501
5.9276 10.2970 -0.3345 0.9536
2.7038 10.4098 -0.3028 0.9579
1.0197 13.5143 -0.3816 0.9472
-0.7497 7.2176 -0.2043 0.9714
10.9766 10.3380 -0.4246 0.9414
9.1884 10.3515 -0.3897 0.9461
6.3190 10.3732 -0.3420 0.9526
5.1790 10.5133 -0.3300 0.9542
4.0101 10.3906 -0.3136 0.9564
2.9779 10.3984 -0.3046 0.9576
16.6700 10.2628 -0.5512 0.9247
13.8268 10.3215 -0.4858 0.9333
9.8171 10.5224 -0.4052 0.9440
7.9835 10.2584 -0.3660 0.9493
6.6515 10.3334 -0.3460 0.9520
4.3807 10.5634 -0.3220 0.9553
3.2582 10.3963 -0.3068 0.9573
2.3025 10.5791 -0.3049 0.9576
1.3071 10.4110 -0.2955 0.9589
-7.7608 -18.0775 -0.5539 0.9243
14.7426 10.4461 -0.5088 0.9302
6.1338 5.2282 -0.2269 0.9683
7.1136 10.4715 -0.3565 0.9506
3.5429 10.3941 -0.3092 0.9570
2.5783 10.5770 -0.3065 0.9574
1.0488 17.3763 -0.4902 0.9327
15.3432 10.3101 -0.5205 0.9287
12.7460 10.3297 -0.4620 0.9365
10.6539 10.3405 -0.4181 0.9423
8.9158 10.3536 -0.3847 0.9468
5.0057 10.5587 -0.3290 0.9543
1.8655 10.5824 -0.3026 0.9579
1.0337 12.1206 -0.3425 0.9525
8.1613 -17.3827 -0.5407 0.9260
16.0347 10.2070 -0.5352 0.9268
11.1974 10.3414 -0.4292 0.9408
9.5275 10.5246 -0.3997 0.9448
14.1096 10.3194 -0.4922 0.9324
10.0099 10.5210 -0.4089 0.9435
8.2254 10.3588 -0.3725 0.9484
6.7520 10.2677 -0.3460 0.9520
5.5666 10.3789 -0.3316 0.9540
-0.9184 6.8362 -0.1942 0.9728
15.1119 10.4875 -0.5179 0.9290
6.1993 5.1802 -0.2275 0.9682
10.3409 10.3428 -0.4118 0.9432
7.2634 10.4704 -0.3588 0.9503
4.8135 10.5602 -0.3268 0.9546
2.6767 10.5322 -0.3060 0.9574
1.0283 14.6527 -0.4136 0.9429
6.2449 10.3737 -0.3409 0.9527
5.1323 10.5578 -0.3305 0.9541
2.9191 10.3988 -0.3041 0.9577
1.9721 10.5816 -0.3031 0.9578
16.3114 10.2632 -0.9773 0.9257
9.3200 10.1874 -0.7002 0.9462
6.4993 10.3172 -0.6184 0.9523
3.1472 10.3971 -0.5509 0.9574
1.2040 10.4118 -0.5315 0.9589
-1.0689 6.9272 -0.3555 0.9723
14.1245 10.2170 -0.8841 0.9326
11.6976 10.1696 -0.7861 0.9398
9.7868 10.1790 -0.7161 0.9450
4.1308 5.1465 -0.3347 0.9739
3.4873 5.2429 -0.3193 0.9751
4.5672 10.5620 -0.5836 0.9550
3.4301 10.3950 -0.5551 0.9571
1.4661 10.4098 -0.5331 0.9588
-0.8863 6.8699 -0.3513 0.9726
12.3146 10.1810 -0.8103 0.9380
10.2807 10.1753 -0.7336 0.9437
5.9458 10.3285 -0.6044 0.9534
1.7300 10.4078 -0.5351 0.9586
0.9608 12.7346 -0.6477 0.9501
-0.7173 6.9058 -0.3521 0.9726
15.7622 10.2513 -0.9536 0.9275
10.7996 10.1714 -0.7524 0.9423
6.3190 10.3732 -0.6160 0.9525
4.0101 10.3906 -0.5648 0.9564
2.9779 10.3984 -0.5485 0.9576
1.0459 10.4130 -0.5307 0.9590
7.9157 -17.5398 -0.9759 0.9258
13.6745 10.2078 -0.8654 0.9339
11.3517 10.1722 -0.7730 0.9408
9.4988 10.1812 -0.7062 0.9458
4.0207 5.1664 -0.3320 0.9741
6.6099 10.2687 -0.6193 0.9523
5.4371 10.3798 -0.5943 0.9542
4.3807 10.5634 -0.5800 0.9552
3.2582 10.3963 -0.5525 0.9573
2.3025 10.5791 -0.5491 0.9576
6.1330 5.2275 -0.4087 0.9682
9.9787 10.1776 -0.7228 0.9445
3.5429 10.3941 -0.5569 0.9570
2.5783 10.5770 -0.5521 0.9573
1.5699 10.4090 -0.5339 0.9587
0.8568 14.1949 -0.7212 0.9446
-0.8189 6.8765 -0.3512 0.9726
15.2392 10.2402 -0.9311 0.9291
12.5686 10.1859 -0.8204 0.9373
10.4821 10.1738 -0.7408 0.9432
4.9849 10.5148 -0.5901 0.9545
3.8322 10.3920 -0.5617 0.9566
-0.6517 6.9323 -0.3531 0.9725
8.1787 -17.4197 -0.9760 0.9258
16.0347 10.2070 -0.9639 0.9267
11.0169 10.1747 -0.7605 0.9417
5.2407 10.3813 -0.5898 0.9545
4.1268 10.3897 -0.5670 0.9562
3.0879 10.3976 -0.5501 0.9575
2.1368 10.5804 -0.5474 0.9577
-1.1111 6.9584 -0.3574 0.9722
11.5754 10.1705 -0.7814 0.9402
9.6853 10.1798 -0.7126 0.9453
4.0917 5.1529 -0.3337 0.9740
3.3699 10.3954 -0.5542 0.9572
2.4108 10.5783 -0.5502 0.9575
-0.9242 6.8791 -0.3520 0.9726
-8.0019 -18.1480 -1.0059 0.9236
14.7404 10.2297 -0.9099 0.9307
6.1980 5.1792 -0.4096 0.9682
10.1742 10.1761 -0.7298 0.9440
3.6171 5.2141 -0.3218 0.9749
5.9010 10.3763 -0.6054 0.9533
4.7991 10.5285 -0.5868 0.9547
3.6564 10.3933 -0.5588 0.9568
2.6767 10.5322 -0.5511 0.9574
1.6740 10.4082 -0.5346 0.9587
0.9217 13.1348 -0.6678 0.9486
-0.7542 6.9080 -0.3524 0.9726
15.5766 10.2474 -0.9456 0.9280
12.8292 10.1910 -0.8309 0.9365
10.6876 10.1722 -0.7483 0.9426
8.9699 10.2129 -0.6893 0.9470
6.2449 10.3737 -0.6141 0.9527
2.9191 10.3988 -0.5478 0.9577
1.9721 10.5816 -0.5459 0.9578
-0.5967 7.0904 -0.3609 0.9719
16.3736 10.3023 -1.4184 0.9253
11.3150 10.3405 -1.1239 0.9404
3.8397 5.0346 -0.4643 0.9749
6.4721 10.2739 -0.8903 0.9525
5.2433 10.2522 -0.8443 0.9549
4.1285 10.2371 -0.8094 0.9567
0.2774 10.7833 -0.7909 0.9577
-6.4800 18.8016 -1.4582 0.9233
14.2645 10.3182 -1.2908 0.9318
11.8892 10.3362 -1.1551 0.9388
8.2782 10.3136 -0.9697 0.9483
6.9658 10.4726 -0.9222 0.9508
5.5710 10.2575 -0.8559 0.9543
4.4282 10.2407 -0.8181 0.9562
3.3756 10.2297 -0.7898 0.9577
1.4425 10.2420 -0.7584 0.9594
-0.8810 6.8288 -0.5048 0.9728
-6.0207 18.9842 -1.4603 0.9232
-9.3039 17.6156 -1.4607 0.9232
12.4967 10.3316 -1.1889 0.9370
7.3447 10.4698 -0.9377 0.9500
4.7348 10.2448 -0.8275 0.9557
1.7021 10.2400 -0.7611 0.9592
-0.7168 6.9006 -0.5087 0.9726
-7.1789 18.4148 -1.4492 0.9238
-14.5266 13.5886 -1.4585 0.9233
15.8467 10.3063 -1.3860 0.9270
13.1411 10.3267 -1.2254 0.9352
10.9766 10.3380 -1.1056 0.9413
3.7601 5.0870 -0.4638 0.9749
6.2560 10.2697 -0.8817 0.9529
5.0490 10.2493 -0.8377 0.9552
2.9299 10.2307 -0.7803 0.9582
1.0290 10.2451 -0.7550 0.9595
-0.5510 6.9865 -0.5139 0.9723
-1.1880 7.0000 -0.5206 0.9719
-8.3529 17.9129 -1.4492 0.9238
16.7299 10.2996 -1.4405 0.9242
13.8268 10.3215 -1.2651 0.9331
9.6544 10.3480 -1.0377 0.9448
1.2860 10.2432 -0.7569 0.9594
-0.9921 6.8749 -0.5093 0.9725
-6.2573 18.7480 -1.4492 0.9238
-7.7980 -18.1641 -1.4494 0.9238
14.5590 10.3160 -1.3083 0.9309
6.1323 5.2269 -0.5908 0.9682
10.1422 10.3443 -1.0622 0.9436
7.1136 10.4715 -0.9282 0.9505
4.5482 10.2423 -0.8217 0.9560
3.4871 10.2306 -0.7925 0.9576
1.5446 10.2412 -0.7594 0.9593
-0.8140 6.8356 -0.5047 0.9728
-9.0894 17.6245 -1.4540 0.9235
-5.6203 -15.8430 -1.2326 0.9348
12.7460 10.3297 -1.2029 0.9363
8.8946 10.3290 -0.9994 0.9468
3.7421 5.2250 -0.4712 0.9746
6.0440 10.2658 -0.8735 0.9533
2.7646 10.2320 -0.7771 0.9584
-6.9986 18.4841 -1.4492 0.9238
11.1974 10.3414 -1.1176 0.9407
9.3615 10.3412 -1.0228 0.9456
3.8073 5.0468 -0.4635 0.9750
5.1750 10.2512 -0.8420 0.9550
3.0381 10.2299 -0.7825 0.9581
-8.1774 17.9937 -1.4492 0.9238
14.1095 10.3194 -1.2817 0.9323
8.1878 10.3115 -0.9654 0.9486
5.5009 10.2564 -0.8534 0.9544
4.3643 10.2399 -0.8162 0.9563
3.3160 10.2292 -0.7885 0.9578
1.3877 10.2424 -0.7579 0.9594
-6.0983 18.8843 -1.4550 0.9235
-7.7288 18.1909 -1.4492 0.9238
-5.4214 -16.0431 -1.2417 0.9343
7.2634 10.4704 -0.9343 0.9502
3.5995 10.2317 -0.7953 0.9574
2.6007 10.2332 -0.7742 0.9585
1.6470 10.2404 -0.7605 0.9593
-0.7499 6.8680 -0.5066 0.9727
-7.2754 18.3769 -1.4492 0.9238
15.6683 10.3076 -1.3751 0.9275
13.0014 10.3278 -1.2175 0.9356
9.0760 10.3337 -1.0084 0.9463
4.9818 10.2483 -0.8355 0.9553
3.8882 10.2345 -0.8027 0.9570
2.8720 10.2312 -0.7792 0.9583
1.9082 10.2385 -0.7636 0.9591
0.9748 10.2455 -0.7546 0.9596
-0.5856 6.9590 -0.5121 0.9724
-6.8325 18.5922 -1.4524 0.9236
-8.4468 17.8688 -1.4492 0.9238
18.4356 5.5698 -1.8489 0.9255
17.8647 7.1936 -1.8489 0.9255
16.3004 10.2563 -1.8489 0.9255
11.3150 10.3405 -1.4716 0.9403
9.4683 10.3494 -1.3467 0.9452
5.3090 10.3808 -1.1194 0.9542
3.1472 10.3971 -1.0429 0.9573
-0.4474 7.0151 -0.6749 0.9721
-4.6246 18.6952 -1.8489 0.9255
-7.8759 17.5745 -1.8489 0.9255
-10.8762 15.8935 -1.8489 0.9255
-14.6993 12.4429 -1.8489 0.9255
-15.7516 11.0808 -1.8489 0.9255
-11.8679 -15.1674 -1.8489 0.9255
-8.9810 -17.0364 -1.8489 0.9255
-4.1450 -18.8073 -1.8489 0.9255
-0.7339 -19.2446 -1.8489 0.9255
6.0491 -18.2840 -1.8489 0.9255
7.6574 -17.6708 -1.8489 0.9255
12.0666 -15.0097 -1.8489 0.9255
18.5681 5.1110 -1.8489 0.9255
18.0376 6.7484 -1.8489 0.9255
14.2645 10.3182 -1.6902 0.9317
9.9472 10.3458 -1.3779 0.9440
8.3139 10.3581 -1.2751 0.9480
2.4265 10.3949 -1.0248 0.9580
1.4634 10.3904 -1.0074 0.9587
0.5526 10.9300 -1.0507 0.9570
-0.7488 19.2441 -1.8489 0.9255
-4.1596 18.8041 -1.8489 0.9255
-5.8220 18.3575 -1.8489 0.9255
-7.4378 17.7644 -1.8489 0.9255
-10.4788 16.1583 -1.8489 0.9255
-11.8797 15.1581 -1.8489 0.9255
-13.1856 14.0369 -1.8489 0.9255
-15.4720 11.4679 -1.8489 0.9255
-16.4341 10.0407 -1.8489 0.9255
-17.2650 8.5332 -1.8489 0.9255
-17.9580 6.9576 -1.8489 0.9255
-12.2402 -14.8685 -1.8489 0.9255
-9.4006 -16.8085 -1.8489 0.9255
-5.4306 -15.7965 -1.6037 0.9351
-2.9221 -19.0357 -1.8489 0.9255
0.5102 -19.2519 -1.8489 0.9255
3.9262 -18.8542 -1.8489 0.9255
7.2170 -17.8553 -1.8489 0.9255
8.7824 -17.1396 -1.8489 0.9255
10.2777 -16.2870 -1.8489 0.9255
11.6908 -15.3043 -1.8489 0.9255
18.1993 6.2992 -1.8489 0.9255
17.5642 7.8990 -1.8489 0.9255
15.0274 10.3125 -1.7497 0.9294
10.4492 10.3420 -1.4114 0.9426
8.7421 10.3549 -1.3010 0.9470
7.3447 10.4698 -1.2278 0.9499
5.9458 10.3285 -1.1441 0.9532
2.7005 10.3972 -1.0313 0.9578
1.7272 10.3911 -1.0113 0.9586
1.0197 13.5143 -1.3011 0.9470
-0.7072 6.8082 -0.6571 0.9729
-5.3651 18.4963 -1.8489 0.9255
-6.9951 17.9434 -1.8489 0.9255
-10.0750 16.4131 -1.8489 0.9255
-15.1830 11.8479 -1.8489 0.9255
-16.1802 10.4450 -1.8489 0.9255
-17.7799 7.4006 -1.8489 0.9255
-11.2547 -15.6277 -1.8489 0.9255
-9.8144 -16.5702 -1.8489 0.9255
-8.2957 -17.3803 -1.8489 0.9255
-5.0722 -18.5787 -1.8489 0.9255
-3.3931 -18.9574 -1.8489 0.9255
0.0327 -19.2586 -1.8489 0.9255
3.4576 -18.9457 -1.8489 0.9255
9.8707 -16.5368 -1.8489 0.9255
12.9030 -14.8025 -1.8852 0.9241
18.7986 4.1843 -1.8489 0.9255
18.3499 5.8461 -1.8489 0.9255
17.7546 7.4611 -1.8489 0.9255
15.8467 10.3063 -1.8148 0.9269
13.1411 10.3267 -1.6045 0.9350
3.7507 5.0742 -0.6058 0.9750
5.1145 10.3823 -1.1111 0.9546
1.9933 10.3921 -1.0159 0.9584
1.0436 10.3903 -1.0025 0.9589
0.2060 19.2575 -1.8489 0.9255
-0.5434 6.8896 -0.6635 0.9726
-1.1745 6.9203 -0.6739 0.9722
-6.5481 18.1113 -1.8489 0.9255
-9.6649 16.6578 -1.8489 0.9255
-11.1137 15.7283 -1.8489 0.9255
-12.4736 14.6732 -1.8489 0.9255
-15.9162 10.8429 -1.8489 0.9255
-16.8208 9.3785 -1.8489 0.9255
-18.7048 4.5855 -1.8489 0.9255
-11.6387 -15.3439 -1.8489 0.9255
-8.7241 -17.1693 -1.8489 0.9255
-5.5313 -18.4473 -1.8489 0.9255
-3.8621 -18.8674 -1.8489 0.9255
-0.4447 -19.2535 -1.8489 0.9255
2.9868 -19.0256 -1.8489 0.9255
6.3230 -18.1910 -1.8489 0.9255
7.9220 -17.5538 -1.8489 0.9255
12.2908 -14.8268 -1.8489 0.9255
18.4892 5.3893 -1.8489 0.9255
17.9342 7.0186 -1.8489 0.9255
17.2359 8.5919 -1.8489 0.9255
16.3999 10.0965 -1.8489 0.9255
13.8268 10.3215 -1.6565 0.9330
11.5376 10.3388 -1.4873 0.9396
6.6754 10.3705 -1.1840 0.9516
4.3081 10.3884 -1.0797 0.9558
1.3045 10.3902 -1.0053 0.9588
0.3822 10.7634 -1.0340 0.9576
-1.0378 19.2306 -1.8489 0.9255
-6.0971 18.2680 -1.8489 0.9255
-7.7038 17.6507 -1.8489 0.9255
-12.1060 14.9780 -1.8489 0.9255
-13.3950 13.8373 -1.8489 0.9255
-14.5770 12.5860 -1.8489 0.9255
-17.3912 8.2729 -1.8489 0.9255
-18.5853 5.0478 -1.8489 0.9255
-12.0155 -15.0506 -1.8489 0.9255
-10.6237 -16.0634 -1.8489 0.9255
-9.1471 -16.9478 -1.8489 0.9255
-5.9869 -18.3044 -1.8489 0.9255
-2.6358 -19.0774 -1.8489 0.9255
0.7993 -19.2420 -1.8489 0.9255
2.5142 -19.0938 -1.8489 0.9255
9.0389 -17.0057 -1.8489 0.9255
11.9194 -15.1269 -1.8489 0.9255
18.6171 4.9293 -1.8489 0.9255
17.4436 8.1619 -1.8489 0.9255
16.6452 9.6868 -1.8489 0.9255
8.4807 10.3569 -1.2851 0.9476
7.1136 10.4715 -1.2153 0.9504
5.7681 10.3773 -1.1398 0.9534
4.6121 10.3861 -1.0910 0.9554
2.5341 10.3957 -1.0273 0.9579
1.0488 17.3763 -1.6712 0.9324
-0.5607 19.2505 -1.8489 0.9255
-0.8120 6.8188 -0.6593 0.9728
-7.2638 17.8362 -1.8489 0.9255
-11.7310 15.2735 -1.8489 0.9255
-13.0478 14.1651 -1.8489 0.9255
-15.3592 11.6185 -1.8489 0.9255
-17.1808 8.7015 -1.8489 0.9255
-18.4545 5.5070 -1.8489 0.9255
-9.5644 -16.7158 -1.8489 0.9255
-1.3986 -19.2078 -1.8489 0.9255
2.0400 -19.1503 -1.8489 0.9255
8.6144 -17.2246 -1.8489 0.9255
11.5407 -15.4178 -1.8489 0.9255
18.7336 4.4662 -1.8489 0.9255
17.6406 7.7270 -1.8489 0.9255
16.8802 9.2712 -1.8489 0.9255
15.3432 10.3101 -1.7747 0.9284
12.7460 10.3297 -1.5751 0.9362
6.1082 10.3748 -1.1558 0.9528
4.9228 10.3837 -1.1032 0.9549
3.8322 10.3920 -1.0634 0.9565
2.8095 10.3982 -1.0341 0.9576
-0.6414 6.8231 -0.6579 0.9728
-8.4003 17.3300 -1.8489 0.9255
-9.9141 16.5108 -1.8489 0.9255
-11.3487 15.5596 -1.8489 0.9255
-13.9352 13.2931 -1.8489 0.9255
-16.0773 10.6027 -1.8489 0.9255
-18.8281 4.3170 -1.8545 0.9253
-13.0647 -14.7965 -1.8950 0.9237
-9.9759 -16.4735 -1.8489 0.9255
-6.8869 -17.9852 -1.8489 0.9255
-3.5783 -18.9233 -1.8489 0.9255
-1.8744 -19.1672 -1.8489 0.9255
-0.1555 -19.2580 -1.8489 0.9255
9.7087 -16.6324 -1.8489 0.9255
12.6524 -14.8046 -1.8697 0.9247
19.2247 4.0824 -1.8868 0.9241
17.8267 7.2872 -1.8489 0.9255
17.1048 8.8498 -1.8489 0.9255
16.0347 10.2070 -1.8248 0.9265
13.4062 10.3247 -1.6245 0.9343
11.1974 10.3414 -1.4633 0.9406
6.4582 10.3721 -1.1730 0.9521
5.2407 10.3813 -1.1165 0.9543
4.1268 10.3897 -1.0733 0.9561
1.1463 10.3902 -1.0036 0.9589
0.2224 10.8655 -1.0434 0.9573
-10.9594 15.8362 -1.8489 0.9255
-13.6013 13.6345 -1.8489 0.9255
-14.7644 12.3656 -1.8489 0.9255
-16.7283 9.5425 -1.8489 0.9255
-17.5135 8.0108 -1.8489 0.9255
-18.1588 6.4150 -1.8489 0.9255
-5.7112 -18.3923 -1.8489 0.9255
-0.6328 -19.2482 -1.8489 0.9255
4.4908 -18.7277 -1.8489 0.9255
7.7501 -17.6304 -1.8489 0.9255
9.2933 -16.8680 -1.8489 0.9255
18.5410 5.2084 -1.8489 0.9255
18.0019 6.8430 -1.8489 0.9255
17.3190 8.4230 -1.8489 0.9255
9.8440 10.3466 -1.3711 0.9442
8.2254 10.3588 -1.2699 0.9482
6.8872 10.4732 -1.2034 0.9509
5.5666 10.3789 -1.1307 0.9538
4.4271 10.3875 -1.0840 0.9556
3.3699 10.3954 -1.0491 0.9570
0.4890 10.7959 -1.0375 0.9575
-0.8498 19.2399 -1.8489 0.9255
-4.2583 18.7820 -1.8489 0.9255
-5.9182 18.3267 -1.8489 0.9255
-7.5309 17.7251 -1.8489 0.9255
-9.0835 16.9819 -1.8489 0.9255
-11.9590 15.0956 -1.8489 0.9255
-13.2591 13.9675 -1.8489 0.9255
-14.4532 12.7279 -1.8489 0.9255
-15.5319 11.3866 -1.8489 0.9255
-16.4866 9.9543 -1.8489 0.9255
-17.9942 6.8633 -1.8489 0.9255
-4.5118 -18.7227 -1.8489 0.9255
-2.8221 -19.0508 -1.8489 0.9255
-1.1099 -19.2266 -1.8489 0.9255
0.6113 -19.2489 -1.8489 0.9255
4.0251 -18.8333 -1.8489 0.9255
5.6906 -18.3987 -1.8489 0.9255
7.3106 -17.8171 -1.8489 0.9255
18.6644 4.7471 -1.8489 0.9255
18.1660 6.3946 -1.8489 0.9255
4.7337 10.3852 -1.0957 0.9552
3.6564 10.3933 -1.0578 0.9567
1.6712 10.3909 -1.0104 0.9586
-0.3725 19.2550 -1.8489 0.9255
-3.7913 18.8818 -1.8489 0.9255
-5.4620 18.4678 -1.8489 0.9255
-8.6596 17.2019 -1.8489 0.9255
-10.1610 16.3600 -1.8489 0.9255
-11.5811 15.3874 -1.8489 0.9255
-12.9087 14.2919 -1.8489 0.9255
-14.1332 13.0823 -1.8489 0.9255
-15.2449 11.7681 -1.8489 0.9255
-17.0949 8.8691 -1.8489 0.9255
-18.3998 5.6872 -1.8489 0.9255
-12.6780 -14.8010 -1.8710 0.9247
-9.7273 -16.6215 -1.8489 0.9255
-8.2044 -17.4236 -1.8489 0.9255
-4.9746 -18.6051 -1.8489 0.9255
-1.5862 -19.1932 -1.8489 0.9255
0.1338 -19.2582 -1.8489 0.9255
1.8528 -19.1693 -1.8489 0.9255
3.5570 -18.9273 -1.8489 0.9255
5.2327 -18.5341 -1.8489 0.9255
6.8666 -17.9929 -1.8489 0.9255
18.7764 4.2829 -1.8489 0.9255
17.7152 7.5542 -1.8489 0.9255
15.6683 10.3076 -1.8006 0.9274
13.0014 10.3278 -1.5941 0.9355
6.2449 10.3737 -1.1625 0.9525
2.9191 10.3988 -1.0369 0.9575
0.9886 10.3904 -1.0020 0.9589
0.1049 19.2584 -1.8489 0.9255
-1.2199 6.9662 -0.6790 0.9720
-6.6430 18.0767 -1.8489 0.9255
-8.2305 17.4113 -1.8489 0.9255
-9.7522 16.6069 -1.8489 0.9255
-12.5504 14.6076 -1.8489 0.9255
-14.9484 12.1425 -1.8489 0.9255
-15.9729 10.7592 -1.8489 0.9255
-17.6319 7.7467 -1.8489 0.9255
-18.7286 4.4872 -1.8489 0.9255
15.9241 -5.4979 -2.0011 0.9344
16.3514 -4.0541 -2.0011 0.9344
16.6481 -2.5779 -2.0011 0.9344
16.8412 0.4242 -2.0011 0.9344
14.9000 4.5016 -1.8489 0.9392
14.4386 5.8140 -1.8489 0.9392
13.1743 8.2893 -1.8489 0.9392
12.3816 9.4325 -1.8489 0.9392
11.3150 10.3405 -1.8208 0.9401
9.4683 10.3494 -1.6662 0.9451
5.3090 10.3808 -1.3850 0.9541
3.1472 10.3971 -1.2904 0.9572
0.2774 10.7855 -1.2816 0.9575
-1.0575 6.8535 -0.8237 0.9725
-3.7377 15.1098 -1.8489 0.9392
-5.0718 14.7157 -1.8489 0.9392
-6.3655 14.2041 -1.8489 0.9392
-7.6083 13.5790 -1.8489 0.9392
-10.9349 11.0772 -1.8489 0.9392
-12.7307 8.9557 -1.8489 0.9392
-14.1206 6.5486 -1.8489 0.9392
-14.6489 5.2617 -1.8489 0.9392
-16.8451 -0.2154 -2.0011 0.9344
-16.5382 -3.2080 -2.0011 0.9344
-16.1857 -4.6719 -2.0011 0.9344
-15.7040 -6.0984 -2.0011 0.9344
-15.0967 -7.4762 -2.0011 0.9344
-14.3689 -8.7942 -2.0011 0.9344
-13.5263 -10.0421 -2.0011 0.9344
-10.3814 -13.2677 -2.0011 0.9344
-9.1553 -14.1416 -2.0011 0.9344
-6.1809 -14.7947 -1.9046 0.9375
-3.3501 -15.2004 -1.8489 0.9392
-1.9795 -15.4388 -1.8489 0.9392
-0.5931 -15.5539 -1.8489 0.9392
0.7980 -15.5447 -1.8489 0.9392
2.1827 -15.4114 -1.8489 0.9392
3.5501 -15.1549 -1.8489 0.9392
6.4103 -14.7928 -1.9151 0.9371
8.0233 -14.7455 -1.9941 0.9346
9.3408 -14.0197 -2.0011 0.9344
10.5553 -13.1297 -2.0011 0.9344
14.4835 -8.6042 -2.0011 0.9344
15.1939 -7.2766 -2.0011 0.9344
15.7829 -5.8910 -2.0011 0.9344
16.5790 -2.9899 -2.0011 0.9344
16.7798 -1.4977 -2.0011 0.9344
16.8465 0.0065 -2.0011 0.9344
15.0336 4.1381 -1.8522 0.9391
14.0331 6.7341 -1.8489 0.9392
9.9472 10.3458 -1.7048 0.9438
2.4283 10.4025 -1.2689 0.9579
1.4661 10.4098 -1.2487 0.9585
-3.3619 15.1978 -1.8489 0.9392
-4.7054 14.8369 -1.8489 0.9392
-6.0114 14.3575 -1.8489 0.9392
-8.4692 13.0594 -1.8489 0.9392
-10.6569 11.3449 -1.8489 0.9392
-12.5048 9.2686 -1.8489 0.9392
-14.5139 5.6233 -1.8489 0.9392
-14.9580 4.3049 -1.8489 0.9392
-16.2966 -4.2691 -2.0011 0.9344
-15.2775 -7.0996 -2.0011 0.9344
-13.7711 -9.7036 -2.0011 0.9344
-12.8497 -10.8944 -2.0011 0.9344
-10.7072 -13.0062 -2.0011 0.9344
-9.5031 -13.9103 -2.0011 0.9344
-8.2000 -14.6617 -1.9955 0.9346
-6.6147 -14.7910 -1.9247 0.9368
-5.0891 -14.8031 -1.8594 0.9389
-2.3617 -15.3850 -1.8489 0.9392
-0.9786 -15.5344 -1.8489 0.9392
1.8000 -15.4608 -1.8489 0.9392
3.1732 -15.2383 -1.8489 0.9392
5.9806 -14.7964 -1.8957 0.9377
7.5744 -14.7821 -1.9730 0.9353
10.2265 -13.3874 -2.0011 0.9344
12.4446 -11.3550 -2.0011 0.9344
13.4087 -10.1986 -2.0011 0.9344
15.6320 -6.2804 -2.0011 0.9344
16.8109 1.0942 -2.0011 0.9344
16.6461 2.5908 -2.0011 0.9344
16.2922 4.0528 -1.9943 0.9346
14.7090 5.0911 -1.8489 0.9392
14.1957 6.3841 -1.8489 0.9392
13.5690 7.6261 -1.8489 0.9392
11.9963 9.9179 -1.8489 0.9392
8.7421 10.3549 -1.6098 0.9469
5.9458 10.3285 -1.4156 0.9531
2.7014 10.4005 -1.2764 0.9576
1.0197 13.5143 -1.6099 0.9469
-0.2194 15.5636 -1.8489 0.9392
-0.7045 6.7823 -0.8100 0.9729
-4.3361 14.9490 -1.8489 0.9392
-9.2947 12.4854 -1.8489 0.9392
-11.3671 10.6331 -1.8489 0.9392
-13.0771 8.4419 -1.8489 0.9392
-14.3701 5.9813 -1.8489 0.9392
-14.8467 4.6744 -1.8489 0.9392
-16.8351 0.6198 -2.0011 0.9344
-16.8232 -0.8858 -2.0011 0.9344
-16.6769 -2.3843 -2.0011 0.9344
-16.3974 -3.8638 -2.0011 0.9344
-15.9869 -5.3125 -2.0011 0.9344
-15.4488 -6.7186 -2.0011 0.9344
-14.7872 -8.0712 -2.0011 0.9344
-14.0075 -9.3593 -2.0011 0.9344
-13.1159 -10.5725 -2.0011 0.9344
-11.0263 -12.7367 -2.0011 0.9344
-8.5744 -14.4766 -1.9986 0.9345
-7.0579 -14.7870 -1.9463 0.9361
-4.0994 -15.0157 -1.8489 0.9392
-1.3634 -15.5054 -1.8489 0.9392
0.0265 -15.5652 -1.8489 0.9392
1.4161 -15.5006 -1.8489 0.9392
2.7945 -15.3123 -1.8489 0.9392
4.1505 -15.0016 -1.8489 0.9392
7.1195 -14.7864 -1.9494 0.9360
9.8915 -13.6368 -2.0011 0.9344
11.0696 -12.6992 -2.0011 0.9344
12.1592 -11.6601 -2.0011 0.9344
14.0392 -9.3115 -2.0011 0.9344
14.8146 -8.0208 -2.0011 0.9344
16.0049 -5.2580 -2.0011 0.9344
16.6849 -2.3276 -2.0011 0.9344
16.8329 0.6771 -2.0011 0.9344
16.7052 2.1774 -2.0011 0.9344
16.4422 3.6598 -2.0009 0.9344
14.3496 6.0302 -1.8489 0.9392
13.0483 8.4863 -1.8489 0.9392
9.1884 10.3515 -1.6441 0.9458
6.3190 10.3732 -1.4428 0.9523
4.0101 10.3906 -1.3230 0.9561
2.9779 10.3984 -1.2848 0.9574
1.9959 10.4058 -1.2586 0.9582
-0.5410 6.8598 -0.8174 0.9727
-5.2923 14.6379 -1.8489 0.9392
-8.9823 12.7119 -1.8489 0.9392
-11.1000 10.9117 -1.8489 0.9392
-13.5949 7.5799 -1.8489 0.9392
-14.7263 5.0410 -1.8489 0.9392
-16.3180 4.0004 -1.9957 0.9346
-16.6548 2.5342 -2.0011 0.9344
-16.8400 -0.4684 -2.0011 0.9344
-16.7309 -1.9701 -2.0011 0.9344
-16.4882 -3.4561 -2.0011 0.9344
-16.1137 -4.9144 -2.0011 0.9344
-15.6106 -6.3336 -2.0011 0.9344
-14.2352 -9.0091 -2.0011 0.9344
-13.3740 -10.2441 -2.0011 0.9344
-12.4059 -11.3973 -2.0011 0.9344
-5.9223 -14.7968 -1.8932 0.9378
-4.4704 -14.9094 -1.8489 0.9392
-1.7474 -15.4668 -1.8489 0.9392
-0.3594 -15.5610 -1.8489 0.9392
3.7773 -15.0999 -1.8489 0.9392
6.6749 -14.7905 -1.9275 0.9367
8.2515 -14.6368 -1.9959 0.9346
10.7513 -12.9697 -2.0011 0.9344
13.8041 -9.6567 -2.0011 0.9344
15.3015 -7.0476 -2.0011 0.9344
16.3110 -4.2137 -2.0011 0.9344
16.5298 3.2514 -2.0011 0.9344
14.9433 4.3557 -1.8489 0.9392
14.4947 5.6726 -1.8489 0.9392
13.9304 6.9441 -1.8489 0.9392
12.4732 9.3110 -1.8489 0.9392
3.9057 5.0187 -0.7554 0.9747
6.6754 10.3705 -1.4650 0.9515
4.3081 10.3884 -1.3359 0.9557
2.2643 10.4038 -1.2648 0.9580
1.3071 10.4110 -1.2464 0.9586
-0.8388 15.5426 -1.8489 0.9392
-0.9865 6.8362 -0.8205 0.9726
-10.8261 11.1835 -1.8489 0.9392
-11.7814 10.1722 -1.8489 0.9392
-12.6426 9.0797 -1.8489 0.9392
-14.5968 5.4047 -1.8489 0.9392
-16.5868 2.9464 -2.0011 0.9344
-16.8464 -0.0508 -2.0011 0.9344
-16.7746 -1.5547 -2.0011 0.9344
-16.5688 -3.0462 -2.0011 0.9344
-16.2306 -4.5135 -2.0011 0.9344
-15.7628 -5.9446 -2.0011 0.9344
-15.1691 -7.3282 -2.0011 0.9344
-13.6238 -9.9094 -2.0011 0.9344
-12.6846 -11.0862 -2.0011 0.9344
-11.6441 -12.1745 -2.0011 0.9344
-4.8438 -14.8093 -1.8508 0.9392
-3.4985 -15.1669 -1.8489 0.9392
-0.7451 -15.5474 -1.8489 0.9392
0.6460 -15.5518 -1.8489 0.9392
3.4018 -15.1889 -1.8489 0.9392
4.7444 -14.8245 -1.8489 0.9392
9.2034 -14.1104 -2.0011 0.9344
10.4265 -13.2323 -2.0011 0.9344
14.3987 -8.7453 -2.0011 0.9344
15.1221 -7.4248 -2.0011 0.9344
16.5490 -3.1518 -2.0011 0.9344
16.7644 -1.6616 -2.0011 0.9344
16.8458 -0.1581 -2.0011 0.9344
16.6053 2.8406 -2.0011 0.9344
14.6309 5.3115 -1.8489 0.9392
12.7002 8.9989 -1.8489 0.9392
10.1422 10.3443 -1.7208 0.9433
8.4807 10.3569 -1.5901 0.9475
4.6121 10.3861 -1.3499 0.9553
1.5699 10.4090 -1.2504 0.9585
0.9378 15.5369 -1.8489 0.9392
-0.8090 6.7932 -0.8126 0.9728
-4.5602 14.8822 -1.8489 0.9392
-5.8708 14.4156 -1.8489 0.9392
-8.3411 13.1416 -1.8489 0.9392
-11.5256 10.4612 -1.8489 0.9392
-13.8858 7.0327 -1.8489 0.9392
-14.9153 4.4509 -1.8489 0.9392
-16.5087 3.3567 -2.0011 0.9344
-16.3375 -4.1097 -2.0011 0.9344
-15.3461 -6.9499 -2.0011 0.9344
-11.9424 -11.8821 -2.0011 0.9344
-10.8338 -12.9009 -2.0011 0.9344
-2.5119 -15.3612 -1.8489 0.9392
1.6488 -15.4776 -1.8489 0.9392
3.0241 -15.2686 -1.8489 0.9392
4.3753 -14.9376 -1.8489 0.9392
5.8135 -14.7977 -1.8885 0.9380
7.3938 -14.7838 -1.9635 0.9356
8.8503 -14.3336 -2.0010 0.9344
12.3330 -11.4761 -2.0011 0.9344
14.9334 -7.7974 -2.0011 0.9344
16.0821 -5.0170 -2.0011 0.9344
16.7180 -2.0767 -2.0011 0.9344
16.8208 0.9299 -2.0011 0.9344
16.6706 2.4281 -2.0011 0.9344
13.6429 7.4931 -1.8489 0.9392
12.9194 8.6813 -1.8489 0.9392
4.9228 10.3837 -1.3650 0.9548
2.8099 10.3997 -1.2796 0.9575
-0.0673 15.5651 -1.8489 0.9392
-2.8346 15.3049 -1.8489 0.9392
-4.1899 14.9907 -1.8489 0.9392
-5.5116 14.5567 -1.8489 0.9392
-8.0127 13.3443 -1.8489 0.9392
-10.2584 11.7064 -1.8489 0.9392
-11.2627 10.7437 -1.8489 0.9392
-12.1770 9.6952 -1.8489 0.9392
-12.9940 8.5693 -1.8489 0.9392
-13.7072 7.3748 -1.8489 0.9392
-16.4094 3.7624 -1.9998 0.9344
-16.6910 2.2838 -2.0011 0.9344
-16.8282 0.7844 -2.0011 0.9344
-16.6994 -2.2212 -2.0011 0.9344
-16.4344 -3.7033 -2.0011 0.9344
-15.5137 -6.5673 -2.0011 0.9344
-14.8654 -7.9262 -2.0011 0.9344
-13.2186 -10.4438 -2.0011 0.9344
-11.1503 -12.6284 -2.0011 0.9344
-7.2354 -14.7853 -1.9553 0.9358
-1.5149 -15.4913 -1.8489 0.9392
1.2646 -15.5137 -1.8489 0.9392
2.6447 -15.3389 -1.8489 0.9392
4.0037 -15.0415 -1.8489 0.9392
5.3952 -14.8009 -1.8713 0.9385
6.9431 -14.7881 -1.9406 0.9363
8.4785 -14.5250 -1.9978 0.9345
13.9476 -9.4483 -2.0011 0.9344
14.7355 -8.1652 -2.0011 0.9344
15.9528 -5.4142 -2.0011 0.9344
16.3725 -3.9682 -2.0011 0.9344
16.7257 2.0140 -2.0011 0.9344
13.1306 8.3584 -1.8489 0.9392
12.3319 9.4974 -1.8489 0.9392
11.1974 10.3414 -1.8106 0.9404
9.3696 10.3502 -1.6584 0.9453
3.7990 5.0358 -0.7493 0.9749
6.4582 10.3721 -1.4514 0.9520
4.1268 10.3897 -1.3279 0.9560
1.1487 10.4122 -1.2443 0.9587
0.2225 10.8672 -1.2911 0.9572
-0.4781 6.9247 -0.8245 0.9724
-1.0960 6.8639 -0.8257 0.9724
-5.1490 14.6889 -1.8489 0.9392
-6.4399 14.1705 -1.8489 0.9392
-7.6794 13.5389 -1.8489 0.9392
-10.9928 11.0197 -1.8489 0.9392
-11.9328 9.9941 -1.8489 0.9392
-12.7775 8.8888 -1.8489 0.9392
-13.5201 7.7124 -1.8489 0.9392
-14.1548 6.4744 -1.8489 0.9392
-14.6763 5.1850 -1.8489 0.9392
-16.1375 4.1237 -1.9785 0.9351
-16.8036 1.2014 -2.0011 0.9344
-16.1610 -4.7567 -2.0011 0.9344
-15.6718 -6.1807 -2.0011 0.9344
-15.0573 -7.5552 -2.0011 0.9344
-13.4735 -10.1129 -2.0011 0.9344
-11.4600 -12.3480 -2.0011 0.9344
-10.3117 -13.3219 -2.0011 0.9344
-9.0810 -14.1894 -2.0011 0.9344
-7.6932 -14.7809 -1.9793 0.9351
-1.8984 -15.4490 -1.8489 0.9392
-0.5115 -15.5568 -1.8489 0.9392
0.8796 -15.5403 -1.8489 0.9392
3.6296 -15.1361 -1.8489 0.9392
4.9844 -14.8046 -1.8556 0.9390
8.1032 -14.7079 -1.9947 0.9346
9.4143 -13.9705 -2.0011 0.9344
16.2691 -4.3729 -2.0011 0.9344
16.5945 -2.9028 -2.0011 0.9344
16.8462 0.0950 -2.0011 0.9344
16.7705 1.5987 -2.0011 0.9344
16.5607 3.0897 -2.0011 0.9344
14.9852 4.2095 -1.8489 0.9392
14.5495 5.5307 -1.8489 0.9392
13.9975 6.8076 -1.8489 0.9392
11.6929 10.2738 -1.8489 0.9392
4.1049 5.1696 -0.7841 0.9738
5.5666 10.3789 -1.3990 0.9537
4.4271 10.3875 -1.3413 0.9555
3.3699 10.3954 -1.2981 0.9569
1.4105 10.4102 -1.2479 0.9586
-0.9161 6.8191 -0.8173 0.9727
-3.4416 15.1799 -1.8489 0.9392
-4.7832 14.8120 -1.8489 0.9392
-8.5376 13.0148 -1.8489 0.9392
-10.7162 11.2888 -1.8489 0.9392
-11.6814 10.2869 -1.8489 0.9392
-14.9804 4.2264 -1.8489 0.9392
-16.5573 3.1083 -2.0011 0.9344
-16.7687 1.6176 -2.0011 0.9344
-16.7890 -1.3907 -2.0011 0.9344
-16.5978 -2.8841 -2.0011 0.9344
-16.2740 -4.3546 -2.0011 0.9344
-13.7200 -9.7758 -2.0011 0.9344
-10.6387 -13.0622 -2.0011 0.9344
-9.4300 -13.9600 -2.0011 0.9344
-6.5221 -14.7918 -1.9203 0.9370
-3.6465 -15.1320 -1.8489 0.9392
-2.2809 -15.3972 -1.8489 0.9392
-0.8970 -15.5393 -1.8489 0.9392
1.8811 -15.4511 -1.8489 0.9392
4.5993 -14.8702 -1.8489 0.9392
9.0651 -14.1996 -2.0011 0.9344
10.2967 -13.3335 -2.0011 0.9344
12.5040 -11.2896 -2.0011 0.9344
13.4621 -10.1280 -2.0011 0.9344
14.3126 -8.8856 -2.0011 0.9344
15.0488 -7.5722 -2.0011 0.9344
16.1556 -4.7749 -2.0011 0.9344
16.5175 -3.3133 -2.0011 0.9344
16.8434 -0.3227 -2.0011 0.9344
16.8049 1.1824 -2.0011 0.9344
16.1278 4.1019 -1.9767 0.9352
6.1942 5.1760 -0.9588 0.9680
8.6501 10.3556 -1.6028 0.9471
3.6094 5.2030 -0.7522 0.9748
5.9010 10.3763 -1.4179 0.9531
4.7337 10.3852 -1.3557 0.9551
3.6564 10.3933 -1.3087 0.9566
1.6740 10.4082 -1.2522 0.9584
-3.0642 15.2606 -1.8489 0.9392
-5.7296 14.4723 -1.8489 0.9392
-6.9989 13.9029 -1.8489 0.9392
-9.3601 12.4364 -1.8489 0.9392
-10.4331 11.5510 -1.8489 0.9392
-11.4228 10.5734 -1.8489 0.9392
-12.3212 9.5112 -1.8489 0.9392
-13.1212 8.3731 -1.8489 0.9392
-13.8164 7.1681 -1.8489 0.9392
-14.8710 4.5965 -1.8489 0.9392
-16.7234 2.0328 -2.0011 0.9344
-16.8381 0.5315 -2.0011 0.9344
-16.6642 -2.4718 -2.0011 0.9344
-14.7446 -8.1487 -2.0011 0.9344
-13.9581 -9.4327 -2.0011 0.9344
-13.0602 -10.6412 -2.0011 0.9344
-12.0579 -11.7648 -2.0011 0.9344
-9.7732 -13.7219 -2.0011 0.9344
-8.4954 -14.5165 -1.9979 0.9345
-6.9632 -14.7879 -1.9416 0.9363
-4.0206 -15.0370 -1.8489 0.9392
1.4975 -15.4930 -1.8489 0.9392
5.6478 -14.7990 -1.8816 0.9382
7.2149 -14.7855 -1.9543 0.9359
8.7042 -14.4100 -1.9997 0.9344
9.9629 -13.5847 -2.0011 0.9344
11.1361 -12.6409 -2.0011 0.9344
12.2203 -11.5961 -2.0011 0.9344
14.0879 -9.2377 -2.0011 0.9344
14.8564 -7.9430 -2.0011 0.9344
16.4302 -3.7218 -2.0011 0.9344
16.6969 -2.2400 -2.0011 0.9344
16.8302 -0.7402 -2.0011 0.9344
16.8291 0.7654 -2.0011 0.9344
14.8057 4.8027 -1.8489 0.9392
13.7155 7.3594 -1.8489 0.9392
10.8627 10.3389 -1.7814 0.9414
9.0924 10.3523 -1.6367 0.9460
3.7430 5.1198 -0.7534 0.9748
6.2449 10.3737 -1.4383 0.9524
5.0472 10.3828 -1.3713 0.9546
0.0848 15.5650 -1.8489 0.9392
-4.0431 15.0309 -1.8489 0.9392
-5.3690 14.6099 -1.8489 0.9392
-6.6520 14.0722 -1.8489 0.9392
-7.8819 13.4220 -1.8489 0.9392
-9.0489 12.6647 -1.8489 0.9392
-12.9096 8.6958 -1.8489 0.9392
-13.6345 7.5084 -1.8489 0.9392
-16.8198 0.9488 -2.0011 0.9344
-16.8373 -0.5568 -2.0011 0.9344
-16.7203 -2.0579 -2.0011 0.9344
-16.0877 -4.9990 -2.0011 0.9344
12.8852 -5.7827 -2.0011 0.9445
13.3501 -4.6091 -2.0011 0.9445
13.9570 -2.1612 -2.0011 0.9445
13.4734 4.0706 -1.9943 0.9447
11.6211 5.9355 -1.8489 0.9486
11.0447 6.9494 -1.8489 0.9486
9.6326 8.8030 -1.8489 0.9486
5.3090 10.3808 -1.6520 0.9540
-0.4492 7.0435 -1.0000 0.9719
-1.0650 6.9023 -0.9896 0.9722
-3.1335 12.6673 -1.8489 0.9486
-5.3365 11.9081 -1.8489 0.9486
-6.3784 11.3840 -1.8489 0.9486
-8.3015 10.0680 -1.8489 0.9486
-9.9599 8.4310 -1.8489 0.9486
-13.6651 3.5684 -2.0011 0.9445
-14.0819 1.0811 -2.0011 0.9445
-14.0496 -1.4408 -2.0011 0.9445
-13.8649 -2.6895 -2.0011 0.9445
-13.5694 -3.9167 -2.0011 0.9445
-11.3399 -8.4188 -2.0011 0.9445
-10.5429 -9.3977 -2.0011 0.9445
-9.6617 -10.3015 -2.0011 0.9445
-8.7033 -11.1230 -2.0011 0.9445
-5.4444 -13.0318 -2.0011 0.9445
-3.0398 -13.7923 -2.0011 0.9445
-1.7961 -14.0087 -2.0011 0.9445
-0.5382 -14.1131 -2.0011 0.9445
3.2212 -13.7511 -2.0011 0.9445
4.4361 -13.4086 -2.0011 0.9445
5.6156 -12.9589 -2.0011 0.9445
6.7502 -12.4058 -2.0011 0.9445
7.8309 -11.7535 -2.0011 0.9445
10.6658 -9.2580 -2.0011 0.9445
12.7379 -6.1004 -2.0011 0.9445
14.0674 -1.2556 -2.0011 0.9445
14.1233 0.0055 -2.0011 0.9445
14.0664 1.2665 -2.0011 0.9445
12.2218 4.5726 -1.8489 0.9486
11.7647 5.6456 -1.8489 0.9486
11.2136 6.6734 -1.8489 0.9486
4.4915 10.3870 -1.6034 0.9553
2.4283 10.4025 -1.5136 0.9578
1.4661 10.4098 -1.4895 0.9584
0.5528 10.9344 -1.5513 0.9567
-0.8928 6.9209 -0.9887 0.9722
-2.8185 12.7411 -1.8489 0.9486
-6.0942 11.5386 -1.8489 0.9486
-7.1002 10.9484 -1.8489 0.9486
-8.0493 10.2708 -1.8489 0.9486
-8.9342 9.5110 -1.8489 0.9486
-9.7478 8.6754 -1.8489 0.9486
-11.1353 6.8033 -1.8489 0.9486
-11.6983 5.7819 -1.8489 0.9486
-13.5463 3.8986 -1.9973 0.9446
-13.9273 -2.3449 -2.0011 0.9445
-13.6623 -3.5791 -2.0011 0.9445
-12.8079 -5.9520 -2.0011 0.9445
-9.9141 -10.0588 -2.0011 0.9445
-6.8939 -12.3265 -2.0011 0.9445
-5.7658 -12.8928 -2.0011 0.9445
-4.5916 -13.3561 -2.0011 0.9445
-2.1429 -13.9598 -2.0011 0.9445
2.8793 -13.8267 -2.0011 0.9445
5.2926 -13.0942 -2.0011 0.9445
7.5371 -11.9440 -2.0011 0.9445
11.9598 -7.5122 -2.0011 0.9445
13.5230 -4.0741 -2.0011 0.9445
14.0935 0.9174 -2.0011 0.9445
12.3314 4.2682 -1.8489 0.9486
11.9010 5.3521 -1.8489 0.9486
11.3756 6.3934 -1.8489 0.9486
10.7594 7.3835 -1.8489 0.9486
9.2746 9.1795 -1.8489 0.9486
8.4179 9.9709 -1.8489 0.9486
3.7176 10.3928 -1.5639 0.9564
2.7014 10.4005 -1.5225 0.9575
0.9818 13.0122 -1.8489 0.9486
-0.7138 6.8718 -0.9789 0.9725
-2.5017 12.8071 -1.8489 0.9486
-5.8063 11.6862 -1.8489 0.9486
-9.5297 8.9143 -1.8489 0.9486
-10.2876 8.0279 -1.8489 0.9486
-10.9633 7.0772 -1.8489 0.9486
-12.0472 5.0145 -1.8489 0.9486
-13.9812 -1.9989 -2.0011 0.9445
-13.4027 -4.4537 -2.0011 0.9445
-10.9958 -8.8635 -2.0011 0.9445
-10.1604 -9.8099 -2.0011 0.9445
-7.1974 -12.1518 -2.0011 0.9445
-4.9213 -13.2382 -2.0011 0.9445
-3.7197 -13.6247 -2.0011 0.9445
-1.2371 -14.0691 -2.0011 0.9445
1.2849 -14.0648 -2.0011 0.9445
4.9663 -13.2214 -2.0011 0.9445
6.1270 -12.7251 -2.0011 0.9445
8.2926 -11.4325 -2.0011 0.9445
10.1937 -9.7753 -2.0011 0.9445
12.4198 -6.7243 -2.0011 0.9445
12.9706 -5.5885 -2.0011 0.9445
13.4178 -4.4081 -2.0011 0.9445
13.7578 -3.1925 -2.0011 0.9445
14.1062 -0.6946 -2.0011 0.9445
14.0049 1.8254 -2.0011 0.9445
13.7860 3.0686 -2.0011 0.9445
12.9599 4.1289 -1.9272 0.9465
12.0301 5.0554 -1.8489 0.9486
10.9391 7.1145 -1.8489 0.9486
9.4993 8.9467 -1.8489 0.9486
6.3190 10.3732 -1.7210 0.9521
4.0101 10.3906 -1.5781 0.9560
2.9779 10.3984 -1.5326 0.9572
1.0459 10.4130 -1.4828 0.9586
0.1396 13.0484 -1.8489 0.9486
-1.1801 6.9533 -0.9993 0.9719
-4.4368 12.2717 -1.8489 0.9486
-5.5148 11.8266 -1.8489 0.9486
-6.5487 11.2869 -1.8489 0.9486
-7.5304 10.6571 -1.8489 0.9486
-8.4518 9.9422 -1.8489 0.9486
-10.0854 8.2804 -1.8489 0.9486
-10.7844 7.3469 -1.8489 0.9486
-11.3973 6.3546 -1.8489 0.9486
-12.3458 4.2262 -1.8489 0.9486
-13.7172 3.3628 -2.0011 0.9445
-13.9626 2.1246 -2.0011 0.9445
-14.0966 0.8694 -2.0011 0.9445
-14.1179 -0.3927 -2.0011 0.9445
-14.0264 -1.6517 -2.0011 0.9445
-13.8229 -2.8974 -2.0011 0.9445
-13.5090 -4.1201 -2.0011 0.9445
-13.0872 -5.3098 -2.0011 0.9445
-12.5608 -6.4571 -2.0011 0.9445
-9.5059 -10.4454 -2.0011 0.9445
-8.5353 -11.2525 -2.0011 0.9445
-4.0564 -13.5283 -2.0011 0.9445
-2.8323 -13.8364 -2.0011 0.9445
-1.5855 -14.0341 -2.0011 0.9445
-0.3261 -14.1196 -2.0011 0.9445
0.9358 -14.0923 -2.0011 0.9445
2.1904 -13.9525 -2.0011 0.9445
6.9358 -12.3030 -2.0011 0.9445
8.0066 -11.6345 -2.0011 0.9445
9.0134 -10.8732 -2.0011 0.9445
10.8036 -9.0967 -2.0011 0.9445
12.8281 -5.9084 -2.0011 0.9445
14.0847 -1.0441 -2.0011 0.9445
14.1217 0.2176 -2.0011 0.9445
14.0458 1.4776 -2.0011 0.9445
13.8578 2.7258 -2.0011 0.9445
13.5272 3.9430 -1.9964 0.9447
12.1517 4.7556 -1.8489 0.9486
11.6786 5.8216 -1.8489 0.9486
11.1121 6.8411 -1.8489 0.9486
10.4569 7.8060 -1.8489 0.9486
8.9018 9.5414 -1.8489 0.9486
3.2582 10.3963 -1.5437 0.9569
1.3071 10.4110 -1.4867 0.9585
-0.7032 13.0302 -1.8489 0.9486
-3.0095 12.6974 -1.8489 0.9486
-7.2638 10.8405 -1.8489 0.9486
-8.2027 10.1487 -1.8489 0.9486
-9.0761 9.3758 -1.8489 0.9486
-11.2363 6.6352 -1.8489 0.9486
-12.2373 4.5310 -1.8489 0.9486
-13.6262 3.7009 -2.0006 0.9446
-14.1233 -0.0426 -2.0011 0.9445
-12.1177 -7.2546 -2.0011 0.9445
-9.7619 -10.2066 -2.0011 0.9445
-8.8116 -11.0374 -2.0011 0.9445
-6.7080 -12.4286 -2.0011 0.9445
-5.5715 -12.9779 -2.0011 0.9445
-4.3905 -13.4236 -2.0011 0.9445
-1.9330 -13.9904 -2.0011 0.9445
-0.6761 -14.1071 -2.0011 0.9445
0.5862 -14.1112 -2.0011 0.9445
1.8438 -14.0025 -2.0011 0.9445
4.3049 -13.4513 -2.0011 0.9445
5.4887 -13.0132 -2.0011 0.9445
6.6287 -12.4711 -2.0011 0.9445
7.7157 -11.8295 -2.0011 0.9445
10.5748 -9.3618 -2.0011 0.9445
12.0713 -7.3317 -2.0011 0.9445
13.1828 -5.0678 -2.0011 0.9445
13.8740 -2.6423 -2.0011 0.9445
13.9211 2.3814 -2.0011 0.9445
13.6529 3.6149 -2.0011 0.9445
11.8193 5.5303 -1.8489 0.9486
10.6473 7.5443 -1.8489 0.9486
5.7681 10.3773 -1.6822 0.9532
0.7862 13.0254 -1.8489 0.9486
-0.8212 6.8957 -0.9839 0.9723
-4.9218 12.0854 -1.8489 0.9486
-5.9812 11.5977 -1.8489 0.9486
-6.9928 11.0173 -1.8489 0.9486
-7.9486 10.3489 -1.8489 0.9486
-8.8409 9.5979 -1.8489 0.9486
-9.6625 8.7702 -1.8489 0.9486
-11.0683 6.9118 -1.8489 0.9486
-11.6412 5.8959 -1.8489 0.9486
-12.1212 4.8330 -1.8489 0.9486
-14.0911 -0.9543 -2.0011 0.9445
-13.9496 -2.2087 -2.0011 0.9445
-13.6967 -3.4454 -2.0011 0.9445
-10.8614 -9.0277 -2.0011 0.9445
-10.0119 -9.9614 -2.0011 0.9445
-9.0825 -10.8155 -2.0011 0.9445
-8.0806 -11.5833 -2.0011 0.9445
-5.8915 -12.8358 -2.0011 0.9445
-3.5146 -13.6790 -2.0011 0.9445
-2.2792 -13.9382 -2.0011 0.9445
1.4960 -14.0439 -2.0011 0.9445
5.1643 -13.1453 -2.0011 0.9445
7.4200 -12.0172 -2.0011 0.9445
8.4633 -11.3067 -2.0011 0.9445
9.4391 -10.5058 -2.0011 0.9445
10.3394 -9.6210 -2.0011 0.9445
11.1572 -8.6594 -2.0011 0.9445
11.8858 -7.6287 -2.0011 0.9445
12.3808 4.1502 -1.8502 0.9486
11.4376 6.2819 -1.8489 0.9486
10.1379 8.2160 -1.8489 0.9486
8.5150 9.8882 -1.8489 0.9486
6.1082 10.3748 -1.7058 0.9525
4.9228 10.3837 -1.6282 0.9546
1.8345 10.4070 -1.4973 0.9582
1.0068 11.8044 -1.6786 0.9533
-0.6480 6.8934 -0.9810 0.9724
-3.5126 12.5675 -1.8489 0.9486
-4.6207 12.2037 -1.8489 0.9486
-5.6918 11.7424 -1.8489 0.9486
-6.7175 11.1873 -1.8489 0.9486
-7.6896 10.5428 -1.8489 0.9486
-9.4421 9.0071 -1.8489 0.9486
-10.2086 8.1280 -1.8489 0.9486
-10.8935 7.1841 -1.8489 0.9486
-12.7121 4.1393 -1.8943 0.9474
-13.7661 3.1564 -2.0011 0.9445
-14.1080 0.6576 -2.0011 0.9445
-13.4456 -4.3225 -2.0011 0.9445
-13.0060 -5.5057 -2.0011 0.9445
-12.4624 -6.6450 -2.0011 0.9445
-11.0819 -8.7556 -2.0011 0.9445
-10.2559 -9.7101 -2.0011 0.9445
-6.2080 -12.6858 -2.0011 0.9445
-2.6241 -13.8774 -2.0011 0.9445
2.3997 -13.9180 -2.0011 0.9445
7.1199 -12.1974 -2.0011 0.9445
10.0977 -9.8744 -2.0011 0.9445
12.3535 -6.8453 -2.0011 0.9445
12.9154 -5.7150 -2.0011 0.9445
13.3741 -4.5390 -2.0011 0.9445
13.8153 2.9337 -2.0011 0.9445
12.0789 4.9376 -1.8489 0.9486
11.5898 5.9964 -1.8489 0.9486
11.0081 7.0073 -1.8489 0.9486
10.3385 7.9622 -1.8489 0.9486
9.5863 8.8535 -1.8489 0.9486
6.4582 10.3721 -1.7312 0.9518
5.2407 10.3813 -1.6477 0.9541
2.1014 10.4050 -1.5040 0.9580
-5.3990 11.8799 -1.8489 0.9486
-6.4381 11.3504 -1.8489 0.9486
-8.3542 10.0243 -1.8489 0.9486
-9.2159 9.2384 -1.8489 0.9486
-11.3347 6.4657 -1.8489 0.9486
-12.3039 4.3467 -1.8489 0.9486
-13.6836 3.4967 -2.0011 0.9445
-14.0874 1.0072 -2.0011 0.9445
-14.1210 -0.2547 -2.0011 0.9445
-14.0419 -1.5145 -2.0011 0.9445
-13.8506 -2.7622 -2.0011 0.9445
-13.5486 -3.9878 -2.0011 0.9445
-12.0074 -7.4358 -2.0011 0.9445
-11.2955 -8.4782 -2.0011 0.9445
-10.4934 -9.4529 -2.0011 0.9445
-8.6448 -11.1685 -2.0011 0.9445
-6.5206 -12.5280 -2.0011 0.9445
-5.3759 -13.0602 -2.0011 0.9445
-4.1883 -13.4880 -2.0011 0.9445
-2.9673 -13.8081 -2.0011 0.9445
-0.4641 -14.1157 -2.0011 0.9445
0.7981 -14.1008 -2.0011 0.9445
3.2933 -13.7340 -2.0011 0.9445
6.8153 -12.3702 -2.0011 0.9445
7.8925 -11.7122 -2.0011 0.9445
9.8498 -10.1217 -2.0011 0.9445
13.6392 -3.6660 -2.0011 0.9445
14.0738 -1.1817 -2.0011 0.9445
14.1231 0.0796 -2.0011 0.9445
14.0596 1.3403 -2.0011 0.9445
11.1785 6.7322 -1.8489 0.9486
8.9947 9.4539 -1.8489 0.9486
5.5666 10.3789 -1.6687 0.9535
4.4271 10.3875 -1.5999 0.9554
2.3709 10.4030 -1.5118 0.9578
1.4105 10.4102 -1.4885 0.9584
0.4891 10.7984 -1.5316 0.9573
-0.5758 13.0364 -1.8489 0.9486
-2.8853 12.7262 -1.8489 0.9486
-4.0100 12.4177 -1.8489 0.9486
-6.1547 11.5065 -1.8489 0.9486
-7.1575 10.9110 -1.8489 0.9486
-8.9840 9.4640 -1.8489 0.9486
-11.1709 6.7448 -1.8489 0.9486
-12.1924 4.6504 -1.8489 0.9486
-14.1230 0.0955 -2.0011 0.9445
-14.0751 -1.1659 -2.0011 0.9445
-13.9148 -2.4179 -2.0011 0.9445
-13.6434 -3.6507 -2.0011 0.9445
-13.2629 -4.8543 -2.0011 0.9445
-12.7765 -6.0191 -2.0011 0.9445
-11.5022 -8.1956 -2.0011 0.9445
-9.8612 -10.1107 -2.0011 0.9445
-8.9190 -10.9508 -2.0011 0.9445
-5.6980 -12.9229 -2.0011 0.9445
-3.3087 -13.7303 -2.0011 0.9445
-2.0696 -13.9709 -2.0011 0.9445
-0.8139 -14.0999 -2.0011 0.9445
0.4483 -14.1162 -2.0011 0.9445
1.7069 -14.0198 -2.0011 0.9445
2.9518 -13.8114 -2.0011 0.9445
4.1732 -13.4927 -2.0011 0.9445
7.5997 -11.9043 -2.0011 0.9445
9.5959 -10.3628 -2.0011 0.9445
11.9990 -7.4493 -2.0011 0.9445
13.5442 -4.0031 -2.0011 0.9445
13.8475 -2.7778 -2.0011 0.9445
14.1207 -0.2706 -2.0011 0.9445
14.0885 0.9913 -2.0011 0.9445
13.9437 2.2453 -2.0011 0.9445
12.3088 4.3328 -1.8489 0.9486
10.7205 7.4399 -1.8489 0.9486
6.1883 5.1711 -1.1426 0.9679
9.2263 9.2280 -1.8489 0.9486
6.9602 10.0332 -1.7302 0.9519
5.9010 10.3763 -1.6913 0.9529
3.6564 10.3933 -1.5611 0.9565
2.6433 10.4009 -1.5205 0.9576
1.6740 10.4082 -1.4937 0.9583
-0.2524 13.0467 -1.8489 0.9486
-2.5689 12.7938 -1.8489 0.9486
-3.7009 12.5133 -1.8489 0.9486
-4.8034 12.1329 -1.8489 0.9486
-5.8675 11.6556 -1.8489 0.9486
-6.8848 11.0851 -1.8489 0.9486
-7.8470 10.4261 -1.8489 0.9486
-9.5763 8.8642 -1.8489 0.9486
-11.0002 7.0197 -1.8489 0.9486
-11.5831 6.0094 -1.8489 0.9486
-13.3416 4.1237 -1.9786 0.9451
-13.8120 2.9492 -2.0011 0.9445
-14.0201 1.7042 -2.0011 0.9445
-14.0997 -0.8166 -2.0011 0.9445
-13.9705 -2.0723 -2.0011 0.9445
-13.7297 -3.3114 -2.0011 0.9445
-13.3792 -4.5240 -2.0011 0.9445
-12.3612 -6.8315 -2.0011 0.9445
-11.7019 -7.9079 -2.0011 0.9445
-9.1878 -10.7263 -2.0011 0.9445
-7.1335 -12.1894 -2.0011 0.9445
-4.8518 -13.2638 -2.0011 0.9445
-3.6481 -13.6440 -2.0011 0.9445
0.0981 -14.1230 -2.0011 0.9445
5.0357 -13.1951 -2.0011 0.9445
6.1937 -12.6928 -2.0011 0.9445
8.3525 -11.3888 -2.0011 0.9445
9.3360 -10.5975 -2.0011 0.9445
10.2449 -9.7216 -2.0011 0.9445
12.9998 -5.5204 -2.0011 0.9445
13.4407 -4.3376 -2.0011 0.9445
13.9979 -1.8779 -2.0011 0.9445
14.1097 -0.6206 -2.0011 0.9445
13.9951 1.8989 -2.0011 0.9445
13.7697 3.1409 -2.0011 0.9445
12.0034 5.1185 -1.8489 0.9486
3.7435 5.1204 -0.8987 0.9747
6.2449 10.3737 -1.7156 0.9523
3.9477 10.3911 -1.5750 0.9561
2.9191 10.3988 -1.5304 0.9573
0.9967 10.4764 -1.4911 0.9584
0.0711 13.0490 -1.8489 0.9486
-0.5818 6.9140 -0.9831 0.9724
-1.2256 6.9989 -1.0068 0.9717
-4.5011 12.2483 -1.8489 0.9486
-6.6079 11.2524 -1.8489 0.9486
-7.5861 10.6175 -1.8489 0.9486
-8.5039 9.8977 -1.8489 0.9486
-10.8228 7.2902 -1.8489 0.9486
-11.4305 6.2947 -1.8489 0.9486
-13.9736 2.0512 -2.0011 0.9445
-14.1009 0.7954 -2.0011 0.9445
-14.0176 -1.7253 -2.0011 0.9445
-13.4872 -4.1909 -2.0011 0.9445
12.0042 -1.8588 -2.0011 0.9519
12.1222 -0.7796 -2.0011 0.9519
12.1434 0.3059 -2.0011 0.9519
11.8954 2.4608 -2.0011 0.9519
11.6281 3.5131 -2.0011 0.9519
10.4110 4.1922 -1.8489 0.9555
9.4994 5.9771 -1.8489 0.9555
8.2848 7.5713 -1.8489 0.9555
7.5758 8.2808 -1.8489 0.9555
3.8865 5.0960 -1.0558 0.9744
5.9821 9.4962 -1.8489 0.9555
2.1582 10.4046 -1.7505 0.9578
1.2040 10.4118 -1.7267 0.9584
0.2775 10.7865 -1.7776 0.9572
-1.0625 6.8859 -1.1478 0.9722
-2.6951 10.8950 -1.8489 0.9555
-4.5898 10.2419 -1.8489 0.9555
-5.4860 9.7912 -1.8489 0.9555
-6.3383 9.2623 -1.8489 0.9555
-8.5663 7.2514 -1.8489 0.9555
-10.1817 4.7219 -1.8489 0.9555
-12.0839 -1.2392 -2.0011 0.9519
-11.3234 -4.3973 -2.0011 0.9519
-10.3608 -6.3411 -2.0011 0.9519
-9.0677 -8.0828 -2.0011 0.9519
-8.3099 -8.8601 -2.0011 0.9519
-7.4856 -9.5667 -2.0011 0.9519
-6.6015 -10.1968 -2.0011 0.9519
-4.6826 -11.2084 -2.0011 0.9519
-1.5448 -12.0486 -2.0011 0.9519
-0.4629 -12.1384 -2.0011 0.9519
1.7034 -12.0272 -2.0011 0.9519
5.8058 -10.6700 -2.0011 0.9519
6.7353 -10.1090 -2.0011 0.9519
7.6109 -9.4673 -2.0011 0.9519
9.1734 -7.9626 -2.0011 0.9519
10.4434 -6.2041 -2.0011 0.9519
11.3803 -4.2477 -2.0011 0.9519
11.7142 -3.2146 -2.0011 0.9519
11.9544 -2.1559 -2.0011 0.9519
12.0991 -1.0799 -2.0011 0.9519
12.1472 0.0047 -2.0011 0.9519
12.0983 1.0893 -2.0011 0.9519
11.9527 2.1652 -2.0011 0.9519
11.0402 4.1305 -1.9419 0.9533
9.6447 5.7397 -1.8489 0.9555
6.0592 5.2677 -1.3227 0.9680
7.7787 8.0904 -1.8489 0.9555
6.2157 9.3450 -1.8489 0.9555
5.3565 9.8626 -1.8489 0.9555
2.4283 10.4025 -1.7598 0.9576
1.4661 10.4098 -1.7318 0.9583
-0.8864 6.8710 -1.1413 0.9723
-4.3345 10.3526 -1.8489 0.9555
-5.2416 9.9242 -1.8489 0.9555
-6.9231 8.8337 -1.8489 0.9555
-7.6842 8.1803 -1.8489 0.9555
-9.5773 5.8514 -1.8489 0.9555
-10.0615 4.9729 -1.8489 0.9555
-11.9268 2.3039 -2.0011 0.9519
-12.0848 1.2298 -2.0011 0.9519
-9.9297 -6.9968 -2.0011 0.9519
-6.8523 -10.0301 -2.0011 0.9519
-3.9492 -11.4874 -2.0011 0.9519
-0.7637 -12.1232 -2.0011 0.9519
1.4047 -12.0657 -2.0011 0.9519
2.4764 -11.8921 -2.0011 0.9519
3.5283 -11.6235 -2.0011 0.9519
4.5521 -11.2621 -2.0011 0.9519
5.5394 -10.8106 -2.0011 0.9519
6.4826 -10.2729 -2.0011 0.9519
7.3739 -9.6530 -2.0011 0.9519
8.2063 -8.9561 -2.0011 0.9519
8.9732 -8.1876 -2.0011 0.9519
10.2864 -6.4611 -2.0011 0.9519
11.2715 -4.5285 -2.0011 0.9519
11.6309 -3.5041 -2.0011 0.9519
11.8973 -2.4516 -2.0011 0.9519
12.0686 -1.3795 -2.0011 0.9519
12.0027 1.8681 -2.0011 0.9519
11.7880 2.9324 -2.0011 0.9519
10.2359 4.6033 -1.8489 0.9555
9.7840 5.4988 -1.8489 0.9555
6.1806 5.1098 -1.3211 0.9680
7.9769 7.8951 -1.8489 0.9555
7.2401 8.5758 -1.8489 0.9555
6.4455 9.1880 -1.8489 0.9555
4.7085 10.1879 -1.8489 0.9555
3.7176 10.3928 -1.8183 0.9562
2.7014 10.4005 -1.7702 0.9574
1.7300 10.4078 -1.7381 0.9581
0.8444 11.1915 -1.8489 0.9555
-0.7129 6.8633 -1.1367 0.9724
-3.1266 10.7790 -1.8489 0.9555
-4.9939 10.0511 -1.8489 0.9555
-7.4790 8.3683 -1.8489 0.9555
-8.8482 6.9046 -1.8489 0.9555
-11.8660 2.5989 -2.0011 0.9519
-12.0506 1.5290 -2.0011 0.9519
-12.1390 0.4470 -2.0011 0.9519
-12.0250 -1.7192 -2.0011 0.9519
-11.5274 -3.8306 -2.0011 0.9519
-11.1394 -4.8445 -2.0011 0.9519
-8.7388 -8.4373 -2.0011 0.9519
-7.9506 -9.1839 -2.0011 0.9519
-6.1904 -10.4515 -2.0011 0.9519
-5.2325 -10.9625 -2.0011 0.9519
-2.1402 -11.9572 -2.0011 0.9519
0.0206 -12.1472 -2.0011 0.9519
1.1051 -12.0969 -2.0011 0.9519
2.1808 -11.9499 -2.0011 0.9519
3.2391 -11.7074 -2.0011 0.9519
4.2714 -11.3715 -2.0011 0.9519
5.2697 -10.9447 -2.0011 0.9519
8.7675 -8.4076 -2.0011 0.9519
9.4831 -7.5912 -2.0011 0.9519
10.1230 -6.7141 -2.0011 0.9519
10.6821 -5.7834 -2.0011 0.9519
11.8328 -2.7458 -2.0011 0.9519
12.0307 -1.6783 -2.0011 0.9519
12.1325 -0.5974 -2.0011 0.9519
12.0453 1.5700 -2.0011 0.9519
11.8571 2.6392 -2.0011 0.9519
11.5725 3.6869 -2.0009 0.9520
10.3469 4.3481 -1.8489 0.9555
9.9173 5.2546 -1.8489 0.9555
8.1702 7.6949 -1.8489 0.9555
3.7654 5.0941 -1.0436 0.9746
4.0101 10.3906 -1.8348 0.9559
1.9959 10.4058 -1.7455 0.9580
1.0459 10.4130 -1.7241 0.9585
-1.8779 11.0651 -1.8489 0.9555
-2.8584 10.8533 -1.8489 0.9555
-3.8160 10.5547 -1.8489 0.9555
-4.7432 10.1718 -1.8489 0.9555
-9.2755 6.3189 -1.8489 0.9555
-9.8026 5.4655 -1.8489 0.9555
-10.2515 4.5684 -1.8489 0.9555
-11.4678 3.9256 -1.9968 0.9520
-12.0090 1.8273 -2.0011 0.9519
-12.1425 -0.3377 -2.0011 0.9519
-11.6189 -3.5436 -2.0011 0.9519
-10.2643 -6.4960 -2.0011 0.9519
-9.6434 -7.3865 -2.0011 0.9519
-8.9453 -8.2181 -2.0011 0.9519
-7.3410 -9.6781 -2.0011 0.9519
-5.5026 -10.8294 -2.0011 0.9519
-4.5137 -11.2775 -2.0011 0.9519
-2.4360 -11.9005 -2.0011 0.9519
-1.3637 -12.0704 -2.0011 0.9519
0.8049 -12.1205 -2.0011 0.9519
2.9478 -11.7841 -2.0011 0.9519
4.9968 -11.0719 -2.0011 0.9519
5.9654 -10.5816 -2.0011 0.9519
7.7523 -9.3519 -2.0011 0.9519
9.2920 -7.8239 -2.0011 0.9519
10.5354 -6.0465 -2.0011 0.9519
12.1458 0.1872 -2.0011 0.9519
12.0806 1.2709 -2.0011 0.9519
10.5871 4.1433 -1.8729 0.9550
8.3584 7.4900 -1.8489 0.9555
3.9480 5.0730 -1.0590 0.9743
