ply
format ascii 1.0
element vertex 1595
property float32 x
property float32 y
property float32 z
property float32 I
end_header
-1.8537 5.2542 -1.8520 0.9768
-2.7591 4.8443 -1.8531 0.9768
-3.9808 3.9794 -1.8710 0.9766
-5.2510 2.9882 -2.0083 0.9749
-5.4974 2.5085 -2.0086 0.9749
-5.8568 1.4925 -2.0090 0.9748
-5.9669 0.9644 -2.0092 0.9748
-6.0436 -0.1108 -2.0093 0.9748
-6.0096 -0.6492 -2.0092 0.9748
-5.9275 -1.1824 -2.0091 0.9748
-5.7980 -1.7060 -2.0090 0.9748
-5.6222 -2.2160 -2.0088 0.9748
-5.1377 -3.1784 -2.0082 0.9749
-4.8330 -3.6232 -2.0078 0.9749
-4.1108 -4.4221 -2.0070 0.9749
-3.6993 -4.7699 -2.0065 0.9749
-3.2584 -5.0794 -2.0060 0.9749
-2.7917 -5.3482 -2.0054 0.9749
-1.7963 -5.7556 -2.0042 0.9749
-0.7450 -5.9794 -2.0030 0.9749
-0.2088 -6.0201 -2.0023 0.9749
0.3287 -6.0128 -2.0017 0.9749
0.8632 -5.9577 -2.0010 0.9749
1.3906 -5.8551 -2.0004 0.9750
1.9065 -5.7061 -1.9998 0.9750
2.8880 -5.2736 -1.9986 0.9750
3.3458 -4.9937 -1.9981 0.9750
4.1775 -4.3179 -1.9971 0.9750
4.8759 -3.5058 -1.9962 0.9750
5.1682 -3.0565 -1.9959 0.9750
5.9080 -1.0565 -1.9950 0.9750
5.9784 -0.5254 -1.9949 0.9750
6.0013 0.0097 -1.9949 0.9750
5.9045 1.0755 -1.9950 0.9750
5.7855 1.5978 -1.9951 0.9750
5.4109 2.6006 -1.9956 0.9750
5.1582 3.0732 -1.9959 0.9750
4.5321 3.9420 -1.9966 0.9750
3.5077 4.3701 -1.8627 0.9767
2.2075 5.0998 -1.8472 0.9768
1.7445 5.2779 -1.8477 0.9768
0.7798 5.5072 -1.8489 0.9768
0.2858 5.5566 -1.8495 0.9768
-0.7062 5.5225 -1.8507 0.9768
-2.1446 5.1435 -1.8524 0.9768
-3.0258 4.6835 -1.8534 0.9768
-3.4322 4.3962 -1.8539 0.9768
-4.4058 3.9377 -1.9642 0.9754
-5.4102 2.6906 -2.0085 0.9749
-5.8034 1.6873 -2.0090 0.9748
-6.0116 0.6297 -2.0092 0.9748
-6.0440 0.0912 -2.0093 0.9748
-6.0280 -0.4480 -2.0093 0.9748
-5.8519 -1.5114 -2.0091 0.9748
-5.6933 -2.0270 -2.0089 0.9748
-5.2414 -3.0052 -2.0083 0.9749
-4.9517 -3.4600 -2.0080 0.9749
-4.2566 -4.2827 -2.0072 0.9749
-3.8569 -4.6441 -2.0067 0.9749
-2.9691 -5.2525 -2.0056 0.9749
-2.4883 -5.4948 -2.0050 0.9749
-1.4718 -5.8458 -2.0038 0.9749
-0.9444 -5.9519 -2.0032 0.9749
0.6638 -5.9839 -2.0013 0.9749
1.7150 -5.7672 -2.0000 0.9750
2.2217 -5.5896 -1.9994 0.9750
2.7105 -5.3677 -1.9988 0.9750
3.1774 -5.1032 -1.9983 0.9750
3.6188 -4.7983 -1.9977 0.9750
4.7564 -3.6670 -1.9964 0.9750
5.0635 -3.2277 -1.9960 0.9750
5.7349 -1.7718 -1.9952 0.9750
5.8695 -1.2533 -1.9950 0.9750
5.9576 -0.7249 -1.9949 0.9750
5.9983 -0.1908 -1.9949 0.9750
5.9914 0.3448 -1.9949 0.9750
5.6876 1.9185 -1.9952 0.9750
5.4945 2.4183 -1.9955 0.9750
4.9791 3.3568 -1.9961 0.9750
4.6609 3.7881 -1.9965 0.9750
3.7561 4.3720 -1.9160 0.9760
3.2289 4.5182 -1.8460 0.9769
2.8139 4.7894 -1.8465 0.9769
2.3763 5.0226 -1.8470 0.9769
1.9196 5.2160 -1.8475 0.9768
1.4473 5.3681 -1.8481 0.9768
0.4712 5.5433 -1.8493 0.9768
-0.0250 5.5650 -1.8499 0.9768
-0.5213 5.5424 -1.8504 0.9768
-2.8673 4.7814 -1.8533 0.9768
-3.6729 4.1983 -1.8542 0.9768
-4.1469 3.9633 -1.9067 0.9761
-5.0391 3.3318 -2.0081 0.9749
-5.3170 2.8697 -2.0084 0.9749
-5.7436 1.8801 -2.0089 0.9748
-5.9871 0.8302 -2.0092 0.9748
-6.0375 0.2931 -2.0093 0.9748
-6.0396 -0.2464 -2.0093 0.9748
-5.9934 -0.7839 -2.0092 0.9748
-5.7581 -1.8358 -2.0089 0.9748
-4.7502 -3.7307 -2.0077 0.9749
-4.3977 -4.1385 -2.0073 0.9749
-3.5910 -4.8515 -2.0064 0.9749
-2.6707 -5.4092 -2.0053 0.9749
-1.6665 -5.7941 -2.0041 0.9749
-1.1429 -5.9177 -2.0034 0.9749
-0.6105 -5.9942 -2.0028 0.9749
0.4636 -6.0035 -2.0015 0.9749
0.9967 -5.9363 -2.0009 0.9749
3.4568 -4.9170 -1.9979 0.9750
3.8805 -4.5880 -1.9974 0.9750
4.2731 -4.2228 -1.9970 0.9750
4.9532 -3.3952 -1.9961 0.9750
5.6727 -1.9624 -1.9953 0.9750
5.9301 -0.9235 -1.9950 0.9750
5.8790 1.2079 -1.9950 0.9750
5.5720 2.2333 -1.9954 0.9750
5.0882 3.1884 -1.9960 0.9750
4.7845 3.6300 -1.9963 0.9750
4.4389 4.0396 -1.9951 0.9750
4.0192 4.3738 -1.9745 0.9753
3.3777 4.4074 -1.8458 0.9769
2.5425 4.9399 -1.8468 0.9769
2.0926 5.1484 -1.8473 0.9768
1.1455 5.4416 -1.8485 0.9768
0.6560 5.5238 -1.8490 0.9768
-0.8301 5.5057 -1.8508 0.9768
-1.7960 5.2740 -1.8520 0.9768
-2.2597 5.0944 -1.8525 0.9768
-3.1304 4.6146 -1.8536 0.9768
-3.5303 4.3183 -1.8541 0.9768
-3.9061 3.9912 -1.8563 0.9767
-4.5753 3.9079 -2.0001 0.9750
-4.9227 3.4967 -2.0071 0.9749
-5.4695 2.5685 -2.0086 0.9749
-5.8400 1.5566 -2.0090 0.9748
-5.9560 1.0297 -2.0092 0.9748
-6.0445 -0.0445 -2.0093 0.9748
-5.6462 -2.1543 -2.0088 0.9748
-5.1724 -3.1220 -2.0082 0.9749
-4.5339 -3.9896 -2.0075 0.9749
-4.1592 -4.3770 -2.0070 0.9749
-3.7514 -4.7292 -2.0066 0.9749
-2.3641 -5.5489 -2.0049 0.9749
-1.3401 -5.8770 -2.0037 0.9749
-0.8105 -5.9711 -2.0030 0.9749
-0.2748 -6.0177 -2.0024 0.9749
0.2628 -6.0163 -2.0018 0.9749
1.3264 -5.8702 -2.0005 0.9750
2.8301 -5.3051 -1.9987 0.9750
3.2910 -5.0302 -1.9981 0.9750
3.7254 -4.7155 -1.9976 0.9750
4.8373 -3.5590 -1.9963 0.9750
5.3908 -2.6424 -1.9956 0.9750
5.9723 -0.5909 -1.9949 0.9750
6.0011 -0.0561 -1.9949 0.9750
5.9159 1.0108 -1.9950 0.9750
5.8026 1.5344 -1.9951 0.9750
4.9027 3.4679 -1.9962 0.9750
4.5749 3.8920 -1.9966 0.9750
4.1983 4.2729 -1.9912 0.9751
3.5876 4.3707 -1.8796 0.9764
2.2631 5.0751 -1.8471 0.9768
1.3265 5.3996 -1.8482 0.9768
0.8401 5.4981 -1.8488 0.9768
-1.1365 5.4519 -1.8512 0.9768
-1.6186 5.3305 -1.8518 0.9768
-2.0880 5.1665 -1.8523 0.9768
-2.9742 4.7162 -1.8534 0.9768
-3.3838 4.4334 -1.8539 0.9768
-3.7665 4.1150 -1.8543 0.9768
-4.7968 3.6542 -2.0045 0.9749
-5.1129 3.2179 -2.0081 0.9749
-5.6048 2.2593 -2.0087 0.9748
-5.7845 1.7507 -2.0090 0.9748
-5.9181 1.2281 -2.0091 0.9748
-6.0043 0.6955 -2.0092 0.9748
-5.9742 -0.9183 -2.0092 0.9748
-5.8682 -1.4473 -2.0091 0.9748
-5.7153 -1.9646 -2.0089 0.9748
-5.2741 -2.9477 -2.0084 0.9749
5.4785 1.0601 -1.9955 0.9766
5.2040 2.0166 -1.9958 0.9766
5.0040 2.4729 -1.9961 0.9766
3.4096 4.3446 -1.9750 0.9768
2.8205 4.3416 -1.8515 0.9782
2.4162 4.5647 -1.8469 0.9783
1.5679 4.9239 -1.8480 0.9783
1.1229 5.0456 -1.8485 0.9783
0.6688 5.1271 -1.8490 0.9783
-0.2527 5.1675 -1.8501 0.9783
-0.7126 5.1259 -1.8507 0.9783
-1.6127 4.9207 -1.8518 0.9782
-2.4624 4.5585 -1.8528 0.9782
-3.2345 4.0507 -1.8537 0.9782
-3.7991 3.9723 -1.9656 0.9769
-4.2185 3.6879 -2.0038 0.9765
-4.5389 3.3032 -2.0075 0.9764
-5.4101 1.5088 -2.0085 0.9764
-5.5234 1.0205 -2.0086 0.9764
-5.5927 0.5240 -2.0087 0.9764
-5.6172 0.0232 -2.0088 0.9764
-5.5968 -0.4777 -2.0087 0.9764
-5.4224 -1.4641 -2.0085 0.9764
-5.2698 -1.9415 -2.0084 0.9764
-4.5662 -3.2656 -2.0075 0.9764
-4.2560 -3.6591 -2.0072 0.9764
-3.1338 -4.6519 -2.0058 0.9765
-2.7058 -4.9115 -2.0053 0.9765
-1.3084 -5.4480 -2.0036 0.9765
-0.8172 -5.5413 -2.0030 0.9765
0.6779 -5.5550 -2.0013 0.9765
1.6528 -5.3432 -2.0001 0.9765
2.5742 -4.9619 -1.9990 0.9765
3.0056 -4.7114 -1.9985 0.9765
3.4129 -4.4236 -1.9980 0.9765
4.4591 -3.3605 -1.9967 0.9766
4.7402 -2.9490 -1.9964 0.9766
5.4696 -1.1054 -1.9955 0.9766
5.5461 -0.6132 -1.9954 0.9766
5.5668 0.3816 -1.9954 0.9766
5.5108 0.8765 -1.9955 0.9766
5.4110 1.3644 -1.9956 0.9766
5.0836 2.3042 -1.9960 0.9766
4.2945 3.5692 -1.9969 0.9766
3.9593 3.9380 -1.9970 0.9766
3.5827 4.2638 -1.9916 0.9766
3.0315 4.3417 -1.8936 0.9778
2.1579 4.6933 -1.8473 0.9783
0.8396 5.1014 -1.8488 0.9783
0.3815 5.1574 -1.8494 0.9783
-0.5409 5.1462 -1.8505 0.9783
-1.4472 4.9712 -1.8516 0.9782
-1.8853 4.8238 -1.8521 0.9782
-3.0971 4.1561 -1.8535 0.9782
-3.5726 3.9944 -1.9164 0.9775
-4.0882 3.8224 -2.0014 0.9765
-4.4257 3.4527 -2.0073 0.9764
-5.1840 2.1593 -2.0082 0.9764
-5.5720 0.7105 -2.0087 0.9764
-5.6097 -0.2905 -2.0088 0.9764
-5.5613 -0.7895 -2.0087 0.9764
-5.3319 -1.7645 -2.0084 0.9764
-5.1528 -2.2326 -2.0082 0.9764
-4.9326 -2.6828 -2.0080 0.9764
-4.3762 -3.5151 -2.0073 0.9764
-3.6807 -4.2348 -2.0065 0.9764
-2.8687 -4.8189 -2.0055 0.9765
-1.4898 -5.4018 -2.0039 0.9765
-1.0019 -5.5115 -2.0033 0.9765
-0.5064 -5.5773 -2.0027 0.9765
-0.0071 -5.5986 -2.0021 0.9765
0.4920 -5.5752 -2.0015 0.9765
0.9869 -5.5075 -2.0009 0.9765
1.4736 -5.3960 -2.0003 0.9765
2.4072 -5.0457 -1.9992 0.9765
2.8468 -4.8096 -1.9987 0.9765
3.2635 -4.5355 -1.9982 0.9765
3.6540 -4.2255 -1.9977 0.9765
4.0154 -3.8820 -1.9973 0.9766
4.8970 -2.6795 -1.9962 0.9766
5.1157 -2.2319 -1.9959 0.9766
5.2938 -1.7667 -1.9957 0.9766
5.4298 -1.2875 -1.9956 0.9766
5.5716 -0.3026 -1.9954 0.9766
5.5764 0.1954 -1.9954 0.9766
5.4534 1.1828 -1.9955 0.9766
5.1575 2.1330 -1.9959 0.9766
4.9474 2.5847 -1.9961 0.9766
4.6979 3.0160 -1.9964 0.9766
4.0890 3.8039 -1.9971 0.9766
3.2539 4.3435 -1.9408 0.9772
2.7151 4.3923 -1.8466 0.9783
2.3133 4.6181 -1.8471 0.9783
1.4570 4.9583 -1.8481 0.9783
0.5535 5.1412 -1.8492 0.9783
-0.8276 5.1090 -1.8508 0.9783
-1.2802 5.0163 -1.8514 0.9782
-1.7229 4.8836 -1.8519 0.9782
-2.1521 4.7118 -1.8524 0.9782
-2.9563 4.2568 -1.8534 0.9782
-3.3566 4.0152 -1.8715 0.9780
-3.9538 3.9524 -1.9992 0.9765
-4.3036 3.5951 -2.0053 0.9765
-4.8799 2.7770 -2.0079 0.9764
-5.1088 2.3312 -2.0081 0.9764
-5.4427 1.3870 -2.0085 0.9764
-5.6030 0.3983 -2.0087 0.9764
-5.6163 -0.1029 -2.0088 0.9764
-5.5084 -1.0988 -2.0086 0.9764
-5.2248 -2.0593 -2.0083 0.9764
-5.0197 -2.5167 -2.0081 0.9764
-4.7746 -2.9538 -2.0078 0.9764
-4.1726 -3.7536 -2.0071 0.9764
-3.0283 -4.7208 -2.0057 0.9765
-2.1405 -5.1809 -2.0046 0.9765
-1.1856 -5.4756 -2.0035 0.9765
0.3055 -5.5892 -2.0017 0.9765
1.2926 -5.4428 -2.0005 0.9765
1.7723 -5.3044 -2.0000 0.9765
3.5111 -4.3456 -1.9979 0.9765
3.8837 -4.0143 -1.9974 0.9766
4.5332 -3.2594 -1.9966 0.9766
4.8050 -2.8417 -1.9963 0.9766
5.0385 -2.4016 -1.9960 0.9766
5.2320 -1.9426 -1.9958 0.9766
5.4930 -0.9823 -1.9955 0.9766
5.2257 1.9595 -1.9958 0.9766
4.5226 3.2740 -1.9966 0.9766
4.2135 3.6649 -1.9970 0.9766
3.8671 4.0231 -1.9956 0.9766
3.4839 4.3405 -1.9903 0.9766
2.4660 4.5378 -1.8469 0.9783
1.1781 5.0328 -1.8484 0.9783
-0.1960 5.1697 -1.8501 0.9783
-0.6564 5.1332 -1.8506 0.9783
-1.9933 4.7806 -1.8522 0.9782
-2.8122 4.3528 -1.8532 0.9782
-3.1899 4.0857 -1.8536 0.9782
-3.7236 3.9797 -1.9490 0.9771
-4.5023 3.3526 -2.0074 0.9764
-5.0278 2.5004 -2.0080 0.9764
-5.5119 1.0810 -2.0086 0.9764
-5.6017 -0.4164 -2.0087 0.9764
-5.4382 -1.4046 -2.0086 0.9764
-5.2908 -1.8837 -2.0084 0.9764
-5.1012 -2.3477 -2.0082 0.9764
-4.8709 -2.7928 -2.0079 0.9764
-4.6018 -3.2155 -2.0076 0.9764
-4.2960 -3.6123 -2.0072 0.9764
-3.1846 -4.6174 -2.0059 0.9765
-2.3127 -5.1070 -2.0048 0.9765
-1.8476 -5.2914 -2.0043 0.9765
-1.3680 -5.4335 -2.0037 0.9765
-0.8779 -5.5322 -2.0031 0.9765
-0.3810 -5.5868 -2.0025 0.9765
0.6170 -5.5623 -2.0013 0.9765
1.1102 -5.4836 -2.0007 0.9765
3.7478 -4.1421 -1.9976 0.9765
4.4221 -3.4092 -1.9968 0.9766
5.1644 -2.1164 -1.9959 0.9766
5.5391 -0.6740 -1.9954 0.9766
5.5706 0.3206 -1.9954 0.9766
5.2880 1.7838 -1.9957 0.9766
4.6292 3.1209 -1.9965 0.9766
4.3332 3.5218 -1.9969 0.9766
2.2091 4.6692 -1.8472 0.9783
1.7845 4.8489 -1.8477 0.9783
-0.0232 5.1728 -1.8499 0.9783
-2.6649 4.4439 -1.8530 0.9782
-4.6830 3.0963 -2.0076 0.9764
-4.9412 2.6669 -2.0079 0.9764
-5.1600 2.2159 -2.0082 0.9764
-5.3376 1.7472 -2.0084 0.9764
-5.5638 0.7715 -2.0087 0.9764
-5.4822 -1.2222 -2.0086 0.9764
-5.3510 -1.7060 -2.0085 0.9764
-5.1770 -2.1761 -2.0082 0.9764
-4.4145 -3.4671 -2.0073 0.9764
-4.0870 -3.8461 -2.0070 0.9764
-3.7270 -4.1943 -2.0065 0.9764
-2.4822 -5.0274 -2.0050 0.9765
-2.0235 -5.2273 -2.0045 0.9765
-1.0623 -5.5004 -2.0033 0.9765
-0.5674 -5.5716 -2.0028 0.9765
1.8908 -5.2628 -1.9998 0.9765
3.6076 -4.2654 -1.9978 0.9765
3.9727 -3.9259 -1.9973 0.9766
5.0910 -2.2878 -1.9960 0.9766
5.2742 -1.8246 -1.9958 0.9766
5.4154 -1.3469 -1.9956 0.9766
5.5136 -0.8586 -1.9955 0.9766
5.5441 0.6312 -1.9954 0.9766
4.9753 2.5303 -1.9961 0.9766
4.7306 2.9643 -1.9964 0.9766
4.1303 3.7588 -1.9971 0.9766
3.3292 4.3441 -1.9572 0.9770
2.7630 4.3621 -1.8465 0.9783
2.3636 4.5923 -1.8470 0.9783
1.9453 4.7861 -1.8475 0.9783
1.5112 4.9418 -1.8480 0.9783
1.0649 5.0583 -1.8486 0.9783
0.6098 5.1347 -1.8491 0.9783
-0.3121 5.1644 -1.8502 0.9783
-0.7716 5.1175 -1.8508 0.9783
-1.2252 5.0298 -1.8513 0.9782
-2.5148 4.5300 -1.8528 0.9782
-2.9094 4.2888 -1.8533 0.9782
-3.2895 4.0237 -1.8586 0.9782
-3.8798 3.9643 -1.9836 0.9767
-4.2623 3.6406 -2.0046 0.9765
-4.5767 3.2508 -2.0075 0.9764
-4.8491 2.8303 -2.0078 0.9764
-5.2760 1.9245 -2.0083 0.9764
-5.4271 1.4465 -2.0085 0.9764
-5.5348 0.9569 -2.0087 0.9764
-5.2471 -2.0020 -2.0083 0.9764
-4.8068 -2.9014 -2.0078 0.9764
-4.2135 -3.7077 -2.0071 0.9764
-3.8654 -4.0678 -2.0067 0.9764
-2.6491 -4.9422 -2.0052 0.9765
-1.7281 -5.3312 -2.0041 0.9765
-0.2554 -5.5936 -2.0024 0.9765
0.7417 -5.5467 -2.0012 0.9765
1.7141 -5.3236 -2.0000 0.9765
2.1814 -5.1481 -1.9995 0.9765
2.6310 -4.9318 -1.9989 0.9765
3.0595 -4.6764 -1.9984 0.9765
3.4634 -4.3839 -1.9979 0.9765
4.1852 -3.6974 -1.9971 0.9766
4.4974 -3.3089 -1.9967 0.9766
4.7737 -2.8942 -1.9964 0.9766
5.2105 -1.9998 -1.9958 0.9766
5.3675 -1.5271 -1.9956 0.9766
5.4819 -1.0424 -1.9955 0.9766
5.5528 -0.5494 -1.9954 0.9766
5.5796 -0.0521 -1.9954 0.9766
5.5004 0.9398 -1.9955 0.9766
5.0568 2.3626 -1.9960 0.9766
4.8267 2.8045 -1.9963 0.9766
4.2533 3.6184 -1.9970 0.9766
3.9123 3.9818 -1.9962 0.9766
2.9573 4.3410 -1.8784 0.9779
2.1039 4.7179 -1.8473 0.9783
1.6753 4.8881 -1.8478 0.9783
1.2331 5.0194 -1.8484 0.9783
0.7809 5.1109 -1.8489 0.9783
-0.1394 5.1714 -1.8500 0.9783
-0.6001 5.1399 -1.8505 0.9783
-1.0563 5.0674 -1.8511 0.9783
-1.9407 4.8019 -1.8521 0.9782
-2.3618 4.6110 -1.8527 0.9782
-2.7642 4.3832 -1.8531 0.9782
-3.6493 3.9870 -1.9329 0.9773
-4.1335 3.7766 -2.0022 0.9765
-5.0000 2.5553 -2.0080 0.9764
-5.3756 1.6270 -2.0085 0.9764
-5.6153 0.1463 -2.0088 0.9764
-5.5518 -0.8534 -2.0087 0.9764
-5.4533 -1.3449 -2.0086 0.9764
-5.3112 -1.8257 -2.0084 0.9764
-4.9013 -2.7394 -2.0079 0.9764
-4.6368 -3.1650 -2.0076 0.9764
-3.9994 -3.9367 -2.0068 0.9764
-3.6317 -4.2767 -2.0064 0.9764
-3.2351 -4.5824 -2.0059 0.9765
-2.8130 -4.8514 -2.0054 0.9765
5.0052 1.4415 -1.9961 0.9779
4.1875 3.1019 -1.9970 0.9779
3.2134 4.0945 -1.9946 0.9780
0.6241 4.7846 -1.8491 0.9795
0.1951 4.8225 -1.8496 0.9795
-0.2358 4.8221 -1.8501 0.9795
-1.9087 4.4402 -1.8521 0.9795
-2.6834 4.0553 -1.8635 0.9794
-4.2348 3.0819 -2.0071 0.9778
-5.2406 0.0217 -2.0083 0.9778
-5.2216 -0.4457 -2.0083 0.9778
-5.1609 -0.9095 -2.0082 0.9778
-4.9166 -1.8114 -2.0079 0.9778
-4.5156 -2.6552 -2.0075 0.9778
-3.6500 -3.7537 -2.0064 0.9778
-3.3001 -4.0634 -2.0060 0.9778
-2.1055 -4.7885 -2.0046 0.9778
-0.2984 -5.2168 -2.0024 0.9779
0.6326 -5.1839 -2.0013 0.9779
1.9804 -4.8278 -1.9997 0.9779
2.4024 -4.6308 -1.9992 0.9779
3.5399 -3.8272 -1.9978 0.9779
4.4242 -2.7525 -1.9968 0.9779
4.6514 -2.3467 -1.9965 0.9779
5.1052 -1.0317 -1.9960 0.9779
5.2069 -0.1085 -1.9958 0.9779
5.1959 0.3562 -1.9958 0.9779
5.1436 0.8181 -1.9959 0.9779
5.0505 1.2735 -1.9960 0.9779
4.5347 2.5655 -1.9966 0.9779
4.0082 3.3312 -1.9972 0.9779
3.6959 3.6760 -1.9976 0.9779
2.9756 4.2617 -1.9919 0.9780
2.4709 4.3130 -1.9048 0.9789
2.0139 4.3800 -1.8474 0.9796
1.6157 4.5433 -1.8479 0.9796
1.2045 4.6705 -1.8484 0.9796
0.7835 4.7606 -1.8489 0.9795
-0.0746 4.8267 -1.8499 0.9795
-0.5048 4.8022 -1.8504 0.9795
-0.9312 4.7394 -1.8509 0.9795
-1.3504 4.6387 -1.8514 0.9795
-2.5319 4.1191 -1.8529 0.9795
-3.8229 3.5743 -2.0056 0.9778
-4.1292 3.2214 -2.0070 0.9778
-4.4007 2.8409 -2.0073 0.9778
-4.8366 2.0146 -2.0078 0.9778
-4.9974 1.5755 -2.0080 0.9778
-5.2369 0.1967 -2.0083 0.9778
-5.1019 -1.1962 -2.0082 0.9778
-4.3599 -2.9030 -2.0073 0.9778
-3.7736 -3.6300 -2.0066 0.9778
-3.0676 -4.2407 -2.0057 0.9778
-1.8345 -4.8978 -2.0043 0.9778
-0.4725 -5.2044 -2.0026 0.9779
-0.0066 -5.2244 -2.0021 0.9779
0.4591 -5.2027 -2.0015 0.9779
0.9210 -5.1396 -2.0010 0.9779
1.3752 -5.0357 -2.0004 0.9779
1.8182 -4.8917 -1.9999 0.9779
2.2466 -4.7089 -1.9994 0.9779
2.6568 -4.4887 -1.9989 0.9779
3.0458 -4.2330 -1.9984 0.9779
4.7748 -2.0831 -1.9964 0.9779
5.2004 -0.2824 -1.9958 0.9779
5.2049 0.1824 -1.9958 0.9779
5.1680 0.6458 -1.9959 0.9779
4.9717 1.5536 -1.9961 0.9779
4.8138 1.9909 -1.9963 0.9779
4.6177 2.4125 -1.9965 0.9779
3.1188 4.1633 -1.9935 0.9780
2.1607 4.3135 -1.8488 0.9795
0.9420 4.7313 -1.8487 0.9795
-0.7723 4.7674 -1.8508 0.9795
-1.1946 4.6808 -1.8513 0.9795
-2.3927 4.2010 -1.8527 0.9795
-2.8084 4.0439 -1.8867 0.9791
-3.6975 3.6962 -2.0035 0.9779
-4.7664 2.1750 -2.0077 0.9778
-5.0778 1.2940 -2.0081 0.9778
-5.1733 0.8362 -2.0082 0.9778
-5.2103 -0.5628 -2.0083 0.9778
-5.0269 -1.4791 -2.0081 0.9778
-4.8746 -1.9213 -2.0079 0.9778
-4.4547 -2.7559 -2.0074 0.9778
-3.8931 -3.5021 -2.0067 0.9778
-0.6462 -5.1863 -2.0028 0.9779
-0.1811 -5.2218 -2.0023 0.9779
0.7488 -5.1681 -2.0012 0.9779
3.2769 -4.0557 -1.9981 0.9779
3.9436 -3.4078 -1.9973 0.9779
4.2310 -3.0421 -1.9970 0.9779
5.0251 -1.3704 -1.9960 0.9779
5.1881 -0.4560 -1.9959 0.9779
5.2081 0.0084 -1.9958 0.9779
5.1866 0.4727 -1.9958 0.9779
4.8775 1.8289 -1.9962 0.9779
4.4761 2.6668 -1.9967 0.9779
3.6126 3.7583 -1.9977 0.9779
1.9151 4.4244 -1.8475 0.9796
1.5134 4.5787 -1.8480 0.9796
1.0994 4.6967 -1.8485 0.9795
0.6765 4.7773 -1.8490 0.9795
-1.4544 4.6075 -1.8516 0.9795
-1.8599 4.4607 -1.8521 0.9795
-2.2508 4.2782 -1.8525 0.9795
-3.5683 3.8138 -2.0015 0.9779
-4.4635 2.7414 -2.0074 0.9778
-5.0316 1.4629 -2.0081 0.9778
-5.1424 1.0085 -2.0082 0.9778
-5.2262 -0.3885 -2.0083 0.9778
-5.1706 -0.8529 -2.0082 0.9778
-5.0736 -1.3104 -2.0081 0.9778
-4.9362 -1.7575 -2.0080 0.9778
-4.7593 -2.1904 -2.0077 0.9778
-3.6910 -3.7136 -2.0065 0.9778
-2.9714 -4.3083 -2.0056 0.9778
-2.1579 -4.7653 -2.0046 0.9778
-1.7240 -4.9374 -2.0041 0.9778
-1.2765 -5.0701 -2.0036 0.9779
-0.8192 -5.1623 -2.0030 0.9779
0.5758 -5.1907 -2.0014 0.9779
1.0361 -5.1173 -2.0008 0.9779
2.3516 -4.6570 -1.9993 0.9779
2.7568 -4.4277 -1.9988 0.9779
3.1399 -4.1633 -1.9983 0.9779
3.4978 -3.8659 -1.9979 0.9779
3.8278 -3.5379 -1.9975 0.9779
4.1273 -3.1819 -1.9971 0.9779
4.3939 -2.8008 -1.9968 0.9779
4.9767 -1.5375 -1.9961 0.9779
5.0936 -1.0876 -1.9960 0.9779
5.1701 -0.6291 -1.9959 0.9779
5.1995 0.2992 -1.9958 0.9779
5.1522 0.7617 -1.9959 0.9779
4.9357 1.6649 -1.9961 0.9779
4.7680 2.0985 -1.9963 0.9779
4.5625 2.5156 -1.9966 0.9779
4.0444 3.2870 -1.9972 0.9779
3.7359 3.6352 -1.9976 0.9779
3.0229 4.2299 -1.9924 0.9780
1.6654 4.5252 -1.8478 0.9796
1.2556 4.6569 -1.8483 0.9796
0.8356 4.7516 -1.8488 0.9795
-0.0217 4.8271 -1.8499 0.9795
-0.8792 4.7491 -1.8509 0.9795
-1.2995 4.6531 -1.8514 0.9795
-2.4865 4.1464 -1.8528 0.9795
-2.9365 4.0319 -1.9114 0.9789
-3.4356 3.9270 -1.9995 0.9779
-3.7822 3.6147 -2.0049 0.9778
-4.0936 3.2664 -2.0069 0.9778
-4.3692 2.8889 -2.0073 0.9778
-5.1057 1.1797 -2.0081 0.9778
-5.1908 0.7198 -2.0083 0.9778
-5.2345 0.2541 -2.0083 0.9778
-5.1963 -0.6797 -2.0083 0.9778
-4.9923 -1.5916 -2.0080 0.9778
-4.3915 -2.8551 -2.0073 0.9778
-4.1188 -3.2348 -2.0070 0.9778
-3.8133 -3.5885 -2.0066 0.9778
-3.4774 -3.9134 -2.0062 0.9778
-1.8881 -4.8775 -2.0043 0.9778
-1.4453 -5.0251 -2.0038 0.9779
-0.9913 -5.1326 -2.0033 0.9779
-0.5295 -5.1991 -2.0027 0.9779
-0.0638 -5.2242 -2.0021 0.9779
0.8646 -5.1496 -2.0010 0.9779
1.3200 -5.0506 -2.0005 0.9779
1.7646 -4.9115 -2.0000 0.9779
4.0190 -3.3183 -1.9973 0.9779
4.2981 -2.9462 -1.9969 0.9779
4.5430 -2.5508 -1.9966 0.9779
5.0546 -1.2572 -1.9960 0.9779
5.1462 -0.8014 -1.9959 0.9779
4.6437 2.3617 -1.9965 0.9779
4.4153 2.7667 -1.9968 0.9779
4.1516 3.1499 -1.9971 0.9779
3.8549 3.5081 -1.9974 0.9779
2.7335 4.3157 -1.9577 0.9784
1.8154 4.4666 -1.8477 0.9796
1.4103 4.6119 -1.8481 0.9796
0.9937 4.7205 -1.8486 0.9795
0.1396 4.8246 -1.8497 0.9795
-0.2913 4.8192 -1.8502 0.9795
-1.5576 4.5740 -1.8517 0.9795
-1.9597 4.4181 -1.8522 0.9795
-2.3464 4.2268 -1.8526 0.9795
-3.2702 4.0000 -1.9799 0.9781
-3.9819 3.4011 -2.0068 0.9778
-4.2700 3.0330 -2.0071 0.9778
-4.7422 2.2270 -2.0077 0.9778
-5.0633 1.3495 -2.0081 0.9778
-5.2230 0.4288 -2.0083 0.9778
-5.2405 -0.0386 -2.0083 0.9778
-5.2161 -0.5057 -2.0083 0.9778
-5.1501 -0.9688 -2.0082 0.9778
-5.0429 -1.4240 -2.0081 0.9778
-4.7088 -2.2966 -2.0077 0.9778
-4.4847 -2.7070 -2.0074 0.9778
-3.9313 -3.4593 -2.0068 0.9778
-3.6065 -3.7954 -2.0064 0.9778
-2.8738 -4.3737 -2.0055 0.9778
-2.0502 -4.8122 -2.0045 0.9778
-1.6126 -4.9746 -2.0040 0.9778
-1.1623 -5.0972 -2.0035 0.9779
-0.2383 -5.2197 -2.0024 0.9779
0.2280 -5.2187 -2.0018 0.9779
0.6922 -5.1761 -2.0012 0.9779
1.5997 -4.9682 -2.0002 0.9779
2.0358 -4.8045 -1.9996 0.9779
2.8554 -4.3644 -1.9987 0.9779
3.2324 -4.0915 -1.9982 0.9779
3.5836 -3.7862 -1.9978 0.9779
4.1975 -3.0883 -1.9970 0.9779
4.4555 -2.7013 -1.9967 0.9779
4.6780 -2.2930 -1.9965 0.9779
4.8633 -1.8665 -1.9962 0.9779
5.0099 -1.4254 -1.9961 0.9779
5.1167 -0.9729 -1.9959 0.9779
5.2078 -0.0486 -1.9958 0.9779
5.1339 0.8772 -1.9959 0.9779
4.8971 1.7754 -1.9962 0.9779
4.7198 2.2052 -1.9964 0.9779
4.5050 2.6175 -1.9967 0.9779
4.2543 3.0092 -1.9970 0.9779
3.9697 3.3772 -1.9973 0.9779
2.9256 4.2945 -1.9913 0.9780
2.4050 4.3122 -1.8921 0.9791
1.9634 4.4030 -1.8475 0.9796
1.5634 4.5617 -1.8480 0.9796
1.1508 4.6842 -1.8485 0.9795
-0.1301 4.8257 -1.8500 0.9795
-0.9857 4.7285 -1.8510 0.9795
-1.4038 4.6230 -1.8515 0.9795
-1.8109 4.4806 -1.8520 0.9795
-2.2037 4.3024 -1.8525 0.9795
-3.0679 4.0195 -1.9377 0.9786
-3.5252 3.8514 -2.0008 0.9779
-4.6649 2.3841 -2.0076 0.9778
-5.0153 1.5179 -2.0080 0.9778
-5.2302 -0.3312 -2.0083 0.9778
-4.9552 -1.7033 -2.0080 0.9778
-4.5728 -2.5558 -2.0075 0.9778
-3.7315 -3.6730 -2.0065 0.9778
-2.6247 -4.5267 -2.0052 0.9778
-0.6226 4.4785 -1.8506 0.9806
-1.0197 4.4063 -1.8510 0.9806
-1.4089 4.2989 -1.8515 0.9806
-4.2066 2.5206 -2.0071 0.9790
-4.5885 1.7337 -2.0075 0.9790
-4.7252 1.3178 -2.0077 0.9790
-2.1878 0.4042 -0.9106 0.9904
-1.9579 0.1834 -0.8048 0.9915
-1.9021 0.0079 -0.7785 0.9918
-2.1534 -0.3795 -0.8949 0.9906
-4.7359 -1.2787 -2.0077 0.9790
-4.6027 -1.6958 -2.0076 0.9790
-3.9883 -2.8524 -2.0068 0.9790
-3.7175 -3.1961 -2.0065 0.9790
-3.0896 -3.8042 -2.0058 0.9790
-2.7375 -4.0637 -2.0053 0.9790
-1.9713 -4.4833 -2.0044 0.9791
-1.5633 -4.6400 -2.0039 0.9791
-0.2794 -4.8846 -2.0024 0.9791
2.2496 -4.3364 -1.9994 0.9791
2.9828 -3.8661 -1.9985 0.9791
3.3150 -3.5841 -1.9981 0.9791
3.6207 -3.2736 -1.9977 0.9791
3.8975 -2.9373 -1.9974 0.9791
4.5341 -1.8003 -1.9966 0.9791
4.6762 -1.3888 -1.9965 0.9791
4.8480 -0.5361 -1.9963 0.9791
4.8764 -0.1017 -1.9962 0.9791
4.8661 0.3335 -1.9962 0.9791
4.8171 0.7661 -1.9963 0.9791
4.4435 2.0141 -1.9967 0.9791
4.2468 2.4026 -1.9970 0.9791
3.4611 3.4425 -1.9979 0.9791
3.1410 3.7381 -1.9983 0.9791
1.9700 4.2845 -1.9300 0.9798
0.7337 4.4577 -1.8490 0.9807
0.3334 4.5065 -1.8494 0.9807
-0.0698 4.5194 -1.8499 0.9807
-0.8719 4.4375 -1.8509 0.9806
-1.2644 4.3432 -1.8513 0.9806
-1.6470 4.2142 -1.8518 0.9806
-2.9194 3.9175 -1.9996 0.9791
-3.5808 3.3479 -2.0063 0.9790
-3.8657 3.0159 -2.0067 0.9790
-4.1198 2.6596 -2.0070 0.9790
-4.3411 2.2819 -2.0072 0.9790
-4.6784 1.4749 -2.0076 0.9790
-4.7916 1.0520 -2.0078 0.9790
-1.9520 0.2489 -0.8054 0.9915
-1.9322 0.0726 -0.7914 0.9917
-1.9420 -0.1006 -0.7959 0.9916
-4.7761 -1.1198 -2.0078 0.9790
-4.3083 -2.3433 -2.0072 0.9790
-4.0816 -2.7177 -2.0069 0.9790
-3.2152 -3.6991 -2.0059 0.9790
-2.8720 -3.9703 -2.0055 0.9790
-2.1202 -4.4153 -2.0046 0.9791
-1.3016 -4.7194 -2.0036 0.9791
-0.4424 -4.8730 -2.0026 0.9791
0.8624 -4.8126 -2.0010 0.9791
1.7026 -4.5806 -2.0000 0.9791
2.1037 -4.4095 -1.9996 0.9791
2.4879 -4.2034 -1.9991 0.9791
2.8522 -3.9639 -1.9987 0.9791
3.5095 -3.3930 -1.9979 0.9791
3.7974 -3.0660 -1.9975 0.9791
4.4716 -1.9509 -1.9967 0.9791
4.6273 -1.5442 -1.9965 0.9791
4.7462 -1.1254 -1.9964 0.9791
4.8274 -0.6977 -1.9963 0.9791
4.8399 0.6048 -1.9963 0.9791
4.6560 1.4550 -1.9965 0.9791
4.5082 1.8645 -1.9967 0.9791
4.3244 2.2593 -1.9969 0.9791
4.1063 2.6362 -1.9971 0.9791
3.8555 2.9923 -1.9974 0.9791
3.5739 3.3247 -1.9978 0.9791
3.2638 3.6308 -1.9981 0.9791
2.5617 4.1442 -1.9940 0.9792
2.1474 4.2869 -1.9623 0.9795
1.6851 4.2798 -1.8825 0.9803
0.8821 4.4302 -1.8488 0.9807
0.0812 4.5188 -1.8497 0.9807
-0.7231 4.4637 -1.8507 0.9806
-1.1185 4.3826 -1.8512 0.9806
-1.5052 4.2664 -1.8516 0.9806
-2.3162 4.0668 -1.9155 0.9800
-3.1380 3.7537 -2.0024 0.9791
-3.4667 3.4655 -2.0062 0.9790
-3.7626 3.1431 -2.0065 0.9790
-4.2623 2.4256 -2.0071 0.9790
-4.4621 2.0361 -2.0074 0.9790
-4.7536 1.2114 -2.0077 0.9790
-1.9523 0.1388 -0.8010 0.9916
-1.9161 -0.0351 -0.7843 0.9918
-1.9569 -0.2114 -0.8056 0.9915
-4.8110 -0.9597 -2.0078 0.9790
-4.7060 -1.3847 -2.0077 0.9790
-4.5634 -1.7986 -2.0075 0.9790
-4.1704 -2.5800 -2.0070 0.9790
-3.9231 -2.9411 -2.0068 0.9790
-2.2667 -4.3424 -2.0048 0.9791
-1.8700 -4.5261 -2.0043 0.9791
-1.0359 -4.7839 -2.0033 0.9791
-0.6050 -4.8560 -2.0028 0.9791
-0.1696 -4.8893 -2.0023 0.9791
1.5488 -4.6353 -2.0002 0.9791
3.0687 -3.7980 -1.9984 0.9791
3.3944 -3.5085 -1.9980 0.9791
3.9623 -2.8489 -1.9973 0.9791
4.1999 -2.4839 -1.9970 0.9791
4.4041 -2.0993 -1.9968 0.9791
4.5733 -1.6980 -1.9966 0.9791
4.8015 -0.8586 -1.9963 0.9791
4.8775 0.0079 -1.9962 0.9791
4.7987 0.8741 -1.9963 0.9791
4.5678 1.7128 -1.9966 0.9791
3.9531 2.8616 -1.9973 0.9791
3.0564 3.8078 -1.9984 0.9791
1.4171 4.2875 -1.8481 0.9807
1.0295 4.3979 -1.8486 0.9807
0.2321 4.5131 -1.8496 0.9807
-0.1713 4.5170 -1.8500 0.9807
-1.3617 4.3139 -1.8515 0.9806
-2.1474 4.0817 -1.8876 0.9803
-2.6101 4.0400 -1.9686 0.9794
-3.0083 3.8531 -2.0007 0.9791
-3.9326 2.9284 -2.0067 0.9790
-4.1787 2.5665 -2.0070 0.9790
-4.3914 2.1839 -2.0073 0.9790
-4.5691 1.7839 -2.0075 0.9790
-4.7104 1.3695 -2.0077 0.9790
-4.6211 -1.6452 -2.0076 0.9790
-4.2544 -2.4393 -2.0071 0.9790
-3.7524 -3.1553 -2.0065 0.9790
-3.1311 -3.7702 -2.0058 0.9790
-2.7819 -4.0336 -2.0054 0.9790
-2.4107 -4.2646 -2.0049 0.9790
-2.0204 -4.4615 -2.0045 0.9791
-0.7670 -4.8335 -2.0030 0.9791
-0.3329 -4.8814 -2.0025 0.9791
0.1037 -4.8904 -2.0019 0.9791
1.3932 -4.6849 -2.0004 0.9791
1.8049 -4.5409 -1.9999 0.9791
2.2021 -4.3609 -1.9994 0.9791
2.5815 -4.1462 -1.9990 0.9791
2.9403 -3.8987 -1.9986 0.9791
3.2756 -3.6202 -1.9981 0.9791
3.8651 -2.9798 -1.9974 0.9791
4.3317 -2.2453 -1.9969 0.9791
4.8750 -0.1551 -1.9962 0.9791
4.8694 0.2802 -1.9962 0.9791
4.6223 1.5592 -1.9965 0.9791
4.4653 1.9653 -1.9967 0.9791
4.0462 2.7279 -1.9972 0.9791
3.7875 3.0782 -1.9975 0.9791
0.7824 4.4492 -1.8489 0.9807
-0.0203 4.5198 -1.8499 0.9807
-0.4233 4.5011 -1.8503 0.9806
-0.8232 4.4466 -1.8508 0.9806
-1.2167 4.3566 -1.8513 0.9806
-1.6007 4.2318 -1.8517 0.9806
-1.9831 4.0958 -1.8624 0.9805
-2.4325 4.0563 -1.9358 0.9798
-2.8755 3.9482 -1.9991 0.9791
-3.8324 3.0580 -2.0066 0.9790
-4.5068 1.9354 -2.0074 0.9790
-4.7797 1.1044 -2.0078 0.9790
-1.9474 0.2700 -0.8047 0.9915
-1.9346 -0.0789 -0.7924 0.9917
-1.9508 -0.2552 -0.8052 0.9915
-4.5217 -1.9006 -2.0075 0.9790
-4.1112 -2.6729 -2.0070 0.9790
-3.2556 -3.6638 -2.0060 0.9790
-1.3532 -4.7050 -2.0037 0.9791
-0.4958 -4.8680 -2.0027 0.9791
1.2360 -4.7293 -2.0006 0.9791
1.6523 -4.5991 -2.0001 0.9791
2.0553 -4.4324 -1.9996 0.9791
2.8087 -3.9950 -1.9987 0.9791
3.1530 -3.7279 -1.9983 0.9791
3.4722 -3.4313 -1.9979 0.9791
3.7637 -3.1075 -1.9976 0.9791
4.6102 -1.5949 -1.9965 0.9791
4.7337 -1.1774 -1.9964 0.9791
4.8462 0.5517 -1.9963 0.9791
4.7779 0.9817 -1.9963 0.9791
4.6717 1.4039 -1.9965 0.9791
4.5283 1.8150 -1.9966 0.9791
4.1349 2.5910 -1.9971 0.9791
3.8879 2.9498 -1.9974 0.9791
-0.2727 4.5123 -1.8502 0.9807
-0.6741 4.4712 -1.8506 0.9806
-1.0704 4.3944 -1.8511 0.9806
-1.8348 4.1365 -1.8520 0.9806
-2.2604 4.0717 -1.9060 0.9801
-2.7329 4.0286 -1.9924 0.9792
-3.0958 3.7868 -2.0018 0.9791
-3.9975 2.8395 -2.0068 0.9790
-4.2354 2.4721 -2.0071 0.9790
-4.4395 2.0848 -2.0073 0.9790
-4.6082 1.6809 -2.0076 0.9790
-4.7400 1.2634 -2.0077 0.9790
-1.9055 -0.0140 -0.7799 0.9918
-1.9579 -0.1898 -0.8051 0.9915
-2.2014 -0.4141 -0.9168 0.9904
-4.4082 -2.1500 -2.0073 0.9790
-4.1984 -2.5342 -2.0071 0.9790
-3.9552 -2.8980 -2.0068 0.9790
-3.3764 -3.5532 -2.0061 0.9790
-3.0455 -3.8394 -2.0057 0.9790
-2.6905 -4.0948 -2.0053 0.9790
-2.3142 -4.3174 -2.0048 0.9791
-0.6582 -4.8492 -2.0029 0.9791
0.2135 -4.8865 -2.0018 0.9791
1.0774 -4.7684 -2.0008 0.9791
1.4979 -4.6522 -2.0003 0.9791
1.9063 -4.4990 -1.9998 0.9791
3.0270 -3.8315 -1.9984 0.9791
3.6580 -3.2317 -1.9977 0.9791
3.9309 -2.8922 -1.9974 0.9791
4.6918 -1.3349 -1.9964 0.9791
4.7919 -0.9112 -1.9963 0.9791
4.8538 -0.4803 -1.9962 0.9791
4.8619 0.3895 -1.9962 0.9791
4.8080 0.8215 -1.9963 0.9791
4.5862 1.6626 -1.9966 0.9791
4.2189 2.4513 -1.9970 0.9791
3.9841 2.8181 -1.9973 0.9791
3.0978 3.7740 -1.9983 0.9791
1.9102 4.2836 -1.9196 0.9799
1.4665 4.2788 -1.8512 0.9806
1.0776 4.3862 -1.8485 0.9807
0.6824 4.4659 -1.8490 0.9807
-0.5243 4.4908 -1.8505 0.9806
-0.9229 4.4273 -1.8509 0.9806
-1.3143 4.3285 -1.8514 0.9806
-1.6954 4.1951 -1.8519 0.9806
-2.0930 4.0864 -1.8791 0.9804
-3.3073 3.6133 -2.0048 0.9791
-4.3672 2.2319 -2.0073 0.9790
-4.5493 1.8338 -2.0075 0.9790
-1.9554 0.2265 -0.8056 0.9915
-1.9876 -0.3055 -0.8230 0.9913
-4.7629 -1.1747 -2.0077 0.9790
-4.6389 -1.5945 -2.0076 0.9790
-3.4935 -3.4387 -2.0062 0.9790
-3.1723 -3.7358 -2.0059 0.9790
-2.8260 -4.0029 -2.0054 0.9790
-2.4573 -4.2380 -2.0050 0.9790
4.2725 1.6557 -1.9969 0.9802
3.9113 2.3887 -1.9974 0.9802
3.4258 3.0463 -1.9979 0.9802
3.1411 3.3402 -1.9983 0.9802
2.8313 3.6077 -1.9987 0.9802
2.4988 3.8465 -1.9990 0.9802
1.7706 4.2166 -1.9931 0.9802
1.3540 4.2523 -1.9449 0.9807
0.5517 4.2293 -1.8588 0.9816
0.1715 4.2406 -1.8496 0.9817
-2.1783 4.0325 -1.9975 0.9802
-2.5336 3.8290 -2.0010 0.9802
-3.7225 2.7091 -2.0065 0.9801
-3.9498 2.3667 -2.0068 0.9801
-4.3083 1.6279 -2.0072 0.9801
-1.5628 0.4358 -0.7071 0.9929
-1.5021 -0.2647 -0.6647 0.9934
-1.5576 -0.4206 -0.7031 0.9930
-1.5975 -0.5886 -0.7420 0.9926
-3.9693 -2.3340 -2.0068 0.9801
-3.7449 -2.6783 -2.0065 0.9801
-3.2086 -3.2998 -2.0059 0.9801
-2.5705 -3.8158 -2.0051 0.9801
-1.0734 -4.4697 -2.0034 0.9801
-0.6705 -4.5465 -2.0029 0.9801
0.1477 -4.5911 -2.0019 0.9802
0.9603 -4.4896 -2.0009 0.9802
1.3565 -4.3851 -2.0004 0.9802
1.7417 -4.2457 -2.0000 0.9802
2.1128 -4.0726 -1.9995 0.9802
2.4670 -3.8672 -1.9991 0.9802
2.8014 -3.6311 -1.9987 0.9802
3.4006 -3.0746 -1.9980 0.9802
3.6606 -2.7588 -1.9977 0.9802
4.2587 -1.6910 -1.9970 0.9802
4.4907 -0.9075 -1.9967 0.9802
4.5536 -0.5035 -1.9966 0.9802
4.5802 -0.0955 -1.9966 0.9802
4.5705 0.3133 -1.9966 0.9802
4.5245 0.7196 -1.9966 0.9802
4.4425 1.1202 -1.9967 0.9802
4.3253 1.5120 -1.9969 0.9802
4.1736 1.8918 -1.9971 0.9802
2.9500 3.5108 -1.9985 0.9802
2.2778 3.9759 -1.9970 0.9802
0.3131 4.2321 -1.8495 0.9817
-0.0656 4.2442 -1.8499 0.9816
-0.4438 4.2225 -1.8504 0.9816
-1.2038 4.1351 -1.8770 0.9814
-1.6048 4.1061 -1.9213 0.9809
-2.0265 4.0711 -1.9819 0.9804
-2.7469 3.6861 -2.0035 0.9801
-3.0680 3.4303 -2.0057 0.9801
-3.3623 3.1437 -2.0061 0.9801
-3.8683 2.4972 -2.0067 0.9801
-4.0761 2.1426 -2.0069 0.9801
-1.5807 0.4983 -0.7223 0.9928
-1.5286 0.0574 -0.6666 0.9933
-1.5295 -0.0792 -0.6675 0.9933
-3.5892 -2.8830 -2.0064 0.9801
-3.0190 -3.4734 -2.0057 0.9801
-2.6968 -3.7281 -2.0053 0.9801
-2.3531 -3.9529 -2.0049 0.9801
-1.6129 -4.3061 -2.0040 0.9801
0.4037 -4.5749 -2.0016 0.9802
1.5990 -4.3019 -2.0002 0.9802
2.6788 -3.7229 -1.9989 0.9802
2.9995 -3.4686 -1.9985 0.9802
3.2962 -3.1867 -1.9981 0.9802
3.5666 -2.8797 -1.9978 0.9802
4.2000 -1.8324 -1.9970 0.9802
4.4580 -1.0571 -1.9967 0.9802
4.5342 -0.6553 -1.9966 0.9802
4.5745 -0.2484 -1.9966 0.9802
4.5784 0.1604 -1.9966 0.9802
4.3732 1.3666 -1.9968 0.9802
4.0617 2.1220 -1.9972 0.9802
3.0654 3.4101 -1.9984 0.9802
2.7497 3.6705 -1.9987 0.9802
2.4108 3.9000 -1.9982 0.9802
2.0502 4.0930 -1.9951 0.9802
1.2489 4.2499 -1.9305 0.9809
0.8440 4.2389 -1.8836 0.9813
0.0763 4.2436 -1.8497 0.9817
-0.3025 4.2346 -1.8502 0.9816
-0.6790 4.1917 -1.8506 0.9816
-1.0579 4.1451 -1.8644 0.9815
-2.2693 3.9843 -1.9983 0.9802
-2.6203 3.7730 -2.0020 0.9802
-3.7826 2.6249 -2.0066 0.9801
-4.0021 2.2775 -2.0068 0.9801
-4.1897 1.9118 -2.0070 0.9801
-1.5084 0.2438 -0.6659 0.9934
-1.5248 -0.1647 -0.6684 0.9933
-1.5710 -0.4623 -0.7137 0.9929
-3.6837 -2.7616 -2.0065 0.9801
-3.4223 -3.0786 -2.0062 0.9801
-3.1336 -3.3709 -2.0058 0.9801
-2.8200 -3.6362 -2.0054 0.9801
-2.4841 -3.8724 -2.0050 0.9801
-2.1285 -4.0776 -2.0046 0.9801
-1.3697 -4.3888 -2.0037 0.9801
-0.9727 -4.4924 -2.0032 0.9801
-0.5682 -4.5601 -2.0027 0.9801
-0.1593 -4.5915 -2.0023 0.9802
0.6585 -4.5446 -2.0013 0.9802
2.8821 -3.5671 -1.9986 0.9802
3.7215 -2.6758 -1.9976 0.9802
3.9448 -2.3330 -1.9973 0.9802
4.1366 -1.9717 -1.9971 0.9802
4.2955 -1.5949 -1.9969 0.9802
4.5812 0.0074 -1.9966 0.9802
4.1302 1.9851 -1.9971 0.9802
3.1774 3.3055 -1.9982 0.9802
2.8706 3.5763 -1.9986 0.9802
2.1870 4.0244 -1.9962 0.9802
1.4059 4.2535 -1.9524 0.9806
0.5991 4.2309 -1.8623 0.9815
-0.5386 4.2117 -1.8505 0.9816
-0.9142 4.1571 -1.8550 0.9816
-1.3031 4.1282 -1.8866 0.9813
-2.4910 3.8556 -2.0005 0.9802
-3.1444 3.3607 -2.0058 0.9801
-3.4322 3.0675 -2.0061 0.9801
-3.9236 2.4098 -2.0067 0.9801
-4.1233 2.0506 -2.0070 0.9801
-4.2902 1.6750 -2.0072 0.9801
-1.5254 0.1598 -0.6684 0.9933
-1.5254 0.0230 -0.6649 0.9934
-1.5292 -0.1137 -0.6683 0.9933
-1.5071 -0.2486 -0.6657 0.9934
-4.1835 -1.9253 -2.0071 0.9801
-3.9947 -2.2904 -2.0068 0.9801
-3.2447 -3.2645 -2.0059 0.9801
-2.9401 -3.5402 -2.0056 0.9801
-2.6122 -3.7875 -2.0052 0.9801
-2.2637 -4.0045 -2.0048 0.9801
-1.8972 -4.1895 -2.0043 0.9801
-1.5157 -4.3410 -2.0039 0.9801
-1.1224 -4.4578 -2.0034 0.9801
1.3084 -4.3998 -2.0005 0.9802
2.0681 -4.0956 -1.9996 0.9802
3.0765 -3.4002 -1.9984 0.9802
4.4805 -0.9567 -1.9967 0.9802
4.5478 -0.5533 -1.9966 0.9802
4.5789 -0.1456 -1.9966 0.9802
4.5321 0.6700 -1.9966 0.9802
4.4545 1.0715 -1.9967 0.9802
3.8004 2.5621 -1.9975 0.9802
3.5573 2.8912 -1.9978 0.9802
2.9882 3.4782 -1.9985 0.9802
2.6667 3.7315 -1.9988 0.9802
1.5665 4.2566 -1.9768 0.9804
0.7449 4.2358 -1.8743 0.9814
-0.7730 4.1757 -1.8508 0.9816
-1.5546 4.1099 -1.9150 0.9810
-2.3592 3.9340 -1.9992 0.9802
-2.7057 3.7150 -2.0030 0.9801
-3.8407 2.5394 -2.0066 0.9801
-4.0523 2.1871 -2.0069 0.9801
-4.2317 1.8173 -2.0071 0.9801
-1.5855 0.5190 -0.7271 0.9927
-1.5168 0.2103 -0.6674 0.9933
-1.5288 -0.0624 -0.6669 0.9933
-1.5192 -0.1987 -0.6677 0.9933
-1.5256 -0.3401 -0.6812 0.9932
-1.5822 -0.5044 -0.7237 0.9928
-4.2456 -1.7846 -2.0071 0.9801
-4.0692 -2.1558 -2.0069 0.9801
-3.3521 -3.1545 -2.0061 0.9801
-1.6600 -4.2883 -2.0041 0.9801
-1.2708 -4.4182 -2.0036 0.9801
-0.8716 -4.5128 -2.0031 0.9801
-0.0561 -4.5936 -2.0021 0.9802
0.3536 -4.5792 -2.0016 0.9802
0.7603 -4.5284 -2.0012 0.9802
1.1608 -4.4415 -2.0007 0.9802
1.9303 -4.1628 -1.9998 0.9802
2.2933 -3.9732 -1.9993 0.9802
2.6379 -3.7521 -1.9989 0.9802
2.9614 -3.5013 -1.9985 0.9802
3.2612 -3.2227 -1.9982 0.9802
3.5349 -2.9186 -1.9978 0.9802
4.4461 -1.1058 -1.9967 0.9802
4.5715 -0.2985 -1.9966 0.9802
4.5519 0.5182 -1.9966 0.9802
4.4877 0.9220 -1.9967 0.9802
4.2532 1.7047 -1.9970 0.9802
3.3906 3.0856 -1.9980 0.9802
3.1025 3.3762 -1.9983 0.9802
2.7897 3.6401 -1.9987 0.9802
2.4539 3.8742 -1.9986 0.9802
1.7217 4.2360 -1.9928 0.9802
0.8927 4.2403 -1.8885 0.9813
0.5021 4.2283 -1.8557 0.9816
-0.6331 4.1988 -1.8506 0.9816
-1.0104 4.1482 -1.8607 0.9815
-1.4033 4.1210 -1.8973 0.9812
-2.2250 4.0081 -1.9979 0.9802
-3.5003 2.9898 -2.0062 0.9801
-3.7535 2.6661 -2.0065 0.9801
-3.9768 2.3212 -2.0068 0.9801
-4.1684 1.9575 -2.0070 0.9801
-1.5555 0.4146 -0.7016 0.9930
-1.5286 0.1255 -0.6684 0.9933
-4.3030 -1.6418 -2.0072 0.9801
-4.1391 -2.0187 -2.0070 0.9801
-3.4558 -3.0410 -2.0062 0.9801
-3.1704 -3.3364 -2.0059 0.9801
-1.4178 -4.3737 -2.0038 0.9801
-1.0219 -4.4816 -2.0033 0.9801
-0.2096 -4.5896 -2.0023 0.9802
0.6087 -4.5517 -2.0013 0.9802
1.7903 -4.2253 -1.9999 0.9802
2.1595 -4.0479 -1.9995 0.9802
2.5113 -3.8384 -1.9991 0.9802
3.1519 -3.3301 -1.9983 0.9802
3.4357 -3.0352 -1.9980 0.9802
3.6921 -2.7164 -1.9976 0.9802
3.9190 -2.3761 -1.9974 0.9802
4.1148 -2.0169 -1.9971 0.9802
4.2778 -1.6418 -1.9969 0.9802
4.5008 -0.8558 -1.9967 0.9802
4.5810 -0.0428 -1.9966 0.9802
4.5666 0.3659 -1.9966 0.9802
4.5160 0.7716 -1.9966 0.9802
4.3076 1.5616 -1.9969 0.9802
2.9095 3.5446 -1.9986 0.9802
2.5824 3.7906 -1.9989 0.9802
1.8631 4.1780 -1.9937 0.9802
-0.4924 4.2172 -1.8504 0.9816
-1.2545 4.1316 -1.8818 0.9813
-3.1074 3.3949 -2.0057 0.9801
-3.3983 3.1048 -2.0061 0.9801
-3.6622 2.7899 -2.0064 0.9801
-3.8969 2.4526 -2.0067 0.9801
-4.2715 1.7218 -2.0071 0.9801
-1.5272 0.0398 -0.6658 0.9934
-1.5116 -0.2324 -0.6665 0.9933
-1.5428 -0.3805 -0.6925 0.9931
-1.5911 -0.5469 -0.7333 0.9927
-4.2044 -1.8794 -2.0071 0.9801
-4.0196 -2.2466 -2.0069 0.9801
-3.8028 -2.5957 -2.0066 0.9801
-2.9788 -3.5079 -2.0056 0.9801
4.1459 1.1940 -1.9971 0.9812
3.8686 1.9118 -1.9974 0.9812
3.6831 2.2493 -1.9976 0.9812
3.4683 2.5691 -1.9979 0.9812
3.2259 2.8685 -1.9982 0.9812
2.6660 3.3970 -1.9988 0.9811
2.3529 3.6219 -1.9992 0.9811
2.0210 3.8180 -1.9996 0.9811
0.5491 4.2094 -1.9650 0.9815
0.1696 4.1942 -1.9430 0.9817
-1.7051 3.9665 -1.9985 0.9811
-2.7032 3.3853 -2.0053 0.9811
-3.2626 2.8523 -2.0059 0.9811
-3.5044 2.5504 -2.0062 0.9811
-1.3144 0.2429 -0.6187 0.9941
-1.3371 0.1253 -0.6216 0.9941
-1.3340 0.0055 -0.6175 0.9941
-1.3175 -0.2322 -0.6192 0.9941
-3.9181 -1.8555 -2.0067 0.9811
-3.7367 -2.1972 -2.0065 0.9811
-3.5255 -2.5213 -2.0063 0.9811
-3.2861 -2.8252 -2.0060 0.9811
-3.0207 -3.1065 -2.0057 0.9811
-2.4200 -3.5923 -2.0050 0.9811
-1.0106 -4.2081 -2.0033 0.9811
-0.6312 -4.2805 -2.0028 0.9811
0.9042 -4.2272 -2.0010 0.9811
2.3229 -3.6413 -1.9993 0.9811
2.6379 -3.4191 -1.9989 0.9811
3.2021 -2.8952 -1.9982 0.9812
3.4470 -2.5978 -1.9979 0.9812
4.0103 -1.5923 -1.9973 0.9812
4.2880 -0.4741 -1.9969 0.9812
4.3039 0.2950 -1.9969 0.9812
4.1834 1.0549 -1.9970 0.9812
3.7560 2.1250 -1.9976 0.9812
3.3197 2.7590 -1.9981 0.9812
3.0610 3.0445 -1.9984 0.9812
2.4724 3.5410 -1.9991 0.9811
2.1472 3.7481 -1.9995 0.9811
1.4447 4.0624 -1.9958 0.9812
1.0758 4.1715 -1.9941 0.9812
0.6936 4.2142 -1.9770 0.9814
0.3107 4.2003 -1.9496 0.9816
-2.8883 3.2294 -2.0055 0.9811
-3.4171 2.6659 -2.0061 0.9811
-1.3004 0.2855 -0.6163 0.9941
-1.3312 0.1697 -0.6212 0.9941
-1.3384 -0.0693 -0.6204 0.9941
-1.3278 -0.1885 -0.6208 0.9941
-3.3789 -2.7140 -2.0061 0.9811
-2.5388 -3.5097 -2.0051 0.9811
-2.2154 -3.7214 -2.0047 0.9811
-1.8743 -3.9033 -2.0043 0.9811
-1.5185 -4.0541 -2.0039 0.9811
1.1387 -4.1696 -2.0007 0.9811
2.2002 -3.7172 -1.9994 0.9811
2.5223 -3.5055 -1.9990 0.9811
2.8243 -3.2661 -1.9987 0.9811
3.9550 -1.7255 -1.9973 0.9812
4.0927 -1.3658 -1.9972 0.9812
4.1979 -0.9954 -1.9970 0.9812
4.3077 -0.2339 -1.9969 0.9812
4.1181 1.2869 -1.9971 0.9812
3.9873 1.6491 -1.9973 0.9812
3.8247 1.9982 -1.9975 0.9812
3.4099 2.6464 -1.9980 0.9812
3.1608 2.9404 -1.9983 0.9812
2.8865 3.2110 -1.9986 0.9811
2.5891 3.4562 -1.9989 0.9811
1.5803 4.0135 -1.9966 0.9812
0.4528 4.2060 -1.9582 0.9815
0.0753 4.1899 -1.9398 0.9817
-0.2980 4.1713 -1.9357 0.9817
-0.6723 4.1500 -1.9460 0.9816
-1.0529 4.1256 -1.9709 0.9814
-2.1406 3.7584 -2.0021 0.9811
-3.5609 2.4711 -2.0063 0.9811
-3.7675 2.1440 -2.0065 0.9811
-1.3115 0.3342 -0.6265 0.9941
-1.3222 0.2137 -0.6200 0.9941
-1.3088 -0.2611 -0.6178 0.9941
-3.4678 -2.5998 -2.0062 0.9811
-3.2217 -2.8982 -2.0059 0.9811
-2.9500 -3.1734 -2.0056 0.9811
-2.6549 -3.4232 -2.0052 0.9811
-2.3386 -3.6456 -2.0049 0.9811
-2.0038 -3.8388 -2.0045 0.9811
-0.9158 -4.2296 -2.0032 0.9811
-0.1499 -4.3230 -2.0022 0.9811
0.6200 -4.2789 -2.0013 0.9811
0.9988 -4.2056 -2.0009 0.9811
1.7292 -3.9596 -2.0000 0.9811
2.0749 -3.7889 -1.9996 0.9811
2.7139 -3.3588 -1.9988 0.9811
3.2662 -2.8224 -1.9982 0.9812
3.8952 -1.8567 -1.9974 0.9812
4.0449 -1.5018 -1.9972 0.9812
4.3140 0.0070 -1.9969 0.9812
4.2443 0.7731 -1.9970 0.9812
4.1587 1.1485 -1.9971 0.9812
4.0400 1.5149 -1.9972 0.9812
3.8892 1.8693 -1.9974 0.9812
3.7075 2.2088 -1.9976 0.9812
3.4962 2.5309 -1.9979 0.9812
3.2571 2.8330 -1.9981 0.9812
2.7030 3.3675 -1.9988 0.9811
2.3924 3.5958 -1.9992 0.9811
2.0626 3.7955 -1.9996 0.9811
1.7142 3.9601 -1.9975 0.9812
-0.1585 4.1786 -1.9356 0.9817
-2.3496 3.6369 -2.0042 0.9811
-2.6659 3.4146 -2.0052 0.9811
-2.9602 3.1638 -2.0056 0.9811
-3.8816 1.9304 -2.0067 0.9811
-1.3233 0.3847 -0.6379 0.9939
-1.3355 0.0201 -0.6183 0.9941
-1.3334 -0.4748 -0.6552 0.9938
-1.3139 -0.6047 -0.6695 0.9936
-3.3170 -2.7891 -2.0060 0.9811
-3.0546 -3.0733 -2.0057 0.9811
-1.0567 -4.1969 -2.0033 0.9811
0.0917 -4.3240 -2.0020 0.9811
0.4767 -4.2976 -2.0015 0.9811
0.8578 -4.2370 -2.0010 0.9811
1.2319 -4.1427 -2.0006 0.9811
1.5961 -4.0155 -2.0002 0.9811
2.2830 -3.6667 -1.9993 0.9811
3.1703 -2.9302 -1.9983 0.9812
3.4184 -2.6354 -1.9980 0.9812
3.6393 -2.3198 -1.9977 0.9812
3.8312 -1.9859 -1.9975 0.9812
4.1223 -1.2736 -1.9971 0.9812
4.3069 0.2479 -1.9969 0.9812
4.2678 0.6309 -1.9969 0.9812
4.0883 1.3791 -1.9972 0.9812
3.9493 1.7382 -1.9973 0.9812
3.0941 3.0107 -1.9983 0.9812
2.8138 3.2752 -1.9987 0.9811
0.3572 4.2023 -1.9522 0.9816
-0.7672 4.1441 -1.9508 0.9816
-1.1503 4.1189 -1.9795 0.9813
-1.5265 4.0357 -1.9973 0.9812
-2.8527 3.2608 -2.0054 0.9811
-3.3876 2.7031 -2.0061 0.9811
-3.8148 2.0589 -2.0066 0.9811
-1.3315 0.4359 -0.6485 0.9938
-1.3017 0.3008 -0.6184 0.9941
-1.3383 0.0650 -0.6202 0.9941
-1.3299 -0.4240 -0.6461 0.9939
-1.3250 -0.5569 -0.6653 0.9937
-3.8307 -2.0294 -2.0066 0.9811
-3.4085 -2.6769 -2.0061 0.9811
-3.1557 -2.9697 -2.0058 0.9811
-2.2560 -3.6970 -2.0048 0.9811
-1.5629 -4.0373 -2.0039 0.9811
-0.8206 -4.2488 -2.0030 0.9811
0.3329 -4.3115 -2.0017 0.9811
0.7159 -4.2637 -2.0012 0.9811
1.0929 -4.1819 -2.0008 0.9811
1.4611 -4.0669 -2.0003 0.9811
2.1594 -3.7412 -1.9995 0.9811
2.4839 -3.5330 -1.9991 0.9811
2.7885 -3.2969 -1.9987 0.9811
3.0708 -3.0346 -1.9984 0.9812
3.3286 -2.7483 -1.9981 0.9812
3.5599 -2.4402 -1.9978 0.9812
3.7629 -2.1128 -1.9976 0.9812
4.2628 -0.6638 -1.9970 0.9812
4.3049 -0.2811 -1.9969 0.9812
4.3128 0.1038 -1.9969 0.9812
4.2864 0.4880 -1.9969 0.9812
4.1319 1.2417 -1.9971 0.9812
3.6570 2.2916 -1.9977 0.9812
3.1927 2.9055 -1.9982 0.9812
2.9214 3.1791 -1.9985 0.9811
1.6243 3.9965 -1.9969 0.9812
0.8872 4.2142 -1.9935 0.9812
0.4997 4.2077 -1.9614 0.9815
-0.2522 4.1737 -1.9355 0.9817
-0.6261 4.1527 -1.9440 0.9817
-1.0057 4.1287 -1.9670 0.9814
-1.7509 3.9473 -1.9988 0.9811
-2.0989 3.7809 -2.0017 0.9811
-2.4316 3.5845 -2.0049 0.9811
-2.7420 3.3540 -2.0053 0.9811
-3.0307 3.0967 -2.0057 0.9811
-3.5336 2.5099 -2.0063 0.9811
-3.7438 2.1851 -2.0065 0.9811
-1.3330 0.4862 -0.6568 0.9938
-1.3186 0.2280 -0.6194 0.9941
-1.3345 -0.0098 -0.6177 0.9941
-1.3132 -0.2470 -0.6185 0.9941
-1.3315 -0.5080 -0.6597 0.9937
-3.7111 -2.2400 -2.0065 0.9811
-3.4962 -2.5617 -2.0062 0.9811
-2.6923 -3.3940 -2.0053 0.9811
-2.0458 -3.8168 -2.0045 0.9811
-1.6970 -3.9831 -2.0041 0.9811
-0.9621 -4.2194 -2.0032 0.9811
-0.1973 -4.3212 -2.0023 0.9811
0.1887 -4.3206 -2.0018 0.9811
1.3246 -4.1138 -2.0005 0.9811
1.6857 -3.9784 -2.0001 0.9811
2.0333 -3.8115 -1.9996 0.9811
2.3646 -3.6143 -1.9992 0.9811
2.9679 -3.1357 -1.9985 0.9811
3.2352 -2.8581 -1.9982 0.9812
4.0283 -1.5461 -1.9972 0.9812
4.1498 -1.1806 -1.9971 0.9812
4.3003 0.3445 -1.9969 0.9812
4.2525 0.7266 -1.9970 0.9812
4.1710 1.1029 -1.9971 0.9812
3.7314 2.1680 -1.9976 0.9812
3.2878 2.7971 -1.9981 0.9812
3.0258 3.0796 -1.9984 0.9812
2.7396 3.3377 -1.9988 0.9811
1.0277 4.1832 -1.9939 0.9812
0.6436 4.2126 -1.9726 0.9814
0.2620 4.1983 -1.9471 0.9816
-0.1127 4.1809 -1.9360 0.9817
-0.4858 4.1609 -1.9391 0.9817
-0.8626 4.1381 -1.9566 0.9815
-1.2486 4.1120 -1.9892 0.9812
-1.9703 3.8467 -2.0006 0.9811
-2.3092 3.6616 -2.0038 0.9811
-3.1992 2.9229 -2.0059 0.9811
-3.6685 2.3089 -2.0064 0.9811
-3.8602 1.9728 -2.0067 0.9811
-1.3284 0.5355 -0.6630 0.9937
-1.3264 0.4014 -0.6415 0.9939
-1.3056 0.2709 -0.6172 0.9941
-1.3368 0.0348 -0.6190 0.9941
-1.3246 -0.2036 -0.6203 0.9941
-1.3336 -0.4584 -0.6528 0.9938
-3.7840 -2.1149 -2.0066 0.9811
-3.3474 -2.7527 -2.0061 0.9811
-3.0881 -3.0397 -2.0058 0.9811
-2.8043 -3.3024 -2.0054 0.9811
-2.4982 -3.5386 -2.0050 0.9811
-2.1723 -3.7466 -2.0047 0.9811
3.9976 0.7735 -1.9973 0.9820
3.9129 1.1269 -1.9974 0.9820
3.7971 1.4714 -1.9975 0.9820
3.6511 1.8043 -1.9977 0.9820
3.4760 2.1229 -1.9979 0.9820
3.2733 2.4246 -1.9981 0.9820
2.5160 3.2059 -1.9990 0.9820
2.2205 3.4181 -1.9994 0.9820
1.9073 3.6031 -1.9998 0.9820
0.1645 4.0662 -1.9962 0.9820
-0.1988 4.0650 -1.9964 0.9820
-0.5606 4.0324 -1.9970 0.9820
-0.9185 3.9687 -1.9982 0.9820
-2.2553 3.4083 -2.0047 0.9820
-2.5506 3.1942 -2.0051 0.9820
-2.8258 2.9546 -2.0054 0.9820
-3.3066 2.4064 -2.0060 0.9819
-1.1781 0.2177 -0.5877 0.9947
-1.1936 0.1118 -0.5880 0.9947
-1.1549 -0.4255 -0.6037 0.9945
-1.1361 -0.5380 -0.6166 0.9944
-3.5257 -2.0732 -2.0063 0.9819
-3.3264 -2.3790 -2.0060 0.9819
-3.1006 -2.6658 -2.0058 0.9819
-2.8502 -2.9312 -2.0055 0.9819
-2.5771 -3.1731 -2.0051 0.9820
-1.9718 -3.5791 -2.0044 0.9820
-1.3042 -3.8709 -2.0036 0.9820
-0.9537 -3.9709 -2.0032 0.9820
0.4943 -4.0502 -2.0015 0.9820
0.8533 -3.9892 -2.0010 0.9820
1.2053 -3.8964 -2.0006 0.9820
2.1922 -3.4365 -1.9994 0.9820
2.7668 -2.9914 -1.9988 0.9820
3.4584 -2.1516 -1.9979 0.9820
3.6361 -1.8344 -1.9977 0.9820
3.7848 -1.5028 -1.9975 0.9820
3.9034 -1.1593 -1.9974 0.9820
3.9911 -0.8066 -1.9973 0.9820
4.0469 -0.4475 -1.9972 0.9820
4.0706 -0.0849 -1.9972 0.9820
4.0620 0.2784 -1.9972 0.9820
4.0211 0.6395 -1.9972 0.9820
3.9482 0.9956 -1.9973 0.9820
3.7092 1.6812 -1.9976 0.9820
3.5448 2.0055 -1.9978 0.9820
3.1330 2.6038 -1.9983 0.9820
2.8888 2.8732 -1.9986 0.9820
2.3333 3.3418 -1.9992 0.9820
1.0172 3.9441 -1.9980 0.9820
0.6611 4.0169 -1.9969 0.9820
0.3002 4.0587 -1.9963 0.9820
-0.0629 4.0691 -1.9962 0.9820
-0.4255 4.0483 -1.9967 0.9820
-1.1392 3.9132 -1.9992 0.9820
-1.4851 3.7999 -2.0012 0.9820
-2.1400 3.4815 -2.0046 0.9820
-2.9866 2.7924 -2.0056 0.9819
-3.2242 2.5154 -2.0059 0.9819
-3.4360 2.2182 -2.0061 0.9819
-1.1203 0.5889 -0.6208 0.9944
-1.1689 0.2566 -0.5870 0.9947
-1.1893 0.1517 -0.5881 0.9947
-1.1964 0.0449 -0.5873 0.9947
-1.1962 -0.0619 -0.5876 0.9947
-1.1644 -0.2730 -0.5867 0.9947
-1.1580 -0.3832 -0.5983 0.9946
-1.1449 -0.4961 -0.6121 0.9945
-3.4042 -2.2666 -2.0061 0.9819
-3.1881 -2.5608 -2.0059 0.9819
-1.4329 -3.8254 -2.0038 0.9820
-0.0051 -4.0815 -2.0021 0.9820
0.3587 -4.0648 -2.0016 0.9820
0.7196 -4.0158 -2.0012 0.9820
2.3804 -3.3083 -1.9992 0.9820
2.6655 -3.0823 -1.9989 0.9820
2.9292 -2.8319 -1.9986 0.9820
3.5729 -1.9550 -1.9978 0.9820
3.7326 -1.6285 -1.9976 0.9820
3.8626 -1.2890 -1.9974 0.9820
3.9620 -0.9395 -1.9973 0.9820
4.0690 0.1426 -1.9972 0.9820
3.7631 1.5564 -1.9975 0.9820
2.9830 2.7750 -1.9985 0.9820
2.4435 3.2617 -1.9991 0.9820
1.8259 3.6452 -1.9999 0.9820
1.4940 3.7943 -2.0002 0.9820
1.1487 3.9090 -1.9985 0.9820
0.4357 4.0467 -1.9965 0.9820
-0.2900 4.0597 -1.9965 0.9820
-0.6511 4.0193 -1.9973 0.9820
-1.6963 3.7139 -2.0028 0.9820
-2.0224 3.5508 -2.0045 0.9820
-2.8915 2.8905 -2.0055 0.9819
-3.1382 2.6215 -2.0058 0.9819
-3.3599 2.3316 -2.0061 0.9819
-3.5548 2.0230 -2.0063 0.9819
-1.1564 0.4075 -0.6014 0.9946
-1.1578 0.2950 -0.5861 0.9947
-1.1832 0.1912 -0.5879 0.9947
-1.1954 0.0850 -0.5878 0.9947
-1.1962 -0.0219 -0.5869 0.9947
-1.1920 -0.1288 -0.5881 0.9947
-1.1289 -0.5660 -0.6195 0.9944
-3.4782 -2.1518 -2.0062 0.9819
-3.2721 -2.4530 -2.0060 0.9819
-2.7835 -2.9943 -2.0054 0.9820
-2.5050 -3.2300 -2.0051 0.9820
-2.2067 -3.4399 -2.0047 0.9820
-1.5600 -3.7757 -2.0039 0.9820
-1.2169 -3.8990 -2.0035 0.9820
-0.5048 -4.0514 -2.0027 0.9820
0.2227 -4.0749 -2.0018 0.9820
0.5851 -4.0379 -2.0014 0.9820
1.6318 -3.7367 -2.0001 0.9820
2.2687 -3.3862 -1.9994 0.9820
2.5612 -3.1699 -1.9990 0.9820
3.0825 -2.6637 -1.9984 0.9820
3.5057 -2.0733 -1.9979 0.9820
3.6762 -1.7523 -1.9977 0.9820
3.8175 -1.4174 -1.9975 0.9820
3.9284 -1.0713 -1.9974 0.9820
4.0081 -0.7167 -1.9973 0.9820
4.0559 -0.3565 -1.9972 0.9820
3.0739 2.6736 -1.9984 0.9820
2.8237 2.9375 -1.9987 0.9820
2.5509 3.1781 -1.9990 0.9820
2.2578 3.3935 -1.9993 0.9820
1.2790 3.8696 -1.9991 0.9820
0.5707 4.0303 -1.9967 0.9820
0.2090 4.0642 -1.9962 0.9820
-0.5164 4.0381 -1.9969 0.9820
-2.7932 2.9853 -2.0054 0.9820
-3.0487 2.7248 -2.0057 0.9819
-3.2800 2.4424 -2.0060 0.9819
-1.1300 0.5620 -0.6191 0.9944
-1.1521 0.4498 -0.6067 0.9945
-1.1753 0.2305 -0.5875 0.9947
-1.1952 -0.0888 -0.5879 0.9947
-1.1825 -0.1951 -0.5879 0.9947
-1.1561 -0.4116 -0.6020 0.9945
-1.1392 -0.5243 -0.6152 0.9944
-3.5483 -2.0344 -2.0063 0.9819
-2.8822 -2.8998 -2.0055 0.9819
-0.6399 -4.0326 -2.0028 0.9820
0.0865 -4.0804 -2.0020 0.9820
0.4499 -4.0555 -2.0015 0.9820
1.1626 -3.9095 -2.0007 0.9820
1.5062 -3.7895 -2.0003 0.9820
2.4540 -3.2539 -1.9991 0.9820
3.4347 -2.1894 -1.9980 0.9820
3.6158 -1.8742 -1.9977 0.9820
3.7682 -1.5442 -1.9976 0.9820
3.9820 -0.8502 -1.9973 0.9820
4.0648 0.2339 -1.9972 0.9820
3.8584 1.3015 -1.9974 0.9820
3.7273 1.6405 -1.9976 0.9820
2.6555 3.0909 -1.9989 0.9820
2.3697 3.3159 -1.9992 0.9820
1.4081 3.8261 -1.9998 0.9820
0.7051 4.0096 -1.9970 0.9820
0.3447 4.0552 -1.9963 0.9820
-0.3811 4.0525 -1.9966 0.9820
-0.7413 4.0042 -1.9975 0.9820
-1.4432 3.8154 -2.0010 0.9820
-1.7798 3.6760 -2.0034 0.9820
