ply
format ascii 1.0
element vertex 1571
property float32 x
property float32 y
property float32 z
property float32 I
end_header
-6.3780 10.4148 -1.1725 0.9521
-9.1782 10.2942 -1.3241 0.9461
-10.9657 10.2837 -1.4433 0.9414
-13.1196 10.2662 -1.5993 0.9352
-17.6533 7.3804 -1.8370 0.9260
-18.2465 5.7777 -1.8375 0.9260
-18.6955 4.1282 -1.8381 0.9259
-12.9435 -14.8733 -1.8929 0.9238
-11.3141 -15.6223 -1.8518 0.9254
-9.8817 -16.5801 -1.8530 0.9254
-0.0286 -19.3672 -1.8593 0.9251
1.7000 -19.3010 -1.8602 0.9251
9.8850 -16.6977 -1.8629 0.9250
12.5538 11.7034 -1.6477 0.9334
12.8563 14.3339 -1.8485 0.9255
11.5187 15.4136 -1.8473 0.9256
6.4024 10.3855 -1.1713 0.9522
3.0307 10.3656 -1.0368 0.9575
0.1698 10.3216 -0.9911 0.9594
-0.7533 10.3179 -0.9932 0.9593
-1.6888 10.3199 -1.0039 0.9588
-2.6541 10.3279 -1.0238 0.9581
-7.1856 10.3058 -1.2062 0.9508
-12.3511 10.2757 -1.5425 0.9375
-16.6448 9.4258 -1.8364 0.9260
-18.0635 6.3208 -1.8373 0.9260
-11.7742 -15.2732 -1.8514 0.9254
-10.3714 -16.2733 -1.8526 0.9254
-8.8839 -17.1446 -1.8538 0.9253
-7.3235 -17.8798 -1.8550 0.9253
-5.7026 -18.4729 -1.8561 0.9253
-0.6084 -19.3546 -1.8591 0.9251
2.8434 -19.1713 -1.8607 0.9251
4.5440 -18.8480 -1.8613 0.9250
6.2094 -18.3733 -1.8619 0.9250
7.8257 -17.7507 -1.8624 0.9250
9.3801 -16.9852 -1.8628 0.9250
6.8415 10.3881 -1.1942 0.9512
2.7754 5.1653 -0.5629 0.9767
4.4316 10.3739 -1.0830 0.9557
15.7840 6.0148 -2.0064 0.9342
10.7245 11.2824 -1.8490 0.9392
2.7678 5.1635 -0.6959 0.9767
1.4038 10.3562 -1.2414 0.9588
-0.4548 10.3453 -1.2301 0.9591
-2.3392 10.3343 -1.2586 0.9582
-4.3796 10.3223 -1.3319 0.9558
-5.5102 10.3157 -1.3892 0.9540
-11.6066 10.2390 -1.8385 0.9396
-13.9082 6.8023 -1.8391 0.9395
-14.9023 4.2242 -1.8399 0.9395
-16.4770 3.1156 -1.9919 0.9347
-16.7799 0.1379 -1.9933 0.9346
-16.7319 -1.3602 -1.9941 0.9346
-16.2381 -4.3158 -1.9958 0.9346
-15.7959 -5.7500 -1.9968 0.9345
-15.2275 -7.1398 -1.9978 0.9345
-13.7304 -9.7424 -1.9998 0.9344
-12.8133 -10.9343 -2.0009 0.9344
-11.7930 -12.0402 -2.0020 0.9344
-10.6776 -13.0513 -2.0030 0.9343
-9.4757 -13.9592 -2.0041 0.9343
-5.0497 -14.8215 -1.8600 0.9389
-3.6982 -15.1755 -1.8554 0.9390
0.4529 -15.6323 -1.8577 0.9389
1.8463 -15.5349 -1.8583 0.9389
6.0151 -14.7891 -1.8965 0.9377
11.4762 -12.4776 -2.0137 0.9340
13.5101 -10.2388 -2.0136 0.9340
16.2267 -4.8632 -2.0122 0.9340
16.8225 -1.9009 -2.0110 0.9341
15.9597 5.5405 -2.0068 0.9342
15.3941 6.9388 -2.0058 0.9342
14.7062 8.2802 -2.0048 0.9343
13.9016 9.5542 -2.0037 0.9343
11.9994 9.9331 -1.8504 0.9392
7.2830 10.3908 -1.5073 0.9502
5.9726 10.3831 -1.4229 0.9529
4.7923 10.3761 -1.3576 0.9550
1.7213 10.3581 -1.2473 0.9586
-2.0163 10.3361 -1.2509 0.9585
-2.9928 10.3304 -1.2776 0.9576
-4.0201 10.3244 -1.3161 0.9564
-7.6602 10.3032 -1.5251 0.9496
-9.1875 10.2943 -1.6390 0.9459
-12.9974 8.4073 -1.8387 0.9396
-16.7629 -0.8585 -1.9938 0.9346
-16.3575 -3.8272 -1.9955 0.9346
-15.9583 -5.2737 -1.9965 0.9345
-15.4318 -6.6796 -1.9974 0.9345
-14.0134 -9.3253 -1.9995 0.9344
-13.1326 -10.5439 -2.0005 0.9344
-12.1460 -11.6797 -2.0016 0.9344
-11.0615 -12.7235 -2.0027 0.9343
-9.8876 -13.6669 -2.0037 0.9343
-8.6239 -14.4861 -2.0026 0.9343
-4.1502 -15.0556 -1.8551 0.9390
-2.7917 -15.3728 -1.8559 0.9390
-1.4098 -15.5671 -1.8567 0.9390
1.3802 -15.5815 -1.8581 0.9389
2.7657 -15.4012 -1.8587 0.9389
5.5066 -14.7931 -1.8750 0.9384
7.0979 -14.8574 -1.9559 0.9358
8.6419 -14.5813 -2.0134 0.9340
11.0974 -12.8155 -2.0137 0.9340
12.1966 -11.7744 -2.0137 0.9340
13.1978 -10.6389 -2.0137 0.9340
16.7599 -2.4040 -2.0112 0.9341
16.7791 2.1174 -2.0089 0.9341
16.1210 5.0610 -2.0071 0.9342
10.3859 11.5911 -1.8487 0.9392
9.3055 12.4649 -1.8477 0.9393
6.3953 10.3856 -1.4488 0.9521
5.1758 10.3784 -1.3776 0.9544
2.0421 10.3599 -1.2543 0.9584
1.0942 10.3544 -1.2368 0.9589
-4.7419 10.3202 -1.3491 0.9553
-5.9651 10.4174 -1.4259 0.9528
-10.3420 10.2876 -1.7328 0.9429
-12.7394 8.7923 -1.8387 0.9396
-13.4747 7.6217 -1.8389 0.9395
-16.5633 2.6294 -1.9921 0.9347
-16.7374 1.1417 -1.9928 0.9347
-16.7788 -0.3562 -1.9935 0.9346
-16.1065 -4.7928 -1.9961 0.9345
-15.6223 -6.2136 -1.9971 0.9345
-12.4880 -11.3088 -2.0013 0.9344
-9.0621 -14.2346 -2.0044 0.9343
-7.6618 -14.8041 -1.9801 0.9351
-6.0587 -14.8129 -1.9011 0.9376
-4.5984 -14.9223 -1.8548 0.9390
-3.2503 -15.2800 -1.8557 0.9390
2.3031 -15.4755 -1.8585 0.9389
8.1880 -14.8091 -2.0101 0.9341
10.7086 -13.1418 -2.0137 0.9340
12.8736 -11.0295 -2.0137 0.9340
13.8052 -9.8363 -2.0135 0.9340
14.6260 -8.5644 -2.0133 0.9340
16.3614 -4.3830 -2.0120 0.9340
16.8373 1.6144 -2.0092 0.9341
15.7871 6.0070 -2.0064 0.9342
15.1806 7.3877 -2.0054 0.9343
13.6119 9.9576 -2.0034 0.9343
10.7302 11.2771 -1.8491 0.9392
9.6762 12.1829 -1.8481 0.9393
6.8341 10.3882 -1.4771 0.9511
2.7714 5.1641 -0.6962 0.9767
4.4255 10.3740 -1.3397 0.9556
3.3656 10.3677 -1.2948 0.9570
2.0628 9.0308 -1.1004 0.9634
1.4091 10.3562 -1.2415 0.9588
0.4754 10.3507 -1.2308 0.9591
-1.3809 10.3399 -1.2391 0.9589
-2.3337 10.3343 -1.2585 0.9582
-3.3248 10.3285 -1.2889 0.9572
-4.3735 10.3224 -1.3317 0.9558
-5.5036 10.3158 -1.3889 0.9540
-6.7454 10.3085 -1.4634 0.9516
-8.1398 10.3004 -1.5595 0.9485
-11.6015 10.2447 -1.8385 0.9396
-13.2398 8.0213 -1.8388 0.9395
-13.9048 6.8092 -1.8391 0.9395
-14.4597 5.5427 -1.8395 0.9395
-16.4754 3.1238 -1.9919 0.9347
-16.6938 1.6421 -1.9926 0.9347
-16.7798 0.1463 -1.9933 0.9346
-15.7987 -5.7421 -1.9968 0.9345
-15.2310 -7.1322 -1.9978 0.9345
-14.5414 -8.4669 -1.9988 0.9345
-13.7352 -9.7355 -1.9998 0.9344
-10.6840 -13.0459 -2.0030 0.9343
-9.4826 -13.9545 -2.0041 0.9343
-8.1795 -14.7082 -1.9991 0.9345
-6.5815 -14.8094 -1.9250 0.9368
-5.0578 -14.8212 -1.8602 0.9389
-3.7057 -15.1736 -1.8554 0.9390
-2.3383 -15.4505 -1.8562 0.9390
-0.9509 -15.6039 -1.8570 0.9390
1.8386 -15.5358 -1.8583 0.9389
4.5729 -14.9704 -1.8594 0.9389
7.6936 -14.9557 -1.9978 0.9345
12.5378 -11.4101 -2.0137 0.9340
13.5050 -10.2455 -2.0136 0.9340
14.3637 -8.9989 -2.0134 0.9340
15.1069 -7.6804 -2.0131 0.9340
16.2243 -4.8713 -2.0122 0.9340
16.5896 -3.4035 -2.0116 0.9341
16.8216 -1.9093 -2.0110 0.9341
16.8805 1.1097 -2.0095 0.9341
15.9625 5.5325 -2.0068 0.9342
15.3976 6.9311 -2.0058 0.9342
13.9064 9.5473 -2.0037 0.9343
12.0044 9.9272 -1.8504 0.9392
10.0383 11.8898 -1.8484 0.9392
5.9795 10.3831 -1.4233 0.9529
4.7986 10.3762 -1.3580 0.9550
3.7130 10.3698 -1.3084 0.9566
2.6961 10.3638 -1.2720 0.9578
1.7266 10.3581 -1.2474 0.9586
-1.0671 10.3417 -1.2350 0.9590
-2.0110 10.3362 -1.2508 0.9585
-2.9872 10.3305 -1.2774 0.9576
-5.1140 10.3180 -1.3679 0.9547
-6.3781 10.4150 -1.4507 0.9520
-7.6523 10.3032 -1.5245 0.9496
-9.1783 10.2943 -1.6383 0.9460
-14.7656 4.6754 -1.8398 0.9395
-16.3642 3.6134 -1.9907 0.9347
-16.7658 0.6485 -1.9930 0.9346
-16.3594 -3.8190 -1.9955 0.9346
-14.0181 -9.3183 -1.9995 0.9344
-12.1518 -11.6736 -2.0016 0.9344
-7.1186 -14.8069 -1.9516 0.9360
-5.5567 -14.8162 -1.8797 0.9382
-4.1577 -15.0535 -1.8551 0.9390
-1.4175 -15.5664 -1.8567 0.9390
1.3725 -15.5822 -1.8581 0.9389
5.4982 -14.7932 -1.8747 0.9384
9.9024 -13.7586 -2.0136 0.9340
12.1907 -11.7805 -2.0137 0.9340
16.0726 -5.3553 -2.0124 0.9340
16.4818 -3.8991 -2.0118 0.9341
16.9013 -0.9073 -2.0105 0.9341
16.9084 0.6039 -2.0098 0.9341
16.5178 3.5961 -2.0080 0.9342
16.1235 5.0530 -2.0071 0.9342
15.6008 6.4681 -2.0061 0.9342
14.1885 9.1283 -2.0041 0.9343
12.2984 9.5650 -1.8507 0.9392
11.3900 10.6184 -1.8497 0.9392
9.3116 12.4603 -1.8477 0.9393
2.0475 10.3600 -1.2544 0.9584
1.0994 10.3544 -1.2369 0.9589
-3.6631 10.3265 -1.3015 0.9568
-7.1857 10.3059 -1.4924 0.9507
-8.6419 10.2975 -1.5969 0.9473
-10.3317 10.2876 -1.7319 0.9430
-12.7349 8.7987 -1.8387 0.9396
-14.1001 6.3973 -1.8392 0.9395
-15.8999 4.0137 -1.9479 0.9361
-16.7790 -0.3478 -1.9935 0.9346
-11.4416 -12.3787 -2.0023 0.9344
-3.2579 -15.2784 -1.8557 0.9390
-1.8826 -15.5148 -1.8565 0.9390
-0.4912 -15.6272 -1.8572 0.9390
6.5267 -14.8041 -1.9218 0.9369
8.1802 -14.8125 -2.0100 0.9341
9.4858 -14.0485 -2.0136 0.9340
16.6808 -2.9133 -2.0114 0.9341
16.8686 -1.4131 -2.0108 0.9341
16.9211 0.0974 -2.0100 0.9341
16.8382 1.6060 -2.0092 0.9341
16.6205 3.1004 -2.0083 0.9342
16.2702 4.5687 -2.0074 0.9342
15.1843 7.3802 -2.0054 0.9343
14.4579 8.7010 -2.0044 0.9343
11.7048 10.2745 -1.8500 0.9392
10.7358 11.2717 -1.8491 0.9392
9.6822 12.1781 -1.8481 0.9393
2.7751 5.1646 -0.6964 0.9767
2.0673 9.0299 -1.1004 0.9634
13.2276 5.0406 -2.0057 0.9444
12.1109 7.3049 -2.0040 0.9445
9.8037 8.6230 -1.8499 0.9486
8.9913 9.4590 -1.8491 0.9486
8.1079 10.2188 -1.8483 0.9487
6.8267 10.3883 -1.7613 0.9510
3.3599 10.3678 -1.5442 0.9569
0.4702 10.3508 -1.4681 0.9590
-0.4548 10.3454 -1.4672 0.9590
-3.3305 10.3286 -1.5377 0.9571
-4.3796 10.3225 -1.5888 0.9557
-8.0579 10.1864 -1.8403 0.9489
-8.9343 9.4267 -1.8402 0.9489
-11.1134 6.7255 -1.8405 0.9489
-13.5055 3.8283 -1.9890 0.9449
-14.0771 0.1157 -1.9946 0.9447
-13.6197 -3.6199 -1.9968 0.9447
-12.7700 -5.9876 -1.9984 0.9446
-10.7428 -9.1674 -2.0010 0.9445
-9.8865 -10.0938 -2.0019 0.9445
-6.8698 -12.3678 -2.0046 0.9444
-5.7416 -12.9369 -2.0054 0.9444
-4.5664 -13.4030 -2.0063 0.9444
-3.3538 -13.7623 -2.0070 0.9444
-2.1134 -14.0118 -2.0078 0.9444
1.6739 -14.0847 -2.0097 0.9443
2.9246 -13.8828 -2.0102 0.9443
6.5000 -12.6199 -2.0113 0.9443
8.6408 -11.2659 -2.0117 0.9443
10.5057 -9.5512 -2.0118 0.9443
12.6565 -6.4267 -2.0112 0.9443
13.1772 -5.2711 -2.0109 0.9443
14.0927 -1.5925 -2.0095 0.9443
14.1743 -0.3288 -2.0089 0.9443
14.1424 0.9368 -2.0082 0.9443
13.9975 2.1939 -2.0075 0.9444
13.7407 3.4327 -2.0067 0.9444
13.3744 4.6430 -2.0059 0.9444
12.9015 5.8152 -2.0051 0.9444
10.7665 7.3996 -1.8510 0.9486
9.2719 9.1869 -1.8494 0.9486
7.2831 10.3910 -1.7979 0.9500
5.9727 10.3832 -1.6972 0.9528
1.7213 10.3582 -1.4878 0.9585
0.7815 10.3527 -1.4710 0.9589
-1.0724 10.3418 -1.4732 0.9589
-2.0163 10.3363 -1.4921 0.9583
-2.9928 10.3306 -1.5239 0.9575
-4.0202 10.3245 -1.5699 0.9562
-6.1168 9.9772 -1.6582 0.9538
-7.6603 10.3033 -1.8191 0.9495
-10.2330 7.9991 -1.8403 0.9489
-11.4939 6.0545 -1.8407 0.9489
-11.9901 5.0057 -1.8410 0.9489
-14.0622 -0.7202 -1.9951 0.9447
-13.3844 -4.4231 -1.9973 0.9446
-12.9418 -5.6018 -1.9981 0.9446
-12.3957 -6.7369 -1.9990 0.9446
-11.7503 -7.8193 -1.9998 0.9446
-11.0108 -8.8404 -2.0007 0.9446
-10.1828 -9.7918 -2.0016 0.9445
-6.1254 -12.7574 -2.0051 0.9444
-3.7638 -13.6540 -2.0068 0.9444
-2.5317 -13.9406 -2.0075 0.9444
-1.2783 -14.1158 -2.0082 0.9443
-0.0139 -14.1782 -2.0089 0.9443
2.5074 -13.9630 -2.0100 0.9443
4.9511 -13.3009 -2.0109 0.9443
6.1189 -12.8082 -2.0112 0.9443
7.2381 -12.2128 -2.0115 0.9443
8.2995 -11.5193 -2.0117 0.9443
11.0538 -8.9106 -2.0117 0.9443
13.4651 -4.4791 -2.0106 0.9443
14.1595 -0.7531 -2.0091 0.9443
14.1657 0.5130 -2.0084 0.9443
14.0586 1.7741 -2.0078 0.9444
13.5092 4.2411 -2.0062 0.9444
10.9849 7.0750 -1.8513 0.9486
10.3053 8.0232 -1.8505 0.9486
9.5442 8.9066 -1.8497 0.9486
7.8025 10.4516 -1.8480 0.9487
4.0621 10.3720 -1.5783 0.9560
-1.6971 10.3381 -1.4844 0.9586
-2.6608 10.3325 -1.5118 0.9578
-3.6689 10.3266 -1.5528 0.9567
-5.8030 10.1343 -1.6547 0.9539
-7.1935 10.3060 -1.7808 0.9505
-9.2080 9.1595 -1.8402 0.9489
-11.3070 6.3956 -1.8406 0.9489
-11.8342 5.3621 -1.8409 0.9489
-13.6410 3.4362 -1.9932 0.9448
-13.8966 2.2061 -1.9937 0.9447
-14.0759 -0.2988 -1.9948 0.9447
-13.9979 -1.5539 -1.9955 0.9447
-13.8084 -2.7975 -1.9963 0.9447
-13.1018 -5.2111 -1.9978 0.9446
-9.5865 -10.3820 -2.0022 0.9445
-7.5956 -11.9310 -2.0040 0.9445
-5.3589 -13.1021 -2.0057 0.9444
-4.1704 -13.5334 -2.0065 0.9444
-1.7002 -14.0696 -2.0080 0.9444
-0.4383 -14.1700 -2.0087 0.9443
2.0881 -14.0306 -2.0099 0.9443
5.7324 -12.9850 -2.0111 0.9443
6.8690 -12.4235 -2.0114 0.9443
8.9689 -11.0068 -2.0117 0.9443
10.7822 -9.2377 -2.0117 0.9443
13.3259 -4.8805 -2.0108 0.9443
13.7052 -3.6714 -2.0104 0.9443
13.9746 -2.4335 -2.0099 0.9443
14.1321 -1.1767 -2.0093 0.9443
14.1763 0.0887 -2.0087 0.9443
14.1071 1.3526 -2.0080 0.9444
13.9251 2.6048 -2.0073 0.9444
12.1145 7.2989 -2.0040 0.9445
10.5425 7.7122 -1.8508 0.9486
8.9960 9.4545 -1.8491 0.9486
8.1131 10.2148 -1.8483 0.9487
6.8342 10.3883 -1.7619 0.9510
4.4256 10.3741 -1.5981 0.9555
3.3657 10.3679 -1.5445 0.9569
2.0657 9.0438 -1.3144 0.9632
0.4754 10.3509 -1.4682 0.9590
-0.4496 10.3454 -1.4672 0.9590
-1.3810 10.3400 -1.4781 0.9587
-3.3249 10.3286 -1.5374 0.9571
-4.3736 10.3225 -1.5884 0.9557
-5.5037 10.3159 -1.6567 0.9539
-8.0529 10.1904 -1.8403 0.9489
-9.7355 8.5970 -1.8403 0.9489
-10.4642 7.6946 -1.8404 0.9489
-12.1330 4.6508 -1.8411 0.9489
-13.5028 3.8348 -1.9889 0.9449
-13.8231 2.6209 -1.9935 0.9447
-14.0057 1.3776 -1.9940 0.9447
-14.0365 -1.1340 -1.9953 0.9447
-13.8843 -2.3826 -1.9960 0.9447
-13.6215 -3.6131 -1.9968 0.9447
-13.2502 -4.8159 -1.9976 0.9446
-12.7730 -5.9812 -1.9984 0.9446
-12.1937 -7.1000 -1.9993 0.9446
-10.7473 -9.1620 -2.0010 0.9445
-8.9560 -10.9360 -2.0028 0.9445
-7.9482 -11.6965 -2.0037 0.9445
-6.8760 -12.3643 -2.0046 0.9444
-4.5731 -13.4007 -2.0062 0.9444
-3.3606 -13.7606 -2.0070 0.9444
-2.1204 -14.0107 -2.0078 0.9444
0.4036 -14.1739 -2.0091 0.9443
1.6669 -14.0855 -2.0097 0.9443
4.1456 -13.5716 -2.0107 0.9443
5.3408 -13.1501 -2.0110 0.9443
9.6066 -10.4553 -2.0118 0.9443
10.5009 -9.5564 -2.0118 0.9443
12.0305 -7.5371 -2.0115 0.9443
13.1746 -5.2776 -2.0109 0.9443
13.5902 -4.0804 -2.0105 0.9443
13.8967 -2.8511 -2.0100 0.9443
14.0919 -1.5995 -2.0095 0.9443
10.0632 8.3219 -1.8502 0.9486
9.2765 9.1823 -1.8494 0.9486
7.2909 10.3910 -1.7986 0.9500
5.9796 10.3833 -1.6977 0.9527
4.7986 10.3763 -1.6198 0.9549
3.7130 10.3699 -1.5607 0.9565
2.6961 10.3639 -1.5173 0.9577
1.7266 10.3582 -1.4879 0.9585
0.7867 10.3527 -1.4711 0.9589
-1.0672 10.3418 -1.4731 0.9589
-2.9873 10.3306 -1.5237 0.9575
-8.6433 9.6943 -1.8402 0.9489
-10.2290 8.0042 -1.8403 0.9489
-11.4909 6.0602 -1.8407 0.9489
-12.8305 4.0627 -1.9069 0.9471
-13.9568 1.7962 -1.9938 0.9447
-13.7218 -3.2033 -1.9965 0.9447
-12.9445 -5.5953 -1.9981 0.9446
-10.1876 -9.7867 -2.0016 0.9445
-8.2936 -11.4516 -2.0034 0.9445
-3.7706 -13.6521 -2.0068 0.9444
-2.5386 -13.9393 -2.0075 0.9444
-0.0210 -14.1782 -2.0089 0.9443
2.5005 -13.9642 -2.0100 0.9443
7.2320 -12.2164 -2.0115 0.9443
8.2938 -11.5235 -2.0117 0.9443
9.2892 -10.7381 -2.0118 0.9443
11.0493 -8.9161 -2.0117 0.9443
11.7998 -7.8942 -2.0116 0.9443
13.0115 -5.6700 -2.0110 0.9443
13.4629 -4.4858 -2.0106 0.9443
14.0390 -2.0208 -2.0097 0.9443
14.1660 0.5060 -2.0085 0.9443
14.0595 1.7671 -2.0078 0.9444
13.8406 3.0132 -2.0070 0.9444
12.5333 6.5626 -2.0046 0.9444
11.8729 7.6386 -2.0003 0.9446
10.3093 8.0181 -1.8505 0.9486
9.5486 8.9018 -1.8497 0.9486
6.4026 10.3858 -1.7287 0.9519
5.1823 10.3786 -1.6437 0.9542
3.0307 10.3659 -1.5302 0.9573
2.0475 10.3601 -1.4963 0.9582
1.0995 10.3545 -1.4754 0.9588
0.1703 10.3491 -1.4666 0.9590
-0.7552 10.3436 -1.4695 0.9590
-1.6918 10.3382 -1.4843 0.9586
-2.6553 10.3325 -1.5116 0.9578
-4.7357 10.3204 -1.6089 0.9552
-5.8031 10.1462 -1.6561 0.9539
-8.3493 9.9488 -1.8403 0.9489
-9.9845 8.3068 -1.8403 0.9489
-11.3038 6.4012 -1.8406 0.9489
-11.8315 5.3680 -1.8409 0.9489
-12.2654 4.2919 -1.8412 0.9489
-13.8955 2.2130 -1.9937 0.9447
-14.0415 0.9648 -1.9942 0.9447
-14.0760 -0.2918 -1.9948 0.9447
-13.5110 -4.0131 -1.9970 0.9447
-13.1044 -5.2046 -1.9978 0.9446
-12.5932 -6.3555 -1.9987 0.9446
-11.2731 -8.4998 -2.0004 0.9446
-10.4745 -9.4759 -2.0013 0.9445
-8.6315 -11.1965 -2.0031 0.9445
-7.6015 -11.9272 -2.0040 0.9445
-4.1771 -13.5313 -2.0065 0.9444
-0.4454 -14.1697 -2.0087 0.9443
2.0811 -14.0316 -2.0099 0.9443
3.3254 -13.7934 -2.0104 0.9443
4.5437 -13.4445 -2.0108 0.9443
7.9449 -11.7663 -2.0116 0.9443
8.9634 -11.0113 -2.0117 0.9443
9.9102 -10.1679 -2.0118 0.9443
10.7776 -9.2431 -2.0117 0.9443
12.2467 -7.1794 -2.0114 0.9443
12.8366 -6.0574 -2.0111 0.9443
13.9735 -2.4405 -2.0099 0.9443
14.1764 0.0816 -2.0087 0.9443
14.1078 1.3456 -2.0080 0.9444
13.9264 2.5979 -2.0073 0.9444
13.6339 3.8284 -2.0065 0.9444
12.7260 6.1853 -2.0048 0.9444
12.1182 7.2929 -2.0040 0.9445
10.5464 7.7069 -1.8508 0.9486
9.8123 8.6132 -1.8500 0.9486
8.1181 10.2108 -1.8483 0.9487
2.7747 5.1640 -0.8306 0.9766
3.3714 10.3679 -1.5447 0.9569
2.0704 9.0434 -1.3145 0.9632
10.9377 5.3296 -2.0044 0.9519
10.3894 6.2665 -1.9988 0.9520
9.0632 6.6370 -1.8506 0.9555
7.7335 8.1357 -1.8492 0.9555
2.7671 5.1623 -0.9649 0.9765
4.3927 10.3113 -1.8464 0.9556
1.4038 10.3564 -1.7217 0.9585
0.4702 10.3510 -1.7070 0.9589
-1.3862 10.3401 -1.7187 0.9586
-2.3392 10.3345 -1.7456 0.9580
-3.3306 10.3287 -1.7878 0.9570
-4.3673 10.2935 -1.8421 0.9557
-6.1258 9.3515 -1.8417 0.9557
-9.0096 6.6181 -1.8416 0.9557
-10.6908 4.0919 -1.8858 0.9547
-11.6465 3.3013 -1.9942 0.9521
-12.0531 1.1795 -1.9951 0.9521
-11.9454 -2.0560 -1.9968 0.9521
-10.9858 -5.1510 -1.9989 0.9520
-10.4863 -6.1128 -1.9996 0.9520
-9.2401 -7.8851 -2.0011 0.9519
-7.6977 -9.4089 -2.0027 0.9519
-6.8302 -10.0620 -2.0034 0.9519
-5.9075 -10.6352 -2.0042 0.9519
-4.9369 -11.1239 -2.0049 0.9519
-2.8834 -11.8323 -2.0063 0.9518
-0.7352 -12.1639 -2.0075 0.9518
1.4389 -12.1072 -2.0086 0.9518
2.5139 -11.9332 -2.0090 0.9518
6.5328 -10.3061 -2.0102 0.9517
7.4266 -9.6828 -2.0103 0.9517
8.2611 -8.9819 -2.0104 0.9517
9.7254 -7.3705 -2.0103 0.9517
10.8784 -5.5238 -2.0099 0.9517
11.6832 -3.5015 -2.0093 0.9518
11.9466 -2.4448 -2.0089 0.9518
12.1142 -1.3689 -2.0084 0.9518
12.1849 -0.2826 -2.0079 0.9518
12.1581 0.8053 -2.0073 0.9518
12.0341 1.8862 -2.0067 0.9518
11.0937 5.0004 -2.0046 0.9519
8.6511 7.1614 -1.8501 0.9555
7.2351 8.5782 -1.8487 0.9555
6.4385 9.1860 -1.8480 0.9555
5.5912 9.7201 -1.8473 0.9556
4.7000 10.1764 -1.8466 0.9556
2.6906 10.3640 -1.7640 0.9575
-1.0724 10.3419 -1.7129 0.9587
-2.0164 10.3364 -1.7349 0.9582
-4.0202 10.3247 -1.8253 0.9561
-4.9702 10.0153 -1.8419 0.9557
-5.8433 9.5310 -1.8417 0.9557
-6.6698 8.9711 -1.8416 0.9557
-8.1577 7.6427 -1.8415 0.9557
-8.8073 6.8847 -1.8416 0.9557
-10.3191 4.3081 -1.8422 0.9557
-11.8234 2.6046 -1.9945 0.9521
-12.0114 1.5397 -1.9949 0.9521
-12.1039 0.4621 -1.9954 0.9521
-12.0003 -1.6973 -1.9966 0.9521
-11.8048 -2.7620 -1.9972 0.9520
-10.6633 -5.7954 -1.9993 0.9520
-10.1076 -6.7261 -2.0001 0.9520
-8.7580 -8.4218 -2.0016 0.9519
-7.1274 -9.8517 -2.0032 0.9519
-4.2690 -11.4000 -2.0054 0.9518
1.0757 -12.1439 -2.0084 0.9518
2.1553 -12.0023 -2.0089 0.9518
3.2181 -11.7645 -2.0093 0.9518
5.2593 -11.0088 -2.0099 0.9517
6.2211 -10.4968 -2.0101 0.9517
7.9884 -9.2252 -2.0103 0.9517
8.7796 -8.4758 -2.0104 0.9517
9.5005 -7.6585 -2.0103 0.9517
10.1452 -6.7799 -2.0102 0.9517
10.7086 -5.8472 -2.0100 0.9517
11.1860 -4.8679 -2.0097 0.9517
12.0688 -1.7311 -2.0086 0.9518
12.1779 0.4410 -2.0075 0.9518
11.6154 3.6465 -2.0056 0.9518
11.2398 4.6666 -2.0049 0.9519
10.7747 5.6486 -2.0041 0.9519
8.8627 6.9001 -1.8504 0.9555
8.2087 7.6603 -1.8496 0.9555
6.7115 8.9902 -1.8482 0.9555
5.0032 10.0324 -1.8468 0.9556
4.0622 10.3721 -1.8351 0.9558
2.0421 10.3602 -1.7396 0.9581
0.1651 10.3492 -1.7051 0.9589
-1.6972 10.3383 -1.7259 0.9584
-2.6608 10.3326 -1.7577 0.9577
-3.6689 10.3267 -1.8054 0.9565
-4.6683 10.1600 -1.8420 0.9557
-6.3984 9.1669 -1.8416 0.9557
-7.1903 8.5592 -1.8415 0.9557
-10.1850 4.6149 -1.8421 0.9557
-11.7394 2.9572 -1.9943 0.9521
-11.9589 1.8985 -1.9948 0.9521
-12.0836 0.8242 -1.9953 0.9521
-11.8809 -2.4070 -1.9970 0.9520
-11.6226 -3.4585 -1.9977 0.9520
-8.2449 -8.9290 -2.0021 0.9519
-7.4183 -9.6327 -2.0029 0.9519
-6.5318 -10.2600 -2.0037 0.9519
-5.5925 -10.8058 -2.0044 0.9519
-4.6078 -11.2657 -2.0051 0.9519
-3.5857 -11.6359 -2.0058 0.9518
-1.4617 -12.0957 -2.0071 0.9518
3.9112 -11.5541 -2.0095 0.9518
6.8335 -10.1096 -2.0102 0.9517
8.5219 -8.7348 -2.0104 0.9517
9.2671 -7.9396 -2.0103 0.9517
9.9379 -7.0808 -2.0102 0.9517
10.5291 -6.1655 -2.0100 0.9517
11.0358 -5.2009 -2.0098 0.9517
11.4541 -4.1950 -2.0095 0.9518
12.0125 -2.0918 -2.0087 0.9518
12.1279 1.1628 -2.0071 0.9518
11.9721 2.2394 -2.0065 0.9518
11.7207 3.2975 -2.0058 0.9518
11.3758 4.3285 -2.0051 0.9519
10.9403 5.3242 -2.0044 0.9519
10.3930 6.2617 -1.9989 0.9520
9.0665 6.6325 -1.8506 0.9555
8.4354 7.4120 -1.8499 0.9555
7.7375 8.1319 -1.8492 0.9555
6.1645 9.3704 -1.8478 0.9555
2.7708 5.1628 -0.9653 0.9765
4.3979 10.3092 -1.8464 0.9556
2.0730 9.0756 -1.5336 0.9630
-1.3810 10.3401 -1.7185 0.9586
-2.3338 10.3345 -1.7454 0.9580
-3.3249 10.3287 -1.7875 0.9570
-4.3622 10.2957 -1.8421 0.9557
-6.9309 8.7707 -1.8416 0.9557
-7.6856 8.1172 -1.8415 0.9557
-8.3792 7.3993 -1.8415 0.9557
-9.5620 5.7931 -1.8418 0.9557
-10.0418 4.9175 -1.8420 0.9557
-11.8959 2.2555 -1.9946 0.9521
-12.1133 0.1056 -1.9956 0.9521
-12.0779 -0.9758 -1.9962 0.9521
-11.3995 -4.1432 -1.9981 0.9520
-10.4894 -6.1076 -1.9996 0.9520
-6.8352 -10.0585 -2.0034 0.9519
-5.9128 -10.6322 -2.0042 0.9519
-1.8229 -12.0453 -2.0069 0.9518
0.3469 -12.1844 -2.0081 0.9518
2.5079 -11.9344 -2.0090 0.9518
5.5813 -10.8496 -2.0100 0.9517
7.4218 -9.6865 -2.0103 0.9517
9.0253 -8.2135 -2.0103 0.9517
9.7217 -7.3753 -2.0103 0.9517
10.3401 -6.4781 -2.0101 0.9517
10.8756 -5.5292 -2.0099 0.9517
11.3239 -4.5363 -2.0096 0.9518
11.6815 -3.5073 -2.0093 0.9518
12.1136 -1.3749 -2.0084 0.9518
12.1848 -0.2887 -2.0079 0.9518
12.1585 0.7993 -2.0073 0.9518
12.0350 1.8802 -2.0067 0.9518
11.5016 3.9864 -2.0054 0.9518
11.0962 4.9948 -2.0046 0.9519
8.6546 7.1571 -1.8501 0.9555
7.9786 7.8976 -1.8494 0.9555
7.2394 8.5746 -1.8487 0.9555
5.5961 9.7173 -1.8473 0.9556
4.7051 10.1741 -1.8466 0.9556
3.7131 10.3700 -1.8146 0.9563
1.7266 10.3583 -1.7300 0.9583
0.7867 10.3528 -1.7104 0.9588
-0.1396 10.3474 -1.7048 0.9589
-1.0672 10.3419 -1.7128 0.9587
-2.0110 10.3364 -1.7347 0.9582
-2.9873 10.3307 -1.7716 0.9573
-4.9652 10.0178 -1.8419 0.9557
-6.6653 8.9744 -1.8416 0.9557
-8.8039 6.8891 -1.8416 0.9557
-9.8897 5.2157 -1.8419 0.9557
-10.3170 4.3132 -1.8422 0.9557
-11.8221 2.6105 -1.9945 0.9521
-12.1036 0.4682 -1.9954 0.9521
-11.8062 -2.7561 -1.9972 0.9520
-11.5171 -3.7996 -1.9979 0.9520
-11.1361 -4.8137 -1.9986 0.9520
-10.1109 -6.7211 -2.0001 0.9520
-9.4746 -7.5992 -2.0009 0.9520
-8.7622 -8.4174 -2.0016 0.9519
-7.9794 -9.1691 -2.0024 0.9519
-5.2726 -10.9671 -2.0047 0.9519
-4.2746 -11.3978 -2.0054 0.9518
-2.1825 -11.9840 -2.0067 0.9518
2.1494 -12.0033 -2.0089 0.9518
3.2123 -11.7661 -2.0093 0.9518
5.2538 -11.0114 -2.0099 0.9517
7.1283 -9.9042 -2.0103 0.9517
8.7754 -8.4801 -2.0104 0.9517
10.1418 -6.7850 -2.0102 0.9517
10.7057 -5.8526 -2.0100 0.9517
11.5719 -3.8557 -2.0094 0.9518
12.1782 0.4350 -2.0075 0.9518
11.8997 2.5907 -2.0063 0.9518
11.6172 3.6407 -2.0056 0.9518
9.4496 6.0795 -1.8511 0.9555
8.8662 6.8956 -1.8504 0.9555
8.2125 7.6562 -1.8496 0.9555
7.4938 8.3551 -1.8489 0.9555
5.0082 10.0299 -1.8468 0.9556
1.0995 10.3547 -1.7154 0.9587
-0.7552 10.3438 -1.7086 0.9588
-1.6918 10.3383 -1.7258 0.9584
-2.6554 10.3327 -1.7575 0.9577
-3.6631 10.3268 -1.8051 0.9566
-7.1861 8.5628 -1.8415 0.9557
-8.5935 7.1495 -1.8416 0.9557
-9.7287 5.5093 -1.8418 0.9557
-11.3889 3.9852 -1.9877 0.9523
-11.7379 2.9630 -1.9943 0.9521
-11.9580 1.9045 -1.9948 0.9521
-12.0832 0.8302 -1.9953 0.9521
-12.1123 -0.2511 -1.9958 0.9521
-11.6243 -3.4527 -1.9977 0.9520
-10.8334 -5.4674 -1.9991 0.9520
-9.6966 -7.3112 -2.0006 0.9520
-9.0091 -8.1502 -2.0014 0.9519
-8.2493 -8.9249 -2.0021 0.9519
-7.4230 -9.6290 -2.0029 0.9519
-2.5401 -11.9120 -2.0065 0.9518
-0.3829 -12.1811 -2.0077 0.9518
0.7055 -12.1700 -2.0082 0.9518
1.7889 -12.0614 -2.0087 0.9518
4.9215 -11.1633 -2.0098 0.9517
5.8985 -10.6809 -2.0101 0.9517
8.5176 -8.7391 -2.0104 0.9517
9.2631 -7.9442 -2.0103 0.9517
10.5260 -6.1707 -2.0101 0.9517
11.0332 -5.2064 -2.0098 0.9517
11.4520 -4.2007 -2.0095 0.9518
11.7789 -3.1617 -2.0091 0.9518
12.0115 -2.0978 -2.0087 0.9518
12.1478 -1.0176 -2.0082 0.9518
12.1869 0.0702 -2.0077 0.9518
12.1285 1.1568 -2.0071 0.9518
10.9430 5.3187 -2.0044 0.9519
7.7416 8.1280 -1.8492 0.9555
6.9829 8.7829 -1.8485 0.9555
4.4030 10.3070 -1.8464 0.9556
3.3714 10.3680 -1.7961 0.9568
9.9664 3.7979 -2.0047 0.9575
9.5848 4.6704 -2.0041 0.9575
7.9429 5.8166 -1.8505 0.9607
7.3898 6.4998 -1.8498 0.9607
6.7782 7.1307 -1.8492 0.9607
6.1129 7.7044 -1.8486 0.9608
3.8508 9.0393 -1.8468 0.9608
1.3186 9.7278 -1.8452 0.9608
-0.4309 9.8025 -1.8443 0.9609
-1.3035 9.7229 -1.8439 0.9609
-2.1653 9.5660 -1.8435 0.9609
-3.0096 9.3332 -1.8432 0.9609
-6.7432 7.1148 -1.8425 0.9609
-7.9007 5.8035 -1.8426 0.9609
-10.2123 2.8948 -1.9951 0.9577
-10.5683 1.0342 -1.9959 0.9577
-10.4727 -1.8025 -1.9974 0.9577
-10.2731 -2.7304 -1.9980 0.9577
-9.9915 -3.6371 -1.9986 0.9576
-9.6303 -4.5154 -1.9992 0.9576
-8.0988 -6.9112 -2.0012 0.9576
-7.4525 -7.6087 -2.0019 0.9576
-6.7462 -8.2460 -2.0025 0.9576
-5.9857 -8.8179 -2.0032 0.9576
-5.1768 -9.3198 -2.0039 0.9575
-4.3261 -9.7476 -2.0045 0.9575
-2.5265 -10.3675 -2.0057 0.9575
0.3092 -10.6748 -2.0073 0.9575
2.2023 -10.4542 -2.0081 0.9574
3.1267 -10.2177 -2.0084 0.9574
4.8940 -9.5019 -2.0090 0.9574
9.0607 -5.6703 -2.0091 0.9574
10.2350 -3.0675 -2.0083 0.9574
10.6754 -0.2476 -2.0071 0.9575
10.6523 0.7056 -2.0066 0.9575
10.0766 3.4981 -2.0049 0.9575
9.7213 4.3818 -2.0043 0.9575
9.2831 5.2268 -2.0024 0.9576
8.1144 5.5768 -1.8507 0.9607
1.6094 9.6849 -1.8453 0.9608
0.7388 9.7873 -1.8449 0.9608
-0.1373 9.8118 -1.8444 0.9608
-1.0118 9.7582 -1.8440 0.9609
-2.7289 9.4196 -1.8433 0.9609
-3.5579 9.1373 -1.8431 0.9609
-6.5272 7.3135 -1.8425 0.9609
-7.1536 6.7020 -1.8425 0.9609
-9.7568 4.0733 -1.9873 0.9579
-10.1205 3.1991 -1.9950 0.9577
-10.3673 2.2838 -1.9954 0.9577
-10.5318 1.3501 -1.9958 0.9577
-10.3492 -2.4214 -1.9978 0.9577
-10.0949 -3.3360 -1.9984 0.9577
-9.7601 -4.2246 -1.9990 0.9576
-8.8597 -5.8957 -2.0003 0.9576
-6.9894 -8.0393 -2.0023 0.9576
-6.2463 -8.6338 -2.0030 0.9576
-5.4529 -9.1597 -2.0036 0.9575
-3.7407 -9.9893 -2.0049 0.9575
-0.9629 -10.6323 -2.0066 0.9575
-0.0105 -10.6784 -2.0071 0.9575
2.8192 -10.3062 -2.0083 0.9574
6.2487 -8.6729 -2.0092 0.9574
6.9978 -8.0811 -2.0093 0.9574
7.6908 -7.4246 -2.0093 0.9574
8.3223 -6.7087 -2.0092 0.9574
9.3808 -5.1222 -2.0089 0.9574
9.7992 -4.2644 -2.0087 0.9574
10.1391 -3.3727 -2.0084 0.9574
10.3978 -2.4543 -2.0081 0.9574
10.5733 -1.5166 -2.0077 0.9575
10.6641 -0.5672 -2.0073 0.9575
10.6696 0.3864 -2.0068 0.9575
10.5898 1.3364 -2.0063 0.9575
10.1779 3.1952 -2.0051 0.9575
8.2786 5.3319 -1.8509 0.9607
7.1944 6.7138 -1.8496 0.9607
6.5646 7.3264 -1.8490 0.9608
5.1546 8.3708 -1.8478 0.9608
4.3859 8.7944 -1.8472 0.9608
3.5827 9.1478 -1.8466 0.9608
2.7515 9.4281 -1.8460 0.9608
1.8988 9.6332 -1.8455 0.9608
1.0316 9.7616 -1.8450 0.9608
0.1566 9.8123 -1.8446 0.9608
-0.7193 9.7849 -1.8441 0.9609
-1.5890 9.6797 -1.8438 0.9609
-2.4458 9.4976 -1.8434 0.9609
-5.6108 8.0386 -1.8426 0.9609
-6.3053 7.5057 -1.8425 0.9609
-7.5389 6.2657 -1.8425 0.9609
-8.5336 4.8269 -1.8428 0.9609
-10.0197 3.5004 -1.9949 0.9577
-10.6196 -0.2255 -1.9965 0.9577
-10.5599 -1.1723 -1.9970 0.9577
-10.4161 -2.1103 -1.9976 0.9577
-10.1892 -3.0320 -1.9982 0.9577
-9.0312 -5.6272 -2.0001 0.9576
-7.8927 -7.1474 -2.0014 0.9576
-7.2260 -7.8257 -2.0021 0.9576
-6.5013 -8.4420 -2.0028 0.9576
-5.7241 -8.9913 -2.0034 0.9575
-4.0377 -9.8718 -2.0047 0.9575
-3.1419 -10.1957 -2.0053 0.9575
-1.2806 -10.5977 -2.0065 0.9575
-0.3302 -10.6724 -2.0070 0.9575
0.6234 -10.6618 -2.0074 0.9575
5.1718 -9.3539 -2.0090 0.9574
8.1178 -6.9550 -2.0093 0.9574
10.0341 -3.6749 -2.0085 0.9574
10.6772 0.0668 -2.0069 0.9575
10.4899 1.9622 -2.0059 0.9575
10.2700 2.8894 -2.0053 0.9575
9.5871 4.6656 -2.0041 0.9575
9.0999 5.4826 -1.9969 0.9577
7.9458 5.8126 -1.8505 0.9607
6.7817 7.1274 -1.8492 0.9607
5.4035 8.2136 -1.8480 0.9608
2.7704 5.1622 -1.1012 0.9764
2.0710 9.0671 -1.7482 0.9629
1.3235 9.7272 -1.8452 0.9608
0.4503 9.8040 -1.8447 0.9608
-0.4260 9.8027 -1.8443 0.9609
-1.2986 9.7236 -1.8439 0.9609
-2.1605 9.5671 -1.8435 0.9609
-4.6149 8.6500 -1.8428 0.9609
-5.3677 8.2031 -1.8426 0.9609
-7.3479 6.4886 -1.8425 0.9609
-8.3850 5.0800 -1.8427 0.9609
-10.2108 2.8999 -1.9951 0.9577
-10.5677 1.0395 -1.9959 0.9577
-10.6208 0.0926 -1.9964 0.9577
-10.2744 -2.7253 -1.9980 0.9577
-9.6325 -4.5106 -1.9992 0.9576
-6.7503 -8.2426 -2.0025 0.9576
-5.9901 -8.8149 -2.0032 0.9576
-4.3310 -9.7454 -2.0045 0.9575
-3.4453 -10.0961 -2.0051 0.9575
-2.5317 -10.3662 -2.0057 0.9575
-1.5972 -10.5537 -2.0063 0.9575
-0.6495 -10.6569 -2.0068 0.9575
0.3039 -10.6749 -2.0073 0.9575
3.1216 -10.2193 -2.0084 0.9574
4.0214 -9.9015 -2.0087 0.9574
4.8893 -9.5043 -2.0090 0.9574
7.2327 -7.8716 -2.0093 0.9574
9.0579 -5.6748 -2.0091 0.9574
9.5272 -4.8437 -2.0089 0.9574
9.9201 -3.9739 -2.0086 0.9574
10.2335 -3.0726 -2.0083 0.9574
10.4649 -2.1470 -2.0080 0.9575
10.6126 -1.2046 -2.0076 0.9575
10.6753 -0.2529 -2.0071 0.9575
10.6527 0.7003 -2.0066 0.9575
10.5449 1.6474 -2.0061 0.9575
10.3529 2.5809 -2.0055 0.9575
10.0784 3.4931 -2.0049 0.9575
9.7235 4.3770 -2.0043 0.9575
9.2861 5.2224 -2.0025 0.9576
8.1172 5.5728 -1.8507 0.9607
7.5851 6.2726 -1.8500 0.9607
6.9929 6.9219 -1.8494 0.9607
6.3453 7.5157 -1.8488 0.9608
4.9054 8.5180 -1.8476 0.9608
4.1246 8.9188 -1.8470 0.9608
3.3115 9.2484 -1.8464 0.9608
0.7437 9.7869 -1.8449 0.9608
-0.1324 9.8118 -1.8444 0.9608
-2.7242 9.4210 -1.8433 0.9609
-3.5533 9.1390 -1.8431 0.9609
-5.8450 7.8698 -1.8426 0.9609
-7.1503 6.7056 -1.8425 0.9609
-7.7202 6.0411 -1.8426 0.9609
-8.2289 5.3286 -1.8427 0.9609
-9.7544 4.0780 -1.9872 0.9579
-10.3662 2.2890 -1.9954 0.9577
-10.5311 1.3553 -1.9958 0.9577
-10.6093 -0.5381 -1.9967 0.9577
-10.5217 -1.4828 -1.9972 0.9577
-10.0966 -3.3310 -1.9984 0.9577
-9.7622 -4.2198 -1.9990 0.9576
-9.3498 -5.0755 -1.9996 0.9576
-8.8626 -5.8913 -2.0003 0.9576
-6.9933 -8.0359 -2.0023 0.9576
-6.2506 -8.6307 -2.0030 0.9576
-5.4575 -9.1569 -2.0036 0.9575
-4.6203 -9.6104 -2.0043 0.9575
-2.8406 -10.2848 -2.0055 0.9575
-1.9123 -10.5002 -2.0061 0.9575
-0.9682 -10.6318 -2.0066 0.9575
-0.0158 -10.6784 -2.0071 0.9575
1.8830 -10.5157 -2.0080 0.9575
2.8141 -10.3076 -2.0083 0.9574
4.6024 -9.6461 -2.0089 0.9574
6.2444 -8.6760 -2.0092 0.9574
7.6871 -7.4285 -2.0093 0.9574
8.8842 -5.9436 -2.0091 0.9574
9.3782 -5.1269 -2.0089 0.9574
9.7971 -4.2693 -2.0087 0.9574
10.1375 -3.3778 -2.0084 0.9574
10.3966 -2.4595 -2.0081 0.9574
10.5905 1.3311 -2.0063 0.9575
10.4266 2.2700 -2.0057 0.9575
10.1795 3.1902 -2.0051 0.9575
9.4446 4.9453 -2.0038 0.9575
8.2813 5.3278 -1.8509 0.9607
7.7704 6.0434 -1.8503 0.9607
7.1978 6.7102 -1.8496 0.9607
5.8867 7.8773 -1.8484 0.9608
5.1588 8.3683 -1.8478 0.9608
1.9037 9.6323 -1.8455 0.9608
0.1615 9.8122 -1.8446 0.9608
-0.7144 9.7852 -1.8441 0.9609
-1.5842 9.6805 -1.8438 0.9609
-2.4411 9.4989 -1.8434 0.9609
-3.2783 9.2418 -1.8431 0.9609
-5.6068 8.0414 -1.8426 0.9609
-6.3016 7.5089 -1.8425 0.9609
-8.5311 4.8311 -1.8428 0.9609
-9.0618 4.1114 -1.8704 0.9603
-10.5945 0.7280 -1.9961 0.9577
-10.6197 -0.2201 -1.9965 0.9577
-10.5605 -1.1670 -1.9970 0.9577
-9.8831 -3.9252 -1.9988 0.9576
-6.5055 -8.4387 -2.0028 0.9576
-5.7286 -8.9884 -2.0034 0.9575
-4.9054 -9.4667 -2.0041 0.9575
-3.1469 -10.1941 -2.0053 0.9575
-2.2256 -10.4373 -2.0059 0.9575
-1.2859 -10.5971 -2.0064 0.9575
-0.3355 -10.6723 -2.0070 0.9575
1.5672 -10.5667 -2.0078 0.9575
5.1671 -9.3565 -2.0090 0.9574
5.9817 -8.8589 -2.0092 0.9574
6.7485 -8.2903 -2.0093 0.9574
7.4613 -7.6553 -2.0093 0.9574
8.1144 -6.9590 -2.0093 0.9574
8.7025 -6.2071 -2.0092 0.9574
9.2208 -5.4055 -2.0090 0.9574
9.6653 -4.5609 -2.0088 0.9574
10.0323 -3.6799 -2.0085 0.9574
10.3189 -2.7698 -2.0082 0.9574
10.6427 -0.8916 -2.0074 0.9575
10.6265 1.0135 -2.0064 0.9575
9.5894 4.6608 -2.0041 0.9575
9.1030 5.4783 -1.9970 0.9577
7.9487 5.8087 -1.8505 0.9607
7.3963 6.4925 -1.8498 0.9607
6.7853 7.1240 -1.8492 0.9607
6.1206 7.6984 -1.8486 0.9608
5.4076 8.2110 -1.8480 0.9608
2.7740 5.1628 -1.1016 0.9764
2.0744 9.0607 -1.7471 0.9629
8.5217 4.1524 -2.0038 0.9620
8.0928 4.8813 -1.9977 0.9621
6.0273 6.3408 -1.8492 0.9649
4.8016 7.3067 -1.8481 0.9649
3.4247 8.0391 -1.8471 0.9649
1.1728 8.6523 -1.8456 0.9649
-0.3833 8.7192 -1.8448 0.9649
-1.1594 8.6486 -1.8445 0.9650
-1.9261 8.5092 -1.8442 0.9650
-2.6771 8.3023 -1.8439 0.9650
-5.4101 6.8392 -1.8433 0.9650
-6.5394 5.7688 -1.8433 0.9650
-8.3793 4.0982 -1.9717 0.9626
-8.8170 3.3747 -1.9956 0.9621
-9.4004 0.9199 -1.9965 0.9621
-9.1368 -2.4284 -1.9984 0.9621
-8.8861 -3.2347 -1.9989 0.9621
-8.5645 -4.0157 -1.9995 0.9621
-8.1744 -4.7651 -2.0001 0.9621
-7.7190 -5.4770 -2.0006 0.9620
-6.6267 -6.7657 -2.0018 0.9620
-5.9985 -7.3321 -2.0024 0.9620
-5.3221 -7.8403 -2.0030 0.9620
-4.6027 -8.2863 -2.0036 0.9620
-3.8462 -8.6663 -2.0042 0.9620
-2.2461 -9.2168 -2.0053 0.9620
-1.4152 -9.3828 -2.0058 0.9619
4.3500 -8.4457 -2.0081 0.9619
6.4321 -6.9934 -2.0084 0.9619
7.0303 -6.3916 -2.0084 0.9619
7.5723 -5.7388 -2.0084 0.9619
8.8194 -3.5279 -2.0079 0.9619
9.4343 -1.0661 -2.0069 0.9619
9.4898 -0.2201 -2.0065 0.9619
9.4695 0.6273 -2.0061 0.9619
9.2028 2.2990 -2.0051 0.9620
8.6430 3.8958 -2.0040 0.9620
8.2555 4.6482 -2.0026 0.9620
7.2149 4.9586 -1.8505 0.9648
6.7417 5.5808 -1.8500 0.9649
3.6642 7.9337 -1.8473 0.9649
2.9410 8.2267 -1.8467 0.9649
2.1948 8.4541 -1.8463 0.9649
-0.1221 8.7274 -1.8450 0.9649
-2.4275 8.3791 -1.8440 0.9650
-3.1649 8.1281 -1.8438 0.9650
-4.5582 7.4349 -1.8434 0.9650
-5.8065 6.5060 -1.8433 0.9650
-6.8704 5.3706 -1.8433 0.9650
-7.3226 4.7366 -1.8434 0.9650
-7.8213 4.1199 -1.8686 0.9645
-9.2219 2.0315 -1.9961 0.9621
-9.4362 -0.4833 -1.9972 0.9621
-9.3577 -1.3235 -1.9977 0.9621
-9.2046 -2.1536 -1.9982 0.9621
-8.6800 -3.7571 -1.9993 0.9621
-8.3126 -4.5178 -1.9999 0.9621
-7.3818 -5.9267 -2.0010 0.9620
-6.8256 -6.5636 -2.0016 0.9620
-6.2147 -7.1485 -2.0022 0.9620
-5.5539 -7.6767 -2.0028 0.9620
-4.8483 -8.1440 -2.0034 0.9620
-4.1036 -8.5465 -2.0040 0.9620
-3.3257 -8.8810 -2.0046 0.9620
-1.6954 -9.3354 -2.0056 0.9620
-0.0093 -9.4925 -2.0065 0.9619
0.8377 -9.4573 -2.0069 0.9619
1.6784 -9.3466 -2.0073 0.9619
3.3137 -8.9021 -2.0079 0.9619
4.0951 -8.5719 -2.0081 0.9619
4.8439 -8.1731 -2.0083 0.9619
7.8993 -5.2790 -2.0083 0.9619
8.3381 -4.5529 -2.0081 0.9619
8.7102 -3.7905 -2.0079 0.9619
9.0124 -2.9979 -2.0077 0.9619
9.2426 -2.1816 -2.0074 0.9619
9.4848 0.3435 -2.0062 0.9619
9.4142 1.1880 -2.0057 0.9619
8.7566 3.6356 -2.0042 0.9620
7.3934 4.7618 -1.8589 0.9647
2.4471 8.3853 -1.8464 0.9649
1.6889 8.5680 -1.8459 0.9649
0.1392 8.7277 -1.8451 0.9649
-4.3336 7.5682 -1.8435 0.9650
-5.6091 6.6769 -1.8433 0.9650
-6.1824 6.1498 -1.8433 0.9650
-6.7065 5.5739 -1.8433 0.9650
-7.5912 4.2938 -1.8435 0.9650
-9.3273 1.4807 -1.9963 0.9621
-9.4240 0.6428 -1.9967 0.9621
-9.4458 -0.2005 -1.9971 0.9621
-9.2642 -1.8769 -1.9980 0.9621
-8.7878 -3.4952 -1.9991 0.9621
-7.5551 -5.7024 -2.0008 0.9620
-6.4253 -6.9585 -2.0020 0.9620
-5.7806 -7.5062 -2.0026 0.9620
-5.0894 -7.9944 -2.0032 0.9620
-4.3572 -8.4190 -2.0038 0.9620
-3.5898 -8.7766 -2.0044 0.9620
0.5542 -9.4776 -2.0068 0.9619
3.8365 -8.6904 -2.0080 0.9619
4.5969 -8.3142 -2.0082 0.9619
6.0020 -7.3657 -2.0084 0.9619
6.6352 -6.8010 -2.0084 0.9619
7.2154 -6.1818 -2.0084 0.9619
8.1983 -4.8006 -2.0082 0.9619
8.5931 -4.0497 -2.0080 0.9619
8.9190 -3.2666 -2.0078 0.9619
9.1736 -2.4575 -2.0075 0.9619
9.3547 -1.6290 -2.0072 0.9619
9.4610 -0.7878 -2.0068 0.9619
9.4915 0.0594 -2.0064 0.9619
9.4463 0.9057 -2.0059 0.9619
9.3255 1.7444 -2.0054 0.9620
8.5238 4.1482 -2.0038 0.9620
7.0650 5.1683 -1.8503 0.9648
5.4394 6.8485 -1.8487 0.9649
4.8053 7.3043 -1.8481 0.9649
3.4288 8.0374 -1.8471 0.9649
2.6973 8.3090 -1.8466 0.9649
1.1772 8.6517 -1.8457 0.9649
-1.1551 8.6492 -1.8445 0.9650
-1.9218 8.5102 -1.8442 0.9650
-4.1052 7.6947 -1.8435 0.9650
-4.7750 7.2973 -1.8434 0.9650
-6.5365 5.7721 -1.8433 0.9650
-7.4590 4.5190 -1.8435 0.9650
-8.8153 3.3791 -1.9956 0.9621
-9.0829 2.5795 -1.9959 0.9621
-9.3999 0.9246 -1.9965 0.9621
-9.4469 0.0823 -1.9970 0.9621
-9.1380 -2.4239 -1.9984 0.9621
-8.8877 -3.2303 -1.9989 0.9621
-8.1768 -4.7610 -2.0001 0.9621
-6.6301 -6.7623 -2.0018 0.9620
-3.8505 -8.6644 -2.0042 0.9620
-3.0631 -8.9758 -2.0047 0.9620
-1.4199 -9.3821 -2.0058 0.9619
-0.5773 -9.4735 -2.0062 0.9619
0.2702 -9.4893 -2.0067 0.9619
1.1159 -9.4292 -2.0070 0.9619
1.9530 -9.2936 -2.0074 0.9619
2.7747 -9.0837 -2.0077 0.9619
4.3458 -8.4479 -2.0081 0.9619
6.4286 -6.9966 -2.0084 0.9619
7.0272 -6.3951 -2.0084 0.9619
7.5694 -5.7425 -2.0084 0.9619
8.8176 -3.5323 -2.0079 0.9619
9.0964 -2.7312 -2.0076 0.9619
9.3743 1.4646 -2.0056 0.9620
9.2040 2.2944 -2.0051 0.9620
8.6450 3.8915 -2.0040 0.9620
8.2582 4.6443 -2.0027 0.9620
6.7445 5.5775 -1.8500 0.9649
6.2182 6.1551 -1.8494 0.9649
5.6425 6.6833 -1.8489 0.9649
3.6682 7.9319 -1.8473 0.9649
2.1990 8.4530 -1.8463 0.9649
-0.1178 8.7274 -1.8450 0.9649
-0.8957 8.6804 -1.8446 0.9650
-1.6663 8.5644 -1.8443 0.9650
-2.4233 8.3803 -1.8440 0.9650
-3.1609 8.1297 -1.8438 0.9650
-3.8731 7.8144 -1.8436 0.9650
-4.5545 7.4371 -1.8434 0.9650
-5.1995 7.0008 -1.8433 0.9650
-6.8678 5.3741 -1.8433 0.9650
-7.8125 4.1202 -1.8670 0.9645
-9.2209 2.0361 -1.9961 0.9621
-9.4395 0.3651 -1.9968 0.9621
-9.3583 -1.3188 -1.9977 0.9621
-9.2057 -2.1490 -1.9982 0.9621
-8.9796 -2.9625 -1.9987 0.9621
-8.6819 -3.7528 -1.9993 0.9621
-7.3847 -5.9230 -2.0010 0.9620
-6.8289 -6.5601 -2.0016 0.9620
-6.2183 -7.1454 -2.0022 0.9620
-4.1078 -8.5444 -2.0040 0.9620
-2.5254 -9.1434 -2.0051 0.9620
-1.7000 -9.3346 -2.0056 0.9620
1.6738 -9.3474 -2.0073 0.9619
3.3093 -8.9037 -2.0079 0.9619
4.0908 -8.5739 -2.0081 0.9619
4.8399 -8.1755 -2.0083 0.9619
6.2163 -7.1859 -2.0084 0.9619
7.3942 -5.9667 -2.0084 0.9619
7.8966 -5.2829 -2.0083 0.9619
9.3980 -1.3528 -2.0070 0.9619
9.4794 -0.5089 -2.0066 0.9619
9.4850 0.3388 -2.0062 0.9619
9.4148 1.1833 -2.0057 0.9619
9.2693 2.0180 -2.0052 0.9620
8.3972 4.3969 -2.0036 0.9620
7.4119 4.7685 -1.8630 0.9646
5.8407 6.5120 -1.8491 0.9649
5.2349 7.0050 -1.8485 0.9649
4.5877 7.4419 -1.8480 0.9649
2.4513 8.3841 -1.8464 0.9649
0.9219 8.6820 -1.8455 0.9649
0.1436 8.7277 -1.8451 0.9649
-1.4092 8.6109 -1.8444 0.9650
-2.1714 8.4495 -1.8441 0.9650
-3.6376 7.9271 -1.8436 0.9650
-4.3299 7.5704 -1.8435 0.9650
-4.9877 7.1535 -1.8434 0.9650
-5.6058 6.6797 -1.8433 0.9650
-7.5890 4.2976 -1.8435 0.9650
-8.5786 3.8921 -1.9912 0.9622
-9.1553 2.3111 -1.9960 0.9621
-9.3266 1.4854 -1.9963 0.9621
-9.3929 -1.0380 -1.9975 0.9621
-9.2651 -1.8723 -1.9980 0.9621
-9.0634 -2.6921 -1.9986 0.9621
-8.7895 -3.4909 -1.9991 0.9621
-8.0338 -5.0002 -2.0002 0.9621
-7.0215 -6.3521 -2.0014 0.9620
-6.4288 -6.9553 -2.0020 0.9620
-5.7844 -7.5033 -2.0026 0.9620
-2.7977 -9.0629 -2.0049 0.9620
-1.9785 -9.2787 -2.0054 0.9620
-1.1431 -9.4205 -2.0059 0.9619
1.3931 -9.3928 -2.0072 0.9619
2.2259 -9.2326 -2.0075 0.9619
3.0411 -8.9985 -2.0078 0.9619
5.3168 -7.8741 -2.0083 0.9619
6.6318 -6.8043 -2.0084 0.9619
7.2123 -6.1854 -2.0084 0.9619
7.7351 -5.5171 -2.0083 0.9619
8.5911 -4.0540 -2.0080 0.9619
9.4606 -0.7925 -2.0068 0.9619
9.3264 1.7398 -2.0054 0.9620
9.1316 2.5642 -2.0049 0.9620
8.8641 3.3677 -2.0044 0.9620
8.5259 4.1439 -2.0038 0.9620
7.0676 5.1648 -1.8504 0.9648
5.4428 6.8458 -1.8487 0.9649
7.9682 3.0365 -2.0041 0.9656
7.6636 3.7343 -2.0036 0.9656
7.2879 4.3958 -2.0003 0.9656
5.9098 5.1981 -1.8498 0.9682
5.4210 5.7030 -1.8493 0.9682
4.3189 6.5721 -1.8483 0.9682
3.0806 7.2313 -1.8473 0.9682
2.4226 7.4755 -1.8469 0.9682
-1.7328 7.6554 -1.8447 0.9683
-3.0650 7.2239 -1.8443 0.9683
-3.6969 6.9211 -1.8441 0.9683
-4.2993 6.5632 -1.8440 0.9683
-5.3970 5.6944 -1.8439 0.9683
-5.8835 5.1903 -1.8439 0.9683
-6.3233 4.6448 -1.8440 0.9683
-7.6240 3.7288 -1.9946 0.9657
-7.9324 3.0361 -1.9962 0.9657
-8.1727 2.3166 -1.9964 0.9657
-8.4569 0.8276 -1.9971 0.9657
-8.4986 0.0698 -1.9974 0.9657
-8.3792 -1.4422 -1.9983 0.9657
-8.2190 -2.1845 -1.9987 0.9657
-7.9933 -2.9097 -1.9992 0.9657
-6.9428 -4.9263 -2.0007 0.9656
-5.9600 -6.0850 -2.0018 0.9656
-4.7864 -7.0511 -2.0029 0.9656
-4.1393 -7.4519 -2.0034 0.9656
-2.7505 -8.0730 -2.0044 0.9656
-2.0198 -8.2881 -2.0049 0.9656
-1.2726 -8.4371 -2.0054 0.9655
1.0076 -8.4778 -2.0065 0.9655
1.7602 -8.3554 -2.0068 0.9655
2.4989 -8.1662 -2.0071 0.9655
3.2178 -7.9116 -2.0073 0.9655
3.9112 -7.5936 -2.0075 0.9655
4.5733 -7.2149 -2.0076 0.9655
5.1990 -6.7784 -2.0077 0.9655
5.7831 -6.2877 -2.0078 0.9655
6.3210 -5.7467 -2.0077 0.9655
6.8082 -5.1597 -2.0077 0.9655
7.2410 -4.5315 -2.0076 0.9655
7.6158 -3.8671 -2.0074 0.9655
8.4830 -0.9586 -2.0064 0.9655
8.5150 0.5640 -2.0056 0.9655
7.7727 3.5035 -2.0037 0.9656
7.4272 4.1818 -2.0032 0.9656
5.0721 6.0136 -1.8489 0.9682
4.5141 6.4404 -1.8484 0.9682
3.9205 6.8157 -1.8479 0.9682
3.2960 7.1365 -1.8475 0.9682
1.9743 7.6049 -1.8466 0.9682
1.2877 7.7490 -1.8462 0.9682
0.5911 7.8313 -1.8458 0.9682
-0.1098 7.8513 -1.8454 0.9683
-2.8474 7.3127 -1.8443 0.9683
-3.4881 7.0288 -1.8442 0.9683
-4.1010 6.6891 -1.8440 0.9683
-4.6812 6.2963 -1.8439 0.9683
-5.2241 5.8534 -1.8439 0.9683
-5.7255 5.3640 -1.8439 0.9683
-6.5881 4.2615 -1.8440 0.9683
-7.4948 3.9479 -1.9909 0.9658
-8.0993 2.5602 -1.9964 0.9657
-8.4279 1.0804 -1.9969 0.9657
-8.4921 0.3242 -1.9973 0.9657
-8.2801 -1.9373 -1.9986 0.9657
-8.0761 -2.6689 -1.9990 0.9657
-6.1390 -5.9033 -2.0016 0.9656
-5.5894 -6.4292 -2.0022 0.9656
-4.9949 -6.9040 -2.0027 0.9656
-4.3602 -7.3240 -2.0033 0.9656
-3.6903 -7.6858 -2.0038 0.9656
-2.9907 -7.9864 -2.0043 0.9656
-2.2668 -8.2233 -2.0048 0.9656
-0.0084 -8.5355 -2.0060 0.9655
0.7533 -8.5037 -2.0064 0.9655
2.9794 -8.0041 -2.0072 0.9655
3.6820 -7.7071 -2.0074 0.9655
4.9937 -6.9310 -2.0077 0.9655
5.5922 -6.4580 -2.0077 0.9655
6.6508 -5.3613 -2.0077 0.9655
7.8314 -3.4081 -2.0073 0.9655
8.1033 -2.6955 -2.0071 0.9655
8.3104 -1.9616 -2.0068 0.9655
8.4509 -1.2122 -2.0065 0.9655
8.4654 1.0683 -2.0053 0.9655
8.3344 1.8188 -2.0049 0.9656
8.1370 2.5545 -2.0044 0.9656
7.8747 3.2695 -2.0039 0.9656
7.5497 3.9579 -2.0034 0.9656
6.2114 4.8359 -1.8501 0.9682
5.2503 5.8596 -1.8491 0.9682
4.7054 6.3030 -1.8486 0.9682
2.6161 5.2457 -1.3777 0.9762
2.8662 7.3183 -1.8472 0.9682
2.2013 7.5430 -1.8467 0.9682
1.5193 7.7075 -1.8463 0.9682
0.8254 7.8107 -1.8459 0.9682
-1.2716 7.7462 -1.8449 0.9683
-1.9573 7.6008 -1.8446 0.9683
-3.2762 7.1303 -1.8442 0.9683
-3.8990 6.8091 -1.8441 0.9683
-4.4906 6.4337 -1.8440 0.9683
-5.0465 6.0072 -1.8439 0.9683
-5.5623 5.5330 -1.8439 0.9683
-7.2586 4.1057 -1.9599 0.9663
-8.0187 2.8014 -1.9963 0.9657
-8.4781 0.5783 -1.9972 0.9657
-8.4493 -0.9380 -1.9980 0.9657
-8.3337 -1.6884 -1.9984 0.9657
-7.5947 -3.8377 -1.9999 0.9656
-7.2239 -4.5011 -2.0004 0.9656
-6.7954 -5.1290 -2.0009 0.9656
-6.3124 -5.7163 -2.0015 0.9656
-4.5771 -7.1896 -2.0031 0.9656
-3.9185 -7.5712 -2.0036 0.9656
-3.2282 -7.8926 -2.0041 0.9656
-1.7750 -8.3446 -2.0051 0.9656
-1.0237 -8.4715 -2.0055 0.9655
1.2568 -8.4449 -2.0066 0.9655
2.7383 -8.0894 -2.0072 0.9655
3.4495 -7.8137 -2.0074 0.9655
4.1331 -7.4754 -2.0075 0.9655
5.9657 -6.1147 -2.0078 0.9655
7.3711 -4.3163 -2.0075 0.9655
7.7262 -3.6411 -2.0074 0.9655
8.0193 -2.9371 -2.0072 0.9655
8.2483 -2.2096 -2.0069 0.9655
8.5070 -0.7084 -2.0063 0.9655
8.5347 0.0534 -2.0059 0.9655
7.9698 3.0325 -2.0041 0.9656
7.6655 3.7305 -2.0036 0.9656
6.3540 4.6482 -1.8503 0.9682
5.9124 5.1951 -1.8498 0.9682
4.8924 6.1598 -1.8488 0.9682
4.3222 6.5700 -1.8483 0.9682
2.4263 7.4743 -1.8469 0.9682
1.7495 7.6592 -1.8464 0.9682
1.0590 7.7830 -1.8460 0.9682
-0.3409 7.8442 -1.8453 0.9683
-1.7290 7.6563 -1.8447 0.9683
-3.6935 6.9229 -1.8441 0.9683
-4.2961 6.5654 -1.8440 0.9683
-5.8809 5.1932 -1.8439 0.9683
-6.3210 4.6480 -1.8440 0.9683
-7.6219 3.7325 -1.9946 0.9657
-8.1715 2.3207 -1.9964 0.9657
-8.4565 0.8318 -1.9971 0.9657
-8.4729 -0.6845 -1.9978 0.9657
-8.3799 -1.4380 -1.9983 0.9657
-7.7055 -3.6083 -1.9997 0.9656
-5.9631 -6.0820 -2.0018 0.9656
-4.7899 -7.0487 -2.0029 0.9656
-3.4627 -7.7918 -2.0039 0.9656
-0.5191 -8.5185 -2.0058 0.9655
0.2429 -8.5325 -2.0062 0.9655
2.4948 -8.1674 -2.0071 0.9655
4.5697 -7.2172 -2.0076 0.9655
5.7800 -6.2906 -2.0078 0.9655
6.8057 -5.1631 -2.0077 0.9655
7.2388 -4.5351 -2.0076 0.9655
7.6139 -3.8709 -2.0074 0.9655
7.9281 -3.1759 -2.0072 0.9655
8.1788 -2.4557 -2.0070 0.9655
8.4825 -0.9628 -2.0064 0.9655
8.5330 -0.2022 -2.0060 0.9655
8.5153 0.5598 -2.0056 0.9655
8.4296 1.3170 -2.0052 0.9655
8.2767 2.0633 -2.0047 0.9656
8.0576 2.7928 -2.0043 0.9656
7.7744 3.4996 -2.0038 0.9656
6.5354 4.4868 -1.8631 0.9680
5.0751 6.0111 -1.8489 0.9682
3.9239 6.8137 -1.8480 0.9682
2.6492 7.3989 -1.8470 0.9682
1.9781 7.6039 -1.8466 0.9682
-0.1059 7.8514 -1.8454 0.9683
-1.4991 7.7050 -1.8448 0.9683
-2.8438 7.3141 -1.8443 0.9683
-3.4846 7.0306 -1.8442 0.9683
-4.6780 6.2986 -1.8439 0.9683
-5.2212 5.8560 -1.8439 0.9683
-5.7228 5.3669 -1.8439 0.9683
-6.1789 4.8350 -1.8439 0.9683
-7.8361 3.2760 -1.9961 0.9657
-8.0980 2.5642 -1.9964 0.9657
-8.4273 1.0845 -1.9969 0.9657
-8.4891 -0.4305 -1.9977 0.9657
-7.8094 -3.3757 -1.9995 0.9656
-7.4791 -4.0600 -2.0000 0.9656
-7.0889 -4.7123 -2.0006 0.9656
-6.6420 -5.3273 -2.0011 0.9656
-2.9947 -7.9849 -2.0043 0.9656
-2.2709 -8.2222 -2.0047 0.9656
-1.5287 -8.3939 -2.0052 0.9655
-0.7739 -8.4986 -2.0056 0.9655
-0.0126 -8.5354 -2.0060 0.9655
0.7490 -8.5041 -2.0064 0.9655
1.5050 -8.4047 -2.0067 0.9655
2.9754 -8.0056 -2.0072 0.9655
4.9902 -6.9335 -2.0077 0.9655
6.6481 -5.3646 -2.0077 0.9655
7.0999 -4.7499 -2.0076 0.9655
7.8298 -3.4120 -2.0073 0.9655
8.1020 -2.6996 -2.0071 0.9655
8.3094 -1.9657 -2.0068 0.9655
8.4503 -1.2164 -2.0065 0.9655
8.5237 -0.4576 -2.0061 0.9655
8.5289 0.3046 -2.0058 0.9655
8.4659 1.0641 -2.0053 0.9655
8.3354 1.8147 -2.0049 0.9656
8.1383 2.5505 -2.0044 0.9656
7.8764 3.2655 -2.0039 0.9656
7.5517 3.9542 -2.0034 0.9656
7.1428 4.5954 -1.9961 0.9657
5.2532 5.8570 -1.8491 0.9682
4.7085 6.3006 -1.8486 0.9682
4.1265 6.6938 -1.8481 0.9682
2.6162 5.2395 -1.3764 0.9762
2.8698 7.3169 -1.8472 0.9682
2.2051 7.5419 -1.8467 0.9682
1.5231 7.7068 -1.8463 0.9682
-1.2677 7.7468 -1.8449 0.9683
-1.9535 7.6017 -1.8446 0.9683
-3.2727 7.1320 -1.8442 0.9683
-4.4874 6.4360 -1.8440 0.9683
-5.0435 6.0098 -1.8439 0.9683
-5.5595 5.5358 -1.8439 0.9683
-6.0313 5.0178 -1.8439 0.9683
-7.2508 4.1060 -1.9584 0.9663
-7.7342 3.5090 -1.9961 0.9657
-8.2367 2.0792 -1.9965 0.9657
-8.3906 1.3363 -1.9968 0.9657
-8.4778 0.5825 -1.9972 0.9657
-8.4497 -0.9337 -1.9980 0.9657
-7.9063 -3.1401 -1.9994 0.9656
-7.5966 -3.8339 -1.9999 0.9656
-6.7979 -5.1256 -2.0009 0.9656
-5.7820 -6.2555 -2.0020 0.9656
-4.5807 -7.1873 -2.0031 0.9656
-0.2682 -8.5307 -2.0059 0.9655
0.4941 -8.5222 -2.0063 0.9655
1.2526 -8.4455 -2.0066 0.9655
2.0014 -8.3014 -2.0069 0.9655
2.7343 -8.0907 -2.0072 0.9655
4.7803 -7.0796 -2.0077 0.9655
5.3931 -6.6252 -2.0077 0.9655
6.4846 -5.5613 -2.0077 0.9655
6.9546 -4.9604 -2.0077 0.9655
7.3690 -4.3199 -2.0075 0.9655
8.2472 -2.2137 -2.0069 0.9655
8.4946 0.8102 -2.0055 0.9655
8.3866 1.5645 -2.0050 0.9656
7.9713 3.0285 -2.0041 0.9656
7.2928 4.3889 -2.0004 0.9656
5.4267 5.6976 -1.8493 0.9682
4.8955 6.1574 -1.8488 0.9682
3.0878 7.2283 -1.8473 0.9682
2.4301 7.4731 -1.8469 0.9682
6.9558 3.3893 -2.0034 0.9685
4.9208 5.1768 -1.8493 0.9709
4.4383 5.5937 -1.8488 0.9709
2.7216 5.0774 -1.4916 0.9765
1.5848 6.9542 -1.8467 0.9710
0.9579 7.0664 -1.8464 0.9710
0.3236 7.1224 -1.8460 0.9710
-3.3566 6.2840 -1.8446 0.9710
-3.9036 5.9592 -1.8445 0.9710
-4.4195 5.5869 -1.8444 0.9710
-4.9003 5.1703 -1.8444 0.9710
-5.3420 4.7126 -1.8444 0.9710
-5.7413 4.2173 -1.8445 0.9710
-6.5783 3.9810 -1.9908 0.9687
-7.2022 2.7566 -1.9967 0.9686
-7.4202 2.1033 -1.9969 0.9686
-7.6781 0.7514 -1.9975 0.9686
-7.7158 0.0634 -1.9978 0.9686
-7.6921 -0.6253 -1.9982 0.9686
-7.6071 -1.3093 -1.9986 0.9686
-7.4615 -1.9831 -1.9990 0.9686
-5.4100 -5.5234 -2.0018 0.9686
-4.8968 -5.9855 -2.0023 0.9686
-3.1393 -7.0735 -2.0037 0.9685
-2.4963 -7.3270 -2.0042 0.9685
-1.8331 -7.5221 -2.0046 0.9685
3.5493 -6.8910 -2.0070 0.9685
5.2479 -5.7058 -2.0072 0.9685
5.7360 -5.2149 -2.0072 0.9685
6.5710 -4.1122 -2.0070 0.9685
7.4233 -2.2248 -2.0065 0.9685
7.5912 -1.5535 -2.0062 0.9685
7.6984 -0.8699 -2.0059 0.9685
7.7278 0.5119 -2.0053 0.9685
7.6498 1.1990 -2.0049 0.9685
7.5108 1.8763 -2.0044 0.9685
7.0547 3.1798 -2.0036 0.9685
6.3528 4.3661 -1.9959 0.9687
5.0740 5.0275 -1.8494 0.9709
2.9921 6.4785 -1.8477 0.9709
1.7924 6.9041 -1.8468 0.9710
-0.0997 7.1282 -1.8458 0.9710
-1.3645 6.9949 -1.8452 0.9710
-3.1670 6.3818 -1.8447 0.9710
-3.7235 6.0735 -1.8445 0.9710
-5.1985 4.8704 -1.8444 0.9710
-5.6124 4.3873 -1.8445 0.9710
-6.3532 4.1096 -1.9591 0.9692
-6.8222 3.5936 -1.9965 0.9686
-7.3536 2.3245 -1.9968 0.9686
-7.6517 0.9809 -1.9974 0.9686
-7.7100 0.2944 -1.9977 0.9686
-7.6424 -1.0809 -1.9984 0.9686
-6.7875 -3.6890 -2.0002 0.9686
-5.5724 -5.3585 -2.0016 0.9686
-5.0734 -5.8357 -2.0021 0.9686
-4.5337 -6.2666 -2.0026 0.9685
-3.9575 -6.6476 -2.0031 0.9685
-3.3494 -6.9758 -2.0036 0.9685
-2.0573 -7.4633 -2.0045 0.9685
-1.3836 -7.6187 -2.0049 0.9685
-0.6985 -7.7132 -2.0053 0.9685
0.6836 -7.7172 -2.0060 0.9685
1.3696 -7.6266 -2.0063 0.9685
2.0448 -7.4750 -2.0065 0.9685
2.7038 -7.2635 -2.0067 0.9685
