ply
format ascii 1.0
element vertex 1597
property float32 x
property float32 y
property float32 z
property float32 I
end_header
-6.1862 -7.1258 -1.9947 0.9622
-5.5283 -7.6516 -1.9954 0.9621
-4.8260 -8.1170 -1.9961 0.9621
-2.5094 -9.1162 -1.9987 0.9621
-0.8514 -9.4255 -2.0005 0.9620
0.8366 -9.4355 -2.0023 0.9620
2.5012 -9.1453 -2.0041 0.9620
3.3079 -8.8899 -2.0050 0.9620
5.5491 -7.7072 -2.0075 0.9619
6.8343 -6.6039 -2.0089 0.9619
8.3451 -4.5640 -2.0106 0.9619
8.7205 -3.8027 -2.0110 0.9619
9.0263 -3.0107 -2.0113 0.9618
9.2600 -2.1943 -2.0116 0.9618
9.5038 -0.5151 -2.0119 0.9618
9.0826 2.8385 -2.0114 0.9618
8.7920 3.6363 -2.0111 0.9618
8.4003 4.3885 -2.0034 0.9620
7.3946 4.7469 -1.8574 0.9647
6.9402 5.3858 -1.8569 0.9647
4.5020 5.0072 -1.4233 0.9728
5.2626 7.0233 -1.8551 0.9648
3.9286 7.8401 -1.8537 0.9648
2.4718 8.4059 -1.8521 0.9648
1.7119 8.5890 -1.8512 0.9648
-0.6209 8.7238 -1.8487 0.9649
-1.3955 8.6297 -1.8479 0.9649
-2.1583 8.4672 -1.8470 0.9649
-2.9032 8.2374 -1.8462 0.9649
-3.6244 7.9424 -1.8454 0.9649
-4.3162 7.5846 -1.8447 0.9650
-5.5902 6.6925 -1.8433 0.9650
-6.6854 5.5897 -1.8420 0.9650
-8.5621 3.9121 -1.9898 0.9622
-8.8856 3.1364 -1.9918 0.9622
-9.1286 2.3315 -1.9915 0.9622
-9.3664 -1.0060 -1.9912 0.9622
-8.7691 -3.4496 -1.9919 0.9622
-7.5488 -5.6506 -1.9932 0.9622
-6.4292 -6.9055 -1.9944 0.9622
-5.7901 -7.4538 -1.9951 0.9621
-3.6157 -8.7305 -1.9975 0.9621
-2.8242 -9.0219 -1.9983 0.9621
-2.0096 -9.2419 -1.9992 0.9621
-0.3368 -9.4605 -2.0010 0.9620
1.3498 -9.3786 -2.0029 0.9620
3.7883 -8.6988 -2.0055 0.9620
4.5505 -8.3299 -2.0064 0.9619
5.9620 -7.3951 -2.0079 0.9619
6.5998 -6.8366 -2.0086 0.9619
8.5825 -4.1032 -2.0108 0.9619
8.9157 -3.3224 -2.0112 0.9618
9.1777 -2.5147 -2.0115 0.9618
9.4801 -0.8451 -2.0118 0.9618
9.5179 0.0033 -2.0119 0.9618
9.4795 0.8518 -2.0119 0.9618
8.9136 3.3287 -2.0113 0.9618
7.1239 5.1419 -1.8571 0.9647
6.0939 6.3214 -1.8560 0.9647
4.2087 5.2278 -1.4187 0.9729
4.8710 7.2979 -1.8547 0.9648
4.1994 7.7000 -1.8540 0.9648
3.4948 8.0404 -1.8532 0.9648
-0.3174 8.7417 -1.8490 0.9649
-1.0949 8.6746 -1.8482 0.9649
-1.8630 8.5386 -1.8473 0.9649
-3.3467 8.0649 -1.8457 0.9649
-4.0506 7.7312 -1.8449 0.9649
-5.3550 6.8837 -1.8435 0.9650
-7.4141 4.5722 -1.8412 0.9650
-8.4012 4.1974 -1.9851 0.9623
-9.3672 0.9994 -1.9913 0.9622
-9.4186 0.1604 -1.9912 0.9622
-8.5691 -3.9226 -1.9921 0.9622
-6.6645 -6.6771 -1.9941 0.9622
-5.3766 -7.7599 -1.9955 0.9621
-3.9163 -8.5981 -1.9971 0.9621
-3.1356 -8.9168 -1.9980 0.9621
-2.3292 -9.1649 -1.9989 0.9621
-0.6653 -9.4414 -2.0007 0.9620
1.0228 -9.4181 -2.0025 0.9620
3.4831 -8.8237 -2.0052 0.9620
4.9988 -8.0716 -2.0069 0.9619
6.3574 -7.0609 -2.0084 0.9619
6.9639 -6.4682 -2.0090 0.9619
7.5150 -5.8234 -2.0096 0.9619
8.0064 -5.1317 -2.0102 0.9619
8.7943 -3.6300 -2.0111 0.9618
9.3017 -2.0112 -2.0116 0.9618
9.4448 -1.1741 -2.0118 0.9618
9.5122 -0.3274 -2.0119 0.9618
9.5035 0.5218 -2.0119 0.9618
9.2587 2.2009 -2.0116 0.9618
8.7182 3.8090 -2.0111 0.9619
7.2990 4.8917 -1.8573 0.9647
4.3341 5.0162 -1.4013 0.9733
5.1225 7.1252 -1.8550 0.9648
4.4652 7.5506 -1.8542 0.9648
3.0509 8.2167 -1.8527 0.9648
-0.7929 8.7090 -1.8485 0.9649
-2.3247 8.4221 -1.8468 0.9649
-4.4647 7.4972 -1.8445 0.9650
-5.7208 6.5803 -1.8431 0.9650
-7.2514 4.8276 -1.8414 0.9650
-7.7926 4.2380 -1.8750 0.9644
-8.9455 2.9603 -1.9917 0.9622
-9.1726 2.1508 -1.9915 0.9622
-9.4134 -0.3529 -1.9912 0.9622
-9.3448 -1.1907 -1.9913 0.9622
-8.9865 -2.8317 -1.9916 0.9622
-7.4362 -5.7989 -1.9933 0.9622
-6.8917 -6.4406 -1.9939 0.9622
-3.4430 -8.8010 -1.9976 0.9621
-1.8270 -9.2807 -1.9994 0.9621
1.5347 -9.3511 -2.0031 0.9620
3.1738 -8.9379 -2.0049 0.9620
3.9596 -8.6231 -2.0057 0.9619
4.7145 -8.2392 -2.0066 0.9619
6.1073 -7.2766 -2.0081 0.9619
6.7340 -6.7055 -2.0088 0.9619
7.3072 -6.0804 -2.0094 0.9619
7.8224 -5.4064 -2.0100 0.9619
8.2753 -4.6887 -2.0105 0.9619
8.6621 -3.9331 -2.0109 0.9619
8.9799 -3.1459 -2.0113 0.9618
9.2258 -2.3332 -2.0115 0.9618
9.5160 0.1912 -2.0119 0.9618
9.3299 1.8778 -2.0117 0.9618
8.8459 3.5039 -2.0112 0.9618
8.4755 4.2670 -2.0058 0.9619
7.4654 4.6355 -1.8575 0.9647
7.0206 5.2812 -1.8570 0.9647
6.5200 5.8843 -1.8565 0.9647
5.3678 6.9439 -1.8552 0.9648
4.7256 7.3920 -1.8545 0.9648
2.5981 8.3685 -1.8522 0.9648
1.8409 8.5629 -1.8514 0.9648
1.0697 8.6890 -1.8505 0.9648
-2.7793 8.2807 -1.8463 0.9649
-3.5049 7.9965 -1.8455 0.9649
-4.2020 7.6491 -1.8448 0.9649
-7.0799 5.0773 -1.8416 0.9650
-7.5025 4.4248 -1.8411 0.9650
-8.8377 3.2696 -1.9919 0.9622
-9.2756 1.6478 -1.9914 0.9622
-9.3850 0.8143 -1.9912 0.9622
-9.4200 -0.0255 -1.9912 0.9622
-9.0791 -2.5176 -1.9915 0.9622
-8.8197 -3.3174 -1.9918 0.9622
-8.4903 -4.0911 -1.9922 0.9622
-7.1105 -6.1965 -1.9937 0.9622
-5.9010 -7.3655 -1.9950 0.9621
-4.5027 -8.3027 -1.9965 0.9621
-3.7462 -8.6746 -1.9973 0.9621
-2.9593 -8.9778 -1.9982 0.9621
-2.1481 -9.2100 -1.9991 0.9621
-1.3191 -9.3690 -2.0000 0.9621
-0.4789 -9.4536 -2.0009 0.9620
0.3659 -9.4631 -2.0018 0.9620
1.2086 -9.3971 -2.0027 0.9620
2.0424 -9.2561 -2.0036 0.9620
2.8607 -9.0413 -2.0045 0.9620
7.6290 -5.6744 -2.0098 0.9619
8.1066 -4.9730 -2.0103 0.9619
8.5196 -4.2315 -2.0108 0.9619
8.8645 -3.4558 -2.0111 0.9618
9.4662 -0.9874 -2.0118 0.9618
9.4913 0.7093 -2.0119 0.9618
9.2132 2.3831 -2.0116 0.9618
8.9629 3.1945 -2.0113 0.9618
8.6409 3.9801 -2.0110 0.9619
6.7213 5.6548 -1.8567 0.9647
2.8160 -8.0506 -2.0045 0.9656
4.2041 -7.4282 -2.0060 0.9655
4.8512 -7.0264 -2.0067 0.9655
5.4601 -6.5681 -2.0074 0.9655
7.0094 -4.8934 -2.0091 0.9655
8.0590 -2.8660 -2.0103 0.9655
8.4417 -1.3896 -2.0107 0.9655
8.5324 -0.6316 -2.0108 0.9655
8.5549 0.1315 -2.0108 0.9655
8.5090 0.8936 -2.0108 0.9655
8.2138 2.3901 -2.0105 0.9655
7.9670 3.1124 -2.0102 0.9655
7.6541 3.8084 -2.0093 0.9655
6.7372 4.1394 -1.8584 0.9680
5.8867 5.2626 -1.8558 0.9681
4.8557 6.2206 -1.8547 0.9681
4.2804 6.6265 -1.8540 0.9681
1.6918 7.6929 -1.8512 0.9682
0.9989 7.8099 -1.8505 0.9682
-0.4035 7.8567 -1.8489 0.9682
-1.1019 7.7862 -1.8482 0.9682
-2.4650 7.4607 -1.8467 0.9682
-3.7479 6.8992 -1.8453 0.9683
-4.3464 6.5353 -1.8446 0.9683
-6.3488 4.5984 -1.8424 0.9683
-7.9386 2.9796 -1.9928 0.9658
-8.3397 1.5221 -1.9924 0.9658
-8.4446 -0.7387 -1.9923 0.9658
-8.3456 -1.4887 -1.9924 0.9658
-8.1803 -2.2269 -1.9925 0.9658
-7.9502 -2.9476 -1.9928 0.9658
-7.6570 -3.6452 -1.9931 0.9658
-7.3030 -4.3141 -1.9935 0.9657
-6.8908 -4.9490 -1.9939 0.9657
-5.3402 -6.6015 -1.9956 0.9657
-4.7320 -7.0536 -1.9962 0.9657
-4.0858 -7.4500 -1.9970 0.9657
-3.4067 -7.7874 -1.9977 0.9657
-2.7000 -8.0632 -1.9985 0.9657
2.5341 -8.1423 -2.0042 0.9656
4.6035 -7.1897 -2.0064 0.9655
6.3479 -5.7209 -2.0084 0.9655
7.9541 -3.1442 -2.0101 0.9655
8.2039 -2.4229 -2.0104 0.9655
8.5543 -0.1659 -2.0108 0.9655
8.4474 1.3558 -2.0107 0.9655
7.7848 3.5414 -2.0100 0.9655
7.3477 4.1699 -1.9856 0.9659
4.1996 5.0107 -1.5365 0.9735
2.6320 7.4286 -1.8522 0.9681
-0.1303 7.8672 -1.8492 0.9682
-2.8671 7.3136 -1.8462 0.9682
-4.1172 6.6833 -1.8449 0.9683
-4.6950 6.2875 -1.8442 0.9683
-5.2351 5.8420 -1.8436 0.9683
-5.7333 5.3505 -1.8431 0.9683
-7.5002 3.9341 -1.9905 0.9658
-7.8307 3.2539 -1.9930 0.9658
-8.0885 2.5425 -1.9927 0.9658
-8.2525 -1.9412 -1.9925 0.9658
-8.0474 -2.6694 -1.9927 0.9658
-7.4479 -4.0573 -1.9933 0.9658
-7.0581 -4.7061 -1.9937 0.9657
-6.1133 -5.8877 -1.9948 0.9657
-5.5658 -6.4111 -1.9953 0.9657
-3.6748 -7.6632 -1.9974 0.9657
-2.9781 -7.9633 -1.9982 0.9657
-1.5179 -8.3723 -1.9997 0.9656
-0.0070 -8.5158 -2.0014 0.9656
1.5065 -8.3886 -2.0031 0.9656
2.2493 -8.2242 -2.0039 0.9656
2.9746 -7.9941 -2.0047 0.9656
3.6768 -7.7001 -2.0054 0.9655
4.3502 -7.3444 -2.0062 0.9655
4.9893 -6.9298 -2.0069 0.9655
5.5891 -6.4595 -2.0075 0.9655
6.1445 -5.9374 -2.0081 0.9655
6.6512 -5.3675 -2.0087 0.9655
7.1050 -4.7544 -2.0092 0.9655
7.5022 -4.1030 -2.0096 0.9655
8.1143 -2.7065 -2.0103 0.9655
8.3242 -1.9726 -2.0106 0.9655
8.4676 -1.2228 -2.0107 0.9655
8.5506 0.3004 -2.0108 0.9655
8.1648 2.5517 -2.0104 0.9655
7.9037 3.2689 -2.0102 0.9655
7.5669 3.9532 -2.0065 0.9655
6.6478 4.2675 -1.8566 0.9681
6.2394 4.8420 -1.8562 0.9681
5.7814 5.3775 -1.8557 0.9681
4.4756 4.9779 -1.5733 0.9729
2.8890 7.3338 -1.8525 0.9681
0.8445 7.8274 -1.8503 0.9682
-1.2552 7.7622 -1.8480 0.9682
-3.2605 7.1449 -1.8458 0.9682
-3.8830 6.8233 -1.8451 0.9683
-5.5445 5.5472 -1.8433 0.9683
-6.0153 5.0294 -1.8428 0.9683
-7.3438 4.1838 -1.9864 0.9659
-7.7134 3.5243 -1.9931 0.9658
-8.2144 2.0980 -1.9925 0.9658
-8.4552 0.6058 -1.9923 0.9658
-8.1350 -2.3880 -1.9926 0.9658
-7.8907 -3.1041 -1.9928 0.9658
-7.5839 -3.7957 -1.9932 0.9658
-5.2093 -6.7061 -1.9957 0.9657
-4.5923 -7.1462 -1.9964 0.9657
-3.9383 -7.5298 -1.9971 0.9657
-3.2526 -7.8538 -1.9979 0.9657
0.4570 -8.5056 -2.0019 0.9656
2.6946 -8.0915 -2.0044 0.9656
3.4065 -7.8221 -2.0051 0.9656
4.0918 -7.4901 -2.0059 0.9655
5.3605 -6.6490 -2.0073 0.9655
6.9348 -4.9980 -2.0090 0.9655
7.7154 -3.6887 -2.0099 0.9655
8.0149 -2.9867 -2.0102 0.9655
8.2503 -2.2606 -2.0105 0.9655
8.4198 -1.5163 -2.0107 0.9655
8.5219 -0.7597 -2.0108 0.9655
8.5559 0.0030 -2.0108 0.9655
8.5215 0.7657 -2.0108 0.9655
8.2489 2.2665 -2.0105 0.9655
8.0130 2.9924 -2.0103 0.9655
7.7131 3.6942 -2.0100 0.9655
6.9620 4.1348 -1.9030 0.9673
6.4045 4.6226 -1.8563 0.9681
4.2014 5.2188 -1.5746 0.9728
4.3797 6.5618 -1.8541 0.9681
1.8073 7.6671 -1.8513 0.9682
1.1162 7.7946 -1.8506 0.9682
0.4167 7.8598 -1.8498 0.9682
-0.9848 7.8024 -1.8483 0.9682
-1.6758 7.6804 -1.8475 0.9682
-3.6440 6.9551 -1.8454 0.9683
-4.8178 6.1931 -1.8441 0.9683
-5.8374 5.2360 -1.8430 0.9683
-6.2793 4.6935 -1.8425 0.9683
-8.1368 2.3823 -1.9926 0.9658
-8.3160 1.6473 -1.9924 0.9658
-8.3669 -1.3631 -1.9923 0.9658
-8.2127 -2.1037 -1.9925 0.9658
-7.7107 -3.5296 -1.9930 0.9658
-7.3667 -4.2037 -1.9934 0.9657
-6.9642 -4.8447 -1.9938 0.9657
-5.9963 -6.0076 -1.9949 0.9657
-4.1971 -7.3873 -1.9968 0.9657
-3.5231 -7.7349 -1.9976 0.9657
-2.8206 -8.0212 -1.9983 0.9657
-2.0952 -8.2440 -1.9991 0.9657
0.1610 -8.5150 -2.0016 0.9656
0.9198 -8.4703 -2.0024 0.9656
3.1321 -7.9346 -2.0048 0.9656
3.8284 -7.6267 -2.0056 0.9655
5.1255 -6.8305 -2.0070 0.9655
6.2609 -5.8153 -2.0083 0.9655
6.7562 -5.2355 -2.0088 0.9655
7.1978 -4.6135 -2.0093 0.9655
8.1664 -2.5459 -2.0104 0.9655
8.5508 -0.2944 -2.0108 0.9655
8.5430 0.4691 -2.0108 0.9655
8.1126 2.7122 -2.0104 0.9655
7.8374 3.4241 -2.0101 0.9655
6.5619 4.3977 -1.8565 0.9681
5.6738 5.4902 -1.8555 0.9681
3.3925 7.1175 -1.8531 0.9681
2.7434 7.3887 -1.8524 0.9681
2.0730 7.6009 -1.8516 0.9681
-1.4080 7.7352 -1.8478 0.9682
-2.7571 7.3564 -1.8464 0.9682
-5.1470 5.9203 -1.8437 0.9683
-5.6526 5.4363 -1.8432 0.9683
-7.7812 3.3713 -1.9930 0.9658
-8.0495 2.6638 -1.9927 0.9658
-8.2540 1.9354 -1.9925 0.9658
-8.3930 1.1918 -1.9923 0.9658
-8.4654 0.4388 -1.9922 0.9658
-8.2806 -1.8169 -1.9924 0.9658
-6.6909 -5.2177 -1.9941 0.9657
-6.2008 -5.7949 -1.9947 0.9657
-5.6612 -6.3264 -1.9952 0.9657
-4.4507 -7.2360 -1.9966 0.9657
-3.7892 -7.6067 -1.9973 0.9657
-2.3801 -8.1649 -1.9988 0.9657
-1.6434 -8.3479 -1.9996 0.9656
-0.8930 -8.4647 -2.0004 0.9656
-0.1350 -8.5141 -2.0013 0.9656
1.3802 -8.4097 -2.0029 0.9656
4.2391 -7.4085 -2.0060 0.9655
4.8844 -7.0035 -2.0068 0.9655
5.4911 -6.5424 -2.0074 0.9655
6.0543 -6.0287 -2.0080 0.9655
6.5695 -5.4666 -2.0086 0.9655
7.0325 -4.8604 -2.0091 0.9655
7.4394 -4.2151 -2.0096 0.9655
7.7871 -3.5358 -2.0100 0.9655
8.0725 -2.8280 -2.0103 0.9655
8.5353 -0.5914 -2.0108 0.9655
8.5542 0.1719 -2.0108 0.9655
8.5046 0.9337 -2.0108 0.9655
8.3870 1.6881 -2.0107 0.9655
7.9521 3.1498 -2.0102 0.9655
7.6335 3.8431 -2.0086 0.9655
6.7130 4.1683 -1.8571 0.9681
6.3117 4.7479 -1.8562 0.9681
5.8618 5.2903 -1.8557 0.9681
4.8263 6.2433 -1.8546 0.9681
2.9990 7.2900 -1.8526 0.9681
2.3363 7.5254 -1.8519 0.9681
0.9621 7.8144 -1.8504 0.9682
0.2615 7.8657 -1.8497 0.9682
-0.4405 7.8545 -1.8489 0.9682
-2.5001 7.4489 -1.8466 0.9682
-3.7802 6.8813 -1.8452 0.9683
-5.4608 5.6301 -1.8434 0.9683
-6.3704 4.5684 -1.8424 0.9683
-7.6598 3.6399 -1.9932 0.9658
-7.9525 2.9421 -1.9928 0.9658
-8.3467 1.4828 -1.9924 0.9658
-8.4767 -0.0230 -1.9922 0.9658
-8.4410 -0.7785 -1.9923 0.9658
-8.3385 -1.5280 -1.9924 0.9658
-8.1698 -2.2654 -1.9925 0.9658
-7.6398 -3.6813 -1.9931 0.9658
-7.2826 -4.3485 -1.9935 0.9657
-5.8769 -6.1252 -1.9950 0.9657
-4.0508 -7.4693 -1.9970 0.9657
-2.6620 -8.0760 -1.9985 0.9657
1.0870 -8.4512 -2.0026 0.9656
6.8586 -5.1014 -2.0089 0.9655
7.2878 -4.4707 -2.0094 0.9655
7.9689 -3.1067 -2.0102 0.9655
8.2153 -2.3842 -2.0104 0.9655
8.5095 -0.8877 -2.0108 0.9655
7.2441 4.1564 -1.9629 0.9663
2.5558 -7.3066 -2.0042 0.9685
3.1981 -7.0522 -2.0049 0.9685
3.8153 -6.7413 -2.0056 0.9685
5.4680 -5.4964 -2.0074 0.9685
5.9378 -4.9884 -2.0079 0.9685
6.3603 -4.4403 -2.0084 0.9685
7.0504 -3.2415 -2.0092 0.9684
7.3123 -2.6005 -2.0095 0.9684
7.7417 -0.5731 -2.0099 0.9684
7.7204 0.8108 -2.0099 0.9684
7.6169 1.4957 -2.0098 0.9684
7.4526 2.1686 -2.0097 0.9684
5.7475 4.2812 -1.8556 0.9708
5.3417 4.7754 -1.8552 0.9708
3.8845 6.0135 -1.8536 0.9709
3.3318 6.3338 -1.8530 0.9709
1.5355 6.9823 -1.8510 0.9709
0.9067 7.0887 -1.8504 0.9709
0.2710 7.1387 -1.8497 0.9709
-0.3663 7.1317 -1.8490 0.9709
-1.0002 7.0680 -1.8483 0.9709
-2.2378 6.7731 -1.8469 0.9710
-2.8317 6.5443 -1.8463 0.9710
-3.9462 5.9335 -1.8450 0.9710
-4.9342 5.1354 -1.8440 0.9710
-5.8278 4.2210 -1.8631 0.9707
-6.6059 3.9381 -1.9913 0.9687
-6.9400 3.3380 -1.9939 0.9687
-7.2089 2.7057 -1.9936 0.9687
-7.4205 2.0520 -1.9934 0.9687
-7.5732 1.3823 -1.9932 0.9687
-7.6659 0.7016 -1.9931 0.9687
-7.5786 -1.3519 -1.9932 0.9687
-7.4285 -2.0222 -1.9934 0.9687
-7.2194 -2.6767 -1.9936 0.9687
-6.9531 -3.3101 -1.9939 0.9687
-6.2571 -4.4939 -1.9946 0.9687
-5.8329 -5.0349 -1.9951 0.9687
-5.3622 -5.5362 -1.9956 0.9687
-4.8487 -5.9939 -1.9961 0.9686
-4.2964 -6.4042 -1.9967 0.9686
-3.7096 -6.7639 -1.9974 0.9686
-3.0929 -7.0700 -1.9980 0.9686
-2.4512 -7.3201 -1.9987 0.9686
-1.7895 -7.5122 -1.9995 0.9686
-1.1131 -7.6446 -2.0002 0.9686
-0.4274 -7.7163 -2.0009 0.9686
0.2623 -7.7266 -2.0017 0.9686
2.3000 -7.3900 -2.0039 0.9685
3.5782 -6.8689 -2.0053 0.9685
4.7442 -6.1282 -2.0066 0.9685
5.7602 -5.1913 -2.0077 0.9685
6.2016 -4.6582 -2.0082 0.9685
7.4437 -2.1984 -2.0096 0.9684
7.7170 -0.8418 -2.0099 0.9684
7.6645 1.2301 -2.0099 0.9684
7.0636 3.2133 -2.0092 0.9684
6.7374 3.8236 -2.0058 0.9685
5.8934 4.0792 -1.8558 0.9708
5.5050 4.5873 -1.8554 0.9708
3.5504 6.2150 -1.8532 0.9709
2.9813 6.5046 -1.8526 0.9709
2.3887 6.7421 -1.8520 0.9709
1.7775 6.9257 -1.8513 0.9709
0.5190 7.1260 -1.8499 0.9709
-0.1182 7.1412 -1.8492 0.9709
-0.7541 7.0995 -1.8485 0.9709
-1.3835 7.0015 -1.8478 0.9709
-4.2628 5.7087 -1.8447 0.9710
-4.7533 5.3044 -1.8442 0.9710
-5.6233 4.3788 -1.8453 0.9710
-6.4534 4.1578 -1.9877 0.9688
-6.8203 3.5775 -1.9941 0.9687
-7.1109 2.9548 -1.9938 0.9687
-7.3450 2.3088 -1.9935 0.9687
-7.5208 1.6447 -1.9933 0.9687
-7.6370 0.9676 -1.9932 0.9687
-7.6872 -0.4039 -1.9931 0.9687
-7.4940 -1.7628 -1.9933 0.9687
-7.3077 -2.4240 -1.9935 0.9687
-7.0635 -3.0662 -1.9937 0.9687
-6.7631 -3.6843 -1.9941 0.9687
-5.5508 -5.3460 -1.9954 0.9687
-4.5158 -6.2503 -1.9965 0.9686
-3.3363 -6.9573 -1.9978 0.9686
-2.7037 -7.2295 -1.9985 0.9686
-0.6952 -7.6956 -2.0007 0.9686
-0.0064 -7.7299 -2.0014 0.9686
0.6830 -7.7026 -2.0022 0.9686
1.3674 -7.6139 -2.0029 0.9685
2.6997 -7.2553 -2.0044 0.9685
3.3369 -6.9882 -2.0051 0.9685
3.9479 -6.6651 -2.0057 0.9685
4.5278 -6.2887 -2.0064 0.9685
5.0719 -5.8618 -2.0070 0.9685
5.5758 -5.3878 -2.0075 0.9685
6.0354 -4.8705 -2.0080 0.9685
6.4470 -4.3141 -2.0085 0.9685
6.8073 -3.7229 -2.0089 0.9684
7.1132 -3.1018 -2.0092 0.9684
7.1714 2.9660 -2.0094 0.9684
6.3308 4.0641 -1.9478 0.9694
5.2461 4.8796 -1.8551 0.9708
4.2939 5.7305 -1.8540 0.9708
3.7648 6.0886 -1.8535 0.9709
3.2059 6.3979 -1.8529 0.9709
2.6219 6.6559 -1.8522 0.9709
-1.7624 6.9141 -1.8474 0.9709
-2.3709 6.7271 -1.8468 0.9710
-2.9601 6.4867 -1.8461 0.9710
-5.4619 4.5667 -1.8434 0.9710
-6.0675 4.2147 -1.9128 0.9699
-6.6893 3.8109 -1.9933 0.9687
-7.0043 3.2003 -1.9939 0.9687
-7.4594 1.9052 -1.9934 0.9687
-7.5989 1.2325 -1.9932 0.9687
-7.6781 0.5501 -1.9931 0.9687
-7.6965 -0.1365 -1.9931 0.9687
-7.6539 -0.8221 -1.9931 0.9687
-6.8866 -3.4468 -1.9939 0.9687
-6.5531 -4.0477 -1.9943 0.9687
-6.1675 -4.6167 -1.9947 0.9687
-5.7327 -5.1493 -1.9952 0.9687
-1.6410 -7.5466 -1.9996 0.9686
-0.9621 -7.6657 -2.0004 0.9686
3.0916 -7.0990 -2.0048 0.9685
4.3060 -6.4415 -2.0061 0.9685
5.3846 -5.5777 -2.0073 0.9685
5.8619 -5.0769 -2.0078 0.9685
7.0007 -3.3470 -2.0091 0.9684
7.2723 -2.7100 -2.0094 0.9684
7.4858 -2.0511 -2.0096 0.9684
7.6395 -1.3758 -2.0098 0.9684
7.7630 0.0027 -2.0100 0.9684
7.7317 0.6947 -2.0099 0.9684
7.6386 1.3811 -2.0099 0.9684
7.4845 2.0564 -2.0097 0.9684
7.2706 2.7151 -2.0095 0.9684
6.6527 3.9511 -2.0034 0.9685
5.4131 4.6948 -1.8553 0.9708
4.9717 5.1574 -1.8548 0.9708
4.1887 5.2030 -1.7295 0.9728
2.2550 6.7874 -1.8518 0.9709
1.6404 6.9589 -1.8512 0.9709
1.0131 7.0748 -1.8505 0.9709
-1.5212 6.9722 -1.8477 0.9709
-3.3083 6.3145 -1.8457 0.9710
-3.8568 5.9924 -1.8451 0.9710
-5.3004 4.7543 -1.8435 0.9710
-6.8893 3.4420 -1.9940 0.9687
-7.3889 2.1633 -1.9934 0.9687
-7.5517 1.4959 -1.9933 0.9687
-7.6545 0.8167 -1.9931 0.9687
-7.6966 0.1311 -1.9931 0.9687
-7.6777 -0.5556 -1.9931 0.9687
-7.5979 -1.2378 -1.9932 0.9687
-7.2587 -2.5679 -1.9935 0.9687
-6.6893 -3.8172 -1.9941 0.9687
-6.3237 -4.3992 -1.9945 0.9687
-5.9077 -4.9465 -1.9950 0.9687
-5.4445 -5.4548 -1.9955 0.9687
-4.9380 -5.9201 -1.9960 0.9686
-4.3919 -6.3386 -1.9966 0.9686
-3.8105 -6.7070 -1.9973 0.9686
-3.1986 -7.0223 -1.9979 0.9686
-2.5607 -7.2820 -1.9986 0.9686
-1.9020 -7.4840 -1.9993 0.9686
-1.2278 -7.6265 -2.0001 0.9686
-0.5432 -7.7085 -2.0008 0.9686
0.8349 -7.6882 -2.0023 0.9686
2.1886 -7.4233 -2.0038 0.9685
2.8426 -7.2012 -2.0045 0.9685
3.4744 -6.9215 -2.0052 0.9685
4.0790 -6.5864 -2.0059 0.9685
4.6513 -6.1985 -2.0065 0.9685
5.1869 -5.7609 -2.0071 0.9685
5.6813 -5.2770 -2.0076 0.9685
6.1306 -4.7507 -2.0081 0.9685
6.5312 -4.1862 -2.0086 0.9685
7.4097 -2.3100 -2.0096 0.9684
7.7513 0.4256 -2.0100 0.9684
7.6822 1.1148 -2.0099 0.9684
7.5517 1.7951 -2.0098 0.9684
7.3609 2.4609 -2.0096 0.9684
7.1113 3.1069 -2.0093 0.9684
5.1485 4.9819 -1.8550 0.9708
4.1796 5.8138 -1.8539 0.9708
3.0788 6.4594 -1.8527 0.9709
1.2586 7.0363 -1.8507 0.9709
0.6261 7.1178 -1.8500 0.9709
-0.6474 7.1105 -1.8487 0.9709
-3.0873 6.4265 -1.8460 0.9710
-3.6467 6.1237 -1.8454 0.9710
-6.3204 4.2078 -1.9660 0.9691
-6.7660 3.6796 -1.9941 0.9687
-7.4954 1.7575 -1.9933 0.9687
-7.6875 0.3985 -1.9931 0.9687
-7.5195 -1.6499 -1.9933 0.9687
-7.1086 -2.9597 -1.9937 0.9687
-6.8175 -3.5822 -1.9940 0.9687
-6.4722 -4.1764 -1.9944 0.9687
-6.0755 -4.7378 -1.9948 0.9687
-5.6303 -5.2618 -1.9953 0.9687
-4.6090 -6.1814 -1.9964 0.9686
-4.0408 -6.5697 -1.9970 0.9686
-3.4402 -6.9060 -1.9977 0.9686
-0.8107 -7.6838 -2.0005 0.9686
0.5671 -7.7115 -2.0020 0.9686
1.2528 -7.6331 -2.0028 0.9685
2.5902 -7.2946 -2.0042 0.9685
3.2313 -7.0371 -2.0049 0.9685
4.4325 -6.3557 -2.0063 0.9685
4.9830 -5.9370 -2.0069 0.9685
5.4939 -5.4707 -2.0074 0.9685
5.9613 -4.9604 -2.0080 0.9685
6.7503 -3.8247 -2.0088 0.9685
7.6653 -1.2247 -2.0099 0.9684
7.7614 0.1559 -2.0100 0.9684
7.7164 0.8472 -2.0099 0.9684
7.2154 2.8580 -2.0094 0.9684
6.9308 3.4893 -2.0091 0.9684
3.8560 6.0317 -1.8536 0.9709
3.3019 6.3493 -1.8530 0.9709
2.1204 6.8300 -1.8517 0.9709
1.5026 6.9893 -1.8510 0.9709
0.8732 7.0928 -1.8503 0.9709
-1.6584 6.9403 -1.8475 0.9709
-2.2697 6.7623 -1.8469 0.9710
-2.8625 6.5308 -1.8462 0.9710
-3.4321 6.2475 -1.8456 0.9710
-4.4841 5.5353 -1.8444 0.9710
-4.9583 5.1120 -1.8439 0.9710
-5.8839 4.2196 -1.8747 0.9705
-6.9556 3.3053 -1.9939 0.9687
-7.4300 2.0170 -1.9934 0.9687
-7.5796 1.3465 -1.9932 0.9687
-7.6977 -0.0209 -1.9931 0.9687
-7.5721 -1.3876 -1.9932 0.9687
-7.2068 -2.7107 -1.9936 0.9687
-5.8092 -5.0624 -1.9951 0.9687
-5.3362 -5.5615 -1.9956 0.9687
-4.8205 -6.0168 -1.9962 0.9686
-3.0596 -7.0846 -1.9981 0.9686
-2.4167 -7.3317 -1.9988 0.9686
-1.7541 -7.5207 -1.9995 0.9686
0.2987 -7.7254 -2.0017 0.9686
0.9866 -7.6709 -2.0025 0.9685
4.7731 -6.1059 -2.0066 0.9685
5.2999 -5.6577 -2.0072 0.9685
5.7847 -5.1641 -2.0078 0.9685
6.9494 -3.4516 -2.0090 0.9684
7.4540 -2.1633 -2.0096 0.9684
7.7209 -0.8054 -2.0099 0.9684
7.7621 -0.1139 -2.0100 0.9684
7.3107 2.6056 -2.0095 0.9684
6.7174 3.8542 -2.0052 0.9685
5.8740 4.1069 -1.8557 0.9708
2.3373 -6.6819 -2.0040 0.9710
3.4889 -6.1645 -2.0052 0.9710
4.5307 -5.4501 -2.0064 0.9710
4.9998 -5.0258 -2.0069 0.9710
5.4292 -4.5612 -2.0074 0.9710
5.8154 -4.0599 -2.0078 0.9709
6.1553 -3.5260 -2.0082 0.9709
6.6856 -2.3776 -2.0088 0.9709
6.8717 -1.7723 -2.0090 0.9709
7.0780 -0.5239 -2.0092 0.9709
7.0966 0.1091 -2.0092 0.9709
7.0585 0.7412 -2.0092 0.9709
6.9640 1.3675 -2.0091 0.9709
6.8138 1.9827 -2.0090 0.9709
6.6093 2.5820 -2.0087 0.9709
6.3519 3.1604 -2.0085 0.9709
6.0381 3.7099 -2.0062 0.9710
5.4375 4.0503 -1.9194 0.9722
4.4745 4.7833 -1.8542 0.9731
4.0292 5.1618 -1.8537 0.9731
3.0468 5.7919 -1.8527 0.9732
2.5176 6.0386 -1.8521 0.9732
0.2479 6.5289 -1.8496 0.9732
-0.9149 6.4647 -1.8484 0.9732
-1.4870 6.3553 -1.8477 0.9732
-2.0469 6.1954 -1.8471 0.9732
-2.5902 5.9863 -1.8465 0.9732
-3.6099 5.4279 -1.8454 0.9733
-4.0783 5.0831 -1.8449 0.9733
-4.5140 4.6980 -1.8444 0.9733
-4.9137 4.2759 -1.8440 0.9733
-6.3494 3.0540 -1.9946 0.9711
-6.5955 2.4755 -1.9943 0.9711
-6.7891 1.8775 -1.9941 0.9711
-7.0162 -0.6138 -1.9938 0.9711
-6.9338 -1.2369 -1.9939 0.9711
-6.7965 -1.8502 -1.9940 0.9711
-6.6051 -2.4489 -1.9942 0.9711
-6.3614 -3.0284 -1.9945 0.9711
-4.9056 -5.0648 -1.9961 0.9711
-4.4357 -5.4833 -1.9966 0.9711
-3.9303 -5.8585 -1.9971 0.9711
-0.3909 -7.0575 -2.0010 0.9710
0.8692 -7.0196 -2.0024 0.9710
1.4920 -6.9165 -2.0031 0.9710
2.6983 -6.5459 -2.0044 0.9710
3.8202 -5.9664 -2.0056 0.9710
4.3381 -5.6037 -2.0062 0.9710
5.6704 -4.2592 -2.0076 0.9709
6.8057 -2.0100 -2.0089 0.9709
6.9583 -1.3954 -2.0091 0.9709
7.0801 0.4955 -2.0092 0.9709
6.4583 2.9379 -2.0086 0.9709
6.1697 3.5014 -2.0083 0.9709
5.8106 4.0219 -2.0006 0.9710
4.6385 4.6254 -1.8544 0.9731
4.1700 4.9755 -1.8378 0.9734
2.7262 5.9482 -1.8523 0.9732
1.0541 6.4512 -1.8505 0.9732
-0.1081 6.5314 -1.8492 0.9732
-0.6897 6.4935 -1.8486 0.9732
-2.3809 6.0735 -1.8468 0.9732
-2.9119 5.8352 -1.8462 0.9733
-3.4195 5.5507 -1.8456 0.9733
-5.9210 3.8148 -1.9940 0.9711
-6.7200 2.1124 -1.9942 0.9711
-7.0382 0.2589 -1.9938 0.9711
-7.0332 -0.3696 -1.9938 0.9711
-6.6860 -2.2178 -1.9942 0.9711
-6.4624 -2.8053 -1.9944 0.9711
-6.1875 -3.3707 -1.9947 0.9711
-5.8634 -3.9096 -1.9950 0.9711
-5.0781 -4.8907 -1.9959 0.9711
-4.1311 -5.7177 -1.9969 0.9711
-1.8744 -6.8093 -1.9994 0.9711
-1.2603 -6.9516 -2.0000 0.9711
-0.6358 -7.0387 -2.0007 0.9710
1.2506 -6.9633 -2.0028 0.9710
2.4689 -6.6349 -2.0041 0.9710
3.0515 -6.3905 -2.0048 0.9710
4.1402 -5.7505 -2.0060 0.9710
4.6377 -5.3599 -2.0065 0.9710
5.0983 -4.9264 -2.0070 0.9710
6.2240 -3.4039 -2.0083 0.9709
6.5036 -2.8360 -2.0086 0.9709
6.7314 -2.2452 -2.0088 0.9709
6.9054 -1.6364 -2.0090 0.9709
7.0243 -1.0143 -2.0092 0.9709
7.0870 -0.3841 -2.0092 0.9709
7.0931 0.2492 -2.0092 0.9709
6.2881 3.2851 -2.0084 0.9709
5.9575 3.8244 -2.0041 0.9710
5.2333 4.0612 -1.8753 0.9728
4.7969 4.4617 -1.8546 0.9731
4.3790 4.8704 -1.8541 0.9731
3.9263 5.2400 -1.8536 0.9731
1.2779 6.4115 -1.8508 0.9732
-2.1687 6.1533 -1.8470 0.9732
-2.7077 5.9336 -1.8464 0.9733
-4.1776 5.0013 -1.8448 0.9733
-5.0382 4.2125 -1.8591 0.9731
-6.4082 2.9280 -1.9945 0.9711
-6.6429 2.3447 -1.9943 0.9711
-7.0250 0.5033 -1.9938 0.9711
-6.7587 -1.9840 -1.9941 0.9711
-6.5557 -2.5789 -1.9943 0.9711
-5.9953 -3.7032 -1.9949 0.9711
-5.6424 -4.2237 -1.9953 0.9711
-5.2446 -4.7109 -1.9957 0.9711
-4.3268 -5.5701 -1.9967 0.9711
-3.8141 -5.9353 -1.9973 0.9711
-3.2708 -6.2535 -1.9979 0.9711
-1.5010 -6.9027 -1.9998 0.9711
-0.8800 -7.0114 -2.0005 0.9711
1.0077 -7.0016 -2.0025 0.9710
2.2365 -6.7159 -2.0039 0.9710
2.8272 -6.4919 -2.0045 0.9710
3.3957 -6.2159 -2.0051 0.9710
3.9375 -5.8902 -2.0057 0.9710
4.4481 -5.5173 -2.0063 0.9710
4.9235 -5.1002 -2.0068 0.9710
5.7536 -4.1467 -2.0077 0.9709
6.4008 -3.0601 -2.0085 0.9709
6.6490 -2.4777 -2.0087 0.9709
6.8442 -1.8753 -2.0089 0.9709
7.0693 -0.6302 -2.0092 0.9709
7.0975 0.0025 -2.0092 0.9709
7.0689 0.6351 -2.0092 0.9709
6.8430 1.8802 -2.0090 0.9709
6.6474 2.4824 -2.0088 0.9709
6.3988 3.0647 -2.0085 0.9709
5.5996 4.0417 -1.9550 0.9717
4.9495 4.2927 -1.8547 0.9731
3.1336 5.7458 -1.8528 0.9732
1.5002 6.3640 -1.8510 0.9732
0.9265 6.4702 -1.8504 0.9732
-0.2370 6.5275 -1.8491 0.9732
-1.3914 6.3773 -1.8478 0.9732
-1.9537 6.2258 -1.8472 0.9732
-2.5001 6.0249 -1.8466 0.9732
-3.0263 5.7762 -1.8460 0.9733
-4.0016 5.1440 -1.8450 0.9733
-4.8490 4.3494 -1.8440 0.9733
-5.9982 3.6991 -1.9950 0.9711
-6.3030 3.1491 -1.9946 0.9711
-6.5577 2.5743 -1.9944 0.9711
-6.9092 1.3686 -1.9940 0.9711
-7.0033 0.7472 -1.9938 0.9711
-7.0419 0.1199 -1.9938 0.9711
-6.9516 -1.1325 -1.9939 0.9711
-6.8234 -1.7478 -1.9940 0.9711
-6.1200 -3.4923 -1.9948 0.9711
-5.7854 -4.0247 -1.9951 0.9711
-5.4047 -4.5253 -1.9955 0.9711
-4.5173 -5.4158 -1.9965 0.9711
-3.4858 -6.1353 -1.9976 0.9711
-2.9258 -6.4236 -1.9982 0.9711
-2.3423 -6.6610 -1.9989 0.9711
-0.4968 -7.0504 -2.0009 0.9710
2.5995 -6.5854 -2.0043 0.9710
4.7428 -5.2677 -2.0066 0.9710
5.6055 -4.3438 -2.0076 0.9709
5.9716 -3.8276 -2.0080 0.9709
6.2902 -3.2805 -2.0083 0.9709
6.5586 -2.7071 -2.0086 0.9709
6.9365 -1.4998 -2.0091 0.9709
7.0430 -0.8755 -2.0092 0.9709
7.0868 0.3891 -2.0092 0.9709
6.9044 1.6412 -2.0091 0.9709
6.7300 2.2500 -2.0089 0.9709
6.5018 2.8406 -2.0086 0.9709
6.2218 3.4084 -2.0083 0.9709
5.0961 4.1185 -1.8549 0.9731
3.8219 5.3161 -1.8535 0.9731
3.3318 5.6341 -1.8530 0.9732
2.8154 5.9069 -1.8524 0.9732
2.2770 6.1324 -1.8518 0.9732
1.7207 6.3089 -1.8512 0.9732
1.1510 6.4350 -1.8506 0.9732
-0.0100 6.5326 -1.8493 0.9732
-0.5921 6.5035 -1.8487 0.9732
-1.1691 6.4226 -1.8481 0.9732
-1.7364 6.2907 -1.8475 0.9732
-2.2895 6.1089 -1.8469 0.9732
-2.8241 5.8786 -1.8463 0.9733
-3.3359 5.6017 -1.8457 0.9733
-3.8208 5.2805 -1.8452 0.9733
-5.2383 4.2069 -1.9019 0.9725
-6.1901 3.3665 -1.9948 0.9711
-6.4646 2.8008 -1.9945 0.9711
-6.8577 1.6080 -1.9940 0.9711
-6.9866 -0.8902 -1.9938 0.9711
-6.8798 -1.5096 -1.9940 0.9711
-6.7184 -2.1170 -1.9941 0.9711
-6.5037 -2.7078 -1.9944 0.9711
-6.2373 -3.2773 -1.9946 0.9711
-5.5582 -4.3344 -1.9954 0.9711
-4.2163 -5.6548 -1.9968 0.9711
-3.6965 -6.0098 -1.9974 0.9711
-3.1470 -6.3173 -1.9980 0.9711
-2.5721 -6.5747 -1.9986 0.9711
-1.9764 -6.7800 -1.9993 0.9711
0.5187 -7.0528 -2.0020 0.9710
2.3688 -6.6709 -2.0040 0.9710
4.0532 -5.8117 -2.0059 0.9710
4.5564 -5.4288 -2.0064 0.9710
5.0235 -5.0022 -2.0069 0.9710
6.4601 -2.9333 -2.0085 0.9709
6.8800 -1.7399 -2.0090 0.9709
7.0082 -1.1197 -2.0091 0.9709
7.0804 -0.4906 -2.0092 0.9709
7.0960 0.1426 -2.0092 0.9709
6.8044 2.0148 -2.0089 0.9709
6.5970 2.6131 -2.0087 0.9709
5.3879 4.0530 -1.9086 0.9724
4.4518 4.8043 -1.8542 0.9731
4.0048 5.1806 -1.8537 0.9731
3.0194 5.8061 -1.8526 0.9732
0.7986 6.4868 -1.8502 0.9732
-0.9453 6.4602 -1.8483 0.9732
-1.5169 6.3481 -1.8477 0.9732
-2.0761 6.1855 -1.8471 0.9732
-2.6184 5.9739 -1.8465 0.9732
-4.1021 5.0637 -1.8449 0.9733
-4.5360 4.6767 -1.8444 0.9733
-6.3637 3.0240 -1.9946 0.9711
-7.0167 0.6088 -1.9938 0.9711
-7.0132 -0.6468 -1.9938 0.9711
-6.9279 -1.2695 -1.9939 0.9711
-6.5936 -2.4800 -1.9943 0.9711
-2.2105 -6.7064 -1.9990 0.9711
-1.6044 -6.8790 -1.9997 0.9711
-0.3576 -7.0594 -2.0010 0.9710
0.9023 -7.0155 -2.0024 0.9710
3.3017 -6.2659 -2.0050 0.9710
3.8483 -5.9484 -2.0056 0.9710
5.2893 -4.7219 -2.0072 0.9710
6.3539 -3.1559 -2.0084 0.9709
6.6109 -2.5773 -2.0087 0.9709
6.8151 -1.9779 -2.0089 0.9709
7.0777 0.5289 -2.0092 0.9709
6.8705 1.7771 -2.0090 0.9709
6.6841 2.3823 -2.0088 0.9709
5.7769 4.0390 -1.9955 0.9711
2.6914 -5.9349 -2.0044 0.9731
3.2107 -5.6729 -2.0049 0.9731
3.7046 -5.3656 -2.0055 0.9731
4.1692 -5.0153 -2.0060 0.9731
4.6008 -4.6247 -2.0065 0.9731
4.9958 -4.1971 -2.0069 0.9731
5.3511 -3.7358 -2.0073 0.9731
5.6638 -3.2444 -2.0076 0.9731
5.9314 -2.7270 -2.0079 0.9730
6.1516 -2.1877 -2.0082 0.9730
6.3227 -1.6307 -2.0084 0.9730
6.4434 -1.0607 -2.0085 0.9730
6.5126 -0.4821 -2.0086 0.9730
6.5297 0.1004 -2.0086 0.9730
6.4946 0.6821 -2.0086 0.9730
6.0814 2.3757 -2.0082 0.9730
5.8446 2.9080 -2.0079 0.9731
5.5613 3.4169 -2.0076 0.9731
4.1174 4.4016 -1.8538 0.9751
3.2687 5.0603 -1.8529 0.9751
2.3169 5.5572 -1.8519 0.9751
1.8117 5.7399 -1.8513 0.9751
1.2924 5.8768 -1.8508 0.9751
0.7631 5.9667 -1.8502 0.9751
0.2281 6.0091 -1.8496 0.9751
-0.3084 6.0036 -1.8490 0.9752
-0.8421 5.9503 -1.8484 0.9752
-1.3687 5.8498 -1.8479 0.9752
-3.3231 4.9966 -1.8457 0.9752
-3.7543 4.6793 -1.8452 0.9752
-5.2523 3.8042 -1.9947 0.9732
-5.8456 2.8116 -1.9951 0.9732
-6.0721 2.2790 -1.9949 0.9732
-6.2505 1.7285 -1.9947 0.9732
-6.4842 0.0130 -1.9944 0.9732
-6.4596 -0.5651 -1.9944 0.9732
-6.3838 -1.1387 -1.9945 0.9732
-6.2573 -1.7034 -1.9946 0.9732
-6.0811 -2.2546 -1.9948 0.9732
-5.8566 -2.7881 -1.9951 0.9732
-5.5855 -3.2995 -1.9954 0.9732
-4.9126 -4.2405 -1.9961 0.9732
-3.6180 -5.3930 -1.9975 0.9732
-3.1237 -5.6956 -1.9980 0.9732
-2.0638 -6.1634 -1.9992 0.9732
-1.5066 -6.3247 -1.9998 0.9732
-0.9371 -6.4359 -2.0004 0.9731
-0.3598 -6.4958 -2.0010 0.9731
0.8000 -6.4605 -2.0023 0.9731
1.3731 -6.3655 -2.0029 0.9731
1.9357 -6.2197 -2.0035 0.9731
3.0112 -5.7805 -2.0047 0.9731
3.5155 -5.4905 -2.0053 0.9731
4.4369 -4.7814 -2.0063 0.9731
5.2177 -3.9192 -2.0072 0.9731
6.0716 -2.4000 -2.0081 0.9730
6.4918 -0.7081 -2.0086 0.9730
6.5292 -0.1266 -2.0086 0.9730
6.1605 2.1630 -2.0082 0.9730
5.6770 3.2218 -2.0077 0.9731
4.2683 4.2562 -1.8540 0.9751
3.8710 4.6187 -1.8536 0.9751
3.4430 4.9441 -1.8531 0.9751
2.5089 5.4739 -1.8521 0.9751
2.0103 5.6741 -1.8515 0.9751
1.4961 5.8290 -1.8510 0.9751
0.4369 5.9983 -1.8498 0.9751
-0.0995 6.0114 -1.8492 0.9752
-2.6805 5.3714 -1.8464 0.9752
-3.1478 5.1096 -1.8459 0.9752
-3.5898 4.8074 -1.8454 0.9752
-4.0031 4.4672 -1.8450 0.9752
-4.4988 4.1984 -1.8927 0.9746
-5.1096 3.9788 -1.9919 0.9733
-5.4540 3.5139 -1.9956 0.9732
-5.7446 3.0133 -1.9952 0.9732
-5.9896 2.4888 -1.9950 0.9732
-6.4330 0.8151 -1.9945 0.9732
-6.4799 0.2384 -1.9944 0.9732
-6.4753 -0.3402 -1.9944 0.9732
-6.4194 -0.9161 -1.9945 0.9732
-5.9496 -2.5827 -1.9950 0.9732
-5.0566 -4.0669 -1.9959 0.9732
-4.2559 -4.9023 -1.9968 0.9732
-3.8029 -5.2635 -1.9973 0.9732
-2.8093 -5.8583 -1.9984 0.9732
-1.7253 -6.2678 -1.9995 0.9732
-1.1601 -6.3986 -2.0002 0.9732
-0.5852 -6.4786 -2.0008 0.9731
-0.0054 -6.5070 -2.0014 0.9731
0.5749 -6.4836 -2.0021 0.9731
1.1509 -6.4086 -2.0027 0.9731
1.7182 -6.2824 -2.0033 0.9731
2.2721 -6.1061 -2.0039 0.9731
2.8082 -5.8810 -2.0045 0.9731
3.8100 -5.2917 -2.0056 0.9731
4.2676 -4.9323 -2.0061 0.9731
4.6914 -4.5332 -2.0066 0.9731
5.4240 -3.6296 -2.0074 0.9731
5.7270 -3.1321 -2.0077 0.9731
5.9842 -2.6095 -2.0080 0.9730
6.1937 -2.0659 -2.0082 0.9730
6.3538 -1.5057 -2.0084 0.9730
6.4631 -0.9333 -2.0085 0.9730
6.5264 0.2293 -2.0086 0.9730
6.4798 0.8101 -2.0086 0.9730
6.3815 1.3845 -2.0085 0.9730
5.1381 3.9873 -2.0004 0.9731
4.4140 4.1056 -1.8542 0.9751
3.1680 5.1235 -1.8528 0.9751
2.6979 5.3840 -1.8523 0.9751
2.2066 5.6015 -1.8518 0.9751
0.1095 6.0120 -1.8495 0.9751
-1.4838 5.8212 -1.8477 0.9752
-1.9962 5.6640 -1.8472 0.9752
-2.4925 5.4619 -1.8466 0.9752
-3.4209 4.9298 -1.8456 0.9752
-4.9614 4.1483 -1.9892 0.9733
-5.6368 3.2113 -1.9954 0.9732
-5.8997 2.6956 -1.9951 0.9732
-6.1158 2.1587 -1.9948 0.9732
-6.4677 0.4634 -1.9944 0.9732
-6.2225 -1.8266 -1.9947 0.9732
-5.5195 -3.4093 -1.9954 0.9732
-4.8282 -4.3368 -1.9962 0.9732
-4.4233 -4.7510 -1.9966 0.9732
-3.0109 -5.7565 -1.9981 0.9732
-1.3816 -6.3537 -1.9999 0.9732
-0.8100 -6.4535 -2.0005 0.9731
0.3492 -6.4989 -2.0018 0.9731
0.9274 -6.4440 -2.0024 0.9731
1.4986 -6.3376 -2.0031 0.9731
2.6018 -5.9743 -2.0043 0.9731
3.1249 -5.7203 -2.0048 0.9731
4.0932 -5.0771 -2.0059 0.9731
5.6143 -3.3291 -2.0076 0.9731
6.2974 -1.7255 -2.0084 0.9730
6.5304 0.0023 -2.0086 0.9730
6.4259 1.1619 -2.0085 0.9730
6.2963 1.7300 -2.0084 0.9730
6.1165 2.2841 -2.0082 0.9730
5.8878 2.8200 -2.0080 0.9730
5.2817 3.8122 -2.0035 0.9731
3.7788 4.6939 -1.8535 0.9751
3.3445 5.0108 -1.8530 0.9751
1.3806 5.8570 -1.8509 0.9751
0.8527 5.9549 -1.8503 0.9751
-0.7526 5.9626 -1.8485 0.9752
-1.2807 5.8700 -1.8480 0.9752
-1.7984 5.7307 -1.8474 0.9752
-2.3014 5.5459 -1.8468 0.9752
-3.2478 5.0462 -1.8458 0.9752
-3.6838 4.7354 -1.8453 0.9752
-4.0902 4.3871 -1.8449 0.9752
-5.1913 3.8803 -1.9935 0.9732
-6.0373 2.3701 -1.9949 0.9732
-6.2239 1.8222 -1.9947 0.9732
-6.4478 0.6879 -1.9945 0.9732
-6.4833 0.1104 -1.9944 0.9732
-6.4001 -1.0427 -1.9945 0.9732
-6.2821 -1.6092 -1.9946 0.9732
-6.1141 -2.1630 -1.9948 0.9732
-5.8977 -2.6997 -1.9950 0.9732
-5.6343 -3.2152 -1.9953 0.9732
-5.3262 -3.7052 -1.9956 0.9732
-4.9756 -4.1661 -1.9960 0.9732
-4.1586 -4.9856 -1.9969 0.9732
-3.6985 -5.3378 -1.9974 0.9732
-2.6933 -5.9130 -1.9985 0.9732
-2.1561 -6.1314 -1.9991 0.9732
-1.6014 -6.3010 -1.9997 0.9732
-0.4573 -6.4893 -2.0009 0.9731
0.1231 -6.5063 -2.0016 0.9731
0.7028 -6.4715 -2.0022 0.9731
1.2773 -6.3851 -2.0028 0.9731
1.8420 -6.2477 -2.0034 0.9731
2.3923 -6.0605 -2.0040 0.9731
4.3644 -4.8473 -2.0062 0.9731
4.7802 -4.4400 -2.0067 0.9731
5.1580 -3.9970 -2.0071 0.9731
5.4948 -3.5219 -2.0075 0.9731
6.0347 -2.4909 -2.0081 0.9730
6.2334 -1.9433 -2.0083 0.9730
6.3824 -1.3800 -2.0084 0.9730
6.4804 -0.8056 -2.0086 0.9730
6.5266 -0.2247 -2.0086 0.9730
6.5206 0.3580 -2.0086 0.9730
6.4625 0.9379 -2.0086 0.9730
6.3528 1.5101 -2.0084 0.9730
5.4196 3.6321 -2.0067 0.9731
5.0053 4.0450 -1.9794 0.9734
4.3319 4.1917 -1.8541 0.9751
3.9401 4.5602 -1.8536 0.9751
3.5170 4.8921 -1.8532 0.9751
2.0955 5.6436 -1.8516 0.9751
1.5835 5.8062 -1.8511 0.9751
-1.0761 5.9116 -1.8482 0.9752
-3.0708 5.1566 -1.8460 0.9752
-3.9357 4.5270 -1.8450 0.9752
-4.3688 4.2017 -1.8644 0.9750
-5.0463 4.0527 -1.9907 0.9733
-6.1571 2.0375 -1.9948 0.9732
-6.4201 0.9116 -1.9945 0.9732
-6.4756 0.3357 -1.9944 0.9732
-6.4324 -0.8196 -1.9945 0.9732
-5.7423 -3.0172 -1.9952 0.9732
-5.4514 -3.5177 -1.9955 0.9732
-3.8814 -5.2056 -1.9972 0.9732
-3.4028 -5.5323 -1.9977 0.9732
-2.8968 -5.8152 -1.9983 0.9732
-1.8192 -6.2408 -1.9994 0.9732
-1.2560 -6.3801 -2.0001 0.9732
0.4774 -6.4912 -2.0019 0.9731
2.1800 -6.1392 -2.0038 0.9731
3.2374 -5.6578 -2.0050 0.9731
3.7299 -5.3481 -2.0055 0.9731
4.1929 -4.9956 -2.0060 0.9731
4.6226 -4.6030 -2.0065 0.9731
5.9442 -2.6990 -2.0080 0.9730
6.1619 -2.1587 -2.0082 0.9730
6.4483 -1.0303 -2.0085 0.9730
6.5291 0.1312 -2.0086 0.9730
6.4913 0.7127 -2.0086 0.9730
6.4017 1.2885 -2.0085 0.9730
6.0701 2.4044 -2.0081 0.9730
5.8308 2.9355 -2.0079 0.9731
5.5450 3.4431 -2.0076 0.9731
4.5119 4.0720 -1.8694 0.9749
3.6853 4.7673 -1.8534 0.9751
3.2448 5.0756 -1.8529 0.9751
2.7786 5.3431 -1.8524 0.9751
2.2906 5.5680 -1.8518 0.9751
1.2647 5.8827 -1.8507 0.9751
0.7350 5.9701 -1.8502 0.9751
-0.8701 5.9462 -1.8484 0.9752
-1.3962 5.8431 -1.8478 0.9752
-2.8900 5.2608 -1.8462 0.9752
-3.3466 4.9808 -1.8457 0.9752
-4.8597 4.1889 -1.9734 0.9735
-5.2712 3.7802 -1.9951 0.9732
-5.5880 3.2957 -1.9954 0.9732
-5.8587 2.7840 -1.9951 0.9732
-6.0828 2.2504 -1.9949 0.9732
-6.3846 1.1343 -1.9945 0.9732
-5.8434 -2.8157 -1.9951 0.9732
-5.5700 -3.3259 -1.9954 0.9732
-5.2522 -3.8098 -1.9957 0.9732
-4.8926 -4.2637 -1.9961 0.9732
-4.4940 -4.6839 -1.9965 0.9732
-3.5926 -5.4101 -1.9975 0.9732
-1.4768 -6.3319 -1.9998 0.9732
-0.9068 -6.4403 -2.0004 0.9731
-0.3291 -6.4975 -2.0011 0.9731
0.2515 -6.5031 -2.0017 0.9731
1.4032 -6.3591 -2.0030 0.9731
2.5116 -6.0125 -2.0042 0.9731
3.0385 -5.7663 -2.0048 0.9731
3.5414 -5.4740 -2.0053 0.9731
5.2361 -3.8946 -2.0072 0.9731
5.5635 -3.4129 -2.0075 0.9731
5.8465 -2.9038 -2.0078 0.9731
6.0829 -2.3714 -2.0081 0.9730
6.2707 -1.8199 -2.0083 0.9730
6.4085 -1.2538 -2.0085 0.9730
6.3217 1.6352 -2.0084 0.9730
6.1502 2.1920 -2.0082 0.9730
5.3420 3.7350 -2.0049 0.9731
2.9705 -5.2485 -2.0047 0.9749
3.4274 -4.9641 -2.0052 0.9749
4.9504 -3.4560 -2.0069 0.9749
5.2396 -3.0014 -2.0072 0.9749
5.4871 -2.5227 -2.0075 0.9749
5.8490 -1.5085 -2.0079 0.9749
5.9606 -0.9812 -2.0080 0.9749
6.0245 -0.4460 -2.0081 0.9749
6.0080 0.6310 -2.0081 0.9749
5.4068 2.6902 -2.0074 0.9749
5.1447 3.1610 -2.0071 0.9749
4.8412 3.6061 -2.0066 0.9749
4.4844 4.0090 -1.9995 0.9750
1.6763 5.3108 -1.8512 0.9768
1.1958 5.4375 -1.8507 0.9768
0.7061 5.5209 -1.8501 0.9768
0.2111 5.5602 -1.8496 0.9768
-1.2666 5.4132 -1.8480 0.9768
-2.6516 4.8811 -1.8464 0.9769
-3.0754 4.6241 -1.8460 0.9769
-4.0205 4.1844 -1.9289 0.9758
-4.5232 3.9361 -1.9931 0.9750
-4.8636 3.5227 -1.9962 0.9750
-5.1574 3.0746 -1.9959 0.9750
-5.4102 2.6022 -1.9956 0.9750
-5.7851 1.5998 -1.9952 0.9750
-6.0015 0.0120 -1.9949 0.9750
-5.9787 -0.5230 -1.9950 0.9750
-5.7914 -1.5766 -1.9951 0.9750
-5.6283 -2.0867 -1.9953 0.9750
-4.8775 -3.5030 -1.9961 0.9750
-4.5466 -3.9246 -1.9965 0.9750
-3.3483 -4.9910 -1.9978 0.9750
-2.8908 -5.2709 -1.9983 0.9750
-1.3942 -5.8527 -1.9999 0.9750
-0.3329 -6.0107 -2.0011 0.9749
0.2043 -6.0183 -2.0017 0.9749
3.2525 -5.0797 -2.0050 0.9749
3.6932 -4.7707 -2.0055 0.9749
4.4837 -4.0408 -2.0063 0.9749
4.8270 -3.6257 -2.0067 0.9749
5.3958 -2.7118 -2.0074 0.9749
5.6167 -2.2202 -2.0076 0.9749
5.9227 -1.1877 -2.0079 0.9749
6.0053 -0.6551 -2.0080 0.9749
5.8551 1.4851 -2.0079 0.9749
5.4973 2.5008 -2.0075 0.9749
4.6273 3.8560 -2.0022 0.9749
4.0808 4.0692 -1.9156 0.9760
2.7642 4.8387 -1.8524 0.9768
1.3842 5.3933 -1.8509 0.9768
-0.0921 5.5625 -1.8492 0.9768
-0.5874 5.5305 -1.8487 0.9768
-1.0778 5.4545 -1.8482 0.9768
-1.5593 5.3352 -1.8476 0.9768
-2.0281 5.1735 -1.8471 0.9768
-2.4806 4.9708 -1.8466 0.9769
-3.3222 4.4490 -1.8457 0.9769
-4.3783 4.0860 -1.9907 0.9751
-5.7262 1.8000 -1.9953 0.9750
-5.8634 1.2822 -1.9951 0.9750
-5.9541 0.7544 -1.9950 0.9750
-5.9933 -0.3149 -1.9949 0.9750
-5.9415 -0.8479 -1.9950 0.9750
-5.8425 -1.3743 -1.9951 0.9750
-5.2723 -2.8721 -1.9957 0.9750
-4.6799 -3.7639 -1.9963 0.9750
-4.3266 -4.1669 -1.9967 0.9750
-3.9387 -4.5370 -1.9971 0.9750
-3.5194 -4.8711 -1.9976 0.9750
-2.1067 -5.6331 -1.9991 0.9750
-1.5966 -5.8001 -1.9997 0.9750
0.5319 -5.9993 -2.0020 0.9749
1.5898 -5.8128 -2.0032 0.9749
3.5249 -4.8958 -2.0053 0.9749
5.0178 -3.3577 -2.0069 0.9749
5.2980 -2.8975 -2.0072 0.9749
5.5359 -2.4140 -2.0075 0.9749
5.7297 -1.9111 -2.0077 0.9749
5.8777 -1.3928 -2.0079 0.9749
6.0374 0.2121 -2.0081 0.9749
5.9943 0.7494 -2.0080 0.9749
5.0812 3.2618 -2.0071 0.9749
4.7652 3.6979 -2.0050 0.9749
3.7279 4.1463 -1.8534 0.9768
3.3427 4.4611 -1.8530 0.9768
2.9310 4.7402 -1.8525 0.9768
2.4961 4.9813 -1.8521 0.9768
2.0416 5.1826 -1.8516 0.9768
1.5710 5.3425 -1.8511 0.9768
0.5970 5.5334 -1.8500 0.9768
0.1013 5.5629 -1.8495 0.9768
-1.8473 5.2415 -1.8473 0.9768
-2.7472 4.8275 -1.8463 0.9769
-3.5591 4.2609 -1.8454 0.9769
-5.2170 2.9721 -1.9958 0.9750
-5.6604 1.9980 -1.9953 0.9750
-5.8155 1.4853 -1.9952 0.9750
-5.9862 0.4289 -1.9950 0.9750
-6.0006 -0.1064 -1.9949 0.9750
-5.7593 -1.6906 -1.9952 0.9750
-5.5861 -2.1975 -1.9954 0.9750
-5.3686 -2.6870 -1.9956 0.9750
-5.1084 -3.1553 -1.9959 0.9750
-4.8076 -3.5987 -1.9962 0.9750
-4.0937 -4.3970 -1.9970 0.9750
-3.6862 -4.7455 -1.9974 0.9750
-3.2493 -5.0564 -1.9979 0.9750
-1.7970 -5.7405 -1.9995 0.9750
-1.2785 -5.8795 -2.0000 0.9750
0.8581 -5.9624 -2.0024 0.9749
1.9044 -5.7186 -2.0035 0.9749
2.8912 -5.2924 -2.0046 0.9749
3.3523 -5.0148 -2.0051 0.9749
4.5627 -3.9517 -2.0064 0.9749
4.8978 -3.5299 -2.0068 0.9749
5.4484 -2.6048 -2.0074 0.9749
5.6596 -2.1090 -2.0077 0.9749
5.8256 -1.5962 -2.0078 0.9749
5.9451 -1.0706 -2.0080 0.9749
6.0171 -0.5364 -2.0081 0.9749
5.9444 1.0748 -2.0080 0.9749
5.1918 3.0834 -2.0072 0.9749
3.9307 4.0774 -1.8826 0.9764
3.0943 4.6359 -1.8527 0.9768
2.6680 4.8920 -1.8523 0.9768
1.7559 5.2852 -1.8513 0.9768
0.2946 5.5567 -1.8497 0.9768
-0.6964 5.5175 -1.8486 0.9768
-1.1851 5.4318 -1.8481 0.9768
-2.5780 4.9206 -1.8465 0.9769
-3.9042 4.1875 -1.9031 0.9762
-4.4612 4.0015 -1.9921 0.9751
-4.8103 3.5955 -1.9963 0.9750
-5.1108 3.1518 -1.9959 0.9750
-5.5878 2.1936 -1.9954 0.9750
-5.8875 1.1662 -1.9951 0.9750
-6.0006 0.1022 -1.9949 0.9750
-5.9859 -0.4331 -1.9949 0.9750
-5.9236 -0.9651 -1.9950 0.9750
-5.8144 -1.4894 -1.9951 0.9750
-5.6589 -2.0019 -1.9953 0.9750
-5.2147 -2.9757 -1.9958 0.9750
-4.9294 -3.4293 -1.9961 0.9750
-4.6049 -3.8557 -1.9964 0.9750
-4.2437 -4.2517 -1.9968 0.9750
-2.9695 -5.2267 -1.9982 0.9750
-2.4924 -5.4720 -1.9987 0.9750
-0.9565 -5.9414 -2.0004 0.9750
0.1139 -6.0204 -2.0016 0.9749
0.6503 -5.9880 -2.0021 0.9749
1.1818 -5.9079 -2.0027 0.9749
2.2134 -5.6073 -2.0039 0.9749
3.6210 -4.8255 -2.0054 0.9749
4.7718 -3.6977 -2.0067 0.9749
5.5826 -2.3043 -2.0076 0.9749
5.9042 -1.2766 -2.0079 0.9749
6.0375 -0.2078 -2.0081 0.9749
6.0320 0.3312 -2.0081 0.9749
5.9783 0.8676 -2.0080 0.9749
5.8768 1.3970 -2.0079 0.9749
5.7285 1.9152 -2.0078 0.9749
5.5344 2.4179 -2.0076 0.9749
5.0156 3.3614 -2.0070 0.9749
4.6876 3.7883 -2.0034 0.9749
4.1986 4.0628 -1.9421 0.9757
3.6452 4.2188 -1.8533 0.9768
3.2538 4.5260 -1.8529 0.9768
2.8367 4.7968 -1.8524 0.9768
2.3972 5.0293 -1.8520 0.9768
1.9388 5.2216 -1.8515 0.9768
0.9802 5.4798 -1.8504 0.9768
0.4876 5.5437 -1.8499 0.9768
-0.9958 5.4704 -1.8483 0.9768
-1.9502 5.2036 -1.8472 0.9768
-2.4057 5.0077 -1.8467 0.9769
-2.8418 4.7721 -1.8462 0.9769
-3.2551 4.4986 -1.8458 0.9769
-3.6487 4.1970 -1.8486 0.9768
-5.2744 2.8685 -1.9958 0.9750
-5.6986 1.8858 -1.9953 0.9750
-5.8436 1.3702 -1.9951 0.9750
-5.8625 -1.2864 -1.9951 0.9750
-5.5418 -2.3073 -1.9954 0.9750
-4.7358 -3.6931 -1.9963 0.9750
-4.3886 -4.1013 -1.9967 0.9750
-4.0063 -4.4771 -1.9971 0.9750
-3.5921 -4.8175 -1.9975 0.9750
-3.1491 -5.1198 -1.9980 0.9750
-2.1910 -5.6006 -1.9990 0.9750
-1.6835 -5.7752 -1.9996 0.9750
0.9757 -5.9447 -2.0025 0.9749
1.5022 -5.8358 -2.0031 0.9749
2.0170 -5.6802 -2.0036 0.9749
2.5160 -5.4793 -2.0042 0.9749
2.9952 -5.2346 -2.0047 0.9749
4.2765 -4.2584 -2.0061 0.9749
4.9667 -3.4326 -2.0069 0.9749
5.2537 -2.9767 -2.0072 0.9749
5.4989 -2.4969 -2.0075 0.9749
5.7002 -1.9969 -2.0077 0.9749
5.8561 -1.4810 -2.0079 0.9749
5.9652 -0.9531 -2.0080 0.9749
6.0049 0.6593 -2.0081 0.9749
5.6153 2.2242 -2.0076 0.9749
5.3940 2.7156 -2.0074 0.9749
4.8232 3.6282 -2.0062 0.9749
4.4647 4.0294 -1.9991 0.9750
3.7905 4.0906 -1.8538 0.9768
3.4095 4.4105 -1.8531 0.9768
3.0020 4.6958 -1.8526 0.9768
2.5708 4.9435 -1.8521 0.9768
1.1702 5.4430 -1.8506 0.9768
0.6801 5.5241 -1.8501 0.9768
-0.8051 5.5023 -1.8485 0.9768
-1.2920 5.4071 -1.8479 0.9768
-1.7684 5.2688 -1.8474 0.9768
-2.6745 4.8685 -1.8464 0.9769
-3.4948 4.3140 -1.8455 0.9769
-4.0577 4.1835 -1.9373 0.9757
-4.5425 3.9154 -1.9935 0.9750
-5.4224 2.5767 -1.9956 0.9750
-5.7926 1.5725 -1.9952 0.9750
-5.9791 0.5188 -1.9950 0.9750
-6.0015 -0.0163 -1.9949 0.9750
-5.6184 -2.1133 -1.9953 0.9750
-5.4083 -2.6060 -1.9956 0.9750
-5.1551 -3.0781 -1.9958 0.9750
-4.1591 -4.3348 -1.9969 0.9750
-3.7570 -4.6894 -1.9973 0.9750
-3.3248 -5.0068 -1.9978 0.9750
-2.8659 -5.2846 -1.9983 0.9750
-2.3841 -5.5204 -1.9988 0.9750
-1.8830 -5.7125 -1.9994 0.9750
-1.3666 -5.8593 -1.9999 0.9750
-0.8391 -5.9595 -2.0005 0.9750
-0.3046 -6.0123 -2.0011 0.9749
0.2327 -6.0173 -2.0017 0.9749
0.7684 -5.9744 -2.0023 0.9749
2.3238 -5.5628 -2.0040 0.9749
2.8112 -5.3350 -2.0045 0.9749
4.1256 -4.4042 -2.0060 0.9749
4.8440 -3.6030 -2.0067 0.9749
5.1468 -3.1573 -2.0071 0.9749
6.0084 -0.6267 -2.0080 0.9749
6.0242 0.4502 -2.0081 0.9749
5.8480 1.5127 -2.0079 0.9749
5.6894 2.0278 -2.0077 0.9749
5.4854 2.5267 -2.0075 0.9749
5.2376 3.0052 -2.0072 0.9749
4.9481 3.4596 -2.0069 0.9749
4.6083 3.8770 -2.0018 0.9749
1.8497 -5.2882 -2.0035 0.9765
3.1854 -4.6137 -2.0049 0.9765
3.9558 -3.9764 -2.0058 0.9765
4.6006 -3.2118 -2.0065 0.9764
5.0993 -2.3444 -2.0070 0.9764
5.2885 -1.8807 -2.0072 0.9764
5.5085 1.0817 -2.0075 0.9764
4.7812 2.9377 -2.0067 0.9764
4.1775 3.7346 -2.0039 0.9765
2.8107 4.3512 -1.8524 0.9782
2.4110 4.5833 -1.8520 0.9782
1.9923 4.7788 -1.8515 0.9782
1.5580 4.9361 -1.8510 0.9783
0.1962 5.1683 -1.8496 0.9783
-1.1774 5.0319 -1.8481 0.9783
-1.6208 4.9057 -1.8476 0.9783
-2.4650 4.5376 -1.8466 0.9783
-3.3508 4.1764 -1.9148 0.9775
-3.8599 4.0173 -1.9923 0.9766
-4.2125 3.6657 -1.9969 0.9766
-5.0300 2.4194 -1.9960 0.9766
-5.5567 0.5086 -1.9954 0.9766
-5.5798 0.0112 -1.9954 0.9766
-5.5587 -0.4863 -1.9954 0.9766
-5.0395 -2.3991 -1.9960 0.9766
-4.2269 -3.6487 -1.9968 0.9766
-3.8856 -4.0117 -1.9972 0.9766
-1.7754 -5.3020 -1.9995 0.9765
-0.3094 -5.5872 -2.0011 0.9765
0.6880 -5.5564 -2.0022 0.9765
1.6647 -5.3488 -2.0033 0.9765
2.5894 -4.9707 -2.0043 0.9765
3.0229 -4.7212 -2.0047 0.9765
3.4325 -4.4339 -2.0052 0.9765
4.7692 -2.9567 -2.0067 0.9764
5.0145 -2.5201 -2.0069 0.9764
5.2198 -2.0633 -2.0072 0.9764
5.3834 -1.5900 -2.0074 0.9764
5.5808 -0.6088 -2.0076 0.9764
5.6130 -0.1088 -2.0076 0.9764
5.6003 0.3920 -2.0076 0.9764
5.1088 2.3240 -2.0071 0.9764
4.8807 2.7699 -2.0069 0.9764
4.3099 3.5915 -2.0062 0.9764
3.4198 4.0803 -1.9039 0.9776
2.5691 4.4972 -1.8521 0.9782
1.7288 4.8795 -1.8512 0.9782
1.2866 5.0129 -1.8507 0.9783
0.3758 5.1589 -1.8498 0.9783
-0.0856 5.1705 -1.8492 0.9783
-0.5460 5.1408 -1.8487 0.9783
-1.4495 4.9595 -1.8478 0.9783
-3.1225 4.1816 -1.8663 0.9781
-4.6929 3.0236 -1.9964 0.9766
-4.9431 2.5928 -1.9961 0.9766
-5.3239 1.6735 -1.9957 0.9766
-5.5357 0.7014 -1.9954 0.9766
-5.5722 -0.2928 -1.9954 0.9766
-5.4320 -1.2777 -1.9955 0.9766
-5.2969 -1.7570 -1.9957 0.9766
-4.6448 -3.0970 -1.9964 0.9766
-4.0224 -3.8739 -1.9971 0.9766
-3.6617 -4.2179 -1.9974 0.9766
-3.2718 -4.5285 -1.9979 0.9765
-2.8558 -4.8032 -1.9983 0.9765
-1.9584 -5.2366 -1.9993 0.9765
-0.9979 -5.5040 -2.0003 0.9765
-0.0046 -5.5967 -2.0014 0.9765
0.9898 -5.5116 -2.0025 0.9765
2.8567 -4.8229 -2.0046 0.9765
4.3658 -3.5232 -2.0062 0.9764
4.9236 -2.6928 -2.0068 0.9764
5.3247 -1.7760 -2.0073 0.9764
5.4623 -1.2944 -2.0074 0.9764
5.6058 -0.3038 -2.0076 0.9764
5.6106 0.1971 -2.0076 0.9764
5.5706 0.6965 -2.0076 0.9764
5.3578 1.6744 -2.0074 0.9764
5.1867 2.1452 -2.0072 0.9764
4.7221 3.0314 -2.0067 0.9764
4.4324 3.4397 -2.0064 0.9764
4.1001 3.8137 -2.0025 0.9765
3.6570 4.0675 -1.9560 0.9770
2.3200 4.6298 -1.8519 0.9782
1.8975 4.8170 -1.8514 0.9782
1.4602 4.9656 -1.8509 0.9783
0.5549 5.1433 -1.8499 0.9783
0.0942 5.1709 -1.8494 0.9783
-1.2764 5.0074 -1.8479 0.9783
-2.1442 4.6988 -1.8470 0.9783
-3.9408 3.9427 -1.9935 0.9766
-4.2838 3.5817 -1.9968 0.9766
-4.8503 2.7632 -1.9962 0.9766
-5.0766 2.3195 -1.9960 0.9766
-5.4069 1.3809 -1.9956 0.9766
-5.5081 0.8934 -1.9955 0.9766
-5.4730 -1.0881 -1.9955 0.9766
-4.7494 -2.9335 -1.9963 0.9766
-4.4696 -3.3458 -1.9966 0.9766
-3.8058 -4.0878 -1.9973 0.9766
-3.4270 -4.4117 -1.9977 0.9765
-2.5903 -4.9523 -1.9986 0.9765
-1.6705 -5.3363 -1.9996 0.9765
-1.1884 -5.4654 -2.0001 0.9765
-0.1991 -5.5926 -2.0012 0.9765
0.3003 -5.5896 -2.0018 0.9765
1.2888 -5.4504 -2.0028 0.9765
1.7700 -5.3152 -2.0034 0.9765
3.5195 -4.3655 -2.0053 0.9765
3.8954 -4.0352 -2.0057 0.9765
4.8268 -2.8621 -2.0067 0.9764
5.4138 -1.4834 -2.0074 0.9764
5.5918 -0.4985 -2.0076 0.9764
5.6140 0.0020 -2.0076 0.9764
5.5915 0.5024 -2.0076 0.9764
5.5242 0.9988 -2.0075 0.9764
5.4129 1.4872 -2.0074 0.9764
5.0618 2.4244 -2.0070 0.9764
4.5496 3.2838 -2.0065 0.9764
3.8790 4.0238 -1.9987 0.9765
3.2904 4.0871 -1.8764 0.9780
2.8758 4.3086 -1.8525 0.9782
2.4797 4.5468 -1.8520 0.9782
2.0640 4.7486 -1.8516 0.9782
1.6321 4.9124 -1.8511 0.9783
1.1873 5.0370 -1.8506 0.9783
0.2739 5.1650 -1.8496 0.9783
-0.1876 5.1675 -1.8491 0.9783
-1.5470 4.9297 -1.8477 0.9783
-2.3966 4.5743 -1.8467 0.9783
-2.7942 4.3414 -1.8463 0.9783
-4.1569 3.7286 -1.9969 0.9766
-5.4738 1.0843 -1.9955 0.9766
-5.5653 -0.4027 -1.9954 0.9766
-5.5074 -0.8973 -1.9955 0.9766
-5.2613 -1.8612 -1.9957 0.9766
-5.0749 -2.3231 -1.9959 0.9766
-3.1820 -4.5924 -1.9980 0.9765
-2.7606 -4.8589 -1.9984 0.9765
-2.3170 -5.0869 -1.9989 0.9765
0.1058 -5.5961 -2.0015 0.9765
0.6044 -5.5659 -2.0021 0.9765
1.0985 -5.4913 -2.0026 0.9765
1.5841 -5.3729 -2.0032 0.9765
2.0573 -5.2117 -2.0037 0.9765
3.3654 -4.4848 -2.0051 0.9765
3.7526 -4.1678 -2.0055 0.9765
4.1100 -3.8175 -2.0059 0.9765
5.1881 -2.1415 -2.0071 0.9764
5.3589 -1.6706 -2.0073 0.9764
5.4868 -1.1863 -2.0075 0.9764
5.5710 -0.6925 -2.0076 0.9764
5.4614 1.2982 -2.0075 0.9764
5.3236 1.7798 -2.0073 0.9764
4.9219 2.6963 -2.0069 0.9764
4.6613 3.1239 -2.0066 0.9764
4.3635 3.5264 -2.0063 0.9764
3.5208 4.0749 -1.9258 0.9774
3.0241 4.2064 -1.8526 0.9782
2.2280 4.6744 -1.8518 0.9782
1.8020 4.8532 -1.8513 0.9782
1.3618 4.9932 -1.8508 0.9783
0.9110 5.0934 -1.8503 0.9783
0.4532 5.1529 -1.8498 0.9783
-0.0079 5.1714 -1.8493 0.9783
-0.4688 5.1487 -1.8488 0.9783
-1.8130 4.8373 -1.8474 0.9783
-2.2364 4.6553 -1.8469 0.9783
-2.6418 4.4363 -1.8464 0.9783
-3.6249 4.1695 -1.9757 0.9768
