ply
format ascii 1.0
element vertex 1562
property float32 x
property float32 y
property float32 z
property float32 I
end_header
2.8094 10.5403 -1.0473 0.9571
1.8115 10.4786 -1.0209 0.9582
-2.8870 10.2202 -1.0196 0.9582
-3.8865 10.1829 -1.0464 0.9571
-4.9406 10.1267 -1.0817 0.9557
-6.0748 10.0611 -1.1283 0.9539
-8.7315 9.9193 -1.2687 0.9483
-12.2717 9.7303 -1.5036 0.9390
-14.6247 9.6047 -1.6798 0.9321
-17.3270 9.2822 -1.8871 0.9241
-18.7303 6.0661 -1.8902 0.9239
-19.2072 4.3740 -1.8912 0.9239
-10.1002 -16.6778 -1.8719 0.9246
-5.2961 -18.6537 -1.8616 0.9250
-1.8906 -19.2223 -1.8543 0.9253
-0.1685 -19.2760 -1.8507 0.9255
3.2456 -18.9243 -1.8434 0.9257
4.9108 -18.5235 -1.8398 0.9259
6.5308 -17.9778 -1.8363 0.9260
8.0933 -17.2922 -1.8330 0.9261
9.5864 -16.4727 -1.8298 0.9263
10.9990 -15.5264 -1.8267 0.9264
12.3206 -14.4611 -1.8239 0.9265
15.9886 10.1048 -1.8158 0.9268
12.0290 11.0324 -1.5670 0.9365
8.7038 9.5459 -1.2402 0.9494
8.2326 10.8298 -1.3060 0.9468
6.7505 10.7507 -1.2187 0.9503
4.2668 10.6181 -1.0986 0.9551
3.1835 10.5603 -1.0589 0.9566
2.1675 10.5040 -1.0297 0.9578
-0.6658 10.3242 -0.9932 0.9593
-3.5186 10.1963 -1.0355 0.9576
-4.5510 10.1475 -1.0677 0.9563
-9.8339 9.9649 -1.3441 0.9453
-17.0119 9.8336 -1.8865 0.9241
-12.5182 4.5061 -1.2773 0.9479
-19.0524 4.9914 -1.8909 0.9239
-19.4301 3.2739 -1.8917 0.9239
-10.6403 -16.3529 -1.8730 0.9246
-9.1238 -17.2068 -1.8698 0.9247
-7.5393 -17.9195 -1.8664 0.9249
-5.9001 -18.4856 -1.8629 0.9250
-4.2199 -18.9016 -1.8593 0.9251
-2.5125 -19.1650 -1.8557 0.9253
0.9284 -19.2299 -1.8483 0.9256
2.6344 -19.0328 -1.8447 0.9257
4.3128 -18.6855 -1.8411 0.9258
9.0548 -16.7843 -1.8309 0.9262
10.4978 -15.8830 -1.8278 0.9263
13.4662 -14.0939 -1.8714 0.9247
17.0746 8.0802 -1.8135 0.9269
16.3008 9.5794 -1.8152 0.9268
15.3978 11.0066 -1.8171 0.9268
12.8916 11.0785 -1.6319 0.9340
10.6611 10.9594 -1.4679 0.9404
7.2635 10.7781 -1.2478 0.9491
5.8999 10.7053 -1.1735 0.9521
2.5291 10.5254 -1.0393 0.9574
-0.3319 10.3426 -0.9935 0.9593
-6.4074 10.0434 -1.1437 0.9533
-9.2468 9.9962 -1.3073 0.9468
-15.3772 9.5645 -1.7386 0.9298
-17.5552 8.8543 -1.8876 0.9240
-18.8774 5.6033 -1.8905 0.9239
-19.3116 3.8994 -1.8914 0.9239
-11.1698 -16.0102 -1.8742 0.9246
-9.6811 -16.9138 -1.8710 0.9247
-6.4987 -18.2979 -1.8642 0.9249
-3.1326 -19.0874 -1.8570 0.9252
0.3068 -19.2637 -1.8496 0.9255
2.0195 -19.1216 -1.8460 0.9256
3.7094 -18.8283 -1.8424 0.9258
6.9687 -17.8022 -1.8354 0.9261
8.5132 -17.0789 -1.8321 0.9262
12.6704 -14.1494 -1.8234 0.9265
13.8298 11.1285 -1.7042 0.9312
11.4147 10.9996 -1.5219 0.9383
9.4523 10.8949 -1.3847 0.9437
7.8022 10.8068 -1.2796 0.9478
5.1078 10.6630 -1.1351 0.9536
1.8952 10.4845 -1.0229 0.9581
0.0024 10.4950 -1.0076 0.9587
-3.7989 10.1864 -1.0437 0.9573
-4.8475 10.1317 -1.0783 0.9559
-5.9735 10.0665 -1.1238 0.9541
-7.2129 10.0004 -1.1838 0.9517
-8.6037 9.9261 -1.2611 0.9486
-12.0927 9.7399 -1.4907 0.9395
-18.0410 7.8444 -1.8887 0.9240
-18.6824 6.2088 -1.8901 0.9239
-19.1724 4.5205 -1.8911 0.9239
-11.6882 -15.6502 -1.8753 0.9245
-10.2289 -16.6026 -1.8722 0.9246
-8.6923 -17.4181 -1.8689 0.9248
-7.0913 -18.0907 -1.8655 0.9249
-2.0379 -19.2106 -1.8547 0.9253
-0.3159 -19.2774 -1.8510 0.9255
3.1014 -18.9517 -1.8437 0.9257
6.3942 -18.0301 -1.8366 0.9260
7.9621 -17.3562 -1.8332 0.9261
9.4616 -16.5479 -1.8300 0.9263
16.0640 9.9814 -1.8157 0.9268
6.8697 10.7571 -1.2254 0.9500
3.2733 10.5651 -1.0619 0.9565
2.2527 10.5102 -1.0320 0.9577
0.3423 10.5131 -1.0098 0.9586
-1.5123 10.2807 -0.9976 0.9591
-3.4327 10.1994 -1.0332 0.9577
-5.5568 10.0938 -1.1062 0.9548
-17.7727 8.4206 -1.8881 0.9240
-19.0129 5.1367 -1.8908 0.9239
-19.4039 3.4222 -1.8916 0.9239
-10.7666 -16.2734 -1.8733 0.9246
-9.2565 -17.1392 -1.8701 0.9247
-7.6773 -17.8641 -1.8667 0.9248
-4.3650 -18.8720 -1.8596 0.9251
0.7815 -19.2397 -1.8486 0.9255
4.1705 -18.7211 -1.8414 0.9258
11.7410 -14.9520 -1.8251 0.9265
13.2729 -14.1060 -1.8595 0.9251
17.1347 7.9489 -1.8134 0.9269
16.3721 9.4537 -1.8150 0.9268
15.4800 10.8875 -1.8169 0.9268
13.1064 11.0899 -1.6483 0.9333
10.8345 10.9687 -1.4802 0.9399
8.9697 10.8691 -1.3529 0.9449
7.3885 10.7848 -1.2551 0.9488
6.0104 10.7112 -1.1792 0.9518
4.7802 10.6455 -1.1203 0.9542
0.6840 10.5314 -1.0132 0.9585
-3.0736 10.2129 -1.0239 0.9580
-4.0823 10.1725 -1.0523 0.9569
-5.1501 10.1155 -1.0898 0.9554
-6.3033 10.0489 -1.1388 0.9535
-7.5800 9.9808 -1.2032 0.9509
-15.1384 9.5773 -1.7198 0.9305
-18.8331 5.7471 -1.8904 0.9239
-19.2805 4.0468 -1.8914 0.9239
-9.8117 -16.8418 -1.8713 0.9247
-8.2559 -17.6184 -1.8679 0.9248
-6.6395 -18.2506 -1.8645 0.9249
-4.9760 -18.7342 -1.8609 0.9251
1.8736 -19.1397 -1.8463 0.9256
5.2236 -18.4306 -1.8391 0.9259
8.3836 -17.1461 -1.8323 0.9262
11.2582 -15.3322 -1.8262 0.9264
16.6633 8.9168 -1.8144 0.9269
14.0642 11.1410 -1.7225 0.9304
9.6065 10.9031 -1.3951 0.9433
7.9337 10.8138 -1.2876 0.9475
5.2110 10.6685 -1.1399 0.9534
4.0539 10.6068 -1.0901 0.9554
2.9854 10.5497 -1.0526 0.9569
1.9792 10.4905 -1.0249 0.9580
-0.8362 10.2477 -0.9871 0.9595
-3.7116 10.1895 -1.0411 0.9574
-8.4775 9.9329 -1.2537 0.9489
-14.1831 9.6283 -1.6458 0.9334
-17.1801 9.5444 -1.8868 0.9241
-17.9792 7.9816 -1.8885 0.9240
-17.5553 5.9837 -1.7806 0.9282
-11.8091 -15.5625 -1.8755 0.9245
-10.3571 -16.5263 -1.8724 0.9246
-5.5826 -18.5766 -1.8622 0.9250
-3.8961 -18.9637 -1.8586 0.9252
-2.1851 -19.1977 -1.8550 0.9253
1.2552 -19.2040 -1.8476 0.9256
2.9569 -18.9781 -1.8440 0.9257
10.7632 -15.6971 -1.8272 0.9264
12.1012 -14.6517 -1.8244 0.9265
3.8654 10.5967 -1.3399 0.9556
2.8094 10.5403 -1.2958 0.9570
1.8130 10.4871 -1.2642 0.9580
-2.8915 10.2360 -1.2635 0.9581
-4.9406 10.1266 -1.3384 0.9556
-7.3254 9.9943 -1.4719 0.9513
-8.7315 9.9193 -1.5697 0.9482
-10.0214 9.5191 -1.6418 0.9458
-13.2173 8.6804 -1.8783 0.9383
-14.5717 6.2039 -1.8813 0.9382
-15.0756 4.8825 -1.8824 0.9382
-17.0076 2.3034 -2.0387 0.9332
-17.0110 -2.2808 -2.0388 0.9332
-16.7351 -3.7877 -2.0382 0.9332
-15.1100 -8.0687 -2.0347 0.9333
-8.8148 -14.5554 -2.0213 0.9338
-1.5274 -15.5291 -1.8535 0.9391
1.2516 -15.5035 -1.8476 0.9393
3.9733 -14.9871 -1.8418 0.9395
5.2859 -14.5508 -1.8389 0.9395
6.7546 -14.4320 -1.8928 0.9378
8.3433 -14.3366 -1.9704 0.9354
11.8805 -11.6559 -1.9770 0.9352
13.7344 -9.3411 -1.9730 0.9353
15.1519 -6.7422 -1.9700 0.9354
16.3740 -2.4876 -1.9673 0.9355
16.5278 -1.0173 -1.9670 0.9355
16.4468 1.9352 -1.9671 0.9355
16.2128 3.3951 -1.9676 0.9355
15.8515 4.8292 -1.9684 0.9354
13.6370 7.0014 -1.8209 0.9401
12.9684 8.1960 -1.8223 0.9401
12.1968 9.3282 -1.8240 0.9400
11.3277 10.3893 -1.8258 0.9400
8.7400 9.5856 -1.5409 0.9491
6.7505 10.7507 -1.5079 0.9502
-0.6677 10.3547 -1.2326 0.9591
-1.5965 10.3052 -1.2387 0.9589
-3.5207 10.2024 -1.2820 0.9575
-4.5509 10.1474 -1.3210 0.9562
-6.8573 10.0193 -1.4422 0.9523
-9.5653 9.6927 -1.6176 0.9466
-11.5351 9.7696 -1.7956 0.9409
-13.6977 7.9179 -1.8794 0.9383
-10.2007 4.7379 -1.3360 0.9557
-12.5105 4.5033 -1.5794 0.9478
-15.3338 4.0172 -1.8829 0.9381
-17.1131 1.3311 -2.0389 0.9332
-17.1647 -0.2003 -2.0391 0.9332
-16.4880 -4.7334 -2.0377 0.9332
-15.9919 -6.1818 -2.0366 0.9333
-14.6185 -8.9116 -2.0337 0.9334
-13.7530 -10.1706 -2.0318 0.9334
-12.7781 -11.3449 -2.0298 0.9335
-11.7022 -12.4252 -2.0275 0.9336
-7.9493 -14.9918 -2.0157 0.9339
-4.8035 -15.0498 -1.8766 0.9383
-3.4074 -15.2621 -1.8576 0.9390
-0.6398 -15.5749 -1.8516 0.9391
2.1304 -15.3914 -1.8457 0.9393
3.4890 -15.1162 -1.8428 0.9394
4.8157 -14.7221 -1.8400 0.9395
7.7536 -14.3723 -1.9398 0.9363
14.9298 -7.2299 -1.9705 0.9354
16.2867 -3.0156 -1.9675 0.9355
16.4870 -1.5508 -1.9671 0.9355
16.5583 -0.0743 -1.9669 0.9355
12.4875 8.9263 -1.8233 0.9400
11.6531 10.0141 -1.8251 0.9400
8.8246 10.8614 -1.6623 0.9452
5.8999 10.7053 -1.4520 0.9520
3.5664 10.5807 -1.3263 0.9560
2.5291 10.5254 -1.2859 0.9573
1.5455 10.4729 -1.2575 0.9583
0.6030 10.5270 -1.2525 0.9584
-3.1617 10.2216 -1.2709 0.9578
-5.2453 10.1104 -1.3530 0.9552
-7.6962 9.9745 -1.4965 0.9505
-9.1547 9.8967 -1.6014 0.9471
-10.7975 9.7611 -1.7290 0.9431
-12.6204 9.5094 -1.8771 0.9383
-13.4306 8.3538 -1.8788 0.9383
-15.1935 4.5098 -1.8826 0.9382
-16.0418 3.2392 -1.9440 0.9362
-17.1621 0.3544 -2.0391 0.9332
-16.9485 -2.6995 -2.0386 0.9332
-14.0792 -9.7242 -2.0325 0.9334
-12.1027 -12.0457 -2.0283 0.9335
-10.9671 -13.0614 -2.0259 0.9336
-8.4499 -14.7627 -2.0205 0.9338
-5.3555 -15.0792 -1.9008 0.9376
-3.9018 -15.1563 -1.8591 0.9389
3.0004 -15.2297 -1.8438 0.9394
4.3399 -14.8782 -1.8410 0.9395
5.6740 -14.4948 -1.8490 0.9392
8.7298 -14.1839 -1.9784 0.9351
11.1122 -12.4092 -1.9787 0.9351
12.1607 -11.3558 -1.9764 0.9352
13.1114 -10.2156 -1.9744 0.9352
13.9573 -8.9973 -1.9725 0.9353
14.6922 -7.7106 -1.9710 0.9353
16.5360 0.8689 -1.9669 0.9355
16.3950 2.3404 -1.9672 0.9355
16.1256 3.7943 -1.9678 0.9354
12.7653 8.5154 -1.8228 0.9401
11.0714 10.6687 -1.8264 0.9399
7.8022 10.8068 -1.5833 0.9477
6.3743 10.7306 -1.4826 0.9510
5.1078 10.6630 -1.4044 0.9535
3.9594 10.6017 -1.3443 0.9554
1.8965 10.4916 -1.2665 0.9580
0.9372 10.4404 -1.2452 0.9587
0.0024 10.4950 -1.2467 0.9586
-1.8553 10.2913 -1.2422 0.9588
-2.8084 10.2405 -1.2613 0.9581
-3.7993 10.1876 -1.2916 0.9571
-5.9735 10.0665 -1.3904 0.9539
-7.2129 10.0003 -1.4647 0.9515
-9.8869 9.5362 -1.6317 0.9462
-12.0927 9.7398 -1.8444 0.9394
-15.4299 3.6381 -1.8831 0.9381
-17.1413 0.9086 -2.0390 0.9332
-16.7641 -3.6597 -2.0382 0.9332
-15.8320 -6.5733 -2.0363 0.9333
-12.4906 -11.6531 -2.0292 0.9335
-10.1971 -13.6537 -2.0243 0.9337
-7.5622 -15.1535 -2.0117 0.9341
-5.9225 -15.1090 -1.9277 0.9367
-4.3927 -15.0332 -1.8604 0.9389
-3.0285 -15.3348 -1.8567 0.9390
-1.6463 -15.5191 -1.8538 0.9391
3.8591 -15.0191 -1.8420 0.9394
5.1752 -14.5927 -1.8392 0.9395
12.7791 -10.6377 -1.9751 0.9352
16.0620 -4.0622 -1.9680 0.9354
16.5551 0.3342 -1.9669 0.9355
16.4609 1.8094 -1.9671 0.9355
16.2378 3.2709 -1.9676 0.9355
13.6893 6.8965 -1.8208 0.9401
12.2667 9.2340 -1.8238 0.9400
4.3635 10.6233 -1.3642 0.9548
3.2733 10.5651 -1.3138 0.9564
2.2528 10.5106 -1.2769 0.9576
-0.5885 10.3590 -1.2325 0.9591
-4.4602 10.1523 -1.3172 0.9563
-5.5568 10.0938 -1.3687 0.9546
-6.7493 10.0251 -1.4356 0.9525
-8.0798 9.9541 -1.5229 0.9497
-9.4899 9.7645 -1.6174 0.9466
-11.3683 9.7785 -1.7812 0.9414
-14.3079 6.7790 -1.8807 0.9382
-14.8649 5.4795 -1.8819 0.9382
-15.3021 4.1342 -1.8828 0.9381
-16.8641 2.9743 -2.0341 0.9333
-17.1023 1.4619 -2.0389 0.9332
-17.0899 -1.5995 -2.0389 0.9332
-16.8755 -3.1165 -2.0385 0.9332
-16.5243 -4.6074 -2.0377 0.9332
-16.0395 -6.0596 -2.0367 0.9333
-15.4253 -7.4611 -2.0354 0.9333
-13.8315 -10.0660 -2.0320 0.9334
-11.7981 -12.3366 -2.0277 0.9336
-6.5062 -15.1393 -1.9574 0.9358
-3.5244 -15.2377 -1.8578 0.9389
0.6317 -15.5523 -1.8489 0.9392
2.0129 -15.4093 -1.8460 0.9393
4.7036 -14.7604 -1.8402 0.9395
6.0807 -14.4714 -1.8646 0.9387
9.0878 -13.9809 -1.9808 0.9350
11.4112 -12.1274 -1.9780 0.9351
14.1717 -8.6482 -1.9721 0.9353
16.2636 -3.1401 -1.9676 0.9355
16.4749 -1.6768 -1.9671 0.9355
16.5573 -0.2009 -1.9669 0.9355
16.5099 1.2765 -1.9670 0.9355
13.9015 6.4490 -1.8203 0.9401
9.7268 5.6165 -1.3342 0.9558
12.5544 8.8298 -1.8232 0.9400
11.7283 9.9238 -1.8250 0.9400
10.8082 10.9420 -1.8269 0.9399
8.9697 10.8691 -1.6740 0.9448
7.3885 10.7847 -1.5529 0.9487
6.0104 10.7112 -1.4590 0.9517
0.6840 10.5313 -1.2536 0.9584
-0.2536 10.3768 -1.2330 0.9591
-1.1797 10.3274 -1.2347 0.9590
-3.0776 10.2261 -1.2685 0.9579
-5.1501 10.1155 -1.3483 0.9553
-6.3033 10.0489 -1.4091 0.9533
-10.6912 9.8147 -1.7240 0.9432
-12.5463 9.6048 -1.8769 0.9383
-14.0777 7.2358 -1.8802 0.9382
-14.6770 5.9557 -1.8815 0.9382
-15.1580 4.6257 -1.8825 0.9382
-15.6034 3.2750 -1.8938 0.9378
-17.0450 2.0136 -2.0388 0.9332
-17.1334 -1.0466 -2.0390 0.9332
-16.9690 -2.5699 -2.0387 0.9332
-14.9682 -8.3236 -2.0344 0.9333
-14.1543 -9.6170 -2.0327 0.9334
-13.2274 -10.8305 -2.0307 0.9335
-12.1956 -11.9540 -2.0285 0.9335
-11.0678 -12.9786 -2.0261 0.9336
-9.8537 -13.8961 -2.0235 0.9337
-8.5636 -14.6994 -2.0208 0.9338
-4.0172 -15.1244 -1.8589 0.9389
-2.6482 -15.3981 -1.8559 0.9390
-1.2625 -15.5480 -1.8530 0.9391
1.5149 -15.4752 -1.8470 0.9393
5.5497 -14.5030 -1.8446 0.9394
7.0480 -14.4146 -1.9060 0.9374
11.0181 -12.4951 -1.9789 0.9351
12.0747 -11.4495 -1.9766 0.9352
13.0340 -10.3164 -1.9745 0.9352
15.2626 -6.4824 -1.9697 0.9354
16.1556 -3.6643 -1.9678 0.9354
16.4133 -2.2084 -1.9672 0.9355
16.5424 -0.7357 -1.9669 0.9355
16.4121 2.2150 -1.9672 0.9355
16.1536 3.6708 -1.9677 0.9354
15.7684 5.0988 -1.9686 0.9354
14.0993 5.9951 -1.8199 0.9402
12.8290 8.4169 -1.8226 0.9401
12.0384 9.5363 -1.8243 0.9400
9.6065 10.9031 -1.7261 0.9431
7.9337 10.8138 -1.5932 0.9474
6.4895 10.7367 -1.4902 0.9507
5.2110 10.6685 -1.4104 0.9533
1.9802 10.4961 -1.2688 0.9579
0.0827 10.4992 -1.2472 0.9586
-0.8362 10.2477 -1.2213 0.9594
-1.7749 10.2956 -1.2410 0.9588
-2.7256 10.2449 -1.2593 0.9582
-3.7126 10.1922 -1.2885 0.9572
-4.7550 10.1366 -1.3300 0.9559
-5.8730 10.0719 -1.3849 0.9541
-7.1015 10.0063 -1.4575 0.9518
-8.4774 9.9328 -1.5512 0.9488
-9.7539 9.5529 -1.6218 0.9465
-11.9167 9.7492 -1.8289 0.9399
-13.8327 7.6848 -1.8797 0.9382
-14.9979 5.1120 -1.8822 0.9382
-16.9697 2.5631 -2.0386 0.9332
-17.1337 1.0397 -2.0390 0.9332
-17.0445 -2.0205 -2.0388 0.9332
-16.7921 -3.5316 -2.0383 0.9332
-12.5805 -11.5584 -2.0294 0.9335
-11.4864 -12.6197 -2.0270 0.9336
-4.5187 -15.0365 -1.8650 0.9387
-1.7651 -15.5081 -1.8540 0.9391
5.0641 -14.6337 -1.8394 0.9395
8.0620 -14.3537 -1.9556 0.9358
9.4371 -13.7630 -1.9823 0.9350
10.6133 -12.8502 -1.9797 0.9351
11.7032 -11.8385 -1.9774 0.9351
12.6985 -10.7360 -1.9753 0.9352
13.5921 -9.5514 -1.9733 0.9353
16.3348 -2.7377 -1.9674 0.9355
16.4741 1.6835 -1.9671 0.9355
5.0053 10.6575 -1.6683 0.9535
2.8094 10.5403 -1.5456 0.9569
-2.8915 10.2360 -1.5071 0.9579
-4.9406 10.1266 -1.5965 0.9555
-7.3254 9.9943 -1.7557 0.9512
-8.7143 9.8997 -1.8687 0.9481
-9.5718 9.0920 -1.8705 0.9481
-11.6651 6.2491 -1.8750 0.9479
-12.6033 4.0818 -1.8771 0.9479
-13.9521 3.1773 -2.0275 0.9438
-14.2167 1.9254 -2.0327 0.9437
-14.3336 0.6500 -2.0330 0.9437
-14.3345 -0.6309 -2.0330 0.9437
-13.9895 -3.1662 -2.0323 0.9437
-13.6465 -4.3997 -2.0316 0.9437
-12.6345 -6.7468 -2.0294 0.9438
-11.9742 -7.8413 -2.0280 0.9438
-10.3733 -9.8272 -2.0246 0.9439
-9.4463 -10.7027 -2.0226 0.9440
-6.2553 -12.7782 -2.0158 0.9441
-5.0845 -13.2686 -2.0133 0.9442
-3.8759 -13.6517 -2.0107 0.9443
-2.6396 -13.9246 -2.0081 0.9444
-1.3854 -14.0857 -2.0054 0.9444
-0.1236 -14.1341 -2.0027 0.9445
1.1359 -14.0698 -2.0000 0.9446
2.3829 -13.8939 -1.9974 0.9446
4.8007 -13.2152 -1.9922 0.9448
7.0549 -12.1227 -1.9873 0.9449
11.5416 -7.8497 -1.9777 0.9452
12.1871 -6.7844 -1.9763 0.9452
13.5284 -3.3116 -1.9734 0.9453
13.8276 1.6270 -1.9727 0.9453
10.2486 7.8383 -1.8281 0.9492
7.8303 10.3005 -1.8333 0.9491
6.7504 10.7506 -1.7986 0.9500
5.4443 10.6809 -1.6986 0.9527
2.1680 10.5061 -1.5200 0.9576
1.1991 10.4544 -1.4910 0.9584
0.2617 10.5088 -1.4894 0.9584
-2.5421 10.2547 -1.4970 0.9582
-4.5509 10.1474 -1.5758 0.9561
-9.2698 9.3933 -1.8699 0.9481
-10.0800 8.5371 -1.8716 0.9480
-10.8102 7.6106 -1.8732 0.9480
-11.4543 6.6211 -1.8746 0.9480
-12.4628 4.4861 -1.8768 0.9479
-14.3476 -0.1674 -2.0330 0.9437
-14.2745 -1.4462 -2.0329 0.9437
-13.3699 -5.1682 -2.0310 0.9437
-12.8488 -6.3365 -2.0299 0.9438
-11.5025 -8.5063 -2.0270 0.9438
-7.7717 -11.9441 -2.0191 0.9441
-6.6678 -12.5749 -2.0167 0.9441
-5.5130 -13.1034 -2.0142 0.9442
-4.3170 -13.5257 -2.0117 0.9443
-3.0896 -13.8387 -2.0091 0.9443
-1.8407 -14.0404 -2.0064 0.9444
0.6810 -14.1060 -2.0010 0.9445
3.1677 -13.7241 -1.9957 0.9447
4.3733 -13.3696 -1.9931 0.9448
5.5412 -12.9101 -1.9906 0.9448
6.6623 -12.3495 -1.9882 0.9449
11.2852 -8.2208 -1.9783 0.9452
12.5488 -6.0769 -1.9755 0.9452
13.0338 -4.9310 -1.9745 0.9453
13.4160 -3.7474 -1.9737 0.9453
13.0544 4.8053 -1.9710 0.9454
11.6436 5.5101 -1.8252 0.9493
9.5013 5.5836 -1.5615 0.9565
9.0097 9.2618 -1.8308 0.9491
7.2359 10.7372 -1.8346 0.9490
5.8999 10.7052 -1.7319 0.9518
2.5291 10.5253 -1.5338 0.9572
1.5455 10.4728 -1.5000 0.9581
-0.3329 10.3726 -1.4704 0.9589
-4.1709 10.1677 -1.5572 0.9566
-6.4073 10.0433 -1.6880 0.9530
-7.6961 9.9745 -1.7851 0.9504
-9.7957 8.8555 -1.8710 0.9481
-10.5556 7.9535 -1.8727 0.9480
-11.2315 6.9859 -1.8741 0.9480
-11.8177 5.9605 -1.8754 0.9479
-12.3092 4.8856 -1.8764 0.9479
-14.3143 -0.9843 -2.0330 0.9437
-14.1674 -2.2565 -2.0327 0.9437
-13.5322 -4.7344 -2.0313 0.9437
-12.4620 -7.0551 -2.0291 0.9438
-11.7747 -8.1325 -2.0276 0.9438
-10.1251 -10.0774 -2.0241 0.9439
-9.1769 -10.9293 -2.0221 0.9440
-8.1568 -11.6916 -2.0199 0.9440
-7.0736 -12.3582 -2.0176 0.9441
-4.7539 -13.3853 -2.0126 0.9442
-3.5368 -13.7382 -2.0100 0.9443
-1.0372 -14.1103 -2.0047 0.9444
0.2250 -14.1275 -2.0020 0.9445
2.7239 -13.8258 -1.9966 0.9447
5.1234 -13.0882 -1.9915 0.9448
7.3494 -11.9412 -1.9867 0.9449
8.3757 -11.2257 -1.9845 0.9450
11.7294 -7.5611 -1.9773 0.9452
12.8700 -5.3505 -1.9748 0.9452
13.6048 -2.9766 -1.9733 0.9453
13.8129 -1.7511 -1.9728 0.9453
13.9027 0.7305 -1.9726 0.9453
13.5568 3.1898 -1.9733 0.9453
13.2230 4.3877 -1.9740 0.9453
11.8132 5.1300 -1.8248 0.9493
10.0545 8.0906 -1.8286 0.9492
9.3010 8.9628 -1.8302 0.9492
8.4728 9.7660 -1.8319 0.9491
7.5761 10.4936 -1.8338 0.9491
3.9594 10.6017 -1.6035 0.9553
1.8965 10.4916 -1.5106 0.9578
-0.9235 10.3411 -1.4710 0.9589
-1.8553 10.2913 -1.4817 0.9586
-5.9735 10.0665 -1.6585 0.9538
-7.2129 10.0003 -1.7470 0.9514
-10.2900 8.2879 -1.8721 0.9480
-10.9970 7.3432 -1.8736 0.9480
-11.6163 6.3377 -1.8749 0.9479
-10.4018 4.5228 -1.6071 0.9552
-12.5713 4.1779 -1.8770 0.9479
-14.2013 2.0340 -2.0327 0.9437
-14.3281 0.7595 -2.0330 0.9437
-14.0136 -3.0593 -2.0323 0.9437
-13.2365 -5.4957 -2.0307 0.9437
-12.0346 -7.7500 -2.0282 0.9438
-10.4490 -9.7484 -2.0248 0.9439
-8.5337 -11.4265 -2.0207 0.9440
-7.4723 -12.1283 -2.0184 0.9441
-6.3534 -12.7313 -2.0160 0.9441
-5.1863 -13.2308 -2.0135 0.9442
-2.7463 -13.9056 -2.0083 0.9443
-0.2317 -14.1343 -2.0030 0.9445
3.5040 -13.6368 -1.9950 0.9447
4.7001 -13.2530 -1.9924 0.9448
6.9627 -12.1775 -1.9875 0.9449
8.0118 -11.4950 -1.9853 0.9450
8.9271 -10.6418 -1.9681 0.9454
10.7371 -8.9378 -1.9794 0.9451
12.1356 -6.8778 -1.9764 0.9452
13.1498 -4.6074 -1.9742 0.9453
13.5030 -3.4150 -1.9735 0.9453
13.8890 -0.9615 -1.9726 0.9453
13.8395 1.5213 -1.9727 0.9453
13.3559 3.9576 -1.9737 0.9453
12.4317 4.9276 -1.8948 0.9474
11.5060 5.7966 -1.8255 0.9493
9.4515 5.8727 -1.5767 0.9560
9.5826 8.6548 -1.8296 0.9492
6.8696 10.7570 -1.8084 0.9497
5.5505 10.6866 -1.7062 0.9525
3.2733 10.5651 -1.5672 0.9563
2.2528 10.5106 -1.5231 0.9575
1.2807 10.4587 -1.4930 0.9583
0.3423 10.5131 -1.4904 0.9584
-0.5885 10.3589 -1.4701 0.9589
-1.5165 10.3094 -1.4765 0.9588
-2.4600 10.2590 -1.4948 0.9583
-5.5568 10.0937 -1.6326 0.9545
-9.1619 9.4270 -1.8626 0.9483
-10.0136 8.6133 -1.8715 0.9480
-10.1562 4.8120 -1.5924 0.9556
-12.4276 4.5811 -1.8767 0.9479
-14.1270 2.4915 -2.0325 0.9437
-14.2956 1.2220 -2.0329 0.9437
-13.4096 -5.0661 -2.0311 0.9437
-12.8975 -6.2384 -2.0300 0.9438
-12.2818 -7.3590 -2.0287 0.9438
-10.7620 -9.4088 -2.0254 0.9439
-7.8635 -11.8855 -2.0193 0.9441
-4.4208 -13.4937 -2.0119 0.9442
-3.1956 -13.8162 -2.0093 0.9443
-1.9482 -14.0275 -2.0066 0.9444
0.5732 -14.1124 -2.0012 0.9445
1.8270 -13.9863 -1.9985 0.9446
4.2714 -13.4040 -1.9933 0.9448
7.6393 -11.7526 -1.9861 0.9449
8.6476 -11.0125 -1.9839 0.9450
11.9100 -7.2680 -1.9769 0.9452
12.5026 -6.1729 -1.9756 0.9452
12.9963 -5.0307 -1.9746 0.9453
13.3874 -3.8500 -1.9737 0.9453
13.8808 1.0732 -1.9726 0.9453
13.7319 2.3072 -1.9729 0.9453
13.1019 4.7094 -1.9727 0.9453
9.7025 5.6025 -1.5875 0.9557
10.5499 7.4200 -1.8275 0.9492
9.8541 8.3380 -1.8290 0.9492
8.2317 9.9748 -1.8324 0.9491
7.3171 10.6805 -1.8344 0.9490
6.0104 10.7111 -1.7403 0.9516
3.6584 10.5856 -1.5869 0.9558
2.6155 10.5299 -1.5373 0.9571
-1.1797 10.3274 -1.4728 0.9589
-2.1158 10.2774 -1.4867 0.9585
-4.0822 10.1724 -1.5531 0.9567
-5.1501 10.1154 -1.6083 0.9552
-6.3033 10.0489 -1.6807 0.9532
-7.5799 9.9807 -1.7758 0.9506
-9.7269 8.9294 -1.8709 0.9481
-12.2709 4.9794 -1.8763 0.9479
-12.6719 3.8670 -1.8772 0.9479
-14.0319 2.9452 -2.0315 0.9437
-11.8373 -8.0428 -2.0277 0.9438
-8.2468 -11.6300 -2.0201 0.9440
-6.0354 -12.8798 -2.0154 0.9442
-3.6421 -13.7123 -2.0102 0.9443
-2.4015 -13.9640 -2.0076 0.9444
-1.1452 -14.1036 -2.0049 0.9444
0.1170 -14.1305 -2.0022 0.9445
1.3748 -14.0448 -1.9995 0.9446
2.6184 -13.8478 -1.9969 0.9447
3.8379 -13.5414 -1.9942 0.9447
8.2904 -11.2905 -1.9847 0.9450
10.9517 -8.6682 -1.9790 0.9451
12.8293 -5.4489 -1.9749 0.9452
13.2579 -4.2811 -1.9740 0.9453
13.5820 -3.0806 -1.9733 0.9453
13.7993 -1.8567 -1.9728 0.9453
13.7983 1.8622 -1.9728 0.9453
13.2557 4.2863 -1.9739 0.9453
11.8516 5.0393 -1.8247 0.9493
11.3614 6.0796 -1.8258 0.9493
10.7812 7.0734 -1.8270 0.9492
10.1153 8.0129 -1.8284 0.9492
9.3686 8.8907 -1.8300 0.9492
8.5465 9.7001 -1.8318 0.9491
7.6554 10.4344 -1.8337 0.9491
6.4895 10.7367 -1.7776 0.9506
5.2110 10.6685 -1.6823 0.9532
4.0539 10.6067 -1.6089 0.9552
2.9854 10.5497 -1.5535 0.9567
1.0182 10.4447 -1.4869 0.9585
-1.7749 10.2956 -1.4803 0.9587
-2.7256 10.2449 -1.5021 0.9581
-10.2256 8.3657 -1.8719 0.9480
-11.5668 6.4260 -1.8748 0.9479
-10.1975 4.5270 -1.5809 0.9559
-13.7903 3.3630 -2.0112 0.9443
-14.1851 2.1425 -2.0327 0.9437
-14.3218 0.8690 -2.0330 0.9437
-14.2474 -1.6889 -2.0328 0.9437
-13.7132 -4.1907 -2.0317 0.9437
-13.2788 -5.3945 -2.0308 0.9437
-11.3542 -8.6995 -2.0267 0.9439
-10.5240 -9.6690 -2.0249 0.9439
-9.6106 -10.5588 -2.0230 0.9440
-8.6216 -11.3619 -2.0209 0.9440
-7.5656 -12.0721 -2.0186 0.9441
-4.0852 -13.5938 -2.0112 0.9443
-2.8528 -13.8858 -2.0086 0.9443
-1.6010 -14.0661 -2.0059 0.9444
-0.3397 -14.1338 -2.0032 0.9445
0.9208 -14.0888 -2.0005 0.9446
3.4000 -13.6647 -1.9952 0.9447
4.5991 -13.2899 -1.9926 0.9448
6.8701 -12.2316 -1.9877 0.9449
7.9245 -11.5570 -1.9855 0.9450
8.8491 -10.7142 -1.9689 0.9454
9.8312 -9.9449 -1.9814 0.9451
11.4218 -8.0263 -1.9780 0.9452
13.1147 -4.7079 -1.9743 0.9453
13.4769 -3.5182 -1.9735 0.9453
13.7331 -2.3017 -1.9730 0.9453
13.9206 0.1745 -1.9726 0.9453
13.8505 1.4154 -1.9727 0.9453
4.7478 10.1091 -1.8399 0.9557
3.8314 10.5034 -1.8419 0.9557
-1.0028 10.3368 -1.7109 0.9588
-1.9359 10.2870 -1.7244 0.9585
-3.8865 10.1829 -1.7955 0.9568
-4.9406 10.1266 -1.8562 0.9553
-7.4845 8.5026 -1.8661 0.9551
-8.2199 7.8079 -1.8677 0.9551
-10.9740 3.5541 -1.9003 0.9543
-12.3017 0.5578 -2.0287 0.9513
-12.2040 -1.6363 -2.0285 0.9513
-12.0070 -2.7175 -2.0280 0.9513
-11.3252 -4.8039 -2.0266 0.9514
-10.8462 -5.7919 -2.0256 0.9514
-9.6325 -7.6168 -2.0230 0.9514
-8.9080 -8.4391 -2.0215 0.9515
-8.1131 -9.1921 -2.0198 0.9515
-7.2545 -9.8701 -2.0179 0.9516
-6.3392 -10.4675 -2.0160 0.9516
-5.3750 -10.9799 -2.0139 0.9516
-3.3317 -11.7347 -2.0096 0.9518
-0.1063 -12.1561 -2.0027 0.9519
2.0502 -11.9540 -1.9981 0.9520
4.1319 -11.3742 -1.9936 0.9521
6.9740 -9.8446 -1.9875 0.9523
9.9439 -6.7630 -1.9811 0.9524
10.9748 -4.8835 -1.9789 0.9525
11.3618 -3.8836 -1.9781 0.9525
11.8645 -1.8025 -1.9770 0.9525
11.9175 1.4023 -1.9768 0.9525
11.7471 2.4599 -1.9772 0.9525
11.4841 3.4987 -1.9777 0.9525
9.3903 5.9346 -1.8300 0.9560
8.8294 6.7528 -1.8312 0.9559
7.5009 8.2266 -1.8340 0.9559
6.7433 8.8706 -1.8356 0.9558
5.9309 9.4455 -1.8374 0.9558
0.2508 10.0681 -1.6591 0.9600
-1.5965 10.3051 -1.7179 0.9586
-5.5261 9.8588 -1.8619 0.9552
-7.2035 8.7372 -1.8655 0.9551
-9.8335 5.6842 -1.8711 0.9550
-11.8980 3.1171 -2.0262 0.9514
-12.2769 0.9549 -2.0286 0.9513
-12.3137 -0.1437 -2.0287 0.9513
-12.2510 -1.2412 -2.0286 0.9513
-12.0895 -2.3284 -2.0282 0.9513
-11.0298 -5.4394 -2.0260 0.9514
-9.8760 -7.3035 -2.0235 0.9514
-9.1787 -8.1492 -2.0220 0.9515
-8.4085 -8.9280 -2.0204 0.9515
-7.5721 -9.6338 -2.0186 0.9515
-2.6560 -11.8968 -2.0081 0.9518
3.7638 -11.5063 -1.9944 0.9521
5.7358 -10.6321 -1.9902 0.9522
11.2320 -4.2493 -1.9783 0.9525
11.5620 -3.2295 -1.9776 0.9525
11.8009 -2.1850 -1.9771 0.9525
11.9468 -1.1237 -1.9768 0.9525
10.0334 4.7481 -1.8286 0.9560
9.0407 6.4625 -1.8307 0.9559
7.7604 7.9776 -1.8335 0.9559
7.0241 8.6453 -1.8350 0.9558
6.2308 9.2457 -1.8367 0.9558
5.3868 9.7741 -1.8385 0.9558
4.4983 10.2261 -1.8404 0.9557
2.5290 10.5253 -1.7833 0.9571
0.5777 10.0856 -1.6642 0.9599
-0.3329 10.3726 -1.7096 0.9588
-1.2592 10.3231 -1.7132 0.9587
-2.1969 10.2731 -1.7306 0.9583
-6.0825 9.5342 -1.8631 0.9552
-6.9152 8.9624 -1.8649 0.9551
-9.6426 5.9976 -1.8707 0.9550
-10.5659 4.1937 -1.8727 0.9550
-12.0677 2.4367 -2.0281 0.9513
-12.2391 1.3511 -2.0285 0.9513
-12.3119 0.2542 -2.0287 0.9513
-12.1593 -1.9367 -2.0284 0.9513
-11.6153 -4.0637 -2.0272 0.9513
-10.6984 -6.0567 -2.0253 0.9514
-10.1094 -6.9823 -2.0240 0.9514
-9.4397 -7.8505 -2.0226 0.9514
-8.6952 -8.6543 -2.0210 0.9515
-7.8820 -9.3872 -2.0193 0.9515
-7.0070 -10.0434 -2.0174 0.9516
-5.1010 -11.1060 -2.0133 0.9517
-4.0858 -11.5042 -2.0112 0.9517
-0.8919 -12.1341 -2.0043 0.9519
5.3913 -10.8159 -1.9909 0.9522
6.3280 -10.2816 -1.9889 0.9522
7.2128 -9.6671 -1.9870 0.9523
8.0390 -8.9773 -1.9852 0.9523
8.8003 -8.2179 -1.9836 0.9524
9.4910 -7.3948 -1.9821 0.9524
11.0906 -4.6107 -1.9786 0.9525
11.4530 -3.6018 -1.9779 0.9525
11.7251 -2.5654 -1.9773 0.9525
11.9908 -0.4415 -1.9767 0.9525
11.9824 0.6296 -1.9767 0.9525
11.8798 1.6959 -1.9769 0.9525
11.3954 3.7813 -1.9779 0.9525
9.7499 5.3136 -1.8292 0.9560
8.0118 7.7204 -1.8329 0.9559
6.5241 9.0365 -1.8361 0.9558
4.8245 10.0717 -1.8397 0.9557
3.9112 10.4728 -1.8417 0.9557
2.8971 10.5450 -1.8015 0.9566
-3.7993 10.1875 -1.7912 0.9569
-4.8475 10.1316 -1.8503 0.9555
-6.6198 9.1780 -1.8642 0.9552
-8.1594 7.8699 -1.8675 0.9551
-8.8356 7.1165 -1.8690 0.9550
-9.4416 6.3046 -1.8703 0.9550
-9.9723 5.4408 -1.8714 0.9550
-10.3671 4.5077 -1.8623 0.9552
-10.7904 3.5860 -1.8732 0.9550
-12.1884 1.7457 -2.0284 0.9513
-12.2970 0.6518 -2.0286 0.9513
-12.2163 -1.5429 -2.0285 0.9513
-10.8907 -5.7090 -2.0257 0.9514
-9.6910 -7.5434 -2.0231 0.9514
-8.1838 -9.1305 -2.0199 0.9515
-7.3303 -9.8151 -2.0181 0.9516
-6.4196 -10.4197 -2.0162 0.9516
-5.4592 -10.9395 -2.0141 0.9516
1.9589 -11.9705 -1.9982 0.9520
3.0152 -11.7348 -1.9960 0.9521
8.5327 -8.5004 -1.9842 0.9523
9.8925 -6.8392 -1.9812 0.9524
10.4565 -5.9262 -1.9800 0.9524
10.9376 -4.9674 -1.9790 0.9525
11.3322 -3.9705 -1.9781 0.9525
11.6372 -2.9431 -1.9775 0.9525
11.8505 -1.8931 -1.9770 0.9525
11.9705 -0.8287 -1.9767 0.9525
11.9963 0.2422 -1.9767 0.9525
11.5102 3.4107 -1.9777 0.9525
11.1518 4.4203 -1.9762 0.9525
8.8802 6.6847 -1.8311 0.9559
7.5630 8.1684 -1.8339 0.9559
6.0025 9.3991 -1.8372 0.9558
4.2459 10.3370 -1.8410 0.9557
1.2807 10.4587 -1.7358 0.9582
0.3279 10.0722 -1.6602 0.9600
-1.5165 10.3094 -1.7166 0.9586
-2.4600 10.2590 -1.7380 0.9581
-3.4352 10.2070 -1.7742 0.9573
-5.4501 9.8999 -1.8617 0.9552
-7.1360 8.7913 -1.8653 0.9551
-7.8985 8.1270 -1.8670 0.9551
-8.5987 7.3962 -1.8685 0.9551
-9.2307 6.6047 -1.8698 0.9550
-10.1328 4.8009 -1.8472 0.9556
-12.3144 -0.0496 -2.0287 0.9513
-12.2603 -1.1475 -2.0286 0.9513
-11.5103 -4.3485 -2.0270 0.9513
-10.5440 -6.3177 -2.0249 0.9514
-9.9322 -7.2282 -2.0236 0.9514
-9.2413 -8.0793 -2.0222 0.9515
-7.6461 -9.5763 -2.0188 0.9515
-5.8120 -10.7614 -2.0149 0.9516
-4.8241 -11.2251 -2.0128 0.9517
-3.7997 -11.5980 -2.0106 0.9517
-2.7472 -11.8773 -2.0083 0.9518
-1.6751 -12.0612 -2.0060 0.9518
-0.5921 -12.1485 -2.0037 0.9519
2.6356 -11.8310 -1.9968 0.9521
4.6851 -11.1500 -1.9924 0.9522
5.6549 -10.6766 -1.9903 0.9522
8.2561 -8.7742 -1.9847 0.9523
9.6687 -7.1570 -1.9817 0.9524
10.2618 -6.2622 -1.9804 0.9524
11.1996 -4.3352 -1.9784 0.9525
11.7840 -2.2752 -1.9771 0.9525
11.9979 -0.1455 -1.9767 0.9525
11.8349 1.9885 -1.9770 0.9525
11.2998 4.0616 -1.9781 0.9525
9.6173 5.5533 -1.8295 0.9560
9.0893 6.3928 -1.8306 0.9560
8.4890 7.1829 -1.8319 0.9559
6.3008 9.1971 -1.8366 0.9558
4.5759 10.1905 -1.8403 0.9557
2.6154 10.5299 -1.7874 0.9570
1.6281 10.4772 -1.7467 0.9579
0.6554 10.0897 -1.6657 0.9598
-2.1158 10.2774 -1.7286 0.9584
-5.1255 10.0671 -1.8610 0.9552
-6.0090 9.5796 -1.8629 0.9552
-8.3528 7.6680 -1.8679 0.9551
-9.0102 6.8977 -1.8694 0.9550
-9.5959 6.0708 -1.8706 0.9550
-10.1050 5.1939 -1.8717 0.9550
-10.5331 4.2742 -1.8726 0.9550
-12.0484 2.5288 -2.0281 0.9513
-12.3095 0.3483 -2.0287 0.9513
-11.2408 -4.9956 -2.0264 0.9514
-10.7449 -5.9750 -2.0254 0.9514
-9.5001 -7.7786 -2.0227 0.9514
-7.9541 -9.3273 -2.0194 0.9515
-7.0841 -9.9903 -2.0176 0.9516
-6.1590 -10.5719 -2.0156 0.9516
-2.0648 -12.0058 -2.0069 0.9518
-0.9848 -12.1281 -2.0045 0.9519
0.1006 -12.1535 -2.0022 0.9519
1.1827 -12.0821 -1.9999 0.9520
2.2529 -11.9148 -1.9976 0.9520
6.2497 -10.3306 -1.9891 0.9522
7.1393 -9.7227 -1.9871 0.9523
7.9707 -9.0392 -1.9854 0.9523
8.7378 -8.2855 -1.9837 0.9524
10.0563 -6.5920 -1.9809 0.9524
10.5979 -5.6656 -1.9797 0.9525
11.8922 1.6050 -1.9769 0.9525
11.0150 4.6836 -1.9718 0.9526
8.7143 6.9031 -1.8314 0.9559
7.3610 8.3545 -1.8343 0.9559
4.9009 10.0336 -1.8396 0.9557
3.9908 10.4417 -1.8415 0.9557
1.9802 10.4960 -1.7596 0.9576
1.0182 10.4447 -1.7288 0.9583
0.0792 10.0590 -1.6572 0.9600
-0.8362 10.2477 -1.6938 0.9592
-1.7749 10.2956 -1.7211 0.9585
-2.7256 10.2448 -1.7464 0.9579
-4.7550 10.1365 -1.8445 0.9556
-5.6942 9.7652 -1.8622 0.9552
-7.3525 8.6147 -1.8658 0.9551
-8.0984 7.9315 -1.8674 0.9551
-9.3926 6.3762 -1.8702 0.9550
-10.1532 4.5073 -1.8300 0.9560
-10.7623 3.6683 -1.8731 0.9550
-11.9593 2.9165 -2.0279 0.9513
-12.1745 1.8388 -2.0284 0.9513
-12.3094 -0.3533 -2.0287 0.9513
-11.3982 -4.6305 -2.0268 0.9513
-10.3832 -6.5748 -2.0246 0.9514
-9.7490 -7.4696 -2.0233 0.9514
-6.4996 -10.3712 -2.0163 0.9516
-5.5432 -10.8984 -2.0143 0.9516
-4.5444 -11.3373 -2.0122 0.9517
-3.5114 -11.6846 -2.0099 0.9517
-2.4526 -11.9377 -2.0077 0.9518
0.7921 -12.1191 -2.0007 0.9520
1.8675 -11.9863 -1.9984 0.9520
4.9573 -11.0278 -1.9918 0.9522
5.9149 -10.5309 -1.9898 0.9522
6.8237 -9.9517 -1.9878 0.9523
7.6769 -9.2949 -1.9860 0.9523
8.4680 -8.5659 -1.9843 0.9523
10.4114 -6.0062 -1.9801 0.9524
10.8998 -5.0511 -1.9791 0.9525
11.8359 -1.9837 -1.9770 0.9525
11.9639 -0.9202 -1.9767 0.9525
11.9978 0.1504 -1.9767 0.9525
3.3599 9.2109 -1.8429 0.9609
1.6734 9.6801 -1.8465 0.9608
0.8043 9.8007 -1.8483 0.9608
-0.0730 9.8433 -1.8502 0.9607
-1.8242 9.6934 -1.8540 0.9607
-4.3375 8.8905 -1.8593 0.9605
-5.8582 7.9925 -1.8626 0.9605
-6.5528 7.4442 -1.8641 0.9604
-7.1959 6.8352 -1.8655 0.9604
-8.3064 5.4552 -1.8679 0.9604
-8.7644 4.6951 -1.8688 0.9603
-9.1523 3.8966 -1.8697 0.9603
-10.6769 1.4460 -2.0252 0.9571
-10.7644 0.4881 -2.0254 0.9571
-10.7651 -0.4738 -2.0254 0.9571
-10.5069 -2.3780 -2.0248 0.9571
-10.2502 -3.3047 -2.0243 0.9571
-9.9112 -4.2041 -2.0236 0.9571
-9.4926 -5.0690 -2.0227 0.9571
-8.9980 -5.8923 -2.0216 0.9572
-7.7983 -7.3877 -2.0191 0.9572
-7.1031 -8.0478 -2.0176 0.9573
-6.3521 -8.6423 -2.0160 0.9573
-5.5514 -9.1666 -2.0143 0.9573
-3.8276 -9.9887 -2.0106 0.9574
-2.9188 -10.2803 -2.0087 0.9574
-1.0440 -10.6141 -2.0047 0.9575
-0.0932 -10.6541 -2.0026 0.9576
0.8565 -10.6092 -2.0006 0.9576
2.7221 -10.2677 -1.9966 0.9577
6.8583 -8.0498 -1.9877 0.9579
7.5433 -7.4006 -1.9863 0.9579
8.7268 -5.9353 -1.9837 0.9580
9.2164 -5.1306 -1.9827 0.9580
9.9731 -3.4089 -1.9810 0.9580
10.2344 -2.5052 -1.9805 0.9580
10.5290 0.2931 -1.9798 0.9580
9.7698 3.9592 -1.9814 0.9580
9.0282 4.6352 -1.9075 0.9595
8.2412 5.2085 -1.8325 0.9611
7.1936 6.5977 -1.8347 0.9611
5.2026 8.2856 -1.8389 0.9610
3.6545 9.0944 -1.8422 0.9609
2.8316 9.3930 -1.8440 0.9609
1.9846 9.6176 -1.8458 0.9608
0.2450 9.8369 -1.8495 0.9607
-0.6339 9.8296 -1.8514 0.9607
-1.5095 9.7437 -1.8533 0.9607
-2.3748 9.5799 -1.8551 0.9606
-3.2228 9.3390 -1.8570 0.9606
-4.0466 9.0230 -1.8587 0.9606
-5.5952 8.1752 -1.8620 0.9605
-6.3071 7.6499 -1.8636 0.9605
-7.5768 6.4171 -1.8663 0.9604
-8.6065 4.9749 -1.8685 0.9603
-10.4198 2.7298 -2.0246 0.9571
-10.6240 1.7901 -2.0251 0.9571
-10.7427 0.8356 -2.0253 0.9571
-10.7749 -0.1257 -2.0254 0.9571
-10.7202 -1.0861 -2.0253 0.9571
-10.5790 -2.0375 -2.0250 0.9571
-10.3527 -2.9721 -2.0245 0.9571
-9.1855 -5.5996 -2.0220 0.9572
-8.6446 -6.3928 -2.0209 0.9572
-7.3615 -7.8163 -2.0182 0.9572
-6.6300 -8.4351 -2.0166 0.9573
-5.0174 -9.4625 -2.0132 0.9573
-4.1498 -9.8632 -2.0113 0.9574
-2.3271 -10.4233 -2.0074 0.9575
-1.3869 -10.5787 -2.0054 0.9575
-0.4375 -10.6494 -2.0034 0.9575
1.4584 -10.5364 -1.9993 0.9576
3.3004 -10.0897 -1.9954 0.9577
5.0310 -9.3256 -1.9917 0.9578
6.5965 -8.2695 -1.9883 0.9579
9.0475 -5.4267 -1.9830 0.9580
9.8589 -3.7298 -1.9813 0.9580
10.3590 -1.9180 -1.9802 0.9580
10.4873 -0.9864 -1.9799 0.9580
10.5329 -0.0473 -1.9798 0.9580
10.4956 0.8923 -1.9799 0.9580
10.3755 1.8249 -1.9801 0.9580
9.8914 3.6410 -1.9811 0.9580
9.5066 4.4988 -1.9768 0.9581
7.9341 5.6714 -1.8331 0.9611
3.9451 8.9686 -1.8416 0.9609
3.1325 9.2934 -1.8434 0.9609
1.4346 9.7212 -1.8470 0.9608
0.5625 9.8203 -1.8489 0.9608
-0.3159 9.8413 -1.8507 0.9607
-1.1934 9.7838 -1.8526 0.9607
-2.0633 9.6481 -1.8545 0.9606
-2.9184 9.4350 -1.8563 0.9606
-3.7517 9.1459 -1.8581 0.9606
-6.0549 7.8474 -1.8630 0.9605
-7.3637 6.6570 -1.8658 0.9604
-8.4397 5.2494 -1.8681 0.9604
-9.2474 3.6704 -1.8701 0.9603
-10.7098 1.1822 -2.0252 0.9571
-10.7733 0.2224 -2.0254 0.9571
-10.6400 -1.6947 -2.0251 0.9571
-8.8486 -6.1115 -2.0213 0.9572
-7.6122 -7.5764 -2.0187 0.9572
-6.9010 -8.2188 -2.0172 0.9573
-2.6636 -10.3464 -2.0081 0.9574
-1.7286 -10.5322 -2.0061 0.9575
2.0548 -10.4296 -1.9980 0.9577
2.9737 -10.1947 -1.9961 0.9577
7.0533 -7.8765 -1.9873 0.9579
8.3288 -6.4893 -1.9846 0.9579
9.3389 -4.9011 -1.9824 0.9580
9.7346 -4.0470 -1.9815 0.9580
10.0532 -3.1616 -1.9809 0.9580
10.2924 -2.2519 -1.9803 0.9580
10.5260 -0.3876 -1.9798 0.9580
10.5187 0.5527 -1.9798 0.9580
10.0026 3.3191 -1.9809 0.9580
9.6702 4.1994 -1.9816 0.9580
8.5573 4.6636 -1.8318 0.9611
8.1115 5.4110 -1.8327 0.9611
7.6011 6.1164 -1.8338 0.9611
4.2314 8.8335 -1.8410 0.9609
3.4300 9.1842 -1.8427 0.9609
1.7473 9.6662 -1.8463 0.9608
-2.6111 9.5210 -1.8556 0.9606
-3.4531 9.2592 -1.8574 0.9606
-4.2691 8.9227 -1.8592 0.9605
-5.0523 8.5141 -1.8609 0.9605
-6.4953 7.4936 -1.8640 0.9604
-7.1430 6.8896 -1.8654 0.9604
-8.7279 4.7618 -1.8688 0.9603
-9.1219 3.9663 -1.8696 0.9603
-10.6654 1.5276 -2.0251 0.9571
-10.7603 0.5704 -2.0254 0.9571
-10.7684 -0.3915 -2.0254 0.9571
-10.5250 -2.2977 -2.0249 0.9571
-10.2755 -3.2263 -2.0243 0.9571
-9.9433 -4.1284 -2.0236 0.9571
-7.1649 -7.9938 -2.0177 0.9572
-6.4184 -8.5941 -2.0161 0.9573
-5.6217 -9.1246 -2.0144 0.9573
-4.7813 -9.5810 -2.0126 0.9574
-3.9042 -9.9600 -2.0108 0.9574
-2.9975 -10.2586 -2.0088 0.9574
-1.1252 -10.6067 -2.0048 0.9575
-0.1746 -10.6540 -2.0028 0.9576
0.7754 -10.6163 -2.0008 0.9576
3.5474 -10.0026 -1.9948 0.9577
4.4211 -9.6374 -1.9930 0.9578
5.2582 -9.1964 -1.9912 0.9578
6.0522 -8.6834 -1.9895 0.9578
8.6816 -6.0021 -1.9838 0.9580
9.1773 -5.2012 -1.9827 0.9580
9.6002 -4.3600 -1.9818 0.9580
10.4706 1.1509 -1.9799 0.9580
10.3278 2.0804 -1.9802 0.9580
10.1036 2.9939 -1.9807 0.9580
9.2073 4.6385 -1.9378 0.9589
8.2804 5.1451 -1.8324 0.9611
7.2434 6.5421 -1.8346 0.9611
6.6358 7.1671 -1.8359 0.9610
5.9748 7.7362 -1.8373 0.9610
5.2654 8.2450 -1.8388 0.9610
4.5131 8.6893 -1.8404 0.9609
3.7236 9.0655 -1.8421 0.9609
2.9031 9.3703 -1.8438 0.9609
1.1947 9.7563 -1.8475 0.9608
-0.5587 9.8333 -1.8512 0.9607
-1.4348 9.7541 -1.8531 0.9607
-2.3013 9.5969 -1.8550 0.9606
-3.9772 9.0529 -1.8586 0.9606
-6.2480 7.6974 -1.8634 0.9605
-7.5271 6.4745 -1.8662 0.9604
-8.0797 5.7811 -1.8674 0.9604
-10.6099 1.8712 -2.0250 0.9571
-10.7360 0.9177 -2.0253 0.9571
-10.7755 -0.0434 -2.0254 0.9571
-10.7282 -1.0041 -2.0253 0.9571
-10.5945 -1.9566 -2.0250 0.9571
-10.0729 -3.8055 -2.0239 0.9571
-9.6895 -4.6867 -2.0231 0.9571
-8.6937 -6.3269 -2.0210 0.9572
-5.9154 -8.9410 -2.0151 0.9573
-5.0900 -9.4246 -2.0133 0.9573
-4.2254 -9.8320 -2.0115 0.9574
1.3779 -10.5481 -1.9995 0.9576
2.3108 -10.3728 -1.9975 0.9577
4.1088 -9.7784 -1.9936 0.9577
4.9599 -9.3645 -1.9918 0.9578
7.8961 -7.0169 -1.9855 0.9579
8.4849 -6.2808 -1.9842 0.9579
9.0062 -5.4960 -1.9831 0.9580
9.4558 -4.6686 -1.9821 0.9580
9.8304 -3.8052 -1.9813 0.9580
10.1273 -2.9124 -1.9807 0.9580
10.4796 -1.0666 -1.9799 0.9580
10.5020 0.8120 -1.9799 0.9580
8.4408 4.8739 -1.8320 0.9611
7.9768 5.6103 -1.8330 0.9611
7.4493 6.3032 -1.8341 0.9611
6.8621 6.9471 -1.8354 0.9610
6.2199 7.5370 -1.8368 0.9610
5.5274 8.0681 -1.8382 0.9610
4.7900 8.5362 -1.8398 0.9609
3.2032 9.2684 -1.8432 0.9609
2.3662 9.5264 -1.8450 0.9608
1.5087 9.7091 -1.8468 0.9608
0.6375 9.8148 -1.8487 0.9608
-1.1185 9.7918 -1.8524 0.9607
-1.9893 9.6628 -1.8543 0.9606
-3.6814 9.1736 -1.8579 0.9606
-4.4890 8.8169 -1.8597 0.9605
-5.2621 8.3890 -1.8613 0.9605
-5.9943 7.8929 -1.8629 0.9605
-7.3122 6.7127 -1.8657 0.9604
-8.3989 5.3135 -1.8681 0.9604
-9.2179 3.7405 -1.8698 0.9603
-10.7003 1.2641 -2.0252 0.9571
-10.7554 -0.6570 -2.0254 0.9571
-10.6528 -1.6133 -2.0251 0.9571
-10.4644 -2.5564 -2.0247 0.9571
-9.4040 -5.2294 -2.0225 0.9572
-8.8955 -6.0440 -2.0214 0.9572
-8.3159 -6.8090 -2.0202 0.9572
-7.6703 -7.5184 -2.0188 0.9572
-5.3936 -9.2582 -2.0140 0.9573
-2.7428 -10.3266 -2.0083 0.9574
1.0367 -10.5910 -2.0002 0.9576
4.6563 -9.5230 -1.9925 0.9578
5.4821 -9.0617 -1.9907 0.9578
6.2631 -8.5295 -1.9890 0.9578
6.9933 -7.9307 -1.9874 0.9579
7.6671 -7.2702 -1.9860 0.9579
8.2794 -6.5531 -1.9847 0.9579
8.8256 -5.7852 -1.9835 0.9580
9.7037 -4.1214 -1.9816 0.9580
10.0290 -3.2385 -1.9809 0.9580
10.2751 -2.3305 -1.9804 0.9580
10.4401 -1.4047 -1.9800 0.9580
10.4394 1.4089 -1.9800 0.9580
10.2740 2.3347 -1.9803 0.9580
9.7017 4.1252 -1.9815 0.9580
8.6486 4.6280 -1.8437 0.9609
8.1522 5.3486 -1.8326 0.9611
5.7835 7.8830 -1.8377 0.9610
5.0617 8.3744 -1.8392 0.9610
4.2985 8.8002 -1.8409 0.9609
2.6718 9.4416 -1.8443 0.9609
1.8209 9.6518 -1.8462 0.9608
0.9539 9.7855 -1.8480 0.9608
-0.8013 9.8192 -1.8518 0.9607
-1.6754 9.7185 -1.8536 0.9607
-4.2004 8.9544 -1.8590 0.9605
-4.9867 8.5519 -1.8607 0.9605
-8.2211 5.5810 -1.8677 0.9604
-8.6908 4.8282 -1.8687 0.9603
-10.6533 1.6091 -2.0251 0.9571
-10.7556 0.6526 -2.0253 0.9571
-10.6999 -1.2684 -2.0252 0.9571
-9.5698 -4.9237 -2.0229 0.9571
-8.5335 -6.5383 -2.0207 0.9572
-7.9112 -7.2685 -2.0193 0.9572
-4.8548 -9.5450 -2.0128 0.9574
-3.0761 -10.2362 -2.0090 0.9574
-2.1489 -10.4594 -2.0070 0.9575
-0.2561 -10.6533 -2.0030 0.9576
0.6943 -10.6229 -2.0009 0.9576
2.5652 -10.3099 -1.9969 0.9577
3.4711 -10.0303 -1.9950 0.9577
4.3476 -9.6716 -1.9931 0.9578
5.1881 -9.2370 -1.9913 0.9578
6.7353 -8.1548 -1.9880 0.9579
7.4301 -7.5160 -1.9865 0.9579
8.0653 -6.8188 -1.9851 0.9579
9.1377 -5.2714 -1.9828 0.9580
9.5669 -4.4335 -1.9819 0.9580
9.9203 -3.5612 -1.9811 0.9580
10.1953 -2.6615 -1.9805 0.9580
10.5024 -0.8078 -1.9799 0.9580
10.4790 1.0708 -1.9799 0.9580
3.7047 7.8882 -1.8421 0.9650
2.9890 8.1939 -1.8437 0.9650
2.2483 8.4351 -1.8453 0.9649
-0.0649 8.7527 -1.8502 0.9648
-0.8460 8.7199 -1.8519 0.9648
-3.8548 7.9012 -1.8583 0.9647
-5.2052 7.1017 -1.8612 0.9646
-5.8220 6.6140 -1.8625 0.9646
-6.3928 6.0724 -1.8638 0.9646
-6.9130 5.4814 -1.8649 0.9646
-8.6424 3.6795 -1.9855 0.9623
-9.0994 2.9470 -2.0218 0.9617
-9.3282 2.1243 -2.0223 0.9616
-9.4821 1.2842 -2.0226 0.9616
-9.4839 -1.2716 -2.0226 0.9616
-9.1035 -2.9350 -2.0218 0.9616
-8.8027 -3.7340 -2.0212 0.9617
-7.9926 -5.2339 -2.0195 0.9617
-7.4900 -5.9227 -2.0184 0.9617
-6.9279 -6.5631 -2.0172 0.9617
-4.9331 -8.1456 -2.0130 0.9618
-4.1836 -8.5463 -2.0114 0.9618
-3.4020 -8.8780 -2.0097 0.9619
-1.7677 -9.3249 -2.0062 0.9619
-0.9282 -9.4369 -2.0044 0.9620
1.5986 -9.3208 -1.9990 0.9621
3.2233 -8.8731 -1.9955 0.9621
6.1034 -7.1638 -1.9893 0.9623
6.7135 -6.5866 -1.9880 0.9623
7.2698 -5.9580 -1.9868 0.9623
7.7679 -5.2831 -1.9858 0.9623
8.8786 -3.0348 -1.9834 0.9624
9.1115 -2.2304 -1.9829 0.9624
9.2725 -1.4087 -1.9825 0.9624
9.3603 -0.5761 -1.9823 0.9624
9.3742 0.2609 -1.9823 0.9624
8.6975 3.5246 -1.9837 0.9624
7.3360 4.6363 -1.8344 0.9651
6.8968 5.2747 -1.8353 0.9651
6.4026 5.8721 -1.8364 0.9651
5.2645 6.9253 -1.8388 0.9651
3.2512 8.0906 -1.8431 0.9650
2.5188 8.3554 -1.8447 0.9650
-0.5636 8.7399 -1.8513 0.9648
-3.5965 8.0192 -1.8578 0.9647
-4.9717 7.2643 -1.8607 0.9647
-6.7309 5.7007 -1.8645 0.9646
-9.2540 2.4244 -2.0221 0.9616
-9.5404 0.7421 -2.0227 0.9616
-9.5689 -0.1117 -2.0228 0.9616
-9.5204 -0.9645 -2.0227 0.9616
-9.1945 -2.6396 -2.0220 0.9616
-8.9199 -3.4480 -2.0215 0.9617
-8.5737 -4.2282 -2.0207 0.9617
-8.1589 -4.9738 -2.0198 0.9617
-7.6790 -5.6787 -2.0188 0.9617
-7.1379 -6.3373 -2.0177 0.9617
-5.1951 -7.9842 -2.0135 0.9618
-3.6882 -8.7661 -2.0103 0.9619
-1.2330 -9.4051 -2.0051 0.9620
-0.3890 -9.4690 -2.0032 0.9620
0.4566 -9.4574 -2.0014 0.9620
2.9359 -8.9754 -1.9961 0.9621
3.7215 -8.6705 -1.9944 0.9622
4.4762 -8.2973 -1.9928 0.9622
5.1943 -7.8590 -1.9913 0.9622
7.0750 -6.1911 -1.9873 0.9623
7.5946 -5.5324 -1.9861 0.9623
8.7769 -3.3205 -1.9836 0.9624
9.2227 -1.7076 -1.9826 0.9624
9.0574 2.4425 -1.9829 0.9624
8.8058 3.2414 -1.9835 0.9624
8.4846 4.0152 -1.9841 0.9624
7.7809 4.5726 -1.9077 0.9638
7.0622 5.0482 -1.8350 0.9651
4.8638 7.2172 -1.8397 0.9650
4.2040 7.6281 -1.8411 0.9650
2.7866 8.2671 -1.8441 0.9650
1.2759 8.6458 -1.8473 0.9649
-0.2808 8.7506 -1.8507 0.9648
-1.8342 8.5770 -1.8540 0.9648
-2.5941 8.3866 -1.8556 0.9647
-3.3345 8.1288 -1.8572 0.9647
-4.7331 7.4190 -1.8602 0.9647
-7.4965 4.6628 -1.8661 0.9645
-7.8860 3.9775 -1.8670 0.9645
-9.5468 -0.6565 -2.0228 0.9616
-9.4493 -1.5051 -2.0226 0.9616
-8.3168 -4.7084 -2.0202 0.9617
-7.8600 -5.4287 -2.0192 0.9617
-7.3405 -6.1047 -2.0181 0.9617
-6.7627 -6.7309 -2.0169 0.9617
-6.1314 -7.3023 -2.0155 0.9618
-5.4518 -7.8143 -2.0141 0.9618
-2.3677 -9.1971 -2.0075 0.9619
-1.5367 -9.3633 -2.0057 0.9619
-0.6950 -9.4546 -2.0039 0.9620
0.9939 -9.4107 -2.0003 0.9621
2.6452 -9.0684 -1.9968 0.9621
4.2070 -8.4400 -1.9934 0.9622
6.2771 -7.0097 -1.9890 0.9623
8.3134 -4.3629 -1.9846 0.9623
8.6661 -3.6028 -1.9838 0.9624
9.1633 -2.0049 -1.9827 0.9624
9.3715 -0.3451 -1.9823 0.9624
9.3650 0.4921 -1.9823 0.9624
9.2845 1.3254 -1.9825 0.9624
9.1308 2.1484 -1.9828 0.9624
8.9050 2.9549 -1.9833 0.9624
8.6087 3.7384 -1.9839 0.9624
6.2568 6.0293 -1.8367 0.9651
5.6979 6.5675 -1.8379 0.9651
5.0931 7.0544 -1.8392 0.9651
4.4470 7.4861 -1.8406 0.9650
3.7646 7.8591 -1.8420 0.9650
2.3125 8.4170 -1.8451 0.9649
1.5540 8.5973 -1.8467 0.9649
-1.5556 8.6290 -1.8534 0.9648
-2.3210 8.4633 -1.8550 0.9648
-3.0692 8.2297 -1.8566 0.9647
-3.7940 7.9298 -1.8582 0.9647
-4.4897 7.5660 -1.8597 0.9647
-5.1505 7.1409 -1.8611 0.9646
-5.7709 6.6579 -1.8624 0.9646
-7.3407 4.9017 -1.8658 0.9646
-7.7522 4.2295 -1.8667 0.9645
-8.4946 3.6935 -1.9580 0.9628
-9.0763 3.0164 -2.0217 0.9617
-9.5560 0.5065 -2.0228 0.9616
-9.4934 -1.1990 -2.0227 0.9616
-9.1259 -2.8654 -2.0219 0.9616
-8.8313 -3.6667 -2.0213 0.9617
-8.4659 -4.4379 -2.0205 0.9617
-8.0327 -5.1729 -2.0196 0.9617
-7.5354 -5.8655 -2.0185 0.9617
-6.9782 -6.5103 -2.0173 0.9617
-6.3657 -7.1021 -2.0160 0.9618
-5.7030 -7.6361 -2.0146 0.9618
-4.2492 -8.5147 -2.0115 0.9618
-3.4700 -8.8524 -2.0098 0.9619
-2.6645 -9.1187 -2.0081 0.9619
-1.8390 -9.3118 -2.0064 0.9619
-1.0004 -9.4303 -2.0046 0.9620
0.6896 -9.4409 -2.0009 0.9620
1.5274 -9.3335 -1.9991 0.9621
3.9333 -8.5741 -1.9940 0.9622
6.0488 -7.2106 -1.9895 0.9623
7.2244 -6.0137 -1.9869 0.9623
7.7277 -5.3426 -1.9858 0.9623
8.1694 -4.6300 -1.9849 0.9623
8.5462 -3.8814 -1.9841 0.9624
8.8553 -3.1027 -1.9834 0.9624
9.3556 -0.6477 -1.9823 0.9624
9.3221 1.0247 -1.9824 0.9624
9.1948 1.8522 -1.9826 0.9624
8.3781 4.2208 -1.9830 0.9624
6.9366 5.2216 -1.8353 0.9651
4.6852 7.3365 -1.8401 0.9650
3.3127 8.0650 -1.8430 0.9650
1.8304 8.5398 -1.8461 0.9649
-0.4967 8.7432 -1.8511 0.9648
-2.0457 8.5312 -1.8544 0.9648
-2.8008 8.3220 -1.8561 0.9647
-3.5348 8.0459 -1.8576 0.9647
-4.2417 7.7049 -1.8591 0.9647
-4.9157 7.3016 -1.8606 0.9647
-7.6103 4.4770 -1.8664 0.9645
-7.9827 3.7821 -1.8672 0.9645
-9.5344 0.8150 -2.0227 0.9616
-9.5695 -0.0385 -2.0228 0.9616
-9.4089 -1.7376 -2.0225 0.9616
-9.2146 -2.5693 -2.0221 0.9616
-8.9462 -3.3798 -2.0215 0.9617
-8.1971 -4.9115 -2.0199 0.9617
-7.1865 -6.2828 -2.0178 0.9617
-5.2563 -7.9448 -2.0137 0.9618
-4.5233 -8.3754 -2.0121 0.9618
-2.9586 -9.0307 -2.0087 0.9619
-2.1396 -9.2505 -2.0070 0.9619
-1.3050 -9.3961 -2.0052 0.9620
-0.4614 -9.4665 -2.0034 0.9620
0.3843 -9.4614 -2.0016 0.9620
3.6553 -8.6993 -1.9946 0.9622
5.8141 -7.4042 -1.9900 0.9622
6.4469 -6.8515 -1.9886 0.9623
8.4176 -4.1560 -1.9844 0.9623
8.7515 -3.3876 -1.9836 0.9624
9.0161 -2.5929 -1.9831 0.9624
9.2095 -1.7781 -1.9826 0.9624
9.3301 -0.9496 -1.9824 0.9624
9.3771 -0.1138 -1.9823 0.9624
9.3501 0.7229 -1.9823 0.9624
9.2494 1.5541 -1.9825 0.9624
9.0756 2.3732 -1.9829 0.9624
7.1003 4.9938 -1.8349 0.9651
5.5352 6.7073 -1.8382 0.9651
4.9185 7.1794 -1.8396 0.9650
2.8495 8.2450 -1.8440 0.9650
-2.5297 8.4055 -1.8555 0.9647
-3.9894 7.8356 -1.8586 0.9647
-5.3261 7.0131 -1.8615 0.9646
-5.9345 6.5147 -1.8628 0.9646
-6.4960 5.9634 -1.8640 0.9646
-7.4604 4.7198 -1.8661 0.9646
-8.8327 3.5842 -2.0149 0.9618
-9.3634 1.9653 -2.0224 0.9616
-9.5028 1.1226 -2.0227 0.9616
-9.5516 -0.5835 -2.0228 0.9616
-9.4606 -1.4328 -2.0226 0.9616
-8.7373 -3.8830 -2.0211 0.9617
-8.3528 -4.6448 -2.0202 0.9617
-6.8143 -6.6793 -2.0170 0.9617
-4.7930 -8.2272 -2.0127 0.9618
-4.0369 -8.6149 -2.0110 0.9619
-3.2498 -8.9332 -2.0094 0.9619
-2.4381 -9.1795 -2.0076 0.9619
-1.6084 -9.3520 -2.0059 0.9619
-0.7673 -9.4497 -2.0041 0.9620
0.9220 -9.4187 -2.0004 0.9620
2.5760 -9.0890 -1.9969 0.9621
4.1427 -8.4725 -1.9935 0.9622
6.2236 -7.0579 -1.9891 0.9623
6.8238 -6.4706 -1.9878 0.9623
7.3693 -5.8328 -1.9866 0.9623
7.8560 -5.1496 -1.9856 0.9623
8.2801 -4.4265 -1.9847 0.9623
8.6385 -3.6690 -1.9839 0.9624
8.9285 -2.8831 -1.9833 0.9624
9.2943 1.2544 -1.9824 0.9624
9.1468 2.0786 -1.9827 0.9624
8.6368 3.6724 -1.9838 0.9624
5.7476 6.5234 -1.8378 0.9651
3.1135 8.1461 -1.8434 0.9650
2.3766 8.3985 -1.8450 0.9649
1.6196 8.5845 -1.8466 0.9649
0.0689 8.7513 -1.8499 0.9649
-1.4895 8.6399 -1.8533 0.9648
-2.2561 8.4802 -1.8549 0.9648
-3.7331 7.9581 -1.8581 0.9647
-4.4314 7.5996 -1.8596 0.9647
-5.0954 7.1796 -1.8610 0.9646
-6.8277 5.5859 -1.8647 0.9646
-7.3026 4.9575 -1.8657 0.9646
-7.7194 4.2885 -1.8666 0.9645
-9.0528 3.0856 -2.0217 0.9617
-9.2943 2.2666 -2.0222 0.9616
-9.5518 0.5796 -2.0228 0.9616
-9.5024 -1.1264 -2.0227 0.9616
-8.8593 -3.5991 -2.0213 0.9617
-8.0723 -5.1115 -2.0197 0.9617
-7.0281 -6.4571 -2.0174 0.9617
-5.7615 -7.5928 -2.0147 0.9618
-5.0577 -8.0703 -2.0132 0.9618
-4.3144 -8.4825 -2.0116 0.9618
-3.5378 -8.8262 -2.0100 0.9619
-2.7343 -9.0988 -2.0083 0.9619
-1.9103 -9.2982 -2.0065 0.9619
-1.0725 -9.4231 -2.0047 0.9620
0.6174 -9.4467 -2.0011 0.9620
1.4561 -9.3456 -1.9993 0.9621
2.2817 -9.1704 -1.9975 0.9621
3.8679 -8.6045 -1.9941 0.9622
5.3266 -7.7683 -1.9910 0.9622
6.6127 -6.6892 -1.9882 0.9623
7.1785 -6.0691 -1.9870 0.9623
9.2501 -1.5503 -1.9826 0.9624
9.3505 -0.7192 -1.9823 0.9624
9.3770 0.1176 -1.9823 0.9624
0.6434 7.8397 -1.8487 0.9682
-0.0584 7.8722 -1.8502 0.9682
-0.7608 7.8420 -1.8517 0.9681
-1.4583 7.7491 -1.8532 0.9681
-2.1452 7.5942 -1.8547 0.9681
-3.4655 7.1032 -1.8575 0.9680
-4.0881 6.7707 -1.8588 0.9680
-5.2327 5.9446 -1.8613 0.9680
-5.7454 5.4575 -1.8624 0.9680
-6.6303 4.3544 -1.8643 0.9679
-7.0791 3.7923 -1.8875 0.9675
-8.1760 2.6479 -2.0198 0.9653
-8.5195 1.1538 -2.0206 0.9653
-8.5891 0.3895 -2.0207 0.9653
-8.5896 -0.3781 -2.0207 0.9653
-8.5211 -1.1425 -2.0206 0.9653
-7.5763 -4.0457 -2.0186 0.9653
-7.1823 -4.7033 -2.0177 0.9653
-6.7311 -5.3226 -2.0168 0.9654
-6.2263 -5.8985 -2.0157 0.9654
-5.0732 -6.9023 -2.0132 0.9654
-4.4344 -7.3223 -2.0119 0.9654
-3.7611 -7.6831 -2.0104 0.9655
-3.0586 -7.9819 -2.0089 0.9655
-0.8347 -8.4867 -2.0042 0.9656
-0.0745 -8.5204 -2.0026 0.9656
0.6851 -8.4862 -2.0009 0.9656
2.9001 -7.9832 -1.9962 0.9657
3.5978 -7.6870 -1.9947 0.9657
4.2659 -7.3302 -1.9933 0.9658
4.8992 -6.9159 -1.9919 0.9658
6.5435 -5.3629 -1.9884 0.9658
7.3854 -4.1114 -1.9866 0.9659
7.7198 -3.4351 -1.9858 0.9659
8.2029 -2.0080 -1.9848 0.9659
8.3480 -1.2682 -1.9845 0.9659
8.4271 -0.5187 -1.9843 0.9659
8.4396 0.2349 -1.9843 0.9659
8.3855 0.9867 -1.9844 0.9659
8.2652 1.7308 -1.9846 0.9659
8.0795 2.4615 -1.9850 0.9659
7.5182 3.8599 -1.9862 0.9659
7.1212 4.5006 -1.9799 0.9660
6.2079 4.7479 -1.8368 0.9684
5.7628 5.2854 -1.8378 0.9684
4.1659 6.6345 -1.8412 0.9683
3.5601 6.9845 -1.8425 0.9683
2.9252 7.2795 -1.8438 0.9683
2.2661 7.5171 -1.8452 0.9683
-0.5069 7.8602 -1.8512 0.9682
-1.2068 7.7899 -1.8527 0.9681
-3.8662 6.8974 -1.8584 0.9680
-4.4690 6.5297 -1.8596 0.9680
-5.0368 6.1092 -1.8609 0.9680
-5.5650 5.6391 -1.8620 0.9680
-6.0490 5.1232 -1.8630 0.9680
-6.4851 4.5656 -1.8640 0.9679
-8.0854 2.9104 -2.0196 0.9653
-8.4774 1.4284 -2.0205 0.9653
-8.5719 0.6668 -2.0207 0.9653
