ply
format ascii 1.0
element vertex 1595
property float32 x
property float32 y
property float32 z
property float32 I
end_header
-6.4499 0.6621 -1.9943 0.9732
-6.4635 -0.4951 -1.9939 0.9732
-6.2720 -1.6364 -1.9937 0.9732
-5.6149 -3.2399 -1.9939 0.9732
-5.3038 -3.7284 -1.9941 0.9732
-4.9504 -4.1875 -1.9943 0.9732
-4.5576 -4.6133 -1.9946 0.9732
-3.6661 -5.3522 -1.9954 0.9732
-3.1744 -5.6594 -1.9958 0.9732
-2.6572 -5.9217 -1.9963 0.9732
-1.5629 -6.3033 -1.9975 0.9732
-0.4175 -6.4848 -1.9987 0.9732
0.1631 -6.4984 -1.9994 0.9732
0.7427 -6.4601 -2.0001 0.9732
1.3168 -6.3702 -2.0008 0.9731
1.8808 -6.2294 -2.0014 0.9731
4.3957 -4.8129 -2.0048 0.9731
6.0522 -2.4439 -2.0076 0.9731
6.2474 -1.8943 -2.0080 0.9730
6.3928 -1.3294 -2.0083 0.9730
6.4869 -0.7536 -2.0086 0.9730
6.5291 -0.1716 -2.0089 0.9730
6.5189 0.4119 -2.0091 0.9730
6.3425 1.5646 -2.0093 0.9730
6.1775 2.1245 -2.0093 0.9730
5.9630 2.6674 -2.0092 0.9730
5.7008 3.1888 -2.0091 0.9730
5.3929 3.6846 -2.0089 0.9730
5.0253 4.1371 -2.0021 0.9731
4.2970 4.2350 -1.8557 0.9751
2.0425 5.6697 -1.8536 0.9751
1.5278 5.8277 -1.8530 0.9751
1.0012 5.9390 -1.8525 0.9751
0.4669 6.0027 -1.8519 0.9751
-1.1389 5.9060 -1.8500 0.9751
-2.1694 5.6054 -1.8487 0.9752
-3.5733 4.8255 -1.8468 0.9752
-5.0972 3.9991 -1.9927 0.9733
-5.4439 3.5348 -1.9964 0.9732
-5.9828 2.5093 -1.9955 0.9732
-6.3311 1.4050 -1.9947 0.9732
-6.4302 0.8341 -1.9944 0.9732
-6.4782 0.2568 -1.9941 0.9732
-6.3134 -1.4684 -1.9937 0.9732
-6.1571 -2.0260 -1.9937 0.9732
-5.6992 -3.0888 -1.9938 0.9732
-5.4012 -3.5854 -1.9940 0.9732
-5.0602 -4.0537 -1.9942 0.9732
-4.6788 -4.4898 -1.9945 0.9732
-4.2601 -4.8904 -1.9949 0.9732
-3.8074 -5.2522 -1.9953 0.9732
-2.2815 -6.0776 -1.9967 0.9732
-1.7304 -6.2588 -1.9973 0.9732
-1.1652 -6.3902 -1.9979 0.9732
-0.5903 -6.4707 -1.9985 0.9732
-0.0104 -6.4997 -1.9992 0.9732
0.5700 -6.4769 -1.9999 0.9732
1.1462 -6.4024 -2.0005 0.9731
2.2679 -6.1008 -2.0019 0.9731
3.3188 -5.6042 -2.0033 0.9731
5.0766 -4.0936 -2.0059 0.9731
5.7267 -3.1274 -2.0069 0.9731
5.9844 -2.6044 -2.0074 0.9731
6.4642 -0.9264 -2.0086 0.9730
6.5220 -0.3458 -2.0088 0.9730
6.5275 0.2378 -2.0090 0.9730
6.0322 2.5073 -2.0093 0.9730
5.7840 3.0356 -2.0092 0.9730
5.4895 3.5394 -2.0090 0.9730
5.1398 4.0061 -2.0044 0.9731
4.0227 4.4953 -1.8554 0.9751
3.1580 5.1368 -1.8547 0.9751
2.1933 5.6136 -1.8537 0.9751
1.6829 5.7854 -1.8532 0.9751
1.1595 5.9107 -1.8527 0.9751
0.6271 5.9887 -1.8521 0.9751
0.0900 6.0188 -1.8515 0.9751
-0.9810 5.9349 -1.8502 0.9751
-2.0192 5.6619 -1.8489 0.9752
-2.5156 5.4572 -1.8483 0.9752
-2.9917 5.2091 -1.8476 0.9752
-3.4436 4.9196 -1.8470 0.9752
-3.8677 4.5911 -1.8464 0.9752
-4.2628 4.2283 -1.8468 0.9752
-5.3481 3.6791 -1.9966 0.9732
-5.6537 3.1862 -1.9961 0.9732
-5.9141 2.6682 -1.9956 0.9732
-6.4060 1.0055 -1.9945 0.9732
-6.4414 -0.7274 -1.9938 0.9732
-6.3504 -1.2994 -1.9937 0.9732
-6.2090 -1.8610 -1.9937 0.9732
-6.0182 -2.4078 -1.9937 0.9732
-4.7968 -4.3632 -1.9944 0.9732
-4.3889 -4.7747 -1.9948 0.9732
-2.4427 -6.0141 -1.9966 0.9732
-1.3352 -6.3562 -1.9977 0.9732
2.1041 -6.1585 -2.0017 0.9731
3.1678 -5.6902 -2.0031 0.9731
4.1318 -5.0396 -2.0044 0.9731
4.5666 -4.6522 -2.0051 0.9731
5.3241 -3.7683 -2.0063 0.9731
5.6407 -3.2789 -2.0068 0.9731
5.9123 -2.7630 -2.0073 0.9731
6.1367 -2.2248 -2.0077 0.9731
6.5102 -0.5197 -2.0088 0.9730
6.4168 1.2240 -2.0093 0.9730
6.2821 1.7919 -2.0093 0.9730
6.0970 2.3454 -2.0093 0.9730
5.8631 2.8802 -2.0092 0.9730
5.5822 3.3918 -2.0091 0.9730
4.7503 4.2064 -1.9516 0.9738
4.1415 4.3866 -1.8555 0.9751
3.7327 4.7378 -1.8552 0.9751
2.8296 5.3237 -1.8544 0.9751
2.3425 5.5535 -1.8539 0.9751
1.8369 5.7389 -1.8534 0.9751
1.3169 5.8782 -1.8528 0.9751
0.2506 6.0149 -1.8516 0.9751
-0.8223 5.9596 -1.8504 0.9751
-1.3505 5.8603 -1.8498 0.9751
-1.8676 5.7144 -1.8491 0.9752
-3.3113 5.0103 -1.8472 0.9752
-4.1468 4.3389 -1.8460 0.9752
-5.8412 2.8253 -1.9957 0.9732
-6.0687 2.2922 -1.9953 0.9732
-6.3771 1.1762 -1.9946 0.9732
-6.4557 0.6022 -1.9943 0.9732
-6.4586 -0.5552 -1.9939 0.9732
-6.2565 -1.6946 -1.9937 0.9732
-5.8557 -2.7801 -1.9938 0.9732
-5.5845 -3.2919 -1.9939 0.9732
-5.2689 -3.7776 -1.9941 0.9732
-4.9113 -4.2334 -1.9943 0.9732
-4.5145 -4.6556 -1.9947 0.9732
-3.6162 -5.3862 -1.9954 0.9732
-3.1217 -5.6888 -1.9959 0.9732
-2.6021 -5.9463 -1.9964 0.9732
-0.3572 -6.4886 -1.9988 0.9732
0.8028 -6.4531 -2.0001 0.9732
1.3761 -6.3579 -2.0008 0.9731
3.0144 -5.7721 -2.0029 0.9731
4.4404 -4.7720 -2.0049 0.9731
6.0748 -2.3876 -2.0076 0.9731
6.4937 -0.6932 -2.0087 0.9730
6.5149 0.4725 -2.0091 0.9730
6.3276 1.6235 -2.0093 0.9730
6.1575 2.1819 -2.0093 0.9730
5.6709 3.2416 -2.0091 0.9730
5.3584 3.7345 -2.0089 0.9730
4.9847 4.1820 -2.0013 0.9731
4.2573 4.2747 -1.8556 0.9751
3.4281 4.9616 -1.8549 0.9751
2.9709 5.2466 -1.8545 0.9751
2.4901 5.4895 -1.8540 0.9751
1.9896 5.6883 -1.8535 0.9751
1.4735 5.8415 -1.8530 0.9751
0.9459 5.9479 -1.8524 0.9751
-2.2213 5.5848 -1.8487 0.9752
-2.7100 5.3624 -1.8480 0.9752
-3.6179 4.7919 -1.8468 0.9752
-4.0299 4.4484 -1.8462 0.9752
-5.1360 3.9530 -1.9934 0.9732
-5.4764 3.4839 -1.9964 0.9732
-5.7641 2.9804 -1.9959 0.9732
-6.1994 1.9072 -1.9950 0.9732
-6.3438 1.3460 -1.9946 0.9732
-6.4802 0.1965 -1.9941 0.9732
-6.4109 -0.9587 -1.9938 0.9732
-6.2995 -1.5270 -1.9937 0.9732
-4.6370 -4.5332 -1.9946 0.9732
-3.2722 -5.6031 -1.9958 0.9732
-2.2250 -6.0988 -1.9968 0.9732
-1.6722 -6.2748 -1.9974 0.9732
-1.1058 -6.4010 -1.9980 0.9732
0.0500 -6.4998 -1.9993 0.9732
0.6302 -6.4716 -1.9999 0.9732
1.2057 -6.3917 -2.0006 0.9731
1.7721 -6.2607 -2.0013 0.9731
2.3246 -6.0797 -2.0020 0.9731
2.8590 -5.8499 -2.0027 0.9731
3.8562 -5.2519 -2.0041 0.9731
4.7316 -4.4854 -2.0053 0.9731
5.4569 -3.5747 -2.0065 0.9731
6.0085 -2.5487 -2.0075 0.9731
6.2133 -2.0027 -2.0079 0.9731
6.3685 -1.4403 -2.0083 0.9730
6.4726 -0.8663 -2.0086 0.9730
6.5250 0.2985 -2.0091 0.9730
6.4728 0.8798 -2.0092 0.9730
6.0086 2.5633 -2.0093 0.9730
5.4563 3.5903 -2.0090 0.9730
5.1003 4.0520 -2.0036 0.9731
4.4326 4.2192 -1.8823 0.9747
3.9807 4.5324 -1.8554 0.9751
3.5595 4.8687 -1.8550 0.9751
3.1101 5.1658 -1.8546 0.9751
2.1409 5.6336 -1.8537 0.9751
0.5713 5.9941 -1.8520 0.9751
0.0340 6.0192 -1.8514 0.9751
-0.4315 5.1415 -1.5870 0.9786
-1.0361 5.9253 -1.8501 0.9751
-1.5603 5.8071 -1.8495 0.9751
-2.0717 5.6427 -1.8489 0.9752
-3.4890 4.8872 -1.8470 0.9752
-3.9101 4.5548 -1.8464 0.9752
-5.3819 3.6291 -1.9965 0.9732
-5.6829 3.1335 -1.9960 0.9732
-5.9385 2.6131 -1.9956 0.9732
-6.1467 2.0721 -1.9951 0.9732
-6.3380 -1.3583 -1.9937 0.9732
-5.9956 -2.4636 -1.9937 0.9732
-4.7561 -4.4076 -1.9945 0.9732
-4.3444 -4.8154 -1.9948 0.9732
-3.8980 -5.1849 -1.9952 0.9732
-3.4204 -5.5133 -1.9956 0.9732
-2.9153 -5.7981 -1.9961 0.9732
-2.3868 -6.0367 -1.9966 0.9732
-1.8389 -6.2274 -1.9972 0.9732
-1.2761 -6.3686 -1.9978 0.9732
-0.7028 -6.4591 -1.9984 0.9732
-0.1235 -6.4982 -1.9991 0.9732
0.4572 -6.4854 -1.9997 0.9732
1.6042 -6.3051 -2.0011 0.9731
3.2206 -5.6607 -2.0032 0.9731
3.7143 -5.3524 -2.0039 0.9731
4.1786 -5.0012 -2.0045 0.9731
5.3591 -3.7188 -2.0063 0.9731
5.9379 -2.7080 -2.0073 0.9731
6.1573 -2.1677 -2.0078 0.9731
6.4939 0.7067 -2.0092 0.9730
6.2652 1.8502 -2.0093 0.9730
6.0749 2.4020 -2.0093 0.9730
5.5504 3.4435 -2.0090 0.9730
5.2127 3.9190 -2.0059 0.9731
4.1005 4.4248 -1.8555 0.9751
3.6885 4.7722 -1.8552 0.9751
3.2471 5.0813 -1.8548 0.9751
2.7799 5.3496 -1.8543 0.9751
2.2907 5.5749 -1.8538 0.9751
1.1236 5.4584 -1.8525 0.9768
0.6317 5.5353 -1.8519 0.9768
0.1350 5.5679 -1.8514 0.9768
-0.3357 5.1460 -1.7142 0.9785
-1.3437 5.3996 -1.8496 0.9768
-2.2809 5.0714 -1.8484 0.9768
-2.7236 4.8460 -1.8478 0.9768
-4.9178 3.4509 -1.9970 0.9750
-5.2049 2.9974 -1.9965 0.9750
-5.4505 2.5203 -1.9961 0.9750
-5.8095 1.5105 -1.9953 0.9750
-5.9838 0.4533 -1.9948 0.9750
-5.9998 -0.0826 -1.9945 0.9750
-5.9680 -0.6178 -1.9944 0.9750
-5.8888 -1.1480 -1.9943 0.9750
-5.5908 -2.1767 -1.9943 0.9750
-5.3744 -2.6672 -1.9944 0.9750
-3.6962 -4.7307 -1.9956 0.9750
-2.3123 -5.5445 -1.9969 0.9750
-1.2903 -5.8704 -1.9979 0.9750
-0.7613 -5.9639 -1.9985 0.9750
0.3114 -6.0079 -1.9997 0.9750
0.8467 -5.9580 -2.0004 0.9750
1.3755 -5.8605 -2.0010 0.9749
1.8938 -5.7162 -2.0016 0.9749
2.8818 -5.2917 -2.0029 0.9749
3.3437 -5.0150 -2.0036 0.9749
3.7791 -4.6979 -2.0042 0.9749
4.1846 -4.3431 -2.0048 0.9749
5.1898 -3.0817 -2.0063 0.9749
5.4454 -2.6068 -2.0068 0.9749
5.8244 -1.5976 -2.0076 0.9749
5.9448 -1.0715 -2.0079 0.9749
6.0420 0.0025 -2.0084 0.9749
6.0181 0.5419 -2.0086 0.9749
5.8263 1.6034 -2.0087 0.9748
5.6599 2.1171 -2.0087 0.9748
4.8959 3.5403 -2.0083 0.9749
4.0477 4.2082 -1.9409 0.9757
3.0909 4.6443 -1.8544 0.9768
2.6634 4.9006 -1.8540 0.9768
1.7488 5.2935 -1.8531 0.9768
1.2690 5.4270 -1.8526 0.9768
-0.1971 5.1244 -1.7046 0.9786
-2.5935 4.9175 -1.8480 0.9768
-3.0211 4.6649 -1.8474 0.9768
-3.4244 4.3753 -1.8469 0.9769
-4.8243 3.5812 -1.9972 0.9750
-5.8921 1.1434 -1.9951 0.9750
-5.9698 0.6129 -1.9948 0.9750
-5.9825 -0.4583 -1.9944 0.9750
-5.8052 -1.5146 -1.9943 0.9750
-5.1970 -2.9987 -1.9944 0.9750
-4.5819 -3.8758 -1.9949 0.9750
-3.8209 -4.6301 -1.9955 0.9750
-2.9379 -5.2378 -1.9963 0.9750
-0.3863 -6.0011 -1.9989 0.9750
1.2185 -5.8945 -2.0008 0.9749
2.2486 -5.5876 -2.0021 0.9749
3.2083 -5.1019 -2.0034 0.9749
3.6521 -4.7967 -2.0040 0.9749
4.0668 -4.4529 -2.0046 0.9749
4.4493 -4.0733 -2.0051 0.9749
5.1054 -3.2189 -2.0062 0.9749
5.3736 -2.7510 -2.0067 0.9749
5.7794 -1.7524 -2.0075 0.9749
6.0008 -0.6971 -2.0081 0.9749
5.9726 0.9179 -2.0086 0.9749
5.8670 1.4474 -2.0087 0.9748
5.2735 2.9498 -2.0085 0.9749
4.9888 3.4084 -2.0084 0.9749
0.9263 5.4947 -1.8522 0.9768
0.4320 5.5538 -1.8517 0.9768
-1.0538 5.4647 -1.8500 0.9768
-1.5369 5.3471 -1.8494 0.9768
-2.4616 4.9854 -1.8482 0.9768
-4.3653 4.1048 -1.9918 0.9751
-5.0383 3.2714 -1.9968 0.9750
-5.3089 2.8080 -1.9963 0.9750
-5.5372 2.3224 -1.9959 0.9750
-5.7212 1.8185 -1.9955 0.9750
-5.8597 1.3003 -1.9952 0.9750
-5.9515 0.7720 -1.9949 0.9750
-5.9960 0.2377 -1.9947 0.9750
-5.5089 -2.3765 -1.9943 0.9750
-5.2750 -2.8589 -1.9944 0.9750
-4.9992 -3.3186 -1.9946 0.9750
-3.9429 -4.5262 -1.9954 0.9750
-1.0783 -5.9137 -1.9982 0.9750
-0.5463 -5.9881 -1.9987 0.9750
-0.0096 -6.0148 -1.9994 0.9750
0.5275 -5.9935 -2.0000 0.9750
1.0606 -5.9244 -2.0006 0.9749
2.5948 -5.4369 -2.0025 0.9749
3.0707 -5.1853 -2.0032 0.9749
4.3387 -4.1902 -2.0050 0.9749
5.7303 -1.9060 -2.0074 0.9749
5.9798 -0.8570 -2.0080 0.9749
5.9949 0.7581 -2.0086 0.9749
5.7649 1.8121 -2.0087 0.9748
5.3505 2.8080 -2.0086 0.9749
3.3347 4.4733 -1.8547 0.9768
2.0291 5.1934 -1.8534 0.9768
0.5802 5.5408 -1.8519 0.9768
0.0832 5.5688 -1.8513 0.9768
-0.9077 5.4914 -1.8501 0.9768
-1.3938 5.3867 -1.8495 0.9768
-1.8684 5.2391 -1.8489 0.9768
-2.3278 5.0498 -1.8484 0.9768
-3.1867 4.5526 -1.8472 0.9768
-3.5792 4.2487 -1.8466 0.9769
-4.2321 4.1979 -1.9814 0.9752
-4.6237 3.8314 -1.9961 0.9750
-4.9495 3.4050 -1.9970 0.9750
-5.2324 2.9488 -1.9965 0.9750
-5.4735 2.4695 -1.9960 0.9750
-5.9987 -0.1384 -1.9945 0.9750
-5.9620 -0.6732 -1.9944 0.9750
-5.5703 -2.2286 -1.9943 0.9750
-4.0621 -4.4192 -1.9953 0.9750
-2.7478 -5.3406 -1.9964 0.9750
-1.2357 -5.8823 -1.9980 0.9750
1.4300 -5.8476 -2.0011 0.9749
1.9469 -5.6985 -2.0017 0.9749
2.4485 -5.5037 -2.0024 0.9749
3.3903 -4.9838 -2.0036 0.9749
4.9256 -3.4862 -2.0059 0.9749
5.2184 -3.0334 -2.0064 0.9749
5.4696 -2.5561 -2.0069 0.9749
5.9545 -1.0162 -2.0079 0.9749
6.0223 -0.4807 -2.0082 0.9749
6.0418 0.0587 -2.0084 0.9749
6.0129 0.5978 -2.0086 0.9749
5.4236 2.6643 -2.0086 0.9749
3.9758 4.2111 -1.9251 0.9759
3.0475 4.6727 -1.8544 0.9768
1.6994 5.3094 -1.8531 0.9768
1.2184 5.4384 -1.8526 0.9768
0.2319 5.5651 -1.8515 0.9768
-1.2496 5.4225 -1.8497 0.9768
-1.7281 5.2876 -1.8491 0.9768
-2.6390 4.8930 -1.8479 0.9768
-4.5157 3.9498 -1.9942 0.9750
-4.8573 3.5361 -1.9971 0.9750
-5.6167 2.1215 -1.9958 0.9750
-5.7826 1.6113 -1.9954 0.9750
-5.9024 1.0886 -1.9951 0.9750
-5.9779 -0.5139 -1.9944 0.9750
-5.9079 -1.0454 -1.9943 0.9750
-5.4199 -2.5732 -1.9943 0.9750
-5.1689 -3.0469 -1.9945 0.9750
-4.5457 -3.9182 -1.9949 0.9750
-4.1784 -4.3090 -1.9952 0.9750
-3.7778 -4.6655 -1.9955 0.9750
-3.3469 -4.9851 -1.9959 0.9750
-2.4082 -5.5032 -1.9968 0.9750
-1.3921 -5.8468 -1.9978 0.9750
0.2068 -6.0120 -1.9996 0.9750
0.7429 -5.9714 -2.0002 0.9750
1.2733 -5.8831 -2.0009 0.9749
2.3006 -5.5666 -2.0022 0.9749
2.7891 -5.3407 -2.0028 0.9749
3.2557 -5.0721 -2.0034 0.9749
4.4871 -4.0318 -2.0052 0.9749
4.8304 -3.6162 -2.0057 0.9749
5.1352 -3.1714 -2.0063 0.9749
5.3990 -2.7010 -2.0067 0.9749
5.9250 -1.1748 -2.0079 0.9749
6.0071 -0.6413 -2.0081 0.9749
6.0410 -0.1026 -2.0084 0.9749
6.0266 0.4371 -2.0085 0.9749
5.8533 1.5018 -2.0087 0.9748
5.6959 2.0183 -2.0087 0.9748
4.9568 3.4546 -2.0084 0.9749
3.1713 4.5900 -1.8545 0.9768
1.3632 5.4044 -1.8527 0.9768
0.8752 5.5029 -1.8522 0.9768
-0.6135 5.5331 -1.8505 0.9768
-2.0555 5.1678 -1.8487 0.9768
-2.5077 4.9621 -1.8481 0.9768
-3.8183 4.2149 -1.8905 0.9763
-4.4047 4.0653 -1.9924 0.9751
-4.7615 3.6648 -1.9973 0.9750
-5.0683 3.2243 -1.9968 0.9750
-5.3347 2.7584 -1.9963 0.9750
-5.8715 1.2458 -1.9952 0.9750
-5.9584 0.7166 -1.9949 0.9750
-5.9896 -0.3542 -1.9945 0.9750
-5.8307 -1.4134 -1.9943 0.9750
-4.9682 -3.3649 -1.9946 0.9750
-4.6485 -3.7954 -1.9948 0.9750
-3.9007 -4.5628 -1.9954 0.9750
-3.0285 -5.1857 -1.9962 0.9750
-2.0591 -5.6442 -1.9971 0.9750
-1.5475 -5.8070 -1.9977 0.9750
-1.0233 -5.9237 -1.9982 0.9750
-0.4906 -5.9931 -1.9988 0.9750
0.0463 -6.0148 -1.9994 0.9750
1.1157 -5.9145 -2.0007 0.9749
2.1509 -5.6255 -2.0020 0.9749
2.6453 -5.4128 -2.0026 0.9749
3.5679 -4.8592 -2.0039 0.9749
3.9885 -4.5227 -2.0045 0.9749
4.3775 -4.1498 -2.0050 0.9749
4.7318 -3.7435 -2.0056 0.9749
5.0483 -3.3071 -2.0061 0.9749
5.3247 -2.8439 -2.0066 0.9749
5.8913 -1.3324 -2.0078 0.9749
5.9876 -0.8014 -2.0081 0.9749
5.9876 0.8138 -2.0086 0.9749
5.7478 1.8656 -2.0087 0.9748
5.5582 2.3711 -2.0087 0.9748
3.7078 4.2216 -1.8677 0.9766
2.4386 5.0156 -1.8538 0.9768
1.0218 5.4781 -1.8523 0.9768
0.5286 5.5458 -1.8518 0.9768
-0.4305 5.1300 -1.7112 0.9785
-1.9170 5.2214 -1.8489 0.9768
-2.3746 5.0278 -1.8483 0.9768
-4.2908 4.1777 -1.9907 0.9751
-5.4962 2.4184 -1.9960 0.9750
-5.9971 -0.1941 -1.9945 0.9750
-5.8664 -1.2573 -1.9943 0.9750
-5.7307 -1.7758 -1.9943 0.9750
-5.3239 -2.7666 -1.9944 0.9750
-5.0561 -3.2310 -1.9945 0.9750
-4.7480 -3.6698 -1.9947 0.9750
-3.1656 -5.1027 -1.9960 0.9750
-2.6981 -5.3661 -1.9965 0.9750
-1.7019 -5.7632 -1.9975 0.9750
-1.1810 -5.8937 -1.9981 0.9750
-0.6504 -5.9774 -1.9986 0.9750
-0.1143 -6.0134 -1.9992 0.9750
1.4844 -5.8343 -2.0011 0.9749
1.9999 -5.6803 -2.0018 0.9749
2.4997 -5.4809 -2.0024 0.9749
2.9799 -5.2376 -2.0031 0.9749
3.4366 -4.9522 -2.0037 0.9749
4.2649 -4.2648 -2.0049 0.9749
4.6298 -3.8682 -2.0054 0.9749
5.4932 -2.5052 -2.0069 0.9749
5.6960 -2.0053 -2.0073 0.9749
6.0410 0.1149 -2.0084 0.9749
6.0071 0.6537 -2.0086 0.9749
5.7955 1.7115 -2.0087 0.9748
5.3986 2.7146 -2.0086 0.9749
4.8291 3.6306 -2.0083 0.9749
3.4122 4.4148 -1.8547 0.9768
3.0039 4.7008 -1.8544 0.9768
2.1192 5.1576 -1.8535 0.9768
1.6500 5.3248 -1.8530 0.9768
1.0442 5.0731 -1.8522 0.9782
0.5871 5.1447 -1.8517 0.9782
0.1255 5.1751 -1.8512 0.9782
-0.3348 5.1333 -1.8396 0.9784
-0.7962 5.1120 -1.8501 0.9783
-1.2490 5.0190 -1.8496 0.9783
-1.6915 4.8861 -1.8490 0.9783
-2.5318 4.5048 -1.8479 0.9783
-3.4751 4.2039 -1.9505 0.9771
-3.9234 3.9647 -1.9946 0.9766
-4.2684 3.6044 -1.9978 0.9765
-4.5719 3.2082 -1.9973 0.9766
-4.8390 2.7867 -1.9969 0.9766
-5.2553 1.8811 -1.9961 0.9766
-5.5043 0.9165 -1.9955 0.9766
-5.5634 0.4214 -1.9952 0.9766
-5.5488 -0.5744 -1.9949 0.9766
-5.4751 -1.0673 -1.9948 0.9766
-5.1981 -2.0238 -1.9948 0.9766
-4.9969 -2.4798 -1.9949 0.9766
-4.4770 -3.3293 -1.9952 0.9766
-4.1624 -3.7160 -1.9954 0.9766
-3.8146 -4.0733 -1.9957 0.9766
-3.4364 -4.3982 -1.9960 0.9766
-3.0306 -4.6883 -1.9963 0.9766
-2.6006 -4.9411 -1.9968 0.9766
-2.1497 -5.1546 -1.9972 0.9766
-0.7078 -5.5442 -1.9987 0.9765
-0.2101 -5.5868 -1.9993 0.9765
1.2786 -5.4476 -2.0010 0.9765
2.6786 -4.9186 -2.0028 0.9765
3.1078 -4.6612 -2.0034 0.9765
4.2351 -3.6743 -2.0050 0.9765
4.8233 -2.8640 -2.0060 0.9765
5.2578 -1.9616 -2.0068 0.9764
5.5246 -0.9958 -2.0075 0.9764
5.6148 0.0024 -2.0079 0.9764
5.5256 1.0008 -2.0082 0.9764
4.5497 3.2900 -2.0078 0.9764
3.8818 4.0357 -2.0024 0.9765
3.3806 4.2098 -1.9308 0.9773
2.0584 4.7561 -1.8533 0.9782
1.1794 5.0439 -1.8524 0.9782
0.7243 5.1276 -1.8519 0.9782
0.2636 5.1704 -1.8514 0.9782
-0.1966 5.1124 -1.8296 0.9785
-1.9938 4.7695 -1.8486 0.9783
-3.2959 4.2110 -1.9123 0.9775
-4.1710 3.7173 -1.9980 0.9765
-5.0033 2.4777 -1.9966 0.9766
-5.2035 2.0208 -1.9962 0.9766
-5.3621 1.5481 -1.9958 0.9766
-5.5504 0.5698 -1.9953 0.9766
-5.5623 -0.4261 -1.9949 0.9766
-5.5017 -0.9208 -1.9948 0.9766
-5.3974 -1.4082 -1.9948 0.9766
-5.0612 -2.3455 -1.9948 0.9766
-4.8319 -2.7881 -1.9949 0.9766
-3.5524 -4.3047 -1.9959 0.9766
-3.1545 -4.6054 -1.9962 0.9766
-2.2863 -5.0951 -1.9971 0.9766
-1.8228 -5.2800 -1.9975 0.9766
-0.8554 -5.5228 -1.9986 0.9765
-0.3591 -5.5787 -1.9991 0.9765
0.6389 -5.5568 -2.0003 0.9765
1.6177 -5.3579 -2.0015 0.9765
2.0901 -5.1937 -2.0021 0.9765
3.3944 -4.4582 -2.0038 0.9765
4.1352 -3.7857 -2.0049 0.9765
4.7448 -2.9916 -2.0059 0.9765
4.9939 -2.5567 -2.0063 0.9764
5.4958 -1.1428 -2.0074 0.9764
5.5766 -0.6478 -2.0076 0.9764
5.6128 -0.1475 -2.0079 0.9764
5.5503 0.8530 -2.0081 0.9764
4.9007 2.7412 -2.0080 0.9764
4.6360 3.1675 -2.0079 0.9764
3.9918 3.9342 -2.0043 0.9765
2.5961 4.4870 -1.8538 0.9782
2.1848 4.6998 -1.8534 0.9782
1.7561 4.8749 -1.8530 0.9782
1.3137 5.0110 -1.8525 0.9782
-0.5217 5.1415 -1.8481 0.9783
-0.9795 5.0794 -1.8499 0.9783
-1.8660 4.8214 -1.8488 0.9783
-2.2882 4.6343 -1.8483 0.9783
-3.1232 4.2177 -1.8768 0.9780
-3.7006 4.1621 -1.9916 0.9766
-4.0679 3.8251 -1.9968 0.9766
-4.3949 3.4481 -1.9976 0.9765
-4.6840 3.0413 -1.9971 0.9766
-4.9357 2.6105 -1.9967 0.9766
-5.4480 1.2090 -1.9956 0.9766
-5.5748 0.2210 -1.9951 0.9766
-5.4331 -1.2636 -1.9948 0.9766
-4.9045 -2.6581 -1.9949 0.9766
-4.6480 -3.0855 -1.9950 0.9766
-2.4213 -5.0319 -1.9969 0.9766
-1.9630 -5.2291 -1.9974 0.9766
-1.4888 -5.3848 -1.9979 0.9765
1.4740 -5.3987 -2.0013 0.9765
1.9506 -5.2471 -2.0019 0.9765
2.8542 -4.8196 -2.0031 0.9765
3.2739 -4.5469 -2.0036 0.9765
4.0324 -3.8944 -2.0047 0.9765
4.3650 -3.5198 -2.0052 0.9765
4.6629 -3.1169 -2.0057 0.9765
4.9236 -2.6889 -2.0062 0.9765
5.1450 -2.2391 -2.0066 0.9764
5.3253 -1.7713 -2.0070 0.9764
5.4631 -1.2891 -2.0073 0.9764
5.5571 -0.7964 -2.0076 0.9764
5.6067 -0.2972 -2.0078 0.9764
5.3572 1.6839 -2.0082 0.9764
4.9722 2.6095 -2.0081 0.9764
4.7191 3.0427 -2.0079 0.9764
4.4282 3.4514 -2.0078 0.9764
3.1450 4.2188 -1.8818 0.9779
2.7151 4.4164 -1.8539 0.9782
2.3096 4.6401 -1.8535 0.9782
0.0774 5.1759 -1.8512 0.9782
-1.2955 5.0070 -1.8495 0.9783
-2.1639 4.6941 -1.8484 0.9783
-2.5735 4.4809 -1.8479 0.9783
-2.9623 4.2321 -1.8473 0.9783
-3.5392 4.2013 -1.9645 0.9769
-3.9611 3.9291 -1.9952 0.9766
-5.0888 2.2959 -1.9964 0.9766
-5.2724 1.8322 -1.9960 0.9766
-5.5125 0.8652 -1.9954 0.9766
-5.5671 0.3697 -1.9952 0.9766
-5.5773 -0.1287 -1.9950 0.9766
-5.5432 -0.6259 -1.9949 0.9766
-5.4650 -1.1182 -1.9948 0.9766
-5.1791 -2.0721 -1.9948 0.9766
-4.9736 -2.5262 -1.9949 0.9766
-3.3954 -4.4301 -1.9960 0.9766
-2.9870 -4.7163 -1.9964 0.9766
-2.5546 -4.9651 -1.9968 0.9766
-0.1582 -5.5886 -1.9993 0.9765
0.3414 -5.5820 -1.9999 0.9765
0.8385 -5.5309 -2.0005 0.9765
1.8097 -5.2969 -2.0017 0.9765
2.7243 -4.8936 -2.0029 0.9765
3.9267 -4.0003 -2.0046 0.9765
4.2692 -3.6348 -2.0051 0.9765
4.5777 -3.2401 -2.0056 0.9765
5.4265 -1.4344 -2.0072 0.9764
5.5337 -0.9444 -2.0075 0.9764
5.5965 -0.4468 -2.0077 0.9764
5.5877 0.5556 -2.0081 0.9764
5.2412 2.0162 -2.0082 0.9764
5.0401 2.4759 -2.0081 0.9764
4.7987 2.9157 -2.0080 0.9764
4.5189 3.3321 -2.0078 0.9764
4.2030 3.7217 -2.0076 0.9764
3.3186 4.2122 -1.9177 0.9775
2.8322 4.3426 -1.8540 0.9782
2.4328 4.5771 -1.8537 0.9782
1.1324 5.0545 -1.8523 0.9782
0.6765 5.1340 -1.8518 0.9782
0.2155 5.1725 -1.8513 0.9782
-0.7072 5.1254 -1.8502 0.9783
-1.6063 4.9150 -1.8491 0.9783
-2.0380 4.7506 -1.8486 0.9783
-2.4532 4.5484 -1.8480 0.9783
-3.3575 4.2086 -1.9253 0.9774
-3.8519 4.0303 -1.9936 0.9766
-4.2052 3.6783 -1.9979 0.9765
-5.2219 1.9723 -1.9962 0.9766
-5.3762 1.4981 -1.9958 0.9766
-5.4876 1.0121 -1.9955 0.9766
-5.5789 0.0202 -1.9951 0.9766
-5.5580 -0.4778 -1.9949 0.9766
-5.4929 -0.9719 -1.9948 0.9766
-5.2325 -1.9331 -1.9948 0.9766
-4.8058 -2.8329 -1.9950 0.9766
-3.8848 -4.0062 -1.9956 0.9766
-3.5123 -4.3376 -1.9959 0.9766
-3.1116 -4.6347 -1.9963 0.9766
-2.2389 -5.1162 -1.9971 0.9766
-0.8041 -5.5307 -1.9986 0.9765
-0.3073 -5.5819 -1.9992 0.9765
0.1923 -5.5887 -1.9997 0.9765
1.1836 -5.4687 -2.0009 0.9765
2.1384 -5.1742 -2.0021 0.9765
3.0261 -4.7143 -2.0033 0.9765
3.8182 -4.1034 -2.0044 0.9765
4.7725 -2.9474 -2.0059 0.9765
5.0176 -2.5102 -2.0063 0.9764
5.2227 -2.0527 -2.0067 0.9764
5.3860 -1.5786 -2.0071 0.9764
5.5062 -1.0917 -2.0074 0.9764
5.5824 -0.5960 -2.0077 0.9764
5.6005 0.4062 -2.0080 0.9764
5.4394 1.3956 -2.0082 0.9764
4.8749 2.7866 -2.0080 0.9764
4.3010 3.6084 -2.0077 0.9764
3.9537 3.9699 -2.0036 0.9765
3.4989 4.2051 -1.9563 0.9770
2.5542 4.5108 -1.8538 0.9782
1.7107 4.8909 -1.8529 0.9782
0.8134 5.1145 -1.8520 0.9782
0.3535 5.1653 -1.8515 0.9782
-0.1089 5.1748 -1.8509 0.9783
-1.0267 5.0699 -1.8499 0.9783
-1.4747 4.9566 -1.8493 0.9783
-1.9106 4.8037 -1.8487 0.9783
-2.3311 4.6127 -1.8482 0.9783
-3.1826 4.2154 -1.8889 0.9778
-3.7401 4.1285 -1.9921 0.9766
-4.1044 3.7882 -1.9974 0.9766
-4.4266 3.4070 -1.9976 0.9765
-4.7119 2.9976 -1.9971 0.9766
-4.9596 2.5645 -1.9967 0.9766
-5.1677 2.1111 -1.9963 0.9766
-5.3346 1.6411 -1.9959 0.9766
-5.4589 1.1583 -1.9956 0.9766
-5.5398 0.6663 -1.9953 0.9766
-5.5765 0.1691 -1.9951 0.9766
-5.5689 -0.3293 -1.9950 0.9766
-5.4211 -1.3141 -1.9948 0.9766
-4.8796 -2.7036 -1.9949 0.9766
-4.6192 -3.1286 -1.9951 0.9766
-3.9902 -3.9009 -1.9955 0.9766
-3.6266 -4.2421 -1.9958 0.9766
-3.2341 -4.5497 -1.9962 0.9766
-2.3745 -5.0543 -1.9970 0.9766
-1.9143 -5.2473 -1.9974 0.9766
-0.4561 -5.5713 -1.9990 0.9765
1.0371 -5.4978 -2.0007 0.9765
1.5242 -5.3849 -2.0013 0.9765
1.9993 -5.2289 -2.0019 0.9765
2.4588 -5.0311 -2.0025 0.9765
2.8989 -4.7930 -2.0031 0.9765
3.3161 -4.5164 -2.0037 0.9765
4.9485 -2.6430 -2.0062 0.9764
5.1657 -2.1912 -2.0066 0.9764
5.3417 -1.7217 -2.0070 0.9764
5.5643 -0.7447 -2.0076 0.9764
5.6092 -0.2451 -2.0078 0.9764
5.3413 1.7337 -2.0082 0.9764
5.1652 2.2035 -2.0082 0.9764
4.0620 3.8665 -2.0055 0.9765
3.0860 4.2210 -1.8699 0.9780
1.8408 4.8439 -1.8531 0.9782
0.9497 5.0914 -1.8521 0.9782
0.4913 5.1545 -1.8516 0.9782
-0.4296 5.1187 -1.8369 0.9784
-1.7819 4.8535 -1.8489 0.9783
-2.2074 4.6736 -1.8484 0.9783
-3.6043 4.1986 -1.9788 0.9768
-4.3344 3.5242 -1.9977 0.9765
-5.1098 2.2484 -1.9964 0.9766
-5.2891 1.7830 -1.9960 0.9766
-5.5702 0.3179 -1.9952 0.9766
-5.5758 -0.1805 -1.9950 0.9766
-5.5371 -0.6774 -1.9949 0.9766
-5.4543 -1.1689 -1.9948 0.9766
-5.3281 -1.6511 -1.9948 0.9766
-5.1596 -2.1201 -1.9948 0.9766
-4.9500 -2.5723 -1.9949 0.9766
-4.4144 -3.4120 -1.9952 0.9766
-3.7384 -4.1436 -1.9957 0.9766
-2.5084 -4.9888 -1.9968 0.9766
-1.5821 -5.3578 -1.9978 0.9765
0.8899 -5.5231 -2.0006 0.9765
1.8589 -5.2800 -2.0018 0.9765
2.3235 -5.0945 -2.0024 0.9765
2.7697 -4.8682 -2.0029 0.9765
3.1941 -4.6029 -2.0035 0.9765
4.6078 -3.1974 -2.0056 0.9765
4.8759 -2.7740 -2.0061 0.9765
5.0169 2.5226 -2.0081 0.9764
4.7714 2.9602 -2.0080 0.9764
4.4877 3.3739 -2.0078 0.9764
3.2575 4.2146 -1.9049 0.9776
2.3901 4.5994 -1.8536 0.9782
1.5335 4.9488 -1.8527 0.9782
1.3933 4.6288 -1.8525 0.9795
0.9744 4.7336 -1.8520 0.9795
0.5478 4.8005 -1.8516 0.9795
0.1171 4.8289 -1.8511 0.9795
-1.1655 4.6836 -1.8496 0.9795
-2.8844 4.2035 -1.9536 0.9784
-3.3162 4.0116 -1.9946 0.9780
-3.6683 3.7069 -1.9985 0.9779
-4.2670 2.9942 -1.9976 0.9779
-4.5163 2.6008 -1.9972 0.9779
-4.7295 2.1869 -1.9968 0.9779
-5.1374 0.8554 -1.9959 0.9779
-5.1927 0.3934 -1.9956 0.9779
-5.2066 -0.0717 -1.9955 0.9779
-5.0010 -1.4484 -1.9952 0.9779
-4.8518 -1.8890 -1.9952 0.9779
-4.1787 -3.1074 -1.9956 0.9779
-3.8850 -3.4684 -1.9958 0.9779
-3.5604 -3.8018 -1.9960 0.9779
-3.2073 -4.1050 -1.9963 0.9779
-2.4272 -4.6116 -1.9971 0.9779
-2.0063 -4.8108 -1.9975 0.9779
-1.1194 -5.0932 -1.9984 0.9779
-0.6605 -5.1741 -1.9989 0.9779
-0.1961 -5.2138 -1.9994 0.9779
1.1932 -5.0836 -2.0011 0.9779
1.6427 -4.9582 -2.0016 0.9779
2.4995 -4.5896 -2.0027 0.9779
4.5002 -2.6722 -2.0057 0.9778
4.9055 -1.8302 -2.0065 0.9778
5.0501 -1.3852 -2.0068 0.9778
5.1543 -0.9291 -2.0071 0.9778
5.2385 0.0022 -2.0075 0.9778
5.2177 0.4698 -2.0076 0.9778
5.0514 1.3902 -2.0077 0.9778
4.7235 2.2661 -2.0077 0.9778
4.5022 2.6785 -2.0076 0.9778
3.9534 3.4357 -2.0072 0.9778
3.6297 3.7736 -2.0065 0.9778
3.2696 4.0716 -2.0011 0.9779
2.8008 4.2084 -1.9373 0.9786
1.9206 4.4376 -1.8530 0.9795
1.5165 4.5903 -1.8526 0.9795
0.6758 4.7845 -1.8517 0.9795
-0.6154 4.7887 -1.8502 0.9795
-1.0401 4.7134 -1.8497 0.9795
-1.4563 4.6004 -1.8492 0.9795
-3.2059 4.0960 -1.9933 0.9780
-3.5667 3.8020 -1.9978 0.9779
-3.8927 3.4693 -1.9982 0.9779
-4.1858 3.1072 -1.9977 0.9779
-4.6697 2.3125 -1.9969 0.9779
-4.8566 1.8861 -1.9965 0.9779
-5.1130 0.9922 -1.9959 0.9779
-5.1805 0.5318 -1.9957 0.9779
-5.2068 0.0673 -1.9955 0.9779
-5.1917 -0.3977 -1.9954 0.9779
-5.0379 -1.3144 -1.9952 0.9779
-4.7240 -2.1893 -1.9953 0.9779
-4.5100 -2.6023 -1.9954 0.9779
-4.2600 -2.9947 -1.9955 0.9779
-3.3156 -4.0178 -1.9963 0.9779
0.1309 -5.2168 -1.9998 0.9779
1.5096 -4.9998 -2.0015 0.9779
1.9504 -4.8465 -2.0020 0.9779
2.3759 -4.6543 -2.0026 0.9779
2.7826 -4.4249 -2.0031 0.9779
3.5269 -3.8616 -2.0042 0.9778
4.1593 -3.1745 -2.0051 0.9778
5.1275 -1.0663 -2.0070 0.9778
5.2283 0.3304 -2.0076 0.9778
5.0867 1.2548 -2.0077 0.9778
4.9544 1.7039 -2.0077 0.9778
4.7824 2.1392 -2.0077 0.9778
4.3253 2.9551 -2.0075 0.9778
1.2257 4.6755 -1.8523 0.9795
0.8033 4.7651 -1.8518 0.9795
0.3747 4.8166 -1.8514 0.9795
-0.4875 4.8039 -1.8504 0.9795
-1.7413 4.4993 -1.8488 0.9795
-2.1353 4.3247 -1.8483 0.9796
-2.5727 4.2150 -1.8924 0.9791
-3.0935 4.1776 -1.9921 0.9780
-3.4615 3.8932 -1.9964 0.9779
-3.7990 3.5722 -1.9983 0.9779
-4.1017 3.2181 -1.9979 0.9779
-4.3716 2.8385 -1.9974 0.9779
-4.8047 2.0152 -1.9966 0.9779
-5.0849 1.1284 -1.9960 0.9779
-5.2033 0.2062 -1.9956 0.9779
-5.2005 -0.2590 -1.9954 0.9779
-4.9456 -1.6274 -1.9952 0.9779
-4.5777 -2.4810 -1.9953 0.9779
-3.7579 -3.6061 -1.9959 0.9779
-3.4215 -3.9277 -1.9962 0.9779
-3.0577 -4.2181 -1.9965 0.9779
-1.3894 -5.0255 -1.9981 0.9779
0.9201 -5.1391 -2.0007 0.9779
1.3755 -5.0379 -2.0013 0.9779
2.2506 -4.7157 -2.0024 0.9779
3.0549 -4.2427 -2.0035 0.9779
3.7625 -3.6338 -2.0045 0.9778
4.0728 -3.2842 -2.0050 0.9778
4.5938 -2.5088 -2.0059 0.9778
4.8004 -2.0891 -2.0062 0.9778
4.9685 -1.6526 -2.0066 0.9778
5.2352 0.1907 -2.0075 0.9778
5.1183 1.1186 -2.0077 0.9778
4.9981 1.5710 -2.0077 0.9778
4.1314 3.2201 -2.0073 0.9778
3.8271 3.5756 -2.0071 0.9778
3.4877 3.8974 -2.0043 0.9778
3.1179 4.1824 -1.9991 0.9779
1.7595 4.5035 -1.8529 0.9795
1.3502 4.6415 -1.8524 0.9795
0.0722 4.8297 -1.8510 0.9795
-0.3591 4.8156 -1.8505 0.9795
-1.6207 4.5445 -1.8490 0.9795
-2.0193 4.3805 -1.8485 0.9795
-3.3541 3.9815 -1.9950 0.9779
-4.0146 3.3266 -1.9980 0.9779
-4.2945 2.9544 -1.9976 0.9779
-4.5401 2.5587 -1.9971 0.9779
-4.7495 2.1428 -1.9968 0.9779
-4.9209 1.7100 -1.9964 0.9779
-5.0532 1.2638 -1.9961 0.9779
-5.1451 0.8076 -1.9958 0.9779
-5.1961 0.3451 -1.9956 0.9779
-5.1739 -0.5842 -1.9953 0.9779
-5.1009 -1.0437 -1.9952 0.9779
-4.9873 -1.4948 -1.9952 0.9779
-4.4135 -2.7630 -1.9954 0.9779
-4.1496 -3.1462 -1.9956 0.9779
-3.8527 -3.5044 -1.9958 0.9779
-2.7878 -4.4019 -1.9967 0.9779
-1.5230 -4.9863 -1.9980 0.9779
-1.0721 -5.1035 -1.9985 0.9779
-0.6124 -5.1802 -1.9990 0.9779
-0.1476 -5.2155 -1.9995 0.9779
2.9403 -4.3224 -2.0033 0.9779
3.3153 -4.0437 -2.0039 0.9778
4.5250 -2.6304 -2.0057 0.9778
4.7426 -2.2164 -2.0061 0.9778
4.9224 -1.7845 -2.0065 0.9778
5.1628 -0.8811 -2.0071 0.9778
5.2214 -0.4168 -2.0073 0.9778
5.2383 0.0509 -2.0075 0.9778
5.1463 0.9816 -2.0077 0.9778
5.0382 1.4371 -2.0077 0.9778
4.8898 1.8810 -2.0077 0.9778
3.9213 3.4723 -2.0072 0.9778
3.5934 3.8061 -2.0059 0.9778
2.7460 4.2104 -1.9263 0.9787
1.8792 4.4552 -1.8530 0.9795
0.6313 4.7904 -1.8517 0.9795
-0.2304 4.8238 -1.8507 0.9795
-0.6599 4.7827 -1.8502 0.9795
-1.4990 4.5866 -1.8491 0.9795
-3.2445 4.0669 -1.9937 0.9780
-3.9247 3.4329 -1.9982 0.9779
-4.2144 3.0681 -1.9977 0.9779
-4.4705 2.6791 -1.9973 0.9779
-4.6909 2.2689 -1.9969 0.9779
-4.8738 1.8409 -1.9965 0.9779
-5.0178 1.3983 -1.9962 0.9779
-5.1219 0.9447 -1.9959 0.9779
-5.1852 0.4836 -1.9957 0.9779
-5.2072 0.0189 -1.9955 0.9779
-5.1877 -0.4459 -1.9954 0.9779
-5.0254 -1.3612 -1.9952 0.9779
-4.8839 -1.8043 -1.9952 0.9779
-4.4856 -2.6441 -1.9954 0.9779
-3.6259 -3.7392 -1.9960 0.9779
-2.9042 -4.3257 -1.9966 0.9779
-2.5070 -4.5685 -1.9970 0.9779
-1.6554 -4.9435 -1.9978 0.9779
-1.2078 -5.0727 -1.9983 0.9779
-0.2867 -5.2093 -1.9993 0.9779
1.5561 -4.9857 -2.0015 0.9779
1.9954 -4.8283 -2.0021 0.9779
3.2059 -4.1305 -2.0037 0.9779
3.5627 -3.8288 -2.0042 0.9778
3.8912 -3.4964 -2.0047 0.9778
4.1887 -3.1358 -2.0052 0.9778
4.6815 -2.3420 -2.0060 0.9778
5.1372 -1.0186 -2.0070 0.9778
5.2376 -0.0889 -2.0074 0.9778
4.7623 2.1836 -2.0077 0.9778
3.6957 3.7108 -2.0070 0.9778
3.3417 4.0161 -2.0021 0.9779
2.3915 4.2235 -1.8600 0.9794
1.5962 4.5635 -1.8527 0.9795
-0.5321 4.7990 -1.8503 0.9795
-2.1754 4.3046 -1.8483 0.9796
-2.6257 4.2131 -1.9024 0.9790
-3.1329 4.1495 -1.9925 0.9780
-3.4984 3.8617 -1.9968 0.9779
-4.6289 2.3935 -1.9970 0.9779
-4.8232 1.9704 -1.9966 0.9779
-5.0951 1.0811 -1.9960 0.9779
-5.1706 0.6219 -1.9957 0.9779
-5.1494 -0.7700 -1.9953 0.9779
-4.9303 -1.6733 -1.9952 0.9779
-4.5545 -2.5234 -1.9954 0.9779
-4.3114 -2.9201 -1.9955 0.9779
-4.0339 -3.2936 -1.9957 0.9779
-3.3849 -3.9594 -1.9962 0.9779
-3.0185 -4.2464 -1.9965 0.9779
-2.6278 -4.4997 -1.9969 0.9779
-0.4257 -5.1994 -1.9992 0.9779
0.0401 -5.2180 -1.9997 0.9779
0.9678 -5.1305 -2.0008 0.9779
1.4223 -5.0250 -2.0013 0.9779
2.2944 -4.6947 -2.0025 0.9779
2.7050 -4.4724 -2.0030 0.9779
3.0943 -4.2142 -2.0035 0.9779
3.7962 -3.5987 -2.0046 0.9778
4.6171 -2.4660 -2.0059 0.9778
5.1080 -1.1553 -2.0069 0.9778
5.1914 -0.6948 -2.0072 0.9778
5.2332 -0.2287 -2.0074 0.9778
5.2332 0.2394 -2.0076 0.9778
5.1077 1.1662 -2.0077 0.9778
4.9833 1.6174 -2.0077 0.9778
4.8189 2.0557 -2.0077 0.9778
4.6160 2.4776 -2.0076 0.9778
4.3761 2.8795 -2.0075 0.9778
4.1012 3.2583 -2.0073 0.9778
3.7936 3.6110 -2.0071 0.9778
3.4504 3.9286 -2.0037 0.9779
2.1145 4.3491 -1.8532 0.9795
1.7175 4.5195 -1.8528 0.9795
1.3069 4.6537 -1.8524 0.9795
-0.8315 4.7553 -1.8500 0.9795
-2.0599 4.3614 -1.8484 0.9796
-2.4751 4.2183 -1.8743 0.9793
-2.9977 4.1991 -1.9772 0.9781
-3.7364 3.6379 -1.9984 0.9779
-4.5636 2.5163 -1.9971 0.9779
-4.7691 2.0985 -1.9967 0.9779
-4.9365 1.6642 -1.9964 0.9779
-5.0646 1.2167 -1.9961 0.9779
-5.1523 0.7597 -1.9958 0.9779
-5.2043 -0.1685 -1.9954 0.9779
-5.0909 -1.0911 -1.9952 0.9779
-4.9732 -1.5411 -1.9952 0.9779
-4.8158 -1.9789 -1.9952 0.9779
-4.6202 -2.4009 -1.9953 0.9779
-4.1203 -3.1846 -1.9956 0.9779
-3.8200 -3.5401 -1.9958 0.9779
-3.4892 -3.8675 -1.9961 0.9779
-2.7469 -4.4277 -1.9968 0.9779
-2.3411 -4.6561 -1.9972 0.9779
-1.4766 -5.0003 -1.9980 0.9779
-1.0246 -5.1134 -1.9985 0.9779
0.3670 -5.2062 -2.0001 0.9779
1.2876 -5.0608 -2.0012 0.9779
1.7346 -4.9271 -2.0017 0.9779
2.5845 -4.5426 -2.0028 0.9779
2.9805 -4.2950 -2.0034 0.9779
3.3528 -4.0128 -2.0039 0.9778
3.6985 -3.6985 -2.0044 0.9778
4.0149 -3.3544 -2.0049 0.9778
4.2992 -2.9833 -2.0054 0.9778
4.9389 -1.7387 -2.0065 0.9778
5.0751 -1.2911 -2.0068 0.9778
5.1708 -0.8331 -2.0071 0.9778
5.2251 -0.3683 -2.0073 0.9778
5.1370 1.0294 -2.0077 0.9778
4.8721 1.9264 -2.0077 0.9778
3.8888 3.5086 -2.0072 0.9778
3.5569 3.8382 -2.0053 0.9778
3.1917 4.1295 -2.0001 0.9779
2.2300 4.2914 -1.8533 0.9795
1.8377 4.4724 -1.8529 0.9795
1.4308 4.6175 -1.8525 0.9795
1.3045 4.3337 -1.8523 0.9806
0.9122 4.4318 -1.8519 0.9806
0.5129 4.4945 -1.8514 0.9806
0.1096 4.5212 -1.8510 0.9806
-0.2943 4.5118 -1.8505 0.9806
-3.1118 3.7643 -1.9989 0.9791
-3.7304 3.1501 -1.9983 0.9791
-3.9958 2.8039 -1.9979 0.9791
-4.2293 2.4356 -1.9975 0.9791
-4.4290 2.0480 -1.9971 0.9791
-4.5934 1.6442 -1.9968 0.9791
-1.9542 0.1480 -0.8021 0.9916
-1.9118 -0.0263 -0.7825 0.9918
-1.9574 -0.2026 -0.8054 0.9915
-4.6835 -1.3564 -1.9956 0.9791
-4.5438 -1.7691 -1.9956 0.9791
-4.3679 -2.1677 -1.9957 0.9791
-3.6383 -3.2481 -1.9962 0.9791
-3.3343 -3.5604 -1.9964 0.9791
-2.6489 -4.0977 -1.9970 0.9791
-1.4695 -4.6558 -1.9982 0.9791
-1.0483 -4.7694 -1.9986 0.9791
0.2529 -4.8803 -2.0001 0.9791
1.9468 -4.4878 -2.0021 0.9791
2.3402 -4.2973 -2.0027 0.9791
2.7152 -4.0723 -2.0032 0.9791
3.0685 -3.8146 -2.0037 0.9791
3.3976 -3.5263 -2.0041 0.9791
3.6996 -3.2097 -2.0046 0.9791
4.2131 -2.5018 -2.0054 0.9790
4.7278 -1.2968 -2.0064 0.9790
4.8253 -0.8698 -2.0067 0.9790
4.9040 0.0021 -2.0071 0.9790
4.8260 0.8741 -2.0073 0.9790
4.7288 1.3014 -2.0073 0.9790
4.5938 1.7183 -2.0073 0.9790
4.4219 2.1214 -2.0073 0.9790
3.9738 2.8735 -2.0070 0.9790
3.3988 3.5335 -2.0066 0.9790
3.0675 3.8199 -2.0051 0.9790
2.7081 4.0692 -2.0005 0.9791
-0.1738 4.5184 -1.8506 0.9806
-0.9739 4.4132 -1.8497 0.9807
-2.6485 4.0894 -1.9940 0.9792
-3.0084 3.8438 -1.9977 0.9791
-3.3414 3.5619 -1.9989 0.9791
-3.6452 3.2487 -1.9984 0.9791
-3.9198 2.9098 -1.9980 0.9791
-4.3730 2.1656 -1.9972 0.9791
-4.7883 0.9292 -1.9963 0.9791
-1.9575 0.2010 -0.8054 0.9915
-1.9110 0.0247 -0.7822 0.9918
-1.9545 -0.1497 -0.8023 0.9916
-4.7181 -1.2310 -1.9956 0.9791
-4.4241 -2.0503 -1.9957 0.9791
-3.9895 -2.8046 -1.9959 0.9791
-3.4280 -3.4700 -1.9963 0.9791
-3.1050 -3.7626 -1.9966 0.9791
-2.7572 -4.0254 -1.9969 0.9791
-2.3873 -4.2561 -1.9972 0.9791
-0.3138 -4.8751 -1.9994 0.9791
0.1226 -4.8849 -1.9999 0.9791
0.5583 -4.8557 -2.0004 0.9791
1.4135 -4.6815 -2.0015 0.9791
2.6053 -4.1430 -2.0030 0.9791
2.9654 -3.8948 -2.0035 0.9791
3.3020 -3.6155 -2.0040 0.9791
4.8707 -0.5658 -2.0069 0.9790
4.9022 -0.1288 -2.0070 0.9790
4.8945 0.3093 -2.0072 0.9790
4.8476 0.7450 -2.0073 0.9790
4.6380 1.5951 -2.0073 0.9790
4.4770 2.0026 -2.0073 0.9790
4.0491 2.7665 -2.0071 0.9790
3.7857 3.1166 -2.0069 0.9790
3.1705 3.7391 -2.0064 0.9790
2.4297 4.1993 -1.9856 0.9792
1.9592 4.2147 -1.9022 0.9801
1.5341 4.2584 -1.8525 0.9806
0.7521 4.4613 -1.8517 0.9806
0.3508 4.5096 -1.8512 0.9806
-0.4564 4.4978 -1.8503 0.9806
-0.8558 4.4380 -1.8498 0.9807
-1.2482 4.3428 -1.8493 0.9807
-1.6349 4.2245 -1.8539 0.9806
-2.0786 4.2097 -1.9215 0.9799
-2.9031 3.9204 -1.9966 0.9791
-3.2454 3.6501 -1.9990 0.9791
-3.5574 3.3451 -1.9985 0.9791
-4.0938 2.6581 -1.9977 0.9791
-4.3139 2.2817 -1.9973 0.9791
-4.4995 1.8872 -1.9970 0.9791
-4.6493 1.4778 -1.9966 0.9791
-4.7620 1.0567 -1.9964 0.9791
-1.9338 0.0766 -0.7921 0.9917
-1.9468 -0.2726 -0.8045 0.9915
-4.2871 -2.3235 -1.9957 0.9791
-3.8063 -3.0492 -1.9960 0.9791
-3.5193 -3.3771 -1.9962 0.9791
-3.2042 -3.6782 -1.9965 0.9791
-2.8635 -3.9501 -1.9968 0.9791
-2.4999 -4.1907 -1.9971 0.9791
-2.1163 -4.3979 -1.9975 0.9791
-1.3011 -4.7061 -1.9983 0.9791
-0.8761 -4.8045 -1.9988 0.9791
0.4284 -4.8685 -2.0003 0.9791
0.8615 -4.8121 -2.0008 0.9791
1.7043 -4.5846 -2.0018 0.9791
2.4936 -4.2107 -2.0029 0.9791
2.8602 -3.9723 -2.0034 0.9791
3.2041 -3.7021 -2.0038 0.9791
3.5226 -3.4021 -2.0043 0.9791
3.8131 -3.0748 -2.0048 0.9791
4.0732 -2.7227 -2.0052 0.9790
4.3008 -2.3487 -2.0056 0.9790
4.7717 -1.1259 -2.0065 0.9790
4.8537 -0.6956 -2.0068 0.9790
4.7915 1.0472 -2.0073 0.9790
4.6789 1.4707 -2.0073 0.9790
4.5289 1.8825 -2.0073 0.9790
4.1216 2.6575 -2.0071 0.9790
3.5828 3.3474 -2.0067 0.9790
3.2693 3.6533 -2.0065 0.9790
2.9253 3.9241 -2.0032 0.9791
2.5578 4.1605 -1.9988 0.9791
2.0957 4.2105 -1.9249 0.9799
1.6510 4.2258 -1.8568 0.9806
0.8710 4.4400 -1.8518 0.9806
0.0676 4.5219 -1.8509 0.9806
-1.9425 4.2139 -1.8991 0.9801
-2.4113 4.1985 -1.9816 0.9793
-2.7959 3.9943 -1.9955 0.9791
-3.4671 3.4391 -1.9987 0.9791
-3.7594 3.1152 -1.9982 0.9791
-4.0216 2.7666 -1.9978 0.9791
-4.2517 2.3961 -1.9974 0.9791
-4.6084 1.6014 -1.9967 0.9791
-4.7323 1.1835 -1.9964 0.9791
-1.9501 0.1295 -0.7999 0.9916
-1.9204 -0.0443 -0.7862 0.9917
-1.9560 -0.2209 -0.8056 0.9915
-4.6707 -1.3999 -1.9956 0.9791
-4.5271 -1.8112 -1.9956 0.9791
-4.1333 -2.5876 -1.9958 0.9791
-3.6080 -3.2819 -1.9962 0.9791
-2.9678 -3.8721 -1.9967 0.9791
-2.6107 -4.1222 -1.9970 0.9791
-1.8369 -4.5225 -1.9978 0.9791
-0.5735 -4.8507 -1.9991 0.9791
-0.1382 -4.8838 -1.9996 0.9791
0.2983 -4.8778 -2.0001 0.9791
1.5812 -4.6281 -2.0017 0.9791
1.9885 -4.4697 -2.0022 0.9791
2.3801 -4.2754 -2.0027 0.9791
2.7530 -4.0469 -2.0032 0.9791
3.1040 -3.7860 -2.0037 0.9791
3.4303 -3.4946 -2.0042 0.9791
3.7294 -3.1752 -2.0046 0.9791
4.4400 -2.0750 -2.0058 0.9790
4.6083 -1.6706 -2.0062 0.9790
4.8332 -0.8249 -2.0067 0.9790
4.8881 -0.3902 -2.0069 0.9790
4.8803 0.4852 -2.0072 0.9790
4.7165 1.3453 -2.0073 0.9790
4.5776 1.7609 -2.0073 0.9790
4.1912 2.5466 -2.0072 0.9790
3.9469 2.9103 -2.0070 0.9790
3.3657 3.5649 -2.0066 0.9790
3.0311 3.8473 -2.0046 0.9791
2.2355 4.2060 -1.9494 0.9796
1.3797 4.3105 -1.8524 0.9806
0.9892 4.4155 -1.8519 0.9806
0.5910 4.4851 -1.8515 0.9806
0.1883 4.5188 -1.8511 0.9806
-0.6179 4.4780 -1.8501 0.9807
-2.2672 4.2035 -1.9547 0.9796
-2.6868 4.0653 -1.9944 0.9792
-3.0447 3.8164 -1.9981 0.9791
-3.9466 2.8731 -1.9979 0.9791
-4.6992 1.3094 -1.9965 0.9791
-1.9580 0.1826 -0.8048 0.9915
-1.9016 0.0069 -0.7783 0.9918
-4.5738 -1.6898 -1.9956 0.9791
-4.4049 -2.0913 -1.9957 0.9791
-3.9633 -2.8416 -1.9959 0.9791
-2.3477 -4.2782 -1.9973 0.9791
-1.5502 -4.6293 -1.9981 0.9791
-1.1310 -4.7503 -1.9985 0.9791
-0.7027 -4.8334 -1.9990 0.9791
-0.2685 -4.8780 -1.9995 0.9791
0.6034 -4.8504 -2.0005 0.9791
1.0342 -4.7785 -2.0010 0.9791
2.2650 -4.3371 -2.0025 0.9791
2.6438 -4.1187 -2.0031 0.9791
3.3356 -3.5847 -2.0040 0.9791
4.1688 -2.5746 -2.0054 0.9790
4.3828 -2.1926 -2.0057 0.9790
4.5618 -1.7930 -2.0061 0.9790
4.7044 -1.3788 -2.0064 0.9790
4.8093 -0.9536 -2.0067 0.9790
4.8758 -0.5205 -2.0069 0.9790
4.8914 0.3548 -2.0072 0.9790
4.8405 0.7900 -2.0073 0.9790
4.4582 2.0442 -2.0073 0.9790
4.2577 2.4338 -2.0072 0.9790
4.0232 2.8040 -2.0071 0.9790
3.7565 3.1516 -2.0069 0.9790
3.1350 3.7677 -2.0060 0.9790
2.7797 4.0232 -2.0014 0.9791
2.3788 4.2011 -1.9759 0.9793
1.4944 4.2724 -1.8525 0.9806
0.7106 4.4680 -1.8516 0.9806
0.3089 4.5125 -1.8512 0.9806
-0.0952 4.5210 -1.8507 0.9806
-0.4982 4.4933 -1.8503 0.9807
-0.8970 4.4297 -1.8498 0.9807
-4.1182 2.6199 -1.9976 0.9791
-4.3348 2.2414 -1.9973 0.9791
-4.5168 1.8452 -1.9969 0.9791
-1.9463 -0.1151 -0.7980 0.9916
-1.9555 -0.2924 -0.8092 0.9915
-4.7388 -1.1487 -1.9956 0.9791
-4.6173 -1.5671 -1.9956 0.9791
-3.7778 -3.0845 -1.9960 0.9791
-2.8267 -3.9767 -1.9968 0.9791
-2.4609 -4.2138 -1.9972 0.9791
-1.6731 -4.5860 -1.9979 0.9791
-1.2573 -4.7181 -1.9984 0.9791
-0.8314 -4.8125 -1.9988 0.9791
0.4737 -4.8644 -2.0003 0.9791
1.3318 -4.7051 -2.0014 0.9791
2.5327 -4.1874 -2.0029 0.9791
4.6657 -1.5038 -2.0063 0.9790
4.7820 -1.0815 -2.0066 0.9790
4.8991 -0.2141 -2.0070 0.9790
4.8991 0.2241 -2.0072 0.9790
4.8598 0.6605 -2.0073 0.9790
4.7816 1.0917 -2.0073 0.9790
4.0967 2.6956 -2.0071 0.9790
3.8394 3.0503 -2.0069 0.9790
3.2351 3.6835 -2.0065 0.9790
2.8880 3.9502 -2.0027 0.9791
2.5185 4.1832 -1.9984 0.9791
2.0479 4.2120 -1.9168 0.9800
1.6080 4.2313 -1.8526 0.9806
1.2236 4.3570 -1.8522 0.9806
0.0255 4.5222 -1.8509 0.9806
-0.3781 4.5053 -1.8504 0.9806
-0.7785 4.4524 -1.8499 0.9807
-1.1725 4.3640 -1.8494 0.9807
-2.4624 4.1966 -1.9914 0.9792
-2.8334 3.9689 -1.9958 0.9791
-3.4989 3.4066 -1.9986 0.9791
-3.7881 3.0800 -1.9982 0.9791
-4.0471 2.7290 -1.9978 0.9791
-4.7430 1.1395 -1.9964 0.9791
-1.9537 -0.2390 -0.8055 0.9915
-4.3269 -2.2485 -1.9957 0.9791
-3.5774 -3.3153 -1.9962 0.9791
-3.2676 -3.6218 -1.9964 0.9791
-2.9317 -3.8996 -1.9967 0.9791
-2.1924 -4.3603 -1.9974 0.9791
-1.7948 -4.5394 -1.9978 0.9791
-0.0928 -4.8850 -1.9997 0.9791
0.3437 -4.8750 -2.0002 0.9791
0.7776 -4.8261 -2.0007 0.9791
1.2056 -4.7386 -2.0012 0.9791
2.0300 -4.4511 -2.0022 0.9791
2.4198 -4.2532 -2.0028 0.9791
2.7905 -4.0213 -2.0033 0.9791
3.1391 -3.7571 -2.0038 0.9791
3.7589 -3.1405 -2.0047 0.9791
4.2591 -2.4231 -2.0055 0.9790
4.8408 -0.7799 -2.0067 0.9790
4.8090 0.9637 -2.0073 0.9790
4.7038 1.3891 -2.0073 0.9790
4.5610 1.8034 -2.0073 0.9790
4.3817 2.2032 -2.0073 0.9790
4.1673 2.5854 -2.0071 0.9790
3.9196 2.9468 -2.0070 0.9790
2.9945 3.8744 -2.0041 0.9791
2.6309 4.1170 -1.9997 0.9791
1.3396 4.3230 -1.8523 0.9806
0.4824 4.2270 -1.8541 0.9816
0.1030 4.2456 -1.8509 0.9816
-0.2764 4.2369 -1.8504 0.9816
-0.6575 4.2213 -1.8619 0.9815
-1.0490 4.2153 -1.8931 0.9812
-2.2440 3.9928 -1.9961 0.9802
-2.5955 3.7824 -1.9992 0.9802
-2.9229 3.5359 -1.9993 0.9802
-3.2262 3.2601 -1.9989 0.9802
-3.7529 2.6335 -1.9981 0.9802
-3.9722 2.2875 -1.9977 0.9802
-1.5951 0.5710 -0.7384 0.9926
-1.5515 0.4034 -0.6986 0.9930
-1.5064 0.2508 -0.6656 0.9934
-1.5252 -0.0210 -0.6648 0.9934
-1.5256 -0.1579 -0.6685 0.9933
-1.5686 -0.4543 -0.7117 0.9929
-4.1026 -2.0360 -1.9960 0.9802
-3.9047 -2.3942 -1.9961 0.9802
-3.4173 -3.0508 -1.9965 0.9802
-3.1317 -3.3440 -1.9967 0.9802
-2.8211 -3.6107 -1.9970 0.9802
-2.4879 -3.8487 -1.9973 0.9802
-0.9845 -4.4793 -1.9988 0.9802
-0.5809 -4.5503 -1.9992 0.9802
-0.1724 -4.5851 -1.9997 0.9802
0.6459 -4.5448 -2.0006 0.9802
1.4444 -4.3597 -2.0016 0.9802
1.8282 -4.2144 -2.0021 0.9802
2.8815 -3.5820 -2.0035 0.9801
3.1904 -3.3113 -2.0040 0.9801
3.4740 -3.0139 -2.0044 0.9801
3.7299 -2.6924 -2.0048 0.9801
3.9561 -2.3491 -2.0052 0.9801
4.3122 -1.6088 -2.0059 0.9801
4.5307 -0.8167 -2.0064 0.9801
4.5860 -0.4090 -2.0066 0.9801
4.5863 0.4130 -2.0069 0.9801
4.1519 1.9919 -2.0069 0.9801
3.7311 2.6980 -2.0067 0.9801
2.8820 3.5889 -2.0060 0.9801
1.8167 4.1977 -1.9934 0.9802
-0.1632 4.2430 -1.8506 0.9816
-2.1358 4.0496 -1.9953 0.9802
-2.4924 3.8484 -1.9982 0.9802
-3.4235 3.0512 -1.9986 0.9802
-3.9100 2.3929 -1.9978 0.9802
-4.1072 2.0340 -1.9975 0.9802
-1.5019 0.2915 -0.6668 0.9933
-1.5250 0.0197 -0.6647 0.9934
-1.5290 -0.1171 -0.6683 0.9933
-1.5060 -0.2521 -0.6655 0.9934
-4.1554 -1.9258 -1.9960 0.9802
-3.9671 -2.2891 -1.9961 0.9802
-3.7472 -2.6342 -1.9962 0.9802
-3.4974 -2.9584 -1.9964 0.9802
-3.2197 -3.2592 -1.9966 0.9802
-2.9164 -3.5340 -1.9969 0.9802
-1.8768 -4.1824 -1.9978 0.9802
-1.4963 -4.3340 -1.9982 0.9802
-1.1037 -4.4512 -1.9986 0.9802
-0.7021 -4.5329 -1.9991 0.9802
1.3274 -4.3964 -2.0015 0.9802
2.0890 -4.0923 -2.0024 0.9802
2.4465 -3.8905 -2.0029 0.9801
2.7847 -3.6574 -2.0034 0.9801
3.1007 -3.3950 -2.0038 0.9801
3.6565 -2.7908 -2.0047 0.9801
4.0960 -2.0969 -2.0054 0.9801
4.4049 -1.3357 -2.0061 0.9801
4.5071 -0.9373 -2.0063 0.9801
4.5733 -0.5313 -2.0065 0.9801
4.5956 0.2904 -2.0068 0.9801
4.5516 0.6995 -2.0069 0.9801
4.3548 1.4977 -2.0070 0.9801
3.8019 2.5975 -2.0067 0.9801
3.2788 3.2315 -2.0064 0.9801
2.6510 3.7616 -2.0056 0.9801
2.3001 3.9754 -2.0016 0.9802
1.5152 4.2059 -1.9483 0.9807
0.7116 4.2210 -1.8656 0.9815
0.3294 4.2347 -1.8511 0.9816
-1.2107 4.2121 -1.9100 0.9811
-1.6262 4.2020 -1.9637 0.9805
-2.3877 3.9117 -1.9973 0.9802
-3.0480 3.4281 -1.9992 0.9802
-3.6074 2.8303 -1.9983 0.9802
-3.8449 2.4965 -1.9979 0.9802
-4.2261 1.7725 -1.9972 0.9802
-1.5288 0.0606 -0.6668 0.9933
-1.5294 -0.0762 -0.6674 0.9933
-1.5164 -0.2124 -0.6673 0.9933
-1.5329 -0.3565 -0.6859 0.9932
-1.5862 -0.5219 -0.7277 0.9927
-4.2053 -1.8141 -1.9960 0.9802
-4.0267 -2.1823 -1.9961 0.9802
-3.3055 -3.1719 -1.9966 0.9802
-2.6895 -3.7101 -1.9971 0.9802
-1.9876 -4.1306 -1.9977 0.9802
-1.6113 -4.2923 -1.9981 0.9802
-1.2220 -4.4199 -1.9985 0.9802
1.2095 -4.4299 -2.0013 0.9802
1.9789 -4.1463 -2.0023 0.9802
3.0088 -3.4764 -2.0037 0.9801
3.5805 -2.8872 -2.0046 0.9801
4.2198 -1.8365 -2.0057 0.9801
4.3675 -1.4527 -2.0060 0.9801
4.4804 -1.0572 -2.0062 0.9801
4.5574 -0.6531 -2.0065 0.9801
4.5979 -0.2438 -2.0067 0.9801
4.5685 0.5777 -2.0069 0.9801
4.2523 1.7675 -2.0070 0.9801
4.0775 2.1399 -2.0069 0.9801
2.7509 3.6901 -2.0059 0.9801
2.4067 3.9148 -2.0028 0.9801
0.4427 4.2282 -1.8528 0.9816
-0.3157 4.2340 -1.8504 0.9816
-2.2814 3.9723 -1.9964 0.9802
-3.2562 3.2299 -1.9989 0.9802
-3.5308 2.9258 -1.9984 0.9802
-4.1775 1.8847 -1.9973 0.9802
-1.5923 0.5533 -0.7346 0.9927
-1.5451 0.3864 -0.6941 0.9931
-1.5103 0.2371 -0.6663 0.9934
-1.5737 -0.4717 -0.7160 0.9929
-3.8823 -2.4304 -1.9962 0.9802
-3.6501 -2.7674 -1.9963 0.9802
-3.1005 -3.3731 -1.9967 0.9802
-2.0971 -4.0758 -1.9976 0.9802
-1.7252 -4.2475 -1.9980 0.9802
-1.3394 -4.3854 -1.9984 0.9802
-0.9429 -4.4884 -1.9988 0.9802
-0.1298 -4.5866 -1.9997 0.9802
0.6881 -4.5388 -2.0007 0.9802
1.8674 -4.1974 -2.0021 0.9802
2.5852 -3.8003 -2.0031 0.9801
2.9147 -3.5552 -2.0036 0.9801
3.2211 -3.2815 -2.0040 0.9801
3.5019 -2.9816 -2.0044 0.9801
3.7549 -2.6576 -2.0048 0.9801
3.9778 -2.3123 -2.0052 0.9801
4.1691 -1.9483 -2.0056 0.9801
4.3270 -1.5687 -2.0059 0.9801
4.4504 -1.1764 -2.0062 0.9801
4.5896 -0.3664 -2.0066 0.9801
4.6044 0.0447 -2.0068 0.9801
4.4285 1.2632 -2.0070 0.9801
4.2980 1.6534 -2.0070 0.9801
3.7059 2.7326 -2.0067 0.9801
2.8485 3.6155 -2.0060 0.9801
2.5118 3.8514 -2.0039 0.9801
2.1540 4.0526 -2.0002 0.9802
1.7711 4.1990 -1.9861 0.9803
-1.3754 4.2085 -1.9296 0.9809
-1.8005 4.1970 -1.9904 0.9803
-2.8611 3.5863 -1.9994 0.9802
-3.1691 3.3159 -1.9990 0.9802
-3.9320 2.3564 -1.9978 0.9802
-1.5626 0.4354 -0.7070 0.9929
-1.4982 0.2763 -0.6640 0.9934
-1.5273 0.1425 -0.6685 0.9933
-1.5282 -0.1314 -0.6685 0.9933
-4.1374 -1.9643 -1.9960 0.9802
-3.9457 -2.3259 -1.9961 0.9802
-3.7226 -2.6690 -1.9963 0.9802
-3.4698 -2.9909 -1.9964 0.9802
-3.1893 -3.2890 -1.9967 0.9802
-2.8834 -3.5610 -1.9969 0.9802
-2.2050 -4.0182 -1.9975 0.9802
-1.8378 -4.1997 -1.9979 0.9802
-1.4559 -4.3478 -1.9983 0.9802
-1.0623 -4.4614 -1.9987 0.9802
-0.6599 -4.5394 -1.9991 0.9802
0.1578 -4.5865 -2.0000 0.9802
0.5667 -4.5552 -2.0005 0.9802
0.9712 -4.4875 -2.0010 0.9802
2.4826 -3.8676 -2.0030 0.9801
3.1322 -3.3661 -2.0039 0.9801
3.4209 -3.0738 -2.0043 0.9801
3.6824 -2.7567 -2.0047 0.9801
3.9145 -2.4175 -2.0051 0.9801
4.2834 -1.6835 -2.0058 0.9801
4.4172 -1.2947 -2.0061 0.9801
4.5157 -0.8953 -2.0063 0.9801
4.5927 0.3331 -2.0069 0.9801
4.5449 0.7418 -2.0069 0.9801
4.4606 1.1445 -2.0070 0.9801
3.5272 2.9592 -2.0065 0.9801
2.9441 3.5384 -2.0061 0.9801
1.8937 4.1747 -1.9978 0.9802
1.4715 4.2070 -1.9424 0.9807
1.0634 4.2157 -1.8948 0.9812
0.6714 4.2215 -1.8629 0.9815
-0.8543 4.2186 -1.8759 0.9814
-1.6708 4.2008 -1.9703 0.9805
-1.5774 0.4853 -0.7192 0.9928
-1.5221 0.1831 -0.6681 0.9933
-1.5278 0.0463 -0.6661 0.9934
-1.5131 -0.2263 -0.6668 0.9933
-1.5897 -0.5396 -0.7316 0.9927
-4.1883 -1.8532 -1.9960 0.9802
-4.0063 -2.2197 -1.9961 0.9802
-3.7924 -2.5686 -1.9962 0.9802
-3.5483 -2.8971 -1.9964 0.9802
-3.2759 -3.2026 -1.9966 0.9802
-2.9773 -3.4826 -1.9968 0.9802
-2.6549 -3.7350 -1.9971 0.9802
-1.9492 -4.1489 -1.9978 0.9802
-1.5714 -4.3072 -1.9982 0.9802
-0.7808 -4.5198 -1.9990 0.9802
0.4449 -4.5683 -2.0004 0.9802
1.2507 -4.4186 -2.0014 0.9802
2.3784 -3.9323 -2.0028 0.9801
2.7205 -3.7051 -2.0033 0.9801
3.0410 -3.4483 -2.0038 0.9801
3.8483 -2.5210 -2.0050 0.9801
4.0587 -2.1678 -2.0054 0.9801
4.2367 -1.7972 -2.0057 0.9801
4.3809 -1.4120 -2.0060 0.9801
4.4900 -1.0155 -2.0063 0.9801
4.6000 -0.2010 -2.0067 0.9801
4.2357 1.8069 -2.0070 0.9801
3.6050 2.8641 -2.0066 0.9801
3.0376 3.4586 -2.0062 0.9801
2.3698 3.9362 -2.0024 0.9802
1.5975 4.2038 -1.9599 0.9806
0.0240 4.2466 -1.8508 0.9816
-0.3551 4.2308 -1.8503 0.9816
-0.7379 4.2202 -1.8672 0.9815
-1.1322 4.2137 -1.9016 0.9811
-1.9540 4.1372 -1.9940 0.9802
-2.3186 3.9515 -1.9967 0.9802
-2.9880 3.4807 -1.9992 0.9802
-3.2861 3.1994 -1.9988 0.9802
-3.8010 2.5631 -1.9980 0.9802
-4.0139 2.2132 -1.9976 0.9802
-1.5890 0.5357 -0.7308 0.9927
-1.5139 0.2232 -0.6669 0.9933
-1.5296 0.0873 -0.6677 0.9933
-1.5280 -0.0495 -0.6663 0.9934
-1.5188 -0.3255 -0.6770 0.9932
-1.5784 -0.4891 -0.7202 0.9928
-4.0641 -2.1119 -1.9961 0.9802
-3.0691 -3.4018 -1.9968 0.9802
-2.7536 -3.6626 -1.9970 0.9802
-2.4160 -3.8944 -1.9973 0.9802
-1.2987 -4.3978 -1.9984 0.9802
-0.9011 -4.4971 -1.9989 0.9802
-0.0872 -4.5877 -1.9998 0.9802
1.5253 -4.3323 -2.0017 0.9802
1.9064 -4.1799 -2.0022 0.9802
2.6204 -3.7762 -2.0032 0.9801
3.2516 -3.2515 -2.0041 0.9801
3.5296 -2.9489 -2.0045 0.9801
4.3415 -1.5284 -2.0059 0.9801
4.4612 -1.1350 -2.0062 0.9801
4.5452 -0.7323 -2.0064 0.9801
4.6038 0.0876 -2.0068 0.9801
4.5153 0.9048 -2.0070 0.9801
3.9128 2.4275 -2.0068 0.9801
3.4183 3.0841 -2.0065 0.9801
3.1290 3.3765 -2.0062 0.9801
2.8147 3.6418 -2.0060 0.9801
2.4754 3.8738 -2.0035 0.9801
2.1158 4.0717 -1.9998 0.9802
1.3048 4.2109 -1.9213 0.9809
1.2440 4.1328 -1.9978 0.9812
