ply
format ascii 1.0
element vertex 1594
property float32 x
property float32 y
property float32 z
property float32 I
end_header
-4.3595 5.6631 -1.8504 0.9709
-5.3007 4.8000 -1.8515 0.9709
-5.7099 4.3086 -1.8521 0.9709
-7.4292 2.2064 -2.0066 0.9685
-7.5983 1.5344 -2.0070 0.9685
-7.6597 -1.2242 -2.0084 0.9685
-7.5206 -1.9036 -2.0086 0.9685
-7.3212 -2.5679 -2.0088 0.9685
-5.9589 -4.9693 -2.0090 0.9684
-5.4910 -5.4814 -2.0088 0.9685
-3.8403 -6.7388 -2.0082 0.9685
-3.2225 -7.0537 -2.0079 0.9685
-2.5792 -7.3121 -2.0076 0.9685
-1.9154 -7.5117 -2.0072 0.9685
-1.2366 -7.6511 -2.0067 0.9685
0.8353 -7.6993 -2.0052 0.9685
1.5192 -7.5918 -2.0046 0.9685
3.4743 -6.9113 -2.0028 0.9685
4.0764 -6.5713 -2.0022 0.9686
5.6674 -5.2508 -2.0004 0.9686
6.1120 -4.7222 -1.9998 0.9686
6.8508 -3.5575 -1.9987 0.9686
7.1393 -2.9306 -1.9982 0.9686
7.3707 -2.2807 -1.9977 0.9686
7.6556 -0.9326 -1.9968 0.9686
7.7069 -0.2450 -1.9965 0.9686
7.4930 1.8060 -1.9956 0.9687
7.0510 3.1099 -1.9953 0.9687
6.7303 3.7190 -1.9909 0.9687
5.8996 3.9866 -1.8436 0.9710
5.5201 4.4976 -1.8436 0.9710
5.0965 4.9729 -1.8437 0.9710
4.6324 5.4087 -1.8438 0.9710
3.0340 6.4456 -1.8445 0.9710
2.4466 6.6920 -1.8448 0.9710
1.2174 7.0234 -1.8456 0.9710
0.5854 7.1057 -1.8460 0.9710
-0.6885 7.1002 -1.8470 0.9710
-1.9419 6.8683 -1.8480 0.9709
-2.5483 6.6694 -1.8486 0.9709
-3.1347 6.4171 -1.8491 0.9709
-3.6965 6.1133 -1.8497 0.9709
-4.7281 5.3614 -1.8508 0.9709
-5.1896 4.9192 -1.8514 0.9709
-5.6099 4.4373 -1.8519 0.9709
-6.3918 4.1857 -1.9782 0.9689
-6.8328 3.6476 -2.0054 0.9685
-7.5609 1.7070 -2.0069 0.9685
-7.7473 -0.3586 -2.0081 0.9685
-7.3777 -2.4004 -2.0088 0.9685
-5.1135 -5.8345 -2.0087 0.9685
-4.5715 -6.2673 -2.0085 0.9685
-3.3826 -6.9788 -2.0080 0.9685
-2.7453 -7.2517 -2.0076 0.9685
-1.4107 -7.6214 -2.0068 0.9685
-0.0322 -7.7470 -2.0059 0.9685
0.6596 -7.7169 -2.0053 0.9685
1.3459 -7.6250 -2.0048 0.9685
2.0209 -7.4722 -2.0042 0.9685
3.3161 -6.9892 -2.0030 0.9685
4.5039 -6.2839 -2.0018 0.9686
5.5467 -5.3790 -2.0005 0.9686
6.0032 -4.8606 -2.0000 0.9686
6.4115 -4.3038 -1.9994 0.9686
7.3173 -2.4483 -1.9978 0.9686
7.6996 -0.4206 -1.9965 0.9686
7.7051 0.2687 -1.9962 0.9686
7.5324 1.6349 -1.9957 0.9687
6.8218 3.5692 -1.9934 0.9687
5.2085 4.8554 -1.8437 0.9710
3.7360 6.0642 -1.8442 0.9710
3.1799 6.3745 -1.8444 0.9710
2.5983 6.6342 -1.8447 0.9710
1.9958 6.8410 -1.8451 0.9710
1.3771 6.9934 -1.8455 0.9710
0.7471 7.0901 -1.8459 0.9710
0.1109 7.1302 -1.8464 0.9710
-0.5265 7.1135 -1.8469 0.9710
-1.1601 7.0400 -1.8474 0.9709
-1.7847 6.9102 -1.8479 0.9709
-2.9875 6.4863 -1.8490 0.9709
-3.5559 6.1955 -1.8496 0.9709
-4.0963 5.8549 -1.8501 0.9709
-4.6043 5.4673 -1.8507 0.9709
-5.0758 5.0358 -1.8513 0.9709
-6.7439 3.8001 -2.0043 0.9685
-7.0619 3.1851 -2.0058 0.9685
-7.3200 2.5423 -2.0063 0.9685
-7.5196 1.8788 -2.0068 0.9685
-7.6590 1.1999 -2.0072 0.9685
-7.7531 -0.1819 -2.0080 0.9685
-7.7071 -0.8738 -2.0083 0.9685
-6.9155 -3.5184 -2.0090 0.9684
-5.7352 -5.2256 -2.0089 0.9684
-5.2452 -5.7166 -2.0088 0.9685
-4.7133 -6.1617 -2.0086 0.9685
-4.1436 -6.5572 -2.0084 0.9685
-2.9100 -7.1876 -2.0077 0.9685
-0.8999 -7.6971 -2.0065 0.9685
-0.2088 -7.7448 -2.0060 0.9685
1.8503 -7.5168 -2.0043 0.9685
3.7733 -6.7513 -2.0025 0.9685
6.3122 -4.4491 -1.9995 0.9686
6.6825 -3.8665 -1.9990 0.9686
6.9993 -3.2533 -1.9984 0.9686
7.6059 -1.2806 -1.9970 0.9686
7.6693 0.7811 -1.9960 0.9686
7.5679 1.4628 -1.9957 0.9687
7.4062 2.1327 -1.9955 0.9687
6.4275 3.9290 -1.9505 0.9694
5.7192 4.2414 -1.8436 0.9710
5.3177 4.7354 -1.8436 0.9710
4.8738 5.1917 -1.8437 0.9710
4.3910 5.6068 -1.8439 0.9710
3.8731 5.9772 -1.8441 0.9710
2.7487 6.5729 -1.8447 0.9710
1.5360 6.9598 -1.8454 0.9710
0.2734 7.1254 -1.8463 0.9710
-0.3642 7.1232 -1.8467 0.9710
-0.9992 7.0641 -1.8472 0.9710
-2.2414 6.7775 -1.8483 0.9709
-2.8387 6.5522 -1.8489 0.9709
-3.4136 6.2744 -1.8494 0.9709
-3.9615 5.9463 -1.8500 0.9709
-5.4010 4.6876 -1.8517 0.9709
-5.8174 4.2004 -1.8578 0.9708
-7.7230 0.6873 -2.0075 0.9685
-7.7247 -0.6979 -2.0082 0.9685
-7.6325 -1.3853 -2.0085 0.9685
-7.4790 -2.0616 -2.0087 0.9685
-6.6660 -3.9712 -2.0090 0.9684
-6.2846 -4.5506 -2.0090 0.9684
-5.8529 -5.0936 -2.0089 0.9684
-4.2921 -6.4613 -2.0084 0.9685
0.9972 -7.6795 -2.0051 0.9685
1.6786 -7.5576 -2.0045 0.9685
4.2136 -6.4836 -2.0021 0.9686
5.2967 -5.6270 -2.0009 0.9686
6.2096 -4.5922 -1.9997 0.9686
7.1990 -2.7795 -1.9981 0.9686
7.4167 -2.1249 -1.9976 0.9686
7.6732 -0.7711 -1.9967 0.9686
7.7100 -0.0827 -1.9964 0.9686
7.6854 0.6062 -1.9961 0.9686
7.5995 1.2900 -1.9958 0.9687
7.2474 2.6210 -1.9954 0.9687
6.6429 3.8555 -1.9887 0.9688
5.8143 4.1100 -1.8436 0.9710
5.4242 4.6129 -1.8436 0.9710
4.5175 5.5051 -1.8439 0.9710
4.0082 5.8872 -1.8441 0.9710
2.8976 6.5083 -1.8446 0.9710
1.6941 6.9226 -1.8453 0.9710
-1.4678 6.9834 -1.8476 0.9709
-2.6884 6.6147 -1.8487 0.9709
-3.2694 6.3501 -1.8493 0.9709
-4.3497 5.6706 -1.8504 0.9709
-5.2924 4.8091 -1.8515 0.9709
-6.5464 4.0926 -1.9990 0.9686
-7.1957 2.8728 -2.0061 0.9685
-7.5956 1.5475 -2.0070 0.9685
-7.7383 -0.5217 -2.0081 0.9685
-7.5239 -1.8906 -2.0086 0.9685
-7.3256 -2.5553 -2.0088 0.9685
-6.7547 -3.8182 -2.0090 0.9684
-6.3867 -4.4062 -2.0090 0.9684
-5.9675 -4.9590 -2.0090 0.9684
-4.9894 -5.9408 -2.0087 0.9685
-2.5919 -7.3076 -2.0076 0.9685
-1.9284 -7.5084 -2.0072 0.9685
0.8220 -7.7008 -2.0052 0.9685
1.5061 -7.5945 -2.0046 0.9685
4.0651 -6.5784 -2.0022 0.9686
5.1675 -5.7467 -2.0010 0.9686
5.6584 -5.2606 -2.0004 0.9686
6.8447 -3.5694 -1.9987 0.9686
7.1343 -2.9430 -1.9982 0.9686
7.3668 -2.2935 -1.9977 0.9686
7.5405 -1.6260 -1.9972 0.9686
7.7064 -0.2584 -1.9965 0.9686
7.6975 0.4309 -1.9961 0.9686
7.0564 3.0977 -1.9953 0.9687
6.7373 3.7077 -1.9911 0.9687
5.5278 4.4881 -1.8436 0.9710
4.6417 5.4006 -1.8438 0.9710
4.1412 5.7942 -1.8440 0.9710
3.6076 6.1417 -1.8442 0.9710
3.0451 6.4403 -1.8445 0.9710
1.8513 6.8819 -1.8452 0.9710
0.5977 7.1046 -1.8460 0.9710
-0.0393 7.1314 -1.8465 0.9710
-1.3082 7.0145 -1.8475 0.9709
-2.5368 6.6737 -1.8486 0.9709
-3.1236 6.4224 -1.8491 0.9709
-5.1811 4.9281 -1.8514 0.9709
-5.6022 4.4470 -1.8519 0.9709
-6.3685 4.1863 -1.9733 0.9690
-6.8265 3.6594 -2.0054 0.9685
-7.1279 3.0359 -2.0060 0.9685
-7.7479 -0.3452 -2.0081 0.9685
-7.5648 -1.7186 -2.0086 0.9685
-7.1395 -3.0376 -2.0089 0.9684
-6.8399 -3.6633 -2.0090 0.9684
-5.6238 -5.3452 -2.0089 0.9685
-4.5823 -6.2594 -2.0085 0.9685
-2.7578 -7.2470 -2.0077 0.9685
-0.0456 -7.7470 -2.0059 0.9685
1.3327 -7.6274 -2.0048 0.9685
5.0356 -5.8634 -2.0012 0.9686
6.4041 -4.3149 -1.9994 0.9686
6.7620 -3.7246 -1.9988 0.9686
7.3131 -2.4609 -1.9978 0.9686
7.6989 -0.4339 -1.9965 0.9686
7.7056 0.2554 -1.9962 0.9686
7.6509 0.9425 -1.9959 0.9687
6.8287 3.5577 -1.9936 0.9687
5.6286 4.3609 -1.8436 0.9710
5.2168 4.8464 -1.8437 0.9710
3.7465 6.0577 -1.8442 0.9710
2.6098 6.6296 -1.8447 0.9710
1.3892 6.9910 -1.8455 0.9710
-0.5142 7.1144 -1.8468 0.9710
-1.1479 7.0420 -1.8474 0.9709
-2.3838 6.7293 -1.8484 0.9709
-2.9762 6.4915 -1.8490 0.9709
-5.0670 5.0445 -1.8512 0.9709
-5.4990 4.5732 -1.8518 0.9709
-6.0728 4.1931 -1.9108 0.9700
-6.7366 3.8114 -2.0040 0.9685
-7.3156 2.5549 -2.0063 0.9685
-7.6018 -1.5457 -2.0085 0.9685
-7.2068 -2.8741 -2.0089 0.9685
-6.9216 -3.5064 -2.0090 0.9684
-5.7443 -5.2157 -2.0089 0.9684
-5.2551 -5.7075 -2.0088 0.9685
-4.7239 -6.1535 -2.0086 0.9685
-4.1550 -6.5501 -2.0084 0.9685
-3.5528 -6.8940 -2.0081 0.9685
-2.2688 -7.4135 -2.0074 0.9685
-1.5972 -7.5849 -2.0070 0.9685
-0.9132 -7.6955 -2.0065 0.9685
-0.2222 -7.7444 -2.0060 0.9685
0.4703 -7.7313 -2.0055 0.9685
2.5008 -7.3238 -2.0038 0.9685
4.9010 -5.9771 -2.0013 0.9686
5.4136 -5.5138 -2.0007 0.9686
5.8827 -5.0068 -2.0001 0.9686
6.6758 -3.8781 -1.9990 0.9686
7.4594 -1.9681 -1.9975 0.9686
-6.0886 -3.6415 -2.0084 0.9709
-5.7390 -4.1707 -2.0084 0.9709
-4.9051 -5.1248 -2.0082 0.9709
-3.3700 -6.2399 -2.0076 0.9709
-2.7988 -6.5150 -2.0073 0.9710
-2.2053 -6.7378 -2.0070 0.9710
-1.5944 -6.9066 -2.0066 0.9710
-0.9710 -7.0199 -2.0062 0.9710
-0.3401 -7.0770 -2.0058 0.9710
0.2933 -7.0774 -2.0053 0.9710
0.9240 -7.0212 -2.0048 0.9710
1.5470 -6.9088 -2.0043 0.9710
3.3205 -6.2464 -2.0026 0.9710
3.8640 -5.9232 -2.0021 0.9710
4.8535 -5.1384 -2.0009 0.9710
5.2916 -4.6830 -2.0004 0.9711
5.6872 -4.1906 -1.9999 0.9711
6.3388 -3.1103 -1.9989 0.9711
6.5897 -2.5312 -1.9984 0.9711
7.0207 -0.6933 -1.9972 0.9711
7.0534 -0.0634 -1.9969 0.9711
7.0299 0.5667 -1.9966 0.9711
6.3842 2.9914 -1.9959 0.9711
4.9551 4.2288 -1.8441 0.9733
2.6406 5.9586 -1.8450 0.9733
1.5388 6.3355 -1.8457 0.9733
0.9670 6.4489 -1.8461 0.9733
-0.7777 6.4791 -1.8473 0.9732
-3.0004 5.8028 -1.8493 0.9732
-3.9872 5.1793 -1.8504 0.9732
-4.4350 4.8039 -1.8509 0.9732
-6.0104 3.7431 -2.0045 0.9710
-6.5846 2.6157 -2.0058 0.9710
-6.9479 1.4031 -2.0066 0.9710
-7.0892 0.1446 -2.0073 0.9710
-7.0748 -0.4892 -2.0076 0.9709
-7.0037 -1.1193 -2.0079 0.9709
-6.4579 -2.9366 -2.0083 0.9709
-5.0206 -5.0118 -2.0083 0.9709
-4.5526 -5.4398 -2.0081 0.9709
-2.3584 -6.6861 -2.0071 0.9710
-0.5013 -7.0678 -2.0059 0.9710
0.1320 -7.0827 -2.0054 0.9710
2.0033 -6.7891 -2.0039 0.9710
3.7283 -6.0101 -2.0022 0.9710
4.2490 -5.6515 -2.0016 0.9710
5.1838 -4.8027 -2.0005 0.9710
5.5906 -4.3194 -2.0000 0.9711
5.9525 -3.8018 -1.9995 0.9711
6.2667 -3.2542 -1.9990 0.9711
6.5307 -2.6808 -1.9985 0.9711
7.0034 -0.8531 -1.9973 0.9711
7.0504 -0.2242 -1.9969 0.9711
7.0412 0.4064 -1.9966 0.9711
6.9759 1.0335 -1.9964 0.9711
6.8550 1.6523 -1.9962 0.9711
6.6795 2.2577 -1.9960 0.9711
6.1707 3.4098 -1.9958 0.9711
5.0501 4.1148 -1.8441 0.9733
3.7794 5.3074 -1.8445 0.9733
3.2907 5.6244 -1.8447 0.9733
2.7756 5.8966 -1.8450 0.9733
1.6827 6.2985 -1.8456 0.9733
1.1137 6.4249 -1.8460 0.9733
0.5355 6.5001 -1.8464 0.9733
-0.6298 6.4947 -1.8472 0.9732
-1.7762 6.2823 -1.8482 0.9732
-2.3308 6.1002 -1.8487 0.9732
-3.3808 5.5913 -1.8497 0.9732
-3.8678 5.2685 -1.8502 0.9732
-4.3241 4.9033 -1.8508 0.9732
-4.7461 4.4988 -1.8513 0.9732
-5.2859 4.1811 -1.9079 0.9724
-5.9165 3.8745 -2.0021 0.9710
-6.5229 2.7649 -2.0056 0.9710
-6.9138 1.5609 -2.0065 0.9710
-7.0269 0.9374 -2.0069 0.9710
-7.0838 0.3061 -2.0072 0.9710
-6.9142 -1.5834 -2.0080 0.9709
-6.7457 -2.1948 -2.0082 0.9709
-6.5231 -2.7887 -2.0083 0.9709
-6.2482 -3.3603 -2.0084 0.9709
-5.5506 -4.4183 -2.0084 0.9709
-4.6755 -5.3348 -2.0082 0.9709
-1.9077 -6.8274 -2.0068 0.9710
-1.2900 -6.9691 -2.0064 0.9710
1.2308 -6.9731 -2.0045 0.9710
1.8482 -6.8335 -2.0040 0.9710
3.0328 -6.3921 -2.0029 0.9710
5.0734 -4.9200 -2.0007 0.9710
5.4910 -4.4460 -2.0001 0.9711
5.8647 -3.9367 -1.9996 0.9711
6.1913 -3.3963 -1.9991 0.9711
6.4683 -2.8291 -1.9986 0.9711
6.6936 -2.2396 -1.9982 0.9711
6.8655 -1.6324 -1.9977 0.9711
6.9825 -1.0125 -1.9974 0.9711
7.0438 -0.3848 -1.9970 0.9711
7.0489 0.2458 -1.9967 0.9711
6.9978 0.8743 -1.9964 0.9711
6.8910 1.4956 -1.9962 0.9711
6.7293 2.1050 -1.9960 0.9711
6.5140 2.6974 -1.9959 0.9711
5.1426 3.9986 -1.8441 0.9733
4.7651 4.4421 -1.8442 0.9733
3.4179 5.5478 -1.8447 0.9733
2.9091 5.8316 -1.8449 0.9733
2.3770 6.0691 -1.8452 0.9733
1.2597 6.3975 -1.8459 0.9733
0.6835 6.4858 -1.8463 0.9733
-0.4816 6.5070 -1.8471 0.9732
-1.0611 6.4396 -1.8476 0.9732
-2.7325 5.9327 -1.8491 0.9732
-3.2523 5.6665 -1.8496 0.9732
-3.7465 5.3549 -1.8501 0.9732
-4.2110 5.0003 -1.8506 0.9732
-5.0532 4.1877 -1.8579 0.9731
-6.1704 3.4770 -2.0050 0.9710
-7.0034 1.0972 -2.0068 0.9710
-7.0747 0.4674 -2.0072 0.9710
-7.0893 -0.1664 -2.0075 0.9710
-6.9483 -1.4254 -2.0080 0.9709
-6.7938 -2.0404 -2.0082 0.9709
-6.0106 -3.7689 -2.0084 0.9709
-5.2439 -4.7780 -2.0083 0.9709
-3.7888 -5.9957 -2.0078 0.9709
-1.4485 -6.9383 -2.0065 0.9710
-0.8229 -7.0385 -2.0061 0.9710
-0.1909 -7.0822 -2.0057 0.9710
0.4423 -7.0693 -2.0052 0.9710
1.0716 -6.9998 -2.0047 0.9710
2.2987 -6.6939 -2.0036 0.9710
3.4511 -6.1747 -2.0025 0.9710
4.9603 -5.0347 -2.0008 0.9710
5.3887 -4.5703 -2.0003 0.9711
6.9579 -1.1714 -1.9975 0.9711
7.0335 -0.5452 -1.9971 0.9711
7.0529 0.0851 -1.9968 0.9711
7.0162 0.7146 -1.9965 0.9711
6.7757 1.9511 -1.9961 0.9711
6.5739 2.5483 -1.9959 0.9711
6.0057 3.6712 -1.9927 0.9712
4.4589 4.7497 -1.8443 0.9733
4.0171 5.1294 -1.8444 0.9733
3.5433 5.4683 -1.8446 0.9733
1.9678 6.2147 -1.8454 0.9733
1.4051 6.3668 -1.8458 0.9733
0.8310 6.4682 -1.8462 0.9733
0.2501 6.5180 -1.8466 0.9732
-0.3332 6.5158 -1.8470 0.9732
-1.4879 6.3558 -1.8479 0.9732
-3.1221 5.7387 -1.8495 0.9732
-4.0956 5.0946 -1.8505 0.9732
-4.5355 4.7097 -1.8510 0.9732
-4.9394 4.2870 -1.8515 0.9732
-6.3894 3.0589 -2.0054 0.9710
-6.6386 2.4766 -2.0059 0.9710
-6.8348 1.8742 -2.0063 0.9710
-7.0910 -0.0048 -2.0074 0.9710
-7.0632 -0.6382 -2.0077 0.9709
-6.9788 -1.2666 -2.0079 0.9709
-6.8384 -1.8851 -2.0081 0.9709
-6.0949 -3.6310 -2.0084 0.9709
-3.9245 -5.9079 -2.0079 0.9709
-1.6064 -6.9038 -2.0066 0.9710
-0.3523 -7.0764 -2.0058 0.9710
0.9119 -7.0228 -2.0048 0.9710
1.5351 -6.9115 -2.0043 0.9710
2.1457 -6.7450 -2.0037 0.9710
2.7388 -6.5246 -2.0032 0.9710
5.6799 -4.2004 -1.9999 0.9711
6.0308 -3.6754 -1.9994 0.9711
6.5854 -2.5426 -1.9984 0.9711
6.7847 -1.9438 -1.9980 0.9711
7.0533 -0.0756 -1.9969 0.9711
7.0309 0.5546 -1.9966 0.9711
6.9524 1.1802 -1.9963 0.9711
6.8185 1.7962 -1.9961 0.9711
6.0946 3.5373 -1.9949 0.9711
2.6509 5.9540 -1.8450 0.9733
1.5498 6.3328 -1.8457 0.9733
-0.1846 6.5213 -1.8469 0.9732
-0.7665 6.4804 -1.8473 0.9732
-1.9082 6.2439 -1.8483 0.9732
-2.4589 6.0502 -1.8488 0.9732
-3.4981 5.5192 -1.8498 0.9732
-6.3176 3.2035 -2.0053 0.9710
-6.7899 2.0293 -2.0062 0.9710
-6.9455 1.4150 -2.0066 0.9710
-7.0454 0.7892 -2.0070 0.9710
-7.0056 -1.1072 -2.0079 0.9709
-6.6981 -2.3364 -2.0082 0.9709
-6.4630 -2.9255 -2.0083 0.9709
-6.1761 -3.4911 -2.0084 0.9709
-5.8396 -4.0288 -2.0084 0.9709
-5.4563 -4.5342 -2.0084 0.9709
-4.5620 -5.4319 -2.0081 0.9709
-3.5221 -6.1556 -2.0077 0.9709
-2.9578 -6.4447 -2.0074 0.9710
-2.3700 -6.6820 -2.0071 0.9710
-1.1429 -6.9944 -2.0063 0.9710
-0.5135 -7.0670 -2.0059 0.9710
0.7517 -7.0422 -2.0049 0.9710
1.9916 -6.7926 -2.0039 0.9710
2.5896 -6.5858 -2.0033 0.9710
3.1666 -6.3264 -2.0028 0.9710
3.7179 -6.0166 -2.0022 0.9710
6.8980 -1.4874 -1.9977 0.9711
7.0500 -0.2363 -1.9969 0.9711
6.4557 2.8340 -1.9959 0.9711
6.1766 3.3991 -1.9958 0.9711
5.0572 4.1060 -1.8441 0.9733
4.6705 4.5415 -1.8442 0.9733
3.7886 5.3008 -1.8445 0.9733
3.3004 5.6187 -1.8447 0.9733
2.7857 5.8918 -1.8450 0.9733
1.6936 6.2955 -1.8456 0.9733
0.5467 6.4991 -1.8463 0.9733
-0.6186 6.4958 -1.8472 0.9732
-1.1966 6.4162 -1.8477 0.9732
-1.7653 6.2853 -1.8482 0.9732
-2.3203 6.1042 -1.8487 0.9732
-2.8570 5.8742 -1.8492 0.9732
-3.3712 5.5971 -1.8497 0.9732
-3.8587 5.2751 -1.8502 0.9732
-4.3156 4.9108 -1.8508 0.9732
-4.7383 4.5070 -1.8513 0.9732
-5.2678 4.1815 -1.9040 0.9724
-6.2426 3.3464 -2.0051 0.9710
-6.5181 2.7762 -2.0056 0.9710
-6.9111 1.5729 -2.0065 0.9710
-7.0253 0.9495 -2.0069 0.9710
-7.0832 0.3183 -2.0072 0.9710
-7.0844 -0.3157 -2.0075 0.9709
-7.0289 -0.9473 -2.0078 0.9709
-6.9169 -1.5714 -2.0080 0.9709
-6.5279 -2.7774 -2.0083 0.9709
-6.2540 -3.3494 -2.0084 0.9709
-5.5583 -4.4087 -2.0084 0.9709
-1.3020 -6.9669 -2.0064 0.9710
-0.6744 -7.0539 -2.0060 0.9710
0.5910 -7.0580 -2.0051 0.9710
1.2187 -6.9752 -2.0046 0.9710
1.8364 -6.8367 -2.0040 0.9710
2.4390 -6.6435 -2.0035 0.9710
4.1095 -5.7545 -2.0018 0.9710
4.6057 -5.3629 -2.0012 0.9710
5.0649 -4.9288 -2.0007 0.9710
5.8579 -3.9469 -1.9996 0.9711
6.4634 -2.8403 -1.9986 0.9711
6.6898 -2.2512 -1.9982 0.9711
7.0493 0.2336 -1.9967 0.9711
6.7330 2.0933 -1.9960 0.9711
6.2525 3.2575 -1.9958 0.9711
5.9211 3.7930 -1.9907 0.9712
5.1515 3.9912 -1.8448 0.9733
4.7727 4.4338 -1.8442 0.9733
4.3579 4.8427 -1.8443 0.9733
3.9083 5.2130 -1.8445 0.9733
2.9192 5.8266 -1.8449 0.9733
2.3875 6.0649 -1.8452 0.9733
1.8366 6.2550 -1.8455 0.9733
-0.4703 6.5078 -1.8471 0.9732
-1.0500 6.4414 -1.8476 0.9732
-2.7222 5.9374 -1.8491 0.9732
-3.7372 5.3613 -1.8501 0.9732
-4.2023 5.0075 -1.8506 0.9732
-4.6340 4.6134 -1.8511 0.9732
-5.8124 4.0133 -1.9996 0.9711
-6.8731 1.7299 -2.0064 0.9710
-7.0895 -0.1541 -2.0075 0.9710
-5.6573 -4.2809 -2.0084 0.9709
-3.7991 -5.9891 -2.0078 0.9709
-3.2486 -6.3037 -2.0076 0.9709
-2.0746 -6.7789 -2.0069 0.9710
-0.2032 -7.0819 -2.0057 0.9710
2.2871 -6.6979 -2.0036 0.9710
3.9776 -5.8470 -2.0019 0.9710
5.7668 -4.0796 -1.9998 0.9711
6.8237 -1.8004 -1.9979 0.9711
-5.2809 -3.8377 -2.0079 0.9731
-4.5135 -4.7157 -2.0077 0.9731
-3.1010 -5.7419 -2.0072 0.9731
-2.0294 -6.2002 -2.0066 0.9731
-0.8935 -6.4600 -2.0059 0.9731
-0.3129 -6.5127 -2.0055 0.9731
0.2699 -6.5132 -2.0050 0.9731
0.8504 -6.4616 -2.0046 0.9731
1.4238 -6.3583 -2.0041 0.9731
1.9855 -6.2042 -2.0036 0.9731
4.4673 -4.7295 -2.0010 0.9731
6.0660 -2.3300 -1.9987 0.9732
6.3813 -1.2131 -1.9979 0.9732
6.4933 -0.0584 -1.9973 0.9732
6.3985 1.0975 -1.9968 0.9732
5.8774 2.7539 -1.9964 0.9732
4.6758 3.9904 -1.8907 0.9746
4.1960 4.2852 -1.8447 0.9752
3.3672 4.9642 -1.8450 0.9752
1.4166 5.8322 -1.8460 0.9752
0.3565 5.9935 -1.8467 0.9752
-0.7159 5.9640 -1.8476 0.9752
-1.2460 5.8776 -1.8480 0.9752
-1.7664 5.7442 -1.8484 0.9752
-2.2729 5.5649 -1.8489 0.9752
-4.0818 4.4213 -1.8508 0.9751
-4.6047 4.1697 -1.9107 0.9743
-5.1921 3.9179 -2.0006 0.9731
-5.8191 2.9381 -2.0050 0.9731
-6.3937 1.2911 -2.0063 0.9731
-6.5235 0.1330 -2.0069 0.9731
-6.5102 -0.4502 -2.0072 0.9731
-6.4447 -1.0300 -2.0074 0.9731
-6.1597 -2.1605 -2.0077 0.9731
-5.6774 -3.2222 -2.0079 0.9731
-5.0135 -4.1808 -2.0079 0.9731
-4.6198 -4.6117 -2.0078 0.9731
-3.2312 -5.6699 -2.0072 0.9731
-2.7115 -5.9351 -2.0070 0.9731
-2.1702 -6.1526 -2.0067 0.9731
-1.6118 -6.3208 -2.0064 0.9731
-1.0406 -6.4383 -2.0060 0.9731
1.2786 -6.3895 -2.0042 0.9731
2.9244 -5.8175 -2.0027 0.9731
3.4315 -5.5317 -2.0022 0.9731
4.3587 -4.8304 -2.0012 0.9731
5.1459 -3.9759 -2.0002 0.9732
5.7685 -2.9955 -1.9992 0.9732
6.2068 -1.9206 -1.9984 0.9732
6.3523 -1.3583 -1.9980 0.9732
6.4471 -0.7854 -1.9977 0.9732
6.4821 0.3741 -1.9971 0.9732
6.4220 0.9515 -1.9968 0.9732
6.1492 2.0785 -1.9965 0.9732
5.3720 3.6300 -1.9942 0.9732
4.8802 3.9763 -1.9362 0.9740
3.9015 4.5553 -1.8448 0.9752
3.4794 4.8860 -1.8449 0.9752
2.5551 5.4284 -1.8454 0.9752
2.0604 5.6357 -1.8456 0.9752
1.5491 5.7982 -1.8459 0.9752
1.0252 5.9144 -1.8463 0.9752
-0.0434 6.0049 -1.8470 0.9752
-0.5797 5.9784 -1.8474 0.9752
-2.1454 5.6149 -1.8488 0.9752
-2.6390 5.4022 -1.8493 0.9752
-3.1117 5.1462 -1.8497 0.9751
-3.5599 4.8490 -1.8502 0.9751
-5.0962 4.0310 -1.9986 0.9732
-5.7503 3.0697 -2.0049 0.9731
-6.0028 2.5444 -2.0054 0.9731
-6.4663 0.8626 -2.0065 0.9731
-6.5185 0.2816 -2.0068 0.9731
-6.5186 -0.3017 -2.0071 0.9731
-6.4663 -0.8828 -2.0074 0.9731
-6.3623 -1.4570 -2.0076 0.9731
-5.7493 -3.0920 -2.0079 0.9731
-5.1075 -4.0655 -2.0079 0.9731
-4.7238 -4.5053 -2.0078 0.9731
-4.3023 -4.9089 -2.0077 0.9731
-3.8463 -5.2731 -2.0075 0.9731
-3.3596 -5.5950 -2.0073 0.9731
-2.8461 -5.8720 -2.0071 0.9731
-1.7555 -6.2827 -2.0064 0.9731
-1.1871 -6.4132 -2.0061 0.9731
1.1327 -6.4173 -2.0043 0.9731
1.7009 -6.2890 -2.0039 0.9731
2.2553 -6.1104 -2.0034 0.9731
4.6698 -4.5286 -2.0008 0.9731
5.0543 -4.0924 -2.0003 0.9732
6.3200 -1.5028 -1.9981 0.9732
6.4422 0.8049 -1.9969 0.9732
6.3439 1.3769 -1.9967 0.9732
5.4587 3.5102 -1.9962 0.9732
5.0946 3.9613 -1.9849 0.9734
4.0042 4.4652 -1.8447 0.9752
3.1465 5.1073 -1.8451 0.9752
2.6781 5.3685 -1.8453 0.9752
2.1882 5.5871 -1.8456 0.9752
1.1597 5.8892 -1.8462 0.9752
0.6292 5.9704 -1.8465 0.9752
0.0934 6.0040 -1.8469 0.9752
-1.5026 5.8180 -1.8482 0.9752
-2.9935 5.2155 -1.8496 0.9751
-3.4482 4.9285 -1.8501 0.9751
-3.8756 4.6021 -1.8506 0.9751
-4.9979 4.1419 -1.9965 0.9732
-5.6785 3.1998 -2.0048 0.9731
-6.1599 2.1394 -2.0057 0.9731
-6.5102 0.4301 -2.0068 0.9731
-6.5235 -0.1531 -2.0070 0.9731
-6.0592 -2.4286 -2.0078 0.9731
-5.5307 -3.4680 -2.0079 0.9731
-4.8253 -4.3965 -2.0078 0.9731
-3.9656 -5.1842 -2.0076 0.9731
-2.4485 -6.0478 -2.0068 0.9731
-1.3330 -6.3848 -2.0062 0.9731
-0.7573 -6.4771 -2.0058 0.9731
-0.1757 -6.5175 -2.0054 0.9731
0.4070 -6.5057 -2.0049 0.9731
1.5573 -6.3265 -2.0040 0.9731
2.1156 -6.1606 -2.0035 0.9731
4.9601 -4.2067 -2.0004 0.9731
5.8936 -2.7394 -1.9990 0.9732
6.1135 -2.2016 -1.9986 0.9732
6.4052 -1.0784 -1.9978 0.9732
6.4928 0.0784 -1.9972 0.9732
6.0520 2.3460 -1.9964 0.9732
4.4956 4.0033 -1.8515 0.9751
1.2935 5.8610 -1.8461 0.9752
0.7650 5.9542 -1.8464 0.9752
0.2302 6.0000 -1.8468 0.9752
-0.3067 5.9979 -1.8472 0.9752
-1.3696 5.8504 -1.8481 0.9752
-1.8871 5.7061 -1.8486 0.9752
-2.3898 5.5161 -1.8490 0.9752
-3.3348 5.0055 -1.8500 0.9751
-3.7695 4.6889 -1.8505 0.9751
-5.6038 3.3282 -2.0047 0.9731
-5.8800 2.8150 -2.0051 0.9731
-6.1092 2.2791 -2.0056 0.9731
-6.2896 1.7247 -2.0060 0.9731
-6.5251 -0.0044 -2.0070 0.9731
-6.4995 -0.5872 -2.0072 0.9731
-6.4217 -1.1655 -2.0075 0.9731
-6.2925 -1.7346 -2.0076 0.9731
-6.1129 -2.2898 -2.0078 0.9731
-5.2875 -3.8286 -2.0079 0.9731
-4.9243 -4.2855 -2.0078 0.9731
-4.0828 -5.0926 -2.0076 0.9731
-3.1109 -5.7365 -2.0072 0.9731
-1.4782 -6.3531 -2.0063 0.9731
-0.9047 -6.4585 -2.0059 0.9731
0.2587 -6.5137 -2.0050 0.9731
0.8392 -6.4631 -2.0046 0.9731
1.4128 -6.3608 -2.0041 0.9731
1.9748 -6.2076 -2.0036 0.9731
2.5207 -6.0049 -2.0031 0.9731
3.0461 -5.7543 -2.0026 0.9731
5.2282 -3.8664 -2.0001 0.9732
6.2456 -1.7894 -1.9983 0.9732
6.3792 -1.2242 -1.9979 0.9732
6.4620 -0.6494 -1.9976 0.9732
6.4004 1.0865 -1.9968 0.9732
5.8822 2.7437 -1.9964 0.9732
5.6135 3.2581 -1.9963 0.9732
5.2896 3.7390 -1.9924 0.9733
3.8048 4.6366 -1.8448 0.9752
2.9197 5.2406 -1.8452 0.9752
1.4267 5.8297 -1.8460 0.9752
0.9004 5.9350 -1.8464 0.9752
-1.2358 5.8797 -1.8480 0.9752
-2.7523 5.3458 -1.8494 0.9752
-3.2196 5.0799 -1.8499 0.9751
-3.6614 4.7733 -1.8503 0.9751
-4.0741 4.4283 -1.8508 0.9751
-5.1849 3.9265 -2.0005 0.9731
-5.8140 2.9481 -2.0050 0.9731
-6.0554 2.4176 -2.0055 0.9731
-6.2484 1.8675 -2.0059 0.9731
-6.3914 1.3022 -2.0062 0.9731
-6.4833 0.7262 -2.0066 0.9731
-6.5110 -0.4390 -2.0072 0.9731
-6.4465 -1.0188 -2.0074 0.9731
-6.3303 -1.5907 -2.0076 0.9731
-6.1634 -2.1499 -2.0077 0.9731
-5.9470 -2.6919 -2.0078 0.9731
-5.6830 -3.2124 -2.0079 0.9731
-5.3734 -3.7071 -2.0079 0.9731
-5.0207 -4.1722 -2.0079 0.9731
-3.2410 -5.6643 -2.0073 0.9731
0.6918 -6.4809 -2.0047 0.9731
1.8329 -6.2514 -2.0037 0.9731
2.9144 -5.8226 -2.0027 0.9731
3.4219 -5.5376 -2.0022 0.9731
3.9018 -5.2085 -2.0017 0.9731
4.3503 -4.8379 -2.0012 0.9731
5.1391 -3.9848 -2.0002 0.9732
5.4731 -3.5090 -1.9997 0.9732
6.0074 -2.4782 -1.9988 0.9732
6.2035 -1.9313 -1.9984 0.9732
6.3500 -1.3693 -1.9980 0.9732
6.4458 -0.7965 -1.9977 0.9732
6.4827 0.3629 -1.9971 0.9732
6.4237 0.9404 -1.9968 0.9732
5.9432 2.6090 -1.9964 0.9732
5.6863 3.1293 -1.9963 0.9732
5.3786 3.6210 -1.9943 0.9732
4.8961 3.9752 -1.9398 0.9740
4.2998 4.1810 -1.8447 0.9752
0.5033 5.9826 -1.8466 0.9752
-0.5694 5.9793 -1.8474 0.9752
-1.1014 5.9060 -1.8479 0.9752
-2.1357 5.6185 -1.8488 0.9752
-3.1028 5.1516 -1.8497 0.9751
-3.5514 4.8551 -1.8502 0.9751
-5.4457 3.5796 -2.0044 0.9731
-5.7450 3.0797 -2.0049 0.9731
-5.9984 2.5548 -2.0053 0.9731
-6.4648 0.8738 -2.0065 0.9731
-6.2107 -2.0088 -2.0077 0.9731
-5.4565 -3.5837 -2.0079 0.9731
-4.7316 -4.4971 -2.0078 0.9731
-4.3107 -4.9015 -2.0077 0.9731
-2.8563 -5.8670 -2.0071 0.9731
-2.3205 -6.0978 -2.0068 0.9731
-0.0384 -6.5194 -2.0053 0.9731
0.5439 -6.4954 -2.0048 0.9731
1.1216 -6.4193 -2.0044 0.9731
2.2447 -6.1143 -2.0034 0.9731
2.7811 -5.8879 -2.0029 0.9731
4.2392 -4.9362 -2.0013 0.9731
4.6620 -4.5366 -2.0008 0.9731
5.0473 -4.1011 -2.0003 0.9732
5.3921 -3.6331 -1.9998 0.9732
5.6937 -3.1362 -1.9994 0.9732
5.9497 -2.6145 -1.9989 0.9732
6.1582 -2.0723 -1.9985 0.9732
6.4262 -0.9432 -1.9977 0.9732
6.4837 -0.3654 -1.9974 0.9732
6.3463 1.3660 -1.9967 0.9732
5.7561 2.9989 -1.9963 0.9732
4.3939 4.0819 -1.8446 0.9752
4.0119 4.4582 -1.8447 0.9752
3.5980 4.7991 -1.8449 0.9752
2.1978 5.5833 -1.8456 0.9752
1.1698 5.8872 -1.8462 0.9752
0.6395 5.9693 -1.8465 0.9752
0.1038 6.0038 -1.8469 0.9752
-0.9665 5.9292 -1.8478 0.9752
-1.4926 5.8206 -1.8482 0.9752
-3.4397 4.9345 -1.8501 0.9751
-4.2649 4.2460 -1.8510 0.9751
-6.1562 2.1500 -2.0057 0.9731
-6.3248 1.5919 -2.0061 0.9731
-6.5094 0.4414 -2.0068 0.9731
-6.5238 -0.1418 -2.0070 0.9731
-6.4858 -0.7240 -2.0073 0.9731
-5.8234 -2.9501 -2.0079 0.9731
-5.5367 -3.4585 -2.0079 0.9731
-3.9745 -5.1773 -2.0076 0.9731
-3.4959 -5.5111 -2.0074 0.9731
-2.4590 -6.0436 -2.0069 0.9731
-1.9091 -6.2381 -2.0065 0.9731
0.3958 -6.5064 -2.0049 0.9731
0.9751 -6.4436 -2.0045 0.9731
2.6464 -5.9501 -2.0030 0.9731
3.1665 -5.6885 -2.0025 0.9731
3.6609 -5.3816 -2.0020 0.9731
4.9528 -4.2153 -2.0004 0.9731
5.8889 -2.7496 -1.9990 0.9732
6.1097 -2.2122 -1.9986 0.9732
-4.8854 -3.5503 -2.0075 0.9749
-4.5486 -3.9724 -2.0074 0.9749
-3.7689 -4.7178 -2.0072 0.9749
-2.8689 -5.3120 -2.0068 0.9749
-1.8775 -5.7362 -2.0063 0.9749
-1.3574 -5.8800 -2.0059 0.9749
-0.8267 -5.9767 -2.0056 0.9749
0.7868 -5.9784 -2.0044 0.9749
1.8371 -5.7405 -2.0035 0.9749
2.3419 -5.5521 -2.0030 0.9749
2.8278 -5.3195 -2.0025 0.9749
3.2908 -5.0445 -2.0021 0.9749
4.1338 -4.3765 -2.0011 0.9749
4.5071 -3.9888 -2.0007 0.9749
5.1426 -3.1219 -1.9998 0.9750
5.9056 -1.1227 -1.9982 0.9750
5.9218 1.0158 -1.9972 0.9750
5.8069 1.5405 -1.9970 0.9750
5.4396 2.5488 -1.9968 0.9750
5.1901 3.0243 -1.9968 0.9750
4.8992 3.4758 -1.9968 0.9750
3.5139 4.2973 -1.8452 0.9769
1.3110 5.3975 -1.8463 0.9769
0.8238 5.4939 -1.8466 0.9769
-0.1668 5.5550 -1.8473 0.9768
-0.6625 5.5190 -1.8477 0.9768
-1.1530 5.4390 -1.8481 0.9768
-1.6346 5.3155 -1.8486 0.9768
-2.1033 5.1495 -1.8490 0.9768
-2.5554 4.9422 -1.8494 0.9768
-3.3955 4.4108 -1.8503 0.9768
-3.8431 4.1627 -1.8832 0.9764
-4.4551 4.0343 -1.9978 0.9750
-4.8123 3.6313 -2.0039 0.9749
-5.1185 3.1877 -2.0044 0.9749
-5.3839 2.7183 -2.0048 0.9749
-5.9152 1.1945 -2.0059 0.9749
-5.9992 0.6615 -2.0063 0.9749
-5.8538 -1.4817 -2.0072 0.9749
-5.4974 -2.4998 -2.0074 0.9749
-5.2522 -2.9809 -2.0075 0.9749
-4.9650 -3.4381 -2.0075 0.9749
-4.2739 -4.2664 -2.0074 0.9749
-3.8755 -4.6308 -2.0072 0.9749
-2.5085 -5.4908 -2.0066 0.9749
-2.0078 -5.6921 -2.0063 0.9749
-1.4911 -5.8478 -2.0060 0.9749
-0.4268 -6.0176 -2.0053 0.9749
0.1124 -6.0305 -2.0049 0.9749
0.6504 -5.9951 -2.0045 0.9749
2.7060 -5.3829 -2.0027 0.9749
3.1752 -5.1185 -2.0022 0.9749
3.6188 -4.8133 -2.0017 0.9749
4.0332 -4.4698 -2.0012 0.9749
4.4153 -4.0907 -2.0008 0.9749
4.7619 -3.6792 -2.0003 0.9750
5.0704 -3.2385 -1.9999 0.9750
5.3382 -2.7721 -1.9994 0.9750
5.7440 -1.7774 -1.9987 0.9750
5.8788 -1.2570 -1.9983 0.9750
5.8406 1.4078 -1.9970 0.9750
5.4963 2.4242 -1.9968 0.9750
5.2577 2.9053 -1.9968 0.9750
4.9772 3.3633 -1.9967 0.9750
4.1031 4.0035 -1.9056 0.9761
3.6109 4.2160 -1.8452 0.9769
3.2201 4.5220 -1.8453 0.9769
1.9068 5.2157 -1.8460 0.9769
0.9488 5.4735 -1.8465 0.9769
-0.0402 5.5571 -1.8472 0.9768
-0.5365 5.5324 -1.8476 0.9768
-1.9852 5.1957 -1.8489 0.9768
-2.4419 4.9989 -1.8493 0.9768
-2.8793 4.7619 -1.8497 0.9768
-4.3581 4.1310 -1.9961 0.9750
-4.7267 3.7387 -2.0033 0.9749
-5.0442 3.3033 -2.0043 0.9749
-5.3203 2.8402 -2.0047 0.9749
-5.5538 2.3541 -2.0051 0.9749
-6.0306 0.2606 -2.0065 0.9749
-5.9822 -0.8167 -2.0070 0.9749
-5.8859 -1.3479 -2.0071 0.9749
-5.5528 -2.3739 -2.0074 0.9749
-5.3188 -2.8604 -2.0075 0.9749
-3.9801 -4.5413 -2.0073 0.9749
-3.5583 -4.8783 -2.0071 0.9749
-1.6241 -5.8125 -2.0061 0.9749
-1.0983 -5.9333 -2.0058 0.9749
-0.5638 -6.0066 -2.0054 0.9749
1.0480 -5.9375 -2.0042 0.9749
1.5738 -5.8189 -2.0037 0.9749
2.5827 -5.4435 -2.0028 0.9749
3.0579 -5.1898 -2.0023 0.9749
4.3212 -4.1905 -2.0009 0.9749
5.8488 -1.3907 -1.9984 0.9750
6.0056 0.2094 -1.9975 0.9750
5.7336 1.7935 -1.9969 0.9750
5.3226 2.7847 -1.9968 0.9750
5.0525 3.2490 -1.9967 0.9750
4.7357 3.6822 -1.9940 0.9750
4.2815 3.9913 -1.9457 0.9756
2.9121 4.7267 -1.8454 0.9769
2.4785 4.9685 -1.8456 0.9769
2.0251 5.1707 -1.8459 0.9769
1.5554 5.3317 -1.8462 0.9769
1.0732 5.4502 -1.8465 0.9769
0.5822 5.5252 -1.8468 0.9769
0.0864 5.5562 -1.8471 0.9768
-0.9039 5.4853 -1.8479 0.9768
-1.3905 5.3838 -1.8483 0.9768
-1.8662 5.2393 -1.8488 0.9768
-2.3272 5.0529 -1.8492 0.9768
-4.6359 3.8419 -2.0014 0.9749
-5.2539 2.9605 -2.0046 0.9749
-5.4984 2.4799 -2.0050 0.9749
-5.6991 1.9793 -2.0054 0.9749
-5.8541 1.4627 -2.0058 0.9749
-6.0229 0.3979 -2.0064 0.9749
-5.9991 -0.6802 -2.0069 0.9749
-5.9149 -1.2134 -2.0071 0.9749
-5.1165 -3.2083 -2.0075 0.9749
-4.8095 -3.6524 -2.0075 0.9749
-3.6686 -4.7960 -2.0072 0.9749
-2.2652 -5.5951 -2.0065 0.9749
-0.7006 -5.9925 -2.0055 0.9749
-0.1626 -6.0300 -2.0051 0.9749
3.3961 -4.9738 -2.0020 0.9749
4.2248 -4.2882 -2.0010 0.9749
4.5899 -3.8928 -2.0005 0.9750
4.9181 -3.4665 -2.0001 0.9750
5.4541 -2.5351 -1.9992 0.9750
5.9923 -0.4645 -1.9978 0.9750
6.0090 0.0725 -1.9976 0.9750
5.9778 0.6089 -1.9973 0.9750
5.8989 1.1402 -1.9971 0.9750
5.7731 1.6624 -1.9970 0.9750
5.6012 2.1712 -1.9969 0.9750
5.3847 2.6627 -1.9968 0.9750
5.1253 3.1330 -1.9968 0.9750
4.8226 3.5765 -1.9958 0.9750
3.7991 4.0469 -1.8451 0.9769
3.4227 4.3704 -1.8452 0.9769
2.1424 5.1230 -1.8458 0.9769
1.6765 5.2946 -1.8461 0.9769
1.1971 5.4241 -1.8464 0.9769
0.7080 5.5103 -1.8467 0.9769
-0.7786 5.5041 -1.8478 0.9768
-1.2674 5.4138 -1.8482 0.9768
-2.2114 5.1043 -1.8491 0.9768
-2.6590 4.8876 -1.8495 0.9768
-3.0857 4.6317 -1.8500 0.9768
-5.1848 3.0793 -2.0045 0.9749
-5.4402 2.6045 -2.0049 0.9749
-5.8190 1.5956 -2.0057 0.9749
-6.0120 0.5350 -2.0063 0.9749
-6.0129 -0.5433 -2.0069 0.9749
-5.9409 -1.0783 -2.0071 0.9749
-5.6551 -2.1183 -2.0073 0.9749
-5.4435 -2.6151 -2.0074 0.9749
-5.1883 -3.0909 -2.0075 0.9749
-4.5555 -3.9645 -2.0074 0.9749
-4.1830 -4.3554 -2.0073 0.9749
-2.8780 -5.3071 -2.0068 0.9749
-2.3922 -5.5422 -2.0066 0.9749
-1.3676 -5.8777 -2.0060 0.9749
0.2393 -6.0265 -2.0048 0.9749
1.3072 -5.8852 -2.0040 0.9749
1.8272 -5.7437 -2.0035 0.9749
2.3323 -5.5562 -2.0030 0.9749
3.7191 -4.7357 -2.0016 0.9749
4.1263 -4.3836 -2.0011 0.9749
4.5002 -3.9966 -2.0007 0.9749
4.8381 -3.5779 -2.0002 0.9750
5.1372 -3.1308 -1.9998 0.9750
5.6100 -2.1660 -1.9989 0.9750
5.7799 -1.6559 -1.9986 0.9750
5.9037 -1.1329 -1.9982 0.9750
5.9803 -0.6010 -1.9979 0.9750
6.0093 -0.0644 -1.9976 0.9750
5.9903 0.4725 -1.9974 0.9750
5.9235 1.0055 -1.9972 0.9750
5.6493 2.0431 -1.9969 0.9750
4.9052 3.4673 -1.9968 0.9750
4.5623 3.8800 -1.9908 0.9751
3.9440 4.0139 -1.8706 0.9766
3.5213 4.2912 -1.8452 0.9769
2.7022 4.8501 -1.8455 0.9769
2.2585 5.0727 -1.8458 0.9769
1.3203 5.3952 -1.8463 0.9769
0.8333 5.4925 -1.8466 0.9769
-0.6529 5.5201 -1.8477 0.9768
-3.3879 4.4167 -1.8503 0.9768
-3.8301 4.1630 -1.8804 0.9764
-4.8060 3.6396 -2.0039 0.9749
-5.1130 3.1965 -2.0044 0.9749
-5.7809 1.7278 -2.0056 0.9749
-5.9131 1.2047 -2.0059 0.9749
-5.9981 0.6719 -2.0063 0.9749
-6.0350 0.1335 -2.0065 0.9749
-5.9638 -0.9426 -2.0070 0.9749
-5.7018 -1.9889 -2.0073 0.9749
-5.2574 -2.9718 -2.0075 0.9749
-4.9710 -3.4295 -2.0075 0.9749
-4.6447 -3.8597 -2.0074 0.9749
-4.2812 -4.2590 -2.0074 0.9749
-3.8835 -4.6240 -2.0072 0.9749
-3.4547 -4.9520 -2.0071 0.9749
-2.5180 -5.4865 -2.0066 0.9749
-2.0176 -5.6886 -2.0064 0.9749
-0.9730 -5.9549 -2.0057 0.9749
-0.4372 -6.0169 -2.0053 0.9749
0.1019 -6.0307 -2.0049 0.9749
0.6400 -5.9962 -2.0045 0.9749
1.1728 -5.9138 -2.0041 0.9749
2.2052 -5.6082 -2.0032 0.9749
3.1663 -5.1240 -2.0022 0.9749
4.4083 -4.0984 -2.0008 0.9749
5.0648 -3.2472 -1.9999 0.9750
5.3335 -2.7813 -1.9994 0.9750
5.5594 -2.2934 -1.9990 0.9750
5.7409 -1.7873 -1.9987 0.9750
5.8430 1.3977 -1.9971 0.9750
5.5005 2.4146 -1.9968 0.9750
3.2279 4.5164 -1.8453 0.9769
2.8119 4.7871 -1.8455 0.9769
2.3734 5.0197 -1.8457 0.9769
1.9158 5.2123 -1.8459 0.9769
0.9582 5.4718 -1.8465 0.9769
0.4658 5.5365 -1.8469 0.9769
-0.0306 5.5571 -1.8472 0.9768
-1.0193 5.4653 -1.8480 0.9768
-1.5036 5.3536 -1.8484 0.9768
-1.9762 5.1991 -1.8489 0.9768
-2.8711 4.7669 -1.8497 0.9768
-3.2861 4.4925 -1.8502 0.9768
-3.6751 4.1820 -1.8506 0.9768
-4.3507 4.1383 -1.9959 0.9750
-4.7199 3.7466 -2.0031 0.9749
-5.3153 2.8494 -2.0047 0.9749
-5.5497 2.3637 -2.0051 0.9749
-5.7397 1.8589 -2.0055 0.9749
-6.0310 -0.2687 -2.0067 0.9749
-5.9836 -0.8064 -2.0070 0.9749
-5.8882 -1.3377 -2.0071 0.9749
-5.7456 -1.8584 -2.0073 0.9749
-5.3237 -2.8512 -2.0075 0.9749
-4.3773 -4.1603 -2.0074 0.9749
-3.5667 -4.8721 -2.0071 0.9749
-3.1170 -5.1707 -2.0069 0.9749
-2.6425 -5.4278 -2.0067 0.9749
-1.1085 -5.9315 -2.0058 0.9749
-0.0355 -6.0318 -2.0050 0.9749
0.5033 -6.0096 -2.0046 0.9749
1.0377 -5.9394 -2.0042 0.9749
2.0770 -5.6574 -2.0033 0.9749
2.5734 -5.4480 -2.0028 0.9749
3.0489 -5.1951 -2.0023 0.9749
3.4999 -4.9009 -2.0018 0.9749
3.9227 -4.5676 -2.0014 0.9749
4.9898 -3.3620 -2.0000 0.9750
5.5060 -2.4196 -1.9991 0.9750
5.6990 -1.9178 -1.9988 0.9750
5.9472 -0.8729 -1.9981 0.9750
5.5542 2.2887 -1.9968 0.9750
5.3274 2.7755 -1.9968 0.9750
5.0581 3.2402 -1.9967 0.9750
4.7424 3.6743 -1.9942 0.9750
4.2953 3.9903 -1.9488 0.9756
3.7131 4.1261 -1.8451 0.9769
-0.4007 5.5436 -1.8475 0.9768
-0.8944 5.4868 -1.8479 0.9768
-1.3812 5.3862 -1.8483 0.9768
-1.8572 5.2425 -1.8488 0.9768
-2.3185 5.0569 -1.8492 0.9768
-2.7615 4.8308 -1.8496 0.9768
-3.1827 4.5659 -1.8501 0.9768
-4.1728 4.1542 -1.9572 0.9755
-4.6289 3.8496 -2.0012 0.9749
-4.9614 3.4258 -2.0042 0.9749
-5.4941 2.4894 -2.0050 0.9749
-5.6956 1.9892 -2.0054 0.9749
-5.8516 1.4728 -2.0058 0.9749
-5.9607 0.9444 -2.0061 0.9749
-6.0222 0.4083 -2.0064 0.9749
-5.9170 -1.2032 -2.0071 0.9749
-5.7864 -1.7270 -2.0073 0.9749
-5.3873 -2.7292 -2.0074 0.9749
-5.1221 -3.1995 -2.0075 0.9749
-4.4710 -4.0596 -2.0074 0.9749
-3.2342 -5.0985 -2.0070 0.9749
-2.7655 -5.3664 -2.0068 0.9749
-1.2435 -5.9049 -2.0059 0.9749
0.3662 -6.0198 -2.0047 0.9749
1.9476 -5.7036 -2.0034 0.9749
3.3875 -4.9797 -2.0020 0.9749
3.8178 -4.6561 -2.0015 0.9749
4.9121 -3.4750 -2.0001 0.9750
5.8133 -1.5338 -1.9985 0.9750
-4.5402 -3.2995 -2.0071 0.9764
-3.5027 -4.3845 -2.0068 0.9764
-1.7449 -5.3311 -2.0060 0.9765
-0.7683 -5.5548 -2.0054 0.9765
1.2244 -5.4680 -2.0038 0.9765
2.6284 -4.9446 -2.0025 0.9765
3.8426 -4.0682 -2.0012 0.9765
4.1897 -3.7079 -2.0008 0.9765
4.5032 -3.3182 -2.0003 0.9765
4.7806 -2.9021 -1.9999 0.9765
5.2186 -2.0045 -1.9992 0.9765
5.4902 -1.0437 -1.9985 0.9765
5.5607 -0.5491 -1.9982 0.9765
5.5683 0.4489 -1.9977 0.9765
5.5054 0.9443 -1.9975 0.9766
5.3986 1.4322 -1.9974 0.9766
5.2488 1.9085 -1.9972 0.9766
5.0572 2.3696 -1.9972 0.9766
3.8932 3.9759 -1.9899 0.9766
2.8972 4.2713 -1.8457 0.9783
2.5044 4.5134 -1.8458 0.9783
2.0915 4.7196 -1.8461 0.9783
1.6618 4.8881 -1.8463 0.9783
-0.6158 5.1305 -1.8479 0.9783
-3.7862 4.1010 -1.9960 0.9766
-4.4728 3.3751 -2.0038 0.9765
-4.7574 2.9628 -2.0042 0.9765
-5.0040 2.5265 -2.0046 0.9765
-5.2106 2.0699 -2.0050 0.9765
-5.5756 0.6148 -2.0060 0.9765
-5.4402 -1.3770 -2.0068 0.9764
-5.2958 -1.8575 -2.0070 0.9764
-4.6143 -3.1952 -2.0071 0.9764
-3.9719 -3.9650 -2.0070 0.9764
-2.7781 -4.8750 -2.0065 0.9764
-1.8660 -5.2902 -2.0060 0.9765
-1.3859 -5.4349 -2.0058 0.9765
-0.3967 -5.5929 -2.0051 0.9765
0.6045 -5.5722 -2.0043 0.9765
1.0995 -5.4948 -2.0039 0.9765
1.5856 -5.3735 -2.0035 0.9765
2.5152 -5.0035 -2.0026 0.9765
3.3638 -4.4741 -2.0017 0.9765
3.7491 -4.1549 -2.0013 0.9765
4.4266 -3.4201 -2.0004 0.9765
4.7134 -3.0105 -2.0000 0.9765
5.1719 -2.1230 -1.9993 0.9765
5.3399 -1.6523 -1.9989 0.9765
5.4652 -1.1686 -1.9986 0.9765
5.5469 -0.6757 -1.9983 0.9765
5.5843 -0.1776 -1.9980 0.9765
5.5772 0.3219 -1.9978 0.9765
5.5256 0.8186 -1.9976 0.9765
5.2910 1.7884 -1.9973 0.9766
3.4447 4.0220 -1.8937 0.9778
2.9937 4.2041 -1.8456 0.9783
1.3327 4.9885 -1.8465 0.9783
0.8820 5.0884 -1.8468 0.9783
0.4241 5.1477 -1.8471 0.9783
-0.0374 5.1659 -1.8474 0.9783
-1.4064 4.9742 -1.8485 0.9783
-2.2699 4.6467 -1.8493 0.9783
-2.6764 4.4263 -1.8498 0.9783
-3.0618 4.1705 -1.8502 0.9783
-3.6533 4.1426 -1.9752 0.9768
-4.0604 3.8488 -2.0007 0.9765
-4.3945 3.4760 -2.0037 0.9765
-4.6884 3.0703 -2.0041 0.9765
-5.1619 2.1880 -2.0049 0.9765
-5.5597 -0.7590 -2.0066 0.9764
-5.1606 -2.2062 -2.0070 0.9764
-4.9430 -2.6583 -2.0071 0.9764
-4.6859 -3.0892 -2.0071 0.9764
-4.3912 -3.4954 -2.0071 0.9764
-4.0613 -3.8735 -2.0070 0.9764
-3.3070 -4.5337 -2.0068 0.9764
-1.9862 -5.2465 -2.0061 0.9765
-1.5094 -5.4021 -2.0058 0.9765
-0.0233 -5.6062 -2.0048 0.9765
0.4774 -5.5848 -2.0044 0.9765
0.9741 -5.5187 -2.0040 0.9765
1.9396 -5.2551 -2.0032 0.9765
2.4007 -5.0598 -2.0027 0.9765
3.2611 -4.5499 -2.0019 0.9765
4.3478 -3.5203 -2.0005 0.9765
5.4374 -1.2929 -1.9987 0.9765
5.5303 -0.8020 -1.9983 0.9765
5.5790 -0.3048 -1.9981 0.9765
5.5833 0.1947 -1.9978 0.9765
5.5430 0.6925 -1.9976 0.9765
5.3305 1.6674 -1.9973 0.9766
4.9484 2.5890 -1.9971 0.9766
4.6973 3.0206 -1.9971 0.9766
4.4088 3.4281 -1.9971 0.9766
4.0761 3.7998 -1.9928 0.9766
3.0887 4.1347 -1.8456 0.9783
2.7073 4.3944 -1.8457 0.9783
2.3042 4.6191 -1.8459 0.9783
1.8827 4.8070 -1.8462 0.9783
1.4460 4.9567 -1.8464 0.9783
0.9977 5.0668 -1.8467 0.9783
0.5413 5.1365 -1.8470 0.9783
0.0804 5.1652 -1.8473 0.9783
-0.3814 5.1527 -1.8477 0.9783
-1.7348 4.8703 -1.8488 0.9783
-2.1633 4.6969 -1.8492 0.9783
-2.5747 4.4859 -1.8497 0.9783
-3.4922 4.1468 -1.9387 0.9772
-3.9684 3.9371 -1.9990 0.9765
-4.3139 3.5751 -2.0036 0.9765
-4.6170 3.1761 -2.0040 0.9765
-4.8832 2.7516 -2.0044 0.9765
-5.1104 2.3049 -2.0048 0.9765
-5.2968 1.8396 -2.0052 0.9765
-5.5414 0.8682 -2.0058 0.9765
-5.6090 -0.1316 -2.0064 0.9764
-5.5754 -0.6321 -2.0066 0.9764
-5.3748 -1.6143 -2.0069 0.9764
-5.2094 -2.0880 -2.0070 0.9764
-4.4697 -3.3944 -2.0071 0.9764
-4.1486 -3.7799 -2.0070 0.9764
-3.7942 -4.1352 -2.0069 0.9764
-3.4095 -4.4572 -2.0068 0.9764
-2.9975 -4.7435 -2.0066 0.9764
-2.5616 -4.9918 -2.0064 0.9764
-2.1053 -5.2000 -2.0062 0.9765
-1.6322 -5.3665 -2.0059 0.9765
-1.1462 -5.4900 -2.0056 0.9765
-0.6511 -5.5695 -2.0053 0.9765
-0.1511 -5.6044 -2.0049 0.9765
0.8481 -5.5397 -2.0041 0.9765
1.3392 -5.4407 -2.0037 0.9765
2.7319 -4.8879 -2.0024 0.9765
3.1568 -4.6233 -2.0020 0.9765
3.9272 -3.9861 -2.0011 0.9765
4.5718 -3.2225 -2.0002 0.9765
4.8404 -2.8007 -1.9998 0.9765
5.2595 -1.8941 -1.9991 0.9765
5.5108 -0.9278 -1.9984 0.9765
5.5708 -0.4319 -1.9981 0.9765
5.5574 0.5660 -1.9977 0.9765
5.3672 1.5455 -1.9973 0.9766
5.2074 2.0186 -1.9972 0.9766
5.0061 2.4755 -1.9972 0.9766
4.7650 2.9127 -1.9971 0.9766
4.4858 3.3267 -1.9971 0.9766
4.1648 3.7087 -1.9943 0.9766
2.4088 4.5652 -1.8459 0.9783
1.5585 4.9222 -1.8464 0.9783
1.1129 5.0425 -1.8466 0.9783
0.6581 5.1226 -1.8469 0.9783
0.1980 5.1618 -1.8473 0.9783
-0.7238 5.1167 -1.8480 0.9783
-1.1781 5.0326 -1.8483 0.9783
-1.6232 4.9083 -1.8487 0.9783
-2.0556 4.7447 -1.8491 0.9783
-2.8682 4.3052 -1.8500 0.9783
-3.3368 4.1507 -1.9045 0.9776
-4.5432 3.2804 -2.0039 0.9765
-5.5882 -0.5049 -2.0065 0.9764
-5.4101 -1.4913 -2.0069 0.9764
-4.5459 -3.2917 -2.0071 0.9764
-3.5102 -4.3785 -2.0068 0.9764
-2.6748 -4.9323 -2.0065 0.9764
-1.7541 -5.3281 -2.0060 0.9765
-0.2788 -5.5998 -2.0050 0.9765
0.2224 -5.6013 -2.0046 0.9765
0.7217 -5.5579 -2.0042 0.9765
1.2150 -5.4701 -2.0038 0.9765
1.6983 -5.3386 -2.0034 0.9765
2.1679 -5.1645 -2.0030 0.9765
3.0508 -4.6943 -2.0021 0.9765
4.7756 -2.9104 -1.9999 0.9765
5.2152 -2.0135 -1.9992 0.9765
5.5597 -0.5587 -1.9982 0.9765
5.5867 -0.0599 -1.9979 0.9765
5.5691 0.4393 -1.9977 0.9765
5.5070 0.9348 -1.9975 0.9766
5.4011 1.4228 -1.9974 0.9766
5.2521 1.8994 -1.9973 0.9766
4.5604 3.2236 -1.9971 0.9766
4.2514 3.6156 -1.9958 0.9766
3.9002 3.9694 -1.9900 0.9766
3.3076 4.0308 -1.8646 0.9781
2.5122 4.5091 -1.8458 0.9783
2.0996 4.7159 -1.8460 0.9783
1.6703 4.8853 -1.8463 0.9783
0.3156 5.1557 -1.8472 0.9783
-0.1462 5.1642 -1.8475 0.9783
-1.5109 4.9437 -1.8486 0.9783
-2.3674 4.5981 -1.8494 0.9783
-2.7692 4.3692 -1.8499 0.9783
-3.1866 4.1542 -1.8723 0.9780
-3.7789 4.1073 -1.9959 0.9766
-4.1437 3.7653 -2.0022 0.9765
-4.9996 2.5352 -2.0046 0.9765
-5.2070 2.0789 -2.0050 0.9765
-5.3728 1.6058 -2.0053 0.9765
-5.4957 1.1197 -2.0057 0.9765
-5.6088 0.1241 -2.0062 0.9764
-5.5981 -0.3774 -2.0065 0.9764
-5.4426 -1.3676 -2.0068 0.9764
-5.2990 -1.8484 -2.0070 0.9764
-5.1130 -2.3144 -2.0070 0.9764
-4.8860 -2.7619 -2.0071 0.9764
-4.6198 -3.1872 -2.0071 0.9764
-4.3166 -3.5870 -2.0071 0.9764
-3.6092 -4.2974 -2.0069 0.9764
-3.2107 -4.6022 -2.0067 0.9764
-1.8752 -5.2869 -2.0060 0.9765
0.5949 -5.5732 -2.0043 0.9765
1.0900 -5.4967 -2.0039 0.9765
2.5066 -5.0078 -2.0026 0.9765
4.0978 -3.8097 -2.0009 0.9765
4.7082 -3.0186 -2.0000 0.9765
5.3370 -1.6615 -1.9989 0.9765
5.5457 -0.6853 -1.9983 0.9765
5.5778 0.3123 -1.9978 0.9765
5.2941 1.7793 -1.9973 0.9766
4.8927 2.6926 -1.9971 0.9766
4.6327 3.1188 -1.9971 0.9766
3.4561 4.0212 -1.8962 0.9777
1.3414 4.9862 -1.8465 0.9783
-0.9475 5.0805 -1.8482 0.9783
-1.8370 4.8329 -1.8489 0.9783
-3.0545 4.1758 -1.8502 0.9783
-3.6408 4.1430 -1.9724 0.9768
-4.0535 3.8556 -2.0006 0.9765
-4.3885 3.4836 -2.0037 0.9765
-4.6831 3.0784 -2.0041 0.9765
-4.9403 2.6483 -2.0045 0.9765
-5.3346 1.7277 -2.0053 0.9765
-5.4685 1.2446 -2.0056 0.9765
-5.6051 -0.2497 -2.0064 0.9764
-5.4723 -1.2432 -2.0068 0.9764
-5.3397 -1.7271 -2.0069 0.9764
-5.1644 -2.1972 -2.0070 0.9764
-4.9476 -2.6498 -2.0071 0.9764
-4.0680 -3.8664 -2.0070 0.9764
-3.7062 -4.2141 -2.0069 0.9764
-3.3148 -4.5280 -2.0068 0.9764
-2.8969 -4.8055 -2.0066 0.9764
-2.4558 -5.0445 -2.0064 0.9764
-1.9952 -5.2430 -2.0061 0.9765
-1.5188 -5.3995 -2.0058 0.9765
-1.0303 -5.5127 -2.0055 0.9765
-0.0330 -5.6061 -2.0048 0.9765
0.4677 -5.5856 -2.0044 0.9765
0.9645 -5.5204 -2.0040 0.9765
1.4535 -5.4110 -2.0036 0.9765
1.9305 -5.2585 -2.0032 0.9765
2.3919 -5.0639 -2.0028 0.9765
2.8340 -4.8290 -2.0023 0.9765
3.6464 -4.2458 -2.0014 0.9765
4.3417 -3.5278 -2.0006 0.9765
5.1185 -2.2493 -1.9994 0.9765
5.2980 -1.7828 -1.9990 0.9765
5.5785 -0.3144 -1.9981 0.9765
5.5836 0.1851 -1.9978 0.9765
5.3334 1.6582 -1.9973 0.9766
5.1637 2.1278 -1.9972 0.9766
4.4147 3.4204 -1.9971 0.9766
3.6097 4.0113 -1.9298 0.9773
2.7149 4.3897 -1.8457 0.9783
1.4546 4.9541 -1.8464 0.9783
1.0065 5.0650 -1.8467 0.9783
0.5501 5.1355 -1.8470 0.9783
-1.2839 5.0069 -1.8484 0.9783
-1.7263 4.8733 -1.8488 0.9783
-2.1552 4.7006 -1.8492 0.9783
-2.5670 4.4904 -1.8496 0.9783
-3.4803 4.1471 -1.9361 0.9773
-3.9613 3.9437 -1.9989 0.9765
-4.3077 3.5825 -2.0036 0.9765
-5.2936 1.8488 -2.0052 0.9765
-5.6092 -0.1219 -2.0063 0.9764
-5.5764 -0.6225 -2.0066 0.9764
-5.0067 -2.5363 -2.0071 0.9764
-4.4756 -3.3867 -2.0071 0.9764
-3.8014 -4.1286 -2.0069 0.9764
-3.4172 -4.4513 -2.0068 0.9764
-2.5702 -4.9874 -2.0064 0.9764
-2.1143 -5.1964 -2.0062 0.9764
-1.6415 -5.3637 -2.0059 0.9765
-0.6608 -5.5684 -2.0053 0.9765
0.3403 -5.5951 -2.0045 0.9765
1.8103 -5.3014 -2.0033 0.9765
2.2760 -5.1174 -2.0029 0.9765
3.1488 -4.6288 -2.0020 0.9765
3.5488 -4.3281 -2.0015 0.9765
4.5663 -3.2304 -2.0002 0.9765
5.0662 -2.3655 -1.9994 0.9765
-4.4941 -2.6879 -2.0068 0.9778
-3.9441 -3.4445 -2.0067 0.9778
-3.2681 -4.0908 -2.0065 0.9778
-2.0661 -4.8095 -2.0060 0.9778
-1.6281 -4.9742 -2.0057 0.9778
-0.2511 -5.2255 -2.0048 0.9778
1.5933 -4.9788 -2.0033 0.9779
2.0312 -4.8157 -2.0029 0.9779
2.4527 -4.6140 -2.0025 0.9779
2.8545 -4.3756 -2.0021 0.9779
4.2025 -3.0966 -2.0004 0.9779
4.4614 -2.7084 -2.0001 0.9779
5.0172 -1.4280 -1.9990 0.9779
5.1239 -0.9741 -1.9987 0.9779
5.1897 -0.5125 -1.9985 0.9779
5.1383 0.8814 -1.9978 0.9779
5.0386 1.3367 -1.9977 0.9779
4.8988 1.7812 -1.9976 0.9779
2.7426 4.0433 -1.8723 0.9793
0.7148 4.7666 -1.8471 0.9796
0.2862 4.8121 -1.8474 0.9796
-0.1447 4.8193 -1.8477 0.9796
-1.4179 4.6111 -1.8487 0.9795
-2.2218 4.2973 -1.8539 0.9795
-2.6363 4.1436 -1.8821 0.9792
-3.1756 4.1251 -1.9950 0.9779
-3.5409 3.8354 -2.0004 0.9779
-4.4391 2.7646 -2.0041 0.9778
-4.6692 2.3575 -2.0044 0.9778
-4.8619 1.9314 -2.0048 0.9778
-5.1296 1.0359 -2.0054 0.9778
-5.2334 0.1067 -2.0060 0.9778
-5.2226 -0.3612 -2.0062 0.9778
-4.9411 -1.7331 -2.0066 0.9778
-4.3052 -2.9812 -2.0068 0.9778
-3.7059 -3.6994 -2.0067 0.9778
-2.9882 -4.2992 -2.0064 0.9778
-2.1752 -4.7613 -2.0060 0.9778
-0.8349 -5.1655 -2.0052 0.9778
0.0974 -5.2299 -2.0045 0.9778
0.5641 -5.1994 -2.0042 0.9778
1.0260 -5.1272 -2.0038 0.9779
1.4795 -5.0141 -2.0034 0.9779
4.1310 -3.1917 -2.0005 0.9779
4.6312 -2.4049 -1.9998 0.9779
5.1769 -0.6306 -1.9985 0.9779
5.2118 -0.1657 -1.9983 0.9779
4.9382 1.6692 -1.9976 0.9779
4.5622 2.5210 -1.9975 0.9779
4.0409 3.2924 -1.9975 0.9779
2.8735 4.0352 -1.8984 0.9790
2.4327 4.1579 -1.8461 0.9796
-0.0349 4.8211 -1.8476 0.9796
-0.4654 4.7996 -1.8479 0.9796
-1.3124 4.6420 -1.8486 0.9795
-1.7221 4.5072 -1.8490 0.9795
-2.1182 4.3362 -1.8494 0.9795
-3.0354 4.1346 -1.9656 0.9783
-3.4501 3.9123 -1.9990 0.9779
-3.7938 3.5961 -2.0032 0.9779
-4.1006 3.2435 -2.0036 0.9779
-4.6140 2.4632 -2.0044 0.9778
-4.9804 1.6035 -2.0050 0.9778
-5.1045 1.1525 -2.0054 0.9778
-5.1877 0.6920 -2.0056 0.9778
-5.2295 0.2260 -2.0059 0.9778
-5.1037 -1.1688 -2.0065 0.9778
-4.9793 -1.6200 -2.0066 0.9778
-4.8149 -2.0584 -2.0067 0.9778
-4.6119 -2.4803 -2.0067 0.9778
-4.3720 -2.8823 -2.0068 0.9778
-4.0970 -3.2612 -2.0067 0.9778
-3.7893 -3.6140 -2.0067 0.9778
-0.9524 -5.1454 -2.0053 0.9778
-0.4890 -5.2090 -2.0050 0.9778
-0.0218 -5.2310 -2.0046 0.9778
0.9089 -5.1495 -2.0039 0.9778
1.3650 -5.0468 -2.0035 0.9779
1.8099 -4.9037 -2.0031 0.9779
2.2402 -4.7215 -2.0027 0.9779
2.6524 -4.5016 -2.0023 0.9779
3.0432 -4.2459 -2.0019 0.9779
3.4096 -3.9563 -2.0015 0.9779
4.0574 -3.2852 -2.0006 0.9779
4.3338 -2.9091 -2.0003 0.9779
4.5754 -2.5099 -1.9999 0.9779
4.9473 -1.6553 -1.9992 0.9779
5.0746 -1.2066 -1.9989 0.9779
5.1613 -0.7484 -1.9986 0.9779
5.2109 0.1817 -1.9981 0.9779
4.9750 1.5562 -1.9976 0.9779
4.8159 1.9942 -1.9975 0.9779
4.6185 2.4163 -1.9975 0.9779
4.3841 2.8192 -1.9975 0.9779
2.5267 4.1013 -1.8460 0.9796
1.7571 4.4864 -1.8464 0.9796
0.5051 4.7937 -1.8472 0.9796
-0.3559 4.8087 -1.8478 0.9796
-0.7841 4.7586 -1.8482 0.9796
-1.2062 4.6705 -1.8485 0.9795
-1.6189 4.5450 -1.8489 0.9795
-2.8951 4.1379 -1.9353 0.9786
-3.3577 3.9871 -1.9976 0.9779
-4.0254 3.3360 -2.0035 0.9779
-4.5565 2.5675 -2.0043 0.9778
-5.0767 1.2684 -2.0053 0.9778
-5.2020 -0.5898 -2.0063 0.9778
-5.0148 -1.5061 -2.0066 0.9778
-4.6672 -2.3745 -2.0067 0.9778
-4.4365 -2.7819 -2.0068 0.9778
-4.1703 -3.1670 -2.0067 0.9778
-3.8707 -3.5267 -2.0067 0.9778
-3.1811 -4.1587 -2.0065 0.9778
-1.9643 -4.8518 -2.0059 0.9778
-1.5229 -5.0072 -2.0057 0.9778
-0.6076 -5.1968 -2.0051 0.9778
-0.1410 -5.2294 -2.0047 0.9778
0.3266 -5.2202 -2.0044 0.9778
1.2497 -5.0768 -2.0036 0.9779
1.6978 -4.9440 -2.0032 0.9779
3.9817 -3.3770 -2.0007 0.9779
4.2666 -3.0073 -2.0004 0.9779
4.5173 -2.6137 -2.0000 0.9779
4.9085 -1.7677 -1.9993 0.9779
5.1431 -0.8659 -1.9987 0.9779
5.2138 0.0629 -1.9982 0.9779
4.1867 3.1049 -1.9975 0.9779
3.5604 3.7927 -1.9935 0.9780
3.1466 4.0179 -1.9557 0.9784
2.2482 4.2608 -1.8462 0.9796
1.8588 4.4450 -1.8464 0.9796
1.4546 4.5939 -1.8466 0.9796
1.0386 4.7061 -1.8468 0.9796
0.6142 4.7808 -1.8471 0.9796
-0.2462 4.8154 -1.8478 0.9796
-3.2637 4.0598 -1.9962 0.9779
-3.6233 3.7625 -2.0017 0.9779
-3.9482 3.4267 -2.0034 0.9779
-4.7180 2.2587 -2.0045 0.9778
-5.1504 0.9276 -2.0055 0.9778
-5.2134 0.4640 -2.0058 0.9778
-4.9036 -1.8368 -2.0066 0.9778
-4.7201 -2.2675 -2.0067 0.9778
-3.2751 -4.0852 -2.0065 0.9778
-2.8970 -4.3611 -2.0064 0.9778
-2.0744 -4.8059 -2.0060 0.9778
-0.2601 -5.2250 -2.0048 0.9778
0.2076 -5.2265 -2.0045 0.9778
0.6734 -5.1861 -2.0041 0.9778
3.9039 -3.4670 -2.0008 0.9779
4.1971 -3.1039 -2.0005 0.9779
4.4567 -2.7161 -2.0001 0.9779
4.8671 -1.8792 -1.9994 0.9779
5.0147 -1.4367 -1.9990 0.9779
5.1222 -0.9829 -1.9987 0.9779
5.2140 -0.0559 -1.9982 0.9779
5.0409 1.3280 -1.9977 0.9779
4.9019 1.7728 -1.9976 0.9779
4.5081 2.6165 -1.9975 0.9779
3.2894 4.0086 -1.9872 0.9780
2.7524 4.0427 -1.8742 0.9793
1.9596 4.4014 -1.8463 0.9796
0.2945 4.8116 -1.8474 0.9796
-0.5664 4.7890 -1.8480 0.9796
-1.4100 4.6136 -1.8487 0.9795
-2.6264 4.1438 -1.8801 0.9792
-3.1683 4.1304 -1.9949 0.9779
-4.1682 3.1566 -2.0037 0.9779
-4.4343 2.7722 -2.0041 0.9778
-4.6651 2.3655 -2.0044 0.9778
-4.8586 1.9398 -2.0048 0.9778
-5.2013 0.5826 -2.0057 0.9778
-5.2332 0.1158 -2.0060 0.9778
-4.9441 -1.7246 -2.0066 0.9778
-4.5587 -2.5769 -2.0067 0.9778
-4.3103 -2.9737 -2.0068 0.9778
-3.7123 -3.6930 -2.0067 0.9778
-3.3674 -4.0096 -2.0065 0.9778
-2.9956 -4.2940 -2.0064 0.9778
-2.5999 -4.5440 -2.0062 0.9778
-2.1835 -4.7575 -2.0060 0.9778
-0.3791 -5.2180 -2.0049 0.9778
0.5551 -5.2004 -2.0042 0.9778
1.0171 -5.1290 -2.0038 0.9779
1.4709 -5.0167 -2.0034 0.9779
1.9127 -4.8643 -2.0030 0.9779
3.1318 -4.1806 -2.0018 0.9779
3.4920 -3.8834 -2.0014 0.9779
3.8241 -3.5553 -2.0010 0.9779
4.1255 -3.1989 -2.0006 0.9779
4.3939 -2.8171 -2.0002 0.9779
4.8233 -1.9897 -1.9994 0.9779
4.9809 -1.5507 -1.9991 0.9779
5.1758 -0.6396 -1.9985 0.9779
5.2116 -0.1747 -1.9983 0.9779
5.2058 0.2914 -1.9981 0.9779
4.9411 1.6606 -1.9976 0.9779
4.5665 2.5131 -1.9975 0.9779
3.3867 3.9404 -1.9911 0.9780
2.4399 4.1537 -1.8461 0.9796
2.0593 4.3555 -1.8463 0.9796
1.2519 4.6535 -1.8467 0.9796
0.8314 4.7474 -1.8470 0.9796
