ply
format ascii 1.0
element vertex 1582
property float32 x
property float32 y
property float32 z
property float32 I
end_header
-7.6235 -12.0171 -2.0164 0.9441
-5.3569 -13.1532 -2.0123 0.9442
-4.1584 -13.5637 -2.0101 0.9443
-0.4191 -14.1325 -2.0033 0.9445
2.0928 -13.9501 -1.9987 0.9446
4.5271 -13.3268 -1.9942 0.9447
5.6912 -12.8563 -1.9921 0.9448
6.8078 -12.2850 -1.9901 0.9448
7.8683 -11.6177 -1.9881 0.9449
11.3956 -8.1075 -1.9816 0.9451
12.6396 -5.9476 -1.9793 0.9451
13.1137 -4.7948 -1.9784 0.9452
13.4842 -3.6053 -1.9777 0.9452
13.7484 -2.3880 -1.9772 0.9452
13.9044 -1.1525 -1.9769 0.9452
13.9510 0.0918 -1.9767 0.9452
13.8878 1.3354 -1.9768 0.9452
13.7155 2.5687 -1.9771 0.9452
13.0489 4.9668 -1.9783 0.9452
12.5596 6.1131 -1.9792 0.9451
11.9709 7.2125 -1.9802 0.9451
11.2872 8.2562 -1.9814 0.9451
10.5135 9.2361 -1.9828 0.9450
6.1398 11.4318 -1.8386 0.9489
5.0056 11.7217 -1.8059 0.9498
3.4498 10.6120 -1.5811 0.9559
0.4869 10.4690 -1.4849 0.9585
-0.4437 10.3588 -1.4691 0.9590
-1.3789 10.3790 -1.4835 0.9586
-2.3255 10.3333 -1.5007 0.9581
-4.3271 10.2368 -1.5747 0.9561
-6.6126 10.1265 -1.7136 0.9523
-7.9355 10.0626 -1.8158 0.9495
-9.0150 9.5414 -1.8599 0.9484
-10.6196 7.8279 -1.8693 0.9481
-12.3337 4.7464 -1.8725 0.9480
-12.7524 3.6406 -1.8791 0.9478
-14.0578 2.6862 -2.0279 0.9438
-14.2439 1.4224 -2.0282 0.9438
-14.3151 0.1467 -2.0284 0.9438
-14.2708 -1.1301 -2.0283 0.9438
-14.1113 -2.3978 -2.0281 0.9438
-13.8381 -3.6455 -2.0276 0.9438
-13.4534 -4.8632 -2.0269 0.9438
-12.9606 -6.0407 -2.0261 0.9439
-11.6683 -8.2372 -2.0237 0.9439
-10.8798 -9.2382 -2.0223 0.9440
-8.0265 -11.7581 -2.0171 0.9441
-6.9393 -12.4147 -2.0152 0.9442
-0.8948 -14.1165 -2.0042 0.9445
6.3930 -12.5119 -1.9908 0.9448
8.4971 -11.1558 -1.9869 0.9449
10.3257 -9.4531 -1.9836 0.9450
11.1192 -8.4886 -1.9821 0.9451
11.8240 -7.4584 -1.9808 0.9451
12.4347 -6.3708 -1.9796 0.9451
12.9469 -5.2342 -1.9787 0.9451
13.6614 -2.8495 -1.9773 0.9452
13.8584 -1.6198 -1.9770 0.9452
13.7932 2.1055 -1.9770 0.9452
11.5558 7.8698 -1.9810 0.9451
9.2293 9.0652 -1.8330 0.9491
8.3912 9.8602 -1.8345 0.9490
6.5185 11.2145 -1.8379 0.9489
5.4982 11.7629 -1.8398 0.9489
3.8564 10.6316 -1.6024 0.9553
1.8016 10.5324 -1.5140 0.9577
0.8421 10.4861 -1.4906 0.9584
-0.0955 10.4409 -1.4794 0.9587
-0.8985 9.0987 -1.2955 0.9637
-1.9660 10.3507 -1.4928 0.9583
-3.9338 10.2557 -1.5564 0.9566
-8.6068 9.7466 -1.8424 0.9488
-11.0430 7.2284 -1.8701 0.9481
-11.6506 6.2188 -1.8712 0.9480
-14.1872 1.9008 -2.0281 0.9438
-14.3018 0.6283 -2.0284 0.9438
-14.3010 -0.6493 -2.0284 0.9438
-14.1849 -1.9216 -2.0282 0.9438
-13.6114 -4.4083 -2.0272 0.9438
-13.1589 -5.6021 -2.0264 0.9439
-12.6008 -6.7498 -2.0254 0.9439
-11.9418 -7.8418 -2.0242 0.9439
-10.3444 -9.8241 -2.0213 0.9440
-8.4206 -11.4854 -2.0179 0.9441
-7.3559 -12.1788 -2.0159 0.9441
-6.2345 -12.7732 -2.0139 0.9442
-2.6232 -13.9221 -2.0073 0.9444
1.1508 -14.0714 -2.0004 0.9446
4.8175 -13.2206 -1.9937 0.9447
5.9707 -12.7249 -1.9916 0.9448
7.0742 -12.1295 -1.9896 0.9449
10.0048 -9.7982 -1.9842 0.9450
10.8302 -8.8603 -1.9826 0.9450
11.5691 -7.8540 -1.9813 0.9451
12.2158 -6.7871 -1.9801 0.9451
12.7657 -5.6679 -1.9790 0.9451
13.5591 -3.3080 -1.9775 0.9452
13.9260 -0.8468 -1.9768 0.9452
13.9456 0.3982 -1.9767 0.9452
11.8113 7.4747 -1.9805 0.9451
11.1050 8.5035 -1.9818 0.9451
7.8344 10.3171 -1.8355 0.9490
6.8897 10.9847 -1.8372 0.9490
5.8887 11.5667 -1.8390 0.9489
4.2745 10.6517 -1.6262 0.9547
2.1723 10.5503 -1.5262 0.9574
-1.6099 10.3678 -1.4866 0.9585
-2.5624 10.3219 -1.5069 0.9579
-3.5491 10.2743 -1.5402 0.9570
-4.5890 10.2241 -1.5879 0.9557
-6.9242 10.1114 -1.7364 0.9517
-10.0635 8.5198 -1.8683 0.9481
-10.7909 7.5940 -1.8696 0.9481
-11.4322 6.6059 -1.8708 0.9481
-11.9823 5.5633 -1.8718 0.9480
-13.6365 3.5710 -1.9973 0.9446
-14.1142 2.3769 -2.0280 0.9438
-14.2721 1.1092 -2.0283 0.9438
-14.0546 -2.7070 -2.0280 0.9438
-13.3421 -5.1570 -2.0267 0.9439
-12.8233 -6.3231 -2.0258 0.9439
-12.2017 -7.4372 -2.0247 0.9439
-11.4827 -8.4901 -2.0234 0.9439
-10.6723 -9.4732 -2.0219 0.9440
-9.7773 -10.3787 -2.0203 0.9440
-7.7645 -11.9287 -2.0167 0.9441
-6.6634 -12.5610 -2.0147 0.9442
-5.5111 -13.0915 -2.0126 0.9442
-4.3173 -13.5161 -2.0104 0.9443
-1.8439 -14.0364 -2.0059 0.9444
-0.5844 -14.1287 -2.0036 0.9445
0.6769 -14.1083 -2.0013 0.9445
1.9299 -13.9757 -1.9990 0.9446
3.1647 -13.7324 -1.9967 0.9447
4.3716 -13.3807 -1.9945 0.9447
6.6646 -12.3654 -1.9903 0.9448
9.6724 -10.1324 -1.9848 0.9450
10.5289 -9.2223 -1.9832 0.9450
11.3011 -8.2409 -1.9818 0.9451
12.5700 -6.0954 -1.9794 0.9451
13.0574 -4.9481 -1.9785 0.9451
13.7199 -2.5486 -1.9772 0.9452
13.8901 -1.3150 -1.9769 0.9452
13.9511 -0.0713 -1.9767 0.9452
13.7442 2.4081 -1.9771 0.9452
12.0535 7.0715 -1.9801 0.9451
11.3820 8.1229 -1.9813 0.9451
10.6197 9.1117 -1.9827 0.9450
8.1744 10.0442 -1.8349 0.9490
5.0951 11.5555 -1.7894 0.9503
3.5898 10.6187 -1.5882 0.9557
9.5020 -7.4097 -1.9850 0.9523
10.1189 -6.5292 -1.9839 0.9524
11.4714 -3.6139 -1.9814 0.9524
11.9257 -1.5183 -1.9805 0.9524
12.0046 0.6239 -1.9803 0.9524
11.9021 1.6919 -1.9805 0.9524
11.7059 2.7468 -1.9808 0.9524
10.5723 5.7526 -1.9828 0.9524
7.3118 8.4151 -1.8365 0.9558
6.5374 9.0404 -1.8379 0.9558
4.8359 10.0747 -1.8410 0.9557
3.9219 10.4752 -1.8427 0.9557
0.9511 10.4914 -1.7354 0.9582
0.0059 5.2410 -0.8634 0.9790
-0.8055 9.1138 -1.5073 0.9636
-1.8570 10.3559 -1.7332 0.9582
-3.8155 10.2614 -1.8035 0.9566
-6.6022 9.1734 -1.8619 0.9552
-7.3996 8.5550 -1.8634 0.9552
-8.8138 7.1147 -1.8660 0.9551
-9.4187 6.3043 -1.8671 0.9551
-11.1286 3.7128 -1.9327 0.9536
-12.1625 1.7569 -2.0244 0.9514
-12.2720 0.6656 -2.0247 0.9514
-12.0082 -2.6054 -2.0242 0.9514
-11.3480 -4.6940 -2.0231 0.9514
-10.8797 -5.6848 -2.0222 0.9515
-9.6868 -7.5188 -2.0201 0.9515
-7.3362 -9.7936 -2.0158 0.9516
-6.4285 -10.4002 -2.0142 0.9516
-5.4709 -10.9225 -2.0125 0.9517
-2.3785 -11.9474 -2.0068 0.9518
-1.3025 -12.1001 -2.0049 0.9519
0.8656 -12.1150 -2.0009 0.9520
1.9404 -11.9778 -1.9989 0.9520
4.0292 -11.4208 -1.9951 0.9521
5.0268 -11.0060 -1.9933 0.9521
5.9828 -10.5047 -1.9915 0.9522
6.8898 -9.9211 -1.9899 0.9522
8.5294 -8.5267 -1.9868 0.9523
9.2494 -7.7271 -1.9855 0.9523
9.8956 -6.8675 -1.9843 0.9523
10.4629 -5.9546 -1.9832 0.9524
10.9472 -4.9958 -1.9823 0.9524
11.8685 -1.9189 -1.9806 0.9524
11.9518 1.2904 -1.9804 0.9524
11.5368 3.3939 -1.9811 0.9524
11.1917 4.4103 -1.9817 0.9524
8.9441 8.0446 -1.9818 0.9524
6.8359 8.8128 -1.8374 0.9558
5.1705 9.9030 -1.8404 0.9557
3.3111 10.6052 -1.8303 0.9560
1.3105 10.5087 -1.7446 0.9580
0.3641 10.4631 -1.7247 0.9584
-2.4513 10.3272 -1.7486 0.9579
-4.4659 10.2300 -1.8389 0.9558
-6.2878 9.3875 -1.8613 0.9552
-7.1055 8.7966 -1.8628 0.9552
-9.1992 6.6163 -1.8667 0.9551
-12.2903 -0.0177 -2.0247 0.9514
-12.2394 -1.1134 -2.0246 0.9514
-11.8431 -3.2685 -2.0240 0.9514
-10.5437 -6.2790 -2.0216 0.9515
-9.9365 -7.1902 -2.0205 0.9515
-8.4905 -8.8293 -2.0179 0.9516
-7.6638 -9.5440 -2.0164 0.9516
-6.7769 -10.1812 -2.0148 0.9516
-4.8525 -11.2035 -2.0113 0.9517
-3.8307 -11.5808 -2.0095 0.9518
-1.7096 -12.0538 -2.0056 0.9518
-0.6275 -12.1463 -2.0036 0.9519
0.4576 -12.1418 -2.0017 0.9519
3.6439 -11.5540 -1.9958 0.9521
5.6278 -10.7036 -1.9922 0.9522
6.5541 -10.1505 -1.9905 0.9522
7.4270 -9.5180 -1.9889 0.9522
8.2398 -8.8112 -1.9874 0.9523
11.5472 -3.3608 -1.9812 0.9524
11.9558 -1.2560 -1.9804 0.9524
12.0193 -0.1850 -1.9803 0.9524
11.9881 0.8875 -1.9803 0.9524
10.9318 5.0269 -1.9822 0.9524
9.8745 6.8951 -1.9841 0.9523
9.2259 7.7526 -1.9852 0.9523
7.8571 7.9000 -1.8355 0.9558
6.3385 9.1837 -1.8383 0.9558
4.6145 10.1807 -1.8414 0.9557
1.6741 10.5263 -1.7559 0.9577
0.7184 10.4802 -1.7305 0.9583
-0.2175 10.4350 -1.7194 0.9586
-3.0582 10.2980 -1.7697 0.9574
-4.0694 10.2492 -1.8167 0.9563
-5.0831 10.0757 -1.8591 0.9553
-6.8034 9.0280 -1.8623 0.9552
-8.3111 7.6876 -1.8651 0.9551
-8.9693 6.9205 -1.8663 0.9551
-9.5562 6.0968 -1.8674 0.9551
-10.4969 4.3066 -1.8691 0.9550
-12.0151 2.5706 -2.0241 0.9514
-12.1578 -1.7920 -2.0245 0.9514
-11.6410 -3.9211 -2.0236 0.9514
-11.2411 -4.9417 -2.0229 0.9514
-9.5179 -7.7286 -2.0198 0.9515
-4.2197 -11.4494 -2.0102 0.9517
-3.1791 -11.7689 -2.0083 0.9518
-1.0362 -12.1228 -2.0044 0.9519
1.1312 -12.0902 -2.0004 0.9520
2.2025 -11.9294 -1.9985 0.9520
4.2781 -11.3270 -1.9947 0.9521
6.2108 -10.3686 -1.9911 0.9522
7.9409 -9.0861 -1.9879 0.9523
10.0426 -6.6475 -1.9840 0.9523
10.5899 -5.7227 -1.9830 0.9524
11.4289 -3.7479 -1.9814 0.9524
12.0064 -0.5893 -1.9803 0.9524
12.0110 0.4835 -1.9803 0.9524
11.9209 1.5526 -1.9804 0.9524
11.7369 2.6097 -1.9807 0.9524
11.4602 3.6467 -1.9812 0.9524
10.6382 5.6283 -1.9827 0.9524
8.1164 7.6292 -1.8351 0.9558
4.9528 10.0164 -1.8408 0.9557
-1.7333 10.3619 -1.7307 0.9583
-2.6893 10.3158 -1.7562 0.9577
-3.6819 10.2679 -1.7970 0.9567
-4.7302 10.2173 -1.8548 0.9554
-8.7292 7.2167 -1.8658 0.9551
-10.3445 4.6567 -1.8689 0.9551
-12.2870 -0.2877 -2.0247 0.9514
-12.2117 -1.3819 -2.0246 0.9514
-11.7676 -3.5276 -2.0238 0.9514
-11.4026 -4.5613 -2.0232 0.9514
-10.4020 -6.5082 -2.0214 0.9515
-9.0699 -8.2425 -2.0190 0.9515
-8.2931 -9.0120 -2.0176 0.9516
-7.4509 -9.7082 -2.0161 0.9516
-6.5504 -10.3255 -2.0144 0.9516
-5.5988 -10.8591 -2.0127 0.9517
-4.6042 -11.3049 -2.0109 0.9517
-2.5184 -11.9203 -2.0071 0.9518
-1.4441 -12.0855 -2.0051 0.9519
0.7240 -12.1259 -2.0012 0.9519
1.8004 -12.0012 -1.9992 0.9520
2.8605 -11.7814 -1.9973 0.9520
3.8959 -11.4686 -1.9954 0.9521
10.3932 -6.0770 -1.9834 0.9524
11.2977 -4.1308 -1.9817 0.9524
11.6175 -3.1061 -1.9811 0.9524
11.9660 1.1506 -1.9804 0.9524
11.8172 2.2131 -1.9806 0.9524
11.5753 3.2587 -1.9810 0.9524
11.2420 4.2790 -1.9816 0.9524
10.8198 5.2663 -1.9824 0.9524
9.0475 7.9483 -1.9840 0.9524
6.9378 8.7313 -1.8372 0.9558
3.4498 10.6119 -1.8383 0.9558
1.4362 10.5148 -1.7483 0.9579
-3.3022 10.2862 -1.7797 0.9571
-4.3271 10.2367 -1.8309 0.9559
-5.3043 9.9638 -1.8595 0.9553
-7.7710 8.2248 -1.8641 0.9552
-8.4794 7.5044 -1.8654 0.9551
-9.1205 6.7228 -1.8666 0.9551
-9.6891 5.8862 -1.8676 0.9551
-10.5900 4.0754 -1.8693 0.9550
-11.7973 3.3679 -2.0211 0.9515
-12.0693 2.3062 -2.0243 0.9514
-12.2287 1.2211 -2.0246 0.9514
-12.2517 -0.9703 -2.0247 0.9514
-11.8808 -3.1299 -2.0240 0.9514
-11.5511 -4.1755 -2.0234 0.9514
-10.6171 -6.1557 -2.0218 0.9515
-8.5940 -8.7302 -2.0181 0.9516
-5.9630 -10.6680 -2.0134 0.9517
-3.9663 -11.5367 -2.0097 0.9517
-2.9191 -11.8331 -2.0078 0.9518
-1.8506 -12.0346 -2.0059 0.9518
1.3961 -12.0595 -1.9999 0.9520
3.5090 -11.5973 -1.9961 0.9521
4.5248 -11.2277 -1.9942 0.9521
6.4357 -10.2275 -1.9907 0.9522
8.1370 -8.9078 -1.9876 0.9523
8.8926 -8.1411 -1.9862 0.9523
9.5769 -7.3112 -1.9849 0.9523
10.1849 -6.4245 -1.9838 0.9524
10.7118 -5.4881 -1.9828 0.9524
11.7704 -2.4551 -1.9808 0.9524
12.0163 -0.3255 -1.9803 0.9524
11.9976 0.7472 -1.9803 0.9524
11.3782 3.8978 -1.9814 0.9524
10.5132 5.8613 -1.9829 0.9524
9.9537 6.7787 -1.9839 0.9524
9.3151 7.6436 -1.9851 0.9523
7.9482 7.8069 -1.8354 0.9558
7.2256 8.4905 -1.8367 0.9558
6.4448 9.1080 -1.8381 0.9558
5.6116 9.6542 -1.8396 0.9557
4.7326 10.1249 -1.8412 0.9557
3.8145 10.5161 -1.8429 0.9557
2.7998 10.5806 -1.8030 0.9566
1.8016 10.5324 -1.7603 0.9576
0.8421 10.4861 -1.7330 0.9582
-0.0955 10.4409 -1.7201 0.9586
-0.9019 9.1331 -1.5119 0.9635
-3.9338 10.2557 -1.8095 0.9564
-4.9644 10.1333 -1.8589 0.9553
-5.8532 9.6587 -1.8605 0.9552
-6.6967 9.1060 -1.8621 0.9552
-7.4877 8.4793 -1.8636 0.9552
-8.2199 7.7836 -1.8649 0.9551
-9.4836 6.2076 -1.8672 0.9551
-12.2783 0.5394 -2.0247 0.9514
-11.9805 -2.7286 -2.0242 0.9514
-11.6865 -3.7849 -2.0237 0.9514
-11.2987 -4.8102 -2.0230 0.9514
-9.6084 -7.6174 -2.0200 0.9515
-8.8852 -8.4383 -2.0187 0.9515
-7.2345 -9.8676 -2.0157 0.9516
-6.3207 -10.4647 -2.0140 0.9516
-4.3538 -11.4007 -2.0104 0.9517
-3.3168 -11.7324 -2.0085 0.9518
-2.2554 -11.9699 -2.0066 0.9518
-1.1780 -12.1114 -2.0046 0.9519
2.0631 -11.9559 -1.9987 0.9520
6.0898 -10.4416 -1.9913 0.9522
6.9907 -9.8489 -1.9897 0.9522
7.8349 -9.1792 -1.9881 0.9523
10.5229 -5.8465 -1.9831 0.9524
10.9974 -4.8828 -1.9822 0.9524
11.3848 -3.8814 -1.9815 0.9524
11.6821 -2.8501 -1.9810 0.9524
11.8873 -1.7968 -1.9806 0.9524
12.0158 0.3431 -1.9803 0.9524
11.9381 1.4131 -1.9804 0.9524
11.7663 2.4723 -1.9807 0.9524
11.5017 3.5123 -1.9812 0.9524
11.1462 4.5253 -1.9818 0.9524
10.7026 5.5033 -1.9826 0.9524
8.2093 7.5377 -1.8360 0.9558
7.5052 8.2403 -1.8362 0.9558
6.7456 8.8833 -1.8375 0.9558
5.0689 9.9566 -1.8406 0.9557
4.1647 10.3782 -1.8422 0.9557
2.1723 10.5503 -1.7745 0.9573
1.2003 10.5034 -1.7416 0.9580
-2.5624 10.3219 -1.7520 0.9578
-3.5491 10.2743 -1.7907 0.9569
-4.5890 10.2241 -1.8462 0.9556
-6.3845 9.3233 -1.8615 0.9552
-7.1961 8.7239 -1.8630 0.9552
-9.8173 5.6727 -1.8679 0.9551
-10.2888 4.7770 -1.8687 0.9551
-10.6779 3.8422 -1.8695 0.9550
-11.8847 3.1123 -2.0239 0.9514
-12.1176 2.0407 -2.0243 0.9514
-12.2529 0.9523 -2.0246 0.9514
-11.0110 -5.4295 -2.0225 0.9514
-10.4780 -6.3866 -2.0215 0.9515
-7.5647 -9.6214 -2.0163 0.9516
-6.6713 -10.2493 -2.0146 0.9516
-2.6579 -11.8915 -2.0073 0.9518
-1.5855 -12.0694 -2.0054 0.9518
-0.5026 -12.1507 -2.0034 0.9519
0.5822 -12.1351 -2.0014 0.9519
3.7620 -11.5147 -1.9956 0.9521
4.7692 -11.1232 -1.9938 0.9521
5.7369 -10.6441 -1.9920 0.9522
6.6574 -10.0816 -1.9903 0.9522
7.5237 -9.4404 -1.9887 0.9522
9.7338 -7.0980 -1.9846 0.9523
10.3222 -6.1984 -1.9835 0.9524
10.8286 -5.2509 -1.9826 0.9524
11.2491 -4.2628 -1.9818 0.9524
11.8209 -2.1959 -1.9807 0.9524
11.9679 -1.1330 -1.9804 0.9524
11.6122 3.1230 -1.9810 0.9524
11.2907 4.1471 -1.9815 0.9524
10.8800 5.1392 -1.9823 0.9524
10.3831 6.0915 -1.9831 0.9524
9.1464 7.8476 -1.9854 0.9523
6.2444 9.2492 -1.8384 0.9558
5.3994 9.7772 -1.8400 0.9557
4.5101 10.2287 -1.8416 0.9557
3.5834 10.5998 -1.8433 0.9557
8.3369 -6.5012 -1.9871 0.9579
9.3502 -4.9124 -1.9853 0.9579
10.0672 -3.1715 -1.9839 0.9580
10.4664 -1.3325 -1.9831 0.9580
10.5357 0.5476 -1.9830 0.9580
10.2732 2.4107 -1.9834 0.9580
10.0196 3.3178 -1.9839 0.9580
9.6868 4.1992 -1.9845 0.9579
6.4143 7.3822 -1.8382 0.9610
5.7344 7.9300 -1.8394 0.9610
5.0081 8.4157 -1.8407 0.9609
4.2410 8.8354 -1.8421 0.9609
0.8878 9.7928 -1.8482 0.9608
0.0059 5.2404 -0.9850 0.9789
-3.4417 9.2560 -1.8561 0.9606
-4.2567 8.9195 -1.8576 0.9606
-5.0389 8.5110 -1.8591 0.9605
-5.7819 8.0337 -1.8604 0.9605
-6.4796 7.4914 -1.8617 0.9605
-7.1263 6.8883 -1.8629 0.9605
-7.7166 6.2291 -1.8640 0.9604
-9.1026 3.9703 -1.8666 0.9604
-10.4640 2.4803 -2.0213 0.9572
-10.6453 1.5377 -2.0217 0.9572
-10.6733 -1.3344 -2.0218 0.9572
-10.5103 -2.2804 -2.0215 0.9572
-9.9332 -4.1088 -2.0205 0.9572
-9.5239 -4.9763 -2.0197 0.9572
-8.4807 -6.5826 -2.0179 0.9572
-6.4244 -8.5765 -2.0142 0.9573
-4.7919 -9.5671 -2.0112 0.9574
1.7010 -10.5002 -1.9993 0.9576
3.5330 -10.0143 -1.9960 0.9577
5.2471 -9.2130 -1.9928 0.9578
6.0432 -8.7021 -1.9914 0.9578
6.7903 -8.1230 -1.9900 0.9578
7.4827 -7.4804 -1.9887 0.9579
8.1151 -6.7794 -1.9876 0.9579
9.1810 -5.2251 -1.9856 0.9579
10.4161 -1.6840 -1.9832 0.9580
10.5481 0.1927 -1.9830 0.9580
10.4894 1.1325 -1.9831 0.9580
10.1247 2.9785 -1.9837 0.9580
9.4405 4.7322 -1.9849 0.9579
8.9846 5.5574 -1.9857 0.9579
8.4574 6.3394 -1.9867 0.9579
7.8358 7.0478 -1.9809 0.9580
6.6575 7.1604 -1.8377 0.9610
5.9964 7.7305 -1.8389 0.9610
4.5346 8.6851 -1.8416 0.9609
2.9246 9.3673 -1.8445 0.9608
2.0795 9.5988 -1.8460 0.9608
0.3421 9.8324 -1.8492 0.9607
-1.4121 9.7537 -1.8524 0.9607
-2.2780 9.5972 -1.8540 0.9606
-3.1273 9.3637 -1.8556 0.9606
-5.5068 8.2215 -1.8599 0.9605
-6.2223 7.7032 -1.8613 0.9605
-7.5010 6.4838 -1.8636 0.9604
-10.3737 2.8308 -2.0211 0.9572
-10.5869 1.8950 -2.0216 0.9572
-10.7150 0.9436 -2.0218 0.9572
-10.7570 -0.0155 -2.0219 0.9572
-10.7125 -0.9745 -2.0218 0.9572
-10.5818 -1.9256 -2.0216 0.9572
-10.3660 -2.8608 -2.0212 0.9572
-10.0670 -3.7727 -2.0207 0.9572
-9.2301 -5.4967 -2.0192 0.9572
-8.6991 -6.2947 -2.0183 0.9572
-6.7111 -8.3576 -2.0147 0.9573
-5.9351 -8.9164 -2.0133 0.9573
-4.2506 -9.8139 -2.0102 0.9574
-2.4359 -10.3957 -2.0069 0.9575
0.4011 -10.6421 -2.0017 0.9576
1.3471 -10.5549 -2.0000 0.9576
2.2809 -10.3838 -1.9983 0.9577
3.1950 -10.1306 -1.9966 0.9577
4.0822 -9.7974 -1.9950 0.9577
4.9356 -9.3870 -1.9934 0.9578
5.7485 -8.9029 -1.9919 0.9578
8.4766 -6.3156 -1.9869 0.9579
9.0015 -5.5320 -1.9859 0.9579
9.4549 -4.7054 -1.9851 0.9579
9.8332 -3.8423 -1.9844 0.9579
10.1338 -2.9494 -1.9838 0.9580
10.3542 -2.0337 -1.9834 0.9580
10.5487 -0.1623 -1.9830 0.9580
10.5213 0.7789 -1.9830 0.9580
9.9450 3.5373 -1.9840 0.9579
9.5931 4.4113 -1.9846 0.9579
8.6643 6.0500 -1.9863 0.9579
6.8931 6.9307 -1.8373 0.9610
6.2516 7.5225 -1.8385 0.9610
4.0467 8.9281 -1.8425 0.9609
3.2371 9.2608 -1.8439 0.9609
1.5434 9.7047 -1.8470 0.9608
0.6726 9.8121 -1.8486 0.9608
-0.2051 9.8415 -1.8502 0.9607
-1.0827 9.7925 -1.8518 0.9607
-1.9532 9.6653 -1.8534 0.9607
-3.6449 9.1800 -1.8565 0.9606
-4.4524 8.8255 -1.8580 0.9606
-5.9580 7.9062 -1.8608 0.9605
-6.6437 7.3485 -1.8620 0.9605
-7.2770 6.7311 -1.8632 0.9605
-7.8526 6.0589 -1.8643 0.9604
-8.3659 5.3374 -1.8652 0.9604
-8.8123 4.5723 -1.8661 0.9604
-9.2812 3.8078 -1.8856 0.9600
-10.5165 2.2500 -2.0214 0.9572
-10.6768 1.3036 -2.0217 0.9572
-10.7514 0.3465 -2.0219 0.9572
-10.7394 -0.6135 -2.0219 0.9572
-10.6411 -1.5685 -2.0217 0.9572
-10.4572 -2.5106 -2.0214 0.9572
-10.1894 -3.4322 -2.0209 0.9572
-8.3330 -6.7664 -2.0176 0.9573
-7.6921 -7.4781 -2.0165 0.9573
-6.9903 -8.1291 -2.0152 0.9573
-5.4277 -9.2284 -2.0123 0.9574
-4.5798 -9.6681 -2.0108 0.9574
-2.7853 -10.3111 -2.0075 0.9575
-1.8533 -10.5094 -2.0058 0.9575
-0.9081 -10.6237 -2.0041 0.9575
0.0427 -10.6531 -2.0024 0.9576
0.9915 -10.5977 -2.0006 0.9576
4.6182 -9.5506 -1.9940 0.9577
5.4472 -9.0938 -1.9925 0.9578
6.2318 -8.5657 -1.9910 0.9578
10.5414 0.4244 -1.9830 0.9580
10.4622 1.3626 -1.9831 0.9580
10.3005 2.2904 -1.9834 0.9580
9.7348 4.0855 -1.9844 0.9579
9.3352 4.9389 -1.9851 0.9579
8.3172 6.5244 -1.9869 0.9579
6.4996 7.3061 -1.8380 0.9610
3.5458 9.1438 -1.8434 0.9609
2.7187 9.4312 -1.8449 0.9608
1.8685 9.6441 -1.8464 0.9608
1.0021 9.7807 -1.8480 0.9608
0.0674 5.2546 -0.9877 0.9788
-4.9385 8.5685 -1.8589 0.9605
-6.3911 7.5660 -1.8616 0.9605
-7.6427 6.3184 -1.8639 0.9604
-8.1800 5.6148 -1.8649 0.9604
-10.6264 1.6620 -2.0216 0.9572
-10.7334 0.7080 -2.0218 0.9572
-10.7541 -0.2518 -2.0219 0.9572
-10.5365 -2.1574 -2.0215 0.9572
-10.3001 -3.0877 -2.0211 0.9572
-9.9810 -3.9926 -2.0206 0.9572
-9.5819 -4.8649 -2.0199 0.9572
-8.5577 -6.4835 -2.0180 0.9572
-7.9411 -7.2167 -2.0169 0.9573
-3.1316 -10.2147 -2.0082 0.9574
-0.3159 -10.6520 -2.0030 0.9576
0.6346 -10.6285 -2.0013 0.9576
2.5079 -10.3291 -1.9979 0.9577
4.2955 -9.7035 -1.9946 0.9577
5.1396 -9.2746 -1.9930 0.9578
6.6955 -8.2025 -1.9902 0.9578
7.3954 -7.5679 -1.9889 0.9578
8.6122 -6.1272 -1.9866 0.9579
9.1198 -5.3324 -1.9857 0.9579
9.5550 -4.4962 -1.9849 0.9579
10.5018 1.0098 -1.9830 0.9580
7.9254 6.9625 -1.9829 0.9580
6.0859 7.6592 -1.8388 0.9610
5.3824 8.1770 -1.8400 0.9609
2.1913 9.5728 -1.8458 0.9608
1.3302 9.7383 -1.8474 0.9608
0.4570 9.8266 -1.8490 0.9608
-0.4213 9.8367 -1.8506 0.9607
-2.1654 9.6221 -1.8538 0.9607
-3.8464 9.0996 -1.8569 0.9606
-4.6461 8.7273 -1.8584 0.9606
-5.4098 8.2845 -1.8598 0.9605
-6.1313 7.7748 -1.8611 0.9605
-7.4242 6.5706 -1.8635 0.9605
-8.4821 5.1529 -1.8654 0.9604
-8.9115 4.3780 -1.8662 0.9604
-10.3396 2.9518 -2.0211 0.9572
-10.5638 2.0186 -2.0215 0.9572
-10.7232 -0.8492 -2.0219 0.9572
-9.7415 -4.5403 -2.0201 0.9572
-8.1813 -6.9469 -2.0173 0.9573
-4.3655 -9.7645 -2.0104 0.9574
-3.4747 -10.1067 -2.0088 0.9574
-2.5576 -10.3676 -2.0071 0.9575
-1.6216 -10.5454 -2.0054 0.9575
-0.6744 -10.6388 -2.0037 0.9575
1.2238 -10.5711 -2.0002 0.9576
3.0766 -10.1684 -1.9968 0.9577
3.9678 -9.8455 -1.9952 0.9577
5.6446 -8.9704 -1.9921 0.9578
7.1382 -7.8144 -1.9894 0.9578
8.4027 -6.4148 -1.9870 0.9579
8.9368 -5.6372 -1.9860 0.9579
9.7881 -3.9572 -1.9844 0.9579
10.3299 -2.1546 -1.9834 0.9580
10.5296 0.6558 -1.9830 0.9580
10.4300 1.5921 -1.9832 0.9580
10.2482 2.5162 -1.9835 0.9580
9.9853 3.4206 -1.9839 0.9580
9.2253 5.1433 -1.9853 0.9579
8.1729 6.7064 -1.9872 0.9579
6.3386 7.4482 -1.8383 0.9610
3.3448 9.2213 -1.8437 0.9609
2.5114 9.4906 -1.8453 0.9608
0.7872 9.8024 -1.8484 0.9608
-0.9050 9.1652 -1.7311 0.9632
-1.8398 9.6864 -1.8532 0.9607
-5.1265 8.4595 -1.8592 0.9605
-5.8646 7.9746 -1.8606 0.9605
-6.5568 7.4250 -1.8619 0.9605
-7.7807 6.1499 -1.8641 0.9604
-8.3024 5.4345 -1.8651 0.9604
-8.7578 4.6747 -1.8660 0.9604
-10.2327 3.2975 -2.0207 0.9572
-10.7465 0.4721 -2.0219 0.9572
-10.6589 -1.4440 -2.0218 0.9572
-9.8901 -4.2105 -2.0204 0.9572
-8.4121 -6.6690 -2.0178 0.9572
-7.0855 -8.0475 -2.0154 0.9573
-4.6930 -9.6149 -2.0110 0.9574
-3.8140 -9.9871 -2.0094 0.9574
-2.9059 -10.2789 -2.0078 0.9575
-1.0323 -10.6135 -2.0043 0.9575
-0.0818 -10.6541 -2.0026 0.9576
1.8086 -10.4811 -1.9992 0.9576
6.1318 -8.6388 -1.9912 0.9578
6.8729 -8.0521 -1.9898 0.9578
7.5586 -7.4026 -1.9886 0.9579
9.2338 -5.1302 -1.9855 0.9579
9.6506 -4.2849 -1.9847 0.9579
9.9910 -3.4062 -1.9841 0.9579
10.5307 -0.6403 -1.9830 0.9580
10.5456 0.3011 -1.9830 0.9580
10.4773 1.2402 -1.9831 0.9580
10.3263 2.1697 -1.9833 0.9580
10.0938 3.0824 -1.9837 0.9580
9.7815 3.9712 -1.9843 0.9579
8.9275 5.6497 -1.9858 0.9579
5.9171 7.7923 -1.8391 0.9610
5.2025 8.2947 -1.8404 0.9609
1.1162 9.7672 -1.8478 0.9608
0.2411 9.8363 -1.8494 0.9607
-0.6374 9.8272 -1.8510 0.9607
-1.5124 9.7396 -1.8526 0.9607
-3.2236 9.3319 -1.8557 0.9606
-4.8375 8.6248 -1.8587 0.9606
-5.5914 8.1652 -1.8601 0.9605
-7.5678 6.4069 -1.8637 0.9604
-8.5942 4.9659 -1.8656 0.9604
-10.6060 1.7861 -2.0216 0.9572
-10.7563 -0.1260 -2.0219 0.9572
-9.6386 -4.7528 -2.0200 0.9572
-9.1726 -5.5909 -2.0191 0.9572
-8.0256 -7.1239 -2.0171 0.9573
-7.3540 -7.8064 -2.0158 0.9573
-5.8427 -8.9762 -2.0131 0.9573
-5.0153 -9.4543 -2.0116 0.9574
-4.1491 -9.8561 -2.0100 0.9574
-2.3288 -10.4191 -2.0067 0.9575
-1.3893 -10.5762 -2.0050 0.9575
1.4554 -10.5394 -1.9998 0.9576
4.1822 -9.7541 -1.9948 0.9577
5.8392 -8.8426 -1.9918 0.9578
6.5997 -8.2810 -1.9904 0.9578
9.5023 -4.6078 -1.9850 0.9579
10.1632 -2.8451 -1.9837 0.9580
10.3743 -1.9272 -1.9833 0.9580
10.5035 -0.9944 -1.9831 0.9580
10.5497 -0.0539 -1.9830 0.9580
10.5128 0.8869 -1.9830 0.9580
10.3929 1.8209 -1.9832 0.9580
9.9085 3.6394 -1.9841 0.9579
9.1111 5.3452 -1.9855 0.9579
4.7355 8.5751 -1.8412 0.9609
3.1421 9.2944 -1.8441 0.9609
2.3028 9.5454 -1.8456 0.9608
7.4194 -5.7857 -1.9888 0.9623
8.9609 -2.8230 -1.9859 0.9623
9.1750 -2.0124 -1.9855 0.9623
9.1446 2.1458 -1.9855 0.9623
8.6221 3.7376 -1.9864 0.9623
5.7077 6.5690 -1.8395 0.9650
5.1023 7.0559 -1.8406 0.9650
4.4557 7.4875 -1.8417 0.9650
3.0592 8.1711 -1.8443 0.9650
2.3202 8.4174 -1.8456 0.9649
-2.3118 8.4613 -1.8541 0.9648
-3.0592 8.2275 -1.8555 0.9647
-3.7833 7.9277 -1.8568 0.9647
-4.4782 7.5640 -1.8581 0.9647
-5.7577 6.6568 -1.8604 0.9647
-7.3255 4.9033 -1.8633 0.9646
-8.7185 3.8028 -2.0106 0.9619
-9.0594 3.0225 -2.0187 0.9617
-9.2948 2.2032 -2.0192 0.9617
-9.5407 0.5174 -2.0197 0.9617
-9.4805 -1.1853 -2.0196 0.9617
-9.3359 -2.0256 -2.0193 0.9617
-9.1164 -2.8494 -2.0190 0.9617
-8.8238 -3.6499 -2.0184 0.9617
-8.4605 -4.4207 -2.0178 0.9617
-8.0296 -5.1555 -2.0170 0.9617
-6.9797 -6.4935 -2.0151 0.9618
-6.3694 -7.0861 -2.0140 0.9618
-2.6772 -9.1111 -2.0073 0.9619
-1.8528 -9.3065 -2.0058 0.9619
-1.0148 -9.4275 -2.0043 0.9620
-0.1701 -9.4731 -2.0027 0.9620
0.6747 -9.4433 -2.0012 0.9620
2.3376 -9.1593 -1.9982 0.9621
4.6682 -8.1965 -1.9939 0.9622
6.0421 -7.2279 -1.9913 0.9622
6.6587 -6.6566 -1.9902 0.9622
7.7274 -5.3628 -1.9882 0.9623
8.5504 -3.9020 -1.9867 0.9623
8.8617 -3.1232 -1.9861 0.9623
9.1028 -2.3201 -1.9857 0.9623
9.2718 -1.4990 -1.9853 0.9623
9.3677 -0.6663 -1.9851 0.9623
9.3372 1.0081 -1.9852 0.9623
8.4026 4.2120 -1.9868 0.9623
7.9965 4.9462 -1.9875 0.9623
5.9243 6.3718 -1.8391 0.9651
5.3356 6.8786 -1.8402 0.9650
4.7040 7.3315 -1.8413 0.9650
3.3316 8.0613 -1.8438 0.9650
2.6014 8.3323 -1.8451 0.9649
1.8495 8.5374 -1.8465 0.9649
1.0818 8.6748 -1.8479 0.9649
0.3042 8.7435 -1.8493 0.9649
-0.4769 8.7425 -1.8507 0.9648
-1.2554 8.6718 -1.8522 0.9648
-3.5135 8.0483 -1.8563 0.9647
-4.2200 7.7084 -1.8576 0.9647
-7.1552 5.1461 -1.8630 0.9646
-7.5888 4.4896 -1.8638 0.9646
-9.4039 1.6832 -2.0194 0.9617
-9.3993 -1.7104 -2.0195 0.9617
-8.6056 -4.1340 -2.0181 0.9617
-8.1998 -4.8831 -2.0173 0.9617
-7.1956 -6.2562 -2.0155 0.9618
-5.2743 -7.9237 -2.0120 0.9618
-3.7780 -8.7227 -2.0093 0.9619
-2.1655 -9.2415 -2.0064 0.9619
0.3566 -9.4634 -2.0018 0.9620
1.1980 -9.3867 -2.0002 0.9621
2.8419 -9.0110 -1.9972 0.9621
4.3909 -8.3511 -1.9944 0.9622
5.1146 -7.9211 -1.9931 0.9622
6.4323 -6.8783 -1.9906 0.9622
7.0161 -6.2740 -1.9895 0.9623
8.7525 -3.4200 -1.9863 0.9623
9.0202 -2.6253 -1.9858 0.9623
9.2166 -1.8103 -1.9854 0.9623
9.3900 -0.1445 -1.9851 0.9623
9.3656 0.6933 -1.9851 0.9623
8.5386 3.9264 -1.9866 0.9623
8.1573 4.6736 -1.9872 0.9623
7.7112 5.3845 -1.9880 0.9623
7.1992 6.0496 -1.9877 0.9623
6.1340 6.1676 -1.8387 0.9651
5.5628 6.6937 -1.8397 0.9650
4.2909 7.5848 -1.8420 0.9650
3.6000 7.9426 -1.8433 0.9650
1.3727 8.6310 -1.8474 0.9649
0.5981 8.7257 -1.8488 0.9649
-2.4975 8.4100 -1.8544 0.9648
-3.9572 7.8440 -1.8571 0.9647
-6.4657 5.9806 -1.8617 0.9646
-6.9767 5.3831 -1.8627 0.9646
-7.4322 4.7417 -1.8635 0.9646
-8.8142 3.6162 -2.0139 0.9618
-9.4837 1.1579 -2.0196 0.9617
-9.5498 0.3078 -2.0197 0.9617
-9.5392 -0.5449 -2.0197 0.9617
-9.4520 -1.3932 -2.0195 0.9617
-9.0511 -3.0488 -2.0188 0.9617
-8.3606 -4.6050 -2.0176 0.9617
-7.9136 -5.3300 -2.0168 0.9617
-6.8345 -6.6444 -2.0149 0.9618
-6.2114 -7.2233 -2.0137 0.9618
-5.5393 -7.7436 -2.0125 0.9618
-3.2857 -8.9153 -2.0084 0.9619
-1.6476 -9.3432 -2.0054 0.9620
-0.8074 -9.4457 -2.0039 0.9620
0.0380 -9.4728 -2.0024 0.9620
0.8818 -9.4244 -2.0008 0.9620
1.7172 -9.3011 -1.9993 0.9621
2.5377 -9.1041 -1.9978 0.9621
3.3369 -8.8351 -1.9963 0.9621
4.8463 -8.0907 -1.9936 0.9622
5.5448 -7.6214 -1.9923 0.9622
6.1985 -7.0924 -1.9911 0.9622
6.8024 -6.5079 -1.9899 0.9622
7.3518 -5.8724 -1.9889 0.9623
7.8425 -5.1912 -1.9880 0.9623
8.6334 -3.7130 -1.9865 0.9623
9.1511 -2.1195 -1.9856 0.9623
9.3022 -1.2950 -1.9853 0.9623
9.3799 -0.4604 -1.9851 0.9623
9.3835 0.3778 -1.9851 0.9623
9.3130 1.2130 -1.9852 0.9623
9.1689 2.0387 -1.9854 0.9623
8.9523 2.8486 -1.9858 0.9623
8.6649 3.6364 -1.9863 0.9623
7.4020 5.8065 -1.9886 0.9623
5.1840 6.9952 -1.8404 0.9650
1.6619 8.5775 -1.8468 0.9649
0.8912 8.6981 -1.8482 0.9649
0.0673 5.2537 -1.1106 0.9787
-0.6689 8.7316 -1.8511 0.9648
-2.2125 8.4869 -1.8539 0.9648
-2.9626 8.2619 -1.8553 0.9648
-3.6901 7.9706 -1.8566 0.9647
-4.3890 7.6151 -1.8579 0.9647
-5.0539 7.1982 -1.8591 0.9647
-6.2595 6.1935 -1.8614 0.9646
-6.7903 5.6137 -1.8623 0.9646
-7.2673 4.9883 -1.8632 0.9646
-7.6863 4.3223 -1.8640 0.9646
-8.4998 3.8263 -1.9703 0.9626
-9.0231 3.1281 -2.0187 0.9617
-9.4390 1.4763 -2.0195 0.9617
-9.5522 -0.2236 -2.0197 0.9617
-9.3592 -1.9164 -2.0194 0.9617
-8.8662 -3.5467 -2.0185 0.9617
-8.5120 -4.3217 -2.0179 0.9617
-7.0556 -6.4119 -2.0153 0.9618
-6.4523 -7.0117 -2.0142 0.9618
-5.0982 -8.0364 -2.0117 0.9618
-2.7838 -9.0800 -2.0075 0.9619
-1.9616 -9.2851 -2.0060 0.9619
-1.1251 -9.4159 -2.0045 0.9620
-0.2809 -9.4714 -2.0029 0.9620
0.5643 -9.4514 -2.0014 0.9620
2.2306 -9.1869 -1.9984 0.9621
3.0386 -8.9448 -1.9969 0.9621
3.8212 -8.6321 -1.9954 0.9621
5.9577 -7.2986 -1.9915 0.9622
6.5809 -6.7345 -1.9904 0.9622
7.6646 -5.4530 -1.9883 0.9623
8.1169 -4.7459 -1.9875 0.9623
8.8249 -3.2267 -1.9862 0.9623
9.0752 -2.4264 -1.9857 0.9623
9.3593 -0.7758 -1.9852 0.9623
9.3908 0.0618 -1.9851 0.9623
9.0423 2.5456 -1.9857 0.9623
8.0534 4.8521 -1.9874 0.9623
7.5919 5.5532 -1.9883 0.9623
5.9979 6.3017 -1.8390 0.9651
5.4153 6.8152 -1.8400 0.9650
4.7890 7.2754 -1.8411 0.9650
2.6984 8.3005 -1.8449 0.9649
0.4064 8.7384 -1.8491 0.9649
-0.3746 8.7466 -1.8505 0.9648
-1.1539 8.6850 -1.8520 0.9648
-1.9251 8.5541 -1.8534 0.9648
-2.6821 8.3546 -1.8548 0.9648
-4.8076 7.3624 -1.8587 0.9647
-5.4484 6.9088 -1.8599 0.9647
-6.5963 5.8379 -1.8620 0.9646
-7.5354 4.5778 -1.8637 0.9646
-7.9165 3.8892 -1.8644 0.9646
-8.9061 3.4274 -2.0172 0.9617
-9.1845 2.6220 -2.0190 0.9617
-9.3834 1.7930 -2.0194 0.9617
-9.5543 0.0979 -2.0197 0.9617
-9.4188 -1.6004 -2.0195 0.9617
-7.7938 -5.5020 -2.0166 0.9617
-7.2688 -6.1721 -2.0157 0.9618
-6.0504 -7.3569 -2.0134 0.9618
-4.6416 -8.3040 -2.0109 0.9619
-3.8801 -8.6788 -2.0095 0.9619
-3.0886 -8.9837 -2.0081 0.9619
1.0883 -9.4010 -2.0004 0.9620
1.9207 -9.2594 -1.9989 0.9621
2.7366 -9.0445 -1.9974 0.9621
3.5295 -8.7581 -1.9960 0.9621
4.2933 -8.4026 -1.9946 0.9622
5.0220 -7.9810 -1.9932 0.9622
5.7100 -7.4967 -1.9920 0.9622
6.3519 -6.9536 -1.9908 0.9622
6.9428 -6.3561 -1.9897 0.9622
7.4781 -5.7089 -1.9887 0.9623
7.9538 -5.0172 -1.9878 0.9623
8.3662 -4.2863 -1.9870 0.9623
8.9892 -2.7307 -1.9859 0.9623
9.1950 -1.9179 -1.9855 0.9623
9.3877 -0.2543 -1.9851 0.9623
9.2843 1.4172 -1.9852 0.9623
9.1222 2.2397 -1.9855 0.9623
7.7732 5.2937 -1.9879 0.9623
7.2735 5.9684 -1.9888 0.9623
6.2053 6.0950 -1.8386 0.9651
3.6923 7.8992 -1.8431 0.9650
2.9754 8.2027 -1.8444 0.9650
1.4734 8.6135 -1.8472 0.9649
-0.8607 8.7164 -1.8514 0.9648
-3.1439 8.1963 -1.8556 0.9647
-3.8649 7.8890 -1.8569 0.9647
-5.8262 6.5977 -1.8606 0.9647
-6.9129 5.4639 -1.8626 0.9646
-7.3759 4.8280 -1.8634 0.9646
-7.7801 4.1528 -1.8642 0.9646
-9.0902 2.9293 -2.0188 0.9617
-9.3172 2.1076 -2.0192 0.9617
-9.4694 1.2687 -2.0195 0.9617
-9.5455 0.4194 -2.0197 0.9617
-9.5450 -0.4334 -2.0197 0.9617
-9.3144 -2.1214 -2.0193 0.9617
-9.0864 -2.9428 -2.0189 0.9617
-8.7855 -3.7402 -2.0184 0.9617
-7.9758 -5.2374 -2.0169 0.9617
-6.9122 -6.5645 -2.0150 0.9618
-6.2959 -7.1507 -2.0139 0.9618
-4.1710 -8.5455 -2.0100 0.9619
-2.5832 -9.1373 -2.0071 0.9619
-1.7569 -9.3242 -2.0056 0.9620
-0.0727 -9.4735 -2.0026 0.9620
1.6085 -9.3215 -1.9995 0.9621
3.2337 -8.8743 -1.9965 0.9621
4.7518 -8.1475 -1.9937 0.9622
5.4558 -7.6864 -1.9924 0.9622
6.1156 -7.1650 -1.9912 0.9622
7.7817 -5.2828 -1.9881 0.9623
9.2866 -1.4037 -1.9853 0.9623
9.3740 -0.5700 -1.9851 0.9623
9.1919 1.9314 -1.9854 0.9623
8.7065 3.5347 -1.9863 0.9623
8.3592 4.2983 -1.9869 0.9623
7.9457 5.0284 -1.9876 0.9623
7.4689 5.7192 -1.9885 0.9623
6.7100 6.1610 -1.9255 0.9634
3.9550 7.7684 -1.8427 0.9650
3.2488 8.0958 -1.8439 0.9650
0.9927 8.6863 -1.8481 0.9649
0.2144 8.7469 -1.8495 0.9649
-0.5667 8.7379 -1.8509 0.9648
-1.3446 8.6592 -1.8523 0.9648
-2.1129 8.5113 -1.8537 0.9648
-2.8655 8.2952 -1.8551 0.9648
-5.5996 6.7885 -1.8601 0.9647
-6.1862 6.2658 -1.8612 0.9646
-6.7238 5.6924 -1.8622 0.9646
-7.6349 4.4116 -1.8639 0.9646
-8.2782 3.8435 -1.9292 0.9634
-9.4209 1.5865 -2.0194 0.9617
-9.5258 0.7403 -2.0196 0.9617
-9.5058 -0.9633 -2.0196 0.9617
-9.1810 -2.6356 -2.0191 0.9617
-8.9074 -3.4429 -2.0186 0.9617
-8.1488 -4.9669 -2.0172 0.9617
-7.1306 -6.3294 -2.0154 0.9618
-6.5344 -6.9363 -2.0143 0.9618
-5.1922 -7.9769 -2.0119 0.9618
-3.6878 -8.7604 -2.0092 0.9619
-2.8900 -9.0478 -2.0077 0.9619
-0.3916 -9.4684 -2.0032 0.9620
0.4538 -9.4583 -2.0016 0.9620
2.9341 -8.9806 -1.9971 0.9621
3.7204 -8.6770 -1.9956 0.9621
5.8724 -7.3683 -1.9917 0.9622
7.0798 -6.2012 -1.9894 0.9623
8.0613 -4.8407 -1.9876 0.9623
8.4576 -4.1012 -1.9869 0.9623
9.3497 -0.8852 -1.9852 0.9623
9.3580 0.7895 -1.9851 0.9623
8.8196 3.2395 -1.9861 0.9623
8.1092 4.7574 -1.9873 0.9623
7.6558 5.4637 -1.9881 0.9623
7.1312 6.1186 -1.9862 0.9623
6.0707 6.2307 -1.8388 0.9651
5.4942 6.7509 -1.8399 0.9650
4.8733 7.2183 -1.8410 0.9650
3.5185 7.9798 -1.8435 0.9650
6.6776 -5.2072 -1.9901 0.9658
7.1124 -4.5892 -1.9893 0.9658
8.2590 -1.8114 -1.9872 0.9659
8.4478 -0.3157 -1.9868 0.9659
8.2316 1.9316 -1.9872 0.9659
8.0280 2.6583 -1.9875 0.9658
7.4322 4.0440 -1.9886 0.9658
5.8066 5.5874 -1.8939 0.9674
5.1365 5.9115 -1.8405 0.9683
3.3947 7.0722 -1.8437 0.9683
2.7523 7.3514 -1.8449 0.9683
2.0873 7.5724 -1.8461 0.9682
1.4048 7.7336 -1.8473 0.9682
-0.6934 7.8459 -1.8512 0.9682
-2.0788 7.6084 -1.8537 0.9681
-3.4015 7.1275 -1.8561 0.9681
-4.0259 6.8001 -1.8573 0.9681
-4.6189 6.4178 -1.8584 0.9680
-5.1756 5.9837 -1.8594 0.9680
-6.1621 4.9742 -1.8612 0.9680
-6.5838 4.4068 -1.8620 0.9680
-8.5808 -0.3013 -2.0179 0.9653
-8.5194 -1.0651 -2.0178 0.9653
-8.3895 -1.8203 -2.0176 0.9653
-8.1924 -2.5606 -2.0173 0.9653
-6.7719 -5.2563 -2.0147 0.9654
-5.7253 -6.3695 -2.0128 0.9654
-3.1301 -7.9504 -2.0081 0.9655
-0.9127 -8.4782 -2.0041 0.9656
1.3608 -8.4000 -1.9999 0.9656
2.1029 -8.2396 -1.9986 0.9657
4.2004 -7.3751 -1.9947 0.9657
4.8384 -6.9671 -1.9935 0.9657
5.4373 -6.5043 -1.9924 0.9658
5.9925 -5.9906 -1.9914 0.9658
6.4996 -5.4299 -1.9905 0.9658
6.9549 -4.8267 -1.9896 0.9658
7.3548 -4.1858 -1.9889 0.9658
7.9767 -2.8113 -1.9877 0.9658
8.4325 -0.5998 -1.9868 0.9659
8.4522 0.1544 -1.9868 0.9659
8.4051 0.9075 -1.9869 0.9659
7.8689 3.1009 -1.9878 0.9658
7.1974 4.4519 -1.9890 0.9658
6.7744 5.0779 -1.9898 0.9658
6.2825 5.6507 -1.9859 0.9659
4.8015 6.1900 -1.8411 0.9683
4.2328 6.5971 -1.8422 0.9683
2.9974 7.2528 -1.8444 0.9683
2.3403 7.4960 -1.8456 0.9682
1.6638 7.6800 -1.8468 0.9682
0.2736 7.8642 -1.8494 0.9682
-0.4289 7.8627 -1.8507 0.9682
-1.1290 7.7985 -1.8519 0.9681
-1.8211 7.6721 -1.8532 0.9681
-4.3994 6.5682 -1.8579 0.9680
-4.9703 6.1532 -1.8590 0.9680
-5.5020 5.6886 -1.8600 0.9680
-5.9902 5.1779 -1.8609 0.9680
-6.4308 4.6252 -1.8617 0.9680
-6.8202 4.0350 -1.8624 0.9680
-8.0445 2.9883 -2.0169 0.9654
-8.2808 2.2597 -2.0173 0.9653
-8.5527 0.7532 -2.0179 0.9653
-8.5861 -0.0124 -2.0179 0.9653
-8.0363 -3.0117 -2.0170 0.9654
-7.7337 -3.7152 -2.0165 0.9654
-7.3693 -4.3885 -2.0158 0.9654
-6.9460 -5.0262 -2.0150 0.9654
-5.9375 -6.1744 -2.0132 0.9654
-3.3967 -7.8424 -2.0086 0.9655
-2.6822 -8.1088 -2.0073 0.9655
-1.9472 -8.3101 -2.0060 0.9655
-1.1977 -8.4449 -2.0046 0.9656
-0.4397 -8.5121 -2.0032 0.9656
4.6022 -7.1275 -1.9940 0.9657
7.8783 -3.0784 -1.9879 0.9658
8.1195 -2.3632 -1.9875 0.9658
8.2965 -1.6295 -1.9871 0.9659
8.4307 0.6241 -1.9868 0.9659
8.3421 1.3734 -1.9870 0.9659
8.1875 2.1120 -1.9872 0.9659
7.9681 2.8341 -1.9876 0.9658
7.6856 3.5342 -1.9881 0.9658
7.3422 4.2067 -1.9887 0.9658
5.5204 5.5506 -1.8398 0.9683
4.4514 6.4495 -1.8418 0.9683
3.8609 6.8247 -1.8428 0.9683
3.2390 7.1462 -1.8440 0.9683
2.5906 7.4112 -1.8452 0.9683
1.9208 7.6177 -1.8464 0.9682
1.2348 7.7639 -1.8476 0.9682
-0.8657 7.8301 -1.8515 0.9681
-1.5615 7.7270 -1.8527 0.9681
-2.2457 7.5621 -1.8540 0.9681
-3.5578 7.0522 -1.8564 0.9681
-4.1749 6.7110 -1.8575 0.9680
-5.3064 5.8694 -1.8596 0.9680
-5.8115 5.3756 -1.8606 0.9680
-7.4586 3.8699 -1.9748 0.9661
-8.5816 0.2766 -2.0179 0.9653
-8.5721 -0.4897 -2.0179 0.9653
-8.3472 -2.0040 -2.0175 0.9653
-8.1338 -2.7398 -2.0172 0.9653
-7.8552 -3.4532 -2.0167 0.9654
-6.1431 -5.9722 -2.0136 0.9654
-5.5833 -6.4928 -2.0126 0.9654
-4.9794 -6.9610 -2.0115 0.9654
-4.3365 -7.3730 -2.0103 0.9655
-2.9543 -8.0159 -2.0078 0.9655
-2.2264 -8.2420 -2.0065 0.9655
-1.4816 -8.4020 -2.0051 0.9656
-0.7261 -8.4947 -2.0037 0.9656
0.0342 -8.5197 -2.0024 0.9656
0.7931 -8.4769 -2.0010 0.9656
1.5447 -8.3667 -1.9996 0.9656
2.2830 -8.1901 -1.9982 0.9657
3.0021 -7.9486 -1.9969 0.9657
3.6965 -7.6444 -1.9956 0.9657
4.3607 -7.2799 -1.9944 0.9657
4.9895 -6.8582 -1.9933 0.9658
6.1218 -5.8568 -1.9912 0.9658
6.6166 -5.2852 -1.9903 0.9658
7.4444 -4.0229 -1.9887 0.9658
8.0360 -2.6353 -1.9876 0.9658
8.4436 -0.4144 -1.9868 0.9659
8.4468 0.3400 -1.9868 0.9659
8.3833 1.0919 -1.9869 0.9659
8.2535 1.8352 -1.9871 0.9659
7.7994 3.2732 -1.9879 0.9658
7.0985 4.6093 -1.9892 0.9658
6.6619 5.2260 -1.9900 0.9658
6.1073 5.7407 -1.9699 0.9661
5.2049 5.8507 -1.8404 0.9683
4.6650 6.2948 -1.8414 0.9683
4.0875 6.6894 -1.8424 0.9683
3.4768 7.0315 -1.8435 0.9683
2.8379 7.3181 -1.8447 0.9683
0.8016 7.8239 -1.8484 0.9682
-1.3003 7.7732 -1.8523 0.9681
-1.9895 7.6315 -1.8535 0.9681
-3.9458 6.8461 -1.8571 0.9681
-5.1049 6.0434 -1.8592 0.9680
-5.6263 5.5671 -1.8602 0.9680
-8.1087 2.8111 -2.0170 0.9654
-8.3288 2.0773 -2.0174 0.9653
-8.4821 1.3267 -2.0177 0.9653
-8.5673 0.5652 -2.0179 0.9653
-8.5838 -0.2010 -2.0179 0.9653
-8.5313 -0.9654 -2.0179 0.9653
-8.2220 -2.4647 -2.0173 0.9653
-7.9677 -3.1873 -2.0169 0.9654
-7.2705 -4.5489 -2.0156 0.9654
-6.8333 -5.1770 -2.0148 0.9654
-6.3417 -5.7631 -2.0139 0.9654
-5.7998 -6.3025 -2.0130 0.9654
-4.5831 -7.2245 -2.0108 0.9655
-2.5031 -8.1644 -2.0070 0.9655
-1.7640 -8.3495 -2.0056 0.9655
-0.2526 -8.5183 -2.0029 0.9656
0.5075 -8.5010 -2.0015 0.9656
2.0066 -8.2643 -1.9987 0.9657
2.7336 -8.0471 -1.9974 0.9657
4.7569 -7.0237 -1.9937 0.9657
5.3612 -6.5679 -1.9926 0.9658
5.9224 -6.0606 -1.9915 0.9658
6.4361 -5.5058 -1.9906 0.9658
7.3057 -4.2717 -1.9890 0.9658
8.1691 -2.1842 -1.9874 0.9659
8.4250 -0.6983 -1.9869 0.9659
8.4534 0.0556 -1.9868 0.9659
8.4150 0.8091 -1.9868 0.9659
8.3101 1.5563 -1.9870 0.9659
7.6067 3.7024 -1.9883 0.9658
7.2486 4.3673 -1.9889 0.9658
6.3530 5.5811 -1.9874 0.9658
5.3978 5.6711 -1.8401 0.9683
4.8731 6.1330 -1.8410 0.9683
4.3093 6.5467 -1.8420 0.9683
3.7106 6.9089 -1.8431 0.9683
3.0818 7.2167 -1.8443 0.9683
1.7533 7.6593 -1.8467 0.9682
1.0641 7.7904 -1.8479 0.9682
-0.3369 7.8665 -1.8505 0.9682
-1.0377 7.8105 -1.8518 0.9681
-1.7311 7.6922 -1.8530 0.9681
-2.4117 7.5122 -1.8543 0.9681
-3.0739 7.2720 -1.8555 0.9681
-4.3220 6.6186 -1.8578 0.9680
-4.8976 6.2105 -1.8589 0.9680
-5.4348 5.7521 -1.8599 0.9680
-6.7723 4.1142 -1.8623 0.9680
-8.0088 3.0821 -2.0168 0.9654
-8.4322 1.6113 -2.0176 0.9653
-8.5432 0.8531 -2.0178 0.9653
-8.5857 0.0880 -2.0179 0.9653
-8.3009 -2.1868 -2.0175 0.9653
-8.0712 -2.9176 -2.0171 0.9653
-7.7769 -3.6247 -2.0165 0.9654
-7.4204 -4.3023 -2.0159 0.9654
-7.0047 -4.9449 -2.0151 0.9654
-6.5331 -5.5474 -2.0143 0.9654
-5.4386 -6.6131 -2.0123 0.9654
-4.8247 -7.0677 -2.0112 0.9654
-4.1728 -7.4654 -2.0100 0.9655
-3.4885 -7.8028 -2.0088 0.9655
-2.7771 -8.0776 -2.0075 0.9655
-2.0444 -8.2875 -2.0061 0.9655
-1.2965 -8.4311 -2.0048 0.9656
-0.5392 -8.5072 -2.0034 0.9656
5.7162 -6.2577 -1.9919 0.9658
6.7304 -5.1381 -1.9900 0.9658
8.0915 -2.4580 -1.9875 0.9658
8.3970 -0.9815 -1.9869 0.9659
8.4373 0.5255 -1.9868 0.9659
8.2114 2.0161 -1.9872 0.9659
8.0005 2.7407 -1.9876 0.9658
7.3905 4.1203 -1.9887 0.9658
6.5462 5.3716 -1.9902 0.9658
5.0758 5.9643 -1.8406 0.9683
4.5262 6.3966 -1.8416 0.9683
3.3221 7.1072 -1.8438 0.9683
0.6297 7.8409 -1.8487 0.9682
-0.0473 5.1650 -1.2139 0.9790
-1.4709 7.7441 -1.8526 0.9681
-2.1570 7.5872 -1.8538 0.9681
-5.2371 5.9306 -1.8595 0.9680
-5.7479 5.4428 -1.8604 0.9680
-6.2132 4.9109 -1.8613 0.9680
-6.6291 4.3392 -1.8621 0.9680
-8.1690 2.6324 -2.0171 0.9653
-8.3727 1.8940 -2.0175 0.9653
-8.5777 0.3769 -2.0179 0.9653
-8.5772 -0.3894 -2.0179 0.9653
-8.5079 -1.1526 -2.0178 0.9653
-7.1682 -4.7071 -2.0154 0.9654
-6.7172 -5.3253 -2.0146 0.9654
-6.2128 -5.9003 -2.0137 0.9654
-5.0609 -6.9028 -2.0116 0.9654
-4.4227 -7.3224 -2.0105 0.9655
-2.3227 -8.2161 -2.0067 0.9655
-1.5799 -8.3848 -2.0053 0.9655
-0.8254 -8.4865 -2.0039 0.9656
-0.0654 -8.5203 -2.0025 0.9656
1.4469 -8.3849 -1.9998 0.9656
2.1872 -8.2169 -1.9984 0.9657
4.9094 -6.9165 -1.9934 0.9657
7.0038 -4.7547 -1.9895 0.9658
7.3971 -4.1098 -1.9888 0.9658
7.7317 -3.4329 -1.9882 0.9658
8.0049 -2.7291 -1.9877 0.9658
8.2147 -2.0041 -1.9873 0.9659
8.3595 -1.2635 -1.9870 0.9659
8.3954 0.9938 -1.9869 0.9659
8.0875 2.4697 -1.9874 0.9659
7.5241 3.8689 -1.9884 0.9658
7.1516 4.5258 -1.9891 0.9658
5.2726 5.7890 -1.8403 0.9683
4.7379 6.2394 -1.8413 0.9683
3.5585 6.9898 -1.8434 0.9683
2.9230 7.2838 -1.8446 0.9683
0.1268 5.1734 -1.2162 0.9790
-1.2092 7.7872 -1.8521 0.9681
-3.2334 7.2039 -1.8558 0.9681
-5.0336 6.1022 -1.8591 0.9680
-6.0434 5.1163 -1.8610 0.9680
-6.8616 3.9648 -1.8625 0.9680
-7.7681 3.6067 -2.0129 0.9654
-8.0750 2.9056 -2.0169 0.9654
-8.3037 2.1745 -2.0174 0.9653
-8.4658 1.4257 -2.0177 0.9653
-8.5600 0.6653 -2.0179 0.9653
-8.2505 -2.3685 -2.0174 0.9653
-8.0047 -3.0940 -2.0169 0.9654
-5.8734 -6.2347 -2.0131 0.9654
-5.2914 -6.7300 -2.0120 0.9654
-2.5986 -8.1353 -2.0072 0.9655
-1.8616 -8.3290 -2.0058 0.9655
1.1642 -8.4310 -2.0003 0.9656
1.9100 -8.2880 -1.9989 0.9657
2.6396 -8.0793 -1.9976 0.9657
4.0274 -7.4724 -1.9950 0.9657
4.6748 -7.0794 -1.9938 0.9657
7.2556 -4.3570 -1.9891 0.9658
7.6127 -3.6915 -1.9884 0.9658
7.9093 -2.9972 -1.9878 0.9658
8.1432 -2.2796 -1.9874 0.9659
8.4535 -0.0432 -1.9868 0.9659
8.4239 0.7107 -1.9868 0.9659
8.3276 1.4591 -1.9870 0.9659
7.9388 2.9159 -1.9877 0.9658
7.6492 3.6131 -1.9882 0.9658
4.9442 6.0751 -1.8409 0.9683
4.3852 6.4954 -1.8419 0.9683
3.7908 6.8645 -1.8430 0.9683
2.5145 7.4380 -1.8453 0.9683
1.8426 7.6377 -1.8465 0.9682
6.4598 -4.1682 -1.9905 0.9687
6.8035 -3.5745 -1.9899 0.9687
7.3266 -2.3081 -1.9889 0.9688
7.6179 -0.9699 -1.9883 0.9688
7.6029 1.0808 -1.9883 0.9688
7.2921 2.4146 -1.9889 0.9688
7.0493 3.0558 -1.9893 0.9688
6.7506 3.6731 -1.9898 0.9687
5.9949 4.8170 -1.9912 0.9687
4.6646 5.3685 -1.8414 0.9710
3.0824 6.4216 -1.8443 0.9710
2.4990 6.6747 -1.8453 0.9710
1.8950 6.8750 -1.8464 0.9710
1.2753 7.0208 -1.8476 0.9709
0.0058 5.1687 -1.3383 0.9789
-0.6294 7.1214 -1.8510 0.9709
-3.0866 6.4678 -1.8556 0.9708
-4.6958 5.4290 -1.8585 0.9708
-5.1635 4.9910 -1.8594 0.9708
-5.9727 3.9978 -1.8609 0.9707
-7.1341 3.1117 -2.0152 0.9684
-7.3849 2.4638 -2.0157 0.9683
-7.5765 1.7959 -2.0161 0.9683
-7.7074 1.1133 -2.0163 0.9683
-7.7276 -0.9661 -2.0164 0.9683
-7.1930 -2.9754 -2.0154 0.9683
-6.5465 -4.2032 -2.0143 0.9684
-6.1434 -4.7684 -2.0136 0.9684
-4.0813 -6.6029 -2.0098 0.9684
-2.8405 -7.2147 -2.0076 0.9685
-2.1846 -7.4348 -2.0064 0.9685
-0.8283 -7.6951 -2.0039 0.9685
0.5508 -7.7102 -2.0014 0.9686
1.2353 -7.6256 -2.0001 0.9686
3.8140 -6.6968 -1.9954 0.9687
4.9377 -5.9067 -1.9933 0.9687
5.9030 -4.9314 -1.9916 0.9687
6.9905 -3.1901 -1.9895 0.9687
7.2454 -2.5535 -1.9891 0.9688
7.6597 -0.5448 -1.9883 0.9688
7.6348 0.8243 -1.9883 0.9688
6.8696 3.4435 -1.9896 0.9687
6.5372 4.0435 -1.9902 0.9687
6.1527 4.6119 -1.9909 0.9687
5.7134 5.1388 -1.9896 0.9687
4.8418 5.2076 -1.8411 0.9710
4.3603 5.6212 -1.8420 0.9710
2.7216 6.5853 -1.8449 0.9710
0.8834 7.0836 -1.8483 0.9709
0.1807 5.1942 -1.3457 0.9788
-0.3893 7.1369 -1.8506 0.9709
-1.0247 7.0782 -1.8518 0.9709
-2.2684 6.7920 -1.8540 0.9708
-2.8666 6.5666 -1.8551 0.9708
-3.4426 6.2884 -1.8562 0.9708
-4.9918 5.1610 -1.8591 0.9708
-5.4344 4.6975 -1.8599 0.9708
-5.8340 4.1959 -1.8606 0.9707
-7.0247 3.3497 -2.0150 0.9684
-7.2972 2.7107 -2.0155 0.9683
-7.6653 1.3720 -2.0162 0.9683
-7.7578 0.6832 -2.0164 0.9683
-7.6615 -1.3942 -2.0163 0.9683
-7.5057 -2.0714 -2.0160 0.9683
-7.2897 -2.7319 -2.0156 0.9683
-7.0154 -3.3701 -2.0151 0.9684
-5.8674 -5.1013 -2.0131 0.9684
-4.3021 -6.4631 -2.0102 0.9684
-3.7067 -6.8173 -2.0092 0.9684
0.9783 -7.6646 -2.0006 0.9686
1.6567 -7.5422 -1.9994 0.9686
2.3212 -7.3600 -1.9982 0.9686
4.1790 -6.4722 -1.9947 0.9687
5.2569 -5.6214 -1.9928 0.9687
5.7346 -5.1281 -1.9919 0.9687
6.5493 -4.0250 -1.9904 0.9687
6.8799 -3.4239 -1.9897 0.9687
7.3752 -2.1465 -1.9888 0.9688
7.5361 -1.4802 -1.9885 0.9688
7.6780 -0.1182 -1.9882 0.9688
7.6581 0.5669 -1.9882 0.9688
7.2376 2.5743 -1.9890 0.9688
6.9809 3.2101 -1.9894 0.9688
6.3036 4.4016 -1.9906 0.9687
5.2511 5.2798 -1.9280 0.9697
4.5461 5.4703 -1.8416 0.9710
1.7438 6.9160 -1.8467 0.9710
0.4884 7.1246 -1.8490 0.9709
-0.1077 5.1657 -1.3378 0.9789
-0.7858 7.1070 -1.8513 0.9709
-1.4172 7.0130 -1.8525 0.9709
-2.0381 6.8629 -1.8536 0.9709
-2.6435 6.6578 -1.8547 0.9708
-3.2284 6.3993 -1.8558 0.9708
-3.7882 6.0894 -1.8568 0.9708
-5.2724 4.8769 -1.8596 0.9708
-5.6886 4.3892 -1.8603 0.9707
-6.1738 3.9388 -1.8961 0.9702
-7.2012 2.9545 -2.0153 0.9684
-7.7840 0.2508 -2.0165 0.9683
-7.7754 -0.4442 -2.0165 0.9683
-7.7043 -1.1356 -2.0163 0.9683
-6.4520 -4.3456 -2.0141 0.9684
-6.0366 -4.9017 -2.0134 0.9684
-5.5732 -5.4182 -2.0125 0.9684
-3.9348 -6.6901 -2.0096 0.9684
-2.6810 -7.2743 -2.0073 0.9685
-2.0205 -7.4799 -2.0061 0.9685
-1.3447 -7.6256 -2.0049 0.9685
0.0310 -7.7334 -2.0023 0.9686
0.7200 -7.6950 -2.0011 0.9686
1.4023 -7.5954 -1.9998 0.9686
2.0727 -7.4356 -1.9986 0.9686
3.9597 -6.6105 -1.9951 0.9687
4.5309 -6.2278 -1.9941 0.9687
5.0656 -5.7962 -1.9931 0.9687
6.7616 -3.6539 -1.9900 0.9687
7.0584 -3.0356 -1.9894 0.9688
7.2993 -2.3937 -1.9890 0.9688
7.6062 -1.0589 -1.9884 0.9688
7.6698 -0.3765 -1.9882 0.9688
7.6150 0.9918 -1.9883 0.9688
7.4970 1.6670 -1.9885 0.9688
7.3196 2.3291 -1.9888 0.9688
6.4473 4.1865 -1.9904 0.9687
5.5921 5.2564 -1.9871 0.9688
4.7268 5.3133 -1.8413 0.9710
4.2363 5.7163 -1.8422 0.9710
3.7117 6.0744 -1.8431 0.9710
3.1570 6.3846 -1.8441 0.9710
1.3572 7.0049 -1.8474 0.9709
0.0663 5.1716 -1.3391 0.9789
-0.5461 7.1277 -1.8509 0.9709
-1.1801 7.0550 -1.8521 0.9709
-4.1223 5.8713 -1.8575 0.9708
-7.5549 1.8843 -2.0160 0.9683
-7.6938 1.2034 -2.0163 0.9683
-7.7384 -0.8757 -2.0164 0.9683
-7.4580 -2.2357 -2.0159 0.9683
-6.9392 -3.5232 -2.0150 0.9684
-6.1990 -4.6965 -2.0137 0.9684
-4.1585 -6.5552 -2.0100 0.9684
-2.2716 -7.4093 -2.0065 0.9685
-1.6009 -7.5777 -2.0053 0.9685
-0.9183 -7.6855 -2.0041 0.9685
0.4607 -7.7167 -2.0016 0.9686
1.1462 -7.6401 -2.0003 0.9686
1.8217 -7.5029 -1.9991 0.9686
2.4819 -7.3061 -1.9979 0.9686
3.1216 -7.0516 -1.9967 0.9686
3.7358 -6.7414 -1.9956 0.9687
4.3196 -6.3780 -1.9945 0.9687
4.8686 -5.9644 -1.9935 0.9687
5.3785 -5.5040 -1.9925 0.9687
6.2654 -4.4575 -1.9909 0.9687
6.9530 -3.2718 -1.9896 0.9687
7.2152 -2.6381 -1.9891 0.9688
7.4203 -1.9840 -1.9887 0.9688
7.5665 -1.3143 -1.9884 0.9688
7.6529 -0.6343 -1.9883 0.9688
7.6439 0.7350 -1.9883 0.9688
7.3934 2.0814 -1.9887 0.9688
6.9092 3.3629 -1.9895 0.9687
6.5837 3.9667 -1.9901 0.9687
6.2059 4.5394 -1.9908 0.9687
2.7982 6.5526 -1.8448 0.9710
2.2041 6.7799 -1.8459 0.9710
1.5918 6.9536 -1.8470 0.9710
0.9660 7.0722 -1.8481 0.9709
0.3318 7.1347 -1.8493 0.9709
-0.3058 7.1404 -1.8505 0.9709
-2.1887 6.8175 -1.8539 0.9708
-4.9308 5.2187 -1.8589 0.9708
-5.3789 4.7604 -1.8598 0.9708
-5.7842 4.2636 -1.8605 0.9707
-6.4471 3.9167 -1.9532 0.9693
-7.2648 2.7957 -2.0155 0.9683
-7.4867 2.1373 -2.0159 0.9683
-7.6486 1.4615 -2.0162 0.9683
-7.7492 0.7738 -2.0164 0.9683
-7.7877 0.0798 -2.0165 0.9683
-7.7637 -0.6148 -2.0164 0.9683
-7.0546 -3.2880 -2.0152 0.9684
-6.7314 -3.9028 -2.0146 0.9684
-6.3545 -4.4859 -2.0139 0.9684
-5.9269 -5.0327 -2.0132 0.9684
-5.4523 -5.5387 -2.0123 0.9684
-4.9344 -6.0000 -2.0114 0.9684
-3.7864 -6.7740 -2.0093 0.9684
-3.1656 -7.0806 -2.0082 0.9685
-1.8554 -7.5213 -2.0058 0.9685
-0.4895 -7.7217 -2.0033 0.9685
0.8887 -7.6762 -2.0008 0.9686
2.2351 -7.3872 -1.9983 0.9686
2.8832 -7.1542 -1.9971 0.9686
3.5075 -6.8647 -1.9960 0.9686
4.1034 -6.5211 -1.9949 0.9687
4.6660 -6.1260 -1.9938 0.9687
5.1911 -5.6829 -1.9929 0.9687
5.6746 -5.1950 -1.9920 0.9687
6.1127 -4.6665 -1.9912 0.9687
6.5021 -4.1014 -1.9904 0.9687
6.8397 -3.5043 -1.9898 0.9687
7.3498 -2.2327 -1.9889 0.9688
7.6762 -0.2079 -1.9882 0.9688
7.6641 0.4773 -1.9882 0.9688
7.4588 1.8313 -1.9886 0.9688
7.2671 2.4895 -1.9889 0.9688
6.7127 3.7424 -1.9899 0.9687
5.9454 4.8786 -1.9913 0.9687
5.4684 5.3712 -1.9846 0.9688
4.6095 5.4164 -1.8415 0.9710
4.1102 5.8087 -1.8424 0.9710
3.5778 6.1553 -1.8434 0.9710
2.4304 6.7004 -1.8455 0.9710
1.8244 6.8946 -1.8466 0.9710
-0.0471 5.1535 -1.3344 0.9789
-0.7026 7.1151 -1.8512 0.9709
-1.3350 7.0285 -1.8523 0.9709
-2.5652 6.6878 -1.8546 0.9708
-3.1531 6.4362 -1.8557 0.9708
-4.7515 5.3807 -1.8586 0.9708
-5.2148 4.9379 -1.8595 0.9708
-6.8519 3.6574 -2.0110 0.9684
-7.5947 1.7180 -2.0161 0.9683
-7.7185 1.0341 -2.0163 0.9683
-7.7805 0.3418 -2.0165 0.9683
-7.5924 -1.7292 -2.0162 0.9683
-7.1619 -3.0490 -2.0154 0.9683
-6.0938 -4.8311 -2.0135 0.9684
-5.6365 -5.3530 -2.0127 0.9684
-5.1345 -5.8316 -2.0117 0.9684
-4.5918 -6.2631 -2.0108 0.9684
-4.0130 -6.6441 -2.0097 0.9684
-3.4028 -6.9716 -2.0086 0.9685
-2.1079 -7.4563 -2.0062 0.9685
-1.4339 -7.6099 -2.0050 0.9685
-0.7492 -7.7027 -2.0038 0.9685
0.6300 -7.7036 -2.0012 0.9686
1.9857 -7.4599 -1.9988 0.9686
2.6414 -7.2488 -1.9976 0.9686
3.2753 -6.9803 -1.9964 0.9686
3.8824 -6.6568 -1.9953 0.9687
6.3612 -4.3185 -1.9907 0.9687
6.7186 -3.7329 -1.9900 0.9687
7.0227 -3.1181 -1.9895 0.9688
7.5934 -1.1477 -1.9884 0.9688
7.6758 0.2192 -1.9882 0.9688
7.3462 2.2434 -1.9888 0.9688
7.1184 2.8900 -1.9892 0.9688
6.8341 3.5141 -1.9897 0.9687
5.6570 5.1942 -1.9885 0.9688
4.7883 5.2573 -1.8412 0.9710
4.3025 5.6660 -1.8421 0.9710
3.7822 6.0302 -1.8430 0.9710
3.2312 6.3468 -1.8440 0.9710
2.6539 6.6134 -1.8451 0.9710
0.8106 7.0929 -1.8484 0.9709
0.1264 5.1581 -1.3359 0.9789
-1.0975 7.0678 -1.8519 0.9709
-1.7244 6.9461 -1.8531 0.9709
-2.3382 6.7688 -1.8542 0.9708
-2.9341 6.5372 -1.8553 0.9708
-5.4827 4.6416 -1.8600 0.9708
-7.0589 3.2774 -2.0151 0.9684
-7.3249 2.6357 -2.0156 0.9683
-7.7645 0.6035 -2.0164 0.9683
-7.6467 -1.4728 -2.0162 0.9683
-7.4838 -2.1484 -2.0160 0.9683
