ply
format ascii 1.0
element vertex 1583
property float32 x
property float32 y
property float32 z
property float32 I
end_header
12.1428 -7.3711 -2.0127 0.9442
12.7577 -6.2612 -2.0136 0.9442
13.6775 -3.8973 -2.0151 0.9442
14.1599 -1.4054 -2.0162 0.9441
14.2314 -0.1367 -2.0165 0.9441
14.0316 2.3950 -2.0169 0.9441
11.9136 5.5657 -1.8632 0.9483
10.7303 7.5910 -1.8624 0.9483
10.0074 8.5154 -1.8618 0.9483
9.2046 9.3709 -1.8611 0.9483
8.0727 9.8388 -1.8032 0.9499
5.7058 10.2377 -1.6607 0.9538
-1.2230 10.4190 -1.4864 0.9585
-2.1845 10.4449 -1.5119 0.9578
-4.2529 10.5004 -1.6052 0.9553
-5.4048 10.5314 -1.6772 0.9533
-10.3387 7.8595 -1.8401 0.9489
-10.9932 6.9025 -1.8392 0.9489
-11.5599 5.8916 -1.8384 0.9489
-13.7387 2.8330 -1.9876 0.9449
-13.9333 1.5957 -1.9871 0.9449
-14.0174 0.3463 -1.9867 0.9449
-13.9907 -0.9055 -1.9865 0.9449
-13.8531 -2.1499 -1.9863 0.9449
-13.2513 -4.5776 -1.9864 0.9449
-12.7915 -5.7422 -1.9867 0.9449
-11.5721 -7.9271 -1.9875 0.9449
-9.0692 -10.7192 -1.9895 0.9449
-3.5587 -13.6205 -1.9947 0.9447
-2.3309 -13.8923 -1.9959 0.9447
1.4337 -14.0413 -1.9998 0.9446
2.6824 -13.8669 -2.0012 0.9445
5.1109 -13.1874 -2.0039 0.9445
6.2712 -12.6874 -2.0053 0.9444
7.3828 -12.0853 -2.0066 0.9444
10.3382 -9.7167 -2.0102 0.9443
11.9129 -7.7330 -2.0124 0.9442
12.5610 -6.6425 -2.0133 0.9442
13.1090 -5.4977 -2.0141 0.9442
13.8867 -3.0827 -2.0155 0.9442
14.2200 -0.5661 -2.0164 0.9441
14.2158 0.7048 -2.0167 0.9441
14.0973 1.9704 -2.0169 0.9441
12.4942 4.1061 -1.8634 0.9483
12.0768 5.2038 -1.8632 0.9483
11.5625 6.2594 -1.8629 0.9483
10.9555 7.2643 -1.8625 0.9483
10.2609 8.2104 -1.8620 0.9483
9.4844 9.0900 -1.8614 0.9483
6.1114 10.2268 -1.6880 0.9530
4.9466 10.2581 -1.6136 0.9550
3.8719 10.2871 -1.5574 0.9566
2.8619 10.3142 -1.5166 0.9577
0.9559 10.3605 -1.4742 0.9588
0.0277 10.3854 -1.4715 0.9589
-2.8428 10.4626 -1.5362 0.9571
-5.0040 10.5206 -1.6507 0.9540
-8.4956 9.8450 -1.8425 0.9488
-9.3346 9.0427 -1.8414 0.9489
-11.3785 6.2387 -1.8386 0.9489
-11.8847 5.1966 -1.8379 0.9489
-13.1808 4.4100 -1.9693 0.9454
-13.6482 3.2467 -1.9878 0.9449
-14.0014 0.7693 -1.9868 0.9449
-14.0121 -0.4828 -1.9865 0.9449
-13.7017 -2.9649 -1.9863 0.9449
-13.3830 -4.1755 -1.9864 0.9449
-12.9584 -5.3532 -1.9866 0.9449
-12.4310 -6.4889 -1.9869 0.9449
-11.0854 -8.5988 -1.9878 0.9449
-8.4222 -11.2398 -1.9900 0.9448
-6.2969 -12.5699 -1.9920 0.9448
-5.1533 -13.0887 -1.9931 0.9448
-3.9674 -13.5041 -1.9943 0.9447
-2.7486 -13.8126 -1.9955 0.9447
1.0089 -14.0750 -1.9994 0.9446
3.4989 -13.6903 -2.0021 0.9445
5.8840 -12.8680 -2.0048 0.9444
7.0131 -12.2999 -2.0061 0.9444
8.0876 -11.6326 -2.0074 0.9444
9.0988 -10.8715 -2.0087 0.9443
10.0383 -10.0224 -2.0099 0.9443
10.8984 -9.0919 -2.0110 0.9443
12.3530 -7.0175 -2.0130 0.9442
12.9353 -5.8901 -2.0139 0.9442
13.4143 -4.7145 -2.0146 0.9442
14.1501 1.5439 -2.0168 0.9441
12.9508 3.8271 -1.9134 0.9469
12.2288 4.8371 -1.8633 0.9483
11.1707 6.9309 -1.8627 0.9483
10.5051 7.8977 -1.8622 0.9483
8.9283 9.6322 -1.8609 0.9483
3.1974 10.3052 -1.5288 0.9573
2.2185 10.3315 -1.4972 0.9582
1.2712 10.3520 -1.4778 0.9587
0.3411 10.3770 -1.4711 0.9589
-1.5402 10.4891 -1.5021 0.9581
-3.5251 10.4809 -1.5668 0.9563
-8.1963 10.0990 -1.8429 0.9488
-10.0337 7.1790 -1.7481 0.9514
-11.1867 6.5803 -1.8389 0.9489
-11.7240 5.5537 -1.8381 0.9489
-13.8138 2.4339 -1.9874 0.9449
-13.9582 -1.3101 -1.9864 0.9449
-13.5027 -3.7696 -1.9863 0.9449
-13.1135 -4.9595 -1.9865 0.9449
-12.6205 -6.1104 -1.9868 0.9449
12.2123 0.6357 -2.0146 0.9516
12.1077 1.7227 -2.0147 0.9516
11.5662 3.8328 -2.0073 0.9518
9.9211 5.4025 -1.8610 0.9552
9.3977 6.2648 -1.8606 0.9552
8.7993 7.0765 -1.8602 0.9553
6.6048 9.1447 -1.8583 0.9553
5.7603 9.6934 -1.8576 0.9553
4.8704 10.1641 -1.8567 0.9553
1.8687 10.3359 -1.7303 0.9583
0.9302 10.3611 -1.7137 0.9587
0.0021 10.3860 -1.7110 0.9588
-2.8708 10.4633 -1.7874 0.9570
-3.9144 10.4913 -1.8447 0.9556
-4.8392 10.1098 -1.8464 0.9556
-6.5515 9.0788 -1.8444 0.9556
-8.0524 7.7621 -1.8425 0.9557
-11.7566 2.7661 -1.9897 0.9522
-11.9538 1.7058 -1.9892 0.9522
-11.9744 -1.5197 -1.9885 0.9522
-11.7908 -2.5819 -1.9884 0.9522
-11.5138 -3.6235 -1.9885 0.9522
-10.1474 -6.5455 -1.9893 0.9522
-9.5252 -7.4264 -1.9897 0.9522
-8.8272 -8.2488 -1.9903 0.9522
-6.3348 -10.3030 -1.9925 0.9522
-5.3928 -10.8318 -1.9933 0.9521
-4.4071 -11.2750 -1.9943 0.9521
-3.3854 -11.6291 -1.9953 0.9521
-2.3357 -11.8910 -1.9963 0.9521
-0.1856 -12.1303 -1.9986 0.9520
0.8978 -12.1054 -1.9997 0.9520
3.0383 -11.7670 -2.0021 0.9519
5.0869 -11.0526 -2.0044 0.9519
7.8449 -9.3265 -2.0077 0.9518
10.6310 -6.0046 -2.0114 0.9517
11.1284 -5.0342 -2.0121 0.9517
11.5369 -4.0227 -2.0128 0.9517
12.0744 -1.9094 -2.0138 0.9517
12.1989 -0.8248 -2.0142 0.9516
12.1539 1.3565 -2.0147 0.9516
11.9848 2.4354 -2.0147 0.9516
11.7102 3.4920 -2.0131 0.9517
10.0802 5.1009 -1.8611 0.9552
9.5832 5.9787 -1.8608 0.9552
9.0096 6.8083 -1.8604 0.9553
6.8787 8.9424 -1.8586 0.9553
6.0511 9.5165 -1.8578 0.9553
4.1974 10.2782 -1.8290 0.9560
2.1920 10.3322 -1.7400 0.9581
1.2454 10.3526 -1.7178 0.9586
0.3155 10.3776 -1.7104 0.9588
-2.5316 10.4541 -1.7720 0.9573
-3.5542 10.4816 -1.8233 0.9561
-4.5327 10.2532 -1.8468 0.9556
-6.2756 9.2741 -1.8447 0.9556
-5.1081 5.2305 -1.2044 0.9708
-8.4944 7.2703 -1.8419 0.9557
-9.1050 6.4806 -1.8411 0.9557
-9.6429 5.6402 -1.8403 0.9557
-11.3261 4.1419 -1.9867 0.9523
-11.6688 3.1199 -1.9898 0.9522
-11.8978 2.0660 -1.9894 0.9522
-12.0150 -1.1576 -1.9885 0.9522
-11.8634 -2.2248 -1.9884 0.9522
-11.2800 -4.2979 -1.9886 0.9522
-8.3259 -8.7579 -1.9907 0.9522
-4.7446 -11.1350 -1.9940 0.9521
-3.7342 -11.5196 -1.9949 0.9521
-2.6930 -11.8129 -1.9960 0.9521
-0.5515 -12.1168 -1.9982 0.9520
2.6812 -11.8510 -2.0017 0.9519
4.7501 -11.1989 -2.0040 0.9519
5.7335 -10.7367 -2.0051 0.9519
6.6722 -10.1880 -2.0063 0.9518
7.5585 -9.5573 -2.0073 0.9518
8.3853 -8.8495 -2.0084 0.9518
9.1458 -8.0701 -2.0094 0.9518
9.8337 -7.2253 -2.0103 0.9517
10.4435 -6.3219 -2.0111 0.9517
10.9701 -5.3671 -2.0119 0.9517
12.0528 2.0725 -2.0147 0.9516
10.2300 4.7945 -1.8612 0.9552
9.2118 6.5338 -1.8605 0.9552
5.4765 9.8547 -1.8573 0.9553
1.5624 10.3441 -1.7234 0.9585
0.6289 10.3692 -1.7114 0.9588
-0.2989 10.3941 -1.7130 0.9587
-1.2360 10.4193 -1.7285 0.9584
-3.2020 10.4721 -1.8040 0.9566
-5.9940 9.4610 -1.8451 0.9556
-8.2724 7.5246 -1.8422 0.9557
-8.9066 6.7535 -1.8414 0.9557
-11.8309 2.4244 -1.9895 0.9522
-11.9975 1.3590 -1.9891 0.9522
-12.0689 0.2832 -1.9888 0.9522
-11.4043 -3.9554 -1.9885 0.9522
-7.7955 -9.2369 -1.9912 0.9522
-6.0348 -10.4835 -1.9927 0.9521
-5.0778 -10.9850 -1.9936 0.9521
-0.9168 -12.0923 -1.9978 0.9520
0.1657 -12.1328 -1.9989 0.9520
1.2481 -12.0766 -2.0001 0.9520
6.3604 -10.3828 -2.0059 0.9518
7.2653 -9.7794 -2.0070 0.9518
8.1130 -9.0970 -2.0080 0.9518
9.6097 -7.5177 -2.0100 0.9517
11.6496 -3.6873 -2.0130 0.9517
12.1254 -1.5592 -2.0140 0.9516
12.1098 1.7078 -2.0147 0.9516
11.9093 2.7813 -2.0147 0.9516
9.9278 5.3903 -1.8610 0.9552
8.8080 7.0657 -1.8602 0.9553
7.4076 8.5131 -1.8590 0.9553
6.6161 9.1366 -1.8583 0.9553
5.7723 9.6864 -1.8576 0.9553
4.8829 10.1581 -1.8567 0.9553
3.8576 10.2874 -1.8100 0.9564
0.0150 10.3857 -1.7109 0.9588
-2.8568 10.4629 -1.7867 0.9570
-6.5403 9.0869 -1.8444 0.9556
-9.2876 6.2135 -1.8409 0.9557
-9.8009 5.3580 -1.8401 0.9557
-10.2361 4.4607 -1.8395 0.9557
-11.4615 3.8190 -1.9902 0.9522
-11.9518 1.7206 -1.9892 0.9522
-11.5182 -3.6093 -1.9885 0.9522
-10.6958 -5.5999 -1.9889 0.9522
-10.1554 -6.5330 -1.9893 0.9522
-8.0698 -8.9963 -1.9909 0.9522
-5.4062 -10.8250 -1.9933 0.9521
-2.3504 -11.8880 -1.9963 0.9521
-0.2006 -12.1299 -1.9985 0.9520
3.0237 -11.7706 -2.0020 0.9519
5.0732 -11.0588 -2.0044 0.9519
6.9655 -9.9924 -2.0066 0.9518
7.8333 -9.3361 -2.0077 0.9518
9.3770 -7.8031 -2.0097 0.9517
11.8494 -2.9929 -2.0134 0.9517
12.2258 0.2517 -2.0145 0.9516
11.7158 3.4779 -2.0133 0.9517
10.0865 5.0885 -1.8611 0.9552
9.5906 5.9669 -1.8608 0.9552
8.3734 7.5725 -1.8599 0.9553
7.6621 8.2867 -1.8593 0.9553
6.8898 8.9339 -1.8586 0.9553
6.0629 9.5091 -1.8578 0.9553
5.1881 10.0077 -1.8570 0.9553
4.2120 10.2778 -1.8298 0.9560
2.2052 10.3318 -1.7404 0.9581
-0.6009 10.4022 -1.7165 0.9586
-2.5179 10.4538 -1.7714 0.9573
-3.5397 10.4812 -1.8225 0.9561
-4.5201 10.2588 -1.8468 0.9556
-2.9073 5.2673 -0.9911 0.9759
-6.2642 9.2819 -1.8447 0.9556
-7.0635 8.6814 -1.8438 0.9556
-5.1029 5.2380 -1.2047 0.9708
-8.4855 7.2808 -1.8419 0.9557
-9.0971 6.4919 -1.8411 0.9557
-9.6360 5.6521 -1.8404 0.9557
-11.8952 2.0807 -1.9894 0.9522
-12.0164 -1.1428 -1.9885 0.9522
-11.8661 -2.2102 -1.9884 0.9522
-11.6217 -3.2600 -1.9885 0.9522
-11.2853 -4.2840 -1.9886 0.9522
-10.8594 -5.2743 -1.9888 0.9522
-10.3473 -6.2230 -1.9891 0.9522
-6.6544 -10.0974 -1.9922 0.9522
-5.7296 -10.6553 -1.9930 0.9521
-2.7076 -11.8095 -1.9960 0.9521
-0.5665 -12.1160 -1.9982 0.9520
0.5169 -12.1252 -1.9993 0.9520
2.6666 -11.8542 -2.0016 0.9519
3.7156 -11.5758 -2.0028 0.9519
5.7202 -10.7436 -2.0051 0.9519
6.6595 -10.1962 -2.0062 0.9518
8.3743 -8.8598 -2.0084 0.9518
10.4356 -6.3348 -2.0111 0.9517
12.0554 2.0576 -2.0147 0.9516
10.7607 3.9001 -1.8855 0.9547
9.2198 6.5224 -1.8605 0.9552
7.9096 8.0525 -1.8595 0.9553
7.1572 8.7230 -1.8588 0.9553
1.5754 10.3437 -1.7237 0.9585
0.6418 10.3688 -1.7114 0.9588
-0.2860 10.3938 -1.7129 0.9587
-3.1877 10.4718 -1.8033 0.9566
-6.7995 8.8923 -1.8441 0.9556
-7.5617 8.2460 -1.8431 0.9557
-8.2632 7.5348 -1.8422 0.9557
-9.4623 5.9412 -1.8406 0.9557
-9.9507 5.0714 -1.8399 0.9557
-11.0132 -4.9438 -1.9887 0.9522
-10.5298 -5.9075 -1.9890 0.9522
-9.9627 -6.8247 -1.9894 0.9522
-3.0623 -11.7203 -1.9956 0.9521
-2.0056 -11.9531 -1.9967 0.9521
-0.9317 -12.0911 -1.9978 0.9520
0.1507 -12.1329 -1.9989 0.9520
2.3071 -11.9269 -2.0013 0.9519
3.3639 -11.6804 -2.0024 0.9519
5.3923 -10.9093 -2.0047 0.9519
7.2531 -9.7883 -2.0070 0.9518
8.1017 -9.1069 -2.0080 0.9518
8.8862 -8.3521 -2.0090 0.9518
9.6004 -7.5295 -2.0100 0.9517
10.2382 -6.6459 -2.0108 0.9517
11.6450 -3.7017 -2.0130 0.9517
11.9320 -2.6488 -2.0135 0.9517
12.2176 -0.4864 -2.0143 0.9516
12.2137 0.6055 -2.0146 0.9516
9.9344 5.3780 -1.8610 0.9552
8.1499 7.8110 -1.8597 0.9553
6.6274 9.1285 -1.8584 0.9553
5.7842 9.6793 -1.8576 0.9553
2.8618 10.3142 -1.7633 0.9575
1.8949 10.3352 -1.7310 0.9583
-1.7958 10.0991 -1.6898 0.9593
-4.8143 10.1218 -1.8465 0.9556
-6.5292 9.0951 -1.8444 0.9556
-8.0333 7.7820 -1.8425 0.9557
-8.6914 7.0311 -1.8417 0.9557
-11.4568 3.8332 -1.9902 0.9522
-11.7499 2.7951 -1.9897 0.9522
-11.9497 1.7353 -1.9892 0.9522
-11.9781 -1.4902 -1.9885 0.9522
-11.7971 -2.5527 -1.9884 0.9522
-11.5227 -3.5951 -1.9885 0.9522
-11.1569 -4.6090 -1.9886 0.9522
-8.8474 -8.2269 -1.9903 0.9522
-8.0808 -8.9863 -1.9909 0.9522
-7.2496 -9.6749 -1.9916 0.9522
-6.3601 -10.2872 -1.9924 0.9522
-5.4194 -10.8183 -1.9933 0.9521
-3.4140 -11.6205 -1.9953 0.9521
-2.3650 -11.8850 -1.9963 0.9521
-1.2960 -12.0552 -1.9974 0.9520
-0.2156 -12.1296 -1.9985 0.9520
3.0092 -11.7743 -2.0020 0.9519
5.0596 -11.0650 -2.0044 0.9519
6.0299 -10.5755 -2.0055 0.9518
6.9531 -10.0009 -2.0066 0.9518
9.3673 -7.8146 -2.0096 0.9517
10.0316 -6.9509 -2.0105 0.9517
11.1158 -5.0616 -2.0121 0.9517
11.5268 -4.0511 -2.0128 0.9517
11.8456 -3.0075 -2.0134 0.9517
12.1967 -0.8549 -2.0142 0.9516
12.2260 0.2366 -2.0145 0.9516
11.9908 2.4058 -2.0147 0.9516
10.5067 4.1559 -1.8613 0.9552
10.0928 5.0760 -1.8611 0.9552
9.5980 5.9551 -1.8608 0.9552
9.0265 6.7861 -1.8604 0.9553
7.6723 8.2772 -1.8593 0.9553
6.9008 8.9255 -1.8586 0.9553
2.2185 10.3315 -1.7408 0.9581
1.2712 10.3519 -1.7182 0.9586
0.3411 10.3769 -1.7104 0.9588
-0.5880 10.4019 -1.7163 0.9586
-3.5251 10.4808 -1.8216 0.9562
-4.5075 10.2645 -1.8468 0.9556
-2.9003 5.2699 -0.9909 0.9759
-5.0984 5.2464 -1.2052 0.9708
-9.0891 6.5032 -1.8411 0.9557
-9.6291 5.6640 -1.8404 0.9557
-11.3133 4.1690 -1.9863 0.9523
-11.8927 2.0954 -1.9894 0.9522
-12.0299 1.0259 -1.9890 0.9522
-12.0717 -0.0514 -1.9887 0.9522
-12.0178 -1.1280 -1.9885 0.9522
-11.6258 -3.2456 -1.9885 0.9522
-10.8659 -5.2609 -1.9888 0.9522
10.6209 -1.3524 -2.0124 0.9574
10.6949 0.5567 -2.0129 0.9573
10.6032 1.5087 -2.0131 0.9573
10.4264 2.4486 -2.0131 0.9573
9.1195 3.9562 -1.8684 0.9603
5.7853 8.0101 -1.8572 0.9606
5.0458 8.4912 -1.8565 0.9606
3.4537 9.2451 -1.8550 0.9606
2.6141 9.5121 -1.8542 0.9606
1.7542 9.7029 -1.8533 0.9607
0.8812 9.8159 -1.8524 0.9607
0.0020 9.8505 -1.8515 0.9607
-1.7467 9.6842 -1.8496 0.9607
-2.6024 9.4849 -1.8487 0.9608
-3.4364 9.2102 -1.8477 0.9608
-4.2422 8.8624 -1.8468 0.9608
-7.6366 6.1467 -1.8426 0.9609
-8.1514 5.4388 -1.8419 0.9609
-8.6011 4.6883 -1.8412 0.9609
-9.6951 4.2107 -1.9867 0.9579
-10.4850 1.4962 -1.9907 0.9578
-10.5034 -1.3330 -1.9901 0.9578
-10.0994 -3.1784 -1.9901 0.9578
-8.3545 -6.5136 -1.9912 0.9578
-7.0677 -7.8987 -1.9922 0.9578
-6.3369 -8.5005 -1.9929 0.9578
-3.8643 -9.8864 -1.9952 0.9577
-2.9683 -10.1962 -1.9961 0.9577
-1.1101 -10.5714 -1.9979 0.9577
-0.1627 -10.6336 -1.9989 0.9576
1.7313 -10.5039 -2.0010 0.9576
3.5741 -10.0393 -2.0030 0.9576
5.3066 -9.2537 -2.0050 0.9575
6.1139 -8.7476 -2.0060 0.9575
8.2228 -6.8255 -2.0087 0.9574
10.3811 -2.6084 -2.0119 0.9574
10.5746 -1.6722 -2.0123 0.9574
10.6833 -0.7223 -2.0126 0.9574
10.4956 2.1328 -2.0131 0.9573
9.8185 3.9117 -1.9866 0.9579
8.8279 4.4671 -1.8596 0.9605
8.3928 5.2361 -1.8594 0.9605
7.8907 5.9627 -1.8590 0.9605
7.3255 6.6413 -1.8585 0.9606
6.0251 7.8327 -1.8574 0.9606
5.3005 8.3361 -1.8568 0.9606
4.5340 8.7723 -1.8561 0.9606
3.7318 9.1380 -1.8553 0.9606
-1.4539 9.7342 -1.8499 0.9607
-3.1574 9.3113 -1.8480 0.9608
-2.9148 5.2655 -1.1312 0.9758
-5.5020 8.1308 -1.8453 0.9608
-6.2025 7.6040 -1.8444 0.9608
-7.9845 5.6831 -1.8421 0.9609
-8.4566 4.9463 -1.8414 0.9609
-9.2293 4.3440 -1.9173 0.9593
-9.9521 3.6395 -1.9918 0.9578
-10.2346 2.7365 -1.9913 0.9578
-10.4357 1.8121 -1.9908 0.9578
-10.5885 -0.0712 -1.9903 0.9578
-10.4061 -1.9515 -1.9900 0.9578
-10.1906 -2.8721 -1.9901 0.9578
-9.8943 -3.7699 -1.9902 0.9578
-9.5195 -4.6380 -1.9904 0.9578
-7.3022 -7.6811 -1.9920 0.9578
-5.8247 -8.8622 -1.9933 0.9578
-4.1604 -9.7639 -1.9949 0.9577
-3.2742 -10.1005 -1.9958 0.9577
-1.4285 -10.5314 -1.9976 0.9577
0.4663 -10.6281 -1.9996 0.9576
2.3499 -10.3867 -2.0016 0.9576
3.2688 -10.1409 -2.0027 0.9576
4.1626 -9.8138 -2.0037 0.9575
5.8462 -8.9267 -2.0057 0.9575
7.3462 -7.7529 -2.0075 0.9575
8.0120 -7.0696 -2.0084 0.9574
9.1478 -5.5376 -2.0099 0.9574
9.9926 -3.8262 -2.0112 0.9574
10.2968 -2.9203 -2.0117 0.9574
10.5186 -1.9905 -2.0122 0.9574
10.6561 -1.0444 -2.0125 0.9574
10.7083 -0.0896 -2.0128 0.9574
10.6745 0.8661 -2.0130 0.9573
8.5475 4.9807 -1.8595 0.9605
8.0677 5.7223 -1.8591 0.9605
5.5504 8.1733 -1.8570 0.9606
4.7973 8.6326 -1.8563 0.9606
4.0064 9.0225 -1.8556 0.9606
1.4724 9.7481 -1.8530 0.9607
-0.2831 9.8448 -1.8512 0.9607
-2.8754 9.4040 -1.8484 0.9608
-3.7010 9.1053 -1.8474 0.9608
-4.4962 8.7345 -1.8465 0.9608
-5.9711 7.7890 -1.8447 0.9608
-6.6391 7.2220 -1.8439 0.9609
-7.2538 6.5980 -1.8431 0.9609
-10.1481 3.0444 -1.9914 0.9578
-10.5233 1.1920 -1.9906 0.9578
-10.5862 0.2484 -1.9903 0.9578
-10.4603 -1.6365 -1.9900 0.9578
-10.0034 -3.4695 -1.9901 0.9578
-9.2296 -5.1931 -1.9905 0.9578
-8.7310 -5.9968 -1.9909 0.9578
-8.1630 -6.7532 -1.9913 0.9578
-7.5299 -7.4564 -1.9918 0.9578
-4.4526 -9.6325 -1.9946 0.9577
-1.7454 -10.4817 -1.9973 0.9577
0.1452 -10.6355 -1.9993 0.9576
2.0350 -10.4511 -2.0013 0.9576
4.7370 -9.5538 -2.0044 0.9575
6.3655 -8.5683 -2.0063 0.9575
7.1078 -7.9699 -2.0072 0.9575
7.7938 -7.3072 -2.0081 0.9574
8.9754 -5.8105 -2.0097 0.9574
9.8716 -4.1257 -2.0110 0.9574
10.2031 -3.2295 -2.0116 0.9574
10.4530 -2.3069 -2.0120 0.9574
10.6955 0.5435 -2.0129 0.9573
8.6944 4.7206 -1.8596 0.9605
6.4882 7.4565 -1.8578 0.9606
5.7952 8.0030 -1.8572 0.9606
5.0563 8.4850 -1.8565 0.9606
4.2775 8.8987 -1.8558 0.9606
3.4652 9.2409 -1.8550 0.9606
2.6258 9.5090 -1.8542 0.9606
-0.8642 9.8076 -1.8506 0.9607
-1.7348 9.6864 -1.8496 0.9607
-5.0030 8.4507 -1.8459 0.9608
-5.7342 7.9669 -1.8450 0.9608
-6.4191 7.4202 -1.8442 0.9609
-7.6291 6.1561 -1.8426 0.9609
-8.1447 5.4489 -1.8419 0.9609
-8.5953 4.6989 -1.8412 0.9609
-10.4831 1.5092 -1.9907 0.9578
-10.5743 0.5679 -1.9904 0.9578
-10.5051 -1.3201 -1.9901 0.9578
-10.3452 -2.2519 -1.9900 0.9578
-9.7813 -4.0549 -1.9902 0.9578
-9.3817 -4.9119 -1.9905 0.9578
-8.9075 -5.7302 -1.9908 0.9578
-8.3625 -6.5033 -1.9912 0.9578
-7.0774 -7.8900 -1.9922 0.9578
-4.7406 -9.4924 -1.9943 0.9577
-2.9808 -10.1925 -1.9960 0.9577
-1.1232 -10.5700 -1.9979 0.9577
1.7184 -10.5060 -2.0009 0.9576
3.5616 -10.0437 -2.0030 0.9576
6.8629 -8.1795 -2.0069 0.9575
8.7948 -6.0780 -2.0094 0.9574
9.3053 -5.2710 -2.0102 0.9574
9.7416 -4.4213 -2.0108 0.9574
10.1001 -3.5357 -2.0114 0.9574
10.3778 -2.6212 -2.0119 0.9574
10.7067 0.2204 -2.0129 0.9574
10.6452 1.1748 -2.0130 0.9573
10.2671 3.0478 -2.0130 0.9573
9.8489 3.9098 -1.9917 0.9578
8.8334 4.4563 -1.8596 0.9605
8.3993 5.2257 -1.8594 0.9605
6.7110 7.2580 -1.8580 0.9606
6.0348 7.8253 -1.8574 0.9606
5.3108 8.3296 -1.8568 0.9606
2.9121 9.4268 -1.8545 0.9606
1.1894 9.7851 -1.8527 0.9607
-3.1459 9.3152 -1.8481 0.9608
-3.9623 8.9929 -1.8471 0.9608
-2.9070 5.2666 -1.1307 0.9758
-5.1144 5.2499 -1.3776 0.9706
-9.2005 4.3444 -1.9124 0.9594
-9.9477 3.6518 -1.9918 0.9578
-10.2312 2.7491 -1.9913 0.9578
-10.5529 0.8868 -1.9905 0.9578
-10.5403 -1.0024 -1.9901 0.9578
-10.4085 -1.9387 -1.9900 0.9578
-10.1941 -2.8595 -1.9901 0.9578
-9.8990 -3.7577 -1.9902 0.9578
-9.5252 -4.6263 -1.9904 0.9578
-9.0759 -5.4584 -1.9907 0.9578
-8.5543 -6.2474 -1.9910 0.9578
-7.9647 -6.9873 -1.9915 0.9578
-7.3116 -7.6720 -1.9920 0.9578
-6.6001 -8.2962 -1.9926 0.9578
-5.8356 -8.8550 -1.9933 0.9578
-5.0243 -9.3438 -1.9941 0.9577
-4.1724 -9.7587 -1.9949 0.9577
-2.3739 -10.3540 -1.9966 0.9577
-1.4414 -10.5295 -1.9976 0.9577
1.4002 -10.5512 -2.0006 0.9576
5.0124 -9.4142 -2.0047 0.9575
5.8351 -8.9339 -2.0057 0.9575
8.6063 -6.3398 -2.0092 0.9574
9.1409 -5.5488 -2.0099 0.9574
9.6027 -4.7128 -2.0106 0.9574
9.9879 -3.8386 -2.0112 0.9574
10.5161 -2.0035 -2.0122 0.9574
10.7081 -0.1028 -2.0128 0.9574
10.6756 0.8529 -2.0130 0.9573
10.5574 1.8020 -2.0131 0.9573
10.3545 2.7366 -2.0131 0.9573
10.0522 3.6433 -2.0097 0.9574
8.0747 5.7123 -1.8591 0.9605
7.5312 6.4084 -1.8587 0.9606
6.9277 7.0529 -1.8582 0.9606
5.5605 8.1665 -1.8570 0.9606
3.1958 9.3360 -1.8548 0.9606
1.4844 9.7463 -1.8531 0.9607
-0.2710 9.8452 -1.8512 0.9607
-2.0142 9.6305 -1.8493 0.9607
-3.6897 9.1100 -1.8474 0.9608
-4.4855 8.7401 -1.8465 0.9608
-5.2447 8.3011 -1.8456 0.9608
-5.9615 7.7964 -1.8447 0.9608
-6.6303 7.2302 -1.8439 0.9609
-8.2981 5.2102 -1.8417 0.9609
-9.8292 3.9489 -1.9910 0.9578
-10.5218 1.2050 -1.9906 0.9578
-10.5859 0.2615 -1.9903 0.9578
-10.2757 -2.5505 -1.9900 0.9578
-10.0076 -3.4571 -1.9901 0.9578
-9.6602 -4.3365 -1.9903 0.9578
-9.2360 -5.1816 -1.9905 0.9578
-8.7384 -5.9860 -1.9909 0.9578
-7.5391 -7.4471 -1.9918 0.9578
-6.0995 -8.6738 -1.9931 0.9578
-5.3034 -9.1867 -1.9938 0.9577
-4.4644 -9.6270 -1.9946 0.9577
-2.6849 -10.2761 -1.9963 0.9577
-1.7583 -10.4795 -1.9973 0.9577
1.0809 -10.5868 -2.0003 0.9576
2.0221 -10.4535 -2.0013 0.9576
3.8516 -9.9380 -2.0033 0.9575
5.5618 -9.1044 -2.0053 0.9575
6.3549 -8.5761 -2.0063 0.9575
8.9682 -5.8215 -2.0097 0.9574
9.4551 -5.0000 -2.0104 0.9574
9.8665 -4.1379 -2.0110 0.9574
10.4501 -2.3198 -2.0120 0.9574
10.6997 -0.4260 -2.0127 0.9574
10.6962 0.5303 -2.0129 0.9573
10.6068 1.4825 -2.0131 0.9573
10.4324 2.4229 -2.0131 0.9573
9.1735 3.9528 -1.8775 0.9602
8.7003 4.7099 -1.8596 0.9605
5.8051 7.9959 -1.8572 0.9606
3.4766 9.2367 -1.8550 0.9606
2.6375 9.5058 -1.8542 0.9606
1.7782 9.6986 -1.8534 0.9607
0.9054 9.8138 -1.8525 0.9607
0.0263 9.8506 -1.8515 0.9607
-0.8521 9.8087 -1.8506 0.9607
-3.4137 9.2188 -1.8477 0.9608
-6.4100 7.4281 -1.8442 0.9609
-7.0440 6.8237 -1.8434 0.9609
-8.1380 5.4590 -1.8419 0.9609
-8.5896 4.7095 -1.8413 0.9609
-10.0484 3.3620 -1.9916 0.9578
-10.4813 1.5221 -1.9907 0.9578
-10.5736 0.5809 -1.9904 0.9578
-10.5067 -1.3071 -1.9901 0.9578
-10.3480 -2.2392 -1.9900 0.9578
-10.1072 -3.1534 -1.9901 0.9578
-8.9145 -5.7192 -1.9908 0.9578
-8.3705 -6.4929 -1.9912 0.9578
-7.7598 -7.2155 -1.9917 0.9578
-4.7523 -9.4865 -1.9943 0.9577
-3.8887 -9.8768 -1.9952 0.9577
-2.9934 -10.1888 -1.9960 0.9577
-2.0735 -10.4200 -1.9970 0.9577
-1.1362 -10.5685 -1.9979 0.9577
-0.1890 -10.6330 -1.9989 0.9576
2.6373 -10.3193 -2.0020 0.9576
3.5492 -10.0480 -2.0030 0.9576
4.4337 -9.6962 -2.0040 0.9575
5.2836 -9.2666 -2.0050 0.9575
7.5593 -7.5473 -2.0078 0.9575
8.2059 -6.8457 -2.0086 0.9574
9.7361 -4.4333 -2.0108 0.9574
10.0957 -3.5481 -2.0114 0.9574
10.3746 -2.6340 -2.0119 0.9574
10.6815 -0.7487 -2.0126 0.9574
10.7070 0.2072 -2.0129 0.9574
10.5008 2.1069 -2.0131 0.9573
10.2708 3.0352 -2.0130 0.9573
8.4058 5.2154 -1.8594 0.9605
7.9054 5.9433 -1.8590 0.9605
7.3420 6.6232 -1.8585 0.9606
6.7200 7.2498 -1.8580 0.9606
6.0445 7.8179 -1.8574 0.9606
5.3211 8.3230 -1.8568 0.9606
4.5557 8.7612 -1.8561 0.9606
3.7544 9.1289 -1.8553 0.9606
2.0705 9.6421 -1.8536 0.9607
1.2015 9.7837 -1.8528 0.9607
0.3237 9.8470 -1.8518 0.9607
-0.5558 9.8316 -1.8509 0.9607
-1.4299 9.7379 -1.8500 0.9607
-2.9000 5.2693 -1.1305 0.9758
-5.4820 8.1444 -1.8453 0.9608
-6.1838 7.6194 -1.8445 0.9608
-7.4330 6.3937 -1.8429 0.9609
-9.1719 4.3447 -1.9076 0.9595
-10.4312 1.8379 -1.9909 0.9578
-10.5886 -0.0451 -1.9903 0.9578
-10.4109 -1.9258 -1.9900 0.9578
-10.1977 -2.8469 -1.9901 0.9578
-9.9036 -3.7455 -1.9902 0.9578
-9.5309 -4.6145 -1.9904 0.9578
9.4224 1.3406 -2.0118 0.9618
9.2653 2.1759 -2.0118 0.9618
9.0340 2.9937 -2.0117 0.9618
7.3142 4.8759 -1.8581 0.9647
6.3287 6.0955 -1.8574 0.9647
3.7924 7.9144 -1.8551 0.9648
1.5595 8.6258 -1.8529 0.9648
0.0018 8.7580 -1.8513 0.9648
-0.7792 8.7193 -1.8504 0.9648
-1.5532 8.6111 -1.8496 0.9649
-3.0559 8.1905 -1.8479 0.9649
-4.4589 7.5104 -1.8463 0.9649
-5.1089 7.0797 -1.8455 0.9649
-5.7178 6.5930 -1.8447 0.9649
-6.2807 6.0543 -1.8440 0.9650
-8.6489 3.7563 -1.9932 0.9622
-8.9473 2.9690 -1.9927 0.9622
-9.1745 2.1586 -1.9923 0.9622
-9.3289 1.3313 -1.9919 0.9622
-9.3456 -1.1861 -1.9913 0.9622
-9.2024 -2.0151 -1.9913 0.9622
-8.9862 -2.8280 -1.9913 0.9622
-8.6986 -3.6186 -1.9915 0.9622
-8.3420 -4.3807 -1.9917 0.9622
-7.9190 -5.1081 -1.9920 0.9622
-7.4331 -5.7952 -1.9923 0.9622
-6.8880 -6.4366 -1.9927 0.9622
-6.2879 -7.0272 -1.9933 0.9622
-5.6375 -7.5623 -1.9938 0.9622
-4.9420 -8.0376 -1.9944 0.9622
-3.4374 -8.7942 -1.9959 0.9621
-1.8214 -9.2725 -1.9975 0.9621
-0.9873 -9.4020 -1.9983 0.9621
-0.1447 -9.4568 -1.9992 0.9621
1.5395 -9.3404 -2.0010 0.9620
3.9632 -8.6111 -2.0037 0.9620
7.3089 -6.0669 -2.0079 0.9619
8.9801 -3.1312 -2.0103 0.9619
9.2256 -2.3181 -2.0107 0.9619
9.3974 -1.4861 -2.0111 0.9618
9.5143 0.2076 -2.0116 0.9618
9.4585 1.0556 -2.0117 0.9618
9.1204 2.7197 -2.0118 0.9618
7.8938 3.9945 -1.8701 0.9645
7.4585 4.6532 -1.8582 0.9647
6.5103 5.9022 -1.8575 0.9647
5.9564 6.4579 -1.8570 0.9647
4.7111 7.4092 -1.8559 0.9647
4.0300 7.7972 -1.8553 0.9648
3.3171 8.1227 -1.8546 0.9648
0.2662 8.7552 -1.8515 0.9648
-2.0588 8.5016 -1.8490 0.9649
-2.8078 8.2803 -1.8482 0.9649
-3.5337 7.9932 -1.8473 0.9649
-2.8789 5.2006 -1.2565 0.9760
-4.8936 7.2317 -1.8457 0.9649
-5.5169 6.7635 -1.8450 0.9649
-5.1421 5.2653 -1.5557 0.9704
-7.1030 5.0556 -1.8429 0.9650
-7.5232 4.4004 -1.8423 0.9650
-8.8543 3.2380 -1.9928 0.9622
-9.1058 2.4346 -1.9924 0.9622
-9.2849 1.6123 -1.9920 0.9622
-9.4212 -0.0633 -1.9915 0.9622
-9.2591 -1.7364 -1.9913 0.9622
-9.0673 -2.5555 -1.9913 0.9622
-8.8036 -3.3544 -1.9914 0.9622
-7.6041 -5.5679 -1.9922 0.9622
-6.4965 -6.8336 -1.9931 0.9622
-5.8626 -7.3880 -1.9936 0.9622
-5.1817 -7.8839 -1.9942 0.9622
-4.4593 -8.3175 -1.9949 0.9622
-2.9124 -8.9843 -1.9964 0.9621
-2.1001 -9.2120 -1.9972 0.9621
-0.4300 -9.4467 -1.9989 0.9621
0.4146 -9.4516 -1.9998 0.9621
3.7010 -8.7255 -2.0034 0.9620
5.8869 -7.4437 -2.0060 0.9619
6.5301 -6.8916 -2.0069 0.9619
7.6565 -5.6256 -2.0083 0.9619
8.5397 -4.1781 -2.0096 0.9619
8.8808 -3.4005 -2.0101 0.9619
9.3477 -1.7690 -2.0110 0.9619
9.5159 -0.0796 -2.0115 0.9618
9.3797 1.6129 -2.0118 0.9618
7.1696 5.0853 -1.8580 0.9647
4.9331 7.2644 -1.8561 0.9647
2.8305 8.3024 -1.8542 0.9648
2.0777 8.5184 -1.8534 0.9648
1.3090 8.6661 -1.8526 0.9648
-1.0311 8.6918 -1.8502 0.9648
-1.8016 8.5612 -1.8493 0.9649
-2.5570 8.3626 -1.8485 0.9649
-5.3110 6.9279 -1.8452 0.9649
-5.9055 6.4239 -1.8445 0.9650
-6.4526 5.8692 -1.8438 0.9650
-6.9479 5.2683 -1.8431 0.9650
-7.3878 4.6259 -1.8425 0.9650
-8.3801 4.2579 -1.9869 0.9623
-8.7532 3.5041 -1.9930 0.9622
-9.3630 1.0606 -1.9918 0.9622
-9.4192 0.2211 -1.9916 0.9622
-9.4005 -0.6201 -1.9914 0.9622
-9.3073 -1.4561 -1.9913 0.9622
-8.9007 -3.0870 -1.9914 0.9622
-8.5905 -3.8690 -1.9915 0.9622
-8.2120 -4.6205 -1.9918 0.9622
-5.4168 -7.7231 -1.9940 0.9622
-4.7077 -8.1782 -1.9947 0.9622
-3.9608 -8.5686 -1.9954 0.9621
-3.1818 -8.8911 -1.9961 0.9621
-2.3769 -9.1432 -1.9969 0.9621
-1.5524 -9.3226 -1.9977 0.9621
-0.7148 -9.4280 -1.9986 0.9621
2.6326 -9.0990 -2.0022 0.9620
4.2115 -8.4940 -2.0040 0.9620
4.9546 -8.0880 -2.0049 0.9620
5.6588 -7.6169 -2.0058 0.9619
6.3183 -7.0846 -2.0066 0.9619
7.4824 -5.8535 -2.0081 0.9619
8.4089 -4.4335 -2.0094 0.9619
8.7733 -3.6667 -2.0100 0.9619
9.0677 -2.8701 -2.0104 0.9619
9.2895 -2.0502 -2.0109 0.9619
9.4370 -1.2135 -2.0112 0.9618
9.5088 -0.3668 -2.0115 0.9618
9.5045 0.4830 -2.0117 0.9618
9.4240 1.3290 -2.0118 0.9618
9.0377 2.9825 -2.0117 0.9618
2.3342 8.4530 -1.8537 0.9648
1.5701 8.6239 -1.8529 0.9648
0.7942 8.7258 -1.8521 0.9648
0.0126 8.7580 -1.8513 0.9648
-0.7684 8.7203 -1.8504 0.9648
-3.0459 8.1943 -1.8479 0.9649
-4.4496 7.5160 -1.8463 0.9649
-5.7097 6.6001 -1.8447 0.9649
-6.7866 5.4762 -1.8433 0.9650
-7.9042 4.3211 -1.9042 0.9638
-8.9436 2.9801 -1.9927 0.9622
-9.1719 2.1699 -1.9923 0.9622
-9.3272 1.3428 -1.9919 0.9622
-9.4085 0.5053 -1.9916 0.9622
-9.3471 -1.1746 -1.9913 0.9622
-8.9896 -2.8170 -1.9913 0.9622
-8.3474 -4.3704 -1.9917 0.9622
-7.9253 -5.0983 -1.9920 0.9622
-6.8959 -6.4281 -1.9927 0.9622
-4.9519 -8.0315 -1.9944 0.9622
-3.4482 -8.7899 -1.9959 0.9621
-2.6514 -9.0660 -1.9966 0.9621
-1.8328 -9.2702 -1.9975 0.9621
1.5280 -9.3423 -2.0010 0.9620
2.3564 -9.1729 -2.0019 0.9620
4.7075 -8.2326 -2.0046 0.9620
5.4255 -7.7832 -2.0055 0.9620
6.1008 -7.2711 -2.0063 0.9619
6.7277 -6.7005 -2.0071 0.9619
7.3014 -6.0759 -2.0079 0.9619
7.8170 -5.4022 -2.0085 0.9619
8.2704 -4.6848 -2.0092 0.9619
8.9762 -3.1422 -2.0103 0.9619
9.5145 0.1959 -2.0116 0.9618
9.4597 1.0440 -2.0117 0.9618
7.9152 3.9931 -1.8740 0.9644
7.0190 5.2904 -1.8579 0.9647
6.5176 5.8942 -1.8575 0.9647
4.0396 7.7923 -1.8553 0.9648
3.3272 8.1186 -1.8546 0.9648
2.5886 8.3798 -1.8539 0.9648
1.8300 8.5738 -1.8532 0.9648
1.0574 8.6992 -1.8524 0.9648
0.2770 8.7550 -1.8515 0.9648
-0.5049 8.7408 -1.8507 0.9648
-1.2821 8.6570 -1.8499 0.9649
-2.7976 8.2838 -1.8482 0.9649
-3.5238 7.9976 -1.8474 0.9649
-2.8672 5.1946 -1.2542 0.9760
-5.1350 5.2710 -1.5555 0.9704
-6.6190 5.6793 -1.8436 0.9650
-7.0968 5.0644 -1.8429 0.9650
-9.1028 2.4459 -1.9924 0.9622
-9.2830 1.6238 -1.9920 0.9622
-9.3894 0.7890 -1.9917 0.9622
-9.4213 -0.0517 -1.9915 0.9622
-9.3784 -0.8919 -1.9914 0.9622
-9.2612 -1.7250 -1.9913 0.9622
-8.8078 -3.3435 -1.9914 0.9622
-8.4751 -4.1163 -1.9916 0.9622
-8.0752 -4.8565 -1.9918 0.9622
-7.6110 -5.5585 -1.9922 0.9622
-7.0862 -6.2166 -1.9926 0.9622
-5.1914 -7.8775 -1.9942 0.9622
-4.4695 -8.3120 -1.9949 0.9622
-3.7115 -8.6807 -1.9956 0.9621
-2.9234 -8.9806 -1.9964 0.9621
-1.2820 -9.3650 -1.9980 0.9621
0.4030 -9.4521 -1.9998 0.9621
1.2452 -9.3827 -2.0007 0.9620
2.0781 -9.2384 -2.0016 0.9620
2.8953 -9.0203 -2.0025 0.9620
5.1874 -7.9422 -2.0052 0.9620
6.5216 -6.8996 -2.0068 0.9619
7.1138 -6.2927 -2.0076 0.9619
8.1244 -4.9318 -2.0090 0.9619
8.8765 -3.4114 -2.0101 0.9619
9.3455 -1.7805 -2.0110 0.9619
9.5158 -0.0914 -2.0115 0.9618
9.4868 0.7579 -2.0117 0.9618
9.2014 2.4318 -2.0118 0.9618
8.4699 3.9569 -1.9761 0.9625
7.6014 4.4168 -1.8583 0.9647
7.1759 5.0765 -1.8580 0.9647
6.6931 5.6952 -1.8577 0.9647
5.5716 6.7906 -1.8567 0.9647
4.9421 7.2583 -1.8562 0.9647
4.2735 7.6677 -1.8555 0.9647
0.5412 8.7439 -1.8518 0.9648
-0.2409 8.7534 -1.8510 0.9648
-1.0204 8.6931 -1.8502 0.9648
-2.5466 8.3658 -1.8485 0.9649
-3.2813 8.1016 -1.8476 0.9649
-2.7775 5.4119 -1.2858 0.9754
-4.6647 7.3830 -1.8460 0.9649
-5.3025 6.9345 -1.8452 0.9649
-6.9415 5.2769 -1.8431 0.9650
-8.3741 4.2679 -1.9868 0.9623
-9.0255 2.7197 -1.9925 0.9622
-9.2303 1.9033 -1.9921 0.9622
-9.3617 1.0721 -1.9918 0.9622
-9.4013 -0.6085 -1.9914 0.9622
-9.3091 -1.4447 -1.9913 0.9622
-8.5952 -3.8584 -1.9915 0.9622
-8.2177 -4.6104 -1.9918 0.9622
-7.7748 -5.3259 -1.9921 0.9622
-6.7074 -6.6256 -1.9929 0.9622
-5.4263 -7.7164 -1.9940 0.9622
-3.1927 -8.8871 -1.9961 0.9621
-1.5639 -9.3206 -1.9977 0.9621
0.1175 -9.4585 -1.9995 0.9621
0.9612 -9.4145 -2.0004 0.9620
2.6214 -9.1022 -2.0022 0.9620
3.4245 -8.8360 -2.0031 0.9620
4.2010 -8.4991 -2.0040 0.9620
4.9446 -8.0940 -2.0049 0.9620
6.9197 -6.5038 -2.0074 0.9619
8.7688 -3.6775 -2.0099 0.9619
9.5051 0.4713 -2.0117 0.9618
9.2707 2.1530 -2.0118 0.9618
8.7202 3.7574 -2.0071 0.9619
7.3263 4.8578 -1.8581 0.9647
6.3438 6.0800 -1.8574 0.9647
4.5035 7.5361 -1.8557 0.9647
3.8119 7.9051 -1.8551 0.9648
1.5808 8.6220 -1.8529 0.9648
0.0234 8.7580 -1.8513 0.9648
-0.7577 8.7213 -1.8504 0.9648
-1.5319 8.6150 -1.8496 0.9649
-3.7533 7.8911 -1.8471 0.9649
-6.2658 6.0698 -1.8440 0.9650
-7.2396 4.8563 -1.8427 0.9650
-8.6396 3.7777 -1.9932 0.9622
-9.1692 2.1812 -1.9923 0.9622
-9.4079 0.5169 -1.9916 0.9622
-9.4156 -0.3244 -1.9914 0.9622
-8.7075 -3.5972 -1.9915 0.9622
-8.3527 -4.3600 -1.9917 0.9622
-7.9316 -5.0885 -1.9919 0.9622
-6.9038 -6.4196 -1.9927 0.9622
-4.9617 -8.0253 -1.9944 0.9622
2.3451 -9.1757 -2.0019 0.9620
3.9419 -8.6208 -2.0037 0.9620
5.4159 -7.7898 -2.0055 0.9620
6.0917 -7.2786 -2.0063 0.9619
6.7194 -6.7088 -2.0071 0.9619
8.6530 -3.9401 -2.0098 0.9619
9.2198 -2.3408 -2.0107 0.9619
9.4922 -0.6653 -2.0114 0.9618
9.3314 1.8722 -2.0118 0.9618
9.1271 2.6972 -2.0118 0.9618
8.8488 3.5001 -2.0115 0.9618
7.4700 4.6348 -1.8582 0.9647
7.0255 5.2817 -1.8579 0.9647
6.5249 5.8862 -1.8575 0.9647
4.7295 7.3976 -1.8560 0.9647
3.3372 8.1146 -1.8546 0.9648
1.8406 8.5716 -1.8532 0.9648
-2.7874 8.2873 -1.8482 0.9649
-3.5140 8.0020 -1.8474 0.9649
-2.8570 5.1912 -1.2525 0.9761
-5.5003 6.7772 -1.8450 0.9649
-5.1289 5.2777 -1.5556 0.9704
-7.0905 5.0732 -1.8429 0.9650
-8.5106 4.0315 -1.9906 0.9622
-8.8463 3.2599 -1.9929 0.9622
-9.0998 2.4571 -1.9924 0.9622
-9.2810 1.6352 -1.9920 0.9622
-9.3795 -0.8804 -1.9914 0.9622
-8.8119 -3.3326 -1.9914 0.9622
-8.4802 -4.1058 -1.9916 0.9622
8.5484 -0.3192 -2.0105 0.9655
8.1210 2.6911 -2.0107 0.9655
7.3335 3.9935 -1.9625 0.9663
6.5753 4.3833 -1.8572 0.9681
6.1570 4.9515 -1.8569 0.9681
5.6895 5.4799 -1.8565 0.9681
2.7604 7.3893 -1.8539 0.9681
1.4023 7.7565 -1.8525 0.9681
0.7045 7.8477 -1.8518 0.9681
-1.3969 7.7447 -1.8496 0.9682
-2.7487 7.3671 -1.8480 0.9682
-4.5959 6.3688 -1.8459 0.9682
-5.1439 5.9312 -1.8452 0.9683
-5.3714 5.1777 -1.7534 0.9698
-7.4383 4.0545 -1.9910 0.9658
-7.7821 3.3798 -1.9940 0.9657
-8.0507 2.6715 -1.9936 0.9657
-8.3944 1.1979 -1.9929 0.9658
-8.4098 -1.0673 -1.9923 0.9658
-8.2809 -1.8133 -1.9923 0.9658
-7.5065 -3.9419 -1.9927 0.9658
-7.1258 -4.5964 -1.9929 0.9658
-6.6884 -5.2147 -1.9932 0.9658
-5.6577 -6.3229 -1.9941 0.9657
-4.4464 -7.2316 -1.9952 0.9657
-3.7847 -7.6018 -1.9958 0.9657
-3.0925 -7.9117 -1.9964 0.9657
-1.6385 -8.3414 -1.9979 0.9657
-0.8881 -8.4575 -1.9986 0.9657
-0.1302 -8.5064 -1.9994 0.9656
0.6295 -8.4875 -2.0002 0.9656
1.3847 -8.4010 -2.0011 0.9656
2.8579 -8.0278 -2.0027 0.9656
4.2424 -7.3981 -2.0043 0.9656
4.8874 -6.9928 -2.0051 0.9656
5.4938 -6.5313 -2.0058 0.9655
6.0567 -6.0173 -2.0065 0.9655
7.0342 -4.8484 -2.0078 0.9655
7.4408 -4.2027 -2.0084 0.9655
7.7880 -3.5231 -2.0089 0.9655
8.2937 -2.0839 -2.0098 0.9655
8.4479 -1.3359 -2.0101 0.9655
8.1986 2.4448 -2.0107 0.9655
7.9475 3.1663 -2.0106 0.9655
6.7116 4.1872 -1.8592 0.9680
6.3040 4.7637 -1.8570 0.9681
5.8528 5.3061 -1.8567 0.9681
4.8144 6.2587 -1.8558 0.9681
4.2357 6.6614 -1.8553 0.9681
2.9826 7.3034 -1.8541 0.9681
0.9412 7.8239 -1.8520 0.9681
0.2394 7.8735 -1.8513 0.9682
-0.4638 7.8603 -1.8506 0.9682
-1.1627 7.7844 -1.8498 0.9682
-1.8517 7.6465 -1.8490 0.9682
-2.5254 7.4478 -1.8483 0.9682
-2.8705 5.1855 -1.3930 0.9759
-4.4022 6.5055 -1.8461 0.9682
-4.9631 6.0845 -1.8454 0.9683
-5.1378 5.2609 -1.7282 0.9702
-6.3906 4.5486 -1.8435 0.9683
-7.9670 2.9135 -1.9937 0.9657
-8.3549 1.4508 -1.9930 0.9658
-8.4498 0.6996 -1.9927 0.9658
-8.4383 -0.8130 -1.9924 0.9658
-8.3319 -1.5625 -1.9923 0.9658
-7.9220 -3.0184 -1.9924 0.9658
-7.6218 -3.7134 -1.9926 0.9658
-6.8424 -5.0101 -1.9931 0.9658
-6.3693 -5.6016 -1.9935 0.9657
-5.2749 -6.6474 -1.9944 0.9657
-3.3295 -7.8139 -1.9962 0.9657
-2.6200 -8.0826 -1.9969 0.9657
1.1304 -8.4378 -2.0008 0.9656
1.8793 -8.3067 -2.0016 0.9656
2.6140 -8.1093 -2.0024 0.9656
4.0167 -7.5217 -2.0041 0.9656
6.8839 -5.0579 -2.0076 0.9655
7.3098 -4.4250 -2.0082 0.9655
7.6775 -3.7562 -2.0088 0.9655
8.2265 -2.3331 -2.0097 0.9655
8.4033 -1.5902 -2.0100 0.9655
8.5543 -0.0716 -2.0105 0.9655
8.5272 0.6919 -2.0107 0.9655
8.4318 1.4499 -2.0107 0.9655
8.2688 2.1963 -2.0107 0.9655
7.7393 3.6272 -2.0088 0.9655
6.9012 4.0214 -1.8772 0.9677
6.4453 4.5716 -1.8571 0.9681
5.0015 6.1111 -1.8560 0.9681
4.4352 6.5312 -1.8555 0.9681
2.5451 7.4652 -1.8537 0.9681
1.8683 7.6597 -1.8530 0.9681
-0.2264 7.8718 -1.8508 0.9682
-0.9273 7.8170 -1.8501 0.9682
-1.6203 7.7000 -1.8493 0.9682
-2.9605 7.2835 -1.8478 0.9682
-4.7778 6.2323 -1.8456 0.9682
-5.8052 5.2804 -1.8443 0.9683
-7.8760 3.1529 -1.9939 0.9657
-8.1242 2.4372 -1.9934 0.9657
-8.3753 -1.3103 -1.9923 0.9658
-8.2250 -2.0523 -1.9923 0.9658
-8.0093 -2.7779 -1.9924 0.9658
-6.9901 -4.8010 -1.9930 0.9658
-6.5351 -5.4064 -1.9934 0.9657
-5.4727 -6.4846 -1.9942 0.9657
-4.8737 -6.9488 -1.9948 0.9657
-4.2356 -7.3580 -1.9954 0.9657
-2.8625 -7.9988 -1.9967 0.9657
-1.3965 -8.3863 -1.9981 0.9657
-0.6430 -8.4808 -1.9989 0.9657
2.3677 -8.1833 -2.0022 0.9656
3.0895 -7.9427 -2.0030 0.9656
3.7873 -7.6385 -2.0038 0.9656
4.4554 -7.2731 -2.0046 0.9656
5.0884 -6.8492 -2.0053 0.9655
5.6812 -6.3703 -2.0061 0.9655
6.2290 -5.8401 -2.0068 0.9655
6.7274 -5.2629 -2.0074 0.9655
7.1723 -4.6432 -2.0080 0.9655
8.4835 -1.0909 -2.0102 0.9655
8.5480 -0.3297 -2.0105 0.9655
8.4716 1.1947 -2.0107 0.9655
8.3313 1.9457 -2.0107 0.9655
8.1243 2.6811 -2.0107 0.9655
7.8523 3.3950 -2.0106 0.9655
7.3528 3.9922 -1.9664 0.9662
5.6963 5.4729 -1.8565 0.9681
2.0989 7.6008 -1.8532 0.9681
0.7142 7.8468 -1.8518 0.9681
0.0113 7.8761 -1.8511 0.9682
-0.6911 7.8425 -1.8503 0.9682
-2.0720 7.5887 -1.8488 0.9682
-2.7396 7.3706 -1.8480 0.9682
-3.3849 7.0939 -1.8473 0.9682
-4.5881 6.3745 -1.8459 0.9682
-5.1366 5.9376 -1.8452 0.9683
-6.5190 4.3613 -1.8434 0.9683
-7.4328 4.0634 -1.9909 0.9658
-8.3930 1.2083 -1.9929 0.9658
-8.4723 -0.3024 -1.9925 0.9658
-8.4111 -1.0569 -1.9923 0.9658
-8.0894 -2.5349 -1.9924 0.9658
-7.8315 -3.2466 -1.9925 0.9658
-6.2049 -5.7840 -1.9936 0.9657
-5.6654 -6.3159 -1.9941 0.9657
-5.0807 -6.7979 -1.9946 0.9657
-4.4553 -7.2261 -1.9951 0.9657
-2.3852 -8.1560 -1.9971 0.9657
-0.8986 -8.4564 -1.9986 0.9657
-0.1406 -8.5062 -1.9994 0.9656
0.6190 -8.4883 -2.0002 0.9656
4.2333 -7.4032 -2.0043 0.9656
4.8787 -6.9988 -2.0051 0.9656
5.4857 -6.5381 -2.0058 0.9655
6.0492 -6.0248 -2.0065 0.9655
8.0696 -2.8249 -2.0094 0.9655
8.2911 -2.0941 -2.0098 0.9655
8.5338 -0.5876 -2.0104 0.9655
8.3863 1.6934 -2.0107 0.9655
7.9514 3.1565 -2.0106 0.9655
7.6171 3.8427 -2.0051 0.9656
6.7255 4.1844 -1.8616 0.9680
4.2439 6.6562 -1.8553 0.9681
2.3276 7.5349 -1.8534 0.9681
1.6455 7.7097 -1.8528 0.9681
0.9508 7.8227 -1.8521 0.9681
-0.4541 7.8609 -1.8506 0.9682
-1.1531 7.7859 -1.8498 0.9682
-1.8423 7.6488 -1.8491 0.9682
-2.5163 7.4509 -1.8483 0.9682
-3.1697 7.1938 -1.8475 0.9682
-5.9550 5.1095 -1.8441 0.9683
-7.6727 3.6230 -1.9942 0.9657
-7.9634 2.9234 -1.9937 0.9657
-8.1908 2.2008 -1.9933 0.9658
-8.3531 1.4611 -1.9930 0.9658
-8.4778 -0.0465 -1.9925 0.9658
-8.4393 -0.8026 -1.9924 0.9658
-7.9257 -3.0087 -1.9924 0.9658
-7.6263 -3.7040 -1.9926 0.9658
-7.2663 -4.3701 -1.9928 0.9658
-6.8485 -5.0016 -1.9931 0.9658
-5.2831 -6.6408 -1.9944 0.9657
-4.0212 -7.4783 -1.9956 0.9657
-3.3391 -7.8097 -1.9962 0.9657
-2.6300 -8.0793 -1.9969 0.9657
-0.3973 -8.4969 -1.9992 0.9657
1.1199 -8.4391 -2.0008 0.9656
1.8691 -8.3090 -2.0016 0.9656
4.0074 -7.5267 -2.0040 0.9656
5.2852 -6.6998 -2.0056 0.9655
6.3962 -5.6579 -2.0070 0.9655
6.8776 -5.0664 -2.0076 0.9655
7.3043 -4.4340 -2.0082 0.9655
7.9801 -3.0669 -2.0092 0.9655
8.5118 -0.8448 -2.0103 0.9655
8.5542 -0.0822 -2.0105 0.9655
8.5280 0.6813 -2.0107 0.9655
6.9189 4.0202 -1.8807 0.9677
6.0170 5.1200 -1.8568 0.9681
5.5351 5.6351 -1.8564 0.9681
5.0091 6.1050 -1.8560 0.9681
4.4433 6.5257 -1.8555 0.9681
3.8423 6.8940 -1.8549 0.9681
3.2109 7.2070 -1.8543 0.9681
2.5543 7.4621 -1.8537 0.9681
1.8777 7.6575 -1.8530 0.9681
1.1867 7.7915 -1.8523 0.9681
-0.9177 7.8182 -1.8501 0.9682
-1.6108 7.7020 -1.8493 0.9682
-2.2906 7.5245 -1.8486 0.9682
-2.7689 5.3954 -1.4253 0.9754
-5.3057 5.7858 -1.8450 0.9683
-6.2452 4.7477 -1.8437 0.9683
-6.8508 4.3015 -1.9012 0.9673
-7.5602 3.8531 -1.9943 0.9657
-7.8722 3.1626 -1.9939 0.9657
-8.4756 0.2094 -1.9926 0.9658
-8.3769 -1.3000 -1.9923 0.9658
-8.2275 -2.0421 -1.9923 0.9658
-7.7344 -3.4720 -1.9925 0.9658
-6.5417 -5.3983 -1.9933 0.9657
-6.0353 -5.9616 -1.9938 0.9657
-5.4807 -6.4778 -1.9942 0.9657
-1.4068 -8.3846 -1.9981 0.9657
0.1057 -8.5078 -1.9997 0.9656
0.8646 -8.4679 -2.0005 0.9656
1.6172 -8.3604 -2.0013 0.9656
2.3576 -8.1862 -2.0021 0.9656
3.7779 -7.6431 -2.0038 0.9656
6.2218 -5.8478 -2.0068 0.9655
6.7209 -5.2711 -2.0074 0.9655
7.8833 -3.3061 -2.0091 0.9655
8.3487 -1.8533 -2.0099 0.9655
8.4821 -1.1013 -2.0102 0.9655
8.5445 0.4236 -2.0106 0.9655
8.3337 1.9354 -2.0107 0.9655
7.8565 3.3853 -2.0106 0.9655
6.5861 4.3670 -1.8572 0.9681
5.1915 5.9515 -1.8561 0.9681
4.6387 6.3892 -1.8556 0.9681
4.0490 6.7756 -1.8551 0.9681
3.4273 7.1076 -1.8545 0.9681
2.7787 7.3825 -1.8539 0.9681
-0.6814 7.8434 -1.8503 0.9682
-1.3778 7.7482 -1.8496 0.9682
-2.0627 7.5913 -1.8488 0.9682
-2.7305 7.3740 -1.8481 0.9682
-3.3761 7.0981 -1.8473 0.9682
-3.0578 5.1796 -1.4136 0.9756
-5.1293 5.9440 -1.8452 0.9683
-5.3523 5.1849 -1.7514 0.9698
-6.5137 4.3693 -1.8434 0.9683
-7.4272 4.0722 -1.9907 0.9658
-7.7737 3.3990 -1.9940 0.9657
-8.0442 2.6914 -1.9936 0.9657
-8.2506 1.9627 -1.9932 0.9658
-8.3915 1.2186 -1.9929 0.9658
-8.4657 0.4651 -1.9926 0.9658
-8.4727 -0.2919 -1.9925 0.9658
-7.5162 -3.9234 -1.9926 0.9658
-6.2120 -5.7763 -1.9936 0.9657
-5.0891 -6.7916 -1.9946 0.9657
-4.4642 -7.2205 -1.9951 0.9657
-3.8034 -7.5924 -1.9958 0.9657
-3.1119 -7.9040 -1.9964 0.9657
-2.3953 -8.1530 -1.9971 0.9657
-0.9090 -8.4552 -1.9986 0.9657
-0.1512 -8.5060 -1.9994 0.9656
1.3639 -8.4043 -2.0010 0.9656
2.1091 -8.2525 -2.0019 0.9656
2.8381 -8.0347 -2.0027 0.9656
4.2241 -7.4084 -2.0043 0.9656
6.0418 -6.0322 -2.0065 0.9655
6.5580 -5.4710 -2.0072 0.9655
7.7793 -3.5423 -2.0089 0.9655
8.5049 0.9279 -2.0107 0.9655
7.9552 3.1467 -2.0106 0.9655
7.6224 3.8336 -2.0052 0.9655
6.3158 4.7482 -1.8570 0.9681
5.8659 5.2917 -1.8567 0.9681
4.2521 6.6510 -1.8553 0.9681
3.6407 7.0016 -1.8547 0.9681
3.0006 7.2961 -1.8541 0.9681
2.3369 7.5321 -1.8535 0.9681
0.2588 7.8730 -1.8513 0.9682
-0.4444 7.8615 -1.8506 0.9682
-1.1435 7.7873 -1.8498 0.9682
-2.5071 7.4541 -1.8483 0.9682
-3.1608 7.1977 -1.8476 0.9682
-2.8486 5.1760 -1.3885 0.9760
-5.1368 5.2859 -1.7323 0.9702
-5.9487 5.1169 -1.8441 0.9683
-6.3794 4.5644 -1.8436 0.9683
-7.6682 3.6324 -1.9942 0.9657
-8.4778 -0.0361 -1.9925 0.9658
-8.4403 -0.7922 -1.9924 0.9658
-8.3357 -1.5420 -1.9923 0.9658
-8.1650 -2.2795 -1.9923 0.9658
7.6987 -0.9803 -2.0094 0.9684
7.7518 0.4035 -2.0098 0.9684
7.6852 1.0935 -2.0099 0.9684
6.0646 4.0428 -1.8872 0.9703
4.6974 5.4120 -1.8555 0.9708
2.5051 6.7058 -1.8534 0.9709
1.8963 6.9003 -1.8528 0.9709
1.2727 7.0396 -1.8522 0.9709
0.6394 7.1225 -1.8516 0.9709
0.0015 7.1486 -1.8509 0.9709
-0.6360 7.1176 -1.8502 0.9709
-1.2680 7.0299 -1.8495 0.9709
-1.8894 6.8861 -1.8488 0.9709
-2.4952 6.6877 -1.8481 0.9709
-3.0807 6.4360 -1.8475 0.9709
-4.1725 5.7820 -1.8462 0.9710
-5.5493 4.4666 -1.8444 0.9710
-6.3879 4.2622 -1.9883 0.9688
-6.7659 3.6880 -1.9952 0.9687
-7.3104 2.4259 -1.9943 0.9687
-7.4964 1.7637 -1.9939 0.9687
-7.6228 1.0878 -1.9937 0.9687
-7.6369 -0.9692 -1.9932 0.9687
-7.5199 -1.6466 -1.9932 0.9687
-7.3431 -2.3109 -1.9932 0.9687
-7.1081 -2.9570 -1.9933 0.9687
-6.4707 -4.1739 -1.9937 0.9687
-6.0735 -4.7352 -1.9940 0.9687
-5.6278 -5.2591 -1.9943 0.9687
-1.4875 -7.5728 -1.9982 0.9686
-0.1182 -7.7221 -1.9996 0.9686
0.5714 -7.7047 -2.0004 0.9686
1.2569 -7.6258 -2.0011 0.9686
1.9329 -7.4861 -2.0019 0.9686
2.5940 -7.2865 -2.0026 0.9685
3.2349 -7.0286 -2.0033 0.9685
3.8504 -6.7144 -2.0041 0.9685
4.4356 -6.3464 -2.0048 0.9685
5.4964 -5.4607 -2.0061 0.9685
5.9635 -4.9501 -2.0067 0.9685
7.0669 -3.1969 -2.0083 0.9685
7.3254 -2.5542 -2.0087 0.9685
7.6652 -1.2122 -2.0093 0.9684
7.7602 0.1693 -2.0097 0.9684
7.6072 1.5458 -2.0099 0.9684
7.4388 2.2183 -2.0099 0.9684
6.9254 3.5045 -2.0096 0.9684
6.4402 4.0179 -1.9654 0.9691
2.1039 6.8407 -1.8531 0.9709
1.4848 6.9987 -1.8524 0.9709
0.2173 7.1462 -1.8511 0.9709
-0.4210 7.1344 -1.8504 0.9709
-1.0554 7.0658 -1.8498 0.9709
-1.6809 6.9409 -1.8491 0.9709
-2.8854 6.5269 -1.8477 0.9709
-2.8622 5.1704 -1.5301 0.9759
-3.9965 5.9060 -1.8464 0.9710
-4.5059 5.5241 -1.8458 0.9710
-6.6488 3.8889 -1.9944 0.9687
-7.5868 1.3174 -1.9938 0.9687
-7.6731 0.6353 -1.9935 0.9687
-7.6985 -0.0518 -1.9933 0.9687
-7.5661 -1.4189 -1.9932 0.9687
-7.4094 -2.0882 -1.9932 0.9687
-7.1939 -2.7410 -1.9933 0.9687
-6.9212 -3.3721 -1.9934 0.9687
-6.5935 -3.9765 -1.9936 0.9687
-5.7836 -5.0865 -1.9942 0.9687
-3.0230 -7.0945 -1.9967 0.9686
-1.0375 -7.6493 -1.9987 0.9686
0.3386 -7.7175 -2.0001 0.9686
1.0261 -7.6593 -2.0009 0.9686
4.2415 -6.4766 -2.0045 0.9685
5.3285 -5.6235 -2.0059 0.9685
6.6332 -4.0154 -2.0076 0.9685
6.9666 -3.4084 -2.0081 0.9685
7.4645 -2.1170 -2.0089 0.9684
7.6248 -1.4429 -2.0092 0.9684
7.7616 -0.0650 -2.0097 0.9684
7.7370 0.6278 -2.0098 0.9684
7.6503 1.3155 -2.0099 0.9684
7.5025 1.9927 -2.0099 0.9684
7.2945 2.6540 -2.0098 0.9684
7.0282 3.2939 -2.0097 0.9684
4.5385 5.5453 -1.8553 0.9708
4.0247 5.9266 -1.8549 0.9708
2.9058 6.5438 -1.8538 0.9708
0.4329 7.1372 -1.8514 0.9709
-2.7668 5.3748 -1.5652 0.9753
-3.8169 6.0247 -1.8466 0.9710
-4.3377 5.6582 -1.8460 0.9710
-5.2707 4.7942 -1.8448 0.9710
-6.5182 4.0815 -1.9912 0.9687
-6.8693 3.4903 -1.9950 0.9687
-7.1517 2.8629 -1.9946 0.9687
-7.3772 2.2131 -1.9942 0.9687
-7.6508 0.8666 -1.9936 0.9687
-7.6817 -0.5067 -1.9932 0.9687
-7.6056 -1.1899 -1.9932 0.9687
-7.0196 -3.1616 -1.9933 0.9687
-5.4736 -5.4201 -1.9945 0.9687
-4.9693 -5.8881 -1.9949 0.9687
-1.9413 -7.4676 -1.9978 0.9686
-1.2678 -7.6136 -1.9984 0.9686
-0.5837 -7.6990 -1.9991 0.9686
1.4773 -7.5872 -2.0013 0.9686
2.8042 -7.2092 -2.0028 0.9685
5.6528 -5.2999 -2.0063 0.9685
6.1049 -4.7758 -2.0069 0.9685
7.1570 -2.9911 -2.0084 0.9685
7.5774 -1.6723 -2.0091 0.9684
7.7559 -0.2992 -2.0096 0.9684
7.7522 0.3939 -2.0098 0.9684
7.5592 1.7654 -2.0099 0.9684
7.3714 2.4327 -2.0098 0.9684
7.1246 3.0804 -2.0097 0.9684
6.8123 3.6987 -2.0070 0.9685
5.1687 4.9660 -1.8559 0.9708
4.2021 5.8029 -1.8550 0.9708
3.1023 6.4537 -1.8540 0.9708
1.9048 6.8980 -1.8529 0.9709
1.2814 7.0380 -1.8522 0.9709
0.6482 7.1218 -1.8516 0.9709
0.0103 7.1486 -1.8509 0.9709
-0.6272 7.1184 -1.8502 0.9709
-1.2593 7.0315 -1.8495 0.9709
-1.8809 6.8885 -1.8488 0.9709
-2.4870 6.6908 -1.8482 0.9709
-3.0548 5.1600 -1.5526 0.9755
-4.1654 5.7872 -1.8462 0.9710
-4.6635 5.3908 -1.8456 0.9710
-5.1242 4.9517 -1.8450 0.9710
-6.7614 3.6963 -1.9952 0.9687
-7.0625 3.0777 -1.9947 0.9687
-7.6881 0.4129 -1.9934 0.9687
-7.6936 -0.2746 -1.9933 0.9687
-7.6381 -0.9598 -1.9932 0.9687
-7.5219 -1.6373 -1.9932 0.9687
-7.3460 -2.3019 -1.9932 0.9687
-7.1117 -2.9482 -1.9933 0.9687
-6.8209 -3.5712 -1.9935 0.9687
-6.4759 -4.1659 -1.9937 0.9687
-5.1444 -5.7350 -1.9948 0.9687
-4.6133 -6.1725 -1.9952 0.9687
-3.4448 -6.8978 -1.9963 0.9686
-2.8166 -7.1797 -1.9969 0.9686
-1.4968 -7.5710 -1.9982 0.9686
-0.8158 -7.6770 -1.9989 0.9686
-0.1277 -7.7219 -1.9996 0.9686
2.5850 -7.2897 -2.0026 0.9685
3.2262 -7.0326 -2.0033 0.9685
4.9784 -5.9335 -2.0054 0.9685
5.9574 -4.9575 -2.0067 0.9685
7.7431 -0.5331 -2.0096 0.9684
7.4416 2.2091 -2.0099 0.9684
6.9297 3.4959 -2.0096 0.9684
6.4562 4.0168 -1.9687 0.9691
5.3166 4.8081 -1.8560 0.9708
3.2960 6.3578 -1.8542 0.9708
2.7148 6.6245 -1.8537 0.9709
-0.4122 7.1350 -1.8505 0.9709
-2.2842 6.7636 -1.8484 0.9709
-2.8774 6.5305 -1.8477 0.9709
-2.8506 5.1645 -1.5273 0.9759
-3.9893 5.9110 -1.8464 0.9710
-4.9729 5.1046 -1.8452 0.9710
-6.6436 3.8969 -1.9942 0.9687
-7.6724 0.6447 -1.9935 0.9687
-7.6637 -0.7288 -1.9932 0.9687
-7.4120 -2.0791 -1.9932 0.9687
-6.9254 -3.3636 -1.9934 0.9687
-6.5984 -3.9684 -1.9936 0.9687
-6.2189 -4.5418 -1.9939 0.9687
-5.7899 -5.0793 -1.9942 0.9687
-4.7971 -6.0299 -1.9951 0.9687
-4.2411 -6.4355 -1.9956 0.9687
-3.0317 -7.0907 -1.9967 0.9686
-2.3878 -7.3352 -1.9973 0.9686
-1.7245 -7.5215 -1.9980 0.9686
-0.3606 -7.7136 -1.9994 0.9686
1.6966 -7.5421 -2.0016 0.9686
2.3635 -7.3634 -2.0023 0.9686
3.6371 -6.8312 -2.0038 0.9685
4.2335 -6.4818 -2.0045 0.9685
4.7965 -6.0804 -2.0052 0.9685
5.3216 -5.6301 -2.0059 0.9685
5.8044 -5.1345 -2.0065 0.9685
7.2410 -2.7829 -2.0085 0.9685
7.6230 -1.4523 -2.0092 0.9684
7.7615 -0.0746 -2.0097 0.9684
7.7377 0.6182 -2.0098 0.9684
7.5049 1.9835 -2.0099 0.9684
5.0225 5.1133 -1.8558 0.9708
4.5453 5.5397 -1.8553 0.9708
2.9138 6.5402 -1.8538 0.9708
2.3181 6.7720 -1.8533 0.9709
1.7041 6.9495 -1.8527 0.9709
1.0770 7.0714 -1.8520 0.9709
0.4417 7.1367 -1.8514 0.9709
-1.4622 6.9912 -1.8493 0.9709
-2.7639 5.3855 -1.5673 0.9753
-3.8095 6.0294 -1.8466 0.9710
-4.3307 5.6636 -1.8460 0.9710
-4.8171 5.2529 -1.8454 0.9710
-5.2648 4.8008 -1.8448 0.9710
-5.6705 4.3107 -1.8443 0.9710
-7.6966 0.1901 -1.9934 0.9687
-7.6823 -0.4972 -1.9932 0.9687
-7.6070 -1.1805 -1.9932 0.9687
-7.4713 -1.8544 -1.9932 0.9687
-7.2763 -2.5136 -1.9932 0.9687
-7.0235 -3.1529 -1.9933 0.9687
-6.3529 -4.3518 -1.9938 0.9687
-5.4803 -5.4134 -1.9945 0.9687
-4.9765 -5.8819 -1.9949 0.9687
-4.4330 -6.3040 -1.9954 0.9687
-2.6078 -7.2590 -1.9971 0.9686
-1.9505 -7.4651 -1.9977 0.9686
0.0959 -7.7233 -1.9999 0.9686
1.4680 -7.5889 -2.0013 0.9686
3.4289 -6.9370 -2.0036 0.9685
4.6103 -6.2217 -2.0050 0.9685
5.1487 -5.7875 -2.0056 0.9685
6.0989 -4.7834 -2.0069 0.9685
6.8555 -3.6253 -2.0079 0.9685
7.1532 -3.0000 -2.0084 0.9685
7.5753 -1.6816 -2.0091 0.9684
7.6962 -0.9993 -2.0094 0.9684
7.7555 -0.3088 -2.0096 0.9684
7.3744 2.4235 -2.0098 0.9684
6.8173 3.6906 -2.0072 0.9685
5.5977 4.4791 -1.8562 0.9708
5.1749 4.9597 -1.8559 0.9708
4.7108 5.4004 -1.8555 0.9708
4.2093 5.7977 -1.8550 0.9708
3.1102 6.4500 -1.8540 0.9708
1.9133 6.8957 -1.8529 0.9709
0.6570 7.1210 -1.8516 0.9709
-0.6185 7.1192 -1.8502 0.9709
-1.2506 7.0330 -1.8495 0.9709
-1.8724 6.8909 -1.8489 0.9709
-2.4787 6.6939 -1.8482 0.9709
-3.0649 6.4437 -1.8475 0.9709
-3.0455 5.1588 -1.5511 0.9756
-4.6568 5.3965 -1.8456 0.9710
-5.1181 4.9580 -1.8450 0.9710
-5.5383 4.4803 -1.8444 0.9710
-6.3751 4.2764 -1.9876 0.9688
-6.7568 3.7047 -1.9952 0.9687
-7.0588 3.0864 -1.9947 0.9687
-7.3045 2.4439 -1.9943 0.9687
-7.6393 -0.9504 -1.9932 0.9687
-7.5239 -1.6281 -1.9932 0.9687
-7.3488 -2.2928 -1.9932 0.9687
-7.1153 -2.9394 -1.9933 0.9687
-6.8253 -3.5627 -1.9935 0.9687
-6.4810 -4.1579 -1.9937 0.9687
-5.6408 -5.2451 -1.9943 0.9687
-4.0534 -6.5561 -1.9957 0.9687
-3.4533 -6.8935 -1.9963 0.9686
1.2381 -7.6288 -2.0011 0.9686
2.5760 -7.2928 -2.0026 0.9685
3.2175 -7.0365 -2.0033 0.9685
3.8338 -6.7239 -2.0040 0.9685
5.4829 -5.4742 -2.0061 0.9685
5.9512 -4.9648 -2.0067 0.9685
7.5207 -1.9094 -2.0090 0.9684
7.6622 -1.2311 -2.0093 0.9684
7.7424 -0.5427 -2.0096 0.9684
7.2180 2.8551 -2.0098 0.9684
6.9340 3.4874 -2.0096 0.9684
6.4722 4.0157 -1.9721 0.9690
5.7307 4.3083 -1.8563 0.9708
5.3226 4.8015 -1.8560 0.9708
4.8720 5.2562 -1.8556 0.9708
4.3827 5.6685 -1.8552 0.9708
3.8586 6.0354 -1.8547 0.9708
3.3038 6.3537 -1.8542 0.9708
2.7230 6.6212 -1.8537 0.9709
1.5021 6.9951 -1.8525 0.9709
0.2349 7.1457 -1.8511 0.9709
-0.4034 7.1355 -1.8505 0.9709
-2.8693 6.5341 -1.8477 0.9709
-2.8402 5.1608 -1.5252 0.9760
-3.9820 5.9159 -1.8464 0.9710
-4.4924 5.5352 -1.8458 0.9710
-4.9666 5.1108 -1.8452 0.9710
-5.9876 4.2840 -1.9062 0.9700
-6.6384 3.9049 -1.9941 0.9687
-7.4353 2.0077 -1.9941 0.9687
-7.5836 1.3362 -1.9938 0.9687
-7.6986 -0.0328 -1.9933 0.9687
-7.6646 -0.7194 -1.9932 0.9687
-7.4146 -2.0700 -1.9932 0.9687
