ply
format ascii 1.0
element vertex 1583
property float32 x
property float32 y
property float32 z
property float32 I
end_header
-1.1652 6.8683 -1.1477 0.9722
-2.8515 10.8293 -1.8448 0.9556
-3.8046 10.5246 -1.8436 0.9556
-4.7262 10.1365 -1.8425 0.9557
-6.4464 9.1237 -1.8403 0.9557
-7.2316 8.5071 -1.8394 0.9557
-9.2156 6.2781 -1.8370 0.9558
-10.1790 4.5360 -1.8358 0.9558
-11.3859 3.8973 -1.9825 0.9524
-11.7099 2.8704 -1.9862 0.9523
-11.9182 1.8131 -1.9860 0.9523
-12.0319 0.7416 -1.9859 0.9523
-12.0503 -0.3357 -1.9859 0.9523
-11.1777 -4.5360 -1.9872 0.9523
-10.1995 -6.4562 -1.9886 0.9522
-9.5862 -7.3442 -1.9894 0.9522
-8.8962 -8.1746 -1.9903 0.9522
-8.1349 -8.9408 -1.9913 0.9522
-7.3080 -9.6367 -1.9924 0.9522
-3.4806 -11.6141 -1.9974 0.9520
-2.4313 -11.8865 -1.9987 0.9520
-1.3612 -12.0644 -2.0001 0.9520
-0.2786 -12.1461 -2.0015 0.9519
2.9564 -11.8097 -2.0056 0.9518
4.0018 -11.5060 -2.0069 0.9518
5.0163 -11.1098 -2.0081 0.9518
8.6071 -8.6698 -2.0126 0.9517
9.3511 -7.8701 -2.0135 0.9517
10.0205 -7.0065 -2.0143 0.9516
11.1141 -5.1157 -2.0156 0.9516
11.5292 -4.1038 -2.0160 0.9516
12.2088 -0.9017 -2.0167 0.9516
12.1735 1.2841 -2.0166 0.9516
12.0086 2.3657 -2.0163 0.9516
11.7472 3.4279 -2.0159 0.9516
9.6174 5.9251 -1.8609 0.9552
9.0462 6.7574 -1.8601 0.9553
5.9182 5.3067 -1.3095 0.9683
6.9213 8.8998 -1.8573 0.9553
6.0954 9.4768 -1.8562 0.9553
5.2217 9.9771 -1.8551 0.9554
4.3056 10.3929 -1.8532 0.9554
3.2552 10.3998 -1.7952 0.9568
2.2608 10.4063 -1.7543 0.9577
0.3811 10.8513 -1.7887 0.9569
-0.6088 11.1991 -1.8477 0.9556
-0.9960 6.8821 -1.1456 0.9722
-2.5876 10.8975 -1.8452 0.9556
-3.5480 10.6159 -1.8440 0.9556
-4.4789 10.2503 -1.8428 0.9557
-7.0234 8.6818 -1.8396 0.9557
-7.7667 8.0160 -1.8387 0.9558
-9.0610 6.5012 -1.8372 0.9558
-9.6019 5.6641 -1.8365 0.9558
-11.1321 4.1158 -1.9552 0.9530
-11.8708 2.1026 -1.9860 0.9523
-12.0104 1.0342 -1.9859 0.9523
-12.0035 -1.1187 -1.9860 0.9523
-11.8571 -2.1863 -1.9863 0.9523
-11.6166 -3.2369 -1.9866 0.9523
-10.8614 -5.2544 -1.9877 0.9523
-9.7609 -7.1079 -1.9892 0.9522
-9.0913 -7.9546 -1.9901 0.9522
-7.5392 -9.4546 -1.9921 0.9522
-5.7440 -10.6574 -1.9945 0.9521
-4.7724 -11.1347 -1.9957 0.9521
-2.7194 -11.8217 -1.9984 0.9520
-1.6540 -12.0254 -1.9997 0.9520
3.7199 -11.5980 -2.0065 0.9518
5.7307 -10.7648 -2.0090 0.9518
9.1557 -8.0944 -2.0132 0.9517
9.8460 -7.2475 -2.0141 0.9516
10.4576 -6.3417 -2.0148 0.9516
11.4252 -4.3829 -2.0159 0.9516
11.7732 -3.3458 -2.0163 0.9516
12.1831 -1.1986 -2.0167 0.9516
12.2015 0.9875 -2.0166 0.9516
11.3668 4.1363 -1.9927 0.9521
7.8922 8.0622 -1.8586 0.9553
7.1369 8.7301 -1.8576 0.9553
6.3253 9.3271 -1.8565 0.9553
3.5346 10.3979 -1.8092 0.9565
1.5613 10.4109 -1.7343 0.9582
-3.2892 10.7010 -1.8443 0.9556
-4.2289 10.3580 -1.8431 0.9557
-5.1337 9.9329 -1.8420 0.9557
-5.9967 9.4293 -1.8409 0.9557
-7.5703 8.2037 -1.8390 0.9558
-8.2688 7.4915 -1.8381 0.9558
-9.4621 5.8966 -1.8367 0.9558
-9.9477 5.0266 -1.8361 0.9558
-10.4043 4.1371 -1.8445 0.9556
-11.8164 2.3910 -1.9861 0.9523
-11.9818 1.3262 -1.9859 0.9523
-12.0521 0.2510 -1.9859 0.9523
-11.6913 -2.9531 -1.9865 0.9523
-11.3835 -3.9862 -1.9870 0.9523
-10.4994 -5.9511 -1.9882 0.9523
-9.2810 -7.7301 -1.9898 0.9522
-7.7659 -9.2670 -1.9918 0.9522
-3.0057 -11.7498 -1.9980 0.9520
5.4662 -10.8993 -2.0087 0.9518
6.4214 -10.3737 -2.0099 0.9517
7.3261 -9.7644 -2.0110 0.9517
9.6657 -7.4842 -2.0138 0.9517
10.2992 -6.5937 -2.0146 0.9516
10.8503 -5.6495 -2.0153 0.9516
11.6878 -3.6312 -2.0162 0.9516
11.9671 -2.5734 -2.0165 0.9516
12.2221 0.6903 -2.0167 0.9516
11.9014 2.8526 -2.0162 0.9516
11.5758 3.8960 -2.0121 0.9517
8.7617 7.1187 -1.8598 0.9553
7.3483 8.5551 -1.8579 0.9553
3.6428 5.0999 -1.0325 0.9749
5.7029 9.7145 -1.8557 0.9554
4.8096 10.1785 -1.8546 0.9554
2.7964 10.4028 -1.7746 0.9573
0.8747 10.4154 -1.7219 0.9585
-0.0632 11.2196 -1.8483 0.9555
-0.6683 7.0109 -1.1602 0.9719
-1.2996 6.9654 -1.1673 0.9717
-3.0284 10.7798 -1.8446 0.9556
-3.9762 10.4596 -1.8434 0.9557
-4.8913 10.0565 -1.8423 0.9557
-8.7358 6.9358 -1.8376 0.9558
-9.8232 5.2676 -1.8363 0.9558
-11.4655 3.7157 -1.9855 0.9523
-11.7551 2.6779 -1.9861 0.9523
-11.9461 1.6174 -1.9860 0.9523
-12.0424 0.5442 -1.9859 0.9523
-12.0432 -0.5333 -1.9859 0.9523
-11.7591 -2.6676 -1.9864 0.9523
-11.4763 -3.7077 -1.9868 0.9523
-11.1024 -4.7189 -1.9873 0.9523
-10.0929 -6.6231 -1.9887 0.9522
-8.7618 -8.3201 -1.9905 0.9522
-7.1497 -9.7563 -1.9926 0.9521
-6.2536 -10.3618 -1.9938 0.9521
-5.3067 -10.8855 -1.9950 0.9521
-2.2363 -11.9263 -1.9990 0.9520
-1.1633 -12.0866 -2.0003 0.9520
-0.0794 -12.1506 -2.0017 0.9519
1.0065 -12.1174 -2.0031 0.9519
2.0859 -11.9873 -2.0045 0.9519
5.1985 -11.0272 -2.0084 0.9518
7.9486 -9.2708 -2.0118 0.9517
8.7489 -8.5282 -2.0127 0.9517
10.1347 -6.8417 -2.0144 0.9516
10.7088 -5.9114 -2.0151 0.9516
11.1970 -4.9329 -2.0157 0.9516
11.5954 -3.9143 -2.0161 0.9516
11.9005 -2.8638 -2.0164 0.9516
12.1100 -1.7899 -2.0167 0.9516
12.2355 0.3927 -2.0167 0.9516
12.1506 1.4836 -2.0165 0.9516
11.6889 3.6199 -2.0158 0.9516
10.4554 4.2945 -1.8620 0.9552
10.0270 5.2093 -1.8615 0.9552
9.5183 6.0815 -1.8608 0.9552
8.2773 7.6708 -1.8591 0.9553
7.5555 8.3749 -1.8582 0.9553
3.8258 5.0895 -1.0489 0.9745
5.9385 9.5744 -1.8560 0.9554
2.0830 10.4075 -1.7485 0.9579
1.1303 10.4137 -1.7256 0.9584
0.2014 10.7662 -1.7739 0.9573
-1.1076 6.8583 -1.1445 0.9722
-4.6459 10.1743 -1.8426 0.9557
-5.5325 9.7130 -1.8415 0.9557
-6.3741 9.1750 -1.8404 0.9557
-7.1641 8.5647 -1.8395 0.9557
-10.1429 4.6168 -1.8359 0.9558
-11.9035 1.9076 -1.9860 0.9523
-12.0257 0.8371 -1.9859 0.9523
-12.0525 -0.2401 -1.9859 0.9523
-11.9838 -1.3154 -1.9861 0.9523
-11.8200 -2.3805 -1.9863 0.9523
-11.5625 -3.4271 -1.9867 0.9523
-10.7745 -5.4321 -1.9878 0.9523
-8.9605 -8.1033 -1.9902 0.9522
-8.2052 -8.8756 -1.9912 0.9522
-7.3839 -9.5779 -1.9923 0.9522
-5.5691 -10.7513 -1.9947 0.9521
-4.5897 -11.2128 -1.9959 0.9521
-3.5726 -11.5854 -1.9973 0.9520
-0.3750 -12.1428 -2.0013 0.9519
0.7112 -12.1361 -2.0027 0.9519
3.9101 -11.5368 -2.0068 0.9518
5.9071 -10.6705 -2.0092 0.9518
6.8403 -10.1062 -2.0104 0.9517
9.2880 -7.9438 -2.0134 0.9517
10.5608 -6.1697 -2.0149 0.9516
11.0729 -5.2036 -2.0155 0.9516
11.4960 -4.1952 -2.0160 0.9516
12.0626 -2.0840 -2.0166 0.9516
12.2012 -0.9986 -2.0167 0.9516
12.1834 1.1875 -2.0166 0.9516
12.0272 2.2703 -2.0163 0.9516
11.7743 3.3346 -2.0160 0.9516
10.8484 4.1503 -1.9135 0.9540
10.1517 4.9642 -1.8616 0.9552
9.0999 6.6856 -1.8602 0.9553
6.9921 8.8450 -1.8574 0.9553
4.3898 10.3629 -1.8540 0.9554
3.3458 10.3992 -1.7996 0.9567
2.3474 10.4057 -1.7573 0.9577
-0.5199 11.2042 -1.8478 0.9555
-0.9380 6.8657 -1.1416 0.9723
-4.3977 10.2861 -1.8429 0.9557
-8.3899 7.3543 -1.8380 0.9558
-9.0094 6.5731 -1.8372 0.9558
-9.5569 5.7403 -1.8366 0.9558
-10.0283 4.8625 -1.8360 0.9558
-10.8854 4.1230 -1.9176 0.9539
-11.6118 3.2469 -1.9863 0.9523
-11.8538 2.1968 -1.9860 0.9523
-12.0547 0.0533 -1.9859 0.9523
-11.8739 -2.0921 -1.9862 0.9523
-11.3171 -4.1725 -1.9870 0.9523
-10.4010 -6.1229 -1.9883 0.9522
-9.8167 -7.0299 -1.9891 0.9522
-8.4176 -8.6720 -1.9910 0.9522
-7.6136 -9.3940 -1.9920 0.9522
-6.7482 -10.0420 -1.9931 0.9521
-5.8281 -10.6109 -1.9943 0.9521
-4.8604 -11.0959 -1.9956 0.9521
-3.8527 -11.4930 -1.9969 0.9520
-2.8129 -11.7990 -1.9982 0.9520
2.5732 -11.8961 -2.0051 0.9519
3.6276 -11.6265 -2.0064 0.9518
5.6448 -10.8094 -2.0089 0.9518
6.5913 -10.2681 -2.0101 0.9517
7.4860 -9.6439 -2.0112 0.9517
10.9421 -5.4711 -2.0154 0.9516
11.7461 -3.4391 -2.0163 0.9516
12.2404 -0.2031 -2.0167 0.9516
10.2704 4.7161 -1.8618 0.9552
6.0929 5.1185 -1.3109 0.9683
7.9563 7.9997 -1.8587 0.9553
3.6267 10.3973 -1.8141 0.9563
1.6458 10.4103 -1.7363 0.9582
-5.0550 9.9739 -1.8421 0.9557
-5.9220 9.4771 -1.8410 0.9557
-8.2094 7.5572 -1.8382 0.9558
-8.8477 6.7911 -1.8374 0.9558
-12.0330 -0.7307 -1.9860 0.9523
-11.7142 -2.8602 -1.9865 0.9523
-9.3417 -7.6558 -1.9897 0.9522
-7.8388 -9.2046 -1.9917 0.9522
-6.9895 -9.8733 -1.9928 0.9521
-5.1281 -10.9724 -1.9953 0.9521
-3.0987 -11.7249 -1.9979 0.9520
-2.0407 -11.9629 -1.9992 0.9520
0.1199 -12.1518 -2.0020 0.9519
2.2825 -11.9530 -2.0047 0.9519
3.3429 -11.7092 -2.0060 0.9518
5.3792 -10.9417 -2.0086 0.9518
6.3385 -10.4239 -2.0098 0.9517
8.1003 -9.1401 -2.0119 0.9517
9.6056 -7.5604 -2.0138 0.9517
11.2769 -4.7489 -2.0158 0.9516
11.6584 -3.7238 -2.0162 0.9516
12.2273 0.5933 -2.0167 0.9516
12.1244 1.6826 -2.0165 0.9516
11.9238 2.7581 -2.0162 0.9516
11.6153 3.8070 -2.0137 0.9517
10.3830 4.4651 -1.8619 0.9552
9.4165 6.2364 -1.8606 0.9552
8.1497 7.8048 -1.8589 0.9553
4.8906 10.1406 -1.8547 0.9554
2.8850 10.4022 -1.7783 0.9572
1.9062 10.4086 -1.7432 0.9580
0.9579 10.4148 -1.7230 0.9585
0.0259 11.2205 -1.8485 0.9555
-0.9755 11.1703 -1.8472 0.9556
-1.2306 6.8989 -1.1545 0.9720
-2.9429 10.8041 -1.8447 0.9556
-3.8933 10.4914 -1.8435 0.9556
-4.8116 10.0956 -1.8424 0.9557
-5.6905 9.6199 -1.8413 0.9557
-7.3029 8.4452 -1.8393 0.9557
-8.0240 7.7557 -1.8384 0.9558
-8.6808 7.0052 -1.8376 0.9558
-9.2680 6.1997 -1.8369 0.9558
-11.4274 3.8038 -1.9841 0.9523
-11.9330 1.7121 -1.9860 0.9523
-12.0377 0.6398 -1.9859 0.9523
-12.0470 -0.4377 -1.9859 0.9523
-11.9608 -1.5118 -1.9861 0.9523
-11.7797 -2.5741 -1.9864 0.9523
-11.5052 -3.6164 -1.9868 0.9523
-10.6846 -5.6085 -1.9879 0.9523
-8.8271 -8.2500 -1.9904 0.9522
-6.3354 -10.3113 -1.9937 0.9521
-5.3926 -10.8425 -1.9949 0.9521
-4.4057 -11.2879 -1.9962 0.9521
-3.3825 -11.6439 -1.9975 0.9520
-2.3308 -11.9074 -1.9988 0.9520
-1.2591 -12.0763 -2.0002 0.9520
-0.1759 -12.1488 -2.0016 0.9519
0.9103 -12.1243 -2.0030 0.9519
1.9906 -12.0028 -2.0043 0.9519
-2.7298 9.4289 -1.8451 0.9608
-4.3586 8.7833 -1.8430 0.9609
-5.1228 8.3548 -1.8421 0.9609
-5.8456 7.8601 -1.8412 0.9609
-6.5211 7.3035 -1.8403 0.9609
-7.1443 6.6893 -1.8396 0.9609
-7.7102 6.0224 -1.8389 0.9610
-8.2144 5.3081 -1.8383 0.9610
-8.6532 4.5521 -1.8378 0.9610
-9.7331 4.0564 -1.9820 0.9580
-10.3306 2.2673 -1.9880 0.9579
-10.4707 -1.4927 -1.9880 0.9579
-10.2970 -2.4220 -1.9883 0.9579
-10.0415 -3.3324 -1.9886 0.9579
-8.2496 -6.6449 -1.9911 0.9578
-6.9421 -8.0133 -1.9928 0.9578
-6.2019 -8.6054 -1.9938 0.9577
-5.4115 -9.1295 -1.9948 0.9577
-4.5772 -9.5814 -1.9959 0.9577
-3.7054 -9.9575 -1.9970 0.9577
-1.8774 -10.4701 -1.9994 0.9576
0.9664 -10.6124 -2.0030 0.9576
4.6310 -9.6246 -2.0076 0.9575
5.4747 -9.1775 -2.0086 0.9574
6.2754 -8.6562 -2.0096 0.9574
7.7219 -7.4085 -2.0114 0.9574
8.3557 -6.6919 -2.0121 0.9574
9.8391 -4.2418 -2.0139 0.9573
10.1805 -3.3469 -2.0143 0.9573
10.4401 -2.4248 -2.0146 0.9573
10.7063 -0.5292 -2.0148 0.9573
10.6286 1.3834 -2.0146 0.9573
10.4613 2.3267 -2.0144 0.9573
8.7442 4.6313 -1.8599 0.9605
7.1960 6.7756 -1.8578 0.9606
5.1354 8.4282 -1.8551 0.9606
4.3600 8.8483 -1.8541 0.9606
3.5505 9.1971 -1.8530 0.9607
0.1059 9.8346 -1.8486 0.9608
-2.4999 9.4941 -1.8453 0.9608
-3.3358 9.2277 -1.8443 0.9609
-4.1441 8.8881 -1.8433 0.9609
-4.9187 8.4781 -1.8423 0.9609
-6.9801 6.8619 -1.8398 0.9609
-8.0835 5.5069 -1.8385 0.9610
-8.5404 4.7617 -1.8379 0.9610
-10.0083 3.4258 -1.9883 0.9579
-10.2727 2.5181 -1.9880 0.9579
-10.5554 0.6506 -1.9878 0.9579
-10.3525 -2.1706 -1.9882 0.9579
-9.4133 -4.8399 -1.9895 0.9578
-8.9463 -5.6630 -1.9901 0.9578
-8.4080 -6.4415 -1.9909 0.9578
-7.8024 -7.1695 -1.9917 0.9578
-5.6313 -8.9938 -1.9945 0.9577
-4.8083 -9.4658 -1.9956 0.9577
-3.9460 -9.8628 -1.9967 0.9577
-1.1931 -10.5746 -2.0002 0.9576
-0.2442 -10.6453 -2.0014 0.9576
0.7077 -10.6310 -2.0026 0.9576
1.6552 -10.5317 -2.0038 0.9575
2.5905 -10.3479 -2.0050 0.9575
3.5061 -10.0810 -2.0062 0.9575
4.3947 -9.7330 -2.0073 0.9575
5.2490 -9.3067 -2.0083 0.9574
8.1896 -6.8926 -2.0119 0.9574
10.0956 -3.5935 -2.0142 0.9573
10.5765 -1.7409 -2.0147 0.9573
10.6902 -0.7896 -2.0148 0.9573
10.2865 3.0017 -2.0141 0.9573
9.9568 3.9001 -2.0099 0.9574
8.8550 4.4175 -1.8600 0.9605
8.4225 5.1889 -1.8594 0.9605
6.7380 7.2269 -1.8572 0.9606
5.3398 8.3019 -1.8554 0.9606
3.7738 9.1094 -1.8533 0.9607
2.0909 9.6241 -1.8512 0.9607
1.2224 9.7665 -1.8500 0.9607
0.3453 9.8307 -1.8489 0.9608
-0.5336 9.8164 -1.8478 0.9608
-1.0045 6.9414 -1.3183 0.9719
-2.2685 9.5536 -1.8456 0.9608
-3.1107 9.3075 -1.8446 0.9608
-4.7116 8.5965 -1.8426 0.9609
-6.8118 7.0305 -1.8400 0.9609
-7.4095 6.3916 -1.8393 0.9610
-7.9478 5.7025 -1.8386 0.9610
-10.2087 2.7674 -1.9881 0.9579
-10.5365 0.9073 -1.9878 0.9579
-10.5754 -0.0372 -1.9878 0.9579
-10.4018 -1.9180 -1.9881 0.9579
-9.8984 -3.7390 -1.9888 0.9578
-9.5275 -4.6091 -1.9893 0.9578
-9.0807 -5.4431 -1.9900 0.9578
-7.9736 -6.9767 -1.9914 0.9578
-7.3220 -7.6641 -1.9923 0.9578
-6.6115 -8.2912 -1.9932 0.9578
-5.8476 -8.8529 -1.9942 0.9577
-4.1842 -9.7624 -1.9964 0.9577
-2.3838 -10.3630 -1.9987 0.9576
-1.4498 -10.5407 -1.9999 0.9576
-0.5031 -10.6345 -2.0011 0.9576
0.4487 -10.6434 -2.0023 0.9576
5.0203 -9.4303 -2.0081 0.9575
5.8453 -8.9489 -2.0091 0.9574
6.6242 -8.3952 -2.0100 0.9574
8.0186 -7.0891 -2.0117 0.9574
8.6227 -6.3471 -2.0125 0.9574
9.1579 -5.5535 -2.0131 0.9573
10.0046 -3.8379 -2.0141 0.9573
10.5307 -1.9977 -2.0147 0.9573
10.6677 -1.0495 -2.0148 0.9573
10.0680 3.6636 -2.0138 0.9573
8.9606 4.2010 -1.8602 0.9605
8.5471 4.9829 -1.8596 0.9605
5.9579 5.0863 -1.4724 0.9686
6.9127 7.0616 -1.8574 0.9606
4.7868 8.6283 -1.8546 0.9606
3.9950 9.0162 -1.8536 0.9607
3.1721 9.3316 -1.8525 0.9607
2.3249 9.5720 -1.8515 0.9607
1.4600 9.7355 -1.8504 0.9607
0.5845 9.8210 -1.8492 0.9607
-0.8297 6.9168 -1.3094 0.9720
-2.0357 9.6075 -1.8459 0.9608
-3.7079 9.0819 -1.8438 0.9609
-4.5016 8.7098 -1.8428 0.9609
-5.2587 8.2689 -1.8419 0.9609
-6.6395 7.1950 -1.8402 0.9609
-7.8074 5.8947 -1.8388 0.9610
-9.8109 3.9012 -1.9845 0.9579
-10.1388 3.0151 -1.9882 0.9579
-10.3662 2.0975 -1.9879 0.9579
-10.5114 1.1634 -1.9878 0.9579
-10.4451 -1.6642 -1.9880 0.9579
-10.2562 -2.5906 -1.9883 0.9579
-9.2096 -5.2200 -1.9898 0.9578
-8.7097 -6.0236 -1.9905 0.9578
-4.4199 -9.6562 -1.9961 0.9577
-3.5420 -10.0180 -1.9972 0.9577
-2.6349 -10.3002 -1.9984 0.9577
-1.7056 -10.5006 -1.9996 0.9576
1.1404 -10.5963 -2.0032 0.9576
3.0106 -10.2365 -2.0055 0.9575
5.6250 -9.0873 -2.0088 0.9574
7.1584 -7.9493 -2.0107 0.9574
7.8429 -7.2814 -2.0115 0.9574
8.4649 -6.5544 -2.0123 0.9574
10.2343 -3.1796 -2.0143 0.9573
10.4787 -2.2533 -2.0146 0.9573
10.6389 -1.3088 -2.0148 0.9573
10.7135 -0.3535 -2.0148 0.9573
10.7019 0.6045 -2.0147 0.9573
10.1548 3.4178 -2.0139 0.9573
9.4302 4.1444 -1.9361 0.9589
8.2029 5.5267 -1.8591 0.9605
6.4367 7.4937 -1.8568 0.9606
4.2139 8.9177 -1.8539 0.9607
3.3988 9.2531 -1.8528 0.9607
2.5575 9.5141 -1.8518 0.9607
-0.0554 9.8339 -1.8484 0.9608
-2.6550 9.4508 -1.8451 0.9608
-3.4863 9.1708 -1.8441 0.9609
-5.0566 8.3955 -1.8422 0.9609
-6.4632 7.3553 -1.8404 0.9609
-7.0912 6.7460 -1.8397 0.9609
-8.1723 5.3733 -1.8384 0.9610
-8.6170 4.6208 -1.8378 0.9610
-9.6556 4.1143 -1.9728 0.9582
-10.3124 2.3492 -1.9880 0.9579
-10.4801 1.4189 -1.9878 0.9579
-10.5653 -0.4679 -1.9878 0.9579
-10.4821 -1.4095 -1.9880 0.9579
-9.7390 -4.1394 -1.9890 0.9578
-9.3331 -4.9939 -1.9896 0.9578
-8.8528 -5.8093 -1.9903 0.9578
-8.3018 -6.5790 -1.9910 0.9578
-7.0052 -7.9576 -1.9927 0.9578
-4.6529 -9.5443 -1.9958 0.9577
-3.7842 -9.9272 -1.9969 0.9577
0.8821 -10.6192 -2.0029 0.9576
1.8279 -10.5042 -2.0041 0.9575
2.7601 -10.3051 -2.0052 0.9575
3.6714 -10.0232 -2.0064 0.9575
6.2063 -8.7054 -2.0095 0.9574
6.9620 -8.1201 -2.0104 0.9574
8.3021 -6.7578 -2.0121 0.9574
10.1535 -3.4276 -2.0143 0.9573
10.6037 -1.5673 -2.0147 0.9573
10.7136 0.3439 -2.0148 0.9573
10.6394 1.2991 -2.0146 0.9573
10.2355 3.1698 -2.0140 0.9573
8.3358 5.3260 -1.8593 0.9605
7.8240 6.0468 -1.8586 0.9606
7.2498 6.7185 -1.8579 0.9606
6.6180 7.3358 -1.8570 0.9606
5.2024 8.3876 -1.8552 0.9606
2.7887 9.4505 -1.8521 0.9607
1.0620 9.7842 -1.8498 0.9607
-0.6944 9.8052 -1.8476 0.9608
-1.1164 6.9129 -1.3162 0.9719
-2.4246 9.5141 -1.8454 0.9608
-3.2626 9.2543 -1.8444 0.9608
-5.5898 8.0461 -1.8415 0.9609
-6.2830 7.5113 -1.8406 0.9609
-6.9257 6.9173 -1.8399 0.9609
-7.5128 6.2689 -1.8391 0.9610
-8.0398 5.5710 -1.8385 0.9610
-8.5026 4.8295 -1.8380 0.9610
-9.0803 4.1331 -1.8752 0.9602
-10.2525 2.5996 -1.9881 0.9579
-10.4427 1.6735 -1.9879 0.9579
-10.5499 0.7344 -1.9878 0.9579
-10.1430 -3.0064 -1.9885 0.9579
-9.4511 -4.7649 -1.9894 0.9578
-8.4586 -6.3744 -1.9908 0.9578
-7.1959 -7.7838 -1.9925 0.9578
-5.7022 -8.9484 -1.9944 0.9577
-3.1319 -10.1566 -1.9977 0.9577
-0.3287 -10.6425 -2.0013 0.9576
3.4258 -10.1080 -2.0061 0.9575
4.3171 -9.7671 -2.0072 0.9575
6.7615 -8.2862 -2.0102 0.9574
8.1344 -6.9571 -2.0119 0.9574
9.6963 -4.5567 -2.0137 0.9573
10.3560 -2.7603 -2.0145 0.9573
10.5622 -1.8248 -2.0147 0.9573
10.6681 1.0398 -2.0147 0.9573
10.3102 2.9200 -2.0141 0.9573
8.8900 4.3472 -1.8601 0.9605
7.9697 5.8552 -1.8588 0.9605
6.1248 7.7479 -1.8564 0.9606
3.8462 9.0796 -1.8534 0.9607
2.1674 9.6077 -1.8513 0.9607
1.3000 9.7570 -1.8501 0.9607
-0.4557 9.8208 -1.8479 0.9608
-3.0369 9.3324 -1.8447 0.9608
-3.8559 9.0189 -1.8436 0.9609
-5.3931 8.1808 -1.8417 0.9609
-6.7561 7.0846 -1.8401 0.9609
-7.3588 6.4505 -1.8393 0.9610
-8.3832 5.0353 -1.8381 0.9610
-10.1866 2.8484 -1.9881 0.9579
-10.3991 1.9272 -1.9879 0.9579
-10.5753 0.0468 -1.9878 0.9579
-10.4166 -1.8353 -1.9881 0.9579
-9.9276 -3.6602 -1.9888 0.9578
-9.1233 -5.3707 -1.9899 0.9578
-8.6103 -6.1660 -1.9906 0.9578
-7.3823 -7.6054 -1.9922 0.9578
-6.6768 -8.2381 -1.9931 0.9578
-5.1102 -9.3039 -1.9952 0.9577
-2.4658 -10.3432 -1.9986 0.9576
-1.5334 -10.5283 -1.9998 0.9576
2.2547 -10.4239 -2.0046 0.9575
3.1784 -10.1868 -2.0058 0.9575
4.0775 -9.8678 -2.0069 0.9575
4.9451 -9.4694 -2.0080 0.9575
5.7738 -8.9946 -2.0090 0.9574
7.2884 -7.8314 -2.0108 0.9574
7.9618 -7.1523 -2.0117 0.9574
9.1133 -5.6259 -2.0131 0.9573
9.5819 -4.7910 -2.0136 0.9573
9.9737 -3.9171 -2.0141 0.9573
10.2854 -3.0114 -2.0144 0.9573
10.6590 -1.1341 -2.0148 0.9573
10.6904 0.7799 -2.0147 0.9573
10.3787 2.6683 -2.0142 0.9573
10.0970 3.5837 -2.0138 0.9573
6.0714 5.1005 -1.4904 0.9682
5.6059 8.1268 -1.8557 0.9606
4.8553 8.5904 -1.8547 0.9606
0.6625 9.8166 -1.8493 0.9607
-0.7784 6.9554 -1.3155 0.9719
-2.8093 9.4050 -1.8450 0.9608
-4.4325 8.7457 -1.8429 0.9609
-5.1931 8.3107 -1.8420 0.9609
-7.2004 6.6283 -1.8395 0.9610
-7.7606 5.9567 -1.8388 0.9610
-8.2588 5.2382 -1.8382 0.9610
-10.5019 1.2468 -1.9878 0.9579
-10.2763 -2.5091 -1.9883 0.9579
-10.0131 -3.4173 -1.9887 0.9579
-9.2505 -5.1466 -1.9897 0.9578
-8.7569 -5.9541 -1.9904 0.9578
-8.1934 -6.7148 -1.9911 0.9578
-6.8744 -8.0721 -1.9929 0.9578
-5.3343 -9.1754 -1.9949 0.9577
-4.4962 -9.6203 -1.9960 0.9577
-3.6213 -9.9890 -1.9971 0.9577
-1.7888 -10.4862 -1.9995 0.9576
0.1051 -10.6500 -2.0019 0.9576
2.0001 -10.4740 -2.0043 0.9575
2.9291 -10.2595 -2.0054 0.9575
3.8357 -9.9626 -2.0066 0.9575
5.5525 -9.1312 -2.0087 0.9574
7.0948 -8.0055 -2.0106 0.9574
7.7846 -7.3431 -2.0115 0.9574
8.4123 -6.6212 -2.0122 0.9574
8.9730 -5.8455 -2.0129 0.9573
10.2086 -3.2607 -2.0143 0.9573
10.6281 -1.3932 -2.0148 0.9573
10.6164 1.4733 -2.0146 0.9573
10.4411 2.4151 -2.0143 0.9573
10.1818 3.3371 -2.0139 0.9573
9.6236 4.1385 -1.9690 0.9583
8.7044 4.7050 -1.8598 0.9605
8.2468 5.4616 -1.8592 0.9605
6.4962 7.4427 -1.8569 0.9606
3.7011 5.0955 -1.1837 0.9747
5.0637 8.4710 -1.8550 0.9606
4.2847 8.8844 -1.8540 0.9606
0.0227 9.8346 -1.8485 0.9608
-0.8551 9.7914 -1.8474 0.9608
-1.7249 9.6702 -1.8463 0.9608
-2.5800 9.4720 -1.8452 0.9608
-3.4136 9.1986 -1.8442 0.9609
-4.2190 8.8522 -1.8432 0.9609
-7.0377 6.8023 -1.8397 0.9609
-7.6141 6.1444 -1.8390 0.9610
-8.5802 4.6891 -1.8379 0.9610
-9.4615 4.1207 -1.9397 0.9589
-10.0368 3.3409 -1.9883 0.9579
-10.4686 1.5020 -1.9878 0.9579
-10.5605 0.5613 -1.9878 0.9579
-10.5686 -0.3840 -1.9878 0.9579
-9.7714 -4.0619 -1.9890 0.9578
-9.3722 -4.9196 -1.9896 0.9578
-7.0679 -7.9015 -1.9926 0.9578
-6.3372 -8.5051 -1.9936 0.9577
-4.7282 -9.5066 -1.9957 0.9577
-3.8626 -9.8964 -1.9968 0.9577
-2.9653 -10.2077 -1.9980 0.9577
-1.1036 -10.5849 -2.0003 0.9576
0.7977 -10.6252 -2.0028 0.9576
1.7443 -10.5179 -2.0039 0.9575
2.6781 -10.3261 -2.0051 0.9575
3.5915 -10.0515 -2.0063 0.9575
-0.8984 8.6935 -1.8474 0.9649
-1.6702 8.5740 -1.8464 0.9649
-3.1655 8.1319 -1.8446 0.9650
-3.8771 7.8130 -1.8437 0.9650
-4.5572 7.4322 -1.8428 0.9650
-5.2003 6.9926 -1.8420 0.9650
-8.9770 2.8307 -1.9897 0.9622
-9.1928 2.0176 -1.9894 0.9623
-9.3356 1.1886 -1.9893 0.9623
-9.3982 -0.4909 -1.9893 0.9623
-9.3175 -1.3283 -1.9894 0.9623
-9.1627 -2.1552 -1.9897 0.9622
-8.9352 -2.9653 -1.9900 0.9622
-8.6365 -3.7520 -1.9904 0.9622
-8.2691 -4.5094 -1.9909 0.9622
-7.3398 -5.9120 -1.9922 0.9622
-6.7850 -6.5462 -1.9929 0.9622
-6.1759 -7.1288 -1.9937 0.9622
-5.5171 -7.6551 -1.9946 0.9622
-4.8137 -8.1209 -1.9955 0.9621
-4.0713 -8.5224 -1.9965 0.9621
-0.8319 -9.4280 -2.0006 0.9620
0.8592 -9.4357 -2.0028 0.9620
1.6993 -9.3262 -2.0038 0.9620
2.5265 -9.1420 -2.0049 0.9620
3.3344 -8.8843 -2.0059 0.9619
4.8662 -8.1573 -2.0078 0.9619
5.5776 -7.6936 -2.0087 0.9619
6.2448 -7.1677 -2.0095 0.9619
7.4255 -5.9469 -2.0109 0.9619
8.3696 -4.5338 -2.0121 0.9618
9.2766 -2.1546 -2.0131 0.9618
9.5129 -0.4702 -2.0133 0.9618
9.4441 1.2293 -2.0131 0.9618
9.2955 2.0674 -2.0129 0.9618
9.0723 2.8887 -2.0126 0.9618
7.8423 4.1536 -1.8759 0.9644
6.9101 5.4286 -1.8575 0.9647
6.3954 6.0218 -1.8568 0.9647
5.8298 6.5661 -1.8561 0.9647
3.8757 7.8656 -1.8535 0.9648
2.4124 8.4210 -1.8516 0.9648
1.6500 8.5982 -1.8507 0.9648
0.0942 8.7452 -1.8487 0.9649
-2.2234 8.4441 -1.8457 0.9649
-2.9670 8.2076 -1.8448 0.9649
-3.6863 7.9061 -1.8439 0.9650
-5.0292 7.1179 -1.8423 0.9650
-5.6424 6.6377 -1.8415 0.9650
-8.5877 3.8269 -1.9873 0.9623
-9.3929 0.5790 -1.9892 0.9623
-9.4072 -0.2621 -1.9893 0.9623
-9.2121 -1.9315 -1.9896 0.9622
-8.3758 -4.3065 -1.9908 0.9622
-7.9600 -5.0386 -1.9914 0.9622
-6.3468 -6.9756 -1.9935 0.9622
-5.7010 -7.5177 -1.9943 0.9622
-4.2769 -8.4197 -1.9962 0.9621
-3.5097 -8.7723 -1.9972 0.9621
-2.7138 -9.0553 -1.9982 0.9621
-1.0609 -9.4035 -2.0003 0.9620
1.4716 -9.3635 -2.0035 0.9620
3.1168 -8.9616 -2.0056 0.9620
3.9065 -8.6518 -2.0066 0.9619
4.6656 -8.2723 -2.0075 0.9619
6.6996 -6.7483 -2.0100 0.9619
8.2562 -4.7358 -2.0119 0.9618
8.6481 -3.9806 -2.0124 0.9618
8.9706 -3.1931 -2.0127 0.9618
9.3976 -1.5469 -2.0132 0.9618
9.4986 -0.7016 -2.0133 0.9618
9.5233 0.1494 -2.0133 0.9618
9.4714 0.9991 -2.0132 0.9618
9.1403 2.6672 -2.0127 0.9618
7.4847 4.6112 -1.8583 0.9647
5.9885 6.4230 -1.8563 0.9647
4.7464 7.3793 -1.8546 0.9648
4.0665 7.7700 -1.8538 0.9648
3.3548 8.0980 -1.8528 0.9648
2.6170 8.3610 -1.8519 0.9648
1.8590 8.5567 -1.8509 0.9648
0.3070 8.7416 -1.8489 0.9649
-0.4745 8.7294 -1.8479 0.9649
-2.0176 8.4969 -1.8460 0.9649
-2.7668 8.2785 -1.8451 0.9649
-5.4798 6.7737 -1.8417 0.9650
-7.0717 5.0739 -1.8398 0.9650
-7.4944 4.4209 -1.8393 0.9651
-8.4780 4.0280 -1.9841 0.9624
-8.8294 3.2644 -1.9898 0.9622
-9.0843 2.4626 -1.9895 0.9623
-9.3761 0.8074 -1.9893 0.9623
-9.4107 -0.0331 -1.9893 0.9623
-9.2561 -1.7067 -1.9895 0.9623
-8.8078 -3.3270 -1.9902 0.9622
-8.4775 -4.1011 -1.9906 0.9622
-7.0940 -6.2071 -1.9925 0.9622
-6.5140 -6.8183 -1.9933 0.9622
-5.8816 -7.3758 -1.9941 0.9622
-5.2018 -7.8751 -1.9950 0.9621
-1.2893 -9.3736 -2.0000 0.9621
0.3990 -9.4636 -2.0022 0.9620
1.2431 -9.3952 -2.0033 0.9620
2.0782 -9.2515 -2.0043 0.9620
3.6943 -8.7431 -2.0063 0.9619
4.4624 -8.3823 -2.0073 0.9619
5.8874 -7.4615 -2.0091 0.9619
6.5327 -6.9087 -2.0098 0.9619
7.1261 -6.3000 -2.0106 0.9619
8.1379 -4.9350 -2.0118 0.9618
8.5481 -4.1896 -2.0123 0.9618
8.5926 4.0285 -2.0060 0.9619
7.1674 5.0869 -1.8578 0.9647
5.5564 6.7968 -1.8557 0.9647
4.2550 7.6697 -1.8540 0.9648
3.5514 8.0151 -1.8531 0.9648
2.8201 8.2960 -1.8522 0.9648
1.2981 8.6562 -1.8502 0.9648
-0.2620 8.7397 -1.8482 0.9649
-0.8354 6.9646 -1.4827 0.9717
-1.8105 8.5446 -1.8463 0.9649
-3.2981 8.0782 -1.8444 0.9650
-4.0043 7.7477 -1.8435 0.9650
-4.6780 7.3559 -1.8427 0.9650
-5.9070 6.4012 -1.8412 0.9650
-6.4527 5.8461 -1.8405 0.9650
-7.3851 4.6023 -1.8394 0.9650
-8.1606 4.1235 -1.9327 0.9633
-8.7477 3.4784 -1.9899 0.9622
-9.1264 -2.3052 -1.9897 0.9622
-8.1945 -4.6446 -1.9910 0.9622
-7.7493 -5.3594 -1.9916 0.9622
-6.6772 -6.6571 -1.9931 0.9622
-4.6803 -8.1995 -1.9957 0.9621
-3.9313 -8.5888 -1.9966 0.9621
-2.3433 -9.1605 -1.9987 0.9621
1.8521 -9.2980 -2.0040 0.9620
2.6764 -9.1002 -2.0051 0.9620
4.9997 -8.0771 -2.0080 0.9619
6.9700 -6.4709 -2.0104 0.9619
7.5225 -5.8247 -2.0110 0.9619
8.4431 -4.3961 -2.0121 0.9618
9.0938 -2.8253 -2.0129 0.9618
9.5091 0.5371 -2.0132 0.9618
9.4224 1.3840 -2.0131 0.9618
9.2601 2.2195 -2.0128 0.9618
9.0234 3.0370 -2.0125 0.9618
7.7014 4.2422 -1.8586 0.9647
6.8197 5.5409 -1.8574 0.9647
3.7459 7.9274 -1.8533 0.9648
1.5086 8.6233 -1.8505 0.9648
0.7322 8.7189 -1.8495 0.9649
-0.0492 8.7447 -1.8485 0.9649
-1.6022 8.5874 -1.8465 0.9649
-3.1010 8.1571 -1.8446 0.9650
-3.8151 7.8439 -1.8438 0.9650
-4.4982 7.4684 -1.8429 0.9650
-5.1449 7.0339 -1.8421 0.9650
-6.3091 6.0020 -1.8407 0.9650
-6.8175 5.4128 -1.8401 0.9650
-7.7188 4.1391 -1.8514 0.9648
-8.6590 3.6897 -1.9896 0.9622
-9.1766 2.0905 -1.9894 0.9623
-9.3259 1.2626 -1.9893 0.9623
-9.4011 0.4248 -1.9892 0.9623
-9.3276 -1.2543 -1.9894 0.9623
-8.6659 -3.6833 -1.9904 0.9622
-7.3862 -5.8534 -1.9921 0.9622
-6.2320 -7.0793 -1.9936 0.9622
-4.8778 -8.0821 -1.9954 0.9621
-2.5652 -9.0994 -1.9984 0.9621
-1.7433 -9.2970 -1.9995 0.9621
-0.9067 -9.4206 -2.0005 0.9620
-0.0619 -9.4690 -2.0016 0.9620
0.7843 -9.4418 -2.0027 0.9620
1.6251 -9.3390 -2.0037 0.9620
2.4538 -9.1613 -2.0048 0.9620
6.1875 -7.2168 -2.0094 0.9619
6.8098 -6.6380 -2.0102 0.9619
7.3779 -6.0055 -2.0109 0.9619
8.7125 -3.8384 -2.0125 0.9618
9.4219 -1.3926 -2.0132 0.9618
9.5089 -0.5457 -2.0133 0.9618
9.4536 1.1543 -2.0131 0.9618
9.3117 1.9936 -2.0129 0.9618
8.8055 3.6168 -2.0122 0.9618
7.9860 4.1489 -1.9023 0.9639
7.4077 4.7330 -1.8582 0.9647
6.9532 5.3738 -1.8575 0.9647
6.4432 5.9710 -1.8569 0.9647
5.8819 6.5199 -1.8561 0.9647
4.6243 7.4556 -1.8545 0.9648
3.9382 7.8349 -1.8536 0.9648
0.1636 8.7446 -1.8488 0.9649
-0.6175 8.7196 -1.8478 0.9649
-2.9019 8.2313 -1.8449 0.9649
-4.3156 7.5766 -1.8431 0.9650
-4.9728 7.1578 -1.8423 0.9650
-6.1618 6.1543 -1.8409 0.9650
-7.5656 4.2973 -1.8392 0.9651
-9.2926 1.4892 -1.9893 0.9623
-9.3881 0.6535 -1.9892 0.9623
-8.7524 -3.4711 -1.9903 0.9622
-6.4018 -6.9248 -1.9934 0.9622
-5.7603 -7.4719 -1.9943 0.9622
-3.5791 -8.7438 -1.9971 0.9621
-2.7855 -9.0330 -1.9981 0.9621
-1.9688 -9.2505 -1.9992 0.9621
-1.1355 -9.3944 -2.0002 0.9621
0.5542 -9.4567 -2.0024 0.9620
3.0455 -8.9857 -2.0055 0.9620
3.8376 -8.6821 -2.0065 0.9619
4.5996 -8.3087 -2.0075 0.9619
5.3256 -7.8683 -2.0084 0.9619
7.2289 -6.1827 -2.0107 0.9619
8.6160 -4.0490 -2.0123 0.9618
9.2019 -2.4527 -2.0130 0.9618
9.3850 -1.6214 -2.0132 0.9618
9.4928 -0.7769 -2.0133 0.9618
9.3578 1.7664 -2.0130 0.9618
9.1614 2.5946 -2.0127 0.9618
7.5213 4.5517 -1.8583 0.9647
7.0825 5.2035 -1.8577 0.9647
6.0395 6.3755 -1.8563 0.9647
4.8050 7.3417 -1.8547 0.9648
1.1559 8.6755 -1.8500 0.9649
0.3764 8.7393 -1.8490 0.9649
-0.9548 6.9889 -1.4910 0.9716
-1.9502 8.5130 -1.8461 0.9649
-4.1305 7.6804 -1.8434 0.9650
-4.7977 7.2776 -1.8425 0.9650
-5.4261 6.8173 -1.8418 0.9650
-7.4593 4.4804 -1.8393 0.9651
-8.4413 4.0930 -1.9830 0.9624
-8.8033 3.3344 -1.9899 0.9622
-9.2538 1.7150 -1.9894 0.9623
-9.4107 0.0416 -1.9893 0.9623
-9.3772 -0.7989 -1.9893 0.9623
-9.2693 -1.6332 -1.9895 0.9623
-9.0876 -2.4547 -1.9898 0.9622
-8.8338 -3.2569 -1.9902 0.9622
-7.6609 -5.4861 -1.9918 0.9622
-7.1429 -6.1504 -1.9924 0.9622
-5.9397 -7.3287 -1.9940 0.9622
-5.2639 -7.8332 -1.9949 0.9622
-3.7903 -8.6529 -1.9968 0.9621
-2.1930 -9.1986 -1.9989 0.9621
-1.3636 -9.3626 -1.9999 0.9621
0.3239 -9.4660 -2.0021 0.9620
2.8255 -9.0559 -2.0052 0.9620
3.6246 -8.7718 -2.0062 0.9619
4.3955 -8.4171 -2.0072 0.9619
5.1319 -7.9946 -2.0081 0.9619
5.8278 -7.5077 -2.0090 0.9619
7.0756 -6.3562 -2.0105 0.9619
7.6174 -5.7008 -2.0112 0.9618
8.0983 -4.9993 -2.0117 0.9618
8.5145 -4.2573 -2.0122 0.9618
8.8623 -3.4807 -2.0126 0.9618
9.5232 -0.1580 -2.0133 0.9618
9.3983 1.5383 -2.0130 0.9618
8.9720 3.1844 -2.0124 0.9618
8.6293 3.9625 -2.0072 0.9619
7.6304 4.3677 -1.8585 0.9647
7.2077 5.0300 -1.8579 0.9647
6.0500 5.0825 -1.6702 0.9682
5.6104 6.7527 -1.8558 0.9647
3.6151 7.9870 -1.8532 0.9648
2.8860 8.2737 -1.8522 0.9648
1.3669 8.6460 -1.8503 0.9648
0.5890 8.7288 -1.8493 0.9649
-0.1926 8.7419 -1.8483 0.9649
-0.7836 7.0025 -1.4894 0.9716
-1.7427 8.5591 -1.8463 0.9649
-2.4987 8.3650 -1.8454 0.9649
-3.9429 7.7796 -1.8436 0.9650
-5.2591 6.9481 -1.8420 0.9650
-5.8562 6.4481 -1.8412 0.9650
-6.4062 5.8973 -1.8406 0.9650
-6.9050 5.3000 -1.8400 0.9650
-9.0005 2.7546 -1.9896 0.9622
-9.2095 1.9397 -1.9894 0.9623
-9.3453 1.1095 -1.9893 0.9623
-9.3937 -0.5704 -1.9893 0.9623
-9.3060 -1.4071 -1.9895 0.9623
-8.6047 -3.8251 -1.9905 0.9622
-7.7914 -5.2976 -1.9916 0.9622
-6.7296 -6.6037 -1.9930 0.9622
-6.1156 -7.1811 -1.9938 0.9622
-5.4523 -7.7019 -1.9947 0.9622
-4.7450 -8.1617 -1.9956 0.9621
-3.2208 -8.8843 -1.9976 0.9621
-1.5908 -9.3253 -1.9997 0.9621
-0.7521 -9.4351 -2.0007 0.9620
0.9391 -9.4286 -2.0029 0.9620
1.7782 -9.3120 -2.0039 0.9620
2.6039 -9.1207 -2.0050 0.9620
4.1889 -8.5205 -2.0070 0.9619
4.9353 -8.1162 -2.0079 0.9619
6.3055 -7.1149 -2.0096 0.9619
7.4758 -5.8840 -2.0110 0.9619
7.9737 -5.1945 -2.0116 0.9618
8.7746 -3.6951 -2.0125 0.9618
9.2946 -2.0760 -2.0131 0.9618
9.4435 -1.2379 -2.0132 0.9618
9.5131 0.4616 -2.0132 0.9618
9.2775 2.1460 -2.0129 0.9618
9.0474 2.9653 -2.0125 0.9618
8.7389 3.7581 -2.0108 0.9619
7.7350 4.1810 -1.8586 0.9647
6.8637 5.4867 -1.8574 0.9647
3.7492 5.1617 -1.3485 0.9743
2.3410 8.4407 -1.8515 0.9648
1.5771 8.6114 -1.8506 0.9648
0.8014 8.7132 -1.8496 0.9649
-0.7604 8.7075 -1.8476 0.9649
-2.2947 8.4245 -1.8457 0.9649
-4.4390 7.5042 -1.8430 0.9650
-5.6982 6.5894 -1.8414 0.9650
-6.2615 6.0520 -1.8407 0.9650
-7.2335 4.8387 -1.8396 0.9650
-8.6248 3.7562 -1.9885 0.9623
-8.9312 2.9729 -1.9897 0.9622
-9.3156 1.3366 -1.9893 0.9623
-8.9808 -2.8229 -1.9899 0.9622
-8.3392 -4.3774 -1.9908 0.9622
-6.8876 -6.4373 -1.9928 0.9622
-6.2878 -7.0294 -1.9936 0.9622
-5.6374 -7.5660 -1.9944 0.9622
-4.9416 -8.0428 -1.9953 0.9621
-2.6372 -9.0784 -1.9983 0.9621
-1.8170 -9.2825 -1.9994 0.9621
-0.9814 -9.4127 -2.0004 0.9620
-0.1371 -9.4678 -2.0015 0.9620
0.7093 -9.4473 -2.0026 0.9620
3.1927 -8.9354 -2.0057 0.9619
-4.6790 6.2915 -1.8427 0.9683
-6.1730 4.8217 -1.8409 0.9683
-6.5771 4.2501 -1.8404 0.9683
-8.2729 1.8157 -1.9906 0.9658
-8.4632 0.3152 -1.9904 0.9658
-8.4578 -0.4418 -1.9905 0.9658
-8.0408 -2.6685 -1.9911 0.9658
-7.4411 -4.0578 -1.9920 0.9658
-7.0509 -4.7073 -1.9925 0.9658
-6.6044 -5.3197 -1.9931 0.9658
-6.1050 -5.8901 -1.9938 0.9657
-5.5567 -6.4141 -1.9945 0.9657
-3.6626 -7.6669 -1.9969 0.9657
-2.9647 -7.9669 -1.9978 0.9657
-1.5017 -8.3750 -1.9997 0.9656
-0.7483 -8.4798 -2.0007 0.9656
1.5281 -8.3869 -2.0036 0.9656
3.7013 -7.6924 -2.0063 0.9655
4.3752 -7.3343 -2.0071 0.9655
5.0146 -6.9170 -2.0079 0.9655
6.6752 -5.3460 -2.0099 0.9655
7.8589 -3.3881 -2.0113 0.9654
8.1312 -2.6732 -2.0117 0.9654
8.3384 -1.9367 -2.0119 0.9654
8.4889 1.1049 -2.0119 0.9654
8.3555 1.8583 -2.0117 0.9654
7.8891 3.3138 -2.0110 0.9655
6.6250 4.3074 -1.8572 0.9681
5.2413 5.9033 -1.8553 0.9681
3.7833 5.1170 -1.4956 0.9742
2.8383 7.3522 -1.8522 0.9681
2.1694 7.5727 -1.8514 0.9682
1.4839 7.7325 -1.8505 0.9682
0.7871 7.8304 -1.8496 0.9682
0.0847 7.8656 -1.8487 0.9682
-2.0001 7.5959 -1.8461 0.9682
-2.6692 7.3836 -1.8452 0.9683
-3.3164 7.1127 -1.8444 0.9683
-3.9366 6.7853 -1.8437 0.9683
-5.5880 5.4933 -1.8416 0.9683
-6.4722 4.4092 -1.8406 0.9683
-7.3734 4.1110 -1.9841 0.9659
-8.3731 1.2738 -1.9905 0.9658
-8.4531 0.5210 -1.9904 0.9658
-8.4659 -0.2359 -1.9905 0.9658
-7.8513 -3.1861 -1.9914 0.9658
-7.5371 -3.8753 -1.9918 0.9658
-7.1628 -4.5340 -1.9923 0.9658
-6.7313 -5.1570 -1.9929 0.9658
-5.7105 -6.2763 -1.9943 0.9657
-5.1293 -6.7637 -1.9950 0.9657
-2.4412 -8.1456 -1.9985 0.9657
-1.7049 -8.3349 -1.9995 0.9656
-0.1953 -8.5135 -2.0014 0.9656
0.5659 -8.5010 -2.0024 0.9656
2.0710 -8.2726 -2.0042 0.9656
3.5126 -7.7793 -2.0061 0.9655
4.8443 -7.0363 -2.0077 0.9655
5.4553 -6.5780 -2.0085 0.9655
6.0229 -6.0668 -2.0092 0.9655
7.4216 -4.2571 -2.0108 0.9655
7.7737 -3.5781 -2.0112 0.9654
8.0635 -2.8702 -2.0116 0.9654
8.2886 -2.1390 -2.0118 0.9654
8.5379 -0.6306 -2.0121 0.9654
8.5600 0.1343 -2.0121 0.9654
8.5134 0.8980 -2.0120 0.9654
8.2161 2.3975 -2.0115 0.9654
7.9678 3.1210 -2.0112 0.9654
7.6469 3.8148 -2.0084 0.9655
6.7471 4.1567 -1.8625 0.9680
5.3839 5.7746 -1.8555 0.9681
4.8450 6.2299 -1.8548 0.9681
1.6718 7.6951 -1.8507 0.9682
0.9776 7.8099 -1.8498 0.9682
0.2761 7.8622 -1.8489 0.9682
-1.8149 7.6433 -1.8463 0.9682
-2.4890 7.4473 -1.8455 0.9683
-3.1427 7.1921 -1.8446 0.9683
-3.7707 6.8799 -1.8439 0.9683
-4.3682 6.5131 -1.8431 0.9683
-4.9305 6.0947 -1.8424 0.9683
-6.3634 4.5657 -1.8407 0.9683
-7.6529 3.6360 -1.9913 0.9658
-7.9457 2.9377 -1.9910 0.9658
-8.3397 1.4772 -1.9905 0.9658
-8.4330 -0.7859 -1.9905 0.9658
-8.3298 -1.5359 -1.9907 0.9658
-8.1604 -2.2739 -1.9910 0.9658
-7.6287 -3.6905 -1.9917 0.9658
-7.2705 -4.3580 -1.9922 0.9658
-5.2918 -6.6362 -1.9948 0.9657
-4.6800 -7.0850 -1.9956 0.9657
-2.6383 -8.0827 -1.9983 0.9657
-1.1596 -8.4311 -2.0002 0.9656
-0.4024 -8.5051 -2.0011 0.9656
1.1179 -8.4491 -2.0030 0.9656
2.6054 -8.1231 -2.0049 0.9656
4.0123 -7.5368 -2.0067 0.9655
7.6839 -3.7661 -2.0111 0.9654
8.2338 -2.3400 -2.0118 0.9654
8.5200 -0.8382 -2.0121 0.9654
8.4365 1.4497 -2.0118 0.9654
8.0418 2.9263 -2.0113 0.9654
7.7468 3.6320 -2.0108 0.9655
6.4432 4.5730 -1.8569 0.9681
5.9105 5.0458 -1.8264 0.9686
5.5234 5.6424 -1.8557 0.9681
4.9957 6.1108 -1.8550 0.9681
3.8259 6.8963 -1.8535 0.9681
2.5360 7.4601 -1.8518 0.9681
1.1675 7.7849 -1.8501 0.9682
0.4674 7.8542 -1.8492 0.9682
-0.8393 6.9966 -1.6562 0.9715
-1.6286 7.6862 -1.8465 0.9682
-2.3073 7.5066 -1.8457 0.9682
-2.9671 7.2673 -1.8449 0.9683
-5.8062 5.2604 -1.8414 0.9683
-6.6536 4.1465 -1.8426 0.9683
-7.5529 3.8165 -1.9889 0.9658
-7.8722 3.1303 -1.9910 0.9658
-8.2130 -2.0745 -1.9909 0.9658
-7.9962 -2.8001 -1.9912 0.9658
-7.7158 -3.5036 -1.9916 0.9658
-6.5166 -5.4276 -1.9932 0.9658
-5.4511 -6.5048 -1.9946 0.9657
-3.5366 -7.7265 -1.9971 0.9657
1.6656 -8.3614 -2.0037 0.9656
2.4067 -8.1831 -2.0047 0.9656
4.4952 -7.2621 -2.0073 0.9655
5.7196 -6.3514 -2.0088 0.9655
6.2659 -5.8173 -2.0094 0.9655
7.2048 -4.6126 -2.0106 0.9655
7.9136 -3.2588 -2.0114 0.9654
8.3692 -1.7997 -2.0119 0.9654
8.5565 -0.2824 -2.0121 0.9654
8.4695 1.2440 -2.0119 0.9654
8.3237 1.9951 -2.0117 0.9654
8.1110 2.7299 -2.0114 0.9654
7.4655 4.1122 -2.0031 0.9656
6.1308 4.9812 -1.8565 0.9681
3.6561 5.1184 -1.4783 0.9745
3.9931 6.8019 -1.8537 0.9681
3.3683 7.1282 -1.8529 0.9681
2.7171 7.3971 -1.8521 0.9681
2.0448 7.6067 -1.8512 0.9682
1.3567 7.7552 -1.8503 0.9682
-1.4412 7.7245 -1.8468 0.9682
-3.4323 7.0568 -1.8443 0.9683
-4.0470 6.7194 -1.8435 0.9683
-5.1738 5.8879 -1.8421 0.9683
-5.6770 5.4006 -1.8415 0.9683
-6.5433 4.3023 -1.8405 0.9683
-7.7940 3.3211 -1.9911 0.9658
-8.2583 1.8813 -1.9906 0.9658
-8.3927 1.1363 -1.9905 0.9658
-8.4605 0.3823 -1.9904 0.9658
-8.4610 -0.3747 -1.9905 0.9658
-8.3943 -1.1288 -1.9906 0.9658
-7.4729 -3.9986 -1.9919 0.9658
-6.6462 -5.2670 -1.9930 0.9658
-5.6072 -6.3696 -1.9944 0.9657
-5.0180 -6.8474 -1.9952 0.9657
-4.3883 -7.2712 -1.9960 0.9657
-3.0277 -7.9428 -1.9978 0.9657
-2.3075 -8.1852 -1.9987 0.9657
-1.5681 -8.3625 -1.9996 0.9656
-0.0557 -8.5163 -2.0016 0.9656
0.7053 -8.4913 -2.0025 0.9656
1.4614 -8.3984 -2.0035 0.9656
2.2065 -8.2382 -2.0044 0.9656
2.9347 -8.0119 -2.0053 0.9655
4.3167 -7.3685 -2.0071 0.9655
6.1220 -5.9675 -2.0093 0.9655
6.6324 -5.3987 -2.0099 0.9655
7.0899 -4.7862 -2.0104 0.9655
7.8316 -3.4503 -2.0113 0.9654
8.1097 -2.7376 -2.0116 0.9654
8.3227 -2.0028 -2.0119 0.9654
8.5566 0.2746 -2.0120 0.9654
8.4975 1.0375 -2.0119 0.9654
8.1754 2.5318 -2.0114 0.9654
6.6591 4.2548 -1.8572 0.9681
6.2508 4.8309 -1.8567 0.9681
4.1579 6.7035 -1.8539 0.9681
3.5412 7.0450 -1.8531 0.9681
1.5453 7.7208 -1.8506 0.9682
0.1471 7.8650 -1.8488 0.9682
-0.5555 7.8430 -1.8479 0.9682
-1.1306 7.0008 -1.6667 0.9713
-2.6106 7.4049 -1.8453 0.9683
-3.2599 7.1391 -1.8445 0.9683
-3.8827 6.8166 -1.8437 0.9683
-5.0294 6.0126 -1.8423 0.9683
-6.0148 5.0189 -1.8411 0.9683
-6.4372 4.4605 -1.8406 0.9683
-7.2527 4.1195 -1.9603 0.9663
-7.7113 3.5099 -1.9912 0.9658
-8.2103 2.0818 -1.9907 0.9658
-8.3627 1.3402 -1.9905 0.9658
-8.3037 -1.6724 -1.9907 0.9658
-8.1223 -2.4074 -1.9910 0.9658
-7.8762 -3.1236 -1.9914 0.9658
-7.5675 -3.8153 -1.9918 0.9658
-6.2911 -5.6894 -1.9935 0.9657
-5.1826 -6.7226 -1.9950 0.9657
-4.5635 -7.1614 -1.9958 0.9657
-3.9075 -7.5435 -1.9966 0.9657
-1.7709 -8.3208 -1.9994 0.9656
-1.0213 -8.4497 -2.0003 0.9656
0.4984 -8.5048 -2.0023 0.9656
2.0052 -8.2884 -2.0042 0.9656
2.7385 -8.0800 -2.0051 0.9656
3.4506 -7.8066 -2.0060 0.9655
4.7881 -7.0742 -2.0076 0.9655
5.4027 -6.6209 -2.0084 0.9655
5.9744 -6.1142 -2.0091 0.9655
7.3875 -4.3158 -2.0108 0.9655
8.0403 -2.9341 -2.0116 0.9654
8.4358 -1.4574 -2.0120 0.9654
8.5204 0.8305 -2.0120 0.9654
8.4114 1.5878 -2.0118 0.9654
8.2350 2.3322 -2.0115 0.9654
7.9925 3.0577 -2.0112 0.9654
7.6810 3.7560 -2.0095 0.9655
6.8589 4.1509 -1.8842 0.9676
6.3670 4.6778 -1.8568 0.9681
4.8944 6.1915 -1.8549 0.9681
4.3203 6.6011 -1.8541 0.9681
3.0746 7.2580 -1.8525 0.9681
1.7329 7.6820 -1.8508 0.9682
0.3385 7.8601 -1.8490 0.9682
-1.7542 7.6578 -1.8464 0.9682
-2.4299 7.4671 -1.8455 0.9682
-3.0856 7.2171 -1.8447 0.9683
-4.3165 6.5478 -1.8432 0.9683
-4.8821 6.1339 -1.8425 0.9683
-5.8914 5.1642 -1.8413 0.9683
-6.3272 4.6162 -1.8407 0.9683
-7.6220 3.6958 -1.9908 0.9658
-8.3278 1.5434 -1.9905 0.9658
-8.4691 0.0375 -1.9904 0.9658
-8.4389 -0.7190 -1.9905 0.9658
-8.1781 -2.2090 -1.9909 0.9658
-7.9495 -2.9309 -1.9913 0.9658
-7.3047 -4.3001 -1.9921 0.9658
-6.8935 -4.9365 -1.9927 0.9658
-6.4271 -5.5341 -1.9933 0.9658
-4.7359 -7.0474 -1.9955 0.9657
-2.7023 -8.0612 -1.9982 0.9657
-1.9726 -8.2742 -1.9991 0.9657
-1.2265 -8.4213 -2.0001 0.9656
-0.4698 -8.5012 -2.0010 0.9656
1.0508 -8.4574 -2.0030 0.9656
2.5408 -8.1432 -2.0048 0.9656
3.2592 -7.8874 -2.0057 0.9655
3.9522 -7.5681 -2.0066 0.9655
5.8233 -6.2572 -2.0089 0.9655
6.8477 -5.1248 -2.0102 0.9655
7.6537 -3.8269 -2.0111 0.9655
8.2149 -2.4052 -2.0117 0.9654
8.3977 -1.6623 -2.0119 0.9654
8.5130 -0.9058 -2.0120 0.9654
8.5600 -0.1420 -2.0121 0.9654
8.4478 1.3827 -2.0118 0.9654
8.2896 2.1312 -2.0116 0.9654
8.0649 2.8625 -2.0113 0.9654
7.7755 3.5704 -2.0109 0.9655
6.4795 4.5218 -1.8570 0.9681
5.5682 5.5986 -1.8558 0.9681
5.0442 6.0712 -1.8551 0.9681
3.8807 6.8660 -1.8536 0.9681
3.2506 7.1819 -1.8528 0.9681
2.5952 7.4401 -1.8519 0.9681
1.2293 7.7757 -1.8502 0.9682
-0.1732 7.8627 -1.8484 0.9682
-1.5676 7.6992 -1.8466 0.9682
-2.9094 7.2909 -1.8449 0.9683
-3.5473 6.9990 -1.8441 0.9683
-4.1564 6.6516 -1.8434 0.9683
-5.2693 5.8019 -1.8420 0.9683
-6.2134 4.7692 -1.8409 0.9683
-7.5188 3.8745 -1.9879 0.9658
-7.8472 3.1927 -1.9911 0.9658
-8.0998 2.4789 -1.9908 0.9658
-8.4102 0.9985 -1.9905 0.9658
-8.4656 0.2435 -1.9904 0.9658
-8.2292 -2.0092 -1.9909 0.9658
-8.0181 -2.7365 -1.9912 0.9658
-7.7432 -3.4422 -1.9915 0.9658
-7.4067 -4.1208 -1.9920 0.9658
-7.0110 -4.7670 -1.9925 0.9658
-6.5593 -5.3756 -1.9931 0.9658
-6.0551 -5.9418 -1.9938 0.9657
-5.5024 -6.4611 -1.9945 0.9657
-4.9054 -6.9293 -1.9953 0.9657
-4.2689 -7.3427 -1.9962 0.9657
-1.4308 -8.3878 -1.9998 0.9656
0.8446 -8.4793 -2.0027 0.9656
1.5991 -8.3740 -2.0037 0.9656
3.0659 -7.9634 -2.0055 0.9655
4.4373 -7.2973 -2.0072 0.9655
6.7204 -5.2895 -2.0100 0.9655
7.5578 -4.0118 -2.0110 0.9655
8.5540 -0.3503 -2.0121 0.9654
8.4792 1.1767 -2.0119 0.9654
7.8606 3.3804 -2.0110 0.9655
7.5017 4.0549 -2.0042 0.9656
6.1704 4.9325 -1.8566 0.9681
5.7034 5.4620 -1.8560 0.9681
3.7424 5.1524 -1.4967 0.9742
4.0471 6.7703 -1.8538 0.9681
3.4249 7.1015 -1.8530 0.9681
0.7208 7.8364 -1.8495 0.9682
0.0181 7.8657 -1.8486 0.9682
-0.6839 7.8321 -1.8477 0.9682
-4.5788 6.3654 -1.8429 0.9683
-5.6341 5.4456 -1.8416 0.9683
-7.4116 4.0505 -1.9851 0.9659
-8.0373 2.6754 -1.9909 0.9658
-8.2432 1.9468 -1.9906 0.9658
-8.3835 1.2029 -1.9905 0.9658
-8.4572 0.4495 -1.9904 0.9658
-8.4029 -1.0621 -1.9906 0.9658
-7.5042 -3.9391 -1.9919 0.9658
-7.1244 -4.5946 -1.9924 0.9658
-6.6876 -5.2139 -1.9930 0.9658
-6.1974 -5.7921 -1.9936 0.9657
-4.4457 -7.2358 -1.9959 0.9657
-3.0905 -7.9182 -1.9977 0.9657
-0.8827 -8.4661 -2.0005 0.9656
-0.1233 -8.5152 -2.0015 0.9656
0.6379 -8.4963 -2.0024 0.9656
1.3947 -8.4094 -2.0034 0.9656
2.1410 -8.2551 -2.0043 0.9656
-1.3639 7.0016 -1.8469 0.9710
-1.9828 6.8489 -1.8461 0.9710
-2.5854 6.6418 -1.8454 0.9710
-3.1669 6.3819 -1.8447 0.9710
-4.2485 5.7127 -1.8433 0.9710
-5.1936 4.8628 -1.8422 0.9710
-5.6056 4.3785 -1.8417 0.9710
-6.3753 4.1197 -1.9653 0.9691
-6.8101 3.5826 -1.9924 0.9687
-7.1016 2.9597 -1.9920 0.9687
-7.5131 1.6489 -1.9916 0.9687
-7.6299 0.9714 -1.9915 0.9687
-7.6810 -0.4012 -1.9915 0.9687
-7.6150 -1.0856 -1.9916 0.9687
-7.0578 -3.0662 -1.9924 0.9687
-6.4027 -4.2746 -1.9933 0.9687
-5.9971 -4.8306 -1.9938 0.9687
-5.5435 -5.3484 -1.9944 0.9687
-5.0454 -5.8239 -1.9951 0.9687
-4.5068 -6.2534 -1.9958 0.9687
-3.9319 -6.6333 -1.9965 0.9686
-2.6915 -7.2328 -1.9982 0.9686
-2.0358 -7.4473 -1.9990 0.9686
0.7014 -7.7022 -2.0025 0.9685
1.3869 -7.6121 -2.0033 0.9685
2.0620 -7.4610 -2.0042 0.9685
4.5504 -6.2767 -2.0073 0.9685
5.0944 -5.8473 -2.0080 0.9685
5.5979 -5.3707 -2.0086 0.9685
6.4673 -4.2916 -2.0096 0.9684
7.1302 -3.0740 -2.0104 0.9684
7.3773 -2.4253 -2.0107 0.9684
7.7577 -0.3835 -2.0111 0.9684
7.7608 0.3108 -2.0110 0.9684
7.5807 1.6860 -2.0107 0.9684
7.3989 2.3559 -2.0105 0.9684
7.1578 3.0066 -2.0101 0.9684
6.8593 3.6330 -2.0097 0.9684
3.7247 6.1129 -1.8534 0.9709
3.1627 6.4186 -1.8527 0.9709
2.5759 6.6726 -1.8519 0.9709
1.3468 7.0184 -1.8503 0.9709
0.7144 7.1075 -1.8495 0.9709
-1.8158 6.8959 -1.8463 0.9710
-3.5742 6.1608 -1.8441 0.9710
-4.1086 5.8149 -1.8435 0.9710
-4.6099 5.4230 -1.8429 0.9710
-5.0741 4.9882 -1.8423 0.9710
-6.0655 4.1321 -1.9003 0.9701
-6.7168 3.7449 -1.9911 0.9687
-7.0278 3.1317 -1.9921 0.9687
-7.2783 2.4913 -1.9918 0.9687
-7.4709 1.8313 -1.9916 0.9687
-7.6041 1.1568 -1.9915 0.9687
-7.6768 0.4732 -1.9914 0.9687
-7.6884 -0.2142 -1.9915 0.9687
-7.6390 -0.8999 -1.9915 0.9687
-7.5288 -1.5786 -1.9917 0.9687
-7.3587 -2.2448 -1.9920 0.9687
-6.5044 -4.1173 -1.9932 0.9687
-4.6572 -6.1413 -1.9956 0.9687
-4.0918 -6.5350 -1.9963 0.9686
-3.4932 -6.8770 -1.9971 0.9686
-2.8664 -7.1643 -1.9979 0.9686
-0.8662 -7.6776 -2.0005 0.9686
-0.1773 -7.7277 -2.0014 0.9686
1.2011 -7.6427 -2.0031 0.9685
1.8796 -7.5081 -2.0040 0.9685
2.5435 -7.3133 -2.0048 0.9685
4.3959 -6.3850 -2.0071 0.9685
4.9501 -5.9690 -2.0078 0.9685
5.4651 -5.5049 -2.0084 0.9685
5.9365 -4.9963 -2.0090 0.9684
6.3605 -4.4474 -2.0095 0.9684
6.7337 -3.8625 -2.0099 0.9684
7.7662 0.1218 -2.0110 0.9684
7.4543 2.1752 -2.0105 0.9684
7.2292 2.8317 -2.0102 0.9684
6.5862 4.0576 -2.0029 0.9685
4.8855 5.2400 -1.8549 0.9708
4.3965 5.6533 -1.8543 0.9708
3.8728 6.0211 -1.8536 0.9709
2.7378 6.6087 -1.8521 0.9709
1.5174 6.9844 -1.8506 0.9709
-0.3874 7.1274 -1.8481 0.9709
-5.7819 4.1485 -1.8425 0.9710
-6.6152 3.9023 -1.9886 0.9688
-6.9498 3.3020 -1.9922 0.9687
-7.4243 2.0126 -1.9917 0.9687
-7.6630 0.6599 -1.9914 0.9687
-7.6585 -0.7137 -1.9915 0.9687
-6.9277 -3.3514 -1.9926 0.9687
-6.6023 -3.9575 -1.9930 0.9687
-6.2241 -4.5324 -1.9935 0.9687
-3.6592 -6.7892 -1.9969 0.9686
-3.0395 -7.0917 -1.9977 0.9686
-2.3952 -7.3378 -1.9985 0.9686
-1.7311 -7.5255 -1.9994 0.9686
-1.0527 -7.6534 -2.0003 0.9686
0.3257 -7.7253 -2.0020 0.9686
1.0147 -7.6687 -2.0029 0.9685
1.6961 -7.5507 -2.0037 0.9685
3.6411 -6.8395 -2.0062 0.9685
4.2388 -6.4894 -2.0069 0.9685
4.8030 -6.0871 -2.0076 0.9685
6.9716 -3.4169 -2.0102 0.9684
7.7298 -0.7605 -2.0110 0.9684
7.7416 0.6266 -2.0110 0.9684
7.5053 1.9932 -2.0106 0.9684
7.2963 2.6550 -2.0103 0.9684
5.4509 4.6535 -1.8557 0.9708
4.5333 5.5452 -1.8545 0.9708
2.8982 6.5408 -1.8523 0.9709
1.0597 7.0660 -1.8500 0.9709
0.4243 7.1293 -1.8492 0.9709
-1.4785 6.9777 -1.8468 0.9710
-2.0947 6.8150 -1.8460 0.9710
-2.6938 6.5980 -1.8452 0.9710
-3.2709 6.3287 -1.8445 0.9710
-4.3413 5.6419 -1.8432 0.9710
-5.2724 4.7768 -1.8421 0.9710
-6.8677 3.4703 -1.9923 0.9687
-7.1490 2.8427 -1.9920 0.9687
-7.6735 -0.5272 -1.9915 0.9687
-7.5963 -1.2103 -1.9916 0.9687
-7.2616 -2.5428 -1.9921 0.9687
-6.6962 -3.7954 -1.9929 0.9687
-5.9174 -4.9285 -1.9939 0.9687
-5.4553 -5.4389 -1.9946 0.9687
-3.8229 -6.6974 -1.9967 0.9686
-1.2385 -7.6246 -2.0000 0.9686
1.5117 -7.5889 -2.0035 0.9685
2.8398 -7.2050 -2.0052 0.9685
3.4732 -6.9254 -2.0060 0.9685
4.0792 -6.5900 -2.0067 0.9685
5.1899 -5.7633 -2.0081 0.9685
5.6855 -5.2784 -2.0087 0.9685
6.8860 -3.5854 -2.0101 0.9684
7.1799 -2.9567 -2.0105 0.9684
7.7630 -0.2562 -2.0111 0.9684
7.6841 1.1286 -2.0109 0.9684
7.5519 1.8101 -2.0107 0.9684
7.3590 2.4768 -2.0104 0.9684
7.1072 3.1235 -2.0101 0.9684
6.7949 3.7428 -2.0086 0.9685
6.1497 4.1434 -1.9199 0.9698
5.5629 4.5198 -1.8558 0.9708
5.1356 4.9969 -1.8553 0.9708
2.4660 6.7134 -1.8518 0.9709
1.8559 6.9039 -1.8510 0.9709
1.2314 7.0390 -1.8502 0.9709
-3.1163 6.4071 -1.8447 0.9710
-3.6745 6.1009 -1.8440 0.9710
-4.6979 5.3464 -1.8428 0.9710
-6.7816 3.6366 -1.9924 0.9687
-7.0780 3.0160 -1.9921 0.9687
-7.3180 2.3716 -1.9918 0.9687
-7.4998 1.7085 -1.9916 0.9687
-7.6220 1.0319 -1.9915 0.9687
-7.6835 0.3472 -1.9914 0.9687
-7.5020 -1.7019 -1.9918 0.9687
-7.3211 -2.3652 -1.9920 0.9687
-7.0818 -3.0100 -1.9924 0.9687
-6.7861 -3.6311 -1.9928 0.9687
-6.0351 -4.7827 -1.9938 0.9687
-5.5856 -5.3041 -1.9944 0.9687
-5.0914 -5.7835 -1.9950 0.9687
-4.5562 -6.2172 -1.9957 0.9687
-3.3802 -6.9338 -1.9973 0.9686
-2.0947 -7.4307 -1.9989 0.9686
-0.7403 -7.6914 -2.0007 0.9686
-0.0505 -7.7302 -2.0015 0.9686
1.3264 -7.6225 -2.0033 0.9685
3.3033 -7.0071 -2.0057 0.9685
4.5003 -6.3124 -2.0072 0.9685
5.5549 -5.4148 -2.0085 0.9685
6.0179 -4.8985 -2.0091 0.9684
6.4329 -4.3427 -2.0096 0.9684
6.7964 -3.7517 -2.0100 0.9684
7.1055 -3.1304 -2.0104 0.9684
7.3577 -2.4838 -2.0107 0.9684
7.6835 -1.1356 -2.0110 0.9684
7.7544 -0.4450 -2.0111 0.9684
7.5939 1.6258 -2.0108 0.9684
7.4174 2.2971 -2.0105 0.9684
7.1815 2.9498 -2.0102 0.9684
6.4661 4.1314 -1.9867 0.9688
5.6717 4.3834 -1.8560 0.9708
5.2561 4.8709 -1.8554 0.9708
4.7986 5.3191 -1.8548 0.9708
4.3030 5.7243 -1.8542 0.9708
3.2137 6.3935 -1.8527 0.9709
1.4025 7.0078 -1.8504 0.9709
0.7709 7.1019 -1.8496 0.9709
-1.7610 6.9104 -1.8464 0.9710
-2.3701 6.7228 -1.8456 0.9710
-2.9597 6.4817 -1.8449 0.9710
-4.0624 5.8475 -1.8435 0.9710
-4.5668 5.4596 -1.8429 0.9710
-5.0345 5.0284 -1.8424 0.9710
-5.4619 4.5575 -1.8418 0.9710
-5.9687 4.1360 -1.8802 0.9704
-7.4562 1.8906 -1.9916 0.9687
-7.5947 1.2171 -1.9915 0.9687
-7.6728 0.5341 -1.9914 0.9687
-7.5410 -1.5187 -1.9917 0.9687
-7.3762 -2.1863 -1.9919 0.9687
-6.5368 -4.0654 -1.9931 0.9687
-5.7126 -5.1661 -1.9942 0.9687
-4.1434 -6.5021 -1.9963 0.9686
-3.5476 -6.8488 -1.9970 0.9686
-2.9230 -7.1411 -1.9979 0.9686
3.7530 -6.7793 -2.0063 0.9685
4.3449 -6.4195 -2.0070 0.9685
5.4211 -5.5479 -2.0084 0.9685
6.3249 -4.4976 -2.0095 0.9684
6.7027 -3.9158 -2.0099 0.9684
7.5043 -2.0002 -2.0108 0.9684
7.6535 -1.3223 -2.0110 0.9684
7.7669 0.0602 -2.0111 0.9684
7.7302 0.7534 -2.0110 0.9684
7.6314 1.4406 -2.0108 0.9684
7.4714 2.1160 -2.0106 0.9684
7.2515 2.7742 -2.0103 0.9684
5.3735 4.7420 -1.8556 0.9708
4.4414 5.6184 -1.8543 0.9708
2.7903 6.5870 -1.8522 0.9709
2.1901 6.8070 -1.8514 0.9709
0.9436 7.0819 -1.8498 0.9709
0.3073 7.1347 -1.8490 0.9709
-0.3309 7.1305 -1.8482 0.9709
-0.9658 7.0694 -1.8474 0.9709
-1.5926 6.9520 -1.8466 0.9710
-2.2060 6.7792 -1.8459 0.9710
-2.8014 6.5525 -1.8451 0.9710
-3.9193 5.9452 -1.8437 0.9710
-4.4330 5.5696 -1.8431 0.9710
-4.9110 5.1499 -1.8425 0.9710
-6.5813 3.9530 -1.9878 0.9688
-6.9235 3.3571 -1.9922 0.9687
-7.1945 2.7250 -1.9919 0.9687
-7.4082 2.0715 -1.9917 0.9687
-7.6913 0.0340 -1.9914 0.9687
-7.4269 -2.0061 -1.9919 0.9687
-7.2192 -2.6617 -1.9922 0.9687
-6.6333 -3.9049 -1.9930 0.9687
-6.2597 -4.4827 -1.9935 0.9687
-5.8361 -5.0252 -1.9940 0.9687
-5.3658 -5.5279 -1.9947 0.9687
-4.8523 -5.9870 -1.9953 0.9687
-4.2999 -6.3987 -1.9961 0.9686
-3.7128 -6.7597 -1.9968 0.9686
-3.0956 -7.0670 -1.9976 0.9686
-2.4532 -7.3183 -1.9985 0.9686
-1.1133 -7.6445 -2.0002 0.9686
-0.4265 -7.7167 -2.0011 0.9686
0.9538 -7.6762 -2.0028 0.9685
1.6361 -7.5637 -2.0037 0.9685
2.3059 -7.3905 -2.0045 0.9685
4.1870 -6.5227 -2.0068 0.9685
4.7544 -6.1249 -2.0075 0.9685
6.2131 -4.6499 -2.0093 0.9684
6.9442 -3.4721 -2.0102 0.9684
7.2276 -2.8386 -2.0105 0.9684
7.4532 -2.1822 -2.0108 0.9684
7.6189 -1.5081 -2.0109 0.9684
7.7235 -0.8218 -2.0110 0.9684
7.7661 -0.1288 -2.0111 0.9684
7.7464 0.5651 -2.0110 0.9684
7.3172 2.5971 -2.0104 0.9684
7.0548 3.2395 -2.0100 0.9684
