ply
format ascii 1.0
element vertex 1598
property float32 x
property float32 y
property float32 z
property float32 I
end_header
-6.6572 3.8416 -1.9901 0.9687
-6.9841 3.2366 -1.9930 0.9687
-7.2435 2.5994 -1.9926 0.9687
-7.5874 1.2690 -1.9918 0.9687
-7.6694 0.5863 -1.9915 0.9687
-7.6904 -0.1009 -1.9914 0.9687
-7.6503 -0.7872 -1.9912 0.9687
-7.1686 -2.7869 -1.9914 0.9687
-6.8918 -3.4162 -1.9916 0.9687
-6.5601 -4.0186 -1.9919 0.9687
-6.1762 -4.5892 -1.9922 0.9687
-5.2638 -5.6172 -1.9932 0.9687
-4.7425 -6.0665 -1.9937 0.9687
-4.1831 -6.4678 -1.9944 0.9687
-2.3218 -7.3532 -1.9965 0.9686
-1.6566 -7.5342 -1.9974 0.9686
-0.2902 -7.7154 -1.9991 0.9686
3.0808 -7.0984 -2.0035 0.9685
3.7039 -6.7979 -2.0044 0.9685
4.2980 -6.4427 -2.0052 0.9685
4.8581 -6.0356 -2.0061 0.9685
5.3797 -5.5798 -2.0068 0.9685
5.8586 -5.0790 -2.0076 0.9685
6.2909 -4.5371 -2.0083 0.9685
6.6730 -3.9584 -2.0089 0.9685
7.0018 -3.3477 -2.0094 0.9684
7.2746 -2.7098 -2.0099 0.9684
7.4891 -2.0497 -2.0104 0.9684
7.6436 -1.3731 -2.0107 0.9684
7.7678 0.0085 -2.0112 0.9684
7.7365 0.7021 -2.0113 0.9684
7.0000 3.3656 -2.0110 0.9684
6.6600 3.9704 -2.0076 0.9685
5.4092 4.7101 -1.8571 0.9708
4.9658 5.1731 -1.8566 0.9708
3.9641 5.9704 -1.8555 0.9708
2.8368 6.5756 -1.8542 0.9708
1.6206 6.9699 -1.8528 0.9709
-2.3544 -6.6485 -1.9967 0.9711
-1.1351 -6.9664 -1.9982 0.9711
-0.5087 -7.0427 -1.9989 0.9711
0.1223 -7.0629 -1.9997 0.9711
0.7528 -7.0266 -2.0006 0.9710
1.9923 -6.7862 -2.0022 0.9710
3.7242 -6.0227 -2.0046 0.9710
4.2487 -5.6682 -2.0054 0.9710
4.7396 -5.2680 -2.0061 0.9710
5.6048 -4.3438 -2.0074 0.9710
6.2916 -3.2794 -2.0086 0.9709
6.5609 -2.7051 -2.0090 0.9709
7.0906 0.3976 -2.0104 0.9709
7.0270 1.0292 -2.0105 0.9709
6.9070 1.6525 -2.0105 0.9709
6.7315 2.2626 -2.0104 0.9709
5.8800 3.9584 -2.0066 0.9710
5.2196 4.2375 -1.9033 0.9724
4.2730 4.9709 -1.8557 0.9731
3.8110 5.3312 -1.8552 0.9731
2.8002 5.9204 -1.8540 0.9731
1.7012 6.3196 -1.8527 0.9732
0.5495 6.5164 -1.8513 0.9732
-1.1958 6.4211 -1.8490 0.9732
-2.3170 6.1010 -1.8475 0.9732
-2.8514 5.8674 -1.8468 0.9732
-3.3627 5.5871 -1.8460 0.9733
-3.8467 5.2625 -1.8453 0.9733
-4.7181 4.4912 -1.8440 0.9733
-5.1962 4.1281 -1.8787 0.9728
-5.8751 3.8654 -1.9909 0.9712
-6.2067 3.3306 -1.9941 0.9711
-6.8631 1.5655 -1.9928 0.9712
-6.9745 0.9463 -1.9925 0.9712
-6.9743 -0.9359 -1.9921 0.9712
-6.6968 -2.1617 -1.9921 0.9712
-6.4775 -2.7512 -1.9923 0.9712
-5.5190 -4.3715 -1.9931 0.9712
-4.6555 -5.2859 -1.9940 0.9711
-2.5134 -6.5893 -1.9965 0.9711
-1.9157 -6.7898 -1.9972 0.9711
-1.3022 -6.9364 -1.9979 0.9711
-0.6778 -7.0277 -1.9987 0.9711
-0.0476 -7.0630 -1.9995 0.9711
1.8283 -6.8314 -2.0020 0.9710
2.4320 -6.6436 -2.0028 0.9710
4.6111 -5.3800 -2.0059 0.9710
5.0748 -4.9485 -2.0066 0.9710
5.8778 -3.9693 -2.0079 0.9709
6.2105 -3.4295 -2.0084 0.9709
6.4936 -2.8620 -2.0089 0.9709
6.7246 -2.2712 -2.0093 0.9709
7.0496 0.8598 -2.0105 0.9709
6.9447 1.4859 -2.0105 0.9709
6.7841 2.1001 -2.0104 0.9709
5.4743 4.2299 -1.9585 0.9716
4.8099 4.4565 -1.8563 0.9731
2.9420 5.8518 -1.8542 0.9731
2.4069 6.0891 -1.8536 0.9731
1.8529 6.2775 -1.8529 0.9732
1.2845 6.4154 -1.8522 0.9732
0.7062 6.5020 -1.8515 0.9732
0.1227 6.5364 -1.8507 0.9732
-0.4613 6.5186 -1.8500 0.9732
-1.0411 6.4487 -1.8492 0.9732
-2.1698 6.1556 -1.8477 0.9732
-2.7098 5.9349 -1.8470 0.9732
-3.2276 5.6670 -1.8462 0.9733
-4.1811 4.9987 -1.8449 0.9733
-6.8238 1.7302 -1.9929 0.9712
-6.9500 1.1138 -1.9926 0.9712
-7.0208 0.4887 -1.9924 0.9712
-6.8983 -1.3894 -1.9921 0.9712
-6.7468 -1.9999 -1.9921 0.9712
-6.2845 -3.1687 -1.9924 0.9712
-5.9772 -3.7177 -1.9927 0.9712
-5.6223 -4.2373 -1.9930 0.9712
-5.2225 -4.7234 -1.9934 0.9712
-4.7810 -5.1720 -1.9939 0.9711
-3.7868 -5.9433 -1.9950 0.9711
-3.2419 -6.2596 -1.9956 0.9711
-2.0782 -6.7411 -1.9970 0.9711
-1.4685 -6.9023 -1.9977 0.9711
0.4139 -7.0531 -2.0001 0.9711
2.2713 -6.6994 -2.0026 0.9710
2.8616 -6.4724 -2.0034 0.9710
5.3885 -4.6076 -2.0071 0.9710
6.6677 -2.4321 -2.0092 0.9709
6.3784 3.1204 -2.0102 0.9709
5.6998 4.1892 -2.0025 0.9710
4.9160 4.3398 -1.8564 0.9731
4.5078 4.7603 -1.8559 0.9731
4.0636 5.1425 -1.8555 0.9731
2.5529 6.0300 -1.8537 0.9731
2.0035 6.2317 -1.8531 0.9732
1.4385 6.3833 -1.8524 0.9732
-0.3044 6.5285 -1.8502 0.9732
-0.8858 6.4726 -1.8494 0.9732
-1.4596 6.3650 -1.8487 0.9732
-2.0214 6.2067 -1.8479 0.9732
-3.0907 5.7436 -1.8464 0.9732
-4.0600 5.0983 -1.8450 0.9733
-4.4975 4.7138 -1.8444 0.9733
-6.5856 2.4923 -1.9934 0.9712
-6.7805 1.8940 -1.9930 0.9712
-6.9214 1.2807 -1.9927 0.9712
-7.0072 0.6574 -1.9924 0.9712
-6.9297 -1.2231 -1.9921 0.9712
-6.7929 -1.8371 -1.9921 0.9712
-6.3587 -3.0165 -1.9924 0.9712
-5.7223 -4.1006 -1.9929 0.9712
-1.6339 -6.8643 -1.9975 0.9711
0.8740 -7.0131 -2.0007 0.9710
1.4973 -6.9099 -2.0015 0.9710
2.1093 -6.7514 -2.0024 0.9710
2.7048 -6.5387 -2.0032 0.9710
3.2792 -6.2735 -2.0040 0.9710
4.3462 -5.5945 -2.0055 0.9710
4.8301 -5.1858 -2.0062 0.9710
6.0375 -3.7237 -2.0081 0.9709
6.3476 -3.1705 -2.0086 0.9709
6.9651 -1.3756 -2.0099 0.9709
7.0611 -0.7482 -2.0101 0.9709
7.1004 -0.1147 -2.0103 0.9709
7.0827 0.5198 -2.0105 0.9709
7.0082 1.1502 -2.0105 0.9709
6.8774 1.7714 -2.0105 0.9709
6.1604 3.5300 -2.0100 0.9709
5.0454 4.2425 -1.8662 0.9730
4.6213 4.6508 -1.8561 0.9731
2.6975 5.9674 -1.8539 0.9731
1.5918 6.3475 -1.8526 0.9732
1.0183 6.4618 -1.8519 0.9732
0.4370 6.5244 -1.8511 0.9732
-0.7299 6.4928 -1.8496 0.9732
-2.4217 6.0597 -1.8474 0.9732
-2.9520 5.8169 -1.8466 0.9732
-3.4583 5.5279 -1.8459 0.9733
-4.3832 4.8210 -1.8446 0.9733
-4.7946 4.4089 -1.8439 0.9733
-5.3713 4.1181 -1.9161 0.9723
-5.9455 3.7664 -1.9924 0.9712
-6.2629 3.2229 -1.9940 0.9711
-6.8889 1.4469 -1.9927 0.9712
-6.9896 0.8258 -1.9925 0.9712
-7.0347 0.1983 -1.9923 0.9712
-7.0238 -0.4306 -1.9921 0.9712
-6.9571 -1.0561 -1.9921 0.9712
-6.8351 -1.6731 -1.9921 0.9712
-6.6586 -2.2769 -1.9922 0.9712
-6.1486 -3.4257 -1.9926 0.9712
-5.8190 -3.9616 -1.9928 0.9712
-4.5638 -5.3657 -1.9941 0.9711
-1.1824 -6.9583 -1.9981 0.9711
0.7050 -7.0313 -2.0005 0.9711
1.3306 -6.9431 -2.0013 0.9710
2.5465 -6.6011 -2.0030 0.9710
3.1270 -6.3499 -2.0038 0.9710
4.7035 -5.3000 -2.0060 0.9710
5.5750 -4.3817 -2.0074 0.9710
5.9458 -3.8676 -2.0080 0.9709
6.7631 -2.1549 -2.0094 0.9709
6.9297 -1.5427 -2.0098 0.9709
7.0408 -0.9178 -2.0101 0.9709
7.0931 0.3493 -2.0104 0.9709
7.0338 0.9813 -2.0105 0.9709
6.7468 2.2168 -2.0104 0.9709
6.5214 2.8102 -2.0103 0.9709
6.2437 3.3809 -2.0101 0.9709
5.9089 3.9196 -2.0073 0.9710
5.2902 4.2354 -1.9185 0.9722
4.3069 4.9419 -1.8557 0.9731
3.8473 5.3053 -1.8552 0.9731
3.3572 5.6259 -1.8547 0.9731
2.8405 5.9013 -1.8541 0.9731
1.7442 6.3080 -1.8528 0.9732
0.5939 6.5127 -1.8513 0.9732
0.0099 6.5371 -1.8506 0.9732
-0.5736 6.5092 -1.8498 0.9732
-1.7209 6.2981 -1.8483 0.9732
-2.2755 6.1168 -1.8476 0.9732
-2.8115 5.8868 -1.8468 0.9732
-4.2664 4.9255 -1.8447 0.9733
-4.6875 4.5233 -1.8441 0.9733
-5.1289 4.1319 -1.8645 0.9730
-6.6823 2.2181 -1.9932 0.9712
-7.0281 0.3675 -1.9923 0.9712
-6.7114 -2.1160 -1.9921 0.9712
-6.4960 -2.7071 -1.9923 0.9712
-5.9124 -3.8203 -1.9928 0.9712
-5.1405 -4.8129 -1.9935 0.9711
-4.6913 -5.2540 -1.9940 0.9711
-3.6839 -6.0080 -1.9951 0.9711
-1.9618 -6.7765 -1.9971 0.9711
-1.3493 -6.9272 -1.9979 0.9711
2.3867 -6.6598 -2.0027 0.9710
2.9731 -6.4226 -2.0036 0.9710
3.5361 -6.1339 -2.0043 0.9710
4.5742 -5.4111 -2.0058 0.9710
5.0409 -4.9828 -2.0065 0.9710
5.4675 -4.5142 -2.0072 0.9710
6.4738 -2.9060 -2.0089 0.9709
6.7089 -2.3168 -2.0093 0.9709
7.0164 -1.0869 -2.0100 0.9709
7.0863 -0.4560 -2.0102 0.9709
7.0993 0.1786 -2.0104 0.9709
6.9547 1.4386 -2.0105 0.9709
6.5873 2.6526 -2.0103 0.9709
6.3235 3.2299 -2.0101 0.9709
5.5490 4.2277 -1.9748 0.9714
3.9741 5.2116 -1.8554 0.9731
1.8956 6.2649 -1.8530 0.9732
1.3281 6.4067 -1.8523 0.9732
0.7504 6.4972 -1.8515 0.9732
-0.4169 6.5218 -1.8500 0.9732
-0.9972 6.4559 -1.8493 0.9732
-1.5691 6.3384 -1.8485 0.9732
-2.1279 6.1704 -1.8478 0.9732
-3.6829 5.3794 -1.8456 0.9733
-4.1471 5.0272 -1.8449 0.9733
-4.5778 4.6352 -1.8443 0.9733
-4.9718 4.2065 -1.8437 0.9733
-6.3899 2.9612 -1.9937 0.9711
-6.9423 1.1611 -1.9926 0.9712
-7.0174 0.5364 -1.9924 0.9712
-6.9999 -0.7203 -1.9921 0.9712
-6.9076 -1.3425 -1.9921 0.9712
-5.6509 -4.1989 -1.9930 0.9712
-5.2544 -4.6876 -1.9934 0.9712
-3.8270 -5.9172 -1.9949 0.9711
-3.2844 -6.2373 -1.9956 0.9711
-2.1240 -6.7266 -1.9969 0.9711
-0.8943 -7.0025 -1.9985 0.9711
-0.2655 -7.0572 -1.9992 0.9711
0.9949 -6.9976 -2.0009 0.9710
3.3872 -6.2165 -2.0041 0.9710
4.9192 -5.1021 -2.0064 0.9710
5.3569 -4.6440 -2.0070 0.9710
5.7520 -4.1484 -2.0077 0.9709
6.1012 -3.6192 -2.0082 0.9709
6.4016 -3.0607 -2.0087 0.9709
6.6509 -2.4774 -2.0092 0.9709
6.8469 -1.8740 -2.0096 0.9709
6.9880 -1.2553 -2.0099 0.9709
7.0731 -0.6263 -2.0102 0.9709
7.1014 0.0078 -2.0104 0.9709
7.0727 0.6419 -2.0105 0.9709
6.6493 2.4934 -2.0104 0.9709
6.3995 3.0769 -2.0102 0.9709
5.7301 4.1517 -2.0032 0.9710
4.5401 4.7296 -1.8560 0.9731
4.0986 5.1149 -1.8555 0.9731
2.0460 6.2181 -1.8531 0.9732
1.4820 6.3736 -1.8524 0.9732
0.1126 -6.5010 -1.9999 0.9732
1.2681 -6.3821 -2.0014 0.9731
1.8337 -6.2457 -2.0021 0.9731
2.3850 -6.0593 -2.0029 0.9731
3.4273 -5.5425 -2.0043 0.9731
5.4952 -3.5215 -2.0075 0.9731
6.3855 -1.3760 -2.0091 0.9730
6.4837 -0.8004 -2.0094 0.9730
6.5237 0.3658 -2.0097 0.9730
5.9823 2.6263 -2.0095 0.9730
5.0558 4.1045 -2.0030 0.9731
4.3556 4.2349 -1.8685 0.9749
3.9317 4.5739 -1.8552 0.9751
3.5067 4.9055 -1.8547 0.9751
3.0538 5.1976 -1.8542 0.9751
1.0396 5.9301 -1.8518 0.9751
0.5057 5.9970 -1.8511 0.9751
-0.0318 6.0160 -1.8504 0.9751
-1.1006 5.9099 -1.8490 0.9752
-1.6233 5.7859 -1.8483 0.9752
-2.1327 5.6157 -1.8476 0.9752
-2.6247 5.4008 -1.8469 0.9752
-3.0954 5.1430 -1.8463 0.9752
-4.3586 4.1490 -1.8509 0.9751
-5.4189 3.5653 -1.9951 0.9732
-6.4730 0.2943 -1.9930 0.9732
-6.4730 -0.2849 -1.9929 0.9732
-6.4215 -0.8617 -1.9928 0.9733
-6.3188 -1.4317 -1.9928 0.9733
-5.9640 -2.5331 -1.9930 0.9732
-5.7145 -3.0559 -1.9932 0.9732
-5.4195 -3.5544 -1.9935 0.9732
-4.2861 -4.8665 -1.9946 0.9732
-3.8354 -5.2311 -1.9951 0.9732
-3.3538 -5.5542 -1.9956 0.9732
-1.1987 -6.3850 -1.9982 0.9732
-0.6240 -6.4689 -1.9989 0.9732
1.1141 -6.4101 -2.0012 0.9731
3.7829 -5.3081 -2.0049 0.9731
4.6698 -4.5536 -2.0062 0.9731
5.4085 -3.6524 -2.0073 0.9731
5.9748 -2.6333 -2.0083 0.9730
6.1873 -2.0897 -2.0087 0.9730
6.3503 -1.5291 -2.0090 0.9730
6.5305 0.2087 -2.0097 0.9730
6.4860 0.7911 -2.0098 0.9730
6.3895 1.3671 -2.0098 0.9730
6.2418 1.9322 -2.0097 0.9730
6.0439 2.4817 -2.0096 0.9730
5.7976 3.0112 -2.0094 0.9730
5.5048 3.5164 -2.0091 0.9730
5.1585 3.9860 -2.0051 0.9731
4.5640 4.2287 -1.9137 0.9743
4.0409 4.4783 -1.8553 0.9751
3.1782 5.1230 -1.8543 0.9751
2.7072 5.3848 -1.8538 0.9751
1.1820 5.9039 -1.8520 0.9751
0.6499 5.9837 -1.8513 0.9751
0.1129 6.0156 -1.8506 0.9751
-0.4246 5.9994 -1.8499 0.9751
-1.4838 5.8238 -1.8485 0.9752
-1.9972 5.6659 -1.8478 0.9752
-2.9710 5.2165 -1.8465 0.9752
-3.4238 4.9286 -1.8458 0.9752
-4.2431 4.2382 -1.8446 0.9752
-4.9311 4.1148 -1.9754 0.9735
-5.3302 3.6937 -1.9946 0.9732
-6.2827 1.5930 -1.9936 0.9732
-6.4780 -0.1291 -1.9929 0.9732
-6.4404 -0.7070 -1.9928 0.9732
-6.2120 -1.8414 -1.9928 0.9732
-5.5032 -3.4229 -1.9934 0.9732
-5.1764 -3.9012 -1.9937 0.9732
-4.4016 -4.7617 -1.9945 0.9732
-3.9598 -5.1370 -1.9950 0.9732
-2.4588 -6.0079 -1.9967 0.9732
-1.3518 -6.3538 -1.9980 0.9732
-0.7793 -6.4514 -1.9987 0.9732
-0.2002 -6.4976 -1.9995 0.9732
2.0904 -6.1657 -2.0025 0.9731
3.1561 -5.6998 -2.0040 0.9731
3.6538 -5.3971 -2.0047 0.9731
4.1225 -5.0510 -2.0054 0.9731
4.5586 -4.6642 -2.0060 0.9731
5.3187 -3.7811 -2.0072 0.9731
5.6366 -3.2920 -2.0077 0.9731
5.9094 -2.7761 -2.0082 0.9730
6.1349 -2.2378 -2.0086 0.9730
6.5115 -0.5320 -2.0095 0.9730
5.8685 2.8710 -2.0095 0.9730
5.5880 3.3831 -2.0092 0.9730
5.2586 3.8649 -2.0073 0.9731
4.7825 4.2220 -1.9622 0.9737
4.1568 4.3898 -1.8595 0.9750
3.7391 4.7318 -1.8550 0.9751
3.3008 5.0455 -1.8545 0.9751
2.8362 5.3186 -1.8539 0.9751
1.8437 5.7346 -1.8528 0.9751
1.3238 5.8743 -1.8521 0.9751
0.7937 5.9670 -1.8515 0.9751
0.2576 6.0118 -1.8508 0.9751
-0.8153 5.9572 -1.8494 0.9752
-2.8450 5.2869 -1.8466 0.9752
-3.7375 4.6933 -1.8454 0.9752
-5.2348 3.8171 -1.9927 0.9733
-5.5608 3.3381 -1.9949 0.9732
-6.2428 1.7437 -1.9936 0.9732
-6.3726 1.1791 -1.9933 0.9732
-6.4517 0.6053 -1.9931 0.9732
-6.4794 0.0267 -1.9929 0.9732
-5.5838 -3.2894 -1.9933 0.9732
-5.2685 -3.7754 -1.9936 0.9732
-4.5146 -4.6542 -1.9944 0.9732
-4.0819 -5.0399 -1.9948 0.9732
-3.1220 -5.6887 -1.9959 0.9732
-2.0616 -6.1572 -1.9972 0.9732
-1.5041 -6.3188 -1.9978 0.9732
-0.9342 -6.4301 -1.9985 0.9732
0.8044 -6.4550 -2.0008 0.9731
1.3781 -6.3597 -2.0015 0.9731
1.9413 -6.2136 -2.0023 0.9731
2.4893 -6.0177 -2.0030 0.9731
3.5226 -5.4829 -2.0045 0.9731
4.4447 -4.7721 -2.0058 0.9731
4.8546 -4.3575 -2.0065 0.9731
5.5554 -3.4263 -2.0076 0.9731
5.8406 -2.9173 -2.0081 0.9730
6.2688 -1.8326 -2.0089 0.9730
6.4084 -1.2657 -2.0092 0.9730
6.5328 -0.1056 -2.0096 0.9730
6.5165 0.4782 -2.0097 0.9730
6.4479 1.0583 -2.0098 0.9730
6.3276 1.6298 -2.0097 0.9730
6.1565 2.1882 -2.0097 0.9730
5.9360 2.7290 -2.0095 0.9730
5.6680 3.2478 -2.0093 0.9730
5.3546 3.7405 -2.0090 0.9730
3.8521 4.6408 -1.8551 0.9751
3.4214 4.9650 -1.8546 0.9751
2.4822 5.4912 -1.8535 0.9751
1.9813 5.6891 -1.8529 0.9751
1.4649 5.8413 -1.8523 0.9751
0.9371 5.9467 -1.8516 0.9751
-1.2023 5.8897 -1.8489 0.9752
-2.7173 5.3544 -1.8468 0.9752
-3.1834 5.0885 -1.8462 0.9752
-5.1367 3.9382 -1.9909 0.9733
-5.7660 2.9672 -1.9945 0.9732
-6.0066 2.4400 -1.9941 0.9732
-6.1993 1.8935 -1.9937 0.9732
-6.4354 0.7603 -1.9932 0.9732
-6.4770 0.1826 -1.9930 0.9732
-6.2932 -1.5405 -1.9928 0.9732
-5.9195 -2.6357 -1.9930 0.9732
-4.2017 -4.9399 -1.9947 0.9732
-3.2577 -5.6115 -1.9957 0.9732
-2.2089 -6.1053 -1.9970 0.9732
-1.6555 -6.2802 -1.9976 0.9732
0.0683 -6.5014 -1.9998 0.9732
1.2246 -6.3904 -2.0013 0.9731
3.3894 -5.5655 -2.0043 0.9731
3.8742 -5.2424 -2.0050 0.9731
4.3283 -4.8772 -2.0057 0.9731
5.7683 -3.0567 -2.0079 0.9730
6.2074 2.0395 -2.0097 0.9730
5.7447 3.1107 -2.0093 0.9730
4.4136 4.2332 -1.8810 0.9747
3.5401 4.8816 -1.8547 0.9751
3.0892 5.1768 -1.8542 0.9751
2.6138 5.4304 -1.8537 0.9751
0.5465 5.9936 -1.8512 0.9751
-1.0604 5.9175 -1.8491 0.9752
-1.5840 5.7969 -1.8484 0.9752
-2.0945 5.6302 -1.8477 0.9752
-3.5081 4.8685 -1.8457 0.9752
-3.9275 4.5343 -1.8451 0.9752
-5.9465 2.5839 -1.9942 0.9732
-6.1523 2.0421 -1.9938 0.9732
-6.4155 0.9149 -1.9932 0.9732
-6.4709 0.3383 -1.9930 0.9732
-6.4272 -0.8180 -1.9928 0.9733
-6.3284 -1.3887 -1.9928 0.9733
-5.9810 -2.4924 -1.9930 0.9732
-4.7327 -4.4312 -1.9941 0.9732
-3.8708 -5.2048 -1.9951 0.9732
-3.3915 -5.5311 -1.9956 0.9732
-2.8849 -5.8136 -1.9962 0.9732
-2.3549 -6.0498 -1.9968 0.9732
-1.8059 -6.2380 -1.9975 0.9732
-1.2421 -6.3766 -1.9982 0.9732
-0.6679 -6.4643 -1.9989 0.9732
-0.0881 -6.5005 -1.9996 0.9732
0.4930 -6.4848 -2.0004 0.9732
2.7361 -5.9108 -2.0034 0.9731
3.2542 -5.6449 -2.0041 0.9731
3.7466 -5.3336 -2.0048 0.9731
4.2093 -4.9794 -2.0055 0.9731
4.6386 -4.5851 -2.0061 0.9731
5.9567 -2.6739 -2.0083 0.9730
6.1729 -2.1317 -2.0087 0.9730
6.5198 -0.4196 -2.0095 0.9730
6.3987 1.3236 -2.0098 0.9730
5.1871 3.9520 -2.0057 0.9731
4.6247 4.2268 -1.9271 0.9741
3.2131 5.1014 -1.8544 0.9751
1.7444 5.7652 -1.8526 0.9751
1.2222 5.8959 -1.8520 0.9751
0.1539 6.0149 -1.8507 0.9751
-0.9178 5.9419 -1.8493 0.9752
-2.4571 5.4799 -1.8472 0.9752
-3.8176 4.6278 -1.8452 0.9752
-4.2143 4.2671 -1.8446 0.9752
-4.8679 4.1186 -1.9613 0.9737
-5.3035 3.7288 -1.9941 0.9732
-5.8830 2.7263 -1.9943 0.9732
-6.1017 2.1896 -1.9939 0.9732
-6.2717 1.6357 -1.9936 0.9732
-6.3918 1.0690 -1.9933 0.9732
-6.4788 -0.0850 -1.9929 0.9732
-6.4450 -0.6632 -1.9928 0.9732
-6.0391 -2.3478 -1.9929 0.9732
-5.2028 -3.8659 -1.9937 0.9732
-3.9946 -5.1098 -1.9949 0.9732
-3.5233 -5.4475 -1.9954 0.9732
-3.0236 -5.7420 -1.9960 0.9732
-0.2444 -6.4959 -1.9994 0.9732
1.4877 -6.3355 -2.0017 0.9731
2.0483 -6.1797 -2.0024 0.9731
2.5929 -5.9743 -2.0032 0.9731
4.5266 -4.6950 -2.0060 0.9731
4.9293 -4.2733 -2.0066 0.9731
5.2927 -3.8172 -2.0071 0.9731
5.6139 -3.3302 -2.0077 0.9731
5.8903 -2.8162 -2.0081 0.9730
6.1195 -2.2795 -2.0086 0.9730
6.4295 -1.1550 -2.0092 0.9730
6.5337 0.0071 -2.0096 0.9730
6.5073 0.5906 -2.0097 0.9730
5.6110 3.3450 -2.0092 0.9730
5.2864 3.8302 -2.0079 0.9730
4.8463 4.2200 -1.9765 0.9735
4.1775 4.3518 -1.8554 0.9751
3.7713 4.7064 -1.8550 0.9751
3.3351 5.0230 -1.8545 0.9751
2.3870 5.5329 -1.8534 0.9751
1.3638 5.8653 -1.8522 0.9751
-2.5029 -5.4607 -1.9968 0.9750
-2.0058 -5.6641 -1.9973 0.9750
-1.4925 -5.8224 -1.9980 0.9750
-0.4333 -5.9990 -1.9993 0.9750
0.6412 -5.9845 -2.0007 0.9749
1.1734 -5.9054 -2.0014 0.9749
1.6967 -5.7791 -2.0021 0.9749
2.2067 -5.6064 -2.0028 0.9749
3.6173 -4.8258 -2.0048 0.9749
4.4207 -4.1079 -2.0060 0.9749
4.7711 -3.6977 -2.0065 0.9749
5.0836 -3.2577 -2.0070 0.9749
5.3554 -2.7914 -2.0075 0.9749
6.0403 -0.2019 -2.0090 0.9748
5.8783 1.4064 -2.0091 0.9748
5.0123 3.3742 -2.0085 0.9749
4.6886 3.8064 -2.0074 0.9749
2.3838 5.0401 -1.8533 0.9768
1.9237 5.2313 -1.8527 0.9768
0.9618 5.4865 -1.8516 0.9768
-1.0184 5.4685 -1.8490 0.9768
-2.4289 4.9979 -1.8471 0.9768
-2.8645 4.7594 -1.8465 0.9769
-3.2770 4.4832 -1.8459 0.9769
-3.6631 4.1713 -1.8453 0.9769
-4.3314 4.1231 -1.9878 0.9751
-5.0153 3.2997 -1.9956 0.9750
-5.2887 2.8381 -1.9951 0.9750
-5.5199 2.3540 -1.9947 0.9750
-5.9914 -0.2637 -1.9935 0.9750
-5.8487 -1.3252 -1.9934 0.9750
-5.7072 -1.8422 -1.9935 0.9750
-5.5202 -2.3446 -1.9936 0.9750
-5.0162 -3.2899 -1.9940 0.9750
-4.3524 -4.1311 -1.9947 0.9750
-3.9670 -4.5041 -1.9951 0.9750
-3.5497 -4.8415 -1.9956 0.9750
-2.6333 -5.3985 -1.9966 0.9750
-0.5774 -5.9863 -1.9991 0.9750
-0.0406 -6.0160 -1.9998 0.9750
2.5688 -5.4517 -2.0033 0.9749
3.4999 -4.9110 -2.0046 0.9749
3.9257 -4.5803 -2.0052 0.9749
4.6805 -3.8111 -2.0064 0.9749
5.2864 -2.9192 -2.0073 0.9749
5.7236 -1.9331 -2.0081 0.9749
5.8743 -1.4145 -2.0085 0.9749
5.9779 -0.8844 -2.0087 0.9748
6.0409 0.1931 -2.0090 0.9748
5.9997 0.7318 -2.0091 0.9748
5.9104 1.2646 -2.0091 0.9748
5.7737 1.7873 -2.0091 0.9748
5.3630 2.7854 -2.0088 0.9748
5.0922 3.2528 -2.0085 0.9749
4.7807 3.6940 -2.0082 0.9749
4.4185 4.0939 -2.0022 0.9749
3.3525 4.4590 -1.8544 0.9768
2.9402 4.7394 -1.8539 0.9768
1.5775 5.3445 -1.8523 0.9768
0.6013 5.5363 -1.8511 0.9768
0.1045 5.5660 -1.8505 0.9768
-0.3928 5.5511 -1.8498 0.9768
-0.8867 5.4920 -1.8492 0.9768
-1.3730 5.3890 -1.8486 0.9768
-1.8481 5.2430 -1.8479 0.9768
-2.3081 5.0553 -1.8473 0.9768
-3.1685 4.5611 -1.8461 0.9769
-3.5620 4.2586 -1.8455 0.9769
-4.6042 3.8420 -1.9933 0.9750
-5.2192 2.9646 -1.9952 0.9750
-5.7498 -1.7044 -1.9935 0.9750
-5.3557 -2.7003 -1.9937 0.9750
-5.0937 -3.1682 -1.9940 0.9750
-4.4503 -4.0250 -1.9946 0.9750
-4.0739 -4.4072 -1.9950 0.9750
-1.7705 -5.7429 -1.9976 0.9750
-1.2510 -5.8799 -1.9983 0.9750
-0.1852 -6.0127 -1.9996 0.9750
0.8879 -5.9539 -2.0010 0.9749
1.4165 -5.8529 -2.0017 0.9749
2.4367 -5.5114 -2.0031 0.9749
2.9201 -5.2735 -2.0038 0.9749
4.2174 -4.3151 -2.0056 0.9749
4.5871 -3.9223 -2.0062 0.9749
4.9204 -3.4980 -2.0067 0.9749
5.2143 -3.0453 -2.0072 0.9749
5.6752 -2.0701 -2.0080 0.9749
6.0155 0.5873 -2.0091 0.9748
5.9392 1.1221 -2.0091 0.9748
5.8151 1.6479 -2.0091 0.9748
5.6445 2.1605 -2.0090 0.9748
4.5199 3.9901 -2.0041 0.9749
3.4642 4.3840 -1.8573 0.9767
3.0535 4.6676 -1.8541 0.9768
2.1734 5.1335 -1.8530 0.9768
1.7058 5.3055 -1.8525 0.9768
0.7343 5.5207 -1.8513 0.9768
0.2383 5.5624 -1.8507 0.9768
-1.2432 5.4209 -1.8487 0.9768
-1.7217 5.2864 -1.8481 0.9768
-3.0581 4.6364 -1.8462 0.9769
-3.4588 4.3434 -1.8456 0.9769
-3.9550 4.1452 -1.9044 0.9761
-4.5067 3.9484 -1.9917 0.9751
-5.1467 3.0895 -1.9954 0.9750
-5.6119 2.1238 -1.9945 0.9750
-5.9716 0.5603 -1.9937 0.9750
-5.9973 0.0248 -1.9936 0.9750
-5.9753 -0.5108 -1.9935 0.9750
-5.9057 -1.0424 -1.9934 0.9750
-4.1785 -4.3077 -1.9949 0.9750
-2.4084 -5.5034 -1.9969 0.9750
-1.9079 -5.6982 -1.9975 0.9750
-1.3919 -5.8476 -1.9981 0.9750
-0.8645 -5.9505 -1.9987 0.9750
-0.3298 -6.0059 -1.9994 0.9750
0.2079 -6.0135 -2.0001 0.9750
1.7962 -5.7493 -2.0022 0.9749
2.3032 -5.5679 -2.0029 0.9749
3.2591 -5.0728 -2.0042 0.9749
4.1120 -4.4149 -2.0055 0.9749
4.4911 -4.0312 -2.0061 0.9749
5.6235 -2.2059 -2.0079 0.9749
5.7990 -1.6952 -2.0083 0.9749
5.9280 -1.1708 -2.0086 0.9749
6.0430 -0.0976 -2.0090 0.9748
5.9644 0.9789 -2.0091 0.9748
5.8531 1.5076 -2.0091 0.9748
5.4910 2.5244 -2.0089 0.9748
5.2431 3.0044 -2.0087 0.9748
4.6190 3.8840 -2.0060 0.9749
4.1867 4.2134 -1.9744 0.9753
3.5635 4.2932 -1.8546 0.9768
2.7416 4.8562 -1.8537 0.9768
2.2964 5.0802 -1.8532 0.9768
1.8330 5.2634 -1.8526 0.9768
1.3553 5.4043 -1.8521 0.9768
-0.6216 5.5293 -1.8495 0.9768
-1.5942 5.3268 -1.8483 0.9768
-2.0627 5.1614 -1.8476 0.9768
-2.5145 4.9549 -1.8470 0.9769
-2.9460 4.7090 -1.8464 0.9769
-4.4070 4.0524 -1.9901 0.9751
-4.7653 3.6535 -1.9960 0.9750
-5.7379 1.7525 -1.9943 0.9750
-5.9859 -0.3670 -1.9935 0.9750
-5.9291 -0.9000 -1.9934 0.9750
-5.6746 -1.9404 -1.9935 0.9750
-5.4791 -2.4395 -1.9936 0.9750
-3.4658 -4.9022 -1.9956 0.9750
0.0632 -6.0162 -1.9999 0.9750
0.6004 -5.9885 -2.0006 0.9749
1.1332 -5.9131 -2.0013 0.9749
1.6572 -5.7903 -2.0020 0.9749
2.1684 -5.6211 -2.0027 0.9749
3.1359 -5.1492 -2.0041 0.9749
4.7458 -3.7300 -2.0065 0.9749
5.0612 -3.2922 -2.0070 0.9749
5.3362 -2.8277 -2.0074 0.9749
5.5685 -2.3404 -2.0078 0.9749
5.9924 -0.7812 -2.0088 0.9748
6.0387 -0.2430 -2.0089 0.9748
5.9862 0.8352 -2.0091 0.9748
5.7420 1.8866 -2.0091 0.9748
5.5502 2.3917 -2.0089 0.9748
4.7157 3.7754 -2.0080 0.9749
3.6852 4.2286 -1.8645 0.9766
3.2749 4.5160 -1.8543 0.9768
2.8579 4.7892 -1.8538 0.9768
2.4181 5.0238 -1.8533 0.9768
1.4850 5.3706 -1.8522 0.9768
0.9992 5.4800 -1.8516 0.9768
0.5057 5.5455 -1.8510 0.9768
0.0085 5.5666 -1.8504 0.9768
-0.4885 5.5432 -1.8497 0.9768
-0.9812 5.4755 -1.8491 0.9768
-1.4657 5.3641 -1.8484 0.9768
-2.3948 5.0144 -1.8472 0.9768
-3.6347 4.1963 -1.8454 0.9769
-4.2762 4.1264 -1.9753 0.9753
-4.9928 3.3339 -1.9956 0.9750
-5.2694 2.8740 -1.9952 0.9750
-5.9381 0.8468 -1.9938 0.9750
-5.9931 -0.2229 -1.9935 0.9750
-5.7196 -1.8033 -1.9935 0.9750
-5.5360 -2.3070 -1.9936 0.9750
-4.7283 -3.6931 -1.9943 0.9750
-4.3804 -4.1013 -1.9947 0.9750
-3.9975 -4.4770 -1.9951 0.9750
-3.5825 -4.8171 -1.9955 0.9750
-3.1388 -5.1191 -1.9960 0.9750
-2.6699 -5.3804 -1.9966 0.9750
-2.1794 -5.5989 -1.9971 0.9750
-1.6713 -5.7729 -1.9977 0.9750
-1.1494 -5.9010 -1.9984 0.9750
-0.6181 -5.9820 -1.9990 0.9750
-0.0815 -6.0154 -1.9997 0.9750
0.9905 -5.9381 -2.0011 0.9749
3.8943 -4.6068 -2.0052 0.9749
4.2914 -4.2419 -2.0058 0.9749
4.6544 -3.8428 -2.0063 0.9749
4.9802 -3.4127 -2.0068 0.9749
5.2663 -2.9551 -2.0073 0.9749
5.5103 -2.4735 -2.0077 0.9749
5.7102 -1.9720 -2.0081 0.9749
5.9717 -0.9250 -2.0087 0.9748
6.0310 -0.3881 -2.0089 0.9748
6.0420 0.1520 -2.0090 0.9748
6.0045 0.6909 -2.0091 0.9748
5.9189 1.2244 -2.0091 0.9748
5.7858 1.7480 -2.0091 0.9748
5.3818 2.7489 -2.0088 0.9748
4.8058 3.6614 -2.0083 0.9749
4.4474 4.0648 -2.0028 0.9749
3.3828 4.4362 -1.8544 0.9768
2.9724 4.7194 -1.8540 0.9768
2.5385 4.9646 -1.8535 0.9768
2.0844 5.1700 -1.8529 0.9768
1.6139 5.3338 -1.8524 0.9768
0.6390 5.5322 -1.8512 0.9768
0.1424 5.5653 -1.8505 0.9768
-1.3364 5.3983 -1.8486 0.9768
-1.8125 5.2556 -1.8480 0.9768
-2.2737 5.0710 -1.8473 0.9768
-4.5768 3.8723 -1.9928 0.9750
-5.4450 2.5233 -1.9949 0.9750
-5.9162 0.9895 -1.9939 0.9750
-5.9968 -0.0787 -1.9935 0.9750
-4.8155 -3.5782 -1.9942 0.9750
-4.1037 -4.3793 -1.9950 0.9750
-3.6971 -4.7293 -1.9954 0.9750
-3.2608 -5.0417 -1.9959 0.9750
-2.7983 -5.3142 -1.9964 0.9750
-2.3133 -5.5444 -1.9970 0.9750
-1.2909 -5.8711 -1.9982 0.9750
-0.7618 -5.9649 -1.9989 0.9750
0.3117 -6.0094 -2.0002 0.9750
2.3991 -5.5277 -2.0030 0.9749
3.7821 -4.6988 -2.0050 0.9749
4.1878 -4.3436 -2.0056 0.9749
4.5602 -3.9534 -2.0062 0.9749
4.8963 -3.5313 -2.0067 0.9749
5.4489 -2.6052 -2.0076 0.9749
6.0194 0.5463 -2.0091 0.9748
5.9466 1.0816 -2.0091 0.9748
5.8262 1.6083 -2.0091 0.9748
5.6591 2.1221 -2.0090 0.9748
5.4465 2.6187 -2.0089 0.9748
5.1904 3.0943 -2.0086 0.9749
4.5482 3.9604 -2.0047 0.9749
4.0488 4.2178 -1.9434 0.9757
1.7419 5.2939 -1.8525 0.9768
-2.3268 -5.0767 -1.9971 0.9766
-1.8647 -5.2656 -1.9976 0.9765
-1.3875 -5.4127 -1.9982 0.9765
1.0907 -5.4892 -2.0014 0.9765
1.5770 -5.3716 -2.0020 0.9765
3.3620 -4.4852 -2.0045 0.9765
4.1085 -3.8177 -2.0056 0.9765
4.7243 -3.0275 -2.0066 0.9764
4.9769 -2.5941 -2.0070 0.9764
5.5735 -0.6880 -2.0082 0.9764
5.6077 0.3144 -2.0085 0.9764
5.5574 0.8139 -2.0086 0.9764
5.4625 1.3069 -2.0086 0.9764
5.3238 1.7894 -2.0085 0.9764
5.1424 2.2576 -2.0084 0.9764
4.6579 3.1357 -2.0080 0.9764
4.0194 3.9080 -2.0048 0.9765
1.7878 4.8619 -1.8525 0.9782
1.3462 5.0007 -1.8519 0.9782
0.8940 5.0994 -1.8514 0.9782
0.4349 5.1573 -1.8508 0.9783
-0.0274 5.1738 -1.8502 0.9783
-0.9466 5.0832 -1.8490 0.9783
-2.6629 4.4244 -1.8467 0.9783
-3.0503 4.1730 -1.8485 0.9783
-3.6344 4.1387 -1.9697 0.9769
-4.3713 3.4727 -1.9965 0.9766
-4.6628 3.0678 -1.9960 0.9766
-5.1321 2.1886 -1.9952 0.9766
-5.4378 1.2404 -1.9946 0.9766
-5.5262 0.7498 -1.9943 0.9766
-5.3065 -1.7129 -1.9940 0.9766
-5.1326 -2.1800 -1.9941 0.9766
-4.9178 -2.6298 -1.9943 0.9766
-4.0466 -3.8408 -1.9952 0.9766
-3.6882 -4.1876 -1.9955 0.9766
-3.3002 -4.5012 -1.9960 0.9766
-2.8858 -4.7790 -1.9964 0.9766
-2.4481 -5.0189 -1.9969 0.9766
-1.9907 -5.2189 -1.9975 0.9766
-1.5171 -5.3773 -1.9980 0.9765
-0.5367 -5.5648 -1.9993 0.9765
0.4620 -5.5751 -2.0005 0.9765
1.4473 -5.4075 -2.0018 0.9765
1.9250 -5.2584 -2.0025 0.9765
2.8314 -4.8352 -2.0037 0.9765
3.2529 -4.5644 -2.0043 0.9765
4.3499 -3.5419 -2.0060 0.9765
4.6499 -3.1401 -2.0065 0.9764
5.3190 -1.7964 -2.0077 0.9764
5.4589 -1.3145 -2.0079 0.9764
5.6069 -0.3225 -2.0084 0.9764
5.5753 0.6800 -2.0086 0.9764
5.4924 1.1752 -2.0086 0.9764
5.3654 1.6609 -2.0085 0.9764
5.1954 2.1333 -2.0084 0.9764
4.9837 2.5885 -2.0083 0.9764
4.7321 3.0228 -2.0080 0.9764
4.1158 3.8134 -2.0065 0.9764
3.7472 4.1528 -2.0003 0.9765
3.1721 4.2191 -1.8876 0.9778
1.0165 5.0768 -1.8515 0.9782
0.0971 5.1734 -1.8504 0.9783
-1.7180 4.8737 -1.8480 0.9783
-2.1456 4.6993 -1.8474 0.9783
-2.5559 4.4876 -1.8468 0.9783
-3.4694 4.1478 -1.9338 0.9773
-4.2867 3.5771 -1.9966 0.9766
-4.5879 3.1793 -1.9961 0.9766
-4.8524 2.7563 -1.9957 0.9766
-5.0782 2.3115 -1.9953 0.9766
-5.2634 1.8485 -1.9949 0.9766
-5.5426 -0.6085 -1.9940 0.9766
-5.3461 -1.5847 -1.9940 0.9766
-5.1835 -2.0559 -1.9941 0.9766
-4.9796 -2.5107 -1.9943 0.9766
-4.1377 -3.7422 -1.9951 0.9766
-3.4073 -4.4202 -1.9958 0.9766
-2.9997 -4.7079 -1.9963 0.9766
-2.5679 -4.9582 -1.9968 0.9766
-2.1155 -5.1691 -1.9973 0.9766
-1.1629 -5.4661 -1.9985 0.9765
-0.1722 -5.5893 -1.9997 0.9765
0.3277 -5.5841 -2.0004 0.9765
1.3167 -5.4403 -2.0017 0.9765
3.1419 -4.6409 -2.0042 0.9765
3.9195 -4.0103 -2.0053 0.9765
4.2631 -3.6453 -2.0059 0.9765
5.2740 -1.9238 -2.0076 0.9764
5.5973 -0.4573 -2.0083 0.9764
5.5901 0.5457 -2.0085 0.9764
5.5191 1.0427 -2.0086 0.9764
5.0446 2.4679 -2.0083 0.9764
4.8036 2.9082 -2.0081 0.9764
3.8491 4.0648 -2.0019 0.9765
3.3303 4.2145 -1.9209 0.9774
2.0199 4.7710 -1.8528 0.9782
1.5853 4.9310 -1.8522 0.9782
-0.2409 5.1675 -1.8500 0.9783
-1.1556 5.0390 -1.8487 0.9783
-2.4474 4.5481 -1.8470 0.9783
-3.8441 4.0289 -1.9914 0.9766
-4.1996 3.6793 -1.9967 0.9766
-4.5104 3.2889 -1.9962 0.9766
-4.7850 2.8724 -1.9958 0.9766
-5.2176 1.9746 -1.9950 0.9766
-5.3723 1.5006 -1.9947 0.9766
-5.4841 1.0147 -1.9944 0.9766
-5.5762 0.0230 -1.9941 0.9766
-5.5557 -0.4750 -1.9940 0.9766
-5.3826 -1.4557 -1.9940 0.9766
-4.8053 -2.8308 -1.9944 0.9766
-4.5339 -3.2490 -1.9947 0.9766
-4.2263 -3.6414 -1.9950 0.9766
-3.8849 -4.0050 -1.9953 0.9766
-3.5125 -4.3368 -1.9957 0.9766
-3.1119 -4.6341 -1.9962 0.9766
-2.6863 -4.8947 -1.9966 0.9766
-1.7737 -5.2973 -1.9977 0.9765
-1.2940 -5.4361 -1.9983 0.9765
0.6919 -5.5521 -2.0008 0.9765
1.6696 -5.3440 -2.0021 0.9765
2.1408 -5.1752 -2.0028 0.9765
2.5952 -4.9649 -2.0034 0.9765
3.0291 -4.7148 -2.0040 0.9765
4.1739 -3.7465 -2.0057 0.9765
5.3890 -1.5754 -2.0078 0.9764
5.5089 -1.0880 -2.0081 0.9764
5.4391 1.4010 -2.0086 0.9764
5.2921 1.8810 -2.0085 0.9764
5.1027 2.3459 -2.0083 0.9764
4.8723 2.7919 -2.0082 0.9764
4.2968 3.6131 -2.0076 0.9764
2.9415 4.2686 -1.8538 0.9782
1.7036 4.8918 -1.8524 0.9782
0.8058 5.1138 -1.8513 0.9782
0.3459 5.1637 -1.8507 0.9783
-0.1166 5.1723 -1.8501 0.9783
-1.4819 4.9516 -1.8483 0.9783
-1.9175 4.7979 -1.8477 0.9783
-2.3375 4.6061 -1.8471 0.9783
-3.7436 4.1175 -1.9901 0.9766
-4.1069 3.7765 -1.9952 0.9766
-4.7148 2.9868 -1.9959 0.9766
-4.9617 2.5533 -1.9955 0.9766
-5.4583 1.1464 -1.9945 0.9766
-5.5383 0.6543 -1.9943 0.9766
-5.5656 -0.3412 -1.9940 0.9766
-5.5127 -0.8368 -1.9940 0.9766
-5.4160 -1.3258 -1.9940 0.9766
-5.0943 -2.2682 -1.9942 0.9766
-3.9799 -3.9102 -1.9952 0.9766
-3.6156 -4.2508 -1.9956 0.9766
-2.8030 -4.8283 -1.9965 0.9766
-1.9005 -5.2527 -1.9976 0.9765
-0.4407 -5.5736 -1.9994 0.9765
1.5404 -5.3821 -2.0020 0.9765
2.0155 -5.2247 -2.0026 0.9765
2.4748 -5.0255 -2.0032 0.9765
2.9146 -4.7859 -2.0039 0.9765
3.7216 -4.1936 -2.0050 0.9765
4.0823 -3.8455 -2.0056 0.9765
4.4105 -3.4665 -2.0061 0.9765
4.7036 -3.0595 -2.0066 0.9764
4.9590 -2.6279 -2.0070 0.9764
5.1749 -2.1750 -2.0074 0.9764
5.4809 -1.2201 -2.0080 0.9764
5.6117 -0.2258 -2.0084 0.9764
5.6097 0.2763 -2.0085 0.9764
5.5628 0.7761 -2.0086 0.9764
5.4713 1.2697 -2.0086 0.9764
5.3359 1.7532 -2.0085 0.9764
5.1577 2.2225 -2.0084 0.9764
4.6792 3.1039 -2.0080 0.9764
4.3827 3.5088 -2.0077 0.9764
4.0469 3.8815 -2.0053 0.9765
3.6641 4.2043 -1.9943 0.9766
3.0619 4.2222 -1.8651 0.9781
1.8209 4.8498 -1.8525 0.9782
1.3802 4.9915 -1.8520 0.9782
0.9287 5.0933 -1.8514 0.9782
0.0079 5.1740 -1.8503 0.9783
-0.9120 5.0896 -1.8491 0.9783
-1.3624 4.9862 -1.8485 0.9783
-1.8017 4.8431 -1.8479 0.9783
-3.0181 4.1884 -1.8462 0.9783
-3.5872 4.1414 -1.9593 0.9770
-4.6419 3.0995 -1.9960 0.9766
-4.8991 2.6721 -1.9956 0.9766
-5.1171 2.2235 -1.9952 0.9766
-5.2943 1.7574 -1.9949 0.9766
-5.5211 0.7874 -1.9943 0.9766
-5.5313 -0.7040 -1.9940 0.9766
-5.3180 -1.6767 -1.9940 0.9766
-4.6845 -3.0270 -1.9945 0.9766
-4.3961 -3.4337 -1.9948 0.9766
-4.0726 -3.8131 -1.9951 0.9766
-3.3307 -4.4786 -1.9959 0.9766
-2.4821 -5.0020 -1.9969 0.9766
-1.5537 -5.3667 -1.9980 0.9765
-0.0757 -5.5918 -1.9998 0.9765
0.9207 -5.5196 -2.0011 0.9765
1.4104 -5.4171 -2.0018 0.9765
2.3530 -5.0831 -2.0031 0.9765
3.6194 -4.2816 -2.0049 0.9765
3.9883 -3.9423 -2.0054 0.9765
4.3256 -3.5714 -2.0060 0.9765
4.6283 -3.1716 -2.0064 0.9764
5.4498 -1.3516 -2.0079 0.9764
5.5494 -0.8596 -2.0082 0.9764
5.6147 0.1412 -2.0085 0.9764
5.5798 0.6421 -2.0086 0.9764
5.5003 1.1378 -2.0086 0.9764
5.0012 2.5545 -2.0083 0.9764
4.1427 3.7863 -2.0070 0.9764
3.2163 4.2178 -1.8968 0.9777
2.7624 4.3860 -1.8536 0.9782
1.9372 4.8049 -1.8527 0.9782
1.5000 4.9573 -1.8521 0.9782
0.5939 5.1419 -1.8510 0.9783
-0.7894 5.1105 -1.8492 0.9783
-1.2422 5.0180 -1.8486 0.9783
-2.1136 4.7140 -1.8474 0.9783
-2.9167 4.2602 -1.8463 0.9783
-3.4236 4.1502 -1.9239 0.9774
-4.2624 3.6063 -1.9966 0.9766
-5.3972 1.4077 -1.9947 0.9766
-5.5757 -0.0732 -1.9941 0.9766
-5.5467 -0.5707 -1.9940 0.9766
-5.1973 -2.0205 -1.9941 0.9766
-4.9965 -2.4768 -1.9943 0.9766
-4.7558 -2.9133 -1.9945 0.9766
-3.8154 -4.0716 -1.9954 0.9766
-3.4373 -4.3969 -1.9958 0.9766
-3.0316 -4.6873 -1.9963 0.9766
-2.6016 -4.9405 -1.9967 0.9766
-1.6822 -5.3274 -1.9978 0.9765
-0.7081 -5.5450 -1.9990 0.9765
1.7616 -5.3147 -2.0023 0.9765
2.6806 -4.9197 -2.0035 0.9765
3.1102 -4.6621 -2.0041 0.9765
3.5151 -4.3670 -2.0047 0.9765
4.5504 -3.2818 -2.0063 0.9764
4.8264 -2.8630 -2.0068 0.9764
5.0638 -2.4211 -2.0072 0.9764
5.4155 -1.4822 -2.0078 0.9764
5.5269 -0.9928 -2.0081 0.9764
5.5941 -0.4954 -2.0083 0.9764
5.5936 0.5077 -2.0085 0.9764
5.4141 1.4946 -2.0085 0.9764
5.2588 1.9720 -2.0085 0.9764
5.0613 2.4335 -2.0083 0.9764
4.8233 2.8755 -2.0081 0.9764
4.5467 3.2943 -2.0079 0.9764
3.3760 4.2131 -1.9307 0.9773
2.4696 4.5562 -1.8533 0.9782
2.0524 4.7573 -1.8528 0.9782
1.6189 4.9202 -1.8523 0.9782
1.1727 5.0436 -1.8517 0.9782
-2.1716 -4.7381 -1.9973 0.9779
-1.2949 -5.0515 -1.9984 0.9779
-0.8389 -5.1483 -1.9990 0.9779
-0.3759 -5.2042 -1.9995 0.9779
0.0904 -5.2185 -2.0001 0.9779
0.5562 -5.1912 -2.0007 0.9779
1.9139 -4.8625 -2.0026 0.9779
2.7499 -4.4471 -2.0037 0.9779
3.1369 -4.1850 -2.0043 0.9778
4.1371 -3.2063 -2.0058 0.9778
4.6434 -2.4203 -2.0066 0.9778
4.8418 -1.9963 -2.0070 0.9778
5.0015 -1.5562 -2.0073 0.9778
5.1211 -1.1035 -2.0076 0.9778
5.2367 -0.1750 -2.0079 0.9778
5.2317 0.2933 -2.0080 0.9778
5.1847 0.7594 -2.0081 0.9778
4.9668 1.6695 -2.0080 0.9778
4.3456 2.9254 -2.0075 0.9778
3.7548 3.6507 -2.0069 0.9778
3.0028 4.2005 -1.9787 0.9781
2.0671 4.3705 -1.8527 0.9795
0.4058 4.8123 -1.8507 0.9795
-0.4564 4.8048 -1.8496 0.9795
-1.3030 4.6442 -1.8485 0.9795
-1.7120 4.5079 -1.8479 0.9796
-2.5109 4.1720 -1.8660 0.9794
-3.0311 4.1467 -1.9684 0.9782
-4.0798 3.2412 -1.9968 0.9779
-5.0756 1.1578 -1.9950 0.9779
-5.1581 0.6998 -1.9948 0.9779
-5.1996 0.2364 -1.9946 0.9780
-5.1583 -0.6922 -1.9945 0.9780
-5.0759 -1.1501 -1.9945 0.9780
-4.7907 -2.0348 -1.9946 0.9780
-4.5902 -2.4546 -1.9948 0.9779
-4.3532 -2.8550 -1.9950 0.9779
-4.0814 -3.2328 -1.9953 0.9779
-3.7770 -3.5849 -1.9956 0.9779
-1.4159 -5.0185 -1.9983 0.9779
-0.5009 -5.1933 -1.9994 0.9779
0.8942 -5.1449 -2.0012 0.9779
1.3505 -5.0460 -2.0018 0.9779
1.7962 -4.9068 -2.0024 0.9779
2.2279 -4.7282 -2.0030 0.9779
4.0585 -3.3047 -2.0057 0.9778
4.5836 -2.5311 -2.0065 0.9778
4.9624 -1.6760 -2.0072 0.9778
5.0929 -1.2263 -2.0075 0.9778
5.1827 -0.7667 -2.0077 0.9778
5.1241 1.0964 -2.0081 0.9778
5.0056 1.5495 -2.0080 0.9778
4.6495 2.4149 -2.0078 0.9778
4.1449 3.2027 -2.0073 0.9778
2.6127 4.2115 -1.8993 0.9790
0.9484 4.7371 -1.8514 0.9795
0.0906 4.8275 -1.8503 0.9795
-0.7691 4.7637 -1.8492 0.9795
-1.1910 4.6746 -1.8486 0.9795
-1.6032 4.5482 -1.8481 0.9796
-2.0024 4.3855 -1.8475 0.9796
-2.3853 4.1880 -1.8470 0.9796
-2.8857 4.1540 -1.9383 0.9786
-3.6877 3.6834 -1.9974 0.9779
-4.5290 2.5726 -1.9960 0.9779
-4.7397 2.1575 -1.9957 0.9779
-4.9127 1.7253 -1.9953 0.9779
-5.1735 -0.5679 -1.9945 0.9780
-5.1020 -1.0276 -1.9945 0.9780
-4.9900 -1.4792 -1.9945 0.9780
-4.8382 -1.9189 -1.9946 0.9780
-4.1578 -3.1336 -1.9952 0.9779
-3.8619 -3.4928 -1.9955 0.9779
-3.5352 -3.8244 -1.9958 0.9779
-2.7997 -4.3940 -1.9966 0.9779
-2.3967 -4.6275 -1.9971 0.9779
0.3058 -5.2111 -2.0004 0.9779
0.7702 -5.1645 -2.0010 0.9779
1.2286 -5.0766 -2.0016 0.9779
1.6776 -4.9481 -2.0022 0.9779
2.5325 -4.5735 -2.0034 0.9779
3.3075 -4.0524 -2.0045 0.9778
3.6571 -3.7418 -2.0051 0.9778
3.9776 -3.4011 -2.0056 0.9778
4.9205 -1.7948 -2.0071 0.9778
5.0618 -1.3484 -2.0074 0.9778
5.2152 0.5091 -2.0081 0.9778
5.0415 1.4287 -2.0081 0.9778
4.8935 1.8731 -2.0080 0.9778
4.7064 2.3024 -2.0078 0.9778
4.2209 3.1022 -2.0074 0.9778
3.9264 3.4662 -2.0071 0.9778
3.5991 3.8008 -2.0059 0.9778
2.2752 4.2665 -1.8530 0.9795
1.8847 4.4516 -1.8525 0.9795
1.4792 4.6009 -1.8520 0.9795
0.6369 4.7879 -1.8510 0.9795
-0.6543 4.7812 -1.8493 0.9795
-1.0783 4.7023 -1.8488 0.9795
-1.4935 4.5858 -1.8482 0.9796
-1.8964 4.4328 -1.8477 0.9796
-3.2376 4.0656 -1.9917 0.9780
-3.9197 3.4341 -1.9970 0.9779
-4.2097 3.0696 -1.9966 0.9779
-4.4660 2.6809 -1.9961 0.9779
-4.6867 2.2709 -1.9958 0.9779
-4.8700 1.8430 -1.9954 0.9779
-5.0241 -1.3587 -1.9945 0.9780
-4.2318 -3.0325 -1.9951 0.9779
-3.6260 -3.7381 -1.9957 0.9779
-3.2783 -4.0477 -1.9961 0.9779
-2.9044 -4.3252 -1.9965 0.9779
-2.5071 -4.5683 -1.9970 0.9779
-1.6554 -4.9439 -1.9980 0.9779
-1.2076 -5.0733 -1.9985 0.9779
-0.7500 -5.1623 -1.9991 0.9779
-0.2861 -5.2102 -1.9997 0.9779
0.6457 -5.1811 -2.0009 0.9779
1.1061 -5.1043 -2.0015 0.9779
1.5579 -4.9867 -2.0021 0.9779
1.9976 -4.8291 -2.0027 0.9779
2.8264 -4.3993 -2.0038 0.9778
3.5658 -3.8284 -2.0049 0.9778
4.1919 -3.1346 -2.0059 0.9778
4.6846 -2.3399 -2.0067 0.9778
4.8757 -1.9126 -2.0071 0.9778
5.1709 0.8487 -2.0081 0.9778
5.0744 1.3070 -2.0081 0.9778
4.9372 1.7549 -2.0080 0.9778
4.7605 2.1886 -2.0079 0.9778
4.5456 2.6047 -2.0077 0.9778
4.2944 2.9999 -2.0075 0.9778
4.0088 3.3709 -2.0072 0.9778
3.6912 3.7148 -2.0069 0.9778
2.8967 4.2036 -1.9563 0.9784
2.3826 4.2203 -1.8572 0.9795
1.5896 4.5643 -1.8522 0.9795
1.1753 4.6867 -1.8517 0.9795
0.3227 4.8183 -1.8506 0.9795
-0.1088 4.8264 -1.8500 0.9795
-0.5392 4.7960 -1.8495 0.9795
-1.3829 4.6208 -1.8484 0.9796
-2.1814 4.2985 -1.8473 0.9796
-2.6072 4.1675 -1.8838 0.9792
-3.1372 4.1401 -1.9906 0.9780
-3.8362 3.5276 -1.9972 0.9779
-4.1349 3.1702 -1.9967 0.9779
-4.6310 2.3831 -1.9959 0.9779
-4.8244 1.9597 -1.9955 0.9779
-4.5473 -2.5335 -1.9948 0.9779
-4.3034 -2.9298 -1.9950 0.9779
-4.0251 -3.3028 -1.9953 0.9779
-3.7147 -3.6496 -1.9956 0.9779
-3.0074 -4.2538 -1.9964 0.9779
-2.2038 -4.7231 -1.9973 0.9779
-1.3292 -5.0424 -1.9984 0.9779
0.5208 -5.1947 -2.0007 0.9779
0.9829 -5.1290 -2.0013 0.9779
2.3093 -4.6893 -2.0031 0.9779
2.7196 -4.4657 -2.0037 0.9779
3.8089 -3.5880 -2.0053 0.9778
4.1151 -3.2343 -2.0058 0.9778
4.3884 -2.8546 -2.0062 0.9778
4.6267 -2.4518 -2.0066 0.9778
4.9907 -1.5902 -2.0073 0.9778
5.1952 -0.6773 -2.0078 0.9778
5.2354 -0.2106 -2.0079 0.9778
5.2335 0.2577 -2.0080 0.9778
5.1044 1.1846 -2.0081 0.9778
4.9781 1.6356 -2.0080 0.9778
4.8119 2.0735 -2.0079 0.9778
4.3655 2.8958 -2.0075 0.9778
4.0889 3.2736 -2.0073 0.9778
3.7796 3.6251 -2.0069 0.9778
3.4347 3.9411 -2.0034 0.9779
3.0452 4.1992 -1.9878 0.9780
2.5148 4.2142 -1.8806 0.9792
2.0968 4.3564 -1.8528 0.9795
1.2878 4.6575 -1.8518 0.9795
-1.6813 4.5196 -1.8480 0.9796
-2.0776 4.3501 -1.8474 0.9796
-2.4734 4.1737 -1.8592 0.9794
-3.4061 3.9324 -1.9937 0.9780
-3.7505 3.6191 -1.9973 0.9779
-4.0577 3.2689 -1.9968 0.9779
-4.5725 2.4940 -1.9960 0.9779
-4.9416 1.6403 -1.9953 0.9779
-5.0676 1.1923 -1.9950 0.9779
-5.1533 0.7349 -1.9948 0.9779
-5.1979 0.2718 -1.9946 0.9780
-5.1629 -0.6571 -1.9945 0.9780
-4.9638 -1.5650 -1.9945 0.9780
-4.6068 -2.4233 -1.9948 0.9779
-4.3725 -2.8253 -1.9950 0.9779
-4.1032 -3.2049 -1.9952 0.9779
-3.8012 -3.5590 -1.9955 0.9779
-3.4688 -3.8849 -1.9959 0.9779
-3.1087 -4.1800 -1.9963 0.9779
-2.3166 -4.6684 -1.9972 0.9779
-0.9972 -5.1195 -1.9988 0.9779
-0.5362 -5.1896 -1.9993 0.9779
0.3957 -5.2053 -2.0005 0.9779
1.3161 -5.0550 -2.0017 0.9779
1.7628 -4.9188 -2.0024 0.9779
2.6112 -4.5294 -2.0035 0.9779
3.0060 -4.2794 -2.0041 0.9778
3.7213 -3.6784 -2.0052 0.9778
4.5662 -2.5622 -2.0065 0.9778
4.9508 -1.7097 -2.0072 0.9778
5.0844 -1.2610 -2.0075 0.9778
5.1773 -0.8020 -2.0077 0.9778
5.2057 0.5990 -2.0081 0.9778
5.1314 1.0615 -2.0081 0.9778
5.0160 1.5154 -2.0080 0.9778
4.8604 1.9572 -2.0079 0.9778
4.6659 2.3832 -2.0078 0.9778
4.1666 3.1745 -2.0073 0.9778
3.8659 3.5333 -2.0070 0.9778
3.5311 3.8602 -2.0049 0.9778
3.1638 4.1490 -1.9995 0.9779
2.2012 4.3050 -1.8529 0.9795
1.8075 4.4832 -1.8524 0.9795
1.3996 4.6255 -1.8519 0.9795
0.1235 4.8268 -1.8503 0.9795
-0.3079 4.8171 -1.8498 0.9795
-0.7367 4.7690 -1.8492 0.9795
-1.1592 4.6827 -1.8487 0.9795
-1.5723 4.5591 -1.8481 0.9796
-2.3568 4.2042 -1.8470 0.9796
-3.3086 4.0108 -1.9925 0.9780
-3.6619 3.7077 -1.9970 0.9779
-3.9781 3.3658 -1.9969 0.9779
-4.2618 2.9964 -1.9965 0.9779
-4.5115 2.6034 -1.9961 0.9779
-4.9009 1.7587 -1.9954 0.9779
-5.0376 1.3139 -1.9951 0.9779
-5.1772 -0.5327 -1.9945 0.9780
-4.9999 -1.4452 -1.9945 0.9780
-4.6636 -2.3118 -1.9947 0.9779
-4.1790 -3.1052 -1.9952 0.9779
-3.8856 -3.4664 -1.9954 0.9779
-3.5611 -3.8002 -1.9958 0.9779
-2.8295 -4.3748 -1.9966 0.9779
-2.4281 -4.6110 -1.9970 0.9779
-2.0071 -4.8106 -1.9975 0.9779
-1.5699 -4.9719 -1.9981 0.9779
-1.1200 -5.0937 -1.9986 0.9779
0.2703 -5.2129 -2.0004 0.9779
1.6438 -4.9593 -2.0022 0.9779
2.0807 -4.7942 -2.0028 0.9779
3.2798 -4.0747 -2.0045 0.9778
3.9543 -3.4281 -2.0055 0.9778
4.2456 -3.0620 -2.0060 0.9778
4.5030 -2.6712 -2.0064 0.9778
4.7244 -2.2588 -2.0068 0.9778
5.1564 -0.9263 -2.0076 0.9778
5.2398 0.0057 -2.0080 0.9778
5.1555 0.9377 -2.0081 0.9778
4.9062 1.8397 -2.0080 0.9778
4.7220 2.2704 -2.0078 0.9778
4.5000 2.6827 -2.0077 0.9778
3.9500 3.4394 -2.0071 0.9778
2.7930 4.2066 -1.9350 0.9786
2.3042 4.2510 -1.8530 0.9795
1.5105 4.5908 -1.8521 0.9795
1.0943 4.7061 -1.8516 0.9795
-1.6297 -4.6019 -1.9981 0.9791
-0.7855 -4.8209 -1.9991 0.9791
-0.3520 -4.8731 -1.9997 0.9791
0.5208 -4.8608 -2.0008 0.9791
0.9530 -4.7962 -2.0013 0.9791
1.3779 -4.6933 -2.0019 0.9791
1.7920 -4.5528 -2.0025 0.9791
2.1920 -4.3758 -2.0030 0.9791
2.5747 -4.1637 -2.0036 0.9791
2.9369 -3.9182 -2.0041 0.9791
4.3470 -2.2658 -2.0063 0.9790
4.9023 -0.1638 -2.0075 0.9790
4.8976 0.2746 -2.0076 0.9790
4.8536 0.7109 -2.0076 0.9790
4.7707 1.1414 -2.0076 0.9790
4.6496 1.5628 -2.0076 0.9790
4.4912 1.9717 -2.0075 0.9790
4.2969 2.3647 -2.0073 0.9790
4.0681 2.7386 -2.0071 0.9790
3.8069 3.0906 -2.0069 0.9790
3.1954 3.7173 -2.0062 0.9790
2.8445 3.9791 -2.0019 0.9791
0.3800 4.5057 -1.8506 0.9806
-0.8271 4.4415 -1.8490 0.9807
-1.2201 4.3486 -1.8485 0.9807
-1.6031 4.2211 -1.8480 0.9807
-2.0274 4.1718 -1.8984 0.9802
-2.4980 4.1505 -1.9826 0.9793
-2.8757 3.9341 -1.9944 0.9792
-3.8206 3.0353 -1.9971 0.9791
-4.0755 2.6814 -1.9966 0.9791
-4.2979 2.3063 -1.9963 0.9791
-4.6381 1.5046 -1.9956 0.9791
-1.9488 0.2644 -0.8049 0.9915
-1.9494 -0.2616 -0.8050 0.9915
-4.7537 -1.0771 -1.9949 0.9792
-4.2989 -2.2988 -1.9952 0.9792
-4.0768 -2.6738 -1.9954 0.9791
-3.8223 -3.0275 -1.9956 0.9791
-3.2237 -3.6603 -1.9963 0.9791
-2.8846 -3.9343 -1.9966 0.9791
-2.5222 -4.1770 -1.9970 0.9791
-2.1396 -4.3865 -1.9975 0.9791
-0.9012 -4.8003 -1.9990 0.9791
-0.0329 -4.8867 -2.0001 0.9791
0.4037 -4.8715 -2.0006 0.9791
0.8373 -4.8174 -2.0012 0.9791
1.2645 -4.7247 -2.0018 0.9791
1.6818 -4.5942 -2.0023 0.9791
2.0859 -4.4269 -2.0029 0.9791
2.8417 -3.9874 -2.0040 0.9791
3.1872 -3.7186 -2.0045 0.9791
3.5073 -3.4200 -2.0049 0.9790
4.2910 -2.3696 -2.0062 0.9790
4.7677 -1.1480 -2.0071 0.9790
4.9027 0.1567 -2.0076 0.9790
4.8693 0.5939 -2.0076 0.9790
4.7968 1.0263 -2.0076 0.9790
4.5374 1.8631 -2.0075 0.9790
3.8802 2.9982 -2.0069 0.9790
3.2840 3.6395 -2.0063 0.9790
2.9412 3.9120 -2.0031 0.9791
2.1129 4.2026 -1.9251 0.9799
1.2808 4.3393 -1.8517 0.9806
0.8880 4.4352 -1.8512 0.9806
-1.1152 4.3770 -1.8486 0.9807
-1.5012 4.2588 -1.8481 0.9807
-1.9071 4.1768 -1.8792 0.9804
-2.3674 4.1567 -1.9578 0.9795
-2.7789 4.0002 -1.9935 0.9792
-3.7467 3.1265 -1.9972 0.9791
-4.0100 2.7788 -1.9968 0.9791
-4.4388 2.0204 -1.9960 0.9791
-4.6008 1.6158 -1.9957 0.9791
-4.7260 1.1983 -1.9955 0.9791
-1.9176 -0.0382 -0.7850 0.9917
-4.7782 -0.9624 -1.9949 0.9792
-4.6733 -1.3853 -1.9949 0.9792
-4.5311 -1.7971 -1.9950 0.9792
-4.1398 -2.5749 -1.9953 0.9791
-2.6218 -4.1149 -1.9969 0.9791
-1.8489 -4.5177 -1.9978 0.9791
-1.4384 -4.6658 -1.9983 0.9791
-1.0163 -4.7769 -1.9988 0.9791
-0.5858 -4.8499 -1.9994 0.9791
0.2864 -4.8794 -2.0005 0.9791
0.7211 -4.8357 -2.0010 0.9791
1.1504 -4.7534 -2.0016 0.9791
1.9787 -4.4755 -2.0027 0.9791
2.3711 -4.2821 -2.0033 0.9791
3.0966 -3.7940 -2.0043 0.9791
3.4238 -3.5032 -2.0048 0.9791
3.9942 -2.8395 -2.0057 0.9790
4.6063 -1.6802 -2.0068 0.9790
4.7386 -1.2623 -2.0070 0.9790
4.8821 0.4766 -2.0076 0.9790
4.8201 0.9107 -2.0076 0.9790
3.6757 3.2449 -2.0067 0.9790
3.3708 3.5596 -2.0064 0.9790
3.0364 3.8426 -2.0044 0.9791
2.2394 4.1994 -1.9478 0.9796
0.9945 4.4128 -1.8514 0.9806
0.1935 4.5169 -1.8504 0.9806
-1.7890 4.1816 -1.8614 0.9805
-2.6806 4.0640 -1.9925 0.9792
-3.0383 3.8154 -1.9962 0.9791
-4.3891 2.1267 -1.9961 0.9791
-4.5607 1.7260 -1.9958 0.9791
-1.9580 0.1837 -0.8049 0.9915
-4.7052 -1.2725 -1.9949 0.9792
-4.5730 -1.6876 -1.9950 0.9792
-4.4043 -2.0893 -1.9951 0.9792
-4.2005 -2.4745 -1.9953 0.9791
-3.9631 -2.8400 -1.9955 0.9791
-3.6942 -3.1830 -1.9958 0.9791
-2.7199 -4.0504 -1.9968 0.9791
-2.3478 -4.2780 -1.9972 0.9791
-1.1308 -4.7507 -1.9987 0.9791
-0.2679 -4.8787 -1.9998 0.9791
0.1689 -4.8845 -2.0003 0.9791
0.6046 -4.8513 -2.0009 0.9791
1.4587 -4.6691 -2.0020 0.9791
1.8703 -4.5214 -2.0026 0.9791
2.2672 -4.3375 -2.0031 0.9791
2.6462 -4.1189 -2.0037 0.9791
3.0042 -3.8671 -2.0042 0.9791
3.3384 -3.5843 -2.0047 0.9791
4.3856 -2.1905 -2.0064 0.9790
4.5644 -1.7905 -2.0067 0.9790
4.7067 -1.3759 -2.0070 0.9790
4.8113 -0.9502 -2.0072 0.9790
4.9044 -0.0792 -2.0075 0.9790
4.8406 0.7945 -2.0076 0.9790
4.7503 1.2235 -2.0076 0.9790
4.6219 1.6428 -2.0076 0.9790
4.4565 2.0488 -2.0074 0.9790
4.2554 2.4384 -2.0073 0.9790
4.0202 2.8083 -2.0071 0.9790
2.7742 4.0258 -2.0010 0.9791
1.9019 4.2074 -1.8898 0.9802
1.4882 4.2732 -1.8520 0.9806
1.1004 4.3880 -1.8515 0.9806
-0.1019 4.5190 -1.8500 0.9807
-0.5048 4.4906 -1.8495 0.9807
-0.9036 4.4263 -1.8489 0.9807
-3.5924 3.3034 -1.9974 0.9791
-3.8722 2.9688 -1.9970 0.9791
-4.1210 2.6106 -1.9966 0.9791
-4.3369 2.2318 -1.9962 0.9791
-4.5181 1.8353 -1.9959 0.9791
-4.7712 1.0021 -1.9954 0.9791
-1.9548 0.2310 -0.8056 0.9915
-1.9248 0.0543 -0.7881 0.9917
-1.9475 -0.1194 -0.7986 0.9916
-4.7344 -1.1589 -1.9949 0.9792
-4.4532 -1.9828 -1.9951 0.9792
-4.2587 -2.3727 -1.9952 0.9792
-3.4788 -3.4179 -1.9960 0.9791
-2.8164 -3.9836 -1.9967 0.9791
-2.0637 -4.4229 -1.9976 0.9791
-1.2447 -4.7218 -1.9985 0.9791
0.4877 -4.8641 -2.0007 0.9791
0.9203 -4.8025 -2.0013 0.9791
1.7609 -4.5648 -2.0024 0.9791
3.2510 -3.6633 -2.0046 0.9791
3.5660 -3.3592 -2.0050 0.9790
3.8525 -3.0280 -2.0055 0.9790
4.1084 -2.6724 -2.0059 0.9790
4.3314 -2.2953 -2.0063 0.9790
4.7869 -1.0657 -2.0071 0.9790
4.8635 -0.6340 -2.0073 0.9790
4.8993 0.2413 -2.0076 0.9790
4.7784 1.1089 -2.0076 0.9790
4.6601 1.5312 -2.0076 0.9790
4.5046 1.9411 -2.0075 0.9790
4.0867 2.7109 -2.0071 0.9790
3.8278 3.0646 -2.0069 0.9790
3.5384 3.3937 -2.0066 0.9790
3.2206 3.6955 -2.0062 0.9790
2.8720 3.9604 -2.0022 0.9791
2.0238 4.2046 -1.9098 0.9800
1.5907 4.2365 -1.8521 0.9806
1.2057 4.3605 -1.8516 0.9806
0.0069 4.5205 -1.8501 0.9807
-0.3967 4.5017 -1.8496 0.9807
-1.1905 4.3569 -1.8485 0.9807
-2.8484 3.9531 -1.9941 0.9792
-3.1962 3.6901 -1.9980 0.9791
-3.5121 3.3891 -1.9975 0.9791
-3.7999 3.0612 -1.9971 0.9791
-4.7459 1.1166 -1.9954 0.9791
-1.9320 -0.0719 -0.7912 0.9917
-1.9521 -0.2484 -0.8054 0.9915
-4.7609 -1.0447 -1.9949 0.9792
-4.4995 -1.8750 -1.9950 0.9792
-3.5599 -3.3330 -1.9959 0.9791
-2.9112 -3.9145 -1.9966 0.9791
-1.7708 -4.5491 -1.9979 0.9791
0.3705 -4.8740 -2.0006 0.9791
0.8045 -4.8228 -2.0011 0.9791
1.2323 -4.7331 -2.0017 0.9791
1.6505 -4.6054 -2.0023 0.9791
2.0557 -4.4409 -2.0028 0.9791
2.4447 -4.2407 -2.0034 0.9791
3.7784 -3.1196 -2.0054 0.9790
4.2748 -2.3987 -2.0062 0.9790
4.4726 -2.0077 -2.0065 0.9790
4.6348 -1.6006 -2.0068 0.9790
4.7598 -1.1804 -2.0071 0.9790
4.9036 0.1233 -2.0076 0.9790
4.8732 0.5608 -2.0076 0.9790
4.8037 0.9937 -2.0076 0.9790
4.3679 2.2310 -2.0074 0.9790
4.1509 2.6119 -2.0072 0.9790
3.9006 2.9718 -2.0070 0.9790
3.6191 3.3078 -2.0067 0.9790
1.6983 4.2124 -1.8589 0.9806
1.3104 4.3305 -1.8517 0.9806
0.9182 4.4291 -1.8513 0.9806
0.5188 4.4922 -1.8508 0.9806
0.1156 4.5193 -1.8503 0.9807
-0.6898 4.4653 -1.8492 0.9807
-1.4722 4.2690 -1.8482 0.9807
-2.3311 4.1584 -1.9511 0.9796
-2.7512 4.0185 -1.9932 0.9792
-3.1049 3.7638 -1.9969 0.9791
-3.4298 3.4728 -1.9977 0.9791
-3.7254 3.1519 -1.9972 0.9791
-3.9911 2.8061 -1.9968 0.9791
-4.2249 2.4380 -1.9964 0.9791
-4.5897 1.6471 -1.9957 0.9791
-1.9112 -0.0251 -0.7823 0.9918
-4.7847 -0.9299 -1.9949 0.9792
-4.1572 -2.5466 -1.9953 0.9791
-3.6389 -3.2463 -1.9958 0.9791
-3.3350 -3.5589 -1.9961 0.9791
-3.0044 -3.8431 -1.9965 0.9791
-1.0488 -4.7698 -1.9988 0.9791
0.6882 -4.8404 -2.0010 0.9791
1.1180 -4.7610 -2.0016 0.9791
1.5391 -4.6435 -2.0021 0.9791
1.9482 -4.4887 -2.0027 0.9791
2.3418 -4.2980 -2.0032 0.9791
2.7170 -4.0728 -2.0038 0.9791
3.3999 -3.5263 -2.0048 0.9791
3.9747 -2.8666 -2.0057 0.9790
4.2156 -2.5007 -2.0061 0.9790
4.4229 -2.1146 -2.0064 0.9790
4.5947 -1.7115 -2.0067 0.9790
4.7299 -1.2946 -2.0070 0.9790
4.9051 0.0054 -2.0075 0.9790
4.8852 0.4434 -2.0076 0.9790
4.5928 1.7222 -2.0075 0.9790
4.4204 2.1254 -2.0074 0.9790
3.9711 2.8772 -2.0070 0.9790
3.3950 3.5367 -2.0064 0.9790
3.0631 3.8226 -2.0048 0.9791
2.2757 4.1985 -1.9545 0.9796
1.8160 4.2093 -1.8762 0.9804
-1.5306 -4.3221 -1.9983 0.9802
-0.7377 -4.5276 -1.9992 0.9802
-0.3306 -4.5766 -1.9997 0.9802
1.2939 -4.4074 -2.0019 0.9802
2.4177 -3.9098 -2.0034 0.9801
3.3699 -3.1314 -2.0048 0.9801
3.6368 -2.8186 -2.0053 0.9801
4.0816 -2.1275 -2.0060 0.9801
4.2560 -1.7548 -2.0063 0.9801
4.3963 -1.3679 -2.0066 0.9801
4.6028 -0.1538 -2.0071 0.9801
4.4793 1.0717 -2.0072 0.9801
4.0344 2.2202 -2.0069 0.9801
3.8197 2.5714 -2.0068 0.9801
2.6762 3.7437 -2.0056 0.9801
2.3264 3.9596 -2.0015 0.9802
1.1307 4.2004 -1.8958 0.9812
0.3568 4.2310 -1.8505 0.9816
-0.0224 4.2449 -1.8500 0.9816
-0.4013 4.2248 -1.8495 0.9817
-0.7807 4.1921 -1.8584 0.9816
-1.1734 4.1823 -1.8931 0.9812
-2.7061 3.7022 -1.9986 0.9802
-3.5884 2.8508 -1.9973 0.9802
