ply
format ascii 1.0
element vertex 1559
property float32 x
property float32 y
property float32 z
property float32 I
end_header
-5.9373 10.4109 1.0146 0.9530
-7.2864 10.4768 1.0803 0.9501
-12.4234 10.3564 1.3692 0.9371
-15.1401 10.4808 1.5588 0.9287
9.7968 10.3378 1.2057 0.9444
8.1428 10.2963 1.1112 0.9487
6.7493 10.3077 1.0430 0.9517
4.3776 10.3270 0.9495 0.9560
0.4492 10.3589 0.8777 0.9592
-1.4139 10.3741 0.8863 0.9588
-2.3985 10.4864 0.9106 0.9577
-4.4414 10.3987 0.9572 0.9556
-5.5925 10.4081 1.0002 0.9537
-6.8625 10.4184 1.0561 0.9512
-8.2948 10.4301 1.1281 0.9479
-9.9991 10.4939 1.2270 0.9435
-5.3781 -16.0060 1.4294 0.9345
3.6427 10.3329 0.6794 0.9570
2.6801 10.5164 0.6730 0.9574
1.6715 10.3490 0.6501 0.9589
-1.1252 10.3717 0.6469 0.9591
-4.1073 10.3960 0.6931 0.9562
-5.3174 10.5815 0.7344 0.9536
-6.4583 10.4151 0.7599 0.9521
-7.8769 10.4816 0.8130 0.9488
-9.4105 10.4342 0.8713 0.9452
-11.2721 10.4493 0.9531 0.9403
-13.5395 10.4678 1.0612 0.9337
10.8181 10.2746 0.9252 0.9420
9.0562 10.2889 0.8500 0.9465
7.6760 10.4758 0.8053 0.9493
6.1649 10.2158 0.7399 0.9533
5.0581 10.3764 0.7158 0.9548
3.9377 10.3305 0.6856 0.9567
2.9145 10.3389 0.6661 0.9579
0.9968 10.3545 0.6451 0.9592
0.0684 10.4170 0.6460 0.9591
-0.8609 10.3696 0.6452 0.9592
-1.8052 10.3773 0.6532 0.9587
-2.8088 10.4897 0.6734 0.9574
-3.7696 10.2941 0.6798 0.9570
-4.9858 10.5788 0.7252 0.9542
-6.0983 10.4122 0.7483 0.9528
-8.9403 10.4303 0.8519 0.9464
-12.9781 10.5675 1.0378 0.9351
-15.5569 10.5059 1.1641 0.9275
9.5746 10.3396 0.8738 0.9451
5.3564 10.3190 0.7210 0.9545
4.2382 10.3281 0.6923 0.9562
2.2489 10.5199 0.6671 0.9578
0.3313 10.4148 0.6462 0.9591
-1.5362 10.3751 0.6504 0.9588
-5.7489 10.4094 0.7374 0.9535
-8.4944 10.4317 0.8342 0.9475
-10.2344 10.4958 0.9090 0.9429
5.6900 10.3163 0.7306 0.9539
4.5689 10.3804 0.7033 0.9556
3.4848 10.3342 0.6763 0.9572
-0.3373 10.4203 0.6465 0.9591
-2.2476 10.4852 0.6650 0.9579
-4.2734 10.3974 0.6971 0.9559
-6.6586 10.4168 0.7666 0.9517
-8.0626 10.4282 0.8174 0.9485
-11.5893 10.4519 0.9677 0.9394
-16.9262 10.4953 1.2350 0.9233
6.0327 10.3135 0.7409 0.9532
1.7941 10.3480 0.6513 0.9588
0.8539 10.3556 0.6443 0.9592
-0.0743 10.4181 0.6460 0.9591
-3.9193 10.2652 0.6814 0.9569
-7.6882 10.4801 0.8060 0.9492
-11.0122 10.4472 0.9413 0.9410
9.2675 10.2872 0.8586 0.9460
7.8293 10.4304 0.8087 0.9491
5.2065 10.3752 0.7198 0.9545
3.0433 10.3378 0.6683 0.9577
2.0988 10.5211 0.6653 0.9579
-1.6819 10.3763 0.6518 0.9587
-2.6792 10.4887 0.6713 0.9575
-4.8369 10.5776 0.7212 0.9545
-7.2864 10.4768 0.7913 0.9501
-8.7364 10.4337 0.8439 0.9469
-12.6736 10.5650 1.0231 0.9360
9.7968 10.3378 0.8832 0.9445
8.1428 10.2963 0.8140 0.9488
6.7493 10.3077 0.7640 0.9518
4.3776 10.3270 0.6955 0.9560
2.3747 10.5139 0.6684 0.9577
0.4492 10.3589 0.6430 0.9593
-3.3437 10.2875 0.6708 0.9576
-4.4414 10.3987 0.7012 0.9557
-5.5925 10.4081 0.7327 0.9538
-8.2948 10.4301 0.8264 0.9480
-9.9991 10.4939 0.8988 0.9436
-14.3434 10.4743 1.1013 0.9313
-5.3775 -16.0041 1.0469 0.9346
7.2793 10.4790 0.5031 0.9502
5.8748 10.3148 0.4681 0.9536
4.7391 10.3790 0.4499 0.9554
3.6427 10.3329 0.4320 0.9571
2.6800 10.5164 0.4279 0.9575
1.6715 10.3490 0.4134 0.9589
0.7338 10.3566 0.4094 0.9593
-0.1968 10.5398 0.4157 0.9587
-1.1252 10.3717 0.4114 0.9591
-2.0692 10.3421 0.4159 0.9587
-4.1073 10.3960 0.4408 0.9562
-5.3174 10.5815 0.4670 0.9537
-11.2721 10.4493 0.6061 0.9403
-16.4131 10.4911 0.7681 0.9250
10.8181 10.2746 0.5883 0.9420
9.0562 10.2889 0.5405 0.9466
7.6760 10.4758 0.5121 0.9493
5.0581 10.3764 0.4552 0.9548
2.9145 10.3389 0.4236 0.9579
1.9649 10.4781 0.4204 0.9582
0.9968 10.3545 0.4102 0.9592
0.0692 10.5377 0.4155 0.9587
-1.8052 10.3773 0.4153 0.9587
-2.8088 10.4897 0.4282 0.9575
-7.4683 10.4783 0.5074 0.9498
-8.9403 10.4303 0.5417 0.9465
-10.7119 10.4447 0.5899 0.9419
-12.9781 10.5675 0.6599 0.9352
9.6855 10.4594 0.5621 0.9445
6.5816 10.3090 0.4823 0.9522
4.2382 10.3281 0.4402 0.9563
3.1975 10.3366 0.4266 0.9576
1.2609 10.3523 0.4112 0.9591
0.3338 10.4914 0.4139 0.9589
-0.5978 10.3674 0.4095 0.9593
-1.5362 10.3751 0.4136 0.9589
-2.5264 10.4874 0.4254 0.9577
-4.5845 10.3999 0.4482 0.9555
-5.7489 10.4094 0.4689 0.9535
-7.0371 10.4198 0.4958 0.9509
-8.4944 10.4317 0.5305 0.9476
-10.2344 10.4958 0.5780 0.9430
-12.1002 10.3711 0.6284 0.9382
-14.9497 10.6549 0.7239 0.9291
7.0696 10.4807 0.4985 0.9507
4.5690 10.3804 0.4472 0.9556
3.4848 10.3342 0.4300 0.9573
1.5266 10.3502 0.4125 0.9590
-3.2084 10.3514 0.4273 0.9575
-5.5010 10.5830 0.4703 0.9534
-8.0626 10.4282 0.5198 0.9486
-9.8390 10.6133 0.5707 0.9437
-11.5893 10.4519 0.6154 0.9394
-13.8275 10.3909 0.6820 0.9331
-16.9262 10.4953 0.7853 0.9234
6.2988 5.1347 0.3204 0.9680
8.8108 10.2909 0.5342 0.9472
7.4589 10.4775 0.5071 0.9498
1.7941 10.3480 0.4141 0.9588
0.8539 10.3556 0.4097 0.9593
-1.9452 10.3411 0.4149 0.9588
-3.9193 10.2652 0.4333 0.9570
-5.1648 10.5802 0.4642 0.9540
-7.6882 10.4801 0.5125 0.9493
-9.1929 10.4324 0.5483 0.9459
-11.0122 10.4472 0.5985 0.9410
-13.0877 10.3618 0.6582 0.9354
11.0690 10.2725 0.5955 0.9413
7.8293 10.4304 0.5142 0.9491
5.2065 10.3752 0.4577 0.9546
4.0743 10.3294 0.4378 0.9565
3.0433 10.3378 0.4249 0.9578
1.1174 10.3535 0.4106 0.9592
-2.6792 10.4887 0.4269 0.9576
-3.6702 10.3925 0.4346 0.9568
-4.8369 10.5776 0.4586 0.9545
-5.9373 10.4109 0.4726 0.9532
-7.2864 10.4768 0.5032 0.9502
-8.7364 10.4337 0.5366 0.9470
-15.3968 10.6585 0.7384 0.9278
9.8739 10.4192 0.5660 0.9442
8.1428 10.2963 0.5176 0.9488
5.5078 10.3178 0.4612 0.9543
-3.3437 10.2875 0.4265 0.9576
-4.4414 10.3987 0.4459 0.9557
-8.2948 10.4301 0.5255 0.9481
-11.8539 10.3997 0.6218 0.9388
-14.3434 10.4743 0.7003 0.9314
-5.3769 -16.0022 0.6657 0.9347
3.6427 10.3329 0.1851 0.9571
1.6715 10.3490 0.1771 0.9589
0.7338 10.3566 0.1754 0.9593
-0.1967 10.5398 0.1781 0.9587
-3.0581 10.3664 0.1826 0.9577
-4.1073 10.3960 0.1888 0.9563
-5.3174 10.5815 0.2000 0.9537
-6.4583 10.4151 0.2070 0.9522
-7.8769 10.4816 0.2215 0.9489
-11.2721 10.4493 0.2596 0.9404
10.8181 10.2746 0.2520 0.9421
9.0562 10.2889 0.2315 0.9466
7.6760 10.4758 0.2194 0.9494
6.1649 10.2158 0.2015 0.9534
1.9649 10.4781 0.1801 0.9582
0.9968 10.3545 0.1757 0.9592
0.0692 10.5377 0.1780 0.9587
-2.8088 10.4897 0.1834 0.9575
-3.7700 10.2952 0.1852 0.9571
-6.0983 10.4122 0.2038 0.9529
-8.9403 10.4303 0.2321 0.9465
-10.7119 10.4448 0.2527 0.9419
-12.9781 10.5675 0.2827 0.9352
-15.5575 10.5064 0.3171 0.9276
3.1975 10.3366 0.1828 0.9576
2.2489 10.5199 0.1817 0.9579
1.2609 10.3523 0.1762 0.9591
0.3338 10.4914 0.1773 0.9589
-0.5978 10.3675 0.1754 0.9593
-3.5105 10.3911 0.1853 0.9571
-4.5845 10.3999 0.1920 0.9555
-7.0371 10.4198 0.2124 0.9509
-10.3530 10.6175 0.2505 0.9424
10.1836 10.4553 0.2465 0.9433
8.3731 10.2945 0.2242 0.9483
4.6219 10.5006 0.1938 0.9551
3.4848 10.3342 0.1842 0.9573
2.5275 10.5176 0.1827 0.9576
1.5266 10.3502 0.1767 0.9590
-2.2476 10.4852 0.1811 0.9580
-4.2734 10.3974 0.1899 0.9560
-13.8275 10.3909 0.2922 0.9331
-16.9262 10.4953 0.3364 0.9234
6.2980 5.1341 0.1373 0.9680
6.0327 10.3135 0.2018 0.9533
3.7769 10.3319 0.1858 0.9569
1.7941 10.3480 0.1774 0.9589
-1.0042 10.3708 0.1760 0.9592
-1.9452 10.3411 0.1777 0.9588
-3.9193 10.2652 0.1856 0.9570
-7.6882 10.4801 0.2196 0.9493
-9.1929 10.4324 0.2349 0.9459
-11.0122 10.4472 0.2564 0.9411
-15.9981 10.4878 0.3231 0.9263
11.0690 10.2725 0.2551 0.9414
7.8293 10.4304 0.2203 0.9492
6.3856 10.3106 0.2049 0.9526
5.2668 10.4954 0.1984 0.9541
4.0743 10.3294 0.1876 0.9566
3.0433 10.3378 0.1820 0.9578
2.0988 10.5211 0.1812 0.9580
0.1908 10.5367 0.1780 0.9587
-2.6792 10.4887 0.1829 0.9576
-4.8369 10.5776 0.1965 0.9545
-5.9373 10.4109 0.2024 0.9532
-7.2864 10.4768 0.2156 0.9502
-8.7364 10.4337 0.2299 0.9470
6.7494 10.3077 0.2081 0.9519
3.3283 10.3355 0.1834 0.9575
2.3743 10.5121 0.1820 0.9578
-0.4859 10.5422 0.1783 0.9587
-1.4139 10.3741 0.1769 0.9590
-2.3985 10.4864 0.1817 0.9579
-3.3437 10.2875 0.1827 0.9576
-5.5925 10.4081 0.1996 0.9538
-6.8625 10.4184 0.2107 0.9513
-8.2948 10.4301 0.2251 0.9481
-10.0782 10.5770 0.2468 0.9432
-14.3434 10.4743 0.3000 0.9314
-5.3763 -16.0004 0.2851 0.9347
8.6084 10.2925 -0.0755 0.9477
5.8748 10.3148 -0.0668 0.9536
3.6427 10.3329 -0.0617 0.9571
1.6715 10.3490 -0.0590 0.9589
-1.1252 10.3717 -0.0587 0.9591
-4.1073 10.3960 -0.0629 0.9563
-11.2721 10.4493 -0.0865 0.9404
-13.5395 10.4678 -0.0964 0.9338
10.8181 10.2746 -0.0840 0.9421
9.0562 10.2889 -0.0772 0.9466
7.6760 10.4758 -0.0731 0.9494
6.1649 10.2158 -0.0672 0.9534
-3.7702 10.2957 -0.0617 0.9571
-4.9858 10.5788 -0.0658 0.9543
-6.0983 10.4122 -0.0679 0.9529
-10.7119 10.4447 -0.0842 0.9419
-12.9781 10.5675 -0.0942 0.9352
-15.5579 10.5066 -0.1057 0.9277
6.5816 10.3090 -0.0689 0.9523
5.3564 10.3190 -0.0655 0.9546
2.2489 10.5199 -0.0606 0.9579
-0.5978 10.3675 -0.0585 0.9593
-1.5362 10.3751 -0.0590 0.9589
-3.5105 10.3912 -0.0618 0.9571
-4.5845 10.3999 -0.0640 0.9556
-5.7489 10.4094 -0.0669 0.9535
-7.0371 10.4198 -0.0708 0.9509
-8.4944 10.4317 -0.0757 0.9476
-12.1007 10.3716 -0.0897 0.9382
-14.9497 10.6549 -0.1034 0.9292
5.6526 -17.4553 -0.1033 0.9292
7.0696 10.4807 -0.0712 0.9507
5.6900 10.3163 -0.0663 0.9540
4.6219 10.5006 -0.0646 0.9551
2.5275 10.5176 -0.0609 0.9577
1.5266 10.3502 -0.0589 0.9590
-0.3413 10.5410 -0.0594 0.9587
-1.2693 10.3729 -0.0588 0.9591
-2.2476 10.4852 -0.0604 0.9580
-4.2734 10.3974 -0.0633 0.9560
-6.6586 10.4168 -0.0696 0.9517
-8.0626 10.4282 -0.0742 0.9486
-11.5893 10.4519 -0.0879 0.9395
-13.6146 5.3786 -0.0824 0.9431
6.2973 5.1334 -0.0457 0.9680
8.8108 10.2909 -0.0763 0.9473
7.4589 10.4775 -0.0724 0.9499
3.7769 10.3319 -0.0619 0.9570
1.7941 10.3480 -0.0591 0.9589
-0.0751 10.5388 -0.0593 0.9587
-2.9637 10.4910 -0.0614 0.9573
-9.1929 10.4324 -0.0783 0.9459
-16.0029 5.1629 -0.0947 0.9350
11.0689 10.2725 -0.0850 0.9414
9.2675 10.2872 -0.0780 0.9461
5.5998 9.0418 -0.0599 0.9583
3.0433 10.3378 -0.0607 0.9578
-0.7405 10.3686 -0.0585 0.9593
-3.6702 10.3925 -0.0621 0.9569
-4.8369 10.5776 -0.0655 0.9545
-5.9373 10.4109 -0.0675 0.9532
-7.3708 10.5982 -0.0727 0.9497
-12.6736 10.5650 -0.0929 0.9361
-15.3968 10.6585 -0.1054 0.9278
2.3741 10.5113 -0.0607 0.9578
1.3822 10.3513 -0.0588 0.9591
0.4492 10.3589 -0.0584 0.9594
-0.4859 10.5422 -0.0594 0.9587
-1.4139 10.3741 -0.0589 0.9590
-2.3985 10.4864 -0.0606 0.9579
-6.8625 10.4184 -0.0702 0.9513
-10.0785 10.5773 -0.0823 0.9432
-11.8545 10.4002 -0.0888 0.9389
5.8748 10.3148 -0.3342 0.9536
3.6427 10.3329 -0.3085 0.9571
2.6801 10.5164 -0.3056 0.9575
-0.1968 10.5398 -0.2968 0.9587
-3.0585 10.3677 -0.3044 0.9577
-4.1073 10.3960 -0.3147 0.9563
-6.4583 10.4151 -0.3451 0.9521
-7.9682 10.6030 -0.3735 0.9483
10.8181 10.2746 -0.4201 0.9420
7.6760 10.4757 -0.3657 0.9494
5.5266 9.1581 -0.3012 0.9581
5.1167 10.4966 -0.3288 0.9543
-0.8609 10.3696 -0.2930 0.9592
-3.7704 10.2962 -0.3087 0.9571
-4.9858 10.5788 -0.3293 0.9543
-6.0983 10.4122 -0.3398 0.9529
-7.5548 10.5997 -0.3665 0.9492
-10.7119 10.4447 -0.4213 0.9419
-12.9781 10.5675 -0.4713 0.9352
7.9527 10.2979 -0.3664 0.9493
4.2382 10.3281 -0.3144 0.9563
1.2609 10.3523 -0.2937 0.9591
-1.5362 10.3751 -0.2953 0.9589
-2.5264 10.4874 -0.3038 0.9578
-3.5105 10.3911 -0.3088 0.9571
-8.4944 10.4317 -0.3788 0.9476
-10.3530 10.6175 -0.4176 0.9424
-12.1010 10.3719 -0.4488 0.9382
-14.9497 10.6549 -0.5169 0.9292
5.6492 -17.4448 -0.5163 0.9293
8.3731 10.2944 -0.3736 0.9483
7.0696 10.4807 -0.3560 0.9507
2.5275 10.5176 -0.3046 0.9576
-0.3413 10.5410 -0.2970 0.9587
-1.2693 10.3729 -0.2943 0.9590
-2.2476 10.4852 -0.3019 0.9580
-3.2084 10.3514 -0.3052 0.9576
-9.8390 10.6133 -0.4075 0.9437
-11.5893 10.4519 -0.4394 0.9395
-13.8698 10.4227 -0.4885 0.9329
-16.9262 10.4953 -0.5608 0.9234
-13.6115 5.3774 -0.4121 0.9431
8.8108 10.2909 -0.3815 0.9472
-0.0751 10.5388 -0.2968 0.9587
-5.1648 10.5802 -0.3315 0.9540
-7.7773 10.6015 -0.3702 0.9487
-15.9981 10.4878 -0.5386 0.9263
-15.9173 5.1352 -0.4709 0.9353
7.8293 10.4304 -0.3672 0.9492
5.2668 10.4954 -0.3306 0.9541
3.0433 10.3378 -0.3034 0.9578
-4.8369 10.5776 -0.3275 0.9545
-7.3708 10.5982 -0.3635 0.9497
-8.7364 10.4337 -0.3832 0.9470
-12.6736 10.5650 -0.4646 0.9361
9.8731 10.4184 -0.4042 0.9442
8.1428 10.2963 -0.3696 0.9488
6.7494 10.3077 -0.3469 0.9519
4.3776 10.3270 -0.3158 0.9561
2.3739 10.5104 -0.3034 0.9578
0.4492 10.3589 -0.2920 0.9594
-1.4139 10.3741 -0.2948 0.9590
-2.3985 10.4864 -0.3029 0.9579
-5.5925 10.4081 -0.3327 0.9538
-8.2948 10.4301 -0.3752 0.9481
-10.0787 10.5775 -0.4114 0.9432
-11.8548 10.4005 -0.4441 0.9388
8.5308 10.1997 -0.6743 0.9481
7.1482 10.2902 -0.6354 0.9511
5.8748 10.3148 -0.6020 0.9536
4.7940 10.4992 -0.5853 0.9548
3.6427 10.3329 -0.5556 0.9571
2.6801 10.5164 -0.5504 0.9575
-0.1968 10.5398 -0.5346 0.9587
-1.1252 10.3717 -0.5291 0.9591
-2.0692 10.3421 -0.5349 0.9586
-3.0587 10.3684 -0.5482 0.9576
-6.4539 10.4081 -0.6211 0.9521
-9.2578 10.2649 -0.7010 0.9461
-11.0892 10.2798 -0.7668 0.9412
-13.3923 10.3539 -0.8585 0.9344
-16.3725 10.4652 -0.9854 0.9251
8.9518 10.1702 -0.6871 0.9472
3.9377 10.3305 -0.5607 0.9567
2.9145 10.3389 -0.5448 0.9579
0.9968 10.3545 -0.5275 0.9592
0.0692 10.5376 -0.5344 0.9587
-0.8609 10.3696 -0.5277 0.9592
-2.8088 10.4897 -0.5507 0.9574
-3.8013 10.3807 -0.5606 0.9567
-7.3862 10.3631 -0.6454 0.9503
-8.8158 10.2851 -0.6870 0.9472
-10.5381 10.2753 -0.7464 0.9428
-12.9781 10.5675 -0.8488 0.9352
-15.4444 10.4300 -0.9451 0.9281
-15.8523 5.3551 -0.8486 0.9352
11.1904 10.1035 -0.7646 0.9414
7.9093 10.2417 -0.6562 0.9495
5.7068 8.9388 -0.5378 0.9584
1.2609 10.3523 -0.5289 0.9591
0.3338 10.4914 -0.5323 0.9588
-0.5978 10.3675 -0.5266 0.9593
-1.5362 10.3751 -0.5319 0.9589
-2.5264 10.4874 -0.5471 0.9577
-4.5845 10.3999 -0.5764 0.9555
-5.7489 10.4094 -0.6031 0.9535
-8.3946 10.3092 -0.6742 0.9481
-10.0153 10.2711 -0.7275 0.9442
5.6760 -17.5274 -0.9343 0.9289
6.9494 10.3024 -0.6302 0.9514
5.6900 10.3163 -0.5975 0.9539
4.6219 10.5006 -0.5818 0.9551
2.5275 10.5176 -0.5486 0.9576
0.5914 10.3578 -0.5261 0.9593
-1.2693 10.3729 -0.5300 0.9590
-4.2734 10.3974 -0.5701 0.9560
-5.4779 10.5386 -0.6023 0.9535
-6.6473 10.3991 -0.6259 0.9518
-9.5180 10.2670 -0.7100 0.9455
-13.7980 10.3687 -0.8753 0.9332
-13.6092 5.3765 -0.7421 0.9431
6.2957 5.1322 -0.4119 0.9680
10.3573 10.1103 -0.7340 0.9437
7.3181 10.2797 -0.6399 0.9507
4.9406 10.4980 -0.5884 0.9546
3.7769 10.3318 -0.5579 0.9569
2.8094 10.5153 -0.5520 0.9573
-2.9637 10.4910 -0.5529 0.9573
-3.9688 10.3949 -0.5643 0.9564
-10.8336 10.2777 -0.7573 0.9419
-13.0625 10.3419 -0.8449 0.9354
9.1494 10.1561 -0.6932 0.9467
5.5600 8.9777 -0.5355 0.9586
1.1174 10.3535 -0.5281 0.9591
0.1908 10.5367 -0.5344 0.9587
-1.6819 10.3763 -0.5331 0.9588
-2.6792 10.4887 -0.5490 0.9576
-3.6702 10.3925 -0.5589 0.9568
-4.8167 10.5333 -0.5874 0.9547
-5.9373 10.4109 -0.6078 0.9531
-10.2958 10.2733 -0.7376 0.9434
5.5078 10.3178 -0.5931 0.9542
4.3776 10.3270 -0.5688 0.9561
3.3283 10.3355 -0.5507 0.9574
2.3737 10.5095 -0.5464 0.9578
0.4492 10.3589 -0.5258 0.9593
-0.4859 10.5422 -0.5352 0.9586
-1.4139 10.3741 -0.5310 0.9589
-5.5925 10.4081 -0.5992 0.9538
-6.8437 10.3899 -0.6309 0.9514
-9.7849 10.2692 -0.7194 0.9448
-11.7341 10.2946 -0.7916 0.9394
-14.2201 10.3843 -0.8930 0.9319
-5.3744 -15.9948 -0.8557 0.9347
5.3493 -17.1928 -0.9131 0.9304
8.5727 10.2499 -0.9798 0.9478
5.8057 10.1934 -0.8601 0.9540
3.5838 10.1658 -0.7903 0.9577
2.5927 10.1735 -0.7698 0.9588
1.6444 10.1812 -0.7562 0.9595
0.7219 10.1887 -0.7489 0.9599
-3.0589 10.3691 -0.7927 0.9576
-4.0471 10.2436 -0.8076 0.9568
-6.3991 10.3196 -0.8903 0.9525
-7.7952 10.3728 -0.9514 0.9493
-9.4105 10.4342 -1.0302 0.9452
-11.2721 10.4493 -1.1270 0.9402
-13.5395 10.4678 -1.2548 0.9337
10.8181 10.2746 -1.0939 0.9419
7.4926 10.2254 -0.9295 0.9504
6.1550 10.1994 -0.8735 0.9533
4.9627 10.1808 -0.8304 0.9556
1.9088 10.1790 -0.7594 0.9593
0.9806 10.1866 -0.7504 0.9598
-0.8469 10.2015 -0.7506 0.9598
-1.7759 10.2090 -0.7598 0.9593
-4.8389 10.2670 -0.8322 0.9555
-7.3815 10.3565 -0.9325 0.9503
-10.7119 10.4447 -1.0970 0.9418
-12.9781 10.5675 -1.2271 0.9351
9.5130 10.2732 -1.0266 0.9454
5.7053 8.9364 -0.7774 0.9584
3.1456 10.1690 -0.7805 0.9582
2.1755 10.1769 -0.7630 0.9591
1.2405 10.1845 -0.7523 0.9597
0.3242 10.1919 -0.7477 0.9599
-1.5113 10.2069 -0.7565 0.9595
-2.5264 10.4874 -0.7910 0.9577
-3.4552 10.2277 -0.7916 0.9576
-5.6855 10.2946 -0.8623 0.9539
-6.9840 10.3413 -0.9150 0.9512
-8.4687 10.4002 -0.9834 0.9476
-14.7004 10.4772 -1.3236 0.9302
10.0139 10.2811 -1.0523 0.9441
8.3322 10.2442 -0.9682 0.9484
5.6206 10.1904 -0.8533 0.9544
4.4784 10.1747 -0.8151 0.9564
3.4283 10.1667 -0.7867 0.9579
2.4450 10.1747 -0.7673 0.9589
0.5818 10.1898 -0.7484 0.9599
-3.1678 10.2205 -0.7846 0.9580
-4.2121 10.2483 -0.8124 0.9565
-5.3452 10.2832 -0.8498 0.9546
-6.6012 10.3270 -0.8987 0.9520
-8.0270 10.3821 -0.9622 0.9487
-9.6749 10.4363 -1.0434 0.9445
-11.5893 10.4519 -1.1443 0.9393
6.2949 5.1315 -0.5955 0.9680
10.5280 10.2769 -1.0787 0.9427
8.7799 10.2548 -0.9898 0.9473
4.7902 10.1785 -0.8248 0.9559
3.7166 10.1669 -0.7937 0.9575
2.7177 10.1725 -0.7720 0.9586
0.8400 10.1877 -0.7495 0.9598
-0.9879 10.2026 -0.7516 0.9597
-1.9205 10.2102 -0.7618 0.9592
-6.2318 10.3136 -0.8835 0.9528
-7.6039 10.3652 -0.9426 0.9497
-9.1866 10.4252 -1.0188 0.9458
-11.0122 10.4472 -1.1130 0.9409
-13.2182 10.4651 -1.2362 0.9346
-15.9981 10.4878 -1.4026 0.9261
-16.0463 5.1769 -1.2363 0.9346
9.2488 10.2665 -1.0132 0.9461
5.5621 8.9810 -0.7746 0.9585
5.1099 10.1828 -0.8354 0.9553
4.0113 10.1696 -0.8016 0.9571
2.9940 10.1702 -0.7773 0.9584
2.0304 10.1780 -0.7610 0.9592
-0.7285 10.2005 -0.7498 0.9598
-1.6546 10.2080 -0.7582 0.9594
-3.6135 10.2318 -0.7956 0.9574
-5.8746 10.3011 -0.8695 0.9536
-7.1978 10.3494 -0.9243 0.9507
-8.7170 10.4105 -0.9956 0.9470
-10.4655 10.4427 -1.0840 0.9424
-12.6736 10.5650 -1.2098 0.9360
-15.1400 10.4808 -1.3501 0.9288
15.9676 11.7272 -1.4526 0.9236
9.7411 10.2791 -1.0384 0.9448
5.4384 10.1876 -0.8467 0.9547
3.2743 10.1679 -0.7832 0.9581
-0.4700 10.1984 -0.7486 0.9599
-2.3985 10.4864 -0.7887 0.9578
-4.3792 10.2531 -0.8175 0.9563
-5.5286 10.2893 -0.8564 0.9542
-6.8073 10.3346 -0.9074 0.9516
-8.2643 10.3918 -0.9735 0.9481
-9.9463 10.4385 -1.0572 0.9438
-11.9164 10.4545 -1.1623 0.9384
-14.3434 10.4743 -1.3023 0.9312
-5.3424 -15.8997 -1.2299 0.9349
5.3444 -17.1772 -1.3190 0.9304
8.6084 10.2925 -1.2882 0.9475
4.7141 10.3242 -1.0896 0.9554
0.7317 10.3275 -0.9940 0.9592
-0.1929 10.3344 -0.9923 0.9593
-1.1225 10.3471 -0.9992 0.9590
-3.0643 10.3875 -1.0397 0.9574
-4.1073 10.3960 -1.0731 0.9561
-6.4583 10.4151 -1.1765 0.9519
-7.8354 10.4263 -1.2521 0.9489
-11.2721 10.4493 -1.4756 0.9401
-13.5395 10.4678 -1.6430 0.9335
-16.1177 10.3023 -1.8365 0.9260
-18.2547 5.6577 -1.8348 0.9261
-12.6194 -14.7072 -1.8605 0.9251
-11.1355 -15.6063 -1.8406 0.9259
-8.1930 -17.3603 -1.8430 0.9258
-6.6149 -18.0349 -1.8442 0.9257
-4.9819 -18.5666 -1.8455 0.9257
-3.3068 -18.9511 -1.8469 0.9256
-1.6028 -19.1849 -1.8483 0.9256
0.1165 -19.2658 -1.8496 0.9255
1.8375 -19.1927 -1.8510 0.9254
3.5463 -18.9661 -1.8524 0.9254
5.2293 -18.5873 -1.8537 0.9253
16.2182 10.6451 -1.8625 0.9250
10.8181 10.2746 -1.4324 0.9418
5.0314 10.3216 -1.1024 0.9549
2.9129 10.3332 -1.0307 0.9578
0.9941 10.3265 -0.9960 0.9592
-0.8587 10.3429 -0.9964 0.9592
-1.8021 10.3599 -1.0095 0.9586
-2.8088 10.4897 -1.0425 0.9573
-3.8017 10.3817 -1.0614 0.9565
-4.9027 10.4025 -1.1040 0.9548
-7.4289 10.4230 -1.2288 0.9499
-15.5242 10.4839 -1.7984 0.9275
-16.7407 9.2451 -1.8360 0.9260
-17.4935 7.7111 -1.8354 0.9261
-18.1073 6.1168 -1.8349 0.9261
-18.5773 4.4749 -1.8345 0.9261
-11.5238 -15.3178 -1.8403 0.9259
-10.1164 -16.2955 -1.8414 0.9258
-0.3695 -19.2585 -1.8492 0.9255
8.0205 -17.5899 -1.8560 0.9253
9.5653 -16.8148 -1.8572 0.9252
16.4836 10.2336 -1.8627 0.9250
5.7388 8.9888 -1.0239 0.9581
1.2577 10.3261 -0.9987 0.9591
0.3286 10.3298 -0.9922 0.9593
-0.5962 10.3392 -0.9943 0.9592
-1.5331 10.3545 -1.0049 0.9588
-2.5264 10.4874 -1.0356 0.9576
-3.5105 10.3911 -1.0530 0.9569
-5.7489 10.4094 -1.1416 0.9533
-12.2002 10.4569 -1.5426 0.9375
-14.7004 10.4772 -1.7331 0.9300
-16.5038 9.6656 -1.8362 0.9260
-17.9484 6.5722 -1.8350 0.9261
-18.4594 4.9424 -1.8346 0.9261
-10.5225 -16.0322 -1.8411 0.9258
-9.0549 -16.9185 -1.8423 0.9258
-7.5133 -17.6712 -1.8435 0.9257
-4.2568 -18.7524 -1.8461 0.9256
-2.5675 -19.0716 -1.8475 0.9256
-0.8552 -19.2390 -1.8489 0.9255
2.5839 -19.1128 -1.8516 0.9254
4.2832 -18.8197 -1.8530 0.9254
10.6287 -16.1743 -1.8581 0.9252
15.7887 11.2661 -1.8621 0.9250
14.7129 12.6248 -1.8612 0.9251
8.3731 10.2945 -1.2739 0.9481
6.9518 10.3060 -1.1935 0.9513
5.6900 10.3163 -1.1311 0.9538
3.4848 10.3342 -1.0470 0.9571
2.4823 10.3297 -1.0199 0.9582
0.5897 10.3282 -0.9932 0.9593
-0.3346 10.3359 -0.9928 0.9593
-3.2200 10.3888 -1.0442 0.9572
-5.4093 10.4066 -1.1260 0.9540
-6.6586 10.4168 -1.1869 0.9515
-8.0626 10.4282 -1.2655 0.9484
-9.6749 10.4363 -1.3662 0.9444
-11.5893 10.4519 -1.4983 0.9392
-16.2564 10.0800 -1.8364 0.9260
-12.2818 -14.7169 -1.8403 0.9259
-10.9218 -15.7588 -1.8408 0.9258
-9.4772 -16.6815 -1.8419 0.9258
-5.5720 -15.8601 -1.6139 0.9347
-3.0472 -18.9968 -1.8471 0.9256
-1.3400 -19.2072 -1.8485 0.9255
0.3804 -19.2646 -1.8499 0.9255
7.1202 -17.9651 -1.8553 0.9253
10.5280 10.2769 -1.4125 0.9426
8.8108 10.2909 -1.3006 0.9470
7.3346 10.3029 -1.2142 0.9504
6.0327 10.3135 -1.1471 0.9531
1.7904 10.3265 -1.0062 0.9588
-1.9493 10.3631 -1.0124 0.9585
-3.9688 10.3949 -1.0682 0.9563
-6.2923 10.4138 -1.1681 0.9523
-7.6476 10.4248 -1.2413 0.9494
-9.1929 10.4324 -1.3349 0.9457
-12.9529 10.2551 -1.5861 0.9358
-17.5967 7.4704 -1.8353 0.9261
-18.1888 5.8680 -1.8348 0.9261
-6.8219 -17.9557 -1.8441 0.9257
-3.5248 -18.9099 -1.8467 0.9256
-1.8238 -19.1632 -1.8481 0.9256
-0.1057 -19.2639 -1.8495 0.9255
8.2615 -17.4802 -1.8562 0.9252
9.7957 -16.6839 -1.8574 0.9252
11.2532 -15.7526 -1.8586 0.9252
15.3352 11.8697 -1.8618 0.9250
9.2675 10.2872 -1.3293 0.9459
4.0743 10.3294 -1.0660 0.9564
2.0602 10.3274 -1.0110 0.9586
0.1871 10.3308 -0.9920 0.9593
-2.6792 10.4887 -1.0393 0.9574
-3.6702 10.3925 -1.0581 0.9567
-4.7563 10.4013 -1.0980 0.9551
-5.9373 10.4109 -1.1506 0.9530
-8.7364 10.4337 -1.3065 0.9468
-16.6337 9.4380 -1.8361 0.9260
-17.4041 7.9127 -1.8355 0.9261
-18.5249 4.6890 -1.8346 0.9261
-11.6988 -15.1826 -1.8401 0.9259
-10.3030 -16.1763 -1.8413 0.9258
-4.0000 -18.8110 -1.8463 0.9256
-0.5916 -19.2511 -1.8491 0.9255
1.1303 -19.2414 -1.8505 0.9255
2.8458 -19.0779 -1.8518 0.9254
6.2024 -18.2942 -1.8545 0.9253
7.8163 -17.6797 -1.8558 0.9253
14.5375 12.8242 -1.8611 0.9251
9.7451 10.2833 -1.3601 0.9447
8.1428 10.2963 -1.2603 0.9486
3.3283 10.3355 -1.0424 0.9573
2.3329 10.3288 -1.0166 0.9583
1.3788 10.3260 -1.0001 0.9590
-3.3771 10.3901 -1.0489 0.9570
-4.4414 10.3987 -1.0856 0.9556
-8.2948 10.4301 -1.2794 0.9479
-9.9463 10.4385 -1.3842 0.9437
-16.3919 9.8558 -1.8363 0.9260
-18.4016 5.1552 -1.8347 0.9261
-10.7059 -15.9085 -1.8409 0.9258
-5.3295 -15.8613 -1.6064 0.9350
-4.4724 -18.7003 -1.8460 0.9256
-2.7871 -19.0389 -1.8473 0.9256
-1.0769 -19.2260 -1.8487 0.9255
2.3630 -19.1396 -1.8514 0.9254
5.3526 -17.2034 -1.7297 0.9302
7.3664 -17.8678 -1.8555 0.9253
8.9383 -17.1504 -1.8567 0.9252
10.4406 -16.2945 -1.8579 0.9252
7.1580 10.3043 -1.4904 0.9507
3.6427 10.3329 -1.3014 0.9568
1.6715 10.3490 -1.2452 0.9587
-0.1935 10.3642 -1.2313 0.9591
-1.1252 10.3717 -1.2392 0.9588
-2.0766 10.3795 -1.2574 0.9583
-3.0643 10.3875 -1.2865 0.9573
-4.1073 10.3960 -1.3278 0.9560
-5.2288 10.4051 -1.3833 0.9542
-7.8354 10.4263 -1.5492 0.9488
-11.2721 10.4493 -1.8258 0.9400
-12.2520 9.4723 -1.8396 0.9395
-13.0442 8.3378 -1.8390 0.9395
-14.7763 4.5796 -1.8376 0.9396
-16.3685 3.5084 -1.9885 0.9348
-16.6147 2.0328 -1.9883 0.9348
-16.7291 0.5413 -1.9882 0.9348
-16.5599 -2.4428 -1.9884 0.9348
-15.8660 -5.3505 -1.9889 0.9348
-15.3284 -6.7472 -1.9894 0.9348
-14.6687 -8.0909 -1.9899 0.9347
-13.0047 -10.5779 -1.9913 0.9347
-8.4790 -14.4598 -1.9911 0.9347
-6.9387 -14.7026 -1.9312 0.9366
-5.3996 -14.7215 -1.8626 0.9388
-4.0281 -15.0120 -1.8463 0.9393
-2.6733 -15.3207 -1.8474 0.9393
-1.2956 -15.5075 -1.8485 0.9392
0.0942 -15.5707 -1.8496 0.9392
1.4848 -15.5094 -1.8507 0.9392
2.8653 -15.3241 -1.8518 0.9391
4.2245 -15.0159 -1.8529 0.9391
8.7249 -14.4750 -2.0076 0.9342
9.9930 -13.6527 -2.0098 0.9341
11.1773 -12.7120 -2.0107 0.9341
13.2709 -10.5303 -2.0124 0.9340
14.9420 -8.0075 -2.0137 0.9340
16.1355 -5.2249 -2.0147 0.9340
16.9490 0.7537 -2.0153 0.9339
16.5420 3.7554 -2.0150 0.9340
12.2665 9.7228 -1.8593 0.9389
9.0562 10.2889 -1.6282 0.9463
7.5481 10.3012 -1.5170 0.9499
6.1838 10.2471 -1.4217 0.9529
3.9377 10.3305 -1.3132 0.9564
2.9145 10.3389 -1.2760 0.9577
1.9402 10.3468 -1.2505 0.9585
0.9968 10.3545 -1.2357 0.9590
0.0681 10.3620 -1.2309 0.9591
-1.8052 10.3773 -1.2512 0.9585
-2.8088 10.4897 -1.2899 0.9572
-3.8019 10.3823 -1.3134 0.9564
-8.9403 10.4303 -1.6318 0.9462
-13.5490 7.4825 -1.8386 0.9396
-14.1592 6.2413 -1.8381 0.9396
-14.6568 4.9512 -1.8377 0.9396
-16.2549 3.9155 -1.9861 0.9349
-16.5585 2.4514 -1.9884 0.9348
-16.7103 0.9632 -1.9882 0.9348
-16.6159 -2.0241 -1.9883 0.9348
-16.3705 -3.4999 -1.9885 0.9348
-15.4927 -6.3578 -1.9892 0.9348
-14.1229 -9.0169 -1.9904 0.9347
-12.3032 -11.3932 -1.9918 0.9347
-8.8546 -14.2629 -1.9942 0.9346
-0.2987 -15.5654 -1.8493 0.9392
5.2243 -14.8439 -1.8693 0.9386
8.3420 -14.6643 -2.0040 0.9343
10.8516 -12.9883 -2.0104 0.9341
15.4277 -7.0343 -2.0141 0.9340
16.7489 -2.6960 -2.0151 0.9339
16.9238 -1.1899 -2.0153 0.9339
16.9627 0.3258 -2.0153 0.9339
16.8652 1.8389 -2.0152 0.9339
15.7679 6.2395 -2.0143 0.9340
13.9926 7.0410 -1.8607 0.9389
13.3041 8.2597 -1.8601 0.9389
11.6145 10.4864 -1.8588 0.9389
7.9527 10.2979 -1.5455 0.9489
5.3564 10.3190 -1.3811 0.9542
4.2382 10.3281 -1.3261 0.9560
3.1975 10.3366 -1.2852 0.9574
0.3296 10.3599 -1.2312 0.9591
-0.5978 10.3674 -1.2336 0.9590
-1.5362 10.3751 -1.2458 0.9586
-2.5264 10.4874 -1.2814 0.9575
-3.5105 10.3911 -1.3029 0.9568
-4.5845 10.3999 -1.3501 0.9553
-5.7489 10.4094 -1.4125 0.9532
-8.4944 10.4317 -1.5980 0.9473
-12.6094 8.9869 -1.8393 0.9395
-13.9982 6.5971 -1.8382 0.9396
-14.5280 5.3197 -1.8378 0.9396
-15.7776 4.2244 -1.9402 0.9363
-16.4918 2.8685 -1.9884 0.9348
-16.6808 1.3845 -1.9883 0.9348
-16.4531 -3.0856 -1.9885 0.9348
-14.3446 -8.6569 -1.9902 0.9347
-13.5189 -9.9063 -1.9908 0.9347
-6.2549 -14.7113 -1.8989 0.9376
-3.4416 -15.1613 -1.8468 0.9393
0.7003 -15.5593 -1.8501 0.9392
2.0879 -15.4439 -1.8512 0.9392
3.4605 -15.2049 -1.8523 0.9391
7.9556 -14.8446 -2.0006 0.9344
9.2889 -14.1355 -2.0092 0.9341
12.7200 -11.1839 -2.0119 0.9340
13.6729 -10.0074 -2.0127 0.9340
14.5166 -8.7496 -2.0134 0.9340
15.2442 -7.4208 -2.0140 0.9340
15.8496 -6.0316 -2.0144 0.9340
16.3279 -4.5933 -2.0148 0.9340
16.8882 -1.6165 -2.0153 0.9339
16.9656 -0.1023 -2.0153 0.9339
16.3822 4.3961 -2.0148 0.9340
15.9213 5.8401 -2.0144 0.9340
14.1669 6.6862 -1.8608 0.9388
13.5095 7.9221 -1.8603 0.9389
11.8767 10.1912 -1.8590 0.9389
8.3731 10.2944 -1.5762 0.9480
1.5266 10.3502 -1.2428 0.9587
0.5914 10.3578 -1.2324 0.9591
-1.2693 10.3729 -1.2413 0.9588
-2.2476 10.4852 -1.2738 0.9577
-3.2200 10.3888 -1.2920 0.9571
-4.2734 10.3974 -1.3353 0.9557
-5.4093 10.4066 -1.3932 0.9539
-6.6586 10.4168 -1.4686 0.9514
-11.5042 10.3752 -1.8402 0.9395
-13.1566 8.1579 -1.8389 0.9395
-13.4813 5.3260 -1.7218 0.9433
-14.8372 4.3767 -1.8375 0.9396
-16.6408 1.8050 -1.9883 0.9348
-16.7350 0.3121 -1.9882 0.9348
-15.2351 -6.9567 -1.9895 0.9348
-14.5572 -8.2915 -1.9900 0.9347
-11.8526 -11.8656 -1.9922 0.9347
-10.7507 -12.8822 -1.9931 0.9346
-9.5622 -13.7972 -1.9940 0.9346
-8.2736 -14.5630 -1.9896 0.9348
-5.1729 -14.7242 -1.8538 0.9391
-2.4634 -15.3573 -1.8476 0.9393
1.6973 -15.4891 -1.8509 0.9392
3.0752 -15.2848 -1.8520 0.9391
8.9280 -14.3633 -2.0089 0.9341
11.3511 -12.5586 -2.0108 0.9341
13.4147 -10.3481 -2.0125 0.9340
15.0510 -7.8024 -2.0138 0.9340
15.6915 -6.4291 -2.0143 0.9340
16.9370 0.9857 -2.0153 0.9339
16.4886 3.9815 -2.0149 0.9340
16.0645 5.4368 -2.0146 0.9340
15.5115 6.8478 -2.0141 0.9340
12.9706 8.7700 -1.8599 0.9389
10.5280 10.2769 -1.7476 0.9425
6.0327 10.3135 -1.4193 0.9530
4.8582 10.3231 -1.3552 0.9551
2.7625 10.3401 -1.2713 0.9578
1.7941 10.3480 -1.2475 0.9586
0.8539 10.3556 -1.2343 0.9590
-1.0042 10.3707 -1.2377 0.9589
-2.9637 10.4910 -1.2950 0.9570
-3.9688 10.3949 -1.3217 0.9562
-5.0787 10.4039 -1.3752 0.9544
-6.2923 10.4138 -1.4453 0.9522
-9.1929 10.4324 -1.6517 0.9455
-11.0122 10.4472 -1.8031 0.9407
-13.6497 7.2959 -1.8385 0.9396
-14.7228 4.7499 -1.8376 0.9396
-16.5903 2.2243 -1.9883 0.9348
-16.7218 0.7342 -1.9882 0.9348
-11.0709 -12.6052 -1.9928 0.9347
-9.9059 -13.5496 -1.9938 0.9346
-8.6512 -14.3709 -1.9925 0.9347
-5.5923 -14.7192 -1.8704 0.9385
-2.8496 -15.2877 -1.8472 0.9393
-1.4743 -15.4903 -1.8483 0.9392
1.3057 -15.5243 -1.8506 0.9392
2.6881 -15.3550 -1.8517 0.9391
5.4542 -14.8447 -1.8786 0.9383
7.0178 -14.8487 -1.9509 0.9360
8.5502 -14.5626 -2.0060 0.9342
11.0293 -12.8394 -2.0106 0.9341
14.0542 -9.4691 -2.0130 0.9340
14.8481 -8.1790 -2.0136 0.9340
16.0738 -5.4106 -2.0146 0.9340
16.4954 -3.9546 -2.0149 0.9340
16.9387 -0.9580 -2.0153 0.9339
16.8382 2.0696 -2.0152 0.9339
16.5845 3.5644 -2.0150 0.9340
15.6804 6.4547 -2.0142 0.9340
11.0690 10.2725 -1.7938 0.9410
5.1790 10.3204 -1.3716 0.9546
4.0743 10.3294 -1.3190 0.9563
2.0639 10.3458 -1.2531 0.9584
-1.6819 10.3763 -1.2486 0.9585
-2.6792 10.4887 -1.2859 0.9573
-4.7563 10.4013 -1.3586 0.9550
-5.9373 10.4109 -1.4236 0.9529
-8.7364 10.4337 -1.6165 0.9467
-10.4655 10.4427 -1.7562 0.9422
-11.8973 9.9179 -1.8399 0.9395
-12.7306 8.8129 -1.8392 0.9395
-13.4623 7.6386 -1.8386 0.9396
-14.0867 6.4045 -1.8381 0.9396
-14.5990 5.1201 -1.8377 0.9396
-16.1841 4.0965 -1.9831 0.9350
-16.6981 1.1559 -1.9883 0.9348
-16.7344 -0.3395 -1.9882 0.9348
-16.6380 -1.8323 -1.9883 0.9348
-16.4095 -3.3108 -1.9885 0.9348
-14.2253 -8.8530 -1.9903 0.9347
-12.4331 -11.2499 -1.9917 0.9347
-9.0200 -14.1620 -1.9945 0.9346
-6.0194 -14.7142 -1.8884 0.9380
-1.8643 -15.4456 -1.8480 0.9393
-0.4782 -15.5597 -1.8491 0.9392
0.9134 -15.5497 -1.8503 0.9392
2.2995 -15.4153 -1.8514 0.9391
8.1657 -14.7478 -2.0024 0.9343
9.4824 -14.0080 -2.0093 0.9341
10.7003 -13.1119 -2.0103 0.9341
12.8728 -11.0093 -2.0121 0.9340
14.6358 -8.5504 -2.0135 0.9340
15.3450 -7.2115 -2.0140 0.9340
16.3897 -4.3693 -2.0149 0.9340
16.7165 -2.8889 -2.0151 0.9339
16.9654 0.1301 -2.0153 0.9339
16.8854 1.6442 -2.0152 0.9339
16.6697 3.1449 -2.0151 0.9340
15.8393 6.0574 -2.0144 0.9340
12.6175 9.2668 -1.8596 0.9389
4.3776 10.3270 -1.3324 0.9558
0.4492 10.3589 -1.2317 0.9591
-0.4778 10.3665 -1.2327 0.9591
-1.4139 10.3741 -1.2437 0.9587
-3.3771 10.3901 -1.2978 0.9569
-5.5925 10.4081 -1.4035 0.9535
-11.6445 10.2160 -1.8401 0.9395
-12.5054 9.1321 -1.8394 0.9395
-15.1271 4.2378 -1.8661 0.9387
-16.7376 0.0828 -1.9882 0.9348
-16.6787 -1.4119 -1.9883 0.9348
-16.4873 -2.8956 -1.9884 0.9348
-16.1651 -4.3565 -1.9887 0.9348
-15.7145 -5.7835 -1.9891 0.9348
-14.4429 -8.4905 -1.9901 0.9347
-12.7116 -10.9314 -1.9915 0.9347
-11.6897 -12.0277 -1.9923 0.9347
-10.5740 -13.0291 -1.9932 0.9346
-8.0671 -14.6637 -1.9880 0.9348
-6.4551 -14.7088 -1.9081 0.9373
-4.9505 -14.7333 -1.8463 0.9393
-3.6160 -15.1194 -1.8466 0.9393
-2.2531 -15.3910 -1.8477 0.9393
-0.8705 -15.5401 -1.8488 0.9392
0.5207 -15.5651 -1.8500 0.9392
3.2846 -15.2426 -1.8522 0.9391
9.1247 -14.2408 -2.0091 0.9341
10.3647 -13.3759 -2.0101 0.9341
14.4141 -8.9162 -2.0133 0.9340
15.7786 -6.2138 -2.0144 0.9340
16.2735 -4.7812 -2.0148 0.9340
16.6377 -3.3097 -2.0151 0.9340
16.9632 -0.2980 -2.0153 0.9339
15.4157 7.0593 -2.0140 0.9340
13.6005 7.7660 -1.8604 0.9389
12.8486 8.9464 -1.8598 0.9389
5.8748 10.3148 -1.6819 0.9532
4.7141 10.3242 -1.6081 0.9552
0.7338 10.3566 -1.4711 0.9589
-0.1935 10.3642 -1.4687 0.9590
-1.1252 10.3717 -1.4782 0.9587
-2.0766 10.3795 -1.4998 0.9581
-3.0643 10.3875 -1.5345 0.9572
-6.4583 10.4151 -1.7364 0.9517
-7.8150 10.3993 -1.8432 0.9488
-8.7089 9.6562 -1.8424 0.9488
-9.5328 8.8370 -1.8418 0.9488
-12.0100 4.9359 -1.8398 0.9489
-13.3779 4.1462 -1.9845 0.9450
-13.9441 1.7060 -1.9905 0.9448
-14.0402 0.4543 -1.9904 0.9448
-14.0248 -0.8011 -1.9904 0.9448
-13.6608 -3.2831 -1.9907 0.9448
-11.6570 -7.8635 -1.9923 0.9448
-10.9117 -8.8755 -1.9929 0.9448
-3.6559 -13.6249 -1.9988 0.9446
-2.4261 -13.9037 -1.9998 0.9446
-1.1756 -14.0719 -2.0008 0.9445
1.3471 -14.0709 -2.0028 0.9445
2.5993 -13.9014 -2.0038 0.9445
5.0351 -13.2304 -2.0058 0.9444
7.3145 -12.1350 -2.0076 0.9444
9.3637 -10.6494 -2.0092 0.9443
11.1162 -8.8205 -2.0106 0.9443
11.8628 -7.7951 -2.0112 0.9443
13.5132 -4.3758 -2.0125 0.9442
14.1934 -0.6386 -2.0131 0.9442
14.1937 0.6312 -2.0131 0.9442
14.0800 1.8958 -2.0130 0.9442
10.9642 7.1965 -1.8583 0.9484
6.3976 5.0709 -1.1567 0.9676
7.5481 10.3012 -1.8095 0.9497
5.0314 10.3216 -1.6270 0.9547
3.9377 10.3305 -1.5665 0.9563
0.9968 10.3545 -1.4739 0.9588
0.0681 10.3620 -1.4682 0.9590
-0.8609 10.3696 -1.4743 0.9588
-3.8021 10.3828 -1.5667 0.9563
-4.9027 10.4025 -1.6294 0.9546
-6.0983 10.4122 -1.7097 0.9524
-7.4289 10.4230 -1.8136 0.9496
-8.4634 9.8740 -1.8426 0.9488
-9.3077 9.0756 -1.8420 0.9488
-10.0775 8.2056 -1.8413 0.9489
-10.7666 7.2709 -1.8408 0.9489
-11.3698 6.2790 -1.8403 0.9489
-11.8823 5.2377 -1.8399 0.9489
-12.5367 4.2350 -1.8749 0.9479
-13.6590 3.2902 -1.9907 0.9448
-13.8969 2.0573 -1.9905 0.9448
-14.0244 0.8084 -1.9904 0.9448
-13.7389 -2.9372 -1.9906 0.9448
-11.1312 -8.5966 -1.9928 0.9448
-10.3226 -9.5592 -1.9934 0.9447
-9.4314 -10.4464 -1.9941 0.9447
-7.4292 -11.9669 -1.9957 0.9447
-5.1871 -13.1092 -1.9976 0.9446
-3.9980 -13.5264 -1.9985 0.9446
-2.7757 -13.8362 -1.9995 0.9446
0.9915 -14.0984 -2.0025 0.9445
3.4866 -13.7110 -2.0045 0.9444
4.6990 -13.3514 -2.0055 0.9444
7.0051 -12.3142 -2.0073 0.9444
8.0800 -11.6446 -2.0082 0.9443
10.0300 -10.0298 -2.0098 0.9443
11.6614 -8.0913 -2.0111 0.9443
12.3405 -7.0198 -2.0116 0.9443
12.9210 -5.8913 -2.0121 0.9442
13.3978 -4.7151 -2.0125 0.9442
13.7673 -3.5006 -2.0127 0.9442
14.1726 -0.9965 -2.0131 0.9442
14.1236 1.5399 -2.0130 0.9442
13.6217 4.0264 -2.0126 0.9442
11.7193 5.8971 -1.8589 0.9484
11.1432 6.9181 -1.8584 0.9484
10.4780 7.8831 -1.8579 0.9484
7.9527 10.2979 -1.8435 0.9488
5.7707 9.0388 -1.5195 0.9576
5.3564 10.3190 -1.6473 0.9541
2.2114 10.3446 -1.4988 0.9582
-0.5978 10.3674 -1.4714 0.9589
-3.5105 10.3911 -1.5541 0.9567
-5.7489 10.4094 -1.6849 0.9531
-7.0371 10.4198 -1.7815 0.9505
-11.2085 6.5643 -1.8404 0.9489
-11.7471 5.5361 -1.8400 0.9489
-12.1921 4.4644 -1.8397 0.9489
-13.5721 3.6339 -1.9908 0.9448
-13.8408 2.4074 -1.9905 0.9448
-14.0472 -0.0925 -1.9904 0.9448
-13.8082 -2.5896 -1.9906 0.9448
-13.5235 -3.8125 -1.9908 0.9448
-13.1312 -5.0054 -1.9911 0.9448
-12.6344 -6.1591 -1.9915 0.9448
-9.6909 -10.2040 -1.9939 0.9447
-8.7446 -11.0327 -1.9947 0.9447
-7.7278 -11.7742 -1.9955 0.9447
-6.6486 -12.4225 -1.9964 0.9447
5.5474 -13.0271 -2.0062 0.9444
6.6913 -12.4855 -2.0071 0.9444
8.8126 -11.1058 -2.0088 0.9443
9.7727 -10.2786 -2.0096 0.9443
10.6551 -9.3683 -2.0103 0.9443
12.7674 -6.2151 -2.0120 0.9442
13.2740 -5.0514 -2.0124 0.9442
13.6741 -3.8467 -2.0127 0.9442
13.9645 -2.6108 -2.0129 0.9442
13.7195 3.6816 -2.0127 0.9442
13.3340 4.8910 -2.0124 0.9442
11.3150 6.6352 -1.8585 0.9484
9.9487 8.5367 -1.8574 0.9484
6.9518 10.3060 -1.7614 0.9510
5.6900 10.3163 -1.6693 0.9535
2.4853 10.3424 -1.5071 0.9579
1.5266 10.3502 -1.4824 0.9586
-0.3356 10.3653 -1.4694 0.9590
-1.2693 10.3729 -1.4807 0.9587
-3.2200 10.3888 -1.5411 0.9570
-4.2734 10.3974 -1.5928 0.9556
-10.3878 7.8061 -1.8411 0.9489
-11.6044 5.8311 -1.8401 0.9489
-13.9660 1.5149 -1.9904 0.9448
-14.0451 0.2619 -1.9904 0.9448
-14.0126 -0.9931 -1.9904 0.9448
-13.2527 -4.6723 -1.9910 0.9448
-11.5488 -8.0227 -1.9924 0.9448
-9.9443 -9.9552 -1.9937 0.9447
-9.0191 -10.8074 -1.9945 0.9447
-8.0215 -11.5741 -1.9953 0.9447
-4.6740 -13.3039 -1.9980 0.9446
-3.4692 -13.6747 -1.9989 0.9446
-0.9828 -14.0878 -2.0009 0.9445
0.2790 -14.1264 -2.0020 0.9445
4.0184 -13.5678 -2.0050 0.9444
5.2162 -13.1611 -2.0059 0.9444
7.4805 -12.0345 -2.0077 0.9444
8.5286 -11.3233 -2.0086 0.9443
9.5093 -10.5208 -2.0094 0.9443
10.4143 -9.6333 -2.0101 0.9443
13.5721 -4.1903 -2.0126 0.9442
13.8938 -2.9623 -2.0128 0.9442
14.1039 -1.7101 -2.0130 0.9442
14.0525 2.0884 -2.0130 0.9442
13.8086 3.3344 -2.0128 0.9442
13.4538 4.5532 -2.0125 0.9442
7.3346 10.3029 -1.7919 0.9502
4.8582 10.3231 -1.6165 0.9550
3.7769 10.3318 -1.5587 0.9565
2.7625 10.3401 -1.5165 0.9577
0.8539 10.3556 -1.4723 0.9589
-1.9522 10.3785 -1.4963 0.9582
-2.9342 10.3864 -1.5292 0.9573
-3.9688 10.3949 -1.5765 0.9560
-5.0787 10.4039 -1.6404 0.9543
-6.2923 10.4138 -1.7240 0.9520
-11.4543 6.1225 -1.8402 0.9489
-11.9526 5.0743 -1.8398 0.9489
-13.7025 3.1027 -1.9907 0.9448
-13.9236 1.8668 -1.9905 0.9448
-14.0331 -0.6392 -1.9904 0.9448
-13.3657 -4.3363 -1.9909 0.9448
-12.3864 -6.6468 -1.9917 0.9448
-11.7465 -7.7282 -1.9923 0.9448
-11.0129 -8.7487 -1.9929 0.9448
-10.1913 -9.7002 -1.9935 0.9447
-9.2879 -10.5752 -1.9942 0.9447
-8.3100 -11.3667 -1.9950 0.9447
-7.2651 -12.0683 -1.9959 0.9447
-6.1613 -12.6744 -1.9968 0.9447
-3.8126 -13.5809 -1.9987 0.9446
-2.5861 -13.8739 -1.9996 0.9446
-0.0775 -14.1269 -2.0017 0.9445
3.6743 -13.6630 -2.0047 0.9444
4.8818 -13.2868 -2.0056 0.9444
6.0514 -12.8039 -2.0066 0.9444
12.4360 -6.8503 -2.0117 0.9443
13.0008 -5.7140 -2.0121 0.9442
13.4615 -4.5313 -2.0125 0.9442
14.0561 -2.0654 -2.0130 0.9442
14.1850 -0.8023 -2.0131 0.9442
14.2000 0.4674 -2.0131 0.9442
14.1010 1.7332 -2.0130 0.9442
13.5650 4.2125 -2.0126 0.9442
11.0469 7.0698 -1.8583 0.9484
8.7698 9.7347 -1.8565 0.9484
7.7312 10.2997 -1.8247 0.9493
5.1790 10.3204 -1.6361 0.9544
4.0743 10.3294 -1.5733 0.9561
1.1174 10.3535 -1.4755 0.9588
0.1876 10.3610 -1.4683 0.9590
-1.6819 10.3763 -1.4894 0.9584
-2.6525 10.3842 -1.5186 0.9576
-4.7563 10.4013 -1.6205 0.9548
-8.3493 9.9714 -1.8427 0.9488
-11.8214 5.3746 -1.8400 0.9489
-12.2518 4.2969 -1.8396 0.9489
-13.6203 3.4476 -1.9907 0.9448
-13.8723 2.2175 -1.9905 0.9448
-13.9636 -1.5378 -1.9905 0.9448
-12.5493 -6.3318 -1.9916 0.9448
-11.2292 -8.4672 -1.9927 0.9448
-5.3377 -13.0477 -1.9974 0.9446
-4.1535 -13.4786 -1.9984 0.9446
-0.4339 -14.1185 -2.0014 0.9445
0.8287 -14.1080 -2.0024 0.9445
4.5444 -13.4039 -2.0054 0.9444
5.7256 -12.9508 -2.0063 0.9444
9.9131 -10.1443 -2.0097 0.9443
10.7829 -9.2220 -2.0104 0.9443
11.5668 -8.2250 -2.0110 0.9443
12.2583 -7.1614 -2.0116 0.9443
14.1601 -1.1599 -2.0131 0.9442
11.7869 5.7616 -1.8589 0.9484
11.2226 6.7893 -1.8585 0.9484
8.1253 10.2742 -1.8560 0.9485
5.5078 10.3178 -1.6572 0.9538
3.3283 10.3355 -1.5385 0.9571
-1.4139 10.3741 -1.4835 0.9586
-2.3746 10.3819 -1.5090 0.9579
-5.5925 10.4081 -1.6741 0.9534
-6.8625 10.4184 -1.7676 0.9508
-8.9691 9.4130 -1.8422 0.9488
-12.1401 4.6048 -1.8397 0.9489
-13.9854 1.3234 -1.9904 0.9448
-13.9978 -1.1849 -1.9904 0.9448
-13.5663 -3.6562 -1.9908 0.9448
-11.4383 -8.1805 -1.9925 0.9448
-9.8075 -10.0911 -1.9938 0.9447
-8.8708 -10.9305 -1.9946 0.9447
-6.7911 -12.3443 -1.9963 0.9447
-5.6644 -12.9072 -1.9972 0.9446
-3.2818 -13.7220 -1.9991 0.9446
-2.0446 -13.9671 -2.0001 0.9446
-0.7899 -14.1010 -2.0011 0.9445
0.4724 -14.1224 -2.0021 0.9445
2.9796 -13.8271 -2.0041 0.9445
4.2042 -13.5125 -2.0051 0.9444
6.5465 -12.5611 -2.0070 0.9444
7.6452 -11.9317 -2.0079 0.9444
9.6530 -10.3901 -2.0095 0.9443
10.5458 -9.4902 -2.0102 0.9443
11.3547 -8.5135 -2.0108 0.9443
12.0728 -7.4679 -2.0114 0.9443
12.6945 -6.3618 -2.0119 0.9442
14.2056 -0.2495 -2.0131 0.9442
14.1709 1.0197 -2.0131 0.9442
13.3898 4.7370 -2.0124 0.9442
11.3912 6.5045 -1.8586 0.9484
6.4227 9.2459 -1.8546 0.9554
5.5695 9.7787 -1.8539 0.9554
4.6724 10.2330 -1.8532 0.9554
3.6427 10.3329 -1.8049 0.9566
0.7338 10.3566 -1.7104 0.9588
-2.0766 10.3795 -1.7438 0.9580
-2.9652 10.0516 -1.7264 0.9584
-4.1073 10.3960 -1.8414 0.9557
-7.4944 8.3096 -1.8434 0.9557
-8.2038 7.6050 -1.8429 0.9557
-9.9184 5.1553 -1.8415 0.9557
-11.5520 3.5803 -1.9924 0.9522
-11.8243 2.5344 -1.9922 0.9522
-12.0025 1.4685 -1.9920 0.9522
-12.0853 0.3910 -1.9920 0.9522
-11.9628 -1.7647 -1.9921 0.9522
-11.0716 -4.8734 -1.9928 0.9521
-10.5943 -5.8436 -1.9932 0.9521
-7.8874 -9.1922 -1.9954 0.9521
-7.0376 -9.8631 -1.9961 0.9521
-6.1312 -10.4559 -1.9968 0.9521
-5.1752 -10.9657 -1.9976 0.9520
-1.0112 -12.1038 -2.0009 0.9520
0.0735 -12.1510 -2.0018 0.9519
2.2353 -11.9546 -2.0035 0.9519
3.2951 -11.7122 -2.0044 0.9519
4.3294 -11.3760 -2.0052 0.9519
7.1974 -9.8333 -2.0075 0.9518
8.0493 -9.1545 -2.0082 0.9518
8.8372 -8.4020 -2.0088 0.9518
10.1961 -6.7000 -2.0099 0.9517
11.2298 -4.7818 -2.0107 0.9517
11.6136 -3.7606 -2.0110 0.9517
11.9043 -2.7091 -2.0112 0.9517
12.1004 1.6292 -2.0114 0.9517
11.6154 3.7545 -2.0110 0.9517
10.6762 4.5395 -1.9112 0.9541
6.3590 5.0403 -1.3367 0.9676
7.4414 8.4543 -1.8554 0.9554
6.6546 9.0818 -1.8548 0.9554
5.8151 9.6362 -1.8541 0.9554
1.9402 10.3468 -1.7342 0.9582
0.9968 10.3545 -1.7137 0.9587
0.0681 10.3620 -1.7071 0.9589
-3.8023 10.3834 -1.8216 0.9562
-4.7762 10.1340 -1.8456 0.9556
-6.4975 9.1162 -1.8442 0.9556
-7.2830 8.4968 -1.8436 0.9556
-8.6728 7.0618 -1.8425 0.9557
-9.2662 6.2577 -1.8420 0.9557
-9.7857 5.4042 -1.8416 0.9557
-10.2272 4.5081 -1.8412 0.9557
-11.4485 3.8674 -1.9907 0.9522
-11.9618 1.7709 -1.9921 0.9522
-12.0855 -0.3847 -1.9920 0.9522
-12.0033 -1.4622 -1.9920 0.9522
-11.8257 -2.5282 -1.9922 0.9522
-11.5540 -3.5743 -1.9924 0.9522
-11.1904 -4.5923 -1.9927 0.9521
-8.8834 -8.2264 -1.9946 0.9521
-6.3923 -10.2968 -1.9966 0.9521
-5.4496 -10.8305 -1.9973 0.9520
-3.4393 -11.6364 -1.9990 0.9520
-1.3161 -12.0729 -2.0007 0.9520
-0.2331 -12.1475 -2.0015 0.9519
1.9327 -12.0057 -2.0033 0.9519
2.9981 -11.7902 -2.0041 0.9519
4.0405 -11.4803 -2.0050 0.9519
5.0513 -11.0782 -2.0058 0.9518
6.0226 -10.5870 -2.0066 0.9518
6.9463 -10.0108 -2.0073 0.9518
7.8150 -9.3539 -2.0080 0.9518
9.3598 -7.8197 -2.0092 0.9518
10.0232 -6.9546 -2.0098 0.9517
10.6065 -6.0334 -2.0102 0.9517
11.8319 -3.0085 -2.0112 0.9517
10.0724 5.0684 -1.8575 0.9553
9.5776 5.9461 -1.8571 0.9553
9.0062 6.7758 -1.8567 0.9553
8.3630 7.5507 -1.8562 0.9554
7.6531 8.2646 -1.8556 0.9554
6.8823 8.9119 -1.8550 0.9554
5.1838 9.9865 -1.8536 0.9554
4.2382 10.3281 -1.8391 0.9558
1.2609 10.3523 -1.7180 0.9586
0.3296 10.3599 -1.7075 0.9589
-0.5978 10.3674 -1.7108 0.9588
-3.5105 10.3911 -1.8069 0.9565
-4.5195 10.2524 -1.8458 0.9556
-7.0669 8.6787 -1.8438 0.9556
-7.8110 8.0105 -1.8432 0.9557
-8.4925 7.2790 -1.8426 0.9557
-9.6468 5.6497 -1.8417 0.9557
-10.1107 4.7650 -1.8413 0.9557
-11.6820 3.1278 -1.9923 0.9522
-11.9135 2.0722 -1.9921 0.9522
-12.0362 -1.1589 -1.9920 0.9522
-11.6401 -3.2816 -1.9923 0.9522
-11.3022 -4.3083 -1.9926 0.9521
-10.8743 -5.3011 -1.9930 0.9521
-9.0874 -7.9990 -1.9944 0.9521
-8.3395 -8.7810 -1.9950 0.9521
-7.5247 -9.4937 -1.9957 0.9521
-6.6494 -10.1311 -1.9964 0.9521
-5.7205 -10.6884 -1.9971 0.9520
-4.7453 -11.1608 -1.9979 0.9520
-1.6201 -12.0344 -2.0004 0.9520
-0.5395 -12.1362 -2.0013 0.9519
0.5465 -12.1412 -2.0022 0.9519
5.7529 -10.7345 -2.0063 0.9518
7.5758 -9.5471 -2.0078 0.9518
8.4007 -8.8356 -2.0085 0.9518
9.1587 -8.0527 -2.0091 0.9518
10.4502 -6.2987 -2.0101 0.9517
11.4082 -4.3413 -2.0109 0.9517
11.7518 -3.3060 -2.0111 0.9517
12.0012 -2.2438 -2.0113 0.9517
12.2099 -0.0736 -2.0115 0.9517
12.1675 1.0167 -2.0114 0.9517
12.0274 2.0989 -2.0113 0.9517
11.7909 3.1640 -2.0111 0.9517
10.1976 4.8129 -1.8576 0.9553
8.5515 7.3379 -1.8563 0.9553
7.8599 8.0696 -1.8558 0.9554
7.1057 8.7363 -1.8551 0.9554
6.2951 9.3325 -1.8545 0.9554
3.4848 10.3342 -1.7966 0.9568
2.4853 10.3424 -1.7523 0.9578
1.5266 10.3502 -1.7235 0.9585
-3.2200 10.3888 -1.7918 0.9569
-6.8463 8.8551 -1.8439 0.9556
-8.3068 7.4915 -1.8428 0.9557
-11.8577 2.3721 -1.9921 0.9522
-12.0895 0.2254 -1.9920 0.9522
-12.0615 -0.8548 -1.9920 0.9522
-10.5136 -5.9883 -1.9932 0.9521
-9.2856 -7.7666 -1.9942 0.9521
-7.7611 -9.2999 -1.9955 0.9521
-6.9022 -9.9591 -1.9962 0.9521
-5.9877 -10.5395 -1.9969 0.9520
-5.0248 -11.0363 -1.9977 0.9520
-1.9230 -11.9882 -2.0002 0.9520
2.3990 -11.9236 -2.0036 0.9519
3.4554 -11.6667 -2.0045 0.9519
7.3318 -9.7343 -2.0076 0.9518
8.9519 -8.2805 -2.0089 0.9518
9.6582 -7.4503 -2.0095 0.9518
10.2873 -6.5599 -2.0100 0.9517
11.2945 -4.6276 -2.0108 0.9517
12.1209 -1.4697 -2.0114 0.9517
12.1894 0.7094 -2.0115 0.9517
10.3163 4.5543 -1.8577 0.9553
9.8666 5.4561 -1.8574 0.9553
9.3379 6.3137 -1.8570 0.9553
6.1992 5.0535 -1.3176 0.9681
7.3246 8.5550 -1.8553 0.9554
5.6823 9.7143 -1.8540 0.9554
4.7904 10.1789 -1.8533 0.9554
2.7625 10.3401 -1.7632 0.9575
1.7941 10.3480 -1.7301 0.9583
-1.0042 10.3708 -1.7165 0.9586
-2.8393 10.0506 -1.7205 0.9585
-3.9688 10.3949 -1.8330 0.9559
-6.6214 9.0259 -1.8441 0.9556
-7.3983 8.3958 -1.8435 0.9556
-9.3507 6.1300 -1.8419 0.9557
-9.8585 5.2695 -1.8415 0.9557
-11.5101 3.7134 -1.9924 0.9522
-11.9848 1.6069 -1.9920 0.9522
-11.5042 -3.7323 -1.9924 0.9522
-9.4779 -7.5292 -1.9941 0.9521
-8.7703 -8.3477 -1.9947 0.9521
-7.9925 -9.1003 -1.9953 0.9521
-7.1506 -9.7808 -1.9960 0.9521
-6.2511 -10.3839 -1.9967 0.9521
-3.2798 -11.6832 -1.9991 0.9520
-0.0667 -12.1503 -2.0017 0.9519
1.0188 -12.1130 -2.0025 0.9519
4.1976 -11.4246 -2.0051 0.9519
5.2029 -11.0086 -2.0059 0.9518
6.1674 -10.5042 -2.0067 0.9518
7.0831 -9.9152 -2.0074 0.9518
7.9428 -9.2464 -2.0081 0.9518
8.7394 -8.5030 -2.0087 0.9518
9.4664 -7.6910 -2.0093 0.9518
10.1179 -6.8169 -2.0098 0.9517
11.1736 -4.9109 -2.0107 0.9517
11.8721 -2.8462 -2.0112 0.9517
12.0798 -1.7750 -2.0114 0.9517
12.2035 0.4017 -2.0115 0.9517
11.9362 2.5653 -2.0113 0.9517
10.0017 5.2057 -1.8575 0.9553
8.9122 6.8982 -1.8566 0.9553
8.2584 7.6642 -1.8561 0.9554
7.5388 8.3682 -1.8555 0.9554
6.7593 9.0048 -1.8549 0.9554
1.1174 10.3535 -1.7155 0.9587
-2.5667 10.0483 -1.7085 0.9588
-4.6592 10.1889 -1.8457 0.9556
-6.3922 9.1910 -1.8443 0.9556
-7.1848 8.5806 -1.8437 0.9556
-7.9196 7.9024 -1.8431 0.9557
-8.5910 7.1617 -1.8425 0.9557
-9.7230 5.5169 -1.8416 0.9557
-11.3910 3.9950 -1.9886 0.9522
-11.7236 2.9675 -1.9922 0.9522
-12.0628 0.8350 -1.9920 0.9522
-12.0193 -1.3236 -1.9920 0.9522
-11.8539 -2.3916 -1.9922 0.9522
-10.2736 -6.3936 -1.9934 0.9521
-6.5104 -10.2218 -1.9965 0.9521
-5.5739 -10.7663 -1.9972 0.9520
-4.5922 -11.2254 -1.9980 0.9520
-3.5732 -11.5953 -1.9988 0.9520
-2.5247 -11.8731 -1.9997 0.9520
-1.4552 -12.0562 -2.0005 0.9520
1.7940 -12.0265 -2.0032 0.9519
5.8997 -10.6553 -2.0065 0.9518
7.7063 -9.4430 -2.0079 0.9518
9.9419 -7.0696 -2.0097 0.9517
11.0456 -5.1910 -2.0106 0.9517
11.7962 -3.1447 -2.0112 0.9517
12.0310 -2.0792 -2.0113 0.9517
12.1692 -0.9968 -2.0115 0.9517
12.2098 0.0936 -2.0115 0.9517
12.1523 1.1833 -2.0114 0.9517
11.9974 2.2634 -2.0113 0.9517
11.7462 3.3252 -2.0111 0.9517
11.3955 4.3580 -2.0099 0.9517
9.6458 5.8354 -1.8572 0.9553
9.0841 6.6717 -1.8567 0.9553
8.4498 7.4540 -1.8562 0.9553
7.7482 8.1761 -1.8557 0.9554
5.2990 9.9265 -1.8537 0.9554
4.3776 10.3270 -1.8478 0.9555
3.3283 10.3355 -1.7888 0.9569
0.4492 10.3589 -1.7081 0.9588
-2.2978 10.0462 -1.6977 0.9591
-3.3771 10.3901 -1.7998 0.9567
-4.4011 10.3044 -1.8459 0.9556
-6.1589 9.3503 -1.8445 0.9556
-6.9666 8.7600 -1.8438 0.9556
-7.7184 8.1004 -1.8432 0.9557
-9.0308 6.5948 -1.8422 0.9557
-11.1221 4.2187 -1.9596 0.9529
-11.8890 2.2095 -1.9921 0.9522
-12.0380 1.1391 -1.9920 0.9522
-12.0487 -1.0200 -1.9920 0.9522
-11.6770 -3.1470 -1.9923 0.9522
-11.3509 -4.1775 -1.9926 0.9521
-9.8442 -7.0405 -1.9938 0.9521
-7.6334 -9.4058 -1.9956 0.9521
-3.8641 -11.5001 -1.9986 0.9520
-0.6794 -12.1285 -2.0012 0.9519
0.4063 -12.1460 -2.0020 0.9519
3.6151 -11.6191 -2.0046 0.9519
4.6046 -11.1688 -1.9902 0.9522
6.5726 -10.2578 -2.0070 0.9518
8.2979 -8.9315 -2.0084 0.9518
9.0649 -8.1575 -2.0090 0.9518
9.7597 -7.3176 -2.0095 0.9518
10.3766 -6.4187 -2.0100 0.9517
11.3571 -4.4726 -2.0108 0.9517
11.7127 -3.4413 -2.0111 0.9517
12.2082 -0.2145 -2.0115 0.9517
11.8268 3.0278 -2.0112 0.9517
10.2527 4.6950 -1.8577 0.9553
9.7906 5.5905 -1.8573 0.9553
9.2502 6.4408 -1.8569 0.9553
6.2072 5.2031 -1.3343 0.9677
6.3300 7.5684 -1.8545 0.9606
5.6273 8.1008 -1.8540 0.9606
1.5700 9.7202 -1.8507 0.9607
0.6956 9.8178 -1.8500 0.9607
-1.0607 9.7776 -1.8486 0.9608
-2.7807 9.4260 -1.8472 0.9608
-3.6098 9.1368 -1.8465 0.9608
-4.4096 8.7750 -1.8459 0.9608
-5.8961 7.8458 -1.8447 0.9608
-6.5711 7.2859 -1.8442 0.9609
-7.1934 6.6684 -1.8437 0.9609
-7.7581 5.9980 -1.8432 0.9609
-8.2609 5.2803 -1.8428 0.9609
-10.1306 3.1398 -1.9935 0.9578
-10.5259 1.2878 -1.9932 0.9578
-10.5986 0.3429 -1.9932 0.9578
-10.4911 -1.5476 -1.9932 0.9578
-10.3118 -2.4782 -1.9934 0.9578
-10.0504 -3.3893 -1.9936 0.9577
-9.2903 -5.1243 -1.9942 0.9577
-5.3753 -9.1669 -1.9974 0.9577
-4.5369 -9.6134 -1.9981 0.9577
-2.7569 -10.2744 -1.9995 0.9576
