ply
format ascii 1.0
element vertex 1595
property float32 x
property float32 y
property float32 z
property float32 I
end_header
-3.1944 -4.5759 -1.9957 0.9766
-0.9056 -5.5132 -1.9980 0.9765
0.5871 -5.5611 -1.9997 0.9765
2.0406 -5.2120 -2.0016 0.9765
3.3510 -4.4898 -2.0035 0.9765
4.7150 -3.0376 -2.0057 0.9765
5.1822 -2.1523 -2.0067 0.9764
5.6079 0.2975 -2.0083 0.9764
5.5595 0.7967 -2.0084 0.9764
5.4665 1.2895 -2.0085 0.9764
4.9299 2.6909 -2.0085 0.9764
4.6699 3.1198 -2.0084 0.9764
4.0323 3.8916 -2.0040 0.9765
2.6445 4.4604 -1.8543 0.9782
2.2356 4.6775 -1.8539 0.9782
1.8089 4.8572 -1.8535 0.9782
1.3681 4.9979 -1.8530 0.9782
0.9165 5.0987 -1.8525 0.9782
-0.0042 5.1774 -1.8515 0.9782
-1.3737 4.9869 -1.8498 0.9783
-2.2366 4.6605 -1.8486 0.9783
-4.3555 3.4984 -1.9978 0.9765
-4.6490 3.0951 -1.9972 0.9766
-5.2990 1.7524 -1.9959 0.9766
-5.4332 1.2724 -1.9955 0.9766
-5.5712 0.2865 -1.9949 0.9766
-5.5739 -0.2116 -1.9947 0.9766
-5.5324 -0.7079 -1.9945 0.9766
-5.4469 -1.1986 -1.9944 0.9766
-3.7161 -4.1617 -1.9952 0.9766
-3.3305 -4.4774 -1.9955 0.9766
-2.9183 -4.7575 -1.9959 0.9766
-2.4828 -4.9999 -1.9963 0.9766
-1.5555 -5.3641 -1.9973 0.9766
-0.5778 -5.5581 -1.9983 0.9765
-0.0796 -5.5892 -1.9989 0.9765
0.4194 -5.5756 -1.9995 0.9765
1.4045 -5.4157 -2.0008 0.9765
1.8826 -5.2705 -2.0014 0.9765
2.3460 -5.0831 -2.0020 0.9765
2.7910 -4.8551 -2.0027 0.9765
3.6116 -4.2845 -2.0039 0.9765
4.8874 -2.7536 -2.0061 0.9765
5.1147 -2.3072 -2.0065 0.9764
5.4455 -1.3621 -2.0073 0.9764
5.5462 -0.8710 -2.0077 0.9764
5.6142 0.1285 -2.0082 0.9764
5.5808 0.6289 -2.0084 0.9764
5.2156 2.0844 -2.0086 0.9764
2.3755 4.6084 -1.8541 0.9782
1.9545 4.8009 -1.8537 0.9782
1.5180 4.9549 -1.8532 0.9782
0.6130 5.1430 -1.8522 0.9782
0.1517 5.1757 -1.8517 0.9782
-0.7700 5.1172 -1.8505 0.9783
-1.2231 5.0265 -1.8500 0.9783
-1.6661 4.8958 -1.8494 0.9783
-2.5081 4.5190 -1.8482 0.9783
-3.9023 3.9870 -1.9950 0.9766
-5.2442 1.9112 -1.9960 0.9766
-5.5513 -0.5411 -1.9946 0.9766
-5.0110 -2.4483 -1.9944 0.9766
-4.1847 -3.6886 -1.9949 0.9766
-3.8395 -4.0478 -1.9951 0.9766
-3.0600 -4.6672 -1.9958 0.9766
-2.6320 -4.9226 -1.9962 0.9766
-2.1828 -5.1389 -1.9966 0.9766
-1.7161 -5.3144 -1.9971 0.9766
-1.2355 -5.4477 -1.9976 0.9765
-0.7447 -5.5377 -1.9982 0.9765
0.7488 -5.5422 -1.9999 0.9765
1.2407 -5.4550 -2.0006 0.9765
1.7229 -5.3242 -2.0012 0.9765
2.6433 -4.9364 -2.0025 0.9765
3.0741 -4.6824 -2.0031 0.9765
3.4807 -4.3908 -2.0037 0.9765
4.2080 -3.7045 -2.0048 0.9765
5.0426 -2.4599 -2.0064 0.9764
5.4017 -1.5253 -2.0072 0.9764
5.5172 -1.0375 -2.0076 0.9764
5.5970 0.4606 -2.0083 0.9764
4.5769 3.2543 -2.0083 0.9764
3.9135 4.0034 -2.0021 0.9765
2.9085 4.2937 -1.8546 0.9782
2.5133 4.5352 -1.8542 0.9782
2.0983 4.7403 -1.8538 0.9782
1.6666 4.9074 -1.8534 0.9782
0.7676 5.1228 -1.8524 0.9782
-0.1549 5.1746 -1.8513 0.9782
-0.6157 5.1386 -1.8507 0.9783
-1.0714 5.0616 -1.8502 0.9783
-1.5181 4.9443 -1.8496 0.9783
-2.7706 4.3617 -1.8478 0.9783
-3.2554 4.2361 -1.9105 0.9776
-4.1379 3.7548 -1.9981 0.9765
-4.4551 3.3698 -1.9976 0.9765
-5.1847 2.0683 -1.9962 0.9766
-5.3475 1.5972 -1.9958 0.9766
-5.5444 0.6213 -1.9951 0.9766
-5.5652 -0.3738 -1.9947 0.9766
-5.5093 -0.8687 -1.9945 0.9766
-5.4096 -1.3567 -1.9944 0.9766
-5.0823 -2.2964 -1.9944 0.9766
-4.5938 -3.1633 -1.9946 0.9766
-3.9594 -3.9302 -1.9950 0.9766
-3.5935 -4.2684 -1.9953 0.9766
-2.7788 -4.8408 -1.9960 0.9766
-0.9110 -5.5123 -1.9980 0.9765
-0.4157 -5.5731 -1.9985 0.9765
1.0758 -5.4893 -2.0003 0.9765
1.5617 -5.3731 -2.0010 0.9765
2.4933 -5.0132 -2.0022 0.9765
4.0942 -3.8291 -2.0047 0.9765
4.4207 -3.4496 -2.0052 0.9765
5.3530 -1.6871 -2.0071 0.9764
5.0602 1.3610 -2.0081 0.9778
4.2641 3.0446 -2.0078 0.9778
3.6518 3.7504 -2.0060 0.9778
1.5460 4.5818 -1.8531 0.9795
0.2774 4.8239 -1.8517 0.9795
-0.5840 4.7937 -1.8506 0.9795
-1.0090 4.7212 -1.8501 0.9795
-1.8309 4.4641 -1.8490 0.9795
-3.1780 4.1185 -1.9935 0.9780
-3.8686 3.4966 -1.9984 0.9779
-4.1641 3.1368 -1.9978 0.9779
-4.6531 2.3458 -1.9969 0.9779
-4.8428 1.9209 -1.9965 0.9779
-4.9939 1.4809 -1.9961 0.9779
-5.1053 1.0293 -1.9958 0.9779
-5.1938 -0.3591 -1.9951 0.9779
-5.0467 -1.2763 -1.9949 0.9779
-4.7396 -2.1528 -1.9949 0.9779
-4.2820 -2.9611 -1.9951 0.9779
-3.6883 -3.6756 -1.9955 0.9779
-3.3462 -3.9905 -1.9957 0.9779
-2.5846 -4.5232 -1.9964 0.9779
-1.2955 -5.0494 -1.9977 0.9779
-0.8401 -5.1462 -1.9982 0.9779
-0.3777 -5.2020 -1.9987 0.9779
0.0879 -5.2164 -1.9993 0.9779
1.0141 -5.1206 -2.0004 0.9779
1.4673 -5.0112 -2.0010 0.9779
1.9090 -4.8618 -2.0016 0.9779
2.3358 -4.6735 -2.0022 0.9779
2.7442 -4.4477 -2.0028 0.9779
3.1310 -4.1864 -2.0034 0.9779
3.8272 -3.5653 -2.0045 0.9778
4.8370 -2.0034 -2.0063 0.9778
4.9974 -1.5642 -2.0067 0.9778
5.1975 -0.6514 -2.0074 0.9778
5.2355 -0.1851 -2.0076 0.9778
5.1860 0.7484 -2.0079 0.9778
4.5968 2.5150 -2.0080 0.9778
4.3539 2.9149 -2.0079 0.9778
3.7658 3.6416 -2.0075 0.9778
2.0815 4.3662 -1.8536 0.9795
0.4225 4.8138 -1.8518 0.9795
-0.0087 4.8310 -1.8513 0.9795
-0.8665 4.7499 -1.8503 0.9795
-1.6959 4.5176 -1.8492 0.9795
-2.5225 4.2296 -1.8872 0.9791
-3.0505 4.2094 -1.9922 0.9780
-3.7620 3.6118 -1.9985 0.9779
-4.3417 2.8843 -1.9975 0.9779
-4.5807 2.4849 -1.9971 0.9779
-4.7831 2.0659 -1.9966 0.9779
-5.0723 1.1826 -1.9959 0.9779
-5.2024 -0.2026 -1.9952 0.9779
-4.8022 -2.0091 -1.9949 0.9779
-3.7971 -3.5628 -1.9954 0.9779
-3.4646 -3.8878 -1.9956 0.9779
-3.1044 -4.1820 -1.9959 0.9779
-2.3127 -4.6689 -1.9967 0.9779
-1.8873 -4.8576 -1.9971 0.9779
-0.5341 -5.1878 -1.9986 0.9779
-0.0692 -5.2161 -1.9991 0.9779
0.3965 -5.2030 -1.9997 0.9779
0.8594 -5.1483 -2.0002 0.9779
1.3156 -5.0526 -2.0008 0.9779
2.6089 -4.5279 -2.0026 0.9779
3.0033 -4.2783 -2.0032 0.9779
3.3739 -3.9945 -2.0037 0.9779
3.7178 -3.6786 -2.0043 0.9778
4.3146 -2.9608 -2.0053 0.9778
4.5626 -2.5647 -2.0058 0.9778
5.2274 -0.3426 -2.0075 0.9778
5.1328 1.0540 -2.0080 0.9778
4.8639 1.9495 -2.0081 0.9778
4.6705 2.3755 -2.0080 0.9778
4.4398 2.7826 -2.0079 0.9778
3.5379 3.8517 -2.0042 0.9778
3.1600 4.1257 -1.9915 0.9780
2.2121 4.3019 -1.8537 0.9795
1.4118 4.6245 -1.8529 0.9795
0.9934 4.7308 -1.8525 0.9795
0.1368 4.8295 -1.8515 0.9795
-0.2945 4.8211 -1.8510 0.9795
-0.7232 4.7743 -1.8505 0.9795
-1.5593 4.5671 -1.8494 0.9795
-1.9599 4.4084 -1.8488 0.9795
-2.3547 4.2328 -1.8562 0.9795
-3.6519 3.7237 -1.9987 0.9779
-3.9685 3.3822 -1.9982 0.9779
-4.2533 3.0140 -1.9977 0.9779
-5.0346 1.3348 -1.9960 0.9779
-5.1328 0.8802 -1.9957 0.9779
-5.1902 0.4187 -1.9954 0.9779
-5.1145 -0.9703 -1.9949 0.9779
-5.0074 -1.4226 -1.9949 0.9779
-4.6749 -2.2899 -1.9949 0.9779
-4.4522 -2.6979 -1.9950 0.9779
-3.9025 -3.4467 -1.9953 0.9779
-3.2287 -4.0865 -1.9958 0.9779
-2.8518 -4.3589 -1.9962 0.9779
-2.0325 -4.7982 -1.9969 0.9779
-1.1480 -5.0854 -1.9979 0.9779
-0.6900 -5.1689 -1.9984 0.9779
0.7040 -5.1714 -2.0000 0.9779
1.1628 -5.0894 -2.0006 0.9779
2.0500 -4.8046 -2.0018 0.9779
2.4711 -4.6039 -2.0024 0.9779
3.9297 -3.4527 -2.0046 0.9778
4.7071 -2.2905 -2.0061 0.9778
4.8936 -1.8618 -2.0065 0.9778
5.0411 -1.4181 -2.0068 0.9778
5.2214 0.4349 -2.0079 0.9778
5.0615 1.3560 -2.0081 0.9778
4.7400 2.2339 -2.0081 0.9778
3.6556 3.7469 -2.0061 0.9778
2.8016 4.1448 -1.9172 0.9788
1.5505 4.5803 -1.8531 0.9795
-1.4212 4.6124 -1.8496 0.9795
-1.8265 4.4659 -1.8490 0.9795
-2.2170 4.2839 -1.8485 0.9795
-3.5368 3.8306 -1.9980 0.9779
-3.8652 3.5004 -1.9984 0.9779
-4.4235 2.7565 -1.9974 0.9779
-4.8409 1.9257 -1.9965 0.9779
-4.9925 1.4859 -1.9961 0.9779
-5.1043 1.0344 -1.9958 0.9779
-5.1755 0.5748 -1.9955 0.9779
-5.2055 0.1108 -1.9953 0.9779
-5.1941 -0.3540 -1.9951 0.9779
-5.1415 -0.8159 -1.9950 0.9779
-5.0480 -1.2713 -1.9949 0.9779
-4.9144 -1.7165 -1.9948 0.9779
-4.7417 -2.1481 -1.9949 0.9779
-4.5313 -2.5626 -1.9949 0.9779
-4.2849 -2.9568 -1.9951 0.9779
-3.6919 -3.6720 -1.9955 0.9779
-2.9815 -4.2709 -1.9960 0.9779
-2.1759 -4.7345 -1.9968 0.9779
-1.7452 -4.9108 -1.9972 0.9779
-1.3005 -5.0481 -1.9977 0.9779
0.0827 -5.2164 -1.9993 0.9779
1.0090 -5.1216 -2.0004 0.9779
2.3312 -4.6758 -2.0022 0.9779
2.7398 -4.4505 -2.0028 0.9779
3.1268 -4.1895 -2.0034 0.9779
3.4891 -3.8949 -2.0039 0.9778
4.3993 -2.8342 -2.0055 0.9778
4.6356 -2.4310 -2.0059 0.9778
4.8350 -2.0081 -2.0063 0.9778
4.9959 -1.5691 -2.0067 0.9778
5.1168 -1.1173 -2.0071 0.9778
5.2353 -0.1903 -2.0076 0.9778
5.2319 0.2775 -2.0078 0.9778
4.9724 1.6533 -2.0081 0.9778
4.3568 2.9106 -2.0079 0.9778
4.0794 3.2874 -2.0077 0.9778
3.7694 3.6378 -2.0075 0.9778
2.9805 4.1354 -1.9535 0.9784
2.0858 4.3642 -1.8536 0.9795
1.6878 4.5319 -1.8532 0.9795
1.2765 4.6633 -1.8528 0.9795
0.8552 4.7574 -1.8523 0.9795
0.4272 4.8134 -1.8518 0.9795
-0.0039 4.8310 -1.8513 0.9795
-0.8619 4.7507 -1.8503 0.9795
-1.2819 4.6535 -1.8497 0.9795
-1.6914 4.5193 -1.8492 0.9795
-2.0872 4.3491 -1.8486 0.9795
-3.0463 4.2123 -1.9921 0.9780
-4.5783 2.4895 -1.9971 0.9779
-4.7811 2.0707 -1.9966 0.9779
-4.9458 1.6356 -1.9963 0.9779
-5.0711 1.1876 -1.9959 0.9779
-5.1561 0.7304 -1.9956 0.9779
-5.2000 0.2674 -1.9954 0.9779
-5.1638 -0.6608 -1.9950 0.9779
-4.9638 -1.5678 -1.9949 0.9779
-4.6063 -2.4250 -1.9949 0.9779
-4.1026 -3.2054 -1.9952 0.9779
-2.7238 -4.4404 -1.9963 0.9779
-2.3173 -4.6666 -1.9967 0.9779
-1.4517 -5.0063 -1.9975 0.9779
-0.0743 -5.2161 -1.9991 0.9779
0.8543 -5.1492 -2.0002 0.9779
1.7568 -4.9183 -2.0014 0.9779
2.1892 -4.7433 -2.0020 0.9779
3.3700 -3.9978 -2.0037 0.9779
3.7142 -3.6822 -2.0043 0.9778
4.0289 -3.3371 -2.0048 0.9778
4.3116 -2.9651 -2.0053 0.9778
4.7721 -2.1526 -2.0062 0.9778
5.0806 -1.2708 -2.0069 0.9778
5.2270 -0.3478 -2.0075 0.9778
5.2378 0.1199 -2.0077 0.9778
5.2066 0.5867 -2.0079 0.9778
4.4425 2.7782 -2.0079 0.9778
4.1766 3.1632 -2.0078 0.9778
3.1662 4.1253 -1.9928 0.9780
2.6345 4.1533 -1.8848 0.9792
1.4164 4.6231 -1.8529 0.9795
0.1416 4.8294 -1.8515 0.9795
-0.2898 4.8214 -1.8510 0.9795
-0.7185 4.7750 -1.8505 0.9795
-1.1413 4.6905 -1.8499 0.9795
-1.5547 4.5686 -1.8494 0.9795
-1.9555 4.4104 -1.8488 0.9795
-2.3495 4.2333 -1.8554 0.9795
-2.8638 4.2220 -1.9550 0.9784
-3.9651 3.3862 -1.9982 0.9779
-4.2504 3.0182 -1.9977 0.9779
-4.7169 2.2138 -1.9968 0.9779
-5.1898 0.4239 -1.9954 0.9779
-4.8623 -1.8589 -1.9948 0.9779
-4.4549 -2.6935 -1.9950 0.9779
-4.1971 -3.0804 -1.9951 0.9779
-3.9059 -3.4429 -1.9953 0.9779
-3.5836 -3.7781 -1.9955 0.9779
-2.8561 -4.3561 -1.9962 0.9779
-2.4565 -4.5944 -1.9965 0.9779
-1.1530 -5.0843 -1.9979 0.9779
0.2346 -5.2123 -1.9995 0.9779
0.6988 -5.1720 -2.0000 0.9779
1.6078 -4.9684 -2.0012 0.9779
2.4666 -4.6063 -2.0024 0.9779
2.8685 -4.3692 -2.0030 0.9779
3.2478 -4.0970 -2.0035 0.9779
3.9263 -3.4565 -2.0046 0.9778
4.7048 -2.2951 -2.0061 0.9778
4.8918 -1.8666 -2.0065 0.9778
5.0397 -1.4231 -2.0068 0.9778
5.2140 -0.5049 -2.0074 0.9778
5.1630 0.8939 -2.0080 0.9778
5.0628 1.3510 -2.0081 0.9778
4.9222 1.7973 -2.0081 0.9778
4.7422 2.2292 -2.0081 0.9778
4.5242 2.6433 -2.0080 0.9778
3.6594 3.7435 -2.0061 0.9778
2.8074 4.1445 -1.9183 0.9788
-0.1445 4.8284 -1.8512 0.9795
-0.9997 4.7232 -1.8501 0.9795
-1.4167 4.6138 -1.8496 0.9795
-1.8221 4.4677 -1.8490 0.9795
-2.6845 4.2261 -1.9186 0.9788
-3.5329 3.8339 -1.9979 0.9779
-4.4208 2.7608 -1.9974 0.9779
-4.6485 2.3549 -1.9969 0.9779
-4.8390 1.9305 -1.9965 0.9779
-5.1033 1.0394 -1.9958 0.9779
-5.2054 0.1159 -1.9953 0.9779
-5.0492 -1.2663 -1.9949 0.9779
-4.7438 -2.1434 -1.9949 0.9779
-4.5338 -2.5582 -1.9949 0.9779
-3.3540 -3.9839 -1.9957 0.9779
-2.9857 -4.2679 -1.9960 0.9779
-2.5935 -4.5181 -1.9964 0.9779
-2.1806 -4.7324 -1.9968 0.9779
-1.7501 -4.9091 -1.9972 0.9779
0.5428 -5.1902 -1.9998 0.9779
4.1247 -3.2186 -2.0050 0.9778
4.9943 -1.5740 -2.0067 0.9778
5.1157 -1.1224 -2.0071 0.9778
4.8316 0.8464 -2.0076 0.9790
4.7370 1.2741 -2.0076 0.9790
4.2304 2.4828 -2.0076 0.9790
3.9918 2.8502 -2.0074 0.9790
3.7213 3.1946 -2.0073 0.9790
3.0903 3.8002 -2.0047 0.9791
2.7328 4.0516 -2.0002 0.9791
1.8356 4.1690 -1.8643 0.9805
1.4474 4.2895 -1.8528 0.9806
1.0587 4.4005 -1.8524 0.9806
0.2597 4.5164 -1.8515 0.9806
-0.1442 4.5204 -1.8510 0.9806
-1.7314 4.2215 -1.8674 0.9805
-3.3170 3.5854 -1.9990 0.9791
-3.6227 3.2743 -1.9985 0.9791
-3.8994 2.9374 -1.9981 0.9791
-4.1450 2.5772 -1.9976 0.9791
-4.3575 2.1967 -1.9972 0.9791
-4.5352 1.7989 -1.9968 0.9791
-4.6768 1.3869 -1.9965 0.9791
-4.7811 0.9640 -1.9962 0.9791
-1.9179 0.0389 -0.7851 0.9917
-1.9514 -0.1349 -0.8006 0.9916
-2.0350 -0.3250 -0.8434 0.9911
-4.6009 -1.6121 -1.9953 0.9791
-3.7471 -3.1201 -1.9956 0.9791
-3.4542 -3.4423 -1.9958 0.9791
-3.1337 -3.7372 -1.9961 0.9791
-2.7882 -4.0024 -1.9964 0.9791
-1.6298 -4.6004 -1.9975 0.9791
-0.7867 -4.8190 -1.9984 0.9791
0.0823 -4.8846 -1.9994 0.9791
0.5178 -4.8591 -2.0000 0.9791
0.9495 -4.7948 -2.0005 0.9791
1.3739 -4.6922 -2.0010 0.9791
2.1871 -4.3758 -2.0022 0.9791
2.9315 -3.9196 -2.0032 0.9791
3.5832 -3.3380 -2.0043 0.9791
3.8676 -3.0058 -2.0047 0.9791
4.5284 -1.8755 -2.0060 0.9790
4.6785 -1.4644 -2.0064 0.9790
4.7912 -1.0413 -2.0067 0.9790
4.9012 -0.1733 -2.0072 0.9790
4.8548 0.7005 -2.0075 0.9790
4.7732 1.1309 -2.0076 0.9790
4.0759 2.7288 -2.0075 0.9790
3.8159 3.0813 -2.0073 0.9790
2.8556 3.9704 -2.0016 0.9791
1.5759 4.2443 -1.8530 0.9806
1.1907 4.3670 -1.8526 0.9806
0.3955 4.5070 -1.8517 0.9806
-0.0081 4.5231 -1.8512 0.9806
-0.4115 4.5032 -1.8507 0.9806
-1.2045 4.3560 -1.8497 0.9807
-2.8627 3.9502 -1.9966 0.9791
-3.2078 3.6839 -1.9992 0.9791
-4.2897 2.3271 -1.9973 0.9791
-4.4793 1.9347 -1.9969 0.9791
-4.7502 1.1075 -1.9963 0.9791
-1.9465 0.2738 -0.8045 0.9915
-1.9412 0.0979 -0.7955 0.9916
-1.9515 -0.2517 -0.8053 0.9915
-4.7603 -1.0524 -1.9953 0.9791
-4.6473 -1.4729 -1.9953 0.9791
-4.4974 -1.8816 -1.9953 0.9791
-4.0917 -2.6511 -1.9954 0.9791
-3.8392 -3.0058 -1.9956 0.9791
-3.5561 -3.3366 -1.9958 0.9791
-2.9073 -3.9165 -1.9963 0.9791
-2.5467 -4.1609 -1.9966 0.9791
-2.1658 -4.3723 -1.9970 0.9791
-1.3548 -4.6895 -1.9978 0.9791
-0.9313 -4.7928 -1.9983 0.9791
-0.5001 -4.8579 -1.9987 0.9791
-0.0648 -4.8844 -1.9992 0.9791
0.3713 -4.8720 -1.9998 0.9791
0.8047 -4.8207 -2.0003 0.9791
2.8119 -4.0057 -2.0031 0.9791
3.7751 -3.1206 -2.0046 0.9791
4.4696 -2.0109 -2.0059 0.9790
4.8936 -0.3208 -2.0071 0.9790
4.9032 0.1171 -2.0073 0.9790
4.8736 0.5541 -2.0075 0.9790
4.8050 0.9867 -2.0076 0.9790
4.6979 1.4115 -2.0077 0.9790
4.5533 1.8250 -2.0077 0.9790
4.3722 2.2238 -2.0076 0.9790
4.1562 2.6049 -2.0075 0.9790
3.6266 3.3015 -2.0072 0.9790
3.3172 3.6115 -2.0070 0.9790
1.7031 4.1952 -1.8531 0.9806
0.5311 4.4934 -1.8518 0.9806
-1.4600 4.2763 -1.8494 0.9807
-2.7408 4.0321 -1.9954 0.9791
-3.4197 3.4870 -1.9989 0.9791
-3.7162 3.1672 -1.9984 0.9791
-4.2180 2.4553 -1.9975 0.9791
-4.5854 1.6660 -1.9967 0.9791
-1.9560 0.1578 -0.8032 0.9916
-1.9578 -0.1928 -0.8052 0.9915
-2.2079 -0.4189 -0.9198 0.9903
-4.5520 -1.7454 -1.9953 0.9791
-4.1696 -2.5267 -1.9954 0.9791
-3.9278 -2.8888 -1.9955 0.9791
-3.6548 -3.2279 -1.9957 0.9791
-3.3526 -3.5415 -1.9959 0.9791
-2.2962 -4.3048 -1.9968 0.9791
-1.4953 -4.6463 -1.9976 0.9791
-0.6461 -4.8403 -1.9986 0.9791
0.6592 -4.8423 -2.0001 0.9791
1.0888 -4.7655 -2.0007 0.9791
2.3137 -4.3107 -2.0023 0.9791
3.0446 -3.8329 -2.0034 0.9791
3.6792 -3.2325 -2.0044 0.9791
4.7194 -1.3276 -2.0065 0.9790
4.8816 -0.4679 -2.0071 0.9790
4.8324 0.8416 -2.0076 0.9790
4.7383 1.2694 -2.0076 0.9790
3.4245 3.5101 -2.0070 0.9790
3.0941 3.7972 -2.0047 0.9791
2.2935 4.1481 -1.9399 0.9797
1.8404 4.1688 -1.8650 0.9805
1.4516 4.2881 -1.8528 0.9806
0.6661 4.4757 -1.8520 0.9806
-0.5424 4.4889 -1.8505 0.9806
-0.9404 4.4214 -1.8500 0.9807
-3.6195 3.2779 -1.9986 0.9791
-4.1425 2.5813 -1.9976 0.9791
-4.5334 1.8033 -1.9968 0.9791
-4.6754 1.3915 -1.9965 0.9791
-1.9564 0.2173 -0.8056 0.9915
-1.9509 -0.1330 -0.8003 0.9916
-4.7276 -1.1906 -1.9953 0.9791
-4.4407 -2.0118 -1.9953 0.9791
-4.2437 -2.4000 -1.9953 0.9791
-4.0129 -2.7692 -1.9955 0.9791
-3.7502 -3.1164 -1.9956 0.9791
-3.1374 -3.7341 -1.9961 0.9791
-2.7922 -3.9996 -1.9964 0.9791
-2.4246 -4.2335 -1.9967 0.9791
-2.0377 -4.4338 -1.9971 0.9791
-1.2178 -4.7273 -1.9979 0.9791
-0.7914 -4.8182 -1.9984 0.9791
-0.3585 -4.8708 -1.9989 0.9791
0.0775 -4.8846 -1.9994 0.9791
0.5131 -4.8596 -1.9999 0.9791
1.3692 -4.6936 -2.0010 0.9791
1.7830 -4.5540 -2.0016 0.9791
2.5653 -4.1669 -2.0027 0.9791
2.9276 -3.9225 -2.0032 0.9791
3.2667 -3.6467 -2.0038 0.9791
4.5265 -1.8800 -2.0060 0.9790
4.6770 -1.4690 -2.0064 0.9790
4.8979 0.2598 -2.0074 0.9790
4.8555 0.6958 -2.0075 0.9790
4.6549 1.5477 -2.0077 0.9790
4.4982 1.9567 -2.0077 0.9790
4.3056 2.3502 -2.0076 0.9790
3.8189 3.0775 -2.0073 0.9790
2.8596 3.9677 -2.0017 0.9791
2.4547 4.1402 -1.9699 0.9794
1.5801 4.2428 -1.8530 0.9806
0.8006 4.4540 -1.8521 0.9806
0.4000 4.5066 -1.8517 0.9806
-0.0036 4.5231 -1.8512 0.9806
-1.2002 4.3572 -1.8497 0.9807
-3.8065 3.0574 -1.9982 0.9791
-4.6317 1.5317 -1.9966 0.9791
-4.7491 1.1122 -1.9963 0.9791
-1.9325 -0.0734 -0.7915 0.9917
-4.7613 -1.0477 -1.9953 0.9791
-4.4992 -1.8772 -1.9953 0.9791
-3.8422 -3.0020 -1.9956 0.9791
-3.2482 -3.6378 -1.9960 0.9791
-2.9111 -3.9136 -1.9963 0.9791
-2.5508 -4.1584 -1.9966 0.9791
-0.9360 -4.7918 -1.9982 0.9791
-0.5049 -4.8574 -1.9987 0.9791
-0.0696 -4.8843 -1.9992 0.9791
0.3665 -4.8723 -1.9998 0.9791
1.2272 -4.7322 -2.0009 0.9791
2.4385 -4.2419 -2.0025 0.9791
2.8079 -4.0085 -2.0030 0.9791
3.1552 -3.7430 -2.0036 0.9791
4.0366 -2.7760 -2.0050 0.9790
4.2691 -2.4053 -2.0055 0.9790
4.4676 -2.0153 -2.0059 0.9790
4.8441 -0.7607 -2.0069 0.9790
4.8933 -0.3256 -2.0071 0.9790
4.9033 0.1123 -2.0073 0.9790
4.8741 0.5493 -2.0075 0.9790
4.5551 1.8205 -2.0077 0.9790
4.1588 2.6008 -2.0075 0.9790
1.7072 4.1936 -1.8531 0.9806
0.5355 4.4929 -1.8518 0.9806
-2.3372 4.2112 -1.9712 0.9794
-3.0917 3.7818 -1.9992 0.9791
-3.7131 3.1709 -1.9984 0.9791
-3.9802 2.8263 -1.9979 0.9791
-4.2156 2.4595 -1.9975 0.9791
-4.4173 2.0732 -1.9971 0.9791
-4.5837 1.6705 -1.9967 0.9791
-2.1386 0.3689 -0.8882 0.9907
-1.9579 -0.1908 -0.8051 0.9915
-2.2038 -0.4158 -0.9179 0.9904
-4.1721 -2.5225 -1.9954 0.9791
-3.9307 -2.8849 -1.9955 0.9791
-3.0275 -3.8240 -1.9962 0.9791
-1.9078 -4.4915 -1.9972 0.9791
-1.4999 -4.6448 -1.9976 0.9791
-1.0798 -4.7611 -1.9981 0.9791
1.5054 -4.6521 -2.0012 0.9791
1.9150 -4.5005 -2.0018 0.9791
3.3718 -3.5503 -2.0039 0.9791
4.5796 -1.7475 -2.0061 0.9790
4.9043 -0.0354 -2.0073 0.9790
4.8883 0.4023 -2.0074 0.9790
4.8333 0.8368 -2.0076 0.9790
4.7395 1.2647 -2.0076 0.9790
4.4393 2.0869 -2.0076 0.9790
4.2353 2.4745 -2.0076 0.9790
3.9974 2.8423 -2.0074 0.9790
3.7276 3.1873 -2.0073 0.9790
3.4280 3.5067 -2.0071 0.9790
3.0980 3.7943 -2.0048 0.9791
2.7410 4.0464 -2.0003 0.9791
2.2987 4.1479 -1.9409 0.9797
1.8452 4.1686 -1.8658 0.9805
0.6706 4.4751 -1.8520 0.9806
0.2686 4.5159 -1.8515 0.9806
-0.1353 4.5207 -1.8510 0.9806
-2.6125 4.1128 -1.9942 0.9792
-3.3099 3.5919 -1.9991 0.9791
-3.6162 3.2815 -1.9986 0.9791
-4.5317 1.8078 -1.9968 0.9791
-4.6741 1.3961 -1.9965 0.9791
-1.9562 0.2192 -0.8056 0.9915
-1.9197 0.0428 -0.7859 0.9917
-1.9505 -0.1310 -0.8001 0.9916
-2.0188 -0.3183 -0.8365 0.9912
-4.7288 -1.1859 -1.9953 0.9791
-3.4609 -3.4354 -1.9958 0.9791
-3.1411 -3.7310 -1.9961 0.9791
-2.4288 -4.2311 -1.9967 0.9791
-1.6389 -4.5972 -1.9975 0.9791
-0.7962 -4.8174 -1.9984 0.9791
-0.3633 -4.8705 -1.9989 0.9791
0.5083 -4.8600 -1.9999 0.9791
1.3646 -4.6949 -2.0010 0.9791
1.7785 -4.5557 -2.0016 0.9791
2.5612 -4.1694 -2.0027 0.9791
2.9237 -3.9254 -2.0032 0.9791
3.5766 -3.3450 -2.0043 0.9791
3.8617 -3.0134 -2.0047 0.9791
4.1160 -2.6575 -2.0052 0.9790
4.5246 -1.8845 -2.0060 0.9790
4.6755 -1.4736 -2.0064 0.9790
4.5891 0.3868 -2.0071 0.9801
4.5365 0.7947 -2.0072 0.9801
4.4477 1.1963 -2.0073 0.9801
4.3233 1.5883 -2.0073 0.9801
4.1643 1.9676 -2.0073 0.9801
3.4940 2.9995 -2.0069 0.9801
3.2122 3.2990 -2.0067 0.9801
2.9047 3.5719 -2.0065 0.9801
2.5713 3.8121 -2.0040 0.9801
2.2168 4.0188 -2.0002 0.9802
0.6214 4.2034 -1.8518 0.9816
0.2438 4.2411 -1.8514 0.9816
-0.1354 4.2449 -1.8509 0.9816
-1.3004 4.2056 -1.9185 0.9810
-2.1084 4.0643 -1.9954 0.9802
-2.4662 3.8657 -1.9984 0.9802
-2.8031 3.6326 -1.9997 0.9802
-3.1152 3.3673 -1.9992 0.9802
-3.4024 3.0752 -1.9987 0.9802
-3.6623 2.7588 -1.9983 0.9802
-4.2596 1.6896 -1.9971 0.9802
-1.5721 0.4662 -0.7147 0.9929
-1.5263 0.0310 -0.6653 0.9934
-1.5092 -0.2410 -0.6661 0.9934
-1.5469 -0.3912 -0.6954 0.9931
-4.1692 -1.8937 -1.9957 0.9802
-3.2444 -3.2332 -1.9962 0.9802
-2.9433 -3.5101 -1.9964 0.9802
-2.6188 -3.7592 -1.9967 0.9802
-2.2734 -3.9785 -1.9970 0.9802
-1.5307 -4.3208 -1.9977 0.9802
-1.1394 -4.4410 -1.9982 0.9802
-0.7388 -4.5260 -1.9986 0.9802
-0.3322 -4.5749 -1.9991 0.9802
0.4863 -4.5633 -2.0000 0.9802
1.2902 -4.4065 -2.0011 0.9802
2.7528 -3.6807 -2.0031 0.9801
3.0709 -3.4213 -2.0036 0.9801
3.3647 -3.1345 -2.0041 0.9801
3.8699 -2.4877 -2.0050 0.9801
4.0772 -2.1330 -2.0054 0.9801
4.2520 -1.7611 -2.0057 0.9801
4.4987 -0.9777 -2.0064 0.9801
4.5985 0.2485 -2.0070 0.9801
4.5583 0.6578 -2.0072 0.9801
4.3691 1.4575 -2.0073 0.9801
4.2217 1.8414 -2.0073 0.9801
4.0404 2.2106 -2.0072 0.9801
3.3101 3.2009 -2.0068 0.9801
2.6867 3.7355 -2.0054 0.9801
1.5448 4.1603 -1.9341 0.9808
1.1385 4.1753 -1.8861 0.9813
0.3714 4.2321 -1.8515 0.9816
-0.3864 4.2287 -1.8506 0.9816
-1.5776 4.2027 -1.9564 0.9806
-1.9842 4.1241 -1.9946 0.9802
-2.3475 3.9361 -1.9973 0.9802
-3.0127 3.4598 -1.9994 0.9802
-3.5779 2.8680 -1.9984 0.9802
-4.2071 1.8171 -1.9972 0.9802
-1.5162 0.2132 -0.6673 0.9933
-1.5294 0.0771 -0.6674 0.9933
-1.5287 -0.0595 -0.6667 0.9933
-1.5814 -0.5012 -0.7230 0.9928
-4.2243 -1.7673 -1.9956 0.9802
-3.8432 -2.4901 -1.9958 0.9802
-3.6060 -2.8232 -1.9959 0.9802
-3.3401 -3.1339 -1.9961 0.9802
-3.0475 -3.4198 -1.9963 0.9802
-2.7307 -3.6785 -1.9966 0.9802
-2.0341 -4.1066 -1.9972 0.9802
-0.8747 -4.5013 -1.9984 0.9802
0.3487 -4.5755 -1.9999 0.9802
1.1569 -4.4430 -2.0009 0.9802
1.5490 -4.3232 -2.0014 0.9802
1.9290 -4.1688 -2.0019 0.9802
2.2938 -3.9812 -2.0024 0.9802
2.9663 -3.5119 -2.0035 0.9801
3.2686 -3.2341 -2.0039 0.9801
3.5449 -2.9302 -2.0044 0.9801
3.7930 -2.6029 -2.0048 0.9801
4.0109 -2.2546 -2.0052 0.9801
4.3493 -1.5065 -2.0060 0.9801
4.4670 -1.1126 -2.0063 0.9801
4.5948 -0.3012 -2.0068 0.9801
4.6038 0.1099 -2.0070 0.9801
4.4110 1.3253 -2.0073 0.9801
4.2752 1.7135 -2.0073 0.9801
3.9024 2.4458 -2.0072 0.9801
3.4051 3.0999 -2.0068 0.9801
2.7993 3.6548 -2.0064 0.9801
2.4577 3.8829 -2.0027 0.9801
1.6866 4.1545 -1.9541 0.9806
0.4987 4.2194 -1.8517 0.9816
0.1203 4.2460 -1.8512 0.9816
-0.6377 4.2094 -1.8555 0.9816
-1.0281 4.2073 -1.8875 0.9813
-2.5791 3.7943 -1.9995 0.9802
-3.2117 3.2749 -1.9990 0.9802
-3.4902 2.9746 -1.9986 0.9802
-3.9616 2.3060 -1.9977 0.9802
-1.5547 0.4122 -0.7010 0.9930
-1.5043 0.2580 -0.6651 0.9934
-1.5287 0.1233 -0.6684 0.9933
-1.5242 -0.0134 -0.6643 0.9934
-1.5265 -0.1503 -0.6685 0.9933
-1.5657 -0.4448 -0.7093 0.9929
-4.2756 -1.6394 -1.9956 0.9802
-4.1123 -2.0143 -1.9957 0.9802
-3.9164 -2.3732 -1.9957 0.9802
-3.4328 -3.0319 -1.9960 0.9802
-2.8400 -3.5945 -1.9965 0.9802
-1.7877 -4.2203 -1.9975 0.9802
-1.0097 -4.4726 -1.9983 0.9802
-0.1989 -4.5830 -1.9992 0.9802
0.6190 -4.5476 -2.0002 0.9802
1.4181 -4.3675 -2.0012 0.9802
2.1728 -4.0480 -2.0023 0.9802
2.5259 -3.8390 -2.0028 0.9801
2.8590 -3.5993 -2.0033 0.9801
3.1695 -3.3307 -2.0038 0.9801
3.9409 -2.3741 -2.0051 0.9801
4.3017 -1.6366 -2.0059 0.9801
4.5835 -0.4393 -2.0067 0.9801
4.6049 -0.0287 -2.0069 0.9801
4.5894 0.3823 -2.0071 0.9801
4.5373 0.7902 -2.0072 0.9801
4.4488 1.1919 -2.0073 0.9801
4.1662 1.9635 -2.0073 0.9801
2.5751 3.8096 -2.0040 0.9801
1.8313 4.1483 -1.9762 0.9804
1.4101 4.1656 -1.9166 0.9810
0.2480 4.2408 -1.8514 0.9816
-0.1313 4.2450 -1.8509 0.9816
-0.5093 4.2153 -1.8505 0.9816
-1.7180 4.2007 -1.9779 0.9804
-2.4624 3.8680 -1.9983 0.9802
-3.1119 3.3703 -1.9992 0.9802
-3.6596 2.7624 -1.9983 0.9802
-3.8906 2.4244 -1.9979 0.9802
-4.2579 1.6938 -1.9971 0.9802
-1.5092 0.3058 -0.6711 0.9933
-1.5242 0.1693 -0.6683 0.9933
-1.5265 0.0325 -0.6654 0.9934
-1.5096 -0.2396 -0.6662 0.9934
-1.5463 -0.3894 -0.6949 0.9931
-1.5928 -0.5563 -0.7353 0.9927
-3.5224 -2.9271 -1.9960 0.9802
-3.2475 -3.2300 -1.9962 0.9802
-2.6225 -3.7567 -1.9967 0.9802
-1.9138 -4.1643 -1.9974 0.9802
-1.5350 -4.3192 -1.9977 0.9802
-1.1438 -4.4399 -1.9982 0.9802
-0.7433 -4.5252 -1.9986 0.9802
-0.3367 -4.5745 -1.9991 0.9802
0.0727 -4.5875 -1.9995 0.9802
1.2859 -4.4078 -2.0011 0.9802
1.6744 -4.2766 -2.0016 0.9802
2.0498 -4.1113 -2.0021 0.9802
2.7492 -3.6834 -2.0031 0.9801
3.3616 -3.1378 -2.0041 0.9801
3.8674 -2.4915 -2.0050 0.9801
4.0751 -2.1370 -2.0054 0.9801
4.2502 -1.7653 -2.0057 0.9801
4.4977 -0.9822 -2.0064 0.9801
4.6018 -0.1673 -2.0069 0.9801
4.5987 0.2440 -2.0070 0.9801
4.5589 0.6533 -2.0072 0.9801
4.4827 1.0574 -2.0072 0.9801
4.2235 1.8372 -2.0073 0.9801
3.8295 2.5583 -2.0071 0.9801
3.0145 3.4800 -2.0065 0.9801
2.6905 3.7330 -2.0054 0.9801
1.9770 4.1365 -1.9981 0.9802
-0.0034 4.2474 -1.8511 0.9816
-0.3822 4.2291 -1.8506 0.9816
-1.5729 4.2027 -1.9557 0.9806
-1.9801 4.1260 -1.9945 0.9802
-2.6890 3.7183 -1.9999 0.9802
-3.0093 3.4628 -1.9994 0.9802
-3.3054 3.1797 -1.9989 0.9802
-3.5751 2.8715 -1.9984 0.9802
-3.8162 2.5406 -1.9980 0.9802
-1.5868 0.5247 -0.7284 0.9927
-1.5340 0.3593 -0.6867 0.9931
-1.5295 0.0787 -0.6674 0.9933
-1.5200 -0.1945 -0.6679 0.9933
-1.5234 -0.3352 -0.6798 0.9932
-1.5810 -0.4994 -0.7226 0.9928
-4.0520 -2.1332 -1.9957 0.9802
-3.6088 -2.8196 -1.9959 0.9802
-2.7343 -3.6758 -1.9966 0.9802
-2.3958 -3.9057 -1.9969 0.9802
-1.6642 -4.2708 -1.9976 0.9802
-0.8791 -4.5004 -1.9984 0.9802
-0.0654 -4.5872 -1.9994 0.9802
0.3442 -4.5759 -1.9999 0.9802
1.5448 -4.3247 -2.0014 0.9802
1.9249 -4.1707 -2.0019 0.9802
2.2899 -3.9834 -2.0024 0.9802
2.6368 -3.7642 -2.0030 0.9801
3.2654 -3.2373 -2.0039 0.9801
4.0086 -2.2585 -2.0052 0.9801
4.4659 -1.1170 -2.0063 0.9801
4.5945 -0.3057 -2.0068 0.9801
4.6039 0.1054 -2.0070 0.9801
4.5764 0.5157 -2.0071 0.9801
4.4123 1.3209 -2.0073 0.9801
3.9048 2.4420 -2.0072 0.9801
3.6711 2.7804 -2.0070 0.9801
3.1180 3.3879 -2.0066 0.9801
2.8030 3.6520 -2.0064 0.9801
2.4615 3.8805 -2.0027 0.9801
2.1018 4.0773 -1.9992 0.9802
1.2777 4.1705 -1.9009 0.9811
0.1244 4.2459 -1.8512 0.9816
-0.2548 4.2390 -1.8508 0.9816
-1.0237 4.2073 -1.8871 0.9813
-1.4308 4.2043 -1.9355 0.9808
-1.8543 4.1821 -1.9937 0.9802
-2.2229 4.0051 -1.9963 0.9802
-2.5753 3.7967 -1.9994 0.9802
-2.9039 3.5521 -1.9995 0.9802
-3.2084 3.2780 -1.9990 0.9802
-3.4873 2.9781 -1.9986 0.9802
-3.7382 2.6545 -1.9981 0.9802
-4.1488 1.9472 -1.9973 0.9802
-1.5553 0.4140 -0.7014 0.9930
-1.5267 -0.1488 -0.6685 0.9933
-1.4973 -0.2825 -0.6640 0.9934
-3.6919 -2.7097 -1.9959 0.9802
-3.4358 -3.0285 -1.9960 0.9802
-3.1522 -3.3233 -1.9962 0.9802
-1.4087 -4.3624 -1.9979 0.9802
0.2063 -4.5838 -1.9997 0.9802
1.7983 -4.2264 -2.0018 0.9802
2.1688 -4.0502 -2.0023 0.9802
2.8555 -3.6021 -2.0033 0.9801
3.1662 -3.3338 -2.0038 0.9801
3.4518 -3.0388 -2.0042 0.9801
3.7099 -2.7193 -2.0047 0.9801
4.3001 -1.6409 -2.0059 0.9801
4.4300 -1.2509 -2.0062 0.9801
4.5246 -0.8508 -2.0065 0.9801
4.5830 -0.4438 -2.0067 0.9801
4.6048 -0.0332 -2.0069 0.9801
4.5898 0.3777 -2.0071 0.9801
4.4500 1.1875 -2.0073 0.9801
4.3264 1.5798 -2.0073 0.9801
4.1682 1.9594 -2.0073 0.9801
3.7533 2.6687 -2.0071 0.9801
3.2187 3.2926 -2.0067 0.9801
2.9117 3.5662 -2.0065 0.9801
2.2248 4.0145 -2.0003 0.9802
1.0142 4.1793 -1.8743 0.9814
0.6297 4.2022 -1.8518 0.9816
-0.8906 4.2077 -1.8744 0.9814
-1.2913 4.2056 -1.9173 0.9810
-1.7132 4.2008 -1.9772 0.9804
-2.4585 3.8704 -1.9983 0.9802
-3.1086 3.3734 -1.9992 0.9802
-3.8882 2.4282 -1.9979 0.9802
-4.0886 2.0713 -1.9975 0.9802
-4.2563 1.6980 -1.9971 0.9802
-1.5732 0.4699 -0.7155 0.9929
-1.5240 0.1708 -0.6683 0.9933
-1.5267 0.0340 -0.6655 0.9934
-1.5100 -0.2381 -0.6662 0.9934
-1.5456 -0.3876 -0.6944 0.9931
-3.9882 -2.2503 -1.9957 0.9802
-3.7717 -2.5973 -1.9958 0.9802
-2.9502 -3.5043 -1.9964 0.9802
-2.6262 -3.7541 -1.9967 0.9802
-2.2812 -3.9740 -1.9970 0.9802
-1.5392 -4.3177 -1.9977 0.9802
0.4773 -4.5643 -2.0000 0.9802
0.8828 -4.5046 -2.0005 0.9802
1.2815 -4.4090 -2.0011 0.9802
1.6702 -4.2783 -2.0016 0.9802
2.0457 -4.1133 -2.0021 0.9802
2.4051 -3.9154 -2.0026 0.9801
3.3585 -3.1411 -2.0041 0.9801
3.6261 -2.8296 -2.0045 0.9801
3.8649 -2.4953 -2.0050 0.9801
4.2485 -1.7694 -2.0057 0.9801
4.3901 -1.3836 -2.0061 0.9801
4.4967 -0.9866 -2.0064 0.9801
4.3200 0.3641 -2.0067 0.9811
4.2705 0.7481 -2.0069 0.9811
4.1869 1.1261 -2.0069 0.9811
4.0698 1.4952 -2.0069 0.9811
3.9201 1.8523 -2.0069 0.9811
3.5282 2.5192 -2.0067 0.9811
3.2892 2.8237 -2.0066 0.9811
3.0239 3.1056 -2.0064 0.9811
2.7344 3.3625 -2.0062 0.9811
2.0910 3.7907 -2.0039 0.9811
1.7418 3.9560 -2.0008 0.9811
1.3802 4.0904 -1.9983 0.9812
1.0008 4.1598 -1.9805 0.9813
0.2403 4.1791 -1.9376 0.9817
-0.1335 4.1846 -1.9380 0.9817
-0.5101 4.1875 -1.9526 0.9816
-1.6372 3.9917 -1.9971 0.9812
-1.9890 3.8341 -1.9994 0.9811
-2.9332 3.1706 -1.9993 0.9811
-3.6657 2.2793 -1.9981 0.9812
-3.8537 1.9428 -1.9977 0.9812
-1.3248 0.3929 -0.6396 0.9939
-1.3346 0.1469 -0.6215 0.9941
-1.3362 0.0271 -0.6186 0.9941
-1.3228 -0.2112 -0.6201 0.9941
-1.3336 -0.4673 -0.6541 0.9938
-1.3158 -0.5977 -0.6690 0.9937
-3.7514 -2.1265 -1.9961 0.9812
-3.5469 -2.4528 -1.9962 0.9812
-3.3142 -2.7596 -1.9963 0.9812
-3.0551 -3.0446 -1.9965 0.9812
-2.4660 -3.5399 -1.9970 0.9812
-2.1407 -3.7463 -1.9973 0.9812
-1.4414 -4.0685 -1.9980 0.9812
-0.6957 -4.2617 -1.9988 0.9811
-0.3128 -4.3077 -1.9992 0.9811
0.8396 -4.2397 -2.0006 0.9811
1.2148 -4.1489 -2.0011 0.9811
1.9337 -3.8689 -2.0021 0.9811
2.8912 -3.2210 -2.0035 0.9811
3.1677 -2.9509 -2.0039 0.9811
3.4190 -2.6571 -2.0044 0.9811
3.6432 -2.3420 -2.0048 0.9811
4.0028 -1.6579 -2.0055 0.9811
4.2350 -0.9204 -2.0061 0.9811
4.3008 -0.5390 -2.0063 0.9811
4.2910 0.6192 -2.0068 0.9811
4.2188 0.9996 -2.0069 0.9811
4.1129 1.3720 -2.0069 0.9811
3.9741 1.7334 -2.0069 0.9811
3.3728 2.7235 -2.0066 0.9811
2.8345 3.2788 -2.0062 0.9811
-0.0075 4.1830 -1.9363 0.9817
-0.3826 4.1868 -1.9461 0.9816
-0.7640 4.1879 -1.9705 0.9814
-1.1486 4.1537 -1.9949 0.9812
-1.8719 3.8907 -1.9985 0.9811
-2.8367 3.2577 -1.9995 0.9811
-3.1153 2.9909 -1.9990 0.9811
-3.5957 2.3887 -1.9982 0.9812
-3.7937 2.0580 -1.9978 0.9812
-1.3319 0.4390 -0.6491 0.9938
-1.3281 0.1868 -0.6208 0.9941
-1.3378 -0.0521 -0.6197 0.9941
-1.3309 -0.1716 -0.6211 0.9941
-1.2997 -0.2873 -0.6161 0.9942
-3.3957 -2.6585 -1.9962 0.9812
-2.8698 -3.2203 -1.9966 0.9812
-2.5713 -3.4639 -1.9969 0.9812
-2.2524 -3.6800 -1.9972 0.9812
-0.8236 -4.2385 -1.9986 0.9811
-0.0573 -4.3193 -1.9995 0.9811
0.3283 -4.3082 -2.0000 0.9811
1.0892 -4.1832 -2.0009 0.9811
1.8162 -3.9250 -2.0019 0.9811
3.0772 -3.0447 -2.0038 0.9811
3.5708 -2.4504 -2.0046 0.9811
3.7759 -2.1225 -2.0050 0.9811
4.2052 -1.0474 -2.0060 0.9811
4.3254 -0.2835 -2.0065 0.9811
4.3339 0.1035 -2.0067 0.9811
4.1523 1.2476 -2.0069 0.9811
3.6736 2.3024 -2.0068 0.9811
3.2055 2.9182 -2.0065 0.9811
2.9321 3.1922 -2.0063 0.9811
2.6353 3.4406 -2.0061 0.9811
1.9787 3.8479 -2.0028 0.9811
1.6252 4.0033 -1.9999 0.9811
1.2600 4.1274 -1.9975 0.9812
0.4933 4.1739 -1.9455 0.9816
0.1184 4.1812 -1.9362 0.9817
-0.6344 4.1878 -1.9606 0.9815
-1.3931 4.0805 -1.9958 0.9812
-2.1007 3.7762 -2.0002 0.9811
-2.7375 3.3418 -1.9996 0.9811
-3.0241 3.0836 -1.9992 0.9811
-3.2864 2.8009 -1.9987 0.9811
-3.5224 2.4960 -1.9983 0.9812
-3.7303 2.1714 -1.9979 0.9812
-1.3112 0.6138 -0.6702 0.9936
-1.3152 0.3487 -0.6298 0.9940
-1.3347 -0.0118 -0.6178 0.9941
-1.3365 -0.1316 -0.6216 0.9941
-1.3214 -0.3754 -0.6358 0.9940
-1.3313 -0.5105 -0.6600 0.9937
-3.8725 -1.8968 -1.9960 0.9812
-3.2326 -2.8550 -1.9964 0.9812
-2.6743 -3.3848 -1.9968 0.9812
-2.3620 -3.6104 -1.9971 0.9812
-2.0308 -3.8073 -1.9974 0.9812
-1.6834 -3.9740 -1.9977 0.9812
-0.5714 -4.2804 -1.9989 0.9811
-0.1873 -4.3153 -1.9993 0.9811
0.1985 -4.3157 -1.9998 0.9811
0.9628 -4.2138 -2.0008 0.9811
1.3352 -4.1121 -2.0013 0.9811
2.0457 -3.8112 -2.0022 0.9811
2.9839 -3.1357 -2.0036 0.9811
3.4952 -2.5566 -2.0045 0.9811
3.7101 -2.2351 -2.0049 0.9811
4.0496 -1.5407 -2.0056 0.9811
4.3148 -0.4136 -2.0064 0.9811
4.3349 -0.0270 -2.0066 0.9811
4.3203 0.3599 -2.0067 0.9811
4.2712 0.7439 -2.0069 0.9811
4.1880 1.1220 -2.0069 0.9811
4.0712 1.4912 -2.0069 0.9811
3.9219 1.8484 -2.0069 0.9811
3.2920 2.8204 -2.0066 0.9811
2.0948 3.7887 -2.0039 0.9811
1.3842 4.0891 -1.9983 0.9812
0.2444 4.1790 -1.9377 0.9817
-0.5059 4.1875 -1.9524 0.9816
-0.8907 4.1877 -1.9818 0.9813
-2.3206 3.6453 -2.0003 0.9811
-3.2008 2.8988 -1.9989 0.9811
-3.4459 2.6011 -1.9985 0.9811
-3.8518 1.9466 -1.9977 0.9812
-1.3293 0.5288 -0.6622 0.9937
-1.3076 0.2650 -0.6175 0.9941
-1.3363 0.0284 -0.6187 0.9941
-1.3104 -0.3300 -0.6255 0.9941
-1.3336 -0.4658 -0.6539 0.9938
-3.5494 -2.4493 -1.9962 0.9812
-3.3169 -2.7564 -1.9963 0.9812
-3.0581 -3.0416 -1.9965 0.9812
-2.7749 -3.3026 -1.9967 0.9812
-1.8021 -3.9212 -1.9976 0.9812
0.0685 -4.3194 -1.9997 0.9811
0.4537 -4.2971 -2.0001 0.9811
0.8354 -4.2405 -2.0006 0.9811
1.9299 -3.8708 -2.0021 0.9811
2.8880 -3.2239 -2.0035 0.9811
3.4164 -2.6605 -2.0044 0.9811
3.8363 -2.0118 -2.0051 0.9811
4.1342 -1.2985 -2.0058 0.9811
4.2341 -0.9246 -2.0061 0.9811
4.3002 -0.5432 -2.0063 0.9811
4.3320 -0.1575 -2.0065 0.9811
4.2198 0.9954 -2.0069 0.9811
3.8056 2.0773 -2.0069 0.9811
3.6049 2.4083 -2.0068 0.9811
2.8378 3.2760 -2.0062 0.9811
2.5339 3.5157 -2.0060 0.9811
2.2091 3.7260 -2.0051 0.9811
1.8649 3.9020 -2.0018 0.9811
1.5073 4.0472 -1.9991 0.9811
1.1374 4.1552 -1.9942 0.9812
0.7491 4.1674 -1.9599 0.9815
-0.0034 4.1830 -1.9362 0.9817
-0.3784 4.1868 -1.9459 0.9816
-0.7598 4.1879 -1.9702 0.9814
-1.1445 4.1548 -1.9948 0.9812
-1.5118 4.0393 -1.9964 0.9812
-2.5319 3.5010 -1.9999 0.9811
-3.1123 2.9940 -1.9990 0.9811
-3.5934 2.3923 -1.9982 0.9812
-1.3219 0.5725 -0.6668 0.9937
-1.3321 0.4405 -0.6494 0.9938
-1.3278 0.1881 -0.6208 0.9941
-1.3384 0.0688 -0.6203 0.9941
-1.3377 -0.0508 -0.6197 0.9941
-1.3311 -0.1703 -0.6212 0.9941
-1.3002 -0.2861 -0.6162 0.9941
-1.3293 -0.4199 -0.6453 0.9939
-1.3257 -0.5531 -0.6649 0.9937
-3.8157 -2.0088 -1.9960 0.9812
-3.6214 -2.3413 -1.9961 0.9812
-3.3983 -2.6552 -1.9962 0.9812
-2.8729 -3.2175 -1.9966 0.9812
-2.2560 -3.6778 -1.9972 0.9812
-1.9192 -3.8650 -1.9975 0.9812
-1.5671 -4.0215 -1.9978 0.9812
-1.2023 -4.1461 -1.9982 0.9812
-0.4465 -4.2955 -1.9990 0.9811
-0.0616 -4.3192 -1.9995 0.9811
0.3241 -4.3085 -2.0000 0.9811
0.7073 -4.2634 -2.0004 0.9811
1.0851 -4.1843 -2.0009 0.9811
2.1559 -3.7504 -2.0024 0.9811
2.4825 -3.5439 -2.0029 0.9811
2.7894 -3.3091 -2.0033 0.9811
3.5684 -2.4539 -2.0046 0.9811
3.7738 -2.1262 -2.0050 0.9811
4.0930 -1.4222 -2.0057 0.9811
4.2042 -1.0516 -2.0060 0.9811
4.2818 -0.6724 -2.0063 0.9811
4.3340 0.0992 -2.0067 0.9811
4.3081 0.4855 -2.0068 0.9811
4.1536 1.2435 -2.0069 0.9811
4.0261 1.6090 -2.0069 0.9811
3.8664 1.9618 -2.0069 0.9811
3.6758 2.2988 -2.0068 0.9811
3.4559 2.6174 -2.0067 0.9811
3.2084 2.9150 -2.0065 0.9811
2.9352 3.1893 -2.0063 0.9811
2.3211 3.6592 -2.0058 0.9811
1.9825 3.8460 -2.0029 0.9811
0.8786 4.1636 -1.9697 0.9814
0.1226 4.1811 -1.9362 0.9817
-2.4255 3.5760 -2.0001 0.9811
-2.7342 3.3445 -1.9996 0.9811
-3.0210 3.0866 -1.9992 0.9811
-3.5200 2.4995 -1.9983 0.9812
-3.9067 1.8335 -1.9976 0.9812
-1.3330 0.4858 -0.6567 0.9938
-1.3156 0.3502 -0.6302 0.9940
-1.3345 -0.0105 -0.6178 0.9941
-1.3366 -0.1303 -0.6216 0.9941
-1.3130 -0.2478 -0.6185 0.9941
-3.2354 -2.8518 -1.9964 0.9812
-2.3656 -3.6080 -1.9971 0.9812
-0.9549 -4.2105 -1.9985 0.9811
-0.5756 -4.2798 -1.9989 0.9811
-0.1915 -4.3151 -1.9993 0.9811
0.5786 -4.2824 -2.0003 0.9811
1.6932 -3.9792 -2.0017 0.9811
2.0419 -3.8132 -2.0022 0.9811
2.9808 -3.1387 -2.0036 0.9811
3.2497 -2.8608 -2.0041 0.9811
3.4927 -2.5601 -2.0045 0.9811
3.7079 -2.2387 -2.0049 0.9811
3.8935 -1.8994 -2.0053 0.9811
4.0481 -1.5447 -2.0056 0.9811
4.1704 -1.1776 -2.0059 0.9811
4.3349 -0.0313 -2.0066 0.9811
4.3207 0.3556 -2.0067 0.9811
4.2720 0.7397 -2.0069 0.9811
4.1891 1.1179 -2.0069 0.9811
4.0727 1.4871 -2.0069 0.9811
3.5332 2.5122 -2.0067 0.9811
2.4303 3.5878 -2.0059 0.9811
2.0985 3.7867 -2.0040 0.9811
1.3883 4.0878 -1.9983 0.9812
0.2486 4.1789 -1.9378 0.9817
-0.1253 4.1845 -1.9378 0.9817
-0.5018 4.1874 -1.9522 0.9816
-0.8864 4.1877 -1.9814 0.9813
-1.2653 4.1207 -1.9953 0.9812
-1.6292 3.9949 -1.9970 0.9812
-1.9814 3.8379 -1.9993 0.9811
-2.3170 3.6476 -2.0003 0.9811
-3.1979 2.9019 -1.9989 0.9811
-3.4434 2.6045 -1.9985 0.9811
-3.6613 2.2865 -1.9981 0.9812
-1.3254 0.3959 -0.6403 0.9939
-1.3071 0.2662 -0.6175 0.9941
-1.3343 0.1495 -0.6215 0.9941
-1.3364 0.0298 -0.6187 0.9941
-1.3385 -0.0899 -0.6210 0.9941
-1.3099 -0.3285 -0.6251 0.9941
-3.0611 -3.0385 -1.9965 0.9812
-2.7781 -3.2999 -1.9967 0.9812
-2.4730 -3.5350 -1.9970 0.9812
-2.1481 -3.7421 -1.9973 0.9812
-1.8060 -3.9195 -1.9976 0.9812
-1.4494 -4.0657 -1.9980 0.9812
-1.0811 -4.1796 -1.9983 0.9812
-0.3213 -4.3070 -1.9992 0.9811
0.8312 -4.2413 -2.0006 0.9811
1.5725 -4.0281 -2.0016 0.9811
2.2644 -3.6863 -2.0025 0.9811
2.8848 -3.2267 -2.0035 0.9811
3.1619 -2.9572 -2.0039 0.9811
4.1329 -1.3025 -2.0058 0.9811
4.2332 -0.9288 -2.0061 0.9811
4.0760 0.3435 -2.0064 0.9819
4.0293 0.7058 -2.0066 0.9819
3.1034 2.6642 -2.0063 0.9819
2.5800 3.1727 -2.0059 0.9819
2.2864 3.3897 -2.0056 0.9819
0.9537 3.9641 -2.0000 0.9820
0.5958 4.0305 -1.9985 0.9820
0.2338 4.0657 -1.9976 0.9820
-0.1299 4.0695 -1.9972 0.9820
-0.4924 4.0419 -1.9973 0.9820
-1.5478 3.7738 -2.0008 0.9820
-2.1933 3.4379 -2.0003 0.9820
-2.4907 3.2278 -1.9999 0.9820
-1.1282 0.5687 -0.6197 0.9944
-1.1512 0.4566 -0.6075 0.9945
-1.1738 0.2367 -0.5874 0.9947
-1.1918 0.1312 -0.5881 0.9947
-1.1955 -0.0827 -0.5878 0.9947
-1.1583 -0.2929 -0.5861 0.9947
-3.5406 -2.0070 -1.9964 0.9820
-3.1279 -2.6045 -1.9966 0.9820
-2.8834 -2.8734 -1.9968 0.9820
-2.3274 -3.3409 -1.9972 0.9820
-1.0125 -3.9464 -1.9985 0.9820
-0.2952 -4.0652 -1.9993 0.9820
0.0687 -4.0762 -1.9998 0.9820
1.1463 -3.9152 -2.0011 0.9820
1.4914 -3.7982 -2.0016 0.9820
1.8247 -3.6508 -2.0020 0.9820
2.9890 -2.7845 -2.0038 0.9820
3.2261 -2.5072 -2.0042 0.9820
3.4376 -2.2098 -2.0046 0.9820
3.6217 -1.8947 -2.0049 0.9820
3.9019 -1.2213 -2.0056 0.9819
3.9959 -0.8684 -2.0058 0.9819
4.0486 0.5842 -2.0065 0.9819
3.9805 0.9431 -2.0066 0.9819
3.8806 1.2945 -2.0066 0.9819
3.7496 1.6355 -2.0066 0.9819
3.5887 1.9634 -2.0066 0.9819
3.1823 2.5696 -2.0064 0.9819
2.6745 3.0937 -2.0060 0.9819
2.3875 3.3195 -2.0057 0.9819
1.7591 3.6899 -2.0051 0.9820
1.0729 3.9348 -2.0006 0.9820
-0.0073 4.0717 -1.9973 0.9820
-0.7309 4.0064 -1.9977 0.9820
-1.7686 3.6759 -2.0009 0.9820
-2.0890 3.5026 -2.0005 0.9820
-2.3926 3.3016 -2.0000 0.9820
-2.9400 2.8226 -1.9992 0.9820
-3.1794 2.5486 -1.9988 0.9820
-3.3934 2.2543 -1.9984 0.9820
-1.1129 0.6037 -0.6210 0.9944
-1.1452 0.4946 -0.6119 0.9945
-1.1580 0.3817 -0.5981 0.9946
-1.1872 0.1670 -0.5881 0.9947
-1.1963 0.0603 -0.5875 0.9947
-1.1685 -0.2583 -0.5870 0.9947
-2.9685 -2.7852 -1.9967 0.9820
-2.7084 -3.0393 -1.9969 0.9820
-2.4268 -3.2692 -1.9971 0.9820
-1.4752 -3.7968 -1.9980 0.9820
-0.4174 -4.0542 -1.9992 0.9820
0.6715 -4.0226 -2.0005 0.9820
1.0279 -3.9476 -2.0010 0.9820
1.3763 -3.8410 -2.0014 0.9820
2.0379 -3.5370 -2.0023 0.9820
2.9036 -2.8730 -2.0037 0.9820
3.3693 -2.3122 -2.0045 0.9820
3.5628 -2.0027 -2.0048 0.9820
3.7279 -1.6772 -2.0052 0.9820
3.8632 -1.3381 -2.0055 0.9819
4.0891 0.0977 -2.0064 0.9819
4.0643 0.4621 -2.0065 0.9819
4.0071 0.8229 -2.0066 0.9819
3.9178 1.1771 -2.0066 0.9819
3.7972 1.5219 -2.0066 0.9819
3.6462 1.8545 -2.0066 0.9819
3.4661 2.1723 -2.0065 0.9819
3.2583 2.4727 -2.0064 0.9819
1.8694 3.6355 -2.0052 0.9820
1.1912 3.9020 -2.0012 0.9820
0.8376 3.9891 -1.9994 0.9820
0.4781 4.0454 -1.9982 0.9820
-0.6099 4.0262 -1.9975 0.9820
-0.9671 3.9573 -1.9983 0.9820
-1.3171 3.8578 -1.9996 0.9820
-1.9827 3.5642 -2.0006 0.9820
-2.2923 3.3723 -2.0002 0.9820
-1.1374 0.5325 -0.6160 0.9944
-1.1554 0.4198 -0.6030 0.9945
-1.1583 0.3071 -0.5878 0.9947
-1.1811 0.2026 -0.5878 0.9947
-1.1947 0.0964 -0.5879 0.9947
-1.1931 -0.1175 -0.5881 0.9947
-1.1589 -0.3293 -0.5910 0.9946
-1.1531 -0.4421 -0.6058 0.9945
-3.4807 -2.1092 -1.9964 0.9820
-3.2788 -2.4115 -1.9965 0.9820
-2.5240 -3.1945 -1.9971 0.9820
-2.2292 -3.4074 -1.9973 0.9820
-1.9166 -3.5932 -1.9976 0.9820
-1.5887 -3.7504 -1.9979 0.9820
-1.2480 -3.8779 -1.9983 0.9820
0.1873 -4.0728 -1.9999 0.9820
1.6015 -3.7534 -2.0017 0.9820
2.2440 -3.4106 -2.0026 0.9820
2.5399 -3.1976 -2.0031 0.9820
2.8156 -2.9589 -2.0035 0.9820
3.2980 -2.4124 -2.0043 0.9820
3.6755 -1.7885 -2.0050 0.9820
3.9360 -1.1072 -2.0057 0.9819
4.0196 -0.7518 -2.0059 0.9819
4.0900 -0.0255 -2.0063 0.9819
3.7004 1.7440 -2.0066 0.9819
3.5299 2.0671 -2.0065 0.9819
3.1060 2.6611 -2.0063 0.9819
2.8560 2.9274 -2.0061 0.9819
2.5832 3.1701 -2.0059 0.9819
0.9576 3.9632 -2.0000 0.9820
-0.4884 4.0424 -1.9973 0.9820
-0.8474 3.9840 -1.9979 0.9820
-1.8747 3.6225 -2.0008 0.9820
-2.4875 3.2303 -1.9999 0.9820
-2.7652 2.9948 -1.9995 0.9820
-3.0207 2.7356 -1.9990 0.9820
-3.2520 2.4548 -1.9986 0.9820
-3.4574 2.1544 -1.9983 0.9820
-1.1278 0.5700 -0.6199 0.9944
-1.1590 0.3449 -0.5931 0.9946
-1.1736 0.2378 -0.5874 0.9947
-1.1838 -0.1879 -0.5880 0.9947
-1.1586 -0.2918 -0.5861 0.9947
-1.1408 -0.5168 -0.6144 0.9944
-3.5426 -2.0035 -1.9964 0.9820
-3.3499 -2.3116 -1.9964 0.9820
-3.1305 -2.6014 -1.9966 0.9820
-2.6189 -3.1170 -1.9970 0.9820
-1.7008 -3.7007 -1.9978 0.9820
-1.3641 -3.8383 -1.9982 0.9820
-1.0164 -3.9454 -1.9985 0.9820
-0.6605 -4.0212 -1.9989 0.9820
-0.2992 -4.0649 -1.9993 0.9820
0.0646 -4.0763 -1.9998 0.9820
0.4281 -4.0551 -2.0002 0.9820
1.1425 -3.9163 -2.0011 0.9820
2.4423 -3.2723 -2.0029 0.9820
2.9862 -2.7874 -2.0038 0.9820
3.2236 -2.5104 -2.0042 0.9820
3.4354 -2.2132 -2.0046 0.9820
3.6198 -1.8983 -2.0049 0.9820
3.7753 -1.5680 -2.0053 0.9820
3.9950 -0.8724 -2.0058 0.9819
4.0873 -0.1486 -2.0062 0.9819
4.0846 0.2167 -2.0064 0.9819
3.8819 1.2907 -2.0066 0.9819
3.7512 1.6318 -2.0066 0.9819
3.5906 1.9599 -2.0066 0.9819
3.1848 2.5665 -2.0064 0.9819
2.6775 3.0910 -2.0060 0.9819
2.0850 3.5168 -2.0055 0.9819
1.0768 3.9337 -2.0006 0.9820
0.7210 4.0109 -1.9990 0.9820
-0.7270 4.0071 -1.9977 0.9820
-1.7649 3.6776 -2.0009 0.9820
-2.0855 3.5047 -2.0005 0.9820
-3.1769 2.5517 -1.9988 0.9820
-1.1450 0.4959 -0.6120 0.9945
-1.1580 0.3829 -0.5983 0.9946
-1.1645 0.2727 -0.5867 0.9947
-1.1687 -0.2572 -0.5870 0.9947
-1.1479 -0.4789 -0.6101 0.9945
-1.1199 -0.5896 -0.6208 0.9944
-2.7114 -3.0366 -1.9969 0.9820
-2.4300 -3.2668 -1.9971 0.9820
-1.4789 -3.7953 -1.9980 0.9820
-1.1346 -3.9128 -1.9984 0.9820
-0.7812 -3.9992 -1.9988 0.9820
0.3058 -4.0659 -2.0000 0.9820
1.0240 -3.9486 -2.0010 0.9820
1.3725 -3.8424 -2.0014 0.9820
2.3425 -3.3441 -2.0028 0.9820
3.1464 -2.6061 -2.0041 0.9820
3.5608 -2.0062 -2.0048 0.9820
3.8619 -1.3419 -2.0055 0.9819
4.0400 -0.6344 -2.0060 0.9819
4.0648 0.4581 -2.0065 0.9819
4.0079 0.8189 -2.0066 0.9819
3.9189 1.1732 -2.0066 0.9819
3.4682 2.1689 -2.0065 0.9819
2.1901 3.4526 -2.0056 0.9819
1.8730 3.6336 -2.0053 0.9820
-0.9631 3.9582 -1.9983 0.9820
-1.9792 3.5661 -2.0006 0.9820
-2.2890 3.3746 -2.0002 0.9820
-2.5803 3.1562 -1.9997 0.9820
-2.8510 2.9128 -1.9993 0.9820
-3.0988 2.6464 -1.9989 0.9820
-3.3219 2.3589 -1.9985 0.9820
-1.1371 0.5337 -0.6162 0.9944
-1.1584 0.3083 -0.5880 0.9947
-1.1958 -0.0094 -0.5866 0.9947
-1.1932 -0.1163 -0.5881 0.9947
-1.1589 -0.3280 -0.5908 0.9946
-1.1532 -0.4409 -0.6056 0.9945
-1.1323 -0.5533 -0.6182 0.9944
-3.4828 -2.1058 -1.9964 0.9820
-3.0535 -2.6915 -1.9966 0.9820
-2.8015 -2.9535 -1.9968 0.9820
-1.2518 -3.8766 -1.9983 0.9820
-0.9012 -3.9736 -1.9986 0.9820
-0.1807 -4.0722 -1.9995 0.9820
1.5977 -3.7550 -2.0017 0.9820
1.9268 -3.5983 -2.0022 0.9820
2.2406 -3.4128 -2.0026 0.9820
2.8127 -2.9616 -2.0035 0.9820
3.0663 -2.6995 -2.0039 0.9820
3.4986 -2.1124 -2.0047 0.9820
3.6737 -1.7921 -2.0050 0.9820
4.0707 -0.3942 -2.0061 0.9819
4.0900 -0.0295 -2.0063 0.9819
4.0766 0.3355 -2.0064 0.9819
4.0307 0.6979 -2.0065 0.9819
3.9525 1.0547 -2.0066 0.9819
3.8426 1.4031 -2.0066 0.9819
3.5320 2.0636 -2.0065 0.9819
3.3336 2.3703 -2.0064 0.9819
3.1087 2.6581 -2.0063 0.9819
2.5863 3.1676 -2.0059 0.9819
2.2931 3.3852 -2.0056 0.9819
1.9817 3.5758 -2.0054 0.9820
1.6539 3.7365 -2.0044 0.9820
1.3124 3.8645 -2.0019 0.9820
0.9615 3.9623 -2.0000 0.9820
-0.1218 4.0698 -1.9972 0.9820
-1.8711 3.6244 -2.0008 0.9820
-2.1865 3.4422 -2.0003 0.9820
-3.0180 2.7386 -1.9990 0.9820
-3.4553 2.1579 -1.9983 0.9820
-1.1915 0.1335 -0.5881 0.9947
-1.1840 -0.1867 -0.5880 0.9947
-1.1411 -0.5156 -0.6142 0.9944
-2.8890 -2.8677 -1.9968 0.9820
-2.6220 -3.1144 -1.9970 0.9820
-1.3679 -3.8370 -1.9981 0.9820
-0.6645 -4.0205 -1.9989 0.9820
0.7844 -4.0024 -2.0006 0.9820
1.4839 -3.8011 -2.0016 0.9820
1.8175 -3.6544 -2.0020 0.9820
2.1367 -3.4785 -2.0025 0.9820
2.4391 -3.2747 -2.0029 0.9820
2.7221 -3.0447 -2.0034 0.9820
3.2212 -2.5136 -2.0042 0.9820
3.4332 -2.2166 -2.0046 0.9820
3.6179 -1.9018 -2.0049 0.9820
3.7738 -1.5717 -2.0053 0.9820
3.8995 -1.2290 -2.0056 0.9819
3.8534 0.3248 -2.0062 0.9827
3.6302 1.3337 -2.0063 0.9827
3.4967 1.6522 -2.0063 0.9827
3.1472 2.2471 -2.0062 0.9827
2.4392 2.9995 -2.0057 0.9827
2.1616 3.2048 -2.0054 0.9827
1.8669 3.3844 -2.0051 0.9827
1.5573 3.5369 -2.0048 0.9827
1.2353 3.6611 -2.0045 0.9827
0.9033 3.7546 -2.0034 0.9827
0.2214 3.8510 -2.0011 0.9828
-0.1230 3.8547 -2.0008 0.9828
-0.4664 3.8286 -2.0009 0.9828
-1.1398 3.6863 -2.0017 0.9828
-1.4638 3.5691 -2.0012 0.9828
-1.7760 3.4235 -2.0008 0.9828
-2.0739 3.2507 -2.0004 0.9828
-3.0774 2.3182 -1.9988 0.9828
-1.0543 0.4182 -0.5884 0.9949
-1.0856 0.2189 -0.5745 0.9950
-1.1021 0.1213 -0.5752 0.9950
-1.1065 0.0225 -0.5741 0.9950
-1.1056 -0.0764 -0.5749 0.9950
-1.0031 -0.5686 -0.5982 0.9948
-3.1657 -2.1891 -1.9967 0.9828
-2.7267 -2.7173 -1.9970 0.9828
-2.4736 -2.9500 -1.9972 0.9828
-1.6048 -3.5011 -1.9980 0.9828
-0.9574 -3.7318 -1.9987 0.9828
-0.2791 -3.8440 -1.9994 0.9828
0.0649 -3.8544 -1.9998 0.9828
0.7492 -3.7831 -2.0007 0.9828
2.0268 -3.2849 -2.0024 0.9828
2.5794 -2.8737 -2.0033 0.9827
3.0502 -2.3705 -2.0040 0.9827
3.5708 -1.4789 -2.0051 0.9827
3.7778 -0.8210 -2.0056 0.9827
3.8643 -0.1367 -2.0060 0.9827
3.8614 0.2086 -2.0061 0.9827
3.8276 0.5523 -2.0062 0.9827
3.7632 0.8916 -2.0063 0.9827
3.6687 1.2238 -2.0063 0.9827
3.5449 1.5462 -2.0063 0.9827
3.2135 2.1514 -2.0062 0.9827
3.0085 2.4294 -2.0061 0.9827
1.9680 3.3268 -2.0052 0.9827
1.6631 3.4886 -2.0049 0.9827
1.3450 3.6225 -2.0046 0.9827
1.0162 3.7267 -2.0039 0.9827
0.6791 3.7997 -2.0024 0.9828
-1.6723 3.4757 -2.0010 0.9828
-2.7800 2.6690 -1.9993 0.9828
-3.0064 2.4099 -1.9989 0.9828
-3.2089 2.1317 -1.9985 0.9828
-1.0133 0.5497 -0.5980 0.9948
-1.0979 0.1544 -0.5752 0.9950
-1.0997 -0.1418 -0.5752 0.9950
-1.0507 -0.4396 -0.5909 0.9949
-1.0192 -0.5379 -0.5979 0.9948
-3.2301 -2.0928 -1.9967 0.9828
-3.0307 -2.3728 -1.9968 0.9828
-2.8071 -2.6339 -1.9970 0.9828
-2.5612 -2.8741 -1.9971 0.9828
-1.3950 -3.5903 -1.9982 0.9828
-1.0693 -3.7011 -1.9986 0.9828
-0.7350 -3.7824 -1.9989 0.9828
0.2930 -3.8443 -2.0001 0.9828
0.6349 -3.8036 -2.0005 0.9828
1.3013 -3.6318 -2.0014 0.9828
2.7453 -2.7163 -2.0035 0.9827
2.9773 -2.4611 -2.0039 0.9827
3.5245 -1.5857 -2.0050 0.9827
3.6524 -1.2651 -2.0052 0.9827
3.8200 -0.5960 -2.0057 0.9827
3.8583 -0.2529 -2.0059 0.9827
3.8658 0.0923 -2.0061 0.9827
3.4471 1.7533 -2.0063 0.9827
3.2768 2.0538 -2.0062 0.9827
2.8593 2.6030 -2.0060 0.9827
2.6155 2.8475 -2.0058 0.9827
2.0673 3.2662 -2.0053 0.9827
1.7674 3.4371 -2.0050 0.9827
1.1281 3.6953 -2.0044 0.9827
0.7934 3.7784 -2.0029 0.9828
0.1092 3.8555 -2.0010 0.9828
-2.9327 2.4995 -1.9990 0.9828
-1.0404 0.4870 -0.5960 0.9948
-1.0672 0.2829 -0.5728 0.9950
-1.0924 0.1873 -0.5750 0.9950
-1.1062 -0.0098 -0.5739 0.9950
-1.1034 -0.1087 -0.5752 0.9950
-1.0338 -0.5064 -0.5972 0.9948
-0.9861 -0.5976 -0.5982 0.9948
-2.8851 -2.5481 -1.9969 0.9828
-2.3868 -3.0209 -1.9973 0.9828
-2.1080 -3.2221 -1.9975 0.9828
-0.8484 -3.7583 -1.9988 0.9828
-0.1671 -3.8508 -1.9996 0.9828
0.1771 -3.8511 -2.0000 0.9828
1.1913 -3.6691 -2.0013 0.9828
1.5142 -3.5490 -2.0017 0.9828
1.8252 -3.4005 -2.0021 0.9828
2.9017 -2.5494 -2.0038 0.9827
3.3097 -1.9939 -2.0045 0.9827
3.4750 -1.6910 -2.0049 0.9827
3.7212 -1.0468 -2.0054 0.9827
3.8002 -0.7107 -2.0057 0.9827
3.8668 -0.0241 -2.0060 0.9827
3.8538 0.3210 -2.0062 0.9827
3.7357 1.0008 -2.0063 0.9827
3.6315 1.3301 -2.0063 0.9827
3.3372 1.9542 -2.0063 0.9827
2.7001 2.7676 -2.0059 0.9827
2.4422 2.9971 -2.0057 0.9827
2.1648 3.2026 -2.0054 0.9827
1.5607 3.5353 -2.0048 0.9827
1.2389 3.6599 -2.0045 0.9827
0.9070 3.7537 -2.0034 0.9827
-0.8026 3.7736 -2.0015 0.9828
-1.1362 3.6874 -2.0017 0.9828
-1.4603 3.5705 -2.0013 0.9828
-1.7726 3.4253 -2.0008 0.9828
-2.3521 3.0545 -2.0000 0.9828
-2.6147 2.8319 -1.9996 0.9828
-3.0751 2.3212 -1.9988 0.9828
-0.9784 0.6097 -0.5981 0.9948
-1.0541 0.4193 -0.5885 0.9949
-1.0635 0.3165 -0.5756 0.9950
-1.0853 0.2199 -0.5745 0.9950
-1.1020 0.1224 -0.5752 0.9950
-1.1065 0.0236 -0.5742 0.9950
