ply
format ascii 1.0
element vertex 1591
property float32 x
property float32 y
property float32 z
property float32 I
end_header
0.0869 -9.1295 -1.7161 0.9635
0.9104 -9.1833 -1.7346 0.9631
1.7471 -9.1776 -1.7560 0.9627
2.5942 -9.1103 -1.7805 0.9622
4.3071 -8.7814 -1.8384 0.9610
6.8643 -7.7654 -1.9481 0.9587
8.5021 -6.7126 -2.0361 0.9569
9.3028 -4.9588 -1.9815 0.9580
2.3040 -0.9753 -0.4703 0.9899
11.0813 -2.4994 -2.1352 0.9548
11.5457 -1.5393 -2.1893 0.9537
8.8752 2.0279 -1.7112 0.9636
7.0098 2.9904 -1.4325 0.9695
4.9353 3.9190 -1.1845 0.9747
4.5671 4.3444 -1.1848 0.9747
3.0022 4.9802 -1.0930 0.9766
2.5427 5.2211 -1.0916 0.9766
2.0756 5.4497 -1.0961 0.9765
1.5968 5.6678 -1.1068 0.9763
0.5957 6.1849 -1.1679 0.9750
0.0437 6.4942 -1.2207 0.9739
-0.5066 6.1212 -1.1545 0.9753
-1.2665 7.2965 -1.3920 0.9703
-7.3635 10.3504 -2.3876 0.9496
-8.0537 9.4147 -2.3287 0.9508
-2.2906 2.2383 -0.6020 0.9870
-9.1283 7.4509 -2.2148 0.9532
-9.5173 6.4452 -2.1605 0.9543
-9.8121 5.4367 -2.1085 0.9554
-10.0170 4.4334 -2.0590 0.9564
-10.1367 3.4424 -2.0122 0.9574
-9.8602 -0.2940 -1.8542 0.9606
-9.6259 -1.1519 -1.8222 0.9613
-8.9894 -2.7580 -1.7674 0.9625
-8.5949 -3.5027 -1.7445 0.9629
-5.9880 -6.5932 -1.6741 0.9644
-4.0104 -7.9058 -1.6662 0.9646
-3.2954 -8.2471 -1.6693 0.9645
-0.2089 -9.0956 -1.7101 0.9636
1.4414 -9.1867 -1.7479 0.9629
2.2850 -9.1421 -1.7712 0.9624
3.1371 -9.0344 -1.7976 0.9618
3.9946 -8.8611 -1.8270 0.9612
4.8535 -8.6199 -1.8594 0.9605
5.7097 -8.3083 -1.8949 0.9598
7.3943 -7.4642 -1.9748 0.9581
8.2111 -6.9274 -2.0192 0.9572
9.0019 -6.3118 -2.0665 0.9562
9.7200 -4.4921 -2.0126 0.9574
10.3357 -3.6982 -2.0633 0.9563
10.8942 -2.8320 -2.1157 0.9552
11.3856 -1.8962 -2.1695 0.9541
10.6265 1.0969 -2.0080 0.9575
9.2902 1.8075 -1.7789 0.9622
8.2190 2.3763 -1.6081 0.9658
6.4884 3.2150 -1.3611 0.9710
5.7681 3.5312 -1.2712 0.9728
5.1381 3.8146 -1.2028 0.9743
4.5972 4.0970 -1.1575 0.9752
4.2848 4.5666 -1.1770 0.9748
3.6235 4.6279 -1.1048 0.9764
2.7106 5.1350 -1.0914 0.9766
1.7726 5.5896 -1.1022 0.9764
0.2499 6.3711 -1.1984 0.9744
-2.9556 12.6984 -2.4506 0.9483
-3.9903 12.1233 -2.3990 0.9494
-4.9427 11.4576 -2.3454 0.9505
-5.8062 10.7155 -2.2908 0.9516
-7.8146 9.7598 -2.3500 0.9504
-8.4394 8.8005 -2.2918 0.9516
-10.1027 3.8011 -2.0289 0.9570
-10.0797 0.9297 -1.9026 0.9596
-9.9304 0.0266 -1.8665 0.9604
-9.4468 -1.6792 -1.8035 0.9617
-9.1208 -2.4773 -1.7765 0.9623
-8.7439 -3.2365 -1.7525 0.9628
-8.3196 -3.9554 -1.7315 0.9632
-7.8510 -4.6328 -1.7135 0.9636
-6.7931 -5.8588 -1.6861 0.9641
-4.9423 -7.3619 -1.6666 0.9646
-3.5584 -8.1287 -1.6679 0.9645
-2.8276 -8.4381 -1.6727 0.9644
-2.0733 -8.6965 -1.6804 0.9643
-1.2976 -8.9024 -1.6910 0.9640
2.8263 -9.0810 -1.7876 0.9620
3.6823 -8.9319 -1.8159 0.9614
5.3988 -8.4300 -1.8816 0.9601
6.2509 -8.0722 -1.9190 0.9593
7.9166 -7.1317 -2.0028 0.9576
8.7176 -6.5449 -2.0490 0.9566
10.6982 -3.1553 -2.0965 0.9556
11.6586 -1.2666 -2.2042 0.9534
8.5842 2.1825 -1.6648 0.9646
7.6353 2.6860 -1.5213 0.9676
6.0181 3.4206 -1.3011 0.9722
4.7887 3.9963 -1.1723 0.9749
2.8776 5.0471 -1.0920 0.9766
0.8197 3.2065 -0.6221 0.9866
0.4496 6.2605 -1.1798 0.9748
-0.1160 6.5902 -1.2389 0.9735
-0.6498 6.0554 -1.1447 0.9755
-2.5604 12.8823 -2.4687 0.9479
-5.5027 10.9934 -2.3107 0.9512
-8.2240 9.1533 -2.3129 0.9512
-9.2439 7.1777 -2.1998 0.9535
-9.8766 5.1625 -2.0947 0.9557
-9.9922 0.3515 -1.8793 0.9601
-8.4792 -3.6986 -1.7388 0.9630
-8.0264 -4.3912 -1.7197 0.9634
-6.4255 -6.2118 -1.6798 0.9643
-5.8197 -6.7298 -1.6723 0.9644
-5.1819 -7.2018 -1.6676 0.9645
-4.5140 -7.6268 -1.6658 0.9646
-3.8181 -8.0037 -1.6668 0.9646
-2.3503 -8.6085 -1.6773 0.9643
-0.7939 -9.0053 -1.6992 0.9639
-8.8861 4.1943 -2.0771 0.9606
-9.1170 1.5942 -1.9564 0.9629
-8.9338 -0.0489 -1.8885 0.9641
-8.7526 -0.8320 -1.8585 0.9647
-8.5166 -1.5856 -1.8312 0.9652
-8.2292 -2.3073 -1.8066 0.9657
-7.5137 -3.6477 -1.7655 0.9664
-7.0917 -4.2630 -1.7490 0.9667
-6.6305 -4.8400 -1.7352 0.9670
-6.1329 -5.3773 -1.7241 0.9672
-5.6014 -5.8738 -1.7157 0.9674
-5.0381 -6.3285 -1.7099 0.9675
-4.4455 -6.7401 -1.7067 0.9675
-3.8255 -7.1075 -1.7062 0.9675
-1.1148 -8.1108 -1.7306 0.9671
1.8609 -8.2986 -1.7977 0.9658
2.6275 -8.2056 -1.8213 0.9654
4.1659 -7.8389 -1.8764 0.9644
4.9301 -7.5615 -1.9081 0.9638
6.4258 -6.8101 -1.9792 0.9624
8.4943 -5.1675 -2.1017 0.9602
8.4698 -4.1673 -1.9953 0.9621
2.3538 -0.9074 -0.5332 0.9897
10.5333 -0.1134 -2.2267 0.9578
9.6047 1.6272 -2.0592 0.9610
8.4753 2.2285 -1.8524 0.9648
6.7468 3.1410 -1.5731 0.9700
6.0553 3.5074 -1.4792 0.9718
5.4003 3.8091 -1.3969 0.9733
4.8049 4.0768 -1.3320 0.9746
4.4202 4.4870 -1.3314 0.9746
3.9124 4.7538 -1.3014 0.9751
2.3631 5.2814 -1.2230 0.9766
1.9034 5.5312 -1.2365 0.9764
0.7507 3.0396 -0.6618 0.9873
-0.7007 6.0628 -1.2901 0.9754
-2.3009 11.1024 -2.3967 0.9547
-3.2230 10.6584 -2.3537 0.9555
-4.8682 9.5308 -2.2622 0.9572
-5.5797 8.8695 -2.2150 0.9581
-6.2124 8.1579 -2.1675 0.9589
-7.2894 7.9811 -2.2848 0.9568
-2.4027 2.1999 -0.6886 0.9868
-8.2193 6.2753 -2.1859 0.9586
-8.5569 5.3980 -2.1386 0.9595
-8.9900 3.6345 -2.0497 0.9611
-9.0920 2.7617 -2.0086 0.9619
-9.1228 1.9025 -1.9699 0.9626
-9.0859 1.0615 -1.9336 0.9633
-8.9854 0.2427 -1.9000 0.9639
-8.6086 -1.3150 -1.8408 0.9650
-8.3395 -2.0486 -1.8152 0.9655
-7.6570 -3.4146 -1.7722 0.9663
-6.8026 -4.6346 -1.7399 0.9669
-5.7985 -5.6980 -1.7184 0.9673
-5.2465 -6.1680 -1.7117 0.9674
-4.6643 -6.5954 -1.7075 0.9675
-3.4179 -7.3178 -1.7072 0.9675
-2.7578 -7.6104 -1.7110 0.9674
-2.0760 -7.8555 -1.7175 0.9673
0.0789 -8.2920 -1.7528 0.9667
0.8261 -8.3326 -1.7700 0.9663
3.1170 -8.1156 -1.8376 0.9651
4.6529 -7.6699 -1.8963 0.9640
6.1583 -6.9666 -1.9655 0.9627
7.5923 -5.9943 -2.0448 0.9612
8.2675 -5.4050 -2.0879 0.9604
10.1381 -1.3517 -2.1619 0.9590
10.4425 -0.4519 -2.2094 0.9582
10.6647 0.4914 -2.2567 0.9573
5.0143 3.9817 -1.3534 0.9742
4.5664 4.3437 -1.3322 0.9746
3.4538 4.7192 -1.2362 0.9764
2.9868 4.9547 -1.2229 0.9766
2.0715 5.4389 -1.2302 0.9765
1.6051 5.6974 -1.2512 0.9761
0.6046 6.2767 -1.3329 0.9745
-1.2717 7.3261 -1.5718 0.9701
-4.5904 9.7567 -2.2792 0.9569
-5.9915 8.4219 -2.1848 0.9586
-7.0830 8.2799 -2.3032 0.9564
-8.4437 5.7181 -2.1556 0.9592
-8.7289 4.8365 -2.1094 0.9600
-8.9344 3.9543 -2.0652 0.9608
-9.1069 1.3651 -1.9465 0.9631
-9.0291 0.5378 -1.9120 0.9637
-8.6936 -1.0403 -1.8508 0.9648
-8.4432 -1.7855 -1.8242 0.9653
-7.7946 -3.1766 -1.7792 0.9662
-6.9698 -4.4241 -1.7450 0.9668
-4.8795 -6.4449 -1.7087 0.9675
-4.2792 -6.8446 -1.7063 0.9675
-3.6522 -7.1998 -1.7065 0.9675
-3.0006 -7.5093 -1.7094 0.9675
-2.3264 -7.7719 -1.7148 0.9674
-1.6318 -7.9861 -1.7230 0.9672
-0.9188 -8.1506 -1.7338 0.9670
2.0693 -8.2791 -1.8039 0.9657
2.8370 -8.1700 -1.8281 0.9653
3.6068 -8.0009 -1.8551 0.9648
4.3748 -7.7697 -1.8848 0.9642
5.1369 -7.4747 -1.9171 0.9636
7.3389 -6.1916 -2.0296 0.9615
8.0258 -5.6274 -2.0720 0.9607
8.6513 -4.9788 -2.1099 0.9600
8.6198 -3.9837 -2.0072 0.9619
9.1397 -3.2703 -2.0519 0.9611
10.0086 -1.6669 -2.1447 0.9594
10.6039 1.0946 -2.2534 0.9574
9.2727 1.8041 -1.9968 0.9621
5.8792 3.5992 -1.4571 0.9722
5.2317 3.8841 -1.3773 0.9737
4.6528 4.1465 -1.3174 0.9748
4.2796 4.5610 -1.3220 0.9748
3.6278 4.6333 -1.2439 0.9762
3.1552 4.8689 -1.2264 0.9766
1.7764 5.6015 -1.2422 0.9763
0.6563 2.9656 -0.6420 0.9877
-0.3433 6.8486 -1.4495 0.9724
-0.8634 6.1539 -1.3136 0.9749
-2.5580 10.9904 -2.3852 0.9549
-3.4634 10.5224 -2.3416 0.9557
-4.3027 9.9741 -2.2961 0.9566
-5.7600 8.6802 -2.2020 0.9583
-7.4364 7.7546 -2.2711 0.9570
-7.9208 6.9058 -2.2213 0.9579
-8.3196 6.0373 -2.1728 0.9588
-8.6346 5.1577 -2.1260 0.9597
-9.0250 3.3956 -2.0383 0.9613
-8.9475 0.0240 -1.8913 0.9641
-8.7715 -0.7617 -1.8611 0.9646
-8.5403 -1.5180 -1.8335 0.9652
-8.2575 -2.2428 -1.8087 0.9656
-7.1319 -4.2084 -1.7504 0.9667
-6.6742 -4.7889 -1.7364 0.9670
-4.5008 -6.7043 -1.7069 0.9675
-3.2404 -7.4021 -1.7080 0.9675
-1.8867 -7.9139 -1.7197 0.9673
-1.1802 -8.0967 -1.7296 0.9671
-0.4567 -8.2287 -1.7421 0.9669
1.7912 -8.3042 -1.7957 0.9659
4.0958 -7.8611 -1.8737 0.9644
4.8606 -7.5895 -1.9051 0.9638
5.6166 -7.2531 -1.9391 0.9632
6.3588 -6.8502 -1.9757 0.9625
7.7795 -5.8406 -2.0563 0.9610
8.4408 -5.2298 -2.0989 0.9602
8.4187 -4.2278 -1.9913 0.9622
2.3249 -0.9181 -0.5284 0.9898
10.7100 0.7549 -2.2695 0.9571
7.6230 2.6816 -1.7081 0.9675
6.1151 3.4757 -1.4868 0.9717
3.9579 4.7299 -1.3037 0.9751
3.3251 4.7833 -1.2314 0.9765
2.8616 5.0192 -1.2213 0.9767
1.9457 5.5079 -1.2348 0.9764
0.7821 3.0595 -0.6675 0.9872
0.5055 3.1130 -0.6666 0.9872
0.4571 6.3647 -1.3488 0.9742
-0.1182 6.7138 -1.4194 0.9729
-0.6492 6.0495 -1.2861 0.9754
-3.1413 10.7026 -2.3577 0.9554
-4.0055 10.1822 -2.3129 0.9563
-4.7994 9.5883 -2.2665 0.9571
-6.1579 8.2248 -2.1718 0.9589
-7.2386 8.0566 -2.2894 0.9567
-2.3589 2.1955 -0.6812 0.9869
-8.5295 5.4784 -2.1428 0.9594
-8.7927 4.5959 -2.0972 0.9602
-9.0857 2.8409 -2.0122 0.9618
-9.0920 1.1375 -1.9368 0.9632
-8.8421 -0.4791 -1.8718 0.9644
-8.6306 -1.2464 -1.8433 0.9650
-8.3662 -1.9829 -1.8174 0.9655
-6.8451 -4.5822 -1.7412 0.9669
-5.8474 -5.6530 -1.7192 0.9673
-4.7187 -6.5582 -1.7078 0.9675
-3.4770 -7.2887 -1.7070 0.9675
-2.8191 -7.5856 -1.7106 0.9675
-0.7217 -8.1866 -1.7372 0.9670
-8.1586 2.9939 -2.0425 0.9649
-8.2220 0.6908 -1.9392 0.9667
-7.7653 -1.4457 -1.8564 0.9681
-6.4918 -3.9024 -1.7802 0.9694
-5.6209 -4.9284 -1.7569 0.9698
-5.1358 -5.3857 -1.7490 0.9699
-4.6207 -5.8042 -1.7436 0.9700
-4.0778 -6.1826 -1.7406 0.9700
-2.9171 -6.8146 -1.7422 0.9700
-2.3037 -7.0656 -1.7466 0.9699
-1.6710 -7.2716 -1.7536 0.9698
1.0061 -7.6186 -1.8061 0.9689
1.6995 -7.5788 -1.8254 0.9686
2.3969 -7.4854 -1.8472 0.9682
3.0950 -7.3369 -1.8715 0.9678
4.4786 -6.8690 -1.9272 0.9669
5.1559 -6.5472 -1.9586 0.9663
5.8175 -6.1654 -1.9922 0.9658
6.4580 -5.7230 -2.0280 0.9652
7.0720 -5.2198 -2.0658 0.9645
8.4779 -2.4255 -2.0724 0.9644
8.8333 -1.6929 -2.1138 0.9637
9.1257 -0.9162 -2.1555 0.9630
8.4604 2.2246 -2.0560 0.9647
6.0468 3.5025 -1.6423 0.9717
4.8648 4.1276 -1.4994 0.9741
3.9076 4.7480 -1.4452 0.9750
1.9353 5.6240 -1.3978 0.9759
0.7461 3.0209 -0.7313 0.9873
0.4822 3.1305 -0.7444 0.9871
-0.1740 6.7523 -1.5875 0.9726
-0.6992 6.0505 -1.4315 0.9753
-2.8421 9.3989 -2.3077 0.9605
-6.0360 6.6089 -2.1036 0.9639
-2.3965 2.1942 -0.7637 0.9867
-7.6882 4.8500 -2.1364 0.9633
-7.9352 4.0657 -2.0955 0.9640
-8.1115 3.2793 -2.0563 0.9647
-8.2198 2.4968 -2.0190 0.9653
-8.0319 -0.5009 -1.8914 0.9675
-7.8455 -1.1985 -1.8653 0.9679
-7.6097 -1.8693 -1.8416 0.9683
-6.6347 -3.7005 -1.7855 0.9693
-6.2299 -4.2444 -1.7717 0.9695
-5.7895 -4.7526 -1.7604 0.9697
-4.8114 -5.6565 -1.7453 0.9699
-2.5292 -6.9794 -1.7447 0.9700
-1.9033 -7.2020 -1.7507 0.9699
-1.2595 -7.3787 -1.7593 0.9697
-0.6002 -7.5083 -1.7702 0.9695
0.0723 -7.5892 -1.7837 0.9693
0.7555 -7.6201 -1.7997 0.9690
1.4466 -7.5994 -1.8181 0.9687
2.1429 -7.5256 -1.8390 0.9684
3.5379 -7.2131 -1.8882 0.9675
4.2292 -6.9714 -1.9164 0.9671
4.9111 -6.6712 -1.9469 0.9665
6.2278 -5.8910 -2.0147 0.9654
6.8521 -5.4099 -2.0518 0.9648
8.7109 -1.9648 -2.0987 0.9640
9.2758 -0.4014 -2.1821 0.9626
9.5451 1.2998 -2.2640 0.9612
6.2882 3.3745 -1.6772 0.9711
5.6468 3.7143 -1.5885 0.9726
5.0649 4.0219 -1.5200 0.9738
4.5657 4.3431 -1.4810 0.9744
4.0895 4.6525 -1.4558 0.9749
2.5710 5.2791 -1.3800 0.9762
2.1061 5.5297 -1.3907 0.9760
-0.5066 6.1218 -1.4437 0.9751
-4.0631 8.6361 -2.2431 0.9615
-4.7289 8.0886 -2.2020 0.9622
-5.3287 7.4903 -2.1604 0.9629
-5.8600 6.8503 -2.1187 0.9636
-2.2897 2.2374 -0.7524 0.9869
-7.2336 5.9043 -2.1945 0.9624
-7.5804 5.1335 -2.1517 0.9631
-8.2545 2.0032 -1.9963 0.9657
-8.2577 1.2378 -1.9624 0.9663
-8.2007 0.4884 -1.9308 0.9668
-7.9192 -0.9477 -1.8745 0.9678
-7.1249 -2.9037 -1.8082 0.9689
-6.7727 -3.4940 -1.7911 0.9692
-6.3815 -4.0506 -1.7764 0.9694
-5.4919 -5.0567 -1.7545 0.9698
-4.4755 -5.9113 -1.7425 0.9700
-3.9253 -6.2786 -1.7403 0.9700
-2.7521 -6.8873 -1.7431 0.9700
-0.8417 -7.4667 -1.7660 0.9696
-0.1738 -7.5655 -1.7785 0.9694
0.5058 -7.6147 -1.7936 0.9691
1.8892 -7.5587 -1.8311 0.9685
2.5871 -7.4504 -1.8536 0.9681
3.2848 -7.2867 -1.8785 0.9677
5.3379 -6.4492 -1.9675 0.9662
5.9943 -6.0509 -2.0018 0.9656
6.6282 -5.5919 -2.0381 0.9650
7.7784 -4.4765 -2.1092 0.9638
7.7358 -3.5751 -2.0029 0.9656
8.1837 -2.9283 -2.0428 0.9649
8.9195 -1.4855 -2.1252 0.9635
9.1935 -0.6976 -2.1669 0.9628
9.5204 0.9827 -2.2494 0.9614
9.2552 1.8006 -2.2160 0.9620
6.5402 3.2407 -1.7155 0.9705
4.2743 4.5554 -1.4681 0.9747
3.2077 4.9499 -1.3863 0.9761
0.6528 2.9499 -0.7101 0.9877
0.8071 6.2464 -1.4803 0.9745
0.2562 6.5308 -1.5361 0.9735
-3.0560 9.2847 -2.2973 0.9606
-3.8053 8.8210 -2.2578 0.9613
-5.1183 7.7132 -2.1756 0.9627
-6.6332 6.9170 -2.2524 0.9614
-7.4628 5.4156 -2.1671 0.9628
-7.7626 4.6369 -2.1251 0.9635
-8.1477 3.0655 -2.0459 0.9649
-8.2636 1.5146 -1.9745 0.9661
-7.5372 -2.0472 -1.8356 0.9684
-6.5281 -3.8521 -1.7815 0.9693
-5.6637 -4.8847 -1.7578 0.9697
-4.1285 -6.1497 -1.7408 0.9700
-3.5622 -6.4907 -1.7401 0.9700
-2.3606 -7.0445 -1.7461 0.9699
-0.4182 -7.5352 -1.7737 0.9695
0.2574 -7.6026 -1.7878 0.9692
0.9431 -7.6196 -1.8044 0.9689
2.3331 -7.4962 -1.8451 0.9683
3.7269 -7.1530 -1.8956 0.9674
4.4161 -6.8955 -1.9245 0.9669
5.0946 -6.5791 -1.9556 0.9664
7.5932 -4.7046 -2.0993 0.9640
7.5615 -3.7973 -1.9886 0.9658
8.4425 -2.4900 -2.0687 0.9645
9.1017 -0.9888 -2.1517 0.9631
9.4845 0.6686 -2.2346 0.9617
8.5539 2.1748 -2.0743 0.9644
5.4831 3.8009 -1.5680 0.9730
4.9145 4.1013 -1.5044 0.9740
4.4623 4.4564 -1.4822 0.9744
3.9531 4.7242 -1.4477 0.9750
1.7671 3.8645 -0.9987 0.9827
1.9783 5.6001 -1.3959 0.9759
0.7771 3.0397 -0.7374 0.9872
0.4614 6.4249 -1.5139 0.9739
-0.1184 6.7237 -1.5805 0.9727
-0.6485 6.0430 -1.4284 0.9753
-2.7695 9.4360 -2.3112 0.9604
-3.5394 8.9974 -2.2723 0.9611
-4.2508 8.4925 -2.2320 0.9617
-4.8990 7.9302 -2.1907 0.9624
-5.4803 7.3197 -2.1490 0.9631
-2.3558 2.1927 -0.7564 0.9869
-7.3354 5.6958 -2.1827 0.9626
-7.9156 4.1375 -2.0992 0.9640
-8.0983 3.3511 -2.0598 0.9646
-8.2126 2.5679 -2.0223 0.9653
-8.2615 1.7933 -1.9869 0.9659
-8.2480 1.0319 -1.9536 0.9664
-7.8647 -1.1358 -1.8676 0.9679
-7.6332 -1.8092 -1.8437 0.9683
-7.3550 -2.4539 -1.8223 0.9686
-7.0329 -3.0677 -1.8033 0.9690
-6.6699 -3.6491 -1.7868 0.9692
-5.8311 -4.7077 -1.7613 0.9697
-4.8587 -5.6186 -1.7458 0.9699
-4.3282 -6.0154 -1.7417 0.9700
-3.1894 -6.6857 -1.7409 0.9700
-7.2799 3.4361 -2.0843 0.9673
-7.4299 2.7265 -2.0492 0.9678
-7.5185 2.0195 -2.0157 0.9683
-7.5215 0.6319 -1.9543 0.9693
-7.4411 -0.0408 -1.9267 0.9697
-5.9805 -3.5951 -1.8067 0.9716
-4.2637 -5.3557 -1.7725 0.9721
-3.7632 -5.7057 -1.7697 0.9722
-2.1254 -6.5188 -1.7753 0.9721
-1.5413 -6.7069 -1.7818 0.9720
-0.9417 -6.8513 -1.7906 0.9718
-0.3290 -6.9509 -1.8017 0.9717
0.2944 -7.0044 -1.8152 0.9714
1.5625 -6.9679 -1.8489 0.9709
3.4735 -6.5361 -1.9164 0.9699
4.0992 -6.2871 -1.9433 0.9695
6.9356 -4.2193 -2.1019 0.9670
2.3632 -0.9110 -0.6558 0.9896
7.9623 -1.5260 -2.0991 0.9671
8.5089 0.6696 -2.2099 0.9653
8.5503 1.4486 -2.2454 0.9648
7.5201 2.7146 -2.0701 0.9675
5.4218 3.8243 -1.7179 0.9730
4.8585 4.1222 -1.6497 0.9740
4.4092 4.4758 -1.6267 0.9744
3.9028 4.7422 -1.5902 0.9749
2.8857 5.1587 -1.5305 0.9759
1.9440 5.6492 -1.5469 0.9756
0.4099 6.4428 -1.6715 0.9737
-0.1737 6.7431 -1.7465 0.9725
-0.6984 6.0433 -1.5751 0.9752
-1.8056 8.7123 -2.3037 0.9639
-2.5389 8.3962 -2.2711 0.9644
-3.8669 7.5704 -2.2010 0.9655
-4.9774 6.5362 -2.1272 0.9666
-5.4435 5.9601 -2.0899 0.9672
-7.4932 2.2761 -2.0277 0.9682
-7.5441 1.5733 -1.9953 0.9687
-7.5376 0.8806 -1.9649 0.9691
-7.3631 -0.4592 -1.9101 0.9700
-6.9913 -1.7174 -1.8640 0.9707
-6.7383 -2.3094 -1.8443 0.9710
-6.4439 -2.8736 -1.8268 0.9713
-4.4393 -5.2190 -1.7740 0.9721
-3.9482 -5.5827 -1.7704 0.9721
-3.4321 -5.9083 -1.7691 0.9722
-0.5532 -6.9200 -1.7974 0.9717
0.0665 -6.9904 -1.8100 0.9715
0.6954 -7.0139 -1.8249 0.9713
2.6079 -6.7901 -1.8833 0.9704
4.4912 -6.1007 -1.9615 0.9692
5.0946 -5.7633 -1.9917 0.9687
6.2375 -4.9246 -2.0577 0.9677
6.7661 -4.4235 -2.0930 0.9672
6.7376 -3.5914 -1.9768 0.9689
2.2974 -0.9725 -0.6459 0.9897
7.5323 -2.4223 -2.0486 0.9678
8.1269 -1.0835 -2.1228 0.9667
8.3346 -0.3607 -2.1600 0.9661
8.4754 0.3905 -2.1968 0.9656
7.8383 2.5449 -2.1338 0.9665
5.6390 3.7092 -1.7476 0.9725
4.0845 4.6467 -1.6018 0.9748
1.6365 5.8088 -1.5626 0.9754
0.5497 2.9321 -0.7724 0.9877
0.6106 6.3393 -1.6490 0.9740
-0.5067 6.1221 -1.5905 0.9749
-2.2769 8.5193 -2.2832 0.9642
-3.6405 7.7379 -2.2141 0.9653
-4.7929 6.7371 -2.1407 0.9664
-5.2810 6.1734 -2.1035 0.9670
-2.2892 2.2370 -0.8287 0.9869
-6.8705 4.6527 -2.1484 0.9663
-7.5465 1.1312 -1.9757 0.9690
-7.5048 0.4470 -1.9466 0.9694
-7.4102 -0.2209 -1.9195 0.9698
-7.2652 -0.8694 -1.8945 0.9702
-6.2363 -3.2173 -1.8169 0.9714
-5.8798 -3.7322 -1.8032 0.9716
-4.1298 -5.4548 -1.7715 0.9721
-3.6226 -5.7943 -1.7693 0.9722
-3.0918 -6.0949 -1.7695 0.9722
-1.3793 -6.7506 -1.7840 0.9719
-0.7759 -6.8829 -1.7934 0.9718
-0.1601 -6.9701 -1.8052 0.9716
2.3757 -6.8414 -1.8751 0.9705
3.0130 -6.6837 -1.8982 0.9702
3.6450 -6.4736 -1.9235 0.9698
4.2677 -6.2100 -1.9510 0.9693
4.8771 -5.8924 -1.9804 0.9689
5.4686 -5.5202 -2.0119 0.9684
6.0373 -5.0934 -2.0451 0.9679
6.5780 -4.6122 -2.0801 0.9673
7.0093 -3.2394 -1.9993 0.9686
7.4013 -2.6483 -2.0353 0.9680
7.7454 -2.0134 -2.0721 0.9675
8.4323 0.1144 -2.1835 0.9658
8.5277 0.8802 -2.2197 0.9652
8.1769 2.3641 -2.2038 0.9654
7.2877 2.8329 -2.0245 0.9682
6.5306 3.2359 -1.8871 0.9703
5.8640 3.5899 -1.7802 0.9720
4.7122 4.1995 -1.6343 0.9743
4.2689 4.5497 -1.6154 0.9746
2.7582 5.2253 -1.5298 0.9759
1.6320 3.8991 -1.0944 0.9827
1.8131 5.7172 -1.5529 0.9755
0.6494 2.9344 -0.7781 0.9877
-0.8569 6.1078 -1.5969 0.9748
-2.0094 8.6332 -2.2950 0.9640
-3.4072 7.8981 -2.2271 0.9651
-5.1105 6.3826 -2.1170 0.9668
-7.0438 4.2075 -2.1244 0.9667
-7.2630 3.5009 -2.0876 0.9672
-7.4187 2.7913 -2.0523 0.9678
-7.5479 1.3834 -1.9868 0.9688
-7.5263 0.6942 -1.9570 0.9693
-7.3236 -0.6359 -1.9033 0.9701
-7.1480 -1.2706 -1.8798 0.9704
-6.9266 -1.8813 -1.8584 0.9708
-6.0136 -3.5485 -1.8079 0.9716
-5.6348 -4.0431 -1.7957 0.9718
-4.7798 -4.9311 -1.7781 0.9720
-3.8100 -5.6753 -1.7698 0.9722
-2.7427 -6.2653 -1.7708 0.9721
-2.1779 -6.4995 -1.7748 0.9721
-0.9970 -6.8400 -1.7897 0.9718
-0.3854 -6.9437 -1.8006 0.9717
0.2371 -7.0015 -1.8138 0.9715
1.5042 -6.9739 -1.8472 0.9710
2.1432 -6.8860 -1.8673 0.9706
3.4159 -6.5561 -1.9141 0.9699
4.0425 -6.3121 -1.9408 0.9695
5.2558 -5.6619 -2.0002 0.9686
6.3848 -4.7935 -2.0672 0.9675
6.8936 -4.2711 -2.0997 0.9670
7.6261 -2.2493 -2.0586 0.9677
8.3798 -0.1586 -2.1701 0.9660
8.5014 0.5993 -2.2066 0.9654
5.4757 3.7958 -1.7251 0.9728
4.9082 4.0960 -1.6552 0.9739
4.4567 4.4508 -1.6308 0.9743
3.3993 4.8900 -1.5420 0.9757
2.9284 5.1364 -1.5309 0.9759
1.7692 3.8692 -1.1016 0.9826
1.9877 5.6266 -1.5450 0.9756
0.4608 6.4165 -1.6656 0.9738
-0.6478 6.0368 -1.5720 0.9752
-1.7366 8.7375 -2.3066 0.9639
-2.4737 8.4280 -2.2742 0.9644
-3.1670 8.0507 -2.2400 0.9649
-4.9319 6.5871 -2.1306 0.9666
-5.4034 6.0140 -2.0933 0.9671
-2.3528 2.1898 -0.8322 0.9868
-6.9479 4.4626 -2.1381 0.9665
-7.1907 3.7586 -2.1008 0.9670
-7.3693 3.0494 -2.0650 0.9676
-7.3756 -0.3997 -1.9125 0.9699
-7.2174 -1.0423 -1.8881 0.9703
-7.0123 -1.6620 -1.8659 0.9707
-5.7766 -3.8670 -1.7999 0.9717
-5.3764 -4.3406 -1.7891 0.9719
-2.9433 -6.1699 -1.7700 0.9721
-1.8092 -6.6266 -1.7785 0.9720
-1.2163 -6.7910 -1.7863 0.9719
-0.6093 -6.9112 -1.7964 0.9717
-6.8140 2.5005 -2.0548 0.9703
-6.9047 1.8546 -2.0240 0.9707
-6.9409 1.2137 -1.9947 0.9711
-6.9247 0.5818 -1.9672 0.9715
-6.8583 -0.0376 -1.9416 0.9719
-6.3817 -1.7893 -1.8763 0.9728
-5.8567 -2.8433 -1.8430 0.9733
-5.1879 -3.7869 -1.8183 0.9737
-4.8053 -4.2132 -1.8092 0.9738
-4.3934 -4.6072 -1.8022 0.9739
-3.9545 -4.9674 -1.7974 0.9740
-3.4908 -5.2926 -1.7948 0.9740
-1.9711 -6.0455 -1.8001 0.9739
-0.8727 -6.3498 -1.8145 0.9737
1.4447 -6.4426 -1.8691 0.9729
2.0339 -6.3518 -1.8881 0.9727
2.6211 -6.2134 -1.9091 0.9724
3.7756 -5.7908 -1.9570 0.9717
4.3355 -5.5054 -1.9838 0.9713
5.8954 -4.3513 -2.0743 0.9700
6.3436 -3.8591 -2.1020 0.9696
6.2993 -3.0994 -1.9875 0.9712
6.6581 -2.5667 -2.0201 0.9708
7.2401 -1.3876 -2.0869 0.9698
7.4532 -0.7483 -2.1205 0.9693
7.7002 0.6060 -2.1866 0.9684
7.5078 2.7101 -2.2596 0.9674
6.0295 3.4925 -1.9726 0.9714
5.4145 3.8191 -1.8757 0.9728
4.8521 4.1168 -1.8014 0.9739
3.8980 4.7363 -1.7365 0.9748
2.8822 5.1525 -1.6713 0.9758
0.4781 3.1042 -0.8891 0.9870
0.4094 6.4342 -1.8252 0.9736
-0.1735 6.7337 -1.9069 0.9724
-3.5007 6.8535 -2.1786 0.9685
-4.9516 5.4216 -2.0786 0.9699
-6.0871 4.6474 -2.1680 0.9687
-6.5992 3.3812 -2.0991 0.9696
-6.8781 2.0892 -2.0350 0.9706
-6.9339 1.4460 -2.0052 0.9710
-6.7910 -0.4235 -1.9262 0.9721
-6.6476 -1.0155 -1.9037 0.9724
-6.2314 -2.1356 -1.8648 0.9730
-5.9634 -2.6593 -1.8485 0.9732
-4.9479 -4.0618 -1.8123 0.9737
-4.5465 -4.4676 -1.8045 0.9738
-4.1172 -4.8403 -1.7989 0.9739
-3.6622 -5.1784 -1.7955 0.9740
0.0616 -6.4736 -1.8327 0.9734
1.8196 -6.3903 -1.8810 0.9728
2.4079 -6.2693 -1.9012 0.9725
5.2131 -4.9311 -2.0314 0.9706
5.7185 -4.5149 -2.0626 0.9702
2.2952 -0.9716 -0.7056 0.9897
6.8641 -2.2073 -2.0412 0.9705
7.1490 -1.6125 -2.0747 0.9700
7.3821 -0.9842 -2.1083 0.9695
7.5587 -0.3271 -2.1418 0.9690
7.6742 0.3536 -2.1748 0.9686
7.7061 1.7608 -2.2378 0.9677
6.9889 2.9815 -2.1510 0.9689
6.2699 3.3646 -2.0144 0.9709
5.0516 4.0113 -1.8261 0.9735
4.5644 4.3418 -1.7834 0.9742
4.0794 4.6409 -1.7492 0.9746
2.5849 5.3076 -1.6713 0.9758
1.6345 5.8016 -1.7063 0.9753
0.6098 6.3310 -1.8006 0.9739
-0.5067 6.1224 -1.7391 0.9748
-1.2659 7.2931 -2.0955 0.9697
-2.0541 7.6854 -2.2520 0.9675
-2.6947 7.3717 -2.2220 0.9679
-3.2939 7.0012 -2.1904 0.9683
-4.3503 6.1150 -2.1245 0.9693
-2.2894 2.2372 -0.9062 0.9868
-5.9593 4.8642 -2.1777 0.9685
-6.5237 3.6147 -2.1114 0.9695
-6.8442 2.3243 -2.0462 0.9704
-6.9115 0.4117 -1.9601 0.9716
-6.8318 -0.2037 -1.9349 0.9720
-6.5333 -1.3816 -1.8904 0.9726
-6.3193 -1.9388 -1.8713 0.9729
-6.0653 -2.4718 -1.8542 0.9731
-5.4467 -3.4573 -1.8263 0.9735
-5.0867 -3.9062 -1.8156 0.9737
-4.2765 -4.7087 -1.8007 0.9739
-2.3554 -5.8946 -1.7970 0.9740
-1.2787 -6.2582 -1.8083 0.9738
-0.7191 -6.3784 -1.8171 0.9737
1.6053 -6.4225 -1.8741 0.9729
2.1942 -6.3189 -1.8936 0.9726
3.3599 -5.9673 -1.9387 0.9719
5.5378 -4.6720 -2.0511 0.9703
6.0138 -3.4609 -1.9642 0.9716
6.4011 -2.9583 -1.9963 0.9711
7.0511 -1.8329 -2.0624 0.9702
7.3036 -1.2164 -2.0961 0.9697
7.5013 -0.5692 -2.1297 0.9692
7.6395 0.1036 -2.1629 0.9687
7.2760 2.8283 -2.2099 0.9681
5.8558 3.5848 -1.9437 0.9719
4.2636 4.5440 -1.7640 0.9744
3.2233 4.9740 -1.6779 0.9757
0.6466 2.9218 -0.8472 0.9876
0.8051 6.2304 -1.7784 0.9742
0.2555 6.5134 -1.8453 0.9733
-1.8118 7.7842 -2.2625 0.9673
-4.1732 6.2888 -2.1366 0.9691
-4.6433 5.7991 -2.1031 0.9696
-5.0597 5.2762 -2.0695 0.9701
-6.1709 4.4780 -2.1584 0.9688
-6.4404 3.8470 -2.1237 0.9693
-6.6507 3.2058 -2.0901 0.9698
-6.8030 2.5596 -2.0577 0.9702
-6.8987 1.9135 -2.0267 0.9707
-6.9398 1.2720 -1.9973 0.9711
-6.9283 0.6390 -1.9697 0.9715
-6.8664 0.0184 -1.9438 0.9719
-6.6008 -1.1733 -1.8979 0.9725
-5.2213 -3.7464 -1.8193 0.9736
-4.4322 -4.5726 -1.8028 0.9739
-3.5341 -5.2644 -1.7950 0.9740
-2.5440 -5.8115 -1.7959 0.9740
-2.0198 -6.0277 -1.7997 0.9739
-0.9241 -6.3396 -1.8137 0.9737
0.2195 -6.4829 -1.8363 0.9734
0.8031 -6.4885 -1.8509 0.9732
1.9801 -6.3621 -1.8863 0.9727
2.5676 -6.2281 -1.9071 0.9724
4.2851 -5.5336 -1.9813 0.9713
5.3534 -4.8226 -2.0398 0.9705
6.3057 -3.9069 -2.1000 0.9696
6.2646 -3.1460 -1.9845 0.9713
6.9465 -2.0488 -2.0503 0.9703
7.6945 0.5424 -2.1837 0.9684
7.6888 1.9548 -2.2459 0.9676
6.7836 3.0910 -2.1103 0.9695
5.4682 3.7906 -1.8836 0.9727
4.4510 4.4452 -1.7808 0.9742
1.9852 5.6197 -1.6872 0.9755
0.7869 3.0780 -0.8994 0.9869
0.4602 6.4081 -1.8187 0.9736
-0.1180 6.7053 -1.8985 0.9725
-0.6471 6.0307 -1.7171 0.9751
-1.5650 7.8744 -2.2728 0.9672
-2.2324 7.6059 -2.2440 0.9676
-4.4784 5.9815 -2.1153 0.9694
-4.9145 5.4699 -2.0817 0.9699
-2.3497 2.1870 -0.9087 0.9867
-6.8703 2.1482 -2.0378 0.9705
-6.9311 1.5045 -2.0078 0.9709
-6.4791 -1.5357 -1.8850 0.9727
-6.2540 -2.0865 -1.8664 0.9730
-4.9832 -4.0231 -1.8131 0.9737
-4.1575 -4.8077 -1.7993 0.9739
-3.2283 -5.4546 -1.7943 0.9740
-2.7302 -5.7231 -1.7951 0.9740
-1.6776 -6.1446 -1.8032 0.9739
-0.5646 -6.4039 -1.8199 0.9736
-6.2863 2.3068 -2.0596 0.9724
-6.3774 1.7130 -2.0311 0.9727
-6.4095 0.5385 -1.9784 0.9734
-6.3543 -0.0348 -1.9545 0.9738
-6.2541 -0.5945 -1.9323 0.9741
-6.1110 -1.1377 -1.9119 0.9743
-5.9273 -1.6619 -1.8934 0.9746
-5.7051 -2.1648 -1.8768 0.9748
-5.4466 -2.6442 -1.8622 0.9750
-4.8292 -3.5251 -1.8390 0.9753
-4.0921 -4.2912 -1.8238 0.9755
-3.6840 -4.6276 -1.8193 0.9756
-3.2523 -4.9310 -1.8168 0.9756
-2.7990 -5.2002 -1.8164 0.9756
-2.3262 -5.4341 -1.8181 0.9756
-1.8361 -5.6313 -1.8218 0.9755
-1.3308 -5.7909 -1.8276 0.9754
-0.8125 -5.9116 -1.8354 0.9753
-0.2836 -5.9925 -1.8452 0.9752
0.2535 -6.0324 -1.8571 0.9750
2.4314 -5.7639 -1.9241 0.9742
2.9685 -5.5858 -1.9456 0.9739
4.0105 -5.0927 -1.9938 0.9732
4.5079 -4.7775 -2.0203 0.9729
4.9841 -4.4168 -2.0483 0.9725
5.7925 -2.8500 -1.9856 0.9733
6.3953 -1.8297 -2.0460 0.9725
6.6308 -1.2708 -2.0766 0.9721
7.0241 0.5527 -2.1671 0.9709
7.0385 1.1925 -2.1957 0.9706
6.6970 3.1178 -2.2721 0.9696
6.0208 3.4874 -2.1401 0.9713
5.4070 3.8138 -2.0352 0.9727
4.8457 4.1114 -1.9546 0.9738
3.3477 4.9006 -1.8255 0.9755
1.9392 5.6353 -1.8331 0.9754
0.4806 3.1199 -0.9709 0.9869
-2.6590 6.6008 -2.1888 0.9707
-2.3810 2.1801 -0.9929 0.9866
-6.0780 3.1141 -2.1005 0.9718
-6.2403 2.5228 -2.0703 0.9722
-6.3502 1.9289 -2.0413 0.9726
-6.4181 0.7498 -1.9875 0.9733
-6.1679 -0.9422 -1.9191 0.9742
-5.9987 -1.4736 -1.8999 0.9745
-5.7902 -1.9845 -1.8827 0.9747
-5.5447 -2.4726 -1.8673 0.9749
-4.9508 -3.3730 -1.8426 0.9752
-3.4119 -4.8245 -1.8175 0.9756
-2.9662 -5.1063 -1.8164 0.9756
-2.0162 -5.5639 -1.8202 0.9755
-1.0024 -5.8723 -1.8323 0.9754
0.0573 -6.0227 -1.8525 0.9751
0.5984 -6.0360 -1.8656 0.9749
1.1435 -6.0068 -1.8808 0.9747
2.2344 -5.8175 -1.9168 0.9743
3.3055 -5.4488 -1.9602 0.9737
3.8252 -5.1960 -1.9845 0.9734
4.8136 -4.5532 -2.0380 0.9727
5.2741 -4.1640 -2.0668 0.9723
5.7000 -3.7265 -2.0946 0.9719
6.2981 -2.0253 -2.0349 0.9727
6.5507 -1.4775 -2.0655 0.9723
7.0036 0.3227 -2.1565 0.9711
7.0405 0.9587 -2.1855 0.9707
6.9253 2.2484 -2.2395 0.9700
6.7699 2.8881 -2.2638 0.9697
4.5257 4.3050 -1.9212 0.9742
4.0742 4.6351 -1.8981 0.9745
2.5817 5.3011 -1.8136 0.9756
2.1121 5.5455 -1.8252 0.9755
-1.2519 7.2121 -2.2515 0.9698
-1.8688 6.9921 -2.2261 0.9702
-3.0042 6.3855 -2.1705 0.9709
-3.5133 6.0093 -2.1410 0.9713
-4.3964 5.1393 -2.0802 0.9721
-5.7700 3.9075 -2.1434 0.9713
-6.0056 3.3276 -2.1118 0.9717
-6.1874 2.7385 -2.0812 0.9721
-6.3162 2.1450 -2.0517 0.9725
-6.3991 0.3811 -1.9717 0.9735
-6.2192 -0.7442 -1.9266 0.9741
-6.0649 -1.2825 -1.9067 0.9744
-4.7354 -3.6365 -1.8364 0.9753
-3.5686 -4.7135 -1.8184 0.9756
-3.1308 -5.0078 -1.8165 0.9756
-2.1943 -5.4915 -1.8189 0.9756
-1.1908 -5.8277 -1.8295 0.9754
-0.6694 -5.9376 -1.8379 0.9753
0.4010 -6.0360 -1.8606 0.9750
1.4911 -5.9657 -1.8914 0.9746
3.6377 -5.2933 -1.9755 0.9735
5.1096 -4.3108 -2.0562 0.9724
5.5351 -3.1855 -1.9643 0.9736
6.4641 -1.6804 -2.0543 0.9724
6.6866 -1.1136 -2.0850 0.9720
6.8583 -0.5204 -2.1155 0.9716
6.9655 2.0139 -2.2302 0.9701
5.8474 3.5797 -2.1088 0.9717
5.2496 3.8974 -2.0110 0.9730
4.2581 4.5382 -1.9141 0.9743
3.6946 4.7186 -1.8433 0.9752
1.6193 3.8688 -1.2900 0.9826
1.8086 5.7031 -1.8402 0.9753
0.2552 6.5045 -2.0022 0.9731
-0.8543 6.0891 -1.8912 0.9746
-1.6476 7.0790 -2.2356 0.9700
-2.2454 6.8221 -2.2091 0.9704
-2.8088 6.5110 -2.1810 0.9708
-4.6372 4.8356 -2.0607 0.9724
-5.6648 4.1108 -2.1528 0.9711
-5.9262 3.5399 -2.1232 0.9715
-6.2754 2.3611 -2.0623 0.9723
-6.4162 1.1760 -2.0064 0.9731
-6.1258 -1.0889 -1.9137 0.9743
-5.9457 -1.6149 -1.8950 0.9745
-4.8601 -3.4872 -1.8399 0.9753
-4.5081 -3.8881 -1.8311 0.9754
-4.1282 -4.2589 -1.8243 0.9755
-3.7223 -4.5982 -1.8196 0.9755
-3.2926 -4.9047 -1.8170 0.9756
-2.8412 -5.1771 -1.8164 0.9756
-2.3701 -5.4142 -1.8179 0.9756
-0.8603 -5.9022 -1.8346 0.9753
-0.3323 -5.9868 -1.8442 0.9752
0.7466 -6.0323 -1.8696 0.9749
1.2923 -5.9914 -1.8852 0.9747
1.8384 -5.9069 -1.9028 0.9744
3.9642 -5.1192 -1.9915 0.9733
6.8020 -0.7390 -2.1044 0.9718
7.0197 0.4948 -2.1645 0.9710
6.9970 1.7789 -2.2206 0.9702
6.8895 2.4236 -2.2463 0.9699
6.7161 3.0603 -2.2701 0.9696
3.3909 4.8780 -1.8273 0.9754
2.9213 5.1238 -1.8141 0.9756
0.4596 6.3995 -1.9734 0.9735
-0.6465 6.0246 -1.8637 0.9750
-1.4227 7.1582 -2.2448 0.9699
-2.6081 6.6301 -2.1914 0.9706
-3.1471 6.2874 -2.1626 0.9710
-3.6444 5.8994 -2.1328 0.9714
-4.5019 5.0107 -2.0719 0.9722
-5.8396 3.7507 -2.1347 0.9714
-6.0605 3.1678 -2.1034 0.9718
-6.3423 1.9831 -2.0439 0.9726
-6.4193 0.8031 -1.9898 0.9733
-6.1813 -0.8927 -1.9210 0.9742
-6.0158 -1.4259 -1.9016 0.9745
-5.5686 -2.4290 -1.8686 0.9749
-5.2912 -2.8948 -1.8551 0.9751
-4.2695 -4.1276 -1.8265 0.9755
-2.5436 -5.3321 -1.8171 0.9756
-1.5625 -5.7230 -1.8247 0.9755
-1.0498 -5.8615 -1.8316 0.9754
-0.5255 -5.9607 -1.8405 0.9753
-5.6899 2.6857 -2.0915 0.9738
-5.8286 2.1389 -2.0638 0.9742
-5.9600 0.5007 -1.9881 0.9751
-5.9136 -0.0324 -1.9657 0.9754
-5.0855 -2.4689 -1.8791 0.9765
-4.8144 -2.8941 -1.8672 0.9766
-4.1826 -3.6673 -1.8491 0.9768
-3.4450 -4.3274 -1.8386 0.9770
-3.0416 -4.6115 -1.8363 0.9770
-2.6177 -4.8634 -1.8359 0.9770
-2.1754 -5.0818 -1.8375 0.9770
-1.7168 -5.2656 -1.8410 0.9769
-1.2441 -5.4137 -1.8464 0.9769
-0.7594 -5.5250 -1.8538 0.9768
1.7604 -5.4977 -1.9189 0.9760
4.1855 -4.4358 -2.0272 0.9746
5.0359 -3.7170 -2.0806 0.9740
5.4029 -3.2869 -2.1022 0.9737
5.6468 -2.1769 -2.0117 0.9748
5.8994 -1.6878 -2.0397 0.9745
6.3881 -0.0688 -2.1236 0.9734
6.4498 0.5076 -2.1506 0.9731
6.4049 1.6841 -2.2014 0.9725
5.8962 3.4152 -2.2650 0.9717
5.3995 3.8085 -2.1964 0.9725
4.2417 4.3058 -2.0091 0.9748
1.6434 3.6729 -1.3375 0.9832
1.9368 5.6282 -1.9785 0.9752
-0.1730 6.7148 -2.2328 0.9721
-0.6960 6.0229 -2.0154 0.9748
-1.3547 6.5368 -2.2190 0.9723
-2.4396 6.0562 -2.1703 0.9729
-3.8074 4.9998 -2.0890 0.9739
-5.7838 2.3383 -2.0737 0.9740
-5.7473 -0.8779 -1.9326 0.9758
-5.4025 -1.8516 -1.8984 0.9762
-4.9166 -2.7422 -1.8713 0.9765
-4.6259 -3.1516 -1.8606 0.9767
-3.5864 -4.2163 -1.8399 0.9769
-2.7741 -4.7756 -1.8358 0.9770
-2.3383 -5.0063 -1.8367 0.9770
-1.8854 -5.2028 -1.8395 0.9769
-1.4175 -5.3640 -1.8442 0.9769
-0.9369 -5.4888 -1.8509 0.9768
0.0536 -5.6253 -1.8700 0.9766
2.0822 -5.4213 -1.9304 0.9758
2.5832 -5.2667 -1.9499 0.9756
4.0209 -4.5487 -2.0181 0.9747
4.4665 -4.2250 -2.0437 0.9744
5.2758 -3.4492 -2.0952 0.9738
5.2409 -2.7936 -1.9741 0.9753
5.8122 -1.8691 -2.0294 0.9746
6.2195 -0.8292 -2.0857 0.9739
6.4336 0.2965 -2.1408 0.9732
6.4303 1.4693 -2.1926 0.9726
6.3418 2.0590 -2.2164 0.9723
5.9863 3.2125 -2.2583 0.9718
5.6154 3.6936 -2.2342 0.9721
5.0380 4.0005 -2.1384 0.9732
4.3724 4.1592 -2.0059 0.9749
2.5785 5.2945 -1.9575 0.9755
2.1095 5.5386 -1.9701 0.9753
1.6304 5.7870 -1.9985 0.9750
0.5447 2.9057 -0.9827 0.9876
0.6082 6.3142 -2.1086 0.9736
-0.5067 6.1229 -2.0423 0.9744
-1.7122 6.4062 -2.2042 0.9724
-2.2512 6.1585 -2.1796 0.9727
-2.7583 5.8626 -2.1537 0.9731
-3.6608 5.1457 -2.0991 0.9737
-5.9354 1.4404 -2.0302 0.9746
-5.9661 0.8943 -2.0053 0.9749
-5.9516 0.3545 -1.9819 0.9752
-5.8935 -0.1757 -1.9599 0.9755
-5.7937 -0.6933 -1.9396 0.9757
-5.4762 -1.6801 -1.9041 0.9761
-5.2625 -2.1446 -1.8890 0.9763
-4.4255 -3.3985 -1.8548 0.9768
-4.0880 -3.7641 -1.8472 0.9768
-3.7246 -4.1011 -1.8415 0.9769
-1.5893 -5.3095 -1.8423 0.9769
0.3744 -5.6362 -1.8776 0.9765
1.3908 -5.5645 -1.9066 0.9761
2.4018 -5.3278 -1.9426 0.9757
2.8977 -5.1464 -1.9632 0.9754
3.3829 -4.9225 -1.9854 0.9751
4.3069 -4.3476 -2.0342 0.9745
5.1436 -3.6065 -2.0882 0.9739
5.9610 -1.5496 -2.0473 0.9744
6.3099 -0.4788 -2.1035 0.9737
6.4102 0.0870 -2.1310 0.9733
6.4479 1.2545 -2.1835 0.9727
5.8236 3.5652 -2.2697 0.9716
4.6937 4.1830 -2.0899 0.9738
3.6899 4.7126 -1.9896 0.9751
2.7481 5.2061 -1.9568 0.9755
0.6679 3.0178 -1.0274 0.9871
0.2548 6.4956 -2.1608 0.9730
-0.3397 6.7764 -2.2554 0.9718
-0.8530 6.0800 -2.0408 0.9745
-1.5090 6.4836 -2.2128 0.9723
-2.0586 6.2544 -2.1887 0.9726
-2.5778 5.9756 -2.1632 0.9729
-3.0623 5.6515 -2.1367 0.9733
-3.5085 5.2872 -2.1093 0.9736
-4.5920 4.0036 -2.0251 0.9746
-5.6748 2.7354 -2.0940 0.9738
-5.8180 2.1890 -2.0663 0.9741
-5.9621 0.5499 -1.9902 0.9751
-5.7092 -1.0148 -1.9275 0.9759
-5.3442 -1.9781 -1.8942 0.9763
-5.1087 -2.4288 -1.8803 0.9764
-4.8404 -2.8563 -1.8682 0.9766
-4.2139 -3.6344 -1.8497 0.9768
-3.8597 -3.9819 -1.8434 0.9769
-3.4808 -4.2999 -1.8389 0.9770
-2.2165 -5.0633 -1.8373 0.9770
-1.2878 -5.4016 -1.8459 0.9769
-0.8041 -5.5164 -1.8530 0.9768
1.7141 -5.5073 -1.9173 0.9760
2.7184 -5.2173 -1.9555 0.9755
3.6844 -4.7579 -2.0003 0.9750
4.1444 -4.4647 -2.0249 0.9746
4.5840 -4.1295 -2.0509 0.9743
4.9993 -3.7533 -2.0780 0.9740
5.3715 -3.3281 -2.1004 0.9737
5.3272 -2.6753 -1.9815 0.9752
5.8780 -1.7337 -2.0371 0.9745
6.2607 -0.6802 -2.0933 0.9738
6.4464 0.4544 -2.1481 0.9731
6.4579 1.0400 -2.1743 0.9728
6.4120 1.6302 -2.1992 0.9725
6.1432 2.7992 -2.2440 0.9719
5.9195 3.3646 -2.2633 0.9717
5.4530 3.7800 -2.2055 0.9724
4.8886 4.0797 -2.1165 0.9735
1.7323 3.7884 -1.3847 0.9826
1.9803 5.6057 -1.9762 0.9753
0.4992 3.0740 -1.0352 0.9870
0.4590 6.3908 -2.1298 0.9734
-0.1177 6.6865 -2.2230 0.9722
-0.6458 6.0185 -2.0120 0.9748
-1.3026 6.5537 -2.2211 0.9722
-2.3927 6.0825 -2.1727 0.9728
-2.8903 5.7743 -2.1464 0.9731
-4.1488 4.6176 -2.0635 0.9742
-2.3457 2.1832 -1.0652 0.9866
-4.7698 3.7036 -2.0073 0.9749
-5.6105 2.9326 -2.1044 0.9737
-5.7715 2.3883 -2.0763 0.9740
-5.8838 1.8398 -2.0492 0.9743
-5.9666 0.7465 -1.9988 0.9750
-5.8704 -0.3181 -1.9542 0.9755
-5.4214 -1.8088 -1.8998 0.9762
-5.1983 -2.2675 -1.8852 0.9764
-4.6537 -3.1153 -1.8615 0.9767
-3.6214 -4.1877 -1.8403 0.9769
-3.2279 -4.4861 -1.8371 0.9770
-2.8130 -4.7529 -1.8359 0.9770
-2.3788 -4.9866 -1.8365 0.9770
-1.9274 -5.1863 -1.8392 0.9769
-0.9813 -5.4789 -1.8502 0.9768
-5.2934 2.4985 -2.0932 0.9754
-5.5165 1.4818 -2.0427 0.9760
-5.5616 0.9725 -2.0190 0.9763
-5.5247 -0.0303 -1.9757 0.9768
-5.4456 -0.5177 -1.9562 0.9770
-5.3283 -0.9920 -1.9382 0.9772
-4.5126 -2.7127 -1.8829 0.9779
-4.2313 -3.0887 -1.8734 0.9780
-3.9229 -3.4396 -1.8657 0.9781
-3.2322 -4.0601 -1.8558 0.9782
-2.8539 -4.3270 -1.8536 0.9782
-1.1669 -5.0779 -1.8632 0.9781
-0.7121 -5.1810 -1.8702 0.9780
0.2219 -5.2792 -1.8895 0.9778
0.6963 -5.2725 -1.9019 0.9777
1.1723 -5.2277 -1.9159 0.9775
1.6472 -5.1442 -1.9316 0.9773
2.1183 -5.0216 -1.9490 0.9771
2.5825 -4.8594 -1.9679 0.9769
3.0367 -4.6576 -1.9883 0.9767
3.4778 -4.4162 -2.0102 0.9764
4.3064 -3.8162 -2.0577 0.9759
5.0223 -3.0553 -2.1023 0.9753
5.6581 -1.0844 -2.0602 0.9758
5.9042 -0.0636 -2.1115 0.9752
5.9556 0.4687 -2.1363 0.9749
5.9559 1.0090 -2.1602 0.9747
5.6367 2.6242 -2.2234 0.9739
5.4222 3.1407 -2.2408 0.9737
5.1551 3.6361 -2.2559 0.9736
4.8326 4.1003 -2.2664 0.9734
4.0696 4.1311 -2.0737 0.9757
3.6026 4.3775 -2.0274 0.9762
3.3393 4.8883 -2.1170 0.9752
2.8714 5.1333 -2.1034 0.9753
1.6735 3.7402 -1.4653 0.9827
1.9343 5.6211 -2.1258 0.9751
0.7517 3.0437 -1.1212 0.9868
-0.6953 6.0161 -2.1657 0.9746
-1.7624 5.8282 -2.1774 0.9745
-3.1348 4.9831 -2.1053 0.9753
-3.5234 4.6268 -2.0797 0.9756
-3.8731 4.2406 -2.0538 0.9759
-2.3745 2.1742 -1.1513 0.9864
-5.0294 3.1727 -2.1265 0.9751
-5.2334 2.6814 -2.1028 0.9753
-5.3840 2.1766 -2.0767 0.9756
-5.4893 1.6674 -2.0516 0.9759
-5.5502 1.1575 -2.0275 0.9762
-5.5679 0.6505 -2.0047 0.9765
-5.4789 -0.3417 -1.9631 0.9769
-5.2346 -1.2859 -1.9276 0.9774
-5.0586 -1.7337 -1.9123 0.9775
-4.8490 -2.1624 -1.8987 0.9777
-4.3369 -2.9547 -1.8766 0.9780
-4.0381 -3.3149 -1.8683 0.9781
-3.3647 -3.9556 -1.8571 0.9782
-2.6030 -4.4810 -1.8532 0.9782
-2.1940 -4.6973 -1.8540 0.9782
-1.3297 -5.0317 -1.8611 0.9781
0.0502 -5.2723 -1.8855 0.9779
0.9991 -5.2485 -1.9106 0.9776
1.4748 -5.1791 -1.9257 0.9774
1.9476 -5.0707 -1.9425 0.9772
2.4146 -4.9230 -1.9608 0.9770
2.8729 -4.7356 -1.9807 0.9767
3.7499 -4.2422 -2.0248 0.9762
4.1619 -3.9368 -2.0487 0.9760
4.5513 -3.5934 -2.0737 0.9757
4.8699 -2.5958 -1.9735 0.9768
2.2917 -0.9701 -0.8899 0.9895
5.3901 -1.7333 -2.0247 0.9762
5.5941 -1.2618 -2.0507 0.9759
5.7562 -0.7675 -2.0767 0.9756
5.8734 -0.2542 -2.1023 0.9753
5.9618 0.8118 -2.1516 0.9748
5.8421 1.8968 -2.1965 0.9742
4.9585 3.9374 -2.2643 0.9735
3.5114 4.7979 -2.1262 0.9751
3.0167 5.0042 -2.0896 0.9755
1.8595 3.8181 -1.5187 0.9821
2.1068 5.5316 -2.1167 0.9752
1.6283 5.7796 -2.1473 0.9748
0.5442 2.9027 -1.0561 0.9875
0.6052 6.2838 -2.2575 0.9735
0.0422 6.2713 -2.2427 0.9737
-2.0766 5.6807 -2.1629 0.9746
-2.5466 5.4128 -2.1392 0.9749
-2.9843 5.1045 -2.1145 0.9752
-3.3864 4.7601 -2.0891 0.9755
-2.2917 2.2394 -1.1458 0.9865
-4.3571 3.5565 -2.0113 0.9764
-4.5975 3.1135 -1.9856 0.9767
-5.1672 2.8631 -2.1125 0.9752
-5.5331 1.3428 -2.0361 0.9761
-5.5572 0.3310 -1.9908 0.9766
-5.5070 -0.1642 -1.9702 0.9769
-5.4174 -0.6483 -1.9511 0.9771
-5.2900 -1.1187 -1.9336 0.9773
-4.6991 -2.4243 -1.8909 0.9778
-4.4388 -2.8175 -1.8801 0.9779
-3.8344 -3.5306 -1.8639 0.9781
-3.1312 -4.1357 -1.8550 0.9782
-2.3447 -4.6223 -1.8535 0.9782
-1.4910 -4.9809 -1.8593 0.9782
-1.0440 -5.1095 -1.8649 0.9781
-0.1208 -5.2605 -1.8817 0.9779
0.3508 -5.2811 -1.8927 0.9778
0.8259 -5.2641 -1.9055 0.9776
2.2455 -4.9813 -1.9540 0.9771
2.7074 -4.8083 -1.9733 0.9768
3.5952 -4.3436 -2.0164 0.9763
4.4125 -3.7227 -2.0645 0.9758
4.7839 -3.3543 -2.0894 0.9755
4.7609 -2.7399 -1.9643 0.9769
5.0504 -2.3341 -1.9896 0.9766
5.5246 -1.4361 -2.0413 0.9760
5.7023 -0.9497 -2.0673 0.9757
5.8361 -0.4428 -2.0930 0.9754
5.8799 1.7000 -2.1888 0.9743
5.7588 2.2386 -2.2095 0.9741
5.5836 2.7667 -2.2284 0.9739
4.6860 4.1761 -2.2446 0.9737
3.9403 4.1994 -2.0593 0.9758
3.6852 4.7066 -2.1377 0.9749
3.2112 4.9554 -2.1116 0.9752
2.7446 5.1995 -2.1025 0.9753
1.6119 3.8512 -1.4930 0.9824
1.8040 5.6886 -2.1341 0.9750
0.6654 3.0065 -1.1011 0.9870
0.8019 6.2057 -2.2376 0.9738
0.2464 6.2825 -2.2484 0.9736
-0.8517 6.0708 -2.1922 0.9743
-1.8983 5.7673 -2.1713 0.9745
-2.3792 5.5152 -2.1479 0.9748
-3.2444 4.8893 -2.0984 0.9754
-4.2592 3.7134 -2.0207 0.9763
-4.5150 3.2764 -1.9949 0.9766
-5.0925 3.0419 -2.1213 0.9751
-5.4171 2.0382 -2.0698 0.9757
-5.5654 0.5133 -1.9987 0.9765
-5.5299 0.0148 -1.9776 0.9768
-5.3406 -0.9493 -1.9398 0.9772
-5.1901 -1.4097 -1.9233 0.9774
-4.7864 -2.2756 -1.8952 0.9777
-4.5369 -2.6771 -1.8838 0.9779
-4.2582 -3.0554 -1.8742 0.9780
-1.6505 -4.9256 -1.8577 0.9782
-1.2079 -5.0667 -1.8627 0.9781
-0.7540 -5.1731 -1.8695 0.9780
1.1288 -5.2334 -1.9145 0.9775
3.4381 -4.4399 -2.0081 0.9764
4.2704 -3.8470 -2.0554 0.9759
4.9934 -3.0938 -2.1006 0.9754
4.9488 -2.4852 -1.9803 0.9767
5.4496 -1.6073 -2.0318 0.9762
5.9529 0.4196 -2.1341 0.9750
5.9104 1.5027 -2.1809 0.9744
5.1816 3.5919 -2.2547 0.9736
4.1134 4.1079 -2.0789 0.9756
3.6445 4.3554 -2.0309 0.9762
2.9140 5.1110 -2.1039 0.9753
1.9778 5.5985 -2.1233 0.9751
0.7896 3.0888 -1.1401 0.9865
0.4990 3.0726 -1.1132 0.9869
-0.1102 6.2581 -2.2383 0.9738
-0.6452 6.0122 -2.1624 0.9746
-1.7164 5.8478 -2.1794 0.9744
-5.0075 3.2163 -2.1283 0.9750
-5.2174 2.7271 -2.1053 0.9753
-5.4815 1.7140 -2.0538 0.9759
-5.5476 0.1952 -1.9851 0.9767
-5.3863 -0.7779 -1.9462 0.9771
-5.2490 -1.2441 -1.9291 0.9773
-4.3628 -2.9206 -1.8775 0.9779
-3.3975 -3.9288 -1.8574 0.9782
-3.0286 -4.2092 -1.8544 0.9782
-1.3704 -5.0193 -1.8606 0.9781
-0.9203 -5.1385 -1.8668 0.9781
-0.4604 -5.2222 -1.8748 0.9780
-5.2060 0.9103 -2.0253 0.9776
-5.2118 0.4379 -2.0043 0.9778
-5.1786 -0.0284 -1.9846 0.9781
-5.1076 -0.4855 -1.9662 0.9783
-4.8587 -1.3623 -1.9337 0.9786
-4.4779 -2.1739 -1.9076 0.9789
-3.6900 -3.2354 -1.8806 0.9792
-3.3767 -3.5410 -1.8751 0.9793
-2.3113 -4.2942 -1.8688 0.9793
-1.9206 -4.4865 -1.8702 0.9793
-1.5154 -4.6478 -1.8734 0.9793
-1.0977 -4.7768 -1.8783 0.9792
-0.2335 -4.9347 -1.8932 0.9791
0.6542 -4.9538 -1.9149 0.9788
1.1009 -4.9095 -1.9281 0.9787
1.5462 -4.8287 -1.9430 0.9785
1.9873 -4.7110 -1.9594 0.9783
2.4213 -4.5561 -1.9772 0.9781
2.8454 -4.3640 -1.9964 0.9779
4.0261 -3.5679 -2.0615 0.9772
4.6394 -2.2827 -1.9815 0.9781
4.8826 -1.8822 -2.0053 0.9778
5.2629 -1.0086 -2.0535 0.9773
5.5253 0.4348 -2.1239 0.9765
5.4683 1.4379 -2.1668 0.9761
5.3660 1.9370 -2.1862 0.9759
5.2141 2.4274 -2.2040 0.9757
4.0642 4.1256 -2.2193 0.9755
3.3335 4.8798 -2.2647 0.9750
1.6771 3.7482 -1.5736 0.9826
0.8909 5.7841 -2.2427 0.9752
-0.1490 5.7813 -2.2162 0.9755
-0.6590 5.7024 -2.1998 0.9757
-1.1552 5.5744 -2.1816 0.9759
-2.0872 5.1813 -2.1406 0.9764
-2.9114 4.6280 -2.0953 0.9769
-3.2751 4.3008 -2.0716 0.9771
-2.3713 2.1712 -1.2321 0.9863
-4.1469 3.1661 -1.9994 0.9779
-4.6855 2.9558 -2.1230 0.9765
-5.1330 1.5592 -2.0558 0.9773
-5.1951 0.1403 -1.9916 0.9780
-5.1377 -0.3204 -1.9727 0.9782
-4.9142 -1.2072 -1.9392 0.9786
-4.0780 -2.7783 -1.8910 0.9791
-3.7981 -3.1179 -1.8831 0.9792
-3.1658 -3.7218 -1.8724 0.9793
-2.8172 -3.9835 -1.8697 0.9793
-2.0645 -4.4201 -1.8695 0.9793
-1.6643 -4.5928 -1.8720 0.9793
-1.2510 -4.7336 -1.8763 0.9792
0.4918 -4.9609 -1.9104 0.9789
0.9385 -4.9298 -1.9231 0.9787
1.3846 -4.8624 -1.9374 0.9786
1.8275 -4.7581 -1.9532 0.9784
2.6924 -4.4382 -1.9893 0.9780
3.1085 -4.2226 -2.0094 0.9778
3.5096 -3.9702 -2.0307 0.9776
3.8922 -3.6817 -2.0531 0.9773
4.5431 -2.4216 -1.9729 0.9782
5.0196 -1.6142 -2.0206 0.9777
5.2050 -1.1740 -2.0448 0.9774
5.3512 -0.7134 -2.0688 0.9771
5.2751 2.2504 -2.1978 0.9757
5.0917 2.7324 -2.2144 0.9756
4.8596 3.1965 -2.2290 0.9754
4.2064 4.0013 -2.2248 0.9754
1.8455 3.7895 -1.6153 0.9821
2.1005 5.5148 -2.2615 0.9750
0.5592 5.8060 -2.2353 0.9753
-0.4748 5.7369 -2.2060 0.9756
-1.4615 5.4684 -2.1691 0.9760
-1.9248 5.2655 -2.1484 0.9763
-2.3624 5.0212 -2.1266 0.9765
-4.0595 3.3135 -2.0081 0.9778
-4.8201 2.6707 -2.1117 0.9767
-4.9828 2.2053 -2.0882 0.9769
-5.1629 -0.1539 -1.9794 0.9781
-5.0819 -0.6081 -1.9614 0.9783
-4.6308 -1.8872 -1.9163 0.9788
-4.4166 -2.2785 -1.9045 0.9789
-4.1733 -2.6490 -1.8943 0.9790
-3.9029 -2.9971 -1.8858 0.9791
-3.2875 -3.6198 -1.8739 0.9793
-2.9463 -3.8915 -1.8705 0.9793
-2.5853 -4.1352 -1.8689 0.9793
-2.2064 -4.3496 -1.8690 0.9793
-1.8115 -4.5336 -1.8709 0.9793
-0.5516 -4.8930 -1.8870 0.9791
2.1063 -4.6724 -1.9641 0.9783
2.5379 -4.5074 -1.9823 0.9781
2.9588 -4.3053 -2.0019 0.9779
3.3656 -4.0662 -2.0228 0.9776
3.7553 -3.7908 -2.0448 0.9774
4.1245 -3.4797 -2.0679 0.9771
4.4661 -3.1315 -2.0903 0.9769
4.4428 -2.5568 -1.9644 0.9783
4.7089 -2.1762 -1.9879 0.9780
4.9430 -1.7687 -2.0118 0.9778
5.1419 -1.3367 -2.0360 0.9775
5.4225 -0.4115 -2.0839 0.9770
5.4986 0.0746 -2.1073 0.9767
5.5116 1.0723 -2.1517 0.9762
5.4454 1.5744 -2.1722 0.9760
5.1641 2.5588 -2.2086 0.9756
4.3277 3.8568 -2.2215 0.9755
3.2071 4.9491 -2.2600 0.9751
0.6656 3.0077 -1.1805 0.9869
-1.2874 5.5313 -2.1763 0.9760
-2.2064 5.1147 -2.1346 0.9764
-2.6258 4.8459 -2.1121 0.9767
-3.0139 4.5419 -2.0889 0.9769
-4.9295 2.3761 -2.0971 0.9768
-5.0626 1.9048 -2.0729 0.9771
-5.1537 1.4295 -2.0496 0.9774
-5.1832 0.0139 -1.9863 0.9780
-4.7012 -1.7401 -1.9211 0.9788
-4.4980 -2.1385 -1.9086 0.9789
-4.2651 -2.5168 -1.8978 0.9790
-4.0043 -2.8732 -1.8887 0.9791
-3.7174 -3.2062 -1.8812 0.9792
-3.4063 -3.5142 -1.8755 0.9793
-3.0728 -3.7959 -1.8715 0.9793
-2.7188 -4.0499 -1.8693 0.9793
-2.3462 -4.2751 -1.8688 0.9793
-1.9569 -4.4702 -1.8700 0.9793
-0.7092 -4.8654 -1.8842 0.9792
-0.2737 -4.9305 -1.8924 0.9791
0.1680 -4.9610 -1.9022 0.9790
0.6134 -4.9560 -1.9137 0.9788
1.9472 -4.7233 -1.9578 0.9784
2.8071 -4.3831 -1.9946 0.9780
3.2194 -4.1575 -2.0151 0.9777
3.6157 -3.8952 -2.0367 0.9775
4.3471 -3.2636 -2.0831 0.9770
4.6600 -2.8873 -2.1008 0.9768
2.3413 -0.9246 -0.9646 0.9893
5.0738 -1.4965 -2.0272 0.9776
5.3838 -0.5849 -2.0753 0.9771
5.4761 -0.1036 -2.0989 0.9768
5.4752 1.3920 -2.1649 0.9761
5.3775 1.8917 -2.1845 0.9759
5.2300 2.3831 -2.2025 0.9757
5.0332 2.8608 -2.2186 0.9755
4.4966 3.7525 -2.2444 0.9752
4.1079 4.1024 -2.2248 0.9754
2.9102 5.1045 -2.2517 0.9751
1.7248 3.7721 -1.5895 0.9824
1.9644 5.5608 -2.2601 0.9751
1.4563 5.6964 -2.2532 0.9751
0.4757 2.9295 -1.1373 0.9874
-0.6129 5.7117 -2.2014 0.9757
-1.1106 5.5880 -2.1833 0.9759
-1.5901 5.4174 -2.1636 0.9761
-2.0467 5.2029 -2.1426 0.9763
-3.2433 4.3319 -2.0738 0.9771
-2.3423 2.1801 -1.2263 0.9864
-4.8705 2.5458 -2.1061 0.9767
-5.1254 1.6026 -2.0579 0.9773
-5.2141 0.6523 -2.0137 0.9777
-5.1985 0.1829 -1.9934 0.9780
-5.1445 -0.2788 -1.9744 0.9782
-5.0536 -0.7298 -1.9567 0.9784
-4.9274 -1.1679 -1.9406 0.9785
-4.7675 -1.5906 -1.9260 0.9787
-4.1023 -2.7461 -1.8918 0.9791
-3.1966 -3.6965 -1.8728 0.9793
-2.4837 -4.1966 -1.8688 0.9793
-1.2892 -4.7221 -1.8758 0.9793
-0.8657 -4.8332 -1.8817 0.9792
-0.4329 -4.9108 -1.8892 0.9791
-4.6318 2.1862 -2.0962 0.9781
-4.7564 1.7454 -2.0736 0.9783
-1.9571 0.1644 -0.8038 0.9915
-1.9035 -0.0104 -0.7791 0.9918
-1.9579 -0.1861 -0.8050 0.9915
-2.1936 -0.4084 -0.9132 0.9904
-4.5746 -1.2826 -1.9445 0.9797
-3.9988 -2.4038 -1.9095 0.9800
-3.7517 -2.7385 -1.9010 0.9801
-3.4798 -3.0511 -1.8941 0.9802
-3.1849 -3.3399 -1.8888 0.9803
-2.5334 -3.8411 -1.8832 0.9803
-2.1804 -4.0510 -1.8829 0.9803
-1.4294 -4.3840 -1.8872 0.9803
-0.6315 -4.5946 -1.8981 0.9802
1.4554 -4.5451 -1.9532 0.9796
1.8696 -4.4320 -1.9687 0.9794
2.6739 -4.1011 -2.0037 0.9791
3.4267 -3.6316 -2.0435 0.9787
3.7761 -3.3463 -2.0650 0.9784
4.1026 -3.0281 -2.0869 0.9782
4.5657 -1.7601 -2.0027 0.9791
5.0869 1.3375 -2.1527 0.9775
4.1456 3.5174 -2.2251 0.9768
3.8297 3.8876 -2.2334 0.9767
3.0912 4.5251 -2.2429 0.9766
2.6765 4.7848 -2.2438 0.9766
1.7794 5.1710 -2.2382 0.9766
1.3073 5.2935 -2.2316 0.9767
-1.5191 5.0238 -2.1480 0.9776
-2.7146 4.3151 -2.0864 0.9782
-3.8785 2.9612 -1.9971 0.9791
-4.0812 2.5746 -1.9749 0.9794
-4.7156 1.9064 -2.0817 0.9783
-4.8151 1.4626 -2.0596 0.9785
-4.8756 1.0168 -2.0384 0.9787
-1.9551 0.2284 -0.8056 0.9915
-1.9802 -0.3025 -0.8198 0.9914
-4.6260 -1.1364 -1.9496 0.9796
-4.4746 -1.5336 -1.9359 0.9798
-4.2928 -1.9143 -1.9237 0.9799
-3.5815 -2.9400 -1.8964 0.9802
-2.9862 -3.5107 -1.8863 0.9803
-2.6576 -3.7578 -1.8837 0.9803
-1.9475 -4.1697 -1.8835 0.9803
-0.7794 -4.5657 -1.8957 0.9802
-0.3705 -4.6348 -1.9030 0.9801
0.0445 -4.6712 -1.9119 0.9800
0.8839 -4.6430 -1.9344 0.9798
1.7196 -4.4772 -1.9629 0.9795
3.2947 -3.7271 -2.0360 0.9787
3.6514 -3.4539 -2.0571 0.9785
4.2879 -2.8033 -2.0967 0.9781
4.2527 -2.2669 -1.9723 0.9794
2.2898 -0.9693 -1.0177 0.9893
4.8610 -1.0964 -2.0395 0.9787
5.0869 -0.2201 -2.0839 0.9782
5.1387 0.2368 -2.1054 0.9780
5.1112 1.1679 -2.1458 0.9776
5.0297 1.6330 -2.1643 0.9774
4.5115 2.9676 -2.2101 0.9769
4.2507 3.3754 -2.2215 0.9768
3.6094 4.1062 -2.2375 0.9766
1.9480 5.1145 -2.2399 0.9766
0.0362 5.3834 -2.2034 0.9770
-1.7916 4.9011 -2.1357 0.9777
-2.2004 4.6770 -2.1155 0.9779
-3.2564 3.8067 -2.0503 0.9786
-3.7957 3.0982 -2.0053 0.9790
-4.6696 2.0667 -2.0900 0.9782
-4.7835 1.6245 -2.0676 0.9784
-4.6733 -0.9882 -1.9550 0.9796
-4.5333 -1.3909 -1.9407 0.9797
-3.6800 -2.8260 -1.8990 0.9801
-3.4017 -3.1322 -1.8925 0.9802
-2.4389 -3.9010 -1.8830 0.9803
-2.0814 -4.1033 -1.8831 0.9803
-1.3231 -4.4200 -1.8883 0.9803
-0.9261 -4.5326 -1.8934 0.9802
-0.5201 -4.6134 -1.9001 0.9801
-0.1071 -4.6618 -1.9085 0.9800
0.3107 -4.6770 -1.9184 0.9799
1.1511 -4.6054 -1.9428 0.9797
1.5688 -4.5177 -1.9573 0.9795
3.5239 -3.5572 -2.0493 0.9786
4.1834 -2.9332 -2.0911 0.9782
4.1600 -2.3941 -1.9644 0.9795
4.9498 -0.8244 -2.0537 0.9785
5.0577 -0.3838 -2.0759 0.9783
5.1248 0.0695 -2.0976 0.9781
5.0646 1.4643 -2.1577 0.9775
4.7974 2.3771 -2.1913 0.9771
4.3505 3.2299 -2.2176 0.9769
3.7371 3.9829 -2.2353 0.9767
2.9809 4.6000 -2.2434 0.9766
2.5591 4.8481 -2.2437 0.9766
1.6520 5.2092 -2.2366 0.9767
0.6951 5.3792 -2.2199 0.9768
-0.7396 5.2718 -2.1788 0.9773
-2.0546 4.7628 -2.1229 0.9778
-3.9374 2.8572 -1.9911 0.9792
-4.7466 1.7859 -2.0756 0.9783
-2.1819 0.3999 -0.9079 0.9905
-1.9006 0.0051 -0.7779 0.9918
-4.5879 -1.2461 -1.9457 0.9797
-4.0201 -2.3722 -1.9104 0.9800
-3.7753 -2.7089 -1.9017 0.9801
-3.5056 -3.0235 -1.8947 0.9802
-2.8986 -3.5806 -1.8855 0.9803
-2.5648 -3.8205 -1.8833 0.9803
-1.4648 -4.3714 -1.8869 0.9803
-1.0717 -4.4953 -1.8914 0.9802
-0.2580 -4.6480 -1.9052 0.9801
0.5779 -4.6690 -1.9255 0.9799
1.4173 -4.5536 -1.9519 0.9796
1.8320 -4.4438 -1.9672 0.9794
2.6381 -4.1192 -2.0020 0.9791
3.7451 -3.3738 -2.0630 0.9784
4.3636 -2.7036 -2.1009 0.9781
4.3197 -2.1693 -1.9784 0.9793
4.9009 -0.9808 -2.0456 0.9786
5.0230 -0.5457 -2.0679 0.9784
5.1454 0.3627 -2.1111 0.9780
5.0935 1.2950 -2.1510 0.9775
4.9995 1.7587 -2.1691 0.9774
4.6743 2.6568 -2.2005 0.9770
4.4447 3.0810 -2.2134 0.9769
4.1725 3.4821 -2.2242 0.9768
3.8601 3.8550 -2.2328 0.9767
3.5107 4.1955 -2.2390 0.9766
3.1277 4.4993 -2.2427 0.9766
2.7155 4.7628 -2.2439 0.9766
