ply
format ascii 1.0
element vertex 1592
property float32 x
property float32 y
property float32 z
property float32 I
end_header
0.6667 6.2716 -1.4823 0.9744
0.1085 6.5531 -1.5403 0.9734
-0.5002 6.8594 -1.6164 0.9721
-2.4588 9.5700 -2.3222 0.9602
-4.6558 8.1405 -2.2040 0.9622
-5.2631 7.5484 -2.1627 0.9629
-6.7554 6.7260 -2.2404 0.9616
-7.1887 5.9800 -2.1976 0.9623
-7.5441 5.2115 -2.1550 0.9630
-8.2506 2.0815 -1.9998 0.9656
-8.2609 1.3143 -1.9659 0.9662
-8.2107 0.5628 -1.9342 0.9667
-7.9413 -0.8792 -1.8778 0.9677
-7.7284 -1.5635 -1.8532 0.9681
-6.4257 -4.0019 -1.7791 0.9694
-6.0011 -4.5277 -1.7668 0.9696
-5.5421 -5.0169 -1.7569 0.9697
-5.0510 -5.4683 -1.7495 0.9699
-3.9817 -6.2526 -1.7422 0.9700
-2.8109 -6.8705 -1.7446 0.9700
0.4455 -7.6204 -1.7940 0.9691
1.8300 -7.5731 -1.8311 0.9685
3.2275 -7.3097 -1.8779 0.9677
7.1880 -5.1198 -2.0741 0.9644
7.7434 -4.5325 -2.1087 0.9638
8.1500 -2.9830 -2.0397 0.9650
8.5504 -2.2885 -2.0803 0.9643
9.5082 0.9144 -2.2450 0.9615
6.6153 3.2223 -1.7294 0.9702
5.9318 3.5769 -1.6280 0.9719
5.3188 3.8941 -1.5493 0.9733
4.7576 4.1839 -1.4890 0.9743
4.3081 4.5316 -1.4695 0.9746
1.6567 3.8888 -0.9934 0.9828
0.6787 2.9784 -0.7179 0.9875
0.2931 6.4601 -1.5198 0.9738
-0.8098 6.0364 -1.4314 0.9753
-3.7531 8.8423 -2.2576 0.9613
-4.4462 8.3206 -2.2172 0.9620
-5.6361 7.1221 -2.1346 0.9634
-6.1282 6.4631 -2.0932 0.9641
-7.9760 3.8982 -2.0864 0.9642
-8.1387 3.1123 -2.0479 0.9648
-8.2333 0.8029 -1.9442 0.9666
-8.1438 0.0640 -1.9140 0.9671
-7.9991 -0.6533 -1.8862 0.9676
-7.8024 -1.3461 -1.8608 0.9680
-7.5566 -2.0117 -1.8378 0.9684
-6.9300 -3.2531 -1.7992 0.9690
-6.5547 -3.8250 -1.7836 0.9693
-5.6935 -4.8634 -1.7598 0.9697
-5.2125 -5.3272 -1.7516 0.9698
-4.1612 -6.1373 -1.7427 0.9700
-3.0056 -6.7826 -1.7436 0.9700
-2.3940 -7.0405 -1.7477 0.9699
-1.7629 -7.2533 -1.7543 0.9698
-0.4508 -7.5388 -1.7750 0.9694
0.2254 -7.6086 -1.7890 0.9692
0.9118 -7.6278 -1.8055 0.9689
1.6055 -7.5950 -1.8244 0.9686
5.0693 -6.5988 -1.9557 0.9664
6.3776 -5.7888 -2.0242 0.9652
7.5785 -4.7338 -2.1000 0.9640
7.5437 -3.8224 -1.9876 0.9658
2.3199 -0.9256 -0.5870 0.9898
9.3202 -0.2074 -2.1910 0.9624
9.4753 0.6368 -2.2319 0.9617
8.6486 2.1697 -2.0956 0.9640
6.1432 3.4673 -1.6579 0.9714
5.5098 3.7954 -1.5724 0.9729
4.9336 4.0931 -1.5066 0.9740
4.4763 4.4450 -1.4826 0.9744
3.9628 4.7091 -1.4465 0.9750
3.3869 4.8438 -1.3891 0.9760
2.4476 5.3158 -1.3754 0.9762
0.7852 3.0394 -0.7378 0.9872
0.5011 3.0382 -0.7237 0.9874
-0.1014 6.6589 -1.5652 0.9730
-1.4398 7.3309 -1.7559 0.9698
-4.2298 8.4950 -2.2303 0.9618
-5.4629 7.3269 -2.1479 0.9631
-2.3306 2.1774 -0.7496 0.9870
-8.2104 2.5819 -2.0228 0.9653
-8.2614 1.8070 -1.9875 0.9658
-8.2498 1.0449 -1.9544 0.9664
-8.0516 -0.4248 -1.8949 0.9674
-7.8712 -1.1258 -1.8687 0.9679
-7.3637 -2.4464 -1.8236 0.9686
-7.0424 -3.0618 -1.8048 0.9689
-6.2787 -4.1931 -1.7744 0.9695
-5.8416 -4.7061 -1.7630 0.9696
-5.3708 -5.1820 -1.7540 0.9698
-4.8689 -5.6196 -1.7475 0.9699
-4.3380 -6.0177 -1.7435 0.9700
-3.7803 -6.3750 -1.7419 0.9700
-1.3250 -7.3714 -1.7602 0.9697
0.0064 -7.5916 -1.7842 0.9693
0.6898 -7.6273 -1.7999 0.9690
-7.5475 1.4482 -1.9898 0.9687
-7.5317 0.7574 -1.9599 0.9692
-7.4615 0.0812 -1.9320 0.9696
-7.3397 -0.5771 -1.9062 0.9700
-6.9519 -1.8283 -1.8612 0.9707
-6.6912 -2.4161 -1.8420 0.9710
-6.3897 -2.9759 -1.8250 0.9713
-5.6738 -4.0041 -1.7980 0.9717
-4.8234 -4.8999 -1.7802 0.9720
-4.3537 -5.2945 -1.7748 0.9721
-3.8571 -5.6519 -1.7717 0.9721
-2.7920 -6.2499 -1.7723 0.9721
-2.2281 -6.4880 -1.7761 0.9721
-1.0479 -6.8362 -1.7907 0.9718
-0.4363 -6.9438 -1.8014 0.9717
0.1864 -7.0054 -1.8145 0.9715
0.8176 -7.0196 -1.8298 0.9712
1.4545 -6.9852 -1.8474 0.9709
3.3692 -6.5782 -1.9136 0.9699
4.6135 -6.0431 -1.9685 0.9691
5.7934 -5.2904 -2.0313 0.9681
6.3471 -4.8322 -2.0654 0.9676
6.8642 -4.3165 -2.0995 0.9671
2.3152 -0.9319 -0.6462 0.9897
7.9153 -1.6372 -2.0928 0.9672
8.4912 0.5449 -2.2031 0.9655
8.5438 1.3212 -2.2384 0.9649
6.1570 3.4506 -1.8274 0.9713
5.5227 3.7797 -1.7327 0.9727
4.9459 4.0781 -1.6598 0.9739
3.9749 4.6946 -1.5927 0.9749
2.9254 5.0636 -1.5141 0.9761
0.4909 6.3518 -1.6495 0.9740
-1.4122 7.3071 -1.9270 0.9697
-3.1245 8.0650 -2.2394 0.9649
-4.8993 6.6126 -2.1308 0.9666
-2.3242 2.1846 -0.8259 0.9869
-6.6173 5.1900 -2.1774 0.9658
-6.9301 4.4984 -2.1392 0.9664
-7.1772 3.7951 -2.1021 0.9670
-7.3601 3.0862 -2.0664 0.9676
-7.4804 2.3772 -2.0323 0.9681
-7.5405 1.6732 -1.9999 0.9686
-7.5428 0.9785 -1.9693 0.9691
-7.0266 -1.6333 -1.8678 0.9706
-3.5062 -5.8723 -1.7708 0.9721
-1.8352 -6.6254 -1.7800 0.9720
-1.2421 -6.7920 -1.7877 0.9719
-0.6346 -6.9141 -1.7977 0.9717
-0.0152 -6.9907 -1.8100 0.9715
0.6135 -7.0202 -1.8246 0.9713
2.5280 -6.8149 -1.8820 0.9704
3.1652 -6.6443 -1.9056 0.9700
4.4165 -6.1439 -1.9591 0.9692
5.0225 -5.8125 -1.9890 0.9688
6.6846 -3.6586 -1.9730 0.9690
7.4892 -2.4992 -2.0442 0.9679
8.0958 -1.1689 -2.1179 0.9668
8.3104 -0.4496 -2.1549 0.9662
8.4585 0.2988 -2.1914 0.9656
7.9908 2.5012 -2.1680 0.9660
6.3768 3.3364 -1.8634 0.9707
5.1264 3.9848 -1.6812 0.9735
4.5796 4.2672 -1.6207 0.9745
4.1376 4.6109 -1.6041 0.9747
3.5763 4.7834 -1.5464 0.9756
1.6821 5.7496 -1.5511 0.9756
0.5723 2.8935 -0.7637 0.9879
0.1084 6.5444 -1.6947 0.9733
-0.4995 6.8499 -1.7783 0.9720
-2.1950 8.5433 -2.2839 0.9642
-3.5686 7.7774 -2.2156 0.9653
-4.1792 7.3070 -2.1795 0.9658
-4.7333 6.7886 -2.1428 0.9664
-6.5024 5.4091 -2.1899 0.9657
-6.8366 4.7227 -2.1514 0.9662
-7.1048 4.0225 -2.1139 0.9668
-7.5276 1.8991 -2.0101 0.9684
-7.5482 1.2009 -1.9790 0.9689
-7.5128 0.5149 -1.9498 0.9694
-7.0968 -1.4357 -1.8747 0.9705
-6.8640 -2.0405 -1.8541 0.9708
-6.5885 -2.6186 -1.8357 0.9711
-5.5317 -4.1736 -1.7942 0.9718
-4.1799 -5.4260 -1.7734 0.9721
-2.5936 -6.3393 -1.7734 0.9721
-2.0229 -6.5626 -1.7781 0.9720
-1.4348 -6.7431 -1.7850 0.9719
-0.8316 -6.8797 -1.7942 0.9718
0.4102 -7.0159 -1.8196 0.9714
2.9605 -6.7049 -1.8977 0.9702
5.9936 -5.1336 -2.0433 0.9679
7.0269 -4.1131 -2.1082 0.9669
7.7194 -2.0661 -2.0690 0.9675
8.4184 0.0550 -2.1797 0.9658
8.5185 0.8193 -2.2158 0.9653
8.5440 1.6009 -2.2507 0.9647
8.3022 2.3387 -2.2332 0.9650
5.9235 3.5719 -1.7910 0.9718
5.3117 3.8889 -1.7045 0.9732
3.7976 4.7857 -1.5818 0.9751
3.2527 4.9492 -1.5334 0.9758
0.2927 6.4517 -1.6722 0.9737
-0.2972 6.7483 -1.7490 0.9725
-0.8088 6.0287 -1.5749 0.9752
-2.6815 8.3124 -2.2614 0.9646
-3.3605 7.9173 -2.2270 0.9651
-5.5292 5.8314 -2.0807 0.9673
-7.0255 4.2491 -2.1259 0.9666
-7.4099 2.8337 -2.0541 0.9678
-7.5086 2.1259 -2.0205 0.9683
-6.9438 -1.8486 -1.8605 0.9707
-6.6817 -2.4355 -1.8414 0.9710
-6.3788 -2.9943 -1.8245 0.9713
-6.0376 -3.5232 -1.8099 0.9715
-3.8398 -5.6633 -1.7716 0.9721
-2.7733 -6.2586 -1.7724 0.9721
-1.6259 -6.6897 -1.7825 0.9720
-1.0274 -6.8406 -1.7910 0.9718
-0.4154 -6.9467 -1.8018 0.9717
0.2076 -7.0066 -1.8149 0.9715
0.8390 -7.0192 -1.8303 0.9712
1.4761 -6.9832 -1.8480 0.9709
2.1159 -6.8972 -1.8680 0.9706
2.7552 -6.7601 -1.8901 0.9703
3.3906 -6.5709 -1.9145 0.9699
4.6341 -6.0322 -1.9695 0.9691
6.3653 -4.8157 -2.0666 0.9676
6.8799 -4.2974 -2.1003 0.9670
2.3200 -0.9257 -0.6467 0.9897
7.6130 -2.2742 -2.0572 0.9677
8.1795 -0.9166 -2.1311 0.9666
8.4942 0.5708 -2.2043 0.9654
8.5169 2.1367 -2.2735 0.9644
7.6668 2.6703 -2.1020 0.9670
4.4707 4.4394 -1.6313 0.9743
2.9096 5.0717 -1.5139 0.9761
1.9918 5.5924 -1.5371 0.9758
0.7935 3.0715 -0.8214 0.9870
0.4723 6.3612 -1.6516 0.9740
-0.6322 6.0230 -1.5680 0.9753
-2.4529 8.4260 -2.2722 0.9644
-5.3898 6.0223 -2.0926 0.9672
-6.6289 5.1668 -2.1761 0.9659
-6.9395 4.4748 -2.1379 0.9665
-7.1845 3.7712 -2.1009 0.9670
-7.4834 2.3533 -2.0311 0.9681
-7.5415 1.6495 -1.9988 0.9686
-7.5419 0.9552 -1.9683 0.9691
-7.4872 0.2744 -1.9399 0.9695
-7.2230 -1.0331 -1.8892 0.9703
-7.0190 -1.6539 -1.8671 0.9706
-6.1515 -3.3562 -1.8144 0.9715
-4.0028 -5.5527 -1.7723 0.9721
-3.4885 -5.8828 -1.7708 0.9721
-2.9510 -6.1736 -1.7717 0.9721
-0.6138 -6.9175 -1.7981 0.9717
0.6349 -7.0204 -1.8251 0.9713
-6.9385 1.3314 -2.0001 0.9711
-6.8756 0.0748 -1.9466 0.9718
-6.4245 -1.6896 -1.8806 0.9728
-6.1885 -2.2346 -1.8626 0.9730
-4.0376 -4.9101 -1.7996 0.9739
-3.0941 -5.5382 -1.7959 0.9740
-2.0662 -6.0166 -1.8009 0.9739
-1.5259 -6.1967 -1.8067 0.9738
1.9349 -6.3759 -1.8862 0.9727
3.1070 -6.0662 -1.9294 0.9721
3.6821 -5.8381 -1.9540 0.9717
4.2450 -5.5604 -1.9804 0.9713
4.7914 -5.2328 -2.0086 0.9709
6.2788 -3.9484 -2.0997 0.9696
2.3153 -0.9319 -0.7066 0.9897
7.1992 -1.4891 -2.0812 0.9699
7.4207 -0.8543 -2.1146 0.9694
7.5846 -0.1917 -2.1478 0.9690
7.7222 1.1942 -2.2121 0.9680
6.8592 3.0753 -2.1280 0.9692
6.1481 3.4457 -1.9952 0.9711
5.5151 3.7745 -1.8919 0.9726
4.9394 4.0727 -1.8124 0.9737
3.4178 4.8566 -1.6812 0.9756
1.7842 3.8443 -1.1998 0.9825
2.0055 5.5774 -1.6779 0.9757
0.4916 2.9257 -0.8399 0.9877
-0.0810 6.6307 -1.8772 0.9728
-2.1918 7.6148 -2.2432 0.9676
-4.8883 5.4954 -2.0821 0.9699
-6.3326 4.1106 -2.1373 0.9691
-6.5683 3.4731 -2.1034 0.9696
-6.8651 2.1817 -2.0392 0.9705
-6.9293 1.5376 -2.0094 0.9709
-6.8095 -0.3387 -1.9301 0.9721
-6.6729 -0.9338 -1.9074 0.9724
-6.2689 -2.0617 -1.8682 0.9729
-6.0063 -2.5898 -1.8517 0.9732
-5.7065 -3.0911 -1.8372 0.9734
-5.3717 -3.5640 -1.8250 0.9736
-4.6065 -4.4177 -1.8068 0.9738
-3.7283 -5.1392 -1.7974 0.9740
-1.1513 -6.2956 -1.8118 0.9737
0.5678 -6.4974 -1.8464 0.9733
1.7449 -6.4078 -1.8800 0.9728
2.3342 -6.2925 -1.9000 0.9725
2.9198 -6.1292 -1.9219 0.9722
3.4980 -5.9169 -1.9459 0.9718
4.0653 -5.6552 -1.9717 0.9715
4.6174 -5.3437 -1.9993 0.9711
5.6591 -4.5715 -2.0595 0.9702
6.1393 -4.1118 -2.0918 0.9697
7.1093 2.9448 -2.1784 0.9685
6.3674 3.3315 -2.0344 0.9706
5.7118 3.6724 -1.9224 0.9722
5.1196 3.9795 -1.8357 0.9734
3.0968 5.0210 -1.6700 0.9758
2.6280 5.2605 -1.6647 0.9759
2.1582 5.4998 -1.6725 0.9757
0.5691 2.8774 -0.8304 0.9879
0.6650 6.2555 -1.7809 0.9742
0.1082 6.5357 -1.8505 0.9732
-1.9801 7.7068 -2.2526 0.9675
-2.6247 7.4004 -2.2229 0.9679
-3.2286 7.0364 -2.1916 0.9683
-3.7869 6.6212 -2.1593 0.9688
-5.1553 5.1329 -2.0595 0.9702
-5.5028 4.5776 -2.0263 0.9707
-6.2441 4.3134 -2.1484 0.9689
-6.4988 3.6795 -2.1142 0.9694
-6.6946 3.0365 -2.0810 0.9699
-6.8327 2.3899 -2.0492 0.9704
-6.9146 1.7445 -2.0188 0.9708
-6.9423 1.1045 -1.9900 0.9712
-6.9179 0.4742 -1.9630 0.9716
-6.8436 -0.1432 -1.9378 0.9719
-6.5548 -1.3261 -1.8932 0.9726
-6.3451 -1.8863 -1.8739 0.9729
-6.0950 -2.4225 -1.8567 0.9731
-5.1261 -3.8675 -1.8179 0.9737
-4.7379 -4.2889 -1.8092 0.9738
-3.8767 -5.0324 -1.7983 0.9739
-3.4081 -5.3518 -1.7962 0.9740
-2.9169 -5.6346 -1.7962 0.9740
0.3797 -6.4947 -1.8417 0.9733
0.9656 -6.4877 -1.8568 0.9731
2.7318 -6.1871 -1.9147 0.9723
3.3128 -5.9907 -1.9380 0.9719
5.4981 -4.7092 -2.0494 0.9704
6.3720 -3.0015 -1.9940 0.9711
7.0283 -1.8811 -2.0597 0.9702
7.2844 -1.2667 -2.0931 0.9697
7.4859 -0.6214 -2.1265 0.9693
7.7069 0.7412 -2.1918 0.9683
7.7184 1.4462 -2.2231 0.9679
5.3046 3.8837 -1.8611 0.9730
4.7454 4.1731 -1.7889 0.9741
3.7929 4.7798 -1.7274 0.9750
2.7787 5.1836 -1.6650 0.9758
1.6369 3.8424 -1.1824 0.9828
1.8354 5.6638 -1.6855 0.9756
0.4285 3.1622 -0.9034 0.9868
0.2923 6.4432 -1.8259 0.9735
-0.8077 6.0209 -1.7197 0.9751
-2.4213 7.5057 -2.2326 0.9677
-3.0389 7.1596 -2.2018 0.9682
-4.1375 6.3138 -2.1370 0.9691
-4.6114 5.8271 -2.1037 0.9696
-5.0317 5.3067 -2.0702 0.9701
-2.4340 2.1462 -0.9187 0.9866
-6.9392 1.3098 -1.9991 0.9711
-6.8729 0.0540 -1.9457 0.9718
-6.6134 -1.1409 -1.8999 0.9725
-6.1798 -2.2526 -1.8621 0.9730
-5.5912 -3.2627 -1.8326 0.9734
-4.8662 -4.1567 -1.8117 0.9737
-4.4580 -4.5561 -1.8045 0.9738
-4.0224 -4.9220 -1.7995 0.9739
-2.0482 -6.0234 -1.8011 0.9739
-1.5074 -6.2021 -1.8069 0.9738
0.7764 -6.4949 -1.8518 0.9732
1.9549 -6.3722 -1.8869 0.9727
3.1266 -6.0593 -1.9302 0.9721
3.7014 -5.8295 -1.9548 0.9717
4.2637 -5.5501 -1.9813 0.9713
4.8095 -5.2209 -2.0095 0.9709
5.3343 -4.8418 -2.0394 0.9705
5.8336 -4.4135 -2.0708 0.9700
6.2930 -3.9308 -2.1005 0.9696
6.2504 -3.1670 -1.9836 0.9713
7.2076 -1.4681 -2.0823 0.9699
7.5891 -0.1689 -2.1490 0.9689
7.7223 1.2181 -2.2132 0.9680
7.6864 1.9283 -2.2434 0.9676
5.4948 3.7850 -1.8889 0.9726
4.4650 4.4338 -1.7814 0.9742
2.9061 5.0655 -1.6533 0.9760
1.7650 3.8331 -1.1946 0.9826
0.8418 3.2587 -0.9528 0.9861
0.4872 2.9540 -0.8476 0.9876
-0.1012 6.6408 -1.8802 0.9728
-1.4354 7.3087 -2.1086 0.9695
-2.2138 7.6048 -2.2422 0.9676
-2.8446 7.2772 -2.2119 0.9680
-3.4327 6.8942 -2.1803 0.9685
-3.9739 6.4623 -2.1476 0.9690
-4.4645 5.9879 -2.1144 0.9694
-4.9022 5.4776 -2.0810 0.9699
-6.3416 4.0892 -2.1361 0.9691
-6.5752 3.4514 -2.1022 0.9696
-6.8682 2.1598 -2.0382 0.9705
-6.9306 1.5159 -2.0084 0.9709
-6.9395 0.8789 -1.9802 0.9713
-6.2606 -2.0800 -1.8676 0.9729
-5.9967 -2.6071 -1.8511 0.9732
-5.6957 -3.1076 -1.8368 0.9734
-4.9914 -4.0211 -1.8145 0.9737
-3.7126 -5.1502 -1.7973 0.9740
-2.7371 -5.7261 -1.7967 0.9740
-1.6833 -6.1490 -1.8048 0.9738
-1.1324 -6.3000 -1.8121 0.9737
-0.5687 -6.4092 -1.8215 0.9736
0.0055 -6.4754 -1.8331 0.9734
-6.4154 0.6452 -1.9832 0.9734
-6.3691 0.0693 -1.9591 0.9737
-6.1423 -1.0406 -1.9162 0.9743
-5.9661 -1.5690 -1.8974 0.9745
-5.7509 -2.0765 -1.8806 0.9747
-5.4988 -2.5610 -1.8657 0.9749
-2.8826 -5.1596 -1.8179 0.9756
-2.4125 -5.4002 -1.8192 0.9756
-1.4210 -5.7708 -1.8280 0.9754
-0.9041 -5.8985 -1.8354 0.9753
-0.3761 -5.9864 -1.8449 0.9752
0.1605 -6.0335 -1.8564 0.9751
2.8800 -5.6229 -1.9431 0.9739
3.4099 -5.4065 -1.9660 0.9736
4.9082 -4.4822 -2.0444 0.9726
5.7796 -3.6345 -2.1000 0.9718
5.7367 -2.9286 -1.9811 0.9734
6.3522 -1.9185 -2.0410 0.9726
6.5950 -1.3641 -2.0714 0.9722
6.9294 -0.1751 -2.1320 0.9714
7.0132 0.4500 -2.1615 0.9710
7.0369 1.0882 -2.1901 0.9706
6.1391 3.4406 -2.1646 0.9710
5.5075 3.7693 -2.0527 0.9725
4.9329 4.0673 -1.9665 0.9736
3.9650 4.6829 -1.8873 0.9746
2.9183 5.0513 -1.7943 0.9759
2.0030 5.5706 -1.8208 0.9755
0.4936 2.9373 -0.9161 0.9876
-1.3842 7.1624 -2.2438 0.9699
-1.9948 6.9303 -2.2182 0.9703
-4.0697 5.4929 -2.1027 0.9718
-5.1462 4.0361 -2.0116 0.9730
-5.8241 3.7805 -2.1357 0.9714
-6.2192 2.6078 -2.0742 0.9722
-6.4204 0.8329 -1.9913 0.9733
-6.1904 -0.8663 -1.9226 0.9742
-6.0272 -1.4010 -1.9033 0.9744
-4.9990 -3.3167 -1.8452 0.9752
-4.6589 -3.7301 -1.8357 0.9753
-4.2899 -4.1141 -1.8282 0.9754
-3.8939 -4.4670 -1.8227 0.9755
-3.0299 -5.0746 -1.8179 0.9756
-1.0719 -5.8617 -1.8328 0.9754
0.5280 -6.0416 -1.8654 0.9749
1.0735 -6.0179 -1.8802 0.9747
2.1661 -5.8393 -1.9156 0.9743
3.7622 -5.2336 -1.9825 0.9734
5.2199 -4.2167 -2.0639 0.9723
2.3027 -1.0048 -0.7727 0.9895
6.2642 -2.0904 -2.0312 0.9727
6.5219 -1.5459 -2.0616 0.9723
6.7319 -0.9720 -2.0921 0.9719
6.8901 -0.3727 -2.1223 0.9715
6.9926 0.2470 -2.1521 0.9711
6.9347 2.1707 -2.2350 0.9700
6.7865 2.8111 -2.2594 0.9697
5.7038 3.6672 -2.0857 0.9720
4.1273 4.5994 -1.9007 0.9745
3.0930 5.0149 -1.8123 0.9756
0.5703 2.8836 -0.9041 0.9878
0.1081 6.5268 -2.0078 0.9731
-1.0012 6.1209 -1.9077 0.9744
-2.9445 6.4173 -2.1717 0.9709
-4.3517 5.1851 -2.0821 0.9721
-6.1700 2.7986 -2.0839 0.9720
-6.3877 1.6115 -2.0263 0.9728
-6.4203 1.0215 -1.9996 0.9732
-6.4043 0.4390 -1.9744 0.9735
-6.3416 -0.1327 -1.9510 0.9738
-5.8939 -1.7521 -1.8912 0.9746
-4.7717 -3.6001 -1.8385 0.9753
-4.4117 -3.9937 -1.8304 0.9754
-4.0243 -4.3568 -1.8242 0.9755
-3.6113 -4.6880 -1.8201 0.9755
-2.7175 -5.2493 -1.8181 0.9756
-2.2408 -5.4771 -1.8202 0.9755
-1.2385 -5.8207 -1.8304 0.9754
-0.7174 -5.9344 -1.8386 0.9753
-0.1860 -6.0079 -1.8488 0.9752
0.3531 -6.0402 -1.8610 0.9750
0.8975 -6.0302 -1.8752 0.9748
1.9907 -5.8800 -1.9094 0.9744
2.5336 -5.7382 -1.9293 0.9741
5.8577 -2.7592 -1.9916 0.9733
6.1718 -2.2589 -2.0215 0.9729
6.9659 0.0455 -2.1426 0.9713
7.0287 0.6760 -2.1718 0.9709
6.9685 1.9630 -2.2268 0.9702
6.5855 3.2078 -2.2531 0.9698
5.9066 3.5617 -2.1215 0.9715
5.2973 3.8784 -2.0194 0.9729
4.7391 4.1676 -1.9411 0.9739
4.2919 4.5145 -1.9159 0.9743
1.5781 3.7043 -1.2385 0.9833
1.8331 5.6568 -1.8290 0.9754
-0.8067 6.0131 -1.8661 0.9749
-1.6049 7.0866 -2.2349 0.9700
-2.2046 6.8339 -2.2086 0.9704
-3.2973 6.1707 -2.1519 0.9711
-4.2205 5.3332 -2.0919 0.9719
-4.6114 4.8634 -2.0614 0.9723
-5.6399 4.1407 -2.1520 0.9711
-5.9101 3.5745 -2.1244 0.9715
-6.2671 2.3966 -2.0638 0.9723
-6.4152 1.2109 -2.0080 0.9730
-6.4146 0.6255 -1.9824 0.9734
-5.7429 -2.0933 -1.8801 0.9747
-5.4896 -2.5769 -1.8653 0.9749
-5.2017 -3.0355 -1.8524 0.9751
-4.8814 -3.4671 -1.8416 0.9753
-4.5308 -3.8702 -1.8328 0.9754
-4.1519 -4.2433 -1.8260 0.9755
-2.8670 -5.1683 -1.8179 0.9756
-2.3963 -5.4077 -1.8193 0.9756
-0.3581 -5.9887 -1.8453 0.9752
1.2681 -5.9990 -1.8859 0.9747
1.8150 -5.9161 -1.9034 0.9744
2.3593 -5.7888 -1.9227 0.9742
2.8980 -5.6164 -1.9439 0.9739
3.4276 -5.3983 -1.9668 0.9736
4.9240 -4.4694 -2.0454 0.9726
5.3785 -4.0692 -2.0744 0.9722
5.7925 -3.6182 -2.1007 0.9718
5.7484 -2.9127 -1.9821 0.9734
2.3220 -0.9265 -0.7689 0.9896
6.7944 -0.7614 -2.1029 0.9718
6.9331 -0.1543 -2.1330 0.9714
7.0150 0.4714 -2.1625 0.9710
7.0366 1.1100 -2.1911 0.9706
6.8895 2.3996 -2.2439 0.9699
6.1166 3.4523 -2.1603 0.9710
4.9143 4.0770 -1.9640 0.9736
3.9481 4.6916 -1.8860 0.9747
3.3975 4.8589 -1.8236 0.9755
2.9026 5.0594 -1.7941 0.9759
1.9870 5.5787 -1.8215 0.9755
0.4711 6.3445 -1.9568 0.9737
-1.4053 7.1556 -2.2429 0.9699
-2.5922 6.6314 -2.1900 0.9706
-3.1321 6.2904 -2.1614 0.9710
-2.3294 2.1762 -0.9805 0.9867
-5.1557 4.0186 -2.0106 0.9730
-6.0551 3.1784 -2.1034 0.9718
-6.3402 1.9938 -2.0443 0.9726
-6.4050 1.4009 -2.0166 0.9729
-6.4201 0.8131 -1.9904 0.9733
-6.3872 0.2341 -1.9659 0.9736
-5.8168 -1.9325 -1.8853 0.9747
-5.5751 -2.4238 -1.8698 0.9749
-4.9880 -3.3311 -1.8449 0.9752
-3.8801 -4.4784 -1.8225 0.9755
-3.4586 -4.7979 -1.8192 0.9756
-3.0146 -5.0837 -1.8179 0.9756
-2.5499 -5.3345 -1.8186 0.9756
-2.0669 -5.5493 -1.8214 0.9755
-1.0544 -5.8657 -1.8331 0.9754
-5.9580 1.1432 -2.0166 0.9748
-5.7241 -0.9697 -1.9298 0.9758
-5.5636 -1.4632 -1.9123 0.9760
-5.1336 -2.3909 -1.8824 0.9764
-4.8681 -2.8211 -1.8703 0.9766
-4.2463 -3.6051 -1.8516 0.9768
-3.5168 -4.2768 -1.8406 0.9769
-2.6958 -4.8252 -1.8373 0.9770
-2.2560 -5.0499 -1.8385 0.9770
-1.7995 -5.2401 -1.8417 0.9769
-0.3514 -5.5930 -1.8628 0.9767
0.6565 -5.6368 -1.8864 0.9764
2.6813 -5.2351 -1.9551 0.9755
3.1721 -5.0295 -1.9766 0.9752
3.6501 -4.7813 -1.9995 0.9750
4.1118 -4.4906 -2.0239 0.9747
6.0777 -1.2571 -2.0630 0.9742
6.2491 -0.7194 -2.0909 0.9738
6.3713 -0.1610 -2.1185 0.9735
6.4412 0.4133 -2.1455 0.9732
6.4560 0.9984 -2.1715 0.9728
6.1518 2.7581 -2.2410 0.9720
5.9317 3.3244 -2.2603 0.9717
5.4997 3.7640 -2.2153 0.9723
4.9263 4.0619 -2.1224 0.9734
3.4093 4.8446 -1.9692 0.9753
2.0006 5.5636 -1.9653 0.9754
0.4883 2.9060 -0.9795 0.9877
0.4890 6.3267 -2.1093 0.9736
-0.0808 6.6124 -2.1982 0.9725
-0.6134 6.0192 -2.0112 0.9748
-1.2674 6.5579 -2.2202 0.9722
-2.3607 6.0936 -2.1722 0.9728
-3.7461 5.0561 -2.0917 0.9738
-4.1265 4.6390 -2.0638 0.9742
-2.3229 2.1834 -1.0597 0.9867
-4.7533 3.7280 -2.0080 0.9749
-5.3796 3.4919 -2.1319 0.9733
-5.5992 2.9607 -2.1054 0.9737
-5.8787 1.8682 -2.0504 0.9743
-5.8763 -0.2923 -1.9557 0.9755
-5.4336 -1.7870 -1.9013 0.9762
-5.2122 -2.2474 -1.8867 0.9764
-4.9571 -2.6852 -1.8740 0.9765
-4.3542 -3.4861 -1.8541 0.9768
-4.0103 -3.8460 -1.8470 0.9769
-3.6409 -4.1767 -1.8418 0.9769
-2.8335 -4.7456 -1.8373 0.9770
-2.3996 -4.9812 -1.8379 0.9770
-1.9482 -5.1827 -1.8405 0.9769
-1.4816 -5.3489 -1.8450 0.9769
-0.0123 -5.6255 -1.8700 0.9766
0.4929 -5.6405 -1.8821 0.9764
1.5112 -5.5493 -1.9118 0.9760
2.0186 -5.4418 -1.9293 0.9758
3.0152 -5.1003 -1.9695 0.9753
3.4978 -4.8658 -1.9920 0.9751
3.9651 -4.5888 -2.0159 0.9748
4.8391 -3.9091 -2.0678 0.9741
5.2342 -3.5056 -2.0941 0.9738
5.2018 -2.8471 -1.9712 0.9753
6.0127 -1.4252 -2.0540 0.9743
6.1991 -0.8950 -2.0820 0.9739
6.4574 0.8091 -2.1633 0.9729
6.4336 1.3982 -2.1885 0.9726
6.3515 1.9881 -2.2123 0.9723
6.2100 2.5723 -2.2343 0.9721
4.0404 4.5026 -2.0109 0.9748
2.6216 5.2476 -1.9499 0.9756
0.5734 2.8993 -0.9824 0.9876
0.6633 6.2391 -2.0856 0.9739
-0.9993 6.1093 -2.0577 0.9742
-3.6144 5.1838 -2.1006 0.9737
-4.3593 4.3404 -2.0448 0.9744
-5.7159 2.5926 -2.0863 0.9739
-5.8468 2.0451 -2.0590 0.9742
-5.9025 -0.1235 -1.9624 0.9754
-5.8070 -0.6429 -1.9421 0.9757
-5.4974 -1.6343 -1.9064 0.9761
-5.0428 -2.5467 -1.8779 0.9765
-4.7661 -2.9683 -1.8664 0.9766
-3.7625 -4.0735 -1.8433 0.9769
-3.3770 -4.3837 -1.8394 0.9769
-2.0954 -5.1216 -1.8394 0.9769
-1.6335 -5.2993 -1.8433 0.9769
-0.1738 -5.6123 -1.8665 0.9766
0.3297 -5.6400 -1.8780 0.9765
0.8376 -5.6278 -1.8913 0.9763
1.8556 -5.4810 -1.9235 0.9759
3.3439 -4.9460 -1.9846 0.9751
4.7048 -4.0297 -2.0591 0.9742
5.1126 -3.6415 -2.0865 0.9739
5.4147 -2.5505 -1.9896 0.9751
5.9429 -1.5906 -2.0450 0.9744
6.4023 0.0418 -2.1282 0.9734
6.3844 1.7984 -2.2048 0.9724
5.8392 3.5211 -2.2666 0.9717
5.2900 3.8730 -2.1793 0.9727
4.7329 4.1621 -2.0950 0.9738
4.1635 4.3795 -2.0086 0.9749
3.7183 4.6858 -1.9884 0.9751
3.2407 4.9310 -1.9614 0.9754
2.7719 5.1709 -1.9502 0.9756
1.5663 3.6766 -1.3284 0.9833
1.8309 5.6497 -1.9741 0.9753
0.8338 6.1533 -2.0641 0.9742
-0.2960 6.7200 -2.2359 0.9720
-1.4699 6.4906 -2.2121 0.9723
-2.0212 6.2654 -2.1883 0.9726
-3.4784 5.3080 -2.1095 0.9736
-4.2513 4.4837 -2.0538 0.9743
-2.4208 2.1346 -1.0728 0.9865
-5.4673 3.3067 -2.1239 0.9734
-5.9590 1.1248 -2.0158 0.9748
-5.9639 0.5816 -1.9918 0.9751
-5.8423 -0.4771 -1.9485 0.9756
-5.7193 -0.9867 -1.9292 0.9758
-5.3588 -1.9533 -1.8959 0.9762
-5.1251 -2.4058 -1.8820 0.9764
-4.8586 -2.8352 -1.8699 0.9766
-4.5612 -3.2396 -1.8597 0.9767
-3.8817 -3.9671 -1.8449 0.9769
-3.1028 -4.5763 -1.8379 0.9770
-1.7838 -5.2460 -1.8418 0.9769
-1.3123 -5.3994 -1.8470 0.9769
-0.8285 -5.5161 -1.8541 0.9768
-0.3346 -5.5951 -1.8631 0.9767
0.1670 -5.6354 -1.8741 0.9765
1.6922 -5.5158 -1.9178 0.9760
2.1982 -5.3934 -1.9360 0.9757
2.6980 -5.2288 -1.9558 0.9755
3.1885 -5.0218 -1.9773 0.9752
3.6660 -4.7721 -2.0003 0.9750
4.5678 -4.1461 -2.0506 0.9743
4.9843 -3.7709 -2.0775 0.9740
2.3237 -0.9271 -0.8316 0.9895
5.8688 -1.7532 -2.0360 0.9745
6.0843 -1.2393 -2.0640 0.9742
6.3745 -0.1418 -2.1194 0.9735
6.4426 0.4330 -2.1464 0.9731
6.4555 1.0183 -2.1724 0.9728
6.4111 1.6084 -2.1971 0.9725
6.3080 2.1970 -2.2203 0.9722
6.1453 2.7776 -2.2417 0.9720
5.9233 3.3432 -2.2609 0.9717
5.4795 3.7745 -2.2117 0.9723
4.9077 4.0715 -2.1197 0.9735
3.3932 4.8528 -1.9683 0.9753
2.8990 5.0531 -1.9365 0.9757
-2.3782 6.0840 -2.1714 0.9728
-3.3382 5.4286 -2.1184 0.9735
-3.7597 5.0425 -2.0908 0.9738
-4.1386 4.6244 -2.0629 0.9742
-2.3289 2.1758 -1.0594 0.9867
-4.7623 3.7119 -2.0071 0.9749
-5.6056 2.9424 -2.1044 0.9737
-5.7680 2.3982 -2.0764 0.9740
-5.8817 1.8496 -2.0495 0.9743
-5.8732 -0.3099 -1.9550 0.9755
-5.6138 -1.3228 -1.9171 0.9760
-5.2041 -2.2625 -1.8863 0.9764
-4.9479 -2.6996 -1.8736 0.9765
-4.6602 -3.1122 -1.8628 0.9767
-4.3430 -3.4988 -1.8538 0.9768
-3.6280 -4.1874 -1.8417 0.9769
-3.2343 -4.4867 -1.8385 0.9770
-2.3846 -4.9886 -1.8379 0.9770
-0.9855 -5.4825 -1.8516 0.9768
-0.4946 -5.5738 -1.8600 0.9767
0.0048 -5.6267 -1.8703 0.9766
0.5101 -5.6403 -1.8825 0.9764
-5.5672 0.5599 -2.0009 0.9765
-5.4643 -0.4297 -1.9601 0.9770
-5.3541 -0.9070 -1.9419 0.9772
-5.2070 -1.3694 -1.9254 0.9774
-4.5625 -2.6440 -1.8858 0.9778
-4.2862 -3.0249 -1.8760 0.9780
-3.6527 -3.7105 -1.8620 0.9781
-2.5294 -4.5273 -1.8545 0.9782
-1.6882 -4.9159 -1.8587 0.9782
-1.2461 -5.0601 -1.8636 0.9781
-0.3294 -5.2432 -1.8787 0.9779
0.1405 -5.2803 -1.8890 0.9778
0.6150 -5.2801 -1.9010 0.9777
1.0915 -5.2417 -1.9147 0.9775
1.5674 -5.1646 -1.9301 0.9773
2.5058 -4.8925 -1.9657 0.9769
2.9624 -4.6970 -1.9858 0.9767
3.4062 -4.4618 -2.0074 0.9764
4.2419 -3.8737 -2.0543 0.9759
4.6266 -3.5223 -2.0794 0.9756
4.9283 -2.5159 -1.9788 0.9768
2.3166 -0.9324 -0.8930 0.9894
5.4340 -1.6412 -2.0299 0.9762
5.6295 -1.1644 -2.0558 0.9759
5.9568 0.9212 -2.1555 0.9747
5.8144 2.0054 -2.1995 0.9742
5.1966 3.5565 -2.2519 0.9736
3.4050 4.8385 -2.1158 0.9752
1.9980 5.5566 -2.1116 0.9752
1.5171 5.8002 -2.1440 0.9749
0.4853 6.2795 -2.2523 0.9736
-0.0764 6.2551 -2.2370 0.9738
-0.6133 6.0178 -2.1631 0.9746
-1.1674 6.0403 -2.2000 0.9742
-3.0720 5.0296 -2.1076 0.9753
-4.4115 3.4599 -2.0049 0.9765
-4.9900 3.2390 -2.1274 0.9750
-5.4765 1.7404 -2.0550 0.9759
-5.5684 0.7224 -2.0080 0.9764
-5.3937 -0.7548 -1.9476 0.9771
-5.0872 -1.6731 -1.9151 0.9775
-4.8823 -2.1051 -1.9013 0.9777
-4.3783 -2.9049 -1.8790 0.9779
-4.0830 -3.2691 -1.8705 0.9780
-3.7615 -3.6074 -1.8637 0.9781
-3.4156 -3.9183 -1.8588 0.9782
-2.2514 -4.6736 -1.8551 0.9782
-1.3898 -5.0174 -1.8618 0.9781
-0.9396 -5.1381 -1.8679 0.9781
-0.4794 -5.2234 -1.8758 0.9780
1.4143 -5.1937 -1.9249 0.9774
1.8882 -5.0901 -1.9415 0.9772
2.3566 -4.9470 -1.9596 0.9770
4.5055 -3.6396 -2.0712 0.9757
4.8668 -3.2595 -2.0947 0.9754
4.8341 -2.6458 -1.9707 0.9769
5.5710 -1.3205 -2.0475 0.9760
5.8604 -0.3170 -2.0988 0.9754
5.9351 0.2096 -2.1238 0.9751
5.9598 0.7468 -2.1479 0.9748
5.9326 1.2893 -2.1711 0.9745
5.7171 2.3681 -2.2129 0.9741
5.5281 2.8924 -2.2311 0.9738
5.2858 3.3985 -2.2472 0.9737
4.9917 3.8801 -2.2609 0.9735
3.0853 5.0024 -2.1018 0.9753
1.6737 5.7210 -2.1316 0.9750
0.1038 6.2691 -2.2422 0.9737
-0.4526 6.2065 -2.2254 0.9739
-1.5210 5.9201 -2.1858 0.9744
-2.9372 5.1355 -2.1156 0.9752
-3.3434 4.7951 -2.0904 0.9755
-4.0405 4.0229 -2.0390 0.9761
-4.3278 3.6002 -2.0132 0.9764
-4.5731 3.1591 -1.9876 0.9767
-5.3185 2.4123 -2.0884 0.9755
-5.5272 1.3944 -2.0385 0.9761
-5.4294 -0.6011 -1.9535 0.9771
-5.1461 -1.5299 -1.9199 0.9775
-4.7250 -2.3863 -1.8930 0.9778
-4.1811 -3.1545 -1.8730 0.9780
-3.8678 -3.5013 -1.8657 0.9781
-3.5296 -3.8212 -1.8602 0.9781
-3.1683 -4.1128 -1.8566 0.9782
-2.7859 -4.3748 -1.8547 0.9782
-1.5323 -4.9711 -1.8603 0.9781
-1.0858 -5.1031 -1.8657 0.9781
0.3090 -5.2846 -1.8930 0.9778
0.7845 -5.2708 -1.9056 0.9776
1.2611 -5.2187 -1.9200 0.9775
2.6696 -4.8275 -1.9727 0.9768
3.5605 -4.3685 -2.0154 0.9763
3.9816 -4.0800 -2.0387 0.9761
5.5082 -1.4743 -2.0391 0.9761
5.6890 -0.9893 -2.0650 0.9758
5.9164 0.0386 -2.1158 0.9752
5.9575 0.5729 -2.1403 0.9749
5.9471 1.1143 -2.1637 0.9746
5.3696 3.2379 -2.2423 0.9737
4.7265 4.1565 -2.2508 0.9736
3.2367 4.9248 -2.1075 0.9753
2.7685 5.1644 -2.0955 0.9754
1.5987 3.7528 -1.4587 0.9828
1.8285 5.6425 -2.1211 0.9751
0.6842 3.0027 -1.1013 0.9870
-0.2745 6.2328 -2.2310 0.9738
-0.8047 5.9983 -2.1642 0.9746
-1.8638 5.7775 -2.1709 0.9745
-2.7987 5.2375 -2.1236 0.9751
-3.9391 4.1544 -2.0473 0.9760
-4.4987 3.3029 -1.9958 0.9766
-5.2680 2.5747 -2.0968 0.9754
-5.5057 1.5588 -2.0463 0.9760
-5.3497 -0.9229 -1.9414 0.9772
-4.8015 -2.2539 -1.8968 0.9777
-4.5537 -2.6573 -1.8854 0.9779
-4.2764 -3.0373 -1.8757 0.9780
-3.9715 -3.3925 -1.8679 0.9781
-2.9112 -4.2937 -1.8551 0.9782
-1.2309 -5.0644 -1.8638 0.9781
-0.7769 -5.1726 -1.8705 0.9780
1.1076 -5.2397 -1.9152 0.9775
2.9777 -4.6896 -1.9865 0.9767
3.4210 -4.4531 -2.0081 0.9764
3.8481 -4.1772 -2.0310 0.9762
4.2553 -3.8624 -2.0551 0.9759
4.6391 -3.5098 -2.0803 0.9756
4.9380 -2.5021 -1.9796 0.9768
5.4412 -1.6255 -2.0308 0.9762
5.8926 -0.1311 -2.1077 0.9753
5.9562 0.9395 -2.1563 0.9747
5.4479 3.0749 -2.2371 0.9738
5.1870 3.5730 -2.2524 0.9736
4.1252 4.0964 -2.0790 0.9756
3.3890 4.8467 -2.1149 0.9752
2.8953 5.0468 -2.0807 0.9756
0.4663 6.2796 -2.2518 0.9736
-0.6304 6.0055 -2.1594 0.9747
-1.1853 6.0349 -2.1993 0.9742
-2.1943 5.6136 -2.1554 0.9747
-2.6567 5.3356 -2.1315 0.9750
-3.8334 4.2834 -2.0556 0.9759
-2.3285 2.1754 -1.1395 0.9866
-5.2127 2.7362 -2.1053 0.9753
-5.3688 2.2322 -2.0793 0.9756
-5.4889 -0.2896 -1.9656 0.9769
-5.0808 -1.6880 -1.9146 0.9775
-4.3688 -2.9176 -1.8787 0.9779
-2.6451 -4.4606 -1.8545 0.9782
-1.3748 -5.0221 -1.8620 0.9781
-0.4637 -5.2257 -1.8761 0.9780
0.0045 -5.2734 -1.8858 0.9778
0.4779 -5.2840 -1.8973 0.9777
-5.2007 0.9979 -2.0294 0.9776
-5.2142 0.5244 -2.0083 0.9778
-5.1245 -0.4029 -1.9698 0.9782
-4.7198 -1.7042 -1.9230 0.9787
-4.5193 -2.1048 -1.9105 0.9789
-4.2889 -2.4854 -1.8996 0.9790
-3.7456 -3.1799 -1.8829 0.9792
-3.4362 -3.4907 -1.8771 0.9792
-3.1043 -3.7751 -1.8730 0.9793
-2.7516 -4.0320 -1.8706 0.9793
-2.3800 -4.2600 -1.8700 0.9793
-0.7452 -4.8619 -1.8849 0.9792
0.5778 -4.9610 -1.9140 0.9788
1.0251 -4.9228 -1.9270 0.9787
1.9137 -4.7363 -1.9576 0.9784
2.3496 -4.5874 -1.9752 0.9782
2.7759 -4.4013 -1.9941 0.9780
3.1896 -4.1780 -2.0143 0.9777
4.6400 -2.9178 -2.1005 0.9768
4.5968 -2.3466 -1.9778 0.9781
5.3746 -0.6187 -2.0733 0.9771
5.5197 0.3542 -2.1196 0.9766
5.2384 2.3486 -2.2000 0.9757
5.0446 2.8272 -2.2161 0.9755
4.1315 4.0779 -2.2246 0.9754
3.6634 4.3267 -2.1726 0.9760
1.7544 3.7801 -1.5970 0.9823
1.9940 5.5451 -2.2582 0.9751
1.4867 5.6839 -2.2515 0.9751
0.4854 2.8885 -1.1225 0.9875
-0.0706 5.7834 -2.2165 0.9755
-1.0807 5.5919 -2.1826 0.9759
-1.5613 5.4243 -2.1631 0.9761
-2.0194 5.2125 -2.1422 0.9763
-2.8528 4.6708 -2.0974 0.9768
-3.5556 3.9971 -2.0501 0.9773
-2.3235 2.1839 -1.2220 0.9864
-4.1110 3.2243 -2.0022 0.9779
-4.8589 2.5693 -2.1063 0.9767
-5.0116 2.1015 -2.0825 0.9770
-5.1878 1.1511 -2.0364 0.9775
-4.9359 -1.1473 -1.9420 0.9785
-4.7777 -1.5713 -1.9274 0.9787
-4.5872 -1.9779 -1.9143 0.9788
-4.1166 -2.7312 -1.8932 0.9791
-3.8400 -3.0745 -1.8851 0.9791
-3.5384 -3.3934 -1.8788 0.9792
-3.2135 -3.6865 -1.8741 0.9793
-2.8673 -3.9523 -1.8712 0.9793
-2.1185 -4.3976 -1.8706 0.9793
-1.7197 -4.5748 -1.8729 0.9793
-1.3075 -4.7201 -1.8769 0.9792
-0.8838 -4.8327 -1.8827 0.9792
-0.0108 -4.9563 -1.8993 0.9790
0.8810 -4.9391 -1.9226 0.9787
1.3279 -4.8762 -1.9367 0.9786
2.6398 -4.4653 -1.9879 0.9780
3.0579 -4.2540 -2.0077 0.9778
3.8466 -3.7212 -2.0510 0.9773
4.2104 -3.4012 -2.0742 0.9771
4.5427 -3.0425 -2.0952 0.9769
5.4439 -0.2945 -2.0892 0.9769
5.5086 0.1946 -2.1123 0.9767
5.5271 0.6926 -2.1346 0.9764
5.4975 1.1948 -2.1559 0.9762
5.4187 1.6961 -2.1759 0.9760
4.8856 3.1411 -2.2258 0.9754
4.2420 3.9525 -2.2219 0.9755
3.8132 4.2494 -2.1880 0.9758
3.4914 4.6697 -2.2344 0.9753
3.0814 4.9960 -2.2494 0.9752
2.1475 5.4723 -2.2528 0.9751
1.6514 5.6450 -2.2539 0.9751
-0.9219 5.6360 -2.1885 0.9758
-1.4088 5.4832 -2.1695 0.9760
-1.8746 5.2853 -2.1491 0.9763
-2.3152 5.0457 -2.1274 0.9765
-2.7269 4.7678 -2.1048 0.9767
-3.4520 4.1132 -2.0578 0.9773
-3.7609 3.7446 -2.0338 0.9775
-4.2641 2.9456 -1.9861 0.9780
-5.0901 1.7804 -2.0665 0.9772
-5.1707 1.3045 -2.0436 0.9774
-5.2095 0.3571 -2.0010 0.9779
-5.1699 -0.1082 -1.9816 0.9781
-4.9798 -1.0074 -1.9470 0.9785
-4.8323 -1.4366 -1.9319 0.9786
-4.6520 -1.8490 -1.9184 0.9788
-4.4406 -2.2426 -1.9064 0.9789
-3.9319 -2.9666 -1.8875 0.9791
-3.3206 -3.5950 -1.8754 0.9793
-2.9810 -3.8698 -1.8720 0.9793
-2.6214 -4.1165 -1.8702 0.9793
-1.4416 -4.6768 -1.8755 0.9793
-1.0213 -4.8001 -1.8807 0.9792
-0.1531 -4.9458 -1.8962 0.9790
0.2903 -4.9665 -1.9065 0.9789
1.1841 -4.9004 -1.9320 0.9786
2.0698 -4.6876 -1.9637 0.9783
2.5026 -4.5255 -1.9817 0.9781
3.3332 -4.0897 -2.0218 0.9777
4.4421 -3.1639 -2.0899 0.9769
4.6888 -2.2086 -1.9862 0.9780
5.4135 -0.4494 -2.0817 0.9770
5.4927 0.0359 -2.1050 0.9767
5.5123 1.0329 -2.1492 0.9763
5.4495 1.5351 -2.1696 0.9760
5.3371 2.0328 -2.1886 0.9758
5.1750 2.5208 -2.2059 0.9756
4.7049 3.4446 -2.2346 0.9753
4.3487 3.8243 -2.2192 0.9755
3.9652 4.1708 -2.2054 0.9756
3.2325 4.9185 -2.2555 0.9751
2.7649 5.1579 -2.2427 0.9752
1.8149 5.6005 -2.2561 0.9751
0.6849 3.0057 -1.1813 0.9869
0.2632 5.8020 -2.2257 0.9754
-0.2538 5.7640 -2.2110 0.9756
-1.2540 5.5375 -2.1758 0.9760
-1.7271 5.3538 -2.1558 0.9762
-2.9880 4.5596 -2.0891 0.9769
-3.3447 4.2265 -2.0655 0.9772
-3.6655 3.8659 -2.0415 0.9774
-4.1936 3.0789 -1.9937 0.9780
-4.7282 2.8597 -2.1176 0.9766
-4.9190 2.4041 -2.0982 0.9768
-5.1492 1.4579 -2.0508 0.9773
-5.1217 -0.4183 -1.9692 0.9782
-4.2806 -2.4979 -1.8993 0.9790
-3.4254 -3.5007 -1.8769 0.9792
-2.3672 -4.2672 -1.8700 0.9793
-1.5744 -4.6302 -1.8741 0.9793
-0.7306 -4.8648 -1.8852 0.9791
0.5929 -4.9603 -1.9144 0.9788
1.4863 -4.8449 -1.9421 0.9785
2.3642 -4.5818 -1.9758 0.9782
2.7901 -4.3943 -1.9948 0.9779
3.6006 -3.9086 -2.0365 0.9775
3.9787 -3.6114 -2.0591 0.9772
4.3341 -3.2790 -2.0827 0.9770
4.6057 -2.3337 -1.9786 0.9781
5.2424 -1.0678 -2.0502 0.9773
5.5221 0.8711 -2.1423 0.9763
5.4751 1.3736 -2.1632 0.9761
5.0371 2.8431 -2.2166 0.9755
3.6478 4.3347 -2.1711 0.9760
2.8917 5.0403 -2.2269 0.9754
1.7389 3.7766 -1.5933 0.9823
1.9770 5.5506 -2.2580 0.9751
1.4694 5.6877 -2.2512 0.9751
0.4768 2.8912 -1.1229 0.9875
-0.5993 5.7091 -2.1999 0.9757
-1.5772 5.4178 -2.1624 0.9761
-2.4652 4.9509 -2.1195 0.9766
-2.8658 4.6604 -2.0966 0.9768
-3.5662 3.9848 -2.0493 0.9774
-2.3280 2.1750 -1.2209 0.9864
-4.3372 2.7967 -1.9777 0.9781
-5.1894 1.1350 -2.0357 0.9775
-5.1998 0.1906 -1.9940 0.9780
-5.1467 -0.2716 -1.9751 0.9782
-5.0566 -0.7232 -1.9575 0.9784
-4.9311 -1.1619 -1.9414 0.9785
-4.7718 -1.5853 -1.9269 0.9787
-4.3583 -2.3779 -1.9026 0.9790
-4.1077 -2.7432 -1.8929 0.9791
-3.8302 -3.0857 -1.8849 0.9792
-3.5278 -3.4037 -1.8786 0.9792
-2.8553 -3.9608 -1.8711 0.9793
-2.4890 -4.1973 -1.8700 0.9793
-2.1052 -4.4041 -1.8706 0.9793
-0.8693 -4.8360 -1.8829 0.9792
-1.9577 0.1969 -0.8053 0.9915
-4.6022 -1.2103 -1.9476 0.9796
-4.2580 -1.9831 -1.9224 0.9799
-3.5319 -2.9986 -1.8962 0.9802
-3.2408 -3.2922 -1.8907 0.9802
-2.9281 -3.5609 -1.8868 0.9803
-2.5956 -3.8035 -1.8846 0.9803
-1.8787 -4.2053 -1.8851 0.9803
-1.4981 -4.3625 -1.8878 0.9803
0.1244 -4.6773 -1.9150 0.9800
0.5444 -4.6737 -1.9258 0.9799
1.3849 -4.5635 -1.9518 0.9796
2.2094 -4.3138 -1.9836 0.9793
2.9958 -3.9241 -2.0206 0.9789
3.7203 -3.3974 -2.0620 0.9785
4.0516 -3.0846 -2.0841 0.9782
4.7281 -1.4280 -2.0214 0.9789
4.8902 -1.0115 -2.0438 0.9786
5.0148 -0.5773 -2.0660 0.9784
5.0961 1.2621 -2.1487 0.9776
5.0048 1.7262 -2.1668 0.9774
3.1506 4.4770 -2.2406 0.9766
1.8494 5.1432 -2.2369 0.9767
0.4859 2.8915 -1.2000 0.9874
-0.0656 5.3714 -2.1985 0.9771
-0.5410 5.3082 -2.1838 0.9772
-3.3200 3.7323 -2.0444 0.9786
-4.5459 2.4038 -2.1046 0.9780
-4.6974 1.9697 -2.0847 0.9782
-4.8029 1.5263 -2.0626 0.9785
-4.8693 1.0805 -2.0414 0.9787
-1.9512 0.2531 -0.8053 0.9915
-1.9468 -0.2724 -0.8046 0.9915
-4.6461 -1.0800 -1.9522 0.9796
-3.6208 -2.8990 -1.8984 0.9802
-3.3370 -3.2003 -1.8923 0.9802
-3.0311 -3.4772 -1.8879 0.9803
-2.7048 -3.7283 -1.8851 0.9803
-2.3599 -3.9524 -1.8840 0.9803
-0.4250 -4.6306 -1.9032 0.9801
0.4089 -4.6786 -1.9221 0.9799
1.6673 -4.4946 -1.9620 0.9795
2.0786 -4.3635 -1.9781 0.9793
2.8727 -3.9963 -2.0143 0.9790
3.2496 -3.7607 -2.0342 0.9787
3.6089 -3.4912 -2.0551 0.9785
4.8420 -1.1477 -2.0366 0.9787
5.0768 -0.2746 -2.0808 0.9783
5.1468 0.6449 -2.1229 0.9778
5.1158 1.1118 -2.1426 0.9776
5.0393 1.5774 -2.1611 0.9774
4.9169 2.0367 -2.1782 0.9773
4.7489 2.4847 -2.1936 0.9771
4.2800 3.3269 -2.2187 0.9768
3.9828 3.7111 -2.2280 0.9767
3.6472 4.0644 -2.2350 0.9767
2.8753 4.6619 -2.2417 0.9766
2.4474 4.8990 -2.2413 0.9766
1.9979 5.0912 -2.2384 0.9766
1.5319 5.2365 -2.2330 0.9767
0.5721 5.3820 -2.2151 0.9769
0.0891 5.3817 -2.2029 0.9770
-0.3889 5.3336 -2.1887 0.9772
-0.8570 5.2391 -2.1727 0.9773
-1.3104 5.1002 -2.1552 0.9775
-2.1564 4.6996 -2.1162 0.9779
-2.5417 4.4440 -2.0953 0.9781
-2.2589 2.2491 -1.3046 0.9863
-2.4904 2.0717 -1.3258 0.9861
-3.9898 2.7562 -1.9847 0.9793
-4.6550 2.1114 -2.0920 0.9782
-4.7732 1.6696 -2.0696 0.9784
-4.8522 1.2241 -2.0481 0.9786
-2.0301 0.3230 -0.8413 0.9912
-1.9511 0.1337 -0.8004 0.9916
-4.6867 -0.9481 -1.9570 0.9795
-4.1844 -2.1132 -1.9186 0.9799
-3.9589 -2.4656 -1.9088 0.9800
-3.7072 -2.7970 -1.9007 0.9801
-2.8120 -3.6503 -1.8859 0.9803
1.1150 -4.6141 -1.9428 0.9797
2.3528 -4.2547 -1.9898 0.9792
2.7481 -4.0648 -2.0082 0.9790
3.8409 -3.2897 -2.0698 0.9784
4.1392 -2.4228 -1.9629 0.9795
4.3872 -2.0666 -1.9848 0.9793
4.9390 -0.8588 -2.0517 0.9786
5.0496 -0.4192 -2.0738 0.9783
5.1307 0.9614 -2.1364 0.9777
4.9613 1.8897 -2.1728 0.9773
4.8079 2.3420 -2.1888 0.9772
4.6095 2.7795 -2.2030 0.9770
3.3996 4.2842 -2.2384 0.9766
3.0077 4.5764 -2.2413 0.9766
2.5878 4.8274 -2.2417 0.9766
1.6201 3.8030 -1.6918 0.9823
1.6835 5.1949 -2.2350 0.9767
-0.2358 5.3543 -2.1935 0.9771
-0.7076 5.2745 -2.1781 0.9773
-1.6072 4.9821 -2.1425 0.9776
-2.4207 4.5300 -2.1021 0.9780
-2.7865 4.2522 -2.0807 0.9783
-3.4236 3.6107 -2.0365 0.9787
-2.3461 2.0687 -1.2802 0.9866
-4.6074 2.2518 -2.0989 0.9781
-4.8310 1.3678 -2.0549 0.9785
-2.2040 0.4160 -0.9180 0.9904
-1.9579 0.1909 -0.8051 0.9915
-2.1387 -0.3690 -0.8882 0.9907
-4.5975 -1.2240 -1.9472 0.9796
-4.2512 -1.9956 -1.9221 0.9799
-3.7910 -2.6926 -1.9031 0.9801
-2.5841 -3.8112 -1.8846 0.9803
-1.8661 -4.2111 -1.8852 0.9803
-0.6889 -4.5870 -1.8984 0.9802
-0.2780 -4.6489 -1.9061 0.9801
0.5586 -4.6730 -1.9262 0.9799
2.2231 -4.3084 -1.9842 0.9793
2.6221 -4.1298 -2.0021 0.9791
3.0086 -3.9164 -2.0212 0.9789
3.3796 -3.6687 -2.0415 0.9787
4.3542 -2.7198 -2.1012 0.9781
4.3105 -2.1841 -1.9777 0.9793
4.8950 -0.9971 -2.0446 0.9786
5.0183 -0.5624 -2.0667 0.9784
5.1017 -0.1135 -2.0885 0.9782
5.0938 1.2779 -2.1494 0.9776
5.0010 1.7418 -2.1674 0.9774
4.8623 2.1977 -2.1839 0.9772
4.6783 2.6405 -2.1986 0.9770
3.5192 4.1819 -2.2369 0.9767
2.7258 4.7513 -2.2419 0.9766
1.3632 5.2766 -2.2305 0.9767
0.4766 2.8895 -1.1986 0.9874
-0.5569 5.3052 -2.1832 0.9772
-1.8941 4.8455 -2.1293 0.9778
-3.8522 3.0026 -1.9990 0.9791
-1.9523 0.2473 -0.8054 0.9915
-4.6417 -1.0937 -1.9517 0.9796
-4.4937 -1.4929 -1.9380 0.9797
-4.1073 -2.2409 -1.9149 0.9800
-3.6116 -2.9096 -1.8981 0.9802
-3.0204 -3.4861 -1.8878 0.9803
-2.6934 -3.7363 -1.8851 0.9803
-2.3479 -3.9595 -1.8840 0.9803
-1.9859 -4.1545 -1.8846 0.9803
-1.6092 -4.3203 -1.8869 0.9803
0.4231 -4.6782 -1.9225 0.9799
-1.5262 0.1535 -0.6685 0.9933
-1.5289 -0.1202 -0.6684 0.9933
-1.5533 -0.4085 -0.7000 0.9930
-1.5959 -0.5762 -0.7395 0.9926
-3.5903 -2.5338 -1.9152 0.9810
-2.7681 -3.3663 -1.8994 0.9812
-2.4539 -3.5959 -1.8973 0.9812
-2.1227 -3.7994 -1.8967 0.9812
-1.7762 -3.9758 -1.8977 0.9812
-1.0449 -4.2432 -1.9045 0.9811
-0.2759 -4.3910 -1.9174 0.9810
0.1175 -4.4182 -1.9262 0.9809
1.3068 -4.3060 -1.9612 0.9806
2.0829 -4.0667 -1.9913 0.9803
2.8212 -3.6954 -2.0262 0.9799
3.1692 -3.4612 -2.0453 0.9797
3.4993 -3.1955 -2.0653 0.9795
4.0805 -2.5660 -2.1008 0.9792
2.3219 -0.9346 -1.0908 0.9891
4.5811 -0.9476 -2.0388 0.9798
4.6946 -0.5405 -2.0595 0.9796
4.8077 0.3085 -2.0996 0.9792
4.5405 2.0357 -2.1686 0.9785
4.3682 2.4482 -2.1824 0.9784
3.9024 3.2177 -2.2043 0.9782
3.6128 3.5659 -2.2123 0.9781
2.5514 4.4162 -2.2228 0.9780
1.7872 3.8507 -1.8501 0.9816
1.7222 4.7895 -2.2182 0.9780
0.3880 5.0207 -2.1946 0.9783
-0.0612 5.0079 -2.1827 0.9784
-0.5046 4.9513 -2.1690 0.9785
-2.1348 4.3202 -2.1002 0.9792
-3.1101 3.4963 -2.0394 0.9798
-2.2687 2.1324 -1.3569 0.9865
-3.8046 2.4696 -1.9768 0.9804
-1.5818 0.5027 -0.7233 0.9928
-1.5195 0.1971 -0.6678 0.9933
-1.5328 -0.3563 -0.6858 0.9932
-1.5861 -0.5216 -0.7277 0.9927
-4.0807 -1.7595 -1.9367 0.9808
-3.6666 -2.4326 -1.9177 0.9810
-3.1542 -3.0249 -1.9046 0.9811
-2.8654 -3.2871 -1.9004 0.9812
-2.5571 -3.5247 -1.8978 0.9812
-2.2311 -3.7367 -1.8967 0.9812
-1.8893 -3.9220 -1.8972 0.9812
-1.1656 -4.2080 -1.9030 0.9811
-0.0096 -4.4129 -1.9232 0.9809
0.3861 -4.4184 -1.9330 0.9808
0.7834 -4.3917 -1.9442 0.9807
2.3385 -3.9555 -2.0026 0.9801
3.3951 -3.2845 -2.0587 0.9796
3.7113 -2.9981 -2.0793 0.9794
3.9961 -2.6764 -2.0961 0.9792
2.2875 -0.9981 -1.0877 0.9892
4.5370 -1.0754 -2.0321 0.9799
4.6621 -0.6731 -2.0529 0.9797
4.8002 0.1696 -2.0933 0.9793
4.8098 0.6027 -2.1126 0.9791
4.7037 1.4723 -2.1480 0.9787
4.2281 2.7184 -2.1907 0.9783
3.0512 4.0809 -2.2207 0.9780
0.6008 3.0376 -1.3495 0.9866
-0.7996 4.8885 -2.1588 0.9786
-2.3773 4.1565 -2.0868 0.9793
-2.7123 3.8899 -2.0667 0.9795
-3.0181 3.5961 -2.0461 0.9797
-2.2253 2.2156 -1.3685 0.9864
-2.4501 2.0382 -1.3890 0.9862
-3.7445 2.5867 -1.9834 0.9803
-1.5929 0.5572 -0.7355 0.9927
-1.5466 0.3902 -0.6951 0.9931
-1.5095 0.2402 -0.6661 0.9934
-1.5242 -0.1688 -0.6683 0.9933
-1.5089 -0.3053 -0.6709 0.9933
-1.5725 -0.4675 -0.7150 0.9929
-4.1374 -1.6444 -1.9403 0.9808
-3.7402 -2.3294 -1.9203 0.9810
-3.2428 -2.9355 -1.9063 0.9811
-2.6584 -3.4509 -1.8985 0.9812
-1.6495 -4.0318 -1.8985 0.9812
-1.2853 -4.1698 -1.9016 0.9811
-0.9103 -4.2784 -1.9063 0.9811
-0.5267 -4.3568 -1.9126 0.9810
0.2584 -4.4201 -1.9297 0.9809
1.4467 -4.2731 -1.9661 0.9805
2.2176 -4.0102 -1.9971 0.9802
2.5889 -3.8292 -2.0145 0.9800
3.2889 -3.3702 -2.0523 0.9797
3.6119 -3.0936 -2.0726 0.9795
3.9088 -2.7841 -2.0915 0.9793
3.8873 -2.2754 -1.9630 0.9805
4.1175 -1.9395 -1.9836 0.9803
4.3190 -1.5808 -2.0044 0.9801
4.8112 0.4627 -2.1065 0.9791
4.7927 0.8980 -2.1251 0.9789
4.0695 2.9795 -2.1981 0.9782
3.8035 3.3448 -2.2074 0.9781
3.1657 3.9895 -2.2196 0.9780
1.6308 3.8280 -1.8134 0.9820
1.5678 4.8380 -2.2164 0.9781
0.6782 5.0052 -2.2013 0.9782
0.2278 5.0212 -2.1906 0.9783
-0.2199 4.9928 -2.1780 0.9784
-1.0886 4.8068 -2.1479 0.9787
-1.8938 4.4618 -2.1125 0.9791
-2.6075 3.9789 -2.0732 0.9795
-2.9229 3.6935 -2.0528 0.9797
-2.3158 2.0420 -1.3456 0.9866
-3.6809 2.7025 -1.9901 0.9803
-3.8668 2.3387 -1.9695 0.9805
-1.5651 0.4431 -0.7089 0.9929
-1.4973 0.2826 -0.6641 0.9934
-1.5267 0.1489 -0.6685 0.9933
-1.5286 -0.1248 -0.6684 0.9933
-1.5038 -0.2594 -0.6651 0.9934
-1.5553 -0.4141 -0.7014 0.9930
-1.5967 -0.5820 -0.7406 0.9926
-3.8113 -2.2241 -1.9232 0.9809
-3.5822 -2.5443 -1.9149 0.9810
-3.0538 -3.1209 -1.9030 0.9811
-1.7642 -3.9812 -1.8978 0.9812
-1.4039 -4.1285 -1.9005 0.9812
-0.6511 -4.3349 -1.9104 0.9811
-0.2627 -4.3924 -1.9177 0.9810
0.1309 -4.4185 -1.9265 0.9809
0.5275 -4.4126 -1.9368 0.9808
0.9247 -4.3743 -1.9485 0.9807
1.7113 -4.1988 -1.9761 0.9804
2.0957 -4.0615 -1.9918 0.9803
3.5101 -3.1860 -2.0660 0.9795
3.8185 -2.8889 -2.0868 0.9793
4.0892 -2.5543 -2.1012 0.9792
4.4379 -1.3258 -2.0186 0.9800
4.7727 -0.1062 -2.0805 0.9794
4.8032 0.7577 -2.1192 0.9790
4.7563 1.1932 -2.1371 0.9788
4.6671 1.6255 -2.1538 0.9787
4.1471 2.8567 -2.1947 0.9783
3.2772 3.8943 -2.2182 0.9780
2.9211 4.1777 -2.2216 0.9780
1.7722 3.8488 -1.8466 0.9817
1.7076 4.7943 -2.2180 0.9780
0.4712 2.8568 -1.2618 0.9874
-0.5194 4.9486 -2.1685 0.9785
-0.9521 4.8479 -2.1532 0.9787
-1.3702 4.7067 -2.1364 0.9788
-1.7697 4.5273 -2.1185 0.9790
-2.1472 4.3124 -2.0995 0.9792
-2.2732 2.1238 -1.3558 0.9865
-1.5204 0.1926 -0.6679 0.9933
-1.5295 -0.0807 -0.6675 0.9933
-1.5154 -0.2167 -0.6672 0.9933
-1.5351 -0.3617 -0.6873 0.9931
-1.5873 -0.5274 -0.7290 0.9927
-4.0746 -1.7715 -1.9364 0.9808
-3.6587 -2.4434 -1.9174 0.9810
-2.8553 -3.2955 -1.9003 0.9812
-2.5463 -3.5323 -1.8977 0.9812
-2.2198 -3.7434 -1.8967 0.9812
-1.5212 -4.0842 -1.8994 0.9812
-1.1530 -4.2119 -1.9031 0.9811
-0.7747 -4.3098 -1.9084 0.9811
-0.3884 -4.3773 -1.9152 0.9810
0.0037 -4.4136 -1.9235 0.9809
-1.3118 0.2517 -0.6183 0.9941
-1.3197 -0.2236 -0.6196 0.9941
-1.3145 -0.3457 -0.6291 0.9940
-1.3332 -0.4814 -0.6561 0.9938
-3.6146 -2.0947 -1.9338 0.9818
-3.3993 -2.3990 -1.9259 0.9818
-3.1611 -2.6837 -1.9194 0.9819
-2.9014 -2.9474 -1.9144 0.9819
-2.6220 -3.1886 -1.9109 0.9820
-2.0108 -3.5991 -1.9083 0.9820
-1.3414 -3.9062 -1.9118 0.9820
-0.9896 -4.0186 -1.9157 0.9819
-0.6288 -4.1025 -1.9212 0.9819
-0.2612 -4.1571 -1.9281 0.9818
0.1113 -4.1818 -1.9364 0.9817
0.4864 -4.1761 -1.9461 0.9816
0.8620 -4.1395 -1.9572 0.9815
1.6052 -3.9727 -1.9833 0.9813
1.9679 -3.8422 -1.9982 0.9812
2.3213 -3.6806 -2.0142 0.9810
2.6629 -3.4881 -2.0313 0.9808
3.2994 -3.0130 -2.0682 0.9805
3.5879 -2.7316 -2.0873 0.9803
3.8421 -2.4161 -2.1009 0.9802
4.3037 -0.8902 -2.0343 0.9808
4.4765 -0.1131 -2.0728 0.9805
4.5085 0.2893 -2.0912 0.9803
4.5025 0.6963 -2.1089 0.9801
4.4575 1.1040 -2.1257 0.9800
4.2492 1.9051 -2.1555 0.9797
3.8855 2.6592 -2.1794 0.9795
2.3838 4.1263 -2.2058 0.9792
-1.2705 4.4139 -2.1261 0.9800
-1.6462 4.2493 -2.1094 0.9801
-2.0019 4.0512 -2.0917 0.9803
-2.3347 3.8224 -2.0733 0.9805
-2.9217 3.2846 -2.0348 0.9808
-2.2609 2.1251 -1.4363 0.9864
-3.3923 2.6606 -1.9956 0.9812
-3.5808 2.3243 -1.9761 0.9814
-1.3297 0.4226 -0.6458 0.9939
-1.2993 0.2883 -0.6161 0.9942
-1.3307 0.1726 -0.6211 0.9941
-1.3379 0.0531 -0.6198 0.9941
-1.3383 -0.0666 -0.6203 0.9941
-1.3283 -0.1859 -0.6208 0.9941
-1.3024 -0.3027 -0.6189 0.9941
-1.3318 -0.4380 -0.6489 0.9938
-3.6788 -1.9928 -1.9366 0.9817
-3.2402 -2.5943 -1.9213 0.9819
-2.7140 -3.1135 -1.9119 0.9820
-0.7459 -4.0787 -1.9193 0.9819
0.7411 -4.1547 -1.9535 0.9816
1.8520 -3.8876 -1.9933 0.9812
2.2087 -3.7360 -2.0089 0.9811
2.5544 -3.5534 -2.0257 0.9809
3.2017 -3.0974 -2.0620 0.9806
2.2850 -0.9970 -1.1540 0.9891
4.3779 -0.6321 -2.0475 0.9807
4.4046 1.3787 -2.1364 0.9799
4.2934 1.7784 -2.1511 0.9797
4.1430 2.1677 -2.1644 0.9796
3.9542 2.5423 -2.1760 0.9795
3.7285 2.8982 -2.1859 0.9794
3.4677 3.2311 -2.1939 0.9793
3.1742 3.5373 -2.2000 0.9793
2.8510 3.8132 -2.2039 0.9792
2.5014 4.0557 -2.2057 0.9792
2.1292 4.2621 -2.2053 0.9792
1.7384 4.4300 -2.2028 0.9792
0.4985 4.6894 -2.1829 0.9794
0.0777 4.6925 -2.1724 0.9795
-1.5273 4.3061 -2.1149 0.9801
-1.8897 4.1185 -2.0975 0.9802
-2.5459 3.6513 -2.0604 0.9806
-2.2176 2.2080 -1.4485 0.9863
-2.4104 2.0051 -1.4513 0.9863
-1.3336 0.4665 -0.6540 0.9938
-1.3077 -0.2646 -0.6176 0.9941
-1.3294 -0.5284 -0.6622 0.9937
-2.8042 -3.0359 -1.9130 0.9819
-2.5181 -3.2689 -1.9100 0.9820
-2.2147 -3.4778 -1.9085 0.9820
-1.2174 -3.9495 -1.9130 0.9819
-0.8621 -4.0518 -1.9175 0.9819
-0.4987 -4.1254 -1.9235 0.9819
0.2446 -4.1833 -1.9397 0.9817
0.6201 -4.1666 -1.9499 0.9816
1.7352 -3.9298 -1.9885 0.9812
2.4444 -3.6156 -2.0202 0.9809
3.1021 -3.1788 -2.0560 0.9806
3.4048 -2.9163 -2.0751 0.9804
4.4922 0.0293 -2.0794 0.9804
4.5108 0.4338 -2.0976 0.9802
4.4910 0.8415 -2.1150 0.9801
4.4320 1.2484 -2.1313 0.9799
3.8051 2.7859 -2.1829 0.9794
3.5554 3.1266 -2.1916 0.9793
3.2721 3.4418 -2.1982 0.9793
2.2513 4.1997 -2.2057 0.9792
1.6354 3.8389 -1.9315 0.9818
-0.2057 4.6711 -2.1643 0.9796
-1.0194 4.5011 -2.1363 0.9799
-1.7753 4.1825 -2.1032 0.9802
-2.4471 3.7342 -2.0666 0.9805
-3.0143 3.1791 -2.0279 0.9809
-3.4630 2.5425 -1.9886 0.9812
-4.0705 1.9894 -2.0972 0.9802
-1.3130 0.2478 -0.6185 0.9941
-1.3366 0.1303 -0.6216 0.9941
-1.3345 0.0105 -0.6178 0.9941
-1.3380 -0.1093 -0.6214 0.9941
-1.3187 -0.2275 -0.6194 0.9941
-1.3330 -0.4859 -0.6567 0.9938
-3.7993 -1.7835 -1.9428 0.9817
-3.6077 -2.1053 -1.9335 0.9818
-2.8923 -2.9559 -1.9143 0.9819
-1.9999 -3.6052 -1.9083 0.9820
-1.6711 -3.7713 -1.9094 0.9820
-1.3297 -3.9105 -1.9119 0.9820
-0.9775 -4.0220 -1.9159 0.9819
0.4991 -4.1754 -1.9465 0.9816
1.2483 -4.0689 -1.9701 0.9814
2.3331 -3.6746 -2.0148 0.9810
2.6742 -3.4810 -2.0319 0.9808
3.5969 -2.7213 -2.0878 0.9803
3.8083 -1.9297 -1.9762 0.9814
2.3357 -0.9319 -1.1640 0.9890
4.1717 -1.2462 -2.0154 0.9810
4.3078 -0.8775 -2.0350 0.9808
4.4106 -0.4943 -2.0544 0.9806
4.5016 0.7101 -2.1095 0.9801
4.3695 1.5219 -2.1418 0.9798
4.2443 1.9183 -2.1560 0.9797
4.0801 2.3029 -2.1687 0.9796
3.8780 2.6714 -2.1798 0.9795
3.0624 3.6391 -2.2016 0.9793
2.7294 3.9035 -2.2048 0.9792
1.1867 4.5935 -2.1961 0.9793
0.4969 3.0128 -1.4134 0.9866
-0.0714 4.6836 -2.1682 0.9796
-0.4861 4.6311 -2.1554 0.9797
-1.2835 4.4090 -2.1256 0.9800
-2.0136 4.0440 -2.0911 0.9803
-2.6519 3.5567 -2.0536 0.9806
-2.2654 2.1165 -1.4351 0.9864
-3.3992 2.6495 -1.9949 0.9812
-3.5866 2.3127 -1.9754 0.9814
-1.3377 0.0490 -0.6196 0.9941
-1.3323 -0.4426 -0.6499 0.9938
-1.3215 -0.5745 -0.6670 0.9937
-3.6722 -2.0035 -1.9363 0.9817
-3.4638 -2.3132 -1.9280 0.9818
-2.7045 -3.1215 -1.9118 0.9820
-2.4121 -3.3460 -1.9093 0.9820
-1.7785 -3.7207 -1.9089 0.9820
-1.4410 -3.8686 -1.9109 0.9820
-1.0920 -3.9891 -1.9144 0.9819
-0.3678 -4.1444 -1.9259 0.9818
0.0035 -4.1778 -1.9339 0.9818
0.3781 -4.1809 -1.9432 0.9817
-1.1764 0.2257 -0.5876 0.9947
-1.1929 0.1200 -0.5881 0.9947
-1.1960 0.0130 -0.5867 0.9947
-1.1816 -0.2002 -0.5879 0.9947
-1.1583 -0.3046 -0.5875 0.9947
-3.4277 -1.9863 -1.9433 0.9825
-3.2242 -2.2754 -1.9357 0.9826
-2.4879 -3.0256 -1.9214 0.9827
-2.2058 -3.2322 -1.9195 0.9827
-0.9389 -3.8126 -1.9261 0.9827
-0.5965 -3.8917 -1.9312 0.9826
-0.2477 -3.9427 -1.9378 0.9826
0.4611 -3.9588 -1.9550 0.9824
1.1706 -3.8575 -1.9774 0.9822
2.1966 -3.4827 -2.0198 0.9818
2.5186 -3.2991 -2.0359 0.9817
2.8264 -3.0868 -2.0530 0.9815
3.3871 -2.5787 -2.0882 0.9812
3.6055 -2.2673 -2.0892 0.9812
3.5859 -1.8306 -1.9749 0.9822
3.9262 -1.1858 -2.0118 0.9819
4.0531 -0.8384 -2.0302 0.9817
4.1487 -0.4776 -2.0485 0.9816
4.2112 -0.1064 -2.0663 0.9814
4.1870 1.0370 -2.1159 0.9810
4.1059 1.4161 -2.1305 0.9808
3.8337 2.1486 -2.1557 0.9806
3.1653 3.1243 -2.1816 0.9804
2.8805 3.4020 -2.1866 0.9803
1.7890 3.8547 -2.0845 0.9812
1.5084 4.1950 -2.1867 0.9803
1.1255 4.3031 -2.1818 0.9804
0.3403 4.4032 -2.1663 0.9805
-2.1963 3.5959 -2.0668 0.9814
-2.7516 3.0933 -2.0308 0.9817
-3.1983 2.5084 -1.9938 0.9821
-3.3780 2.1927 -1.9754 0.9822
-1.1189 0.5917 -0.6209 0.9944
-1.1963 -0.0595 -0.5875 0.9947
-1.1873 -0.1662 -0.5881 0.9947
-1.1650 -0.2708 -0.5867 0.9947
-1.1581 -0.3809 -0.5980 0.9946
-1.1453 -0.4938 -0.6118 0.9945
-1.1132 -0.6030 -0.6210 0.9944
-3.0737 -2.4609 -1.9314 0.9826
