ply
format ascii 1.0
element vertex 1598
property float32 x
property float32 y
property float32 z
property float32 I
end_header
-3.1035 -6.1039 -1.7730 0.9721
-2.5503 -6.3654 -1.7755 0.9721
-0.7831 -6.8954 -1.7968 0.9717
2.3746 -6.8537 -1.8780 0.9705
3.0129 -6.6954 -1.9010 0.9701
3.6457 -6.4845 -1.9261 0.9697
5.4704 -5.5282 -2.0137 0.9684
6.5794 -4.6181 -2.0813 0.9673
6.5759 -3.7885 -1.9650 0.9691
7.4001 -2.6513 -2.0353 0.9680
8.0317 -1.3406 -2.1083 0.9669
8.2608 -0.6295 -2.1451 0.9663
8.4248 0.1117 -2.1815 0.9658
8.5185 0.8770 -2.2173 0.9652
8.5374 1.6588 -2.2518 0.9647
8.0136 2.3151 -2.1597 0.9661
7.1805 2.7897 -1.9945 0.9687
5.2510 3.8976 -1.6932 0.9733
4.7167 4.2029 -1.6357 0.9742
3.7305 4.7643 -1.5667 0.9753
3.2344 4.9913 -1.5399 0.9757
2.7944 5.2943 -1.5500 0.9756
2.3260 5.5584 -1.5601 0.9754
0.2622 6.7144 -1.7398 0.9726
-1.0458 7.4418 -1.9457 0.9694
-3.4032 7.8821 -2.2229 0.9651
-4.0273 7.4263 -2.1873 0.9657
-5.1063 6.3721 -2.1142 0.9668
-6.4053 5.5794 -2.1994 0.9655
-6.7570 4.8984 -2.1609 0.9661
-7.0424 4.2018 -2.1233 0.9667
-7.2628 3.4960 -2.0870 0.9672
-7.4196 2.7868 -2.0521 0.9678
-7.5149 2.0796 -2.0189 0.9683
-7.4554 0.0149 -1.9303 0.9697
-7.3291 -0.6416 -1.9049 0.9701
-7.1540 -1.2770 -1.8816 0.9704
-6.6684 -2.4742 -1.8416 0.9710
-6.3631 -3.0316 -1.8250 0.9713
-5.6403 -4.0545 -1.7985 0.9717
-1.2724 -6.2719 -1.8117 0.9737
-0.1391 -6.4685 -1.8316 0.9735
0.4416 -6.5015 -1.8448 0.9733
1.0283 -6.4895 -1.8601 0.9731
2.2079 -6.3262 -1.8968 0.9725
2.7946 -6.1730 -1.9183 0.9722
4.5004 -5.4187 -1.9941 0.9711
5.5518 -4.6673 -2.0533 0.9703
6.0369 -4.2170 -2.0847 0.9699
6.7557 -2.4032 -2.0299 0.9706
7.0559 -1.8201 -2.0629 0.9702
7.3059 -1.2024 -2.0961 0.9697
7.7075 0.8111 -2.1940 0.9683
7.7114 1.5164 -2.2248 0.9679
7.6448 2.2273 -2.2542 0.9674
7.1502 2.7965 -2.1735 0.9686
5.2302 3.9005 -1.8470 0.9732
4.7036 4.2103 -1.7871 0.9741
4.2679 4.5688 -1.7699 0.9743
2.7793 5.2946 -1.6928 0.9754
2.3113 5.5584 -1.7042 0.9753
0.6818 3.1161 -0.9030 0.9868
0.8112 6.3992 -1.8261 0.9735
-1.0628 7.4409 -2.1278 0.9692
-4.6513 5.7775 -2.0997 0.9696
-2.2537 2.3375 -0.9192 0.9866
-5.8438 5.0670 -2.1896 0.9684
-6.1767 4.4564 -2.1562 0.9688
-6.6553 3.1850 -2.0887 0.9698
-6.9023 1.8932 -2.0262 0.9707
-6.7577 -0.6070 -1.9208 0.9722
-6.4016 -1.7595 -1.8795 0.9728
-5.5661 -3.3078 -1.8330 0.9734
-4.4245 -4.5939 -1.8056 0.9738
-2.5296 -5.8308 -1.7993 0.9739
-1.4612 -6.2214 -1.8091 0.9738
-0.9044 -6.3554 -1.8173 0.9737
3.1775 -6.0456 -1.9335 0.9720
4.8564 -5.1933 -2.0128 0.9709
5.8754 -4.3769 -2.0741 0.9700
7.2264 -1.4172 -2.0847 0.9698
7.4407 -0.7791 -2.1179 0.9694
7.6905 0.5726 -2.1832 0.9684
7.6756 1.9842 -2.2443 0.9676
7.4167 2.6427 -2.2289 0.9678
6.0140 3.4508 -1.9629 0.9716
5.4212 3.7911 -1.8727 0.9729
4.8757 4.1033 -1.8040 0.9739
3.8768 4.6728 -1.7188 0.9751
1.8100 4.0036 -1.2438 0.9819
0.7420 2.9560 -0.8628 0.9874
0.4451 6.6034 -1.8736 0.9729
-0.1528 6.9360 -1.9640 0.9716
-0.6992 6.2529 -1.7812 0.9742
-1.5961 7.8466 -2.2668 0.9673
-2.2609 7.5765 -2.2383 0.9677
-3.4727 6.8596 -2.1766 0.9685
-4.0101 6.4252 -2.1441 0.9690
-2.1825 2.4066 -0.9197 0.9866
-6.0711 4.6685 -2.1681 0.9687
-6.5902 3.4049 -2.0999 0.9696
-6.7616 2.7601 -2.0675 0.9701
-6.8760 2.1137 -2.0364 0.9705
-6.9350 1.4703 -2.0069 0.9710
-6.8952 0.2088 -1.9529 0.9717
-6.8008 -0.4021 -1.9286 0.9721
-6.4746 -1.5687 -1.8859 0.9727
-5.6778 -3.1438 -1.8373 0.9734
-5.3397 -3.6140 -1.8253 0.9736
-4.9690 -4.0539 -1.8154 0.9737
-4.1391 -4.8368 -1.8022 0.9739
-3.6842 -5.1769 -1.7988 0.9739
-2.1854 -5.9770 -1.8016 0.9739
-1.0962 -6.3143 -1.8143 0.9737
-0.5313 -6.4206 -1.8238 0.9736
0.0439 -6.4838 -1.8356 0.9734
1.2147 -6.4762 -1.8653 0.9730
1.8048 -6.4033 -1.8833 0.9727
2.3941 -6.2830 -1.9034 0.9724
3.5565 -5.8969 -1.9495 0.9718
4.1223 -5.6299 -1.9754 0.9714
5.2030 -4.9464 -2.0323 0.9706
5.7089 -4.5303 -2.0632 0.9702
6.1740 -4.0581 -2.0916 0.9698
2.2857 -0.9740 -0.7034 0.9897
7.1407 -1.6282 -2.0734 0.9700
7.3738 -1.0005 -2.1066 0.9695
7.6658 0.3359 -2.1722 0.9686
7.6980 1.7412 -2.2343 0.9677
6.9147 2.9323 -2.1262 0.9693
6.2303 3.3264 -1.9994 0.9711
5.6177 3.6784 -1.9009 0.9725
4.6142 4.3714 -1.7994 0.9739
4.1110 4.6581 -1.7588 0.9745
3.5644 4.8502 -1.7040 0.9753
2.1614 5.6428 -1.7106 0.9752
0.6195 3.2712 -0.9425 0.9863
-2.0376 7.6759 -2.2483 0.9675
-2.6784 7.3651 -2.2186 0.9679
-3.8320 6.5787 -2.1553 0.9688
-5.9585 4.8785 -2.1801 0.9685
-6.2682 4.2584 -2.1452 0.9690
-6.8432 2.3345 -2.0469 0.9704
-6.9446 1.0504 -1.9883 0.9712
-6.5427 -1.3752 -1.8927 0.9726
-6.0766 -2.4682 -1.8567 0.9731
-3.3716 -5.3813 -1.7977 0.9739
-2.3651 -5.9032 -1.8003 0.9739
-1.2864 -6.2683 -1.8115 0.9737
-0.1537 -6.4671 -1.8313 0.9735
0.4268 -6.5012 -1.8444 0.9733
1.6031 -6.4335 -1.8770 0.9728
2.1930 -6.3295 -1.8963 0.9725
3.3602 -5.9768 -1.9411 0.9719
4.4866 -5.4269 -1.9934 0.9712
6.0142 -3.4650 -1.9649 0.9716
7.0489 -1.8353 -2.0620 0.9702
7.3003 -1.2185 -2.0952 0.9697
7.6335 0.1013 -2.1612 0.9688
7.6474 2.2093 -2.2534 0.9674
6.4550 3.1972 -2.0392 0.9705
5.2442 3.8925 -1.8489 0.9732
4.7108 4.1976 -1.7862 0.9741
3.7260 4.7585 -1.7109 0.9752
2.7910 5.2879 -1.6927 0.9754
2.3232 5.5517 -1.7037 0.9753
1.8452 5.8204 -1.7285 0.9749
-1.0442 7.4306 -2.1242 0.9693
-3.0781 7.1290 -2.1982 0.9682
-3.6481 6.7270 -2.1664 0.9687
-4.1698 6.2787 -2.1337 0.9692
-2.2454 2.3395 -0.9180 0.9866
-5.8340 5.0817 -2.1903 0.9683
-6.6507 3.2013 -2.0895 0.9698
-6.8039 2.5555 -2.0575 0.9702
-6.9317 0.6348 -1.9705 0.9715
-6.6059 -1.1792 -1.8996 0.9725
-6.4072 -1.7455 -1.8799 0.9728
-6.1675 -2.2884 -1.8623 0.9730
-5.8892 -2.8058 -1.8467 0.9732
-5.5745 -3.2958 -1.8333 0.9734
-0.6620 -5.9491 -1.8411 0.9753
-0.1294 -6.0182 -1.8515 0.9751
0.9556 -6.0312 -1.8782 0.9748
1.5028 -5.9733 -1.8945 0.9746
3.1268 -5.5322 -1.9546 0.9738
4.6531 -4.6810 -2.0301 0.9728
5.5605 -3.8842 -2.0862 0.9720
5.5447 -3.1778 -1.9657 0.9736
5.8921 -2.7100 -1.9948 0.9732
6.2015 -2.2061 -2.0245 0.9728
6.9725 0.1083 -2.1449 0.9712
7.0287 0.7397 -2.1738 0.9709
6.8207 2.6676 -2.2526 0.9698
6.4286 3.2022 -2.2090 0.9704
4.6917 4.1996 -1.9367 0.9740
2.3084 5.5516 -1.8493 0.9752
1.8306 5.8201 -1.8766 0.9748
0.6526 2.9824 -0.9390 0.9873
0.2466 6.7045 -2.0636 0.9723
-0.3228 6.1369 -1.8902 0.9746
-1.0368 7.2585 -2.2552 0.9698
-1.6620 7.0599 -2.2308 0.9701
-2.2583 6.8027 -2.2046 0.9704
-2.2507 2.3344 -0.9974 0.9865
-5.6766 4.0956 -2.1530 0.9711
-5.9314 3.5207 -2.1215 0.9715
-6.1320 2.9346 -2.0909 0.9720
-6.4191 1.1574 -2.0062 0.9731
-6.4146 0.5728 -1.9808 0.9734
-6.3629 -0.0017 -1.9571 0.9737
-5.9452 -1.6341 -1.8964 0.9745
-5.7254 -2.1391 -1.8799 0.9747
-5.4691 -2.6209 -1.8654 0.9749
-4.8552 -3.5068 -1.8422 0.9752
-4.1206 -4.2783 -1.8270 0.9754
-3.7132 -4.6173 -1.8225 0.9755
-2.3564 -5.4316 -1.8211 0.9755
-1.3606 -5.7932 -1.8303 0.9754
-0.8419 -5.9162 -1.8380 0.9753
0.7690 -6.0411 -1.8731 0.9748
2.4068 -5.7797 -1.9257 0.9741
2.9449 -5.6030 -1.9469 0.9739
3.4735 -5.3808 -1.9699 0.9736
3.9890 -5.1127 -1.9946 0.9732
4.4874 -4.7987 -2.0208 0.9729
4.9646 -4.4393 -2.0485 0.9725
5.4164 -4.0350 -2.0774 0.9721
2.3652 -0.9236 -0.7810 0.9894
7.0162 0.5224 -2.1640 0.9710
7.0323 1.1612 -2.1923 0.9706
6.6613 3.0680 -2.2557 0.9698
6.0055 3.4460 -2.1296 0.9714
4.8694 4.0980 -1.9575 0.9737
4.3991 4.4301 -1.9203 0.9742
3.8720 4.6670 -1.8652 0.9749
3.3998 4.9352 -1.8433 0.9752
2.4690 5.4613 -1.8434 0.9752
0.4445 6.5945 -2.0329 0.9727
-1.4513 7.1346 -2.2394 0.9700
-3.1691 6.2598 -2.1581 0.9711
-3.6642 5.8710 -2.1286 0.9715
-2.1831 2.4073 -0.9996 0.9865
-4.8716 4.4918 -2.0381 0.9726
-6.0695 3.1358 -2.1013 0.9718
-6.3479 1.9514 -2.0426 0.9726
-6.3857 0.1933 -1.9650 0.9736
-6.3041 -0.3727 -1.9424 0.9739
-6.1786 -0.9236 -1.9215 0.9742
-6.0115 -1.4565 -1.9025 0.9744
-5.8048 -1.9690 -1.8853 0.9747
-5.2814 -2.9243 -1.8568 0.9751
-4.9691 -3.3632 -1.8456 0.9752
-4.6259 -3.7740 -1.8363 0.9753
-3.8553 -4.5051 -1.8238 0.9755
-2.5200 -5.3548 -1.8203 0.9755
-2.0356 -5.5672 -1.8232 0.9755
0.5827 -6.0459 -1.8682 0.9749
1.1287 -6.0176 -1.8832 0.9747
3.2941 -5.4619 -1.9619 0.9737
4.8042 -4.5672 -2.0388 0.9726
5.2651 -4.1782 -2.0674 0.9723
5.6585 -3.0338 -1.9748 0.9735
2.2839 -0.9732 -0.7636 0.9897
6.2908 -2.0394 -2.0341 0.9727
6.7480 -0.9156 -2.0946 0.9719
6.9968 0.3066 -2.1541 0.9711
7.0338 0.9419 -2.1827 0.9707
5.6100 3.6734 -2.0625 0.9723
5.0511 3.9940 -1.9806 0.9734
4.1059 4.6523 -1.9085 0.9744
1.8143 3.7073 -1.2695 0.9829
0.8812 3.1057 -0.9930 0.9866
1.1720 6.1889 -1.9374 0.9740
0.6367 6.4875 -2.0050 0.9731
0.0579 6.8094 -2.0945 0.9719
-2.4401 6.7098 -2.1960 0.9706
-2.9901 6.3826 -2.1679 0.9709
-3.9659 5.5933 -2.1090 0.9717
-4.7562 4.6619 -2.0485 0.9725
-6.0007 3.3362 -2.1117 0.9717
-6.3941 1.5610 -2.0244 0.9728
-6.3370 -0.1808 -1.9499 0.9738
-6.2263 -0.7372 -1.9285 0.9741
-6.0731 -1.2765 -1.9088 0.9744
-5.8797 -1.7963 -1.8910 0.9746
-5.6482 -2.2942 -1.8751 0.9748
-5.0795 -3.2163 -1.8492 0.9752
-4.7466 -3.6369 -1.8392 0.9753
-3.5793 -4.7178 -1.8214 0.9755
-1.7077 -5.6867 -1.8263 0.9755
-0.1430 -6.0170 -1.8512 0.9751
3.1134 -5.5377 -1.9540 0.9738
5.1106 -4.3162 -2.0575 0.9724
5.5504 -3.8958 -2.0857 0.9720
5.5355 -3.1891 -1.9649 0.9736
6.1942 -2.2192 -2.0238 0.9728
6.8544 -0.5224 -2.1144 0.9716
6.9703 0.0925 -2.1441 0.9712
7.0280 0.7235 -2.1731 0.9709
7.0244 1.3649 -2.2010 0.9705
6.8249 2.6515 -2.2520 0.9698
6.4455 3.1925 -2.2124 0.9703
4.2752 4.5559 -1.9216 0.9742
2.7877 5.2815 -1.8369 0.9753
0.6581 2.9752 -0.9372 0.9873
0.8238 6.3832 -1.9796 0.9734
-1.0206 7.2628 -2.2558 0.9698
-1.6465 7.0657 -2.2315 0.9701
-2.8065 6.5000 -2.1776 0.9708
-4.2473 5.3002 -2.0891 0.9720
-2.2438 2.3378 -0.9967 0.9865
-4.9733 4.3320 -2.0286 0.9728
-5.6695 4.1100 -2.1538 0.9711
-6.1276 2.9495 -2.0917 0.9719
-6.3728 1.7635 -2.0338 0.9727
-6.4186 1.1723 -2.0069 0.9731
-6.4153 0.5875 -1.9815 0.9734
-6.1301 -1.0943 -1.9153 0.9743
-5.9502 -1.6210 -1.8969 0.9745
-5.7315 -2.1266 -1.8803 0.9747
-4.8638 -3.4963 -1.8424 0.9752
-0.1209 -5.6214 -1.8690 0.9766
0.8918 -5.6282 -1.8942 0.9763
1.4015 -5.5709 -1.9095 0.9761
1.9098 -5.4722 -1.9266 0.9759
2.4137 -5.3316 -1.9454 0.9756
2.9100 -5.1486 -1.9659 0.9754
4.3188 -4.3447 -2.0363 0.9745
5.4458 -2.5048 -1.9925 0.9750
5.9650 -1.5387 -2.0477 0.9744
6.1610 -1.0140 -2.0755 0.9740
6.3098 -0.4665 -2.1031 0.9737
6.4409 1.2666 -2.1820 0.9727
6.3715 1.8563 -2.2060 0.9724
6.0549 3.0161 -2.2486 0.9719
5.7889 3.5609 -2.2592 0.9718
4.4812 4.0112 -1.9991 0.9750
4.1230 4.4137 -2.0077 0.9749
3.7048 4.7536 -2.0033 0.9749
2.7725 5.2817 -1.9828 0.9752
2.3056 5.5448 -1.9961 0.9750
1.8283 5.8128 -2.0255 0.9746
0.6485 2.9635 -1.0084 0.9873
0.2463 6.6953 -2.2270 0.9722
-0.3227 6.1337 -2.0417 0.9744
-0.9489 6.6431 -2.2306 0.9721
-2.5887 5.9586 -2.1595 0.9730
-2.2490 2.3327 -1.0771 0.9864
-5.2426 3.7825 -2.1489 0.9731
-5.4875 3.2572 -2.1212 0.9735
-5.6793 2.7179 -2.0929 0.9738
-5.8218 2.1717 -2.0655 0.9741
-5.9160 1.6227 -2.0392 0.9745
-5.9630 1.0752 -2.0141 0.9748
-5.9642 0.5326 -1.9904 0.9751
-5.7093 -1.0325 -1.9286 0.9758
-5.5443 -1.5239 -1.9113 0.9761
-5.3425 -1.9960 -1.8958 0.9762
-5.1060 -2.4469 -1.8821 0.9764
-4.5366 -3.2767 -1.8602 0.9767
-4.2078 -3.6523 -1.8521 0.9768
-2.2034 -5.0789 -1.8403 0.9769
-1.7448 -5.2650 -1.8437 0.9769
0.2105 -5.6412 -1.8765 0.9765
0.7177 -5.6384 -1.8894 0.9763
1.2273 -5.5951 -1.9041 0.9761
1.7365 -5.5106 -1.9206 0.9759
2.2422 -5.3844 -1.9388 0.9757
2.7414 -5.2159 -1.9587 0.9755
3.2309 -5.0049 -1.9802 0.9752
3.7071 -4.7514 -2.0032 0.9749
4.6050 -4.1177 -2.0534 0.9743
5.0189 -3.7389 -2.0804 0.9740
5.8878 -1.7120 -2.0382 0.9745
6.3802 -0.0957 -2.1211 0.9735
6.2935 2.2425 -2.2208 0.9722
6.1259 2.8214 -2.2419 0.9720
5.8990 3.3849 -2.2607 0.9717
4.2503 4.2802 -2.0051 0.9749
3.8672 4.6612 -2.0132 0.9748
3.3957 4.9291 -1.9896 0.9751
1.7781 3.9332 -1.4348 0.9820
0.9918 6.2805 -2.1135 0.9736
0.4439 6.5855 -2.1940 0.9726
-0.1495 6.7884 -2.2570 0.9718
-0.6966 6.2302 -2.0839 0.9739
-1.3290 6.5336 -2.2163 0.9723
-2.4154 6.0593 -2.1683 0.9729
-3.7880 5.0109 -2.0880 0.9739
-5.1416 3.9537 -2.1560 0.9730
-5.4106 3.4391 -2.1311 0.9733
-5.6193 2.9033 -2.1025 0.9737
-5.7786 2.3589 -2.0747 0.9740
-5.8892 1.8104 -2.0480 0.9744
-5.9688 0.7172 -1.9983 0.9750
-5.9407 0.1799 -1.9756 0.9753
-5.8694 -0.3470 -1.9544 0.9755
-5.7569 -0.8605 -1.9349 0.9758
-5.4155 -1.8370 -1.9009 0.9762
-4.9323 -2.7310 -1.8741 0.9765
-4.6425 -3.1421 -1.8634 0.9766
-3.6046 -4.2122 -1.8429 0.9769
-3.2092 -4.5095 -1.8398 0.9769
-0.9538 -5.4942 -1.8536 0.9768
0.5440 -5.6439 -1.8848 0.9764
2.0699 -5.4323 -1.9324 0.9758
2.5717 -5.2782 -1.9517 0.9756
3.0649 -5.0818 -1.9727 0.9753
4.0115 -4.5613 -2.0192 0.9747
5.2629 -3.4592 -2.0935 0.9738
5.2339 -2.8061 -1.9740 0.9753
6.2134 -0.8430 -2.0843 0.9739
6.3464 -0.2892 -2.1118 0.9736
6.3372 2.0423 -2.2132 0.9723
6.1899 2.6250 -2.2349 0.9721
5.9831 3.1945 -2.2546 0.9718
5.0444 3.9887 -2.1376 0.9733
4.3725 4.1424 -2.0021 0.9749
4.0009 4.5333 -2.0098 0.9748
3.5557 4.8383 -1.9959 0.9750
2.1561 5.6289 -2.0036 0.9749
0.8769 3.0906 -1.0679 0.9865
0.6358 6.4788 -2.1639 0.9729
0.0578 6.7999 -2.2604 0.9717
-0.4958 6.1215 -2.0415 0.9744
-1.1328 6.5935 -2.2238 0.9722
-2.2382 6.1545 -2.1769 0.9728
-2.7456 5.8607 -2.1513 0.9731
-3.2172 5.5233 -2.1247 0.9734
-3.6497 5.1474 -2.0975 0.9738
-4.0403 4.7379 -2.0698 0.9741
-4.3870 4.3001 -2.0420 0.9744
-4.6887 3.8388 -2.0143 0.9748
-5.3278 3.6195 -2.1410 0.9732
-5.5535 3.0876 -2.1122 0.9736
-5.7297 2.5456 -2.0841 0.9739
-5.8568 1.9980 -2.0570 0.9743
-5.9360 1.4491 -2.0311 0.9746
-5.9683 0.9028 -2.0065 0.9749
-5.9552 0.3625 -1.9832 0.9752
-5.4843 -1.6755 -1.9062 0.9761
-4.7449 -3.0045 -1.8668 0.9766
-4.4355 -3.3985 -1.8574 0.9767
-3.3469 -4.4114 -1.8406 0.9769
-2.9372 -4.6879 -1.8389 0.9770
-1.5966 -5.3165 -1.8452 0.9769
-1.1195 -5.4552 -1.8511 0.9768
-0.6311 -5.5568 -1.8590 0.9767
-0.1336 -5.6203 -1.8687 0.9766
0.8789 -5.6291 -1.8938 0.9763
1.8970 -5.4752 -1.9261 0.9759
2.8975 -5.1537 -1.9653 0.9754
5.1393 -3.6073 -2.0871 0.9739
5.7187 -2.0489 -2.0193 0.9747
6.3740 1.8414 -2.2054 0.9724
6.0605 3.0017 -2.2481 0.9719
5.2302 3.8821 -2.1651 0.9729
4.1326 4.4040 -2.0075 0.9749
3.7168 4.7468 -2.0040 0.9749
3.2226 4.9731 -1.9698 0.9753
2.3175 5.5381 -1.9956 0.9750
1.8406 5.8059 -2.0246 0.9747
0.6548 2.9605 -1.0079 0.9873
0.8227 6.3747 -2.1366 0.9733
-0.3098 6.1539 -2.0482 0.9744
-0.9341 6.6468 -2.2311 0.9721
-1.5082 6.4724 -2.2091 0.9724
-2.5760 5.9662 -2.1602 0.9730
-3.0603 5.6432 -2.1339 0.9733
-3.5065 5.2799 -2.1068 0.9736
-3.9116 4.8813 -2.0793 0.9740
-4.5907 3.9987 -2.0237 0.9747
-5.2353 3.7953 -2.1494 0.9731
-5.4820 3.2708 -2.1219 0.9735
-5.9142 1.6366 -2.0398 0.9745
-5.9624 1.0890 -2.0147 0.9748
-5.8382 -0.5111 -1.9481 0.9756
-5.7130 -1.0198 -1.9290 0.9758
-5.5489 -1.5117 -1.9117 0.9760
-5.3481 -1.9843 -1.8962 0.9762
-5.1124 -2.4357 -1.8824 0.9764
-4.5446 -3.2669 -1.8604 0.9767
-1.0385 -5.1189 -1.8678 0.9781
-0.1133 -5.2688 -1.8846 0.9779
0.3592 -5.2886 -1.8956 0.9777
0.8351 -5.2707 -1.9083 0.9776
1.3118 -5.2144 -1.9228 0.9774
3.1696 -4.5959 -1.9965 0.9766
3.6064 -4.3422 -2.0185 0.9763
4.7884 -3.3449 -2.0888 0.9755
4.7687 -2.7330 -1.9655 0.9769
5.0570 -2.3259 -1.9905 0.9766
5.9567 0.6268 -2.1419 0.9749
5.9407 1.1682 -2.1651 0.9746
5.8717 1.7107 -2.1870 0.9744
5.7486 2.2484 -2.2074 0.9741
5.5715 2.7753 -2.2259 0.9739
5.3409 3.2853 -2.2424 0.9737
5.0582 3.7723 -2.2565 0.9736
3.2069 4.9735 -2.1162 0.9752
2.0136 3.8360 -1.5493 0.9818
1.8260 5.8054 -2.1763 0.9745
0.6475 2.9591 -1.0832 0.9872
-0.8737 6.1166 -2.2095 0.9741
-2.3896 5.5002 -2.1445 0.9748
-2.8384 5.2059 -2.1204 0.9751
-3.6301 4.5091 -2.0701 0.9757
-2.2474 2.3310 -1.1579 0.9863
-4.2652 3.6983 -2.0188 0.9763
-4.8604 3.5068 -2.1433 0.9749
-5.4209 2.0221 -2.0690 0.9757
-5.5134 1.5123 -2.0445 0.9760
-5.5312 -0.0014 -1.9780 0.9768
-5.4551 -0.4900 -1.9586 0.9770
-5.1891 -1.4263 -1.9245 0.9774
-5.0029 -1.8692 -1.9099 0.9776
-4.7836 -2.2924 -1.8969 0.9777
-4.5331 -2.6939 -1.8857 0.9778
-4.2533 -3.0721 -1.8763 0.9780
-3.9461 -3.4252 -1.8686 0.9780
-3.2572 -4.0502 -1.8587 0.9782
-2.0672 -4.7649 -1.8574 0.9782
-1.6367 -4.9389 -1.8607 0.9781
-0.2736 -5.2534 -1.8812 0.9779
0.1972 -5.2860 -1.8916 0.9778
0.6723 -5.2811 -1.9038 0.9776
1.6247 -5.1560 -1.9332 0.9773
2.5617 -4.8740 -1.9691 0.9769
3.0169 -4.6735 -1.9893 0.9766
3.4589 -4.4333 -2.0108 0.9764
4.6630 -2.8650 -1.9571 0.9770
4.9621 -2.4685 -1.9819 0.9767
5.7962 -0.6069 -2.0841 0.9755
5.8975 -0.0885 -2.1092 0.9753
5.9503 0.4430 -2.1337 0.9750
5.9521 0.9828 -2.1573 0.9747
5.9013 1.5255 -2.1797 0.9744
5.7968 2.0655 -2.2006 0.9742
5.1606 3.6088 -2.2519 0.9736
4.1071 4.1360 -2.0844 0.9755
3.3914 4.9229 -2.1378 0.9749
2.9274 5.1857 -2.1295 0.9750
0.4229 6.2749 -2.2490 0.9736
-1.2243 6.0188 -2.1965 0.9742
-1.7393 5.8287 -2.1752 0.9745
-2.2289 5.5914 -2.1526 0.9748
-2.1844 2.4087 -1.1628 0.9863
-4.1683 3.8434 -2.0276 0.9762
-4.4379 3.4126 -2.0020 0.9765
-5.2259 2.7000 -2.1035 0.9753
-5.4868 1.6867 -2.0527 0.9759
-5.5482 0.1680 -1.9850 0.9767
-5.3838 -0.8048 -1.9467 0.9771
-5.2449 -1.2707 -1.9299 0.9773
-4.8621 -2.1501 -1.9011 0.9777
-4.6221 -2.5592 -1.8893 0.9778
-4.3521 -2.9456 -1.8793 0.9779
-4.0540 -3.3074 -1.8710 0.9780
-2.6200 -4.4800 -1.8559 0.9782
-2.2108 -4.6979 -1.8567 0.9782
-0.4331 -5.2339 -1.8781 0.9779
0.0357 -5.2791 -1.8879 0.9778
0.5096 -5.2871 -1.8994 0.9777
0.9860 -5.2570 -1.9127 0.9775
1.4624 -5.1884 -1.9277 0.9774
1.9359 -5.0807 -1.9443 0.9772
3.3096 -4.5199 -2.0033 0.9765
3.7410 -4.2538 -2.0258 0.9762
4.1536 -3.9487 -2.0494 0.9759
4.5435 -3.6055 -2.0742 0.9757
5.8682 -0.2674 -2.1007 0.9754
4.9582 3.9206 -2.2604 0.9735
4.2684 4.0438 -2.1027 0.9753
3.0856 5.0961 -2.1304 0.9750
1.8519 3.7841 -1.5066 0.9823
0.6156 6.2722 -2.2538 0.9736
-1.0433 6.0724 -2.2033 0.9742
-1.5660 5.8992 -2.1826 0.9744
-2.0647 5.6776 -2.1604 0.9747
-2.9734 5.1048 -2.1126 0.9752
-3.7414 4.3875 -2.0620 0.9758
-4.3505 3.5619 -2.0107 0.9764
-5.4550 1.8610 -2.0611 0.9758
-5.5335 1.3509 -2.0369 0.9761
-5.5604 0.3385 -1.9921 0.9766
-5.4229 -0.6421 -1.9528 0.9771
-5.2964 -1.1133 -1.9354 0.9773
-5.1339 -1.5684 -1.9197 0.9775
-4.9370 -2.0053 -1.9056 0.9776
-4.7076 -2.4219 -1.8932 0.9778
-4.4476 -2.8162 -1.8825 0.9779
-3.8434 -3.5314 -1.8665 0.9781
-2.7557 -4.3983 -1.8561 0.9782
-2.3526 -4.6270 -1.8563 0.9782
-1.4976 -4.9870 -1.8621 0.9781
-1.0499 -5.1161 -1.8677 0.9781
0.8231 -5.2716 -1.9080 0.9776
1.2998 -5.2163 -1.9224 0.9774
1.7746 -5.1219 -1.9385 0.9772
2.2447 -4.9882 -1.9561 0.9770
2.7070 -4.8149 -1.9753 0.9768
3.5955 -4.3491 -2.0180 0.9763
5.3053 -1.9008 -2.0153 0.9763
5.5232 -1.4380 -2.0410 0.9760
5.7003 -0.9514 -2.0667 0.9757
5.8334 -0.4445 -2.0921 0.9755
5.9196 0.0785 -2.1171 0.9752
5.9564 0.6132 -2.1413 0.9749
5.9418 1.1545 -2.1646 0.9746
5.8741 1.6970 -2.1865 0.9744
5.7524 2.2349 -2.2069 0.9741
5.3474 3.2727 -2.2420 0.9737
5.0660 3.7603 -2.2562 0.9736
4.4327 3.9498 -2.1232 0.9751
3.2185 4.9668 -2.1165 0.9752
2.3146 5.5311 -2.1442 0.9749
1.8383 5.7985 -2.1753 0.9745
0.2449 6.2714 -2.2444 0.9737
-0.8600 6.1199 -2.2100 0.9741
-1.3898 5.9640 -2.1899 0.9743
-2.3778 5.5072 -2.1451 0.9748
-2.8275 5.2139 -2.1210 0.9751
-3.2428 4.8829 -2.0962 0.9754
-3.6211 4.5188 -2.0708 0.9757
-2.2406 2.3344 -1.1571 0.9863
-4.2582 3.7091 -2.0194 0.9763
-4.8536 3.5185 -2.1438 0.9749
-5.0949 3.0398 -2.1216 0.9751
-5.4180 2.0350 -2.0697 0.9757
-5.5117 1.5252 -2.0451 0.9760
-5.5677 0.5099 -1.9994 0.9765
-5.5327 0.0111 -1.9785 0.9768
-5.3438 -0.9539 -1.9412 0.9772
-5.1934 -1.4148 -1.9249 0.9774
-4.5398 -2.6840 -1.8860 0.9778
-4.2607 -3.0628 -1.8765 0.9780
-0.5454 -4.9010 -1.8898 0.9791
-0.1065 -4.9530 -1.8985 0.9790
0.7845 -4.9511 -1.9210 0.9788
2.1164 -4.6749 -1.9666 0.9783
2.9691 -4.3051 -2.0041 0.9778
3.3759 -4.0647 -2.0248 0.9776
3.7652 -3.7878 -2.0467 0.9774
4.4706 -3.1229 -2.0898 0.9769
4.7149 -2.1686 -1.9888 0.9780
5.1453 -1.3272 -2.0363 0.9775
5.3045 -0.8730 -2.0601 0.9772
5.5253 0.5815 -2.1291 0.9765
5.3206 2.0809 -2.1893 0.9758
5.1534 2.5670 -2.2063 0.9756
4.9374 3.0371 -2.2214 0.9755
3.9432 4.2212 -2.2136 0.9756
3.6231 4.6487 -2.2586 0.9751
2.2633 5.4432 -2.2591 0.9751
1.7646 5.6103 -2.2538 0.9751
0.7336 5.7874 -2.2356 0.9753
-2.2164 5.1015 -2.1315 0.9765
-3.0220 4.5282 -2.0862 0.9769
-3.9729 3.4448 -2.0151 0.9777
-4.2142 3.0405 -1.9914 0.9780
-4.7587 2.8246 -2.1207 0.9766
-5.0663 1.8898 -2.0722 0.9771
-5.2148 0.4657 -2.0063 0.9778
-5.0115 -0.9063 -1.9516 0.9784
-4.6993 -1.7557 -1.9224 0.9787
-4.2613 -2.5324 -1.8996 0.9790
-3.9994 -2.8887 -1.8906 0.9791
-3.3992 -3.5293 -1.8778 0.9792
-3.0645 -3.8106 -1.8739 0.9793
-2.7093 -4.0642 -1.8718 0.9793
-2.3355 -4.2888 -1.8714 0.9793
-1.5398 -4.6465 -1.8758 0.9792
-1.1220 -4.7775 -1.8806 0.9792
0.6316 -4.9616 -1.9167 0.9788
1.5250 -4.8396 -1.9445 0.9785
1.9669 -4.7232 -1.9607 0.9783
2.4018 -4.5697 -1.9783 0.9781
2.8267 -4.3789 -1.9973 0.9779
4.0104 -3.5860 -2.0617 0.9772
4.3618 -3.2494 -2.0844 0.9770
4.3525 -2.6742 -1.9576 0.9784
4.6278 -2.3022 -1.9808 0.9781
5.2546 -1.0305 -2.0520 0.9773
5.5209 0.4111 -2.1216 0.9766
5.4669 1.4132 -2.1639 0.9761
5.2161 2.4024 -2.2007 0.9757
5.0166 2.8786 -2.2165 0.9755
4.7691 3.3351 -2.2302 0.9754
4.4746 3.7657 -2.2412 0.9753
4.0892 4.1180 -2.2239 0.9754
3.7161 4.4791 -2.2303 0.9754
3.3469 4.8583 -2.2608 0.9750
2.4297 5.3744 -2.2602 0.9751
1.9369 5.5590 -2.2559 0.9751
0.7722 3.0761 -1.2154 0.9865
0.9115 5.7722 -2.2394 0.9753
0.3909 5.7995 -2.2275 0.9754
-0.1272 5.7744 -2.2134 0.9756
-0.6371 5.6981 -2.1972 0.9757
-1.1335 5.5727 -2.1793 0.9759
-2.0667 5.1847 -2.1389 0.9764
-2.4951 4.9285 -2.1170 0.9766
-2.8934 4.6359 -2.0942 0.9769
-4.1361 3.1805 -1.9995 0.9779
-4.6844 2.9776 -2.1271 0.9765
-4.8787 2.5206 -2.1044 0.9768
-5.0258 2.0516 -2.0802 0.9770
-5.1306 1.5772 -2.0569 0.9773
-5.2162 0.6268 -2.0133 0.9777
-5.1991 0.1574 -1.9933 0.9780
-5.1436 -0.3041 -1.9746 0.9782
-5.0512 -0.7550 -1.9572 0.9784
-4.7619 -1.6153 -1.9270 0.9787
-4.0919 -2.7695 -1.8935 0.9791
-3.5085 -3.4270 -1.8795 0.9792
-3.1813 -3.7175 -1.8751 0.9793
-2.8329 -3.9807 -1.8724 0.9793
-0.8412 -4.8457 -1.8847 0.9792
0.0336 -4.9622 -1.9016 0.9790
0.4788 -4.9679 -1.9126 0.9788
1.8165 -4.7671 -1.9550 0.9784
2.2541 -4.6263 -1.9721 0.9782
2.6828 -4.4482 -1.9907 0.9780
4.2456 -3.3691 -2.0770 0.9771
4.5683 -3.0026 -2.0949 0.9769
4.5370 -2.4325 -1.9728 0.9782
2.2815 -0.9722 -0.9504 0.9894
5.0142 -1.6256 -2.0200 0.9777
5.2000 -1.1856 -2.0439 0.9774
5.3464 -0.7254 -2.0676 0.9772
5.5109 0.2415 -2.1139 0.9766
5.4063 1.7423 -2.1767 0.9760
4.8590 3.1816 -2.2257 0.9754
4.2077 3.9863 -2.2212 0.9755
3.4921 4.7518 -2.2598 0.9751
3.0570 5.0488 -2.2618 0.9750
0.8866 3.1247 -1.2447 0.9862
0.5705 3.0128 -1.1751 0.9870
0.5688 5.7961 -2.2318 0.9754
0.0492 5.7888 -2.2185 0.9755
-0.4641 5.7298 -2.2030 0.9757
-0.9657 5.6209 -2.1856 0.9759
-1.4505 5.4644 -2.1666 0.9761
-2.3519 5.0204 -2.1246 0.9765
-2.7608 4.7398 -2.1020 0.9768
-4.0534 3.3187 -2.0076 0.9778
-4.6043 3.1280 -2.1331 0.9764
-4.9803 2.2127 -2.0884 0.9769
-5.2131 0.7885 -2.0205 0.9777
-5.2093 0.3171 -2.0000 0.9779
-5.1668 -0.1474 -1.9808 0.9781
-5.0869 -0.6023 -1.9630 0.9783
-4.6380 -1.8839 -1.9184 0.9788
-4.1813 -2.6476 -1.8966 0.9790
-3.6152 -3.3217 -1.8814 0.9792
-3.2956 -3.6213 -1.8764 0.9792
-2.9542 -3.8940 -1.8731 0.9793
-1.8183 -4.5383 -1.8736 0.9793
-1.4089 -4.6915 -1.8772 0.9792
-0.9875 -4.8121 -1.8825 0.9792
-0.1177 -4.9521 -1.8983 0.9790
0.7732 -4.9520 -1.9207 0.9788
2.5375 -4.5133 -1.9842 0.9781
2.9586 -4.3107 -2.0036 0.9779
3.7556 -3.7953 -2.0461 0.9774
4.4428 -2.5596 -1.9649 0.9783
5.1407 -1.3385 -2.0357 0.9775
5.4200 -0.4130 -2.0831 0.9770
5.3241 2.0685 -2.1889 0.9758
5.1582 2.5549 -2.2059 0.9756
4.9434 3.0254 -2.2210 0.9755
4.3234 3.8524 -2.2191 0.9755
3.2091 4.9523 -2.2614 0.9750
2.2757 5.4383 -2.2592 0.9751
1.7775 5.6067 -2.2540 0.9751
0.6594 2.9811 -1.1700 0.9870
0.7468 5.7865 -2.2359 0.9753
0.2264 5.7972 -2.2233 0.9755
-0.2897 5.7557 -2.2085 0.9756
-1.2870 5.5231 -2.1733 0.9760
-1.7583 5.3368 -2.1533 0.9762
-2.6246 4.8397 -2.1098 0.9767
-3.0126 4.5363 -2.0868 0.9769
-3.3669 4.2016 -2.0633 0.9772
-4.2085 3.0509 -1.9920 0.9780
-4.7537 2.8362 -2.1213 0.9766
-4.9298 2.3730 -2.0967 0.9768
-5.0635 1.9018 -2.0728 0.9771
-5.2052 0.9507 -2.0277 0.9776
-5.1856 0.0104 -1.9872 0.9780
-5.1183 -0.4481 -1.9689 0.9782
-5.0145 -0.8951 -1.9520 0.9784
-4.8759 -1.3283 -1.9366 0.9786
-4.7041 -1.7454 -1.9228 0.9787
-4.5007 -2.1443 -1.9105 0.9789
-4.0064 -2.8800 -1.8908 0.9791
-0.9211 -4.5402 -1.8960 0.9802
-0.1004 -4.6684 -1.9111 0.9800
0.7389 -4.6634 -1.9324 0.9798
1.5778 -4.5209 -1.9597 0.9795
3.1697 -3.8165 -2.0305 0.9788
4.1879 -2.9254 -2.0908 0.9782
5.0578 -0.3739 -2.0757 0.9783
5.1233 0.0795 -2.0971 0.9781
5.0582 1.4737 -2.1563 0.9775
4.3383 3.2354 -2.2150 0.9769
4.0502 3.6254 -2.2247 0.9768
3.7231 3.9856 -2.2322 0.9767
3.3604 4.3117 -2.2373 0.9767
2.9659 4.5997 -2.2399 0.9766
2.0992 5.0485 -2.2377 0.9766
0.6748 3.0841 -1.2921 0.9864
0.1980 5.3827 -2.2045 0.9770
-0.2812 5.3455 -2.1908 0.9771
-1.6472 4.9618 -2.1397 0.9777
-2.0641 4.7510 -2.1201 0.9779
-2.4555 4.5037 -2.0994 0.9781
-2.8186 4.2233 -2.0781 0.9783
-3.1506 3.9134 -2.0562 0.9785
-3.7139 3.2202 -2.0118 0.9790
-4.4513 2.6422 -2.1186 0.9779
-2.1699 0.3912 -0.9024 0.9905
-1.8980 -0.0005 -0.7768 0.9918
-1.9579 -0.1759 -0.8045 0.9915
-2.1720 -0.3928 -0.9034 0.9905
-4.5867 -1.2607 -1.9469 0.9797
-4.2353 -2.0296 -1.9222 0.9799
-4.0162 -2.3868 -1.9121 0.9800
-2.5557 -3.8337 -1.8857 0.9803
-1.4523 -4.3825 -1.8896 0.9802
-0.6541 -4.5967 -1.9003 0.9801
-0.2425 -4.6558 -1.9081 0.9801
0.5950 -4.6739 -1.9283 0.9798
1.0160 -4.6318 -1.9408 0.9797
2.2583 -4.2967 -1.9866 0.9792
2.6563 -4.1149 -2.0045 0.9791
3.4109 -3.6476 -2.0439 0.9786
4.0866 -3.0444 -2.0856 0.9782
4.3309 -2.1545 -1.9798 0.9793
4.5560 -1.7792 -2.0018 0.9791
4.9062 -0.9621 -2.0462 0.9786
5.0259 -0.5263 -2.0682 0.9784
5.1056 -0.0766 -2.0898 0.9782
5.1433 0.3830 -2.1108 0.9780
5.1371 0.8482 -2.1310 0.9777
5.0861 1.3148 -2.1500 0.9776
4.9894 1.7778 -2.1678 0.9774
4.4274 3.0961 -2.2111 0.9769
4.1532 3.4953 -2.2216 0.9768
3.1040 4.5057 -2.2393 0.9766
1.7966 5.1564 -2.2348 0.9767
0.3629 5.3844 -2.2087 0.9769
-0.1181 5.3635 -2.1957 0.9771
-0.5921 5.2955 -2.1808 0.9772
-1.0540 5.1819 -2.1642 0.9774
-2.3248 4.5921 -2.1066 0.9780
-3.0407 4.0224 -2.0637 0.9784
-2.1493 2.3699 -1.3094 0.9863
-3.6275 3.3447 -2.0194 0.9789
-3.8684 2.9747 -1.9972 0.9791
-4.3801 2.7841 -2.1242 0.9778
-4.5699 2.3611 -2.1052 0.9780
-4.8127 1.4794 -2.0607 0.9785
-1.9543 0.2348 -0.8056 0.9915
-1.9463 -0.1151 -0.7980 0.9916
-4.4844 -1.5211 -1.9381 0.9797
-4.3038 -1.9031 -1.9260 0.9799
-3.5950 -2.9329 -1.8989 0.9801
-3.0006 -3.5064 -1.8888 0.9803
-2.6722 -3.7550 -1.8862 0.9803
-1.9622 -4.1696 -1.8860 0.9803
-1.5844 -4.3334 -1.8884 0.9803
-0.7932 -4.5691 -1.8980 0.9802
-0.3839 -4.6393 -1.9052 0.9801
0.4511 -4.6804 -1.9244 0.9799
1.7092 -4.4855 -1.9646 0.9795
2.1198 -4.3508 -1.9808 0.9793
4.2471 -2.2771 -1.9723 0.9794
2.2807 -0.9719 -1.0146 0.9893
4.9894 -0.6770 -2.0607 0.9785
5.0830 -0.2316 -2.0825 0.9782
5.1442 0.6889 -2.1242 0.9778
5.0276 1.6202 -2.1619 0.9774
4.9008 2.0783 -2.1787 0.9773
4.7284 2.5246 -2.1938 0.9771
4.5115 2.9541 -2.2071 0.9770
4.2515 3.3618 -2.2183 0.9768
3.9508 3.7429 -2.2274 0.9768
2.8351 4.6823 -2.2403 0.9766
1.8731 3.8274 -1.7440 0.9818
0.5280 5.3805 -2.2127 0.9769
0.0457 5.3761 -2.2004 0.9770
-0.4312 5.3240 -2.1861 0.9772
-0.8978 5.2257 -2.1701 0.9773
-1.7817 4.8993 -2.1336 0.9777
-2.5736 4.4184 -2.0927 0.9781
-2.9271 4.1282 -2.0712 0.9784
-2.1105 2.4749 -1.3312 0.9860
-2.3078 2.2620 -1.3226 0.9861
-3.7901 3.1031 -2.0048 0.9791
-4.0072 2.7223 -1.9827 0.9793
-4.5125 2.5088 -2.1131 0.9779
-4.6672 2.0736 -2.0902 0.9782
-4.7823 1.6315 -2.0681 0.9784
-1.9686 0.2978 -0.8149 0.9914
-1.9473 0.1185 -0.7984 0.9916
-4.1690 -2.1448 -1.9188 0.9799
-3.6874 -2.8253 -1.9012 0.9801
-3.1083 -3.4154 -1.8901 0.9802
-2.7866 -3.6730 -1.8869 0.9803
-2.4459 -3.9038 -1.8854 0.9803
-2.0881 -4.1068 -1.8856 0.9803
-0.9312 -4.5377 -1.8959 0.9802
-0.1110 -4.6676 -1.9109 0.9800
0.3074 -4.6829 -1.9207 0.9799
0.7282 -4.6643 -1.9321 0.9798
1.1490 -4.6113 -1.9450 0.9797
2.7798 -4.0501 -2.0105 0.9790
3.5240 -3.5612 -2.0505 0.9786
4.1805 -2.9343 -2.0904 0.9782
4.4055 -2.0384 -1.9867 0.9792
4.6206 -1.6555 -2.0088 0.9790
5.0556 -0.3853 -2.0751 0.9783
5.0604 1.4619 -2.1558 0.9775
4.9492 1.9228 -2.1731 0.9773
4.5906 2.8095 -2.2027 0.9770
4.3451 3.2252 -2.2147 0.9769
4.0580 3.6159 -2.2245 0.9768
2.5549 4.8405 -2.2401 0.9766
1.6488 5.2010 -2.2330 0.9767
0.6813 3.0803 -1.2912 0.9865
0.6932 5.3709 -2.2164 0.9769
-0.7398 5.2644 -2.1757 0.9773
-1.1970 5.1368 -2.1587 0.9775
-1.6363 4.9667 -2.1402 0.9777
-2.8097 4.2308 -2.0786 0.9783
-3.1425 3.9216 -2.0568 0.9785
-3.7076 3.2295 -2.0124 0.9790
-4.7474 1.7831 -2.0755 0.9783
-4.8366 1.3384 -2.0539 0.9785
-2.1793 0.3980 -0.9067 0.9905
-2.1626 -0.3860 -0.8991 0.9906
-4.5904 -1.2505 -1.9472 0.9796
-4.4305 -1.6439 -1.9341 0.9798
-3.7770 -2.7151 -1.9038 0.9801
-0.8705 -4.2910 -1.9082 0.9811
-0.4859 -4.3661 -1.9146 0.9810
-0.0948 -4.4102 -1.9225 0.9809
0.3004 -4.4226 -1.9319 0.9808
0.6976 -4.4028 -1.9427 0.9807
1.0944 -4.3503 -1.9550 0.9806
1.4885 -4.2648 -1.9686 0.9805
1.8771 -4.1463 -1.9836 0.9803
2.2578 -3.9947 -1.9998 0.9802
2.6277 -3.8101 -2.0171 0.9800
2.9841 -3.5930 -2.0355 0.9798
3.9344 -2.7483 -2.0916 0.9793
3.9127 -2.2424 -1.9654 0.9805
4.1398 -1.9041 -1.9859 0.9803
4.5045 -1.1619 -2.0274 0.9799
4.7335 -0.3500 -2.0686 0.9795
4.7870 0.9414 -2.1262 0.9789
4.7221 1.3757 -2.1435 0.9788
4.6148 1.8049 -2.1595 0.9786
4.2741 2.6291 -2.1869 0.9783
4.0428 3.0150 -2.1979 0.9782
3.7731 3.3774 -2.2070 0.9781
3.4676 3.7121 -2.2139 0.9781
1.9548 4.7012 -2.2190 0.9780
1.5246 4.8471 -2.2145 0.9781
0.6758 3.0885 -1.3779 0.9863
-0.7012 4.9092 -2.1612 0.9786
-1.9291 4.4403 -2.1099 0.9791
-2.2964 4.2118 -2.0907 0.9793
-2.9503 3.6647 -2.0504 0.9797
-3.6995 2.6692 -1.9881 0.9803
-4.1761 2.4788 -2.1165 0.9790
-1.5984 0.5962 -0.7435 0.9926
-1.5002 0.2705 -0.6644 0.9934
-1.5278 0.1364 -0.6685 0.9933
-1.5277 -0.1372 -0.6685 0.9933
-1.5985 -0.5972 -0.7437 0.9926
-3.9998 -1.9168 -1.9330 0.9808
-3.0303 -3.1463 -1.9038 0.9811
-2.7326 -3.3979 -1.9003 0.9812
-2.4161 -3.6244 -1.8984 0.9812
-1.7344 -3.9979 -1.8992 0.9812
-0.2291 -4.3987 -1.9196 0.9810
1.7451 -4.1906 -1.9783 0.9804
2.1287 -4.0502 -1.9941 0.9802
2.5027 -3.8769 -2.0111 0.9801
3.5376 -3.1633 -2.0682 0.9795
3.8398 -2.8605 -2.0868 0.9793
3.8289 -2.3525 -1.9585 0.9806
4.2736 -1.6689 -1.9995 0.9802
4.4513 -1.2943 -2.0203 0.9800
4.7762 -0.0717 -2.0818 0.9794
4.8082 0.3580 -2.1013 0.9792
4.7490 1.2276 -2.1378 0.9788
4.6562 1.6591 -2.1542 0.9787
4.5210 2.0823 -2.1693 0.9785
4.3440 2.4926 -2.1827 0.9784
4.1262 2.8855 -2.1944 0.9783
3.8695 3.2565 -2.2041 0.9782
3.5759 3.6011 -2.2117 0.9781
3.2484 3.9154 -2.2172 0.9780
2.8904 4.1956 -2.2204 0.9780
1.6732 4.8022 -2.2163 0.9781
0.7829 3.1188 -1.4014 0.9861
0.3383 5.0186 -2.1921 0.9783
-0.1102 5.0011 -2.1801 0.9784
-0.5523 4.9399 -2.1663 0.9785
-0.9838 4.8364 -2.1509 0.9787
-1.4003 4.6925 -2.1342 0.9789
-1.7981 4.5107 -2.1163 0.9790
-3.4008 3.1357 -2.0160 0.9800
-3.6292 2.7907 -1.9952 0.9802
-4.2930 2.2180 -2.1059 0.9791
-4.4285 1.8078 -2.0846 0.9793
-1.5773 0.4849 -0.7192 0.9928
-1.5221 0.1829 -0.6681 0.9933
-1.5278 0.0463 -0.6661 0.9934
-1.5398 -0.3731 -0.6905 0.9931
-1.5897 -0.5392 -0.7316 0.9927
-2.5263 -3.5499 -1.8989 0.9812
-2.1985 -3.7593 -1.8980 0.9812
-1.4978 -4.0964 -1.9009 0.9811
-1.1286 -4.2221 -1.9047 0.9811
-0.7496 -4.3181 -1.9100 0.9811
-0.3627 -4.3835 -1.9169 0.9810
1.2196 -4.3268 -1.9592 0.9806
1.9986 -4.1019 -1.9886 0.9803
2.3761 -3.9398 -2.0051 0.9801
2.7421 -3.7449 -2.0228 0.9800
3.7418 -2.9693 -2.0818 0.9794
3.9875 -2.1379 -1.9718 0.9805
4.5503 -1.0375 -2.0340 0.9798
4.6716 -0.6338 -2.0546 0.9796
4.8072 0.6437 -2.1138 0.9791
4.7710 1.0791 -2.1318 0.9789
4.6927 1.5123 -2.1487 0.9787
4.5720 1.9389 -2.1643 0.9786
4.2052 2.7535 -2.1906 0.9783
3.9615 3.1324 -2.2010 0.9782
3.6802 3.4865 -2.2094 0.9781
2.6399 4.3599 -2.2213 0.9780
0.4921 5.0143 -2.1958 0.9783
-0.4022 4.9657 -2.1712 0.9785
-0.8378 4.8764 -2.1564 0.9786
-2.0480 4.3716 -2.1039 0.9792
-2.0771 2.4358 -1.3951 0.9861
-2.2443 2.1998 -1.3696 0.9864
-3.7611 2.5551 -1.9816 0.9804
-4.2349 2.3545 -2.1117 0.9791
-4.3864 1.9488 -2.0918 0.9793
-1.5411 0.3762 -0.6913 0.9931
-1.5296 0.0931 -0.6679 0.9933
-1.5225 -0.1803 -0.6682 0.9933
-3.9375 -2.0257 -1.9298 0.9809
-3.4845 -2.6699 -1.9131 0.9810
-3.2222 -2.9606 -1.9070 0.9811
-2.9382 -3.2285 -1.9025 0.9811
-2.6344 -3.4723 -1.8995 0.9812
-2.3124 -3.6907 -1.8981 0.9812
-1.2560 -4.1825 -1.9032 0.9811
-0.8801 -4.2887 -1.9080 0.9811
0.2904 -4.4227 -1.9316 0.9808
1.0844 -4.3520 -1.9547 0.9806
1.4785 -4.2674 -1.9683 0.9805
1.8674 -4.1497 -1.9832 0.9803
3.6369 -3.0716 -2.0747 0.9794
3.9275 -2.7567 -2.0912 0.9793
3.9065 -2.2507 -1.9649 0.9805
4.3333 -1.5525 -2.0061 0.9801
4.7315 -0.3606 -2.0681 0.9795
4.7907 0.0635 -2.0880 0.9793
4.6180 1.7941 -2.1592 0.9786
4.2794 2.6191 -2.1866 0.9783
3.4758 3.7040 -2.2137 0.9781
3.1383 4.0079 -2.2185 0.9780
2.7713 4.2767 -2.2210 0.9780
2.0392 3.8635 -1.9039 0.9811
0.6824 3.0854 -1.3772 0.9863
-0.6902 4.9116 -2.1616 0.9786
-1.9195 4.4457 -2.1104 0.9791
-2.6293 3.9591 -2.0713 0.9795
-2.1743 2.2654 -1.3685 0.9864
-3.4767 3.0284 -2.0094 0.9801
-4.3399 2.0890 -2.0991 0.9792
-1.5989 0.6005 -0.7444 0.9926
-1.5615 0.4321 -0.7061 0.9930
-1.5275 0.1399 -0.6685 0.9933
-1.5590 -0.4247 -0.7042 0.9930
-4.0047 -1.9080 -1.9333 0.9808
-3.7996 -2.2464 -1.9237 0.9809
-3.5689 -2.5655 -1.9156 0.9810
-0.4600 -4.1339 -1.9253 0.9818
1.0351 -4.1143 -1.9638 0.9815
1.7739 -3.9183 -1.9909 0.9812
2.8160 -3.3906 -2.0401 0.9808
3.1351 -3.1540 -2.0585 0.9806
3.4356 -2.8883 -2.0776 0.9804
3.6838 -2.1112 -1.9654 0.9815
3.8952 -1.7916 -1.9846 0.9813
4.0792 -1.4511 -2.0041 0.9811
4.4949 0.0698 -2.0809 0.9804
4.5095 0.4745 -2.0989 0.9802
4.4855 0.8821 -2.1161 0.9801
4.4224 1.2884 -2.1322 0.9799
4.3199 1.6895 -2.1471 0.9798
3.7801 2.8191 -2.1828 0.9794
2.9242 3.7520 -2.2019 0.9793
2.5805 4.0020 -2.2042 0.9792
1.8267 4.3931 -2.2023 0.9792
1.4249 4.5300 -2.1982 0.9793
0.5933 4.6803 -2.1838 0.9794
0.1726 4.6930 -2.1738 0.9795
-0.2454 4.6643 -2.1620 0.9796
-0.6564 4.5953 -2.1487 0.9797
-1.4415 4.3424 -2.1179 0.9800
-2.4756 3.7094 -2.0643 0.9805
-3.9286 2.3319 -2.1147 0.9801
-1.3324 0.4970 -0.6583 0.9938
-1.3183 0.3616 -0.6328 0.9940
-1.3160 0.2373 -0.6190 0.9941
-1.3333 -0.0003 -0.6172 0.9941
-1.3158 -0.2380 -0.6190 0.9941
-1.3323 -0.4978 -0.6584 0.9938
-3.7852 -1.8139 -1.9429 0.9817
-3.5914 -2.1343 -1.9338 0.9818
-2.8700 -2.9799 -1.9151 0.9819
-1.9729 -3.6230 -1.9096 0.9820
-1.6429 -3.7869 -1.9107 0.9820
-0.9471 -4.0328 -1.9175 0.9819
0.5315 -4.1757 -1.9485 0.9816
2.0111 -3.8264 -2.0009 0.9811
2.3632 -3.6609 -2.0170 0.9810
3.3352 -2.9823 -2.0710 0.9805
3.6171 -2.6946 -2.0878 0.9803
3.8259 -1.9033 -1.9780 0.9813
4.0196 -1.5697 -1.9974 0.9812
4.1841 -1.2166 -2.0170 0.9810
4.3172 -0.8466 -2.0364 0.9808
4.4169 -0.4625 -2.0557 0.9806
4.4813 -0.0672 -2.0746 0.9804
4.4484 1.1499 -2.1268 0.9800
3.8586 2.6983 -2.1795 0.9795
3.0357 3.6589 -2.2007 0.9793
2.7008 3.9205 -2.2037 0.9792
2.3412 4.1474 -2.2045 0.9792
0.7369 4.6665 -2.1868 0.9794
0.3163 4.6933 -2.1774 0.9795
-0.1031 4.6787 -2.1662 0.9796
-1.3118 4.3960 -2.1235 0.9800
-2.0385 4.0266 -2.0891 0.9803
-2.6729 3.5359 -2.0518 0.9807
-2.4787 2.2854 -1.5606 0.9852
-3.5991 2.2877 -1.9740 0.9814
-1.3275 0.5419 -0.6637 0.9937
-1.3037 0.2764 -0.6169 0.9941
-1.3385 -0.0791 -0.6207 0.9941
-1.3258 -0.1982 -0.6205 0.9941
-1.3334 -0.4523 -0.6517 0.9938
-1.3194 -0.5835 -0.6678 0.9937
-3.6604 -2.0268 -1.9367 0.9817
-3.2171 -2.6246 -1.9218 0.9819
-2.9619 -2.8931 -1.9165 0.9819
-2.6867 -3.1395 -1.9127 0.9820
-1.0689 -3.9987 -1.9159 0.9819
-0.7098 -4.0890 -1.9210 0.9819
0.4031 -4.1824 -1.9449 0.9817
0.7789 -4.1526 -1.9557 0.9815
1.8884 -3.8758 -1.9957 0.9812
2.5885 -3.5351 -2.0281 0.9809
2.9188 -3.3189 -2.0459 0.9807
2.2790 -0.9711 -1.1467 0.9891
4.1312 -1.3393 -2.0103 0.9810
4.2754 -0.9748 -2.0298 0.9809
4.3867 -0.5952 -2.0492 0.9807
4.3942 1.4161 -2.1370 0.9799
4.2792 1.8147 -2.1515 0.9797
3.7038 2.9287 -2.1856 0.9794
3.1438 3.5621 -2.1992 0.9793
1.8680 3.8171 -1.9671 0.9814
0.8801 4.6477 -2.1896 0.9794
0.4602 4.6888 -2.1808 0.9794
-0.7843 4.5652 -2.1441 0.9798
-1.9203 4.0990 -2.0952 0.9802
-2.2585 3.8774 -2.0771 0.9804
-2.5719 3.6274 -2.0583 0.9806
-2.0688 2.4261 -1.4759 0.9860
-2.2299 2.1857 -1.4453 0.9863
-3.3433 2.7373 -2.0001 0.9811
-3.5394 2.4045 -1.9806 0.9813
-1.3188 0.5859 -0.6680 0.9937
-1.3336 0.4550 -0.6522 0.9938
-1.3252 0.2005 -0.6204 0.9941
-1.3385 0.0815 -0.6207 0.9941
-1.3370 -0.0382 -0.6191 0.9941
-3.5249 -2.2319 -1.9312 0.9818
-2.7829 -3.0579 -1.9139 0.9819
-2.4953 -3.2890 -1.9110 0.9820
-1.8699 -3.6777 -1.9098 0.9820
-1.5357 -3.8331 -1.9114 0.9820
1.0256 -4.1160 -1.9635 0.9815
1.3978 -4.0345 -1.9764 0.9814
1.7647 -3.9216 -1.9906 0.9812
3.4283 -2.8954 -2.0771 0.9804
4.0749 -1.4599 -2.0036 0.9811
4.3525 -0.7265 -2.0426 0.9807
4.1821 2.0714 -2.1603 0.9796
3.7861 2.8103 -2.1825 0.9794
3.5339 3.1489 -2.1910 0.9794
3.2485 3.4618 -2.1974 0.9793
1.8367 4.3891 -2.2024 0.9792
0.6838 3.0915 -1.4656 0.9861
0.6040 4.6795 -2.1840 0.9794
0.1833 4.6932 -2.1740 0.9795
-0.6461 4.5975 -2.1490 0.9797
-1.4320 4.3465 -2.1183 0.9800
-1.7994 4.1676 -2.1013 0.9802
-2.4678 3.7158 -2.0648 0.9805
-2.1667 2.2575 -1.4484 0.9863
-3.4759 2.5198 -1.9873 0.9813
-3.9240 2.3412 -2.1151 0.9801
-1.3191 0.3650 -0.6335 0.9940
-1.3374 0.1225 -0.6216 0.9941
-1.3336 0.0027 -0.6173 0.9941
-1.3377 -0.1171 -0.6216 0.9941
-1.3167 -0.2350 -0.6191 0.9941
-1.3177 -0.3590 -0.6322 0.9940
-3.3790 -2.4290 -1.9263 0.9818
-0.0852 -3.9589 -1.9424 0.9825
0.6256 -3.9480 -1.9608 0.9823
0.9808 -3.8984 -1.9719 0.9822
1.3329 -3.8191 -1.9842 0.9821
1.6796 -3.7100 -1.9976 0.9820
2.9631 -2.9809 -2.0617 0.9814
3.4762 -1.9923 -1.9653 0.9823
2.2995 -1.0577 -1.2416 0.9888
3.8450 -1.3678 -2.0018 0.9820
3.9880 -1.0287 -2.0202 0.9818
4.1809 -0.3091 -2.0565 0.9815
4.2276 0.0656 -2.0740 0.9813
4.2391 0.4461 -2.0908 0.9812
4.2145 0.8288 -2.1069 0.9810
4.1533 1.2100 -2.1220 0.9809
3.9206 1.9529 -2.1485 0.9807
3.5450 2.6438 -2.1692 0.9805
3.3069 2.9601 -2.1770 0.9804
2.7408 3.5167 -2.1871 0.9803
2.4185 3.7508 -2.1892 0.9803
2.0744 3.9518 -2.1893 0.9803
0.6795 3.1053 -1.5593 0.9859
0.5564 4.3891 -2.1702 0.9805
0.1619 4.4022 -2.1608 0.9806
-0.2302 4.3767 -2.1498 0.9807
-0.6161 4.3136 -2.1374 0.9808
-0.9920 4.2141 -2.1236 0.9809
-1.7000 3.9129 -2.0927 0.9812
-2.0258 3.7155 -2.0759 0.9813
-2.3294 3.4904 -2.0584 0.9815
-2.6086 3.2402 -2.0405 0.9816
-2.1628 2.2432 -1.5285 0.9862
-3.0865 2.6762 -2.0039 0.9820
-3.2826 2.3683 -1.9855 0.9821
-1.1349 0.5431 -0.6171 0.9944
-1.1543 0.4306 -0.6043 0.9945
-1.1587 0.3178 -0.5894 0.9947
-1.1791 0.2126 -0.5877 0.9947
-1.1954 -0.0003 -0.5864 0.9947
-1.1543 -0.4312 -0.6044 0.9945
-1.1347 -0.5438 -0.6172 0.9944
-3.4057 -2.0239 -1.9433 0.9825
-3.1994 -2.3109 -1.9360 0.9826
-2.9713 -2.5791 -1.9300 0.9826
-2.7230 -2.8272 -1.9254 0.9827
-1.8721 -3.4379 -1.9202 0.9827
-1.5589 -3.5932 -1.9213 0.9827
-1.2337 -3.7229 -1.9238 0.9827
-0.8985 -3.8259 -1.9278 0.9826
-0.5552 -3.9016 -1.9331 0.9826
-0.2057 -3.9492 -1.9398 0.9825
0.1481 -3.9682 -1.9479 0.9825
0.8596 -3.9187 -1.9679 0.9823
1.5619 -3.7506 -1.9929 0.9821
2.5565 -3.2766 -2.0386 0.9817
2.8624 -3.0610 -2.0557 0.9815
3.4031 -2.0909 -1.9592 0.9824
3.6090 -1.7954 -1.9773 0.9822
3.9424 -1.1464 -2.0139 0.9819
4.1572 -0.4353 -2.0504 0.9815
4.2392 0.3156 -2.0852 0.9812
4.1784 1.0801 -2.1170 0.9810
4.0929 1.4584 -2.1313 0.9808
3.8124 2.1876 -2.1561 0.9806
3.6189 2.5307 -2.1662 0.9805
3.3918 2.8545 -2.1746 0.9804
2.5313 3.6744 -2.1887 0.9803
1.8057 3.9940 -2.1501 0.9807
1.4657 4.2066 -2.1851 0.9803
0.8086 3.2213 -1.6292 0.9853
-0.0967 4.3897 -2.1538 0.9806
-0.4852 4.3393 -2.1418 0.9807
-0.8649 4.2521 -2.1285 0.9809
-2.2283 3.5703 -2.0644 0.9814
-2.1126 2.3295 -1.5426 0.9861
-2.4393 2.2491 -1.6275 0.9853
-3.2189 2.4752 -1.9918 0.9821
-1.1588 0.3562 -0.5947 0.9946
-1.1710 0.2483 -0.5872 0.9947
-1.1964 0.0362 -0.5871 0.9947
-1.1575 -0.3926 -0.5995 0.9946
-1.1431 -0.5055 -0.6131 0.9944
-1.1078 -0.6134 -0.6211 0.9944
-3.0517 -2.4896 -1.9319 0.9826
-2.8100 -2.7448 -1.9268 0.9827
0.0268 -3.9650 -1.9450 0.9825
0.7382 -3.9355 -1.9641 0.9823
1.0926 -3.8765 -1.9756 0.9822
2.1237 -3.5212 -2.0170 0.9818
2.4485 -3.3439 -2.0329 0.9817
2.7596 -3.1379 -2.0498 0.9816
3.0546 -2.9039 -2.0674 0.9814
3.3287 -2.6415 -2.0845 0.9812
3.5725 -2.3481 -2.0970 0.9811
4.0270 -0.9182 -2.0260 0.9818
4.1296 -0.5603 -2.0442 0.9816
3.8705 2.0665 -2.1522 0.9806
3.4731 2.7463 -2.1719 0.9805
2.9469 3.3390 -2.1845 0.9804
2.6414 3.5942 -2.1879 0.9803
1.8885 3.8589 -2.1074 0.9810
1.5943 4.1624 -2.1864 0.9803
0.4316 4.3974 -2.1674 0.9805
0.0374 4.3982 -2.1575 0.9806
-0.3532 4.3608 -2.1461 0.9807
-0.7363 4.2860 -2.1332 0.9808
-1.1083 4.1752 -2.1190 0.9809
-1.4657 4.0304 -2.1037 0.9811
-2.1244 3.6472 -2.0704 0.9814
-2.4205 3.4138 -2.0528 0.9815
-2.0614 2.4173 -1.5583 0.9859
-3.1517 2.5804 -1.9980 0.9820
-1.1573 0.3948 -0.5998 0.9946
-1.1853 0.1793 -0.5880 0.9947
-1.1959 0.0728 -0.5877 0.9947
-1.1964 -0.0341 -0.5871 0.9947
-1.1715 -0.2462 -0.5872 0.9947
-1.1251 -0.5788 -0.6206 0.9944
-2.8949 -2.6599 -1.9284 0.9826
-2.6404 -2.9013 -1.9243 0.9827
-2.3677 -3.1208 -1.9215 0.9827
-2.0785 -3.3174 -1.9203 0.9827
-1.7744 -3.4898 -1.9204 0.9827
-0.0941 -3.9583 -1.9422 0.9825
0.9718 -3.9000 -1.9716 0.9823
1.3240 -3.8215 -1.9838 0.9821
1.6709 -3.7131 -1.9973 0.9820
2.6550 -3.2114 -2.0439 0.9816
3.2386 -2.7352 -2.0794 0.9813
3.4919 -2.4510 -2.0927 0.9812
3.4709 -1.9996 -1.9649 0.9823
3.8410 -1.3761 -2.0014 0.9820
3.9847 -1.0375 -2.0198 0.9818
4.1793 -0.3185 -2.0560 0.9815
4.2392 0.4364 -2.0904 0.9812
4.1553 1.2004 -2.1216 0.9809
3.9245 1.9438 -2.1482 0.9807
3.7549 2.2980 -2.1594 0.9806
3.5506 2.6355 -2.1690 0.9805
3.3133 2.9523 -2.1769 0.9804
3.0451 3.2451 -2.1829 0.9804
2.0833 3.9471 -2.1893 0.9803
1.3453 4.2436 -2.1837 0.9804
0.6864 3.1034 -1.5591 0.9859
0.5663 4.3882 -2.1704 0.9805
-0.2204 4.3778 -2.1501 0.9807
-0.9827 4.2170 -2.1240 0.9809
-1.3454 4.0836 -2.1090 0.9810
-1.6914 3.9175 -2.0931 0.9812
-2.3221 3.4964 -2.0589 0.9815
-3.0811 2.6838 -2.0043 0.9820
-3.2780 2.3763 -1.9860 0.9821
-3.7003 2.2077 -2.1136 0.9810
-1.1786 0.2153 -0.5877 0.9947
-1.1938 0.1093 -0.5880 0.9947
-1.1955 0.0024 -0.5864 0.9947
-1.1795 -0.2106 -0.5877 0.9947
-1.1546 -0.4284 -0.6041 0.9945
-1.1354 -0.5409 -0.6169 0.9944
-0.4145 -3.7249 -1.9443 0.9833
0.5939 -3.7481 -1.9687 0.9830
0.9308 -3.6999 -1.9793 0.9830
1.2646 -3.6235 -1.9910 0.9829
1.9137 -3.3859 -2.0177 0.9826
2.2243 -3.2252 -2.0325 0.9825
2.5225 -3.0372 -2.0482 0.9824
2.8057 -2.8226 -2.0647 0.9822
3.3085 -2.3111 -2.0936 0.9820
3.6318 -1.2920 -1.9998 0.9828
3.7650 -0.9712 -2.0171 0.9826
3.9432 -0.2915 -2.0512 0.9823
3.9852 0.0619 -2.0677 0.9822
3.9942 0.4203 -2.0836 0.9821
3.9693 0.7806 -2.0986 0.9819
3.9101 1.1392 -2.1128 0.9818
3.8163 1.4926 -2.1258 0.9817
3.6883 1.8372 -2.1377 0.9816
3.5268 2.1694 -2.1481 0.9815
3.3330 2.4857 -2.1570 0.9814
2.5757 3.3048 -2.1737 0.9813
1.9493 3.7134 -2.1757 0.9813
0.6789 3.1026 -1.6476 0.9858
0.1523 4.1399 -2.1491 0.9815
-0.5798 4.0592 -2.1272 0.9817
-1.2755 3.8423 -2.1003 0.9819
-1.6017 3.6867 -2.0853 0.9820
-2.1969 3.2918 -2.0531 0.9823
-2.1550 2.2351 -1.6107 0.9861
-3.1020 2.2381 -1.9844 0.9829
-0.9916 0.5886 -0.5982 0.9948
-1.0379 0.4967 -0.5969 0.9948
-1.0905 0.1966 -0.5749 0.9950
-1.1058 -0.0003 -0.5737 0.9950
-1.0904 -0.1972 -0.5749 0.9950
-1.0575 -0.3951 -0.5857 0.9949
-1.0377 -0.4973 -0.5969 0.9948
-0.9913 -0.5891 -0.5982 0.9948
-3.0393 -2.1953 -1.9450 0.9832
-2.5874 -2.6864 -1.9350 0.9833
-2.0638 -3.0959 -1.9303 0.9834
-1.7792 -3.2672 -1.9300 0.9834
-1.4814 -3.4147 -1.9310 0.9834
-0.5275 -3.7066 -1.9423 0.9833
0.1406 -3.7685 -1.9564 0.9831
0.8159 -3.7195 -1.9755 0.9830
1.1510 -3.6528 -1.9868 0.9829
1.8051 -3.4344 -2.0128 0.9827
2.1194 -3.2832 -2.0273 0.9825
2.4221 -3.1045 -2.0427 0.9824
2.7108 -2.8989 -2.0589 0.9823
2.9829 -2.6673 -2.0759 0.9821
3.2182 -1.9773 -1.9595 0.9831
3.7226 -1.0825 -2.0112 0.9827
3.9215 -0.4106 -2.0455 0.9824
3.9745 -0.0596 -2.0621 0.9822
3.9342 1.0170 -2.1081 0.9819
3.8522 1.3726 -2.1215 0.9817
3.1886 2.6834 -2.1620 0.9814
2.9448 2.9656 -2.1682 0.9813
2.6740 3.2230 -2.1726 0.9813
1.7269 3.8199 -2.1748 0.9813
1.3774 3.9533 -2.1718 0.9813
0.2790 4.1394 -2.1523 0.9815
-0.0910 4.1290 -2.1425 0.9816
-1.8066 3.5685 -2.0750 0.9821
-2.1049 2.3210 -1.6255 0.9860
-2.4003 2.2132 -1.6938 0.9854
-0.9727 0.6183 -0.5980 0.9948
-1.0236 0.5288 -0.5977 0.9948
-1.0524 0.4296 -0.5897 0.9949
-1.0829 0.2296 -0.5743 0.9950
-1.1009 0.1323 -0.5752 0.9950
-1.0965 -0.1639 -0.5751 0.9950
-1.0744 -0.2603 -0.5735 0.9950
-1.0612 -0.3600 -0.5813 0.9950
-1.0461 -0.4626 -0.5934 0.9949
-2.8993 -2.3653 -1.9411 0.9833
-2.6701 -2.6080 -1.9363 0.9833
-1.5845 -3.3670 -1.9305 0.9834
-1.2792 -3.4985 -1.9325 0.9834
-0.6397 -3.6852 -1.9404 0.9833
0.3629 -3.7648 -1.9621 0.9831
1.0369 -3.6788 -1.9828 0.9829
2.6138 -2.9721 -2.0533 0.9823
2.8919 -2.7493 -2.0700 0.9822
3.1491 -2.4989 -2.0855 0.9820
3.1576 -2.0754 -1.9603 0.9831
2.2655 -0.9654 -1.2776 0.9890
3.6770 -1.1921 -2.0053 0.9827
3.8961 -0.5286 -2.0397 0.9824
3.9900 0.5343 -2.0884 0.9820
3.4689 2.2714 -2.1511 0.9815
3.0313 2.8718 -2.1662 0.9814
2.1724 3.5878 -2.1759 0.9813
1.8432 3.7664 -2.1754 0.9813
1.4983 3.9116 -2.1730 0.9813
0.7757 4.0965 -2.1629 0.9814
0.4058 4.1347 -2.1553 0.9815
-0.3323 4.1026 -2.1353 0.9816
-0.6930 4.0337 -2.1233 0.9817
-2.0029 3.4385 -2.0644 0.9822
-2.2831 3.2200 -2.0478 0.9824
-2.0538 2.4084 -1.6421 0.9858
-2.2052 2.1615 -1.6019 0.9862
-3.1553 2.1436 -1.9789 0.9830
-1.0077 0.5602 -0.5981 0.9948
-1.0610 0.3620 -0.5816 0.9950
-1.0962 0.1658 -0.5751 0.9950
-1.1060 0.0673 -0.5748 0.9950
-1.1066 -0.0316 -0.5743 0.9950
-1.1011 -0.1304 -0.5752 0.9950
-1.0632 -0.3248 -0.5768 0.9950
-2.5090 -2.7569 -1.9339 0.9833
-2.2501 -2.9658 -1.9313 0.9834
-1.9753 -3.1526 -1.9300 0.9834
-0.7513 -3.6607 -1.9387 0.9833
-0.0894 -3.7597 -1.9510 0.9832
0.5853 -3.7489 -1.9684 0.9830
1.2562 -3.6258 -1.9907 0.9829
1.5848 -3.5217 -2.0035 0.9827
2.2166 -3.2296 -2.0321 0.9825
2.7988 -2.8283 -2.0642 0.9822
3.3028 -2.3182 -2.0933 0.9820
3.2818 -1.8907 -1.9649 0.9831
3.6281 -1.2999 -1.9993 0.9828
3.8670 -0.6454 -2.0339 0.9825
3.9704 0.7715 -2.0983 0.9819
3.9120 1.1301 -2.1124 0.9818
3.8191 1.4837 -2.1255 0.9817
3.5313 2.1612 -2.1478 0.9815
3.3383 2.4779 -2.1568 0.9814
3.1145 2.7752 -2.1641 0.9814
0.6853 3.0983 -1.6462 0.9858
-0.2073 4.1182 -2.1392 0.9816
-0.5707 4.0611 -2.1275 0.9817
-0.9251 3.9698 -2.1146 0.9818
-1.2671 3.8458 -2.1006 0.9819
-2.1899 3.2974 -2.0535 0.9823
-2.4550 3.0635 -2.0366 0.9825
-2.9101 2.5349 -2.0021 0.9828
-3.0976 2.2456 -1.9848 0.9829
-0.9902 0.5908 -0.5982 0.9948
-1.0369 0.4991 -0.5970 0.9948
-1.0573 0.3971 -0.5859 0.9949
-1.0638 0.2944 -0.5726 0.9950
-1.0900 0.1991 -0.5748 0.9950
-1.1040 0.1011 -0.5751 0.9950
-1.1059 0.0022 -0.5737 0.9950
-1.1044 -0.0967 -0.5751 0.9950
-1.0648 -0.2901 -0.5725 0.9950
-1.0579 -0.3925 -0.5854 0.9949
-3.0445 -2.1886 -1.9452 0.9832
-0.3943 -3.5435 -1.9527 0.9839
0.2434 -3.5832 -1.9671 0.9838
0.8847 -3.5166 -1.9861 0.9836
1.5132 -3.3424 -2.0095 0.9834
2.3934 -2.8817 -2.0517 0.9831
3.1346 -2.1896 -2.0942 0.9827
2.1803 -1.0028 -1.3144 0.9891
3.7644 0.0584 -2.0620 0.9830
3.7713 0.3969 -2.0769 0.9829
3.5992 1.4077 -2.1167 0.9825
3.4774 1.7321 -2.1278 0.9824
2.4260 3.1128 -2.1615 0.9822
1.8359 3.4975 -2.1635 0.9821
1.5154 3.6446 -2.1618 0.9822
1.1825 3.7593 -2.1585 0.9822
0.6794 3.1048 -1.7407 0.9856
0.4929 3.8884 -2.1467 0.9823
-0.5468 3.8281 -2.1180 0.9825
-1.5122 3.4807 -2.0785 0.9828
-0.8543 0.6164 -0.5770 0.9952
-0.9509 0.4551 -0.5774 0.9952
-0.9741 0.3633 -0.5694 0.9953
-0.9881 0.2710 -0.5612 0.9953
-1.0253 0.0916 -0.5638 0.9953
-1.0269 -0.0003 -0.5625 0.9953
-0.9880 -0.2715 -0.5612 0.9953
-0.9507 -0.4556 -0.5774 0.9952
-2.6859 -2.3314 -1.9480 0.9839
-2.2208 -2.7615 -1.9409 0.9840
-1.9640 -2.9462 -1.9393 0.9840
-1.6931 -3.1092 -1.9390 0.9840
-1.1156 -3.3663 -1.9423 0.9840
-0.1858 -3.5681 -1.9569 0.9838
0.1337 -3.5839 -1.9643 0.9838
0.4548 -3.5731 -1.9728 0.9837
0.7756 -3.5356 -1.9825 0.9836
1.0938 -3.4712 -1.9933 0.9835
2.8283 -2.5290 -2.0780 0.9828
3.0607 -2.2801 -2.0904 0.9827
3.0487 -1.8731 -1.9598 0.9838
2.3118 -1.1500 -1.4142 0.9883
3.7724 0.2809 -2.0719 0.9829
3.7121 0.9596 -2.1000 0.9827
3.6335 1.2947 -2.1126 0.9826
3.5226 1.6224 -2.1241 0.9825
3.3800 1.9395 -2.1344 0.9824
3.2068 2.2425 -2.1432 0.9823
3.0042 2.5283 -2.1506 0.9823
2.7742 2.7937 -2.1564 0.9822
2.5187 3.0359 -2.1605 0.9822
2.2404 3.2521 -2.1629 0.9822
1.9420 3.4401 -2.1636 0.9821
1.2975 3.7238 -2.1598 0.9822
