ply
format ascii 1.0
element vertex 1588
property float32 x
property float32 y
property float32 z
property float32 I
end_header
-15.2825 10.1450 -2.1789 0.9288
-13.5011 -2.9777 -1.6423 0.9458
-12.9094 -4.0828 -1.6083 0.9469
-10.8281 -7.0019 -1.5317 0.9494
-9.5605 -7.4698 -1.4412 0.9523
-8.5894 -8.0417 -1.3977 0.9537
-6.0753 -9.8955 -1.3793 0.9543
-5.1712 -10.4015 -1.3798 0.9543
-4.2354 -10.8509 -1.3836 0.9542
-3.2684 -11.2431 -1.3908 0.9539
-0.1834 -12.0611 -1.4329 0.9526
0.9348 -12.6037 -1.5013 0.9504
3.4040 -13.1933 -1.6185 0.9466
5.9570 -12.9557 -1.6938 0.9442
11.3117 0.8846 -1.6076 0.9552
9.7216 1.6416 -1.3969 0.9610
8.3915 2.2010 -1.2292 0.9656
7.4419 2.6807 -1.1208 0.9685
6.7921 3.1561 -1.0612 0.9702
5.4745 3.8545 -0.9487 0.9733
4.8971 4.1473 -0.9093 0.9744
4.4379 4.4962 -0.8951 0.9748
3.3689 4.9201 -0.8449 0.9762
2.8554 5.0908 -0.8270 0.9767
2.4226 5.3968 -0.8382 0.9764
1.4928 6.0098 -0.8774 0.9753
0.9536 6.1337 -0.8795 0.9752
0.4167 6.4022 -0.9090 0.9744
-0.1670 6.8890 -0.9764 0.9725
-1.4967 7.2821 -1.0534 0.9704
-4.1428 13.7851 -2.0395 0.9435
-7.1614 17.8687 -2.7276 0.9252
-9.5579 15.2571 -2.5509 0.9298
-12.4578 9.5535 -2.2244 0.9385
-13.0739 6.7358 -2.0838 0.9423
-13.2057 5.3744 -2.0201 0.9440
-13.2324 4.0538 -1.9609 0.9456
-13.1627 2.7786 -1.9061 0.9471
-13.0050 1.5524 -1.8557 0.9485
-12.7668 0.3776 -1.8097 0.9497
-12.0760 -1.8115 -1.7302 0.9519
-11.6352 -2.8243 -1.6965 0.9528
-11.1378 -3.7822 -1.6666 0.9536
-10.5880 -4.6853 -1.6405 0.9543
-8.6617 -7.0663 -1.5839 0.9558
-7.1752 -8.3814 -1.5633 0.9564
-6.3670 -8.9414 -1.5553 0.9566
-4.6249 -9.8159 -1.5375 0.9571
-3.7542 -10.2503 -1.5467 0.9569
0.0667 -11.3893 -1.6138 0.9550
2.1482 -11.5222 -1.6607 0.9538
3.2218 -11.4822 -1.6897 0.9530
4.3146 -11.3664 -1.7226 0.9521
5.4240 -11.1706 -1.7595 0.9511
7.6789 -10.5208 -1.8455 0.9487
8.8159 -10.0570 -1.8950 0.9474
11.0801 -8.8252 -2.0071 0.9444
2.3226 -0.9954 -0.3580 0.9898
11.3645 -2.6180 -1.6524 0.9540
11.8166 0.4881 -1.6757 0.9533
10.3771 1.3621 -1.4829 0.9586
7.0515 2.9666 -1.0839 0.9696
6.5331 3.4634 -1.0477 0.9706
4.5491 4.2820 -0.8852 0.9751
4.1321 4.6508 -0.8815 0.9752
3.5450 4.7896 -0.8443 0.9762
3.0888 5.0614 -0.8401 0.9763
2.6168 5.2991 -0.8374 0.9764
2.2074 5.7003 -0.8661 0.9756
1.7121 5.9489 -0.8771 0.9753
0.5957 3.0809 -0.4446 0.9874
0.6422 6.2895 -0.8958 0.9748
0.0823 6.5693 -0.9309 0.9738
-7.9340 17.1344 -2.6754 0.9266
-9.1178 15.8187 -2.5870 0.9289
-10.1384 14.4406 -2.5000 0.9312
-12.2671 10.1446 -2.2555 0.9377
-12.9869 7.3071 -2.1114 0.9416
-13.2025 3.2982 -1.9281 0.9465
-12.8742 0.8553 -1.8282 0.9492
-12.5920 -0.2884 -1.7846 0.9504
-11.8239 -2.4137 -1.7099 0.9524
-10.8206 -4.3199 -1.6508 0.9540
-10.2420 -5.1906 -1.6269 0.9547
-9.6170 -6.0067 -1.6066 0.9552
-8.9489 -6.7683 -1.5898 0.9557
-8.2402 -7.4755 -1.5764 0.9560
-6.7107 -8.7265 -1.5598 0.9565
-5.8502 -9.2016 -1.5450 0.9569
-4.9816 -9.6374 -1.5372 0.9571
-1.3443 -11.1353 -1.5892 0.9557
-0.3502 -11.3284 -1.6059 0.9552
1.7120 -11.5175 -1.6498 0.9540
2.7771 -11.5077 -1.6773 0.9533
4.9651 -11.2612 -1.7438 0.9515
6.0828 -11.0163 -1.7830 0.9504
9.4844 -9.7381 -1.9261 0.9466
10.6168 -9.1136 -1.9825 0.9450
11.7365 -8.3810 -2.0434 0.9434
12.8996 -6.0990 -2.0217 0.9440
13.8467 -5.0924 -2.0904 0.9421
14.7385 -3.9711 -2.1628 0.9402
15.5599 -2.7343 -2.2385 0.9382
15.0344 -1.2767 -2.1379 0.9409
7.3196 2.7673 -1.1087 0.9689
6.6837 3.2343 -1.0521 0.9704
4.8001 4.1965 -0.9034 0.9746
3.2847 4.9626 -0.8432 0.9762
1.9039 5.8036 -0.8654 0.9756
1.3730 5.9237 -0.8616 0.9757
0.3182 6.4514 -0.9152 0.9742
-0.2775 6.9441 -0.9847 0.9723
-7.3986 17.6524 -2.7120 0.9256
-10.6635 13.6104 -2.4499 0.9325
-11.4330 12.1788 -2.3668 0.9347
-12.5323 9.3018 -2.2114 0.9389
-13.1051 6.4935 -2.0723 0.9426
-13.2177 5.1389 -2.0094 0.9443
-12.9687 1.3418 -1.8473 0.9487
-10.4862 -4.8385 -1.6363 0.9544
-9.2292 -6.4611 -1.5963 0.9555
-8.5369 -7.1907 -1.5815 0.9559
-6.2116 -9.0197 -1.5517 0.9567
-5.3385 -9.4585 -1.5389 0.9571
-3.5995 -10.3273 -1.5496 0.9568
0.2461 -11.4119 -1.6173 0.9549
3.4129 -11.4674 -1.6952 0.9528
4.5088 -11.3378 -1.7288 0.9519
5.6207 -11.1275 -1.7664 0.9509
6.7454 -10.8319 -1.8080 0.9498
9.0161 -9.9652 -1.9041 0.9472
10.1513 -9.3837 -1.9587 0.9457
11.2773 -8.6962 -2.0178 0.9441
15.2311 -3.2578 -2.2069 0.9390
8.6749 2.0812 -1.2640 0.9646
7.6390 2.5713 -1.1420 0.9680
6.9397 3.0487 -1.0740 0.9698
5.6184 3.7814 -0.9596 0.9730
4.4799 4.3515 -0.8849 0.9751
4.0422 4.6963 -0.8780 0.9753
2.9654 5.0354 -0.8280 0.9767
2.1211 5.7437 -0.8675 0.9756
0.5467 6.3373 -0.9013 0.9746
-0.6566 7.0841 -1.0080 0.9717
-1.3280 7.2302 -1.0416 0.9707
-6.8355 18.1536 -2.7485 0.9246
-9.3092 15.5800 -2.5716 0.9293
-10.3013 14.1933 -2.4849 0.9316
-12.3514 9.8918 -2.2421 0.9381
-12.7520 8.4651 -2.1687 0.9400
-13.0265 7.0624 -2.0995 0.9419
-13.1844 5.6922 -2.0348 0.9436
-13.1874 3.0752 -1.9186 0.9468
-12.8299 0.6501 -1.8202 0.9494
-10.1353 -5.3382 -1.6231 0.9548
-9.5025 -6.1447 -1.6034 0.9553
-7.3583 -8.2375 -1.5650 0.9564
-6.5693 -8.8261 -1.5589 0.9565
-4.8293 -9.7137 -1.5370 0.9571
-3.0776 -10.5866 -1.5621 0.9564
2.9667 -11.4984 -1.6825 0.9532
4.0551 -11.4008 -1.7145 0.9523
11.2864 0.8827 -1.8650 0.9551
8.5976 2.2551 -1.4643 0.9646
5.9281 3.4275 -1.1281 0.9726
3.9182 4.7509 -1.0145 0.9753
3.3650 4.9143 -0.9812 0.9761
2.4198 5.3905 -0.9734 0.9763
0.9524 6.1262 -1.0214 0.9752
-0.7072 6.2057 -1.0289 0.9750
-1.4728 7.1661 -1.2052 0.9708
-4.1302 13.7430 -2.3640 0.9435
-8.8381 11.6530 -2.4094 0.9424
-11.0076 6.9778 -2.1470 0.9485
-11.2082 0.3315 -1.8472 0.9556
-10.2934 -2.4986 -1.7450 0.9580
-9.8733 -3.3529 -1.7178 0.9586
-7.7219 -6.2996 -1.6417 0.9604
-7.0817 -6.9157 -1.6306 0.9607
-6.4058 -7.4825 -1.6227 0.9609
-4.9550 -8.4655 -1.6159 0.9610
-4.1839 -8.8799 -1.6171 0.9610
-3.3848 -9.2417 -1.6214 0.9609
-2.5593 -9.5494 -1.6287 0.9607
-0.8355 -9.9968 -1.6526 0.9601
0.9736 -10.2074 -1.6892 0.9593
1.9051 -10.2183 -1.7124 0.9587
2.8516 -10.1627 -1.7388 0.9581
5.7511 -9.5668 -1.8389 0.9558
6.7252 -9.2141 -1.8792 0.9548
7.6954 -8.7787 -1.9232 0.9538
8.6558 -8.2571 -1.9707 0.9527
9.5996 -7.6460 -2.0218 0.9515
10.5191 -6.9424 -2.0763 0.9502
2.3185 -0.9936 -0.4156 0.9898
13.3618 -1.8447 -2.2221 0.9468
13.8680 -0.6655 -2.2872 0.9453
11.8157 0.4881 -1.9482 0.9532
10.3557 1.3593 -1.7206 0.9585
6.9613 2.9286 -1.2442 0.9698
6.2022 3.2880 -1.1564 0.9719
5.5991 3.6419 -1.1003 0.9733
5.0826 3.9931 -1.0648 0.9741
4.4935 4.2296 -1.0166 0.9753
2.2048 5.6936 -1.0058 0.9756
0.0810 6.4679 -1.0656 0.9741
-3.8671 14.8239 -2.5238 0.9398
-6.5811 14.2126 -2.5802 0.9385
-7.6058 13.1956 -2.5091 0.9401
-10.4551 8.6461 -2.2350 0.9465
-11.1740 6.2871 -2.1122 0.9494
-11.0734 -0.2536 -1.8247 0.9561
-10.7926 -1.2153 -1.7892 0.9569
-10.4508 -2.1334 -1.7572 0.9577
-10.0527 -3.0065 -1.7286 0.9584
-9.6025 -3.8336 -1.7033 0.9590
-8.5602 -5.3467 -1.6627 0.9599
-5.9925 -7.7925 -1.6194 0.9609
-5.2641 -8.2796 -1.6163 0.9610
-4.5051 -8.7155 -1.6163 0.9610
-3.7173 -9.0991 -1.6192 0.9609
-2.9025 -9.4292 -1.6253 0.9608
-1.1980 -9.9235 -1.6467 0.9603
1.5193 -10.2217 -1.7024 0.9590
3.4140 -10.0978 -1.7560 0.9577
6.3240 -9.3693 -1.8622 0.9552
7.2965 -8.9684 -1.9046 0.9542
8.2617 -8.4826 -1.9507 0.9531
9.2132 -7.9088 -2.0003 0.9520
11.0449 -6.4846 -2.1099 0.9494
5.2929 3.8523 -1.0784 0.9738
4.7875 4.1854 -1.0476 0.9746
3.8300 4.7955 -1.0110 0.9754
3.2809 4.9567 -0.9792 0.9762
1.9016 5.7967 -1.0050 0.9756
0.8605 6.1722 -1.0266 0.9751
-1.6084 7.2464 -1.2228 0.9704
-6.1227 14.6082 -2.6094 0.9378
-7.1988 13.6235 -2.5384 0.9394
-8.9741 11.4542 -2.3971 0.9427
-9.6736 10.3047 -2.3284 0.9443
-2.3958 2.1343 -0.5286 0.9871
-11.3050 5.6015 -2.0784 0.9501
-11.4693 2.2335 -1.9249 0.9537
-10.9159 -0.8243 -1.8034 0.9566
-10.5987 -1.7605 -1.7699 0.9574
-10.2233 -2.6523 -1.7399 0.9581
-9.3149 -4.2981 -1.6900 0.9593
-8.7895 -5.0505 -1.6700 0.9597
-8.2208 -5.7552 -1.6532 0.9601
-6.9652 -7.0191 -1.6290 0.9607
-4.8214 -8.5422 -1.6159 0.9610
-3.2414 -9.2998 -1.6224 0.9609
1.1363 -10.2140 -1.6930 0.9592
3.0195 -10.1458 -1.7439 0.9580
3.9800 -10.0083 -1.7743 0.9573
6.8964 -9.1436 -1.8867 0.9546
7.8653 -8.6933 -1.9313 0.9536
9.7634 -7.5289 -2.0311 0.9512
10.7252 -5.5621 -1.9903 0.9522
2.3104 -0.9475 -0.4114 0.9899
13.4577 -1.6429 -2.2335 0.9465
13.9469 -0.4499 -2.2988 0.9450
8.8587 2.1253 -1.5008 0.9637
7.7445 2.6069 -1.3462 0.9674
6.0835 3.3484 -1.1440 0.9722
5.5066 3.7061 -1.0935 0.9735
2.5309 5.3346 -0.9727 0.9763
2.1186 5.7369 -1.0075 0.9755
1.6098 5.9431 -1.0143 0.9753
0.5437 6.3020 -1.0420 0.9747
-0.0207 6.5030 -1.0713 0.9740
-0.6233 6.7257 -1.1127 0.9730
-1.2972 7.0622 -1.1829 0.9713
-3.8340 13.8059 -2.3604 0.9436
-5.6436 14.9882 -2.6384 0.9371
-6.7705 14.0391 -2.5677 0.9388
-7.7732 13.0093 -2.4966 0.9404
-9.4004 10.7818 -2.3565 0.9437
-2.3138 2.2191 -0.5281 0.9871
-10.9305 7.2559 -2.1613 0.9482
-11.2169 6.0813 -2.1020 0.9496
-11.4017 4.9226 -2.0459 0.9509
-11.4915 3.7869 -1.9933 0.9521
-11.4929 2.6800 -1.9441 0.9533
-11.4123 1.6066 -1.8986 0.9544
-10.7367 -1.3801 -1.7833 0.9571
-9.0114 -4.7463 -1.6779 0.9596
-8.4601 -5.4707 -1.6597 0.9600
-7.8675 -6.1470 -1.6448 0.9603
-7.2361 -6.7747 -1.6330 0.9606
-5.8665 -7.8819 -1.6187 0.9610
-3.5758 -9.1611 -1.6201 0.9609
-1.9117 -9.7472 -1.6363 0.9605
-1.0436 -9.9560 -1.6491 0.9602
-0.1536 -10.1061 -1.6651 0.9599
1.6838 -10.2216 -1.7066 0.9589
3.5831 -10.0736 -1.7614 0.9576
4.5490 -9.8935 -1.7939 0.9568
11.2611 0.8807 -2.1231 0.9551
9.7645 1.6488 -1.8613 0.9605
8.5872 2.2524 -1.6687 0.9645
6.7538 3.1383 -1.3998 0.9701
5.3185 3.7446 -1.2226 0.9739
4.7466 4.0199 -1.1691 0.9750
3.2887 4.8029 -1.0941 0.9766
2.8308 5.0469 -1.0877 0.9767
2.3688 5.2769 -1.0872 0.9767
1.8987 5.4949 -1.0927 0.9766
0.4901 3.1523 -0.5996 0.9871
0.4039 6.2055 -1.1689 0.9750
-0.1579 6.5146 -1.2248 0.9738
-0.6855 6.0153 -1.1380 0.9757
-3.7006 12.3135 -2.4167 0.9490
-4.6777 11.6717 -2.3634 0.9501
-6.3652 10.1607 -2.2536 0.9524
-7.6163 10.0421 -2.3690 0.9500
-2.3450 2.1561 -0.5988 0.9871
-9.2752 7.1129 -2.1970 0.9535
-10.1594 3.1123 -1.9972 0.9577
-10.1719 2.1472 -1.9540 0.9586
-10.1107 1.2069 -1.9139 0.9594
-9.9806 0.2952 -1.8768 0.9602
-9.7862 -0.5846 -1.8427 0.9609
-9.2219 -2.2385 -1.7837 0.9621
-8.8600 -3.0087 -1.7587 0.9626
-8.4498 -3.7391 -1.7368 0.9631
-7.9945 -4.4282 -1.7178 0.9635
-6.9610 -5.6788 -1.6886 0.9641
-4.4736 -7.6431 -1.6646 0.9646
-3.0550 -8.3412 -1.6697 0.9645
0.0534 -9.1192 -1.7141 0.9636
0.8751 -9.1754 -1.7324 0.9632
2.5557 -9.1082 -1.7781 0.9622
3.4088 -8.9801 -1.8054 0.9617
4.2661 -8.7860 -1.8358 0.9610
5.9773 -8.1894 -1.9057 0.9596
9.2415 -6.0992 -2.0812 0.9559
9.2674 -4.9923 -1.9786 0.9581
10.5162 -3.4343 -2.0794 0.9560
11.5245 -1.5910 -2.1867 0.9538
11.8122 0.4879 -2.2221 0.9530
7.1110 2.9916 -1.4501 0.9691
6.2864 3.3326 -1.3374 0.9715
5.5821 3.6309 -1.2517 0.9733
4.1221 4.6396 -1.1665 0.9751
3.4770 4.6977 -1.0985 0.9765
0.5684 2.9399 -0.5628 0.9879
0.0799 6.3767 -1.1987 0.9744
-1.0351 6.1802 -1.1778 0.9748
-5.2119 11.2558 -2.3314 0.9508
-7.3168 10.4216 -2.3934 0.9495
-8.0135 9.4880 -2.3343 0.9507
-9.1008 7.5262 -2.2197 0.9531
-9.4958 6.5207 -2.1651 0.9542
-10.0067 4.5081 -2.0629 0.9563
-10.1445 1.5910 -1.9301 0.9591
-10.0423 0.6671 -1.8917 0.9599
-9.6437 -1.0860 -1.8241 0.9613
-9.0152 -2.6962 -1.7687 0.9624
-8.1873 -4.1493 -1.7252 0.9633
-6.6284 -6.0133 -1.6822 0.9642
-6.0352 -6.5465 -1.6736 0.9644
-5.4092 -7.0341 -1.6679 0.9645
-4.7526 -7.4752 -1.6650 0.9646
-1.8598 -8.7521 -1.6818 0.9642
-1.0796 -8.9430 -1.6931 0.9640
-0.2807 -9.0793 -1.7074 0.9637
0.5348 -9.1593 -1.7245 0.9633
3.0566 -9.0408 -1.7938 0.9619
4.7706 -8.6400 -1.8551 0.9606
5.6264 -8.3357 -1.8903 0.9599
8.1304 -6.9792 -2.0140 0.9573
8.9237 -6.3724 -2.0611 0.9564
9.6763 -5.6811 -2.1091 0.9554
9.6550 -4.5649 -2.0074 0.9575
10.2760 -3.7793 -2.0580 0.9564
10.8411 -2.9210 -2.1104 0.9553
11.3404 -1.9928 -2.1642 0.9542
6.6091 3.1982 -1.3800 0.9706
5.8602 3.5122 -1.2842 0.9726
5.2098 3.7919 -1.2111 0.9741
4.3347 4.5319 -1.1787 0.9748
0.8351 5.9903 -1.1368 0.9757
-0.2628 6.5758 -1.2370 0.9736
-2.8348 12.7718 -2.4590 0.9481
-3.8786 12.2070 -2.4075 0.9492
-6.4958 10.0160 -2.2439 0.9526
-7.7389 9.8776 -2.3586 0.9502
-9.3447 6.9359 -2.1874 0.9537
-9.6837 5.9274 -2.1341 0.9548
-9.9509 0.1380 -1.8706 0.9603
-9.7457 -0.7359 -1.8370 0.9610
-8.3728 -3.8634 -1.7332 0.9632
-7.9099 -4.5452 -1.7147 0.9636
-6.8627 -5.7805 -1.6865 0.9641
-5.6709 -6.8388 -1.6699 0.9645
-3.6519 -8.0774 -1.6662 0.9646
-1.4034 -8.8708 -1.6881 0.9641
1.0212 -9.1793 -1.7360 0.9631
2.7054 -9.0903 -1.7827 0.9621
4.4172 -8.7448 -1.8415 0.9609
5.2744 -8.4697 -1.8754 0.9602
6.1267 -8.1232 -1.9124 0.9594
8.6004 -6.6320 -2.0413 0.9568
11.5990 -1.4160 -2.1964 0.9536
11.9723 -0.3862 -2.2515 0.9524
8.8427 2.1215 -1.7092 0.9637
7.8352 2.6374 -1.5539 0.9669
4.8744 3.9549 -1.1798 0.9748
4.4781 4.3498 -1.1734 0.9749
3.3965 4.7430 -1.0965 0.9765
2.9391 4.9907 -1.0886 0.9767
2.4784 5.2238 -1.0868 0.9767
2.0106 5.4444 -1.0909 0.9767
0.5299 6.1426 -1.1589 0.9752
-0.0205 6.4347 -1.2095 0.9742
-0.5699 6.1493 -1.1608 0.9752
-4.4548 11.8309 -2.3762 0.9498
-5.3658 11.1263 -2.3218 0.9510
-2.3155 2.2207 -0.6030 0.9870
-9.5554 6.3431 -2.1557 0.9544
-10.1758 2.3729 -1.9640 0.9584
-10.0173 0.5076 -1.8853 0.9600
-9.8377 -0.3800 -1.8505 0.9607
-9.5972 -1.2336 -1.8187 0.9614
-9.2999 -2.0511 -1.7900 0.9620
-8.9499 -2.8305 -1.7644 0.9625
-8.5507 -3.5704 -1.7417 0.9630
-7.0909 -5.5403 -1.6914 0.9640
-5.9273 -6.6356 -1.6724 0.9644
-5.2958 -7.1151 -1.6671 0.9645
-4.6340 -7.5479 -1.6648 0.9646
-2.4870 -8.5551 -1.6746 0.9644
-0.9403 -8.9709 -1.6954 0.9640
-0.1383 -9.0975 -1.7102 0.9636
0.6799 -9.1674 -1.7278 0.9633
1.5120 -9.1786 -1.7485 0.9628
2.3554 -9.1290 -1.7721 0.9624
3.2070 -9.0162 -1.7987 0.9618
4.0636 -8.8379 -1.8284 0.9612
8.5719 2.2484 -1.8732 0.9644
6.7911 3.1556 -1.5829 0.9698
6.0835 3.5173 -1.4854 0.9717
5.4175 3.8144 -1.4005 0.9733
4.4215 4.4796 -1.3304 0.9746
3.2730 4.7800 -1.2246 0.9766
2.8086 5.0073 -1.2136 0.9768
2.3515 5.2385 -1.2138 0.9768
0.7563 3.0450 -0.6632 0.9873
-0.1609 6.6361 -1.4032 0.9732
-0.6850 6.0108 -1.2788 0.9756
-4.0680 10.1503 -2.3115 0.9563
-5.5693 8.8901 -2.2175 0.9580
-6.2032 8.1789 -2.1698 0.9589
-2.3446 2.1557 -0.6732 0.9871
-8.8091 4.5386 -2.0947 0.9603
-8.9875 3.6577 -2.0511 0.9611
-9.0908 2.7850 -2.0098 0.9619
-9.1228 1.9257 -1.9709 0.9626
-8.9879 0.2659 -1.9007 0.9639
-8.8288 -0.5274 -1.8696 0.9645
-8.6136 -1.2921 -1.8411 0.9650
-8.0290 -2.7265 -1.7923 0.9659
-6.3317 -5.1655 -1.7273 0.9671
-5.8139 -5.6776 -1.7177 0.9673
-5.2635 -6.1483 -1.7108 0.9675
-3.4400 -7.3010 -1.7060 0.9675
-2.1015 -7.8415 -1.7160 0.9674
-1.4017 -8.0395 -1.7250 0.9672
0.0485 -8.2836 -1.7510 0.9667
0.7942 -8.3265 -1.7680 0.9664
2.3136 -8.2453 -1.8102 0.9656
4.6159 -7.6785 -1.8938 0.9640
5.3745 -7.3636 -1.9270 0.9634
6.8504 -6.5349 -2.0012 0.9620
7.5565 -6.0187 -2.0420 0.9613
8.2342 -4.4358 -1.9770 0.9625
2.3103 -0.9901 -0.5313 0.9898
9.2910 -3.0342 -2.0660 0.9608
9.7384 -2.2434 -2.1124 0.9600
10.1210 -1.3972 -2.1597 0.9591
10.4302 -0.5005 -2.2073 0.9582
9.0248 2.0158 -1.9547 0.9629
7.9858 2.5491 -1.7720 0.9663
7.1113 2.9917 -1.6308 0.9690
4.1171 4.6339 -1.3103 0.9750
3.4686 4.6864 -1.2324 0.9764
2.0826 5.3780 -1.2191 0.9767
1.6188 5.6247 -1.2372 0.9764
0.5649 2.9216 -0.6290 0.9879
0.6305 6.1747 -1.3120 0.9749
0.0813 6.4931 -1.3726 0.9738
-1.0267 6.1302 -1.3139 0.9749
-2.8357 10.8704 -2.3747 0.9551
-3.7223 10.3768 -2.3303 0.9559
-5.2850 9.1691 -2.2371 0.9577
-5.9517 8.4773 -2.1895 0.9585
-8.7129 4.9024 -2.1133 0.9600
-9.0572 3.1432 -2.0265 0.9616
-9.1180 2.2778 -1.9866 0.9623
-9.1097 1.4287 -1.9492 0.9630
-9.0362 0.6003 -1.9143 0.9637
-8.9013 -0.2039 -1.8821 0.9643
-8.4623 -1.7275 -1.8256 0.9653
-8.1653 -2.4420 -1.8015 0.9658
-7.8210 -3.1223 -1.7801 0.9662
-7.4326 -3.7669 -1.7614 0.9665
-7.0031 -4.3741 -1.7453 0.9668
-4.9257 -6.4053 -1.7080 0.9675
-4.3284 -6.8081 -1.7053 0.9676
-3.7044 -7.1665 -1.7053 0.9676
-3.0557 -7.4795 -1.7079 0.9675
-2.3842 -7.7457 -1.7131 0.9674
-0.9818 -8.1326 -1.7315 0.9671
-0.2551 -8.2503 -1.7448 0.9668
1.2376 -8.3261 -1.7793 0.9662
1.9983 -8.2808 -1.8006 0.9658
2.7648 -8.1775 -1.8247 0.9653
3.5336 -8.0143 -1.8514 0.9648
4.3011 -7.7895 -1.8809 0.9643
7.2688 -6.2397 -2.0249 0.9616
7.9584 -5.6830 -2.0671 0.9608
8.6013 -5.0499 -2.1083 0.9600
9.0897 -3.3430 -2.0472 0.9612
9.9718 -1.7523 -2.1401 0.9595
10.3122 -0.8757 -2.1876 0.9586
10.7503 1.0108 -2.2824 0.9568
9.5194 1.7616 -2.0464 0.9612
8.3896 2.3420 -1.8412 0.9650
4.3294 4.5263 -1.3240 0.9747
3.8208 4.7839 -1.2942 0.9753
3.1903 4.8199 -1.2218 0.9766
1.8113 5.5214 -1.2283 0.9765
0.4439 3.1841 -0.6796 0.9869
0.3136 6.3574 -1.3455 0.9743
-0.2678 6.6997 -1.4173 0.9730
-2.4523 11.0488 -2.3923 0.9548
-3.3649 10.5901 -2.3488 0.9556
-4.2121 10.0497 -2.3034 0.9564
-4.9875 9.4387 -2.2566 0.9573
-5.6866 8.7683 -2.2091 0.9582
-6.3065 8.0493 -2.1615 0.9591
-8.8461 4.3832 -2.0868 0.9604
-9.1015 2.6326 -2.0027 0.9620
-9.0742 0.9389 -1.9283 0.9634
-8.2935 -2.1516 -1.8111 0.9656
-7.9683 -2.8463 -1.7886 0.9660
-7.1849 -4.1285 -1.7516 0.9667
-6.2431 -5.2586 -1.7254 0.9672
-5.7193 -5.7635 -1.7163 0.9673
-5.1635 -6.2268 -1.7099 0.9675
-3.9646 -7.0243 -1.7050 0.9676
-3.3258 -7.3561 -1.7065 0.9675
-2.6635 -7.6418 -1.7106 0.9675
-1.2766 -8.0692 -1.7269 0.9672
-0.5563 -8.2081 -1.7390 0.9669
0.1789 -8.2950 -1.7538 0.9666
0.9266 -8.3284 -1.7713 0.9663
3.9853 -7.8897 -1.8684 0.9645
5.5069 -7.3014 -1.9331 0.9633
6.2509 -6.9089 -1.9694 0.9626
6.9765 -6.4490 -2.0082 0.9619
7.6780 -5.9207 -2.0495 0.9611
8.3486 -5.3236 -2.0930 0.9603
2.3086 -0.9468 -0.5274 0.9899
10.1809 -1.2429 -2.1680 0.9589
10.4764 -0.3379 -2.2157 0.9581
10.0631 1.4821 -2.1501 0.9593
7.8222 2.6330 -1.7446 0.9668
5.5711 3.7495 -1.4195 0.9729
4.4773 4.3490 -1.3194 0.9748
4.0276 4.6792 -1.3050 0.9751
2.4592 5.1834 -1.2127 0.9768
2.0017 5.4205 -1.2214 0.9767
1.5358 5.6697 -1.2416 0.9763
-2.9964 10.7896 -2.3670 0.9553
-4.6771 9.6983 -2.2760 0.9569
-5.4081 9.0510 -2.2287 0.9578
-6.0608 8.3507 -2.1811 0.9587
-7.1479 8.1983 -2.2991 0.9565
-8.1211 6.5039 -2.1993 0.9584
-8.7557 4.7469 -2.1053 0.9601
-9.1215 2.1270 -1.9798 0.9624
-9.1014 1.2813 -1.9428 0.9631
-9.0168 0.4569 -1.9084 0.9638
-8.4136 -1.8556 -1.8212 0.9654
-8.1080 -2.5643 -1.7975 0.9658
-6.9234 -4.4770 -1.7428 0.9669
-6.4490 -5.0387 -1.7299 0.9671
-5.9391 -5.5604 -1.7197 0.9673
-5.3962 -6.0410 -1.7122 0.9674
-3.5920 -7.2249 -1.7055 0.9676
-1.5685 -7.9972 -1.7227 0.9672
-0.8550 -8.1570 -1.7337 0.9670
0.6172 -8.3212 -1.7638 0.9665
9.3490 -0.1046 -2.1974 0.9623
9.4964 0.7427 -2.2387 0.9616
9.5616 1.6146 -2.2790 0.9609
8.5566 2.2443 -2.0790 0.9643
5.4454 3.8339 -1.5652 0.9730
4.8721 4.1261 -1.5005 0.9741
1.7517 3.9024 -1.0053 0.9826
1.9245 5.5696 -1.3849 0.9761
0.4736 3.0461 -0.7245 0.9874
0.4146 6.3695 -1.5002 0.9741
-2.8292 9.4140 -2.3103 0.9604
-3.5950 8.9699 -2.2711 0.9611
-4.9450 7.8936 -2.1891 0.9624
-5.5211 7.2796 -2.1473 0.9632
-6.0282 6.6270 -2.1055 0.9639
-2.3442 2.1553 -0.7484 0.9870
-7.3622 5.6459 -2.1805 0.9626
-7.9314 4.0863 -2.0969 0.9640
-8.1088 3.3001 -2.0575 0.9647
-8.2182 2.5177 -2.0201 0.9653
-8.2624 1.7441 -1.9847 0.9659
-8.2445 0.9841 -1.9514 0.9665
-8.1677 0.2416 -1.9204 0.9670
-7.3344 -2.4907 -1.8204 0.9687
-7.0099 -3.1019 -1.8016 0.9690
-6.6446 -3.6805 -1.7852 0.9693
-5.8022 -4.7335 -1.7599 0.9697
-4.8272 -5.6386 -1.7445 0.9700
-3.7378 -6.3859 -1.7390 0.9701
-3.1556 -6.6974 -1.7400 0.9700
-1.9268 -7.1897 -1.7494 0.9699
-0.6267 -7.4993 -1.7686 0.9696
0.0444 -7.5821 -1.7820 0.9693
0.7263 -7.6151 -1.7979 0.9691
2.8090 -7.4000 -1.8603 0.9680
4.8779 -6.6832 -1.9446 0.9666
6.8207 -5.4326 -2.0493 0.9648
7.4161 -4.8945 -2.0883 0.9641
7.4012 -3.9870 -1.9758 0.9660
2.3061 -0.9883 -0.5897 0.9897
9.0128 -1.2443 -2.1383 0.9633
9.2658 -0.4447 -2.1802 0.9626
9.5450 1.2529 -2.2625 0.9612
9.0080 2.0120 -2.1692 0.9628
7.1002 2.9870 -1.8104 0.9688
6.3550 3.3689 -1.6905 0.9709
5.6969 3.7055 -1.5972 0.9725
4.5550 4.2875 -1.4702 0.9746
3.5270 4.7652 -1.3933 0.9759
2.5815 5.2276 -1.3703 0.9763
0.6390 6.2578 -1.4784 0.9745
0.0819 6.5350 -1.5360 0.9735
-0.5254 6.8363 -1.6114 0.9722
-1.0248 6.1191 -1.4582 0.9748
-3.2863 9.1614 -2.2875 0.9608
-4.0181 8.6775 -2.2474 0.9615
-5.8278 6.9000 -2.1227 0.9636
-7.2084 5.9612 -2.1984 0.9623
-7.5599 5.1914 -2.1553 0.9630
-8.1812 2.8392 -2.0353 0.9650
-7.9324 -0.8933 -1.8761 0.9677
-7.7179 -1.5755 -1.8513 0.9682
-6.7999 -3.4462 -1.7916 0.9692
-6.4119 -4.0048 -1.7767 0.9694
-5.9872 -4.5284 -1.7643 0.9696
-5.5285 -5.0154 -1.7543 0.9698
-5.0380 -5.4648 -1.7469 0.9699
-4.5180 -5.8752 -1.7419 0.9700
-3.9707 -6.2454 -1.7393 0.9700
-2.8028 -6.8604 -1.7417 0.9700
-2.1864 -7.1028 -1.7466 0.9699
-0.8995 -7.4509 -1.7639 0.9696
0.4442 -7.6077 -1.7910 0.9692
1.1313 -7.6107 -1.8083 0.9689
2.5217 -7.4584 -1.8504 0.9682
3.9123 -7.0854 -1.9022 0.9673
4.5984 -6.8127 -1.9317 0.9668
8.1409 -2.9940 -2.0386 0.9650
8.5434 -2.3019 -2.0795 0.9643
9.1701 -0.7787 -2.1629 0.9629
9.3807 0.0424 -2.2047 0.9622
9.5140 0.8946 -2.2459 0.9615
8.3748 2.3378 -2.0435 0.9649
7.4461 2.8151 -1.8709 0.9678
6.6499 3.2179 -1.7362 0.9701
5.9591 3.5715 -1.6328 0.9719
5.3409 3.8872 -1.5525 0.9732
4.7758 4.1752 -1.4909 0.9743
4.3240 4.5206 -1.4702 0.9746
2.7730 5.1312 -1.3708 0.9763
1.6683 3.8783 -0.9923 0.9828
0.6918 2.9846 -0.7200 0.9875
0.3166 6.4183 -1.5103 0.9739
-0.2681 6.7087 -1.5780 0.9728
-2.1584 9.7243 -2.3411 0.9599
-2.9680 9.3410 -2.3035 0.9605
-3.7238 8.8847 -2.2641 0.9612
-4.4197 8.3642 -2.2233 0.9619
-2.3867 2.1262 -0.7512 0.9870
-7.4241 5.5104 -2.1729 0.9627
-7.7321 4.7329 -2.1306 0.9634
-7.9677 3.9479 -2.0899 0.9641
-8.1329 3.1620 -2.0508 0.9648
-8.2306 2.3807 -2.0137 0.9654
-8.1483 0.1130 -1.9152 0.9671
-8.0062 -0.6046 -1.8870 0.9675
-7.8122 -1.2977 -1.8612 0.9680
-7.5693 -1.9637 -1.8378 0.9684
-6.1665 -4.3170 -1.7691 0.9695
-5.2438 -5.2843 -1.7496 0.9699
-4.7357 -5.7109 -1.7436 0.9700
-4.1994 -6.0978 -1.7401 0.9700
-3.6370 -6.4438 -1.7390 0.9701
-2.4427 -7.0084 -1.7443 0.9700
-1.8150 -7.2244 -1.7507 0.9699
-1.1699 -7.3945 -1.7595 0.9697
0.1637 -7.5916 -1.7846 0.9693
1.5384 -7.5881 -1.8197 0.9687
2.9317 -7.3722 -1.8646 0.9679
4.3169 -6.9321 -1.9193 0.9670
4.9966 -6.6248 -1.9502 0.9665
6.9278 -5.3422 -2.0561 0.9647
2.3077 -0.9464 -0.5862 0.9898
8.7538 -1.8723 -2.1039 0.9639
9.0624 -1.1064 -2.1457 0.9632
9.3029 -0.3001 -2.1875 0.9625
9.5539 1.4071 -2.2696 0.9611
8.8104 2.1137 -2.1294 0.9635
7.8092 2.6286 -1.9365 0.9667
6.9614 3.0582 -1.7870 0.9692
6.2336 3.4311 -1.6723 0.9712
4.4764 4.3481 -1.4667 0.9747
2.9656 5.0357 -1.3735 0.9763
2.4999 5.2692 -1.3707 0.9763
2.0351 5.5109 -1.3807 0.9762
0.5167 2.9176 -0.6964 0.9879
0.5439 6.3052 -1.4874 0.9743
-1.3287 7.2339 -1.7286 0.9702
-4.1406 8.5858 -2.2403 0.9616
-5.3914 7.4283 -2.1572 0.9630
-5.9149 6.7841 -2.1153 0.9637
-7.2757 5.8268 -2.1907 0.9624
-7.6141 5.0545 -2.1479 0.9631
-7.8793 4.2718 -2.1065 0.9638
-8.0732 3.4855 -2.0667 0.9645
-8.1984 2.7017 -2.0287 0.9652
-8.1910 0.4150 -1.9275 0.9669
-7.8982 -1.0153 -1.8715 0.9678
-7.0903 -2.9605 -1.8058 0.9689
-6.7343 -3.5470 -1.7888 0.9692
-6.3397 -4.0996 -1.7744 0.9695
-5.9089 -4.6168 -1.7624 0.9697
-5.4444 -5.0973 -1.7528 0.9698
-4.9486 -5.5399 -1.7458 0.9699
-4.4236 -5.9433 -1.7412 0.9700
-3.8717 -6.3063 -1.7392 0.9701
-2.6957 -6.9063 -1.7424 0.9700
-2.0759 -7.1409 -1.7477 0.9699
-0.7833 -7.4726 -1.7659 0.9696
-0.1150 -7.5670 -1.7786 0.9694
2.6444 -7.4346 -1.8546 0.9681
8.5104 0.6656 -2.2102 0.9653
8.5177 2.2341 -2.2800 0.9643
6.7704 3.1460 -1.9330 0.9696
5.4379 3.8287 -1.7220 0.9729
4.4103 4.4683 -1.6256 0.9744
1.7472 3.8922 -1.1046 0.9825
1.9357 5.6020 -1.5346 0.9758
0.7548 3.0387 -0.8107 0.9871
-0.6839 6.0010 -1.5638 0.9754
-1.5024 7.3096 -1.9322 0.9696
-3.8566 7.5845 -2.2031 0.9655
-4.9690 6.5516 -2.1290 0.9666
-2.3438 2.1549 -0.8244 0.9869
-6.9678 4.4169 -2.1360 0.9665
-7.2057 3.7125 -2.0988 0.9671
-7.3796 3.0034 -2.0629 0.9676
-7.5435 1.5924 -1.9962 0.9686
-7.5381 0.8998 -1.9656 0.9691
-7.3659 -0.4400 -1.9106 0.9700
-7.2045 -1.0807 -1.8863 0.9703
-5.3501 -4.3646 -1.7877 0.9719
-3.9644 -5.5673 -1.7696 0.9722
-3.4497 -5.8937 -1.7682 0.9722
-2.9123 -6.1809 -1.7691 0.9722
-1.1846 -6.7944 -1.7857 0.9719
2.5786 -6.7931 -1.8813 0.9704
3.2140 -6.6192 -1.9052 0.9701
5.6494 -5.3892 -2.0215 0.9683
6.7401 -4.4483 -2.0909 0.9672
7.5140 -2.4539 -2.0466 0.9679
7.8422 -1.8066 -2.0837 0.9673
8.1149 -1.1203 -2.1210 0.9667
8.3264 -0.3996 -2.1583 0.9661
8.4713 0.3499 -2.1953 0.9656
8.5446 1.1216 -2.2313 0.9650
8.5418 1.9079 -2.2661 0.9645
7.9586 2.5405 -2.1631 0.9661
7.0890 2.9823 -1.9913 0.9687
6.3456 3.3640 -1.8596 0.9708
5.0958 4.0034 -1.6779 0.9736
3.5461 4.7910 -1.5433 0.9757
3.0705 5.0314 -1.5261 0.9759
0.0817 6.5262 -1.6899 0.9734
-1.0230 6.1078 -1.6034 0.9747
-2.2296 8.5471 -2.2871 0.9642
-2.9384 8.1917 -2.2533 0.9647
-3.5994 7.7734 -2.2180 0.9652
-4.7590 6.7785 -2.1444 0.9664
-5.6818 5.6231 -2.0698 0.9675
-7.1156 4.0036 -2.1140 0.9668
-7.3156 3.2957 -2.0775 0.9674
-7.4528 2.5864 -2.0426 0.9679
-7.5471 1.1836 -1.9780 0.9689
-7.4182 -0.1699 -1.9212 0.9698
-7.2768 -0.8194 -1.8960 0.9702
-7.0877 -1.4469 -1.8730 0.9706
-6.5773 -2.6258 -1.8337 0.9712
-6.2611 -3.1732 -1.8174 0.9714
-5.9078 -3.6900 -1.8035 0.9716
-5.5196 -4.1746 -1.7918 0.9718
-5.0989 -4.6257 -1.7825 0.9720
-4.6481 -5.0418 -1.7755 0.9721
-4.1692 -5.4216 -1.7708 0.9721
-3.6646 -5.7639 -1.7685 0.9722
-3.1363 -6.0674 -1.7684 0.9722
-2.5864 -6.3309 -1.7707 0.9721
-0.8293 -6.8691 -1.7914 0.9718
1.0409 -7.0025 -1.8330 0.9712
4.2080 -6.2343 -1.9475 0.9694
4.8183 -5.9224 -1.9768 0.9689
5.9820 -5.1351 -2.0412 0.9679
6.5254 -4.6598 -2.0761 0.9674
6.9675 -3.2943 -1.9955 0.9687
7.7133 -2.0782 -2.0683 0.9675
8.4200 0.0381 -2.1801 0.9658
8.5234 0.8015 -2.2166 0.9652
8.3599 2.3337 -2.2473 0.9648
4.7696 4.1697 -1.6403 0.9742
3.8115 4.7722 -1.5813 0.9751
1.6628 3.8657 -1.0896 0.9828
1.8516 5.6442 -1.5380 0.9758
0.6934 2.9918 -0.7952 0.9874
0.4325 3.1024 -0.8110 0.9871
0.3162 6.4098 -1.6616 0.9738
-1.9251 8.6735 -2.3004 0.9640
-5.5118 5.8713 -2.0851 0.9673
-6.7226 4.9897 -2.1677 0.9660
-7.0144 4.2936 -2.1294 0.9666
-7.2409 3.5878 -2.0923 0.9672
-7.4038 2.8785 -2.0567 0.9677
-7.5049 2.1708 -2.0228 0.9682
-7.5314 0.7792 -1.9604 0.9692
-6.6961 -2.3918 -1.8410 0.9710
-5.2760 -4.4440 -1.7861 0.9719
-4.8373 -4.8747 -1.7781 0.9720
-3.3567 -5.9471 -1.7682 0.9722
-2.8155 -6.2272 -1.7695 0.9722
-1.0787 -6.8184 -1.7874 0.9719
0.7798 -7.0095 -1.8261 0.9713
2.0528 -6.8977 -1.8633 0.9707
2.6908 -6.7663 -1.8854 0.9704
3.3253 -6.5831 -1.9096 0.9700
6.3052 -4.8622 -2.0616 0.9676
6.8291 -4.3547 -2.0971 0.9671
2.3068 -0.9460 -0.6456 0.9898
7.5755 -2.3430 -2.0531 0.9678
8.1567 -0.9958 -2.1276 0.9666
8.4896 0.4843 -2.2017 0.9655
8.5497 1.2592 -2.2376 0.9649
7.7961 2.6242 -2.1298 0.9666
6.2245 3.4261 -1.8396 0.9711
5.5805 3.7558 -1.7417 0.9726
4.9966 4.0540 -1.6660 0.9738
4.0177 4.6677 -1.5946 0.9749
2.9636 5.0324 -1.5121 0.9762
1.5674 5.7864 -1.5522 0.9755
-2.3576 8.4894 -2.2812 0.9642
-4.3088 7.2113 -2.1750 0.9659
-4.8500 6.6823 -2.1378 0.9665
-2.3235 2.2283 -0.8335 0.9868
-7.1554 3.8794 -2.1074 0.9669
-7.3443 3.1708 -2.0712 0.9675
-7.0497 -1.5548 -1.8692 0.9706
-6.5244 -2.7243 -1.8306 0.9712
-5.8419 -3.7776 -1.8013 0.9717
-5.4478 -4.2565 -1.7900 0.9718
-5.0217 -4.7015 -1.7811 0.9720
-4.0822 -5.4846 -1.7702 0.9721
-3.5733 -5.8202 -1.7683 0.9722
-2.4876 -6.3730 -1.7713 0.9721
-1.9151 -6.5879 -1.7763 0.9721
-1.3259 -6.7601 -1.7837 0.9719
1.7898 -6.9370 -1.8549 0.9708
2.4282 -6.8266 -1.8760 0.9705
3.0645 -6.6649 -1.8993 0.9701
7.6850 2.0157 -2.2491 0.9675
7.5698 2.7268 -2.2778 0.9671
6.7600 3.1412 -2.1102 0.9695
5.4304 3.8234 -1.8801 0.9728
4.8593 4.1153 -1.8027 0.9739
3.8943 4.7219 -1.7327 0.9749
1.7207 3.8331 -1.1894 0.9827
0.7641 3.0763 -0.8974 0.9869
0.4135 6.3528 -1.8022 0.9739
-0.6834 5.9964 -1.7085 0.9752
-2.2807 7.5888 -2.2433 0.9676
-3.4911 6.8657 -2.1805 0.9685
-4.9444 5.4356 -2.0802 0.9699
-6.0752 4.6589 -2.1674 0.9687
-6.3679 4.0367 -2.1344 0.9691
-6.5953 3.3980 -2.1003 0.9696
-6.9331 1.4635 -2.0060 0.9710
-6.8894 0.2038 -1.9512 0.9718
-6.7935 -0.4058 -1.9266 0.9721
-6.6512 -0.9977 -1.9040 0.9724
-6.4651 -1.5693 -1.8834 0.9727
-6.2374 -2.1181 -1.8648 0.9730
-5.9707 -2.6421 -1.8483 0.9732
-5.6672 -3.1391 -1.8340 0.9734
-4.9591 -4.0457 -1.8118 0.9737
-4.1310 -4.8254 -1.7982 0.9739
-3.6773 -5.1642 -1.7947 0.9740
-2.7015 -5.7335 -1.7943 0.9740
0.0379 -6.4685 -1.8312 0.9735
0.6188 -6.4882 -1.8451 0.9733
2.3811 -6.2727 -1.8994 0.9725
2.9649 -6.1061 -1.9216 0.9722
4.1064 -5.6262 -1.9719 0.9715
4.6564 -5.3120 -1.9998 0.9711
5.6934 -4.5347 -2.0605 0.9702
6.1710 -4.0728 -2.0931 0.9697
6.8479 -2.2364 -2.0394 0.9705
7.1356 -1.6438 -2.0729 0.9700
7.3718 -1.0177 -2.1067 0.9695
7.6710 0.3169 -2.1735 0.9686
7.7254 1.0141 -2.2058 0.9681
6.3362 3.3590 -2.0302 0.9706
5.6810 3.6952 -1.9185 0.9722
3.0667 5.0253 -1.6666 0.9758
2.5982 5.2614 -1.6612 0.9759
1.6510 5.7365 -1.6899 0.9755
-0.5240 6.8170 -1.9355 0.9720
-1.0211 6.0969 -1.7500 0.9746
-2.6542 7.3993 -2.2254 0.9678
-5.1730 5.1196 -2.0604 0.9702
-5.5176 4.5629 -2.0269 0.9707
-6.2570 4.2967 -2.1487 0.9689
-6.5087 3.6622 -2.1142 0.9694
-6.8369 2.3727 -2.0487 0.9704
-6.9162 1.7278 -2.0181 0.9708
-6.9150 0.4594 -1.9619 0.9716
-6.7153 -0.7562 -1.9131 0.9723
-6.0852 -2.4293 -1.8549 0.9731
-5.7965 -2.9377 -1.8397 0.9733
-5.4725 -3.4181 -1.8266 0.9735
-5.1153 -3.8689 -1.8157 0.9737
-4.7273 -4.2886 -1.8069 0.9738
-3.3995 -5.3469 -1.7937 0.9740
-2.9094 -5.6284 -1.7936 0.9740
-1.8707 -6.0773 -1.8001 0.9739
-1.3264 -6.2423 -1.8066 0.9738
0.3787 -6.4855 -1.8391 0.9734
0.9630 -6.4788 -1.8542 0.9731
2.1392 -6.3273 -1.8908 0.9726
2.7251 -6.1806 -1.9122 0.9723
3.3049 -5.9854 -1.9356 0.9720
4.4320 -5.4474 -1.9880 0.9712
5.4880 -4.7110 -2.0475 0.9704
6.4179 -3.7680 -2.1069 0.9695
6.3640 -3.0089 -1.9928 0.9712
7.4847 -0.6356 -2.1265 0.9693
7.6295 0.0345 -2.1599 0.9688
7.7256 1.4297 -2.2242 0.9679
6.6297 3.2082 -2.0850 0.9698
5.9421 3.5613 -1.9612 0.9716
4.7633 4.1643 -1.7911 0.9740
3.8067 4.7663 -1.7268 0.9750
1.8493 5.6372 -1.6795 0.9756
0.6966 3.0055 -0.8734 0.9873
0.3158 6.4013 -1.8144 0.9737
-0.2674 6.6902 -1.8955 0.9725
-0.7782 5.9906 -1.7101 0.9752
-2.3939 7.5343 -2.2380 0.9677
-3.0135 7.1900 -2.2070 0.9681
-3.5890 6.7921 -2.1747 0.9686
-4.1164 6.3471 -2.1416 0.9690
-4.5924 5.8615 -2.1080 0.9695
-2.3830 2.1229 -0.9035 0.9868
-6.1347 4.5534 -2.1628 0.9687
-6.4122 3.9249 -2.1283 0.9692
-6.6292 3.2847 -2.0944 0.9697
-6.7880 2.6391 -2.0618 0.9702
-6.8902 1.9930 -2.0305 0.9706
-6.9321 0.7172 -1.9729 0.9714
-6.8760 0.0953 -1.9467 0.9718
-6.7717 -0.5114 -1.9225 0.9722
-6.6216 -1.0999 -1.9002 0.9725
-6.1932 -2.2122 -1.8618 0.9730
-5.6101 -3.2237 -1.8317 0.9735
-5.2664 -3.6868 -1.8199 0.9736
-4.8908 -4.1195 -1.8102 0.9738
-3.5950 -5.2202 -1.7943 0.9740
-3.1139 -5.5169 -1.7934 0.9740
-1.5525 -6.1793 -1.8037 0.9739
0.7217 -6.4870 -1.8478 0.9732
1.8969 -6.3739 -1.8826 0.9727
4.2044 -5.5745 -1.9766 0.9714
4.7513 -5.2515 -2.0048 0.9710
6.2473 -3.9837 -2.0975 0.9697
6.9021 -2.1347 -2.0452 0.9704
7.1810 -1.5359 -2.0789 0.9699
7.4077 -0.9043 -2.1126 0.9695
7.6854 0.4385 -2.1792 0.9685
7.7280 1.1381 -2.2113 0.9680
7.7015 1.8477 -2.2421 0.9676
6.9397 3.0487 -2.1458 0.9690
2.9600 5.0262 -1.6513 0.9760
2.5159 5.3028 -1.6616 0.9759
2.0455 5.5389 -1.6715 0.9758
1.5654 5.7792 -1.6950 0.9754
0.5425 6.2888 -1.7869 0.9741
-0.0209 6.5682 -1.8594 0.9731
-1.3247 7.2120 -2.0758 0.9700
-2.7633 7.3387 -2.2199 0.9679
-3.3575 6.9621 -2.1881 0.9684
-3.9052 6.5357 -2.1553 0.9688
-4.8474 5.5597 -2.0881 0.9698
-5.5725 4.4628 -2.0211 0.9708
-6.3056 4.1859 -2.1426 0.9690
-6.7296 2.9054 -2.0751 0.9700
-6.8549 2.2589 -2.0432 0.9704
-6.9245 1.6147 -2.0129 0.9709
-6.9406 0.9771 -1.9842 0.9713
-6.9051 0.3499 -1.9573 0.9717
-6.8204 -0.2634 -1.9322 0.9720
-6.2948 -1.9908 -1.8690 0.9729
-6.0370 -2.5208 -1.8520 0.9732
-5.7420 -3.0243 -1.8372 0.9734
-5.4120 -3.4996 -1.8245 0.9736
-5.0492 -3.9451 -1.8140 0.9737
-3.7866 -5.0874 -1.7954 0.9740
-3.3147 -5.3991 -1.7935 0.9740
-2.8210 -5.6741 -1.7939 0.9740
-1.2292 -6.2671 -1.8080 0.9738
-0.6691 -6.3835 -1.8170 0.9737
-0.0982 -6.4574 -1.8283 0.9735
1.0663 -6.4729 -1.8571 0.9731
2.2426 -6.3050 -1.8944 0.9726
2.8277 -6.1498 -1.9162 0.9723
6.9495 -0.0778 -2.1377 0.9713
7.0251 0.5494 -2.1674 0.9709
7.0404 1.1888 -2.1961 0.9706
6.9926 1.8341 -2.2235 0.9702
6.0484 3.4971 -2.1489 0.9712
4.8528 4.1098 -1.9560 0.9737
4.3977 4.4555 -1.9255 0.9741
3.8894 4.7159 -1.8802 0.9747
1.7073 3.8033 -1.2823 0.9827
0.8154 3.2828 -1.0404 0.9859
0.4722 3.0376 -0.9455 0.9872
-1.4690 7.1473 -2.2443 0.9699
-2.0757 6.9068 -2.2182 0.9703
-3.6793 5.8732 -2.1317 0.9714
-4.5296 4.9796 -2.0705 0.9722
-2.3429 2.1541 -0.9789 0.9868
-5.1839 3.9754 -2.0093 0.9730
-6.0741 3.1294 -2.1016 0.9718
-6.4182 0.7661 -1.9881 0.9733
-6.3808 0.1887 -1.9635 0.9736
-6.2978 -0.3762 -1.9405 0.9739
-4.9600 -3.3576 -1.8423 0.9752
-3.8483 -4.4951 -1.8201 0.9755
-3.4261 -4.8114 -1.8168 0.9756
-2.9817 -5.0941 -1.8155 0.9756
-2.0341 -5.5537 -1.8192 0.9756
-1.5352 -5.7284 -1.8241 0.9755
-1.0225 -5.8647 -1.8311 0.9754
-0.4982 -5.9617 -1.8401 0.9753
2.7491 -5.6616 -1.9358 0.9740
4.3047 -4.9107 -2.0086 0.9730
4.7898 -4.5692 -2.0361 0.9727
5.2513 -4.1826 -2.0649 0.9723
5.6829 -3.7506 -2.0943 0.9719
6.2838 -2.0521 -2.0332 0.9727
6.5388 -1.5064 -2.0639 0.9723
6.7461 -0.9313 -2.0946 0.9719
7.0200 1.5680 -2.2124 0.9703
6.9343 2.2135 -2.2389 0.9700
6.3267 3.3539 -2.2025 0.9705
5.6729 3.6899 -2.0815 0.9721
5.0820 3.9927 -1.9878 0.9733
4.5373 4.2709 -1.9166 0.9743
3.5373 4.7792 -1.8288 0.9754
3.0629 5.0191 -1.8085 0.9757
1.6489 5.7293 -1.8337 0.9754
0.5549 2.8697 -0.8990 0.9878
0.0815 6.5085 -2.0020 0.9731
-0.5232 6.8073 -2.0999 0.9718
-1.8294 7.0128 -2.2292 0.9701
-3.4811 6.0395 -2.1441 0.9712
-4.3701 5.1742 -2.0832 0.9721
-5.7476 3.9468 -2.1445 0.9712
-6.3894 1.5962 -2.0256 0.9728
-6.4198 1.0069 -1.9987 0.9732
-6.3374 -0.1452 -1.9498 0.9738
-6.2285 -0.7014 -1.9279 0.9741
-6.0773 -1.2406 -1.9078 0.9744
-5.0925 -3.1807 -1.8468 0.9752
-4.4023 -3.9938 -1.8282 0.9754
-4.0152 -4.3554 -1.8220 0.9755
-3.1674 -4.9818 -1.8158 0.9756
-2.7107 -5.2441 -1.8157 0.9756
-2.2351 -5.4709 -1.8177 0.9756
-1.7425 -5.6610 -1.8218 0.9755
-0.1855 -5.9999 -1.8463 0.9752
0.3522 -6.0322 -1.8585 0.9750
0.8952 -6.0225 -1.8728 0.9748
1.4407 -5.9699 -1.8889 0.9746
1.9858 -5.8736 -1.9071 0.9744
2.5276 -5.7327 -1.9270 0.9741
3.5877 -5.3154 -1.9725 0.9735
4.0990 -5.0382 -1.9977 0.9732
5.0644 -4.3473 -2.0529 0.9725
5.9060 -3.4675 -2.1065 0.9717
5.8507 -2.7662 -1.9905 0.9733
6.8440 -0.5812 -2.1127 0.9717
6.9671 0.0315 -2.1429 0.9713
7.0323 0.6612 -2.1725 0.9709
7.0366 1.3022 -2.2011 0.9705
6.9775 1.9478 -2.2282 0.9701
6.8533 2.5910 -2.2535 0.9698
4.7570 4.1587 -1.9435 0.9739
4.3075 4.5034 -1.9168 0.9743
3.8019 4.7603 -1.8738 0.9748
3.2572 4.9209 -1.8151 0.9756
0.4323 3.1005 -0.9629 0.9870
0.3154 6.3927 -1.9687 0.9736
-0.2670 6.6808 -2.0565 0.9724
-0.7773 5.9840 -1.8560 0.9751
-1.5779 7.1092 -2.2398 0.9700
-2.1792 6.8585 -2.2135 0.9703
-2.7466 6.5533 -2.1855 0.9707
-3.7617 5.8002 -2.1264 0.9715
-4.2024 5.3637 -2.0958 0.9719
-4.5952 4.8950 -2.0651 0.9723
-5.2319 3.8832 -2.0040 0.9731
-5.8993 3.6110 -2.1274 0.9715
-6.3624 1.8403 -2.0372 0.9727
-6.4150 0.6637 -1.9836 0.9734
-6.3694 0.0883 -1.9593 0.9737
-6.1445 -1.0207 -1.9158 0.9743
-5.9694 -1.5487 -1.8969 0.9745
-5.7555 -2.0558 -1.8798 0.9747
-5.2195 -2.9992 -1.8516 0.9751
-4.5540 -3.8358 -1.8314 0.9754
-3.7757 -4.5532 -1.8193 0.9755
-3.3495 -4.8637 -1.8164 0.9756
-2.9013 -5.1403 -1.8155 0.9756
-2.4332 -5.3819 -1.8167 0.9756
-1.4459 -5.7552 -1.8252 0.9755
-0.9310 -5.8847 -1.8325 0.9754
1.2158 -5.9969 -1.8820 0.9747
2.3050 -5.7962 -1.9186 0.9742
3.8903 -5.1580 -1.9871 0.9733
4.8729 -4.5044 -2.0411 0.9726
5.3298 -4.1100 -2.0701 0.9722
5.7098 -2.9611 -1.9783 0.9734
2.3059 -0.9456 -0.7666 0.9896
6.3319 -1.9583 -2.0386 0.9726
6.5789 -1.4072 -2.0693 0.9722
6.7773 -0.8274 -2.1000 0.9718
6.9232 -0.2233 -2.1305 0.9714
7.0126 0.4001 -2.1604 0.9710
6.7495 2.9651 -2.2675 0.9696
6.2061 3.4160 -2.1789 0.9708
4.9832 4.0432 -1.9738 0.9735
4.0075 4.6559 -1.8895 0.9746
2.9564 5.0200 -1.7919 0.9759
2.0430 5.5321 -1.8139 0.9756
-0.0209 6.5592 -2.0175 0.9729
-0.6360 6.8629 -2.1199 0.9716
-1.9353 6.9687 -2.2245 0.9702
-2.5173 6.6853 -2.1972 0.9705
-3.0625 6.3504 -2.1685 0.9709
-4.0265 5.5478 -2.1084 0.9717
-2.3290 2.2336 -0.9925 0.9866
-5.1172 4.0982 -2.0165 0.9729
-6.0277 3.2680 -2.1090 0.9717
-6.3984 1.4920 -2.0208 0.9729
-6.4201 0.9038 -1.9942 0.9732
-6.3938 0.3240 -1.9691 0.9736
-6.2049 -0.7976 -1.9242 0.9742
-5.6124 -2.3434 -1.8707 0.9749
-5.0365 -3.2569 -1.8448 0.9752
-4.7008 -3.6729 -1.8349 0.9753
-3.9444 -4.4157 -1.8211 0.9755
-3.5278 -4.7398 -1.8173 0.9756
-2.6283 -5.2867 -1.8159 0.9756
-2.1496 -5.5071 -1.8183 0.9756
-0.6229 -5.9424 -1.8378 0.9753
0.4475 -6.0336 -1.8609 0.9750
2.0815 -5.8520 -1.9104 0.9743
6.3884 -0.0715 -2.1237 0.9734
6.4073 1.6806 -2.2019 0.9725
6.2979 2.2686 -2.2252 0.9722
5.4152 3.8127 -2.2015 0.9725
4.8463 4.1043 -2.1110 0.9736
2.8662 5.1101 -1.9476 0.9756
1.9285 5.5812 -1.9628 0.9754
0.8235 3.3154 -1.1355 0.9857
0.4719 3.0355 -1.0212 0.9871
-0.1605 6.6189 -2.2008 0.9725
-1.3450 6.5439 -2.2207 0.9722
-1.9023 6.3299 -2.1970 0.9725
-3.3831 5.4003 -2.1182 0.9735
-4.7886 3.6723 -2.0059 0.9749
-5.8896 1.8043 -2.0476 0.9744
-5.9660 0.7121 -1.9972 0.9750
-5.8639 -0.3503 -1.9527 0.9755
-5.7504 -0.8626 -1.9328 0.9758
-5.4077 -1.8364 -1.8984 0.9762
-5.1825 -2.2933 -1.8838 0.9764
-4.9241 -2.7275 -1.8711 0.9766
-4.6345 -3.1372 -1.8603 0.9767
-4.3157 -3.5208 -1.8514 0.9768
-3.9697 -3.8767 -1.8444 0.9769
-3.2042 -4.4998 -1.8362 0.9770
-2.3539 -4.9960 -1.8358 0.9770
-1.4354 -5.3559 -1.8432 0.9769
-0.9558 -5.4820 -1.8497 0.9768
-0.4656 -5.5709 -1.8582 0.9767
0.0329 -5.6215 -1.8686 0.9766
0.5373 -5.6330 -1.8809 0.9764
2.0593 -5.4249 -1.9288 0.9758
3.9985 -4.5614 -2.0163 0.9748
4.4448 -4.2401 -2.0419 0.9744
4.8681 -3.8774 -2.0687 0.9741
5.2242 -2.8143 -1.9725 0.9753
2.2967 -0.9843 -0.8306 0.9895
6.0277 -1.3886 -2.0561 0.9743
6.4316 0.2657 -2.1397 0.9732
6.0021 3.1818 -2.2581 0.9718
5.0750 3.9872 -2.1453 0.9732
4.5313 4.2652 -2.0685 0.9741
4.0207 4.5254 -2.0122 0.9748
1.6468 5.7220 -1.9792 0.9752
0.5564 2.8777 -0.9743 0.9877
0.0814 6.4995 -2.1606 0.9730
-0.5189 6.7515 -2.2509 0.9719
-2.7260 5.8871 -2.1565 0.9730
-3.1993 5.5505 -2.1296 0.9734
-3.6334 5.1752 -2.1019 0.9737
-4.0256 4.7663 -2.0738 0.9740
-4.6771 3.8679 -2.0174 0.9747
-4.9342 3.3883 -1.9896 0.9751
-5.7220 2.5778 -2.0861 0.9739
-5.8507 2.0304 -2.0586 0.9742
-5.6652 -1.1565 -1.9220 0.9759
-5.4903 -1.6420 -1.9049 0.9761
-5.2794 -2.1077 -1.8896 0.9763
-4.7575 -2.9715 -1.8645 0.9766
-3.7544 -4.0724 -1.8412 0.9769
-3.3694 -4.3815 -1.8373 0.9770
-1.6294 -5.2933 -1.8410 0.9769
-0.1733 -5.6053 -1.8641 0.9766
0.3289 -5.6331 -1.8757 0.9765
0.8355 -5.6212 -1.8890 0.9763
1.3439 -5.5689 -1.9043 0.9761
2.3546 -5.3404 -1.9401 0.9757
3.8089 -4.6816 -2.0062 0.9749
4.2635 -4.3775 -2.0312 0.9746
5.4641 -3.2081 -2.1062 0.9736
5.4084 -2.5571 -1.9886 0.9751
5.6932 -2.0938 -2.0164 0.9748
5.9388 -1.6001 -2.0445 0.9744
6.1414 -1.0792 -2.0727 0.9741
6.2974 -0.5348 -2.1008 0.9737
6.4033 0.0289 -2.1285 0.9734
6.4530 1.1942 -2.1814 0.9727
6.3923 1.7844 -2.2061 0.9724
6.2725 2.3714 -2.2291 0.9721
6.0932 2.9486 -2.2501 0.9719
5.3116 3.8659 -2.1837 0.9727
4.7506 4.1532 -2.0975 0.9738
-1.4449 6.5101 -2.2167 0.9723
-1.9976 6.2868 -2.1927 0.9726
-2.5203 6.0133 -2.1673 0.9729
-3.0089 5.6941 -2.1408 0.9732
-3.4595 5.3342 -2.1134 0.9736
-4.2358 4.5122 -2.0572 0.9743
-2.3798 2.1201 -1.0594 0.9867
-4.8339 3.5878 -2.0010 0.9749
-5.6547 2.8019 -2.0978 0.9737
-5.9038 1.7077 -2.0429 0.9744
-5.9569 1.1600 -2.0173 0.9747
-5.1394 -2.3714 -1.8815 0.9764
-4.5805 -3.2067 -1.8586 0.9767
-4.2567 -3.5855 -1.8500 0.9768
-3.9062 -3.9364 -1.8434 0.9769
-3.1325 -4.5487 -1.8359 0.9770
-2.7135 -4.8075 -1.8350 0.9770
-2.2756 -5.0332 -1.8361 0.9770
-1.3518 -5.3807 -1.8442 0.9769
0.6265 -5.6309 -1.8833 0.9764
2.1479 -5.4011 -1.9321 0.9758
2.6475 -5.2413 -1.9519 0.9756
3.1381 -5.0392 -1.9733 0.9753
3.6163 -4.7947 -1.9963 0.9750
4.0786 -4.5079 -2.0207 0.9747
4.5211 -4.1792 -2.0465 0.9744
5.2806 -2.7385 -1.9773 0.9752
6.0634 -1.2969 -2.0611 0.9742
6.2390 -0.7617 -2.0893 0.9739
6.3660 -0.2053 -2.1172 0.9735
6.4612 0.9516 -2.1709 0.9728
6.4244 1.5413 -2.1961 0.9725
5.5569 3.7400 -2.2265 0.9722
2.5096 5.2897 -1.9462 0.9756
2.0404 5.5252 -1.9578 0.9755
1.5615 5.7646 -1.9852 0.9751
0.5088 2.8726 -0.9697 0.9878
-0.0208 6.5500 -2.1773 0.9728
-0.6239 6.7320 -2.2473 0.9719
-1.7732 6.3851 -2.2028 0.9725
-2.3089 6.1318 -2.1779 0.9728
-3.2786 5.4871 -2.1247 0.9734
-2.3338 2.2382 -1.0749 0.9865
-4.7257 3.7847 -2.0125 0.9748
-5.3504 3.5517 -2.1347 0.9733
-5.9406 1.3853 -2.0277 0.9746
-5.9473 0.3014 -1.9795 0.9752
-5.8848 -0.2273 -1.9576 0.9755
-5.6371 -1.2433 -1.9188 0.9760
-5.2387 -2.1874 -1.8871 0.9764
-3.6883 -4.1290 -1.8404 0.9769
-3.2992 -4.4326 -1.8368 0.9770
-2.4581 -4.9443 -1.8354 0.9770
-1.5468 -5.3208 -1.8419 0.9769
-1.0700 -5.4556 -1.8480 0.9768
-0.5821 -5.5533 -1.8561 0.9767
-0.0853 -5.6130 -1.8660 0.9766
0.9250 -5.6149 -1.8916 0.9763
1.4334 -5.5554 -1.9071 0.9761
5.9046 -0.0661 -2.1116 0.9752
5.9564 0.4658 -2.1365 0.9749
5.7999 2.0893 -2.2046 0.9742
5.6401 2.6208 -2.2241 0.9739
5.4265 3.1375 -2.2416 0.9737
5.1601 3.6331 -2.2568 0.9735
4.8396 4.0986 -2.2679 0.9734
4.0687 4.1222 -2.0712 0.9757
3.5984 4.3632 -2.0225 0.9763
3.3322 4.8664 -2.1091 0.9753
2.8626 5.1037 -2.0926 0.9754
1.9261 5.5741 -2.1090 0.9753
1.4443 5.8146 -2.1425 0.9749
0.4529 2.9130 -1.0542 0.9876
0.4094 6.2896 -2.2539 0.9736
-0.1517 6.2572 -2.2383 0.9738
-0.6819 5.9837 -2.1537 0.9747
-1.7536 5.8351 -2.1789 0.9744
-2.2427 5.5959 -2.1559 0.9747
-3.1274 4.9922 -2.1066 0.9753
-3.8668 4.2509 -2.0550 0.9759
-2.3420 2.1533 -1.1377 0.9866
-5.0199 3.1822 -2.1254 0.9751
-5.5491 1.1714 -2.0281 0.9762
-5.5677 0.6646 -2.0052 0.9765
-5.4807 -0.3274 -1.9634 0.9769
-5.3781 -0.8068 -1.9448 0.9772
-5.2384 -1.2716 -1.9277 0.9774
-5.0635 -1.7195 -1.9123 0.9775
-4.8550 -2.1484 -1.8986 0.9777
-4.3450 -2.9413 -1.8763 0.9780
-3.7238 -3.6365 -1.8613 0.9781
-2.2087 -4.6878 -1.8531 0.9782
-1.7846 -4.8727 -1.8557 0.9782
-1.3465 -5.0242 -1.8601 0.9781
-0.8964 -5.1414 -1.8663 0.9781
0.0308 -5.2689 -1.8842 0.9779
0.5034 -5.2775 -1.8958 0.9777
2.3931 -4.9286 -1.9593 0.9770
2.8514 -4.7433 -1.9791 0.9768
3.2979 -4.5184 -2.0004 0.9765
3.7292 -4.2542 -2.0231 0.9763
4.1419 -3.9511 -2.0470 0.9760
4.8547 -2.6152 -1.9720 0.9768
5.3784 -1.7565 -2.0233 0.9763
5.7491 -0.7937 -2.0754 0.9756
5.8689 -0.2816 -2.1012 0.9753
5.9411 0.2454 -2.1264 0.9751
5.9333 1.3253 -2.1741 0.9745
5.8500 1.8674 -2.1960 0.9743
4.2701 4.0193 -2.0971 0.9754
3.7890 4.2647 -2.0401 0.9761
3.5283 4.7670 -2.1209 0.9751
2.5885 5.2417 -2.0906 0.9755
0.5771 2.9848 -1.0872 0.9872
-0.4775 6.2120 -2.2280 0.9739
-1.0158 6.0650 -2.1991 0.9742
-2.9563 5.1290 -2.1170 0.9752
-3.7273 4.4131 -2.0657 0.9758
-4.0539 4.0121 -2.0397 0.9761
-4.5824 3.1467 -1.9879 0.9767
-5.1525 2.8991 -2.1142 0.9752
-5.3242 2.3986 -2.0883 0.9755
-5.4490 1.8910 -2.0626 0.9758
-5.1397 -1.5371 -1.9184 0.9775
-3.8601 -3.5019 -1.8638 0.9781
-2.3789 -4.6021 -1.8526 0.9782
-1.9612 -4.8005 -1.8544 0.9782
-1.5286 -4.9659 -1.8581 0.9782
-1.0831 -5.0974 -1.8636 0.9781
-0.6270 -5.1939 -1.8709 0.9780
-0.1625 -5.2545 -1.8800 0.9779
1.7321 -5.1230 -1.9339 0.9773
2.2016 -4.9934 -1.9516 0.9771
3.5536 -4.3678 -2.0136 0.9764
4.3744 -3.7550 -2.0616 0.9758
4.7500 -3.3919 -2.0873 0.9755
4.7334 -2.7791 -1.9629 0.9770
5.2822 -1.9426 -2.0126 0.9764
5.5045 -1.4831 -2.0387 0.9761
5.6866 -0.9993 -2.0647 0.9758
5.8252 -0.4947 -2.0906 0.9755
5.9173 0.0267 -2.1161 0.9752
5.9603 0.5604 -2.1408 0.9749
5.8908 1.6444 -2.1871 0.9744
5.7757 2.1836 -2.2081 0.9741
5.1079 3.7176 -2.2592 0.9735
4.7442 4.1475 -2.2535 0.9736
3.9841 4.1653 -2.0612 0.9758
3.5207 4.4082 -2.0175 0.9763
3.2490 4.9085 -2.1050 0.9753
2.7805 5.1450 -2.0914 0.9755
1.6380 3.8079 -1.4824 0.9825
1.8423 5.6159 -2.1136 0.9752
0.7004 3.0219 -1.1093 0.9869
-0.2496 6.2456 -2.2353 0.9738
-1.3311 5.9971 -2.1968 0.9742
-1.8417 5.7963 -2.1749 0.9745
-3.1986 4.9320 -2.1022 0.9753
-4.4874 3.3306 -1.9984 0.9765
-5.0612 3.0980 -2.1221 0.9751
-5.4030 2.1006 -2.0730 0.9757
-5.5666 0.5760 -2.0013 0.9765
-5.5361 0.0768 -1.9799 0.9768
-5.3562 -0.8897 -1.9416 0.9772
-5.2102 -1.3517 -1.9249 0.9774
-5.0291 -1.7964 -1.9097 0.9776
-4.8150 -2.2217 -1.8963 0.9777
-4.5695 -2.6257 -1.8846 0.9779
-2.5461 -4.5111 -1.8524 0.9782
-2.1352 -4.7227 -1.8535 0.9782
-1.7085 -4.9018 -1.8564 0.9782
-0.8161 -5.1584 -1.8676 0.9781
0.1137 -5.2731 -1.8861 0.9778
0.5869 -5.2751 -1.8981 0.9777
1.0622 -5.2393 -1.9117 0.9775
2.0089 -5.0516 -1.9441 0.9772
4.2123 -3.8938 -2.0514 0.9759
4.5984 -3.5460 -2.0766 0.9756
4.9062 -2.5444 -1.9764 0.9768
2.3061 -0.9457 -0.8913 0.9895
5.6167 -1.2013 -2.0540 0.9759
5.7736 -0.7048 -2.0800 0.9756
5.9225 1.4209 -2.1780 0.9745
5.8297 1.9623 -2.1997 0.9742
5.4817 3.0172 -2.2376 0.9738
5.2276 3.5183 -2.2534 0.9736
3.4442 4.8096 -2.1155 0.9752
2.0378 5.5181 -2.1036 0.9753
1.5594 5.7572 -2.1330 0.9750
0.5403 6.2635 -2.2482 0.9736
-0.0200 6.2699 -2.2422 0.9737
-1.1141 6.0655 -2.2053 0.9741
-1.6343 5.8849 -2.1841 0.9744
-2.1299 5.6564 -2.1614 0.9747
-2.5964 5.3838 -2.1375 0.9749
-3.0302 5.0713 -2.1126 0.9752
-3.4281 4.7233 -2.0871 0.9755
-3.7877 4.3444 -2.0611 0.9758
-2.3433 2.2473 -1.1611 0.9863
-4.3851 3.5119 -2.0091 0.9764
-5.5385 1.2915 -2.0337 0.9761
-5.4993 -0.2124 -1.9680 0.9769
-5.4057 -0.6949 -1.9490 0.9771
-5.2746 -1.1633 -1.9316 0.9773
-4.9071 -2.0490 -1.9016 0.9777
-4.6743 -2.4620 -1.8892 0.9778
-3.4603 -3.8737 -1.8575 0.9782
-2.3065 -4.6394 -1.8528 0.9782
-1.4511 -4.9915 -1.8589 0.9782
-1.0036 -5.1169 -1.8647 0.9781
1.3417 -5.2003 -1.9206 0.9774
2.2836 -4.9666 -1.9548 0.9770
5.4825 -0.0613 -2.1011 0.9768
5.5260 0.4322 -2.1241 0.9765
5.5223 0.9325 -2.1462 0.9763
5.3685 1.9338 -2.1867 0.9759
5.2172 2.4243 -2.2046 0.9757
5.0166 2.9005 -2.2206 0.9755
3.5928 4.3564 -2.1640 0.9761
3.3278 4.8601 -2.2573 0.9751
2.8589 5.0971 -2.2396 0.9753
-1.1468 5.5798 -2.1830 0.9759
-2.5070 4.9304 -2.1196 0.9766
-2.3416 2.1529 -1.2190 0.9865
-4.1422 3.1765 -2.0004 0.9779
-4.3562 2.7614 -1.9765 0.9781
-4.8813 2.5149 -2.1043 0.9768
-5.0277 2.0462 -2.0802 0.9770
-5.1393 -0.3070 -1.9730 0.9782
-4.7558 -1.6150 -1.9247 0.9787
-4.5620 -2.0187 -1.9117 0.9789
-4.0857 -2.7657 -1.8907 0.9791
-3.8068 -3.1056 -1.8827 0.9792
-3.5032 -3.4211 -1.8764 0.9792
-3.1767 -3.7106 -1.8719 0.9793
-2.8291 -3.9730 -1.8691 0.9793
-0.8431 -4.8361 -1.8812 0.9792
0.4730 -4.9595 -1.9092 0.9789
1.8075 -4.7617 -1.9518 0.9784
3.0889 -4.2320 -2.0078 0.9778
3.4904 -3.9817 -2.0291 0.9776
4.5291 -2.4399 -1.9715 0.9782
5.0090 -1.6358 -2.0193 0.9777
5.1964 -1.1971 -2.0435 0.9774
5.3448 -0.7379 -2.0676 0.9772
5.4514 -0.2616 -2.0915 0.9769
5.4976 1.2279 -2.1587 0.9762
5.4164 1.7290 -2.1788 0.9759
5.1051 2.7063 -2.2143 0.9756
4.8760 3.1716 -2.2291 0.9754
4.5998 3.6138 -2.2417 0.9753
3.7840 4.2591 -2.1833 0.9759
3.0513 5.0000 -2.2447 0.9752
1.6289 5.6598 -2.2570 0.9751
0.5768 2.9831 -1.1644 0.9871
0.5930 5.8079 -2.2373 0.9753
0.0727 5.8025 -2.2238 0.9754
-0.4416 5.7453 -2.2082 0.9756
-0.9443 5.6380 -2.1907 0.9758
-1.4303 5.4829 -2.1715 0.9760
-2.3343 5.0412 -2.1289 0.9765
-3.1227 4.4478 -2.0826 0.9770
-3.7734 3.7344 -2.0345 0.9775
-2.5741 2.1287 -1.2801 0.9858
-4.8020 2.7019 -2.1115 0.9767
-4.9729 2.2403 -2.0902 0.9769
-5.0936 1.7677 -2.0661 0.9772
-5.2102 0.8171 -2.0210 0.9777
-5.1671 -0.1183 -1.9806 0.9781
-5.0889 -0.5730 -1.9625 0.9783
-4.9748 -1.0155 -1.9457 0.9785
-4.8265 -1.4435 -1.9305 0.9787
-4.6456 -1.8546 -1.9169 0.9788
-4.4338 -2.2471 -1.9049 0.9789
-3.9248 -2.9685 -1.8858 0.9791
-2.2386 -4.3307 -1.8682 0.9793
-1.8454 -4.5171 -1.8699 0.9793
-0.1528 -4.9403 -1.8941 0.9790
0.7352 -4.9465 -1.9164 0.9788
1.6257 -4.8084 -1.9451 0.9785
2.9190 -4.3245 -1.9994 0.9779
3.3270 -4.0893 -2.0202 0.9777
3.7182 -3.8176 -2.0422 0.9774
4.0892 -3.5102 -2.0652 0.9772
4.4364 -3.1680 -2.0891 0.9769
4.4147 -2.5919 -1.9618 0.9783
4.9211 -1.8099 -2.0094 0.9778
5.4127 -0.4596 -2.0817 0.9770
5.5288 0.5199 -2.1281 0.9765
5.5167 1.0209 -2.1500 0.9763
5.1854 2.5093 -2.2076 0.9756
4.4163 3.8609 -2.2480 0.9752
3.9788 4.1597 -2.2059 0.9756
1.6330 3.7963 -1.5837 0.9825
1.8380 5.6031 -2.2598 0.9751
0.7029 3.0326 -1.1930 0.9868
0.8079 5.7947 -2.2421 0.9752
0.2867 5.8111 -2.2296 0.9754
-0.2308 5.7751 -2.2149 0.9755
-1.7064 5.3706 -2.1595 0.9762
-2.1566 5.1456 -2.1381 0.9764
-2.5793 4.8811 -2.1156 0.9766
-2.3765 2.1171 -1.2197 0.9865
-4.1827 3.1045 -1.9961 0.9779
-4.9109 2.4333 -2.1003 0.9768
-5.1995 1.0126 -2.0300 0.9776
-5.2137 0.5394 -2.0086 0.9778
