ply
format ascii 1.0
element vertex 1583
property float32 x
property float32 y
property float32 z
property float32 I
end_header
14.3576 -1.1863 0.2434 0.9440
11.8644 0.0834 0.2004 0.9536
10.3166 0.9987 0.1751 0.9594
5.9313 3.5865 0.1171 0.9727
1.9292 5.9975 0.1064 0.9751
1.4118 6.2623 0.1084 0.9746
0.8755 6.5801 0.1121 0.9738
0.3051 7.1226 0.1204 0.9719
-0.3410 7.3011 0.1235 0.9712
2.3301 -0.9071 0.0422 0.9900
11.2169 -3.2471 0.1972 0.9544
14.9633 -1.5444 0.2541 0.9416
11.8899 -0.1591 0.2009 0.9535
4.4979 4.5562 0.1081 0.9747
3.9083 4.7403 0.1038 0.9757
3.4561 5.0515 0.1034 0.9758
2.0887 6.0658 0.1084 0.9747
1.5296 6.1926 0.1077 0.9748
1.0011 6.5057 0.1112 0.9740
0.4981 6.9996 -0.0395 0.9723
-0.8206 7.5760 -0.0429 0.9700
-2.8668 14.3359 -0.0823 0.9432
2.3044 -0.9729 -0.0141 0.9900
11.8048 -0.4915 -0.0665 0.9538
7.7177 2.5256 -0.0457 0.9680
7.0428 3.0253 -0.0432 0.9698
6.4424 3.4795 -0.0412 0.9711
4.6543 4.4557 -0.0363 0.9746
4.1505 4.7540 -0.0355 0.9751
3.1305 5.2368 -0.0343 0.9759
2.7363 5.6745 -0.0355 0.9751
2.2445 5.9657 -0.0359 0.9748
1.6882 6.0908 -0.0356 0.9750
0.0144 7.2859 -0.0410 0.9713
-2.1399 2.4707 -0.0184 0.9870
13.7159 -4.7046 -0.0816 0.9436
15.2802 -2.3327 -0.0870 0.9400
12.2603 -0.7614 -0.0692 0.9521
11.4501 0.3143 -0.0645 0.9552
5.7877 3.6630 -0.0386 0.9730
5.2202 3.9992 -0.0370 0.9740
4.7725 4.3857 -0.0365 0.9744
4.2637 4.6870 -0.0357 0.9750
1.8026 6.0231 -0.0354 0.9752
1.2911 6.3259 -0.0363 0.9745
0.1612 7.1990 -0.0405 0.9716
-0.4960 7.3839 -0.0417 0.9708
-2.0959 2.5222 -0.0185 0.9870
14.3228 -1.1834 -0.0809 0.9441
11.8401 0.0833 -0.0667 0.9537
9.1749 1.7262 -0.0526 0.9633
8.1112 2.2924 -0.0475 0.9668
6.7502 3.2972 -0.0423 0.9704
5.9242 3.5822 -0.0390 0.9727
5.3457 3.9248 -0.0373 0.9738
3.7709 4.7687 -0.0342 0.9760
3.3015 5.0434 -0.0339 0.9762
2.8750 5.3881 -0.0344 0.9759
1.9296 5.9989 -0.0355 0.9751
1.4103 6.2553 -0.0361 0.9747
0.8745 6.5726 -0.0373 0.9738
0.3047 7.1141 -0.0401 0.9719
-0.3405 7.2918 -0.0411 0.9712
2.3316 -0.9077 -0.0141 0.9900
11.8892 -0.1591 -0.0669 0.9536
4.4930 4.5512 -0.0360 0.9747
2.9823 5.3246 -0.0344 0.9759
2.5823 5.7656 -0.0356 0.9750
2.0864 6.0592 -0.0361 0.9747
1.5279 6.1857 -0.0359 0.9748
1.0000 6.4983 -0.0370 0.9740
0.4451 7.0310 -0.0397 0.9722
-0.1923 7.3217 -0.0412 0.9711
-0.8851 7.6142 -0.0432 0.9698
-0.1355 7.3484 -0.2069 0.9710
-2.2232 2.4634 -0.0934 0.9868
2.3025 -0.9721 -0.0704 0.9900
7.7068 2.5220 -0.2283 0.9681
7.0422 3.0251 -0.2158 0.9698
6.4345 3.4752 -0.2059 0.9712
4.6492 4.4508 -0.1812 0.9746
4.1461 4.7489 -0.1775 0.9751
2.7334 5.6684 -0.1772 0.9751
0.6160 6.7173 -0.1899 0.9734
0.0144 7.2769 -0.2049 0.9713
-2.1387 2.4693 -0.0920 0.9870
9.9811 1.1723 -0.2830 0.9606
9.0929 1.9037 -0.2616 0.9635
7.8995 2.4077 -0.2325 0.9675
7.0965 2.8783 -0.2156 0.9698
6.5861 3.3853 -0.2085 0.9708
5.2143 3.9946 -0.1850 0.9741
4.7672 4.3808 -0.1823 0.9744
3.2342 5.1678 -0.1717 0.9759
2.7645 5.4460 -0.1720 0.9759
2.3553 5.8923 -0.1787 0.9749
1.2896 6.3188 -0.1816 0.9745
0.7459 6.6404 -0.1882 0.9736
-0.4954 7.3744 -0.2081 0.9709
10.2796 0.9951 -0.2908 0.9595
8.0994 2.2891 -0.2370 0.9669
7.2681 2.7765 -0.2191 0.9693
6.7416 3.2930 -0.2113 0.9704
5.9171 3.5779 -0.1947 0.9727
5.3396 3.9203 -0.1865 0.9738
2.8719 5.3824 -0.1718 0.9759
2.4677 5.8257 -0.1781 0.9750
1.4087 6.2484 -0.1804 0.9747
0.3043 7.1055 -0.2003 0.9719
2.3331 -0.9083 -0.0705 0.9900
17.7894 -3.4640 -0.5103 0.9300
11.8885 -0.1591 -0.3348 0.9535
10.9002 0.8310 -0.3078 0.9572
9.3298 1.5589 -0.2663 0.9629
8.3072 2.1657 -0.2417 0.9662
7.4453 2.6714 -0.2227 0.9688
4.8933 4.1414 -0.1805 0.9747
4.4881 4.5462 -0.1799 0.9748
3.8999 4.7301 -0.1726 0.9758
3.4488 5.0408 -0.1720 0.9759
2.9791 5.3189 -0.1717 0.9759
0.9988 6.4908 -0.1849 0.9741
0.4446 7.0226 -0.1981 0.9722
-0.1923 7.3224 -0.2063 0.9711
-0.8839 7.6041 -0.2156 0.9698
0.4969 6.9831 -0.3550 0.9724
14.8023 -1.9515 -0.7572 0.9420
11.7522 -0.4893 -0.5965 0.9540
9.6817 1.3380 -0.4957 0.9616
8.8026 2.0313 -0.4581 0.9645
7.6960 2.5185 -0.4107 0.9681
6.4266 3.4709 -0.3704 0.9712
4.9998 3.9949 -0.3246 0.9747
4.6441 4.4459 -0.3260 0.9746
4.1416 4.7438 -0.3194 0.9751
3.1239 5.2257 -0.3088 0.9759
0.0144 7.2680 -0.3686 0.9713
13.7245 -4.7075 -0.7358 0.9435
15.1940 -2.3195 -0.7795 0.9403
12.2035 -0.7579 -0.6201 0.9522
9.0787 1.9007 -0.4704 0.9635
7.0871 2.8745 -0.3879 0.9698
6.5779 3.3810 -0.3751 0.9708
5.7740 3.6543 -0.3465 0.9730
4.7619 4.3760 -0.3280 0.9744
3.7020 4.8832 -0.3108 0.9758
3.2308 5.1624 -0.3088 0.9759
2.7616 5.4402 -0.3094 0.9759
2.3527 5.8860 -0.3215 0.9749
1.7987 6.0099 -0.3181 0.9752
-0.4947 7.3649 -0.3743 0.9709
-2.0972 2.5237 -0.1664 0.9869
-10.4130 -7.8100 -0.6601 0.9492
9.1785 1.7269 -0.4737 0.9633
8.0876 2.2857 -0.4262 0.9669
6.7331 3.2888 -0.3800 0.9704
5.3335 3.9158 -0.3356 0.9738
4.3683 4.6094 -0.3221 0.9749
3.7681 4.7652 -0.3081 0.9760
3.2945 5.0327 -0.3051 0.9762
2.8689 5.3767 -0.3091 0.9759
2.4651 5.8195 -0.3205 0.9750
1.9305 6.0016 -0.3197 0.9751
0.8725 6.5575 -0.3355 0.9739
0.3040 7.0970 -0.3602 0.9720
14.8503 -1.5327 -0.7571 0.9420
10.8801 0.8295 -0.5534 0.9572
9.3145 1.5563 -0.4789 0.9629
7.4351 2.6677 -0.4006 0.9689
4.8879 4.1368 -0.3247 0.9747
4.4832 4.5413 -0.3236 0.9748
3.4451 5.0354 -0.3094 0.9759
1.5245 6.1721 -0.3224 0.9749
-2.9717 14.2790 -0.7397 0.9433
-0.1354 7.3474 -0.5388 0.9710
-19.0824 -4.6091 -1.4394 0.9243
-18.1337 -6.1398 -1.4037 0.9261
-16.0869 -8.9015 -1.3481 0.9289
-14.9939 -10.1454 -1.3274 0.9300
-13.8564 -11.3050 -1.3112 0.9308
-12.6749 -12.3845 -1.2993 0.9314
-11.4491 -13.3873 -1.2916 0.9318
-8.8611 -15.1727 -1.2883 0.9320
-1.4969 -18.3847 -1.3525 0.9287
0.1547 -18.8030 -1.3787 0.9274
1.8757 -19.1389 -1.4100 0.9258
3.6714 -19.3866 -1.4467 0.9239
18.9815 -4.2555 -1.4263 0.9249
14.7944 -1.9504 -1.0941 0.9419
8.7676 2.0232 -0.6598 0.9646
5.6341 3.7290 -0.4954 0.9733
4.9942 3.9904 -0.4687 0.9747
4.1371 4.7387 -0.4612 0.9751
3.5901 4.9420 -0.4479 0.9758
3.1205 5.2202 -0.4459 0.9759
2.7276 5.6564 -0.4604 0.9751
2.2373 5.9464 -0.4658 0.9748
1.1663 6.3758 -0.4752 0.9743
0.0144 7.2591 -0.5323 0.9713
-0.6534 7.4494 -0.5483 0.9705
-19.2914 -4.2449 -1.4483 0.9238
-18.3547 -5.7998 -1.4114 0.9257
-17.3665 -7.2510 -1.3799 0.9273
-16.3299 -8.6054 -1.3534 0.9286
-7.8115 -15.7852 -1.2914 0.9318
-4.9501 -17.1764 -1.3107 0.9308
-3.4371 -17.7643 -1.3267 0.9300
1.4767 -19.0698 -1.4024 0.9262
3.2549 -19.3382 -1.4379 0.9244
15.1512 -2.3130 -1.1238 0.9404
11.3821 0.3125 -0.8349 0.9554
9.9463 1.1682 -0.7343 0.9606
9.0007 1.8844 -0.6743 0.9638
7.8769 2.4008 -0.6038 0.9675
7.0777 2.8706 -0.5600 0.9698
6.5696 3.3768 -0.5416 0.9708
5.7671 3.6500 -0.5004 0.9730
5.2023 3.9855 -0.4805 0.9741
4.2499 4.6718 -0.4631 0.9750
3.6981 4.8780 -0.4488 0.9757
2.3502 5.8796 -0.4643 0.9749
0.7442 6.6250 -0.4888 0.9736
0.1606 7.1728 -0.5261 0.9716
-0.4941 7.3555 -0.5405 0.9709
-2.0978 2.5244 -0.2407 0.9869
-17.5963 -6.9287 -1.3866 0.9270
-15.4982 -9.5886 -1.3363 0.9295
-9.4680 -14.7906 -1.2876 0.9320
-8.1248 -15.6086 -1.2902 0.9319
-5.2874 -17.0321 -1.3076 0.9310
-3.7874 -17.6366 -1.3226 0.9302
-0.6073 -18.6221 -1.3661 0.9280
1.0815 -18.9962 -1.3951 0.9265
15.3864 -2.6713 -1.1450 0.9393
11.7675 0.0828 -0.8628 0.9539
10.2428 0.9915 -0.7545 0.9596
8.0758 2.2824 -0.6153 0.9669
6.7245 3.2847 -0.5487 0.9704
3.7667 4.7634 -0.4453 0.9759
2.8658 5.3710 -0.4464 0.9759
2.4624 5.8133 -0.4629 0.9750
1.9309 6.0029 -0.4624 0.9750
1.4055 6.2345 -0.4686 0.9747
0.8715 6.5499 -0.4845 0.9738
0.3036 7.0885 -0.5202 0.9719
-0.3392 7.2642 -0.5332 0.9713
-18.7887 -5.1036 -1.4276 0.9249
-15.7469 -9.3035 -1.3411 0.9293
-10.5617 -7.5897 -0.9536 0.9492
-13.4884 -11.6541 -1.3070 0.9310
-11.0530 -13.6882 -1.2900 0.9319
-7.0543 -16.1915 -1.2950 0.9316
-5.6217 -16.8841 -1.3048 0.9311
-2.5897 -18.0531 -1.3372 0.9295
-0.9829 -18.5253 -1.3602 0.9283
0.6900 -18.9182 -1.3880 0.9269
4.2544 -19.4454 -1.4595 0.9233
2.3361 -0.9095 -0.1838 0.9900
14.8129 -1.5289 -1.0919 0.9420
9.2992 1.5538 -0.6913 0.9629
7.4249 2.6640 -0.5784 0.9689
6.8836 3.1900 -0.5563 0.9700
5.4544 3.8358 -0.4889 0.9736
4.4783 4.5363 -0.4674 0.9748
3.4415 5.0301 -0.4469 0.9759
2.0797 6.0396 -0.4684 0.9747
1.5228 6.1652 -0.4656 0.9749
0.4435 7.0060 -0.5147 0.9722
-0.8815 7.5838 -0.5598 0.9698
-2.9674 14.2581 -1.0678 0.9433
0.4957 6.9665 -0.6705 0.9723
-2.2088 2.4475 -0.3165 0.9868
-17.5192 0.5504 -1.6828 0.9320
-16.4189 -2.4400 -1.5936 0.9355
-15.7626 -3.8073 -1.5568 0.9369
-15.0437 -5.0935 -1.5248 0.9382
-13.4366 -7.4350 -1.4743 0.9402
-11.6958 -7.9138 -1.3557 0.9448
-10.8300 -8.8358 -1.3419 0.9454
-8.9701 -10.4886 -1.3250 0.9461
-7.9780 -11.2213 -1.3218 0.9462
-6.9452 -11.8922 -1.3222 0.9462
-4.7575 -13.0475 -1.3333 0.9457
-1.1641 -14.2968 -1.3771 0.9440
2.8226 -14.9043 -1.4563 0.9409
4.5548 -16.0431 -1.6011 0.9352
9.4309 -15.5550 -1.7464 0.9295
11.1553 -15.1560 -1.8067 0.9272
12.9262 -14.6205 -1.8736 0.9246
19.0123 -4.2624 -1.8706 0.9247
14.7936 -1.9503 -1.4325 0.9418
10.9456 0.5242 -1.0520 0.9569
9.6488 1.3334 -0.9351 0.9616
7.0404 3.0243 -0.7356 0.9697
4.1327 4.7336 -0.6033 0.9751
3.5863 4.9367 -0.5858 0.9758
3.1172 5.2146 -0.5833 0.9759
2.2349 5.9400 -0.6093 0.9748
-0.6526 7.4397 -0.7170 0.9704
-18.3458 4.3101 -1.8092 0.9271
-17.1306 -0.6453 -1.6458 0.9334
-16.5593 -2.1164 -1.6027 0.9351
-15.9180 -3.5026 -1.5648 0.9366
-15.2130 -4.8070 -1.5317 0.9379
-13.6306 -7.1829 -1.4792 0.9400
-10.4396 -8.1682 -1.2726 0.9481
-10.1321 -9.5035 -1.3337 0.9457
-9.1907 -10.3127 -1.3262 0.9460
-8.2079 -11.0596 -1.3222 0.9462
-7.1844 -11.7446 -1.3218 0.9462
-6.1202 -12.3677 -1.3248 0.9461
-5.0153 -12.9284 -1.3313 0.9458
-3.8692 -13.4257 -1.3414 0.9454
-2.6813 -13.8581 -1.3551 0.9449
-0.1769 -14.5183 -1.3939 0.9433
2.5050 -14.8831 -1.4489 0.9412
4.2025 -16.0415 -1.5920 0.9355
5.7661 -16.0102 -1.6337 0.9339
7.3801 -15.8754 -1.6808 0.9321
9.0443 -15.6282 -1.7335 0.9300
12.5183 -14.7553 -1.8577 0.9252
11.2032 0.3076 -1.0760 0.9560
9.9290 1.1661 -0.9598 0.9606
7.8655 2.3974 -0.7894 0.9675
7.0682 2.8668 -0.7323 0.9698
6.5614 3.3726 -0.7083 0.9708
5.1964 3.9809 -0.6285 0.9740
4.7514 4.3663 -0.6195 0.9744
4.2453 4.6668 -0.6057 0.9750
3.2240 5.1514 -0.5834 0.9759
2.3477 5.8733 -0.6072 0.9749
1.2853 6.2976 -0.6171 0.9745
0.7433 6.6173 -0.6393 0.9736
-2.0984 2.5252 -0.3152 0.9869
-18.1133 2.9547 -1.7620 0.9289
-17.2504 -0.2974 -1.6564 0.9330
-16.6960 -1.7884 -1.6121 0.9348
-15.3792 -4.5165 -1.5388 0.9376
-13.8220 -6.9271 -1.4843 0.9398
-10.3410 -9.3101 -1.3359 0.9456
-9.4091 -10.1336 -1.3276 0.9459
-8.4358 -10.8946 -1.3228 0.9461
-6.3666 -12.2310 -1.3238 0.9461
-5.2710 -12.8060 -1.3295 0.9459
-1.7354 -14.1459 -1.3683 0.9443
0.8367 -14.6959 -1.4132 0.9426
2.1899 -14.8575 -1.4418 0.9414
3.8528 -16.0350 -1.5832 0.9359
5.4049 -16.0262 -1.6237 0.9343
7.0074 -15.9157 -1.6695 0.9325
8.6602 -15.6950 -1.7210 0.9305
10.3626 -15.3543 -1.7784 0.9283
12.1126 -14.8825 -1.8422 0.9258
15.3407 -2.6634 -1.4948 0.9394
11.4714 0.0807 -1.1013 0.9549
7.2386 2.7653 -0.7439 0.9693
5.8958 3.5650 -0.6615 0.9727
4.8704 4.2956 -0.6235 0.9742
2.8628 5.3653 -0.5838 0.9759
-18.6055 7.0254 -1.9093 0.9232
-18.4536 5.1385 -1.8390 0.9259
-17.8223 1.6558 -1.7184 0.9306
-16.8290 -1.4559 -1.6217 0.9344
-15.5423 -4.2218 -1.5462 0.9373
-14.8047 -5.4831 -1.5157 0.9385
-13.1638 -7.7774 -1.4679 0.9404
-10.5013 -7.5463 -1.2415 0.9494
-9.6254 -9.9513 -1.3292 0.9459
-8.6614 -10.7265 -1.3236 0.9461
-7.6565 -11.4397 -1.3216 0.9462
-6.6109 -12.0910 -1.3230 0.9461
-5.5246 -12.6804 -1.3279 0.9459
-4.3973 -13.2068 -1.3364 0.9456
-2.0177 -14.0651 -1.3641 0.9445
1.8771 -14.8276 -1.4349 0.9417
3.5058 -16.0235 -1.5747 0.9362
5.0463 -16.0369 -1.6140 0.9347
6.6373 -15.9503 -1.6586 0.9329
8.2787 -15.7555 -1.7087 0.9310
11.7093 -15.0023 -1.8271 0.9264
13.4941 -14.4211 -1.8961 0.9237
11.1886 -3.2389 -1.1183 0.9543
17.6226 -3.4315 -1.7236 0.9304
14.7756 -1.5250 -1.4261 0.9421
11.8191 -0.1581 -1.1348 0.9536
10.7638 0.8206 -1.0364 0.9575
7.4146 2.6604 -0.7563 0.9688
6.8748 3.1859 -0.7274 0.9700
6.0343 3.4826 -0.6689 0.9724
3.8874 4.7149 -0.5867 0.9757
3.4378 5.0247 -0.5845 0.9758
2.5713 5.7411 -0.6039 0.9750
2.0774 6.0331 -0.6126 0.9747
0.7982 3.2315 -0.3196 0.9867
-0.1922 7.3207 -0.7031 0.9710
-0.1351 7.3291 -0.8707 0.9709
-0.8152 7.5260 -0.8992 0.9700
-2.2055 2.4439 -0.3910 0.9868
-14.9220 9.5270 -2.1030 0.9312
-15.1793 7.8783 -2.0315 0.9334
-15.3069 6.2791 -1.9653 0.9355
-15.2179 3.2490 -1.8484 0.9392
-13.9278 -2.0698 -1.6726 0.9449
-13.4181 -3.2410 -1.6397 0.9459
-12.8454 -4.3492 -1.6109 0.9468
-12.2144 -5.3952 -1.5861 0.9476
-11.5289 -6.3794 -1.5651 0.9483
-10.0536 -6.8027 -1.4419 0.9523
-7.7353 -9.0447 -1.4137 0.9532
-4.0990 -11.2417 -1.4214 0.9529
-2.0661 -11.9853 -1.4447 0.9522
0.1027 -12.4885 -1.4835 0.9509
3.8610 -13.5993 -1.6793 0.9446
14.9230 -9.7434 -2.1170 0.9307
15.1365 -8.0533 -2.0366 0.9333
2.2948 -0.9688 -0.2959 0.9900
18.7403 -4.2015 -2.2813 0.9256
10.7783 0.5162 -1.2818 0.9575
9.3671 1.2945 -1.1233 0.9626
7.0398 3.0240 -0.9101 0.9696
5.6208 3.7202 -0.8007 0.9732
4.9922 3.9888 -0.7590 0.9746
0.8827 3.1846 -0.3925 0.9868
0.6131 6.6858 -0.7975 0.9733
-0.6517 7.4299 -0.8860 0.9704
-2.1346 2.4646 -0.3873 0.9870
-14.4106 11.6079 -2.1981 0.9282
-14.8439 9.9093 -2.1200 0.9306
-15.1325 8.2504 -2.0473 0.9329
-15.2886 6.6393 -1.9799 0.9351
-15.0746 2.1441 -1.8087 0.9405
-14.8087 0.7680 -1.7614 0.9420
-14.4597 -0.5447 -1.7188 0.9434
-12.3633 -5.1620 -1.5914 0.9475
-11.6899 -6.1602 -1.5696 0.9482
-10.2160 -6.6126 -1.4456 0.9522
-9.4933 -7.4278 -1.4318 0.9526
-8.7295 -8.1879 -1.4217 0.9529
-6.1975 -10.1312 -1.4108 0.9533
-4.3221 -11.1413 -1.4195 0.9530
-2.3050 -11.9131 -1.4413 0.9523
-1.2449 -12.2049 -1.4573 0.9518
1.0071 -13.0058 -1.5495 0.9488
2.2894 -13.6023 -1.6385 0.9460
4.8726 -13.5295 -1.7082 0.9437
7.5713 -13.0828 -1.7955 0.9409
8.9561 -12.7032 -1.8463 0.9393
11.7726 -11.5943 -1.9627 0.9356
14.8447 -8.2911 -2.0197 0.9338
16.1099 -7.1923 -2.0957 0.9314
14.9825 -2.2873 -1.8003 0.9408
12.1817 -0.7565 -1.4498 0.9520
8.7057 1.8226 -1.0565 0.9648
6.5531 3.3683 -0.8752 0.9708
5.7534 3.6413 -0.8088 0.9729
5.1904 3.9764 -0.7767 0.9740
4.2407 4.6617 -0.7486 0.9749
2.7528 5.4228 -0.7224 0.9758
1.2839 6.2905 -0.7626 0.9745
0.7425 6.6096 -0.7901 0.9736
0.1603 7.1553 -0.8502 0.9716
-2.0990 2.5260 -0.3901 0.9869
-13.6618 13.7324 -2.3010 0.9249
-15.2641 7.0023 -1.9948 0.9346
-15.3260 5.4323 -1.9315 0.9366
-15.2755 3.9194 -1.8733 0.9385
-14.8769 1.0764 -1.7718 0.9417
-14.5462 -0.2508 -1.7281 0.9431
-14.1380 -1.5144 -1.6890 0.9443
-12.5093 -4.9256 -1.5970 0.9473
-11.8482 -5.9379 -1.5743 0.9480
-8.1117 -8.7362 -1.4161 0.9531
-6.4021 -10.0013 -1.4106 0.9533
-3.5601 -11.4681 -1.4264 0.9528
-2.5421 -11.8375 -1.4382 0.9524
0.7314 -12.8468 -1.5285 0.9495
4.5717 -13.5558 -1.6993 0.9440
8.6384 -12.7996 -1.8343 0.9397
10.0373 -12.3327 -1.8888 0.9380
12.8671 -11.0309 -2.0132 0.9340
14.5515 -8.5216 -2.0031 0.9343
15.3162 -2.6592 -1.8466 0.9393
14.1506 -1.1692 -1.6866 0.9444
8.0521 2.2757 -0.9939 0.9669
7.2288 2.7615 -0.9192 0.9693
5.8887 3.5607 -0.8174 0.9727
5.3150 3.9023 -0.7832 0.9738
4.3540 4.5944 -0.7519 0.9748
3.7639 4.7598 -0.7208 0.9759
3.2840 5.0167 -0.7122 0.9761
2.4572 5.8008 -0.7483 0.9749
1.4024 6.2206 -0.7575 0.9746
-15.0179 9.0018 -2.0798 0.9319
-15.2330 7.3680 -2.0100 0.9341
-14.9407 1.3881 -1.7824 0.9413
-14.2376 -1.2317 -1.6975 0.9441
-13.2439 -3.5975 -1.6302 0.9462
-12.0038 -5.7124 -1.5791 0.9479
-9.8277 -7.0623 -1.4376 0.9524
-6.6048 -9.8684 -1.4106 0.9533
-4.7626 -10.9314 -1.4164 0.9531
-2.7774 -11.7587 -1.4352 0.9525
-1.7328 -12.0797 -1.4496 0.9520
-0.6545 -12.3360 -1.4674 0.9515
1.6968 -13.4033 -1.6048 0.9470
8.3217 -12.8901 -1.8225 0.9401
9.7168 -12.4494 -1.8759 0.9384
11.1264 -11.8907 -1.9344 0.9365
12.5436 -11.2057 -1.9980 0.9345
13.9597 -10.3862 -2.0668 0.9323
15.3185 -9.3958 -2.1346 0.9302
15.5372 -7.7118 -2.0604 0.9325
2.3392 -0.9106 -0.2982 0.9899
11.1923 -3.2400 -1.3841 0.9541
17.5672 -3.4207 -2.1259 0.9304
14.7382 -1.5211 -1.7600 0.9421
9.0658 1.5148 -1.0918 0.9637
7.4044 2.6567 -0.9344 0.9688
6.0269 3.4783 -0.8266 0.9724
5.4417 3.8268 -0.7902 0.9736
3.8832 4.7099 -0.7251 0.9757
2.9665 5.2964 -0.7211 0.9758
2.5686 5.7349 -0.7464 0.9750
2.0752 6.0265 -0.7571 0.9747
0.4424 6.9893 -0.8319 0.9722
-0.1920 7.3115 -0.8688 0.9710
-2.9605 14.2250 -1.7259 0.9432
-14.5637 11.0682 -2.1729 0.9290
-0.1315 7.1357 -1.0112 0.9716
-0.8004 7.3890 -1.0531 0.9704
-5.3751 18.2224 -2.6919 0.9261
-10.1002 13.4331 -2.3813 0.9344
-2.2031 2.4412 -0.4659 0.9868
-12.1146 9.3573 -2.1689 0.9400
-12.8067 6.6469 -2.0444 0.9434
-12.9805 5.3247 -1.9879 0.9449
-13.0499 4.0341 -1.9354 0.9463
-12.9060 1.5676 -1.8421 0.9488
-12.0845 -1.7959 -1.7310 0.9518
-11.6726 -2.8194 -1.7014 0.9526
-10.6708 -4.7134 -1.6529 0.9540
-10.0889 -5.5826 -1.6337 0.9545
-9.4574 -6.3992 -1.6179 0.9549
-8.7795 -7.1629 -1.6054 0.9553
-7.0605 -8.2557 -1.5392 0.9571
-6.2225 -8.7521 -1.5216 0.9575
-4.5684 -9.7262 -1.5225 0.9575
-3.7262 -10.2192 -1.5412 0.9570
-2.8556 -10.7270 -1.5728 0.9561
-0.9376 -11.5159 -1.6371 0.9544
0.0962 -11.6931 -1.6568 0.9539
1.1565 -11.8007 -1.6800 0.9532
2.2414 -11.8353 -1.7067 0.9525
3.3482 -11.7933 -1.7370 0.9517
4.4743 -11.6707 -1.7710 0.9508
5.6162 -11.4631 -1.8087 0.9497
6.7699 -11.1661 -1.8502 0.9486
7.9305 -10.7747 -1.8956 0.9474
10.2480 -9.6888 -1.9982 0.9446
11.3899 -8.9846 -2.0555 0.9431
12.5077 -8.1664 -2.1165 0.9414
12.6121 -6.7102 -2.0242 0.9439
2.2928 -0.9680 -0.3526 0.9900
15.3081 -3.4320 -2.2228 0.9386
14.7919 -1.9501 -2.1140 0.9415
10.9572 0.5248 -1.5543 0.9567
8.3284 1.9219 -1.2111 0.9661
6.3497 3.4294 -1.0225 0.9713
4.6236 4.4263 -0.9069 0.9745
4.1237 4.7233 -0.8884 0.9750
3.5786 4.9261 -0.8627 0.9757
2.7189 5.6383 -0.8869 0.9750
2.2300 5.9272 -0.8973 0.9747
0.8861 3.1971 -0.4701 0.9867
1.1623 6.3541 -0.9153 0.9742
0.6124 6.6779 -0.9502 0.9733
0.0142 7.1742 -1.0165 0.9714
-6.4712 17.4088 -2.6315 0.9277
-9.8948 13.7349 -2.3985 0.9339
-12.0043 9.6696 -2.1841 0.9396
-12.7516 6.9523 -2.0579 0.9430
-12.9503 5.6238 -2.0005 0.9446
-11.7721 -2.5903 -1.7079 0.9525
-11.3129 -3.5747 -1.6810 0.9532
-9.6057 -6.2176 -1.6213 0.9548
-5.5843 -9.1288 -1.5163 0.9577
-2.1544 -11.1346 -1.6069 0.9552
-1.1696 -11.4660 -1.6330 0.9545
3.0939 -11.8098 -1.7298 0.9519
4.2159 -11.7060 -1.7629 0.9510
6.5059 -11.2420 -1.8404 0.9489
7.6654 -10.8725 -1.8849 0.9477
11.1310 -9.1551 -2.0421 0.9434
12.2556 -8.3635 -2.1023 0.9418
12.3861 -6.9179 -2.0102 0.9443
12.1810 -0.7565 -1.7292 0.9519
11.3143 0.3106 -1.6037 0.9553
9.8466 1.1565 -1.4047 0.9607
7.6269 2.3246 -1.1297 0.9683
6.9556 2.8211 -1.0635 0.9701
6.4823 3.3319 -1.0327 0.9710
5.7465 3.6369 -0.9636 0.9729
5.1845 3.9718 -0.9254 0.9740
4.7408 4.3566 -0.9123 0.9743
3.6862 4.8623 -0.8645 0.9757
3.2171 5.1404 -0.8592 0.9758
2.7498 5.4170 -0.8608 0.9758
2.3426 5.8606 -0.8943 0.9748
1.2824 6.2834 -0.9086 0.9744
0.7416 6.6018 -0.9413 0.9735
-0.4880 7.2651 -1.0317 0.9710
-3.0842 19.5408 -2.8030 0.9232
-6.1561 17.6565 -2.6494 0.9272
-2.1013 2.5287 -0.4658 0.9868
-11.8872 9.9822 -2.1994 0.9392
-12.3508 8.6145 -2.1336 0.9410
-12.6906 7.2589 -2.0715 0.9426
-13.0307 4.6187 -1.9589 0.9457
-12.9699 2.1157 -1.8620 0.9483
-12.8075 0.9267 -1.8194 0.9494
-12.5658 -0.2166 -1.7807 0.9505
-12.2510 -1.3123 -1.7458 0.9514
-10.9191 -4.2994 -1.6627 0.9537
-9.7515 -6.0332 -1.6247 0.9547
-8.3304 -7.4999 -1.5882 0.9557
-5.7726 -9.0178 -1.5171 0.9577
-0.3790 -11.6207 -1.6474 0.9541
2.8406 -11.8222 -1.7228 0.9521
6.2423 -11.3130 -1.8308 0.9491
8.5624 -10.5205 -1.9219 0.9467
10.8711 -9.3198 -2.0289 0.9438
12.1580 -7.1199 -1.9963 0.9447
14.1163 -1.1663 -2.0069 0.9444
11.6950 0.0823 -1.6571 0.9539
10.1872 0.9861 -1.4502 0.9595
7.8189 2.2098 -1.1512 0.9677
7.0910 2.7089 -1.0755 0.9698
6.5178 3.1837 -1.0278 0.9711
5.8815 3.5564 -0.9738 0.9726
5.3088 3.8977 -0.9332 0.9737
4.8594 4.2860 -0.9181 0.9742
3.7625 4.7580 -0.8595 0.9758
1.9322 6.0070 -0.8941 0.9748
1.4008 6.2136 -0.9025 0.9746
0.3004 7.0131 -0.9946 0.9720
-0.3364 7.2037 -1.0218 0.9713
-7.1914 16.7965 -2.5888 0.9288
-10.3718 13.0126 -2.3578 0.9350
-12.2562 8.9258 -2.1483 0.9406
-12.6276 0.0401 -1.7892 0.9503
-11.5298 -3.1319 -1.6928 0.9529
-11.0389 -4.0884 -1.6679 0.9536
-10.4927 -4.9933 -1.6465 0.9541
-9.8948 -5.8460 -1.6284 0.9546
-9.2484 -6.6460 -1.6137 0.9550
-8.5374 -7.3764 -1.5986 0.9554
-7.6478 -7.9067 -1.5586 0.9565
-6.7940 -8.4138 -1.5323 0.9573
-5.9611 -8.9065 -1.5185 0.9576
-5.1357 -9.3930 -1.5168 0.9577
-4.3048 -9.8807 -1.5271 0.9574
-0.6144 -11.5791 -1.6429 0.9542
1.4963 -11.8196 -1.6881 0.9530
3.7016 -11.7635 -1.7473 0.9514
8.2973 -10.6308 -1.9107 0.9470
9.4579 -10.1076 -1.9613 0.9456
10.6103 -9.4786 -2.0159 0.9441
11.7458 -8.7390 -2.0743 0.9426
2.3430 -0.9121 -0.3562 0.9899
14.7009 -1.5173 -2.0940 0.9420
11.8851 -0.1590 -1.6841 0.9531
10.4977 0.8003 -1.4917 0.9584
3.8790 4.7048 -0.8640 0.9757
3.4304 5.0140 -0.8608 0.9758
2.9633 5.2907 -0.8592 0.9758
2.5658 5.7288 -0.8894 0.9750
0.4388 6.9317 -0.9841 0.9723
-0.1875 7.1425 -1.0124 0.9715
-0.8617 7.4130 -1.0574 0.9703
-2.9293 14.0752 -2.0370 0.9436
-5.5034 18.1339 -2.6851 0.9263
-6.8945 17.0570 -2.6068 0.9284
-12.1551 9.2377 -2.1632 0.9402
-0.7951 7.3404 -1.2163 0.9705
-5.6437 14.2831 -2.5300 0.9396
-6.7240 13.3769 -2.4664 0.9411
-9.8802 9.1519 -2.2186 0.9469
-10.3820 8.0190 -2.1611 0.9482
-10.7756 6.8797 -2.1061 0.9495
-11.0660 5.7434 -2.0539 0.9507
-11.2584 4.6183 -2.0047 0.9519
-11.3585 3.5112 -1.9586 0.9529
-11.3718 2.4279 -1.9156 0.9540
-11.1599 0.3506 -1.8394 0.9557
-10.9451 -0.6362 -1.8061 0.9565
-10.6641 -1.5848 -1.7761 0.9572
-9.4668 -4.1816 -1.7049 0.9589
-8.4104 -5.6908 -1.6729 0.9597
-7.1763 -7.0118 -1.6529 0.9601
-6.4990 -7.5992 -1.6473 0.9603
-5.0355 -8.6221 -1.6449 0.9603
-4.2532 -9.0552 -1.6481 0.9603
-3.4399 -9.4340 -1.6542 0.9601
-2.5974 -9.7569 -1.6633 0.9599
1.9812 -10.4614 -1.7540 0.9578
3.9377 -10.2711 -1.8121 0.9564
5.9263 -9.7746 -1.8831 0.9547
6.9211 -9.4032 -1.9234 0.9538
10.7475 -7.0172 -2.1145 0.9493
10.7994 -5.7458 -2.0152 0.9516
12.2832 -3.9349 -2.1248 0.9491
13.4851 -1.7778 -2.2407 0.9464
10.9359 0.5238 -1.8036 0.9566
9.5993 1.3266 -1.5964 0.9615
6.0368 3.2604 -1.1303 0.9726
5.4829 3.6289 -1.0832 0.9737
4.6184 4.4213 -1.0533 0.9744
3.1072 5.1979 -0.9976 0.9757
2.6968 5.5925 -1.0228 0.9751
2.1752 5.7816 -1.0176 0.9753
0.8489 3.0626 -0.5236 0.9872
1.1455 6.2622 -1.0487 0.9745
0.5967 6.5070 -1.0765 0.9739
0.0135 6.8274 -1.1247 0.9727
-3.8660 14.1658 -2.4190 0.9422
-5.3816 14.4774 -2.5444 0.9393
-8.3532 11.5950 -2.3542 0.9437
-9.7501 9.4084 -2.2321 0.9466
-11.2228 4.8736 -2.0156 0.9516
-11.1992 0.5808 -1.8474 0.9556
-5.2094 -8.5159 -1.6446 0.9603
-1.9284 -9.9668 -1.6724 0.9597
-1.0390 -10.1861 -1.6868 0.9593
0.8082 -10.4377 -1.7246 0.9584
1.7614 -10.4649 -1.7482 0.9579
5.6989 -9.8475 -1.8743 0.9549
7.6843 -9.0575 -1.9568 0.9530
8.6618 -8.5306 -2.0028 0.9519
10.6165 -5.9296 -2.0033 0.9519
12.1264 -4.1594 -2.1119 0.9494
12.7859 -3.1419 -2.1690 0.9480
9.8767 1.1600 -1.6383 0.9605
8.7554 1.8330 -1.4736 0.9644
7.7379 2.3585 -1.3326 0.9677
6.8739 2.7880 -1.2220 0.9704
6.1784 3.1757 -1.1444 0.9722
4.7355 4.3517 -1.0595 0.9743
3.6822 4.8571 -1.0041 0.9756
3.2136 5.1349 -0.9979 0.9757
2.7469 5.4112 -0.9997 0.9757
0.9661 3.2282 -0.5551 0.9864
1.2666 6.2059 -1.0434 0.9746
0.7247 6.4513 -1.0695 0.9740
0.1511 6.7467 -1.1117 0.9730
-0.4199 6.2513 -1.0322 0.9749
-2.3542 14.9156 -2.4876 0.9406
-5.1136 14.6666 -2.5588 0.9390
-6.2452 13.8009 -2.4955 0.9404
-2.1036 2.5314 -0.5422 0.9867
-10.1667 8.5374 -2.1871 0.9476
-10.6091 7.3997 -2.1309 0.9489
-10.9459 6.2610 -2.0774 0.9502
-11.3761 2.9189 -1.9348 0.9535
-11.2347 0.8129 -1.8556 0.9554
-11.0516 -0.1905 -1.8209 0.9562
-8.6679 -5.3627 -1.6791 0.9595
-8.0916 -6.0689 -1.6663 0.9598
-7.4724 -6.7274 -1.6564 0.9601
-6.1151 -7.8976 -1.6455 0.9603
-4.6141 -8.8642 -1.6463 0.9603
-2.1278 -9.9084 -1.6695 0.9597
-1.2441 -10.1414 -1.6832 0.9594
0.5933 -10.4220 -1.7197 0.9586
2.5081 -10.4385 -1.7686 0.9574
3.4874 -10.3405 -1.7978 0.9567
5.4716 -9.9162 -1.8658 0.9551
8.4402 -8.6588 -1.9920 0.9522
10.3400 -7.3701 -2.0918 0.9498
10.4313 -6.1087 -1.9914 0.9522
12.6421 -3.3816 -2.1559 0.9483
13.2410 -2.2989 -2.2139 0.9470
13.7496 -1.1360 -2.2728 0.9456
8.9911 1.6916 -1.5072 0.9636
7.9574 2.2489 -1.3622 0.9670
5.7124 3.4541 -1.0997 0.9733
5.2175 3.8307 -1.0663 0.9741
1.0614 3.2997 -0.5710 0.9860
1.3864 6.1495 -1.0385 0.9748
0.8509 6.3956 -1.0629 0.9742
0.2856 6.6677 -1.0994 0.9733
-1.0274 7.5001 -1.2471 0.9698
-3.3198 14.4650 -2.4449 0.9416
-4.4913 13.7802 -2.3877 0.9429
-5.9969 14.0064 -2.5100 0.9401
-7.0411 13.0743 -2.4463 0.9416
-7.9690 12.0715 -2.3829 0.9430
-9.4722 9.9180 -2.2593 0.9459
-10.0505 8.7957 -2.2002 0.9473
-10.5177 7.6597 -2.1435 0.9486
-11.1370 5.3868 -2.0380 0.9511
-11.3589 2.0917 -1.9027 0.9543
-10.8633 -0.9398 -1.7963 0.9568
-10.5624 -1.8759 -1.7673 0.9574
-10.2011 -2.7709 -1.7414 0.9581
-8.7931 -5.1951 -1.6825 0.9594
-7.6173 -6.5814 -1.6584 0.9600
-6.9667 -7.2025 -1.6508 0.9602
-6.2775 -7.7742 -1.6461 0.9603
-5.5520 -8.2953 -1.6444 0.9603
-2.3258 -9.8469 -1.6668 0.9598
-1.4479 -10.0935 -1.6798 0.9595
1.3243 -10.4609 -1.7371 0.9582
2.2865 -10.4507 -1.7624 0.9576
3.2629 -10.3694 -1.7908 0.9569
4.2502 -10.2137 -1.8225 0.9561
7.2338 -9.2681 -1.9368 0.9535
8.2177 -8.7823 -1.9814 0.9524
9.1855 -8.2058 -2.0291 0.9513
11.0483 -5.4838 -2.0320 0.9512
2.3475 -0.9139 -0.4150 0.9898
13.6423 -1.4080 -2.2594 0.9459
11.8823 -0.1590 -1.9577 0.9530
5.8464 3.3741 -1.1120 0.9730
5.3283 3.7471 -1.0731 0.9739
3.8332 4.6492 -0.9927 0.9759
3.4268 5.0086 -0.9997 0.9757
2.5367 5.6637 -1.0224 0.9752
2.0113 5.8410 -1.0177 0.9753
-0.8583 7.3837 -1.2246 0.9703
-2.9173 14.0177 -2.3587 0.9436
-7.7676 12.3057 -2.3973 0.9427
-8.6046 11.2596 -2.3345 0.9442
-10.4206 7.9195 -2.1562 0.9483
-0.1159 6.2867 -1.1819 0.9747
-0.8114 7.4911 -1.4163 0.9698
-6.6272 10.6831 -2.3630 0.9501
-7.3842 9.8208 -2.3095 0.9512
-2.1981 2.4357 -0.6167 0.9867
-8.6070 7.9726 -2.2052 0.9534
-9.0745 7.0091 -2.1552 0.9544
-9.7331 5.0517 -2.0612 0.9563
-10.0839 2.1529 -1.9381 0.9589
-10.0472 1.2204 -1.9024 0.9596
-9.2434 -2.2326 -1.7874 0.9620
-8.5006 -3.7548 -1.7467 0.9629
-8.0559 -4.4577 -1.7306 0.9632
-7.5665 -5.1198 -1.7172 0.9635
-7.0350 -5.7396 -1.7065 0.9637
-6.4640 -6.3158 -1.6987 0.9639
-5.8559 -6.8472 -1.6935 0.9640
-4.5378 -7.7700 -1.6913 0.9640
-3.8321 -8.1587 -1.6942 0.9640
-1.5541 -9.0151 -1.7195 0.9635
-0.7484 -9.1916 -1.7334 0.9632
0.0766 -9.3104 -1.7500 0.9628
0.9183 -9.3693 -1.7695 0.9624
2.6399 -9.2985 -1.8168 0.9614
6.1344 -8.3344 -1.9451 0.9588
7.8310 -7.4037 -2.0256 0.9571
9.4130 -6.1459 -2.1130 0.9553
9.4335 -5.0190 -2.0085 0.9574
10.6564 -3.4137 -2.1032 0.9555
11.6897 -0.4867 -2.1991 0.9535
10.9146 0.5227 -2.0539 0.9565
7.6245 2.4951 -1.5079 0.9679
6.8343 2.9358 -1.3981 0.9702
6.1107 3.3003 -1.3054 0.9721
5.4786 3.6261 -1.2349 0.9736
4.9125 3.9251 -1.1819 0.9747
3.4724 4.7800 -1.1105 0.9762
3.0183 5.0491 -1.1057 0.9763
2.1032 5.5901 -1.1226 0.9760
1.1288 6.1711 -1.1792 0.9748
0.0137 6.9193 -1.3006 0.9722
-2.2455 12.5569 -2.3977 0.9494
-5.1656 10.8215 -2.2539 0.9524
-6.4410 10.8723 -2.3752 0.9499
-7.2200 10.0220 -2.3217 0.9510
-8.9761 7.2304 -2.1664 0.9542
-9.3715 6.2561 -2.1179 0.9552
-10.0619 1.4311 -1.9103 0.9595
-9.9710 0.5171 -1.8767 0.9602
-9.8136 -0.3697 -1.8459 0.9608
-9.5936 -1.2261 -1.8179 0.9614
-8.9810 -2.8378 -1.7703 0.9624
-7.6819 -4.9724 -1.7200 0.9634
-7.1598 -5.6020 -1.7087 0.9637
-6.5976 -6.1883 -1.7002 0.9639
-5.9978 -6.7300 -1.6944 0.9640
-5.3627 -7.2258 -1.6913 0.9640
-4.6946 -7.6744 -1.6910 0.9640
-3.2680 -8.4242 -1.6984 0.9639
-0.9340 -9.1564 -1.7300 0.9632
-0.1132 -9.2885 -1.7460 0.9629
0.7249 -9.3613 -1.7648 0.9625
2.4415 -9.3197 -1.8109 0.9615
4.1898 -9.0127 -1.8681 0.9604
6.7975 -8.0122 -1.9749 0.9581
8.4620 -6.9598 -2.0594 0.9564
9.2807 -5.1835 -1.9981 0.9577
9.9317 -4.4340 -2.0444 0.9567
10.5287 -3.6114 -2.0922 0.9557
11.0620 -2.7183 -2.1411 0.9547
11.5216 -1.7589 -2.1907 0.9537
11.2689 0.3094 -2.1189 0.9552
9.8592 1.1579 -1.8659 0.9604
8.7414 1.8301 -1.6787 0.9643
7.8200 2.3835 -1.5366 0.9673
7.0158 2.8455 -1.4230 0.9697
5.6163 3.5545 -1.2493 0.9733
5.0369 3.8587 -1.1926 0.9745
4.2267 4.6463 -1.1806 0.9748
3.5768 4.7180 -1.1128 0.9762
3.1216 4.9879 -1.1060 0.9763
1.2442 6.0962 -1.1695 0.9750
0.7233 6.4394 -1.2180 0.9740
-0.4452 6.6276 -1.2485 0.9733
-3.0605 12.1885 -2.3621 0.9501
-4.0536 11.6262 -2.3143 0.9511
-4.9685 10.9795 -2.2652 0.9521
-6.2498 11.0582 -2.3875 0.9496
-7.0508 10.2206 -2.3338 0.9507
-8.3621 8.4053 -2.2285 0.9529
-9.6143 5.4993 -2.0819 0.9559
-10.0038 3.5458 -1.9950 0.9577
-9.9978 0.7234 -1.8841 0.9600
-9.6491 -1.0336 -1.8240 0.9613
-9.3834 -1.8648 -1.7982 0.9618
-9.0618 -2.6612 -1.7752 0.9623
-8.6878 -3.4209 -1.7550 0.9627
-7.7952 -4.8228 -1.7229 0.9634
-7.2825 -5.4621 -1.7111 0.9636
-6.7292 -6.0584 -1.7019 0.9638
-5.5106 -7.1168 -1.6918 0.9640
-3.4364 -8.3489 -1.6970 0.9639
-0.3021 -9.2635 -1.7421 0.9630
0.5323 -9.3500 -1.7603 0.9626
2.2436 -9.3375 -1.8050 0.9617
4.8663 -8.8191 -1.8933 0.9598
6.6024 -8.1122 -1.9660 0.9583
9.7876 -4.6115 -2.0337 0.9569
8.9764 1.6889 -1.7168 0.9635
8.0164 2.2656 -1.5658 0.9667
5.7575 3.4814 -1.2646 0.9730
4.8484 4.2763 -1.2151 0.9740
4.3397 4.5792 -1.1858 0.9746
2.7719 5.1950 -1.1068 0.9763
0.7334 3.2532 -0.6268 0.9865
0.2883 6.7321 -1.2665 0.9729
-2.8238 12.3037 -2.3727 0.9499
-3.8337 11.7624 -2.3253 0.9509
-6.8765 10.4166 -2.3461 0.9505
-8.2321 8.6196 -2.2403 0.9526
-8.7647 7.6705 -2.1892 0.9537
-9.9762 3.7670 -2.0044 0.9575
-10.0666 2.8031 -1.9641 0.9584
-10.0801 1.8562 -1.9265 0.9591
-10.0210 0.9310 -1.8917 0.9599
-9.8934 0.0314 -1.8596 0.9605
-9.4491 -1.6781 -1.8038 0.9617
-9.1399 -2.4827 -1.7802 0.9622
-8.3653 -3.9809 -1.7413 0.9630
-7.9062 -4.6711 -1.7260 0.9633
-6.8589 -5.9262 -1.7038 0.9638
-3.6035 -8.2709 -1.6957 0.9639
-2.8611 -8.5928 -1.7023 0.9638
-2.0932 -8.8621 -1.7116 0.9636
-1.3021 -9.0769 -1.7236 0.9634
2.0461 -9.3519 -1.7994 0.9618
2.9149 -9.2633 -1.8253 0.9612
3.7897 -9.1072 -1.8541 0.9606
5.5404 -8.5820 -1.9200 0.9593
6.4065 -8.2082 -1.9571 0.9585
7.2588 -7.7575 -1.9969 0.9577
8.0909 -7.2280 -2.0392 0.9568
8.8955 -6.6184 -2.0840 0.9559
11.3217 -2.2046 -2.1680 0.9541
11.7369 -1.2114 -2.2178 0.9531
11.8567 -0.1586 -2.2288 0.9529
7.3735 2.6456 -1.4724 0.9686
6.5941 3.0559 -1.3661 0.9709
5.2939 3.7229 -1.2165 0.9740
3.3287 4.8652 -1.1080 0.9763
2.8754 5.1338 -1.1060 0.9763
1.9550 5.6775 -1.1287 0.9759
0.9661 6.2782 -1.1939 0.9745
0.4205 6.6427 -1.2511 0.9733
-0.1632 6.2152 -1.1686 0.9750
-3.6097 11.8940 -2.3363 0.9507
-4.5611 11.2842 -2.2877 0.9517
-5.4309 10.5971 -2.2382 0.9527
-7.4457 9.7431 -2.3049 0.9513
-2.2402 2.4436 -0.6231 0.9866
-8.6517 7.8891 -2.2007 0.9535
-9.1109 6.9242 -2.1509 0.9545
-3.0670 10.3977 -2.2915 0.9566
-5.3979 8.7015 -2.1645 0.9590
-2.1956 2.4329 -0.6927 0.9867
-7.6171 7.0557 -2.1947 0.9584
-8.4051 5.3663 -2.1079 0.9601
-8.6789 4.5045 -2.0669 0.9608
-8.9985 2.7817 -1.9909 0.9622
-9.0502 1.9322 -1.9562 0.9629
-8.9544 0.2813 -1.8937 0.9640
-8.8135 -0.5123 -1.8661 0.9645
-8.3625 -2.0199 -1.8185 0.9654
-7.7072 -3.4043 -1.7810 0.9661
-7.3104 -4.0451 -1.7661 0.9664
-6.3921 -5.2151 -1.7438 0.9668
-5.3245 -6.2259 -1.7317 0.9671
-3.4842 -7.4180 -1.7324 0.9670
-2.8161 -7.7231 -1.7377 0.9669
-2.1243 -7.9796 -1.7455 0.9668
0.8315 -8.4846 -1.8021 0.9657
2.3846 -8.3992 -1.8456 0.9649
3.9530 -8.0683 -1.8992 0.9639
4.7328 -7.8061 -1.9296 0.9634
5.5035 -7.4773 -1.9625 0.9628
7.7053 -6.0781 -2.0745 0.9607
8.3655 -5.4619 -2.1118 0.9600
2.2883 -0.9661 -0.5250 0.9899
10.4725 -0.4360 -2.2156 0.9581
9.5660 1.3220 -2.0413 0.9613
8.5031 1.9622 -1.8446 0.9650
7.6134 2.4915 -1.6933 0.9678
6.8572 2.9456 -1.5775 0.9699
6.1922 3.3443 -1.4876 0.9716
5.5794 3.6928 -1.4143 0.9730
3.5003 4.8184 -1.2589 0.9759
3.0409 5.0870 -1.2528 0.9761
0.8374 3.0212 -0.6627 0.9873
1.1486 6.2794 -1.3494 0.9742
0.6092 6.6427 -1.4100 0.9731
-0.5559 6.3381 -1.3449 0.9743
-1.9488 10.8976 -2.3401 0.9557
-4.5188 9.4665 -2.2173 0.9580
-5.2429 8.8499 -2.1743 0.9588
-2.1331 2.4629 -0.6887 0.9868
-7.5064 7.2433 -2.2050 0.9582
-7.9599 6.4118 -2.1605 0.9591
-8.8375 3.8378 -2.0366 0.9614
-8.9781 0.4656 -1.9003 0.9639
-8.8508 -0.3334 -1.8722 0.9644
-8.6653 -1.1075 -1.8466 0.9649
-8.4248 -1.8538 -1.8234 0.9653
-8.1325 -2.5697 -1.8028 0.9657
-7.4048 -3.9021 -1.7693 0.9664
-6.9750 -4.5148 -1.7563 0.9666
-5.4532 -6.1190 -1.7325 0.9670
-4.8766 -6.5709 -1.7297 0.9671
-4.2692 -6.9790 -1.7293 0.9671
-2.9707 -7.6578 -1.7362 0.9670
-0.1026 -8.4219 -1.7804 0.9662
2.2061 -8.4210 -1.8401 0.9650
2.9897 -8.3014 -1.8651 0.9646
4.5555 -7.8717 -1.9225 0.9635
5.3287 -7.5582 -1.9548 0.9629
6.0888 -7.1769 -1.9895 0.9623
8.2282 -5.6151 -2.1057 0.9601
8.7904 -3.9245 -2.0349 0.9614
9.2938 -3.1878 -2.0769 0.9606
9.7379 -2.3929 -2.1196 0.9598
10.4153 -0.6468 -2.2058 0.9582
10.6326 0.2919 -2.2484 0.9574
7.8085 2.3800 -1.7255 0.9672
5.7208 3.6206 -1.4311 0.9727
5.1263 3.9272 -1.3650 0.9739
4.7247 4.3418 -1.3564 0.9741
3.6066 4.7574 -1.2619 0.9759
0.1550 6.9207 -1.4633 0.9721
-0.4189 6.2365 -1.3212 0.9748
-1.7323 10.9755 -2.3487 0.9556
-2.6613 10.5986 -2.3099 0.9563
-3.5341 10.1364 -2.2691 0.9571
-4.3436 9.5987 -2.2270 0.9578
-5.0841 8.9956 -2.1842 0.9586
-2.1081 2.5369 -0.6972 0.9866
-7.3914 7.4296 -2.2153 0.9581
-7.8637 6.6034 -2.1706 0.9589
-8.5637 4.8983 -2.0854 0.9605
-8.7953 4.0348 -2.0454 0.9612
-8.9514 3.1728 -2.0075 0.9619
-9.0352 2.3183 -1.9717 0.9626
-8.9986 0.6511 -1.9071 0.9638
-8.7125 -0.9332 -1.8522 0.9648
-8.4843 -1.6861 -1.8285 0.9653
-7.8735 -3.1002 -1.7887 0.9660
-7.4969 -3.7572 -1.7726 0.9663
-7.0767 -4.3783 -1.7590 0.9666
-5.5802 -6.0099 -1.7335 0.9670
-4.4104 -6.8898 -1.7292 0.9671
-2.4427 -7.8687 -1.7416 0.9669
-1.7390 -8.0980 -1.7508 0.9667
-1.0153 -8.2760 -1.7625 0.9665
-0.2740 -8.4010 -1.7767 0.9662
0.4823 -8.4712 -1.7935 0.9659
1.2506 -8.4848 -1.8129 0.9655
3.5954 -8.1662 -1.8861 0.9642
4.3778 -7.9339 -1.9154 0.9636
5.1533 -7.6357 -1.9472 0.9630
6.6629 -6.8355 -2.0177 0.9617
8.0774 -5.7573 -2.0967 0.9603
8.1027 -4.7451 -1.9848 0.9623
8.6681 -4.0840 -2.0254 0.9616
9.1839 -3.3611 -2.0672 0.9608
9.6422 -2.5792 -2.1098 0.9600
10.0349 -1.7422 -2.1529 0.9592
10.1320 0.9808 -2.1517 0.9592
8.9617 1.6861 -1.9276 0.9634
8.0044 2.2622 -1.7582 0.9666
6.4861 3.1682 -1.5258 0.9709
3.2495 4.9640 -1.2541 0.9760
2.7934 5.2352 -1.2543 0.9760
2.3362 5.5151 -1.2661 0.9758
1.0033 3.1191 -0.6926 0.9867
0.7215 3.2000 -0.6934 0.9867
0.2930 6.8399 -1.4471 0.9724
-0.2892 6.1920 -1.3103 0.9750
-1.5134 11.0486 -2.3573 0.9554
-2.4540 10.6924 -2.3189 0.9561
-3.3403 10.2488 -2.2786 0.9569
-4.1648 9.7275 -2.2367 0.9577
-4.9214 9.1384 -2.1940 0.9585
-5.6058 8.4919 -2.1509 0.9593
-7.7632 6.7940 -2.1807 0.9587
-8.5000 5.0949 -2.0948 0.9603
-8.9223 3.3690 -2.0160 0.9618
-9.0159 0.8376 -1.9140 0.9637
-8.9163 0.0283 -1.8847 0.9642
-8.5411 -1.5169 -1.8337 0.9652
-6.7242 -4.8320 -1.7503 0.9667
-6.2331 -5.3855 -1.7412 0.9669
-5.7055 -5.8986 -1.7347 0.9670
-4.5500 -6.7983 -1.7292 0.9671
-3.9268 -7.1819 -1.7302 0.9671
-3.2761 -7.5195 -1.7338 0.9670
-2.6002 -7.8094 -1.7398 0.9669
2.6318 -8.3637 -1.8534 0.9648
3.4165 -8.2101 -1.8797 0.9643
4.9773 -7.7096 -1.9398 0.9632
6.4946 -6.9407 -2.0092 0.9619
7.2229 -6.4525 -2.0473 0.9612
7.9676 -4.8870 -1.9757 0.9625
8.5432 -4.2404 -2.0161 0.9618
9.9515 -1.9378 -2.1431 0.9594
10.2879 -1.0618 -2.1862 0.9586
10.5443 -0.1411 -2.2291 0.9578
10.4387 0.7958 -2.2129 0.9581
8.2079 2.1398 -1.7930 0.9659
6.6388 3.0766 -1.5467 0.9705
5.9972 3.4611 -1.4636 0.9721
4.8268 4.0852 -1.3367 0.9745
3.3544 4.9028 -1.2557 0.9760
2.4410 5.4502 -1.2623 0.9759
1.9768 5.7409 -1.2834 0.9755
0.9833 6.3898 -1.3666 0.9739
0.4280 6.7607 -1.4319 0.9727
-0.1631 6.2129 -1.3137 0.9749
-0.8744 7.5228 -1.6009 0.9695
-2.2439 10.7817 -2.3279 0.9560
-3.1433 10.3572 -2.2879 0.9567
-3.9825 9.8527 -2.2464 0.9575
-4.7550 9.2782 -2.2038 0.9583
-5.4562 8.6439 -2.1607 0.9591
-2.2352 2.4382 -0.6992 0.9866
-7.6584 6.9834 -2.1908 0.9585
-8.0859 6.1452 -2.1468 0.9593
0.4783 6.7226 -1.5840 0.9727
-0.1159 6.2874 -1.4779 0.9745
-3.4670 8.7742 -2.2173 0.9620
-5.3804 7.1559 -2.1041 0.9639
-2.1931 2.4301 -0.7693 0.9866
-7.2293 5.5839 -2.1469 0.9632
-8.1410 2.5166 -2.0027 0.9656
-8.2015 1.7510 -1.9710 0.9661
-8.0215 -0.4663 -1.8884 0.9675
-7.8505 -1.1667 -1.8653 0.9679
-7.6286 -1.8426 -1.8445 0.9683
-7.3587 -2.4915 -1.8259 0.9686
-3.7806 -6.4734 -1.7619 0.9697
-3.1917 -6.7952 -1.7644 0.9696
-2.5790 -7.0729 -1.7694 0.9695
-1.9447 -7.3050 -1.7766 0.9694
0.0634 -7.7121 -1.8126 0.9688
0.7592 -7.7461 -1.8292 0.9685
1.4633 -7.7266 -1.8482 0.9682
2.1725 -7.6520 -1.8695 0.9678
3.5921 -7.3316 -1.9188 0.9670
4.2944 -7.0830 -1.9467 0.9665
6.3159 -5.9712 -2.0428 0.9649
7.5205 -4.9102 -2.1109 0.9638
2.2875 -0.9657 -0.5836 0.9898
8.7658 -1.9652 -2.1113 0.9638
9.0669 -1.1953 -2.1494 0.9631
9.4528 0.4527 -2.2242 0.9619
8.4896 1.9591 -2.0477 0.9648
7.6023 2.4878 -1.8800 0.9677
4.1055 4.7025 -1.4671 0.9747
3.0918 5.1721 -1.4162 0.9755
1.9188 3.9790 -1.0382 0.9820
0.8317 3.0008 -0.7318 0.9873
1.1569 6.3248 -1.5111 0.9739
0.6095 6.6458 -1.5685 0.9730
0.0138 6.9944 -1.6438 0.9717
-0.5550 6.3277 -1.4929 0.9742
-2.5334 9.2827 -2.2614 0.9612
-3.2996 8.8764 -2.2256 0.9618
-4.6646 7.8739 -2.1509 0.9631
-5.2549 7.2942 -2.1128 0.9637
-2.1328 2.4625 -0.7656 0.9867
-6.7223 6.4867 -2.1955 0.9623
-7.1434 5.7541 -2.1558 0.9630
-7.4923 5.0016 -2.1172 0.9637
-7.9779 3.4645 -2.0442 0.9649
-8.1932 1.9249 -1.9780 0.9660
-8.2056 1.1671 -1.9479 0.9665
-8.0531 -0.3034 -1.8940 0.9674
-7.4244 -2.3460 -1.8299 0.9685
-6.7710 -3.5681 -1.7988 0.9690
-6.3820 -4.1309 -1.7867 0.9692
-5.9548 -4.6591 -1.7770 0.9694
-4.9954 -5.6052 -1.7646 0.9696
-4.4678 -6.0200 -1.7619 0.9697
-3.9113 -6.3940 -1.7616 0.9697
-2.7208 -7.0135 -1.7680 0.9696
-2.0912 -7.2562 -1.7748 0.9694
-1.4418 -7.4520 -1.7839 0.9693
-0.7752 -7.5994 -1.7953 0.9691
-0.0938 -7.6970 -1.8091 0.9689
0.5996 -7.7430 -1.8252 0.9686
1.3020 -7.7358 -1.8437 0.9683
2.0104 -7.6740 -1.8644 0.9679
2.7212 -7.5559 -1.8875 0.9675
3.4308 -7.3800 -1.9127 0.9671
4.1350 -7.1450 -1.9402 0.9666
4.8293 -6.8498 -1.9698 0.9661
5.5090 -6.4935 -2.0013 0.9656
6.1687 -6.0753 -2.0349 0.9650
6.8028 -5.5952 -2.0701 0.9645
7.3993 -5.0495 -2.1053 0.9639
7.3950 -4.1303 -1.9907 0.9658
2.3122 -1.0323 -0.5951 0.9896
8.3099 -2.8503 -2.0647 0.9645
8.6880 -2.1349 -2.1026 0.9639
9.2518 -0.5746 -2.1786 0.9626
9.4245 0.2587 -2.2158 0.9620
9.5165 1.1177 -2.2520 0.9614
7.0110 2.8436 -1.7781 0.9694
6.3291 3.2532 -1.6725 0.9712
4.7193 4.3368 -1.5063 0.9740
4.2173 4.6360 -1.4729 0.9746
3.6674 4.8375 -1.4267 0.9754
3.1977 5.1095 -1.4166 0.9755
2.2670 5.6715 -1.4355 0.9752
0.9234 3.0853 -0.7569 0.9869
0.1548 6.9120 -1.6249 0.9720
-0.4184 6.2287 -1.4672 0.9747
-2.3516 9.3653 -2.2694 0.9611
-3.1293 8.9753 -2.2339 0.9617
-3.8542 8.5172 -2.1972 0.9623
-4.5211 7.9995 -2.1596 0.9629
-5.1259 7.4303 -2.1215 0.9636
-7.4190 5.1747 -2.1259 0.9635
-7.7128 4.4116 -2.0883 0.9641
-8.0921 2.8682 -2.0177 0.9653
-8.1817 2.0993 -1.9852 0.9659
-8.1739 0.5914 -1.9261 0.9669
-8.0819 -0.1393 -1.8997 0.9673
-7.1928 -2.8322 -1.8168 0.9687
-6.8542 -3.4351 -1.8019 0.9690
-6.4742 -4.0055 -1.7893 0.9692
-6.0555 -4.5418 -1.7790 0.9694
-5.6005 -5.0421 -1.7711 0.9695
-4.5908 -5.9289 -1.7623 0.9697
-3.4635 -6.6538 -1.7630 0.9696
-2.8614 -6.9518 -1.7668 0.9696
-0.2504 -7.6792 -1.8057 0.9689
1.1411 -7.7422 -1.8393 0.9684
1.8485 -7.6930 -1.8595 0.9680
2.5590 -7.5878 -1.8820 0.9676
3.2692 -7.4253 -1.9068 0.9672
3.9750 -7.2039 -1.9337 0.9668
4.6720 -6.9226 -1.9628 0.9663
5.3555 -6.5802 -1.9940 0.9657
6.0203 -6.1762 -2.0270 0.9652
7.2790 -4.2627 -1.9825 0.9659
8.2156 -3.0068 -2.0561 0.9647
8.9378 -1.5518 -2.1320 0.9634
6.4776 3.1640 -1.6943 0.9708
5.2838 3.8794 -1.5406 0.9734
2.8401 5.3228 -1.4179 0.9755
2.3753 5.6076 -1.4313 0.9753
1.0040 3.1214 -0.7706 0.9866
0.7187 3.1878 -0.7680 0.9867
0.8643 6.4964 -1.5403 0.9734
0.2926 6.8313 -1.6070 0.9723
-2.1674 9.4439 -2.2772 0.9610
-3.6938 8.6273 -2.2056 0.9622
-4.3743 8.1224 -2.1682 0.9628
-5.5484 6.9612 -2.0921 0.9641
-6.5060 6.8122 -2.2139 0.9620
-6.9602 6.0913 -2.1738 0.9627
-7.3420 5.3470 -2.1346 0.9634
-7.6520 4.5866 -2.0967 0.9640
-7.8915 3.8170 -2.0603 0.9646
-8.0624 3.0443 -2.0254 0.9652
-8.1670 2.2741 -1.9924 0.9658
-8.2075 1.5114 -1.9614 0.9663
-8.1079 0.0257 -1.9055 0.9672
-7.7858 -1.3827 -1.8585 0.9680
-7.5485 -2.0504 -1.8384 0.9684
-7.2640 -2.6903 -1.8205 0.9687
-6.1543 -4.4225 -1.7811 0.9693
-5.2259 -5.4028 -1.7666 0.9696
-4.1687 -6.2285 -1.7615 0.9697
-3.5975 -6.5797 -1.7624 0.9697
-3.0008 -6.8877 -1.7657 0.9696
-2.3810 -7.1512 -1.7714 0.9695
-1.0814 -7.5383 -1.7898 0.9692
-0.4064 -7.6588 -1.8025 0.9690
0.2819 -7.7285 -1.8176 0.9687
1.6867 -7.7091 -1.8547 0.9681
2.3968 -7.6168 -1.8767 0.9677
3.1074 -7.4675 -1.9009 0.9673
7.1609 -4.3923 -1.9743 0.9661
8.8680 -1.7268 -2.1233 0.9636
6.6300 3.0725 -1.7174 0.9704
5.4095 3.8042 -1.5543 0.9732
4.8734 4.1246 -1.5005 0.9741
3.8858 4.7130 -1.4356 0.9752
3.4106 4.9850 -1.4196 0.9755
2.9457 5.2593 -1.4167 0.9755
2.0059 5.8255 -1.4480 0.9750
0.9885 6.4236 -1.5275 0.9736
-0.1631 6.2120 -1.4605 0.9748
-1.9810 9.5185 -2.2850 0.9608
-4.2243 8.2426 -2.1768 0.9627
-4.8578 7.6959 -2.1389 0.9633
-7.2612 5.5185 -2.1435 0.9632
-0.1159 6.2878 -1.6283 0.9743
-0.8086 7.4650 -1.9441 0.9695
-2.4290 8.2346 -2.2229 0.9651
-3.1097 7.8699 -2.1910 0.9656
-3.7431 7.4466 -2.1579 0.9661
-4.3248 6.9717 -2.1242 0.9667
-2.1906 2.4273 -0.8466 0.9866
-6.5528 5.0614 -2.1438 0.9664
-7.1147 3.6926 -2.0755 0.9674
-7.3009 2.9949 -2.0432 0.9679
-7.4259 2.2955 -2.0125 0.9684
-7.4914 1.5994 -1.9834 0.9688
-7.4997 0.9110 -1.9561 0.9693
-7.4531 0.2341 -1.9307 0.9697
-7.3537 -0.4275 -1.9072 0.9700
-7.2043 -1.0706 -1.8858 0.9704
-6.4797 -2.8621 -1.8341 0.9712
-6.1543 -3.4054 -1.8211 0.9714
-5.7909 -3.9183 -1.8104 0.9715
-5.3919 -4.3991 -1.8018 0.9717
-4.4963 -5.2575 -1.7912 0.9718
-4.0041 -5.6319 -1.7892 0.9719
-3.4853 -5.9678 -1.7894 0.9718
-2.9421 -6.2638 -1.7918 0.9718
-2.3768 -6.5183 -1.7964 0.9717
-1.7916 -6.7300 -1.8032 0.9716
-1.1890 -6.8975 -1.8122 0.9715
0.6978 -7.1198 -1.8523 0.9709
1.3438 -7.0959 -1.8699 0.9706
1.9933 -7.0209 -1.8897 0.9703
2.6428 -6.8934 -1.9115 0.9700
3.9268 -6.4767 -1.9611 0.9692
5.1628 -5.8394 -2.0181 0.9683
6.3124 -4.9794 -2.0817 0.9673
7.9013 -1.7714 -2.0966 0.9671
8.1582 -1.0755 -2.1306 0.9666
8.3514 -0.3477 -2.1642 0.9661
5.0327 4.0211 -1.6679 0.9737
3.5590 4.8992 -1.5679 0.9753
2.1556 5.7294 -1.5849 0.9750
1.1555 6.3173 -1.6628 0.9738
0.6087 6.6377 -1.7258 0.9728
0.0138 6.9854 -1.8086 0.9715
-2.2676 8.3089 -2.2300 0.9650
-2.9583 7.9585 -2.1984 0.9655
-4.1968 7.0842 -2.1319 0.9665
-4.7362 6.5743 -2.0979 0.9671
-6.0803 5.8672 -2.1877 0.9657
-6.4724 5.2136 -2.1519 0.9662
-7.0634 3.8511 -2.0830 0.9673
-7.4026 2.4550 -2.0193 0.9683
-7.3809 -0.2780 -1.9124 0.9699
-7.0562 -1.5526 -1.8707 0.9706
-6.5484 -2.7341 -1.8373 0.9711
-5.8770 -3.8041 -1.8126 0.9715
-5.0611 -4.7471 -1.7966 0.9717
-4.6046 -5.1668 -1.7919 0.9718
-3.0681 -6.1998 -1.7911 0.9718
-1.9267 -6.6856 -1.8015 0.9717
-0.7136 -6.9955 -1.8207 0.9714
-0.0863 -7.0809 -1.8335 0.9712
0.5512 -7.1182 -1.8485 0.9709
1.1960 -7.1058 -1.8657 0.9707
1.8450 -7.0426 -1.8850 0.9704
2.4948 -6.9271 -1.9063 0.9700
3.1418 -6.7584 -1.9297 0.9697
6.1869 -5.0887 -2.0741 0.9674
6.7156 -4.5829 -2.1051 0.9670
2.3031 -1.0282 -0.6530 0.9896
7.5067 -2.5748 -2.0548 0.9677
7.8343 -1.9252 -2.0888 0.9672
8.1050 -1.2373 -2.1228 0.9667
8.3132 -0.5163 -2.1566 0.9662
8.4538 0.2321 -2.1897 0.9657
8.5139 1.7825 -2.2522 0.9647
7.0012 2.8396 -1.9562 0.9693
6.3208 3.2489 -1.8401 0.9711
4.7138 4.3318 -1.6576 0.9739
3.6660 4.8357 -1.5712 0.9752
1.9675 3.8757 -1.1254 0.9822
0.9255 3.0924 -0.8358 0.9868
1.2750 6.2472 -1.6509 0.9740
0.1546 6.9032 -1.7878 0.9719
-1.3649 8.6473 -2.2667 0.9645
-2.1041 8.3798 -2.2370 0.9649
-2.8046 8.0440 -2.2057 0.9654
-3.4602 7.6466 -2.1731 0.9659
-4.0660 7.1943 -2.1397 0.9664
-2.1129 2.5426 -0.8560 0.9864
-5.9777 6.0086 -2.1945 0.9656
-6.7309 4.6947 -2.1248 0.9667
-7.0089 4.0090 -2.0906 0.9672
-7.3763 2.6145 -2.0263 0.9682
-7.5029 1.2239 -1.9683 0.9691
-7.1028 -1.4116 -1.8750 0.9705
-6.3076 -3.1612 -1.8268 0.9713
-5.5783 -4.1838 -1.8054 0.9716
-5.1609 -4.6464 -1.7980 0.9717
-4.7114 -5.0742 -1.7928 0.9718
-4.2321 -5.4657 -1.7898 0.9718
-3.7252 -5.8194 -1.7890 0.9719
-3.1928 -6.1338 -1.7904 0.9718
-2.6373 -6.4074 -1.7940 0.9718
-2.0609 -6.6388 -1.7998 0.9717
0.4050 -7.1140 -1.8449 0.9710
1.0484 -7.1131 -1.8616 0.9707
2.3467 -6.9581 -1.9013 0.9701
2.9946 -6.8016 -1.9242 0.9698
4.2691 -6.3255 -1.9759 0.9690
6.0599 -5.1951 -2.0667 0.9676
6.6044 -4.7074 -2.0999 0.9670
6.6008 -3.8656 -1.9806 0.9689
7.0348 -3.3145 -2.0135 0.9684
7.7644 -2.0769 -2.0810 0.9673
8.0486 -1.3974 -2.1151 0.9668
8.5130 0.8241 -2.2145 0.9653
7.1689 2.7386 -1.9870 0.9688
5.2774 3.8747 -1.6952 0.9733
4.3250 4.5637 -1.6279 0.9744
3.7734 4.7719 -1.5751 0.9752
3.2796 5.0100 -1.5504 0.9756
2.0666 3.8731 -1.1366 0.9820
2.3727 5.6013 -1.5750 0.9752
-1.1915 8.6982 -2.2732 0.9644
-3.9324 7.3020 -2.1473 0.9663
-4.4971 6.8123 -2.1135 0.9668
-5.4562 5.7130 -2.0454 0.9679
-6.3015 5.5148 -2.1682 0.9660
-6.9511 4.1665 -2.0983 0.9671
-7.1802 3.4729 -2.0651 0.9676
-7.4529 2.0753 -2.0031 0.9685
-7.5001 1.3811 -1.9746 0.9690
-7.4908 0.6960 -1.9479 0.9694
-7.4273 0.0236 -1.9231 0.9698
-7.3119 -0.6326 -1.9002 0.9701
-6.6793 -2.4738 -1.8442 0.9710
-6.0436 -3.5706 -1.8175 0.9714
-5.2590 -4.5439 -1.7995 0.9717
-3.8432 -5.7421 -1.7890 0.9719
-3.3164 -6.0656 -1.7899 0.9718
-2.7660 -6.3486 -1.7930 0.9718
-0.9957 -6.9409 -1.8155 0.9714
-0.3740 -7.0479 -1.8274 0.9713
0.9011 -7.1177 -1.8576 0.9708
2.1984 -6.9863 -1.8963 0.9702
2.8472 -6.8421 -1.9188 0.9698
3.4910 -6.6439 -1.9432 0.9695
4.1259 -6.3910 -1.9696 0.9691
4.7475 -6.0826 -1.9978 0.9686
6.4831 -4.8235 -2.0922 0.9672
7.3398 -2.8574 -2.0393 0.9680
7.6916 -2.2266 -2.0732 0.9675
7.9889 -1.5556 -2.1073 0.9669
8.5001 0.6480 -2.2072 0.9654
8.5273 1.4248 -2.2385 0.9649
6.6211 3.0684 -1.8895 0.9703
5.9820 3.4524 -1.7883 0.9719
4.4385 4.4960 -1.6358 0.9742
3.8814 4.7077 -1.5798 0.9751
2.9471 5.2619 -1.5615 0.9754
2.0037 5.8189 -1.5934 0.9749
0.9873 6.4159 -1.6808 0.9735
0.4269 6.7440 -1.7496 0.9725
-1.7712 8.5107 -2.2508 0.9647
-2.4902 8.2053 -2.2202 0.9652
-3.1670 7.8351 -2.1881 0.9657
-4.3731 6.9280 -2.1212 0.9667
-4.8947 6.4050 -2.0872 0.9672
-2.2251 2.4272 -0.8526 0.9865
0.4772 6.7059 -1.9032 0.9724
-0.8075 7.4546 -2.1227 0.9693
-2.1966 7.4468 -2.1979 0.9682
-2.8160 7.1268 -2.1693 0.9686
-3.3945 6.7531 -2.1397 0.9691
-4.4125 5.8685 -2.0786 0.9699
-2.1880 2.4245 -0.9245 0.9865
-5.6252 5.2106 -2.1707 0.9686
-5.9861 4.6236 -2.1413 0.9690
-6.8198 2.1082 -2.0208 0.9708
-6.8675 0.2157 -1.9451 0.9718
-6.6504 -0.9883 -1.9034 0.9724
-6.4735 -1.5636 -1.8853 0.9727
-6.2540 -2.1175 -1.8692 0.9729
-5.9942 -2.6477 -1.8551 0.9731
-5.6961 -3.1519 -1.8429 0.9733
-4.5953 -4.4900 -1.8188 0.9736
-4.1667 -4.8721 -1.8149 0.9737
-3.7109 -5.2195 -1.8130 0.9737
-3.2300 -5.5308 -1.8132 0.9737
-1.6595 -6.2336 -1.8262 0.9735
-1.1009 -6.3863 -1.8346 0.9734
0.0540 -6.5615 -1.8576 0.9731
0.6450 -6.5814 -1.8721 0.9729
1.8398 -6.4801 -1.9070 0.9724
3.6138 -5.9605 -1.9733 0.9714
4.7403 -5.3616 -2.0260 0.9707
5.2737 -4.9859 -2.0546 0.9703
5.7809 -4.5601 -2.0844 0.9699
2.2858 -0.9650 -0.7024 0.9897
6.9081 -2.2130 -2.0535 0.9703
7.1844 -1.6107 -2.0843 0.9699
7.4071 -0.9765 -2.1151 0.9694
7.6735 0.3675 -2.1748 0.9686
7.7092 1.0654 -2.2032 0.9682
7.5710 2.4776 -2.2551 0.9674
4.5921 4.3961 -1.7997 0.9739
3.5550 4.8937 -1.7123 0.9752
0.8271 2.9839 -0.8766 0.9872
1.1542 6.3097 -1.8159 0.9737
0.6080 6.6294 -1.8846 0.9727
0.0138 6.9763 -1.9750 0.9714
-1.3874 7.7581 -2.2311 0.9678
-2.6781 7.2047 -2.1760 0.9686
-3.2663 6.8427 -2.1465 0.9690
-3.8102 6.4316 -2.1163 0.9694
-4.3063 5.9775 -2.0856 0.9698
-5.1450 4.9647 -2.0241 0.9707
-5.9107 4.7612 -2.1486 0.9689
-6.2186 4.1513 -2.1167 0.9694
-6.4684 3.5266 -2.0856 0.9698
-6.6607 2.8925 -2.0557 0.9703
-6.7965 2.2540 -2.0271 0.9707
-6.8772 1.6157 -1.9999 0.9711
-6.8801 0.3568 -1.9503 0.9718
-6.8061 -0.2564 -1.9281 0.9721
-6.6846 -0.8543 -1.9077 0.9724
-6.5177 -1.4342 -1.8893 0.9726
-6.3078 -1.9931 -1.8727 0.9729
-5.7674 -3.0393 -1.8455 0.9733
-5.4414 -3.5221 -1.8350 0.9734
-5.0813 -3.9757 -1.8265 0.9735
-4.2670 -4.7879 -1.8156 0.9737
-3.8172 -5.1433 -1.8132 0.9737
-3.3418 -5.4630 -1.8129 0.9737
-2.3234 -5.9892 -1.8186 0.9736
-1.7847 -6.1929 -1.8245 0.9736
2.8951 -6.2277 -1.9442 0.9719
3.4815 -6.0159 -1.9677 0.9715
4.6154 -5.4402 -2.0197 0.9708
5.6678 -4.6617 -2.0775 0.9700
7.1259 -1.7511 -2.0773 0.9700
7.3613 -1.1238 -2.1081 0.9695
7.5394 -0.4682 -2.1385 0.9691
7.6559 0.2102 -2.1682 0.9687
