ply
format ascii 1.0
element vertex 1596
property float32 x
property float32 y
property float32 z
property float32 I
end_header
-4.1836 -4.9834 -2.0013 0.9731
-3.2309 -5.6480 -2.0013 0.9731
-2.7138 -5.9139 -2.0014 0.9731
-2.1751 -6.1326 -2.0014 0.9731
-1.0501 -6.4218 -2.0014 0.9731
-0.4727 -6.4900 -2.0015 0.9731
0.6889 -6.4709 -2.0015 0.9731
2.3788 -6.0574 -2.0016 0.9731
2.9100 -5.8210 -2.0017 0.9731
5.1404 -3.9920 -2.0019 0.9731
6.0146 -2.4875 -2.0019 0.9731
6.4589 -0.8052 -2.0020 0.9731
6.4993 0.3561 -2.0020 0.9731
5.4049 3.6269 -2.0020 0.9731
5.0596 4.0949 -2.0020 0.9731
4.6736 4.5299 -2.0019 0.9731
3.5053 4.8868 -1.8498 0.9751
2.5805 5.4321 -1.8497 0.9751
1.5734 5.8042 -1.8497 0.9751
0.5163 5.9913 -1.8496 0.9751
-0.0176 5.1431 -1.5819 0.9787
-1.0894 5.9137 -1.8495 0.9751
-1.6129 5.7927 -1.8495 0.9751
-3.0899 5.1581 -1.8494 0.9752
-3.5379 4.8616 -1.8494 0.9752
-3.9577 4.5264 -1.8493 0.9752
-4.9850 3.9784 -1.9617 0.9737
-5.7265 3.0899 -2.0014 0.9731
-6.1845 2.0224 -2.0014 0.9731
-6.4455 0.8905 -2.0013 0.9731
-6.4992 0.3115 -2.0013 0.9731
-6.3494 -1.4214 -2.0013 0.9731
-6.1971 -1.9825 -2.0013 0.9731
-5.9954 -2.5278 -2.0013 0.9731
-5.4504 -3.5536 -2.0013 0.9731
-5.1115 -4.0259 -2.0013 0.9731
-4.7317 -4.4661 -2.0013 0.9731
-3.8623 -5.2364 -2.0013 0.9731
-3.3795 -5.5603 -2.0013 0.9731
-2.8697 -5.8398 -2.0014 0.9731
-1.7856 -6.2572 -2.0014 0.9731
-1.2200 -6.3917 -2.0014 0.9731
0.5171 -6.4868 -2.0015 0.9731
1.0940 -6.4149 -2.0016 0.9731
1.6623 -6.2917 -2.0016 0.9731
2.7547 -5.8961 -2.0017 0.9731
3.2700 -5.6268 -2.0017 0.9731
3.7593 -5.3125 -2.0017 0.9731
4.6442 -4.5596 -2.0018 0.9731
5.0327 -4.1269 -2.0018 0.9731
5.3811 -3.6613 -2.0019 0.9731
5.6865 -3.1663 -2.0019 0.9731
5.9465 -2.6462 -2.0019 0.9731
6.1590 -2.1048 -2.0020 0.9731
6.4353 -0.9762 -2.0020 0.9731
6.5064 0.1837 -2.0020 0.9731
6.3701 1.3377 -2.0020 0.9731
6.0308 2.4490 -2.0021 0.9731
5.1664 3.9593 -2.0020 0.9731
4.3665 4.7999 -1.9958 0.9732
3.1914 5.0973 -1.8498 0.9751
2.7236 5.3618 -1.8497 0.9751
1.7268 5.7605 -1.8497 0.9751
1.2057 5.8915 -1.8497 0.9751
0.6750 5.9755 -1.8496 0.9751
0.1186 5.1343 -1.5796 0.9787
-0.3983 6.0001 -1.8496 0.9751
-0.9323 5.9405 -1.8495 0.9751
-1.9736 5.6799 -1.8495 0.9751
-2.4727 5.4810 -1.8494 0.9752
-5.9093 2.7240 -2.0014 0.9731
-3.3045 4.4759 -1.8494 0.9768
-3.6908 4.1630 -1.8493 0.9768
-4.7246 3.7176 -1.9984 0.9750
-5.5491 2.3366 -2.0014 0.9749
-5.7354 1.8319 -2.0014 0.9749
-5.8760 1.3126 -2.0014 0.9749
-6.0157 0.2469 -2.0013 0.9749
-6.0136 -0.2911 -2.0013 0.9749
-5.0207 -3.3228 -2.0013 0.9749
-4.7040 -3.7577 -2.0013 0.9749
-4.3499 -4.1626 -2.0013 0.9749
-3.5404 -4.8698 -2.0013 0.9749
-3.0916 -5.1665 -2.0014 0.9749
-1.6124 -5.8011 -2.0014 0.9749
-1.0882 -5.9220 -2.0015 0.9749
-0.5552 -5.9956 -2.0015 0.9749
0.5197 -5.9989 -2.0015 0.9749
1.0531 -5.9287 -2.0016 0.9749
4.3262 -4.1893 -2.0018 0.9749
5.0023 -3.3534 -2.0019 0.9749
5.8598 -1.3909 -2.0020 0.9749
5.9606 -0.8623 -2.0020 0.9749
6.0139 -0.3268 -2.0020 0.9749
6.0191 0.2114 -2.0020 0.9749
5.8856 1.2783 -2.0020 0.9749
5.3366 2.7919 -2.0020 0.9749
4.7551 3.6963 -2.0020 0.9749
2.9205 4.7367 -1.8497 0.9768
1.5611 5.3410 -1.8497 0.9768
1.0781 5.4590 -1.8496 0.9768
0.0833 5.1352 -1.7072 0.9786
-0.9004 5.4907 -1.8495 0.9768
-1.3869 5.3884 -1.8495 0.9768
-1.8623 5.2430 -1.8495 0.9768
-2.7648 4.8281 -1.8494 0.9768
-3.1847 4.5620 -1.8494 0.9768
-3.5792 4.2594 -1.8494 0.9768
-4.0539 4.0312 -1.9004 0.9762
-5.2417 2.9627 -2.0014 0.9749
-5.6849 1.9834 -2.0014 0.9749
-5.9468 0.9409 -2.0013 0.9749
-6.0070 0.4063 -2.0013 0.9749
-5.7693 -1.7215 -2.0013 0.9749
-5.5926 -2.2296 -2.0013 0.9749
-4.4587 -4.0458 -2.0013 0.9749
-4.0798 -4.4277 -2.0013 0.9749
-3.6683 -4.7742 -2.0013 0.9749
-3.2275 -5.0827 -2.0014 0.9749
-1.2448 -5.8910 -2.0014 0.9749
0.8956 -5.9545 -2.0016 0.9749
1.4235 -5.8509 -2.0016 0.9749
4.9116 -3.4849 -2.0019 0.9749
5.2031 -3.0326 -2.0019 0.9749
5.4531 -2.5561 -2.0019 0.9749
5.9357 -1.0200 -2.0020 0.9749
6.0031 -0.4861 -2.0020 0.9749
6.0225 0.0517 -2.0020 0.9749
5.9939 0.5891 -2.0020 0.9749
5.9174 1.1217 -2.0020 0.9749
5.4088 2.6494 -2.0020 0.9749
5.1507 3.1217 -2.0020 0.9749
4.8515 3.5689 -2.0020 0.9749
2.1683 5.1247 -1.8497 0.9768
1.7022 5.2978 -1.8497 0.9768
1.2225 5.4285 -1.8497 0.9768
0.7330 5.5159 -1.8496 0.9768
-0.2594 5.5582 -1.8496 0.9768
-1.2436 5.4233 -1.8495 0.9768
-1.7227 5.2905 -1.8495 0.9768
-2.6358 4.8998 -1.8494 0.9768
-3.0626 4.6448 -1.8494 0.9768
-3.8600 4.0475 -1.8592 0.9767
-4.8632 3.5484 -2.0011 0.9749
-5.7982 1.6223 -2.0014 0.9749
-5.9198 1.0983 -2.0013 0.9749
-5.8129 -1.5679 -2.0013 0.9749
-5.6497 -2.0805 -2.0013 0.9749
-4.8966 -3.5031 -2.0013 0.9749
-4.5644 -3.9262 -2.0013 0.9749
-4.1958 -4.3179 -2.0013 0.9749
-3.7936 -4.6753 -2.0013 0.9749
-3.3612 -4.9953 -2.0014 0.9749
-2.4195 -5.5134 -2.0014 0.9749
-1.4006 -5.8559 -2.0014 0.9749
-0.8723 -5.9576 -2.0015 0.9749
1.2679 -5.8865 -2.0016 0.9749
2.2944 -5.5675 -2.0017 0.9749
2.7823 -5.3405 -2.0017 0.9749
3.6877 -4.7609 -2.0018 0.9749
4.0980 -4.4128 -2.0018 0.9749
4.4756 -4.0294 -2.0018 0.9749
5.3834 -2.6998 -2.0019 0.9749
5.7778 -1.6996 -2.0019 0.9749
5.9065 -1.1770 -2.0020 0.9749
5.9881 -0.6451 -2.0020 0.9749
4.9444 3.4390 -2.0020 0.9749
4.6177 3.8667 -2.0020 0.9749
4.2541 4.2634 -2.0020 0.9749
3.1675 4.5753 -1.8497 0.9768
2.7464 4.8397 -1.8497 0.9768
0.3851 5.5510 -1.8496 0.9768
-0.1027 5.1059 -1.6976 0.9787
-2.0516 5.1718 -1.8495 0.9768
-2.5050 4.9680 -1.8494 0.9768
-3.7315 4.1266 -1.8493 0.9768
-4.3339 4.0072 -1.9620 0.9754
-5.0773 3.2364 -2.0014 0.9749
-5.3459 2.7703 -2.0014 0.9749
-5.5717 2.2820 -2.0014 0.9749
-5.9771 0.7242 -2.0013 0.9749
-5.9552 -0.8852 -2.0013 0.9749
-5.7029 -1.9300 -2.0013 0.9749
-5.5079 -2.4313 -2.0013 0.9749
-5.2689 -2.9133 -2.0013 0.9749
-4.9878 -3.3720 -2.0013 0.9749
-3.4924 -4.9044 -2.0013 0.9749
-2.0683 -5.6546 -2.0014 0.9749
1.1113 -5.9181 -2.0016 0.9749
1.6352 -5.7953 -2.0016 0.9749
2.6397 -5.4124 -2.0017 0.9749
3.1123 -5.1553 -2.0017 0.9749
3.5601 -4.8570 -2.0017 0.9749
3.9795 -4.5199 -2.0018 0.9749
4.3671 -4.1467 -2.0018 0.9749
4.7199 -3.7403 -2.0018 0.9749
5.0350 -3.3042 -2.0019 0.9749
5.3099 -2.8416 -2.0019 0.9749
5.5424 -2.3563 -2.0019 0.9749
5.7307 -1.8522 -2.0019 0.9749
6.0168 -0.2677 -2.0020 0.9749
5.9686 0.8064 -2.0020 0.9749
5.7301 1.8549 -2.0020 0.9749
5.5417 2.3590 -2.0020 0.9749
5.3090 2.8442 -2.0020 0.9749
4.7186 3.7428 -2.0020 0.9749
4.3656 4.1491 -2.0020 0.9749
3.9702 4.5135 -1.9981 0.9750
2.8738 4.7652 -1.8497 0.9768
1.5086 5.3561 -1.8497 0.9768
0.5321 5.5388 -1.8496 0.9768
-0.4612 5.5450 -1.8496 0.9768
-0.9543 5.4816 -1.8495 0.9768
-1.4398 5.3745 -1.8495 0.9768
-1.9137 5.2244 -1.8495 0.9768
-2.3724 5.0327 -1.8494 0.9768
-2.8121 4.8007 -1.8494 0.9768
-4.6589 3.7937 -1.9971 0.9750
-4.9897 3.3699 -2.0015 0.9749
-5.2706 2.9110 -2.0014 0.9749
-5.7040 1.9274 -2.0014 0.9749
-5.9558 0.8825 -2.0013 0.9749
-6.0107 0.3473 -2.0013 0.9749
-6.0177 -0.1906 -2.0013 0.9749
-5.8878 -1.2576 -2.0013 0.9749
-5.0754 -3.2385 -2.0013 0.9749
-4.4188 -4.0894 -2.0013 0.9749
-3.6213 -4.8100 -2.0013 0.9749
-0.1184 -6.0201 -2.0015 0.9749
0.4195 -6.0068 -2.0015 0.9749
1.4809 -5.8366 -2.0016 0.9749
1.9960 -5.6812 -2.0016 0.9749
2.9745 -5.2360 -2.0017 0.9749
3.4301 -4.9496 -2.0017 0.9749
4.6190 -3.8642 -2.0018 0.9749
5.2327 -2.9814 -2.0019 0.9749
5.8358 -1.4885 -2.0020 0.9749
5.9454 -0.9617 -2.0020 0.9749
6.0076 -0.4271 -2.0020 0.9749
6.0217 0.1108 -2.0020 0.9749
5.9878 0.6479 -2.0020 0.9749
5.1198 3.1721 -2.0020 0.9749
4.4742 4.0319 -2.0020 0.9749
4.0932 4.4117 -2.0005 0.9750
3.5919 4.6416 -1.9509 0.9756
2.5688 4.9363 -1.8497 0.9768
1.6501 5.3142 -1.8497 0.9768
0.6788 5.5228 -1.8496 0.9768
-0.3140 5.5553 -1.8496 0.9768
-0.8086 5.5050 -1.8495 0.9768
-1.2967 5.4108 -1.8495 0.9768
-1.7745 5.2734 -1.8495 0.9768
-2.6838 4.8736 -1.8494 0.9768
-5.1915 3.0498 -2.0014 0.9749
-5.4430 2.5742 -2.0014 0.9749
-5.6510 2.0780 -2.0014 0.9749
-5.8138 1.5653 -2.0014 0.9749
-5.9303 1.0401 -2.0013 0.9749
-5.9994 0.5066 -2.0013 0.9749
-6.0206 -0.0309 -2.0013 0.9749
-5.9938 -0.5682 -2.0013 0.9749
-5.7972 -1.6249 -2.0013 0.9749
-5.1595 -3.1028 -2.0013 0.9749
-4.5256 -3.9708 -2.0013 0.9749
-3.7475 -4.7123 -2.0013 0.9749
-2.3652 -5.5369 -2.0014 0.9749
-1.8615 -5.7260 -2.0014 0.9749
-0.2780 -6.0148 -2.0015 0.9749
1.8447 -5.7321 -2.0016 0.9749
2.3490 -5.5447 -2.0017 0.9749
3.7342 -4.7244 -2.0018 0.9749
5.7942 -1.6427 -2.0019 0.9749
5.9941 -0.5863 -2.0020 0.9749
6.0029 0.4889 -2.0020 0.9749
5.9353 1.0228 -2.0020 0.9749
5.8204 1.5485 -2.0020 0.9749
5.6589 2.0618 -2.0020 0.9749
4.5795 3.9118 -2.0020 0.9749
4.2120 4.3049 -2.0020 0.9749
3.7976 4.6475 -1.9950 0.9750
2.6988 4.8664 -1.8497 0.9768
2.2536 5.0878 -1.8497 0.9768
1.7904 5.2686 -1.8497 0.9768
0.8250 5.5029 -1.8496 0.9768
0.3306 5.5545 -1.8496 0.9768
-2.1023 5.1514 -1.8495 0.9768
-2.5537 4.9431 -1.8494 0.9768
-3.3918 4.4101 -1.8494 0.9768
-4.4127 4.0003 -1.9798 0.9752
-5.3728 2.7176 -2.0014 0.9749
-5.5939 2.2271 -2.0014 0.9749
-6.0193 0.1287 -2.0013 0.9749
-6.0068 -0.4091 -2.0013 0.9749
-5.9463 -0.9436 -2.0013 0.9749
-5.6837 -1.9859 -2.0013 0.9749
-5.4837 -2.4853 -2.0013 0.9749
-5.2400 -2.9649 -2.0013 0.9749
-4.2673 -4.2473 -2.0013 0.9749
-3.4441 -4.9384 -2.0013 0.9749
-2.9896 -5.2262 -2.0014 0.9749
-2.5112 -5.4723 -2.0014 0.9749
-2.0127 -5.6746 -2.0014 0.9749
-1.4982 -5.8317 -2.0014 0.9749
-0.9717 -5.9422 -2.0015 0.9749
-0.4374 -6.0053 -2.0015 0.9749
0.6374 -5.9876 -2.0016 0.9749
1.1694 -5.9069 -2.0016 0.9749
1.6920 -5.7790 -2.0016 0.9749
2.6927 -5.3862 -2.0017 0.9749
3.1628 -5.1245 -2.0017 0.9749
4.4077 -4.1036 -2.0018 0.9749
5.0672 -3.2546 -2.0019 0.9749
5.3376 -2.7893 -2.0019 0.9749
5.8860 -1.2755 -2.0020 0.9749
5.9764 -0.7450 -2.0020 0.9749
6.0138 0.3295 -2.0020 0.9749
5.8594 1.3936 -2.0020 0.9749
5.2808 2.8962 -2.0020 0.9749
5.0012 3.3560 -2.0020 0.9749
3.9240 4.5503 -1.9973 0.9750
3.2818 4.5751 -1.8716 0.9765
2.8269 4.7932 -1.8497 0.9768
1.9295 5.2193 -1.8497 0.9768
0.9707 5.4791 -1.8496 0.9768
-1.0081 5.4720 -1.8495 0.9768
-2.4217 5.0091 -1.8494 0.9768
-2.8591 4.7729 -1.8494 0.9768
-3.2737 4.4985 -1.8494 0.9768
-3.6621 4.1883 -1.8493 0.9768
-4.2031 4.0185 -1.9329 0.9758
-4.6977 3.7491 -1.9979 0.9750
-5.2989 2.8591 -2.0014 0.9749
-5.8668 1.3530 -2.0014 0.9749
-5.9641 0.8240 -2.0013 0.9749
-5.9692 -0.7856 -2.0013 0.9749
-5.8752 -1.3153 -2.0013 0.9749
-5.7343 -1.8345 -2.0013 0.9749
-5.5477 -2.3390 -2.0013 0.9749
-5.0434 -3.2882 -2.0013 0.9749
-4.7298 -3.7253 -2.0013 0.9749
-3.9921 -4.5070 -2.0013 0.9749
-3.5738 -4.8453 -2.0013 0.9749
-1.6523 -5.7899 -2.0014 0.9749
-1.1289 -5.9143 -2.0015 0.9749
-0.0592 -6.0210 -2.0015 0.9749
1.5382 -5.8218 -2.0016 0.9749
2.0517 -5.6614 -2.0016 0.9749
3.9035 -4.5857 -2.0018 0.9749
4.2973 -4.2190 -2.0018 0.9749
4.6568 -3.8186 -2.0018 0.9749
5.2617 -2.9298 -2.0019 0.9749
5.5023 -2.4485 -2.0019 0.9749
5.6990 -1.9476 -2.0019 0.9749
5.8501 -1.4312 -2.0020 0.9749
5.9812 0.7066 -2.0020 0.9749
5.8943 1.2377 -2.0020 0.9749
5.7603 1.7589 -2.0020 0.9749
5.5803 2.2661 -2.0020 0.9749
5.3557 2.7551 -2.0020 0.9749
4.7804 3.6635 -2.0020 0.9749
4.4343 4.0756 -2.0020 0.9749
2.9530 4.7165 -1.8497 0.9768
2.5202 4.9612 -1.8497 0.9768
2.0672 5.1663 -1.8497 0.9768
1.1156 5.4514 -1.8496 0.9768
0.6246 5.5292 -1.8496 0.9768
0.1184 5.1233 -1.7035 0.9786
-0.3685 5.5520 -1.8496 0.9768
-0.8626 5.4968 -1.8495 0.9768
-1.3498 5.3978 -1.8495 0.9768
-3.1533 4.5838 -1.8494 0.9768
-4.0028 4.0355 -1.8894 0.9763
-4.5921 3.8686 -1.9959 0.9750
-4.9328 3.4528 -2.0015 0.9749
-5.6711 2.0224 -2.0014 0.9749
-3.5871 4.0460 -1.9336 0.9773
-4.0628 3.8312 -1.9970 0.9766
-4.6898 3.0546 -2.0015 0.9765
-4.9437 2.6237 -2.0014 0.9765
-5.1581 2.1719 -2.0014 0.9765
-5.3313 1.7028 -2.0014 0.9765
-5.4620 1.2201 -2.0014 0.9765
-5.5899 -0.2705 -2.0013 0.9765
-5.5434 -0.7684 -2.0013 0.9765
-5.4527 -1.2602 -2.0013 0.9765
-5.1417 -2.2096 -2.0013 0.9765
-4.6669 -3.0887 -2.0013 0.9765
-4.3726 -3.4929 -2.0013 0.9765
-4.0434 -3.8693 -2.0013 0.9765
-2.8738 -4.8024 -2.0014 0.9765
-1.9741 -5.2370 -2.0014 0.9765
-1.0115 -5.5047 -2.0015 0.9765
0.9789 -5.5109 -2.0016 0.9765
2.4041 -5.0548 -2.0017 0.9765
2.8458 -4.8201 -2.0017 0.9765
4.0213 -3.8941 -2.0018 0.9765
4.6498 -3.1171 -2.0018 0.9765
5.1300 -2.2407 -2.0019 0.9765
5.3096 -1.7738 -2.0019 0.9765
5.4468 -1.2928 -2.0019 0.9765
5.5405 -0.8015 -2.0020 0.9765
5.5900 -0.3037 -2.0020 0.9765
5.1723 2.1420 -2.0020 0.9765
4.9605 2.5951 -2.0020 0.9765
4.7090 3.0275 -2.0020 0.9765
4.4200 3.4358 -2.0020 0.9765
4.0956 3.8166 -2.0020 0.9765
1.4511 4.9646 -1.8497 0.9783
0.5452 5.1434 -1.8496 0.9783
-0.8370 5.1038 -1.8495 0.9783
-1.2892 5.0086 -1.8495 0.9783
-1.7311 4.8735 -1.8495 0.9783
-3.4122 4.0607 -1.8967 0.9777
-4.3043 3.5758 -2.0011 0.9765
-5.2843 1.8436 -2.0014 0.9765
-5.4277 1.3646 -2.0014 0.9765
-5.5278 0.8746 -2.0014 0.9765
-5.4842 -1.1151 -2.0013 0.9765
-5.3628 -1.6002 -2.0013 0.9765
-4.4637 -3.3758 -2.0013 0.9765
-3.0001 -4.7245 -2.0014 0.9765
-2.1123 -5.1828 -2.0014 0.9765
-1.6412 -5.3507 -2.0014 0.9765
-0.1650 -5.5945 -2.0015 0.9765
0.3351 -5.5870 -2.0015 0.9765
0.8324 -5.5349 -2.0016 0.9765
1.3232 -5.4386 -2.0016 0.9765
1.8034 -5.2988 -2.0016 0.9765
2.2692 -5.1168 -2.0017 0.9765
2.7169 -4.8939 -2.0017 0.9765
3.1430 -4.6319 -2.0017 0.9765
4.2580 -3.6338 -2.0018 0.9765
5.4106 -1.4368 -2.0019 0.9765
5.5173 -0.9481 -2.0019 0.9765
5.5980 0.0480 -2.0020 0.9765
5.5003 1.0427 -2.0020 0.9765
5.3853 1.5295 -2.0020 0.9765
5.2273 2.0041 -2.0020 0.9765
5.0276 2.4627 -2.0020 0.9765
4.5095 3.3174 -2.0020 0.9765
4.1954 3.7067 -2.0020 0.9765
3.8478 4.0663 -2.0020 0.9765
2.4327 4.5647 -1.8497 0.9783
1.5822 4.9244 -1.8497 0.9783
0.6814 5.1271 -1.8496 0.9783
-1.1559 5.0411 -1.8495 0.9783
-1.6013 4.9177 -1.8495 0.9783
-2.4501 4.5545 -1.8494 0.9783
-2.8468 4.3175 -1.8494 0.9783
-3.2435 4.0747 -1.8624 0.9781
-4.7976 2.8821 -2.0015 0.9765
-5.5027 1.0209 -2.0014 0.9765
-5.5718 0.5256 -2.0014 0.9765
-5.5964 0.0262 -2.0013 0.9765
-5.4033 -1.4575 -2.0013 0.9765
-5.2516 -1.9339 -2.0013 0.9765
-4.8241 -2.8369 -2.0013 0.9765
-4.5516 -3.2562 -2.0013 0.9765
-3.9001 -4.0137 -2.0013 0.9765
-1.7826 -5.3053 -2.0014 0.9765
-0.8108 -5.5378 -2.0015 0.9765
-0.3133 -5.5882 -2.0015 0.9765
0.1868 -5.5939 -2.0015 0.9765
0.6854 -5.5550 -2.0016 0.9765
1.1785 -5.4717 -2.0016 0.9765
1.6623 -5.3448 -2.0016 0.9765
2.1327 -5.1751 -2.0017 0.9765
3.8092 -4.1018 -2.0018 0.9765
4.1602 -3.7454 -2.0018 0.9765
5.0040 -2.5095 -2.0019 0.9765
5.4902 -1.0941 -2.0019 0.9765
5.5840 0.3996 -2.0020 0.9765
5.4240 1.3861 -2.0020 0.9765
5.2786 1.8648 -2.0020 0.9765
5.0911 2.3285 -2.0020 0.9765
4.8629 2.7736 -2.0020 0.9765
3.9542 3.9629 -2.0020 0.9765
3.5809 4.2954 -1.9998 0.9765
3.1269 4.5166 -1.9645 0.9769
2.5539 4.5005 -1.8505 0.9783
1.7122 4.8807 -1.8497 0.9783
1.2697 5.0140 -1.8496 0.9783
0.8171 5.1073 -1.8496 0.9783
0.3579 5.1598 -1.8496 0.9783
-1.0218 5.0700 -1.8495 0.9783
-1.9070 4.8073 -1.8495 0.9783
-2.3285 4.6179 -1.8494 0.9783
-2.7313 4.3915 -1.8494 0.9783
-3.1124 4.1301 -1.8494 0.9783
-3.6536 4.0404 -1.9480 0.9771
-5.5938 0.1746 -2.0013 0.9765
-5.3011 -1.7940 -2.0013 0.9765
-4.6363 -3.1344 -2.0013 0.9765
-4.0052 -3.9089 -2.0013 0.9765
-3.2464 -4.5588 -2.0014 0.9765
-1.4458 -5.4068 -2.0014 0.9765
-0.9574 -5.5144 -2.0015 0.9765
0.0384 -5.5969 -2.0015 0.9765
1.0330 -5.5010 -2.0016 0.9765
1.9947 -5.2298 -2.0016 0.9765
2.4536 -5.0310 -2.0017 0.9765
2.8930 -4.7919 -2.0017 0.9765
3.6990 -4.2013 -2.0018 0.9765
4.0594 -3.8544 -2.0018 0.9765
4.6801 -3.0713 -2.0018 0.9765
4.9357 -2.6413 -2.0019 0.9765
5.1518 -2.1902 -2.0019 0.9765
5.3268 -1.7216 -2.0019 0.9765
5.4592 -1.2393 -2.0019 0.9765
5.5927 -0.2488 -2.0020 0.9765
5.5926 0.2514 -2.0020 0.9765
5.4588 1.2418 -2.0020 0.9765
5.1511 2.1927 -2.0020 0.9765
4.9348 2.6437 -2.0020 0.9765
4.3860 3.4790 -2.0020 0.9765
3.6973 4.2032 -2.0019 0.9765
3.2964 4.5015 -1.9952 0.9766
2.6832 4.4492 -1.8580 0.9782
1.4022 4.9786 -1.8497 0.9783
0.9522 5.0838 -1.8496 0.9783
0.0328 5.1203 -1.8311 0.9785
-0.4287 5.1542 -1.8496 0.9783
-0.8870 5.0953 -1.8495 0.9783
-1.3383 4.9957 -1.8495 0.9783
-3.0018 4.2112 -1.8494 0.9783
-4.8992 2.7059 -2.0014 0.9765
-5.1211 2.2578 -2.0014 0.9765
-5.3021 1.7916 -2.0014 0.9765
-5.5361 0.8203 -2.0014 0.9765
-5.5872 0.3229 -2.0013 0.9765
-5.5937 -0.1772 -2.0013 0.9765
-4.7178 -3.0103 -2.0013 0.9765
-4.4303 -3.4194 -2.0013 0.9765
-2.9536 -4.7537 -2.0014 0.9765
-2.5175 -4.9985 -2.0014 0.9765
-1.5886 -5.3666 -2.0014 0.9765
-0.1100 -5.5959 -2.0015 0.9765
0.3899 -5.5835 -2.0015 0.9765
0.8868 -5.5265 -2.0016 0.9765
1.3765 -5.4253 -2.0016 0.9765
1.8554 -5.2809 -2.0016 0.9765
2.3194 -5.0943 -2.0017 0.9765
2.7649 -4.8670 -2.0017 0.9765
3.9557 -3.9607 -2.0018 0.9765
4.2935 -3.5918 -2.0018 0.9765
4.5970 -3.1943 -2.0018 0.9765
4.8639 -2.7712 -2.0019 0.9765
5.0919 -2.3260 -2.0019 0.9765
5.2792 -1.8623 -2.0019 0.9765
5.5841 -0.3970 -2.0020 0.9765
5.5658 0.6022 -2.0020 0.9765
5.4898 1.0966 -2.0020 0.9765
5.2074 2.0553 -2.0020 0.9765
5.0031 2.5119 -2.0020 0.9765
3.8076 4.1039 -2.0020 0.9765
3.4179 4.4167 -1.9971 0.9766
2.3877 4.5883 -1.8497 0.9783
1.0867 5.0568 -1.8496 0.9783
0.6310 5.1336 -1.8496 0.9783
-0.7516 5.1171 -1.8495 0.9783
-1.2054 5.0295 -1.8495 0.9783
-2.0804 4.7348 -1.8495 0.9783
-2.4947 4.5302 -1.8494 0.9783
-2.8891 4.2894 -1.8494 0.9783
-5.2528 1.9316 -2.0014 0.9765
-5.4042 1.4550 -2.0014 0.9765
-5.5964 -0.0288 -2.0013 0.9765
-5.2324 -1.9854 -2.0013 0.9765
-5.0343 -2.4446 -2.0013 0.9765
-3.8605 -4.0518 -2.0013 0.9765
-3.4835 -4.3802 -2.0014 0.9765
-2.6491 -4.9299 -2.0014 0.9765
-1.2484 -5.4558 -2.0015 0.9765
-0.7564 -5.5455 -2.0015 0.9765
0.2417 -5.5918 -2.0015 0.9765
1.2322 -5.4599 -2.0016 0.9765
2.1835 -5.1539 -2.0017 0.9765
2.6348 -4.9385 -2.0017 0.9765
3.0652 -4.6837 -2.0017 0.9765
3.4711 -4.3915 -2.0018 0.9765
5.0284 -2.4602 -2.0019 0.9765
5.5007 -1.0401 -2.0019 0.9765
5.5716 -0.5450 -2.0020 0.9765
5.5798 0.4544 -2.0020 0.9765
4.2567 3.6361 -2.0020 0.9765
3.0507 4.5004 -1.9443 0.9772
1.6642 4.8973 -1.8497 0.9783
1.2204 5.0262 -1.8496 0.9783
0.3073 5.1630 -1.8496 0.9783
-1.0716 5.0597 -1.8495 0.9783
-1.5189 4.9438 -1.8495 0.9783
-2.3737 4.5948 -1.8494 0.9783
-2.7743 4.3645 -1.8494 0.9783
-3.7210 4.0346 -1.9627 0.9770
-4.4656 3.3740 -2.0015 0.9765
-4.7489 2.9619 -2.0015 0.9765
-5.5835 -0.3803 -2.0013 0.9765
-5.4269 -1.3670 -2.0013 0.9765
-5.0973 -2.3102 -2.0013 0.9765
-4.3032 -3.5781 -2.0013 0.9765
-3.5984 -4.2863 -2.0014 0.9765
-2.7789 -4.8579 -2.0014 0.9765
-2.3342 -5.0867 -2.0014 0.9765
-1.8709 -5.2748 -2.0014 0.9765
-1.3926 -5.4208 -2.0015 0.9765
-0.9032 -5.5235 -2.0015 0.9765
-0.4066 -5.5821 -2.0015 0.9765
0.0934 -5.5962 -2.0015 0.9765
0.5925 -5.5656 -2.0016 0.9765
1.5728 -5.3718 -2.0016 0.9765
2.0460 -5.2100 -2.0017 0.9765
2.5029 -5.0067 -2.0017 0.9765
3.3534 -4.4820 -2.0017 0.9765
3.7401 -4.1648 -2.0018 0.9765
4.0970 -3.8144 -2.0018 0.9765
4.4212 -3.4335 -2.0018 0.9765
4.7101 -3.0252 -2.0019 0.9765
5.4712 -1.1856 -2.0019 0.9765
5.5949 -0.1939 -2.0020 0.9765
5.5402 0.8040 -2.0020 0.9765
5.4464 1.2954 -2.0020 0.9765
5.3090 1.7764 -2.0020 0.9765
5.1293 2.2432 -2.0020 0.9765
4.9086 2.6921 -2.0020 0.9765
3.6544 4.2377 -2.0011 0.9765
3.2508 4.5320 -1.9945 0.9766
2.6320 4.4627 -1.8528 0.9782
1.3533 4.9921 -1.8497 0.9783
0.9023 5.0929 -1.8496 0.9783
0.4440 5.1531 -1.8496 0.9783
-0.0175 5.1180 -1.8302 0.9785
-0.4793 5.1498 -1.8496 0.9783
-1.3873 4.9823 -1.8495 0.9783
-2.2510 4.6561 -1.8494 0.9783
-3.0430 4.1815 -1.8494 0.9783
-4.6687 3.0868 -2.0015 0.9765
-5.1430 2.2074 -2.0014 0.9765
-5.5439 0.7659 -2.0014 0.9765
-5.3303 -1.7052 -2.0013 0.9765
-4.0699 -3.8414 -2.0013 0.9765
-3.3220 -4.5039 -2.0014 0.9765
-2.4683 -5.0230 -2.0014 0.9765
-1.5358 -5.3819 -2.0014 0.9765
-1.0493 -5.4976 -2.0015 0.9765
0.4447 -5.5794 -2.0016 0.9765
1.4298 -5.4115 -2.0016 0.9765
1.9071 -5.2624 -2.0016 0.9765
2.3693 -5.0712 -2.0017 0.9765
4.3286 -3.5495 -2.0018 0.9765
4.6282 -3.1490 -2.0018 0.9765
5.5349 -0.8396 -2.0020 0.9765
5.5960 0.1580 -2.0020 0.9765
5.4788 1.1505 -2.0020 0.9765
5.3543 1.6350 -2.0020 0.9765
4.4435 3.4053 -2.0020 0.9765
4.1218 3.7883 -2.0020 0.9765
3.3731 4.4485 -1.9964 0.9766
2.3425 4.6116 -1.8497 0.9783
1.9215 4.8022 -1.8497 0.9783
0.5805 5.1395 -1.8496 0.9783
-0.3426 5.1607 -1.8496 0.9783
-0.8018 5.1094 -1.8495 0.9783
-1.2547 5.0174 -1.8495 0.9783
-2.1268 4.7142 -1.8494 0.9783
-2.9310 4.2608 -1.8494 0.9783
-3.3678 4.0644 -1.8876 0.9778
-3.9285 3.9606 -1.9949 0.9766
-4.2786 3.6045 -2.0006 0.9765
-4.5852 3.2095 -2.0015 0.9765
-5.0827 2.3430 -2.0014 0.9765
-5.2715 1.8799 -2.0014 0.9765
-5.4182 1.4019 -2.0014 0.9765
-3.0057 4.0711 -1.9392 0.9786
-4.9750 1.5891 -2.0014 0.9779
-5.1782 0.6791 -2.0014 0.9779
-5.2164 -0.2525 -2.0014 0.9779
-4.9630 -1.6255 -2.0013 0.9779
-4.7981 -2.0620 -2.0013 0.9779
-4.3551 -2.8823 -2.0013 0.9779
-3.7732 -3.6108 -2.0014 0.9779
-3.0710 -4.2242 -2.0014 0.9779
-2.6818 -4.4815 -2.0014 0.9779
-1.8422 -4.8870 -2.0014 0.9779
-1.3986 -5.0320 -2.0015 0.9779
0.9135 -5.1426 -2.0016 0.9779
1.3689 -5.0406 -2.0016 0.9779
1.8134 -4.8984 -2.0016 0.9779
2.2434 -4.7170 -2.0017 0.9779
3.0465 -4.2430 -2.0017 0.9779
3.4131 -3.9542 -2.0018 0.9779
4.0620 -3.2844 -2.0018 0.9779
5.0827 -1.2064 -2.0019 0.9779
5.1702 -0.7479 -2.0019 0.9779
5.2163 -0.2834 -2.0019 0.9779
5.2208 0.1833 -2.0020 0.9779
5.1051 1.1087 -2.0020 0.9779
4.9858 1.5600 -2.0020 0.9779
4.6289 2.4217 -2.0020 0.9779
3.1242 4.1797 -1.9997 0.9779
2.7309 4.4292 -1.9940 0.9780
2.1754 4.3565 -1.8660 0.9794
1.7622 4.4935 -1.8497 0.9795
0.0783 4.8258 -1.8496 0.9795
-0.7810 4.7627 -1.8495 0.9795
-1.6154 4.5478 -1.8495 0.9795
-2.3982 4.1880 -1.8494 0.9795
-3.3490 3.9855 -1.9950 0.9779
-3.7004 3.6797 -1.9998 0.9779
-4.0175 3.3375 -2.0015 0.9779
-4.5468 2.5699 -2.0015 0.9779
-4.7580 2.1537 -2.0014 0.9779
-5.2106 0.3525 -2.0014 0.9779
-5.1902 -0.5797 -2.0014 0.9779
-4.6591 -2.3593 -2.0013 0.9779
-4.4299 -2.7658 -2.0013 0.9779
-4.1654 -3.1502 -2.0013 0.9779
-3.8676 -3.5094 -2.0014 0.9779
-3.5389 -3.8407 -2.0014 0.9779
-2.3949 -4.6412 -2.0014 0.9779
-0.6193 -5.1860 -2.0015 0.9779
-0.1540 -5.2207 -2.0015 0.9779
1.6829 -4.9447 -2.0016 0.9779
2.9329 -4.3223 -2.0017 0.9779
3.9734 -3.3909 -2.0018 0.9779
4.9091 -1.7861 -2.0019 0.9779
5.0490 -1.3408 -2.0019 0.9779
5.2070 -0.4216 -2.0019 0.9779
5.2239 0.0448 -2.0020 0.9779
5.1990 0.5109 -2.0020 0.9779
5.1327 0.9730 -2.0020 0.9779
5.0254 1.4273 -2.0020 0.9779
4.4676 2.7077 -2.0020 0.9779
3.5906 3.7945 -2.0019 0.9779
3.2369 4.0991 -2.0015 0.9779
2.3328 4.3772 -1.9008 0.9790
1.8808 4.4452 -1.8497 0.9795
1.0604 4.7086 -1.8496 0.9795
0.6358 4.7844 -1.8496 0.9795
-0.2250 4.8211 -1.8496 0.9795
-0.6545 4.7817 -1.8495 0.9795
-1.0787 4.7042 -1.8495 0.9795
-2.7006 4.0958 -1.8801 0.9792
-3.2260 4.0527 -1.9850 0.9781
-3.9276 3.4428 -2.0015 0.9779
-4.2191 3.0785 -2.0015 0.9779
-4.6992 2.2791 -2.0014 0.9779
-4.8838 1.8506 -2.0014 0.9779
-5.1995 0.4905 -2.0014 0.9779
-5.2225 0.0244 -2.0014 0.9779
-5.0422 -1.3601 -2.0013 0.9779
-4.9007 -1.8047 -2.0013 0.9779
-4.5017 -2.6474 -2.0013 0.9779
-3.6395 -3.7455 -2.0014 0.9779
-2.5172 -4.5760 -2.0014 0.9779
-2.0987 -4.7825 -2.0014 0.9779
0.1743 -5.2201 -2.0015 0.9779
1.0998 -5.1060 -2.0016 0.9779
1.9902 -4.8293 -2.0017 0.9779
2.8173 -4.3986 -2.0017 0.9779
3.1987 -4.1296 -2.0017 0.9779
3.8821 -3.4951 -2.0018 0.9779
4.6695 -2.3418 -2.0019 0.9779
4.8600 -1.9156 -2.0019 0.9779
5.1940 -0.5596 -2.0019 0.9779
5.2107 0.3729 -2.0020 0.9779
5.1567 0.8365 -2.0020 0.9779
5.0614 1.2935 -2.0020 0.9779
4.9258 1.7401 -2.0020 0.9779
4.2887 2.9830 -2.0020 0.9779
4.0053 3.3539 -2.0020 0.9779
3.6899 3.6980 -2.0020 0.9779
3.3451 4.0126 -2.0019 0.9779
2.4961 4.3986 -1.9381 0.9786
1.9980 4.3937 -1.8497 0.9795
1.1849 4.6789 -1.8496 0.9795
0.7625 4.7659 -1.8496 0.9795
0.3340 4.8149 -1.8496 0.9795
-0.5274 4.7974 -1.8495 0.9795
-1.7796 4.4861 -1.8495 0.9795
-2.1728 4.3092 -1.8494 0.9795
-2.5557 4.1092 -1.8544 0.9795
-3.8349 3.5458 -2.0015 0.9779
-4.1360 3.1893 -2.0015 0.9779
-4.6371 2.4030 -2.0015 0.9779
-4.8331 1.9794 -2.0014 0.9779
-4.9904 1.5401 -2.0014 0.9779
-5.1846 0.6282 -2.0014 0.9779
-5.2200 0.1629 -2.0014 0.9779
-5.2137 -0.3037 -2.0014 0.9779
-4.7777 -2.1090 -2.0013 0.9779
-4.0482 -3.2995 -2.0014 0.9779
-3.7375 -3.6477 -2.0014 0.9779
-3.3970 -3.9667 -2.0014 0.9779
-3.0294 -4.2542 -2.0014 0.9779
0.0358 -5.2229 -2.0015 0.9779
0.5019 -5.1989 -2.0016 0.9779
1.4184 -5.0269 -2.0016 0.9779
1.8614 -4.8803 -2.0016 0.9779
2.2897 -4.6948 -2.0017 0.9779
2.6996 -4.4717 -2.0017 0.9779
4.0940 -3.2444 -2.0018 0.9779
4.8075 -2.0438 -2.0019 0.9779
4.9707 -1.6065 -2.0019 0.9779
5.2189 -0.2322 -2.0019 0.9779
5.1770 0.6995 -2.0020 0.9779
4.6049 2.4670 -2.0020 0.9779
4.0928 3.2465 -2.0020 0.9779
3.7867 3.5988 -2.0020 0.9779
3.4503 3.9225 -2.0019 0.9779
2.6661 4.4208 -1.9784 0.9781
1.7180 4.5105 -1.8497 0.9795
1.3085 4.6458 -1.8496 0.9795
0.8886 4.7440 -1.8496 0.9795
-2.0578 4.3654 -1.8494 0.9795
-2.4392 4.1642 -1.8494 0.9795
-2.9076 4.0791 -1.9197 0.9788
-3.3888 3.9535 -1.9955 0.9779
-4.0500 3.2978 -2.0015 0.9779
-4.5718 2.5251 -2.0015 0.9779
-4.9478 1.6719 -2.0014 0.9779
-5.0773 1.2236 -2.0014 0.9779
-5.2138 0.3013 -2.0014 0.9779
-5.2199 -0.1653 -2.0014 0.9779
-5.1073 -1.0908 -2.0013 0.9779
-4.9895 -1.5424 -2.0013 0.9779
-4.8319 -1.9816 -2.0013 0.9779
-4.6357 -2.4050 -2.0013 0.9779
-4.4026 -2.8092 -2.0013 0.9779
-3.8329 -3.5473 -2.0014 0.9779
-1.0295 -5.1203 -2.0015 0.9779
-0.5684 -5.1919 -2.0015 0.9779
0.8275 -5.1571 -2.0016 0.9779
1.7314 -4.9279 -2.0016 0.9779
2.1644 -4.7538 -2.0017 0.9779
2.5801 -4.5417 -2.0017 0.9779
2.9752 -4.2933 -2.0017 0.9779
3.3466 -4.0107 -2.0018 0.9779
4.0065 -3.3518 -2.0018 0.9779
4.2898 -2.9808 -2.0018 0.9779
4.9264 -1.7378 -2.0019 0.9779
5.0619 -1.2911 -2.0019 0.9779
5.1570 -0.8341 -2.0019 0.9779
5.2232 0.0961 -2.0020 0.9779
4.8593 1.9179 -2.0020 0.9779
4.6687 2.3440 -2.0020 0.9779
4.4408 2.7514 -2.0020 0.9779
4.1775 3.1368 -2.0020 0.9779
3.1954 4.1293 -2.0009 0.9779
2.8061 4.3856 -1.9952 0.9779
1.8370 4.4634 -1.8497 0.9795
1.4313 4.6095 -1.8496 0.9795
1.0141 4.7188 -1.8496 0.9795
-0.2724 4.8187 -1.8496 0.9795
-0.7014 4.7751 -1.8495 0.9795
-1.1248 4.6933 -1.8495 0.9795
-2.3280 4.2274 -1.8494 0.9795
-2.7557 4.0914 -1.8904 0.9791
-3.2806 4.0392 -1.9941 0.9780
-3.6367 3.7392 -1.9989 0.9779
-3.9612 3.4041 -2.0015 0.9779
-4.9018 1.8025 -2.0014 0.9779
-5.1441 0.9022 -2.0014 0.9779
-5.2040 0.4394 -2.0014 0.9779
-5.1992 -0.4929 -2.0014 0.9779
-5.0287 -1.4095 -2.0013 0.9779
-4.8827 -1.8528 -2.0013 0.9779
-4.4755 -2.6914 -2.0013 0.9779
-4.2174 -3.0802 -2.0013 0.9779
-3.6026 -3.7810 -2.0014 0.9779
-2.8729 -4.3614 -2.0014 0.9779
-2.4721 -4.6005 -2.0014 0.9779
-0.7059 -5.1749 -2.0015 0.9779
0.2255 -5.2181 -2.0015 0.9779
1.1498 -5.0950 -2.0016 0.9779
1.6001 -4.9721 -2.0016 0.9779
2.8603 -4.3707 -2.0017 0.9779
4.2092 -3.0935 -2.0018 0.9779
4.6923 -2.2958 -2.0019 0.9779
5.0259 -1.4249 -2.0019 0.9779
5.1992 -0.5085 -2.0019 0.9779
5.2239 -0.0424 -2.0020 0.9779
5.2068 0.4240 -2.0020 0.9779
5.1482 0.8871 -2.0020 0.9779
4.9085 1.7884 -2.0020 0.9779
4.7292 2.2194 -2.0020 0.9779
4.2592 3.0249 -2.0020 0.9779
-0.1445 4.8242 -1.8496 0.9795
-1.4174 4.6134 -1.8495 0.9795
-3.1235 4.0613 -1.9634 0.9783
-3.8695 3.5079 -2.0015 0.9779
-5.0053 1.4910 -2.0014 0.9779
-5.1183 1.0383 -2.0014 0.9779
-5.1906 0.5773 -2.0014 0.9779
-5.1579 -0.8185 -2.0013 0.9779
-4.2976 -2.9673 -2.0013 0.9779
-3.3579 -3.9999 -2.0014 0.9779
-2.5932 -4.5333 -2.0014 0.9779
-2.1782 -4.7467 -2.0014 0.9779
-0.3794 -5.2091 -2.0015 0.9779
0.0871 -5.2223 -2.0015 0.9779
2.3357 -4.6720 -2.0017 0.9779
2.7434 -4.4450 -2.0017 0.9779
3.1293 -4.1824 -2.0017 0.9779
4.1257 -3.2040 -2.0018 0.9779
4.3953 -2.8230 -2.0018 0.9779
5.1055 -1.1064 -2.0019 0.9779
5.2162 0.2858 -2.0020 0.9779
5.0823 1.2088 -2.0020 0.9779
4.9542 1.6576 -2.0020 0.9779
4.5805 2.5121 -2.0020 0.9779
4.0608 3.2865 -2.0020 0.9779
3.7512 3.6359 -2.0020 0.9779
3.4116 3.9562 -2.0019 0.9779
1.6736 4.5272 -1.8497 0.9795
0.4144 4.8087 -1.8496 0.9795
-0.0165 4.8264 -1.8496 0.9795
-0.4473 4.8056 -1.8495 0.9795
-1.2946 4.6493 -1.8495 0.9795
-1.7044 4.5152 -1.8495 0.9795
-2.4800 4.1400 -1.8494 0.9795
-2.9650 4.0744 -1.9311 0.9786
-3.4284 3.9210 -1.9960 0.9779
-3.7741 3.6084 -2.0010 0.9779
-4.5964 2.4801 -2.0015 0.9779
-4.7993 2.0599 -2.0014 0.9779
-5.1734 0.7147 -2.0014 0.9779
-5.2165 0.2501 -2.0014 0.9779
-5.2180 -0.2166 -2.0014 0.9779
-5.1778 -0.6815 -2.0013 0.9779
-5.0963 -1.1409 -2.0013 0.9779
-4.8122 -2.0289 -2.0013 0.9779
-4.3748 -2.8523 -2.0013 0.9779
-3.1000 -4.2030 -2.0014 0.9779
-2.3033 -4.6873 -2.0014 0.9779
-1.8758 -4.8742 -2.0014 0.9779
-1.4332 -5.0223 -2.0015 0.9779
-0.5174 -5.1972 -2.0015 0.9779
1.3342 -5.0499 -2.0016 0.9779
1.7797 -4.9107 -2.0016 0.9779
2.2109 -4.7323 -2.0017 0.9779
3.0172 -4.2639 -2.0017 0.9779
3.3859 -3.9776 -2.0018 0.9779
3.7274 -3.6595 -2.0018 0.9779
4.0393 -3.3123 -2.0018 0.9779
4.9432 -1.6893 -2.0019 0.9779
5.0743 -1.2414 -2.0019 0.9779
5.2143 -0.3193 -2.0019 0.9779
5.2220 0.1474 -2.0020 0.9779
4.8402 1.9656 -2.0020 0.9779
4.4136 2.7949 -2.0020 0.9779
4.1465 3.1777 -2.0020 0.9779
3.1536 4.1590 -2.0002 0.9779
2.7621 4.4117 -1.9947 0.9780
1.7931 4.4812 -1.8497 0.9795
1.3859 4.6234 -1.8496 0.9795
0.5417 4.7960 -1.8496 0.9795
0.1115 4.8251 -1.8496 0.9795
-1.1708 4.6821 -1.8495 0.9795
-1.9846 4.3991 -1.8494 0.9795
-2.3694 4.2044 -1.8494 0.9795
-3.3209 4.0078 -1.9946 0.9780
-3.6743 3.7043 -1.9994 0.9779
-3.9944 3.3650 -2.0015 0.9779
-4.2788 2.9950 -2.0015 0.9779
-4.7430 2.1864 -2.0014 0.9779
-4.9192 1.7543 -2.0014 0.9779
-5.0561 1.3082 -2.0014 0.9779
-2.8972 3.9242 -1.9964 0.9791
-3.2428 3.6576 -2.0006 0.9791
-3.8432 3.0241 -2.0015 0.9791
-4.0978 2.6690 -2.0015 0.9791
-4.6583 1.4879 -2.0014 0.9791
-1.9506 0.2558 -0.8052 0.9915
-1.9399 -0.0939 -0.7949 0.9916
-4.0778 -2.6988 -2.0014 0.9791
-3.8207 -3.0521 -2.0014 0.9791
-3.5330 -3.3809 -2.0014 0.9791
-2.8756 -3.9553 -2.0014 0.9791
-2.5110 -4.1962 -2.0014 0.9791
-2.1265 -4.4037 -2.0014 0.9791
-0.8838 -4.8098 -2.0015 0.9791
0.8554 -4.8152 -2.0016 0.9791
2.1006 -4.4167 -2.0017 0.9791
2.4865 -4.2116 -2.0017 0.9791
2.8526 -3.9729 -2.0017 0.9791
3.1958 -3.7025 -2.0018 0.9791
4.2896 -2.3500 -2.0018 0.9791
4.8410 -0.7003 -2.0019 0.9791
4.8884 0.1717 -2.0019 0.9791
4.8536 0.6073 -2.0019 0.9791
4.7800 1.0381 -2.0020 0.9791
4.5193 1.8715 -2.0020 0.9791
4.3342 2.2675 -2.0020 0.9791
3.8619 3.0020 -2.0019 0.9791
2.5625 4.1562 -1.9984 0.9791
1.6889 4.3066 -1.8933 0.9802
0.4763 4.4940 -1.8496 0.9807
0.0733 4.5185 -1.8496 0.9807
-0.3303 4.5070 -1.8495 0.9807
-0.7313 4.4595 -1.8495 0.9807
-1.1264 4.3763 -1.8495 0.9807
-1.8998 4.1350 -1.8624 0.9805
-2.3487 4.1015 -1.9344 0.9798
-3.1426 3.7399 -1.9993 0.9791
-3.4678 3.4483 -2.0015 0.9791
-3.7617 3.1250 -2.0015 0.9791
-4.0256 2.7767 -2.0015 0.9791
-4.4551 2.0166 -2.0015 0.9791
-4.6173 1.6109 -2.0014 0.9791
-4.7426 1.1923 -2.0014 0.9791
-4.7920 -0.9744 -2.0014 0.9791
-4.5423 -1.8109 -2.0014 0.9791
-4.3626 -2.2092 -2.0014 0.9791
-3.9002 -2.9497 -2.0014 0.9791
-2.9794 -3.8777 -2.0014 0.9791
-2.6214 -4.1281 -2.0014 0.9791
-2.2425 -4.3457 -2.0014 0.9791
-1.4341 -4.6753 -2.0015 0.9791
-1.0110 -4.7847 -2.0015 0.9791
0.7274 -4.8362 -2.0016 0.9791
1.1562 -4.7520 -2.0016 0.9791
4.7275 -1.2554 -2.0019 0.9791
4.8207 -0.8284 -2.0019 0.9791
4.8680 0.4784 -2.0019 0.9791
4.3928 2.1517 -2.0020 0.9791
4.1832 2.5353 -2.0020 0.9791
3.3619 3.5529 -2.0019 0.9791
3.0314 3.8388 -2.0019 0.9791
1.3824 4.3027 -1.8496 0.9807
0.9929 4.4088 -1.8496 0.9807
0.5953 4.4798 -1.8496 0.9807
0.1931 4.5150 -1.8496 0.9807
-0.2107 4.5142 -1.8496 0.9807
-0.6128 4.4773 -1.8495 0.9807
-1.0100 4.4047 -1.8495 0.9807
-2.2121 4.1120 -1.9110 0.9800
-2.6821 4.0677 -1.9941 0.9792
-3.0404 3.8195 -1.9980 0.9791
-3.3751 3.5391 -2.0015 0.9791
-4.5729 1.7328 -2.0014 0.9791
-4.7093 1.3177 -2.0014 0.9791
-2.1909 0.4065 -0.9120 0.9904
-1.9579 0.1847 -0.8049 0.9915
-2.1520 -0.3785 -0.8943 0.9906
-4.7213 -1.2735 -2.0014 0.9791
-4.4196 -2.0927 -2.0014 0.9791
-3.9771 -2.8452 -2.0014 0.9791
-3.4078 -3.5071 -2.0014 0.9791
-3.0812 -3.7973 -2.0014 0.9791
-2.7300 -4.0572 -2.0014 0.9791
-1.9651 -4.4780 -2.0014 0.9791
-1.1375 -4.7562 -2.0015 0.9791
-0.7085 -4.8388 -2.0015 0.9791
-0.2737 -4.8828 -2.0015 0.9791
1.0297 -4.7810 -2.0016 0.9791
2.2597 -4.3375 -2.0017 0.9791
3.3283 -3.5839 -2.0018 0.9791
3.6349 -3.2726 -2.0018 0.9791
3.9126 -2.9351 -2.0018 0.9791
4.1590 -2.5741 -2.0018 0.9791
4.3722 -2.1927 -2.0019 0.9791
4.6925 -1.3803 -2.0019 0.9791
4.7970 -0.9559 -2.0019 0.9791
4.8283 0.7833 -2.0019 0.9791
4.6121 1.6293 -2.0020 0.9791
4.2489 2.4234 -2.0020 0.9791
4.0156 2.7930 -2.0019 0.9791
3.4550 3.4625 -2.0019 0.9791
3.1321 3.7571 -2.0019 0.9791
2.7833 4.0204 -2.0013 0.9791
1.1094 4.3810 -1.8496 0.9807
0.7139 4.4625 -1.8496 0.9807
-0.0909 4.5182 -1.8496 0.9807
-0.4938 4.4920 -1.8495 0.9807
-0.8928 4.4299 -1.8495 0.9807
-1.2847 4.3325 -1.8495 0.9807
-1.6663 4.2005 -1.8495 0.9807
-2.5415 4.0863 -1.9695 0.9794
-3.2793 3.6265 -2.0011 0.9791
-3.5908 3.3201 -2.0015 0.9791
-3.8727 2.9862 -2.0015 0.9791
-4.3419 2.2500 -2.0015 0.9791
-1.9458 -0.1133 -0.7977 0.9916
-4.6320 -1.5676 -2.0014 0.9791
-4.0511 -2.7387 -2.0014 0.9791
-3.7905 -3.0894 -2.0014 0.9791
-2.8366 -3.9833 -2.0014 0.9791
-2.4697 -4.2207 -2.0014 0.9791
-2.0831 -4.4243 -2.0014 0.9791
-1.6799 -4.5927 -2.0015 0.9791
-0.4031 -4.8738 -2.0015 0.9791
0.9026 -4.8066 -2.0016 0.9791
1.3281 -4.7069 -2.0016 0.9791
2.1439 -4.3959 -2.0017 0.9791
2.5277 -4.1870 -2.0017 0.9791
2.8914 -3.9447 -2.0017 0.9791
3.8334 -3.0378 -2.0018 0.9791
4.3125 -2.3078 -2.0018 0.9791
4.6542 -1.5042 -2.0019 0.9791
4.7700 -1.0828 -2.0019 0.9791
4.8476 -0.6527 -2.0019 0.9791
4.8866 -0.2174 -2.0019 0.9791
4.8474 0.6550 -2.0019 0.9791
3.8322 3.0398 -2.0019 0.9791
2.8899 3.9464 -2.0019 0.9791
1.2252 4.3500 -1.8496 0.9807
0.0289 4.5190 -1.8496 0.9807
-0.7751 4.4520 -1.8495 0.9807
-1.1693 4.3650 -1.8495 0.9807
-1.5543 4.2432 -1.8495 0.9807
-1.9476 4.1316 -1.8694 0.9805
-2.4002 4.0975 -1.9435 0.9797
-3.7922 3.0879 -2.0015 0.9791
-4.2807 2.3643 -2.0015 0.9791
-4.6328 1.5655 -2.0014 0.9791
-4.7540 1.1457 -2.0014 0.9791
-1.9451 0.2882 -0.8048 0.9915
-1.9276 -0.0611 -0.7893 0.9917
-1.9539 -0.2377 -0.8056 0.9915
-4.6719 -1.4442 -2.0014 0.9791
-4.5243 -1.8554 -2.0014 0.9791
-4.3406 -2.2519 -2.0014 0.9791
-4.1223 -2.6303 -2.0014 0.9791
-3.2782 -3.6286 -2.0014 0.9791
-2.9412 -3.9067 -2.0014 0.9791
-2.5808 -4.1537 -2.0014 0.9791
-1.3881 -4.6891 -2.0015 0.9791
-0.5322 -4.8613 -2.0015 0.9791
-0.0961 -4.8895 -2.0015 0.9791
0.7748 -4.8288 -2.0016 0.9791
1.2028 -4.7404 -2.0016 0.9791
1.6211 -4.6142 -2.0016 0.9791
2.0266 -4.4511 -2.0017 0.9791
2.7858 -4.0200 -2.0017 0.9791
3.1336 -3.7553 -2.0017 0.9791
3.4563 -3.4607 -2.0018 0.9791
4.0167 -2.7910 -2.0018 0.9791
4.4490 -2.0324 -2.0019 0.9791
4.6127 -1.6271 -2.0019 0.9791
4.7396 -1.2089 -2.0019 0.9791
4.8286 -0.7810 -2.0019 0.9791
4.8791 -0.3469 -2.0019 0.9791
4.8906 0.0900 -2.0019 0.9791
4.8631 0.5262 -2.0019 0.9791
4.7967 0.9582 -2.0020 0.9791
4.3714 2.1948 -2.0020 0.9791
4.1581 2.5762 -2.0020 0.9791
3.9115 2.9371 -2.0019 0.9791
3.6337 3.2745 -2.0019 0.9791
3.3269 3.5858 -2.0019 0.9791
1.7744 4.3113 -1.9081 0.9801
0.9504 4.4226 -1.8514 0.9806
0.5513 4.4854 -1.8496 0.9807
-1.0532 4.3945 -1.8495 0.9807
-1.8208 4.1441 -1.8526 0.9806
-2.2623 4.1082 -1.9195 0.9799
-2.7224 4.0419 -1.9945 0.9792
-3.0784 3.7903 -1.9985 0.9791
-3.9787 2.8436 -2.0015 0.9791
-4.7220 1.2713 -2.0014 0.9791
-2.1501 0.3771 -0.8934 0.9906
-1.9573 0.1653 -0.8039 0.9915
-1.9032 -0.0098 -0.7789 0.9918
-1.9579 -0.1856 -0.8049 0.9915
-2.1929 -0.4079 -0.9129 0.9904
-4.7085 -1.3198 -2.0014 0.9791
-4.5719 -1.7348 -2.0014 0.9791
-3.9490 -2.8841 -2.0014 0.9791
-2.6900 -4.0838 -2.0014 0.9791
-1.5119 -4.6507 -2.0015 0.9791
-1.0908 -4.7671 -2.0015 0.9791
-0.6609 -4.8455 -2.0015 0.9791
0.2112 -4.8859 -2.0016 0.9791
0.6465 -4.8476 -2.0016 0.9791
1.0766 -4.7706 -2.0016 0.9791
3.0329 -3.8371 -2.0017 0.9791
3.6669 -3.2367 -2.0018 0.9791
4.5679 -1.7489 -2.0019 0.9791
4.7058 -1.3342 -2.0019 0.9791
4.8062 -0.9088 -2.0019 0.9791
4.8682 -0.4762 -2.0019 0.9791
4.8912 -0.0397 -2.0019 0.9791
4.8753 0.3970 -2.0019 0.9791
4.8204 0.8306 -2.0019 0.9791
4.5959 1.6745 -2.0020 0.9791
4.4281 2.0781 -2.0020 0.9791
1.4593 4.2942 -1.8562 0.9806
0.6701 4.4693 -1.8496 0.9807
0.2685 4.5112 -1.8496 0.9807
-0.5379 4.4869 -1.8495 0.9807
-2.9750 3.8682 -1.9972 0.9791
-3.6232 3.2846 -2.0015 0.9791
-3.9019 2.9481 -2.0015 0.9791
-4.3638 2.2073 -2.0015 0.9791
-1.9189 0.0410 -0.7855 0.9917
-4.6163 -1.6130 -2.0014 0.9791
-4.0240 -2.7784 -2.0014 0.9791
-3.7600 -3.1265 -2.0014 0.9791
-3.1442 -3.7453 -2.0014 0.9791
-2.0396 -4.4446 -2.0014 0.9791
-0.7892 -4.8263 -2.0015 0.9791
0.0816 -4.8898 -2.0015 0.9791
0.5177 -4.8631 -2.0016 0.9791
1.7877 -4.5523 -2.0017 0.9791
2.1870 -4.3746 -2.0017 0.9791
2.9300 -3.9161 -2.0017 0.9791
3.2679 -3.6390 -2.0018 0.9791
3.8630 -3.0000 -2.0018 0.9791
4.1154 -2.6432 -2.0018 0.9791
4.7804 -1.0359 -2.0019 0.9791
4.8538 -0.6051 -2.0019 0.9791
4.8885 -0.1694 -2.0019 0.9791
4.8407 0.7025 -2.0019 0.9791
4.7587 1.1318 -2.0020 0.9791
4.6387 1.5521 -2.0020 0.9791
4.4816 1.9599 -2.0020 0.9791
3.8022 3.0772 -2.0019 0.9791
3.5123 3.4044 -2.0019 0.9791
2.8510 3.9746 -2.0019 0.9791
2.4791 4.2035 -1.9973 0.9791
1.5900 4.3010 -1.8767 0.9804
1.1824 4.3618 -1.8496 0.9807
0.7884 4.4499 -1.8496 0.9807
0.3880 4.5025 -1.8496 0.9807
-0.0155 4.5191 -1.8496 0.9807
-0.4188 4.4996 -1.8495 0.9807
-0.8187 4.4442 -1.8495 0.9807
-1.2122 4.3533 -1.8495 0.9807
-1.9958 4.1281 -1.8766 0.9804
-2.8697 3.9434 -1.9961 0.9791
-3.2170 3.6792 -2.0002 0.9791
-3.8223 3.0505 -2.0015 0.9791
-4.6480 1.5199 -2.0014 0.9791
-1.9477 0.2691 -0.8047 0.9915
-1.9351 -0.0803 -0.7927 0.9917
-4.7719 -1.0683 -2.0014 0.9791
-4.5059 -1.8998 -2.0014 0.9791
-4.0963 -2.6707 -2.0014 0.9791
-3.8416 -3.0257 -2.0014 0.9791
-3.2424 -3.6606 -2.0014 0.9791
-1.7564 -4.5640 -2.0015 0.9791
-1.3420 -4.7025 -2.0015 0.9791
-0.9169 -4.8036 -2.0015 0.9791
-0.4844 -4.8663 -2.0015 0.9791
-0.0481 -4.8902 -2.0015 0.9791
0.3886 -4.8751 -2.0016 0.9791
1.2493 -4.7284 -2.0016 0.9791
2.0702 -4.4310 -2.0017 0.9791
2.4575 -4.2286 -2.0017 0.9791
2.8251 -3.9924 -2.0017 0.9791
3.1703 -3.7244 -2.0017 0.9791
4.4688 -1.9886 -2.0019 0.9791
4.8360 -0.7336 -2.0019 0.9791
4.8577 0.5739 -2.0019 0.9791
4.6782 1.4285 -2.0020 0.9791
4.3497 2.2376 -2.0020 0.9791
4.1326 2.6169 -2.0020 0.9791
3.2915 3.6182 -2.0019 0.9791
2.9554 3.8976 -2.0019 0.9791
2.5915 4.1392 -1.9987 0.9791
1.2977 4.3290 -1.8496 0.9807
0.9061 4.4275 -1.8496 0.9807
0.5072 4.4906 -1.8496 0.9807
-1.4832 4.2685 -1.8495 0.9807
-3.7401 3.1508 -2.0015 0.9791
-4.6061 1.6426 -2.0014 0.9791
-2.7263 3.6927 -2.0004 0.9802
-3.0468 3.4366 -2.0016 0.9802
-3.3413 3.1508 -2.0015 0.9802
-3.6092 2.8400 -2.0015 0.9802
-4.0566 2.1529 -2.0015 0.9802
-1.5260 0.3409 -0.6814 0.9932
-1.5293 -0.0740 -0.6673 0.9933
-1.5168 -0.2103 -0.6674 0.9933
-1.5318 -0.3540 -0.6852 0.9932
-1.5856 -0.5193 -0.7271 0.9927
-4.2191 -1.8132 -2.0014 0.9802
-4.0405 -2.1825 -2.0014 0.9802
-3.3179 -3.1751 -2.0014 0.9802
-2.7004 -3.7144 -2.0014 0.9802
-1.9970 -4.1355 -2.0014 0.9802
-1.6199 -4.2973 -2.0015 0.9802
-0.8300 -4.5169 -2.0015 0.9802
0.8033 -4.5220 -2.0016 0.9802
1.9727 -4.1477 -2.0017 0.9802
2.6788 -3.7309 -2.0017 0.9802
3.0012 -3.4770 -2.0017 0.9802
3.2996 -3.1952 -2.0018 0.9802
3.5717 -2.8880 -2.0018 0.9802
3.8153 -2.5577 -2.0018 0.9802
4.3567 -1.4555 -2.0019 0.9802
4.5461 -0.6576 -2.0019 0.9802
4.5867 -0.2492 -2.0019 0.9802
4.5907 0.1612 -2.0019 0.9802
4.5580 0.5703 -2.0019 0.9802
4.4889 0.9749 -2.0019 0.9802
4.0702 2.1294 -2.0019 0.9802
1.6710 4.2609 -1.9947 0.9802
0.8400 4.2532 -1.8894 0.9813
0.0688 4.2433 -1.8496 0.9817
-2.9546 3.5162 -2.0016 0.9802
-3.2566 3.2383 -2.0015 0.9802
-3.5326 2.9347 -2.0015 0.9802
-3.9981 2.2597 -2.0015 0.9802
-4.1838 1.8938 -2.0015 0.9802
-1.5927 0.5557 -0.7351 0.9927
-1.5098 0.2389 -0.6662 0.9934
-1.5266 -0.0333 -0.6655 0.9934
-1.5098 -0.3070 -0.6715 0.9933
-1.5730 -0.4694 -0.7154 0.9929
-4.2657 -1.7006 -2.0014 0.9802
-4.0969 -2.0746 -2.0014 0.9802
-3.6627 -2.7701 -2.0014 0.9802
-3.1119 -3.3772 -2.0014 0.9802
-2.1059 -4.0811 -2.0014 0.9802
-1.7333 -4.2528 -2.0015 0.9802
-0.1354 -4.5906 -2.0015 0.9802
0.2749 -4.5844 -2.0016 0.9802
0.6831 -4.5417 -2.0016 0.9802
1.0858 -4.4626 -2.0016 0.9802
1.4798 -4.3479 -2.0016 0.9802
2.5789 -3.8006 -2.0017 0.9802
3.2137 -3.2816 -2.0018 0.9802
3.4938 -2.9817 -2.0018 0.9802
3.7461 -2.6579 -2.0018 0.9802
4.3165 -1.5705 -2.0019 0.9802
4.4395 -1.1789 -2.0019 0.9802
4.5785 -0.3708 -2.0019 0.9802
4.5933 0.0394 -2.0019 0.9802
4.5715 0.4493 -2.0019 0.9802
4.5131 0.8555 -2.0019 0.9802
4.4188 1.2550 -2.0019 0.9802
4.2891 1.6444 -2.0019 0.9802
3.4424 3.0414 -2.0019 0.9802
2.8467 3.6050 -2.0019 0.9802
1.3711 4.2675 -1.9535 0.9806
0.5641 4.2451 -1.8663 0.9815
-0.5755 4.2046 -1.8495 0.9817
-0.9577 4.1765 -1.8674 0.9815
-1.3520 4.1521 -1.9031 0.9811
-2.1688 4.0316 -1.9951 0.9802
-2.8603 3.5933 -2.0016 0.9802
-3.4536 3.0274 -2.0015 0.9802
-3.7100 2.7070 -2.0015 0.9802
-3.9368 2.3650 -2.0015 0.9802
-4.1321 2.0041 -2.0015 0.9802
-4.2945 1.6273 -2.0015 0.9802
-1.4977 0.2779 -0.6639 0.9934
-1.5271 0.1441 -0.6685 0.9933
-1.5023 -0.2642 -0.6648 0.9934
-1.5574 -0.4201 -0.7030 0.9930
-1.5975 -0.5883 -0.7419 0.9926
-3.9585 -2.3279 -2.0014 0.9802
-3.4815 -2.9947 -2.0014 0.9802
-2.8936 -3.5660 -2.0014 0.9802
-2.5637 -3.8101 -2.0014 0.9802
-2.2134 -4.0238 -2.0014 0.9802
-1.4627 -4.3533 -2.0015 0.9802
-0.6653 -4.5441 -2.0015 0.9802
0.1533 -4.5901 -2.0016 0.9802
0.5624 -4.5582 -2.0016 0.9802
0.9670 -4.4898 -2.0016 0.9802
1.7500 -4.2464 -2.0017 0.9802
2.1221 -4.0733 -2.0017 0.9802
2.4772 -3.8677 -2.0017 0.9802
2.8126 -3.6312 -2.0017 0.9802
3.1256 -3.3656 -2.0018 0.9802
3.4135 -3.0733 -2.0018 0.9802
3.6743 -2.7563 -2.0018 0.9802
3.9057 -2.4174 -2.0018 0.9802
4.1059 -2.0591 -2.0018 0.9802
4.4067 -1.2962 -2.0019 0.9802
4.5342 0.7355 -2.0019 0.9802
4.4505 1.1374 -2.0019 0.9802
3.5218 2.9490 -2.0019 0.9802
3.2445 3.2516 -2.0019 0.9802
2.6146 3.7767 -2.0019 0.9802
2.2652 3.9916 -2.0002 0.9802
1.8963 4.1702 -1.9965 0.9802
1.4997 4.2749 -1.9744 0.9804
0.2941 4.2397 -1.8522 0.9816
-0.4638 4.2184 -1.8495 0.9817
-1.6394 4.1328 -1.9377 0.9808
-2.0603 4.0860 -1.9943 0.9802
-2.7630 3.6665 -2.0008 0.9802
-3.0804 3.4065 -2.0016 0.9802
-3.6369 2.8044 -2.0015 0.9802
-3.8727 2.4685 -2.0015 0.9802
-1.5778 0.4869 -0.7196 0.9928
-1.5179 0.3235 -0.6764 0.9933
-1.5218 0.1844 -0.6681 0.9933
-1.5279 0.0477 -0.6662 0.9934
-1.5392 -0.3717 -0.6901 0.9931
-4.2011 -1.8545 -2.0014 0.9802
-3.8044 -2.5720 -2.0014 0.9802
-3.2865 -3.2075 -2.0014 0.9802
-2.3193 -3.9637 -2.0014 0.9802
-1.1863 -4.4366 -2.0015 0.9802
-0.3785 -4.5770 -2.0015 0.9802
0.4413 -4.5715 -2.0016 0.9802
1.2472 -4.4202 -2.0016 0.9802
2.0133 -4.1281 -2.0017 0.9802
2.7153 -3.7045 -2.0017 0.9802
3.0352 -3.4473 -2.0017 0.9802
3.5999 -2.8528 -2.0018 0.9802
3.8402 -2.5201 -2.0018 0.9802
4.0499 -2.1673 -2.0018 0.9802
4.2272 -1.7971 -2.0019 0.9802
4.5889 -0.2042 -2.0019 0.9802
4.5521 0.6151 -2.0019 0.9802
4.3702 1.4147 -2.0019 0.9802
4.2265 1.7991 -2.0019 0.9802
4.0491 2.1692 -2.0019 0.9802
3.5988 2.8546 -2.0019 0.9802
2.3718 3.9327 -2.0015 0.9802
2.0073 4.1205 -1.9975 0.9802
1.2004 4.2619 -1.9297 0.9809
0.7964 4.2520 -1.8853 0.9813
0.4074 4.2404 -1.8565 0.9816
0.0272 4.2438 -1.8496 0.9817
-0.7297 4.1915 -1.8542 0.9816
-1.1163 4.1670 -1.8801 0.9814
-1.9381 4.1114 -1.9809 0.9804
-2.6633 3.7364 -1.9997 0.9802
-1.5893 0.5370 -0.7311 0.9927
-1.5136 0.2243 -0.6669 0.9933
-1.5296 0.0884 -0.6677 0.9933
-1.5279 -0.0484 -0.6662 0.9934
-4.0763 -2.1148 -2.0014 0.9802
-3.0785 -3.4076 -2.0014 0.9802
-2.7621 -3.6688 -2.0014 0.9802
-2.4236 -3.9008 -2.0014 0.9802
-0.4998 -4.5653 -2.0015 0.9802
-0.0903 -4.5917 -2.0015 0.9802
0.3199 -4.5815 -2.0016 0.9802
0.7276 -4.5347 -2.0016 0.9802
1.1295 -4.4517 -2.0016 0.9802
1.5224 -4.3332 -2.0016 0.9802
1.9031 -4.1801 -2.0017 0.9802
2.2687 -3.9935 -2.0017 0.9802
2.9427 -3.5266 -2.0017 0.9802
3.5230 -2.9472 -2.0018 0.9802
3.7720 -2.6210 -2.0018 0.9802
3.9910 -2.2739 -2.0018 0.9802
4.1780 -1.9086 -2.0018 0.9802
4.5819 -0.3258 -2.0019 0.9802
4.5927 0.0845 -2.0019 0.9802
4.4062 1.2983 -2.0019 0.9802
4.1052 2.0611 -2.0019 0.9802
3.9048 2.4193 -2.0019 0.9802
3.4124 3.0750 -2.0019 0.9802
3.1243 3.3674 -2.0019 0.9802
2.4757 3.8692 -2.0019 0.9802
2.1170 4.0680 -1.9986 0.9802
1.3242 4.2647 -1.9462 0.9807
0.9144 4.2552 -1.8968 0.9812
0.5216 4.2437 -1.8634 0.9815
-0.2395 4.2371 -1.8495 0.9817
-0.6170 4.2005 -1.8503 0.9816
-1.8105 4.1207 -1.9616 0.9806
-2.2087 4.0107 -1.9955 0.9802
-2.8954 3.5650 -2.0016 0.9802
-3.4831 2.9933 -2.0015 0.9802
-3.7364 2.6704 -2.0015 0.9802
-3.9598 2.3262 -2.0015 0.9802
-4.1516 1.9634 -2.0015 0.9802
-1.5973 0.5874 -0.7417 0.9926
-1.5572 0.4192 -0.7028 0.9930
-1.5025 0.2635 -0.6648 0.9934
-1.5283 0.1291 -0.6684 0.9933
-1.5271 -0.1448 -0.6685 0.9933
-1.5636 -0.4383 -0.7077 0.9929
-4.1310 -2.0059 -2.0014 0.9802
-3.7085 -2.7085 -2.0014 0.9802
-3.4519 -3.0287 -2.0014 0.9802
-3.1678 -3.3248 -2.0014 0.9802
-1.0244 -4.4768 -2.0015 0.9802
-0.6207 -4.5504 -2.0015 0.9802
-0.2120 -4.5877 -2.0015 0.9802
0.6071 -4.5524 -2.0016 0.9802
1.0111 -4.4801 -2.0016 0.9802
1.4070 -4.3720 -2.0016 0.9802
1.7916 -4.2290 -2.0017 0.9802
2.5151 -3.8432 -2.0017 0.9802
2.8481 -3.6034 -2.0017 0.9802
3.7012 -2.7201 -2.0018 0.9802
3.9292 -2.3789 -2.0018 0.9802
4.1259 -2.0187 -2.0018 0.9802
4.2897 -1.6423 -2.0019 0.9802
4.5933 -0.0373 -2.0019 0.9802
4.5783 0.3728 -2.0019 0.9802
4.4391 1.1810 -2.0019 0.9802
4.1584 1.9515 -2.0019 0.9802
3.7451 2.6598 -2.0019 0.9802
3.4927 2.9835 -2.0019 0.9802
3.2124 3.2833 -2.0019 0.9802
2.5774 3.8022 -2.0019 0.9802
1.8550 4.1879 -1.9962 0.9802
1.4518 4.2721 -1.9664 0.9805
1.0339 4.2582 -1.9097 0.9811
0.2523 4.2392 -1.8508 0.9816
-0.1271 4.2420 -1.8495 0.9817
-0.8854 4.1807 -1.8624 0.9815
-1.6853 4.1296 -1.9438 0.9807
-2.7994 3.6399 -2.0012 0.9802
-3.8967 2.4304 -2.0015 0.9802
-4.0981 2.0728 -2.0015 0.9802
-4.2667 1.6987 -2.0015 0.9802
-1.5265 0.0326 -0.6654 0.9934
-1.5295 -0.1042 -0.6681 0.9933
-1.5463 -0.3895 -0.6950 0.9931
-4.1827 -1.8957 -2.0014 0.9802
-3.5310 -2.9361 -2.0014 0.9802
-2.6270 -3.7668 -2.0014 0.9802
-2.2803 -3.9862 -2.0014 0.9802
-1.1427 -4.4481 -2.0015 0.9802
-0.7411 -4.5324 -2.0015 0.9802
-0.3336 -4.5805 -2.0015 0.9802
0.8919 -4.5053 -2.0016 0.9802
2.0538 -4.1082 -2.0017 0.9802
2.7516 -3.6776 -2.0017 0.9802
3.6277 -2.8173 -2.0018 0.9802
4.0709 -2.1274 -2.0018 0.9802
4.2446 -1.7555 -2.0019 0.9802
4.3844 -1.3696 -2.0019 0.9802
4.4892 -0.9728 -2.0019 0.9802
4.5907 -0.1591 -2.0019 0.9802
4.5459 0.6597 -2.0019 0.9802
4.4689 1.0629 -2.0019 0.9802
4.3562 1.4575 -2.0019 0.9802
4.2087 1.8406 -2.0019 0.9802
3.8143 2.5596 -2.0019 0.9802
3.5706 2.8898 -2.0019 0.9802
3.2984 3.1970 -2.0019 0.9802
2.9998 3.4786 -2.0019 0.9802
2.3325 3.9549 -2.0010 0.9802
1.1551 4.2609 -1.9240 0.9809
0.7531 4.2508 -1.8814 0.9813
-0.7715 4.1880 -1.8559 0.9816
-1.1595 4.1643 -1.8839 0.9813
-2.3544 3.9303 -1.9967 0.9802
-3.0231 3.4574 -2.0016 0.9802
-3.3196 3.1738 -2.0015 0.9802
-3.5896 2.8647 -2.0015 0.9802
-1.5293 0.0733 -0.6673 0.9933
-1.5289 -0.0635 -0.6669 0.9933
-1.5190 -0.1999 -0.6677 0.9933
-1.5263 -0.3417 -0.6817 0.9932
-4.0554 -2.1547 -2.0014 0.9802
-3.8469 -2.5081 -2.0014 0.9802
-3.3396 -3.1521 -2.0014 0.9802
-3.0449 -3.4377 -2.0014 0.9802
-2.3852 -3.9244 -2.0014 0.9802
-2.0254 -4.1217 -2.0014 0.9802
-1.6494 -4.2860 -2.0015 0.9802
-0.4549 -4.5700 -2.0015 0.9802
0.7721 -4.5274 -2.0016 0.9802
1.1732 -4.4404 -2.0016 0.9802
1.9441 -4.1612 -2.0017 0.9802
2.3078 -3.9711 -2.0017 0.9802
2.6531 -3.7493 -2.0017 0.9802
2.9772 -3.4975 -2.0017 0.9802
3.7976 -2.5839 -2.0018 0.9802
4.1966 -1.8675 -2.0019 0.9802
4.4618 -1.0915 -2.0019 0.9802
4.5415 -0.6889 -2.0019 0.9802
4.5849 -0.2808 -2.0019 0.9802
4.5618 0.5390 -2.0019 0.9802
4.3933 1.3415 -2.0019 0.9802
3.8809 2.4575 -2.0019 0.9802
2.4376 3.8933 -2.0019 0.9802
1.7005 4.2498 -1.9949 0.9802
1.2781 4.2636 -1.9398 0.9808
0.8706 4.2540 -1.8924 0.9812
0.4792 4.2423 -1.8606 0.9815
0.0980 4.2428 -1.8496 0.9817
-1.0432 4.1714 -1.8740 0.9814
-1.8575 4.1173 -1.9685 0.9805
-3.9824 2.2872 -2.0015 0.9802
-4.1707 1.9226 -2.0015 0.9802
-1.5507 0.4012 -0.6981 0.9930
-2.5684 3.4788 -2.0016 0.9811
-2.8686 3.2356 -2.0016 0.9811
-3.1459 2.9666 -2.0015 0.9811
-3.6232 2.3599 -2.0015 0.9811
-1.3248 0.5578 -0.6654 0.9937
-1.3300 0.4248 -0.6463 0.9939
-1.3304 0.1745 -0.6211 0.9941
-1.3383 -0.0648 -0.6202 0.9941
-1.3315 -0.4361 -0.6486 0.9938
-1.3227 -0.5684 -0.6664 0.9937
-3.6056 -2.3863 -2.0014 0.9811
-3.3782 -2.6986 -2.0014 0.9811
-2.8446 -3.2563 -2.0014 0.9811
-2.5426 -3.4973 -2.0014 0.9811
-1.5252 -4.0460 -2.0015 0.9811
