ply
format ascii 1.0
element vertex 1594
property float32 x
property float32 y
property float32 z
property float32 I
end_header
-3.7012 8.8956 -2.2644 0.9612
-7.0340 6.2827 -2.2166 0.9620
-7.4185 5.5182 -2.1730 0.9627
-8.2299 2.3806 -2.0135 0.9654
-8.2347 0.8478 -1.9456 0.9666
-8.0046 -0.6127 -1.8868 0.9676
-7.8096 -1.3076 -1.8610 0.9680
-7.5653 -1.9752 -1.8376 0.9684
-7.2749 -2.6134 -1.8168 0.9687
-6.6619 5.1121 -2.1742 0.9659
-7.3796 2.9993 -2.0625 0.9676
-7.5375 0.8902 -1.9651 0.9691
-7.3634 -0.4529 -1.9101 0.9700
-7.2007 -1.0951 -1.8858 0.9704
-6.9912 -1.7140 -1.8638 0.9707
-5.7385 -3.9124 -1.7983 0.9717
-5.3343 -4.3837 -1.7877 0.9719
-4.8984 -4.8205 -1.7794 0.9720
-3.9407 -5.5854 -1.7699 0.9722
-2.3220 -6.4422 -1.7730 0.9721
-1.1468 -6.8051 -1.7868 0.9719
0.0841 -6.9897 -1.8099 0.9715
1.3508 -6.9857 -1.8422 0.9710
1.9907 -6.9097 -1.8618 0.9707
2.6309 -6.7829 -1.8837 0.9704
3.2678 -6.6040 -1.9078 0.9700
3.8979 -6.3720 -1.9340 0.9696
5.1211 -5.7457 -1.9928 0.9687
5.7051 -5.3504 -2.0251 0.9682
6.2643 -4.9003 -2.0592 0.9677
6.7861 -4.3913 -2.0928 0.9672
6.7614 -3.5618 -1.9787 0.9689
7.8764 -1.7313 -2.0880 0.9672
8.4840 0.4426 -2.1996 0.9655
8.5350 2.0084 -2.2702 0.9644
6.2031 3.3854 -1.8297 0.9712
4.0488 4.6797 -1.6022 0.9748
3.4980 4.8612 -1.5507 0.9756
3.0269 5.1161 -1.5391 0.9757
1.8521 3.8860 -1.1146 0.9824
2.0861 5.6230 -1.5529 0.9755
0.8370 3.0748 -0.8251 0.9869
0.5610 3.1493 -0.8282 0.9869
-0.0183 6.7472 -1.7470 0.9725
-1.6139 8.7842 -2.3125 0.9638
-2.3592 8.4852 -2.2803 0.9643
-3.0617 8.1171 -2.2462 0.9648
-4.8563 6.6722 -2.1367 0.9665
-6.5901 5.2549 -2.1824 0.9658
-6.9086 4.5625 -2.1436 0.9664
-7.1609 3.8579 -2.1060 0.9669
-7.3485 3.1474 -2.0698 0.9675
-7.5374 1.7305 -2.0023 0.9686
-7.4936 0.3502 -1.9424 0.9695
-7.3912 -0.3165 -1.9155 0.9699
-7.2385 -0.9632 -1.8907 0.9703
-7.0386 -1.5872 -1.8682 0.9706
-5.8185 -3.8101 -1.8008 0.9717
-4.9916 -4.7324 -1.7809 0.9720
-4.5323 -5.1410 -1.7745 0.9721
-4.0453 -5.5128 -1.7704 0.9721
-2.9973 -6.1408 -1.7692 0.9722
-2.4404 -6.3946 -1.7721 0.9721
-0.6651 -6.9001 -1.7948 0.9718
-0.0461 -6.9791 -1.8071 0.9716
0.5825 -7.0112 -1.8216 0.9713
2.4977 -6.8136 -1.8790 0.9705
3.7675 -6.4247 -1.9284 0.9697
4.9968 -5.8211 -1.9863 0.9688
5.5854 -5.4373 -2.0182 0.9683
6.1502 -4.9985 -2.0520 0.9678
6.6857 -4.5053 -2.0874 0.9672
8.0923 -1.1858 -2.1176 0.9668
8.4613 0.2834 -2.1920 0.9656
8.5409 1.0557 -2.2282 0.9651
8.5443 1.8432 -2.2632 0.9645
7.8961 2.4596 -2.1413 0.9664
7.0604 2.9143 -1.9777 0.9689
6.3418 3.3093 -1.8521 0.9709
5.7035 3.6594 -1.7546 0.9724
5.1241 3.9764 -1.6793 0.9736
4.6377 4.3156 -1.6402 0.9742
0.9679 3.3110 -0.8931 0.9858
0.1064 6.6809 -1.7300 0.9728
-0.4495 6.0989 -1.5834 0.9750
-2.9193 8.1991 -2.2534 0.9647
-3.5833 7.7814 -2.2181 0.9652
-4.1943 7.3078 -2.1816 0.9658
-4.7484 6.7861 -2.1445 0.9664
-5.2428 6.2240 -2.1070 0.9669
-2.2836 2.2649 -0.8328 0.9868
-7.1138 4.0053 -2.1138 0.9668
-7.3147 3.2955 -2.0772 0.9674
-7.5289 1.8769 -2.0090 0.9684
-7.5084 0.4912 -1.9482 0.9694
-7.2743 -0.8304 -1.8957 0.9702
-6.8484 -2.0634 -1.8519 0.9709
-6.2524 -3.1889 -1.8172 0.9714
-4.6303 -5.0589 -1.7757 0.9721
-4.1489 -5.4385 -1.7711 0.9721
-3.6416 -5.7802 -1.7688 0.9722
-3.1106 -6.0828 -1.7689 0.9722
-2.5580 -6.3451 -1.7713 0.9721
-0.1758 -6.9665 -1.8043 0.9716
0.4510 -7.0085 -1.8184 0.9714
2.3645 -6.8420 -1.8743 0.9705
3.0032 -6.6849 -1.8975 0.9702
3.6366 -6.4751 -1.9228 0.9698
4.2608 -6.2118 -1.9503 0.9694
4.8717 -5.8941 -1.9799 0.9689
5.4647 -5.5217 -2.0114 0.9684
6.0348 -5.0944 -2.0448 0.9679
6.5754 -3.7833 -1.9642 0.9691
7.4036 -2.6449 -2.0356 0.9680
8.2701 -0.6184 -2.1473 0.9663
8.5305 0.8934 -2.2208 0.9652
8.5500 1.6784 -2.2560 0.9646
6.4840 3.2312 -1.8757 0.9705
5.8309 3.5896 -1.7729 0.9721
5.2407 3.9126 -1.6934 0.9733
4.6965 4.2098 -1.6330 0.9743
3.6969 4.7535 -1.5592 0.9754
2.2839 5.5166 -1.5459 0.9756
1.8052 5.7737 -1.5663 0.9753
0.2287 6.6159 -1.7140 0.9730
-0.3817 6.9403 -1.7997 0.9717
-1.0619 7.3009 -1.9102 0.9700
-4.0717 7.4106 -2.1893 0.9657
-5.1448 6.3440 -2.1148 0.9668
-2.2443 2.3104 -0.8340 0.9868
-6.4378 5.5381 -2.1988 0.9655
-7.5179 2.0236 -2.0158 0.9683
-7.5477 1.3224 -1.9840 0.9688
-7.5209 0.6329 -1.9542 0.9693
-7.4401 -0.0412 -1.9264 0.9697
-7.3080 -0.6966 -1.9007 0.9701
-7.1274 -1.3303 -1.8773 0.9705
-6.9011 -1.9398 -1.8561 0.9708
-6.6317 -2.5228 -1.8371 0.9711
-6.3217 -3.0772 -1.8204 0.9714
-5.5906 -4.0933 -1.7940 0.9718
-4.7270 -4.9753 -1.7769 0.9720
-4.2513 -5.3625 -1.7718 0.9721
-2.1065 -6.5234 -1.7749 0.9721
-1.5207 -6.7104 -1.7815 0.9720
0.3198 -7.0036 -1.8153 0.9714
1.5908 -6.9631 -1.8493 0.9709
5.3429 -5.6038 -2.0047 0.9685
5.9182 -5.1879 -2.0377 0.9680
6.4666 -4.7173 -2.0725 0.9675
6.9604 -4.1793 -2.1021 0.9670
7.6808 -2.1444 -2.0648 0.9676
8.2272 -0.7696 -2.1395 0.9664
8.5168 0.7318 -2.2133 0.9653
6.6298 3.1511 -1.9006 0.9701
5.9611 3.5182 -1.7922 0.9718
4.3640 4.5083 -1.6246 0.9744
3.3203 4.9575 -1.5449 0.9756
2.8512 5.2110 -1.5380 0.9758
1.7211 3.9474 -1.1150 0.9824
0.6993 2.9576 -0.7869 0.9875
0.8991 6.2586 -1.6371 0.9742
0.3488 6.5519 -1.6988 0.9733
-0.2496 6.8701 -1.7800 0.9720
-0.7791 6.1601 -1.6077 0.9747
-1.8983 8.6805 -2.3007 0.9640
-2.6283 8.3547 -2.2677 0.9645
-3.9466 7.5113 -2.1969 0.9655
-4.5248 7.0087 -2.1600 0.9661
-5.0443 6.4625 -2.1226 0.9667
-6.3572 5.6783 -2.2070 0.9654
-6.7175 4.9968 -2.1677 0.9660
-7.0110 4.2990 -2.1294 0.9666
-7.2388 3.5915 -2.0923 0.9672
-7.4026 2.8803 -2.0566 0.9677
-7.1689 -1.2003 -1.8820 0.9704
-6.9518 -1.8150 -1.8603 0.9707
-6.0790 4.6648 -2.1692 0.9686
-6.3668 4.0364 -2.1341 0.9691
-6.5949 3.3960 -2.1000 0.9696
-6.7643 2.7492 -2.0670 0.9701
-6.9331 1.4563 -2.0055 0.9710
-6.9363 0.8192 -1.9773 0.9714
-6.6478 -1.0110 -1.9036 0.9724
-6.4602 -1.5838 -1.8830 0.9727
-5.9624 -2.6584 -1.8481 0.9732
-5.3168 -3.6249 -1.8217 0.9736
-4.5419 -4.4697 -1.8040 0.9739
-4.1115 -4.8427 -1.7984 0.9739
-3.6553 -5.1810 -1.7950 0.9740
-1.6158 -6.1619 -1.8034 0.9739
0.0779 -6.4730 -1.8326 0.9734
1.2493 -6.4608 -1.8629 0.9730
3.0142 -6.0915 -1.9240 0.9721
5.2374 -4.9117 -2.0327 0.9706
5.7427 -4.4923 -2.0641 0.9701
6.8825 -2.1733 -2.0432 0.9704
7.6088 2.5265 -2.2696 0.9672
6.8922 2.9963 -2.1276 0.9692
6.1942 3.3805 -1.9977 0.9711
5.5710 3.7227 -1.8968 0.9725
4.5522 4.3971 -1.7917 0.9740
3.4937 4.8553 -1.6934 0.9754
3.0232 5.1099 -1.6808 0.9756
1.8321 3.8441 -1.2055 0.9825
0.5595 6.4308 -1.8274 0.9735
-0.5613 6.0697 -1.7256 0.9750
-1.4541 7.9145 -2.2780 0.9671
-2.1286 7.6556 -2.2494 0.9675
-4.4086 6.0571 -2.1208 0.9693
-4.8538 5.5490 -2.0870 0.9698
-2.3538 2.2490 -0.9216 0.9866
-6.0115 4.7935 -2.1766 0.9685
-6.7338 2.8841 -2.0738 0.9700
-6.9258 1.5901 -2.0116 0.9709
-6.9024 0.3225 -1.9561 0.9717
-6.6814 -0.8891 -1.9081 0.9724
-6.5028 -1.4664 -1.8871 0.9727
-6.2820 -2.0212 -1.8682 0.9729
-5.7234 -3.0548 -1.8366 0.9734
-4.6281 -4.3878 -1.8054 0.9738
-4.2033 -4.7679 -1.7994 0.9739
-3.2773 -5.4234 -1.7939 0.9740
-2.7803 -5.6963 -1.7944 0.9740
-1.7291 -6.1263 -1.8021 0.9739
-1.1793 -6.2810 -1.8092 0.9738
0.5392 -6.4899 -1.8436 0.9733
3.4722 -5.9212 -1.9432 0.9719
4.5943 -5.3522 -1.9968 0.9711
5.6398 -4.5837 -2.0574 0.9702
6.1198 -4.1239 -2.0891 0.9698
6.0979 -3.3589 -1.9708 0.9715
6.8175 -2.2933 -2.0363 0.9705
7.3524 -1.0774 -2.1036 0.9696
7.5381 -0.4226 -2.1373 0.9691
7.6630 0.2567 -2.1706 0.9686
7.7230 0.9546 -2.2030 0.9682
7.7145 1.6643 -2.2342 0.9677
6.3325 3.3045 -2.0221 0.9707
5.1173 3.9711 -1.8337 0.9734
4.6372 4.3151 -1.7932 0.9740
4.1477 4.6174 -1.7571 0.9745
3.5928 4.8016 -1.6977 0.9754
3.0959 5.0170 -1.6689 0.9758
1.9501 3.9027 -1.2351 0.9820
2.1826 5.5629 -1.6917 0.9755
1.7016 5.8209 -1.7168 0.9751
-1.2126 7.3704 -2.1146 0.9694
-3.2416 7.0393 -2.1939 0.9683
-3.8003 6.6213 -2.1612 0.9688
-5.9360 4.9170 -2.1821 0.9685
-6.7008 3.0190 -2.0806 0.9699
-6.9161 1.7241 -2.0178 0.9708
-6.9413 1.0833 -1.9888 0.9712
-6.9143 0.4523 -1.9616 0.9716
-6.8375 -0.1653 -1.9362 0.9720
-6.5435 -1.3480 -1.8913 0.9726
-6.3313 -1.9076 -1.8719 0.9729
-6.0788 -2.4431 -1.8547 0.9731
-5.7884 -2.9523 -1.8395 0.9733
-4.7131 -4.3045 -1.8070 0.9738
-3.8483 -5.0445 -1.7962 0.9740
-3.3781 -5.3619 -1.7940 0.9740
-2.3726 -5.8854 -1.7964 0.9740
-1.8417 -6.0890 -1.8009 0.9739
-1.2949 -6.2522 -1.8075 0.9738
-0.1629 -6.4530 -1.8274 0.9735
1.0040 -6.4784 -1.8559 0.9731
1.5938 -6.4225 -1.8733 0.9729
2.1840 -6.3196 -1.8929 0.9726
2.7713 -6.1687 -1.9144 0.9723
3.3523 -5.9689 -1.9380 0.9719
4.4805 -5.4208 -1.9909 0.9712
5.0194 -5.0718 -2.0200 0.9708
6.7505 -2.4116 -2.0293 0.9706
7.3065 -1.2101 -2.0966 0.9697
7.5043 -0.5612 -2.1303 0.9692
7.6422 0.1135 -2.1637 0.9687
7.2113 2.8205 -2.1920 0.9683
6.4744 3.2264 -2.0478 0.9704
5.2337 3.9074 -1.8490 0.9732
4.6905 4.2044 -1.7832 0.9742
4.2526 4.5603 -1.7652 0.9744
3.2184 5.0044 -1.6844 0.9756
2.7504 5.2572 -1.6796 0.9756
2.2812 5.5099 -1.6882 0.9755
0.7867 6.3098 -1.8001 0.9739
0.2284 6.6069 -1.8715 0.9729
-1.0603 7.2899 -2.0854 0.9698
-2.5056 7.4752 -2.2319 0.9678
-3.1193 7.1201 -2.2006 0.9682
-3.6880 6.7123 -2.1681 0.9687
-4.2075 6.2582 -2.1348 0.9691
-2.2450 2.3111 -0.9121 0.9867
-5.8578 5.0391 -2.1874 0.9684
-6.1941 4.4306 -2.1559 0.9688
-6.4594 3.7971 -2.1212 0.9693
-6.8130 2.5058 -2.0550 0.9703
-6.7428 -0.6427 -1.9175 0.9722
-6.3789 -1.7930 -1.8758 0.9728
-6.1346 -2.3337 -1.8581 0.9731
-5.8519 -2.8485 -1.8425 0.9733
-4.7967 -4.2197 -1.8086 0.9738
-4.3835 -4.6137 -1.8016 0.9739
-3.9432 -4.9739 -1.7969 0.9740
-3.4779 -5.2988 -1.7943 0.9740
-1.9536 -6.0499 -1.7998 0.9739
-1.4099 -6.2216 -1.8060 0.9738
-0.8522 -6.3521 -1.8143 0.9737
-0.2827 -6.4401 -1.8249 0.9736
0.8815 -6.4842 -1.8525 0.9732
1.4709 -6.4380 -1.8695 0.9729
2.0612 -6.3449 -1.8886 0.9726
2.6494 -6.2041 -1.9098 0.9723
3.2320 -6.0146 -1.9330 0.9720
5.9251 -4.3222 -2.0762 0.9700
6.3664 -3.8226 -2.1022 0.9696
6.9945 -1.9528 -2.0558 0.9703
7.4679 -0.6986 -2.1233 0.9693
7.7062 0.6622 -2.1896 0.9684
7.7266 1.3678 -2.2214 0.9679
6.6198 3.1464 -2.0749 0.9700
5.9526 3.5132 -1.9568 0.9717
5.3521 3.8426 -1.8652 0.9730
4.8005 4.1443 -1.7953 0.9740
3.3163 4.9514 -1.6871 0.9755
1.7147 3.9327 -1.2145 0.9823
0.6989 2.9561 -0.8599 0.9875
0.3483 6.5431 -1.8549 0.9731
-0.2492 6.8604 -1.9434 0.9719
-2.9951 7.1986 -2.2072 0.9681
-4.1036 6.3562 -2.1418 0.9690
-5.3763 4.8021 -2.0407 0.9705
-6.1313 4.5608 -2.1633 0.9687
-6.4091 3.9300 -2.1283 0.9692
-6.6273 3.2881 -2.0944 0.9697
-6.8897 1.9929 -2.0304 0.9706
-6.9373 1.3492 -2.0007 0.9710
-6.7705 -0.5183 -1.9223 0.9722
-6.4247 -1.6774 -1.8798 0.9728
-6.2376 2.5351 -2.0709 0.9722
-6.3485 1.9398 -2.0418 0.9726
-6.3798 0.1791 -1.9631 0.9736
-6.2958 -0.3873 -1.9401 0.9739
-5.9987 -1.4707 -1.8997 0.9745
-5.7899 -1.9826 -1.8824 0.9747
-5.2626 -2.9361 -1.8536 0.9751
-4.9485 -3.3738 -1.8422 0.9752
-4.6037 -3.7833 -1.8328 0.9754
-4.2302 -4.1629 -1.8255 0.9755
-3.4056 -4.8270 -1.8170 0.9756
-2.9587 -5.1089 -1.8159 0.9756
-2.4916 -5.3557 -1.8168 0.9756
-2.0063 -5.5661 -1.8198 0.9755
-1.5049 -5.7391 -1.8249 0.9755
-0.9898 -5.8735 -1.8320 0.9754
-0.4632 -5.9682 -1.8412 0.9753
0.6147 -6.0343 -1.8656 0.9749
2.7945 -5.6475 -1.9381 0.9740
3.3267 -5.4383 -1.9609 0.9737
3.8469 -5.1832 -1.9854 0.9733
4.3513 -4.8821 -2.0115 0.9730
4.8358 -4.5351 -2.0391 0.9726
5.7172 -3.6996 -2.0945 0.9719
6.3145 -1.9939 -2.0367 0.9727
6.7671 -0.8632 -2.0983 0.9719
6.9164 -0.2586 -2.1288 0.9715
7.0091 0.3656 -2.1588 0.9711
7.0122 1.6500 -2.2157 0.9703
6.7570 2.9375 -2.2662 0.9696
6.1851 3.3756 -2.1673 0.9709
5.5632 3.7175 -2.0580 0.9724
4.9961 4.0284 -1.9740 0.9735
4.4960 4.3428 -1.9227 0.9742
3.4894 4.8493 -1.8375 0.9753
3.0195 5.1036 -1.8239 0.9755
0.8541 3.1378 -1.0002 0.9865
-1.3215 7.1931 -2.2495 0.9699
-1.9368 6.9657 -2.2238 0.9702
-3.0666 6.3453 -2.1677 0.9709
-5.5078 4.3918 -2.1667 0.9709
-5.8041 3.8331 -2.1394 0.9713
-6.0330 3.2502 -2.1078 0.9717
-6.2079 2.6589 -2.0772 0.9721
-6.3297 2.0637 -2.0477 0.9725
-6.3998 1.4693 -2.0197 0.9729
-6.4198 0.8797 -1.9931 0.9732
-6.3916 0.2987 -1.9681 0.9736
-5.8365 -1.8779 -1.8858 0.9747
-5.0165 -3.2850 -1.8444 0.9752
-4.6779 -3.7004 -1.8346 0.9753
-3.9155 -4.4414 -1.8211 0.9755
-3.4959 -4.7640 -1.8175 0.9756
-2.1087 -5.5253 -1.8190 0.9756
-1.6105 -5.7062 -1.8237 0.9755
-0.5737 -5.9518 -1.8391 0.9753
0.5014 -6.0353 -1.8627 0.9750
1.5945 -5.9488 -1.8943 0.9746
3.7398 -5.2401 -1.9801 0.9734
4.2478 -4.9485 -2.0059 0.9731
6.7292 -0.9861 -2.0919 0.9719
6.8898 -0.3863 -2.1225 0.9715
6.9947 0.2343 -2.1526 0.9711
7.0402 0.8702 -2.1819 0.9707
6.7959 2.8051 -2.2613 0.9697
5.6876 3.6492 -2.0785 0.9721
5.1105 3.9658 -1.9896 0.9733
4.5759 4.2581 -1.9226 0.9742
4.1425 4.6115 -1.9067 0.9744
3.5883 4.7956 -1.8422 0.9752
3.0920 5.0108 -1.8110 0.9757
1.9186 3.8396 -1.3202 0.9822
2.1799 5.5560 -1.8357 0.9753
-0.4492 6.0945 -1.8796 0.9748
-2.4016 6.7451 -2.2022 0.9705
-3.9401 5.6310 -2.1139 0.9716
-4.3633 5.1800 -2.0832 0.9721
-2.2805 2.2617 -0.9879 0.9866
-5.0620 4.1931 -2.0218 0.9729
-5.7496 3.9528 -2.1461 0.9712
-5.9898 3.3725 -2.1143 0.9716
-6.1759 2.7825 -2.0834 0.9721
-6.3894 1.5928 -2.0254 0.9728
-6.3362 -0.1532 -1.9495 0.9738
-6.2265 -0.7108 -1.9276 0.9741
-6.0742 -1.2513 -1.9075 0.9744
-5.8815 -1.7721 -1.8894 0.9746
-5.3838 -2.7459 -1.8589 0.9750
-5.0832 -3.1949 -1.8467 0.9752
-4.7509 -3.6163 -1.8364 0.9753
-3.5852 -4.6996 -1.8181 0.9756
-3.1474 -4.9957 -1.8161 0.9756
-2.6884 -5.2573 -1.8162 0.9756
-2.2104 -5.4830 -1.8183 0.9756
-1.7155 -5.6717 -1.8225 0.9755
-0.6838 -5.9336 -1.8371 0.9753
0.9332 -6.0218 -1.8743 0.9748
2.0272 -5.8660 -1.9089 0.9744
3.1064 -5.5310 -1.9512 0.9738
4.6367 -4.6851 -2.0274 0.9728
5.1077 -4.3117 -2.0559 0.9724
5.5354 -3.1849 -1.9643 0.9736
5.8851 -2.7177 -1.9938 0.9732
6.4664 -1.6762 -2.0547 0.9724
6.8608 -0.5131 -2.1161 0.9716
6.9776 0.1036 -2.1464 0.9712
7.0324 1.3805 -2.2043 0.9705
6.8319 2.6721 -2.2564 0.9698
5.8145 3.5795 -2.1001 0.9718
5.2266 3.9021 -2.0062 0.9731
4.6843 4.1989 -1.9349 0.9740
4.2472 4.5545 -1.9155 0.9743
3.6877 4.7417 -1.8476 0.9752
3.2144 4.9982 -1.8278 0.9754
2.7471 5.2507 -1.8227 0.9755
2.2783 5.5031 -1.8320 0.9754
0.6375 2.9400 -0.9253 0.9875
0.2281 6.5979 -2.0306 0.9728
-0.3806 6.9204 -2.1318 0.9714
-0.9152 6.2924 -1.9558 0.9737
-3.8460 5.7206 -2.1202 0.9716
-2.2457 2.3118 -0.9913 0.9866
-5.6927 4.0720 -2.1528 0.9711
-5.9443 3.4942 -2.1208 0.9716
-6.4091 0.5393 -1.9783 0.9734
-6.3536 -0.0352 -1.9542 0.9738
-6.1093 -1.1403 -1.9115 0.9743
-5.1485 -3.1037 -1.8490 0.9752
-4.8226 -3.5309 -1.8384 0.9753
-4.4667 -3.9294 -1.8298 0.9754
-4.0830 -4.2974 -1.8233 0.9755
-3.6735 -4.6337 -1.8188 0.9756
-3.2403 -4.9369 -1.8163 0.9756
-2.7856 -5.2057 -1.8160 0.9756
-2.3114 -5.4390 -1.8177 0.9756
-1.3131 -5.7941 -1.8273 0.9754
0.2754 -6.0317 -1.8571 0.9750
1.3665 -5.9812 -1.8871 0.9747
1.9136 -5.8904 -1.9050 0.9744
2.9955 -5.5744 -1.9464 0.9739
3.5236 -5.3479 -1.9699 0.9736
4.5357 -4.7572 -2.0217 0.9729
5.4618 -3.9842 -2.0794 0.9721
5.8152 -2.8180 -1.9876 0.9733
6.4140 -1.7907 -2.0483 0.9725
6.9580 -0.0263 -2.1401 0.9713
7.0287 0.6039 -2.1698 0.9709
7.0383 1.2459 -2.1985 0.9705
6.9844 1.8932 -2.2258 0.9702
6.8651 2.5386 -2.2513 0.9698
5.3448 3.8373 -2.0238 0.9728
4.7942 4.1388 -1.9481 0.9738
3.7877 4.6874 -1.8536 0.9751
1.7079 3.9171 -1.3144 0.9823
1.9013 5.7055 -1.8498 0.9751
0.8967 6.2423 -1.9397 0.9740
-0.7767 6.1409 -1.9039 0.9744
-1.5559 7.1147 -2.2401 0.9700
-2.1598 6.8654 -2.2137 0.9703
-3.7500 5.8085 -2.1266 0.9715
-4.1929 5.3718 -2.0960 0.9719
-4.9331 4.4063 -2.0345 0.9727
-5.8964 3.6156 -2.1274 0.9715
-6.3620 1.8403 -2.0370 0.9727
-6.4131 1.2472 -2.0095 0.9730
-6.2775 -0.4805 -1.9365 0.9740
-5.9665 -1.5578 -1.8967 0.9745
-4.5017 4.1436 -2.0338 0.9745
-5.4159 3.4335 -2.1316 0.9733
-5.6233 2.8957 -2.1025 0.9737
-5.8900 1.7997 -2.0472 0.9744
-5.9511 1.2501 -2.0213 0.9747
-5.8622 -0.3606 -1.9523 0.9755
-5.5936 -1.3713 -1.9144 0.9760
-4.9153 -2.7423 -1.8710 0.9766
-4.6238 -3.1524 -1.8602 0.9767
-4.3030 -3.5362 -1.8514 0.9768
-3.5816 -4.2185 -1.8395 0.9769
-2.7671 -4.7781 -1.8354 0.9770
-1.8761 -5.2050 -1.8391 0.9769
-1.4070 -5.3657 -1.8439 0.9769
0.0677 -5.6249 -1.8699 0.9766
1.5931 -5.5295 -1.9128 0.9760
4.4869 -4.2080 -2.0448 0.9744
5.8269 -1.8399 -2.0312 0.9746
6.0511 -1.3301 -2.0594 0.9742
6.2300 -0.7947 -2.0877 0.9739
6.3601 -0.2378 -2.1156 0.9735
5.5554 3.7123 -2.2210 0.9722
4.9894 4.0229 -2.1305 0.9733
3.9647 4.5826 -2.0142 0.9748
3.4850 4.8432 -1.9834 0.9752
3.0157 5.0973 -1.9687 0.9753
2.0784 5.6020 -1.9862 0.9751
0.8465 3.1097 -1.0713 0.9865
-0.0182 6.7190 -2.2334 0.9721
-0.5601 6.0573 -2.0221 0.9747
-1.2098 6.5845 -2.2254 0.9722
-1.7746 6.3826 -2.2021 0.9725
-2.8158 5.8265 -2.1511 0.9731
-3.2833 5.4814 -2.1239 0.9734
-4.0959 4.6826 -2.0679 0.9741
-5.3662 3.5439 -2.1376 0.9733
-5.5842 3.0085 -2.1085 0.9736
-5.7523 2.4637 -2.0801 0.9740
-5.9455 0.2778 -1.9785 0.9752
-5.8810 -0.2519 -1.9567 0.9755
-5.2254 -2.2141 -1.8865 0.9764
-4.9721 -2.6538 -1.8734 0.9765
-4.6870 -3.0692 -1.8623 0.9767
-2.8558 -4.7259 -1.8354 0.9770
-1.0265 -5.4672 -1.8491 0.9768
-0.5361 -5.5618 -1.8573 0.9767
-0.0371 -5.6181 -1.8675 0.9766
0.4682 -5.6351 -1.8796 0.9764
0.9771 -5.6120 -1.8935 0.9763
1.9952 -5.4426 -1.9269 0.9759
2.9935 -5.1050 -1.9672 0.9754
3.9460 -4.5970 -2.0138 0.9748
4.3960 -4.2794 -2.0393 0.9745
5.2172 -3.5157 -2.0913 0.9738
5.1909 -2.8593 -1.9699 0.9753
5.7749 -1.9426 -2.0253 0.9746
6.4611 0.7986 -2.1640 0.9729
6.2182 2.5666 -2.2361 0.9720
6.0181 3.1404 -2.2564 0.9718
5.6796 3.6440 -2.2431 0.9720
3.5838 4.7896 -1.9884 0.9751
0.5821 2.9484 -0.9990 0.9874
0.6722 6.3528 -2.1235 0.9734
0.1059 6.6533 -2.2119 0.9723
-0.4492 6.0945 -2.0314 0.9746
-1.0891 6.6196 -2.2300 0.9721
-1.6592 6.4291 -2.2071 0.9724
-3.1892 5.5566 -2.1296 0.9734
-4.0193 4.7716 -2.0738 0.9740
-2.2789 2.2602 -1.0669 0.9866
-4.6738 3.8715 -2.0174 0.9747
-5.3102 3.6508 -2.1421 0.9732
-5.7214 2.5777 -2.0859 0.9739
-5.8505 2.0289 -2.0584 0.9742
-5.9535 0.3895 -1.9832 0.9752
-5.6624 -1.1664 -1.9217 0.9759
-5.4863 -1.6530 -1.9047 0.9761
-5.2740 -2.1196 -1.8894 0.9763
-5.0275 -2.5642 -1.8760 0.9765
-4.7488 -2.9848 -1.8644 0.9766
-4.4400 -3.3797 -1.8548 0.9768
-3.7400 -4.0862 -1.8413 0.9769
-3.3528 -4.3949 -1.8375 0.9770
-2.9436 -4.6722 -1.8356 0.9770
-2.5143 -4.9168 -1.8357 0.9770
-2.0671 -5.1275 -1.8377 0.9770
-1.6040 -5.3032 -1.8417 0.9769
-0.6390 -5.5452 -1.8555 0.9767
-0.1416 -5.6096 -1.8652 0.9766
0.8710 -5.6202 -1.8905 0.9763
1.8897 -5.4680 -1.9231 0.9759
2.3942 -5.3292 -1.9420 0.9757
3.3777 -4.9242 -1.9849 0.9751
4.7364 -3.9983 -2.0604 0.9742
5.4395 -2.5119 -1.9916 0.9751
5.7212 -2.0439 -2.0195 0.9747
5.9630 -1.5457 -2.0477 0.9744
6.3121 -0.4720 -2.1040 0.9737
6.4122 0.0952 -2.1317 0.9733
6.4585 0.6764 -2.1586 0.9730
6.4484 1.2659 -2.1844 0.9727
6.2523 2.4454 -2.2316 0.9721
5.8062 3.5743 -2.2664 0.9717
5.2195 3.8968 -2.1652 0.9729
4.6782 4.1933 -2.0883 0.9739
4.1284 4.4271 -2.0121 0.9748
3.6831 4.7357 -1.9942 0.9750
3.2104 4.9920 -1.9729 0.9753
2.7436 5.2442 -1.9673 0.9754
2.2755 5.4962 -1.9773 0.9752
-1.5425 6.4733 -2.2120 0.9723
-2.6101 5.9577 -2.1621 0.9730
-3.0933 5.6300 -2.1353 0.9733
-3.9408 4.8594 -2.0797 0.9740
-5.2521 3.7568 -2.1465 0.9731
-5.4996 3.2328 -2.1205 0.9735
-5.6883 2.6914 -2.0918 0.9738
-5.8276 2.1434 -2.0640 0.9742
-5.9184 1.5931 -2.0373 0.9745
-5.9619 1.0446 -2.0120 0.9748
-5.9130 -0.0327 -1.9655 0.9754
-5.3211 -2.0242 -1.8924 0.9763
-3.8176 -4.0181 -1.8424 0.9769
-3.4353 -4.3332 -1.8381 0.9770
-0.2458 -5.5993 -1.8630 0.9767
0.7649 -5.6265 -1.8875 0.9763
3.7529 -4.7168 -2.0036 0.9749
4.2111 -4.4167 -2.0285 0.9746
4.6484 -4.0747 -2.0548 0.9743
5.0606 -3.6916 -2.0822 0.9739
5.0518 -3.0333 -1.9587 0.9755
5.3762 -2.6053 -1.9859 0.9751
5.9161 -1.6517 -2.0418 0.9744
6.2848 -0.5879 -2.0982 0.9737
6.4534 0.5545 -2.1530 0.9731
6.2839 2.3237 -2.2270 0.9722
5.8739 3.4668 -2.2672 0.9717
5.3374 3.8320 -2.1841 0.9727
4.7878 4.1333 -2.1025 0.9737
4.2068 4.3459 -2.0105 0.9748
3.7829 4.6814 -2.0007 0.9749
3.3081 4.9391 -1.9760 0.9753
1.6969 3.8918 -1.4113 0.9823
1.8989 5.6983 -1.9965 0.9750
0.7212 3.0503 -1.0419 0.9869
0.8955 6.2341 -2.0935 0.9738
-0.7754 6.1313 -2.0543 0.9743
-1.4248 6.5151 -2.2168 0.9723
-1.9798 6.2931 -2.1929 0.9726
-2.5049 6.0204 -2.1675 0.9729
-2.9958 5.7017 -2.1410 0.9732
-3.4486 5.3418 -2.1135 0.9736
-4.2290 4.5190 -2.0573 0.9742
-5.4540 3.3443 -2.1266 0.9734
-5.6531 2.8048 -2.0977 0.9737
-5.8027 2.2578 -2.0697 0.9741
-5.9035 1.7076 -2.0428 0.9744
-5.9638 0.6140 -1.9929 0.9750
-5.9262 0.0776 -1.9701 0.9753
-5.8459 -0.4475 -1.9489 0.9756
-5.5641 -1.4527 -1.9115 0.9761
-5.3667 -1.9279 -1.8955 0.9762
-4.4431 3.4095 -2.0028 0.9765
-5.0278 3.1875 -2.1289 0.9750
-5.3813 2.1871 -2.0773 0.9756
-5.5494 1.1657 -2.0278 0.9762
-5.5437 0.1556 -1.9832 0.9767
-5.3756 -0.8175 -1.9444 0.9772
-5.2347 -1.2834 -1.9274 0.9774
-5.0584 -1.7321 -1.9120 0.9775
-4.6066 -2.5701 -1.8864 0.9778
-3.3602 -3.9578 -1.8566 0.9782
-0.8677 -5.1488 -1.8672 0.9781
-0.4058 -5.2286 -1.8754 0.9780
0.5377 -5.2778 -1.8972 0.9777
1.0144 -5.2458 -1.9107 0.9776
1.4910 -5.1751 -1.9259 0.9774
2.8912 -4.7263 -1.9813 0.9767
3.3378 -4.4972 -2.0028 0.9765
3.7689 -4.2286 -2.0256 0.9762
4.5700 -3.5749 -2.0749 0.9757
4.9203 -3.1840 -2.0958 0.9754
2.2926 -0.9568 -0.8884 0.9895
5.6056 -1.2321 -2.0525 0.9759
5.7655 -0.7354 -2.0785 0.9756
5.8800 -0.2199 -2.1042 0.9753
5.9621 0.8500 -2.1536 0.9747
5.9253 1.3943 -2.1768 0.9745
5.8347 1.9374 -2.1985 0.9742
4.2085 4.0651 -2.0925 0.9754
3.4806 4.8370 -2.1310 0.9750
1.8196 3.8178 -1.5124 0.9822
0.5291 2.9706 -1.0790 0.9873
0.5470 6.2871 -2.2568 0.9735
-0.5595 6.0509 -2.1731 0.9745
-1.1141 6.0638 -2.2048 0.9741
-1.6356 5.8827 -2.1835 0.9744
-2.6000 5.3799 -2.1368 0.9749
-3.0346 5.0662 -2.1119 0.9752
-3.4331 4.7169 -2.0863 0.9755
-2.3408 2.2366 -1.1578 0.9863
-4.3906 3.5010 -2.0082 0.9764
-5.1922 2.7973 -2.1091 0.9753
-5.4692 1.7832 -2.0572 0.9759
-5.5673 0.7629 -2.0095 0.9764
-5.5521 0.2594 -1.9876 0.9767
-5.4003 -0.7186 -1.9482 0.9771
-5.0979 -1.6402 -1.9151 0.9775
-4.6595 -2.4869 -1.8887 0.9778
-4.1000 -3.2433 -1.8695 0.9780
-3.0676 -4.1803 -1.8542 0.9782
-2.6796 -4.4344 -1.8528 0.9782
-0.9627 -5.1276 -1.8657 0.9781
-0.5027 -5.2149 -1.8735 0.9780
-0.0348 -5.2659 -1.8832 0.9779
1.8664 -5.0913 -1.9391 0.9772
2.3356 -4.9500 -1.9573 0.9770
3.6806 -4.2878 -2.0208 0.9763
4.4910 -3.6500 -2.0696 0.9757
2.2893 -1.0059 -0.8942 0.9894
5.5669 -1.3328 -2.0470 0.9760
5.8601 -0.3286 -2.0989 0.9754
5.9367 0.1989 -2.1242 0.9751
5.9374 1.2809 -2.1721 0.9745
5.8580 1.8247 -2.1941 0.9743
5.5360 2.8888 -2.2331 0.9738
5.2942 3.3967 -2.2494 0.9736
3.8349 4.2691 -2.0522 0.9759
1.9104 3.8233 -1.5284 0.9820
2.1744 5.5420 -2.1289 0.9750
0.5828 2.9520 -1.0760 0.9873
0.6649 6.2837 -2.2596 0.9735
0.0999 6.2771 -2.2450 0.9737
-1.0028 6.0951 -2.2090 0.9741
-1.5290 5.9245 -2.1881 0.9743
-2.5052 5.4403 -2.1419 0.9749
-3.3533 4.7923 -2.0916 0.9755
-5.1528 2.9012 -2.1147 0.9752
-5.3237 2.3985 -2.0881 0.9755
-5.4489 1.8896 -2.0624 0.9758
-5.5290 1.3783 -2.0377 0.9761
-5.5652 0.8686 -2.0143 0.9764
-5.5109 -0.1332 -1.9713 0.9769
-5.2978 -1.0913 -1.9343 0.9773
-4.9398 -1.9853 -1.9038 0.9776
-4.7110 -2.4028 -1.8912 0.9778
-4.4516 -2.7979 -1.8803 0.9779
-4.1635 -3.1692 -1.8711 0.9780
-3.8485 -3.5148 -1.8638 0.9781
-3.5086 -3.8334 -1.8584 0.9782
-3.1458 -4.1236 -1.8547 0.9782
-2.7620 -4.3840 -1.8530 0.9782
-2.3592 -4.6135 -1.8530 0.9782
-1.9395 -4.8109 -1.8549 0.9782
-1.0573 -5.1050 -1.8643 0.9781
-0.5992 -5.1997 -1.8718 0.9780
-0.1327 -5.2583 -1.8810 0.9779
0.3397 -5.2799 -1.8920 0.9778
1.2927 -5.2092 -1.9194 0.9775
2.2385 -4.9827 -1.9534 0.9771
3.1535 -4.5974 -1.9937 0.9766
4.7814 -3.3532 -2.0884 0.9755
4.7611 -2.7394 -1.9643 0.9769
5.3075 -1.8961 -2.0155 0.9763
5.8381 -0.4366 -2.0936 0.9754
5.9618 0.6244 -2.1437 0.9749
5.8790 1.7118 -2.1897 0.9743
5.7566 2.2515 -2.2105 0.9741
5.5797 2.7806 -2.2294 0.9739
5.3489 3.2928 -2.2462 0.9737
5.0656 3.7818 -2.2606 0.9735
4.4114 3.9542 -2.1185 0.9751
3.9318 4.2163 -2.0616 0.9758
3.6783 4.7296 -2.1427 0.9749
3.2063 4.9857 -2.1198 0.9751
2.2726 5.4892 -2.1246 0.9751
1.7961 5.7447 -2.1524 0.9748
0.6616 3.0508 -1.1164 0.9868
0.7828 6.2778 -2.2624 0.9735
-1.4212 5.9642 -2.1926 0.9743
-1.9289 5.7545 -2.1704 0.9745
-2.4091 5.4989 -2.1469 0.9748
-2.8578 5.2014 -2.1223 0.9751
-2.2471 2.3132 -1.1533 0.9864
-4.2801 3.6819 -2.0190 0.9763
-4.5332 3.2425 -1.9931 0.9766
-5.1114 3.0047 -2.1203 0.9751
-5.5160 1.4848 -2.0428 0.9760
-5.5612 0.9744 -2.0190 0.9763
-5.4447 -0.5190 -1.9559 0.9770
-5.3270 -0.9943 -1.9379 0.9772
-4.9834 -1.8958 -1.9067 0.9776
-4.7613 -2.3176 -1.8937 0.9778
-4.2257 -3.0939 -1.8729 0.9780
-3.2231 -4.0656 -1.8553 0.9782
-2.0281 -4.7725 -1.8544 0.9782
-1.5964 -4.9437 -1.8578 0.9782
-0.6953 -5.1829 -1.8701 0.9780
1.1935 -5.2238 -1.9162 0.9775
1.6693 -5.1384 -1.9321 0.9773
2.1411 -5.0136 -1.9496 0.9771
3.0604 -4.6450 -1.9892 0.9766
3.5016 -4.4010 -2.0112 0.9764
3.9259 -4.1176 -2.0345 0.9761
4.3298 -3.7954 -2.0590 0.9758
4.9936 -2.4198 -1.9844 0.9767
5.2572 -1.9893 -2.0101 0.9764
5.4841 -1.5311 -2.0361 0.9761
5.6708 -1.0481 -2.0623 0.9758
5.8140 -0.5439 -2.0882 0.9755
5.9583 0.5120 -2.1386 0.9749
5.9545 1.0541 -2.1625 0.9746
5.1288 3.6822 -2.2578 0.9735
4.0296 4.1629 -2.0719 0.9757
3.3039 4.9328 -2.1231 0.9751
2.8371 5.1852 -2.1137 0.9752
1.7013 3.9021 -1.5223 0.9821
0.8944 6.2257 -2.2492 0.9736
0.3347 6.2869 -2.2514 0.9736
-0.2269 6.2468 -2.2354 0.9738
-1.8253 5.8021 -2.1751 0.9745
-3.9180 4.1866 -2.0505 0.9759
-4.4840 3.3354 -1.9985 0.9765
-5.0673 3.1072 -2.1256 0.9751
-5.4023 2.1020 -2.0730 0.9757
-5.5011 1.5912 -2.0479 0.9760
-5.4645 -0.4183 -1.9599 0.9770
-5.2076 -1.3597 -1.9247 0.9774
-4.1408 3.1775 -2.0002 0.9779
-4.6838 2.9694 -2.1252 0.9765
-4.8821 2.5140 -2.1044 0.9768
-5.1952 0.1458 -1.9917 0.9780
-5.0438 -0.7671 -1.9551 0.9784
-4.9143 -1.2048 -1.9390 0.9786
-4.7511 -1.6269 -1.9245 0.9787
-3.4901 -3.4346 -1.8765 0.9792
-3.1616 -3.7239 -1.8720 0.9793
-2.0574 -4.4224 -1.8691 0.9793
-1.6562 -4.5948 -1.8717 0.9793
-1.2417 -4.7353 -1.8760 0.9792
-0.8162 -4.8429 -1.8820 0.9792
1.8434 -4.7528 -1.9535 0.9784
2.2810 -4.6098 -1.9710 0.9782
2.7096 -4.4294 -1.9898 0.9780
3.1260 -4.2119 -2.0100 0.9778
3.5271 -3.9574 -2.0315 0.9775
3.9097 -3.6666 -2.0541 0.9773
4.5577 -2.4009 -1.9741 0.9782
2.2920 -0.9565 -0.9518 0.9894
5.3595 -0.6836 -2.0705 0.9771
5.4612 -0.2042 -2.0943 0.9769
4.1781 4.0357 -2.2261 0.9754
3.7339 4.3158 -2.1870 0.9759
1.8169 3.8123 -1.6184 0.9821
2.0528 5.5333 -2.2617 0.9750
1.5457 5.6783 -2.2552 0.9751
0.5274 2.9610 -1.1526 0.9872
-1.0312 5.6127 -2.1869 0.9759
-1.9767 5.2407 -2.1464 0.9763
-2.4121 4.9911 -2.1243 0.9765
-3.5282 4.0336 -2.0536 0.9773
-2.3375 2.2335 -1.2390 0.9862
-5.0012 2.1420 -2.0849 0.9770
-5.1134 1.6672 -2.0611 0.9772
-5.1837 1.1901 -2.0382 0.9775
-5.2130 0.7144 -2.0164 0.9777
-4.9441 -1.1149 -1.9422 0.9785
-4.7877 -1.5404 -1.9274 0.9787
-4.5990 -1.9486 -1.9141 0.9788
-3.5557 -3.3710 -1.8776 0.9792
-3.2318 -3.6659 -1.8728 0.9793
-2.8865 -3.9336 -1.8697 0.9793
-2.1390 -4.3825 -1.8688 0.9793
-1.7408 -4.5615 -1.8710 0.9793
-1.3290 -4.7087 -1.8750 0.9793
-0.9056 -4.8232 -1.8806 0.9792
-0.4727 -4.9041 -1.8881 0.9791
0.4122 -4.9617 -1.9080 0.9789
0.8596 -4.9370 -1.9204 0.9788
2.6212 -4.4700 -1.9858 0.9780
3.0405 -4.2602 -2.0057 0.9778
4.1972 -3.4112 -2.0727 0.9771
4.5290 -3.0519 -2.0929 0.9769
4.5010 -2.4793 -1.9692 0.9782
4.9888 -1.6781 -2.0171 0.9777
5.1803 -1.2403 -2.0413 0.9774
5.5300 0.6835 -2.1353 0.9764
5.5018 1.1869 -2.1569 0.9762
5.4242 1.6896 -2.1771 0.9760
5.2967 2.1863 -2.1959 0.9758
5.1193 2.6714 -2.2129 0.9756
4.6191 3.5844 -2.2406 0.9753
1.9092 3.8209 -1.6368 0.9819
1.6524 5.6525 -2.2568 0.9751
0.5881 2.9789 -1.1636 0.9871
0.6143 5.8055 -2.2372 0.9753
0.0924 5.8023 -2.2238 0.9754
-0.4236 5.7468 -2.2083 0.9756
-0.9281 5.6409 -2.1908 0.9758
-1.4160 5.4869 -2.1716 0.9760
-2.3238 5.0463 -2.1290 0.9765
-2.7358 4.7667 -2.1062 0.9767
-3.1157 4.4528 -2.0827 0.9770
-3.4609 4.1086 -2.0587 0.9773
-2.2774 2.2586 -1.2292 0.9864
-4.0397 3.3462 -2.0102 0.9778
-4.2710 2.9363 -1.9862 0.9780
-4.8088 2.7075 -2.1148 0.9766
-5.0935 1.7663 -2.0660 0.9772
-5.1725 1.2895 -2.0428 0.9774
-5.2077 0.3407 -2.0000 0.9779
-5.0874 -0.5807 -1.9622 0.9783
-4.6409 -1.8652 -1.9167 0.9788
-4.4278 -2.2583 -1.9047 0.9789
-4.1854 -2.6306 -1.8944 0.9790
-2.5991 -4.1254 -1.8685 0.9793
-1.8249 -4.5268 -1.8704 0.9793
-0.9946 -4.8021 -1.8793 0.9792
-0.5635 -4.8901 -1.8864 0.9791
0.3193 -4.9623 -1.9056 0.9789
0.7664 -4.9451 -1.9177 0.9788
1.6593 -4.8013 -1.9467 0.9785
2.5324 -4.5091 -1.9818 0.9781
2.9543 -4.3070 -2.0015 0.9779
3.7529 -3.7921 -2.0445 0.9774
4.4640 -3.1307 -2.0895 0.9769
4.4527 -2.5620 -1.9687 0.9782
4.9443 -1.7664 -2.0120 0.9778
5.1436 -1.3333 -2.0363 0.9775
5.3045 -0.8785 -2.0605 0.9772
5.4241 -0.4056 -2.0844 0.9770
5.5297 0.5791 -2.1307 0.9765
5.5117 1.0820 -2.1525 0.9762
4.9441 3.0436 -2.2249 0.9754
4.3183 3.8708 -2.2224 0.9755
3.1984 4.9733 -2.2660 0.9750
2.7367 5.2308 -2.2623 0.9750
2.2595 5.4575 -2.2636 0.9750
1.7585 5.6243 -2.2582 0.9751
0.7231 5.7995 -2.2397 0.9753
0.2007 5.8073 -2.2268 0.9754
-2.6526 4.8279 -2.1110 0.9767
-3.3920 4.1826 -2.0637 0.9772
-4.7658 2.8015 -2.1185 0.9766
-4.9419 2.3382 -2.0951 0.9769
-5.0718 1.8654 -2.0709 0.9771
-5.1595 1.3888 -2.0476 0.9774
-5.2115 0.4386 -2.0042 0.9778
-5.1069 -0.4868 -1.9659 0.9783
-4.8569 -1.3652 -1.9334 0.9786
-4.4746 -2.1781 -1.9071 0.9789
-3.9739 -2.9096 -1.8874 0.9791
-3.6837 -3.2406 -1.8802 0.9792
-3.0328 -3.8255 -1.8708 0.9793
-2.6758 -4.0768 -1.8687 0.9793
-1.5020 -4.6513 -1.8731 0.9793
-1.0831 -4.7796 -1.8781 0.9792
0.2265 -4.9614 -1.9033 0.9789
1.5669 -4.8232 -1.9434 0.9785
3.2786 -4.1206 -2.0180 0.9777
3.6731 -3.8525 -2.0398 0.9775
4.0478 -3.5483 -2.0628 0.9772
4.3977 -3.2080 -2.0860 0.9770
4.3837 -2.6321 -1.9595 0.9783
4.8983 -1.8535 -2.0070 0.9778
5.2743 -0.9748 -2.0554 0.9773
5.4027 -0.5054 -2.0795 0.9770
5.4879 -0.0207 -2.1031 0.9768
5.5274 0.4750 -2.1260 0.9765
5.5194 0.9771 -2.1480 0.9763
5.3558 1.9805 -2.1883 0.9758
4.9931 2.9469 -2.2218 0.9755
4.4025 3.8007 -2.2288 0.9754
3.6660 4.5368 -2.2353 0.9753
1.6647 3.8181 -1.5962 0.9823
1.8641 5.5939 -2.2596 0.9751
0.7209 3.0491 -1.2007 0.9867
-0.2098 5.7761 -2.2150 0.9755
-0.7197 5.6910 -2.1983 0.9757
-2.5680 4.8875 -2.1158 0.9766
-4.1795 3.1089 -1.9962 0.9779
-4.9095 2.4359 -2.1003 0.9768
-5.0482 1.9642 -2.0759 0.9771
-5.1447 1.4881 -2.0523 0.9773
-5.2136 0.5367 -2.0085 0.9778
-5.1882 0.0679 -1.9884 0.9780
-5.1247 -0.3923 -1.9696 0.9782
-4.8893 -1.2765 -1.9365 0.9786
-4.7206 -1.6958 -1.9222 0.9787
-3.8728 2.9718 -1.9979 0.9791
-4.5731 2.3549 -2.1052 0.9780
-4.7132 1.9156 -2.0822 0.9783
-4.8136 1.4708 -2.0600 0.9785
-1.9247 0.0540 -0.7880 0.9917
-1.9476 -0.1198 -0.7986 0.9916
-1.9750 -0.3004 -0.8176 0.9914
-4.6262 -1.1342 -1.9495 0.9796
-4.4745 -1.5322 -1.9357 0.9798
-4.2923 -1.9138 -1.9234 0.9799
-3.8429 -2.6200 -1.9036 0.9801
-3.2917 -3.2394 -1.8902 0.9802
-2.9823 -3.5127 -1.8859 0.9803
-2.6528 -3.7600 -1.8833 0.9803
-2.3050 -3.9802 -1.8824 0.9803
-1.5622 -4.3343 -1.8856 0.9803
-1.1712 -4.4662 -1.8897 0.9802
-0.7696 -4.5668 -1.8954 0.9802
-0.3598 -4.6353 -1.9028 0.9801
0.0562 -4.6708 -1.9118 0.9800
0.8974 -4.6407 -1.9345 0.9798
1.3178 -4.5739 -1.9481 0.9796
1.7346 -4.4722 -1.9632 0.9795
4.0031 -3.1315 -2.0801 0.9783
2.2922 -0.9566 -1.0166 0.9893
5.0011 -0.6379 -2.0634 0.9784
5.0921 -0.1904 -2.0855 0.9782
5.1469 0.7338 -2.1278 0.9778
4.4929 3.0023 -2.2116 0.9769
3.9224 3.7887 -2.2319 0.9767
3.2007 4.4480 -2.2428 0.9766
2.7924 4.7198 -2.2444 0.9766
1.8216 3.8221 -1.7329 0.9819
-0.0146 5.3814 -2.2025 0.9770
-1.4093 5.0688 -2.1532 0.9775
-1.8400 4.8783 -2.1339 0.9777
-2.6267 4.3852 -2.0921 0.9781
-2.9765 4.0895 -2.0701 0.9784
-3.2941 3.7659 -2.0477 0.9786
-2.2824 2.1808 -1.2920 0.9864
-4.0373 2.6663 -1.9802 0.9793
-4.7959 1.5637 -2.0645 0.9784
-4.8652 1.1170 -2.0430 0.9787
-1.9387 0.0906 -0.7943 0.9916
-1.9361 -0.0829 -0.7931 0.9917
-4.6538 -1.0494 -1.9525 0.9796
-4.3327 -1.8358 -1.9259 0.9799
-3.8947 -2.5504 -1.9054 0.9801
-3.6361 -2.8763 -1.8975 0.9802
-3.0485 -3.4579 -1.8867 0.9803
-2.0179 -4.1344 -1.8829 0.9803
-1.6422 -4.3029 -1.8850 0.9803
-0.8540 -4.5485 -1.8941 0.9802
-0.4457 -4.6237 -1.9011 0.9801
0.3884 -4.6752 -1.9200 0.9799
1.2304 -4.5907 -1.9452 0.9797
1.6482 -4.4962 -1.9599 0.9795
2.4641 -4.2021 -1.9937 0.9792
3.2345 -3.7681 -2.0324 0.9788
3.9352 -3.1983 -2.0754 0.9783
4.2421 -2.8586 -2.0936 0.9781
2.2837 -1.0034 -1.0209 0.9893
4.6633 -1.5686 -2.0136 0.9790
5.0765 -0.2846 -2.0810 0.9783
5.1346 0.1720 -2.1026 0.9780
4.9226 2.0319 -2.1796 0.9772
4.5427 2.9146 -2.2090 0.9769
4.2867 3.3265 -2.2207 0.9768
3.6532 4.0669 -2.2374 0.9766
1.9999 5.0973 -2.2410 0.9766
0.6021 3.0502 -1.2724 0.9867
-0.3935 5.3388 -2.1910 0.9771
-0.8627 5.2434 -2.1748 0.9773
-1.7522 4.9212 -2.1380 0.9777
-3.2307 3.8354 -2.0524 0.9786
-2.2454 2.2270 -1.2943 0.9864
-3.9963 2.7474 -1.9848 0.9793
-4.4980 2.5325 -2.1127 0.9779
-4.7766 1.6564 -2.0691 0.9784
-2.0060 0.3131 -0.8310 0.9913
-1.9496 0.1275 -0.7996 0.9916
-1.9213 -0.0464 -0.7866 0.9917
-4.6800 -0.9641 -1.9556 0.9796
-4.1725 -2.1281 -1.9170 0.9800
-3.9453 -2.4798 -1.9072 0.9801
-3.6920 -2.8103 -1.8990 0.9801
-3.4142 -3.1182 -1.8924 0.9802
-2.7923 -3.6603 -1.8842 0.9803
-2.0944 -4.0956 -1.8827 0.9803
-1.7215 -4.2703 -1.8844 0.9803
-1.3354 -4.4150 -1.8878 0.9803
0.3009 -4.6761 -1.9178 0.9800
0.7219 -4.6582 -1.9293 0.9798
2.3808 -4.2392 -1.9899 0.9792
3.5216 -3.5584 -2.0490 0.9786
3.8663 -3.2638 -2.0708 0.9784
4.1602 -2.3936 -1.9644 0.9795
4.6224 -1.6514 -2.0089 0.9790
4.8050 -1.2455 -2.0315 0.9788
5.0592 -0.3783 -2.0764 0.9783
5.1260 0.0761 -2.0982 0.9781
5.1500 0.5393 -2.1193 0.9779
5.0636 1.4744 -2.1585 0.9775
4.5906 2.8260 -2.2063 0.9770
4.0544 3.6343 -2.2284 0.9767
3.7262 3.9958 -2.2361 0.9767
3.3620 4.3229 -2.2413 0.9766
2.5420 4.8587 -2.2442 0.9766
1.6310 5.2166 -2.2369 0.9767
0.1864 5.3918 -2.2080 0.9770
-1.2239 5.1360 -2.1609 0.9774
-1.6634 4.9625 -2.1421 0.9776
-2.4720 4.4992 -2.1010 0.9781
-2.8346 4.2162 -2.0793 0.9783
-3.1659 3.9038 -2.0571 0.9785
-2.2126 2.2777 -1.2996 0.9864
-3.9536 2.8280 -1.9895 0.9792
-4.4573 2.6201 -2.1161 0.9779
-4.6303 2.1908 -2.0965 0.9781
-2.1494 0.3766 -0.8931 0.9906
-2.1955 -0.4098 -0.9141 0.9904
-4.4096 -1.6775 -1.9309 0.9798
-3.1780 -3.3449 -1.8884 0.9803
-1.0215 -4.5077 -1.8917 0.9802
1.0555 -4.6197 -1.9394 0.9797
2.2972 -4.2749 -1.9862 0.9792
3.0790 -3.8698 -2.0240 0.9789
3.4473 -3.6156 -2.0446 0.9786
4.1053 -2.4650 -1.9598 0.9795
4.5801 -1.7331 -2.0043 0.9791
5.0400 -0.4715 -2.0718 0.9784
5.1156 -0.0193 -2.0937 0.9781
5.0811 1.3773 -2.1546 0.9775
4.9788 1.8411 -2.1725 0.9773
4.6366 2.7365 -2.2035 0.9770
4.1180 3.5551 -2.2265 0.9768
3.4406 4.2578 -2.2405 0.9766
3.0507 4.5549 -2.2437 0.9766
1.7289 5.1881 -2.2382 0.9766
0.7720 5.3742 -2.2221 0.9768
0.2871 5.3938 -2.2107 0.9769
-0.1949 5.3649 -2.1972 0.9771
-0.6689 5.2887 -2.1818 0.9772
-1.5736 5.0020 -2.1461 0.9776
-1.9958 4.7967 -2.1263 0.9778
-2.7616 4.2777 -2.0839 0.9782
-2.1972 2.3479 -1.3161 0.9862
-2.4543 2.1922 -1.3469 0.9859
-3.9094 2.9080 -1.9941 0.9792
-4.4149 2.7071 -2.1196 0.9779
-4.5993 2.2819 -2.1013 0.9781
-4.7327 1.8415 -2.0784 0.9783
-4.8265 1.3961 -2.0563 0.9785
-4.8812 0.9493 -2.0352 0.9787
-1.9111 0.0250 -0.7822 0.9918
-2.2952 2.1126 -1.3595 0.9865
-3.6331 2.7879 -1.9958 0.9802
-4.2931 2.2107 -2.1045 0.9792
-1.5154 0.3183 -0.6748 0.9933
-1.5275 0.0429 -0.6660 0.9934
-4.0535 -1.8073 -1.9342 0.9808
-3.1116 -3.0621 -1.9026 0.9811
-2.1794 -3.7632 -1.8952 0.9812
-1.8350 -3.9444 -1.8959 0.9812
-1.1071 -4.2218 -1.9021 0.9811
-0.7274 -4.3162 -1.9076 0.9811
-0.3400 -4.3800 -1.9146 0.9810
0.0531 -4.4125 -1.9232 0.9809
0.8472 -4.3810 -1.9447 0.9807
1.2436 -4.3163 -1.9576 0.9806
1.6362 -4.2185 -1.9719 0.9805
2.0226 -4.0875 -1.9875 0.9803
2.4000 -3.9233 -2.0044 0.9801
3.1167 -3.4968 -2.0414 0.9798
3.4502 -3.2357 -2.0615 0.9796
4.0053 -2.1099 -1.9730 0.9804
4.4089 -1.3922 -2.0150 0.9800
4.7641 -0.1781 -2.0777 0.9794
4.8070 0.2508 -2.0978 0.9792
4.7696 1.1223 -2.1354 0.9788
4.5627 1.9836 -2.1683 0.9785
4.3957 2.3990 -2.1824 0.9784
4.1873 2.7980 -2.1948 0.9783
3.9391 3.1761 -2.2052 0.9782
3.6532 3.5287 -2.2136 0.9781
2.5998 4.3942 -2.2251 0.9780
1.8385 3.8575 -1.8623 0.9815
0.5221 2.9313 -1.2976 0.9871
0.4372 5.0248 -2.1982 0.9782
-0.0136 5.0167 -2.1864 0.9783
-0.4590 4.9642 -2.1727 0.9785
-1.3158 4.7324 -2.1407 0.9788
-2.4570 4.1019 -2.0838 0.9794
-3.5884 2.8614 -2.0002 0.9802
-3.7896 2.5027 -1.9792 0.9804
-4.4056 1.8870 -2.0888 0.9793
-1.5307 0.3514 -0.6844 0.9932
-1.5173 0.2079 -0.6675 0.9933
-1.5290 -0.0655 -0.6670 0.9933
-4.0913 -1.7335 -1.9365 0.9808
-3.6799 -2.4097 -1.9170 0.9810
-3.4364 -2.7183 -1.9096 0.9811
-2.2492 -3.7220 -1.8953 0.9812
-1.9079 -3.9089 -1.8957 0.9812
-1.5525 -4.0680 -1.8976 0.9812
-0.8071 -4.2991 -1.9063 0.9811
-0.4212 -4.3693 -1.9130 0.9810
-0.0291 -4.4083 -1.9213 0.9809
0.3668 -4.4155 -1.9310 0.9809
0.7644 -4.3904 -1.9422 0.9807
1.1613 -4.3325 -1.9548 0.9806
1.5549 -4.2416 -1.9688 0.9805
1.9428 -4.1175 -1.9842 0.9803
3.3824 -3.2927 -2.0572 0.9796
2.2813 -1.0024 -1.0860 0.9892
4.3726 -1.4709 -2.0106 0.9801
4.5338 -1.0855 -2.0317 0.9799
4.6604 -0.6829 -2.0528 0.9797
4.7502 -0.2663 -2.0735 0.9795
4.8014 0.1608 -2.0937 0.9793
4.8121 0.5948 -2.1132 0.9791
4.7813 1.0315 -2.1317 0.9789
4.7081 1.4665 -2.1491 0.9787
4.5922 1.8955 -2.1651 0.9786
3.4020 3.7872 -2.2186 0.9780
3.0559 4.0841 -2.2230 0.9780
2.6811 4.3448 -2.2250 0.9780
1.9232 3.8489 -1.8751 0.9814
1.8622 4.7462 -2.2220 0.9780
1.4273 4.8827 -2.2170 0.9780
0.5312 5.0208 -2.2004 0.9782
0.0800 5.0220 -2.1890 0.9783
-0.8049 4.8922 -2.1608 0.9786
-1.2295 4.7641 -2.1443 0.9788
-1.6367 4.5968 -2.1266 0.9789
-2.3849 4.1553 -2.0880 0.9793
-2.7200 3.8873 -2.0677 0.9795
-3.0257 3.5920 -2.0468 0.9797
-2.2199 2.2017 -1.3626 0.9865
-3.7506 2.5785 -1.9836 0.9803
-4.3791 1.9729 -2.0932 0.9793
-1.5107 0.2358 -0.6663 0.9934
-1.5744 -0.4744 -0.7166 0.9929
-4.1279 -1.6590 -1.9389 0.9808
-3.9411 -2.0101 -1.9281 0.9809
-3.4890 -2.6558 -1.9110 0.9810
-2.6400 -3.4606 -1.8969 0.9812
-1.9802 -3.8723 -1.8955 0.9812
-1.2624 -4.1737 -1.9003 0.9812
-0.8866 -4.2806 -1.9051 0.9811
-0.5021 -4.3572 -1.9115 0.9810
0.2842 -4.4167 -1.9288 0.9809
0.6816 -4.3983 -1.9397 0.9808
1.4733 -4.2632 -1.9658 0.9805
1.8626 -4.1460 -1.9809 0.9804
2.2441 -3.9957 -1.9972 0.9802
2.6150 -3.8123 -2.0148 0.9800
2.9724 -3.5963 -2.0334 0.9798
3.6356 -3.0691 -2.0736 0.9795
3.9285 -2.7551 -2.0912 0.9793
4.1354 -1.9097 -1.9851 0.9803
4.5030 -1.1672 -2.0273 0.9799
4.6370 -0.7680 -2.0484 0.9797
4.7268 1.3763 -2.1456 0.9787
4.6198 1.8069 -2.1619 0.9786
4.4703 2.2277 -2.1768 0.9784
4.2790 2.6342 -2.1899 0.9783
4.0471 3.0215 -2.2011 0.9782
2.7613 4.2936 -2.2248 0.9780
2.3666 4.5236 -2.2250 0.9780
1.5189 4.8579 -2.2182 0.9780
0.6628 3.0566 -1.3631 0.9864
0.6253 5.0149 -2.2025 0.9782
-0.7147 4.9137 -2.1640 0.9786
-1.1424 4.7941 -2.1478 0.9787
-1.5535 4.6348 -2.1304 0.9789
-1.9444 4.4382 -2.1117 0.9791
-2.6526 3.9454 -2.0720 0.9795
-2.9646 3.6556 -2.0512 0.9797
-3.7100 2.6538 -1.9880 0.9803
-4.3509 2.0586 -2.0977 0.9792
-1.5026 0.2633 -0.6648 0.9934
-1.5284 0.1286 -0.6684 0.9933
-1.4973 -0.2795 -0.6638 0.9934
-4.1633 -1.5838 -1.9413 0.9808
-3.0043 -3.1620 -1.9009 0.9811
-2.3866 -3.6362 -1.8956 0.9812
-1.3394 -4.1477 -1.8995 0.9812
-0.5828 -4.3438 -1.9101 0.9811
0.2016 -4.4164 -1.9268 0.9809
0.5988 -4.4048 -1.9374 0.9808
0.9963 -4.3606 -1.9494 0.9807
2.8993 -3.6439 -2.0294 0.9799
3.2441 -3.4025 -2.0489 0.9797
3.5703 -3.1297 -2.0692 0.9795
4.0901 -1.9820 -1.9808 0.9804
4.2959 -1.6256 -2.0018 0.9802
4.7174 -0.4413 -2.0649 0.9795
4.7849 -0.0181 -2.0853 0.9793
4.8126 0.4135 -2.1052 0.9791
4.7993 0.8496 -2.1241 0.9790
4.7437 1.2858 -2.1420 0.9788
4.3222 2.5510 -2.1873 0.9783
4.0986 2.9427 -2.1990 0.9782
3.8360 3.3117 -2.2086 0.9781
3.2037 3.9646 -2.2215 0.9780
2.4507 4.4790 -2.2251 0.9780
2.0390 4.6765 -2.2234 0.9780
0.7543 3.1905 -1.4288 0.9858
0.7193 5.0070 -2.2045 0.9782
-1.8649 4.4821 -2.1157 0.9790
-2.2373 4.2581 -2.0963 0.9792
-2.9021 3.7180 -2.0556 0.9796
-2.1607 2.3089 -1.3781 0.9863
-2.4160 2.1580 -1.4118 0.9860
-3.8563 2.3646 -1.9714 0.9805
-4.3204 2.1436 -2.1019 0.9792
-1.5684 0.4537 -0.7116 0.9929
-1.5060 -0.2522 -0.6655 0.9934
-1.5522 -0.4052 -0.6991 0.9930
-2.2819 2.1005 -1.4356 0.9864
-3.4175 2.6224 -1.9940 0.9812
-4.0399 2.0803 -2.1034 0.9802
-1.3278 0.5397 -0.6634 0.9937
-1.3370 0.0375 -0.6191 0.9941
-1.3184 -0.5878 -0.6682 0.9937
-3.6493 -2.0360 -1.9343 0.9817
-3.2034 -2.6325 -1.9193 0.9819
-2.6707 -3.1457 -1.9101 0.9820
-2.3760 -3.3676 -1.9077 0.9820
-1.3990 -3.8814 -1.9098 0.9820
-1.0485 -3.9987 -1.9135 0.9819
-0.6888 -4.0875 -1.9187 0.9819
-0.3219 -4.1471 -1.9254 0.9818
0.0502 -4.1768 -1.9335 0.9818
0.4254 -4.1761 -1.9431 0.9817
2.2667 -3.7054 -2.0106 0.9810
2.6107 -3.5176 -2.0277 0.9809
2.9406 -3.2992 -2.0457 0.9807
3.2535 -3.0512 -2.0646 0.9805
2.2927 -0.9568 -1.1499 0.9891
4.1449 -1.3088 -2.0120 0.9810
4.2871 -0.9423 -2.0318 0.9808
4.3963 -0.5608 -2.0515 0.9807
4.5075 0.6426 -2.1075 0.9801
3.9156 2.6165 -2.1799 0.9795
3.6823 2.9691 -2.1896 0.9794
2.7843 3.8694 -2.2066 0.9792
2.4289 4.1054 -2.2080 0.9792
1.6564 4.4648 -2.2043 0.9792
0.4087 4.6983 -2.1830 0.9794
-0.8374 4.5580 -2.1451 0.9798
-1.6109 4.2707 -2.1128 0.9801
-1.9694 4.0751 -2.0950 0.9802
-3.3750 2.6912 -1.9981 0.9812
-3.5665 2.3553 -1.9784 0.9813
-4.0061 2.1583 -2.1064 0.9801
-1.3231 0.5667 -0.6663 0.9937
-1.3313 0.4341 -0.6482 0.9938
-1.3011 0.2987 -0.6179 0.9941
-1.3290 0.1821 -0.6209 0.9941
-1.3382 0.0625 -0.6201 0.9941
-1.3380 -0.0573 -0.6199 0.9941
-1.3299 -0.1770 -0.6210 0.9941
-1.3305 -0.4281 -0.6470 0.9939
-3.0021 -2.8463 -1.9149 0.9819
-2.4387 -3.3234 -1.9081 0.9820
-2.1307 -3.5259 -1.9070 0.9820
-1.8074 -3.7030 -1.9073 0.9820
-1.1224 -3.9766 -1.9126 0.9820
-0.3988 -4.1371 -1.9239 0.9818
-0.0276 -4.1731 -1.9317 0.9818
0.3472 -4.1788 -1.9410 0.9817
0.7232 -4.1537 -1.9516 0.9816
1.0983 -4.0975 -1.9636 0.9815
1.4700 -4.0100 -1.9769 0.9814
2.5401 -3.5592 -2.0241 0.9809
2.8732 -3.3472 -2.0419 0.9807
3.1899 -3.1053 -2.0606 0.9806
3.4874 -2.8344 -2.0802 0.9804
3.7528 -2.5289 -2.0947 0.9803
2.2789 -1.0013 -1.1522 0.9891
4.3764 -0.6413 -2.0474 0.9807
4.4086 1.3732 -2.1374 0.9799
4.2980 1.7741 -2.1523 0.9797
3.9596 2.5405 -2.1776 0.9795
3.1790 3.5389 -2.2020 0.9793
2.8552 3.8159 -2.2060 0.9792
2.5049 4.0593 -2.2079 0.9792
1.9181 3.8386 -1.9863 0.9813
1.3338 4.5629 -2.2005 0.9793
0.6044 3.0613 -1.4444 0.9863
-0.3433 4.6583 -2.1621 0.9796
-3.3312 2.7593 -2.0022 0.9811
-3.9709 2.2357 -2.1094 0.9801
-1.3170 0.5933 -0.6686 0.9937
-1.3336 0.4625 -0.6534 0.9938
-1.3239 0.2066 -0.6202 0.9941
-1.3260 -0.3995 -0.6411 0.9939
-1.3286 -0.5340 -0.6628 0.9937
-3.7301 -1.9025 -1.9382 0.9817
-3.3038 -2.5148 -1.9219 0.9819
-3.0563 -2.7914 -1.9160 0.9819
-2.7881 -3.0462 -1.9115 0.9820
-2.5008 -3.2781 -1.9085 0.9820
-2.1961 -3.4858 -1.9071 0.9820
-1.8759 -3.6683 -1.9071 0.9820
-1.1957 -3.9533 -1.9118 0.9820
-0.4754 -4.1258 -1.9224 0.9819
0.2690 -4.1801 -1.9389 0.9817
1.0204 -4.1118 -1.9610 0.9815
1.7603 -3.9183 -1.9884 0.9812
3.1254 -3.1580 -2.0567 0.9806
3.4272 -2.8931 -2.0760 0.9804
3.7000 -2.5949 -2.0919 0.9803
3.8912 -1.7969 -1.9839 0.9813
4.2318 -1.0969 -2.0236 0.9809
4.4440 -0.3323 -2.0628 0.9805
4.4969 0.0668 -2.0818 0.9804
4.4892 0.8813 -2.1176 0.9800
4.3243 1.6913 -2.1493 0.9797
4.1825 2.0843 -2.1631 0.9796
4.0019 2.4636 -2.1753 0.9795
3.2428 3.4774 -2.2009 0.9793
2.5798 4.0115 -2.2077 0.9792
1.8229 4.4029 -2.2058 0.9792
1.4194 4.5396 -2.2016 0.9793
0.6656 3.0694 -1.4538 0.9863
0.5846 4.6884 -2.1870 0.9794
-0.2568 4.6698 -2.1648 0.9796
-1.0698 4.4893 -2.1362 0.9799
-1.4555 4.3423 -2.1199 0.9800
-1.8227 4.1605 -2.1025 0.9802
-2.4895 3.7029 -2.0654 0.9805
-2.7840 3.4330 -2.0459 0.9807
-2.1829 2.2472 -1.4502 0.9863
-2.5642 2.2058 -1.5657 0.9852
-3.4907 2.4968 -1.9866 0.9813
-3.6634 2.1534 -1.9670 0.9814
-1.3328 0.4902 -0.6573 0.9938
-1.3178 0.2309 -0.6193 0.9941
-1.3369 -0.1274 -0.6216 0.9941
-1.3137 -0.2452 -0.6186 0.9941
-1.3204 -0.3712 -0.6349 0.9940
-1.3317 -0.5066 -0.6595 0.9937
-3.7688 -1.8345 -1.9402 0.9817
-3.5728 -2.1538 -1.9311 0.9818
-3.1096 -2.7355 -1.9171 0.9819
-2.8456 -2.9950 -1.9123 0.9820
-2.2609 -3.4446 -1.9072 0.9820
-1.6124 -3.7941 -1.9082 0.9820
-0.5518 -4.1133 -1.9210 0.9819
-0.1827 -4.1618 -1.9283 0.9818
0.1909 -4.1801 -1.9369 0.9817
0.5666 -4.1679 -1.9470 0.9816
0.9424 -4.1247 -1.9585 0.9815
2.0458 -3.8070 -2.0005 0.9811
2.3973 -3.6385 -2.0169 0.9810
2.7364 -3.4392 -2.0343 0.9808
3.3660 -2.9506 -2.0720 0.9805
3.6309 -2.1801 -1.9604 0.9815
4.0402 -1.5289 -1.9996 0.9811
4.2020 -1.1732 -2.0194 0.9810
4.4283 -0.4142 -2.0588 0.9806
4.5123 0.3877 -2.0964 0.9802
4.4973 0.7961 -2.1141 0.9801
4.3489 1.6082 -2.1463 0.9798
4.0427 2.3860 -2.1729 0.9795
3.8322 2.7514 -2.1837 0.9794
3.5857 3.0955 -2.1927 0.9793
3.3052 3.4145 -2.1997 0.9793
1.5044 4.5145 -2.2027 0.9792
-0.5839 4.6171 -2.1542 0.9797
-0.9874 4.5153 -2.1394 0.9798
-1.3766 4.3759 -2.1234 0.9800
-2.7250 3.4912 -2.0500 0.9807
-2.3782 2.1242 -1.4760 0.9860
-3.4506 2.5667 -1.9907 0.9812
-3.6301 2.2259 -1.9710 0.9814
-4.0659 2.0173 -2.1010 0.9802
-1.3306 0.5177 -0.6609 0.9937
-1.3228 0.3826 -0.6374 0.9939
-1.3108 0.2549 -0.6181 0.9941
-1.3358 0.1375 -0.6216 0.9941
-1.3353 0.0175 -0.6181 0.9941
-1.3204 -0.2211 -0.6197 0.9941
-1.3333 -0.4790 -0.6558 0.9938
-2.2686 2.0881 -1.5124 0.9864
-3.2222 2.4726 -1.9923 0.9821
-3.3984 2.1545 -1.9738 0.9822
-1.1249 0.5792 -0.6206 0.9944
-1.1589 0.3541 -0.5944 0.9946
-1.1716 0.2461 -0.5872 0.9947
-1.1907 0.1406 -0.5881 0.9947
-1.1964 0.0336 -0.5871 0.9947
-1.1959 -0.0736 -0.5877 0.9947
-1.1851 -0.1802 -0.5880 0.9947
-1.1572 -0.3963 -0.6000 0.9946
-1.1424 -0.5093 -0.6135 0.9944
-3.2609 -2.2232 -1.9359 0.9826
-2.2546 -3.1957 -1.9184 0.9827
-1.9592 -3.3830 -1.9176 0.9827
-1.6496 -3.5458 -1.9183 0.9827
0.0476 -3.9608 -1.9430 0.9825
0.7596 -3.9281 -1.9625 0.9823
1.4649 -3.7769 -1.9871 0.9821
1.8093 -3.6565 -2.0012 0.9820
2.4695 -3.3273 -2.0325 0.9817
2.7802 -3.1193 -2.0496 0.9816
3.0745 -2.8833 -2.0675 0.9814
3.3480 -2.6190 -2.0851 0.9812
3.5907 -2.3236 -2.0979 0.9811
2.2929 -0.9569 -1.2187 0.9890
3.9060 -1.2334 -2.0093 0.9819
4.0378 -0.8875 -2.0279 0.9817
4.1383 -0.5279 -2.0464 0.9816
4.2388 0.2211 -2.0821 0.9813
4.2362 0.6039 -2.0989 0.9811
4.1969 0.9876 -2.1149 0.9810
3.8577 2.1054 -2.1558 0.9806
3.6723 2.4539 -2.1665 0.9805
3.2006 3.0915 -2.1827 0.9804
2.9185 3.3734 -2.1881 0.9803
1.8079 3.7932 -2.0612 0.9815
0.3833 4.4060 -2.1694 0.9805
-0.0119 4.4018 -2.1592 0.9806
-0.4031 4.3591 -2.1474 0.9807
-0.7862 4.2790 -2.1341 0.9808
-1.1575 4.1630 -2.1195 0.9809
-1.5137 4.0130 -2.1039 0.9811
-2.1683 3.6200 -2.0698 0.9814
-2.4616 3.3820 -2.0519 0.9815
-2.7293 3.1203 -2.0335 0.9817
-2.2334 2.1340 -1.5153 0.9863
-3.1818 2.5371 -1.9962 0.9820
-1.1963 0.0559 -0.5875 0.9947
-1.1964 -0.0512 -0.5874 0.9947
-1.1885 -0.1582 -0.5881 0.9947
-1.1672 -0.2632 -0.5869 0.9947
-1.1584 -0.3727 -0.5969 0.9946
-1.1168 -0.5961 -0.6209 0.9944
-3.3043 -2.1638 -1.9374 0.9826
-3.0869 -2.4419 -1.9307 0.9826
-2.8483 -2.7004 -1.9253 0.9827
-2.3142 -3.1537 -1.9188 0.9827
-2.0219 -3.3460 -1.9177 0.9827
-1.7151 -3.5140 -1.9180 0.9827
-1.3955 -3.6566 -1.9198 0.9827
-0.7252 -3.8625 -1.9277 0.9826
-0.3783 -3.9242 -1.9338 0.9826
-0.0261 -3.9575 -1.9413 0.9825
0.6855 -3.9370 -1.9603 0.9824
1.0406 -3.8825 -1.9717 0.9823
1.7383 -3.6841 -1.9982 0.9820
2.0760 -3.5402 -2.0131 0.9819
2.4030 -3.3670 -2.0291 0.9817
3.2941 -2.6773 -2.0822 0.9813
3.5422 -2.3870 -2.0952 0.9811
3.5146 -1.9359 -1.9682 0.9823
4.0129 -0.9608 -2.0240 0.9818
4.1200 -0.6037 -2.0426 0.9816
4.2349 0.1419 -2.0785 0.9813
4.2397 0.5240 -2.0955 0.9811
4.2081 0.9078 -2.1117 0.9810
4.0341 1.6651 -2.1408 0.9807
3.7138 2.3828 -2.1644 0.9805
3.2556 3.0295 -2.1814 0.9804
2.6758 3.5761 -2.1909 0.9803
1.6307 4.1562 -2.1900 0.9803
1.2502 4.2769 -2.1857 0.9803
0.4658 4.4020 -2.1713 0.9805
-0.3222 4.3711 -2.1500 0.9807
-0.7073 4.2987 -2.1370 0.9808
-1.0813 4.1901 -2.1227 0.9809
-1.4409 4.0470 -2.1072 0.9810
-2.1042 3.6662 -2.0735 0.9813
-2.4026 3.4336 -2.0557 0.9815
-3.1401 2.6010 -2.0001 0.9820
-3.4872 1.9634 -1.9631 0.9823
-1.1414 0.5142 -0.6141 0.9944
-1.1569 0.4012 -0.6006 0.9946
-1.1595 0.2891 -0.5862 0.9947
-1.1589 -0.3492 -0.5937 0.9946
-1.1265 -0.5746 -0.6203 0.9944
-3.3468 -2.1036 -1.9390 0.9825
-3.1339 -2.3855 -1.9320 0.9826
-2.8996 -2.6483 -1.9263 0.9827
-2.3731 -3.1107 -1.9192 0.9827
-2.0841 -3.3079 -1.9178 0.9827
-1.7801 -3.4810 -1.9178 0.9827
-1.1345 -3.7510 -1.9223 0.9827
-0.4510 -3.9136 -1.9324 0.9826
0.6113 -3.9446 -1.9580 0.9824
2.0065 -3.5726 -2.0099 0.9819
2.3359 -3.4055 -2.0257 0.9818
2.9541 -2.9849 -2.0600 0.9815
3.2376 -2.7331 -2.0783 0.9813
3.4712 -1.9972 -1.9644 0.9823
