ply
format ascii 1.0
element vertex 1595
property float32 x
property float32 y
property float32 z
property float32 I
end_header
8.4026 -0.0353 -2.1756 0.9659
8.5458 1.5051 -2.2467 0.9648
7.3814 2.7184 -2.0367 0.9680
6.6290 3.1380 -1.8990 0.9702
4.8202 4.1424 -1.6456 0.9741
4.3807 4.5031 -1.6266 0.9744
3.3414 4.9573 -1.5479 0.9756
2.8740 5.2134 -1.5414 0.9757
1.7382 3.9499 -1.1173 0.9823
1.9318 5.7276 -1.5651 0.9753
0.3782 6.5697 -1.7038 0.9732
-0.7524 6.1869 -1.6137 0.9746
-1.8526 8.6796 -2.2979 0.9640
-2.5820 8.3602 -2.2655 0.9645
-3.2669 7.9744 -2.2313 0.9650
-4.4817 7.0331 -2.1593 0.9661
-5.0039 6.4927 -2.1224 0.9667
-2.2291 2.4127 -0.8505 0.9865
-6.3215 5.7220 -2.2077 0.9654
-6.9853 4.3516 -2.1309 0.9666
-7.4962 2.2315 -2.0251 0.9682
-7.5443 1.5299 -1.9931 0.9687
-7.5352 0.8384 -1.9630 0.9692
-7.4716 0.1610 -1.9350 0.9696
-7.3561 -0.4989 -1.9090 0.9700
-7.1913 -1.1383 -1.8851 0.9704
-6.9801 -1.7545 -1.8635 0.9707
-6.7251 -2.3450 -1.8441 0.9710
-5.3180 -4.4122 -1.7891 0.9719
-4.8816 -4.8469 -1.7811 0.9720
-3.9231 -5.6079 -1.7720 0.9721
-3.4055 -5.9317 -1.7709 0.9721
-1.7248 -6.6609 -1.7815 0.9720
0.1009 -7.0008 -1.8128 0.9715
0.7306 -7.0216 -1.8278 0.9713
2.0055 -6.9169 -1.8647 0.9707
2.6447 -6.7890 -1.8865 0.9703
3.9093 -6.3763 -1.9365 0.9696
4.5271 -6.0898 -1.9647 0.9691
6.2694 -4.9034 -2.0608 0.9676
6.7876 -4.3937 -2.0935 0.9671
6.7627 -3.5657 -1.9795 0.9689
7.8728 -1.7392 -2.0876 0.9672
8.4775 0.4274 -2.1978 0.9655
8.5288 1.9871 -2.2674 0.9645
6.9092 2.9819 -1.9484 0.9694
5.0288 4.0270 -1.6681 0.9737
3.5246 4.8567 -1.5537 0.9755
3.0553 5.1141 -1.5424 0.9757
0.0199 6.7631 -1.7511 0.9724
-1.5585 8.7844 -2.3100 0.9638
-2.3034 8.4926 -2.2783 0.9643
-3.0064 8.1318 -2.2447 0.9648
-3.6612 7.7090 -2.2097 0.9654
-4.8079 6.7075 -2.1368 0.9665
-5.2936 6.1440 -2.0998 0.9670
-6.8770 4.6228 -2.1455 0.9663
-7.5454 1.1057 -1.9745 0.9690
-7.5026 0.4224 -1.9456 0.9694
-7.4070 -0.2447 -1.9188 0.9698
-6.5488 -2.6925 -1.8333 0.9712
-5.4792 -4.2338 -1.7929 0.9718
-4.6002 -5.0951 -1.7774 0.9720
-2.5245 -6.3697 -1.7740 0.9721
-1.9520 -6.5877 -1.7790 0.9720
-1.3625 -6.7629 -1.7862 0.9719
-0.7582 -6.8941 -1.7958 0.9717
-0.1416 -6.9799 -1.8076 0.9716
0.4850 -7.0192 -1.8217 0.9713
1.1188 -7.0106 -1.8381 0.9711
3.6660 -6.4731 -1.9261 0.9697
4.2886 -6.2076 -1.9535 0.9693
6.0560 -5.0848 -2.0474 0.9679
7.0224 -3.2261 -2.0009 0.9686
1.3615 -6.4583 -1.8685 0.9729
3.1219 -6.0622 -1.9304 0.9721
2.3145 -0.9274 -0.7059 0.9897
6.9308 -2.0823 -2.0487 0.9704
7.2041 -1.4798 -2.0820 0.9699
7.4245 -0.8451 -2.1154 0.9694
7.6880 0.5019 -2.1811 0.9685
7.7229 1.2024 -2.2126 0.9680
7.5583 2.6142 -2.2641 0.9673
6.7775 3.0450 -2.1034 0.9696
6.0988 3.4235 -1.9799 0.9713
5.4900 3.7622 -1.8841 0.9727
2.9742 5.1503 -1.6837 0.9756
2.0360 5.6626 -1.7035 0.9753
1.0431 6.2015 -1.7803 0.9742
0.5034 6.4931 -1.8437 0.9733
-0.0809 6.8081 -1.9275 0.9721
-4.4429 6.0081 -2.1154 0.9694
-5.2677 4.9621 -2.0487 0.9704
-6.0318 4.7422 -2.1721 0.9686
-6.3275 4.1185 -2.1373 0.9691
-6.5638 3.4820 -2.1034 0.9696
-6.8623 2.1922 -2.0394 0.9705
-6.9275 1.5487 -2.0095 0.9709
-6.9392 0.9120 -1.9814 0.9713
-6.8110 -0.3261 -1.9304 0.9721
-6.6756 -0.9211 -1.9077 0.9724
-6.4958 -1.4961 -1.8871 0.9727
-6.0128 -2.5770 -1.8519 0.9732
-5.3809 -3.5518 -1.8252 0.9736
-5.0148 -3.9950 -1.8151 0.9737
-4.1934 -4.7853 -1.8012 0.9739
-3.7425 -5.1296 -1.7976 0.9739
-3.2675 -5.4382 -1.7960 0.9740
-2.2543 -5.9436 -1.7995 0.9739
-1.7202 -6.1379 -1.8045 0.9738
1.1325 -6.4784 -1.8618 0.9730
1.7219 -6.4124 -1.8796 0.9728
2.3108 -6.2992 -1.8995 0.9725
2.8961 -6.1380 -1.9213 0.9722
4.0417 -5.6686 -1.9709 0.9715
4.5942 -5.3596 -1.9984 0.9711
5.1276 -5.0007 -2.0276 0.9707
6.0934 -3.3692 -1.9711 0.9715
2.3019 -1.0164 -0.7123 0.9896
6.8113 -2.3069 -2.0358 0.9705
7.1039 -1.7181 -2.0690 0.9701
7.3454 -1.0953 -2.1024 0.9696
7.5311 -0.4431 -2.1357 0.9691
7.7174 0.9287 -2.2005 0.9682
7.6323 2.3467 -2.2605 0.9674
7.0655 2.8841 -2.1604 0.9688
5.1441 3.9542 -1.8368 0.9734
4.6669 4.3009 -1.7966 0.9740
4.1793 4.6055 -1.7606 0.9745
3.6258 4.7928 -1.7013 0.9753
1.0137 3.3894 -1.0015 0.9854
0.7177 6.3774 -1.8168 0.9737
-0.4069 6.1139 -1.7346 0.9748
-1.9312 7.7247 -2.2541 0.9674
-3.7454 6.6525 -2.1612 0.9688
-4.2576 6.1962 -2.1283 0.9692
-4.7180 5.7013 -2.0950 0.9697
-2.2665 2.2885 -0.9118 0.9867
-6.4790 3.7306 -2.1165 0.9694
-6.6794 3.0890 -2.0833 0.9699
-6.8220 2.4432 -2.0514 0.9703
-6.9086 1.7983 -2.0209 0.9708
-6.9409 1.1584 -1.9921 0.9712
-6.9210 0.5278 -1.9650 0.9716
-6.8511 -0.0901 -1.9397 0.9719
-6.5708 -1.2751 -1.8949 0.9726
-6.3651 -1.8368 -1.8755 0.9728
-6.1189 -2.3748 -1.8581 0.9731
-5.1608 -3.8264 -1.8188 0.9736
-4.7758 -4.2505 -1.8099 0.9738
-4.3617 -4.6421 -1.8032 0.9739
-0.2592 -6.4513 -1.8278 0.9735
0.3192 -6.4937 -1.8406 0.9733
2.6693 -6.2064 -1.9126 0.9723
3.2507 -6.0155 -1.9357 0.9720
3.8227 -5.7753 -1.9607 0.9716
4.3815 -5.4856 -1.9875 0.9712
5.4423 -4.7570 -2.0463 0.9704
5.9351 -4.3187 -2.0779 0.9699
6.3300 -3.0618 -1.9906 0.9712
6.6850 -2.5258 -2.0230 0.9707
7.4659 -0.6998 -2.1228 0.9693
7.6152 -0.0320 -2.1558 0.9688
7.7016 0.6567 -2.1882 0.9684
7.7213 1.3599 -2.2195 0.9679
7.6712 2.0702 -2.2493 0.9675
7.3697 2.7140 -2.2233 0.9679
5.9579 3.5020 -1.9564 0.9717
5.3620 3.8333 -1.8659 0.9730
4.8140 4.1371 -1.7969 0.9740
2.8706 5.2071 -1.6832 0.9756
1.9294 5.7206 -1.7091 0.9752
0.9261 6.2648 -1.7928 0.9740
0.3777 6.5610 -1.8604 0.9730
-0.2187 6.8822 -1.9493 0.9718
-0.7513 6.1772 -1.7616 0.9745
-2.9537 7.2098 -2.2057 0.9681
-4.0646 6.3785 -2.1412 0.9690
-4.5454 5.8978 -2.1079 0.9695
-2.2383 2.4226 -0.9337 0.9864
-5.3459 4.8389 -2.0413 0.9705
-6.6084 3.3391 -2.0960 0.9697
-6.7733 2.6944 -2.0636 0.9702
-6.8815 2.0486 -2.0326 0.9706
-6.9347 1.4063 -2.0031 0.9710
-6.9348 0.7716 -1.9753 0.9714
-6.6393 -1.0509 -1.9029 0.9724
-5.3021 -3.6532 -1.8228 0.9736
-4.5260 -4.4939 -1.8056 0.9738
-4.0952 -4.8649 -1.8002 0.9739
-3.1588 -5.5020 -1.7960 0.9740
-2.6574 -5.7653 -1.7972 0.9740
-1.0467 -6.3203 -1.8136 0.9737
-0.4817 -6.4229 -1.8234 0.9736
0.0935 -6.4825 -1.8353 0.9734
1.2636 -6.4677 -1.8656 0.9730
3.6017 -5.8746 -1.9507 0.9718
4.1661 -5.6042 -1.9769 0.9714
4.7148 -5.2840 -2.0048 0.9710
5.2432 -4.9141 -2.0343 0.9706
6.8806 -2.1789 -2.0432 0.9704
7.1622 -1.5822 -2.0765 0.9700
7.3917 -0.9525 -2.1098 0.9695
7.6991 1.7938 -2.2379 0.9677
7.6051 2.5048 -2.2667 0.9673
6.8987 2.9773 -2.1271 0.9692
6.2060 3.3638 -1.9984 0.9711
5.0223 4.0217 -1.8214 0.9736
4.0686 4.6666 -1.7527 0.9746
3.0516 5.1080 -1.6844 0.9756
2.1151 5.6195 -1.6998 0.9753
0.8604 3.1002 -0.9108 0.9867
-0.5267 6.0863 -1.7294 0.9749
-1.4044 7.9154 -2.2758 0.9671
-2.7165 7.3479 -2.2177 0.9680
-3.3132 6.9763 -2.1864 0.9684
-3.8638 6.5546 -2.1540 0.9689
-5.9769 4.8441 -2.1780 0.9685
-6.7161 2.9454 -2.0761 0.9700
-6.8461 2.2994 -2.0445 0.9704
-6.9097 0.3890 -1.9592 0.9716
-6.3137 -1.9587 -1.8714 0.9729
-6.0588 -2.4911 -1.8545 0.9731
-3.8191 -5.0748 -1.7980 0.9739
-2.8547 -5.6674 -1.7965 0.9740
-1.8100 -6.1084 -1.8036 0.9739
-0.7026 -6.3881 -1.8193 0.9736
-0.1311 -6.4645 -1.8304 0.9735
1.0349 -6.4849 -1.8590 0.9731
1.6239 -6.4266 -1.8765 0.9728
2.7993 -6.1681 -1.9176 0.9722
5.0405 -5.0638 -2.0226 0.9707
5.5544 -4.6636 -2.0532 0.9703
6.0407 -4.2145 -2.0852 0.9698
7.0587 -1.8183 -2.0635 0.9702
0.7190 -6.0390 -1.8706 0.9749
1.8113 -5.9178 -1.9035 0.9744
2.3553 -5.7909 -1.9229 0.9742
3.9395 -5.1385 -1.9915 0.9733
4.9189 -4.4750 -2.0454 0.9726
5.3733 -4.0757 -2.0744 0.9722
6.3574 -1.9100 -2.0417 0.9726
6.5992 -1.3556 -2.0721 0.9722
7.0373 1.0957 -2.1906 0.9706
6.9975 1.7400 -2.2178 0.9703
6.7231 3.0205 -2.2670 0.9696
6.0900 3.4186 -2.1481 0.9712
4.9261 4.0661 -1.9646 0.9736
3.4378 4.8878 -1.8380 0.9753
2.9706 5.1441 -1.8271 0.9754
1.7227 3.7128 -1.2589 0.9830
2.0335 5.6556 -1.8486 0.9752
0.8087 3.0907 -0.9826 0.9867
0.5028 6.4845 -2.0005 0.9731
-1.3804 7.1619 -2.2434 0.9699
-2.5684 6.6428 -2.1906 0.9706
-3.1094 6.3042 -2.1621 0.9710
-4.0643 5.4962 -2.1025 0.9718
-4.4725 5.0381 -2.0721 0.9722
-6.2157 2.6168 -2.0743 0.9722
-6.3345 2.0236 -2.0453 0.9726
-6.0308 -1.3890 -1.9035 0.9744
-5.5899 -2.3957 -1.8706 0.9749
-5.0074 -3.3053 -1.8455 0.9752
-4.3007 -4.1037 -1.8284 0.9754
-3.9059 -4.4573 -1.8229 0.9755
-3.4864 -4.7786 -1.8194 0.9755
-3.0442 -5.0664 -1.8180 0.9756
-2.5813 -5.3195 -1.8186 0.9756
-2.0999 -5.5365 -1.8213 0.9755
-1.6021 -5.7164 -1.8260 0.9755
-0.5663 -5.9603 -1.8415 0.9753
1.0525 -6.0204 -1.8798 0.9747
1.5991 -5.9551 -1.8965 0.9745
2.1444 -5.8456 -1.9151 0.9743
2.6853 -5.6912 -1.9356 0.9740
3.2185 -5.4916 -1.9578 0.9737
3.7405 -5.2462 -1.9818 0.9734
4.2474 -4.9550 -2.0073 0.9731
6.5108 -1.5746 -2.0603 0.9724
6.7231 -1.0026 -2.0907 0.9720
6.9892 0.2132 -2.1507 0.9712
7.0358 0.8467 -2.1797 0.9708
7.0206 1.4892 -2.2074 0.9704
6.9415 2.1343 -2.2337 0.9701
6.7970 2.7745 -2.2581 0.9697
5.7117 3.6295 -2.0815 0.9721
4.1741 4.5998 -1.9105 0.9743
3.1266 5.0048 -1.8151 0.9756
2.2180 5.5552 -1.8398 0.9753
-0.4069 6.1137 -1.8846 0.9747
-1.1359 7.2357 -2.2528 0.9698
-1.7569 7.0273 -2.2280 0.9701
-2.3479 6.7609 -2.2014 0.9705
-2.9038 6.4416 -2.1733 0.9709
-3.8929 5.6653 -2.1143 0.9716
-2.2649 2.2869 -0.9900 0.9866
-5.0270 4.2425 -2.0232 0.9728
-5.7173 4.0104 -2.1480 0.9712
-6.1554 2.8467 -2.0859 0.9720
-6.4185 1.0713 -2.0015 0.9731
-6.2447 -0.6418 -1.9309 0.9741
-6.0987 -1.1835 -1.9108 0.9743
-5.9121 -1.7061 -1.8926 0.9746
-5.1309 -3.1369 -1.8497 0.9751
-4.8038 -3.5618 -1.8394 0.9753
-4.4470 -3.9578 -1.8311 0.9754
-4.0624 -4.3236 -1.8248 0.9755
-3.2186 -4.9586 -1.8183 0.9756
-2.7635 -5.2253 -1.8181 0.9756
-2.2890 -5.4565 -1.8200 0.9755
-1.7974 -5.6510 -1.8239 0.9755
-0.7712 -5.9253 -1.8379 0.9753
-0.2412 -6.0030 -1.8479 0.9752
0.8403 -6.0341 -1.8739 0.9748
1.9328 -5.8934 -1.9077 0.9744
4.0524 -5.0736 -1.9972 0.9732
4.5482 -4.7545 -2.0237 0.9728
5.4646 -3.2740 -1.9594 0.9737
6.1383 -2.3192 -2.0183 0.9729
6.4152 -1.7892 -2.0485 0.9725
6.6465 -1.2282 -2.0789 0.9721
6.9551 -0.0292 -2.1393 0.9713
7.0249 0.5990 -2.1685 0.9709
6.9799 1.8837 -2.2237 0.9702
6.6092 3.1287 -2.2491 0.9699
5.9495 3.4970 -2.1226 0.9715
5.3548 3.8281 -2.0246 0.9728
4.8078 4.1317 -1.9498 0.9738
4.3591 4.4810 -1.9228 0.9742
3.3333 4.9452 -1.8343 0.9754
2.8671 5.2007 -1.8266 0.9755
1.7292 3.9294 -1.3204 0.9822
1.9270 5.7135 -1.8546 0.9751
-0.7501 6.1673 -1.9109 0.9743
-1.5188 7.1154 -2.2379 0.9700
-4.5568 4.9320 -2.0653 0.9723
-6.2467 2.4849 -2.0678 0.9723
-6.3539 1.8915 -2.0391 0.9726
-6.4101 1.2999 -2.0117 0.9730
-6.4169 0.7140 -1.9859 0.9733
-6.3763 0.1374 -1.9617 0.9737
-6.1603 -0.9751 -1.9184 0.9742
-5.9893 -1.5054 -1.8995 0.9745
-5.5317 -2.5021 -1.8674 0.9749
-5.2495 -2.9643 -1.8543 0.9751
-4.5891 -3.8074 -1.8341 0.9754
-3.8146 -4.5316 -1.8219 0.9755
-1.4893 -5.7513 -1.8273 0.9754
-0.9745 -5.8843 -1.8345 0.9753
0.6286 -6.0413 -1.8682 0.9749
1.7207 -5.9345 -1.9005 0.9745
2.8048 -5.6507 -1.9404 0.9739
4.3578 -4.8840 -2.0133 0.9730
4.8409 -4.5370 -2.0407 0.9726
5.6860 -2.9980 -1.9771 0.9735
2.2926 -0.9584 -0.7643 0.9897
6.3128 -1.9991 -2.0367 0.9727
6.5623 -1.4497 -2.0671 0.9723
6.9122 -0.2690 -2.1277 0.9715
7.0378 0.9892 -2.1860 0.9707
6.7559 2.9157 -2.2632 0.9697
5.5794 3.7031 -2.0597 0.9724
5.0156 4.0164 -1.9764 0.9735
3.5160 4.8448 -1.8412 0.9753
3.0479 5.1017 -1.8279 0.9754
1.7858 3.7040 -1.2648 0.9829
2.1125 5.6126 -1.8445 0.9752
0.5950 6.4348 -1.9876 0.9733
0.0198 6.7445 -2.0745 0.9722
-1.8912 6.9728 -2.2222 0.9702
-2.3427 2.2733 -1.0041 0.9864
-5.7767 3.8831 -2.1409 0.9713
-6.3183 2.1221 -2.0501 0.9725
-6.3288 -0.2091 -1.9477 0.9738
-6.2158 -0.7639 -1.9262 0.9741
-6.0605 -1.3016 -1.9066 0.9744
-5.6321 -2.3156 -1.8730 0.9748
-5.0608 -3.2339 -1.8472 0.9752
-4.7269 -3.6525 -1.8374 0.9753
-3.5577 -4.7276 -1.8198 0.9755
-3.1191 -5.0210 -1.8181 0.9756
-2.6595 -5.2799 -1.8184 0.9756
-1.6858 -5.6892 -1.8251 0.9755
-1.1760 -5.8372 -1.8315 0.9754
-0.6540 -5.9461 -1.8399 0.9753
-0.1220 -6.0147 -1.8504 0.9751
0.9618 -6.0271 -1.8773 0.9748
1.5083 -5.9689 -1.8936 0.9746
2.5959 -5.7200 -1.9321 0.9741
3.6548 -5.2901 -1.9777 0.9735
4.1644 -5.0065 -2.0030 0.9731
4.6558 -4.6772 -2.0298 0.9728
5.1246 -4.3027 -2.0581 0.9724
5.5467 -3.1752 -1.9658 0.9736
5.8941 -2.7078 -1.9951 0.9732
6.2036 -2.2041 -2.0250 0.9728
6.4708 -1.6669 -2.0553 0.9724
1.6888 -5.5173 -1.9180 0.9760
2.1944 -5.3954 -1.9361 0.9757
3.6615 -4.7758 -2.0004 0.9750
4.5630 -4.1513 -2.0505 0.9743
5.8653 -1.7622 -2.0358 0.9745
6.0814 -1.2492 -2.0637 0.9742
6.2518 -0.7116 -2.0916 0.9738
6.4131 1.5947 -2.1967 0.9725
6.3114 2.1829 -2.2199 0.9722
6.1502 2.7631 -2.2412 0.9720
3.9090 4.6200 -2.0116 0.9748
3.4335 4.8817 -1.9839 0.9752
2.0310 5.6485 -1.9953 0.9750
0.8052 3.0776 -1.0574 0.9867
0.5021 6.4757 -2.1590 0.9730
-0.0807 6.7890 -2.2568 0.9718
-0.6183 6.0917 -2.0353 0.9745
-1.2639 6.5575 -2.2199 0.9722
-1.8242 6.3516 -2.1967 0.9725
-2.3563 6.0943 -2.1719 0.9728
-2.8557 5.7899 -2.1460 0.9732
-4.1216 4.6428 -2.0637 0.9742
-4.7488 3.7335 -2.0080 0.9749
-5.5954 2.9683 -2.1054 0.9737
-5.7601 2.4250 -2.0775 0.9740
-5.9665 0.7842 -2.0004 0.9750
-5.9436 0.2463 -1.9774 0.9752
-5.6227 -1.2951 -1.9180 0.9760
-5.4380 -1.7758 -1.9016 0.9762
-5.2177 -2.2362 -1.8870 0.9764
-4.6783 -3.0880 -1.8633 0.9766
-4.3631 -3.4759 -1.8543 0.9768
-3.6521 -4.1676 -1.8420 0.9769
-3.2602 -4.4686 -1.8387 0.9770
-1.4978 -5.3443 -1.8449 0.9769
-1.0189 -5.4754 -1.8513 0.9768
0.4739 -5.6413 -1.8818 0.9764
1.4912 -5.5535 -1.9114 0.9761
2.5008 -5.3001 -1.9480 0.9756
5.1869 -2.8680 -1.9702 0.9753
6.0026 -1.4517 -2.0528 0.9743
6.4218 0.1959 -2.1356 0.9733
6.4368 1.3654 -2.1872 0.9726
6.3580 1.9549 -2.2111 0.9724
6.0225 3.1110 -2.2532 0.9718
5.7036 3.6244 -2.2463 0.9719
0.6050 2.9640 -1.0056 0.9873
0.7158 6.3605 -2.1276 0.9734
0.1520 6.6640 -2.2157 0.9723
-3.1431 5.5827 -2.1296 0.9734
-3.5817 5.2125 -2.1023 0.9737
-4.6412 3.9169 -2.0187 0.9747
-5.5180 3.1773 -2.1165 0.9735
-5.9634 0.9953 -2.0097 0.9748
-5.3075 -2.0598 -1.8924 0.9763
-5.0664 -2.5068 -1.8790 0.9765
-4.7929 -2.9302 -1.8673 0.9766
-4.4890 -3.3283 -1.8576 0.9767
-4.1568 -3.6995 -1.8497 0.9768
-2.1405 -5.1024 -1.8393 0.9769
-1.6805 -5.2835 -1.8430 0.9769
-0.7206 -5.5373 -1.8561 0.9767
0.2772 -5.6396 -1.8769 0.9765
2.8041 -5.1890 -1.9606 0.9754
3.2917 -4.9730 -1.9824 0.9752
3.7656 -4.7146 -2.0057 0.9749
4.2223 -4.4139 -2.0304 0.9746
4.6580 -4.0714 -2.0564 0.9743
5.6682 -2.1416 -2.0141 0.9748
6.1234 -1.1315 -2.0699 0.9741
6.3932 -0.0268 -2.1251 0.9734
6.4502 0.5500 -2.1519 0.9731
6.1063 2.8906 -2.2457 0.9719
5.3474 3.8228 -2.1850 0.9727
4.8014 4.1263 -2.1044 0.9737
3.8019 4.6790 -2.0040 0.9749
3.3291 4.9391 -1.9799 0.9752
1.7205 3.9097 -1.4199 0.9822
-0.7489 6.1577 -2.0619 0.9742
-2.9620 5.7162 -2.1400 0.9732
-3.4160 5.3608 -2.1130 0.9736
-3.8296 4.9691 -2.0854 0.9739
-4.2003 4.5462 -2.0575 0.9742
-4.5266 4.0973 -2.0295 0.9746
-5.1674 3.8990 -2.1518 0.9731
-5.6363 2.8479 -2.0991 0.9737
-5.7901 2.3033 -2.0714 0.9741
-5.8955 1.7550 -2.0447 0.9744
-5.9652 0.6637 -1.9951 0.9750
-5.9325 0.1278 -1.9725 0.9753
-5.8570 -0.3972 -1.9514 0.9756
-5.7404 -0.9086 -1.9319 0.9758
-5.3920 -1.8802 -1.8982 0.9762
-4.2891 -3.5586 -1.8525 0.9768
-2.3151 -5.0226 -1.8384 0.9770
-1.3923 -5.3767 -1.8462 0.9769
0.0812 -5.6319 -1.8723 0.9765
1.6044 -5.5335 -1.9151 0.9760
3.1036 -5.0620 -1.9737 0.9753
3.5833 -4.8201 -1.9965 0.9750
4.0471 -4.5358 -2.0206 0.9747
4.9122 -3.8419 -2.0729 0.9741
5.2927 -3.4260 -2.0958 0.9738
5.8253 -1.8447 -2.0311 0.9746
6.0486 -1.3362 -2.0591 0.9742
6.3566 -0.2474 -2.1146 0.9735
5.9705 3.2361 -2.2574 0.9718
4.3517 4.1734 -2.0042 0.9749
3.9773 4.5619 -2.0118 0.9748
3.5116 4.8388 -1.9874 0.9751
3.0441 5.0954 -1.9730 0.9753
0.8633 3.1105 -1.0730 0.9865
0.0198 6.7350 -2.2388 0.9720
-1.1686 6.5864 -2.2235 0.9722
-2.7752 5.8435 -2.1503 0.9731
-3.6738 5.1253 -2.0961 0.9738
-2.3365 2.2673 -1.0822 0.9864
-4.7037 3.8122 -2.0126 0.9748
-5.5632 3.0577 -2.1102 0.9736
-5.8602 1.9683 -2.0549 0.9743
-5.9660 0.8743 -2.0043 0.9749
-5.9504 0.3350 -1.9811 0.9752
-5.7905 -0.7117 -1.9393 0.9757
-5.6498 -1.2134 -1.9209 0.9759
-4.7278 -3.0211 -1.8650 0.9766
-4.4174 -3.4134 -1.8557 0.9767
-4.0791 -3.7784 -1.8482 0.9768
-3.3268 -4.4208 -1.8391 0.9769
-2.9169 -4.6955 -1.8375 0.9770
-2.4870 -4.9376 -1.8377 0.9770
-0.6111 -5.5563 -1.8581 0.9767
0.8976 -5.6245 -1.8933 0.9763
2.9136 -5.1446 -1.9653 0.9754
3.3985 -4.9192 -1.9874 0.9751
3.8690 -4.6513 -2.0111 0.9748
4.7517 -3.9896 -2.0624 0.9742
5.1527 -3.5950 -2.0885 0.9739
5.4476 -2.5026 -1.9928 0.9750
5.9669 -1.5371 -2.0482 0.9744
0.6286 -5.2801 -1.9015 0.9777
1.1048 -5.2408 -1.9153 0.9775
4.9342 -2.5088 -1.9795 0.9768
2.3199 -0.9296 -0.8937 0.9894
5.6328 -1.1571 -2.0564 0.9759
5.7849 -0.6584 -2.0821 0.9756
5.8914 -0.1418 -2.1074 0.9753
5.9120 1.4701 -2.1785 0.9745
5.1946 3.5597 -2.2519 0.9736
2.9632 5.1313 -2.1190 0.9751
-0.6175 6.0839 -2.1868 0.9744
-2.6373 5.3471 -2.1321 0.9750
-3.0675 5.0317 -2.1074 0.9753
-3.4617 4.6813 -2.0821 0.9756
-3.8176 4.3003 -2.0564 0.9759
-4.1332 3.8934 -2.0306 0.9762
-4.4073 3.4650 -2.0049 0.9765
-5.2030 2.7601 -2.1062 0.9753
-5.3612 2.2571 -2.0802 0.9756
-5.5426 1.2391 -2.0310 0.9762
-5.4927 -0.2630 -1.9665 0.9769
-5.3957 -0.7445 -1.9478 0.9771
-5.2613 -1.2118 -1.9308 0.9773
-5.0913 -1.6626 -1.9153 0.9775
-4.6516 -2.5060 -1.8895 0.9778
-4.0914 -3.2594 -1.8707 0.9780
-3.7709 -3.5982 -1.8639 0.9781
-2.6710 -4.4455 -1.8546 0.9782
-1.4050 -5.0131 -1.8618 0.9781
-0.9556 -5.1350 -1.8678 0.9781
-0.4961 -5.2215 -1.8757 0.9780
0.4440 -5.2851 -1.8967 0.9777
0.9197 -5.2606 -1.9098 0.9776
1.8693 -5.0957 -1.9410 0.9772
3.2462 -4.5529 -1.9996 0.9765
3.6798 -4.2929 -2.0220 0.9763
4.0951 -3.9939 -2.0456 0.9760
4.8478 -3.2765 -2.0924 0.9755
5.5620 -1.3452 -2.0464 0.9760
5.8556 -0.3445 -2.0976 0.9754
5.9358 1.2591 -2.1699 0.9746
5.8581 1.8012 -2.1917 0.9743
5.7264 2.3375 -2.2118 0.9741
5.5407 2.8622 -2.2301 0.9739
5.0107 3.8516 -2.2601 0.9735
3.8648 4.2590 -2.0567 0.9759
3.6122 4.7749 -2.1411 0.9749
1.9313 3.8103 -1.5276 0.9820
1.7348 5.8008 -2.1652 0.9746
0.6061 2.9697 -1.0839 0.9872
0.7059 6.2724 -2.2572 0.9735
-0.4069 6.1138 -2.1912 0.9743
-1.4833 5.9329 -2.1870 0.9744
-3.6840 4.4517 -2.0664 0.9758
-2.2618 2.2837 -1.1494 0.9864
-4.3058 3.6338 -2.0148 0.9763
-4.8955 3.4339 -2.1384 0.9749
-5.3052 2.4534 -2.0902 0.9755
-5.4356 1.9467 -2.0647 0.9758
-5.5621 0.4242 -1.9948 0.9766
-5.5199 -0.0726 -1.9741 0.9768
-5.1615 -1.4895 -1.9211 0.9774
-4.4924 -2.7465 -1.8830 0.9779
-3.8985 -3.4697 -1.8663 0.9781
-3.5629 -3.7919 -1.8607 0.9781
-2.4248 -4.5849 -1.8548 0.9782
-2.0082 -4.7871 -1.8564 0.9782
-1.5765 -4.9564 -1.8599 0.9781
-0.6757 -5.1921 -1.8724 0.9780
-0.2112 -5.2566 -1.8813 0.9779
0.2597 -5.2844 -1.8920 0.9778
1.2108 -5.2267 -1.9186 0.9775
1.6857 -5.1400 -1.9344 0.9773
2.1565 -5.0141 -1.9519 0.9771
2.6201 -4.8485 -1.9708 0.9769
3.0735 -4.6434 -1.9913 0.9766
3.5133 -4.3986 -2.0131 0.9764
3.9361 -4.1147 -2.0363 0.9761
4.3385 -3.7922 -2.0606 0.9758
4.7160 -3.4316 -2.0857 0.9755
4.7019 -2.8170 -1.9601 0.9770
5.2594 -1.9872 -2.0106 0.9764
5.6705 -1.0478 -2.0621 0.9758
5.8127 -0.5448 -2.0878 0.9755
5.9086 -0.0248 -2.1130 0.9752
5.9556 0.5079 -2.1375 0.9749
5.8947 1.5908 -2.1834 0.9744
5.7841 2.1301 -2.2042 0.9742
5.4008 3.1745 -2.2403 0.9737
5.1298 3.6672 -2.2550 0.9736
4.7515 4.0834 -2.2404 0.9737
3.7971 4.6730 -2.1532 0.9747
2.8599 5.1878 -2.1184 0.9751
1.7256 3.9212 -1.5320 0.9820
1.9222 5.6991 -2.1508 0.9748
0.7358 3.0591 -1.1252 0.9867
0.9225 6.2401 -2.2558 0.9736
0.3614 6.2779 -2.2487 0.9736
-2.2799 5.5652 -2.1507 0.9748
-2.7360 5.2801 -2.1267 0.9751
-3.5444 4.5990 -2.0764 0.9756
-4.1978 3.7997 -2.0248 0.9762
-5.0479 3.1446 -2.1268 0.9751
-5.3903 2.1442 -2.0745 0.9757
-5.4932 1.6353 -2.0496 0.9759
-5.5674 0.6195 -2.0032 0.9765
-5.5411 0.1194 -1.9820 0.9767
-5.4744 -0.3713 -1.9622 0.9770
-5.3690 -0.8498 -1.9439 0.9772
-5.2265 -1.3137 -1.9272 0.9774
-5.0488 -1.7605 -1.9121 0.9775
-4.3225 -2.9782 -1.8771 0.9779
-4.0223 -3.3371 -1.8690 0.9780
-3.3462 -3.9752 -1.8582 0.9782
-2.5821 -4.4976 -1.8546 0.9782
-2.1720 -4.7123 -1.8556 0.9782
-1.7460 -4.8946 -1.8584 0.9782
-0.8541 -5.1573 -1.8694 0.9780
-0.3926 -5.2359 -1.8776 0.9779
0.5497 -5.2830 -1.8994 0.9777
1.9742 -5.0677 -1.9449 0.9772
2.8987 -4.7278 -1.9832 0.9767
4.9211 -3.1854 -2.0963 0.9754
4.8862 -2.5762 -1.9753 0.9768
5.4019 -1.7106 -2.0263 0.9762
5.6033 -1.2378 -2.0521 0.9759
5.7627 -0.7426 -2.0778 0.9756
5.9433 0.2996 -2.1281 0.9750
5.9593 0.8376 -2.1520 0.9748
5.6897 2.4556 -2.2161 0.9740
5.2412 3.4787 -2.2496 0.9736
3.5072 4.8327 -2.1353 0.9750
1.8387 3.8136 -1.5140 0.9822
2.1073 5.5985 -2.1392 0.9749
0.8588 3.0941 -1.1483 0.9865
-1.5974 5.8893 -2.1822 0.9744
-2.5626 5.3958 -2.1361 0.9749
-3.3989 4.7417 -2.0863 0.9755
-3.7612 4.3655 -2.0607 0.9758
-2.3314 2.2623 -1.1617 0.9863
-4.3647 3.5374 -2.0091 0.9764
-4.9529 3.3294 -2.1342 0.9750
-5.1723 2.8429 -2.1106 0.9752
-5.4585 1.8334 -2.0592 0.9758
-4.9235 -2.0243 -1.9037 0.9776
-4.6929 -2.4393 -1.8914 0.9778
-4.4318 -2.8319 -1.8808 0.9779
-4.1421 -3.2006 -1.8719 0.9780
-3.8259 -3.5438 -1.8649 0.9781
-3.1213 -4.1476 -1.8563 0.9782
-2.7368 -4.4056 -1.8547 0.9782
-1.9133 -4.8277 -1.8571 0.9782
-1.4785 -4.9895 -1.8610 0.9781
-0.1068 -5.2660 -1.8836 0.9779
0.3652 -5.2855 -1.8946 0.9777
0.8406 -5.2673 -1.9075 0.9776
1.7910 -5.1154 -1.9382 0.9772
2.2604 -4.9806 -1.9560 0.9770
5.0586 -2.3239 -1.9907 0.9766
1.0376 -4.9218 -1.9276 0.9787
2.3606 -4.5839 -1.9759 0.9782
3.1993 -4.1730 -2.0151 0.9777
3.5965 -3.9125 -2.0366 0.9775
4.6429 -2.9086 -2.0995 0.9768
4.6021 -2.3400 -1.9785 0.9781
2.3218 -0.9304 -0.9585 0.9893
5.4711 -0.1317 -2.0972 0.9768
5.5204 0.3604 -2.1200 0.9766
5.5229 0.8599 -2.1420 0.9763
5.4770 1.3619 -2.1628 0.9761
5.2370 2.3528 -2.2001 0.9757
5.0429 2.8308 -2.2162 0.9755
4.8005 3.2897 -2.2301 0.9754
4.5117 3.7240 -2.2419 0.9753
4.1296 4.0796 -2.2245 0.9754
3.3957 4.8280 -2.2620 0.9750
0.8079 3.0878 -1.2231 0.9864
0.4498 5.8021 -2.2301 0.9754
-0.5797 5.7118 -2.2001 0.9757
-1.0778 5.5916 -2.1823 0.9759
-2.0157 5.2133 -2.1420 0.9763
-2.8486 4.6727 -2.0972 0.9768
-3.5513 4.0004 -2.0500 0.9773
-2.3781 2.2401 -1.2520 0.9861
-4.1071 3.2290 -2.0021 0.9779
-5.0088 2.1087 -2.0826 0.9770
-4.3721 -2.3555 -1.9032 0.9790
-4.1234 -2.7218 -1.8934 0.9791
-3.8479 -3.0654 -1.8853 0.9791
-3.5473 -3.3848 -1.8789 0.9792
-3.2234 -3.6783 -1.8743 0.9793
-2.8781 -3.9449 -1.8713 0.9793
-2.1311 -4.3917 -1.8706 0.9793
-1.3217 -4.7161 -1.8769 0.9792
-0.8988 -4.8298 -1.8826 0.9792
-0.4665 -4.9100 -1.8901 0.9791
0.4172 -4.9665 -1.9099 0.9789
0.8638 -4.9414 -1.9223 0.9787
1.3104 -4.8799 -1.9363 0.9786
2.1924 -4.6465 -1.9689 0.9782
3.0405 -4.2645 -2.0071 0.9778
3.4442 -4.0181 -2.0281 0.9776
3.8301 -3.7354 -2.0502 0.9773
4.5254 -3.0586 -2.0932 0.9769
4.4974 -2.4867 -1.9694 0.9782
4.9845 -1.6882 -2.0167 0.9777
5.4396 -0.3200 -2.0882 0.9769
5.5067 0.1680 -2.1112 0.9767
5.5006 1.1668 -2.1548 0.9762
5.2992 2.1631 -2.1934 0.9758
5.1241 2.6470 -2.2102 0.9756
4.9003 3.1139 -2.2250 0.9754
4.6293 3.5584 -2.2376 0.9753
4.2623 3.9281 -2.2212 0.9755
3.8598 4.2534 -2.2011 0.9757
3.5592 4.7047 -2.2607 0.9750
1.9319 3.8114 -1.6375 0.9819
2.1866 5.4766 -2.2598 0.9751
0.6263 3.0686 -1.2002 0.9867
0.6523 5.7955 -2.2350 0.9753
-0.3824 5.7453 -2.2066 0.9756
-0.8861 5.6441 -2.1894 0.9758
-1.3737 5.4948 -2.1705 0.9760
-1.8407 5.3004 -2.1502 0.9763
-2.2828 5.0639 -2.1287 0.9765
-2.6963 4.7891 -2.1062 0.9767
-3.0782 4.4797 -2.0829 0.9770
-3.4259 4.1399 -2.0593 0.9772
-4.0111 3.3851 -2.0114 0.9778
-4.7862 2.7559 -2.1165 0.9766
-4.9548 2.2914 -2.0920 0.9769
-5.1648 1.3443 -2.0452 0.9774
-5.1006 -0.5242 -1.9649 0.9783
-4.9908 -0.9685 -1.9483 0.9785
-4.8465 -1.3986 -1.9331 0.9786
-4.4611 -2.2073 -1.9074 0.9789
-3.9581 -2.9347 -1.8883 0.9791
-3.6670 -3.2636 -1.8812 0.9792
-3.0147 -3.8446 -1.8723 0.9793
-2.6573 -4.0939 -1.8704 0.9793
-1.4831 -4.6630 -1.8752 0.9793
-1.0644 -4.7895 -1.8802 0.9792
-0.6355 -4.8828 -1.8870 0.9791
-0.1985 -4.9421 -1.8954 0.9790
0.2441 -4.9665 -1.9056 0.9789
2.0229 -4.7035 -1.9621 0.9783
2.4563 -4.5455 -1.9800 0.9781
2.8795 -4.3503 -1.9992 0.9779
3.2893 -4.1182 -2.0198 0.9777
3.6825 -3.8495 -2.0415 0.9774
4.4033 -3.2041 -2.0869 0.9769
5.2740 -0.9746 -2.0553 0.9773
5.4860 -0.0230 -2.1024 0.9768
5.5251 0.4711 -2.1250 0.9765
5.5169 0.9716 -2.1467 0.9763
5.3538 1.9717 -2.1864 0.9759
4.9930 2.9348 -2.2195 0.9755
4.4159 3.7950 -2.2313 0.9754
3.6735 4.5209 -2.2323 0.9754
2.3768 5.4010 -2.2613 0.9750
1.8820 5.5798 -2.2566 0.9751
0.7389 3.0721 -1.2109 0.9866
0.8546 5.7809 -2.2394 0.9753
-0.1834 5.7712 -2.2128 0.9756
-1.1864 5.5584 -2.1781 0.9759
-1.6619 5.3811 -2.1583 0.9762
-2.1142 5.1606 -2.1372 0.9764
-2.9337 4.6038 -2.0920 0.9769
-3.2949 4.2753 -2.0685 0.9771
-2.2333 2.4172 -1.2611 0.9860
-3.9093 3.5385 -2.0207 0.9777
-4.1594 3.1384 -1.9968 0.9779
-4.7028 2.9297 -2.1233 0.9765
-4.8944 2.4731 -2.1015 0.9768
-5.1370 1.5292 -2.0540 0.9773
-5.1958 1.0536 -2.0317 0.9775
-5.1929 0.1119 -1.9905 0.9780
-5.1336 -0.3482 -1.9718 0.9782
-4.7420 -1.6535 -1.9245 0.9787
-4.5456 -2.0561 -1.9119 0.9789
-3.4771 -3.4524 -1.8777 0.9792
-2.7985 -4.0004 -1.8709 0.9793
-2.0438 -4.4340 -1.8710 0.9793
-0.8033 -4.8506 -1.8841 0.9792
0.5165 -4.9640 -1.9126 0.9788
1.8523 -4.7548 -1.9555 0.9784
2.2889 -4.6113 -1.9729 0.9782
2.7164 -4.4306 -1.9916 0.9780
3.1318 -4.2128 -2.0116 0.9778
3.5318 -3.9582 -2.0329 0.9775
3.9132 -3.6676 -2.0553 0.9773
4.2726 -3.3417 -2.0787 0.9770
4.5579 -2.4032 -1.9746 0.9782
2.2903 -0.9574 -0.9513 0.9894
5.2133 -1.1517 -2.0460 0.9774
5.5258 0.7767 -2.1384 0.9764
5.4010 1.7788 -2.1791 0.9759
5.0785 2.7526 -2.2136 0.9756
4.8440 3.2150 -2.2280 0.9754
4.1870 4.0155 -2.2232 0.9755
3.4662 4.7761 -2.2615 0.9750
3.0289 5.0703 -2.2633 0.9750
0.5363 5.8002 -2.2322 0.9754
-0.4956 5.7271 -2.2029 0.9757
-0.9962 5.6149 -2.1853 0.9759
-1.9414 5.2512 -2.1455 0.9763
-2.3774 5.0059 -2.1237 0.9765
-2.3282 2.2592 -1.2432 0.9862
-4.0668 3.2960 -2.0061 0.9778
-4.6133 3.1010 -2.1302 0.9765
-4.8276 2.6534 -2.1111 0.9767
-5.1030 1.7140 -2.0629 0.9772
-5.1778 1.2384 -2.0402 0.9775
-5.2057 0.2931 -1.9981 0.9779
-5.1611 -0.1705 -1.9789 0.9781
-4.9616 -1.0656 -1.9447 0.9785
-4.8099 -1.4922 -1.9299 0.9787
-4.4106 -2.2926 -1.9049 0.9789
-3.2787 -3.6314 -1.8749 0.9793
-2.9368 -3.9025 -1.8717 0.9793
-2.5752 -4.1455 -1.8702 0.9793
-1.3909 -4.6940 -1.8761 0.9792
-0.1004 -4.9506 -1.8975 0.9790
0.3432 -4.9671 -1.9080 0.9789
0.7896 -4.9480 -1.9202 0.9788
1.2363 -4.8927 -1.9339 0.9786
1.6808 -4.8006 -1.9492 0.9784
2.5515 -4.5052 -1.9841 0.9781
3.3784 -4.0615 -2.0245 0.9776
3.7674 -3.7848 -2.0465 0.9774
4.1358 -3.4725 -2.0695 0.9771
4.4738 -3.1213 -2.0905 0.9769
4.4514 -2.5481 -1.9656 0.9783
4.7163 -2.1667 -1.9890 0.9780
4.9491 -1.7584 -2.0127 0.9778
0.5564 -4.6736 -1.9263 0.9799
1.3962 -4.5616 -1.9524 0.9796
1.8114 -4.4535 -1.9677 0.9794
2.2197 -4.3103 -1.9843 0.9793
2.6185 -4.1322 -2.0022 0.9791
3.7280 -3.3916 -2.0627 0.9785
4.0581 -3.0780 -2.0846 0.9782
4.0644 -2.5462 -1.9629 0.9795
4.3072 -2.1900 -1.9776 0.9793
4.7315 -1.4215 -2.0220 0.9789
4.8928 -1.0051 -2.0443 0.9786
5.0167 -0.5710 -2.0665 0.9784
5.1008 -0.1228 -2.0882 0.9782
5.1430 0.3358 -2.1094 0.9780
5.1417 0.8006 -2.1297 0.9778
5.0039 1.7307 -2.1670 0.9774
4.8664 2.1863 -2.1835 0.9772
4.6836 2.6291 -2.1982 0.9771
4.4565 3.0540 -2.2111 0.9769
3.5299 4.1719 -2.2366 0.9767
0.8493 3.2459 -1.3732 0.9856
0.4176 5.3863 -2.2111 0.9769
-0.0638 5.3707 -2.1982 0.9771
-0.5387 5.3077 -2.1835 0.9772
-1.0021 5.1990 -2.1670 0.9774
-2.2798 4.6223 -2.1094 0.9780
-2.1635 2.4371 -1.3338 0.9860
-2.3375 2.2019 -1.3143 0.9862
-3.8410 3.0198 -1.9997 0.9791
-4.0496 2.6359 -1.9776 0.9793
-4.6947 1.9765 -2.0848 0.9782
-4.8008 1.5337 -2.0627 0.9785
-4.8679 1.0883 -2.0415 0.9787
-1.9351 0.0802 -0.7927 0.9917
-1.9395 -0.0929 -0.7947 0.9916
-4.5027 -1.4704 -1.9386 0.9797
-4.3260 -1.8541 -1.9263 0.9799
-4.1202 -2.2198 -1.9155 0.9800
-3.3454 -3.1921 -1.8925 0.9802
-2.7149 -3.7212 -1.8853 0.9803
-2.0103 -4.1428 -1.8846 0.9803
-1.6348 -4.3104 -1.8868 0.9803
-0.8475 -4.5544 -1.8960 0.9802
-0.0255 -4.6709 -1.9117 0.9800
0.3931 -4.6794 -1.9219 0.9799
2.8564 -4.0062 -2.0137 0.9790
3.5935 -3.5046 -2.0543 0.9785
3.9328 -3.2039 -2.0761 0.9783
4.2104 -2.3281 -1.9691 0.9794
4.8344 -1.1692 -2.0357 0.9787
4.9732 -0.7416 -2.0579 0.9785
5.1189 1.0858 -2.1416 0.9776
4.5499 2.8913 -2.2063 0.9770
3.6690 4.0431 -2.2345 0.9767
3.3009 4.3633 -2.2392 0.9766
2.9017 4.6448 -2.2415 0.9766
2.4758 4.8844 -2.2412 0.9766
1.5634 5.2275 -2.2331 0.9767
-1.7132 4.9332 -2.1373 0.9777
-2.5131 4.4637 -2.0965 0.9781
-2.8712 4.1785 -2.0750 0.9783
-3.7501 3.1648 -2.0083 0.9790
-3.9728 2.7868 -1.9861 0.9792
-4.4767 2.5777 -2.1142 0.9779
-1.9544 0.1490 -0.8022 0.9916
-1.9112 -0.0251 -0.7823 0.9918
-4.6969 -0.9115 -1.9582 0.9795
-3.7318 -2.7669 -1.9013 0.9801
-2.8437 -3.6265 -1.8861 0.9803
-2.1523 -4.0697 -1.8842 0.9803
-1.3989 -4.3981 -1.8889 0.9803
-0.5992 -4.6038 -1.9001 0.9801
-0.1872 -4.6585 -1.9081 0.9801
0.2300 -4.6801 -1.9178 0.9800
0.6501 -4.6679 -1.9289 0.9798
2.3094 -4.2737 -1.9882 0.9792
2.7057 -4.0878 -2.0063 0.9790
3.0889 -3.8673 -2.0257 0.9788
4.5819 -1.7312 -2.0046 0.9791
4.7705 -1.3305 -2.0270 0.9788
4.9237 -0.9098 -2.0493 0.9786
5.0390 -0.4723 -2.0714 0.9784
5.1466 0.4389 -2.1140 0.9779
4.8296 2.2862 -2.1869 0.9772
4.4001 3.1456 -2.2137 0.9769
4.1212 3.5417 -2.2240 0.9768
3.4479 4.2432 -2.2377 0.9766
2.6442 4.7964 -2.2416 0.9766
0.7731 3.2143 -1.3530 0.9858
0.3101 5.3870 -2.2084 0.9769
-0.6430 5.2874 -2.1799 0.9772
-1.1032 5.1687 -2.1631 0.9774
-2.3660 4.5660 -2.1047 0.9780
-2.7356 4.2930 -2.0834 0.9782
-2.1822 2.3619 -1.3161 0.9862
-2.4665 2.2326 -1.3616 0.9857
-3.8906 2.9356 -1.9947 0.9792
-4.3977 2.7396 -2.1206 0.9779
-1.9190 0.0414 -0.7856 0.9917
-1.9508 -0.1323 -0.8002 0.9916
-2.0236 -0.3203 -0.8385 0.9912
-4.6190 -1.1610 -1.9492 0.9796
-4.4660 -1.5573 -1.9357 0.9798
-4.2826 -1.9371 -1.9237 0.9799
-3.5672 -2.9596 -1.8971 0.9802
-2.9696 -3.5278 -1.8873 0.9803
-2.6399 -3.7736 -1.8849 0.9803
-2.2920 -3.9923 -1.8841 0.9803
-1.9279 -4.1826 -1.8849 0.9803
-1.5494 -4.3437 -1.8875 0.9803
-0.7574 -4.5738 -1.8974 0.9802
0.9073 -4.6437 -1.9365 0.9798
1.3268 -4.5762 -1.9501 0.9796
1.7428 -4.4738 -1.9651 0.9795
2.1525 -4.3365 -1.9814 0.9793
2.9417 -3.9571 -2.0180 0.9789
3.3153 -3.7156 -2.0381 0.9787
4.0052 -3.1325 -2.0811 0.9783
4.2664 -2.2495 -1.9740 0.9794
2.2905 -0.9575 -1.0161 0.9893
4.7013 -1.4888 -2.0183 0.9789
5.0897 -0.1981 -2.0847 0.9782
5.1390 0.2591 -2.1059 0.9780
5.1064 1.1897 -2.1459 0.9776
5.0223 1.6541 -2.1641 0.9774
4.8924 2.1114 -2.1808 0.9772
4.7171 2.5567 -2.1959 0.9771
4.4972 2.9849 -2.2091 0.9769
4.2345 3.3909 -2.2202 0.9768
2.8090 4.7019 -2.2416 0.9766
1.8388 3.8138 -1.7328 0.9819
0.5426 2.9570 -1.2304 0.9871
0.4979 5.3842 -2.2130 0.9769
0.0158 5.3766 -2.2005 0.9770
-0.4605 5.3213 -2.1860 0.9772
-1.3765 5.0749 -2.1521 0.9775
-2.5954 4.4029 -2.0918 0.9782
-4.0175 2.7006 -1.9812 0.9793
-4.6733 2.0495 -2.0885 0.9782
-1.9435 0.2848 -0.8039 0.9915
-1.9535 -0.2401 -0.8055 0.9915
-2.4293 -3.9106 -1.8842 0.9803
-1.3118 -4.4272 -1.8898 0.9802
-0.5080 -4.6188 -1.9018 0.9801
1.1640 -4.6065 -1.9446 0.9797
2.3987 -4.2353 -1.9921 0.9792
3.1721 -3.8135 -2.0301 0.9788
3.5350 -3.5514 -2.0508 0.9786
4.1678 -2.3858 -1.9655 0.9795
4.4126 -2.0271 -1.9874 0.9792
4.8078 -1.2385 -2.0319 0.9788
1.3174 -4.3042 -1.9617 0.9806
3.1770 -3.4561 -2.0459 0.9797
3.5064 -3.1900 -2.0659 0.9795
3.8131 -2.8922 -2.0857 0.9793
3.8042 -2.3832 -1.9564 0.9806
4.0432 -2.0558 -1.9768 0.9804
2.3267 -0.9324 -1.0924 0.9891
4.6964 -0.5345 -2.0600 0.9796
4.7719 -0.1149 -2.0803 0.9794
4.8082 0.3139 -2.1000 0.9792
4.8040 0.7480 -2.1189 0.9790
1.7219 4.7890 -2.2179 0.9780
0.8502 3.2493 -1.4638 0.9855
0.3892 5.0199 -2.1943 0.9783
-0.0595 5.0073 -2.1824 0.9784
-0.5025 4.9508 -2.1687 0.9785
-0.9352 4.8519 -2.1535 0.9787
-1.3534 4.7124 -2.1368 0.9788
-1.7533 4.5347 -2.1189 0.9790
-2.4846 4.0756 -2.0802 0.9794
-2.8103 3.8004 -2.0600 0.9796
-2.1179 2.3857 -1.3903 0.9862
-2.2725 2.1407 -1.3606 0.9865
-1.5824 0.5055 -0.7240 0.9928
-1.5261 0.3412 -0.6815 0.9932
-1.5289 0.0634 -0.6669 0.9933
-1.5293 -0.0732 -0.6673 0.9933
-1.5170 -0.2093 -0.6674 0.9933
-1.5312 -0.3527 -0.6848 0.9932
-4.0849 -1.7508 -1.9369 0.9808
-3.8919 -2.0968 -1.9266 0.9809
-3.6726 -2.4242 -1.9178 0.9810
-3.4288 -2.7316 -1.9105 0.9811
-3.1620 -3.0172 -1.9048 0.9811
-2.5667 -3.5180 -1.8979 0.9812
-2.2416 -3.7307 -1.8968 0.9812
-1.5455 -4.0749 -1.8993 0.9812
-1.1783 -4.2044 -1.9030 0.9811
-0.4156 -4.3740 -1.9148 0.9810
-0.0241 -4.4124 -1.9230 0.9809
0.3712 -4.4192 -1.9328 0.9808
0.7681 -4.3937 -1.9439 0.9807
1.1642 -4.3356 -1.9565 0.9806
1.9442 -4.1205 -1.9856 0.9803
2.3229 -3.9634 -2.0021 0.9802
2.6904 -3.7734 -2.0197 0.9800
3.3807 -3.2971 -2.0581 0.9796
3.6976 -3.0123 -2.0785 0.9794
3.9817 -2.6911 -2.0944 0.9792
3.9535 -2.1860 -1.9688 0.9805
2.2799 -1.0067 -1.0862 0.9892
4.3689 -1.4797 -2.0103 0.9801
4.7471 -0.2793 -2.0724 0.9795
4.7989 0.1464 -2.0924 0.9793
4.8105 0.5789 -2.1116 0.9791
4.7809 1.0141 -2.1300 0.9789
4.7092 1.4479 -2.1471 0.9787
4.4387 2.2929 -2.1773 0.9784
2.7018 4.3248 -2.2224 0.9780
1.9495 3.8462 -1.8793 0.9814
1.8884 4.7298 -2.2195 0.9780
1.4560 4.8686 -2.2147 0.9781
0.5642 5.0128 -2.1984 0.9782
-1.1928 4.7713 -2.1434 0.9788
-1.6003 4.6081 -2.1260 0.9789
-1.9872 4.4083 -2.1074 0.9791
-2.2038 2.2252 -1.3649 0.9864
-3.5169 2.9681 -2.0056 0.9801
-4.2003 2.4185 -2.1123 0.9791
-1.5517 0.4039 -0.6988 0.9930
-1.5062 0.2514 -0.6655 0.9934
-1.5680 -0.4525 -0.7113 0.9929
-4.1526 -1.6116 -1.9413 0.9808
-3.7608 -2.2993 -1.9211 0.9810
-3.5264 -2.6146 -1.9132 0.9810
-2.3699 -3.6511 -1.8970 0.9812
-2.0349 -3.8476 -1.8969 0.9812
-1.6850 -4.0167 -1.8984 0.9812
-1.3224 -4.1575 -1.9014 0.9811
-0.1768 -4.4012 -1.9197 0.9810
0.2173 -4.4204 -1.9288 0.9809
0.6138 -4.4075 -1.9394 0.9808
1.7946 -4.1726 -1.9796 0.9804
2.5491 -3.8511 -2.0127 0.9801
3.2520 -3.3995 -2.0503 0.9797
3.8597 -2.3125 -1.9609 0.9806
4.0928 -1.9796 -1.9814 0.9804
4.4714 -1.2471 -2.0231 0.9799
4.6118 -0.8522 -2.0439 0.9797
4.7165 -0.4421 -2.0645 0.9795
4.7834 -0.0201 -2.0847 0.9793
4.6444 1.7104 -2.1570 0.9786
4.5044 2.1323 -2.1719 0.9785
4.1004 2.9314 -2.1967 0.9782
3.2107 3.9514 -2.2189 0.9780
2.8495 4.2275 -2.2219 0.9780
2.4620 4.4660 -2.2225 0.9780
2.0525 4.6641 -2.2208 0.9780
0.7704 3.2029 -1.4357 0.9857
-1.0297 4.8243 -2.1499 0.9787
-2.8789 3.7355 -2.0554 0.9796
-2.1479 2.3248 -1.3794 0.9863
-2.4282 2.1979 -1.4274 0.9858
-3.6502 2.7542 -1.9929 0.9802
-3.8410 2.3928 -1.9722 0.9804
-1.5727 0.4682 -0.7151 0.9929
-1.5093 0.3061 -0.6712 0.9933
-1.5241 0.1696 -0.6683 0.9933
-1.5265 0.0329 -0.6654 0.9934
-1.5295 -0.1037 -0.6681 0.9933
-1.5098 -0.2390 -0.6662 0.9934
-1.5459 -0.3886 -0.6947 0.9931
-1.5926 -0.5553 -0.7351 0.9927
-4.0443 -1.8293 -1.9345 0.9808
-3.0997 -3.0777 -1.9037 0.9811
-2.8073 -3.3350 -1.8998 0.9812
-2.4958 -3.5676 -1.8975 0.9812
-2.1670 -3.7744 -1.8968 0.9812
-1.8226 -3.9543 -1.8976 0.9812
-1.0951 -4.2293 -1.9040 0.9811
-0.7158 -4.3225 -1.9095 0.9811
-0.3288 -4.3852 -1.9165 0.9810
0.4595 -4.4163 -1.9351 0.9808
1.6439 -4.2198 -1.9737 0.9804
2.0293 -4.0884 -1.9892 0.9803
2.4058 -3.9239 -2.0059 0.9801
2.7704 -3.7267 -2.0238 0.9799
3.1205 -3.4973 -2.0427 0.9798
3.7652 -2.9448 -2.0832 0.9794
4.0405 -2.6154 -2.0976 0.9792
2.2907 -0.9576 -1.0821 0.9892
4.7620 -0.1853 -2.0769 0.9794
4.5638 1.9696 -2.1663 0.9785
4.3982 2.3839 -2.1803 0.9784
4.1915 2.7820 -2.1925 0.9783
3.3432 3.8346 -2.2171 0.9780
1.8598 3.8574 -1.8663 0.9815
1.7933 4.7645 -2.2187 0.9780
1.3582 4.8935 -2.2133 0.9781
0.5757 3.1378 -1.3903 0.9862
0.0147 5.0125 -2.1845 0.9784
-0.4295 4.9632 -2.1711 0.9785
-0.8642 4.8712 -2.1561 0.9786
-1.2852 4.7383 -2.1396 0.9788
-1.6883 4.5667 -2.1219 0.9790
-2.0702 4.3591 -2.1032 0.9792
-2.4278 4.1185 -2.0836 0.9794
-3.0594 3.5509 -2.0427 0.9798
-2.2352 2.1689 -1.3574 0.9865
-3.5669 2.8909 -2.0010 0.9802
-4.2408 2.3309 -2.1090 0.9791
-4.3923 1.9263 -2.0902 0.9793
-1.5376 0.3678 -0.6890 0.9931
-1.5142 0.2219 -0.6669 0.9933
-1.5281 -0.0505 -0.6663 0.9934
-1.5214 -0.1870 -0.6680 0.9933
-4.1144 -1.6916 -1.9388 0.9808
-3.9258 -2.0405 -1.9282 0.9809
-3.7108 -2.3712 -1.9192 0.9810
-3.4709 -2.6820 -1.9117 0.9810
-2.9233 -3.2378 -1.9012 0.9811
-2.6190 -3.4802 -1.8982 0.9812
-1.6053 -4.0506 -1.8989 0.9812
-1.2400 -4.1849 -1.9022 0.9811
-0.8643 -4.2899 -1.9072 0.9811
-0.4800 -4.3645 -1.9136 0.9810
-0.0894 -4.4082 -1.9216 0.9809
1.0986 -4.3476 -1.9543 0.9806
1.4922 -4.2620 -1.9680 0.9805
2.2607 -3.9917 -1.9993 0.9802
2.6303 -3.8072 -2.0167 0.9800
2.9864 -3.5902 -2.0352 0.9798
3.3261 -3.3414 -2.0547 0.9796
4.1409 -1.9023 -1.9860 0.9803
0.4972 -4.1759 -1.9466 0.9816
0.8724 -4.1385 -1.9577 0.9815
1.2457 -4.0699 -1.9702 0.9814
1.6148 -3.9701 -1.9839 0.9813
1.9770 -3.8390 -1.9988 0.9811
2.3299 -3.6767 -2.0148 0.9810
2.6708 -3.4837 -2.0319 0.9808
3.3060 -3.0077 -2.0688 0.9805
3.5826 -2.2444 -1.9569 0.9815
3.8054 -1.9349 -1.9761 0.9814
2.3322 -0.9345 -1.1630 0.9890
4.3059 -0.8845 -2.0348 0.9808
4.4092 -0.5019 -2.0541 0.9806
4.5024 0.7010 -2.1092 0.9801
4.4570 1.1083 -2.1259 0.9800
4.3722 1.5122 -2.1414 0.9798
3.8839 2.6616 -2.1794 0.9795
3.0718 3.6305 -2.2013 0.9793
0.3640 4.6943 -2.1794 0.9795
-0.0557 4.6841 -2.1684 0.9796
-1.6432 4.2500 -2.1092 0.9801
-2.3313 3.8241 -2.0731 0.9805
-2.6385 3.5680 -2.0541 0.9806
-2.1090 2.3757 -1.4705 0.9861
-2.2595 2.1284 -1.4368 0.9864
-3.3891 2.6645 -1.9955 0.9812
-4.0177 2.1313 -2.1052 0.9802
-1.3303 0.1748 -0.6211 0.9941
-3.4769 -2.2951 -1.9284 0.9818
-3.2468 -2.5866 -1.9215 0.9819
-2.4313 -3.3325 -1.9095 0.9820
-2.1234 -3.5340 -1.9084 0.9820
-1.8003 -3.7101 -1.9089 0.9820
0.3513 -4.1821 -1.9426 0.9817
0.7267 -4.1567 -1.9532 0.9816
1.1010 -4.1003 -1.9652 0.9815
1.8372 -3.8937 -1.9929 0.9812
2.1940 -3.7435 -2.0085 0.9811
3.1882 -3.1093 -2.0614 0.9806
3.4851 -2.8392 -2.0808 0.9804
2.2775 -1.0057 -1.1524 0.9891
4.1078 -1.3913 -2.0075 0.9811
4.2567 -1.0295 -2.0272 0.9809
4.3731 -0.6521 -2.0466 0.9807
4.4793 0.9502 -2.1195 0.9800
4.4098 1.3559 -2.1355 0.9799
3.9664 2.5205 -2.1753 0.9795
3.4845 3.2112 -2.1934 0.9793
3.1932 3.5189 -2.1995 0.9793
1.9490 3.8451 -1.9954 0.9812
1.7646 4.4197 -2.2028 0.9792
1.3608 4.5501 -2.1983 0.9793
0.6283 3.0784 -1.4543 0.9862
0.5275 4.6870 -2.1832 0.9794
0.1071 4.6930 -2.1729 0.9795
-0.3100 4.6578 -2.1608 0.9796
-0.7194 4.5824 -2.1471 0.9798
-1.4995 4.3179 -2.1158 0.9801
-2.2049 3.9163 -2.0803 0.9804
-2.5222 3.6707 -2.0616 0.9806
-2.8129 3.3992 -2.0423 0.9807
-3.3072 2.7911 -2.0032 0.9811
-3.5083 2.4609 -1.9836 0.9813
-1.3132 0.6073 -0.6697 0.9936
-1.3135 0.3419 -0.6283 0.9940
-1.3205 0.2204 -0.6197 0.9941
-1.3383 0.1021 -0.6213 0.9941
-1.3109 -0.2544 -0.6181 0.9941
-1.3226 -0.3817 -0.6372 0.9940
-1.3307 -0.5165 -0.6607 0.9937
-3.5602 -2.1766 -1.9315 0.9818
-3.3389 -2.4756 -1.9240 0.9818
-0.8985 -4.0430 -1.9171 0.9819
0.2056 -4.1836 -1.9389 0.9817
2.0565 -3.8055 -2.0023 0.9811
2.4069 -3.6364 -2.0185 0.9810
2.7448 -3.4366 -2.0359 0.9808
3.3722 -2.9475 -2.0731 0.9805
3.6344 -2.1775 -1.9611 0.9815
3.8515 -1.8629 -1.9804 0.9813
4.0417 -1.5271 -1.9999 0.9811
4.3319 -0.8005 -2.0391 0.9808
4.4415 1.1986 -2.1294 0.9799
4.3479 1.6012 -2.1447 0.9798
4.2150 1.9953 -2.1586 0.9797
3.3102 3.4027 -2.1974 0.9793
3.0003 3.6923 -2.2022 0.9792
2.6625 3.9500 -2.2050 0.9792
2.3004 4.1728 -2.2056 0.9792
1.5192 4.5042 -2.2003 0.9793
0.6909 4.6735 -2.1868 0.9794
-0.5614 4.6164 -2.1526 0.9797
-0.9642 4.5172 -2.1381 0.9798
-1.3529 4.3807 -2.1222 0.9800
-1.7242 4.2088 -2.1053 0.9802
-2.7032 3.5076 -2.0498 0.9807
-2.3903 2.1636 -1.4924 0.9859
-3.6156 2.2523 -1.9718 0.9814
-4.0532 2.0480 -2.1021 0.9802
-1.3344 0.1485 -0.6215 0.9941
-1.3232 -0.2094 -0.6201 0.9941
-1.3102 -0.3293 -0.6253 0.9941
-1.3336 -0.4650 -0.6538 0.9938
-1.3164 -0.5954 -0.6688 0.9937
-3.6397 -2.0553 -1.9348 0.9817
-2.9357 -2.9149 -1.9150 0.9819
-2.6591 -3.1589 -1.9113 0.9820
-2.0527 -3.5755 -1.9084 0.9820
0.0603 -4.1806 -1.9353 0.9817
0.8102 -4.1468 -1.9558 0.9815
1.1840 -4.0835 -1.9680 0.9814
1.9174 -3.8629 -1.9962 0.9812
2.2721 -3.7058 -2.0121 0.9810
3.2560 -3.0517 -2.0656 0.9805
3.5473 -2.7744 -2.0846 0.9803
3.8049 -2.4629 -2.0980 0.9802
3.7702 -1.9878 -1.9729 0.9814
2.2909 -0.9577 -1.1494 0.9891
4.2855 -0.9467 -2.0315 0.9808
4.4686 -0.1739 -2.0700 0.9805
4.5063 0.2272 -2.0885 0.9803
4.4672 1.0408 -2.1232 0.9800
4.2713 1.8434 -2.1534 0.9797
4.1146 2.2302 -2.1664 0.9796
3.1242 3.5834 -2.2006 0.9793
2.7969 3.8539 -2.2042 0.9792
1.8345 3.8049 -1.9553 0.9816
1.2693 4.5735 -2.1970 0.9793
0.4338 4.6919 -2.1811 0.9794
0.0138 4.6886 -2.1703 0.9795
-2.2777 3.8640 -2.0762 0.9804
-3.3547 2.7189 -1.9988 0.9811
-3.5487 2.3855 -1.9793 0.9813
-1.3204 0.5791 -0.6674 0.9937
-1.3329 0.4477 -0.6508 0.9938
-1.3052 0.3122 -0.6212 0.9941
-1.3265 0.1944 -0.6206 0.9941
-1.3385 0.0754 -0.6206 0.9941
-1.3374 -0.0442 -0.6194 0.9941
-3.7156 -1.9313 -1.9383 0.9817
-3.2866 -2.5395 -1.9226 0.9819
-3.0380 -2.8140 -1.9168 0.9819
-2.4808 -3.2966 -1.9098 0.9820
-2.1756 -3.5023 -1.9085 0.9820
-1.8550 -3.6827 -1.9087 0.9820
-1.1745 -3.9637 -1.9136 0.9819
-0.8185 -4.0626 -1.9183 0.9819
-0.4545 -4.1325 -1.9244 0.9818
-0.0846 -4.1730 -1.9320 0.9818
0.6644 -4.1630 -1.9514 0.9816
1.4107 -4.0293 -1.9761 0.9814
2.4833 -3.5945 -2.0223 0.9809
3.4372 -2.8860 -2.0775 0.9804
3.7079 -2.5869 -2.0928 0.9803
3.6849 -2.1094 -1.9654 0.9815
3.8963 -1.7899 -1.9847 0.9813
4.0801 -1.4496 -2.0043 0.9811
4.2342 -1.0907 -2.0239 0.9809
0.8268 -3.9219 -1.9661 0.9823
2.2046 -3.4790 -2.0203 0.9818
2.8333 -3.0822 -2.0536 0.9815
3.3815 -2.1184 -1.9573 0.9824
3.5898 -1.8253 -1.9754 0.9822
2.3378 -0.9368 -1.2354 0.9888
3.9288 -1.1804 -2.0123 0.9819
4.0551 -0.8330 -2.0307 0.9817
4.2394 0.2768 -2.0839 0.9812
4.2311 0.6588 -2.1005 0.9811
4.1865 1.0410 -2.1161 0.9810
4.1050 1.4198 -2.1306 0.9808
3.6426 2.4962 -2.1661 0.9805
3.1639 3.1255 -2.1815 0.9804
2.8792 3.4028 -2.1865 0.9803
2.2332 3.8671 -2.1905 0.9803
1.5082 4.1945 -2.1865 0.9803
1.1257 4.3025 -2.1815 0.9804
0.7354 4.3720 -2.1747 0.9804
0.3414 4.4026 -2.1661 0.9805
-1.1908 4.1463 -2.1161 0.9810
-1.8792 3.8102 -2.0839 0.9813
-2.4834 3.3584 -2.0489 0.9816
-1.1182 0.5932 -0.6209 0.9944
-1.1585 0.3701 -0.5966 0.9946
-1.1964 0.0496 -0.5874 0.9947
-1.1963 -0.0573 -0.5875 0.9947
-1.1877 -0.1639 -0.5881 0.9947
-1.1657 -0.2685 -0.5868 0.9947
-3.2976 -2.1767 -1.9382 0.9826
-2.8411 -2.7110 -1.9263 0.9827
-1.7083 -3.5206 -1.9195 0.9827
-0.7196 -3.8669 -1.9294 0.9826
1.3942 -3.8005 -1.9857 0.9821
2.7157 -3.1682 -2.0469 0.9816
3.2919 -2.6818 -2.0828 0.9813
2.2751 -1.0046 -1.2199 0.9890
4.0096 -0.9697 -2.0235 0.9818
4.1170 -0.6139 -2.0418 0.9816
4.1920 -0.2466 -2.0598 0.9815
4.2082 0.8927 -2.1101 0.9810
3.8966 2.0129 -2.1513 0.9806
3.2667 3.0106 -2.1791 0.9804
2.3658 3.7870 -2.1903 0.9803
2.0186 3.9825 -2.1901 0.9803
1.6539 4.1423 -2.1879 0.9803
1.2756 4.2651 -2.1837 0.9804
0.4947 4.3953 -2.1696 0.9805
0.1004 4.4022 -2.1600 0.9806
-1.4089 4.0570 -2.1067 0.9810
-2.0738 3.6834 -2.0735 0.9813
-2.1884 2.2097 -1.5255 0.9862
-3.4703 1.9982 -1.9643 0.9823
-1.1387 0.5266 -0.6154 0.9944
-1.1559 0.4140 -0.6023 0.9945
-1.1581 0.3014 -0.5870 0.9947
-1.1821 0.1973 -0.5879 0.9947
-1.1960 -0.0157 -0.5867 0.9947
-3.3762 -2.0641 -1.9411 0.9825
-2.9363 -2.6134 -1.9282 0.9826
-2.6855 -2.8582 -1.9238 0.9827
-2.4163 -3.0815 -1.9208 0.9827
-1.5146 -3.6103 -1.9205 0.9827
-1.1884 -3.7363 -1.9232 0.9827
-0.5085 -3.9076 -1.9329 0.9826
-0.1587 -3.9514 -1.9398 0.9825
0.1950 -3.9667 -1.9481 0.9825
2.2773 -3.4405 -2.0239 0.9818
2.5958 -3.2499 -2.0403 0.9816
3.1859 -2.7847 -2.0756 0.9813
4.0791 -0.7538 -2.0347 0.9817
4.1668 -0.3906 -2.0529 0.9815
4.2211 -0.0177 -2.0706 0.9814
4.2407 0.3616 -2.0877 0.9812
4.0818 1.5032 -2.1337 0.9808
3.9555 1.8724 -2.1467 0.9807
3.1029 3.1897 -2.1828 0.9804
2.8120 3.4607 -2.1873 0.9803
0.7726 3.2124 -1.6207 0.9854
0.6478 4.3822 -2.1729 0.9805
-2.2599 3.5464 -2.0628 0.9814
-2.1328 2.3084 -1.5417 0.9861
-3.2379 2.4431 -1.9897 0.9821
-3.4111 2.1250 -1.9714 0.9823
-1.1510 0.4579 -0.6077 0.9945
-1.1590 0.3450 -0.5932 0.9946
-1.1735 0.2380 -0.5874 0.9947
-1.1963 0.0258 -0.5870 0.9947
-1.1955 -0.0811 -0.5878 0.9947
-1.1588 -0.2913 -0.5861 0.9947
-1.1567 -0.4033 -0.6009 0.9946
-3.2510 -2.2400 -1.9366 0.9826
-3.0285 -2.5126 -1.9303 0.9826
-2.7853 -2.7655 -1.9253 0.9827
-2.2434 -3.2068 -1.9197 0.9827
-1.6383 -3.5544 -1.9198 0.9827
-1.3164 -3.6905 -1.9220 0.9827
-0.6430 -3.8829 -1.9306 0.9826
0.7678 -3.9300 -1.9642 0.9823
1.8152 -3.6570 -2.0027 0.9820
2.1500 -3.5068 -2.0177 0.9818
2.7834 -3.1194 -2.0507 0.9815
3.0768 -2.8836 -2.0685 0.9814
3.3492 -2.6194 -2.0856 0.9812
3.5592 -2.3039 -2.0797 0.9813
2.2912 -0.9578 -1.2181 0.9890
3.9049 -1.2366 -2.0092 0.9819
4.0363 -0.8917 -2.0276 0.9818
4.1366 -0.5330 -2.0459 0.9816
4.2041 -0.1636 -2.0638 0.9814
4.2373 0.2136 -2.0811 0.9813
4.1964 0.9777 -2.1136 0.9810
4.0089 1.7302 -2.1418 0.9807
3.6765 2.4402 -2.1645 0.9805
3.4585 2.7695 -2.1734 0.9805
3.2084 3.0769 -2.1805 0.9804
2.9284 3.3587 -2.1858 0.9803
2.6213 3.6119 -2.1891 0.9803
2.2902 3.8335 -2.1904 0.9803
1.8311 3.7980 -2.0682 0.9814
1.5707 4.1729 -2.1871 0.9803
0.8006 4.3632 -2.1760 0.9804
0.4069 4.4002 -2.1676 0.9805
0.0129 4.3985 -2.1576 0.9806
-0.3772 4.3586 -2.1460 0.9807
-1.4867 4.0215 -2.1031 0.9811
-2.1426 3.6346 -2.0696 0.9814
-2.4370 3.3998 -2.0518 0.9815
-3.3474 2.2501 -1.9785 0.9822
-1.1097 0.6099 -0.6211 0.9944
-1.1964 -0.0395 -0.5872 0.9947
-1.1702 -0.2513 -0.5871 0.9947
-1.1228 -0.5836 -0.6207 0.9944
-3.1175 -2.4089 -1.9326 0.9826
-2.8822 -2.6697 -1.9271 0.9826
-2.6272 -2.9098 -1.9230 0.9827
-2.3540 -3.1281 -1.9204 0.9827
0.2740 -3.9662 -1.9501 0.9824
0.6297 -3.9459 -1.9600 0.9824
0.9845 -3.8961 -1.9712 0.9823
1.3362 -3.8166 -1.9836 0.9821
1.6826 -3.7074 -1.9971 0.9820
2.9649 -2.9785 -2.0615 0.9815
3.2470 -2.7262 -2.0797 0.9813
3.4772 -1.9905 -1.9653 0.9823
3.8459 -1.3664 -2.0020 0.9820
0.4475 -3.7585 -1.9636 0.9831
1.1199 -3.6588 -1.9850 0.9829
1.4506 -3.5665 -1.9974 0.9828
2.0897 -3.2977 -2.0254 0.9826
2.6833 -2.9191 -2.0570 0.9823
2.9571 -2.6902 -2.0739 0.9821
3.1980 -2.0034 -1.9577 0.9831
3.3933 -1.7253 -1.9748 0.9830
2.2901 -0.9177 -1.2799 0.9889
3.8273 -0.7862 -2.0270 0.9825
3.9149 -0.4456 -2.0441 0.9824
3.9714 -0.0956 -2.0609 0.9823
3.9953 0.2608 -2.0771 0.9821
3.7510 1.6852 -2.1333 0.9816
3.6045 2.0234 -2.1444 0.9815
3.2142 2.6530 -2.1621 0.9814
2.9737 2.9376 -2.1685 0.9813
2.7057 3.1978 -2.1731 0.9813
2.0984 3.6337 -2.1768 0.9813
1.4173 3.9418 -2.1731 0.9813
0.3210 4.1397 -2.1540 0.9815
-0.4152 4.0911 -2.1333 0.9816
-1.1213 3.9041 -2.1072 0.9819
-1.7710 3.5907 -2.0771 0.9821
-2.0678 3.3919 -2.0608 0.9823
-2.3427 3.1681 -2.0441 0.9824
-2.0927 2.3573 -1.6353 0.9859
-3.1904 2.0766 -1.9748 0.9830
-1.0626 0.3394 -0.5787 0.9950
-1.0798 0.2414 -0.5740 0.9950
-1.1066 0.0459 -0.5746 0.9950
-1.1064 -0.0530 -0.5747 0.9950
-1.0983 -0.1516 -0.5752 0.9950
-1.0779 -0.2483 -0.5738 0.9950
-1.0621 -0.3468 -0.5796 0.9950
-1.0148 -0.5467 -0.5980 0.9948
-2.9261 -2.3311 -1.9408 0.9833
-2.6996 -2.5760 -1.9358 0.9833
-2.4546 -2.8011 -1.9321 0.9834
-1.6236 -3.3458 -1.9293 0.9834
-1.0062 -3.5901 -1.9342 0.9833
-0.6837 -3.6740 -1.9387 0.9833
-0.3545 -3.7315 -1.9445 0.9833
-0.0205 -3.7619 -1.9516 0.9832
0.3163 -3.7649 -1.9600 0.9831
0.9900 -3.6870 -1.9805 0.9829
1.3227 -3.6057 -1.9925 0.9828
1.6496 -3.4962 -2.0055 0.9827
1.9685 -3.3587 -2.0196 0.9826
2.5725 -3.0010 -2.0506 0.9823
3.1144 -2.5372 -2.0840 0.9821
3.3473 -2.2623 -2.0959 0.9820
3.3201 -1.8357 -1.9681 0.9830
2.2517 -0.9943 -1.2769 0.9890
3.7851 -0.9154 -2.0202 0.9826
3.9899 0.1217 -2.0708 0.9822
3.9934 0.4806 -2.0867 0.9820
3.6654 1.8934 -2.1402 0.9816
3.4986 2.2232 -2.1505 0.9815
3.2998 2.5365 -2.1592 0.9814
2.5295 3.3436 -2.1750 0.9813
1.8968 3.7421 -2.1765 0.9813
1.5542 3.8926 -2.1744 0.9813
0.6295 3.0842 -1.6330 0.9859
0.4651 4.1325 -2.1574 0.9814
0.0945 4.1400 -2.1483 0.9815
-0.9877 3.9508 -2.1127 0.9818
-1.6503 3.6608 -2.0832 0.9821
-1.9549 3.4723 -2.0672 0.9822
-2.2386 3.2579 -2.0507 0.9823
-3.1270 2.1935 -1.9815 0.9829
-0.9993 0.5754 -0.5982 0.9948
-1.0594 0.3794 -0.5838 0.9949
-1.0932 0.1825 -0.5750 0.9950
-1.1052 0.0843 -0.5750 0.9950
-1.1063 -0.0145 -0.5740 0.9950
-1.0556 -0.4097 -0.5874 0.9949
-0.9837 -0.6014 -0.5981 0.9948
-2.7900 -2.4831 -1.9376 0.9833
-2.5520 -2.7160 -1.9334 0.9833
-2.0246 -3.1191 -1.9291 0.9834
-1.7383 -3.2869 -1.9290 0.9834
-1.4393 -3.4310 -1.9302 0.9834
-1.1293 -3.5505 -1.9328 0.9834
-0.8099 -3.6445 -1.9368 0.9833
-0.1508 -3.7533 -1.9487 0.9832
0.1852 -3.7670 -1.9566 0.9831
1.5234 -3.5421 -2.0003 0.9828
1.8457 -3.4155 -2.0140 0.9827
2.1584 -3.2609 -2.0287 0.9825
2.4593 -3.0790 -2.0443 0.9824
2.7458 -2.8703 -2.0607 0.9823
3.2595 -2.3718 -2.0913 0.9820
2.2582 -1.0923 -1.3013 0.9888
