ply
format ascii 1.0
element vertex 1598
property float32 x
property float32 y
property float32 z
property float32 I
end_header
-8.8921 2.7177 -1.9654 0.9627
4.7113 -6.3510 -1.8585 0.9680
5.3314 -5.9879 -1.8843 0.9676
6.5000 -5.0955 -1.9411 0.9666
7.7682 -2.4708 -1.9158 0.9671
8.0925 -1.7988 -1.9484 0.9665
8.3598 -1.0886 -1.9813 0.9660
8.7657 1.2192 -2.0800 0.9643
8.7533 2.0258 -2.1116 0.9638
8.6607 2.8380 -2.1420 0.9632
6.1922 4.9419 -1.8620 0.9680
5.5528 5.3074 -1.8053 0.9689
3.3081 6.8295 -1.7835 0.9693
1.8764 6.7115 -1.6378 0.9718
0.9064 9.5978 -2.2657 0.9612
0.0147 2.9849 -0.7015 0.9878
-0.7983 9.4477 -2.2283 0.9618
-2.4083 8.9536 -2.1791 0.9626
-3.1554 8.5911 -2.1510 0.9631
-4.1680 8.8256 -2.2939 0.9607
-4.8651 8.2949 -2.2601 0.9613
-7.6263 4.2157 -2.0480 0.9648
-7.8403 3.4613 -2.0142 0.9654
-7.9862 2.7044 -1.9816 0.9659
-8.0662 1.9508 -1.9504 0.9665
-8.0388 0.4735 -1.8926 0.9675
-7.3149 -2.2474 -1.7985 0.9690
-7.0122 -2.8604 -1.7799 0.9694
-6.6667 -3.4416 -1.7633 0.9696
-6.2814 -3.9889 -1.7488 0.9699
-5.4025 -4.9751 -1.7261 0.9703
-4.9142 -5.4109 -1.7179 0.9704
-3.2852 -6.4730 -1.7060 0.9706
-2.6957 -6.7411 -1.7063 0.9706
1.8184 -7.2981 -1.7677 0.9696
2.4854 -7.1759 -1.7848 0.9693
3.8038 -6.7705 -1.8252 0.9686
4.4477 -6.4858 -1.8483 0.9682
5.0757 -6.1457 -1.8733 0.9678
6.8184 -4.7937 -1.9589 0.9663
7.3350 -4.2343 -1.9905 0.9658
7.9642 -2.0834 -1.9347 0.9667
8.2558 -1.3885 -1.9676 0.9662
8.7680 1.6889 -2.0986 0.9640
8.7091 2.4998 -2.1295 0.9635
6.9485 4.2335 -1.9123 0.9671
6.4541 4.7697 -1.8861 0.9676
2.9236 3.7156 -1.1112 0.9808
3.5451 6.6751 -1.7763 0.9694
1.7569 7.8372 -1.8876 0.9675
1.2655 9.5830 -2.2718 0.9611
0.4037 9.5915 -2.2562 0.9613
-2.8499 8.7506 -2.1629 0.9629
-4.5824 8.5231 -2.2743 0.9610
-5.2429 7.9583 -2.2398 0.9616
-6.3637 6.6822 -2.1687 0.9628
-7.2036 5.2671 -2.0973 0.9640
-7.5168 4.5274 -2.0623 0.9646
-7.7596 3.7760 -2.0281 0.9652
-8.0643 0.7763 -1.9041 0.9673
-7.9861 0.0538 -1.8770 0.9677
-7.8519 -0.6492 -1.8517 0.9681
-7.6647 -1.3293 -1.8283 0.9685
-7.1435 -2.6090 -1.7874 0.9692
-6.8155 -3.2037 -1.7699 0.9695
-6.0392 -4.2920 -1.7413 0.9700
-4.6156 -5.6469 -1.7141 0.9705
-4.0825 -6.0186 -1.7092 0.9706
-3.5243 -6.3484 -1.7065 0.9706
-2.9435 -6.6349 -1.7059 0.9706
-1.7243 -7.0735 -1.7111 0.9705
-1.0907 -7.2233 -1.7169 0.9704
0.2110 -7.3784 -1.7348 0.9701
0.8737 -7.3815 -1.7469 0.9699
1.5404 -7.3334 -1.7611 0.9697
2.2080 -7.2332 -1.7774 0.9694
2.8731 -7.0800 -1.7958 0.9691
4.1814 -6.6110 -1.8384 0.9684
4.8165 -6.2940 -1.8627 0.9680
5.4333 -5.9216 -1.8888 0.9675
6.0270 -5.4937 -1.9166 0.9670
7.1247 -4.4736 -1.9772 0.9660
7.6128 -3.8810 -2.0083 0.9655
7.4586 -2.9983 -1.8893 0.9675
8.3986 -0.9662 -1.9869 0.9659
8.7690 1.3536 -2.0853 0.9642
8.7434 2.1617 -2.1168 0.9637
8.1531 3.6491 -2.0993 0.9640
6.0886 5.0101 -1.8531 0.9681
4.2600 4.1954 -1.4052 0.9757
3.7805 6.5216 -1.7716 0.9695
3.2121 6.8920 -1.7871 0.9692
1.7892 6.7895 -1.6502 0.9716
1.6243 9.5521 -2.2772 0.9610
0.7620 9.5992 -2.2631 0.9612
-0.0298 2.9760 -0.6995 0.9878
-0.9379 9.4190 -2.2246 0.9619
-5.5983 7.6041 -2.2192 0.9619
-7.0523 5.5699 -2.1121 0.9637
-7.6670 4.0897 -2.0422 0.9649
-7.8694 3.3345 -2.0087 0.9655
-8.0734 1.8252 -1.9453 0.9666
-8.0256 0.3524 -1.8880 0.9675
-7.9144 -0.3592 -1.8620 0.9680
-7.7489 -1.0492 -1.8378 0.9684
-7.5322 -1.7145 -1.8155 0.9688
-7.2673 -2.3523 -1.7952 0.9691
-6.9572 -2.9600 -1.7769 0.9694
-6.2132 -4.0771 -1.7466 0.9699
-5.3228 -5.0508 -1.7245 0.9703
-3.7595 -6.2163 -1.7074 0.9706
-3.1878 -6.5210 -1.7059 0.9706
-2.5951 -6.7817 -1.7066 0.9706
-1.3561 -7.1667 -1.7142 0.9705
-0.7150 -7.2888 -1.7212 0.9704
-0.0629 -7.3623 -1.7304 0.9702
0.5972 -7.3863 -1.7416 0.9700
1.2626 -7.3597 -1.7550 0.9698
2.5968 -7.1503 -1.7879 0.9692
3.9126 -6.7266 -1.8289 0.9685
5.1791 -6.0833 -1.8777 0.9677
6.9076 -4.7037 -1.9641 0.9662
7.5133 -3.3495 -1.9333 0.9668
8.0170 -1.9696 -1.9402 0.9666
8.6739 0.2323 -2.0393 0.9650
8.7637 1.8244 -2.1038 0.9639
8.6913 2.6360 -2.1345 0.9634
8.4890 3.4270 -2.1516 0.9631
7.7074 3.9435 -2.0348 0.9651
5.1481 5.6274 -1.7925 0.9691
4.0150 6.3686 -1.7694 0.9695
3.4500 6.7371 -1.7789 0.9694
1.6488 7.9072 -1.8983 0.9674
-1.4183 9.3003 -2.2111 0.9621
-2.9739 8.6879 -2.1582 0.9630
-3.9854 8.9477 -2.3021 0.9606
-5.9307 7.2340 -2.1985 0.9623
-6.4450 6.5680 -2.1627 0.9629
-6.8887 5.8688 -2.1269 0.9635
-7.9562 2.8926 -1.9896 0.9658
-8.0524 2.1376 -1.9580 0.9663
-8.0845 1.3898 -1.9279 0.9669
-7.9675 -0.0654 -1.8726 0.9678
-7.6284 -1.4408 -1.8245 0.9686
-7.3832 -2.0903 -1.8034 0.9690
-7.0916 -2.7109 -1.7843 0.9693
-6.7564 -3.3001 -1.7672 0.9696
-6.3808 -3.8560 -1.7522 0.9698
-5.9675 -4.3767 -1.7393 0.9700
-5.5191 -4.8606 -1.7284 0.9702
-3.9906 -6.0769 -1.7086 0.9706
-3.4285 -6.3994 -1.7063 0.9706
-2.2402 -6.9131 -1.7079 0.9706
-1.6191 -7.1019 -1.7119 0.9705
-0.9833 -7.2438 -1.7181 0.9704
-0.3355 -7.3377 -1.7263 0.9703
2.3197 -7.2113 -1.7803 0.9694
4.9213 -6.2355 -1.8669 0.9679
5.5345 -5.8538 -1.8933 0.9674
6.6842 -4.9245 -1.9512 0.9665
7.2102 -4.3784 -1.9825 0.9659
7.6829 -3.7731 -2.0117 0.9654
7.5236 -2.8946 -1.8946 0.9674
7.8829 -2.2501 -1.9267 0.9669
8.4356 -0.8429 -1.9924 0.9658
8.6181 -0.0893 -2.0256 0.9652
8.7312 0.6900 -2.0584 0.9647
8.7702 1.4883 -2.0907 0.9641
7.2870 4.2209 -1.9792 0.9660
6.6139 4.6645 -1.9021 0.9673
5.9859 5.0775 -1.8448 0.9683
3.6859 6.5833 -1.7732 0.9695
2.5288 7.3363 -1.8238 0.9686
1.4800 9.5665 -2.2751 0.9610
0.6176 9.5980 -2.2604 0.9613
-2.6636 8.8401 -2.1699 0.9628
-4.4084 8.6546 -2.2827 0.9609
-5.0847 8.1039 -2.2485 0.9615
-6.2394 6.8498 -2.1776 0.9626
-6.7127 6.1634 -2.1418 0.9632
-7.1147 5.4484 -2.1061 0.9638
-7.7057 3.9636 -2.0366 0.9650
4.8701 -5.4697 -1.8962 0.9702
5.9220 -4.6425 -1.9483 0.9694
6.4033 -4.1554 -1.9764 0.9690
6.8482 -3.6212 -2.0057 0.9685
7.0353 -2.2377 -1.9115 0.9700
7.8297 0.3837 -2.0297 0.9681
7.7573 2.5419 -2.1136 0.9668
7.5898 3.2617 -2.1389 0.9664
6.1856 4.9366 -2.0491 0.9678
5.5564 5.3108 -1.9901 0.9687
4.4332 6.0862 -1.9495 0.9694
3.3047 6.8225 -1.9628 0.9692
2.7251 7.1995 -1.9931 0.9687
1.4845 8.0037 -2.1077 0.9669
0.0147 2.9827 -0.7723 0.9878
-0.7121 8.4267 -2.1896 0.9657
-2.8250 7.6916 -2.1216 0.9667
-4.3687 7.4485 -2.2358 0.9649
-4.9454 6.9320 -2.2048 0.9654
-5.4637 6.3707 -2.1730 0.9659
-5.9209 5.7720 -2.1409 0.9664
-6.3155 5.1430 -2.1088 0.9669
-6.9144 3.8222 -2.0456 0.9679
-7.3711 1.0994 -1.9296 0.9697
-7.3403 0.4323 -1.9038 0.9701
-7.1210 -0.8560 -1.8570 0.9708
-6.9375 -1.4704 -1.8361 0.9711
-6.4362 -2.6255 -1.7998 0.9717
-5.3887 -4.1392 -1.7593 0.9723
-4.9711 -4.5778 -1.7497 0.9725
-4.0485 -5.3465 -1.7364 0.9727
-3.0257 -5.9617 -1.7310 0.9728
-1.9221 -6.4134 -1.7335 0.9727
0.4471 -6.7918 -1.7623 0.9723
1.0577 -6.7711 -1.7744 0.9721
2.2807 -6.5851 -1.8044 0.9716
2.8866 -6.4182 -1.8221 0.9713
4.0695 -5.9343 -1.8631 0.9707
4.6389 -5.6168 -1.8861 0.9703
5.1879 -5.2488 -1.9108 0.9700
5.7122 -4.8309 -1.9370 0.9696
6.2071 -4.3640 -1.9646 0.9691
6.6677 -3.8491 -1.9934 0.9687
7.2061 -1.8851 -1.9286 0.9697
7.6546 -0.5936 -1.9879 0.9688
7.8700 1.5159 -2.0752 0.9674
6.1626 4.5543 -1.9841 0.9688
5.2396 5.5581 -1.9777 0.9689
4.6681 5.9325 -1.9545 0.9693
2.9686 7.0412 -1.9785 0.9689
2.1207 6.6260 -1.8013 0.9717
1.1264 8.5295 -2.2276 0.9651
0.3596 8.5434 -2.2140 0.9653
-0.1456 3.0842 -0.7995 0.9873
-3.1984 7.4799 -2.1063 0.9669
-4.1122 7.6486 -2.2484 0.9648
-5.2552 6.6093 -2.1863 0.9657
-6.5165 4.7647 -2.0901 0.9672
-6.8106 4.1021 -2.0585 0.9677
-7.0416 3.4266 -2.0276 0.9682
-7.2104 2.7442 -1.9975 0.9686
-7.3675 1.3803 -1.9408 0.9695
-7.3598 0.7085 -1.9144 0.9699
-7.1832 -0.5939 -1.8662 0.9707
-7.0195 -1.2174 -1.8446 0.9710
-6.8091 -1.8183 -1.8248 0.9713
-6.5545 -2.3939 -1.8067 0.9716
-6.2586 -2.9419 -1.7906 0.9718
-5.1487 -4.3995 -1.7535 0.9724
-4.7133 -4.8174 -1.7450 0.9725
-4.2494 -5.1989 -1.7385 0.9726
-3.7594 -5.5424 -1.7340 0.9727
-3.2458 -5.8468 -1.7315 0.9727
-2.1575 -6.3333 -1.7323 0.9727
-0.4093 -6.7408 -1.7485 0.9725
0.1941 -6.7865 -1.7579 0.9723
2.0269 -6.6399 -1.7975 0.9717
2.6352 -6.4937 -1.8145 0.9715
3.2367 -6.2978 -1.8334 0.9712
3.8276 -6.0517 -1.8540 0.9708
4.4041 -5.7551 -1.8763 0.9705
4.9621 -5.4081 -1.9004 0.9701
5.4973 -5.0109 -1.9259 0.9697
6.9188 -3.5272 -2.0108 0.9684
6.7638 -2.7190 -1.8875 0.9703
7.7420 -0.1960 -2.0052 0.9685
7.8761 1.2157 -2.0634 0.9676
7.7344 2.6631 -2.1180 0.9668
7.5546 3.3812 -2.1430 0.9664
6.0821 5.0047 -2.0394 0.9680
3.7767 6.5149 -1.9498 0.9694
2.6260 7.2638 -1.9999 0.9686
1.7873 6.7822 -1.8160 0.9714
0.6785 8.5475 -2.2201 0.9652
-0.8367 8.4026 -2.1864 0.9657
-2.2684 7.9571 -2.1423 0.9664
-3.8447 7.8354 -2.2598 0.9646
-5.9914 5.6685 -2.1355 0.9665
-6.6959 4.3798 -2.0716 0.9675
-7.1476 3.0287 -2.0099 0.9684
-7.2808 2.3448 -1.9805 0.9689
-7.3541 1.6626 -1.9522 0.9693
-7.3698 0.9868 -1.9252 0.9697
-7.3299 0.3218 -1.8997 0.9701
-7.2370 -0.3284 -1.8757 0.9705
-7.0935 -0.9604 -1.8534 0.9709
-6.9022 -1.5711 -1.8328 0.9712
-6.3866 -2.7173 -1.7971 0.9717
-5.7117 -3.7480 -1.7688 0.9722
-5.3209 -4.2151 -1.7576 0.9723
-3.4623 -5.7249 -1.7323 0.9727
-2.3900 -6.2458 -1.7315 0.9727
1.1603 -6.7630 -1.7766 0.9720
1.7725 -6.6862 -1.7910 0.9718
2.3827 -6.5606 -1.8072 0.9716
2.9874 -6.3854 -1.8253 0.9713
3.5832 -6.1602 -1.8452 0.9710
4.7324 -5.5586 -1.8902 0.9703
6.7412 -3.7583 -1.9984 0.9686
6.9576 -2.3842 -1.9043 0.9701
4.2913 -0.6559 -1.1240 0.9822
7.8082 0.2092 -2.0224 0.9682
7.8642 1.6371 -2.0798 0.9674
7.7876 2.3619 -2.1070 0.9669
6.1636 4.6991 -2.0068 0.9685
5.7286 5.2371 -2.0096 0.9684
5.1428 5.6216 -1.9727 0.9690
4.5734 5.9945 -1.9522 0.9693
4.0109 6.3621 -1.9473 0.9694
2.8710 7.1046 -1.9840 0.9688
0.9978 8.5375 -2.2256 0.9651
0.2316 8.5379 -2.2114 0.9653
-0.5260 8.4585 -2.1943 0.9656
-1.2661 8.3023 -2.1745 0.9659
-1.9804 8.0730 -2.1522 0.9662
-3.3029 7.4154 -2.1018 0.9670
-4.2166 7.5692 -2.2434 0.9648
-4.8073 7.0649 -2.2126 0.9653
-6.2232 5.3019 -2.1168 0.9668
-6.5702 4.6549 -2.0848 0.9673
-6.8537 3.9897 -2.0533 0.9678
-7.3531 0.5971 -1.9101 0.9700
-6.7694 -1.9165 -1.8216 0.9713
-6.2052 -3.0308 -1.7880 0.9719
-4.6375 -4.8839 -1.7438 0.9726
-3.6749 -5.5962 -1.7334 0.9727
-3.1576 -5.8939 -1.7312 0.9728
-2.6195 -6.1510 -1.7310 0.9728
-1.4908 -6.5391 -1.7365 0.9727
-0.9051 -6.6679 -1.7423 0.9726
-0.3087 -6.7517 -1.7500 0.9725
0.9056 -6.7807 -1.7712 0.9721
2.1292 -6.6189 -1.8002 0.9717
2.7366 -6.4644 -1.8175 0.9714
3.9253 -6.0055 -1.8576 0.9708
4.4990 -5.7004 -1.8803 0.9704
5.5844 -4.9395 -1.9303 0.9697
6.0870 -4.4846 -1.9576 0.9692
6.9816 -3.4287 -2.0139 0.9684
6.8210 -2.6243 -1.8923 0.9703
7.7632 -0.0804 -2.0101 0.9684
7.8524 0.6206 -2.0395 0.9680
7.8751 1.3364 -2.0682 0.9675
7.8282 2.0601 -2.0959 0.9671
7.5172 3.5003 -2.1470 0.9663
7.1612 4.1481 -2.1428 0.9664
5.9796 5.0721 -2.0302 0.9681
2.9222 3.5488 -1.1903 0.9812
4.2447 6.2094 -1.9475 0.9694
3.1124 6.9476 -1.9711 0.9690
1.3171 8.5134 -2.2305 0.9650
0.5500 8.5475 -2.2177 0.9652
-0.0745 2.9848 -0.7731 0.9877
-2.3825 7.9073 -2.1382 0.9665
-3.0412 7.5725 -2.1129 0.9668
-5.1257 6.7485 -2.1942 0.9656
-6.0601 5.5642 -2.1302 0.9666
-6.4335 4.9268 -2.0981 0.9671
-7.1742 2.9142 -2.0049 0.9685
-7.2972 2.2303 -1.9756 0.9690
3.9658 -5.3461 -1.8844 0.9727
4.4781 -5.0294 -1.9064 0.9724
5.8678 -3.8079 -1.9803 0.9713
7.0181 -0.2827 -1.9884 0.9712
7.1092 0.3484 -2.0150 0.9708
7.0168 2.2993 -2.0903 0.9698
6.6325 3.5814 -2.1339 0.9692
5.5601 5.3143 -2.1774 0.9685
3.3012 6.8154 -2.1438 0.9690
1.8726 6.6978 -1.9688 0.9715
1.4156 7.6324 -2.1975 0.9682
0.0147 2.9804 -0.8437 0.9877
-1.3051 7.4455 -2.1399 0.9691
-1.9448 7.2303 -2.1196 0.9694
-3.9599 6.7516 -2.2158 0.9680
-4.4885 6.2916 -2.1879 0.9684
-4.9655 5.7898 -2.1593 0.9688
-5.3883 5.2527 -2.1303 0.9692
-6.0651 4.0979 -2.0722 0.9700
-6.6529 2.2529 -1.9884 0.9712
-6.7681 1.0095 -1.9372 0.9720
-6.6767 -0.2030 -1.8910 0.9726
-6.5586 -0.7884 -1.8701 0.9729
-6.1891 -1.9016 -1.8329 0.9734
-5.9424 -2.4241 -1.8168 0.9737
-5.6577 -2.9207 -1.8025 0.9739
-4.5995 -4.2356 -1.7701 0.9743
-3.2855 -5.2536 -1.7542 0.9746
-2.8017 -5.5204 -1.7526 0.9746
-2.2990 -5.7490 -1.7528 0.9746
-1.7797 -5.9382 -1.7549 0.9746
0.4134 -6.2808 -1.7819 0.9742
1.5426 -6.1912 -1.8063 0.9738
2.1053 -6.0787 -1.8211 0.9736
2.6626 -5.9202 -1.8377 0.9734
4.7673 -4.8233 -1.9198 0.9722
5.6909 -4.0010 -1.9694 0.9715
6.3055 -2.2666 -1.8969 0.9725
6.5731 -1.7195 -1.9234 0.9721
4.2637 -0.7171 -1.2240 0.9822
6.9634 -0.5400 -1.9772 0.9714
7.0783 0.0837 -2.0040 0.9710
7.1352 0.7235 -2.0303 0.9706
7.1311 1.3736 -2.0559 0.9703
6.9317 2.6786 -2.1037 0.9696
6.4711 3.9426 -2.1452 0.9690
6.0676 4.4840 -2.1358 0.9691
5.7549 5.1054 -2.1779 0.9685
4.6632 5.9264 -2.1348 0.9691
4.1008 6.2941 -2.1266 0.9693
2.1189 6.6203 -1.9678 0.9715
1.7007 7.5865 -2.2010 0.9682
1.0137 7.6758 -2.1918 0.9683
-1.6818 7.3274 -2.1283 0.9692
-2.3047 7.0765 -2.1069 0.9695
-2.8941 6.7681 -2.0838 0.9699
-4.2746 6.4885 -2.1996 0.9682
-4.7734 6.0033 -2.1713 0.9686
-5.9430 4.3454 -2.0842 0.9699
-6.2195 3.7461 -2.0554 0.9703
-6.4388 3.1333 -2.0272 0.9707
-6.6016 2.5124 -1.9996 0.9711
-6.7621 0.6510 -1.9232 0.9722
-6.7120 0.0452 -1.9002 0.9725
-6.6134 -0.5468 -1.8786 0.9728
-6.4686 -1.1218 -1.8586 0.9731
-6.2800 -1.6770 -1.8401 0.9733
-6.0499 -2.2096 -1.8233 0.9736
-5.7807 -2.7173 -1.8083 0.9738
-5.4749 -3.1978 -1.7949 0.9740
-4.7631 -4.0700 -1.7736 0.9743
-4.3619 -4.4582 -1.7657 0.9744
-3.9337 -4.8126 -1.7596 0.9745
-3.0056 -5.4140 -1.7530 0.9746
-1.9977 -5.8643 -1.7538 0.9746
-1.4699 -6.0300 -1.7570 0.9745
-0.3787 -6.2373 -1.7690 0.9744
0.1795 -6.2771 -1.7777 0.9742
0.7425 -6.2731 -1.7883 0.9741
1.8716 -6.1311 -1.8147 0.9737
2.9841 -5.8063 -1.8481 0.9732
3.5258 -5.5745 -1.8673 0.9730
4.0530 -5.2963 -1.8880 0.9727
4.5619 -4.9718 -1.9102 0.9723
5.0484 -4.6017 -1.9338 0.9720
5.5083 -4.1867 -1.9587 0.9716
6.3311 -3.2276 -2.0117 0.9709
6.2266 -2.5031 -1.8998 0.9725
6.8992 -0.7937 -1.9660 0.9715
7.0374 -0.1781 -1.9929 0.9712
7.1404 1.1022 -2.0453 0.9704
7.0996 1.7553 -2.0704 0.9701
6.5884 3.6859 -2.1372 0.9691
6.2878 4.2952 -2.1557 0.9688
5.4763 5.3933 -2.1759 0.9686
3.7728 6.5082 -2.1296 0.9692
3.2054 6.8778 -2.1481 0.9689
2.6232 7.2561 -2.1843 0.9684
1.7853 6.7747 -1.9833 0.9713
1.3004 7.6473 -2.1960 0.9683
0.6108 7.6945 -2.1851 0.9684
-0.7544 7.5756 -2.1552 0.9688
-1.4141 7.4138 -2.1366 0.9691
-2.6532 6.9031 -2.0936 0.9697
-4.0520 6.6777 -2.2112 0.9681
-4.5721 6.2102 -2.1831 0.9684
-5.0401 5.7021 -2.1544 0.9689
-5.4537 5.1598 -2.1254 0.9693
-5.8110 4.5895 -2.0963 0.9697
-6.1114 3.9975 -2.0673 0.9701
-6.7461 1.5251 -1.9580 0.9717
-6.7682 0.9063 -1.9331 0.9720
-6.7388 0.2959 -1.9096 0.9723
-6.6602 -0.3022 -1.8874 0.9727
-6.5344 -0.8847 -1.8667 0.9730
-6.3637 -1.4485 -1.8476 0.9732
-5.8973 -2.5091 -1.8143 0.9737
-5.6065 -3.0012 -1.8003 0.9739
-4.1150 -4.6693 -1.7619 0.9745
-3.6721 -5.0032 -1.7569 0.9745
-2.7188 -5.5614 -1.7525 0.9746
-2.2131 -5.7835 -1.7530 0.9746
-1.1557 -6.1078 -1.7598 0.9745
1.0723 -6.2503 -1.7953 0.9740
1.6371 -6.1756 -1.8086 0.9738
2.1992 -6.0553 -1.8238 0.9736
2.7552 -5.8891 -1.8406 0.9733
3.3019 -5.6766 -1.8591 0.9731
3.8356 -5.4177 -1.8792 0.9728
4.8489 -4.7613 -1.9238 0.9721
6.5262 -2.9094 -2.0228 0.9707
6.3535 -2.1772 -1.9013 0.9725
6.6135 -1.6248 -1.9279 0.9721
7.0920 0.1900 -2.0084 0.9709
7.1389 0.8319 -2.0346 0.9706
7.1243 1.4831 -2.0601 0.9702
6.9032 2.7869 -2.1075 0.9695
6.4207 4.0448 -2.1483 0.9689
6.0074 4.5800 -2.1385 0.9691
4.5686 5.9883 -2.1323 0.9692
3.4428 6.7232 -2.1383 0.9691
2.8680 7.0972 -2.1670 0.9687
-2.4059 7.0287 -2.1031 0.9696
-2.9892 6.7111 -2.0798 0.9699
-3.8208 6.8588 -2.2226 0.9679
-5.2883 5.3893 -2.1375 0.9691
-6.4700 3.0297 -2.0225 0.9707
-6.6234 2.4080 -1.9951 0.9711
-6.7653 1.1630 -1.9433 0.9719
-6.7572 0.5487 -1.9192 0.9722
-6.4400 -1.2163 -1.8554 0.9731
-6.2443 -1.7679 -1.8372 0.9734
-6.0074 -2.2965 -1.8207 0.9736
-4.6979 -4.1374 -1.7722 0.9743
-4.2920 -4.5200 -1.7645 0.9744
-3.8594 -4.8685 -1.7588 0.9745
-1.3801 -6.0537 -1.7577 0.9745
-0.8377 -6.1714 -1.7631 0.9744
0.8371 -6.2681 -1.7902 0.9741
1.4022 -6.2122 -1.8029 0.9739
1.9658 -6.1109 -1.8173 0.9737
3.0757 -5.7707 -1.8512 0.9732
4.6450 -4.9130 -1.9140 0.9723
5.5825 -4.1129 -1.9630 0.9716
6.2321 -2.3977 -1.8903 0.9726
6.5108 -1.8585 -1.9168 0.9722
6.7435 -1.2886 -1.9436 0.9719
7.1380 1.2113 -2.0496 0.9704
6.9707 2.5173 -2.0981 0.9697
6.7894 3.1614 -2.1202 0.9693
6.1922 4.3671 -2.1451 0.9690
5.8572 4.9684 -2.1743 0.9686
4.1518 4.2128 -1.6744 0.9757
2.9233 3.5501 -1.3019 0.9811
4.2404 6.2030 -2.1271 0.9692
3.6784 6.5698 -2.1315 0.9692
3.1092 6.9404 -2.1529 0.9689
1.7164 6.9320 -2.0216 0.9707
1.1851 7.6603 -2.1944 0.9683
-0.8663 7.5531 -2.1523 0.9689
-2.7509 6.8499 -2.0897 0.9698
-3.5754 7.0192 -2.2300 0.9678
-4.1426 6.6025 -2.2066 0.9681
-5.1133 5.6135 -2.1496 0.9689
-5.5175 5.0660 -2.1205 0.9693
-5.8654 4.4917 -2.0914 0.9698
-6.3896 3.2866 -2.0341 0.9706
5.7722 -3.0522 -2.0083 0.9730
6.1230 -1.3610 -1.9293 0.9741
4.2691 -0.5559 -1.3241 0.9821
6.4270 -0.2589 -1.9784 0.9734
6.5031 0.3187 -2.0026 0.9731
6.3982 2.0966 -2.0709 0.9722
6.2469 2.6846 -2.0913 0.9719
6.0367 3.2597 -2.1102 0.9717
5.4432 4.3441 -2.1420 0.9713
5.0640 4.8402 -2.1546 0.9711
4.6342 5.2969 -2.1647 0.9710
4.1580 5.7084 -2.1722 0.9709
3.6406 6.0693 -2.1769 0.9708
2.5064 6.6219 -2.1778 0.9708
1.2850 6.9282 -2.1673 0.9709
-4.1044 5.7532 -2.1737 0.9709
-4.5457 5.3003 -2.1477 0.9712
-4.9383 4.8141 -2.1212 0.9716
-5.2806 4.3003 -2.0946 0.9719
-5.9965 2.6473 -2.0161 0.9729
-6.1314 2.0763 -1.9911 0.9733
-6.2156 1.5032 -1.9669 0.9736
-6.2503 0.9322 -1.9437 0.9739
-6.2369 0.3673 -1.9216 0.9742
-6.0729 -0.7300 -1.8813 0.9747
-5.7392 -1.7633 -1.8467 0.9752
-5.5140 -2.2493 -1.8317 0.9754
-5.2528 -2.7116 -1.8182 0.9756
-4.9579 -3.1484 -1.8064 0.9757
-4.6315 -3.5576 -1.7963 0.9759
-3.8932 -4.2867 -1.7811 0.9761
-1.6555 -5.5236 -1.7736 0.9762
-1.1591 -5.6610 -1.7773 0.9761
-0.1367 -5.8181 -1.7900 0.9759
1.4320 -5.7473 -1.8218 0.9755
1.9532 -5.6394 -1.8357 0.9753
2.4686 -5.4888 -1.8511 0.9751
3.9470 -4.7791 -1.9064 0.9744
4.4056 -4.4573 -1.9276 0.9741
5.6256 -3.2475 -1.9979 0.9732
5.9613 -2.7652 -2.0212 0.9729
6.0361 -1.5790 -1.9191 0.9742
6.3799 -0.4948 -1.9682 0.9736
6.5227 0.6614 -2.0165 0.9729
6.4437 1.8496 -2.0620 0.9723
6.3170 2.4411 -2.0830 0.9721
5.2282 4.6381 -2.1497 0.9712
4.8190 5.1120 -2.1608 0.9710
4.3615 5.5430 -2.1694 0.9709
3.3219 6.2548 -2.1783 0.9708
2.7515 6.5265 -2.1785 0.9708
2.1171 6.6147 -2.1362 0.9714
1.5435 6.8855 -2.1704 0.9709
0.9203 6.9692 -2.1622 0.9710
-0.3277 6.9438 -2.1381 0.9713
-2.1000 6.4481 -2.0858 0.9720
-3.3952 6.3150 -2.2053 0.9704
-3.9070 5.9305 -2.1844 0.9707
-4.7809 5.0202 -2.1323 0.9714
-5.1444 4.5172 -2.1057 0.9718
-5.9252 2.8833 -2.0268 0.9728
-6.0815 2.3145 -2.0014 0.9731
-6.1867 1.7417 -1.9769 0.9735
-6.2482 0.6015 -1.9307 0.9741
-5.8218 -1.5546 -1.8534 0.9751
-5.6122 -2.0498 -1.8377 0.9753
-5.3657 -2.5222 -1.8236 0.9755
-5.0846 -2.9698 -1.8111 0.9757
-4.7710 -3.3907 -1.8003 0.9758
-4.0556 -4.1452 -1.7837 0.9760
-3.6583 -4.4757 -1.7780 0.9761
-2.7959 -5.0364 -1.7718 0.9762
-2.3354 -5.2640 -1.7713 0.9762
-1.8583 -5.4551 -1.7726 0.9762
-0.8642 -5.7233 -1.7803 0.9761
0.1668 -5.8335 -1.7950 0.9759
1.2141 -5.7796 -1.8165 0.9756
2.2550 -5.5567 -1.8445 0.9752
2.7655 -5.3810 -1.8609 0.9750
3.7502 -4.9006 -1.8980 0.9745
5.4728 -3.4364 -1.9876 0.9733
5.8295 -2.9719 -2.0126 0.9730
6.1558 -1.2720 -1.9334 0.9740
6.5107 0.4167 -2.0066 0.9731
6.5233 1.0069 -2.0302 0.9728
6.3769 2.1957 -2.0744 0.9722
6.2158 2.7820 -2.0946 0.9719
5.9958 3.3543 -2.1131 0.9717
5.7177 3.9058 -2.1298 0.9714
5.3833 4.4297 -2.1443 0.9712
4.0740 5.7725 -2.1732 0.9709
2.9924 6.4206 -2.1788 0.9708
2.4067 6.6572 -2.1773 0.9708
1.7833 6.7671 -2.1525 0.9711
1.1805 6.9422 -2.1659 0.9710
-0.6860 6.8889 -2.1294 0.9714
-1.2870 6.7470 -2.1127 0.9717
-4.6149 5.2210 -2.1433 0.9713
-5.6149 3.6727 -2.0637 0.9723
-5.8448 3.1177 -2.0375 0.9727
-6.0227 2.5520 -2.0119 0.9730
-6.2300 0.2735 -1.9181 0.9742
-5.8976 -1.3424 -1.8604 0.9750
-5.7041 -1.8463 -1.8441 0.9752
-5.4727 -2.3284 -1.8293 0.9754
-5.2057 -2.7867 -1.8161 0.9756
-4.9053 -3.2189 -1.8046 0.9757
-3.4155 -4.6535 -1.7755 0.9761
-2.5292 -5.1737 -1.7713 0.9762
-2.0587 -5.3801 -1.7718 0.9762
-1.5731 -5.5493 -1.7741 0.9762
-0.0498 -5.8239 -1.7914 0.9759
0.4718 -5.8350 -1.8006 0.9758
0.9958 -5.8046 -1.8115 0.9757
1.5196 -5.7321 -1.8240 0.9755
2.0400 -5.6172 -1.8381 0.9753
2.5541 -5.4594 -1.8539 0.9751
4.9112 -4.0291 -1.9539 0.9738
5.3142 -3.6187 -1.9775 0.9735
6.4000 -0.4002 -1.9723 0.9735
6.4892 0.1738 -1.9966 0.9732
6.4266 1.9491 -2.0656 0.9723
6.0945 3.1183 -2.1056 0.9718
5.8404 3.6792 -2.1231 0.9715
5.1632 4.7203 -2.1517 0.9711
3.7728 5.9845 -2.1760 0.9708
3.2284 6.3044 -2.1786 0.9708
2.0112 6.6233 -2.1290 0.9714
1.4397 6.9040 -2.1692 0.9709
0.8154 6.9769 -2.1606 0.9710
0.1895 6.9853 -2.1493 0.9712
-4.8453 4.9378 -2.1278 0.9715
-5.2003 4.4304 -2.1012 0.9718
-5.5039 3.8994 -2.0747 0.9722
-5.7555 3.3503 -2.0483 0.9725
-5.9549 2.7885 -2.0225 0.9729
-6.1994 1.6457 -1.9728 0.9735
-6.1029 -0.5965 -1.8861 0.9747
-5.9666 -1.1269 -1.8676 0.9749
-5.7894 -1.6391 -1.8507 0.9751
-5.5734 -2.1305 -1.8352 0.9753
-5.3210 -2.5990 -1.8214 0.9755
-5.0342 -3.0423 -1.8092 0.9757
-4.7155 -3.4585 -1.7986 0.9758
-4.3669 -3.8459 -1.7898 0.9759
-1.2836 -5.6305 -1.7762 0.9761
-0.7790 -5.7387 -1.7813 0.9761
0.7776 -5.8223 -1.8067 0.9757
1.3018 -5.7674 -1.8186 0.9756
1.8240 -5.6702 -1.8321 0.9754
5.8078 -2.2345 -1.9140 0.9743
5.9806 -1.7071 -1.9130 0.9743
4.3442 -0.8301 -1.3604 0.9817
6.3476 -0.6343 -1.9621 0.9737
6.5167 0.5150 -2.0106 0.9730
6.3541 2.2947 -2.0779 0.9721
6.1830 2.8791 -2.0978 0.9719
5.9532 3.4483 -2.1161 0.9716
2.9258 3.5533 -1.4157 0.9809
3.9889 5.8352 -2.1741 0.9709
2.8960 6.4645 -2.1787 0.9708
1.6972 6.8547 -2.1720 0.9709
0.4498 6.9896 -2.1543 0.9711
-0.7879 6.8693 -2.1267 0.9715
-4.6828 5.1408 -2.1389 0.9713
-5.6571 3.5807 -2.0593 0.9724
-6.0474 2.4565 -2.0077 0.9731
-6.1652 1.8843 -1.9829 0.9734
3.4120 -4.5995 -1.9037 0.9761
3.8464 -4.3200 -1.9227 0.9759
4.2604 -4.0017 -1.9429 0.9757
5.0128 -3.2530 -1.9864 0.9751
5.3439 -2.8257 -2.0094 0.9748
5.6271 -2.3604 -2.0284 0.9746
5.4532 -1.7345 -1.9022 0.9762
5.9213 -0.2385 -1.9699 0.9753
5.9857 0.2934 -1.9921 0.9751
6.0002 0.8346 -2.0137 0.9748
5.9631 1.3801 -2.0346 0.9745
5.8732 1.9245 -2.0544 0.9743
5.7297 2.4623 -2.0730 0.9741
4.6331 4.4283 -2.1304 0.9733
4.2381 4.8443 -2.1395 0.9732
3.8015 5.2190 -2.1463 0.9732
1.7398 6.2229 -2.1478 0.9731
1.1751 6.3355 -2.1419 0.9732
-0.5344 6.3248 -2.1099 0.9736
-1.6241 6.0381 -2.0784 0.9740
-2.1369 5.8181 -2.0603 0.9742
-2.6218 5.5515 -2.0408 0.9745
-3.3226 5.6650 -2.1831 0.9727
-3.7768 5.2939 -2.1616 0.9730
-4.5529 4.4383 -2.1135 0.9736
-4.8732 3.9685 -2.0890 0.9739
-5.1465 3.4773 -2.0646 0.9742
-5.5499 2.4502 -2.0166 0.9748
-5.8003 0.8651 -1.9494 0.9756
-5.7926 0.3412 -1.9288 0.9758
-5.5160 -1.1691 -1.8743 0.9765
-5.3452 -1.6423 -1.8587 0.9767
-4.8974 -2.5282 -1.8320 0.9770
-4.6244 -2.9366 -1.8209 0.9772
-4.3216 -3.3196 -1.8114 0.9773
-3.9910 -3.6753 -1.8035 0.9774
-3.6348 -4.0022 -1.7971 0.9775
-3.2552 -4.2989 -1.7924 0.9775
-2.4343 -4.7964 -1.7879 0.9776
-1.9974 -4.9949 -1.7882 0.9776
-1.5460 -5.1584 -1.7900 0.9776
-0.6087 -5.3769 -1.7987 0.9774
-0.1276 -5.4301 -1.8055 0.9774
0.3584 -5.4451 -1.8139 0.9773
3.6679 -4.4411 -1.9146 0.9760
4.0908 -4.1388 -1.9344 0.9758
4.4912 -3.7983 -1.9552 0.9755
4.8656 -3.4208 -1.9771 0.9752
5.3586 -1.9263 -1.8928 0.9763
5.5744 -1.4582 -1.9153 0.9760
6.0004 0.6085 -2.0048 0.9749
5.9171 1.6984 -2.0463 0.9744
5.7959 2.2397 -2.0654 0.9741
5.6212 2.7708 -2.0832 0.9739
5.3934 3.2860 -2.0993 0.9737
5.1137 3.7791 -2.1136 0.9736
4.7843 4.2443 -2.1259 0.9734
3.9880 5.0684 -2.1438 0.9732
1.9712 6.1590 -2.1496 0.9731
1.4113 6.2957 -2.1447 0.9732
0.2692 6.3946 -2.1275 0.9734
-0.3000 6.3571 -2.1155 0.9735
-0.8596 6.2632 -2.1014 0.9737
-3.5937 5.4550 -2.1714 0.9728
-4.4060 4.6264 -2.1237 0.9734
-5.0385 3.6840 -2.0748 0.9740
-5.7342 1.6144 -1.9802 0.9752
-5.7903 1.0848 -1.9582 0.9755
-5.7679 0.0389 -1.9173 0.9760
-5.6923 -0.4706 -1.8986 0.9762
-5.5760 -0.9670 -1.8812 0.9764
-4.7418 -2.7696 -1.8254 0.9771
-4.1319 -3.5306 -1.8066 0.9774
-3.0236 -4.4576 -1.7904 0.9776
-2.6113 -4.7037 -1.7883 0.9776
-1.7355 -5.0946 -1.7891 0.9776
0.1557 -5.4435 -1.8102 0.9773
2.1003 -5.1757 -1.8567 0.9767
2.5743 -5.0089 -1.8720 0.9765
3.4861 -4.5554 -1.9068 0.9761
3.9173 -4.2694 -1.9260 0.9759
4.3275 -3.9446 -1.9464 0.9756
5.0705 -3.1838 -1.9902 0.9751
5.3960 -2.7509 -2.0133 0.9748
5.6816 -1.1740 -1.9285 0.9758
4.2809 -0.4925 -1.4324 0.9820
5.9355 -0.1502 -1.9736 0.9753
5.9917 0.3835 -1.9957 0.9750
5.9977 0.9258 -2.0173 0.9747
5.8528 2.0153 -2.0576 0.9742
5.7004 2.5514 -2.0760 0.9740
5.4946 3.0739 -2.0928 0.9738
5.2363 3.5769 -2.1079 0.9736
4.9273 4.0544 -2.1211 0.9735
2.9979 3.5318 -1.5399 0.9807
3.2453 5.5983 -2.1510 0.9731
2.7351 5.8687 -2.1522 0.9731
2.1999 6.0853 -2.1509 0.9731
0.5075 6.3932 -2.1318 0.9733
-0.0297 2.9647 -0.9855 0.9876
-1.1794 6.1832 -2.0924 0.9738
-1.7118 6.0046 -2.0755 0.9740
-3.8484 5.2273 -2.1577 0.9730
-4.2512 4.8096 -2.1337 0.9733
-4.6097 4.3613 -2.1094 0.9736
-4.9223 3.8876 -2.0849 0.9739
-5.1876 3.3933 -2.0605 0.9742
-5.4052 2.8833 -2.0364 0.9745
-5.5750 2.3623 -2.0127 0.9748
-5.7726 1.3050 -1.9673 0.9754
-5.7870 0.2541 -1.9255 0.9759
-5.7288 -0.2600 -1.9063 0.9761
-5.3130 -1.7197 -1.8563 0.9767
-3.9331 -3.7321 -1.8023 0.9774
-3.5728 -4.0540 -1.7962 0.9775
-3.1894 -4.3455 -1.7918 0.9775
-2.7852 -4.6053 -1.7890 0.9776
-1.4691 -5.1823 -1.7905 0.9776
-0.5286 -5.3884 -1.7997 0.9774
-0.0465 -5.4353 -1.8068 0.9773
0.4402 -5.4438 -1.8154 0.9772
1.4165 -5.3431 -1.8374 0.9770
1.9006 -5.2332 -1.8507 0.9768
3.3012 -4.6629 -1.8991 0.9762
3.7402 -4.3932 -1.9179 0.9760
4.5559 -3.7376 -1.9588 0.9755
4.9255 -3.3540 -1.9808 0.9752
5.2647 -2.9351 -2.0036 0.9749
5.5634 -2.4802 -2.0247 0.9747
5.3975 -1.8496 -1.8966 0.9762
5.6066 -1.3774 -1.9191 0.9760
4.1909 -0.6406 -1.4093 0.9823
5.8978 -0.3688 -1.9643 0.9754
6.0014 0.6994 -2.0084 0.9749
5.9773 1.2443 -2.0295 0.9746
5.7704 2.3295 -2.0685 0.9741
5.3501 3.3703 -2.1019 0.9737
5.0619 3.8592 -2.1158 0.9735
4.3404 4.7445 -2.1375 0.9733
3.9138 5.1299 -2.1448 0.9732
3.4489 5.4707 -2.1497 0.9731
2.9509 5.7625 -2.1520 0.9731
2.4253 6.0018 -2.1518 0.9731
1.8784 6.1859 -2.1489 0.9731
0.1734 6.3923 -2.1256 0.9734
-2.0118 5.8773 -2.0649 0.9742
-4.0888 4.9874 -2.1438 0.9732
-4.4660 4.5513 -2.1196 0.9735
-4.7979 4.0875 -2.0951 0.9738
-5.0830 3.6012 -2.0707 0.9741
-5.5101 2.5802 -2.0225 0.9747
-5.6521 2.0549 -1.9991 0.9750
-5.7953 0.9963 -1.9546 0.9755
-5.7986 0.4708 -1.9338 0.9758
-5.7582 -0.0473 -1.9141 0.9760
-5.6756 -0.5548 -1.8956 0.9762
-5.5526 -1.0487 -1.8784 0.9765
-5.3911 -1.5263 -1.8625 0.9767
-5.1930 -1.9851 -1.8480 0.9768
-4.6952 -2.8374 -1.8236 0.9771
-4.3996 -3.2268 -1.8136 0.9773
-3.7257 -3.9237 -1.7986 0.9775
-3.3517 -4.2280 -1.7934 0.9775
-2.9558 -4.5011 -1.7900 0.9776
-2.5404 -4.7417 -1.7881 0.9776
-2.1075 -4.9487 -1.7879 0.9776
-1.1986 -5.2577 -1.7925 0.9775
-0.7273 -5.3578 -1.7973 0.9775
0.7253 -5.4307 -1.8212 0.9772
1.2137 -5.3771 -1.8324 0.9770
1.6997 -5.2838 -1.8450 0.9769
2.1804 -5.1505 -1.8592 0.9767
2.6527 -4.9771 -1.8747 0.9765
3.1135 -4.7636 -1.8917 0.9763
3.5597 -4.5102 -1.9099 0.9761
3.9876 -4.2176 -1.9294 0.9758
5.4472 -2.6751 -2.0172 0.9747
4.3254 -0.8266 -1.4638 0.9816
5.8520 -0.5847 -1.9549 0.9755
5.9483 -0.0616 -1.9774 0.9752
5.9962 0.4739 -1.9994 0.9750
5.9389 1.5629 -2.0413 0.9744
5.4549 3.1597 -2.0955 0.9738
5.1880 3.6589 -2.1103 0.9736
3.1618 5.6472 -2.1514 0.9731
2.1082 6.1161 -2.1504 0.9731
0.9840 6.3602 -2.1393 0.9732
0.4115 6.3950 -2.1301 0.9733
-0.0743 2.9745 -0.9891 0.9875
-3.4810 5.5480 -2.1771 0.9728
-4.9700 3.8060 -2.0808 0.9740
-5.4370 2.7966 -2.0324 0.9746
-5.5988 2.2743 -2.0087 0.9748
-5.7131 1.7461 -1.9858 0.9751
3.1847 -4.2931 -1.9116 0.9775
3.9712 -3.7300 -1.9483 0.9771
4.6654 -3.0276 -1.9889 0.9767
5.2319 -2.1946 -2.0289 0.9762
5.0627 -1.6103 -1.8999 0.9777
5.2431 -1.1654 -1.9208 0.9774
4.2483 -0.5532 -1.5321 0.9820
5.4834 -0.2209 -1.9625 0.9770
5.5384 0.2714 -1.9829 0.9767
5.5087 1.2749 -2.0220 0.9763
5.4216 1.7766 -2.0402 0.9761
5.2854 2.2714 -2.0573 0.9759
5.1005 2.7542 -2.0729 0.9757
4.8676 3.2194 -2.0870 0.9755
4.2647 4.0762 -2.1097 0.9753
3.8999 4.4576 -2.1180 0.9752
3.0610 5.1030 -2.1280 0.9750
2.5960 5.3594 -2.1296 0.9750
1.6004 5.7244 -2.1256 0.9751
0.5554 5.8811 -2.1125 0.9752
0.0147 2.9734 -1.0633 0.9874
-0.4923 5.8263 -2.0910 0.9755
-1.0030 5.7220 -2.0774 0.9756
-1.4979 5.5688 -2.0622 0.9758
-1.9722 5.3695 -2.0456 0.9760
-2.4215 5.1273 -2.0277 0.9762
-3.0689 5.2324 -2.1692 0.9746
-3.4936 4.8970 -2.1512 0.9748
-4.5192 3.6803 -2.0842 0.9755
-4.7768 3.2275 -2.0616 0.9758
-5.1598 2.2779 -2.0170 0.9763
-5.3666 1.2979 -1.9745 0.9768
-5.2748 -0.6340 -1.8999 0.9777
-4.9970 -1.5353 -1.8694 0.9780
-4.5826 -2.3657 -1.8443 0.9783
-4.0468 -3.1085 -1.8248 0.9786
-3.4054 -3.7496 -1.8113 0.9787
-1.0141 -4.9530 -1.8080 0.9788
-0.5703 -5.0372 -1.8128 0.9787
-0.1195 -5.0859 -1.8192 0.9786
2.1487 -4.7775 -1.8733 0.9780
2.5864 -4.6035 -1.8883 0.9778
3.8142 -3.8590 -1.9403 0.9772
5.1320 -2.3805 -2.0231 0.9763
5.2335 -1.8813 -1.9888 0.9767
5.1727 -1.3531 -1.9120 0.9775
5.4474 -0.4225 -1.9539 0.9771
5.5210 0.0653 -1.9745 0.9768
5.5493 0.5627 -1.9947 0.9766
5.5306 1.0653 -2.0142 0.9764
5.4638 1.5683 -2.0328 0.9761
5.1834 2.5550 -2.0666 0.9757
4.9703 3.0283 -2.0813 0.9756
4.4046 3.9075 -2.1056 0.9753
4.0565 4.3032 -2.1148 0.9752
3.6691 4.6631 -2.1219 0.9751
2.7927 5.2584 -2.1292 0.9750
1.2984 5.7920 -2.1227 0.9751
0.7746 5.8660 -2.1159 0.9752
-0.2763 5.8549 -2.0961 0.9754
-1.2942 5.6383 -2.0687 0.9757
-2.2377 5.2331 -2.0353 0.9761
-2.8785 5.3539 -2.1738 0.9745
-4.3993 3.8629 -2.0936 0.9754
-4.6749 3.4181 -2.0710 0.9757
-4.9068 2.9554 -2.0484 0.9760
-5.3141 -0.4393 -1.9068 0.9776
-5.2086 -0.9033 -1.8905 0.9778
-4.8895 -1.7858 -1.8615 0.9781
-3.5468 -3.6251 -1.8136 0.9787
-2.8334 -4.1772 -1.8050 0.9788
-2.0441 -4.6076 -1.8026 0.9788
-1.6264 -4.7744 -1.8037 0.9788
-1.1963 -4.9077 -1.8064 0.9788
0.1458 -5.0976 -1.8237 0.9786
0.6023 -5.0887 -1.8325 0.9785
2.8364 -4.4846 -1.8976 0.9777
3.2535 -4.2515 -1.9145 0.9775
4.3893 -3.3362 -1.9716 0.9769
5.2696 -1.0889 -1.9243 0.9774
4.2661 -0.4908 -1.5356 0.9819
5.4957 -0.1391 -1.9659 0.9769
5.5431 0.3548 -1.9863 0.9767
5.4975 1.3592 -2.0252 0.9762
5.0648 2.8335 -2.0754 0.9756
4.8240 3.2953 -2.0892 0.9755
4.5371 3.7334 -2.1012 0.9753
2.9921 3.5249 -1.6534 0.9806
3.4264 4.8548 -2.1250 0.9751
2.9850 5.1493 -2.1284 0.9750
2.5156 5.3977 -2.1296 0.9750
2.0235 5.5972 -2.1284 0.9750
1.5141 5.7456 -2.1248 0.9751
0.9934 5.8417 -2.1190 0.9751
0.4671 5.8846 -2.1110 0.9752
-1.5789 5.5386 -2.0595 0.9758
-2.4940 5.0827 -2.0246 0.9762
-3.5604 4.8361 -2.1476 0.9748
-3.9364 4.4533 -2.1255 0.9751
-4.8156 3.1499 -2.0578 0.9759
-5.0219 2.6788 -2.0354 0.9761
-5.1838 2.1966 -2.0133 0.9764
-5.4076 0.7241 -1.9510 0.9771
-5.3974 0.2370 -1.9320 0.9773
-5.3467 -0.2426 -1.9140 0.9775
-5.2571 -0.7118 -1.8971 0.9777
-5.1300 -1.1677 -1.8815 0.9779
-4.2836 -2.8109 -1.8322 0.9785
-3.9969 -3.1663 -1.8235 0.9786
-3.6842 -3.4959 -1.8162 0.9787
-2.9887 -4.0720 -1.8063 0.9788
-1.8019 -4.7090 -1.8031 0.9788
0.4121 -5.0969 -1.8286 0.9785
1.3252 -4.9988 -1.8494 0.9783
1.7773 -4.8937 -1.8619 0.9781
2.6586 -4.5707 -1.8909 0.9778
3.8779 -3.8078 -1.9435 0.9772
4.2442 -3.4819 -1.9632 0.9769
4.5850 -3.1221 -1.9837 0.9767
5.2019 -1.2780 -1.9155 0.9775
5.4628 -0.3416 -1.9573 0.9770
5.4478 1.6522 -2.0358 0.9761
4.9300 3.1057 -2.0836 0.9756
4.6620 3.5543 -2.0964 0.9754
4.3492 3.9761 -2.1073 0.9753
3.1724 5.0321 -2.1273 0.9750
2.7141 5.3000 -2.1294 0.9750
1.7279 5.6902 -2.1266 0.9751
-2.3123 5.1914 -2.0323 0.9761
-2.9557 5.3059 -2.1720 0.9745
-3.3926 4.9858 -2.1566 0.9747
-3.7847 4.6164 -2.1347 0.9750
-4.1373 4.2163 -2.1124 0.9752
-4.9414 2.8765 -2.0447 0.9760
-5.2580 1.9116 -2.0007 0.9765
-5.3726 -0.0441 -1.9214 0.9774
-5.2990 -0.5180 -1.9040 0.9776
-5.0393 -1.4267 -1.8729 0.9780
-3.1405 -3.9616 -1.8079 0.9788
-2.7700 -4.2181 -1.8046 0.9788
-1.9751 -4.6379 -1.8027 0.9788
-1.1232 -4.9266 -1.8070 0.9788
-0.6814 -5.0195 -1.8115 0.9787
0.2221 -5.0987 -1.8250 0.9786
0.6789 -5.0836 -1.8341 0.9784
1.1357 -5.0315 -1.8446 0.9783
2.0383 -4.8149 -1.8698 0.9780
2.4785 -4.6503 -1.8844 0.9779
2.9074 -4.4481 -1.9003 0.9777
3.3218 -4.2089 -1.9174 0.9775
4.0946 -3.6218 -1.9549 0.9770
4.4465 -3.2759 -1.9750 0.9768
5.0642 -2.4870 -2.0176 0.9763
5.3071 -2.0418 -2.0335 0.9761
5.1274 -1.4636 -1.9068 0.9776
4.3050 -0.8227 -1.5674 0.9816
5.5466 0.4384 -1.9897 0.9766
5.5398 0.9401 -2.0094 0.9764
5.4850 1.4434 -2.0282 0.9762
5.0278 2.9123 -2.0778 0.9756
4.4847 3.8041 -2.1030 0.9753
2.9470 3.5789 -1.6579 0.9805
1.4275 5.7654 -2.1240 0.9751
-0.0742 2.9710 -1.0628 0.9875
-0.6649 5.7969 -2.0866 0.9755
-1.1708 5.6760 -2.0725 0.9757
-2.5658 5.0371 -2.0215 0.9763
-3.2183 5.1293 -2.1654 0.9746
-3.9954 4.3863 -2.1218 0.9751
-4.6104 3.5306 -2.0766 0.9756
-5.0521 2.5986 -2.0316 0.9762
-5.3172 1.6251 -1.9883 0.9767
2.9828 -4.0209 -1.9186 0.9788
3.3583 -3.7718 -1.9354 0.9786
4.0492 -3.1743 -1.9717 0.9782
4.3584 -2.8284 -1.9911 0.9780
4.6392 -2.4531 -2.0111 0.9778
4.7194 -1.5011 -1.8978 0.9790
4.2369 -0.5517 -1.6374 0.9819
5.1475 0.2523 -1.9750 0.9782
5.1521 0.7166 -1.9934 0.9780
4.8994 2.1055 -2.0436 0.9774
4.7254 2.5516 -2.0580 0.9773
4.5074 2.9812 -2.0709 0.9771
4.2468 3.3894 -2.0822 0.9770
3.9459 3.7715 -2.0918 0.9769
3.6072 4.1231 -2.0994 0.9768
2.8303 4.7185 -2.1086 0.9767
2.4002 4.9552 -2.1100 0.9767
1.9484 5.1476 -2.1092 0.9767
1.4799 5.2935 -2.1063 0.9767
0.0146 2.9710 -1.1386 0.9874
-0.9291 5.3003 -2.0621 0.9772
-1.3882 5.1612 -2.0482 0.9774
-1.8289 4.9794 -2.0328 0.9775
-2.2469 4.7578 -2.0164 0.9777
-3.6044 4.2027 -2.1217 0.9766
-3.9257 3.8270 -2.1010 0.9768
-4.8158 2.1261 -2.0173 0.9777
-4.9362 1.6716 -1.9972 0.9779
-4.9422 -0.5941 -1.9076 0.9789
-4.8315 -1.0240 -1.8926 0.9791
-4.6867 -1.4400 -1.8789 0.9792
-4.5095 -1.8395 -1.8664 0.9794
-4.3017 -2.2206 -1.8552 0.9795
-4.0649 -2.5813 -1.8453 0.9796
-3.8012 -2.9198 -1.8368 0.9797
-3.5122 -3.2344 -1.8297 0.9798
-2.8668 -3.7859 -1.8199 0.9799
-2.5142 -4.0203 -1.8171 0.9799
-1.7596 -4.4001 -1.8160 0.9799
-1.3618 -4.5436 -1.8177 0.9799
-0.9531 -4.6550 -1.8209 0.9799
-0.5359 -4.7333 -1.8255 0.9798
-0.1123 -4.7780 -1.8315 0.9797
0.3152 -4.7885 -1.8390 0.9797
0.7442 -4.7643 -1.8479 0.9796
2.0150 -4.4803 -1.8826 0.9792
2.8216 -4.1146 -1.9119 0.9789
3.2042 -3.8796 -1.9283 0.9787
4.2330 -2.9760 -1.9829 0.9781
5.0016 -1.7979 -2.0368 0.9775
4.8197 -1.2608 -1.9092 0.9789
4.1295 -0.6945 -1.6047 0.9822
5.0681 -0.3931 -1.9480 0.9785
5.1555 0.5228 -1.9858 0.9780
5.0691 1.4550 -2.0210 0.9777
4.6034 2.8047 -2.0657 0.9772
4.3603 3.2224 -2.0777 0.9770
4.0759 3.6159 -2.0880 0.9769
3.7526 3.9807 -2.0965 0.9768
3.0019 4.6075 -2.1074 0.9767
1.6766 5.2385 -2.1078 0.9767
0.7166 5.4263 -2.0975 0.9768
-1.1991 5.2244 -2.0541 0.9773
-1.6480 5.0601 -2.0394 0.9775
-2.0759 4.8547 -2.0234 0.9776
-3.0870 4.6859 -2.1504 0.9762
-4.0956 3.5963 -2.0887 0.9769
-4.5750 2.7555 -2.0467 0.9774
-4.7536 2.3132 -2.0259 0.9776
-4.8911 1.8615 -2.0055 0.9778
-4.9877 1.4042 -1.9857 0.9780
-5.0602 0.4871 -1.9481 0.9785
-5.0378 0.0340 -1.9306 0.9787
-4.9779 -0.4116 -1.9141 0.9788
-4.8818 -0.8466 -1.8987 0.9790
-4.7510 -1.2687 -1.8845 0.9792
-3.9141 -2.7817 -1.8402 0.9796
-3.6354 -3.1064 -1.8325 0.9797
-2.3003 -4.1436 -1.8162 0.9799
-1.9215 -4.3311 -1.8158 0.9799
-1.1244 -4.6126 -1.8194 0.9799
-0.2892 -4.7635 -1.8288 0.9798
0.1369 -4.7883 -1.8357 0.9797
0.9944 -4.7339 -1.8537 0.9795
1.8419 -4.5387 -1.8771 0.9792
2.2552 -4.3880 -1.8907 0.9791
3.0469 -3.9816 -1.9213 0.9788
3.4195 -3.7268 -1.9383 0.9786
4.9186 -1.9773 -2.0315 0.9775
4.7494 -1.4328 -1.9011 0.9790
4.3469 -0.8982 -1.7010 0.9812
4.2535 -0.4893 -1.6408 0.9818
5.1486 0.7947 -1.9964 0.9779
5.1018 1.2614 -2.0140 0.9777
5.0101 1.7251 -2.0306 0.9776
4.6919 2.6249 -2.0603 0.9772
4.4666 3.0512 -2.0729 0.9771
4.1992 3.4553 -2.0840 0.9770
3.8917 3.8327 -2.0932 0.9769
3.1685 4.4895 -2.1058 0.9767
2.7600 4.7611 -2.1090 0.9767
2.3259 4.9906 -2.1100 0.9767
1.8710 5.1753 -2.1089 0.9767
0.9188 5.4032 -2.1003 0.9768
0.4321 5.4444 -2.0930 0.9769
-0.5359 5.3818 -2.0726 0.9771
-1.9006 4.9450 -2.0302 0.9776
-2.3145 4.7170 -2.0135 0.9777
-2.9183 4.8095 -2.1558 0.9762
-3.9758 3.7616 -2.0974 0.9768
-4.2521 3.3583 -2.0764 0.9771
-4.4885 2.9360 -2.0554 0.9773
-4.6842 2.4987 -2.0345 0.9775
-4.8388 2.0504 -2.0139 0.9777
-5.0581 0.6773 -1.9557 0.9784
-5.0073 -0.2272 -1.9209 0.9788
-4.9261 -0.6670 -1.9050 0.9789
-4.8096 -1.0948 -1.8903 0.9791
-4.6592 -1.5081 -1.8767 0.9792
-4.0226 -2.6396 -1.8438 0.9796
-3.4615 -3.2846 -1.8287 0.9798
-3.1457 -3.5694 -1.8233 0.9798
-2.8090 -3.8272 -1.8193 0.9799
-0.8837 -4.6704 -1.8215 0.9798
-0.0409 -4.7822 -1.8327 0.9797
1.6673 -4.5910 -1.8718 0.9793
2.0843 -4.4550 -1.8849 0.9792
2.8868 -4.0776 -1.9146 0.9788
3.6281 -3.5626 -1.9486 0.9785
3.9683 -3.2556 -1.9670 0.9783
4.2840 -2.9172 -1.9862 0.9780
4.5722 -2.5491 -2.0061 0.9778
4.8293 -2.1529 -2.0262 0.9776
4.8463 -1.1906 -1.9124 0.9788
5.0818 -0.3178 -1.9512 0.9784
5.1396 0.1377 -1.9703 0.9782
5.0538 1.5327 -2.0238 0.9776
4.9358 1.9926 -2.0398 0.9775
4.5656 2.8761 -2.0679 0.9772
4.0244 3.6792 -2.0896 0.9769
3.6948 4.0388 -2.0977 0.9768
3.3299 4.3647 -2.1038 0.9768
2.9334 4.6530 -2.1079 0.9767
2.5094 4.9004 -2.1098 0.9767
1.5977 5.2616 -2.1073 0.9767
1.1201 5.3716 -2.1028 0.9768
0.1477 5.4460 -2.0878 0.9769
-0.3365 5.4106 -2.0774 0.9770
-1.2756 5.1999 -2.0518 0.9773
-1.7212 5.0285 -2.0368 0.9775
-3.1519 4.6320 -2.1470 0.9763
-3.5187 4.2920 -2.1268 0.9765
-4.6077 2.6822 -2.0432 0.9774
-4.7795 2.2380 -2.0224 0.9776
-4.9101 1.7851 -2.0021 0.9779
-4.9999 1.3273 -1.9824 0.9781
-5.0493 0.8680 -1.9634 0.9783
-5.0591 0.4108 -1.9451 0.9785
-5.0304 -0.0413 -1.9278 0.9787
-4.9643 -0.4853 -1.9115 0.9789
-4.7258 -1.3380 -1.8822 0.9792
-4.5565 -1.7418 -1.8694 0.9793
-4.1264 -2.4936 -1.8476 0.9796
-3.8692 -2.8378 -1.8388 0.9797
-3.5863 -3.1585 -1.8313 0.9797
-2.9515 -3.7233 -1.8208 0.9799
-2.6036 -3.9647 -1.8177 0.9799
-2.2379 -4.1771 -1.8160 0.9799
-1.8566 -4.3596 -1.8159 0.9799
-1.4618 -4.5109 -1.8172 0.9799
0.2086 -4.7891 -1.8370 0.9797
0.6375 -4.7736 -1.8456 0.9796
1.4917 -4.6371 -1.8667 0.9793
1.9117 -4.5159 -1.8793 0.9792
2.7241 -4.1676 -1.9080 0.9789
3.4801 -3.6808 -1.9412 0.9785
3.8295 -3.3873 -1.9592 0.9783
4.1558 -3.0618 -1.9781 0.9781
4.4558 -2.7058 -1.9977 0.9779
4.7265 -2.3212 -2.0179 0.9777
4.7784 -1.3640 -1.9043 0.9789
4.2684 -0.8157 -1.6653 0.9816
5.0457 -0.5042 -1.9432 0.9785
5.1539 0.4073 -1.9812 0.9781
4.8461 2.2565 -2.0486 0.9774
4.6572 2.6976 -2.0625 0.9772
4.4247 3.1206 -2.0749 0.9771
3.8365 3.8929 -2.0945 0.9769
3.4859 4.2334 -2.1015 0.9768
3.1020 4.5378 -2.1065 0.9767
2.6889 4.8026 -2.1093 0.9767
2.2510 5.0248 -2.1100 0.9767
1.7930 5.2017 -2.1085 0.9767
1.3201 5.3317 -2.1049 0.9767
0.8375 5.4135 -2.0992 0.9768
0.3505 5.4466 -2.0915 0.9769
-1.5382 5.1049 -2.0432 0.9774
-2.3814 4.6751 -2.0106 0.9778
-2.9875 4.7614 -2.1541 0.9762
-4.0249 3.6955 -2.0939 0.9769
-4.2945 3.2888 -2.0729 0.9771
3.1532 -3.5414 -1.9407 0.9797
3.7975 -2.9770 -1.9749 0.9794
4.0849 -2.6509 -1.9930 0.9792
4.5734 -1.9184 -2.0298 0.9788
4.5948 -1.4614 -1.9734 0.9794
4.2254 -0.5502 -1.7440 0.9818
4.7614 -0.1918 -1.9503 0.9796
4.7644 1.1026 -2.0015 0.9791
4.3964 2.3740 -2.0449 0.9786
4.1917 2.7724 -2.0569 0.9785
3.6670 3.5049 -2.0761 0.9783
2.6288 4.3825 -2.0916 0.9782
1.8096 4.7809 -2.0922 0.9781
0.9290 5.0088 -2.0849 0.9782
0.0146 2.9685 -1.2150 0.9873
-0.8643 4.9306 -2.0487 0.9786
-3.6667 3.5745 -2.0958 0.9781
-3.9335 3.2033 -2.0762 0.9783
-4.1635 2.8131 -2.0565 0.9785
-4.3558 2.4078 -2.0370 0.9787
-1.9462 0.1146 -0.7979 0.9916
-4.2433 -1.7309 -1.8756 0.9804
-4.0491 -2.0903 -1.8650 0.9805
-3.5801 -2.7500 -1.8476 0.9807
-3.3087 -3.0469 -1.8409 0.9807
-3.0152 -3.3199 -1.8355 0.9808
-2.7015 -3.5676 -1.8315 0.9808
-1.6583 -4.1469 -1.8279 0.9809
-0.8981 -4.3864 -1.8325 0.9808
-0.5049 -4.4596 -1.8369 0.9808
-0.1058 -4.5009 -1.8426 0.9807
1.1033 -4.4283 -1.8678 0.9805
1.8950 -4.2136 -1.8909 0.9802
2.2789 -4.0563 -1.9042 0.9801
2.6512 -3.8660 -1.9186 0.9799
3.0091 -3.6434 -1.9340 0.9798
3.9684 -2.7900 -1.9854 0.9793
4.2404 -2.4479 -2.0039 0.9791
4.4839 -2.0799 -2.0230 0.9789
4.6831 -1.6834 -2.0367 0.9787
4.5069 -1.1790 -1.9066 0.9801
4.7858 0.9219 -1.9947 0.9792
4.7221 1.3554 -2.0107 0.9790
4.2817 2.6087 -2.0521 0.9786
4.0540 2.9960 -2.0631 0.9784
3.7883 3.3607 -2.0726 0.9784
3.0003 3.8130 -1.9858 0.9792
2.7882 4.2795 -2.0905 0.9782
2.3982 4.5156 -2.0926 0.9781
1.9864 4.7116 -2.0927 0.9781
1.5573 4.8656 -2.0909 0.9782
1.1155 4.9759 -2.0871 0.9782
0.6658 5.0417 -2.0814 0.9783
-0.1421 3.0110 -1.2337 0.9871
-2.8789 4.3699 -2.1417 0.9776
-3.2284 4.0603 -2.1230 0.9778
-3.5451 3.7225 -2.1039 0.9780
-3.8269 3.3603 -2.0843 0.9782
-4.2804 2.5781 -2.0451 0.9786
-4.4504 2.1657 -2.0257 0.9788
-4.5821 1.7439 -2.0066 0.9790
-1.9048 0.0128 -0.7796 0.9918
-1.9567 -0.1618 -0.8036 0.9916
-2.1423 -0.3715 -0.8899 0.9906
-4.4679 -1.1931 -1.8927 0.9802
-4.3156 -1.5762 -1.8804 0.9803
-4.1334 -1.9429 -1.8693 0.9805
-3.4244 -2.9261 -1.8435 0.9807
-2.5097 -3.7000 -1.8298 0.9809
-2.1679 -3.9051 -1.8280 0.9809
-1.4408 -4.2294 -1.8287 0.9809
-0.2725 -4.4876 -1.8400 0.9808
0.1290 -4.5100 -1.8466 0.9807
0.5326 -4.4996 -1.8544 0.9806
2.4978 -3.9492 -1.9125 0.9800
2.8620 -3.7400 -1.9275 0.9799
3.2103 -3.4988 -1.9434 0.9797
4.6061 -1.8516 -2.0318 0.9788
4.4489 -1.3422 -1.9019 0.9801
4.3230 -0.8933 -1.8067 0.9811
4.2421 -0.4880 -1.7477 0.9817
4.7710 -0.1208 -1.9533 0.9796
4.8056 0.3076 -1.9708 0.9794
4.8002 0.7409 -1.9879 0.9792
4.5359 2.0302 -2.0339 0.9788
4.3649 2.4419 -2.0470 0.9786
3.9034 3.2119 -2.0689 0.9784
3.6165 3.5616 -2.0774 0.9783
2.9431 4.1701 -2.0890 0.9782
2.1602 4.6350 -2.0929 0.9781
1.7377 4.8067 -2.0919 0.9782
1.3006 4.9354 -2.0889 0.9782
0.8536 5.0198 -2.0840 0.9782
-1.3622 4.7782 -2.0335 0.9788
-1.7699 4.6051 -2.0191 0.9789
-2.1566 4.3952 -2.0037 0.9791
-2.7200 4.4827 -2.1460 0.9776
-3.0868 4.1928 -2.1309 0.9777
-3.4174 3.8662 -2.1119 0.9779
-3.7139 3.5138 -2.0925 0.9781
-4.3843 2.3387 -2.0337 0.9788
-4.5320 1.9203 -2.0145 0.9790
-1.9379 -0.0879 -0.7939 0.9917
-1.9489 -0.2639 -0.8049 0.9915
-4.5222 -1.0293 -1.8982 0.9802
-4.3827 -1.4186 -1.8854 0.9803
-4.0138 -2.1487 -1.8633 0.9805
-3.5362 -2.8013 -1.8464 0.9807
-3.2610 -3.0944 -1.8399 0.9808
-2.9640 -3.3632 -1.8348 0.9808
-2.6471 -3.6066 -1.8310 0.9808
-2.3122 -3.8232 -1.8286 0.9809
-1.9612 -4.0119 -1.8277 0.9809
-1.5963 -4.1716 -1.8281 0.9809
-0.8327 -4.4009 -1.8331 0.9808
-0.4383 -4.4688 -1.8377 0.9808
1.5686 -4.3192 -1.8807 0.9803
3.0675 -3.6030 -1.9367 0.9798
3.7221 -3.0536 -1.9704 0.9794
4.2833 -2.3880 -2.0071 0.9790
4.5217 -2.0158 -2.0262 0.9788
4.7124 -1.6148 -2.0388 0.9787
4.1690 -0.6372 -1.7261 0.9819
4.7960 0.1285 -1.9636 0.9795
4.7781 0.9947 -1.9975 0.9791
4.5949 1.8550 -2.0281 0.9788
4.2463 2.6750 -2.0540 0.9785
3.0933 4.0545 -2.0872 0.9782
2.3306 4.5512 -2.0927 0.9781
1.4840 4.8871 -2.0904 0.9782
0.5900 5.0484 -2.0802 0.9783
0.0820 3.0246 -1.2384 0.9870
-0.7558 4.9558 -2.0517 0.9786
-1.1871 4.8389 -2.0391 0.9787
-1.9985 4.4868 -2.0103 0.9790
-2.9397 4.3201 -2.1386 0.9777
-3.2838 4.0055 -2.1199 0.9779
-3.5948 3.6634 -2.1006 0.9781
-3.8706 3.2975 -2.0811 0.9783
-4.6004 1.6725 -2.0034 0.9791
-1.9562 0.1588 -0.8033 0.9916
-1.9063 -0.0156 -0.7802 0.9918
-1.9579 -0.1914 -0.8051 0.9915
-2.2045 -0.4164 -0.9182 0.9904
-4.4446 -1.2583 -1.8905 0.9802
-3.6439 -2.6726 -1.8495 0.9807
-3.0902 -3.2544 -1.8367 0.9808
-2.7813 -3.5085 -1.8324 0.9808
-2.1091 -3.9368 -1.8279 0.9809
-1.7498 -4.1087 -1.8277 0.9809
-1.3776 -4.2512 -1.8290 0.9809
-0.9947 -4.3633 -1.8316 0.9808
-0.6033 -4.4444 -1.8356 0.9808
-0.2055 -4.4936 -1.8410 0.9807
0.1965 -4.5105 -1.8478 0.9807
0.6003 -4.4947 -1.8559 0.9806
1.0035 -4.4456 -1.8653 0.9805
1.4036 -4.3633 -1.8759 0.9804
1.7981 -4.2475 -1.8878 0.9803
2.1844 -4.0985 -1.9008 0.9801
3.2669 -3.4553 -1.9462 0.9797
4.4262 -2.1737 -2.0182 0.9789
4.6378 -1.7843 -2.0338 0.9788
4.4690 -1.2756 -1.9021 0.9801
4.2318 -0.8087 -1.7633 0.9816
4.7953 0.8138 -1.9906 0.9792
4.6468 1.6781 -2.0220 0.9789
4.5101 2.1001 -2.0362 0.9787
4.1143 2.9016 -2.0605 0.9785
3.8578 3.2724 -2.0704 0.9784
3.0655 3.7228 -1.9737 0.9794
2.8813 4.2149 -2.0896 0.9782
2.0906 4.6667 -2.0929 0.9781
1.6654 4.8313 -2.0915 0.9782
0.7781 5.0296 -2.0830 0.9782
0.3257 5.0616 -2.0759 0.9783
-0.0740 2.9638 -1.2134 0.9873
-0.5726 4.9921 -2.0565 0.9785
-1.0092 4.8925 -2.0445 0.9786
-1.4318 4.7519 -2.0312 0.9788
-1.8363 4.5724 -2.0166 0.9789
-2.2191 4.3566 -2.0010 0.9791
-3.4695 3.8089 -2.1087 0.9780
-3.7601 3.4524 -2.0892 0.9782
-4.2322 2.6788 -2.0500 0.9786
-4.4117 2.2693 -2.0305 0.9788
-4.5530 1.8494 -2.0113 0.9790
2.9684 -3.3339 -1.9455 0.9807
3.8395 -2.4917 -1.9948 0.9802
4.4637 -1.4197 -2.0414 0.9798
4.2814 -0.9516 -1.9114 0.9810
4.2137 -0.5487 -1.8519 0.9816
4.4958 0.2203 -1.9617 0.9806
4.3771 1.4343 -2.0074 0.9801
3.9126 2.5878 -2.0444 0.9797
3.4207 3.2695 -2.0622 0.9796
2.4510 4.0861 -2.0766 0.9794
2.0783 4.2907 -2.0778 0.9794
1.6872 4.4575 -2.0772 0.9794
0.8663 4.6710 -2.0704 0.9795
0.4454 4.7159 -2.0644 0.9795
0.0144 2.9191 -1.2722 0.9873
-0.3956 4.6815 -2.0475 0.9797
-1.2068 4.4867 -2.0249 0.9799
-1.5914 4.3329 -2.0117 0.9801
-1.9573 4.1444 -1.9975 0.9802
-3.1507 3.6737 -2.1092 0.9791
-3.6880 3.0033 -2.0728 0.9795
-4.0887 2.2602 -2.0361 0.9798
-1.5895 0.5383 -0.7314 0.9927
-1.5133 0.2257 -0.6668 0.9933
-1.5296 0.0901 -0.6678 0.9933
-1.5278 -0.0465 -0.6661 0.9934
-1.5221 -0.1830 -0.6681 0.9933
-4.0025 -1.6327 -1.8839 0.9813
-3.8206 -1.9723 -1.8739 0.9814
-1.9092 -3.7618 -1.8385 0.9818
-1.5665 -3.9173 -1.8387 0.9818
-1.2122 -4.0446 -1.8402 0.9817
-0.8483 -4.1430 -1.8430 0.9817
1.0410 -4.1780 -1.8765 0.9814
1.7867 -3.9727 -1.8984 0.9812
2.1478 -3.8228 -1.9110 0.9810
2.4975 -3.6420 -1.9246 0.9809
2.8334 -3.4307 -1.9391 0.9808
3.1527 -3.1897 -1.9546 0.9806
4.3978 -1.5809 -2.0367 0.9798
4.4341 -0.3439 -1.9383 0.9808
4.4852 0.0531 -1.9549 0.9806
4.4762 0.8622 -1.9867 0.9803
4.4143 1.2671 -2.0015 0.9802
4.1744 2.0577 -2.0283 0.9799
3.9973 2.4354 -2.0400 0.9798
3.7833 2.7960 -2.0502 0.9797
3.5343 3.1354 -2.0590 0.9796
3.2521 3.4499 -2.0663 0.9795
1.8520 4.3928 -2.0776 0.9794
1.4520 4.5366 -2.0759 0.9794
1.0402 4.6401 -2.0724 0.9795
0.1267 3.0111 -1.3134 0.9869
-0.1390 2.9463 -1.2855 0.9872
-0.6369 4.6408 -2.0415 0.9798
-1.0420 4.5399 -2.0300 0.9799
-1.4334 4.4013 -2.0173 0.9800
-1.8075 4.2269 -2.0035 0.9801
-2.2948 4.2682 -2.1120 0.9791
-3.3210 3.4872 -2.0987 0.9792
-3.5871 3.1498 -2.0805 0.9794
-4.3051 1.6384 -2.0075 0.9801
-1.4970 0.2805 -0.6638 0.9934
-1.5237 0.0103 -0.6641 0.9934
-1.5034 -0.2607 -0.6650 0.9934
-1.5558 -0.4155 -0.7018 0.9930
-1.5968 -0.5832 -0.7409 0.9926
-3.8996 -1.8330 -1.8779 0.9814
-2.9652 -3.0307 -1.8479 0.9817
-2.6770 -3.2752 -1.8435 0.9817
-2.3707 -3.4950 -1.8405 0.9817
-2.0479 -3.6889 -1.8388 0.9818
-0.2573 -4.2376 -1.8502 0.9816
0.1218 -4.2578 -1.8564 0.9816
0.5027 -4.2471 -1.8639 0.9815
0.8833 -4.2049 -1.8726 0.9814
1.2611 -4.1311 -1.8824 0.9813
1.6337 -4.0258 -1.8935 0.9812
2.3535 -3.7210 -1.9188 0.9810
2.6954 -3.5223 -1.9330 0.9808
3.6179 -2.7499 -1.9805 0.9804
4.1200 -2.1004 -2.0154 0.9800
4.3261 -1.7391 -2.0320 0.9799
4.3675 -1.3176 -1.9882 0.9803
4.3015 -0.8888 -1.9143 0.9810
4.4683 -0.1131 -1.9480 0.9807
4.4906 0.6932 -1.9803 0.9804
4.2370 1.8964 -2.0231 0.9799
3.8768 2.6482 -2.0461 0.9797
2.9946 3.5280 -2.0168 0.9800
2.7443 3.8884 -2.0742 0.9794
2.3900 4.1229 -2.0769 0.9794
1.2127 4.6020 -2.0741 0.9794
0.7961 4.6815 -2.0695 0.9795
-0.4651 4.6712 -2.0459 0.9797
-2.5443 4.1930 -2.1375 0.9788
-2.8894 3.9246 -2.1239 0.9790
-3.4804 3.2928 -2.0881 0.9793
-3.7269 2.9435 -2.0697 0.9795
-4.1159 2.1955 -2.0330 0.9799
-1.5280 0.3454 -0.6827 0.9932
-1.5291 0.0671 -0.6670 0.9933
-1.5841 -0.5127 -0.7257 0.9928
-3.9740 -1.6908 -1.8822 0.9813
-3.5752 -2.3460 -1.8636 0.9815
-3.3385 -2.6447 -1.8562 0.9816
-2.7993 -3.1764 -1.8452 0.9817
-2.5003 -3.4066 -1.8416 0.9817
-2.1841 -3.6114 -1.8394 0.9818
-1.8527 -3.7897 -1.8384 0.9818
-0.4140 -4.2201 -1.8480 0.9817
0.3441 -4.2553 -1.8606 0.9815
1.1043 -4.1657 -1.8782 0.9814
1.4794 -4.0735 -1.8887 0.9813
1.8479 -3.9498 -1.9004 0.9812
3.2044 -3.1465 -1.9572 0.9806
3.5009 -2.8721 -1.9735 0.9804
3.7751 -2.5707 -1.9905 0.9803
4.2458 -1.8928 -2.0260 0.9799
4.4250 -1.5164 -2.0386 0.9798
4.4452 -0.2780 -1.9411 0.9808
4.4983 0.5242 -1.9737 0.9804
4.4685 0.9302 -1.9892 0.9803
4.4001 1.3345 -2.0039 0.9801
4.2930 1.7331 -2.0177 0.9800
4.1474 2.1220 -2.0303 0.9799
3.9640 2.4971 -2.0418 0.9798
