ply
format ascii 1.0
element vertex 1579
property float32 x
property float32 y
property float32 z
property float32 I
end_header
10.8913 1.1969 -0.3085 0.9571
5.2795 3.9822 -0.1862 0.9739
4.2785 4.6330 -0.1776 0.9751
2.3453 5.7416 -0.1746 0.9755
1.8470 6.0064 -0.1769 0.9752
1.2933 6.1016 -0.1756 0.9754
0.2002 6.6820 -0.1882 0.9736
-0.4299 7.2151 -0.2035 0.9715
-1.1070 7.3755 -0.2100 0.9706
-2.2524 2.2988 -0.0906 0.9872
9.5417 1.7172 -0.2730 0.9619
7.5026 2.7982 -0.2255 0.9685
6.2079 3.6868 -0.2033 0.9715
5.4151 3.9100 -0.1881 0.9736
4.3993 4.5688 -0.1786 0.9749
3.8900 4.8397 -0.1748 0.9755
3.3397 5.0142 -0.1696 0.9762
2.4423 5.6401 -0.1731 0.9757
1.9644 5.9440 -0.1763 0.9753
0.8916 6.3149 -0.1796 0.9748
0.3361 6.6098 -0.1864 0.9739
-0.2759 7.1334 -0.2010 0.9718
-0.9387 7.2863 -0.2069 0.9710
-2.2467 2.3907 -0.0924 0.9870
12.2835 -0.3410 -0.6232 0.9520
8.9801 2.2036 -0.4689 0.9636
7.7568 2.6577 -0.4158 0.9677
5.5869 3.8097 -0.3429 0.9733
5.0097 4.1174 -0.3289 0.9744
4.5516 4.4794 -0.3239 0.9747
4.0362 4.7538 -0.3163 0.9753
3.4799 4.9319 -0.3061 0.9761
2.1122 5.8574 -0.3158 0.9754
1.0500 6.2227 -0.3200 0.9750
0.5069 6.5107 -0.3312 0.9742
-0.0826 7.0217 -0.3561 0.9723
-10.2072 -8.2123 -0.6644 0.9489
15.7358 -2.1866 -0.8057 0.9384
11.8273 0.4834 -0.6003 0.9537
7.9672 2.5454 -0.4242 0.9671
7.1122 2.9961 -0.3914 0.9696
5.7289 3.7340 -0.3468 0.9730
5.1400 4.0479 -0.3318 0.9741
4.1542 4.6910 -0.3178 0.9752
3.5309 4.7890 -0.3017 0.9765
3.0728 5.0587 -0.3002 0.9766
1.7266 6.0621 -0.3197 0.9751
1.1717 6.1581 -0.3179 0.9752
-1.2787 7.4568 -0.3837 0.9702
-2.3044 2.2558 -0.1635 0.9872
18.1834 -2.9144 -0.9339 0.9289
15.0094 -1.0443 -0.7630 0.9415
11.8233 0.2365 -0.5997 0.9537
10.8692 1.1945 -0.5545 0.9572
8.1863 2.4285 -0.4330 0.9664
7.2983 2.8968 -0.3982 0.9690
6.7330 3.3973 -0.3825 0.9702
5.2728 3.9771 -0.3349 0.9739
4.6899 4.2454 -0.3208 0.9750
4.2735 4.6275 -0.3194 0.9751
3.2247 5.0676 -0.3046 0.9762
2.7509 5.3195 -0.3037 0.9763
1.8449 5.9994 -0.3183 0.9752
0.7648 6.3740 -0.3256 0.9746
-2.2520 2.2984 -0.1632 0.9872
2.3767 -0.8911 -0.1287 0.9899
8.6610 2.3740 -0.4554 0.9647
7.4911 2.7939 -0.4055 0.9685
6.8558 3.2818 -0.3855 0.9700
5.4082 3.9050 -0.3383 0.9736
4.3940 4.5633 -0.3213 0.9749
3.8855 4.8340 -0.3145 0.9755
0.8906 6.3072 -0.3230 0.9748
-0.2755 7.1239 -0.3616 0.9719
-8.3871 -14.8343 -1.2495 0.9339
-7.0415 -15.5537 -1.2519 0.9338
-4.2182 -16.7862 -1.2691 0.9329
-2.7336 -17.2985 -1.2841 0.9322
0.4019 -18.1068 -1.3280 0.9299
2.3114 -0.9383 -0.1829 0.9900
13.8608 -4.2291 -1.0626 0.9435
12.2520 -0.3401 -0.8987 0.9520
11.3875 0.7036 -0.8365 0.9553
6.9223 3.0876 -0.5558 0.9701
6.3943 3.5685 -0.5369 0.9711
5.5796 3.8048 -0.4952 0.9733
5.0035 4.1123 -0.4749 0.9744
4.5461 4.4740 -0.4677 0.9747
4.0314 4.7483 -0.4567 0.9753
3.0000 5.1793 -0.4389 0.9763
2.1097 5.8506 -0.4560 0.9754
1.5598 5.9442 -0.4506 0.9757
1.0487 6.2152 -0.4621 0.9750
-19.0694 -4.4691 -1.4361 0.9245
-18.0618 -5.9788 -1.3950 0.9265
-14.8127 -9.8762 -1.3054 0.9311
-10.1812 -8.1914 -0.9581 0.9489
-12.4720 -12.0207 -1.2701 0.9329
-11.2495 -12.9732 -1.2590 0.9334
-8.6949 -14.6566 -1.2495 0.9339
-1.5589 -17.6433 -1.2987 0.9314
1.6695 -18.3359 -1.3500 0.9288
3.3827 -18.5624 -1.3834 0.9271
5.1701 -18.7012 -1.4227 0.9251
14.3779 -0.6995 -1.0555 0.9439
10.2042 1.3373 -0.7546 0.9596
9.0424 2.0199 -0.6793 0.9635
7.1017 2.9917 -0.5650 0.9696
6.5566 3.4818 -0.5443 0.9707
5.7214 3.7291 -0.5007 0.9730
5.1336 4.0428 -0.4791 0.9741
4.6292 4.3695 -0.4667 0.9748
3.5268 4.7834 -0.4358 0.9764
3.0693 5.0529 -0.4335 0.9766
2.6375 5.3720 -0.4388 0.9763
2.2251 5.7894 -0.4548 0.9754
1.7246 6.0550 -0.4616 0.9751
1.1703 6.1507 -0.4591 0.9752
0.6361 6.4338 -0.4740 0.9744
-0.5779 7.1753 -0.5278 0.9715
-1.2769 7.4460 -0.5539 0.9702
-2.3029 2.2543 -0.2363 0.9872
-19.2982 -4.1001 -1.4466 0.9239
-15.0766 -9.6041 -1.3107 0.9308
-12.7519 -11.7875 -1.2733 0.9327
-11.5377 -12.7579 -1.2612 0.9333
-10.2877 -13.6528 -1.2534 0.9337
-9.0005 -14.4751 -1.2498 0.9339
-7.6741 -15.2269 -1.2502 0.9339
-6.3060 -15.9095 -1.2548 0.9337
-4.8931 -16.5235 -1.2635 0.9332
-3.4323 -17.0684 -1.2765 0.9326
-1.9195 -17.5429 -1.2940 0.9317
1.2800 -18.2712 -1.3430 0.9292
2.9769 -18.5171 -1.3752 0.9275
4.7465 -18.6770 -1.4130 0.9256
17.8067 -2.8540 -1.3223 0.9302
10.8471 1.1921 -0.8001 0.9572
9.2276 1.8601 -0.6902 0.9629
7.2873 2.8925 -0.5749 0.9690
5.8665 3.6517 -0.5067 0.9727
4.6842 4.2403 -0.4633 0.9750
4.2684 4.6220 -0.4613 0.9751
3.2210 5.0617 -0.4399 0.9762
2.3400 5.7284 -0.4537 0.9755
1.8427 5.9924 -0.4597 0.9752
1.2902 6.0871 -0.4562 0.9754
0.7638 6.3661 -0.4701 0.9746
0.1997 6.6649 -0.4889 0.9736
-2.2516 2.2979 -0.2359 0.9872
-19.5247 -3.7245 -1.4574 0.9234
-13.0300 -11.5501 -1.2767 0.9325
-10.5824 -13.4507 -1.2549 0.9337
-9.3040 -14.2897 -1.2503 0.9339
-7.9870 -15.0578 -1.2498 0.9339
-0.7215 -17.8579 -1.3104 0.9308
2.5751 -18.4673 -1.3672 0.9279
4.3271 -18.6478 -1.4036 0.9261
6.1566 -18.7369 -1.4461 0.9239
11.6922 -0.0101 -0.8573 0.9542
9.5064 1.7109 -0.7082 0.9620
6.8461 3.2771 -0.5565 0.9700
6.1913 3.6769 -0.5280 0.9715
3.7495 4.6648 -0.4388 0.9763
2.8579 5.2548 -0.4386 0.9763
2.4367 5.6271 -0.4496 0.9757
1.4088 6.0242 -0.4536 0.9755
0.3353 6.5931 -0.4840 0.9739
-16.6931 -7.7778 -1.3503 0.9288
-15.5988 -9.0452 -1.3221 0.9302
-14.4696 -10.2200 -1.2989 0.9314
-10.8751 -13.2447 -1.2565 0.9336
-8.2976 -14.8850 -1.2495 0.9339
-2.6316 -17.3305 -1.2853 0.9321
-1.0893 -17.7667 -1.3051 0.9311
3.9120 -18.6136 -1.3946 0.9266
-6.6072 -11.6861 -1.2888 0.9475
-5.5456 -12.2493 -1.2909 0.9474
-4.4484 -12.7515 -1.2966 0.9472
0.3136 -14.1272 -1.3566 0.9448
6.1552 -15.4087 -1.5930 0.9355
7.7310 -15.2383 -1.6405 0.9336
11.0343 -14.5625 -1.7541 0.9292
12.7612 -14.0353 -1.8212 0.9266
14.5362 -13.3650 -1.8958 0.9237
2.3107 -0.9379 -0.2394 0.9900
12.2206 -0.3392 -1.1737 0.9521
9.8695 1.5035 -0.9585 0.9607
8.9492 2.1960 -0.8847 0.9636
6.9122 3.0831 -0.7266 0.9700
5.5724 3.7999 -0.6475 0.9733
4.9972 4.1071 -0.6210 0.9743
4.0267 4.7427 -0.5973 0.9753
2.5242 5.4244 -0.5744 0.9762
2.1073 5.8439 -0.5964 0.9753
1.5579 5.9371 -0.5893 0.9756
-0.0818 6.9533 -0.6676 0.9724
-17.6784 0.6753 -1.6985 0.9314
-17.1059 -0.8780 -1.6444 0.9335
-16.4645 -2.3327 -1.5965 0.9354
-15.7617 -3.6939 -1.5542 0.9370
-14.1945 -6.1547 -1.4853 0.9397
-10.1276 -8.1482 -1.2479 0.9491
-8.8517 -10.2080 -1.2972 0.9472
-6.8496 -11.5461 -1.2889 0.9475
-3.5825 -13.0948 -1.3034 0.9469
-1.2206 -13.8150 -1.3315 0.9458
1.2990 -14.2675 -1.3754 0.9441
2.6215 -14.3850 -1.4038 0.9429
4.2803 -15.4826 -1.5422 0.9375
5.7950 -15.4339 -1.5827 0.9359
10.6388 -14.6662 -1.7395 0.9298
12.3542 -14.1705 -1.8049 0.9272
14.1182 -13.5348 -1.8777 0.9244
2.3315 -1.0035 -0.2437 0.9899
11.5341 0.4715 -1.1083 0.9547
10.1840 1.3347 -0.9861 0.9596
9.0419 2.0198 -0.8895 0.9635
7.0912 2.9873 -0.7387 0.9696
4.1444 4.6799 -0.6001 0.9752
3.0658 5.0471 -0.5669 0.9765
1.7226 6.0479 -0.6037 0.9750
0.6353 6.4258 -0.6199 0.9744
-2.3015 2.2529 -0.3092 0.9871
-17.2458 -0.5249 -1.6564 0.9330
-16.6198 -2.0021 -1.6071 0.9349
-15.9307 -3.3847 -1.5636 0.9367
-15.1849 -4.6774 -1.5254 0.9381
-13.5424 -7.0113 -1.4641 0.9406
-10.0163 -9.2588 -1.3095 0.9467
-8.1005 -10.7502 -1.2923 0.9473
-6.0449 -11.9943 -1.2895 0.9475
-4.9645 -12.5250 -1.2935 0.9473
0.9969 -14.2293 -1.3694 0.9443
2.3093 -14.3644 -1.3968 0.9432
3.9342 -15.4807 -1.5335 0.9378
5.4375 -15.4537 -1.5728 0.9363
8.5927 -15.1037 -1.6683 0.9326
14.9811 -1.0423 -1.4417 0.9414
11.8222 0.2364 -1.1352 0.9536
9.2109 1.8568 -0.9021 0.9629
8.1596 2.4205 -0.8171 0.9664
7.2764 2.8881 -0.7516 0.9690
6.7141 3.3878 -0.7220 0.9702
5.2595 3.9671 -0.6325 0.9739
4.6785 4.2351 -0.6059 0.9750
3.6736 4.7709 -0.5781 0.9761
3.2173 5.0559 -0.5753 0.9762
2.3373 5.7218 -0.5934 0.9755
0.1994 6.6564 -0.6393 0.9736
-0.4282 7.1861 -0.6911 0.9715
-1.1022 7.3440 -0.7130 0.9706
-2.2519 2.2983 -0.3089 0.9872
-18.3748 3.1420 -1.7897 0.9278
-17.3819 -0.1663 -1.6688 0.9325
-16.7716 -1.6664 -1.6181 0.9345
-16.0967 -3.0705 -1.5732 0.9363
-14.5777 -5.6108 -1.4996 0.9392
-13.7434 -6.7558 -1.4702 0.9403
-12.8643 -7.8225 -1.4454 0.9413
-11.1262 -8.2116 -1.3276 0.9459
-8.3311 -10.5892 -1.2935 0.9473
-6.2918 -11.8618 -1.2891 0.9475
-4.1116 -12.8904 -1.2990 0.9471
-2.9671 -13.3121 -1.3094 0.9467
-1.7850 -13.6703 -1.3236 0.9461
-0.5641 -13.9629 -1.3416 0.9454
1.9995 -14.3396 -1.3900 0.9435
3.3451 -14.4158 -1.4208 0.9423
5.0827 -15.4683 -1.5631 0.9367
6.6236 -15.3684 -1.6066 0.9350
8.2146 -15.1664 -1.6559 0.9330
9.8562 -14.8532 -1.7114 0.9309
11.5482 -14.4182 -1.7735 0.9285
13.2898 -13.8495 -1.8428 0.9258
19.1453 -3.4796 -1.8682 0.9248
7.4682 2.7854 -0.7652 0.9685
6.1387 3.6457 -0.6854 0.9717
4.7991 4.1655 -0.6101 0.9748
3.7451 4.6594 -0.5739 0.9763
3.3282 4.9969 -0.5764 0.9762
2.8546 5.2488 -0.5736 0.9763
0.7462 3.1909 -0.3146 0.9869
0.3348 6.5848 -0.6330 0.9739
-0.2728 7.0542 -0.6777 0.9720
-0.9347 7.2556 -0.7023 0.9710
-18.0333 1.8231 -1.7401 0.9298
-17.5140 0.1977 -1.6815 0.9320
-16.2594 -2.7515 -1.5832 0.9359
-13.9420 -6.4960 -1.4767 0.9401
-13.0731 -7.5806 -1.4508 0.9411
-9.9108 -8.4227 -1.2487 0.9491
-9.5188 -9.6815 -1.3035 0.9469
-7.5656 -11.1061 -1.2901 0.9474
-0.8523 -13.9007 -1.3370 0.9456
3.0275 -14.4052 -1.4132 0.9426
6.2599 -15.4005 -1.5960 0.9354
11.1493 -14.5311 -1.7584 0.9290
12.8795 -13.9947 -1.8259 0.9264
-5.7202 -10.1173 -1.3806 0.9543
-3.8481 -11.0307 -1.3877 0.9540
-2.8649 -11.4007 -1.3963 0.9538
-1.8507 -11.7111 -1.4084 0.9534
0.2745 -12.3670 -1.4694 0.9514
1.4552 -12.9786 -1.5513 0.9488
3.9434 -13.1869 -1.6350 0.9461
6.5303 -12.8716 -1.7145 0.9435
7.8641 -12.5724 -1.7615 0.9420
10.5979 -11.6560 -1.8713 0.9385
11.9887 -11.0228 -1.9345 0.9365
13.3871 -10.2614 -2.0036 0.9343
14.7846 -9.3626 -2.0787 0.9319
2.3099 -0.9376 -0.2961 0.9900
13.8541 -4.2270 -1.7206 0.9433
18.6645 -3.9134 -2.2653 0.9261
11.1655 0.6899 -1.3288 0.9559
9.5748 1.4586 -1.1505 0.9617
6.9021 3.0786 -0.8977 0.9700
4.5352 4.4632 -0.7558 0.9747
4.0219 4.7371 -0.7382 0.9753
3.4678 4.9147 -0.7145 0.9761
2.1048 5.8371 -0.7371 0.9753
1.5561 5.9301 -0.7283 0.9756
1.0462 6.2001 -0.7469 0.9750
0.5050 6.4863 -0.7728 0.9741
-0.0823 6.9942 -0.8309 0.9722
-14.4159 13.5345 -2.3488 0.9234
-15.3071 9.9187 -2.1666 0.9292
-15.5231 8.1901 -2.0848 0.9317
-15.4226 3.4019 -1.8760 0.9384
-14.8512 0.5673 -1.7654 0.9419
-13.9655 -1.9786 -1.6755 0.9448
-13.4233 -3.1459 -1.6377 0.9460
-12.8227 -4.2446 -1.6044 0.9470
-10.7157 -7.1446 -1.5299 0.9494
-9.2448 -7.4380 -1.4095 0.9533
-6.8101 -9.4411 -1.3828 0.9542
-4.0729 -10.9361 -1.3862 0.9541
-3.0969 -11.3197 -1.3940 0.9538
-2.0899 -11.6441 -1.4053 0.9535
1.1682 -12.8301 -1.5303 0.9494
2.4073 -13.2098 -1.5950 0.9473
3.6495 -13.2008 -1.6269 0.9463
4.9218 -13.1084 -1.6632 0.9452
6.2230 -12.9272 -1.7042 0.9438
7.5510 -12.6511 -1.7501 0.9424
8.9030 -12.2733 -1.8011 0.9408
10.2755 -11.7861 -1.8574 0.9390
11.6635 -11.1815 -1.9193 0.9370
13.0608 -10.4508 -1.9870 0.9348
14.7387 -7.9739 -1.9906 0.9347
17.2137 -5.6471 -2.1520 0.9296
18.3979 -4.2599 -2.2432 0.9268
11.6372 0.4757 -1.3835 0.9542
9.8793 1.2948 -1.1836 0.9607
8.8427 1.9753 -1.0763 0.9642
6.5385 3.4721 -0.8794 0.9706
5.7064 3.7193 -0.8091 0.9729
5.1207 4.0327 -0.7742 0.9741
4.1395 4.6744 -0.7417 0.9752
3.0622 5.0413 -0.7007 0.9765
2.6314 5.3596 -0.7092 0.9762
2.2200 5.7760 -0.7350 0.9754
0.6346 6.4178 -0.7661 0.9744
0.0629 6.9175 -0.8217 0.9725
-0.5780 7.1763 -0.8552 0.9714
-1.2732 7.4244 -0.8948 0.9701
-2.3000 2.2514 -0.3823 0.9871
-14.8353 12.1266 -2.2761 0.9257
-15.2360 10.3300 -2.1866 0.9285
-15.5869 5.2941 -1.9554 0.9358
-15.2450 2.2806 -1.8310 0.9398
-14.5453 -0.4427 -1.7286 0.9431
-14.0829 -1.6965 -1.6850 0.9445
-13.5551 -2.8799 -1.6461 0.9457
-12.3256 -5.0416 -1.5819 0.9478
-11.6334 -6.0230 -1.5561 0.9486
-10.8944 -6.9399 -1.5344 0.9493
-8.6530 -7.9986 -1.3997 0.9536
-7.8492 -8.6794 -1.3901 0.9540
-7.0105 -9.3037 -1.3838 0.9542
-6.1382 -9.8717 -1.3808 0.9543
0.8887 -12.6854 -1.5105 0.9501
2.1222 -13.2004 -1.5882 0.9476
3.3571 -13.2101 -1.6191 0.9466
7.2391 -12.7243 -1.7390 0.9427
8.5858 -12.3708 -1.7887 0.9411
12.7346 -10.6329 -1.9707 0.9354
15.4948 -8.8055 -2.1170 0.9307
15.6845 -7.1423 -2.0472 0.9329
16.9295 -5.9477 -2.1315 0.9303
11.2773 -2.8602 -1.3820 0.9542
14.9391 -1.0394 -1.7788 0.9415
11.8217 0.2364 -1.4045 0.9535
9.0373 1.8218 -1.0951 0.9635
8.1462 2.4166 -1.0093 0.9664
7.2654 2.8837 -0.9285 0.9690
5.8509 3.6420 -0.8187 0.9726
5.2528 3.9620 -0.7816 0.9738
4.2583 4.6110 -0.7456 0.9750
3.6693 4.7653 -0.7144 0.9761
3.2136 5.0501 -0.7110 0.9762
2.3345 5.7152 -0.7333 0.9754
1.8384 5.9783 -0.7430 0.9751
0.6652 3.1381 -0.3810 0.9872
-0.4276 7.1764 -0.8540 0.9715
-15.4399 8.9886 -2.1222 0.9306
-15.3047 2.6170 -1.8444 0.9394
-15.0149 1.2022 -1.7893 0.9411
-13.1097 -3.7407 -1.6194 0.9466
-11.7990 -5.8000 -1.5617 0.9484
-11.0707 -6.7319 -1.5391 0.9491
-9.7513 -7.1968 -1.4396 0.9524
-8.8352 -7.8317 -1.4025 0.9536
-7.2091 -9.1631 -1.3849 0.9541
-6.3445 -9.7443 -1.3812 0.9542
-5.4470 -10.2692 -1.3808 0.9543
-2.5632 -11.5004 -1.3996 0.9536
-0.4857 -12.0224 -1.4293 0.9527
0.6162 -12.5442 -1.4919 0.9507
1.8373 -13.1761 -1.5803 0.9478
5.6128 -13.0231 -1.6845 0.9445
8.2698 -12.4626 -1.7767 0.9415
9.6333 -12.0274 -1.8305 0.9398
13.8077 -10.0061 -2.0256 0.9336
16.6429 -6.2398 -2.1113 0.9309
19.0020 -3.4535 -2.2942 0.9252
11.6907 -0.0101 -1.3887 0.9540
10.6102 0.9426 -1.2653 0.9580
9.2376 1.6625 -1.1149 0.9629
7.4567 2.7811 -0.9454 0.9685
6.1746 3.6670 -0.8531 0.9715
5.3874 3.8900 -0.7893 0.9736
4.7969 4.1636 -0.7545 0.9747
3.7407 4.6539 -0.7093 0.9762
2.8513 5.2428 -0.7089 0.9762
2.4311 5.6141 -0.7267 0.9757
0.7364 3.1489 -0.3841 0.9871
0.8873 6.2841 -0.7539 0.9748
0.3344 6.5764 -0.7822 0.9738
-0.2744 7.0956 -0.8435 0.9718
-0.9334 7.2454 -0.8678 0.9710
-15.0690 11.1615 -2.2275 0.9272
-15.3869 9.3928 -2.1414 0.9300
-15.5613 7.6827 -2.0615 0.9325
-15.6064 6.0376 -1.9877 0.9348
-15.3595 2.9573 -1.8580 0.9389
-15.0901 1.5255 -1.8016 0.9407
-13.8090 -2.3368 -1.6636 0.9451
-12.6315 -4.5617 -1.5953 0.9473
-11.9621 -5.5735 -1.5676 0.9482
-11.2446 -6.5203 -1.5440 0.9490
-10.1276 -7.1532 -1.4728 0.9513
-9.0154 -7.6617 -1.4054 0.9535
-5.6591 -10.1518 -1.3806 0.9543
-4.7368 -10.6333 -1.3827 0.9542
-2.7974 -11.4235 -1.3971 0.9537
-1.7811 -11.7298 -1.4093 0.9533
0.3503 -12.4063 -1.4743 0.9512
1.5397 -13.0223 -1.5576 0.9486
2.7775 -13.2155 -1.6041 0.9471
4.0288 -13.1820 -1.6373 0.9460
5.3100 -13.0635 -1.6751 0.9448
6.6195 -12.8545 -1.7175 0.9434
7.9550 -12.5486 -1.7649 0.9419
-5.3165 -9.4034 -1.5306 0.9573
-4.4615 -9.8549 -1.5328 0.9572
-3.5966 -10.3097 -1.5471 0.9568
-2.7058 -10.7677 -1.5731 0.9561
-0.7592 -11.2691 -1.6003 0.9554
4.5323 -11.3461 -1.7311 0.9518
5.6483 -11.1332 -1.7689 0.9508
6.7769 -10.8342 -1.8107 0.9497
7.9140 -10.4445 -1.8567 0.9484
9.0547 -9.9587 -1.9071 0.9471
11.3212 -8.6778 -2.0211 0.9440
12.5396 -6.4498 -1.9980 0.9446
2.3090 -0.9373 -0.3531 0.9900
15.2698 -3.2016 -2.2106 0.9389
15.0713 -1.7747 -2.1502 0.9405
12.1577 -0.3375 -1.7233 0.9521
11.3127 0.6990 -1.6059 0.9552
9.7597 1.4867 -1.3988 0.9609
8.4473 2.0729 -1.2324 0.9655
7.4924 2.5671 -1.1222 0.9685
6.8497 3.0552 -1.0627 0.9702
6.3225 3.5284 -1.0259 0.9712
5.5579 3.7900 -0.9532 0.9732
4.9848 4.0969 -0.9142 0.9743
4.5297 4.4578 -0.9005 0.9747
4.0172 4.7315 -0.8794 0.9752
2.5184 5.4118 -0.8458 0.9762
2.1024 5.8302 -0.8781 0.9753
1.0449 6.1925 -0.8898 0.9749
-0.0822 6.9850 -0.9898 0.9722
-1.4284 7.3999 -1.0678 0.9700
-6.9722 17.9967 -2.7346 0.9250
-8.2756 16.7423 -2.6462 0.9273
-9.4150 15.4069 -2.5583 0.9297
-11.2095 12.5900 -2.3885 0.9342
-11.8754 11.1494 -2.3080 0.9363
-12.3974 9.7096 -2.2312 0.9384
-12.7844 8.2840 -2.1584 0.9403
-13.1916 5.5157 -2.0259 0.9439
-13.1720 2.9055 -1.9112 0.9470
-13.0239 1.6715 -1.8605 0.9483
-12.7941 0.4887 -1.8141 0.9496
-12.4895 -0.6410 -1.7720 0.9507
-10.6416 -4.6142 -1.6434 0.9542
-9.4053 -6.2709 -1.6017 0.9554
-8.7216 -7.0171 -1.5861 0.9558
-7.9980 -7.7086 -1.5739 0.9561
-6.3772 -8.8408 -1.5445 0.9569
-5.5159 -9.2979 -1.5318 0.9573
-4.6613 -9.7496 -1.5312 0.9573
-3.7998 -10.2030 -1.5427 0.9570
-1.9723 -10.9891 -1.5819 0.9559
1.0470 -11.4988 -1.6360 0.9544
3.1785 -11.4972 -1.6901 0.9530
5.3869 -11.1903 -1.7597 0.9511
6.5129 -10.9119 -1.8005 0.9500
7.6484 -10.5437 -1.8456 0.9487
12.1745 -8.0703 -2.0696 0.9427
12.3087 -6.6592 -1.9829 0.9450
15.0784 -3.4913 -2.1930 0.9394
14.2624 -0.6938 -2.0232 0.9439
11.7204 0.4791 -1.6620 0.9537
10.1212 1.3265 -1.4463 0.9596
8.7238 1.9488 -1.2665 0.9645
6.9930 2.9459 -1.0752 0.9698
5.6989 3.7144 -0.9638 0.9729
5.1142 4.0276 -0.9224 0.9740
4.6276 4.3680 -0.9016 0.9746
3.5145 4.7667 -0.8391 0.9764
-0.5781 7.1768 -1.0202 0.9713
-3.6798 13.8721 -2.0335 0.9437
-6.6450 18.2746 -2.7552 0.9244
-7.9864 17.0429 -2.6668 0.9268
-9.1641 15.7241 -2.5787 0.9291
-10.1782 14.3436 -2.4920 0.9314
-12.2881 10.0445 -2.2487 0.9379
-12.7057 8.6145 -2.1750 0.9399
-13.0660 1.9547 -1.8719 0.9480
-12.8546 0.7598 -1.8245 0.9493
-12.5668 -0.3825 -1.7814 0.9505
-12.2093 -1.4708 -1.7424 0.9515
-11.7879 -2.5045 -1.7075 0.9525
-11.3077 -3.4832 -1.6765 0.9533
-10.7735 -4.4068 -1.6493 0.9541
-10.1893 -5.2753 -1.6257 0.9547
-9.5586 -6.0890 -1.6058 0.9552
-8.8847 -6.8480 -1.5894 0.9557
-8.1701 -7.5523 -1.5764 0.9560
-6.5804 -8.7328 -1.5493 0.9568
-5.7156 -9.1921 -1.5337 0.9572
-4.0020 -10.0968 -1.5389 0.9571
-1.2227 -11.1745 -1.5928 0.9556
0.8043 -11.4805 -1.6307 0.9546
1.8540 -11.5324 -1.6550 0.9539
4.0173 -11.4174 -1.7149 0.9523
5.1262 -11.2429 -1.7508 0.9513
7.3831 -10.6378 -1.8347 0.9490
8.5228 -10.1975 -1.8831 0.9477
10.7968 -9.0149 -1.9929 0.9448
11.9165 -8.2621 -2.0546 0.9431
14.0008 -4.9187 -2.1026 0.9418
11.2751 -2.8597 -1.6481 0.9541
15.6908 -2.5149 -2.2516 0.9378
14.8970 -1.0365 -2.1158 0.9415
10.4744 1.1511 -1.4930 0.9583
9.0168 1.8177 -1.3033 0.9635
6.6312 3.3460 -1.0524 0.9704
4.6670 4.2247 -0.8920 0.9749
4.2532 4.6055 -0.8882 0.9750
3.6650 4.7597 -0.8512 0.9760
1.8362 5.9713 -0.8852 0.9751
0.6642 3.1336 -0.4539 0.9871
0.1989 6.6393 -0.9411 0.9735
-0.4240 7.1155 -1.0100 0.9716
-1.0938 7.2879 -1.0442 0.9707
-6.3090 18.5462 -2.7757 0.9239
-8.9042 16.0380 -2.5991 0.9286
-9.9563 14.6698 -2.5121 0.9309
-2.2533 2.2997 -0.4562 0.9871
-12.1714 10.3800 -2.2665 0.9374
-12.6201 8.9462 -2.1918 0.9394
-12.9390 7.5327 -2.1214 0.9413
-13.1376 6.1487 -2.0552 0.9431
-13.2252 4.8018 -1.9936 0.9447
-13.1036 2.2406 -1.8836 0.9477
-12.9109 1.0337 -1.8352 0.9490
-12.6404 -0.1209 -1.7911 0.9502
-12.2986 -1.2220 -1.7512 0.9513
-11.8916 -2.2684 -1.7153 0.9523
-10.3298 -5.0777 -1.6309 0.9546
-9.7096 -5.9042 -1.6101 0.9551
-9.0455 -6.6759 -1.5929 0.9556
-8.3402 -7.3930 -1.5792 0.9560
-5.9158 -9.0859 -1.5362 0.9571
-5.0598 -9.5392 -1.5300 0.9573
-2.4202 -10.8587 -1.5763 0.9560
-1.4522 -11.1220 -1.5892 0.9557
-0.4574 -11.3227 -1.6056 0.9553
2.6740 -11.5237 -1.6762 0.9533
3.7611 -11.4465 -1.7072 0.9525
4.8663 -11.2909 -1.7421 0.9515
5.9864 -11.0526 -1.7810 0.9505
7.1181 -10.7269 -1.8241 0.9493
12.7558 -7.6052 -2.1042 0.9418
15.5099 -2.8188 -2.2336 0.9383
14.8471 -1.3447 -2.1123 0.9416
11.6902 -0.0101 -1.6564 0.9539
10.8257 0.9617 -1.5399 0.9570
8.1246 2.2269 -1.1936 0.9665
4.7909 4.1584 -0.8989 0.9747
3.7363 4.6484 -0.8450 0.9762
3.3205 4.9853 -0.8487 0.9761
2.8480 5.2367 -0.8446 0.9762
0.7352 3.1439 -0.4575 0.9870
0.3340 6.5680 -0.9318 0.9738
-0.9317 7.2324 -1.0332 0.9710
-5.9645 18.8113 -2.7961 0.9234
-9.7256 14.9935 -2.5322 0.9303
-10.6539 13.5897 -2.4467 0.9326
-11.4254 12.1578 -2.3639 0.9348
-12.5275 9.2791 -2.2089 0.9390
-12.8758 7.8599 -2.1374 0.9409
-13.2229 3.7977 -1.9493 0.9459
-13.1365 2.5293 -1.8955 0.9474
-12.9631 1.3105 -1.8461 0.9487
-12.3843 -0.9701 -1.7601 0.9511
-11.9920 -2.0293 -1.7233 0.9521
-11.5386 -3.0337 -1.6905 0.9529
-11.0291 -3.9830 -1.6615 0.9537
-10.4677 -4.8772 -1.6362 0.9544
-9.2041 -6.5009 -1.5966 0.9555
-8.5082 -7.2307 -1.5821 0.9559
-7.7730 -7.9058 -1.5709 0.9562
-6.9908 -8.5141 -1.5609 0.9565
-6.1168 -8.9792 -1.5394 0.9571
-5.2589 -9.4339 -1.5303 0.9573
-2.6419 -10.7886 -1.5738 0.9561
-1.6803 -11.0662 -1.5859 0.9558
-0.6917 -11.2817 -1.6015 0.9554
2.4234 -11.5309 -1.6695 0.9535
3.5060 -11.4714 -1.6996 0.9527
7.9910 -10.4148 -1.8600 0.9483
-4.0533 -8.9530 -1.6190 0.9609
-3.2468 -9.3070 -1.6239 0.9608
-1.5565 -9.8497 -1.6428 0.9604
-0.6761 -10.0351 -1.6569 0.9600
0.2255 -10.1605 -1.6742 0.9596
1.1463 -10.2238 -1.6948 0.9592
4.0002 -10.0140 -1.7765 0.9572
4.9724 -9.8010 -1.8105 0.9564
7.8974 -8.6858 -1.9339 0.9535
8.8575 -8.1439 -1.9822 0.9524
12.9071 -2.7062 -2.1725 0.9479
12.1488 -0.3372 -2.0022 0.9519
9.8125 1.4948 -1.6352 0.9606
7.5768 2.5961 -1.3194 0.9681
6.0052 3.3513 -1.1329 0.9725
4.9534 4.0711 -1.0563 0.9743
4.5242 4.4524 -1.0457 0.9746
4.0124 4.7258 -1.0213 0.9752
3.4597 4.9033 -0.9886 0.9760
2.5154 5.4055 -0.9822 0.9761
2.0849 5.7817 -1.0125 0.9754
0.8564 3.2638 -0.5559 0.9864
0.4990 6.4090 -1.0590 0.9743
-0.6271 6.1736 -1.0223 0.9752
-5.7615 14.8716 -2.6274 0.9374
-7.8682 12.8757 -2.4858 0.9407
-8.7327 11.7780 -2.4155 0.9423
-10.9656 7.1055 -2.1526 0.9484
-11.4146 4.7727 -2.0382 0.9511
-11.3948 1.4624 -1.8926 0.9545
-11.2288 0.4289 -1.8512 0.9555
-10.9927 -0.5642 -1.8133 0.9564
-10.6920 -1.5148 -1.7790 0.9572
-10.3314 -2.4213 -1.7481 0.9579
-9.9156 -3.2823 -1.7207 0.9585
-9.4484 -4.0968 -1.6965 0.9591
-8.9336 -4.8641 -1.6757 0.9596
-8.3746 -5.5836 -1.6581 0.9600
-7.1350 -6.8769 -1.6325 0.9606
-6.4597 -7.4495 -1.6244 0.9608
-5.7503 -7.9719 -1.6193 0.9609
-5.0089 -8.4433 -1.6173 0.9610
-4.2373 -8.8628 -1.6183 0.9610
-0.8833 -9.9971 -1.6533 0.9601
0.9300 -10.2147 -1.6897 0.9593
2.8131 -10.1756 -1.7392 0.9581
3.7746 -10.0530 -1.7690 0.9574
4.7452 -9.8574 -1.8023 0.9566
5.7213 -9.5856 -1.8390 0.9558
7.6716 -8.7995 -1.9232 0.9538
10.5040 -6.9630 -2.0761 0.9502
2.3112 -0.9948 -0.4145 0.9899
12.7611 -2.9547 -2.1579 0.9483
11.6936 0.4780 -1.9280 0.9537
10.1235 1.3268 -1.6820 0.9595
8.8991 1.9879 -1.5022 0.9637
6.8831 2.8996 -1.2304 0.9702
5.5759 3.6343 -1.0965 0.9734
4.1296 4.6632 -1.0261 0.9751
2.6253 5.3472 -0.9813 0.9761
0.6287 6.3583 -1.0526 0.9744
0.0598 6.5747 -1.0832 0.9737
-1.2363 7.2097 -1.2051 0.9708
-6.6281 14.1444 -2.5733 0.9386
-7.6485 13.1236 -2.5023 0.9403
-8.5425 12.0384 -2.4318 0.9419
-2.2970 2.2485 -0.5295 0.9871
-11.1859 6.2034 -2.1072 0.9495
-11.4948 2.7881 -1.9486 0.9532
-11.0537 -0.3364 -1.8218 0.9562
-10.0173 -3.0856 -1.7268 0.9584
-9.0577 -4.6895 -1.6803 0.9595
-7.9177 -6.1026 -1.6468 0.9603
-7.2874 -6.7362 -1.6348 0.9606
-6.6203 -7.3205 -1.6260 0.9608
-5.9186 -7.8546 -1.6202 0.9609
-5.1845 -8.3380 -1.6175 0.9610
-4.4198 -8.7697 -1.6178 0.9610
-3.6262 -9.1487 -1.6212 0.9609
-2.8055 -9.4737 -1.6277 0.9607
-1.9593 -9.7434 -1.6372 0.9605
-1.0893 -9.9560 -1.6499 0.9602
0.7147 -10.2022 -1.6848 0.9594
2.5907 -10.1941 -1.7328 0.9583
5.4934 -9.6560 -1.8301 0.9560
7.4454 -8.9084 -1.9126 0.9540
8.4117 -8.4077 -1.9593 0.9529
9.3629 -7.8177 -2.0094 0.9518
11.1784 -5.0903 -2.0235 0.9514
11.9246 -4.1894 -2.0822 0.9501
13.2251 -2.1197 -2.2065 0.9471
13.7536 -0.9569 -2.2712 0.9456
11.8207 0.2364 -1.9477 0.9532
9.1608 1.8467 -1.5395 0.9628
7.0815 2.8107 -1.2551 0.9696
5.1857 3.9114 -1.0701 0.9740
4.6105 4.1735 -1.0245 0.9751
4.2481 4.6000 -1.0315 0.9749
3.2061 5.0383 -0.9838 0.9761
2.7350 5.2889 -0.9809 0.9762
0.6372 3.0060 -0.5062 0.9876
-7.4219 13.3680 -2.5189 0.9399
-8.3454 12.2962 -2.4481 0.9415
-9.1424 11.1737 -2.3784 0.9432
-10.3660 8.8403 -2.2443 0.9463
-10.8009 7.6566 -2.1811 0.9477
-11.1254 6.4769 -2.1208 0.9492
-11.3457 5.3101 -2.0637 0.9505
-11.4683 4.1639 -2.0100 0.9517
-11.4999 3.0446 -1.9598 0.9529
-11.1111 -0.1063 -1.8305 0.9560
-10.5067 -2.0042 -1.7621 0.9576
-9.6724 -3.7228 -1.7074 0.9589
-9.1794 -4.5123 -1.6850 0.9594
-8.6406 -5.2542 -1.6659 0.9598
-8.0591 -5.9479 -1.6501 0.9602
-6.7790 -7.1887 -1.6278 0.9607
-5.3585 -8.2299 -1.6178 0.9610
-4.6007 -8.6737 -1.6175 0.9610
-3.8137 -9.0651 -1.6202 0.9609
-1.2942 -9.9116 -1.6467 0.9603
2.3689 -10.2088 -1.7265 0.9584
5.2657 -9.7220 -1.8214 0.9562
6.2430 -9.4082 -1.8601 0.9553
7.2187 -9.0127 -1.9023 0.9543
8.1875 -8.5323 -1.9481 0.9532
9.1429 -7.9634 -1.9974 0.9520
10.9704 -6.5407 -2.1041 0.9495
10.9971 -5.2874 -2.0102 0.9517
11.7556 -4.4075 -2.0682 0.9504
11.6897 -0.0101 -1.9257 0.9537
8.3038 2.2760 -1.4184 0.9657
5.8192 3.4559 -1.1150 0.9729
5.3031 3.8291 -1.0776 0.9738
4.7328 4.1080 -1.0324 0.9749
4.3677 4.5360 -1.0374 0.9748
0.7055 3.0167 -0.5104 0.9875
0.8833 6.2560 -1.0408 0.9747
-0.7930 6.1560 -1.0225 0.9752
-3.3364 15.0914 -2.5462 0.9393
-8.9678 11.4390 -2.3945 0.9428
-9.6690 10.2888 -2.3260 0.9444
-10.7096 7.9326 -2.1956 0.9474
-11.0593 6.7510 -2.1345 0.9488
-11.3033 5.5805 -2.0767 0.9502
-11.5003 3.3029 -1.9711 0.9527
-9.2985 -4.3325 -1.6899 0.9593
-8.7701 -5.0855 -1.6701 0.9597
-8.1983 -5.7905 -1.6535 0.9601
-7.5860 -6.4469 -1.6400 0.9604
-6.9357 -7.0543 -1.6297 0.9607
-5.5308 -8.1190 -1.6184 0.9610
-1.4978 -9.8640 -1.6436 0.9604
0.2871 -10.1668 -1.6755 0.9596
2.1479 -10.2198 -1.7204 0.9585
3.1010 -10.1462 -1.7478 0.9579
7.9626 -8.6521 -1.9371 0.9535
-4.3619 -7.7150 -1.6658 0.9646
-2.9300 -8.3989 -1.6720 0.9644
-1.4031 -8.8785 -1.6895 0.9641
0.2029 -9.1414 -1.7187 0.9635
1.0301 -9.1870 -1.7376 0.9631
2.7201 -9.0960 -1.7845 0.9621
3.5771 -8.9548 -1.8125 0.9615
4.4375 -8.7466 -1.8435 0.9609
6.9964 -7.6950 -1.9548 0.9586
8.6304 -6.6153 -2.0439 0.9567
2.3075 -0.9366 -0.4681 0.9899
11.1665 -2.3413 -2.1445 0.9546
11.6186 -1.3681 -2.1989 0.9535
11.9872 -0.3328 -2.2540 0.9524
8.6346 2.1188 -1.6711 0.9645
6.0672 3.3859 -1.3060 0.9721
4.8328 3.9720 -1.1758 0.9749
4.5186 4.4469 -1.1916 0.9745
4.0076 4.7202 -1.1639 0.9751
3.3748 4.7829 -1.1003 0.9765
2.4574 5.2807 -1.0948 0.9766
1.9872 5.5110 -1.1011 0.9764
0.4890 6.2805 -1.1841 0.9747
-0.0779 6.6189 -1.2442 0.9734
-2.4920 12.9096 -2.4713 0.9479
-4.5507 11.7462 -2.3677 0.9500
-7.5228 10.1462 -2.3741 0.9499
-2.3863 2.2404 -0.6152 0.9868
-9.2230 7.2235 -2.2020 0.9534
-9.8654 5.2051 -2.0966 0.9556
-10.0507 4.2024 -2.0476 0.9566
-10.1515 3.2134 -2.0014 0.9576
-10.1729 2.2439 -1.9581 0.9585
-10.1196 1.2988 -1.9177 0.9593
-9.9966 0.3819 -1.8803 0.9601
-9.8085 -0.5034 -1.8460 0.9608
-9.5596 -1.3544 -1.8148 0.9615
-8.8963 -2.9449 -1.7614 0.9626
-8.4894 -3.6810 -1.7392 0.9630
-8.0369 -4.3759 -1.7200 0.9634
-7.0072 -5.6377 -1.6904 0.9641
-6.4355 -6.2027 -1.6800 0.9643
-5.1907 -7.1960 -1.6677 0.9645
-4.5220 -7.6225 -1.6659 0.9646
-3.8251 -8.0007 -1.6668 0.9646
-3.1021 -8.3295 -1.6707 0.9645
-2.3549 -8.6076 -1.6773 0.9643
-1.5854 -8.8335 -1.6869 0.9641
0.0122 -9.1224 -1.7147 0.9636
0.8360 -9.1817 -1.7329 0.9632
1.6732 -9.1815 -1.7542 0.9627
3.3769 -8.9937 -1.8057 0.9617
4.2368 -8.8012 -1.8360 0.9610
5.0971 -8.5399 -1.8693 0.9603
9.2574 -5.0084 -1.9784 0.9581
2.3073 -0.9931 -0.4721 0.9898
11.0503 -2.5586 -2.1320 0.9549
11.5203 -1.6008 -2.1862 0.9538
11.9093 -0.5793 -2.2411 0.9526
10.1032 1.3241 -1.9152 0.9594
8.8832 1.9844 -1.7108 0.9636
7.8905 2.5209 -1.5570 0.9668
6.2348 3.3109 -1.3269 0.9717
5.5527 3.6192 -1.2458 0.9734
4.9583 3.9047 -1.1863 0.9746
4.6265 4.3669 -1.1958 0.9744
4.1247 4.6576 -1.1694 0.9750
3.4808 4.7210 -1.1025 0.9764
3.0252 4.9804 -1.0953 0.9766
2.0979 5.4583 -1.0991 0.9765
1.6190 5.6841 -1.1109 0.9762
0.0594 6.5350 -1.2284 0.9738
-0.4909 6.0953 -1.1494 0.9754
-4.3274 11.9010 -2.3802 0.9498
-5.2512 11.2061 -2.3261 0.9509
-6.0842 10.4395 -2.2711 0.9520
-7.3520 10.3608 -2.3879 0.9496
-2.2955 2.2471 -0.6038 0.9870
-9.8096 5.4401 -2.1084 0.9554
-10.0152 4.4351 -2.0588 0.9564
-10.1385 1.5167 -1.9268 0.9591
-9.6228 -1.1592 -1.8218 0.9613
-8.1463 -4.2176 -1.7242 0.9634
-7.1353 -5.4996 -1.6933 0.9640
-6.5720 -6.0750 -1.6822 0.9642
-5.9736 -6.6053 -1.6739 0.9644
-5.3423 -7.0898 -1.6686 0.9645
-4.6804 -7.5273 -1.6660 0.9646
-3.9900 -7.9169 -1.6664 0.9646
-1.7667 -8.7856 -1.6844 0.9642
0.6426 -9.1731 -1.7284 0.9633
1.4770 -9.1870 -1.7490 0.9628
3.1769 -9.0288 -1.7991 0.9618
4.8968 -8.6071 -1.8613 0.9605
7.4410 -7.4374 -1.9775 0.9581
8.2581 -6.8952 -2.0221 0.9572
9.0487 -6.2737 -2.0696 0.9562
9.1616 -5.2064 -1.9807 0.9580
9.7612 -4.4450 -2.0160 0.9573
10.9302 -2.7722 -2.1195 0.9551
11.4176 -1.8300 -2.1734 0.9540
11.8264 -0.8228 -2.2283 0.9529
11.8201 0.2364 -2.2222 0.9530
10.4314 1.1464 -1.9725 0.9582
9.1440 1.8433 -1.7533 0.9627
5.7037 3.5503 -1.2628 0.9730
5.0860 3.8362 -1.1974 0.9744
4.5534 4.1218 -1.1544 0.9753
4.2429 4.5944 -1.1755 0.9749
3.5868 4.6582 -1.1050 0.9764
3.1317 4.9213 -1.0964 0.9765
2.2078 5.4050 -1.0974 0.9765
1.7312 5.6297 -1.1071 0.9763
0.6326 2.9845 -0.5734 0.9877
-1.0878 7.2481 -1.3776 0.9706
-4.0996 12.0512 -2.3926 0.9495
-5.8983 10.6239 -2.2840 0.9517
-7.1757 10.5728 -2.4017 0.9493
-2.2546 2.3010 -0.6055 0.9870
-9.0183 7.6910 -2.2278 0.9529
-9.4313 6.6857 -2.1729 0.9540
-9.7488 5.6754 -2.1203 0.9551
-10.1725 2.6932 -1.9779 0.9581
-9.9040 -0.0948 -1.8616 0.9605
-9.4034 -1.7938 -1.7993 0.9618
-9.0696 -2.5879 -1.7728 0.9623
-7.7778 -4.7295 -1.7110 0.9636
-7.2613 -5.3591 -1.6963 0.9639
-6.7065 -5.9448 -1.6845 0.9642
-6.1161 -6.4858 -1.6756 0.9644
-4.8374 -7.4296 -1.6664 0.9646
-3.4423 -8.1824 -1.6685 0.9645
-1.9468 -8.7348 -1.6821 0.9642
-1.1663 -8.9322 -1.6932 0.9640
-0.3666 -9.0750 -1.7071 0.9637
2.1247 -9.1563 -1.7667 0.9625
3.8355 -8.8994 -1.8215 0.9613
4.6962 -8.6705 -1.8534 0.9607
5.5550 -8.3713 -1.8884 0.9599
6.4072 -7.9995 -1.9264 0.9591
7.2474 -7.5526 -1.9675 0.9583
8.8671 -6.4258 -2.0583 0.9564
9.6147 -5.7324 -2.1040 0.9555
9.6109 -4.6209 -2.0044 0.9575
10.2365 -3.8379 -2.0549 0.9565
10.8064 -2.9820 -2.1071 0.9554
11.3106 -2.0556 -2.1608 0.9543
11.7387 -1.0631 -2.2154 0.9532
10.7798 0.9576 -2.0342 0.9569
9.4181 1.6950 -1.7987 0.9618
6.5884 3.1538 -1.3729 0.9707
5.8592 3.4797 -1.2809 0.9726
4.3624 4.5305 -1.1822 0.9747
3.6929 4.5944 -1.1080 0.9763
0.7005 2.9954 -0.5782 0.9876
-0.8267 6.4170 -1.2161 0.9740
-2.8210 12.7603 -2.4564 0.9482
-3.8671 12.1965 -2.4049 0.9493
-9.3437 6.9208 -2.1855 0.9538
-9.6831 5.9110 -2.1324 0.9549
-10.0896 3.9034 -2.0334 0.9569
-10.0898 1.0200 -1.9061 0.9596
-9.7398 -0.7629 -1.8363 0.9610
-9.1521 -2.4062 -1.7787 0.9622
-8.3581 -3.8943 -1.7331 0.9632
-7.8925 -4.5765 -1.7148 0.9635
-7.3852 -5.2162 -1.6995 0.9639
-5.6406 -6.8697 -1.6707 0.9645
-4.3154 -7.7413 -1.6659 0.9646
-3.6104 -8.1048 -1.6677 0.9645
-2.8799 -8.4185 -1.6724 0.9644
0.2583 -9.1464 -1.7198 0.9634
1.0863 -9.1880 -1.7390 0.9630
1.9271 -9.1695 -1.7612 0.9626
2.7777 -9.0885 -1.7863 0.9621
3.6351 -8.9429 -1.8145 0.9615
5.3552 -8.4475 -1.8800 0.9601
-3.9725 -7.0261 -1.7061 0.9675
-2.6675 -7.6465 -1.7118 0.9674
-1.9816 -7.8856 -1.7187 0.9673
-1.2762 -8.0755 -1.7282 0.9671
-0.5534 -8.2148 -1.7404 0.9669
0.9345 -8.3347 -1.7728 0.9663
1.6946 -8.3119 -1.7931 0.9659
2.4616 -8.2315 -1.8161 0.9655
3.2323 -8.0917 -1.8418 0.9650
4.7702 -7.6261 -1.9014 0.9639
5.5290 -7.2968 -1.9352 0.9633
6.2746 -6.9010 -1.9716 0.9626
7.7037 -5.9050 -2.0518 0.9611
2.3076 -0.9367 -0.5264 0.9899
9.3955 -2.8666 -2.0764 0.9606
9.8297 -2.0610 -2.1230 0.9598
10.6953 0.6608 -2.2651 0.9571
9.7742 1.4889 -2.0899 0.9604
7.6713 2.6284 -1.7141 0.9674
6.1611 3.4383 -1.4914 0.9716
5.5064 3.7549 -1.4088 0.9731
3.3696 4.7756 -1.2355 0.9764
2.9055 5.0161 -1.2253 0.9766
2.4481 5.2607 -1.2265 0.9766
0.5323 3.1547 -0.6763 0.9870
0.4973 6.3874 -1.3542 0.9741
-0.6169 6.0733 -1.2904 0.9754
-3.0870 10.7292 -2.3600 0.9554
-3.9565 10.2126 -2.3151 0.9562
-4.7560 9.6217 -2.2687 0.9571
-5.4800 8.9676 -2.2215 0.9579
-8.9697 3.7504 -2.0551 0.9610
-9.0818 2.8748 -2.0136 0.9618
-9.1217 2.0121 -1.9745 0.9625
-8.6371 -1.2237 -1.8439 0.9650
-8.0607 -2.6683 -1.7948 0.9659
-7.7011 -3.3392 -1.7743 0.9663
-6.3731 -5.1276 -1.7290 0.9671
-5.8565 -5.6446 -1.7193 0.9673
-5.3069 -6.1200 -1.7123 0.9674
-4.7267 -6.5528 -1.7079 0.9675
-3.4834 -7.2859 -1.7071 0.9675
-2.8244 -7.5838 -1.7106 0.9675
-0.7233 -8.1869 -1.7373 0.9670
1.5166 -8.3223 -1.7881 0.9660
3.0525 -8.1297 -1.8356 0.9651
4.5919 -7.6935 -1.8939 0.9640
5.3531 -7.3795 -1.9271 0.9634
6.1022 -6.9993 -1.9628 0.9627
8.2214 -5.4499 -2.0850 0.9605
2.3033 -0.9914 -0.5301 0.9898
9.2855 -3.0462 -2.0657 0.9608
10.0828 1.3214 -2.1495 0.9593
8.8672 1.9808 -1.9205 0.9635
7.8776 2.5168 -1.7481 0.9668
5.6572 3.6872 -1.4274 0.9728
4.1197 4.6520 -1.3135 0.9749
2.0962 5.4540 -1.2351 0.9764
1.6286 5.7180 -1.2567 0.9760
-0.4906 6.0913 -1.2917 0.9753
-1.2657 7.3808 -1.5829 0.9698
-2.8748 10.8378 -2.3701 0.9552
-3.7599 10.3401 -2.3257 0.9560
-5.9821 8.4302 -2.1850 0.9586
-7.0750 8.2881 -2.3034 0.9564
-2.2940 2.2456 -0.6785 0.9870
-8.0712 6.5975 -2.2035 0.9583
-8.4405 5.7227 -2.1556 0.9592
-8.7267 4.8396 -2.1093 0.9600
-9.1186 2.2118 -1.9834 0.9624
-9.0277 0.5336 -1.9116 0.9637
-8.8882 -0.2705 -1.8797 0.9643
-7.7890 -3.1860 -1.7788 0.9662
-7.3958 -3.8291 -1.7604 0.9665
-6.4886 -5.0012 -1.7317 0.9671
-4.8646 -6.4558 -1.7087 0.9675
-4.2625 -6.8551 -1.7063 0.9675
-3.6336 -7.2098 -1.7066 0.9675
-1.6074 -7.9932 -1.7234 0.9672
-0.8924 -8.1563 -1.7344 0.9670
1.3391 -8.3296 -1.7833 0.9661
2.8727 -8.1644 -1.8295 0.9652
3.6440 -7.9920 -1.8567 0.9647
4.4133 -7.7574 -1.8865 0.9642
5.9289 -7.0939 -1.9543 0.9629
7.3798 -6.1618 -2.0322 0.9615
8.0899 -4.5974 -1.9669 0.9627
8.6547 -3.9411 -2.0102 0.9619
9.6351 -2.4437 -2.1011 0.9602
10.4097 1.1440 -2.2136 0.9581
9.1271 1.8399 -1.9681 0.9626
7.2211 2.8662 -1.6422 0.9687
5.8124 3.6180 -1.4472 0.9724
5.1767 3.9046 -1.3706 0.9738
3.5910 4.6636 -1.2442 0.9762
3.1205 4.9037 -1.2286 0.9765
2.6611 5.1458 -1.2246 0.9766
2.2036 5.3946 -1.2318 0.9765
-2.6595 10.9416 -2.3802 0.9550
-3.5595 10.4635 -2.3362 0.9558
-4.3923 9.9058 -2.2905 0.9567
-2.2553 2.3017 -0.6812 0.9869
-7.9729 6.7995 -2.2150 0.9581
-8.8918 4.1616 -2.0752 0.9607
-9.0387 3.2818 -2.0326 0.9614
-9.1118 2.4124 -1.9924 0.9622
-9.1148 1.5586 -1.9546 0.9629
-9.0516 0.7247 -1.9194 0.9636
-8.9260 -0.0854 -1.8869 0.9642
-8.2127 -2.3434 -1.8053 0.9657
-7.8744 -3.0308 -1.7835 0.9661
-7.0662 -4.2968 -1.7481 0.9668
-6.1016 -5.4086 -1.7235 0.9672
-5.5671 -5.9036 -1.7152 0.9674
-2.4635 -7.7235 -1.7136 0.9674
-1.7715 -7.9480 -1.7213 0.9673
-1.0606 -8.1228 -1.7316 0.9671
0.4086 -8.3174 -1.7602 0.9665
1.1621 -8.3338 -1.7786 0.9662
2.6930 -8.1958 -1.8236 0.9653
4.2343 -7.8177 -1.8793 0.9643
4.9994 -7.5340 -1.9113 0.9637
6.4953 -6.7688 -1.9830 0.9624
7.2155 -6.2846 -2.0226 0.9616
7.9090 -5.7315 -2.0646 0.9609
8.5492 -5.0971 -2.1039 0.9601
9.0563 -3.3955 -2.0445 0.9612
9.5326 -2.6305 -2.0903 0.9604
9.9475 -1.8079 -2.1371 0.9595
10.2926 -0.9322 -2.1845 0.9586
10.5595 -0.0091 -2.2321 0.9577
10.7400 0.9541 -2.2792 0.9569
8.3161 2.2794 -1.8227 0.9654
6.6415 3.1792 -1.5564 0.9703
5.9663 3.5433 -1.4668 0.9720
5.3182 3.8400 -1.3866 0.9735
4.3571 4.5250 -1.3278 0.9746
3.2288 4.8478 -1.2312 0.9765
2.7677 5.0890 -1.2245 0.9766
0.8701 6.1623 -1.3155 0.9749
0.3300 6.4897 -1.3736 0.9738
-0.2652 6.8566 -1.4504 0.9723
-2.4408 11.0404 -2.3901 0.9548
-3.3554 10.5824 -2.3467 0.9556
-4.2045 10.0423 -2.3013 0.9565
-6.3037 8.0407 -2.1597 0.9591
-7.3749 7.8477 -2.2764 0.9569
-7.8700 7.0003 -2.2264 0.9579
-8.2788 6.1321 -2.1777 0.9588
-8.6034 5.2519 -2.1306 0.9596
-8.8465 4.3675 -2.0854 0.9605
-9.0112 3.4862 -2.0424 0.9613
-9.1012 2.6139 -2.0016 0.9620
-9.0720 0.9171 -1.9274 0.9634
-8.9607 0.1012 -1.8942 0.9640
-8.7899 -0.6885 -1.8637 0.9646
-7.5844 -3.5338 -1.7687 0.9664
-7.1689 -4.1570 -1.7517 0.9667
-5.6946 -5.7919 -1.7169 0.9673
-5.1356 -6.2547 -1.7107 0.9675
-3.2877 -7.3804 -1.7079 0.9675
-1.9346 -7.9000 -1.7192 0.9673
-0.5041 -8.2223 -1.7413 0.9669
0.9855 -8.3349 -1.7741 0.9663
1.7461 -8.3083 -1.7946 0.9659
2.5135 -8.2240 -1.8178 0.9655
6.3243 -6.8719 -1.9741 0.9625
-2.4463 -7.0123 -1.7454 0.9699
-1.8166 -7.2292 -1.7518 0.9698
-1.1694 -7.3999 -1.7607 0.9697
-0.5068 -7.5230 -1.7721 0.9695
1.5479 -7.5926 -1.8211 0.9687
2.2461 -7.5108 -1.8425 0.9683
4.3347 -6.9299 -1.9211 0.9670
5.6826 -6.2500 -1.9853 0.9659
7.5336 -4.7708 -2.0957 0.9640
8.7697 -1.8387 -2.1059 0.9639
9.0753 -1.0687 -2.1476 0.9631
9.3122 -0.2585 -2.1894 0.9624
9.4736 0.5854 -2.2308 0.9617
6.8511 3.0559 -1.7631 0.9696
6.1524 3.4335 -1.6559 0.9715
4.9594 4.0761 -1.5087 0.9740
4.5074 4.4359 -1.4863 0.9743
3.9979 4.7088 -1.4517 0.9749
3.4259 4.8554 -1.3966 0.9759
2.9536 5.0992 -1.3849 0.9761
2.0217 5.6066 -1.4007 0.9758
0.7983 3.0424 -0.7392 0.9872
0.5018 6.4450 -1.5193 0.9738
-2.7214 9.4584 -2.3131 0.9604
-4.2119 8.5211 -2.2339 0.9617
-4.8648 7.9608 -2.1927 0.9624
-5.4508 7.3516 -2.1509 0.9631
-7.6480 4.9557 -2.1418 0.9632
-7.9052 4.1709 -2.1006 0.9639
-8.0912 3.3831 -2.0611 0.9646
-8.2487 1.0586 -1.9545 0.9664
-8.1779 0.3124 -1.9234 0.9669
-8.0507 -0.4132 -1.8946 0.9674
-7.8704 -1.1151 -1.8682 0.9679
-7.3626 -2.4372 -1.8227 0.9686
-5.3688 -5.1745 -1.7524 0.9698
-4.3355 -6.0105 -1.7418 0.9700
-3.1952 -6.6832 -1.7410 0.9700
-1.9651 -7.1827 -1.7501 0.9699
-0.6625 -7.4987 -1.7692 0.9695
0.0101 -7.5844 -1.7825 0.9693
0.6938 -7.6199 -1.7983 0.9690
1.3857 -7.6039 -1.8165 0.9687
2.7826 -7.4109 -1.8605 0.9680
4.1743 -6.9937 -1.9142 0.9671
4.8584 -6.6976 -1.9446 0.9666
6.1805 -5.9251 -2.0122 0.9654
6.8081 -5.4476 -2.0492 0.9648
7.3933 -3.9999 -1.9756 0.9660
8.3084 -2.7256 -2.0551 0.9647
8.6893 -2.0119 -2.0962 0.9640
9.0100 -1.2520 -2.1379 0.9633
9.2635 -0.4506 -2.1797 0.9626
9.4430 0.3860 -2.2212 0.9619
7.8646 2.5126 -1.9404 0.9666
7.0275 2.9604 -1.7922 0.9692
6.3077 3.3496 -1.6785 0.9711
5.6684 3.6945 -1.5902 0.9726
3.5381 4.7987 -1.4012 0.9758
2.5969 5.2892 -1.3848 0.9761
2.1312 5.5451 -1.3962 0.9759
1.6563 5.8152 -1.4211 0.9755
0.6306 6.3773 -1.5061 0.9740
-1.2638 7.3697 -1.7573 0.9697
-3.3202 9.1311 -2.2835 0.9609
-4.0505 8.6437 -2.2435 0.9615
-5.3203 7.4975 -2.1607 0.9629
-5.8534 6.8570 -2.1189 0.9636
-2.2924 2.2441 -0.7539 0.9869
-7.5775 5.1376 -2.1516 0.9631
-8.1871 2.7807 -2.0321 0.9651
-8.2568 1.2352 -1.9621 0.9663
-8.1996 0.4846 -1.9305 0.9668
-8.0852 -0.2461 -1.9011 0.9673
-7.9170 -0.9537 -1.8741 0.9678
-7.6980 -1.6355 -1.8496 0.9682
-7.4313 -2.2891 -1.8275 0.9686
-7.1198 -2.9123 -1.8079 0.9689
-6.7665 -3.5032 -1.7908 0.9692
-5.4814 -5.0669 -1.7543 0.9698
-4.4618 -5.9213 -1.7425 0.9700
-3.9100 -6.2882 -1.7403 0.9700
-2.1125 -7.1337 -1.7486 0.9699
-1.4732 -7.3261 -1.7563 0.9698
0.5336 -7.6162 -1.7944 0.9691
1.2238 -7.6123 -1.8120 0.9688
1.9202 -7.5557 -1.8322 0.9685
2.6195 -7.4448 -1.8548 0.9681
4.0133 -7.0542 -1.9074 0.9672
5.3740 -6.4300 -1.9695 0.9662
6.0306 -6.0277 -2.0039 0.9656
7.2693 -5.0401 -2.0789 0.9643
7.2752 -4.1344 -1.9667 0.9662
7.7659 -3.5364 -2.0055 0.9655
8.2117 -2.8849 -2.0456 0.9649
8.9410 -1.4330 -2.1282 0.9635
9.2107 -0.6409 -2.1700 0.9628
9.4081 0.1882 -2.2116 0.9621
9.5267 1.0470 -2.2525 0.9614
9.1101 1.8365 -2.1842 0.9625
6.4674 3.2633 -1.7025 0.9707
4.6729 4.2300 -1.4814 0.9744
3.1723 4.9852 -1.3887 0.9760
0.6247 2.9472 -0.7080 0.9877
0.1979 6.6046 -1.5529 0.9732
-0.4126 6.9246 -1.6303 0.9719
-0.9414 6.2726 -1.4907 0.9743
-2.3421 9.6358 -2.3306 0.9601
-3.8856 8.7631 -2.2529 0.9614
-4.5685 8.2287 -2.2120 0.9621
-7.5030 5.3188 -2.1615 0.9629
-7.7943 4.5376 -2.1196 0.9636
-8.0132 3.7504 -2.0793 0.9643
-8.1622 2.9635 -2.0408 0.9649
-8.2440 2.1826 -2.0043 0.9656
-8.2616 1.4127 -1.9698 0.9661
-7.7534 -1.4790 -1.8551 0.9681
-6.8524 -3.3684 -1.7945 0.9691
-6.0479 -4.4636 -1.7666 0.9696
-2.8750 -6.8338 -1.7425 0.9700
-2.2590 -7.0822 -1.7471 0.9699
-1.6238 -7.2854 -1.7543 0.9698
-0.9717 -7.4420 -1.7639 0.9696
0.3738 -7.6097 -1.7906 0.9692
1.0622 -7.6179 -1.8077 0.9689
3.1557 -7.3220 -1.8739 0.9678
3.8519 -7.1116 -1.9008 0.9673
4.5408 -6.8430 -1.9301 0.9668
5.8793 -6.1269 -1.9957 0.9657
6.5189 -5.6779 -2.0317 0.9651
7.1311 -5.1677 -2.0698 0.9645
7.6553 -3.6807 -1.9963 0.9657
8.1121 -3.0414 -2.0361 0.9650
9.3689 -0.0081 -2.2019 0.9622
9.5064 0.8445 -2.2430 0.9615
8.3017 2.2755 -2.0231 0.9652
6.6317 3.1745 -1.7280 0.9702
5.9580 3.5384 -1.6286 0.9719
5.3524 3.8647 -1.5516 0.9732
4.7968 4.1635 -1.4928 0.9742
4.3517 4.5194 -1.4745 0.9746
3.8488 4.7884 -1.4439 0.9751
3.2826 4.9284 -1.3917 0.9760
2.8135 5.1732 -1.3840 0.9761
2.3489 5.4244 -1.3892 0.9760
1.8795 5.6871 -1.4077 0.9757
0.6939 2.9670 -0.7161 0.9876
-0.2648 6.8472 -1.6105 0.9722
-0.7896 6.1292 -1.4524 0.9749
-2.1485 9.7181 -2.3391 0.9599
-2.9599 9.3352 -2.3016 0.9606
-4.4150 8.3584 -2.2216 0.9619
-5.6135 7.1603 -2.1383 0.9633
-7.4245 5.4993 -2.1715 0.9627
-8.1335 3.1466 -2.0496 0.9648
-8.2631 1.5910 -1.9777 0.9660
-8.0020 -0.6268 -1.8864 0.9676
-7.8062 -1.3210 -1.8607 0.9680
-7.5614 -1.9880 -1.8375 0.9684
-7.2704 -2.6256 -1.8167 0.9687
-6.9363 -3.2318 -1.7984 0.9690
-6.5617 -3.8049 -1.7827 0.9693
-6.1492 -4.3432 -1.7693 0.9695
-4.1706 -6.1222 -1.7410 0.9700
-3.6051 -6.4671 -1.7401 0.9700
-1.7735 -7.2422 -1.7524 0.9698
0.9010 -7.6206 -1.8035 0.9690
1.5949 -7.5888 -1.8225 0.9686
2.2933 -7.5033 -1.8440 0.9683
2.9928 -7.3629 -1.8679 0.9679
5.0616 -6.5969 -1.9542 0.9664
-2.2571 -6.4699 -1.7742 0.9721
-1.6756 -6.6682 -1.7802 0.9720
0.1553 -6.9970 -1.8121 0.9715
1.4234 -6.9820 -1.8449 0.9710
2.0635 -6.9003 -1.8648 0.9707
3.3396 -6.5826 -1.9112 0.9700
3.9686 -6.3446 -1.9376 0.9696
5.1880 -5.7060 -1.9967 0.9686
5.7693 -5.3045 -2.0292 0.9681
6.3251 -4.8483 -2.0634 0.9676
6.8406 -4.3319 -2.0964 0.9671
7.5912 -2.3161 -2.0549 0.9677
7.9079 -1.6580 -2.0920 0.9672
8.3644 -0.2322 -2.1665 0.9660
8.4931 0.5248 -2.2032 0.9655
8.5487 1.3023 -2.2389 0.9649
6.1436 3.4286 -1.8216 0.9713
4.9530 4.0708 -1.6600 0.9739
3.4432 4.8799 -1.5463 0.9756
2.9720 5.1310 -1.5353 0.9758
1.8069 3.8829 -1.1089 0.9825
2.0304 5.6307 -1.5498 0.9756
0.8015 3.0542 -0.8176 0.9870
0.5011 6.4365 -1.6716 0.9737
-0.6156 6.0602 -1.5772 0.9751
-1.6896 8.7531 -2.3082 0.9638
-2.4304 8.4473 -2.2759 0.9643
-4.3690 7.1495 -2.1694 0.9660
-5.3804 6.0429 -2.0949 0.9671
-6.9347 4.4935 -2.1395 0.9664
-7.1808 3.7886 -2.1021 0.9670
-7.3624 3.0784 -2.0662 0.9676
-7.4815 2.3682 -2.0318 0.9681
-7.5401 1.6632 -1.9992 0.9686
-7.4864 0.2860 -1.9398 0.9695
-7.3793 -0.3787 -1.9131 0.9699
-7.2224 -1.0233 -1.8887 0.9703
-6.1505 -3.3488 -1.8132 0.9715
-5.3842 -4.3319 -1.7893 0.9719
-4.0009 -5.5465 -1.7707 0.9721
-2.3901 -6.4176 -1.7731 0.9721
1.2745 -6.9938 -1.8406 0.9711
3.8228 -6.4049 -1.9313 0.9697
4.4434 -6.1255 -1.9593 0.9692
6.7305 -4.4615 -2.0907 0.9672
7.5097 -2.4636 -2.0464 0.9679
7.8389 -1.8150 -2.0833 0.9673
8.4695 0.3462 -2.1947 0.9656
8.5425 1.1196 -2.2307 0.9650
8.5391 1.9075 -2.2654 0.9645
7.8514 2.5084 -2.1341 0.9665
7.0167 2.9559 -1.9714 0.9690
5.6606 3.6895 -1.7495 0.9725
4.1096 4.6406 -1.6049 0.9747
3.0568 5.0323 -1.5245 0.9760
2.6129 5.3219 -1.5350 0.9758
2.1415 5.5718 -1.5455 0.9756
1.6596 5.8267 -1.5686 0.9753
0.5648 2.9687 -0.7824 0.9876
-4.2357 7.2678 -2.1780 0.9658
-4.7852 6.7435 -2.1409 0.9664
-5.2750 6.1794 -2.1036 0.9670
-6.8678 4.6564 -2.1484 0.9663
-7.3257 3.2441 -2.0744 0.9674
-7.4592 2.5335 -2.0397 0.9680
-7.5317 1.8269 -2.0066 0.9685
-7.5458 1.1288 -1.9755 0.9690
-7.4088 -0.2255 -1.9192 0.9698
-7.2633 -0.8750 -1.8942 0.9702
-7.0700 -1.5021 -1.8714 0.9706
-6.2306 -3.2258 -1.8166 0.9714
-5.0555 -4.6732 -1.7825 0.9720
-4.6003 -5.0869 -1.7758 0.9721
-3.6084 -5.8032 -1.7693 0.9722
-2.5220 -6.3630 -1.7722 0.9721
-1.3586 -6.7563 -1.7843 0.9719
-0.1361 -6.9730 -1.8058 0.9716
0.4912 -7.0119 -1.8200 0.9714
1.1258 -7.0029 -1.8365 0.9711
3.0436 -6.6754 -1.8996 0.9701
5.5011 -5.4985 -2.0138 0.9684
7.0357 -3.2039 -2.0017 0.9686
8.0540 -1.2909 -2.1119 0.9669
8.4419 0.1688 -2.1862 0.9657
8.5469 1.7229 -2.2575 0.9646
8.0649 2.3925 -2.1781 0.9658
6.4579 3.2585 -1.8729 0.9706
5.8034 3.6124 -1.7699 0.9721
4.6669 4.2246 -1.6299 0.9743
2.7221 5.2639 -1.5344 0.9758
0.6208 2.9288 -0.7752 0.9877
-0.4120 6.9149 -1.7936 0.9718
-0.9392 6.2578 -1.6384 0.9742
-2.8084 8.2556 -2.2578 0.9646
-5.1662 6.3141 -2.1123 0.9669
-2.2567 2.3031 -0.8349 0.9868
-6.7974 4.8186 -2.1573 0.9662
-7.0741 4.1183 -2.1194 0.9667
-7.4336 2.6990 -2.0476 0.9679
-7.5201 1.9910 -2.0142 0.9684
-7.5476 1.2906 -1.9826 0.9689
-7.4356 -0.0711 -1.9253 0.9697
-7.3016 -0.7255 -1.8998 0.9701
-7.1192 -1.3580 -1.8765 0.9705
-6.8911 -1.9663 -1.8555 0.9708
-6.6201 -2.5480 -1.8366 0.9711
-5.5749 -4.1145 -1.7940 0.9718
-4.7090 -4.9937 -1.7772 0.9720
-3.7292 -5.7276 -1.7696 0.9722
-3.2021 -6.0369 -1.7693 0.9722
-2.6530 -6.3061 -1.7714 0.9721
-2.0841 -6.5340 -1.7757 0.9721
-1.4976 -6.7193 -1.7824 0.9720
-0.8958 -6.8608 -1.7915 0.9718
-0.2811 -6.9572 -1.8028 0.9716
0.9774 -7.0094 -1.8324 0.9712
1.6157 -6.9627 -1.8507 0.9709
2.8952 -6.7175 -1.8939 0.9702
3.5296 -6.5167 -1.9189 0.9698
4.1556 -6.2625 -1.9460 0.9694
5.3651 -5.5911 -2.0063 0.9685
6.9792 -4.1611 -2.1038 0.9670
6.9385 -3.3360 -1.9934 0.9687
7.3388 -2.7515 -2.0293 0.9681
8.5177 0.7567 -2.2141 0.9653
8.5505 1.5388 -2.2494 0.9647
8.2873 2.2715 -2.2249 0.9651
5.9497 3.5334 -1.7917 0.9718
4.7906 4.1581 -1.6424 0.9741
4.3463 4.5137 -1.6224 0.9744
3.8441 4.7826 -1.5887 0.9750
2.8312 5.2059 -1.5343 0.9758
1.8861 5.7070 -1.5562 0.9755
0.3318 6.5254 -1.6917 0.9734
-0.2645 6.8377 -1.7717 0.9721
-0.7884 6.1200 -1.5977 0.9748
-1.9165 8.6687 -2.2987 0.9640
-2.6449 8.3417 -2.2658 0.9645
-3.9598 7.4965 -2.1951 0.9656
-4.5363 6.9934 -2.1583 0.9661
-5.0542 6.4469 -2.1210 0.9667
-5.5113 5.8646 -2.0837 0.9673
-6.7234 4.9800 -2.1663 0.9660
-7.2421 3.5754 -2.0912 0.9672
-7.4047 2.8646 -2.0557 0.9677
-7.5463 1.4530 -1.9898 0.9687
-7.5302 0.7613 -1.9596 0.9692
-7.4596 0.0842 -1.9315 0.9696
-6.9482 -1.8268 -1.8602 0.9708
-6.3848 -2.9749 -1.8238 0.9713
-5.2575 -4.4681 -1.7865 0.9719
-4.3459 -5.2928 -1.7732 0.9721
-3.8488 -5.6499 -1.7700 0.9721
-2.7829 -6.2470 -1.7707 0.9721
-2.2184 -6.4846 -1.7745 0.9721
-1.0374 -6.8318 -1.7892 0.9719
0.1976 -6.9997 -1.8131 0.9715
0.8292 -7.0132 -1.8285 0.9712
2.1067 -6.8929 -1.8662 0.9707
2.7465 -6.7567 -1.8884 0.9703
4.0107 -6.3266 -1.9395 0.9695
-2.6160 -5.7783 -1.7956 0.9740
-0.9994 -6.3241 -1.8125 0.9737
-0.4327 -6.4233 -1.8225 0.9736
5.2954 -4.8688 -2.0364 0.9705
6.9158 -2.1101 -2.0469 0.9704
7.1928 -1.5081 -2.0805 0.9699
7.4170 -0.8734 -2.1142 0.9694
7.6881 0.4750 -2.1806 0.9685
7.6955 1.8884 -2.2432 0.9676
6.8302 3.0466 -2.1172 0.9694
5.5135 3.7597 -1.8892 0.9726
3.9880 4.6971 -1.7444 0.9747
3.4390 4.8739 -1.6887 0.9755
2.0279 5.6238 -1.6924 0.9755
0.5247 3.1097 -0.8928 0.9870
0.5005 6.4280 -1.8252 0.9736
-0.6149 6.0536 -1.7226 0.9750
-1.5226 7.8878 -2.2742 0.9672
-2.1932 7.6228 -2.2455 0.9676
-3.4172 6.9133 -2.1831 0.9684
-4.4535 6.0066 -2.1168 0.9694
-2.3621 2.2177 -0.9172 0.9866
-6.5715 3.4672 -2.1034 0.9696
-6.9292 1.5284 -2.0088 0.9709
-6.9385 0.8905 -1.9804 0.9713
-6.8964 0.2634 -1.9537 0.9717
-6.8051 -0.3493 -1.9290 0.9721
-6.6670 -0.9446 -1.9062 0.9724
-6.2602 -2.0722 -1.8668 0.9730
-4.1642 -4.8023 -1.7994 0.9739
-3.2340 -5.4514 -1.7944 0.9740
-1.6809 -6.1439 -1.8032 0.9739
-1.1298 -6.2949 -1.8105 0.9738
0.0087 -6.4701 -1.8316 0.9735
0.5911 -6.4920 -1.8455 0.9733
2.3586 -6.2818 -1.8996 0.9725
3.5228 -5.9022 -1.9458 0.9718
4.0900 -5.6383 -1.9719 0.9715
5.6830 -4.5473 -2.0604 0.9702
6.1321 -3.3175 -1.9737 0.9714
2.2948 -0.9877 -0.7073 0.9897
6.8441 -2.2453 -2.0391 0.9705
7.5502 -0.3673 -2.1399 0.9691
7.6695 0.3135 -2.1730 0.9686
7.7237 1.0123 -2.2052 0.9681
7.7091 1.7221 -2.2362 0.9677
7.6230 2.4355 -2.2655 0.9673
6.2894 3.3399 -2.0160 0.9708
5.6528 3.6844 -1.9102 0.9723
5.0747 3.9964 -1.8286 0.9735
3.5499 4.8147 -1.6934 0.9754
1.6575 5.8195 -1.7130 0.9752
0.5621 2.9541 -0.8513 0.9876
0.6289 6.3607 -1.8094 0.9738
-2.6825 7.3773 -2.2222 0.9679
-3.8384 6.5861 -2.1580 0.9688
-4.3433 6.1207 -2.1247 0.9693
-2.2901 2.2417 -0.9072 0.9868
-6.2734 4.2534 -2.1457 0.9690
-6.5221 3.6170 -2.1113 0.9695
-6.7117 2.9722 -2.0780 0.9699
-6.8436 2.3244 -2.0461 0.9704
-6.9194 1.6783 -2.0156 0.9708
-6.9410 1.0384 -1.9868 0.9712
-6.9107 0.4085 -1.9598 0.9716
-6.8307 -0.2079 -1.9346 0.9720
-6.0611 -2.4792 -1.8539 0.9731
-5.7685 -2.9865 -1.8389 0.9734
-5.0791 -3.9148 -1.8154 0.9737
-4.6870 -4.3326 -1.8069 0.9738
-3.3472 -5.3832 -1.7945 0.9740
-2.8533 -5.6614 -1.7948 0.9740
1.0415 -6.4782 -1.8575 0.9731
2.2214 -6.3134 -1.8947 0.9726
3.3888 -5.9565 -1.9401 0.9719
3.9590 -5.7043 -1.9656 0.9715
4.5149 -5.4021 -1.9931 0.9712
5.0524 -5.0500 -2.0223 0.9707
6.0535 -4.1971 -2.0853 0.9698
6.4246 -2.9256 -1.9984 0.9711
6.7699 -2.3784 -2.0314 0.9706
7.0699 -1.7931 -2.0648 0.9701
7.6474 0.1530 -2.1654 0.9687
7.7188 1.5560 -2.2291 0.9678
7.6496 2.2693 -2.2588 0.9674
7.1872 2.8527 -2.1890 0.9684
6.4484 3.2537 -2.0447 0.9704
5.7953 3.6073 -1.9325 0.9720
4.2220 4.5718 -1.7617 0.9745
3.1870 5.0083 -1.6805 0.9756
2.2493 5.5066 -1.6839 0.9756
1.7711 5.7595 -1.7058 0.9753
0.6179 2.9149 -0.8435 0.9877
0.1973 6.5868 -1.8655 0.9730
-0.9370 6.2431 -1.7872 0.9741
-1.8848 7.7544 -2.2591 0.9674
-3.7134 6.6884 -2.1657 0.9687
-4.2302 6.2328 -2.1325 0.9692
-6.2069 4.4000 -2.1538 0.9689
