ply
format ascii 1.0
element vertex 1596
property float32 x
property float32 y
property float32 z
property float32 I
end_header
6.5303 -0.0528 -2.0086 0.9730
6.5119 0.5300 -2.0096 0.9730
6.1465 2.2375 -2.0119 0.9730
5.9243 2.7776 -2.0125 0.9730
5.3391 3.7877 -2.0135 0.9730
4.9809 4.2495 -2.0138 0.9730
4.1475 5.0678 -2.0142 0.9730
3.6791 5.4176 -2.0143 0.9730
2.6506 5.9682 -2.0086 0.9730
1.9525 5.7256 -1.8606 0.9750
0.9039 5.9790 -1.8599 0.9750
-0.1725 6.0409 -1.8588 0.9750
-1.7634 5.7729 -1.8566 0.9751
-2.7583 5.3627 -1.8548 0.9751
-3.2239 5.0927 -1.8539 0.9751
-3.6633 4.7823 -1.8529 0.9751
-4.0730 4.4342 -1.8519 0.9751
-5.1849 3.9352 -2.0021 0.9731
-6.0314 2.4182 -1.9987 0.9732
-6.4461 0.7342 -1.9955 0.9732
-6.4679 -0.4223 -1.9936 0.9732
-6.4017 -0.9970 -1.9928 0.9733
-6.1182 -2.1169 -1.9913 0.9733
-5.3353 -3.6580 -1.9897 0.9733
-4.1750 -4.9379 -1.9889 0.9733
-3.2313 -5.6010 -1.9889 0.9733
-1.6340 -6.2588 -1.9896 0.9733
0.0812 -6.4732 -1.9912 0.9733
1.2308 -6.3604 -1.9926 0.9733
2.8745 -5.8156 -1.9953 0.9732
3.3834 -5.5388 -1.9963 0.9732
3.8659 -5.2178 -1.9974 0.9732
4.7366 -4.4529 -1.9996 0.9732
5.4585 -3.5445 -2.0018 0.9731
5.7561 -3.0453 -2.0030 0.9731
6.2124 -1.9765 -2.0052 0.9731
6.3674 -1.4153 -2.0063 0.9731
6.2142 2.0393 -2.0116 0.9730
6.0095 2.5862 -2.0123 0.9730
5.1141 4.0877 -2.0137 0.9730
4.7299 4.5281 -2.0140 0.9730
2.8446 5.8892 -2.0116 0.9730
2.2025 5.8394 -1.9196 0.9742
1.0950 5.9475 -1.8601 0.9750
0.5601 6.0199 -1.8596 0.9750
-1.0524 5.9473 -1.8577 0.9750
-3.5090 4.8981 -1.8533 0.9751
-3.9297 4.5632 -1.8523 0.9751
-4.5944 4.4599 -1.9694 0.9736
-5.3997 3.6306 -2.0013 0.9731
-5.6987 3.1328 -2.0002 0.9732
-5.9521 2.6106 -1.9991 0.9732
-6.1578 2.0682 -1.9980 0.9732
-6.4205 0.9404 -1.9959 0.9732
-6.4756 0.3638 -1.9949 0.9732
-6.4792 -0.2150 -1.9939 0.9732
-6.4314 -0.7917 -1.9931 0.9732
-6.3326 -1.3615 -1.9923 0.9733
-6.1836 -1.9202 -1.9915 0.9733
-5.9858 -2.4632 -1.9909 0.9733
-5.4501 -3.4855 -1.9898 0.9733
-5.1165 -3.9569 -1.9894 0.9733
-4.7425 -4.3968 -1.9891 0.9733
-3.8854 -5.1687 -1.9889 0.9733
-3.4089 -5.4946 -1.9889 0.9733
-2.9055 -5.7770 -1.9890 0.9733
-1.8334 -6.2029 -1.9895 0.9733
-1.2732 -6.3429 -1.9899 0.9733
1.5933 -6.2812 -1.9931 0.9732
2.1481 -6.1168 -1.9940 0.9732
3.6961 -5.3379 -1.9970 0.9732
4.1597 -4.9896 -1.9981 0.9732
4.9855 -4.1759 -2.0003 0.9732
5.6545 -3.2274 -2.0026 0.9731
6.5112 -0.4705 -2.0079 0.9730
6.5304 0.1121 -2.0089 0.9730
6.4973 0.6944 -2.0098 0.9730
6.4121 1.2716 -2.0106 0.9730
6.0886 2.3922 -2.0121 0.9730
5.8527 2.9266 -2.0127 0.9730
5.5698 3.4377 -2.0132 0.9730
5.2421 3.9216 -2.0136 0.9730
3.5411 5.5088 -2.0143 0.9730
1.8073 5.7728 -1.8606 0.9750
1.2850 5.9098 -1.8602 0.9750
-0.8615 5.9788 -1.8579 0.9750
-1.3907 5.8757 -1.8572 0.9750
-2.4103 5.5302 -1.8555 0.9751
-2.8925 5.2906 -1.8546 0.9751
-3.7823 4.6876 -1.8526 0.9751
-4.2840 4.4337 -1.8963 0.9745
-4.9157 4.2532 -1.9993 0.9732
-5.2817 3.8024 -2.0017 0.9731
-5.5966 3.3143 -2.0006 0.9731
-5.8666 2.8004 -1.9995 0.9732
-6.2639 1.7117 -1.9973 0.9732
-6.3883 1.1457 -1.9962 0.9732
-6.4838 -0.0075 -1.9943 0.9732
-6.2427 -1.7214 -1.9918 0.9733
-6.0623 -2.2705 -1.9911 0.9733
-5.8338 -2.8013 -1.9905 0.9733
-5.2409 -3.7914 -1.9896 0.9733
-4.4827 -4.6608 -1.9890 0.9733
-4.0489 -5.0417 -1.9889 0.9733
-3.5831 -5.3826 -1.9888 0.9733
-3.0889 -5.6809 -1.9889 0.9733
-2.5702 -5.9343 -1.9891 0.9733
-0.3332 -6.4636 -1.9907 0.9733
3.5227 -5.4524 -1.9966 0.9732
3.9970 -5.1193 -1.9977 0.9732
5.2183 -3.8851 -2.0010 0.9731
5.5471 -3.4061 -2.0022 0.9731
6.2613 -1.8193 -2.0055 0.9731
6.4020 -1.2543 -2.0066 0.9731
6.4917 -0.6786 -2.0076 0.9731
6.5151 0.4859 -2.0095 0.9730
6.3304 1.6370 -2.0111 0.9730
6.1613 2.1958 -2.0118 0.9730
5.9428 2.7374 -2.0125 0.9730
5.6765 3.2573 -2.0130 0.9730
4.1817 5.0396 -2.0142 0.9730
3.7157 5.3926 -2.0143 0.9730
2.6918 5.9520 -2.0092 0.9730
1.9987 5.7336 -1.8676 0.9749
1.4737 5.8661 -1.8603 0.9750
0.9444 5.9728 -1.8599 0.9750
0.4079 6.0316 -1.8594 0.9750
-0.1316 6.0421 -1.8588 0.9750
-1.7243 5.7849 -1.8567 0.9751
-2.7221 5.3814 -1.8549 0.9751
-3.1895 5.1146 -1.8540 0.9751
-3.6310 4.8072 -1.8530 0.9751
-4.7712 4.4030 -1.9969 0.9732
-5.1583 3.9704 -2.0021 0.9731
-5.4887 3.4925 -2.0010 0.9731
-6.2071 1.9118 -1.9977 0.9732
-6.3495 1.3499 -1.9966 0.9732
-6.4818 0.2002 -1.9946 0.9732
-6.4086 -0.9537 -1.9928 0.9732
-6.2955 -1.5208 -1.9921 0.9733
-6.1326 -2.0755 -1.9913 0.9733
-5.9211 -2.6133 -1.9907 0.9733
-5.6629 -3.1301 -1.9902 0.9733
-5.3600 -3.6219 -1.9897 0.9733
-4.6298 -4.5151 -1.9891 0.9733
-4.2084 -4.9095 -1.9889 0.9733
-3.7536 -5.2651 -1.9888 0.9733
-3.2691 -5.5790 -1.9889 0.9733
-1.6763 -6.2475 -1.9896 0.9733
0.0374 -6.4734 -1.9911 0.9733
1.1877 -6.3684 -1.9926 0.9733
2.8349 -5.8347 -1.9952 0.9732
3.8303 -5.2436 -1.9973 0.9732
4.7061 -4.4846 -1.9995 0.9732
5.0902 -4.0493 -2.0006 0.9731
5.4341 -3.5813 -2.0017 0.9731
5.7351 -3.0841 -2.0029 0.9731
6.3574 -1.4583 -2.0062 0.9731
6.4655 -0.8860 -2.0072 0.9731
6.5219 -0.3060 -2.0082 0.9730
6.4784 0.8583 -2.0100 0.9730
6.3787 1.4332 -2.0109 0.9730
6.2277 1.9971 -2.0116 0.9730
5.7774 3.0736 -2.0128 0.9730
6.0394 0.1855 -2.0085 0.9749
5.9150 1.2565 -2.0101 0.9748
5.6014 2.2888 -2.0114 0.9748
5.3764 2.7800 -2.0119 0.9748
5.1082 3.2491 -2.0124 0.9748
4.7989 3.6924 -2.0127 0.9748
4.4511 4.1063 -2.0130 0.9748
4.0675 4.4873 -2.0132 0.9748
2.2367 5.6136 -2.0087 0.9748
1.6484 5.5266 -1.9171 0.9760
1.1143 5.4814 -1.8593 0.9767
0.6209 5.5577 -1.8589 0.9767
0.1227 5.5894 -1.8584 0.9767
-0.3761 5.5764 -1.8578 0.9767
-1.3598 5.4169 -1.8565 0.9767
-2.2986 5.0848 -1.8549 0.9768
-2.7417 4.8573 -1.8540 0.9768
-3.1624 4.5912 -1.8532 0.9768
-4.2357 4.2666 -1.9985 0.9750
-5.6628 2.0192 -1.9984 0.9750
-5.8175 1.5054 -1.9974 0.9750
-5.9257 0.9801 -1.9965 0.9750
-5.9659 -0.6227 -1.9939 0.9750
-5.7562 -1.6714 -1.9924 0.9751
-5.3645 -2.6659 -1.9912 0.9751
-1.2868 -5.8487 -1.9906 0.9751
-0.7603 -5.9415 -1.9911 0.9751
-0.2274 -5.9872 -1.9916 0.9751
1.3670 -5.8396 -1.9936 0.9750
1.8831 -5.6968 -1.9944 0.9750
2.3847 -5.5085 -1.9953 0.9750
3.3284 -5.0019 -1.9971 0.9750
3.7631 -4.6874 -1.9981 0.9750
4.1683 -4.3353 -1.9991 0.9750
4.5407 -3.9484 -2.0002 0.9750
5.1753 -3.0821 -2.0023 0.9749
5.4324 -2.6096 -2.0033 0.9749
5.6464 -2.1158 -2.0043 0.9749
5.8155 -1.6047 -2.0053 0.9749
5.9383 -1.0801 -2.0063 0.9749
6.0138 -0.5465 -2.0073 0.9749
6.0205 0.5311 -2.0090 0.9748
5.9514 1.0663 -2.0098 0.9748
5.8347 1.5934 -2.0105 0.9748
5.4621 2.6062 -2.0117 0.9748
4.9144 3.5367 -2.0126 0.9748
4.5801 3.9615 -2.0129 0.9748
4.2090 4.3546 -2.0131 0.9748
2.9063 5.3137 -2.0132 0.9748
2.4185 5.5465 -2.0114 0.9748
-0.6946 5.5445 -1.8574 0.9767
-2.5852 4.9435 -1.8544 0.9768
-3.0143 4.6910 -1.8535 0.9768
-5.8923 1.1695 -1.9968 0.9750
-5.9703 0.6391 -1.9959 0.9750
-5.9836 -0.4314 -1.9942 0.9750
-5.8074 -1.4864 -1.9926 0.9750
-5.6499 -1.9978 -1.9920 0.9751
-4.9158 -3.4196 -1.9905 0.9751
-4.5906 -3.8438 -1.9902 0.9751
-4.2290 -4.2374 -1.9900 0.9751
-3.8339 -4.5973 -1.9898 0.9751
-2.9562 -5.2053 -1.9898 0.9751
-1.9848 -5.6487 -1.9902 0.9751
-1.4733 -5.8041 -1.9905 0.9751
-0.4190 -5.9762 -1.9914 0.9751
2.2067 -5.5811 -1.9950 0.9750
5.3450 -2.7817 -2.0029 0.9749
5.5747 -2.2951 -2.0040 0.9749
5.9923 -0.7386 -2.0069 0.9749
6.0370 -0.2014 -2.0078 0.9749
6.0335 0.3380 -2.0087 0.9748
5.9817 0.8751 -2.0095 0.9748
4.3461 4.2175 -2.0131 0.9748
3.9530 4.5887 -2.0132 0.9748
2.5972 5.4712 -2.0132 0.9748
2.0921 5.6627 -2.0067 0.9749
0.9755 5.5075 -1.8592 0.9767
0.4803 5.5712 -1.8588 0.9767
-1.0106 5.4944 -1.8570 0.9767
-1.9691 5.2232 -1.8555 0.9767
-2.8631 4.7859 -1.8538 0.9768
-5.0188 3.3254 -2.0013 0.9749
-5.2926 2.8630 -2.0002 0.9750
-5.5240 2.3784 -1.9992 0.9750
-5.8528 1.3578 -1.9972 0.9750
-5.9477 0.8300 -1.9962 0.9750
-5.9476 -0.7730 -1.9936 0.9750
-5.5252 -2.3175 -1.9916 0.9751
-5.0232 -3.2607 -1.9907 0.9751
-4.7115 -3.6950 -1.9903 0.9751
-3.1213 -5.1079 -1.9898 0.9751
-2.6535 -5.3662 -1.9899 0.9751
-1.1388 -5.8797 -1.9908 0.9751
-0.0762 -5.9915 -1.9918 0.9751
0.4586 -5.9762 -1.9924 0.9751
0.9901 -5.9136 -1.9931 0.9750
3.4542 -4.9169 -1.9974 0.9750
4.2771 -4.2293 -1.9994 0.9750
4.9656 -3.4057 -2.0015 0.9749
5.4974 -2.4720 -2.0036 0.9749
5.6988 -1.9729 -2.0046 0.9749
5.8550 -1.4575 -2.0056 0.9749
5.9645 -0.9300 -2.0066 0.9749
6.0403 0.1446 -2.0084 0.9749
6.0058 0.6830 -2.0092 0.9748
5.6166 2.2508 -2.0113 0.9748
5.3950 2.7435 -2.0119 0.9748
4.8238 3.6598 -2.0127 0.9748
4.4788 4.0760 -2.0130 0.9748
4.0978 4.4596 -2.0132 0.9748
3.6839 4.8076 -2.0133 0.9748
3.2405 5.1170 -2.0133 0.9748
2.7711 5.3853 -2.0132 0.9748
1.6966 5.5509 -1.9294 0.9758
0.6585 5.5535 -1.8589 0.9767
0.1606 5.5886 -1.8584 0.9767
-0.3384 5.5789 -1.8579 0.9767
-1.8011 5.2844 -1.8558 0.9767
-2.2642 5.1005 -1.8550 0.9768
-3.1314 4.6127 -1.8532 0.9768
-3.5803 4.3763 -1.8795 0.9764
-4.2058 4.2943 -1.9980 0.9750
-4.9107 3.4850 -2.0016 0.9749
-5.1992 3.0316 -2.0006 0.9749
-5.4460 2.5545 -1.9995 0.9750
-5.6493 2.0576 -1.9985 0.9750
-5.8073 1.5448 -1.9975 0.9750
-5.9191 1.0202 -1.9966 0.9750
-5.9837 0.4880 -1.9956 0.9750
-6.0008 -0.0475 -1.9947 0.9750
-5.9701 -0.5823 -1.9939 0.9750
-5.1254 -3.0984 -1.9908 0.9751
-4.4919 -3.9583 -1.9901 0.9751
-4.1205 -4.3427 -1.9899 0.9751
-3.7166 -4.6926 -1.9898 0.9751
1.3274 -5.8486 -1.9935 0.9750
2.3472 -5.5243 -1.9952 0.9750
2.8318 -5.2954 -1.9961 0.9750
3.2944 -5.0241 -1.9971 0.9750
4.5136 -3.9789 -2.0001 0.9750
5.1541 -3.1169 -2.0022 0.9749
5.4144 -2.6462 -2.0032 0.9749
5.6317 -2.1539 -2.0043 0.9749
5.9307 -1.1203 -2.0063 0.9749
6.0098 -0.5872 -2.0072 0.9749
6.0409 -0.0489 -2.0081 0.9749
6.0237 0.4903 -2.0089 0.9748
5.8452 1.5538 -2.0105 0.9748
5.6852 2.0696 -2.0111 0.9748
5.2299 3.0483 -2.0122 0.9748
4.9381 3.5033 -2.0126 0.9748
4.6068 3.9303 -2.0129 0.9748
3.4027 5.0106 -2.0133 0.9748
2.4567 5.5317 -2.0119 0.9748
1.9336 5.6702 -1.9914 0.9751
0.3395 5.5811 -1.8586 0.9767
-0.1596 5.5875 -1.8581 0.9767
-0.6571 5.5492 -1.8575 0.9767
-2.1001 5.1712 -1.8553 0.9767
-2.9826 4.7114 -1.8535 0.9768
-3.3892 4.4245 -1.8526 0.9768
-4.0379 4.3959 -1.9841 0.9752
-4.4533 4.0542 -2.0019 0.9749
-4.7975 3.6412 -2.0020 0.9749
-5.1004 3.1971 -2.0010 0.9749
-5.7559 1.7302 -1.9979 0.9750
-5.8844 1.2094 -1.9969 0.9750
-5.8175 -1.4471 -1.9927 0.9750
-5.4645 -2.4561 -1.9915 0.9751
-5.2224 -2.9329 -1.9910 0.9751
-4.9390 -3.3863 -1.9906 0.9751
-3.4418 -4.8976 -1.9898 0.9751
-2.9914 -5.1851 -1.9898 0.9751
-2.5172 -5.4316 -1.9900 0.9751
-1.5126 -5.7939 -1.9905 0.9751
-0.4594 -5.9731 -1.9914 0.9751
1.1393 -5.8873 -1.9933 0.9750
3.1313 -5.1261 -1.9967 0.9750
3.5777 -4.8288 -1.9977 0.9750
3.9961 -4.4927 -1.9987 0.9750
4.7356 -3.7152 -2.0008 0.9749
5.0507 -3.2798 -2.0018 0.9749
5.3259 -2.8177 -2.0029 0.9749
5.5588 -2.3327 -2.0039 0.9749
5.8907 -1.3094 -2.0059 0.9749
6.0355 0.2971 -2.0086 0.9749
5.9873 0.8345 -2.0095 0.9748
5.0475 3.3431 -2.0125 0.9748
4.7300 3.7806 -2.0128 0.9748
3.9840 4.5618 -2.0132 0.9748
3.5614 4.8991 -2.0133 0.9748
3.1102 5.1971 -2.0133 0.9748
2.1310 5.6499 -2.0072 0.9749
1.5197 5.4617 -1.8845 0.9764
0.5180 5.5679 -1.8588 0.9767
0.0194 5.5904 -1.8583 0.9767
-0.4791 5.5681 -1.8577 0.9767
-0.9734 5.5012 -1.8570 0.9767
-1.9337 5.2366 -1.8556 0.9767
-2.3920 5.0410 -1.8547 0.9768
-2.8307 4.8054 -1.8539 0.9768
-3.2464 4.5316 -1.8530 0.9768
-4.6793 3.7936 -2.0024 0.9749
-5.2733 2.8989 -2.0003 0.9750
-5.5080 2.4158 -1.9993 0.9750
-5.6986 1.9140 -1.9982 0.9750
-5.9934 0.3367 -1.9954 0.9750
-5.9969 -0.1990 -1.9945 0.9750
-5.7239 -1.7774 -1.9923 0.9751
-4.3903 -4.0703 -1.9901 0.9751
-3.5969 -4.7849 -1.9898 0.9751
-3.1558 -5.0866 -1.9898 0.9751
-1.6972 -5.7422 -1.9904 0.9751
-1.1786 -5.8717 -1.9907 0.9751
-0.6504 -5.9548 -1.9912 0.9751
0.4181 -5.9791 -1.9923 0.9751
0.9500 -5.9200 -1.9930 0.9750
1.4748 -5.8139 -1.9938 0.9750
1.9882 -5.6615 -1.9946 0.9750
2.4863 -5.4640 -1.9954 0.9750
2.9650 -5.2229 -1.9964 0.9750
3.4207 -4.9400 -1.9973 0.9750
3.8495 -4.6176 -1.9983 0.9750
4.2482 -4.2580 -1.9993 0.9750
4.6134 -3.8642 -2.0004 0.9750
4.9422 -3.4391 -2.0014 0.9749
5.4803 -2.5091 -2.0035 0.9749
5.6851 -2.0113 -2.0045 0.9749
5.6316 2.2127 -2.0113 0.9748
5.4133 2.7068 -2.0118 0.9748
5.1515 3.1796 -2.0123 0.9748
4.5062 4.0456 -2.0130 0.9748
4.1279 4.4318 -2.0132 0.9748
3.2751 5.0949 -2.0133 0.9748
2.8075 5.3665 -2.0132 0.9748
2.3138 5.5858 -2.0098 0.9748
1.7455 5.5756 -1.9421 0.9757
-0.3006 5.5812 -1.8579 0.9767
-1.2865 5.4351 -1.8566 0.9767
-2.2297 5.1158 -1.8550 0.9768
-4.1758 4.3217 -1.9976 0.9750
-5.1788 3.0669 -2.0007 0.9749
-5.7970 1.5841 -1.9976 0.9750
-5.9123 1.0603 -1.9966 0.9750
-5.9805 0.5286 -1.9957 0.9750
-5.8997 -1.0721 -1.9932 0.9750
-5.7785 -1.5934 -1.9925 0.9750
-5.6116 -2.1017 -1.9919 0.9751
-5.4003 -2.5931 -1.9913 0.9751
-4.8516 -3.5097 -1.9905 0.9751
-4.5186 -3.9278 -1.9902 0.9751
-3.7483 -4.6673 -1.9898 0.9751
-3.3170 -4.9829 -1.9898 0.9751
-2.8595 -5.2591 -1.9899 0.9751
-2.3793 -5.4936 -1.9900 0.9751
0.2265 -5.9887 -1.9921 0.9751
0.7599 -5.9466 -1.9928 0.9750
1.8057 -5.7214 -1.9943 0.9750
2.7958 -5.3142 -1.9960 0.9750
3.6990 -4.7376 -1.9980 0.9750
4.4864 -4.0092 -2.0000 0.9750
5.1327 -3.1516 -2.0021 0.9749
6.0055 -0.6278 -2.0071 0.9749
5.9650 0.9856 -2.0097 0.9748
5.8554 1.5142 -2.0104 0.9748
5.6989 2.0310 -2.0111 0.9748
5.4967 2.5319 -2.0116 0.9748
4.9617 3.4697 -2.0126 0.9748
4.6332 3.8990 -2.0129 0.9748
4.2676 4.2972 -2.0131 0.9748
2.4949 5.5165 -2.0125 0.9748
0.8735 5.5243 -1.8591 0.9767
0.3772 5.5788 -1.8587 0.9767
-0.1217 5.5886 -1.8581 0.9767
-0.6195 5.5537 -1.8575 0.9767
-1.1119 5.4743 -1.8568 0.9767
-2.0651 5.1854 -1.8553 0.9767
-2.9507 4.7317 -1.8536 0.9768
-3.3593 4.4475 -1.8527 0.9768
-3.9812 4.3935 -1.9708 0.9753
-4.7729 3.6737 -2.0021 0.9749
-5.0789 3.2317 -2.0010 0.9749
-5.3441 2.7644 -2.0000 0.9750
-5.5665 2.2756 -1.9990 0.9750
-5.9615 0.7199 -1.9960 0.9750
-5.9992 0.1853 -1.9951 0.9750
-5.9893 -0.3503 -1.9943 0.9750
-5.9318 -0.8827 -1.9935 0.9750
-5.6767 -1.9212 -1.9921 0.9751
-5.4811 -2.4191 -1.9915 0.9751
-5.2422 -2.8975 -1.9910 0.9751
-4.9618 -3.3528 -1.9906 0.9751
-4.6423 -3.7813 -1.9903 0.9751
-4.2860 -4.1798 -1.9900 0.9751
-3.8959 -4.5450 -1.9899 0.9751
-0.4998 -5.9698 -1.9913 0.9751
0.0346 -5.9922 -1.9919 0.9751
0.5690 -5.9672 -1.9925 0.9750
1.6213 -5.7754 -1.9940 0.9750
2.1308 -5.6101 -1.9948 0.9750
3.0964 -5.1470 -1.9966 0.9750
3.5448 -4.8527 -1.9976 0.9750
4.3550 -4.1500 -1.9996 0.9750
4.7102 -3.7470 -2.0007 0.9749
5.7349 -1.8674 -2.0048 0.9749
5.9813 -0.8197 -2.0068 0.9749
6.0333 -0.2831 -2.0077 0.9749
6.0371 0.2562 -2.0086 0.9749
5.9002 1.3257 -2.0102 0.9748
5.5744 2.3544 -2.0114 0.9748
5.6124 0.1724 -2.0080 0.9764
4.7464 3.0190 -2.0116 0.9764
4.4590 3.4309 -2.0119 0.9764
4.1358 3.8154 -2.0122 0.9764
2.9786 4.7747 -2.0125 0.9764
2.0827 5.2272 -2.0122 0.9764
1.0655 5.2415 -1.9127 0.9775
-1.2637 5.0338 -1.8560 0.9782
-1.7069 4.8992 -1.8553 0.9782
-2.1362 4.7255 -1.8545 0.9782
-2.5480 4.5142 -1.8537 0.9782
-4.2840 3.6063 -2.0025 0.9765
-4.5863 3.2083 -2.0016 0.9765
-5.0784 2.3402 -1.9996 0.9765
-5.4083 1.3995 -1.9977 0.9765
-5.5659 0.4160 -1.9960 0.9766
-5.5786 -0.0820 -1.9952 0.9766
-5.1908 -2.0247 -1.9925 0.9766
-4.9883 -2.4789 -1.9920 0.9766
-4.7463 -2.9133 -1.9915 0.9766
-4.4668 -3.3244 -1.9912 0.9766
-3.8042 -4.0641 -1.9907 0.9766
-2.5927 -4.9261 -1.9907 0.9766
-1.6766 -5.3094 -1.9911 0.9766
-1.1966 -5.4386 -1.9914 0.9766
-0.7069 -5.5248 -1.9918 0.9766
-0.2115 -5.5672 -1.9923 0.9766
0.2860 -5.5654 -1.9928 0.9766
0.7814 -5.5194 -1.9935 0.9766
1.2710 -5.4296 -1.9942 0.9766
2.2171 -5.1214 -1.9957 0.9766
2.6661 -4.9054 -1.9965 0.9766
3.0944 -4.6501 -1.9974 0.9766
3.4983 -4.3576 -1.9984 0.9765
3.8749 -4.0301 -1.9993 0.9765
4.8105 -2.8648 -2.0022 0.9765
5.0492 -2.4256 -2.0032 0.9765
5.2479 -1.9665 -2.0041 0.9765
5.5189 -1.0038 -2.0060 0.9765
5.5889 -0.5079 -2.0069 0.9764
5.5304 0.9909 -2.0092 0.9764
5.4218 1.4806 -2.0099 0.9764
5.2697 1.9588 -2.0105 0.9764
5.0754 2.4216 -2.0110 0.9764
4.2556 3.6808 -2.0121 0.9764
2.7003 4.9372 -2.0124 0.9764
1.7765 5.3271 -2.0081 0.9764
0.7420 5.1434 -1.8584 0.9782
0.2803 5.1879 -1.8579 0.9782
-0.1834 5.1908 -1.8574 0.9782
-1.1020 5.0723 -1.8562 0.9782
-1.9841 4.7922 -1.8548 0.9782
-2.4025 4.5942 -1.8540 0.9782
-3.3776 4.3480 -1.9689 0.9769
-3.8129 4.0950 -2.0009 0.9765
-4.4820 3.3541 -2.0019 0.9765
-4.7609 2.9396 -2.0009 0.9765
-5.0017 2.5021 -2.0000 0.9765
-5.2024 2.0451 -1.9990 0.9765
-5.5506 0.5941 -1.9963 0.9766
-5.5792 0.0967 -1.9954 0.9766
-5.5634 -0.4011 -1.9947 0.9766
-5.5034 -0.8953 -1.9939 0.9766
-5.2535 -1.8576 -1.9927 0.9766
-5.0655 -2.3181 -1.9921 0.9766
-4.8375 -2.7600 -1.9917 0.9766
-4.5712 -3.1798 -1.9913 0.9766
-3.9325 -3.9403 -1.9908 0.9766
-2.7490 -4.8404 -1.9906 0.9766
-2.3065 -5.0666 -1.9908 0.9766
-1.8456 -5.2527 -1.9910 0.9766
-1.3700 -5.3972 -1.9913 0.9766
-0.3896 -5.5570 -1.9921 0.9766
0.1076 -5.5711 -1.9926 0.9766
1.0963 -5.4668 -1.9939 0.9766
1.5801 -5.3492 -1.9946 0.9766
3.3565 -4.4666 -1.9980 0.9765
4.1005 -3.8029 -1.9999 0.9765
4.4254 -3.4237 -2.0009 0.9765
5.3535 -1.6634 -2.0047 0.9765
5.4831 -1.1798 -2.0057 0.9765
5.5689 -0.6865 -2.0065 0.9764
5.6069 0.3141 -2.0082 0.9764
5.5586 0.8132 -2.0089 0.9764
5.4658 1.3061 -2.0096 0.9764
5.3292 1.7889 -2.0103 0.9764
4.9291 2.7086 -2.0113 0.9764
4.0382 3.9187 -2.0123 0.9764
3.6729 4.2635 -2.0124 0.9764
3.2781 4.5742 -2.0125 0.9764
2.8571 4.8483 -2.0124 0.9764
2.4132 5.0835 -2.0123 0.9764
1.9484 5.2735 -2.0105 0.9764
-0.4802 5.1708 -1.8571 0.9782
-0.9391 5.1057 -1.8564 0.9782
-1.3902 4.9997 -1.8558 0.9782
-2.2545 4.6695 -1.8543 0.9782
-3.6765 4.2112 -1.9991 0.9765
-4.3730 3.4965 -2.0023 0.9765
-4.6652 3.0911 -2.0013 0.9765
-4.9199 2.6614 -2.0003 0.9765
-5.3094 1.7434 -1.9984 0.9765
-5.5296 0.7717 -1.9966 0.9766
-5.5300 -0.7187 -1.9942 0.9766
-5.3108 -1.6886 -1.9929 0.9766
-5.1376 -2.1549 -1.9923 0.9766
-4.3812 -3.4360 -1.9911 0.9766
-4.0568 -3.8125 -1.9908 0.9766
-2.4675 -4.9900 -1.9907 0.9766
-1.0590 -5.4674 -1.9915 0.9766
-0.0708 -5.5711 -1.9924 0.9766
0.9206 -5.4985 -1.9937 0.9766
1.4078 -5.3963 -1.9944 0.9766
2.3460 -5.0644 -1.9959 0.9766
2.7895 -4.8371 -1.9968 0.9766
3.2112 -4.5711 -1.9977 0.9765
3.9759 -3.9315 -1.9996 0.9765
4.3128 -3.5630 -2.0005 0.9765
4.8819 -2.7428 -2.0025 0.9765
5.1096 -2.2976 -2.0034 0.9765
5.4416 -1.3546 -2.0053 0.9765
5.5432 -0.8643 -2.0062 0.9764
5.6006 -0.3666 -2.0071 0.9764
5.6133 0.1344 -2.0079 0.9764
5.5042 1.1303 -2.0094 0.9764
5.3831 1.6172 -2.0100 0.9764
5.2190 2.0914 -2.0106 0.9764
4.4820 3.4006 -2.0119 0.9764
4.1615 3.7872 -2.0122 0.9764
2.5748 5.0037 -2.0124 0.9764
2.1181 5.2130 -2.0122 0.9764
0.6119 5.1602 -1.8583 0.9782
0.1492 5.1929 -1.8578 0.9782
-0.3144 5.1841 -1.8573 0.9782
-0.7753 5.1337 -1.8567 0.9782
-1.2296 5.0424 -1.8560 0.9782
-1.6737 4.9108 -1.8553 0.9782
-2.1042 4.7400 -1.8546 0.9782
-3.9181 4.0004 -2.0024 0.9765
-4.2596 3.6354 -2.0026 0.9765
-4.8330 2.8180 -2.0007 0.9765
-5.0626 2.3746 -1.9997 0.9765
-5.2517 1.9128 -1.9987 0.9765
-5.5029 0.9485 -1.9969 0.9766
-5.5632 0.4537 -1.9960 0.9766
-5.5792 -0.0442 -1.9952 0.9766
-5.4785 -1.0339 -1.9937 0.9766
-5.3627 -1.5179 -1.9931 0.9766
-4.1770 -3.6808 -1.9909 0.9766
-3.8317 -4.0383 -1.9907 0.9766
-2.6259 -4.9084 -1.9907 0.9766
-0.7443 -5.5198 -1.9918 0.9766
0.7440 -5.5245 -1.9934 0.9766
1.2342 -5.4379 -1.9941 0.9766
1.7148 -5.3082 -1.9948 0.9766
3.8473 -4.0561 -1.9992 0.9765
4.1958 -3.6986 -2.0002 0.9765
4.7908 -2.8972 -2.0021 0.9765
5.0325 -2.4596 -2.0031 0.9765
5.2343 -2.0019 -2.0041 0.9765
5.3945 -1.5279 -2.0050 0.9765
5.5851 -0.5457 -2.0068 0.9764
5.6139 -0.0454 -2.0076 0.9764
5.0915 2.3872 -2.0110 0.9764
4.8595 2.8324 -2.0114 0.9764
3.9381 4.0195 -2.0123 0.9764
3.5641 4.3550 -2.0124 0.9764
3.1616 4.6556 -2.0125 0.9764
2.2840 5.1427 -2.0123 0.9764
1.8129 5.3162 -2.0086 0.9764
-0.1483 5.1920 -1.8575 0.9782
-0.6106 5.1565 -1.8569 0.9782
-1.0676 5.0798 -1.8563 0.9782
-1.9516 4.8056 -1.8548 0.9782
-2.3714 4.6105 -1.8541 0.9782
-2.7774 4.3874 -1.8569 0.9782
-3.7844 4.1199 -2.0005 0.9765
-4.7411 2.9719 -2.0010 0.9765
-4.9848 2.5360 -2.0000 0.9765
-5.4706 1.1244 -1.9972 0.9766
-5.5466 0.6317 -1.9963 0.9766
-5.5661 -0.3634 -1.9947 0.9766
-5.5095 -0.8581 -1.9940 0.9766
-5.4092 -1.3455 -1.9933 0.9766
-5.2660 -1.8221 -1.9927 0.9766
-5.0812 -2.2838 -1.9922 0.9766
-4.5927 -3.1488 -1.9913 0.9766
-4.2929 -3.5454 -1.9910 0.9766
-3.5941 -4.2508 -1.9907 0.9766
-3.2006 -4.5543 -1.9906 0.9766
-2.7817 -4.8217 -1.9906 0.9766
-1.8812 -5.2400 -1.9910 0.9766
-1.4065 -5.3877 -1.9913 0.9766
-0.9206 -5.4927 -1.9916 0.9766
-0.4272 -5.5542 -1.9921 0.9766
1.5438 -5.3596 -1.9946 0.9766
2.0164 -5.2026 -1.9953 0.9766
2.4734 -5.0041 -1.9962 0.9766
3.3260 -4.4891 -1.9979 0.9765
4.0745 -3.8304 -1.9998 0.9765
5.1667 -2.1681 -2.0037 0.9765
5.3419 -1.6995 -2.0047 0.9765
5.4748 -1.2169 -2.0056 0.9765
5.5639 -0.7241 -2.0065 0.9764
5.6087 -0.2251 -2.0073 0.9764
5.6087 0.2761 -2.0081 0.9764
5.4744 1.2690 -2.0096 0.9764
4.9473 2.6751 -2.0113 0.9764
3.7017 4.2385 -2.0124 0.9764
1.9845 5.2615 -2.0109 0.9764
1.5026 5.4004 -2.0046 0.9765
0.4814 5.1737 -1.8581 0.9782
-0.9046 5.1120 -1.8565 0.9782
-1.3564 5.0092 -1.8558 0.9782
-4.0196 3.9019 -2.0033 0.9765
-4.3494 3.5262 -2.0023 0.9765
-4.6443 3.1227 -2.0014 0.9765
-4.9019 2.6947 -2.0004 0.9765
-5.1202 2.2458 -1.9994 0.9765
-5.4327 1.2992 -1.9975 0.9766
-5.5244 0.8091 -1.9967 0.9766
-5.5757 -0.1850 -1.9950 0.9766
-5.5349 -0.6813 -1.9942 0.9766
-5.1522 -2.1202 -1.9924 0.9766
-4.9414 -2.5705 -1.9919 0.9766
-4.4044 -3.4062 -1.9911 0.9766
-3.7284 -4.1337 -1.9907 0.9766
-2.9346 -4.7301 -1.9906 0.9766
-2.0479 -5.1769 -1.9909 0.9766
-1.0959 -5.4600 -1.9915 0.9766
-0.6048 -5.5372 -1.9919 0.9766
-0.1085 -5.5704 -1.9924 0.9766
0.3888 -5.5595 -1.9930 0.9766
2.7566 -4.8557 -1.9967 0.9766
3.1801 -4.5925 -1.9976 0.9765
3.5786 -4.2926 -1.9985 0.9765
4.8631 -2.7757 -2.0024 0.9765
5.2839 -1.8694 -2.0043 0.9765
5.5370 -0.9018 -2.0062 0.9765
5.5978 -0.4045 -2.0070 0.9764
5.6139 0.0964 -2.0079 0.9764
5.3939 1.5807 -2.0100 0.9764
5.2329 2.0560 -2.0106 0.9764
5.0300 2.5152 -2.0111 0.9764
3.8354 4.1178 -2.0124 0.9764
3.4531 4.4436 -2.0125 0.9764
3.0430 4.7339 -2.0125 0.9764
2.6086 4.9862 -2.0124 0.9764
2.1533 5.1986 -2.0122 0.9764
1.1469 5.2746 -1.9303 0.9773
0.6468 5.1560 -1.8583 0.9782
-0.2793 5.1862 -1.8573 0.9782
-0.7405 5.1390 -1.8567 0.9782
-2.0721 4.7543 -1.8546 0.9782
-2.4868 4.5486 -1.8538 0.9782
-3.5067 4.3460 -1.9970 0.9766
-3.8901 4.0260 -2.0020 0.9765
-4.5427 3.2704 -2.0017 0.9765
-4.8140 2.8508 -2.0007 0.9765
-5.2388 1.9484 -1.9988 0.9765
-5.3892 1.4727 -1.9979 0.9765
-5.4966 0.9857 -1.9970 0.9766
-5.5602 0.4914 -1.9961 0.9766
-5.5546 -0.5038 -1.9945 0.9766
-5.4855 -0.9968 -1.9938 0.9766
-5.2179 -1.9543 -1.9926 0.9766
-4.7854 -2.8488 -1.9916 0.9766
-1.7483 -5.2861 -1.9910 0.9766
-1.2701 -5.4218 -1.9914 0.9766
-0.2868 -5.5636 -1.9922 0.9766
0.2106 -5.5685 -1.9928 0.9766
0.7066 -5.5292 -1.9934 0.9766
1.6788 -5.3195 -1.9948 0.9766
2.1474 -5.1506 -1.9956 0.9766
2.5993 -4.9407 -1.9964 0.9766
4.7709 -2.9295 -2.0021 0.9765
5.3839 -1.5643 -2.0049 0.9765
5.5044 -1.0784 -2.0058 0.9765
5.6006 0.4177 -2.0084 0.9764
5.5430 0.9158 -2.0091 0.9764
5.2955 1.8872 -2.0104 0.9764
5.1075 2.3526 -2.0109 0.9764
4.8785 2.7994 -2.0114 0.9764
4.3050 3.6228 -2.0121 0.9764
3.5935 4.3307 -2.0124 0.9764
3.1930 4.6340 -2.0125 0.9764
2.7670 4.9002 -2.0124 0.9764
1.3453 5.3553 -1.9746 0.9768
0.3505 5.1838 -1.8580 0.9782
-0.1131 5.1930 -1.8575 0.9782
-1.0333 5.0871 -1.8563 0.9782
-2.3402 4.6266 -1.8541 0.9782
-2.7468 4.4046 -1.8563 0.9782
-3.2867 4.3514 -1.9501 0.9771
-3.7557 4.1447 -2.0002 0.9765
-4.1163 3.7987 -2.0030 0.9765
-4.4365 3.4148 -2.0021 0.9765
-4.7210 3.0040 -2.0011 0.9765
-4.9677 2.5697 -2.0001 0.9765
-5.1746 2.1154 -1.9991 0.9765
-5.4631 1.1614 -1.9973 0.9766
-5.5153 -0.8208 -1.9940 0.9766
-5.4183 -1.3089 -1.9934 0.9766
-4.6139 -3.1177 -1.9913 0.9766
-3.9856 -3.8868 -1.9908 0.9766
-3.6228 -4.2264 -1.9907 0.9766
-3.2313 -4.5325 -1.9906 0.9766
-0.9578 -5.4863 -1.9916 0.9766
-0.4648 -5.5510 -1.9920 0.9766
0.5291 -5.5484 -1.9931 0.9766
1.5074 -5.3698 -1.9945 0.9766
3.2954 -4.5114 -1.9979 0.9765
4.3783 -3.4831 -2.0007 0.9765
4.9323 -2.6524 -2.0027 0.9765
5.1517 -2.2030 -2.0036 0.9765
5.3301 -1.7356 -2.0046 0.9765
5.6103 0.2381 -2.0081 0.9764
5.5688 0.7378 -2.0088 0.9764
4.9652 2.6415 -2.0112 0.9764
5.2362 0.1608 -2.0075 0.9778
5.1278 1.0893 -2.0089 0.9778
5.0117 1.5427 -2.0095 0.9778
4.6603 2.4097 -2.0105 0.9778
4.4277 2.8163 -2.0109 0.9778
4.1595 3.2005 -2.0112 0.9778
3.8580 3.5591 -2.0115 0.9778
3.5255 3.8893 -2.0116 0.9778
3.1647 4.1884 -2.0117 0.9778
2.7785 4.4539 -2.0117 0.9778
1.4989 5.0254 -2.0097 0.9778
1.0421 5.1261 -2.0046 0.9778
0.1070 4.8727 -1.8678 0.9793
-0.3261 4.8340 -1.8567 0.9795
-0.7557 4.7842 -1.8561 0.9795
-1.1789 4.6962 -1.8555 0.9795
-1.5925 4.5708 -1.8549 0.9795
-2.4655 4.3681 -1.9222 0.9787
-3.3355 4.0211 -2.0021 0.9779
-3.6831 3.7100 -2.0034 0.9779
-3.9975 3.3652 -2.0025 0.9779
-4.2798 2.9939 -2.0015 0.9779
-4.5276 2.5991 -2.0006 0.9779
-4.7393 2.1840 -1.9997 0.9779
-4.9130 1.7518 -1.9988 0.9779
-5.1949 0.3883 -1.9963 0.9779
-4.9959 -1.4507 -1.9936 0.9780
-4.6564 -2.3140 -1.9926 0.9780
-4.4306 -2.7195 -1.9922 0.9780
-3.8758 -3.4623 -1.9916 0.9780
-3.5513 -3.7939 -1.9914 0.9780
-3.1986 -4.0953 -1.9913 0.9780
-2.0006 -4.7964 -1.9915 0.9780
-1.1170 -5.0769 -1.9921 0.9780
-0.1974 -5.1967 -1.9929 0.9780
0.2669 -5.1949 -1.9934 0.9780
1.1863 -5.0680 -1.9946 0.9780
2.0693 -4.7801 -1.9961 0.9779
2.8879 -4.3399 -1.9977 0.9779
3.2649 -4.0668 -1.9986 0.9779
3.6162 -3.7611 -1.9994 0.9779
3.9389 -3.4251 -2.0003 0.9779
5.0431 -1.3915 -2.0048 0.9778
5.1595 0.9244 -2.0087 0.9778
4.9161 1.8274 -2.0099 0.9778
4.7346 2.2591 -2.0104 0.9778
4.2596 3.0655 -2.0111 0.9778
3.6481 3.7743 -2.0116 0.9778
2.9197 4.3627 -2.0117 0.9778
0.7329 5.0801 -1.9669 0.9783
-1.8511 4.4710 -1.8544 0.9795
-2.2943 4.3872 -1.8973 0.9790
-3.8883 3.4920 -2.0028 0.9779
-4.6677 2.3350 -2.0001 0.9779
-4.8551 1.9085 -1.9992 0.9779
-5.1126 1.0148 -1.9974 0.9779
-5.1806 0.5545 -1.9966 0.9779
-5.2073 0.0903 -1.9958 0.9779
-5.1927 -0.3744 -1.9951 0.9779
-5.0403 -1.2901 -1.9938 0.9780
-3.3281 -3.9908 -1.9914 0.9780
-2.5662 -4.5186 -1.9914 0.9780
-1.2789 -5.0382 -1.9920 0.9780
-0.8246 -5.1331 -1.9923 0.9780
1.0233 -5.1028 -1.9944 0.9780
1.4748 -4.9929 -1.9951 0.9779
1.9149 -4.8432 -1.9958 0.9779
2.3402 -4.6549 -1.9966 0.9779
2.7471 -4.4295 -1.9974 0.9779
3.8266 -3.5489 -2.0000 0.9779
4.1298 -3.1949 -2.0009 0.9779
4.6359 -2.4126 -2.0027 0.9779
4.8347 -1.9905 -2.0036 0.9779
4.9952 -1.5521 -2.0045 0.9778
5.1159 -1.1008 -2.0054 0.9778
5.2343 -0.1746 -2.0070 0.9778
5.1858 0.7586 -2.0084 0.9778
5.0991 1.2185 -2.0091 0.9778
4.5982 2.5268 -2.0106 0.9778
3.0579 4.2670 -2.0117 0.9778
2.6652 4.5226 -2.0117 0.9778
2.2511 4.7420 -2.0116 0.9778
1.3705 5.0579 -2.0082 0.9778
0.9117 5.1473 -2.0032 0.9779
0.4291 4.9773 -1.9145 0.9788
-0.0160 4.8459 -1.8571 0.9795
-0.8761 4.7632 -1.8560 0.9795
-1.7072 4.5286 -1.8547 0.9795
-2.1271 4.4056 -1.8748 0.9793
-2.6037 4.3524 -1.9436 0.9785
-3.4379 3.9379 -2.0032 0.9779
-4.9550 1.6270 -1.9986 0.9779
-5.0782 1.1781 -1.9977 0.9779
-5.1609 0.7202 -1.9969 0.9779
-5.2025 0.2570 -1.9961 0.9779
-5.2027 -0.2079 -1.9954 0.9779
-5.1617 -0.6709 -1.9947 0.9780
-5.0796 -1.1282 -1.9940 0.9780
-4.5962 -2.4307 -1.9925 0.9780
-4.3602 -2.8303 -1.9921 0.9780
-4.0898 -3.2074 -1.9918 0.9780
-3.4543 -3.8823 -1.9914 0.9780
-3.0942 -4.1747 -1.9913 0.9780
-2.7095 -4.4340 -1.9913 0.9780
-0.9885 -5.1037 -1.9922 0.9780
-0.5295 -5.1726 -1.9926 0.9780
0.3980 -5.1869 -1.9936 0.9780
0.8593 -5.1323 -1.9942 0.9780
1.3140 -5.0369 -1.9948 0.9779
2.1896 -4.7268 -1.9963 0.9779
2.6035 -4.5145 -1.9971 0.9779
2.9970 -4.2661 -1.9979 0.9779
3.3669 -3.9836 -1.9988 0.9779
3.7104 -3.6690 -1.9997 0.9779
4.5555 -2.5594 -2.0024 0.9779
4.7678 -2.1439 -2.0033 0.9779
5.1719 -0.8064 -2.0059 0.9778
5.2253 -0.3421 -2.0067 0.9778
5.2370 0.1254 -2.0075 0.9778
5.2068 0.5921 -2.0082 0.9778
5.1349 1.0545 -2.0089 0.9778
5.0220 1.5087 -2.0095 0.9778
4.6764 2.3781 -2.0105 0.9778
4.1810 3.1722 -2.0112 0.9778
3.8820 3.5329 -2.0115 0.9778
3.5517 3.8653 -2.0116 0.9778
3.1930 4.1668 -2.0117 0.9778
2.8086 4.4350 -2.0117 0.9778
2.4018 4.6677 -2.0116 0.9778
1.5332 5.0162 -2.0101 0.9778
1.0770 5.1199 -2.0050 0.9778
0.1403 4.8836 -1.8723 0.9793
-0.7233 4.7894 -1.8562 0.9795
-1.1471 4.7042 -1.8556 0.9795
-1.9654 4.4272 -1.8563 0.9795
-2.9284 4.3137 -1.9980 0.9779
-3.6580 3.7349 -2.0034 0.9779
-4.2595 3.0229 -2.0016 0.9779
-4.5101 2.6298 -2.0007 0.9779
-5.1923 0.4235 -1.9964 0.9779
-5.1811 -0.5053 -1.9949 0.9779
-5.0057 -1.4168 -1.9936 0.9780
-4.4489 -2.6895 -1.9922 0.9780
-4.1906 -3.0750 -1.9919 0.9780
-1.5986 -4.9455 -1.9918 0.9780
-0.6948 -5.1526 -1.9924 0.9780
1.6006 -4.9545 -1.9953 0.9779
2.0368 -4.7938 -1.9960 0.9779
2.4572 -4.5949 -1.9968 0.9779
2.8584 -4.3592 -1.9976 0.9779
3.2372 -4.0887 -1.9985 0.9779
3.5905 -3.7853 -1.9994 0.9779
4.2097 -3.0900 -2.0012 0.9779
4.4705 -2.7035 -2.0021 0.9779
4.6959 -2.2951 -2.0030 0.9779
5.0334 -1.4256 -2.0048 0.9778
5.1427 -0.9714 -2.0056 0.9778
4.7498 2.2269 -2.0103 0.9778
3.9929 3.4066 -2.0114 0.9778
3.3247 4.0624 -2.0117 0.9778
2.9492 4.3428 -2.0117 0.9778
1.2414 5.0873 -2.0067 0.9778
0.7704 5.0954 -1.9748 0.9782
0.3002 4.9356 -1.8949 0.9790
-0.1383 4.8436 -1.8569 0.9795
-0.5696 4.8106 -1.8564 0.9795
-0.9960 4.7391 -1.8558 0.9795
-1.4142 4.6298 -1.8552 0.9795
-1.8208 4.4836 -1.8545 0.9795
-2.2586 4.3912 -1.8923 0.9791
-2.7519 4.3471 -1.9716 0.9782
-4.1612 3.1583 -2.0019 0.9779
-4.4243 2.7733 -2.0010 0.9779
-4.6519 2.3666 -2.0001 0.9779
-4.9939 1.5012 -1.9984 0.9779
-5.1768 0.5896 -1.9967 0.9779
-5.2068 0.1255 -1.9959 0.9779
-5.1953 -0.3392 -1.9952 0.9779
-5.0491 -1.2560 -1.9939 0.9780
-4.7431 -2.1319 -1.9928 0.9780
-4.5331 -2.5458 -1.9924 0.9780
-4.0074 -3.3096 -1.9917 0.9780
-3.6959 -3.6534 -1.9915 0.9780
-3.3551 -3.9682 -1.9914 0.9780
-2.9878 -4.2515 -1.9913 0.9780
-2.5967 -4.5011 -1.9914 0.9780
-2.1851 -4.7150 -1.9915 0.9780
-1.7561 -4.8916 -1.9917 0.9780
-0.8594 -5.1273 -1.9923 0.9780
0.0652 -5.2008 -1.9932 0.9780
1.8820 -4.8559 -1.9958 0.9779
2.3085 -4.6705 -1.9965 0.9779
3.1041 -4.1896 -1.9982 0.9779
3.8024 -3.5746 -1.9999 0.9779
5.2329 -0.2100 -2.0069 0.9778
5.1071 1.1839 -2.0090 0.9778
4.8182 2.0735 -2.0102 0.9778
4.6151 2.4955 -2.0106 0.9778
3.7916 3.6299 -2.0115 0.9778
3.0867 4.2462 -2.0117 0.9778
2.6957 4.5045 -2.0117 0.9778
1.4050 5.0495 -2.0086 0.9778
0.0168 4.8485 -1.8581 0.9794
-0.8439 4.7691 -1.8560 0.9795
-1.2679 4.6823 -1.8590 0.9794
-1.6766 4.5402 -1.8547 0.9795
-3.0379 4.2406 -1.9990 0.9779
-3.4106 3.9604 -2.0029 0.9779
-5.1561 0.7552 -1.9970 0.9779
-5.1662 -0.6359 -1.9947 0.9779
-5.0873 -1.0938 -1.9941 0.9780
-4.8093 -1.9791 -1.9930 0.9780
-4.6126 -2.3995 -1.9925 0.9780
-4.3794 -2.8008 -1.9921 0.9780
-3.4805 -3.8588 -1.9914 0.9780
-2.7395 -4.4156 -1.9913 0.9780
-1.9117 -4.8326 -1.9916 0.9780
-0.5645 -5.1687 -1.9925 0.9780
0.3629 -5.1894 -1.9935 0.9780
0.8245 -5.1379 -1.9941 0.9780
2.5728 -4.5319 -1.9970 0.9779
2.9679 -4.2862 -1.9979 0.9779
3.3398 -4.0061 -1.9987 0.9779
4.0019 -3.3521 -2.0005 0.9779
4.2869 -2.9831 -2.0014 0.9779
4.9303 -1.7443 -2.0041 0.9778
5.1662 -0.8414 -2.0059 0.9778
5.0319 1.4746 -2.0094 0.9778
4.8817 1.9180 -2.0100 0.9778
4.4653 2.7560 -2.0109 0.9778
3.5778 3.8412 -2.0116 0.9778
3.2211 4.1451 -2.0117 0.9778
2.8386 4.4159 -2.0117 0.9778
0.6326 5.0426 -1.9475 0.9785
-0.6924 4.8049 -1.8604 0.9794
-1.5305 4.5921 -1.8550 0.9795
-1.9333 4.4357 -1.8543 0.9795
-2.3926 4.3763 -1.9113 0.9789
-3.9518 3.4192 -2.0026 0.9779
-4.2391 3.0518 -2.0017 0.9779
-4.4924 2.6603 -2.0008 0.9779
-4.7096 2.2481 -1.9999 0.9779
-5.1300 0.9200 -1.9973 0.9779
-5.1895 0.4587 -1.9965 0.9779
-5.1846 -0.4703 -1.9950 0.9779
-5.1202 -0.9304 -1.9943 0.9780
-4.2114 -3.0466 -1.9919 0.9780
-3.9224 -3.4096 -1.9916 0.9780
-2.8794 -4.3256 -1.9913 0.9780
-2.4823 -4.5653 -1.9914 0.9780
-2.0654 -4.7688 -1.9915 0.9780
-1.6320 -4.9345 -1.9917 0.9780
-1.1856 -5.0611 -1.9920 0.9780
-0.7297 -5.1477 -1.9924 0.9780
-0.2677 -5.1934 -1.9928 0.9780
0.6595 -5.1611 -1.9939 0.9780
1.1175 -5.0833 -1.9945 0.9780
2.0043 -4.8074 -1.9960 0.9779
2.8287 -4.3783 -1.9976 0.9779
3.5646 -3.8095 -1.9993 0.9779
5.0235 -1.4596 -2.0047 0.9778
5.2072 -0.5444 -2.0064 0.9778
5.2371 -0.0778 -2.0072 0.9778
5.1713 0.8544 -2.0086 0.9778
4.9402 1.7606 -2.0098 0.9778
3.6988 3.7245 -2.0116 0.9778
2.9785 4.3228 -2.0117 0.9778
2.1630 4.7828 -2.0116 0.9778
0.8081 5.1108 -1.9829 0.9781
-1.3829 4.6394 -1.8552 0.9795
-1.7905 4.4959 -1.8545 0.9795
-2.2231 4.3951 -1.8875 0.9791
-2.7118 4.3485 -1.9639 0.9783
-3.1457 4.1647 -2.0001 0.9779
-3.8410 3.5446 -2.0029 0.9779
-4.4056 2.8033 -2.0011 0.9779
-5.2059 0.1608 -1.9960 0.9779
-5.1976 -0.3040 -1.9952 0.9779
-5.0576 -1.2218 -1.9939 0.9780
-4.9270 -1.6675 -1.9933 0.9780
-4.0297 -3.2824 -1.9917 0.9780
-3.7205 -3.6283 -1.9915 0.9780
-3.3819 -3.9454 -1.9914 0.9780
-3.0165 -4.2312 -1.9913 0.9780
-2.6271 -4.4834 -1.9914 0.9780
-1.3470 -5.0203 -1.9919 0.9780
0.4939 -5.1790 -1.9937 0.9780
1.8491 -4.8684 -1.9957 0.9779
2.2768 -4.6859 -1.9965 0.9779
3.4403 -3.9210 -1.9990 0.9779
3.7780 -3.6002 -1.9999 0.9779
4.3614 -2.8743 -2.0017 0.9779
4.6025 -2.4750 -2.0026 0.9779
4.9734 -1.6194 -2.0044 0.9778
5.1864 -0.7107 -2.0061 0.9778
5.2342 0.2222 -2.0076 0.9778
4.9935 1.6013 -2.0096 0.9778
4.6319 2.4642 -2.0106 0.9778
4.9019 0.1506 -2.0072 0.9790
4.3623 2.2557 -2.0099 0.9790
3.3000 3.6405 -2.0110 0.9790
2.9622 3.9204 -2.0111 0.9790
2.6008 4.1690 -2.0111 0.9790
2.2185 4.3842 -2.0110 0.9790
0.9776 4.8090 -2.0085 0.9790
0.5437 4.8672 -2.0044 0.9791
-0.3188 4.7266 -1.9389 0.9797
-0.7304 4.6240 -1.9160 0.9800
-1.1387 4.5361 -1.9141 0.9800
-2.4018 4.2552 -1.9998 0.9791
-2.7755 4.0296 -2.0026 0.9791
-3.4484 3.4736 -2.0032 0.9791
-3.7429 3.1508 -2.0024 0.9791
-4.0073 2.8033 -2.0015 0.9791
-4.2395 2.4337 -2.0007 0.9791
-4.4378 2.0450 -1.9998 0.9791
-4.6006 1.6404 -1.9990 0.9791
-2.0814 0.3443 -0.8634 0.9909
-1.9538 0.1460 -0.8019 0.9916
-1.9127 -0.0281 -0.7829 0.9918
-4.7829 -0.9362 -1.9947 0.9792
-4.6790 -1.3587 -1.9941 0.9792
-4.5381 -1.7701 -1.9936 0.9792
-4.1497 -2.5471 -1.9928 0.9792
-3.9054 -2.9066 -1.9925 0.9792
-3.6302 -3.2429 -1.9922 0.9792
-1.8739 -4.4924 -1.9922 0.9792
-1.4659 -4.6421 -1.9924 0.9792
-1.0462 -4.7550 -1.9927 0.9792
-0.1849 -4.8672 -1.9934 0.9792
0.2500 -4.8654 -1.9939 0.9792
0.6831 -4.8251 -1.9945 0.9792
2.7044 -4.0641 -1.9979 0.9791
3.3861 -3.5219 -1.9996 0.9791
4.4113 -2.1191 -2.0030 0.9791
4.5847 -1.7180 -2.0038 0.9791
4.8208 -0.8769 -2.0054 0.9790
4.8817 -0.4436 -2.0062 0.9790
4.8299 0.8654 -2.0082 0.9790
4.7348 1.2930 -2.0088 0.9790
4.6019 1.7106 -2.0093 0.9790
4.4320 2.1147 -2.0098 0.9790
4.2265 2.5020 -2.0102 0.9790
3.9872 2.8694 -2.0105 0.9790
3.7159 3.2140 -2.0108 0.9790
3.0862 3.8235 -2.0110 0.9790
2.7330 4.0836 -2.0111 0.9790
2.3578 4.3110 -2.0110 0.9790
1.5542 4.6605 -2.0107 0.9790
1.1320 4.7792 -2.0101 0.9790
-0.9911 4.5620 -1.9107 0.9800
-1.4044 4.4886 -1.9249 0.9799
-2.6436 4.1140 -2.0014 0.9791
-3.0044 3.8675 -2.0044 0.9791
-3.3359 3.5827 -2.0035 0.9791
-3.6406 3.2696 -2.0027 0.9791
-3.9161 2.9306 -2.0018 0.9791
-4.1600 2.5686 -2.0010 0.9791
-4.3707 2.1864 -2.0001 0.9791
-4.5464 1.7872 -1.9993 0.9791
-4.6857 1.3740 -1.9985 0.9791
-4.7877 0.9503 -1.9977 0.9791
-1.9527 -0.1408 -0.8013 0.9916
-3.7323 -3.1251 -1.9923 0.9792
-3.4384 -3.4452 -1.9921 0.9792
-3.1173 -3.7379 -1.9920 0.9792
-2.7714 -4.0010 -1.9920 0.9792
-2.4036 -4.2323 -1.9920 0.9792
-0.7724 -4.8077 -1.9929 0.9792
0.0941 -4.8705 -1.9938 0.9792
0.5282 -4.8440 -1.9943 0.9792
1.3812 -4.6759 -1.9955 0.9791
1.7933 -4.5357 -1.9962 0.9791
2.1915 -4.3592 -1.9969 0.9791
2.5725 -4.1480 -1.9977 0.9791
2.9334 -3.9036 -1.9985 0.9791
3.2712 -3.6279 -1.9993 0.9791
3.5832 -3.3231 -2.0001 0.9791
3.8669 -2.9916 -2.0010 0.9791
4.1200 -2.6359 -2.0018 0.9791
4.6767 -1.4531 -2.0043 0.9791
4.8970 0.2743 -2.0073 0.9790
4.7733 1.1406 -2.0086 0.9790
4.6538 1.5622 -2.0092 0.9790
4.4971 1.9715 -2.0096 0.9790
4.3042 2.3652 -2.0101 0.9790
3.8167 3.0932 -2.0107 0.9790
3.2070 3.7227 -2.0110 0.9790
2.4947 4.2333 -2.0111 0.9790
1.7027 4.6085 -2.0108 0.9790
1.2847 4.7414 -2.0105 0.9790
0.8553 4.8291 -2.0072 0.9790
0.4205 4.8770 -2.0034 0.9791
-0.4363 4.6976 -1.9309 0.9798
-3.2200 3.6882 -2.0038 0.9791
-3.5346 3.3850 -2.0030 0.9791
-3.8208 3.0549 -2.0022 0.9791
-4.2991 2.3256 -2.0005 0.9791
-4.4875 1.9321 -1.9996 0.9791
-4.6400 1.5236 -1.9988 0.9791
-1.9470 0.2717 -0.8046 0.9915
-1.9405 0.0959 -0.7952 0.9916
-4.6429 -1.4762 -1.9940 0.9792
-4.4916 -1.8840 -1.9935 0.9792
-4.3048 -2.2766 -1.9930 0.9792
-3.5471 -3.3335 -1.9922 0.9792
-2.1574 -4.3630 -1.9921 0.9792
-1.7599 -4.5384 -1.9922 0.9792
-1.3483 -4.6778 -1.9925 0.9792
-0.0619 -4.8706 -1.9936 0.9792
0.3728 -4.8579 -1.9941 0.9792
0.8048 -4.8067 -1.9946 0.9792
1.2306 -4.7172 -1.9953 0.9791
2.4380 -4.2277 -1.9974 0.9791
2.8065 -3.9949 -1.9982 0.9791
3.1529 -3.7303 -1.9990 0.9791
3.4744 -3.4356 -1.9998 0.9791
4.0329 -2.7661 -2.0015 0.9791
4.4640 -2.0073 -2.0032 0.9791
4.6271 -1.6019 -2.0040 0.9791
4.8743 0.5543 -2.0078 0.9790
4.8069 0.9871 -2.0084 0.9790
4.1622 2.6080 -2.0103 0.9790
3.9136 2.9693 -2.0106 0.9790
2.9887 3.9003 -2.0111 0.9790
2.6290 4.1513 -2.0111 0.9790
1.4360 4.6981 -2.0106 0.9790
0.5768 4.8641 -2.0047 0.9791
0.1396 4.8601 -1.9900 0.9792
-0.2872 4.7344 -1.9412 0.9797
-1.1075 4.5416 -1.9132 0.9800
-1.9542 4.4021 -1.9712 0.9794
-2.3727 4.2710 -1.9996 0.9791
-3.4249 3.4969 -2.0033 0.9791
-3.7216 3.1762 -2.0025 0.9791
-3.9883 2.8304 -2.0016 0.9791
-4.4240 2.0751 -1.9999 0.9791
-4.5895 1.6716 -1.9991 0.9791
-2.1380 0.3685 -0.8879 0.9907
-1.9563 0.1596 -0.8033 0.9916
-1.9060 -0.0151 -0.7801 0.9918
-1.9579 -0.1910 -0.8051 0.9915
-4.6882 -1.3270 -1.9941 0.9792
-4.3758 -2.1377 -1.9932 0.9792
-3.9250 -2.8801 -1.9925 0.9792
-3.6521 -3.2183 -1.9923 0.9792
-3.3502 -3.5309 -1.9921 0.9792
-2.6695 -4.0697 -1.9920 0.9792
-2.2960 -4.2917 -1.9920 0.9792
-1.9042 -4.4796 -1.9922 0.9792
-1.0784 -4.7478 -1.9926 0.9792
-0.6508 -4.8259 -1.9930 0.9792
0.2170 -4.8669 -1.9939 0.9792
1.0789 -4.7537 -1.9950 0.9792
2.3011 -4.3030 -1.9971 0.9791
2.6767 -4.0822 -1.9979 0.9791
3.0314 -3.8287 -1.9987 0.9791
3.9417 -2.8933 -2.0012 0.9791
4.3967 -2.1489 -2.0029 0.9791
4.7125 -1.3347 -2.0046 0.9791
4.8146 -0.9095 -2.0054 0.9790
4.8784 -0.4766 -2.0061 0.9790
4.8889 0.3979 -2.0075 0.9790
4.4461 2.0846 -2.0098 0.9790
4.2433 2.4733 -2.0102 0.9790
4.0065 2.8423 -2.0105 0.9790
3.7375 3.1887 -2.0107 0.9790
3.4386 3.5097 -2.0109 0.9790
3.1120 3.8025 -2.0110 0.9790
2.7605 4.0650 -2.0111 0.9790
2.3870 4.2949 -2.0110 0.9790
1.5857 4.6499 -2.0107 0.9790
0.7327 4.8463 -2.0060 0.9790
0.2970 4.8838 -2.0025 0.9791
-0.5528 4.6686 -1.9241 0.9799
-0.9600 4.5674 -1.9102 0.9800
-1.3729 4.4943 -1.9233 0.9799
-1.7947 4.4192 -1.9521 0.9796
-2.2339 4.3431 -1.9989 0.9791
-2.9782 3.8879 -2.0044 0.9791
-3.3117 3.6053 -2.0036 0.9791
-3.6185 3.2942 -2.0028 0.9791
-3.8963 2.9571 -2.0019 0.9791
-4.1427 2.5968 -2.0011 0.9791
-4.3559 2.2160 -2.0002 0.9791
-4.7813 0.9827 -1.9978 0.9791
-1.9558 0.2227 -0.8056 0.9915
-1.9496 -0.1273 -0.7996 0.9916
-2.0035 -0.3120 -0.8299 0.9913
-4.6038 -1.5929 -1.9938 0.9792
-4.0154 -2.7531 -1.9926 0.9792
-3.4617 -3.4219 -1.9921 0.9792
-2.0466 -4.4162 -1.9921 0.9792
-1.6448 -4.5816 -1.9923 0.9792
-0.8049 -4.8023 -1.9929 0.9792
-0.3735 -4.8559 -1.9933 0.9792
0.4954 -4.8474 -1.9942 0.9792
0.9260 -4.7852 -1.9948 0.9792
1.3495 -4.6851 -1.9954 0.9791
1.7625 -4.5476 -1.9961 0.9791
2.9068 -3.9233 -1.9984 0.9791
3.2464 -3.6499 -1.9992 0.9791
3.8464 -3.0176 -2.0009 0.9791
4.1020 -2.6637 -2.0017 0.9791
4.7824 -1.0630 -2.0051 0.9790
4.8600 -0.6325 -2.0058 0.9790
4.8989 -0.1966 -2.0066 0.9790
4.8986 0.2411 -2.0073 0.9790
4.7808 1.1083 -2.0086 0.9790
4.3201 2.3360 -2.0100 0.9790
4.0952 2.7124 -2.0104 0.9790
2.5233 4.2163 -2.0111 0.9790
1.7339 4.5969 -2.0108 0.9790
0.4535 4.8747 -2.0037 0.9791
-0.4049 4.7054 -1.9329 0.9798
-0.8144 4.6027 -1.9131 0.9800
-1.2242 4.5209 -1.9169 0.9800
-2.0822 4.3882 -1.9879 0.9792
-2.4806 4.2110 -2.0003 0.9791
-2.8505 3.9790 -2.0033 0.9791
-3.1950 3.7101 -2.0039 0.9791
-3.8001 3.0809 -2.0022 0.9791
-4.6297 1.5550 -1.9988 0.9791
-4.7480 1.1355 -1.9980 0.9791
-1.9435 0.2847 -0.8039 0.9915
-1.9447 0.1093 -0.7972 0.9916
-1.9289 -0.0640 -0.7899 0.9917
-4.7645 -1.0244 -1.9945 0.9792
-4.6529 -1.4448 -1.9940 0.9792
-4.5044 -1.8536 -1.9935 0.9792
-4.3202 -2.2474 -1.9931 0.9792
-4.1018 -2.6233 -1.9927 0.9792
-3.8509 -2.9782 -1.9924 0.9792
-2.9245 -3.8905 -1.9920 0.9792
-2.5659 -4.1358 -1.9920 0.9792
-2.1869 -4.3483 -1.9921 0.9792
-1.7906 -4.5264 -1.9922 0.9792
-1.3799 -4.6686 -1.9924 0.9792
-0.9582 -4.7737 -1.9927 0.9792
0.3399 -4.8603 -1.9940 0.9792
0.7722 -4.8119 -1.9946 0.9792
2.0205 -4.4402 -1.9966 0.9791
2.4093 -4.2439 -1.9973 0.9791
3.1274 -3.7514 -1.9989 0.9791
4.0140 -2.7932 -2.0014 0.9791
4.2489 -2.4252 -2.0023 0.9791
4.4501 -2.0374 -2.0031 0.9791
4.8778 0.5213 -2.0077 0.9790
4.8134 0.9545 -2.0084 0.9790
4.7104 1.3804 -2.0089 0.9790
4.1797 2.5798 -2.0103 0.9790
3.6559 3.2822 -2.0108 0.9790
3.0150 3.8800 -2.0111 0.9790
2.6570 4.1334 -2.0111 0.9790
1.8802 4.5392 -2.0109 0.9790
1.4678 4.6883 -2.0106 0.9790
-0.6686 4.6396 -1.9185 0.9799
-1.0763 4.5471 -1.9124 0.9800
-3.9692 2.8575 -2.0017 0.9791
-4.2064 2.4910 -2.0008 0.9791
-4.4100 2.1051 -2.0000 0.9791
-2.1755 -0.3953 -0.9050 0.9905
-3.9445 -2.8535 -1.9925 0.9792
-3.6738 -3.1935 -1.9923 0.9792
-3.3741 -3.5081 -1.9921 0.9792
-3.0476 -3.7949 -1.9920 0.9792
-2.6970 -4.0515 -1.9920 0.9792
-2.3250 -4.2760 -1.9920 0.9792
-1.9345 -4.4666 -1.9922 0.9792
-1.5286 -4.6218 -1.9924 0.9792
-1.1105 -4.7403 -1.9926 0.9792
-0.6834 -4.8213 -1.9930 0.9792
0.6177 -4.8337 -1.9944 0.9792
1.0466 -4.7607 -1.9950 0.9792
1.4675 -4.6499 -1.9956 0.9791
1.8770 -4.5021 -1.9963 0.9791
2.2719 -4.3183 -1.9971 0.9791
2.6490 -4.1001 -1.9978 0.9791
3.9219 -2.9199 -2.0011 0.9791
4.1684 -2.5596 -2.0020 0.9791
4.3819 -2.1785 -2.0028 0.9791
4.5607 -1.7798 -2.0037 0.9791
4.7032 -1.3665 -2.0045 0.9791
4.9028 -0.0729 -2.0068 0.9790
4.7517 1.2287 -2.0087 0.9790
4.2599 2.4445 -2.0101 0.9790
4.0256 2.8151 -2.0105 0.9790
3.4622 3.4863 -2.0109 0.9790
2.7880 4.0462 -2.0111 0.9790
2.4160 4.2787 -2.0110 0.9790
1.1969 4.7642 -2.0105 0.9790
0.7656 4.8419 -2.0063 0.9790
-0.1042 4.7806 -1.9570 0.9795
-0.5216 4.6764 -1.9258 0.9799
-1.3413 4.5000 -1.9218 0.9799
-1.7615 4.4231 -1.9485 0.9796
-2.2043 4.3578 -1.9987 0.9791
-2.9515 3.9076 -2.0042 0.9791
-3.8763 2.9836 -2.0020 0.9791
-4.1251 2.6248 -2.0011 0.9791
-4.5220 1.8487 -1.9994 0.9791
-4.7746 1.0151 -1.9978 0.9791
-1.9541 0.2360 -0.8056 0.9915
-1.9460 -0.1138 -0.7978 0.9916
-1.9500 -0.2902 -0.8069 0.9915
-4.7367 -1.1443 -1.9944 0.9792
-4.4558 -1.9666 -1.9934 0.9792
-4.2618 -2.3556 -1.9930 0.9792
-3.4848 -3.3984 -1.9921 0.9792
-2.8253 -3.9631 -1.9920 0.9792
-1.2616 -4.7021 -1.9925 0.9792
-0.8374 -4.7966 -1.9928 0.9792
0.4625 -4.8505 -1.9942 0.9792
0.8935 -4.7913 -1.9948 0.9792
2.8801 -3.9427 -1.9983 0.9791
3.2215 -3.6717 -1.9991 0.9791
3.5376 -3.3711 -2.0000 0.9791
4.3093 -2.3174 -2.0025 0.9791
4.7749 -1.0953 -2.0050 0.9790
4.8555 -0.6654 -2.0058 0.9790
4.8973 -0.2298 -2.0065 0.9790
4.9000 0.2080 -2.0072 0.9790
4.7881 1.0758 -2.0085 0.9790
4.6744 1.4990 -2.0091 0.9790
4.5232 1.9104 -2.0096 0.9790
4.6025 0.1414 -2.0068 0.9801
4.5730 0.5514 -2.0074 0.9801
4.0956 2.1177 -2.0094 0.9801
3.6554 2.8125 -2.0101 0.9801
2.7810 3.6806 -2.0105 0.9801
2.0828 4.1160 -2.0104 0.9801
0.1010 4.6001 -2.0053 0.9801
-0.3093 4.5856 -2.0030 0.9801
-1.8924 4.1862 -2.0021 0.9802
-2.6093 3.7882 -2.0047 0.9801
-3.9814 2.2855 -2.0007 0.9802
-4.1677 1.9206 -1.9999 0.9802
-1.5507 0.4013 -0.6981 0.9930
-1.5291 0.1143 -0.6683 0.9933
-1.5254 -0.0224 -0.6648 0.9934
-1.5255 -0.1592 -0.6684 0.9933
-1.5033 -0.2943 -0.6676 0.9933
-1.5690 -0.4556 -0.7120 0.9929
-4.2627 -1.6627 -1.9941 0.9802
-4.0966 -2.0358 -1.9937 0.9802
-3.8980 -2.3926 -1.9933 0.9802
-3.6686 -2.7303 -1.9930 0.9802
-3.4101 -3.0463 -1.9928 0.9802
-2.4817 -3.8398 -1.9926 0.9802
-2.1294 -4.0460 -1.9926 0.9802
-1.7602 -4.2200 -1.9927 0.9802
-0.5806 -4.5373 -1.9935 0.9802
0.2348 -4.5702 -1.9944 0.9802
0.6416 -4.5322 -1.9949 0.9802
1.8202 -4.2045 -1.9967 0.9802
2.5400 -3.8170 -1.9982 0.9802
2.8713 -3.5766 -1.9989 0.9802
3.9469 -2.3506 -2.0021 0.9802
4.1425 -1.9900 -2.0029 0.9801
4.3051 -1.6132 -2.0037 0.9801
4.4336 -1.2233 -2.0044 0.9801
4.5267 -0.8234 -2.0052 0.9801
4.5837 -0.4165 -2.0059 0.9801
4.4455 1.2140 -2.0084 0.9801
4.1610 1.9854 -2.0093 0.9801
3.9681 2.3490 -2.0097 0.9801
3.7434 2.6939 -2.0100 0.9801
3.2059 3.3168 -2.0104 0.9801
2.2136 4.0472 -2.0104 0.9801
1.4591 4.3754 -2.0101 0.9801
-0.5710 4.5581 -2.0020 0.9802
-0.9748 4.4867 -2.0010 0.9802
-1.7569 4.2435 -2.0016 0.9802
-2.4870 3.8703 -2.0049 0.9801
-2.8211 3.6317 -2.0042 0.9801
-3.6775 2.7521 -2.0018 0.9802
-3.9067 2.4122 -2.0010 0.9802
-4.1047 2.0533 -2.0002 0.9802
-1.5705 0.4605 -0.7133 0.9929
-1.5258 0.0264 -0.6651 0.9934
-1.5293 -0.1102 -0.6682 0.9933
-1.5080 -0.2453 -0.6659 0.9934
-1.5940 -0.5636 -0.7368 0.9927
-2.6034 -3.7584 -1.9925 0.9802
-2.2579 -3.9756 -1.9926 0.9802
-1.5159 -4.3141 -1.9929 0.9802
-1.1252 -4.4327 -1.9931 0.9802
0.0881 -4.5618 -1.9885 0.9803
0.4962 -4.5500 -1.9947 0.9802
0.9002 -4.4888 -1.9953 0.9802
1.2973 -4.3920 -1.9959 0.9802
1.6844 -4.2601 -1.9965 0.9802
2.0583 -4.0943 -1.9972 0.9802
3.0721 -3.4072 -1.9994 0.9802
3.3651 -3.1209 -2.0002 0.9802
3.6315 -2.8094 -2.0010 0.9802
3.8691 -2.4754 -2.0018 0.9802
4.2507 -1.7500 -2.0034 0.9801
4.5675 -0.5630 -2.0056 0.9801
4.5580 0.6668 -2.0076 0.9801
4.4816 1.0709 -2.0082 0.9801
4.2221 1.8510 -2.0091 0.9801
4.0410 2.2206 -2.0095 0.9801
3.3103 3.2123 -2.0103 0.9801
3.0108 3.4950 -2.0104 0.9801
1.5985 4.3267 -2.0102 0.9801
0.8042 4.5406 -2.0097 0.9801
0.3956 4.5891 -2.0074 0.9801
-0.0152 4.5994 -2.0045 0.9801
-0.4249 4.5753 -2.0026 0.9801
-0.8307 4.5162 -2.0013 0.9802
-1.9979 4.1380 -2.0026 0.9801
-2.3614 3.9473 -2.0046 0.9801
-2.7038 3.7207 -2.0045 0.9801
-3.0237 3.4634 -2.0037 0.9801
-3.3192 3.1787 -2.0029 0.9801
-3.5880 2.8688 -2.0021 0.9802
-3.8281 2.5364 -2.0013 0.9802
-4.0374 2.1840 -2.0005 0.9802
-4.2144 1.8145 -1.9997 0.9802
-1.5859 0.5207 -0.7275 0.9927
-1.5325 0.3555 -0.6856 0.9932
-1.5294 0.0755 -0.6673 0.9933
-1.5288 -0.0611 -0.6668 0.9933
-1.5195 -0.1975 -0.6678 0.9933
-4.0437 -2.1385 -1.9936 0.9802
-3.8362 -2.4902 -1.9932 0.9802
-3.5983 -2.8220 -1.9930 0.9802
-2.3840 -3.9013 -1.9926 0.9802
-0.8697 -4.4902 -1.9933 0.9802
1.1559 -4.4308 -1.9956 0.9802
1.5469 -4.3114 -1.9963 0.9802
2.2899 -3.9707 -1.9976 0.9802
3.2630 -3.2266 -1.9999 0.9802
4.1919 -1.8850 -2.0031 0.9801
4.5932 -0.3007 -2.0061 0.9801
4.5765 0.5205 -2.0074 0.9801
4.5132 0.9268 -2.0080 0.9801
3.6743 2.7877 -2.0100 0.9801
3.4114 3.1046 -2.0103 0.9801
2.4681 3.8973 -2.0105 0.9801
2.1106 4.1018 -2.0104 0.9801
1.7363 4.2734 -2.0103 0.9801
0.9493 4.5128 -2.0098 0.9801
-1.0877 4.4606 -2.0010 0.9802
-2.2329 4.0193 -2.0038 0.9801
-2.9116 3.5589 -2.0040 0.9801
-3.2162 3.2838 -2.0032 0.9801
-3.7454 2.6580 -2.0016 0.9802
-3.9660 2.3125 -2.0008 0.9802
-4.1548 1.9488 -2.0000 0.9802
-1.5966 0.5815 -0.7405 0.9926
-1.5552 0.4137 -0.7013 0.9930
-1.5039 0.2592 -0.6651 0.9934
-1.5286 0.1247 -0.6684 0.9933
-1.5240 -0.0121 -0.6642 0.9934
-1.5267 -0.1489 -0.6685 0.9933
-1.5651 -0.4430 -0.7089 0.9929
-4.1103 -2.0080 -1.9937 0.9802
-3.9142 -2.3662 -1.9933 0.9802
-3.6870 -2.7055 -1.9930 0.9802
-3.4306 -3.0231 -1.9928 0.9802
-3.1471 -3.3168 -1.9927 0.9802
-2.8386 -3.5841 -1.9926 0.9802
-2.5077 -3.8229 -1.9926 0.9802
-1.7888 -4.2080 -1.9927 0.9802
-1.4065 -4.3512 -1.9929 0.9802
-1.0130 -4.4598 -1.9932 0.9802
-0.6113 -4.5332 -1.9935 0.9802
-0.2046 -4.5705 -1.9939 0.9802
1.0134 -4.4650 -1.9954 0.9802
1.4079 -4.3582 -1.9960 0.9802
2.1613 -4.0415 -1.9974 0.9802
2.5140 -3.8340 -1.9981 0.9802
3.4432 -3.0353 -2.0004 0.9802
4.1288 -2.0179 -2.0028 0.9801
4.5209 -0.8540 -2.0051 0.9801
4.6039 -0.0373 -2.0065 0.9801
4.5904 0.3736 -2.0072 0.9801
4.5401 0.7817 -2.0078 0.9801
4.4535 1.1839 -2.0083 0.9801
4.3312 1.5767 -2.0088 0.9801
3.7615 2.6685 -2.0099 0.9801
3.2282 3.2950 -2.0104 0.9801
2.9217 3.5699 -2.0105 0.9801
2.5917 3.8163 -2.0105 0.9801
2.2409 4.0322 -2.0104 0.9801
1.4887 4.3655 -2.0101 0.9801
1.0933 4.4803 -2.0099 0.9801
-0.5402 4.5622 -2.0022 0.9802
-1.7280 4.2551 -2.0015 0.9802
-2.7966 3.6508 -2.0042 0.9801
-3.6589 2.7770 -2.0019 0.9802
-3.8904 2.4386 -2.0011 0.9802
-4.0908 2.0811 -2.0003 0.9802
-1.5117 0.3107 -0.6726 0.9933
-1.5269 0.0368 -0.6657 0.9934
-1.5442 -0.3841 -0.6935 0.9931
-1.5918 -0.5508 -0.7341 0.9927
-4.1728 -1.8755 -1.9938 0.9802
-3.5258 -2.9119 -1.9929 0.9802
-3.2518 -3.2144 -1.9927 0.9802
