ply
format ascii 1.0
element vertex 1590
property float32 x
property float32 y
property float32 z
property float32 I
end_header
0.7195 10.4254 -1.7216 0.9585
-0.2136 10.4260 -1.7179 0.9586
-2.1056 10.4271 -1.7524 0.9578
-4.1386 10.4210 -1.8472 0.9556
-5.9179 9.5062 -1.8447 0.9556
-7.5046 8.2919 -1.8424 0.9557
-8.2100 7.5845 -1.8413 0.9557
-9.9110 5.1301 -1.8385 0.9558
-11.5340 3.5536 -1.9882 0.9523
-12.0539 0.3701 -1.9867 0.9523
-12.0370 -0.7073 -1.9864 0.9523
-11.9248 -1.7789 -1.9862 0.9523
-11.0286 -4.8755 -1.9865 0.9523
-10.5510 -5.8415 -1.9868 0.9523
-9.9896 -6.7615 -1.9872 0.9523
-9.3486 -7.6284 -1.9877 0.9523
-8.6332 -8.4353 -1.9884 0.9522
-7.8487 -9.1758 -1.9892 0.9522
-4.1492 -11.3650 -1.9931 0.9521
-3.1199 -11.6969 -1.9943 0.9521
-0.9914 -12.0806 -1.9968 0.9520
1.1743 -12.0806 -1.9995 0.9520
3.3083 -11.6954 -2.0023 0.9519
4.3422 -11.3612 -2.0037 0.9519
5.3427 -10.9356 -2.0050 0.9519
8.0649 -9.1468 -2.0089 0.9518
9.5740 -7.5757 -2.0112 0.9517
11.2552 -4.7749 -2.0141 0.9516
11.9334 -2.6993 -2.0156 0.9516
12.1301 -1.6237 -2.0161 0.9516
12.2292 -0.5345 -2.0166 0.9516
12.2300 0.5594 -2.0169 0.9516
11.9371 2.7257 -2.0171 0.9516
11.6458 3.7804 -2.0171 0.9516
11.2608 4.8044 -2.0169 0.9516
10.7853 5.7896 -2.0166 0.9516
10.2232 6.7279 -2.0161 0.9516
9.5792 7.6116 -2.0156 0.9516
8.8586 8.4335 -2.0149 0.9516
6.6634 9.1161 -1.8602 0.9553
5.8202 9.6700 -1.8593 0.9553
4.9311 10.1457 -1.8584 0.9553
1.9428 10.4247 -1.7469 0.9579
-1.8254 10.4269 -1.7438 0.9580
-2.8041 10.4275 -1.7788 0.9572
-3.8312 10.4280 -1.8302 0.9560
-4.7886 10.1328 -1.8463 0.9556
-5.6703 9.6584 -1.8451 0.9556
-7.2881 8.4854 -1.8427 0.9557
-9.7759 5.3863 -1.8387 0.9558
-10.2132 4.4902 -1.8379 0.9558
-11.7333 2.8146 -1.9878 0.9523
-11.9344 1.7554 -1.9872 0.9523
-12.0408 0.6828 -1.9868 0.9523
-11.9672 -1.4688 -1.9863 0.9523
-11.1510 -4.5875 -1.9864 0.9523
-10.1610 -6.4995 -1.9871 0.9523
-9.5426 -7.3826 -1.9876 0.9523
-8.8483 -8.2076 -1.9882 0.9523
-7.2534 -9.6578 -1.9898 0.9522
-4.4420 -11.2516 -1.9928 0.9521
-2.3732 -11.8764 -1.9952 0.9521
-1.3043 -12.0486 -1.9965 0.9521
6.1173 -8.7493 -2.0066 0.9575
6.8777 -8.1727 -2.0077 0.9575
7.5839 -7.5301 -2.0088 0.9574
8.2299 -6.8264 -2.0098 0.9574
9.7571 -4.4075 -2.0124 0.9574
10.1151 -3.5201 -2.0131 0.9573
10.3921 -2.6039 -2.0137 0.9573
10.5857 -1.6662 -2.0142 0.9573
10.6536 1.1987 -2.0151 0.9573
10.5045 2.1451 -2.0152 0.9573
8.5404 6.4707 -2.0140 0.9573
7.2455 7.8774 -2.0117 0.9574
5.2922 8.3508 -1.8583 0.9606
4.5236 8.7860 -1.8575 0.9606
3.7194 9.1504 -1.8566 0.9606
2.0308 9.6558 -1.8546 0.9606
1.1601 9.7930 -1.8536 0.9607
0.2811 9.8518 -1.8525 0.9607
-1.4735 9.7331 -1.8503 0.9607
-2.3351 9.5569 -1.8492 0.9607
-3.0951 9.0646 -1.8004 0.9618
-3.9926 8.9785 -1.8469 0.9608
-6.8670 6.9976 -1.8428 0.9609
-7.4606 6.3535 -1.8419 0.9609
-8.4639 4.9211 -1.8402 0.9609
-10.4316 1.7809 -1.9891 0.9578
-10.5782 -0.1024 -1.9884 0.9579
-10.3898 -1.9816 -1.9881 0.9579
-10.1714 -2.9012 -1.9881 0.9579
-9.8724 -3.7978 -1.9882 0.9579
-8.5174 -6.2810 -1.9892 0.9578
-7.9248 -7.0181 -1.9897 0.9578
-5.7882 -8.8765 -1.9918 0.9578
-4.1212 -9.7732 -1.9936 0.9577
-3.2339 -10.1072 -1.9946 0.9577
-2.3200 -10.3610 -1.9957 0.9577
-0.4410 -10.6204 -1.9979 0.9577
0.5091 -10.6237 -1.9991 0.9576
2.3931 -10.3763 -2.0015 0.9576
5.0660 -9.3882 -2.0051 0.9575
5.8872 -8.9036 -2.0063 0.9575
8.6490 -6.2931 -2.0105 0.9574
9.1803 -5.4983 -2.0113 0.9574
10.3201 -2.8724 -2.0135 0.9573
10.5382 -1.9402 -2.0141 0.9573
10.6716 -0.9919 -2.0145 0.9573
10.7193 -0.0353 -2.0148 0.9573
10.6809 0.9218 -2.0150 0.9573
10.5565 1.8717 -2.0152 0.9573
10.3473 2.8067 -2.0152 0.9573
10.0550 3.7190 -2.0151 0.9573
9.6818 4.6013 -2.0149 0.9573
8.1115 6.9978 -2.0136 0.9573
7.4521 7.6916 -2.0130 0.9573
5.5078 8.2117 -1.8585 0.9606
3.9562 9.0520 -1.8568 0.9606
3.1308 9.3643 -1.8559 0.9606
2.2811 9.6013 -1.8549 0.9606
0.5368 9.8428 -1.8528 0.9607
-2.8290 9.0467 -1.7816 0.9622
-2.1780 5.2616 -1.0704 0.9771
-5.3076 8.2579 -1.8451 0.9608
-6.0202 7.7468 -1.8441 0.9609
-6.6841 7.1746 -1.8431 0.9609
-8.7563 4.3734 -1.8397 0.9609
-10.1607 2.9706 -1.9898 0.9578
-10.4378 -1.7113 -1.9881 0.9579
-10.2432 -2.6362 -1.9881 0.9579
-8.6770 -6.0574 -1.9890 0.9578
-7.4656 -7.5080 -1.9901 0.9578
-6.0158 -8.7223 -1.9916 0.9578
-5.2154 -9.2284 -1.9924 0.9578
-4.3728 -9.6616 -1.9933 0.9578
-3.4946 -10.0183 -1.9943 0.9577
-2.5877 -10.2957 -1.9954 0.9577
-0.7163 -10.6036 -1.9976 0.9577
0.2332 -10.6315 -1.9988 0.9576
1.1821 -10.5745 -2.0000 0.9576
2.1226 -10.4331 -2.0012 0.9576
3.0474 -10.2081 -2.0024 0.9576
3.9488 -9.9013 -2.0036 0.9575
7.1808 -7.9111 -2.0082 0.9574
7.8624 -7.2422 -2.0092 0.9574
8.4816 -6.5146 -2.0102 0.9574
9.0334 -5.7340 -2.0111 0.9574
10.4835 -2.2129 -2.0139 0.9573
10.6417 -1.2685 -2.0144 0.9573
10.6014 1.5971 -2.0151 0.9573
9.7983 4.3486 -2.0149 0.9573
9.3697 5.2052 -2.0146 0.9573
8.2911 6.7854 -2.0138 0.9573
7.6500 7.4963 -2.0132 0.9573
6.4195 7.5270 -1.8594 0.9605
5.7198 8.0669 -1.8587 0.9606
2.5299 9.5404 -1.8552 0.9606
1.6672 9.7228 -1.8542 0.9606
0.7921 9.8272 -1.8531 0.9607
-1.8368 9.6686 -1.8498 0.9607
-2.6909 9.4603 -1.8487 0.9608
-5.0923 8.3942 -1.8454 0.9608
-5.8180 7.9017 -1.8444 0.9608
-6.4967 7.3467 -1.8434 0.9609
-7.1229 6.7340 -1.8424 0.9609
-10.0811 3.2336 -1.9899 0.9578
-10.3266 2.3201 -1.9894 0.9578
-10.4788 -1.4399 -1.9881 0.9579
-10.3082 -2.3695 -1.9881 0.9579
-9.7236 -4.1653 -1.9883 0.9579
-8.8307 -5.8298 -1.9889 0.9578
-8.2769 -6.5964 -1.9894 0.9578
-6.9763 -7.9680 -1.9906 0.9578
-6.2394 -8.5622 -1.9913 0.9578
-5.4525 -9.0888 -1.9922 0.9578
-4.6214 -9.5436 -1.9931 0.9578
-3.7528 -9.9228 -1.9940 0.9577
-2.8535 -10.2235 -1.9951 0.9577
-1.9305 -10.4431 -1.9961 0.9577
-0.9911 -10.5797 -1.9973 0.9577
-0.0427 -10.6321 -1.9984 0.9576
1.8508 -10.4828 -2.0008 0.9576
2.7809 -10.2819 -2.0020 0.9576
3.6899 -9.9987 -2.0032 0.9575
6.2182 -8.6788 -2.0068 0.9575
7.6707 -7.4427 -2.0089 0.9574
8.8804 -5.9657 -2.0108 0.9574
9.3815 -5.1513 -2.0117 0.9574
10.6045 -1.5441 -2.0142 0.9573
10.7021 -0.5914 -2.0146 0.9573
10.7137 0.3664 -2.0149 0.9573
9.0196 5.7880 -2.0144 0.9573
7.8426 7.2959 -2.0133 0.9573
7.1464 7.9517 -2.0095 0.9574
5.9279 7.9167 -1.8590 0.9605
5.1953 8.4108 -1.8582 0.9606
4.4218 8.8370 -1.8573 0.9606
3.6135 9.1920 -1.8564 0.9606
0.1675 9.8536 -1.8524 0.9607
-2.4449 9.5286 -1.8490 0.9608
-4.8736 8.5250 -1.8457 0.9608
-5.6119 8.0513 -1.8447 0.9608
-6.9468 6.9176 -1.8427 0.9609
-7.5328 6.2667 -1.8418 0.9609
-9.3172 4.2250 -1.9229 0.9592
-10.2637 2.5875 -1.9895 0.9578
-10.5761 -0.2244 -1.9883 0.9579
-10.5129 -1.1675 -1.9882 0.9579
-9.8281 -3.9114 -1.9882 0.9579
-9.4408 -4.7737 -1.9885 0.9579
-8.4447 -6.3789 -1.9892 0.9578
-7.8437 -7.1092 -1.9898 0.9578
-7.1800 -7.7835 -1.9904 0.9578
-6.4588 -8.3965 -1.9911 0.9578
-0.3186 -10.6256 -1.9981 0.9577
0.6316 -10.6179 -1.9993 0.9576
3.4286 -10.0893 -2.0029 0.9576
4.3182 -9.7488 -2.0041 0.9575
5.9899 -8.8358 -2.0064 0.9575
6.7585 -8.2704 -2.0076 0.9575
7.4738 -7.6381 -2.0086 0.9574
8.1299 -6.9439 -2.0096 0.9574
9.6919 -4.5475 -2.0123 0.9574
10.3529 -2.7534 -2.0136 0.9573
10.5602 -1.8186 -2.0141 0.9573
10.7192 0.0883 -2.0149 0.9573
10.3143 2.9258 -2.0152 0.9573
10.0113 3.8346 -2.0151 0.9573
9.6280 4.7125 -2.0148 0.9573
9.1673 5.5522 -2.0145 0.9573
8.6332 6.3471 -2.0141 0.9573
7.3627 7.7766 -2.0129 0.9573
6.1320 7.7611 -1.8592 0.9605
3.8514 9.0964 -1.8567 0.9606
3.0224 9.3992 -1.8558 0.9606
2.1701 9.6263 -1.8548 0.9606
1.3014 9.7761 -1.8537 0.9607
-1.3331 9.7543 -1.8505 0.9607
-2.2334 5.2241 -1.0679 0.9771
-4.6515 8.6500 -1.8460 0.9608
-6.1086 7.6763 -1.8439 0.9609
-6.7659 7.0966 -1.8430 0.9609
-7.9123 5.7747 -1.8412 0.9609
-8.3926 5.0431 -1.8404 0.9609
-9.9016 3.7530 -1.9903 0.9578
-10.1939 2.8532 -1.9897 0.9578
-10.4052 1.9313 -1.9892 0.9578
-10.5338 0.9945 -1.9887 0.9579
-10.5398 -0.8943 -1.9882 0.9579
-10.4173 -1.8315 -1.9881 0.9579
-10.2122 -2.7541 -1.9881 0.9579
-9.9260 -3.6549 -1.9882 0.9579
-9.5611 -4.5269 -1.9884 0.9579
-8.6068 -6.1572 -1.9891 0.9578
-7.3789 -7.5938 -1.9902 0.9578
-5.9152 -8.7915 -1.9917 0.9578
-4.2614 -9.7120 -1.9935 0.9578
-2.4690 -10.3256 -1.9955 0.9577
-1.5382 -10.5106 -1.9966 0.9577
-0.5941 -10.6120 -1.9978 0.9577
0.3558 -10.6289 -1.9989 0.9576
1.3040 -10.5610 -2.0001 0.9576
3.1651 -10.1731 -2.0025 0.9576
4.0630 -9.8558 -2.0038 0.9575
4.9296 -9.4594 -2.0049 0.9575
6.5406 -8.4417 -2.0072 0.9575
7.2720 -7.8283 -2.0083 0.9574
9.5696 -4.7970 -2.0120 0.9574
10.6558 -1.1457 -2.0144 0.9573
10.6929 0.7676 -2.0150 0.9573
10.3868 2.6571 -2.0152 0.9573
9.7474 4.4612 -2.0149 0.9573
4.8756 8.5980 -1.8578 0.9606
4.0867 8.9947 -1.8570 0.9606
1.5549 9.7407 -1.8540 0.9606
0.6788 9.8350 -1.8530 0.9607
-0.2018 9.8505 -1.8519 0.9607
-1.0797 9.7873 -1.8508 0.9607
-1.9479 9.6460 -1.8497 0.9607
-2.7996 9.4279 -1.8486 0.9608
-3.6278 9.1348 -1.8474 0.9608
-4.4262 8.7693 -1.8463 0.9608
-5.1883 8.3343 -1.8453 0.9608
-5.9083 7.8335 -1.8442 0.9609
-10.1173 3.1171 -1.9899 0.9578
-10.3523 2.2009 -1.9893 0.9578
-10.5050 1.2676 -1.9889 0.9578
-10.5598 -0.6205 -1.9883 0.9579
-10.4615 -1.5606 -1.9881 0.9579
-10.0174 -3.3961 -1.9881 0.9579
-9.2559 -5.1244 -1.9886 0.9579
-8.7631 -5.9314 -1.9890 0.9578
-7.5727 -7.3991 -1.9900 0.9578
-6.8843 -8.0483 -1.9907 0.9578
-6.1407 -8.6340 -1.9914 0.9578
-4.5114 -9.5968 -1.9932 0.9578
-1.8101 -10.4654 -1.9963 0.9577
0.0798 -10.6327 -1.9986 0.9576
1.0293 -10.5894 -1.9998 0.9576
4.6816 -9.5825 -2.0046 0.9575
5.5216 -9.1316 -2.0058 0.9575
6.3183 -8.6072 -2.0069 0.9575
7.0653 -8.0131 -2.0080 0.9575
7.7565 -7.3543 -2.0091 0.9574
10.1944 -3.2862 -2.0132 0.9573
10.4501 -2.3638 -2.0138 0.9573
10.6219 -1.4218 -2.0143 0.9573
10.6233 1.4440 -2.0151 0.9573
10.4523 2.3867 -2.0152 0.9573
10.1972 3.3101 -2.0151 0.9573
9.4440 5.0696 -2.0147 0.9573
8.3884 6.6654 -2.0138 0.9573
7.7577 7.3855 -2.0133 0.9573
5.0978 8.4697 -1.8581 0.9606
4.3193 8.8869 -1.8572 0.9606
3.5071 9.2325 -1.8563 0.9606
2.6675 9.5037 -1.8554 0.9606
1.8075 9.6986 -1.8543 0.9606
0.9339 9.8157 -1.8533 0.9607
-0.8255 9.8137 -1.8511 0.9607
-3.3901 9.2275 -1.8478 0.9608
-4.1978 8.8828 -1.8467 0.9608
-5.7039 7.9855 -1.8445 0.9608
-6.3906 7.4403 -1.8435 0.9609
-8.5742 4.7242 -1.8400 0.9609
-9.5941 4.2180 -1.9699 0.9582
-10.0339 3.3789 -1.9900 0.9578
-10.4692 1.5399 -1.9890 0.9578
-10.4986 -1.2886 -1.9881 0.9579
-10.3413 -2.2206 -1.9881 0.9579
-10.1019 -3.1349 -1.9881 0.9579
-9.7825 -4.0245 -1.9882 0.9579
-8.3709 -6.4761 -1.9893 0.9578
-7.7615 -7.1995 -1.9898 0.9578
-6.3619 -8.4708 -1.9912 0.9578
-5.5826 -9.0085 -1.9920 0.9578
-2.0808 -10.4132 -1.9960 0.9577
-1.1435 -10.5633 -1.9971 0.9577
3.1779 -8.9267 -2.0029 0.9620
4.7196 -8.2279 -2.0050 0.9620
6.1137 -7.2648 -2.0070 0.9619
7.3148 -6.0674 -2.0089 0.9619
8.2837 -4.6736 -2.0105 0.9619
8.6709 -3.9168 -2.0112 0.9618
8.9887 -3.1281 -2.0118 0.9618
9.2345 -2.3138 -2.0123 0.9618
9.3336 1.9060 -2.0137 0.9618
9.1261 2.7316 -2.0136 0.9618
8.8453 3.5351 -2.0135 0.9618
8.4935 4.3102 -2.0133 0.9618
8.0736 5.0504 -2.0130 0.9618
7.0437 6.4028 -2.0121 0.9618
5.3491 6.9747 -1.8580 0.9647
3.3059 8.1330 -1.8558 0.9647
2.5655 8.3919 -1.8549 0.9648
1.8053 8.5833 -1.8540 0.9648
1.0313 8.7058 -1.8531 0.9648
0.2499 8.7586 -1.8521 0.9648
-1.3102 8.6542 -1.8502 0.9648
-2.0764 8.4982 -1.8492 0.9649
-2.8252 8.2744 -1.8482 0.9649
-4.2472 7.6321 -1.8462 0.9649
-4.9090 7.2188 -1.8453 0.9649
-6.1086 6.2248 -1.8435 0.9650
-6.6369 5.6521 -1.8427 0.9650
-7.1121 5.0350 -1.8419 0.9650
-8.5213 3.9832 -1.9883 0.9623
-8.8569 3.2117 -1.9915 0.9622
-9.1058 2.4076 -1.9909 0.9622
-9.3849 0.7496 -1.9901 0.9622
-9.4131 -0.0911 -1.9898 0.9622
-9.3665 -0.9310 -1.9896 0.9622
-9.0513 -2.5817 -1.9896 0.9623
-8.4492 -4.1507 -1.9899 0.9622
-8.0461 -4.8891 -1.9901 0.9622
-5.1497 -7.8973 -1.9929 0.9622
-4.4258 -8.3287 -1.9937 0.9622
-3.6662 -8.6942 -1.9945 0.9622
-2.0636 -9.2161 -1.9963 0.9621
-1.2332 -9.3681 -1.9973 0.9621
-0.3922 -9.4457 -1.9983 0.9621
0.4528 -9.4479 -1.9994 0.9621
2.9447 -9.0047 -2.0026 0.9620
3.7388 -8.7106 -2.0037 0.9620
5.2336 -7.9151 -2.0058 0.9619
5.9222 -7.4200 -2.0068 0.9619
6.5641 -6.8649 -2.0077 0.9619
7.1539 -6.2544 -2.0086 0.9619
8.1588 -4.8865 -2.0103 0.9619
9.3641 -1.7241 -2.0127 0.9618
9.5247 -0.0314 -2.0133 0.9618
9.4904 0.8191 -2.0135 0.9618
9.3799 1.6631 -2.0136 0.9618
9.1940 2.4938 -2.0137 0.9618
8.6028 4.0885 -2.0134 0.9618
8.2023 4.8394 -2.0131 0.9618
4.2223 7.7027 -1.8568 0.9647
3.5163 8.0455 -1.8560 0.9647
2.7828 8.3236 -1.8552 0.9648
0.4772 8.7505 -1.8524 0.9648
-0.3057 8.7536 -1.8515 0.9648
-1.8555 8.5505 -1.8495 0.9649
-2.6100 8.3462 -1.8485 0.9649
-2.1361 5.1605 -1.1806 0.9774
-5.3549 6.8907 -1.8447 0.9650
-6.4889 5.8232 -1.8429 0.9650
-8.7713 3.4408 -1.9916 0.9622
-9.2385 1.8252 -1.9906 0.9622
-9.3628 0.9930 -1.9902 0.9622
-9.4126 0.1532 -1.9899 0.9622
-9.3877 -0.6876 -1.9897 0.9622
-9.1152 -2.3459 -1.9895 0.9623
-8.5538 -3.9299 -1.9898 0.9622
-8.1699 -4.6784 -1.9901 0.9622
-7.7210 -5.3900 -1.9904 0.9622
-7.2106 -6.0591 -1.9909 0.9622
-5.3523 -7.7602 -1.9927 0.9622
-3.8901 -8.5951 -1.9942 0.9622
-2.3017 -9.1582 -1.9961 0.9621
-0.6371 -9.4309 -1.9980 0.9621
0.2074 -9.4550 -1.9991 0.9621
2.7096 -9.0767 -2.0023 0.9620
3.5110 -8.8033 -2.0034 0.9620
4.2851 -8.4592 -2.0044 0.9620
7.5383 -5.7900 -2.0092 0.9619
8.8127 -3.5896 -2.0114 0.9618
9.1006 -2.7894 -2.0120 0.9618
9.4559 -1.1271 -2.0129 0.9618
9.4198 1.4191 -2.0136 0.9618
8.7063 3.8640 -2.0134 0.9618
7.8781 5.3490 -2.0128 0.9618
7.3675 6.0296 -2.0124 0.9618
6.7980 6.6615 -2.0119 0.9618
5.0832 7.1692 -1.8577 0.9647
4.4212 7.5915 -1.8570 0.9647
2.9983 8.2497 -1.8554 0.9647
2.2488 8.4804 -1.8545 0.9648
1.4821 8.6431 -1.8536 0.9648
-0.8597 8.7133 -1.8508 0.9648
-1.6332 8.5971 -1.8498 0.9649
-2.3929 8.4125 -1.8488 0.9649
-3.8466 7.8445 -1.8468 0.9649
-4.5292 7.4660 -1.8458 0.9649
-5.7790 6.5351 -1.8440 0.9650
-6.8429 5.3985 -1.8424 0.9650
-8.6799 3.6676 -1.9918 0.9622
-8.9700 2.8772 -1.9912 0.9622
-9.1887 2.0645 -1.9907 0.9622
-9.4058 0.3974 -1.9900 0.9622
-9.4026 -0.4438 -1.9897 0.9622
-9.3248 -1.2813 -1.9896 0.9622
-9.1729 -2.1085 -1.9895 0.9623
-8.9483 -2.9191 -1.9896 0.9622
-8.6526 -3.7065 -1.9897 0.9622
-7.8578 -5.1876 -1.9903 0.9622
-6.8132 -6.5052 -1.9912 0.9622
-4.1113 -8.4902 -1.9940 0.9622
-3.3385 -8.8271 -1.9949 0.9622
-1.7171 -9.2889 -1.9967 0.9621
-0.0380 -9.4558 -1.9988 0.9621
1.6459 -9.3217 -2.0009 0.9620
4.0635 -8.5662 -2.0041 0.9620
6.1974 -7.1943 -2.0072 0.9619
6.8180 -6.6154 -2.0081 0.9619
8.3374 -4.5781 -2.0106 0.9619
8.7158 -3.8168 -2.0113 0.9618
9.0245 -3.0244 -2.0119 0.9618
9.4230 -1.3721 -2.0128 0.9618
9.5196 0.3256 -2.0134 0.9618
9.4533 1.1742 -2.0136 0.9618
9.0940 2.8366 -2.0136 0.9618
6.9692 6.4833 -2.0120 0.9618
6.3486 7.0640 -2.0076 0.9619
4.6173 7.4750 -1.8572 0.9647
3.2118 8.1701 -1.8557 0.9647
1.7061 8.6030 -1.8539 0.9648
0.1489 8.7603 -1.8520 0.9648
-2.1741 8.4731 -1.8491 0.9649
-2.9202 8.2407 -1.8481 0.9649
-4.3346 7.5821 -1.8461 0.9649
-4.9916 7.1613 -1.8452 0.9649
-6.1796 6.1536 -1.8434 0.9650
-7.1693 4.9524 -1.8419 0.9650
-8.5732 3.8877 -1.9898 0.9622
-8.8930 3.1093 -1.9914 0.9622
-9.4113 -0.1996 -1.9898 0.9622
-9.0209 -2.6858 -1.9896 0.9622
-8.7457 -3.4806 -1.9897 0.9622
-8.4009 -4.2479 -1.9899 0.9622
-7.9894 -4.9816 -1.9902 0.9622
-7.5142 -5.6761 -1.9906 0.9622
-6.9792 -6.3257 -1.9911 0.9622
-5.7465 -7.4705 -1.9923 0.9622
-3.5659 -8.7364 -1.9946 0.9622
-1.9573 -9.2398 -1.9965 0.9621
2.2343 -9.2022 -2.0017 0.9620
3.0485 -8.9708 -2.0027 0.9620
3.8392 -8.6675 -2.0038 0.9620
5.3248 -7.8547 -2.0059 0.9619
6.0077 -7.3517 -2.0069 0.9619
7.2260 -6.1718 -2.0087 0.9619
8.2149 -4.7923 -2.0104 0.9619
9.3836 -1.6160 -2.0127 0.9618
8.8955 3.4072 -2.0135 0.9618
8.5550 4.1873 -2.0133 0.9618
8.1458 4.9336 -2.0130 0.9618
7.1356 6.3008 -2.0122 0.9618
6.5428 6.9107 -2.0116 0.9618
4.1330 7.7505 -1.8567 0.9647
3.4232 8.0851 -1.8559 0.9647
2.6865 8.3546 -1.8551 0.9648
1.1569 8.6907 -1.8533 0.9648
0.3763 8.7548 -1.8523 0.9648
-1.9538 8.5280 -1.8493 0.9649
-2.2108 5.1713 -1.1888 0.9773
-4.8048 7.2894 -1.8455 0.9649
-5.4336 6.8281 -1.8445 0.9650
-6.0186 6.3127 -1.8437 0.9650
-7.0391 5.1374 -1.8421 0.9650
-8.4549 4.1018 -1.9864 0.9623
-8.8101 3.3393 -1.9916 0.9622
-9.3734 0.8850 -1.9902 0.9622
-9.2701 -1.6298 -1.9896 0.9623
-8.8329 -3.2524 -1.9896 0.9622
-8.1156 -4.7724 -1.9901 0.9622
-7.6585 -5.4788 -1.9905 0.9622
-6.5655 -6.7568 -1.9915 0.9622
-5.9379 -7.3182 -1.9921 0.9622
-5.2627 -7.8217 -1.9928 0.9622
-4.5452 -8.2635 -1.9935 0.9622
-3.0059 -8.9477 -1.9952 0.9621
-2.1962 -9.1846 -1.9962 0.9621
1.9944 -9.2556 -2.0014 0.9620
2.8142 -9.0455 -2.0024 0.9620
4.3826 -8.4098 -2.0046 0.9620
5.8141 -7.5040 -2.0066 0.9619
7.6050 -5.7031 -2.0093 0.9619
8.0869 -5.0034 -2.0101 0.9619
9.3380 -1.8589 -2.0126 0.9618
9.4685 -1.0181 -2.0130 0.9618
9.5231 -0.1688 -2.0133 0.9618
9.5011 0.6821 -2.0135 0.9618
9.4029 1.5276 -2.0136 0.9618
8.9811 3.1753 -2.0136 0.9618
8.6611 3.9640 -2.0134 0.9618
8.2715 4.7207 -2.0131 0.9618
7.2973 6.1139 -2.0123 0.9618
6.7206 6.7391 -2.0118 0.9618
5.6271 6.7541 -1.8582 0.9647
4.3332 7.6415 -1.8569 0.9647
3.6323 7.9945 -1.8561 0.9647
2.9028 8.2832 -1.8553 0.9648
-1.7321 8.5771 -1.8496 0.9649
-2.4895 8.3838 -1.8486 0.9649
-3.9365 7.7991 -1.8467 0.9649
-5.8535 6.4677 -1.8439 0.9650
-6.9042 5.3190 -1.8423 0.9650
-7.3486 4.6795 -1.8416 0.9650
-8.1435 4.2152 -1.9383 0.9632
-8.7212 3.5671 -1.9917 0.9622
-9.2116 1.9583 -1.9907 0.9622
-9.3477 1.1280 -1.9903 0.9622
-9.4096 0.2889 -1.9899 0.9622
-9.3968 -0.5521 -1.9897 0.9622
-8.9141 -3.0220 -1.9896 0.9622
-8.6094 -3.8060 -1.9898 0.9622
-7.7977 -5.2779 -1.9903 0.9622
-6.7380 -6.5836 -1.9913 0.9622
-4.7576 -8.1418 -1.9933 0.9622
-4.0134 -8.5375 -1.9941 0.9622
0.0710 -9.4562 -1.9989 0.9621
0.9154 -9.4171 -2.0000 0.9621
4.9087 -8.1180 -2.0053 0.9620
6.2803 -7.1228 -2.0073 0.9619
7.9535 -5.2110 -2.0099 0.9619
8.3900 -4.4818 -2.0107 0.9619
8.7596 -3.7162 -2.0113 0.9618
9.0591 -2.9203 -2.0119 0.9618
9.2860 -2.1005 -2.0125 0.9618
9.5154 0.4353 -2.0135 0.9618
9.2872 2.1206 -2.0137 0.9618
7.4540 5.9229 -2.0125 0.9618
6.2607 7.1298 -2.0057 0.9620
3.1172 8.2061 -1.8555 0.9647
2.3711 8.4477 -1.8547 0.9648
1.6067 8.6215 -1.8538 0.9648
0.0479 8.7609 -1.8519 0.9648
-0.7340 8.7255 -1.8509 0.9648
-1.5092 8.6206 -1.8499 0.9649
-5.0735 7.1028 -1.8451 0.9649
-5.6845 6.6183 -1.8442 0.9650
-6.7647 5.4970 -1.8425 0.9650
-7.6748 4.2287 -1.8522 0.9648
-8.9279 3.0065 -1.9913 0.9622
-9.3158 1.3703 -1.9904 0.9622
-9.3424 -1.1467 -1.9896 0.9622
-9.2024 -1.9760 -1.9895 0.9623
-8.9894 -2.7897 -1.9896 0.9622
-8.7051 -3.5812 -1.9897 0.9622
-7.9316 -5.0735 -1.9902 0.9622
-7.4485 -5.7625 -1.9906 0.9622
-6.9061 -6.4060 -1.9911 0.9622
-4.2331 -8.4294 -1.9939 0.9622
-2.6690 -9.0558 -1.9956 0.9621
-1.0171 -9.3953 -1.9976 0.9621
4.2441 -7.3989 -2.0047 0.9656
4.8899 -6.9937 -2.0056 0.9655
6.5765 -5.4550 -2.0081 0.9655
7.4470 -4.2016 -2.0096 0.9655
7.7948 -3.5211 -2.0102 0.9655
8.0802 -2.8120 -2.0108 0.9655
8.4552 -1.3309 -2.0116 0.9654
8.5596 0.1940 -2.0122 0.9654
8.2031 2.4553 -2.0124 0.9654
7.9507 3.1776 -2.0123 0.9654
6.3317 5.7556 -2.0110 0.9655
5.7891 6.2940 -2.0098 0.9655
2.9723 7.3123 -1.8551 0.9681
2.3067 7.5454 -1.8544 0.9681
1.6232 7.7178 -1.8536 0.9681
0.9274 7.8284 -1.8527 0.9681
0.2247 7.8763 -1.8519 0.9681
-1.1784 7.7833 -1.8501 0.9682
-1.8676 7.6433 -1.8492 0.9682
-2.2921 5.1545 -1.3258 0.9771
-4.4161 6.4940 -1.8457 0.9682
-5.4958 5.6003 -1.8441 0.9683
-7.2329 4.2054 -1.9663 0.9662
-7.9699 2.8901 -1.9925 0.9658
-8.1941 2.1665 -1.9920 0.9658
-8.3531 1.4261 -1.9916 0.9658
-8.4456 0.6746 -1.9912 0.9658
-8.4711 -0.0820 -1.9910 0.9658
-8.4293 -0.8378 -1.9908 0.9658
-8.1456 -2.3234 -1.9908 0.9658
-7.9061 -3.0414 -1.9909 0.9658
-6.3454 -5.6194 -1.9920 0.9658
-4.6336 -7.1059 -1.9937 0.9657
-1.8565 -8.2911 -1.9969 0.9657
-1.1094 -8.4275 -1.9977 0.9657
0.4073 -8.4984 -1.9996 0.9656
1.1649 -8.4321 -2.0006 0.9656
1.9139 -8.2985 -2.0015 0.9656
4.0501 -7.5055 -2.0044 0.9656
5.3251 -6.6718 -2.0062 0.9655
6.9109 -5.0285 -2.0087 0.9655
7.7001 -3.7219 -2.0100 0.9655
8.2437 -2.2945 -2.0111 0.9655
8.5236 -0.7923 -2.0119 0.9654
8.5614 -0.0282 -2.0121 0.9654
8.5305 0.7362 -2.0123 0.9654
8.4312 1.4949 -2.0124 0.9654
8.2641 2.2416 -2.0124 0.9654
8.0306 2.9702 -2.0123 0.9654
6.9540 4.9900 -2.0116 0.9654
6.4794 5.5897 -2.0112 0.9654
5.0499 6.2422 -1.8870 0.9675
3.7960 6.9250 -1.8560 0.9681
1.8232 7.6741 -1.8538 0.9681
-0.2749 7.8721 -1.8512 0.9682
-0.9761 7.8123 -1.8504 0.9682
-3.6416 6.9632 -1.8468 0.9682
-5.3493 5.7418 -1.8443 0.9683
-6.2801 4.6953 -1.8429 0.9683
-7.5849 3.7884 -1.9926 0.9658
-7.8929 3.0962 -1.9926 0.9658
-8.1357 2.3786 -1.9921 0.9658
-8.3137 1.6425 -1.9917 0.9658
-8.4706 0.1378 -1.9911 0.9658
-8.4483 -0.6188 -1.9909 0.9658
-8.3589 -1.3705 -1.9908 0.9658
-7.6978 -3.5367 -1.9910 0.9658
-6.4887 -5.4525 -1.9919 0.9658
-5.9775 -6.0114 -1.9924 0.9658
-5.4184 -6.5228 -1.9929 0.9658
-4.8160 -6.9826 -1.9936 0.9657
-4.1749 -7.3872 -1.9942 0.9657
-3.5000 -7.7333 -1.9950 0.9657
-2.7968 -8.0180 -1.9958 0.9657
-2.0708 -8.2391 -1.9966 0.9657
-0.5731 -8.4836 -1.9984 0.9657
1.6976 -8.3442 -2.0013 0.9656
2.4369 -8.1633 -2.0022 0.9656
3.1575 -7.9170 -2.0032 0.9656
4.5192 -7.2361 -2.0051 0.9656
5.1495 -6.8068 -2.0060 0.9655
6.7774 -5.2055 -2.0085 0.9655
7.9222 -3.2269 -2.0104 0.9655
8.1808 -2.5075 -2.0110 0.9655
8.4998 -1.0132 -2.0118 0.9654
8.5575 -0.2504 -2.0121 0.9654
8.5466 0.5146 -2.0123 0.9654
8.4670 1.2756 -2.0124 0.9654
7.8258 3.4732 -2.0122 0.9654
7.4836 4.1574 -2.0120 0.9654
7.0815 4.8082 -2.0117 0.9654
6.6227 5.4201 -2.0113 0.9654
6.1110 5.9882 -2.0108 0.9655
3.3485 7.1499 -1.8555 0.9681
2.6958 7.4173 -1.8548 0.9681
2.0220 7.6251 -1.8540 0.9681
1.3326 7.7718 -1.8532 0.9681
-0.0706 7.8776 -1.8515 0.9681
-0.7731 7.8361 -1.8506 0.9682
-2.8177 7.3406 -1.8479 0.9682
-3.4601 7.0563 -1.8471 0.9682
-7.8105 3.3002 -1.9928 0.9658
-8.2688 1.8578 -1.9918 0.9658
-8.4617 -0.3994 -1.9909 0.9658
-8.2551 -1.8976 -1.9907 0.9658
-7.4587 -4.0178 -1.9911 0.9658
-7.0713 -4.6683 -1.9914 0.9658
-6.6276 -5.2819 -1.9918 0.9658
-4.3647 -7.2756 -1.9940 0.9657
-2.2836 -8.1816 -1.9964 0.9657
-0.0342 -8.5057 -1.9991 0.9657
0.7256 -8.4788 -2.0000 0.9656
2.9505 -7.9951 -2.0029 0.9656
3.6542 -7.7035 -2.0039 0.9656
5.5723 -6.4687 -2.0066 0.9655
6.1301 -5.9479 -2.0074 0.9655
6.6393 -5.3791 -2.0082 0.9655
8.1124 -2.7187 -2.0108 0.9655
8.3247 -1.9842 -2.0113 0.9654
8.4972 1.0554 -2.0124 0.9654
8.3693 1.8098 -2.0124 0.9654
7.9135 3.2690 -2.0123 0.9654
7.5893 3.9620 -2.0121 0.9654
7.2042 4.6230 -2.0118 0.9654
6.7616 5.2467 -2.0114 0.9654
5.7113 6.3549 -2.0081 0.9655
3.5333 7.0613 -1.8557 0.9681
2.2195 7.5710 -1.8543 0.9681
1.5341 7.7356 -1.8534 0.9681
0.8370 7.8381 -1.8526 0.9681
0.1339 7.8779 -1.8518 0.9681
-1.9554 7.6208 -1.8491 0.9682
-2.3605 5.1477 -1.3310 0.9770
-4.4904 6.4423 -1.8456 0.9682
-6.4507 4.4560 -1.8426 0.9683
-7.3559 4.1643 -1.9866 0.9659
-8.0025 2.7979 -1.9924 0.9658
-8.4527 0.5772 -1.9912 0.9658
-8.4190 -0.9349 -1.9908 0.9658
-8.3016 -1.6827 -1.9907 0.9658
-7.8705 -3.1323 -1.9909 0.9658
-7.5602 -3.8228 -1.9911 0.9658
-7.1897 -4.4831 -1.9913 0.9658
-6.7620 -5.1079 -1.9917 0.9658
-6.2804 -5.6924 -1.9921 0.9658
-4.5516 -7.1592 -1.9938 0.9657
-3.2083 -7.8603 -1.9953 0.9657
-2.4948 -8.1186 -1.9961 0.9657
-1.0123 -8.4402 -1.9979 0.9657
1.2621 -8.4187 -2.0007 0.9656
3.4526 -7.7946 -2.0036 0.9656
5.4019 -6.6103 -2.0063 0.9655
6.9687 -4.9487 -2.0088 0.9655
7.7428 -3.6330 -2.0101 0.9655
8.0385 -2.9281 -2.0107 0.9655
8.2698 -2.1994 -2.0112 0.9654
8.4349 -1.4526 -2.0116 0.9654
8.5613 0.0705 -2.0122 0.9654
7.9958 3.0626 -2.0123 0.9654
7.3221 4.4347 -2.0119 0.9654
6.4144 5.6639 -2.0111 0.9655
5.8817 6.2123 -2.0106 0.9655
4.8989 6.2004 -1.8572 0.9681
4.3244 6.6108 -1.8566 0.9681
3.0777 7.2691 -1.8552 0.9681
1.7346 7.6941 -1.8537 0.9681
-1.7572 7.6701 -1.8493 0.9682
-2.4337 7.4790 -1.8484 0.9682
-2.2051 5.1581 -1.3184 0.9772
-3.7214 6.9204 -1.8467 0.9682
-4.8883 6.1428 -1.8450 0.9683
-5.4148 5.6794 -1.8442 0.9683
-7.0108 4.2127 -1.9223 0.9670
-7.6300 3.7016 -1.9931 0.9658
-8.4715 0.0402 -1.9910 0.9658
-8.4406 -0.7162 -1.9909 0.9658
-8.1783 -2.2056 -1.9908 0.9658
-7.6566 -3.6252 -1.9910 0.9658
-5.9080 -6.0801 -1.9925 0.9658
-5.3431 -6.5851 -1.9930 0.9658
-4.7354 -7.0380 -1.9936 0.9657
-4.0896 -7.4352 -1.9943 0.9657
-3.4108 -7.7735 -1.9951 0.9657
-2.7044 -8.0501 -1.9959 0.9657
-1.9758 -8.2629 -1.9967 0.9657
-1.2308 -8.4100 -1.9976 0.9657
-0.4753 -8.4902 -1.9985 0.9657
1.0430 -8.4474 -2.0004 0.9656
3.2487 -7.8805 -2.0033 0.9656
3.9411 -7.5626 -2.0043 0.9656
4.6026 -7.1839 -2.0052 0.9656
5.2279 -6.7474 -2.0061 0.9655
5.8119 -6.2565 -2.0070 0.9655
6.3498 -5.7150 -2.0078 0.9655
7.2703 -4.4981 -2.0093 0.9655
7.9592 -3.1355 -2.0105 0.9655
8.3939 -1.6710 -2.0115 0.9654
8.5600 -0.1517 -2.0121 0.9654
7.4351 4.2434 -2.0120 0.9654
7.0254 4.8893 -2.0116 0.9654
6.0414 6.0581 -2.0108 0.9655
5.4426 6.5326 -1.9983 0.9657
3.8957 6.8700 -1.8561 0.9681
3.2657 7.1876 -1.8554 0.9681
1.9339 7.6475 -1.8539 0.9681
0.5426 7.8625 -1.8523 0.9681
-0.1613 7.8758 -1.8514 0.9681
-2.1017 5.2921 -1.3383 0.9769
-3.5410 7.0156 -1.8469 0.9682
-4.7278 6.2683 -1.8453 0.9683
-6.2121 4.7857 -1.8430 0.9683
-6.6360 4.2257 -1.8490 0.9682
-8.1008 2.4958 -1.9922 0.9658
-8.2894 1.7623 -1.9917 0.9658
-8.4565 -0.4969 -1.9909 0.9658
-8.3779 -1.2498 -1.9908 0.9658
-8.2327 -1.9926 -1.9907 0.9658
-7.7479 -3.4252 -1.9909 0.9658
-7.0172 -4.7496 -1.9915 0.9658
-6.5664 -5.3581 -1.9919 0.9658
-5.5117 -6.4437 -1.9928 0.9658
-3.6110 -7.6815 -1.9949 0.9657
-0.6954 -8.4739 -1.9982 0.9657
0.0639 -8.5061 -1.9992 0.9657
0.8233 -8.4704 -2.0001 0.9656
1.5770 -8.3672 -2.0011 0.9656
4.4140 -7.3000 -2.0049 0.9656
5.0504 -6.8799 -2.0058 0.9655
6.1986 -5.8772 -2.0075 0.9655
6.7011 -5.3025 -2.0083 0.9655
7.1503 -4.6848 -2.0091 0.9655
7.5425 -4.0291 -2.0097 0.9655
8.1435 -2.6251 -2.0109 0.9655
8.3472 -1.8881 -2.0113 0.9654
8.4841 -1.1356 -2.0117 0.9654
8.5529 -0.3738 -2.0120 0.9654
8.5530 0.3912 -2.0123 0.9654
8.4845 1.1533 -2.0124 0.9654
8.3479 1.9061 -2.0124 0.9654
7.8752 3.3600 -2.0123 0.9654
7.5430 4.0491 -2.0120 0.9654
6.7004 5.3241 -2.0114 0.9654
6.1970 5.8997 -2.0109 0.9655
5.6328 6.4147 -2.0064 0.9655
4.6625 6.3787 -1.8569 0.9681
3.4515 7.1012 -1.8556 0.9681
2.8027 7.3781 -1.8549 0.9681
2.1319 7.5957 -1.8541 0.9681
-1.3573 7.7531 -1.8499 0.9682
-2.0430 7.5973 -1.8490 0.9682
-3.3582 7.1061 -1.8472 0.9682
-3.9773 6.7748 -1.8463 0.9682
-4.5641 6.3898 -1.8455 0.9682
-5.1141 5.9542 -1.8447 0.9683
-7.7624 3.4127 -1.9929 0.9658
-8.0339 2.7054 -1.9923 0.9658
-8.2414 1.9770 -1.9919 0.9658
-8.4667 -0.2773 -1.9909 0.9658
-8.4076 -1.0319 -1.9908 0.9658
-7.8340 -3.2229 -1.9909 0.9658
-7.5158 -3.9097 -1.9911 0.9658
-6.2146 -5.7646 -1.9922 0.9658
-5.6766 -6.2979 -1.9927 0.9658
-4.4690 -7.2115 -1.9939 0.9657
-1.6650 -8.3327 -1.9971 0.9657
-0.9149 -8.4518 -1.9980 0.9657
2.5941 -7.2868 -2.0027 0.9685
4.4378 -6.3471 -2.0052 0.9685
4.9887 -5.9280 -2.0060 0.9685
5.9677 -4.9500 -2.0075 0.9685
7.0726 -3.1949 -2.0094 0.9684
7.3314 -2.5514 -2.0099 0.9684
7.7497 -0.5179 -2.0110 0.9684
7.7658 0.1760 -2.0112 0.9684
7.6115 1.5543 -2.0114 0.9684
7.4423 2.2276 -2.0114 0.9684
6.9266 3.5150 -2.0111 0.9684
5.7449 5.2222 -2.0102 0.9684
4.4639 5.8205 -1.8992 0.9701
3.8368 6.0542 -1.8558 0.9708
3.2800 6.3705 -1.8552 0.9708
2.0933 6.8473 -1.8539 0.9708
1.4731 7.0041 -1.8532 0.9709
-3.4684 6.2327 -1.8468 0.9710
-4.0093 5.8958 -1.8460 0.9710
-4.5178 5.5121 -1.8453 0.9710
-6.9760 3.2609 -1.9938 0.9687
-7.2374 2.6244 -1.9933 0.9687
-7.4412 1.9674 -1.9929 0.9687
-7.5857 1.2951 -1.9925 0.9687
-7.6699 0.6126 -1.9922 0.9687
-7.6931 -0.0745 -1.9920 0.9687
-7.6551 -0.7609 -1.9918 0.9687
-6.5757 -3.9956 -1.9922 0.9687
-6.1937 -4.5674 -1.9925 0.9687
-5.7623 -5.1031 -1.9929 0.9687
-5.2850 -5.5983 -1.9934 0.9687
-3.6158 -6.8045 -1.9951 0.9687
-2.3499 -7.3442 -1.9965 0.9686
-1.6855 -7.5276 -1.9973 0.9686
1.7373 -7.5326 -2.0015 0.9686
2.4038 -7.3507 -2.0024 0.9685
3.0517 -7.1099 -2.0033 0.9685
3.6758 -6.8120 -2.0041 0.9685
4.2710 -6.4593 -2.0050 0.9685
5.3559 -5.6013 -2.0066 0.9685
5.8367 -5.1027 -2.0073 0.9685
6.2710 -4.5629 -2.0080 0.9685
6.6555 -3.9861 -2.0086 0.9685
6.9868 -3.3771 -2.0092 0.9684
7.6371 -1.4061 -2.0106 0.9684
7.7675 -0.0256 -2.0112 0.9684
7.7394 0.6680 -2.0113 0.9684
6.6893 3.9467 -2.0110 0.9684
6.3093 4.5274 -2.0107 0.9684
4.8645 6.0131 -2.0026 0.9685
3.4445 6.2839 -1.8554 0.9708
2.8688 6.5640 -1.8548 0.9708
0.3895 7.1417 -1.8519 0.9709
-0.2495 7.1449 -1.8511 0.9709
-0.8860 7.0910 -1.8503 0.9709
-1.5148 6.9805 -1.8494 0.9709
-3.8554 5.9985 -1.8463 0.9710
-6.8896 3.4411 -1.9940 0.9687
-7.5499 1.4916 -1.9926 0.9687
-7.6926 0.1252 -1.9920 0.9687
-7.6724 -0.5620 -1.9918 0.9687
-7.4498 -1.9173 -1.9917 0.9687
-7.2491 -2.5748 -1.9918 0.9687
-6.9908 -3.2118 -1.9919 0.9687
-6.6769 -3.8235 -1.9922 0.9687
-6.3098 -4.4049 -1.9924 0.9687
-5.4281 -5.4589 -1.9932 0.9687
-4.3732 -6.3405 -1.9943 0.9687
-2.5394 -7.2800 -1.9963 0.9686
-1.8801 -7.4804 -1.9971 0.9686
-0.5203 -7.7018 -1.9987 0.9686
0.8583 -7.6782 -2.0004 0.9686
2.2120 -7.4097 -2.0022 0.9686
4.6733 -6.1774 -2.0056 0.9685
5.2081 -5.7378 -2.0064 0.9685
5.7017 -5.2519 -2.0071 0.9685
7.4226 -2.2751 -2.0101 0.9684
7.5976 -1.6037 -2.0105 0.9684
7.7640 -0.2272 -2.0111 0.9684
7.7540 0.4669 -2.0113 0.9684
7.5479 1.8384 -2.0114 0.9684
7.3535 2.5048 -2.0114 0.9684
6.4250 4.3624 -2.0108 0.9684
6.0088 4.9176 -2.0104 0.9684
2.4463 6.7309 -1.8543 0.9708
1.8350 6.9198 -1.8536 0.9709
1.2094 7.0532 -1.8528 0.9709
0.5747 7.1300 -1.8521 0.9709
-4.7204 5.3381 -1.8450 0.9710
-5.1761 4.8935 -1.8443 0.9710
-5.5904 4.4103 -1.8437 0.9710
-6.7985 3.6190 -1.9941 0.9687
-7.0925 2.9969 -1.9936 0.9687
-7.6870 0.3248 -1.9921 0.9687
-6.4217 -4.2395 -1.9923 0.9687
-5.5676 -5.3159 -1.9931 0.9687
-5.0720 -5.7931 -1.9936 0.9687
-3.9633 -6.6065 -1.9947 0.9687
-2.7272 -7.2109 -1.9961 0.9686
-2.0733 -7.4283 -1.9968 0.9686
-1.4025 -7.5867 -1.9976 0.9686
-0.0310 -7.7216 -1.9993 0.9686
0.6587 -7.6969 -2.0001 0.9686
2.0187 -7.4636 -2.0019 0.9686
2.6781 -7.2568 -2.0028 0.9685
3.3166 -6.9918 -2.0036 0.9685
3.9292 -6.6706 -2.0045 0.9685
4.5109 -6.2958 -2.0053 0.9685
5.5629 -5.3975 -2.0069 0.9685
6.0247 -4.8811 -2.0076 0.9685
6.4385 -4.3253 -2.0083 0.9685
7.5530 -1.8002 -2.0104 0.9684
7.4161 2.3132 -2.0114 0.9684
6.8855 3.5946 -2.0111 0.9684
6.5363 4.1944 -2.0108 0.9684
6.1347 4.7603 -2.0105 0.9684
5.6841 5.2879 -2.0101 0.9684
5.1877 5.7723 -2.0094 0.9684
4.2972 5.7389 -1.8563 0.9708
3.7666 6.0978 -1.8557 0.9708
2.6204 6.6659 -1.8545 0.9708
0.7597 7.1136 -1.8523 0.9709
-2.3844 6.7286 -1.8483 0.9709
-2.3507 5.1263 -1.4602 0.9770
-3.5398 6.1920 -1.8467 0.9710
-4.0768 5.8488 -1.8459 0.9710
-4.5808 5.4594 -1.8452 0.9710
-5.0480 5.0267 -1.8445 0.9710
-5.4746 4.5544 -1.8438 0.9710
-6.0951 4.2104 -1.9181 0.9699
-6.7004 3.7932 -1.9936 0.9687
-7.0129 3.1801 -1.9937 0.9687
-7.2670 2.5408 -1.9932 0.9687
-7.4632 1.8815 -1.9928 0.9687
-7.6916 -0.1632 -1.9919 0.9687
-7.3728 -2.1951 -1.9918 0.9687
-7.1477 -2.8447 -1.9918 0.9687
-6.8658 -3.4717 -1.9920 0.9687
-6.5293 -4.0712 -1.9923 0.9687
-5.2203 -5.6591 -1.9934 0.9687
-4.1330 -6.5008 -1.9945 0.9687
-3.5373 -6.8460 -1.9952 0.9687
-2.9131 -7.1369 -1.9959 0.9687
-2.2652 -7.3712 -1.9966 0.9686
-0.9190 -7.6626 -1.9982 0.9686
-0.2314 -7.7173 -1.9990 0.9686
0.4587 -7.7104 -1.9999 0.9686
2.4885 -7.3229 -2.0025 0.9685
3.1337 -7.0746 -2.0034 0.9685
4.3454 -6.4100 -2.0051 0.9685
5.8954 -5.0353 -2.0074 0.9685
6.3235 -4.4905 -2.0081 0.9685
6.7012 -3.9093 -2.0087 0.9685
7.0255 -3.2964 -2.0093 0.9684
7.2936 -2.6568 -2.0098 0.9684
7.7674 0.0639 -2.0112 0.9684
7.4737 2.1200 -2.0114 0.9684
6.9767 3.4148 -2.0112 0.9684
6.6432 4.0235 -2.0109 0.9684
2.1920 6.8168 -1.8540 0.9708
1.5741 6.9826 -1.8533 0.9709
-0.3319 7.1411 -1.8510 0.9709
-1.5951 6.9622 -1.8493 0.9709
-3.3784 6.2825 -1.8469 0.9710
-4.4381 5.5771 -1.8454 0.9710
-5.7839 4.2213 -1.8540 0.9708
-7.1991 2.7287 -1.9934 0.9687
-7.5664 1.4044 -1.9925 0.9687
-7.6935 0.0365 -1.9920 0.9687
-7.4272 -2.0030 -1.9917 0.9687
-4.8519 -5.9797 -1.9938 0.9687
-2.4554 -7.3091 -1.9964 0.9686
-0.4315 -7.7077 -1.9988 0.9686
0.2584 -7.7188 -1.9996 0.9686
0.9468 -7.6682 -2.0005 0.9686
1.6283 -7.5564 -2.0014 0.9686
2.9486 -7.1527 -2.0031 0.9685
3.5769 -6.8638 -2.0040 0.9685
4.7444 -6.1234 -2.0057 0.9685
5.2742 -5.6777 -2.0065 0.9685
5.7621 -5.1861 -2.0072 0.9685
6.2042 -4.6526 -2.0079 0.9685
6.5969 -4.0815 -2.0085 0.9685
7.2217 -2.8450 -2.0097 0.9684
7.6158 -1.5161 -2.0105 0.9684
7.7482 0.5562 -2.0113 0.9684
7.6680 1.2458 -2.0114 0.9684
7.5262 1.9253 -2.0114 0.9684
7.0632 3.2327 -2.0112 0.9684
6.7457 3.8499 -2.0110 0.9684
6.3741 4.4361 -2.0107 0.9684
5.4815 5.4966 -2.0099 0.9684
4.9555 5.9479 -2.0045 0.9685
4.0786 5.8952 -1.8561 0.9708
3.5350 6.2338 -1.8555 0.9708
1.7550 6.9402 -1.8535 0.9709
1.1280 7.0663 -1.8528 0.9709
-0.1464 7.1482 -1.8512 0.9709
-1.4140 7.0021 -1.8496 0.9709
-2.0887 5.2593 -1.4652 0.9769
-3.2146 6.3689 -1.8472 0.9710
-5.2320 4.8333 -1.8442 0.9710
-5.6406 4.3454 -1.8436 0.9710
-6.8396 3.5403 -1.9941 0.9687
-7.5278 1.6004 -1.9926 0.9687
-7.6085 -1.1350 -1.9918 0.9687
-7.4767 -1.8096 -1.9917 0.9687
-7.2854 -2.4699 -1.9918 0.9687
-6.7312 -3.7267 -1.9921 0.9687
-6.3726 -4.3133 -1.9924 0.9687
-5.5061 -5.3799 -1.9932 0.9687
-4.4640 -6.2765 -1.9942 0.9687
-3.8870 -6.6520 -1.9948 0.9687
-3.2788 -6.9747 -1.9955 0.9687
-1.9877 -7.4521 -1.9969 0.9686
-0.6313 -7.6930 -1.9985 0.9686
2.7617 -7.2259 -2.0029 0.9685
5.1245 -5.8120 -2.0062 0.9685
5.6250 -5.3333 -2.0070 0.9685
6.4882 -4.2510 -2.0084 0.9685
6.8439 -3.6559 -2.0090 0.9684
7.3887 -2.3818 -2.0100 0.9684
7.5734 -1.7131 -2.0104 0.9684
7.6975 -1.0304 -2.0108 0.9684
7.7598 -0.3391 -2.0111 0.9684
7.6976 1.0463 -2.0114 0.9684
7.5736 1.7294 -2.0114 0.9684
6.8435 3.6737 -2.0111 0.9684
6.4874 4.2693 -2.0108 0.9684
6.0793 4.8306 -2.0105 0.9684
5.1169 5.8273 -2.0079 0.9685
3.1319 6.4439 -1.8551 0.9708
2.5433 6.6953 -1.8544 0.9708
1.9347 6.8931 -1.8537 0.9709
0.6776 7.1215 -1.8522 0.9709
0.0391 7.1505 -1.8514 0.9709
-1.2320 7.0374 -1.8498 0.9709
-2.4616 6.7003 -1.8482 0.9709
-3.0486 6.4510 -1.8474 0.9709
-3.6108 6.1504 -1.8466 0.9710
-4.6432 5.4059 -1.8451 0.9710
-5.1053 4.9680 -1.8444 0.9710
-5.5265 4.4908 -1.8438 0.9710
-6.7459 3.7169 -1.9942 0.9687
-7.0489 3.0990 -1.9937 0.9687
-7.6132 1.1198 -1.9924 0.9687
-7.6891 -0.2518 -1.9919 0.9687
-7.5211 -1.6150 -1.9917 0.9687
-7.3470 -2.2800 -1.9918 0.9687
-7.1145 -2.9269 -1.9919 0.9687
-6.4821 -4.1463 -1.9923 0.9687
-5.1548 -5.7190 -1.9935 0.9687
-4.0580 -6.5483 -1.9946 0.9687
-2.8308 -7.1703 -1.9960 0.9686
-2.1801 -7.3972 -1.9967 0.9686
2.3725 -6.6642 -2.0026 0.9710
2.9591 -6.4283 -2.0034 0.9710
3.5225 -6.1409 -2.0041 0.9710
4.0582 -5.8042 -2.0049 0.9710
5.4567 -4.5262 -2.0070 0.9710
5.8408 -4.0222 -2.0076 0.9709
6.4665 -2.9211 -2.0087 0.9709
6.7030 -2.3327 -2.0092 0.9709
7.0135 -1.1039 -2.0099 0.9709
7.0850 -0.4735 -2.0102 0.9709
7.0997 0.1609 -2.0104 0.9709
7.0574 0.7941 -2.0105 0.9709
6.5946 2.6356 -2.0105 0.9709
5.6586 4.2873 -2.0098 0.9709
4.3040 5.6120 -2.0021 0.9710
3.5081 5.5356 -1.8553 0.9731
1.9142 6.2613 -1.8535 0.9731
0.1865 6.5373 -1.8514 0.9732
-0.3977 6.5253 -1.8507 0.9732
-0.9782 6.4612 -1.8500 0.9732
-2.1099 6.1793 -1.8485 0.9732
-4.1328 5.0423 -1.8456 0.9733
-4.9623 4.2259 -1.8452 0.9733
-5.7379 4.0622 -1.9902 0.9712
-6.0922 3.5422 -1.9950 0.9711
-6.6217 2.4012 -1.9940 0.9711
-6.8082 1.8001 -1.9936 0.9711
-7.0390 -0.0681 -1.9928 0.9712
-6.7687 -1.9306 -1.9926 0.9712
-6.3182 -3.1038 -1.9928 0.9712
-6.0165 -3.6559 -1.9930 0.9712
-4.8353 -5.1221 -1.9941 0.9711
-3.8494 -5.9032 -1.9951 0.9711
-3.3080 -6.2251 -1.9956 0.9711
-0.9213 -6.9987 -1.9984 0.9711
1.5889 -6.8894 -2.0015 0.9710
2.1985 -6.7227 -2.0023 0.9710
2.7909 -6.5022 -2.0031 0.9710
3.3616 -6.2296 -2.0039 0.9710
3.9057 -5.9069 -2.0047 0.9710
4.4191 -5.5367 -2.0054 0.9710
6.3880 -3.0877 -2.0086 0.9709
6.6397 -2.5057 -2.0091 0.9709
6.8383 -1.9033 -2.0095 0.9709
7.0756 0.6107 -2.0105 0.9709
6.9931 1.2399 -2.0106 0.9709
5.3748 4.6368 -2.0095 0.9709
3.6509 5.4431 -1.8554 0.9731
3.1495 5.7456 -1.8549 0.9731
-0.8103 6.4852 -1.8502 0.9732
-1.3854 6.3844 -1.8494 0.9732
-1.9490 6.2327 -1.8487 0.9732
-4.0009 5.1484 -1.8458 0.9733
-4.8493 4.3519 -1.8446 0.9733
-5.6131 4.1967 -1.9841 0.9713
-5.9987 3.6994 -1.9951 0.9711
-6.5576 2.5724 -1.9941 0.9711
-6.7596 1.9763 -1.9937 0.9711
-7.0010 0.7425 -1.9931 0.9712
-7.0201 -0.5142 -1.9927 0.9712
-6.8164 -1.7543 -1.9926 0.9712
-6.6328 -2.3559 -1.9926 0.9712
-6.3964 -2.9388 -1.9928 0.9712
-6.1092 -3.4984 -1.9929 0.9712
-5.7732 -4.0303 -1.9932 0.9712
-4.9663 -4.9945 -1.9939 0.9711
-4.5017 -5.4192 -1.9944 0.9711
-3.4681 -6.1366 -1.9955 0.9711
-1.7199 -6.8430 -1.9974 0.9711
-0.4759 -7.0450 -1.9989 0.9711
0.7851 -7.0228 -2.0005 0.9711
4.2735 -5.6489 -2.0052 0.9710
4.7624 -5.2467 -2.0059 0.9710
5.6232 -4.3191 -2.0073 0.9710
6.5720 -2.6770 -2.0089 0.9709
6.7862 -2.0800 -2.0094 0.9709
7.0504 -0.8404 -2.0100 0.9709
7.0889 0.4268 -2.0104 0.9709
6.9004 1.6807 -2.0106 0.9709
6.7227 2.2900 -2.0105 0.9709
6.4910 2.8808 -2.0104 0.9709
5.0693 4.9675 -2.0092 0.9709
4.6033 5.3974 -2.0082 0.9709
3.8698 5.4577 -1.8940 0.9726
2.2369 6.1547 -1.8539 0.9731
0.5256 6.5203 -1.8518 0.9732
-0.6418 6.5048 -1.8504 0.9732
-2.0604 5.3676 -1.6276 0.9764
-2.8732 5.8594 -1.8474 0.9732
-3.3835 5.5773 -1.8467 0.9732
-3.8664 5.2511 -1.8460 0.9733
-4.3182 4.8832 -1.8454 0.9733
-5.8960 3.8507 -1.9936 0.9711
-6.2199 3.3110 -1.9948 0.9711
-6.7064 2.1512 -1.9938 0.9711
-6.9797 0.9240 -1.9931 0.9712
-7.0334 0.2972 -1.9929 0.9712
-7.0312 -0.3319 -1.9927 0.9712
-6.9732 -0.9582 -1.9926 0.9712
-6.8597 -1.5768 -1.9926 0.9712
-5.5068 -4.3887 -1.9934 0.9712
-4.6405 -5.3001 -1.9943 0.9711
-3.6259 -6.0440 -1.9953 0.9711
-2.4949 -6.5966 -1.9965 0.9711
-1.2829 -6.9400 -1.9980 0.9711
1.2290 -6.9609 -2.0011 0.9710
2.4492 -6.6367 -2.0027 0.9710
3.0331 -6.3941 -2.0035 0.9710
3.5932 -6.1002 -2.0042 0.9710
4.1250 -5.7573 -2.0050 0.9710
5.0867 -4.9355 -2.0064 0.9710
6.2183 -3.4144 -2.0083 0.9709
6.7296 -2.2553 -2.0092 0.9709
6.9054 -1.6459 -2.0096 0.9709
7.0259 -1.0230 -2.0100 0.9709
7.0901 -0.3918 -2.0102 0.9709
7.0478 0.8754 -2.0105 0.9709
6.9417 1.5011 -2.0106 0.9709
6.7799 2.1148 -2.0105 0.9709
6.2950 3.2863 -2.0103 0.9709
5.9757 3.8347 -2.0100 0.9709
4.7435 5.2780 -2.0089 0.9709
4.2362 5.6575 -2.0008 0.9710
3.4439 5.5754 -1.8552 0.9731
2.9316 5.8588 -1.8546 0.9731
0.1112 6.5387 -1.8513 0.9732
-0.4728 6.5200 -1.8506 0.9732
-1.6234 6.3269 -1.8491 0.9732
-2.1809 6.1543 -1.8484 0.9732
-3.7292 5.3502 -1.8462 0.9733
-4.6179 4.5985 -1.8449 0.9733
-5.0687 4.2167 -1.8665 0.9730
-5.7873 3.9978 -1.9912 0.9712
-6.4162 2.9095 -1.9944 0.9711
-6.8284 1.7215 -1.9936 0.9711
-6.9536 1.1048 -1.9932 0.9712
-7.0236 0.4796 -1.9930 0.9712
-7.0376 -0.1493 -1.9928 0.9712
-6.9958 -0.7769 -1.9926 0.9712
-6.7460 -2.0085 -1.9926 0.9712
-6.5400 -2.6028 -1.9927 0.9712
-6.2821 -3.1765 -1.9928 0.9712
-5.2181 -4.7296 -1.9937 0.9711
-4.2959 -5.5846 -1.9946 0.9711
-3.7812 -5.9474 -1.9951 0.9711
-2.0722 -6.7431 -1.9970 0.9711
-1.4625 -6.9036 -1.9977 0.9711
-0.8406 -7.0092 -1.9985 0.9711
-0.2117 -7.0590 -1.9992 0.9711
0.4195 -7.0525 -2.0000 0.9711
2.2759 -6.6973 -2.0024 0.9710
2.8658 -6.4700 -2.0032 0.9710
3.4333 -6.1907 -2.0040 0.9710
4.9564 -5.0653 -2.0062 0.9710
5.3906 -4.6042 -2.0069 0.9710
5.7819 -4.1059 -2.0075 0.9709
6.1271 -3.5744 -2.0081 0.9709
6.4234 -3.0139 -2.0086 0.9709
6.6684 -2.4290 -2.0091 0.9709
6.9967 -1.2049 -2.0099 0.9709
7.0773 -0.5756 -2.0101 0.9709
7.1012 0.0585 -2.0104 0.9709
6.8326 1.9381 -2.0106 0.9709
6.0735 3.6784 -2.0101 0.9709
5.7200 4.2053 -2.0098 0.9709
4.8792 5.1535 -2.0091 0.9709
3.0829 5.7813 -1.8548 0.9731
2.5537 6.0315 -1.8542 0.9731
0.8634 6.4857 -1.8523 0.9732
-0.8849 6.4751 -1.8501 0.9732
-2.1938 5.1316 -1.5799 0.9771
-3.0902 5.7467 -1.8471 0.9732
-4.4975 4.7173 -1.8451 0.9733
-5.6751 4.1419 -1.9890 0.9712
-6.0407 3.6298 -1.9951 0.9711
-6.5866 2.4965 -1.9941 0.9711
-6.9229 1.2850 -1.9933 0.9712
-7.0090 0.6617 -1.9930 0.9712
-7.0393 0.0334 -1.9928 0.9712
-7.0137 -0.5951 -1.9927 0.9712
-6.6053 -2.4322 -1.9926 0.9712
-5.7265 -4.0967 -1.9933 0.9712
-3.9340 -5.8468 -1.9950 0.9711
-3.3973 -6.1764 -1.9955 0.9711
-2.2462 -6.6864 -1.9968 0.9711
-1.6409 -6.8626 -1.9975 0.9711
-1.0221 -6.9843 -1.9983 0.9711
-0.3947 -7.0503 -1.9990 0.9711
0.2363 -7.0602 -1.9998 0.9711
1.4892 -6.9111 -2.0014 0.9710
3.2711 -6.2770 -2.0038 0.9710
3.8199 -5.9622 -2.0046 0.9710
4.3385 -5.5995 -2.0053 0.9710
4.8228 -5.1917 -2.0060 0.9710
6.0318 -3.7319 -2.0079 0.9709
6.9627 -1.3861 -2.0098 0.9709
7.0597 -0.7591 -2.0101 0.9709
7.1001 -0.1258 -2.0103 0.9709
6.6958 2.3673 -2.0105 0.9709
6.4573 2.9554 -2.0104 0.9709
6.1671 3.5197 -2.0102 0.9709
5.8275 4.0556 -2.0099 0.9709
4.5377 5.4464 -2.0068 0.9710
3.2322 5.6999 -1.8550 0.9731
2.7096 5.9638 -1.8544 0.9731
2.1657 6.1798 -1.8538 0.9731
0.4504 6.5256 -1.8518 0.9732
-0.7167 6.4966 -1.8503 0.9732
-2.0558 5.1764 -1.5767 0.9771
-2.9404 5.8256 -1.8473 0.9732
-3.9265 5.2059 -1.8459 0.9733
-4.3740 4.8329 -1.8453 0.9733
-5.4551 4.2026 -1.9494 0.9718
-5.9431 3.7845 -1.9946 0.9711
-6.5200 2.6668 -1.9942 0.9711
-6.8410 -1.6558 -1.9926 0.9712
-5.8306 -3.9465 -1.9932 0.9712
-4.5792 -5.3535 -1.9943 0.9711
-4.0840 -5.7423 -1.9948 0.9711
-2.4188 -6.6252 -1.9966 0.9711
-1.8183 -6.8170 -1.9973 0.9711
0.0530 -7.0631 -1.9996 0.9711
1.3092 -6.9466 -2.0012 0.9710
2.5257 -6.6084 -2.0028 0.9710
3.1068 -6.3591 -2.0036 0.9710
4.1913 -5.7096 -2.0051 0.9710
4.6859 -5.3146 -2.0058 0.9710
5.1434 -4.8767 -2.0065 0.9710
5.9324 -3.8868 -2.0078 0.9709
6.5325 -2.7714 -2.0088 0.9709
6.7553 -2.1776 -2.0093 0.9709
6.9241 -1.5662 -2.0097 0.9709
7.0373 -0.9420 -2.0100 0.9709
7.0942 -0.3100 -2.0102 0.9709
7.0942 0.3245 -2.0104 0.9709
6.7551 2.1928 -2.0105 0.9709
5.9310 3.9032 -2.0100 0.9709
5.5581 4.4164 -2.0097 0.9709
5.1406 4.8940 -2.0093 0.9709
4.6822 5.3322 -2.0089 0.9709
0.0358 6.5393 -1.8512 0.9732
-2.7885 5.9006 -1.8476 0.9732
-3.7905 5.3066 -1.8461 0.9733
-6.8476 1.6426 -1.9935 0.9711
-6.9658 1.0246 -1.9932 0.9712
-7.0285 0.3986 -1.9929 0.9712
-6.8817 -1.4777 -1.9926 0.9712
-5.5693 -4.3087 -1.9934 0.9712
-5.1634 -4.7895 -1.9938 0.9711
-4.2314 -5.6340 -1.9947 0.9711
-3.1639 -6.3002 -1.9958 0.9711
-1.9944 -6.7669 -1.9971 0.9711
-0.7598 -7.0188 -1.9986 0.9711
2.7233 -5.9162 -2.0032 0.9731
3.7346 -5.3414 -2.0046 0.9731
5.0212 -4.1650 -2.0066 0.9731
5.6849 -3.2074 -2.0077 0.9731
5.9500 -2.6877 -2.0081 0.9730
6.1675 -2.1463 -2.0086 0.9730
6.4933 0.7306 -2.0098 0.9730
6.4023 1.3074 -2.0098 0.9730
6.2600 1.8737 -2.0098 0.9730
5.8264 2.9567 -2.0096 0.9730
5.5386 3.4646 -2.0094 0.9730
5.2065 3.9447 -2.0091 0.9730
4.4204 4.8059 -2.0084 0.9730
3.2683 5.1571 -1.8779 0.9748
2.2695 5.5833 -1.8537 0.9751
1.2397 5.8941 -1.8526 0.9751
0.1717 6.0164 -1.8513 0.9751
-0.3660 6.0055 -1.8506 0.9751
-0.9003 5.9467 -1.8499 0.9751
-1.9420 5.6876 -1.8485 0.9752
-2.9203 5.2478 -1.8472 0.9752
-3.3760 4.9644 -1.8466 0.9752
-3.8044 4.6416 -1.8459 0.9752
-4.2022 4.2821 -1.8453 0.9752
-5.2964 3.7496 -1.9960 0.9732
-5.6087 3.2610 -1.9955 0.9732
-5.8760 2.7467 -1.9950 0.9732
-6.2682 1.6573 -1.9942 0.9732
-6.3902 1.0910 -1.9939 0.9732
-6.3658 -1.2141 -1.9933 0.9732
-6.2320 -1.7776 -1.9933 0.9732
-6.0487 -2.3269 -1.9934 0.9732
-5.2175 -3.8475 -1.9940 0.9732
-4.8540 -4.2986 -1.9943 0.9732
-4.4517 -4.7157 -1.9947 0.9732
-4.0139 -5.0954 -1.9951 0.9732
-3.5438 -5.4347 -1.9956 0.9732
-3.0453 -5.7309 -1.9961 0.9732
-1.9789 -6.1848 -1.9973 0.9732
0.3113 -6.4951 -2.0001 0.9732
0.8902 -6.4438 -2.0008 0.9731
3.0937 -5.7331 -2.0037 0.9731
5.5994 -3.3536 -2.0075 0.9731
5.8778 -2.8411 -2.0080 0.9730
6.4242 -1.1828 -2.0092 0.9730
6.5337 -0.0215 -2.0096 0.9730
6.5100 0.5619 -2.0098 0.9730
6.4340 1.1408 -2.0098 0.9730
6.3065 1.7106 -2.0098 0.9730
6.1285 2.2667 -2.0098 0.9730
5.9013 2.8046 -2.0097 0.9730
5.3073 3.8084 -2.0092 0.9730
3.5396 5.2773 -1.9545 0.9738
2.8981 5.2870 -1.8544 0.9751
1.3923 5.8605 -1.8527 0.9751
-0.2100 6.0136 -1.8508 0.9751
-1.7939 5.7367 -1.8487 0.9752
-2.1103 5.0980 -1.6971 0.9772
-2.7835 5.3224 -1.8474 0.9752
-3.2463 5.0509 -1.8467 0.9752
-3.6830 4.7393 -1.8461 0.9752
-6.0373 2.3683 -1.9947 0.9732
-6.2234 1.8195 -1.9943 0.9732
-6.4805 0.1055 -1.9935 0.9732
-6.3952 -1.0485 -1.9933 0.9732
-5.8893 -2.7057 -1.9934 0.9732
-5.6247 -3.2210 -1.9936 0.9732
-5.3154 -3.7107 -1.9939 0.9732
-4.1445 -4.9892 -1.9950 0.9732
-3.1928 -5.6495 -1.9960 0.9732
-1.5832 -6.2992 -1.9978 0.9732
-1.0149 -6.4176 -1.9984 0.9732
0.7226 -6.4640 -2.0006 0.9731
1.2972 -6.3761 -2.0013 0.9731
1.8619 -6.2371 -2.0021 0.9731
2.4122 -6.0482 -2.0028 0.9731
2.9435 -5.8108 -2.0035 0.9731
3.4517 -5.5268 -2.0042 0.9731
3.9327 -5.1984 -2.0049 0.9731
4.3825 -4.8282 -2.0056 0.9731
5.5101 -3.4975 -2.0074 0.9731
5.8017 -2.9924 -2.0079 0.9731
6.2441 -1.9139 -2.0087 0.9730
6.3911 -1.3490 -2.0091 0.9730
6.4869 -0.7732 -2.0094 0.9730
6.5308 -0.1911 -2.0096 0.9730
6.5222 0.3927 -2.0097 0.9730
6.4614 0.9734 -2.0098 0.9730
6.1853 2.1069 -2.0098 0.9730
5.9722 2.6505 -2.0097 0.9730
5.7112 3.1728 -2.0095 0.9730
5.4046 3.6695 -2.0093 0.9730
5.0546 4.1367 -2.0090 0.9730
4.2368 4.9677 -2.0082 0.9730
3.7632 5.3075 -2.0012 0.9731
2.5566 5.4589 -1.8541 0.9751
2.0584 5.6637 -1.8535 0.9751
1.5441 5.8229 -1.8529 0.9751
1.0178 5.9355 -1.8523 0.9751
-0.0539 6.0177 -1.8510 0.9751
-0.5907 5.9867 -1.8503 0.9751
-1.1223 5.9079 -1.8496 0.9751
-1.6446 5.7819 -1.8489 0.9752
-2.0562 5.3566 -1.7648 0.9763
-3.1145 5.1339 -1.8469 0.9752
-5.4327 3.5482 -1.9958 0.9732
-5.7263 3.0483 -1.9953 0.9732
-5.9742 2.5243 -1.9948 0.9732
-6.3255 1.4212 -1.9941 0.9732
-6.4757 0.2736 -1.9936 0.9732
-6.4738 -0.3056 -1.9934 0.9732
-6.4203 -0.8822 -1.9933 0.9732
-5.9574 -2.5520 -1.9934 0.9732
-5.7063 -3.0738 -1.9936 0.9732
-5.0700 -4.0406 -1.9941 0.9732
-4.6899 -4.4779 -1.9944 0.9732
-3.3381 -5.5643 -1.9958 0.9732
-2.8288 -5.8417 -1.9963 0.9732
-2.2967 -6.0727 -1.9969 0.9732
-0.6062 -6.4706 -1.9989 0.9732
1.1312 -6.4069 -2.0011 0.9731
2.2542 -6.1081 -2.0026 0.9731
4.2553 -4.9398 -2.0054 0.9731
4.6808 -4.5417 -2.0060 0.9731
5.0691 -4.1069 -2.0066 0.9731
5.4170 -3.6391 -2.0072 0.9731
5.7217 -3.1418 -2.0077 0.9731
5.9808 -2.6191 -2.0082 0.9730
6.1920 -2.0751 -2.0086 0.9730
6.3536 -1.5144 -2.0090 0.9730
6.5234 -0.3605 -2.0095 0.9730
6.5301 0.2233 -2.0097 0.9730
6.4845 0.8054 -2.0098 0.9730
6.2380 1.9457 -2.0098 0.9730
6.0391 2.4947 -2.0097 0.9730
5.4982 3.5282 -2.0094 0.9730
4.7816 4.4483 -2.0087 0.9730
3.1690 5.1303 -1.8547 0.9751
2.6976 5.3912 -1.8542 0.9751
2.2049 5.6088 -1.8537 0.9751
1.1716 5.9077 -1.8525 0.9751
0.6393 5.9867 -1.8518 0.9751
-0.4352 6.0006 -1.8505 0.9751
-0.9687 5.9356 -1.8498 0.9751
-1.4942 5.8233 -1.8491 0.9752
-2.0073 5.6646 -1.8485 0.9752
-2.3392 5.1013 -1.7262 0.9768
-2.9805 5.2136 -1.8471 0.9752
-3.4328 4.9250 -1.8465 0.9752
-5.9071 2.6787 -1.9950 0.9732
-6.4022 1.0172 -1.9939 0.9732
-6.4797 -0.1375 -1.9935 0.9732
-6.4411 -0.7153 -1.9933 0.9732
-6.3514 -1.2874 -1.9933 0.9732
-6.0215 -2.3965 -1.9934 0.9732
-5.7840 -2.9246 -1.9935 0.9732
-4.8042 -4.3544 -1.9943 0.9732
-4.3972 -4.7668 -1.9947 0.9732
-3.9550 -5.1415 -1.9952 0.9732
-3.4811 -5.4754 -1.9956 0.9732
-2.4533 -6.0105 -1.9968 0.9732
-1.9075 -6.2074 -1.9974 0.9732
0.9645 -6.4334 -2.0009 0.9731
2.0947 -6.1639 -2.0024 0.9731
2.6375 -5.9545 -2.0031 0.9731
3.6569 -5.3944 -2.0045 0.9731
4.5610 -4.6612 -2.0059 0.9731
4.9604 -4.2368 -2.0065 0.9731
5.6379 -3.2890 -2.0076 0.9731
6.1357 -2.2350 -2.0085 0.9730
6.4376 -1.1087 -2.0092 0.9730
6.5117 -0.5296 -2.0095 0.9730
6.5336 0.0538 -2.0097 0.9730
6.5031 0.6369 -2.0098 0.9730
6.4205 1.2149 -2.0098 0.9730
5.8685 2.8724 -2.0096 0.9730
1.8445 5.7361 -1.8533 0.9751
0.2585 6.0136 -1.8514 0.9751
-0.2793 6.0105 -1.8507 0.9751
-1.3427 5.8607 -1.8493 0.9752
-3.3042 5.0129 -1.8467 0.9752
-3.7372 4.6963 -1.8460 0.9752
-4.1402 4.3425 -1.8454 0.9752
-4.7886 4.1987 -1.9589 0.9737
-6.0641 2.2985 -1.9947 0.9732
-6.3739 1.1831 -1.9940 0.9732
-6.4812 0.0307 -1.9935 0.9732
-6.3827 -1.1222 -1.9933 0.9732
-6.2570 -1.6875 -1.9933 0.9732
-5.5873 -3.2856 -1.9937 0.9732
-5.2724 -3.7718 -1.9939 0.9732
-3.6217 -5.3828 -1.9955 0.9732
-2.6082 -5.9443 -1.9966 0.9732
-2.0678 -6.1553 -1.9972 0.9732
-0.9409 -6.4291 -1.9985 0.9732
0.2175 -6.4986 -1.9999 0.9732
0.7971 -6.4556 -2.0007 0.9731
1.9338 -6.2155 -2.0022 0.9731
2.4818 -6.0203 -2.0029 0.9731
3.9925 -5.1530 -2.0050 0.9731
4.8483 -4.3637 -2.0063 0.9731
5.2201 -3.9146 -2.0069 0.9731
5.8360 -2.9255 -2.0079 0.9730
6.0752 -2.3933 -2.0084 0.9730
6.4063 -1.2753 -2.0091 0.9730
6.5173 0.4679 -2.0098 0.9730
5.9412 2.7192 -2.0097 0.9730
5.6742 3.2384 -2.0095 0.9730
5.3618 3.7315 -2.0093 0.9730
4.6112 4.6240 -2.0086 0.9730
