ply
format ascii 1.0
element vertex 1580
property float32 x
property float32 y
property float32 z
property float32 I
end_header
4.3907 4.5495 -0.4636 0.9750
3.8796 4.8137 -0.4533 0.9755
3.3285 4.9812 -0.4393 0.9763
2.3808 5.4702 -0.4374 0.9764
1.9582 5.8850 -0.4548 0.9754
1.4101 5.9702 -0.4498 0.9757
0.3481 6.5163 -0.4785 0.9742
-18.8419 -4.8267 -1.4261 0.9250
-17.8266 -6.3071 -1.3865 0.9270
-16.7730 -7.6791 -1.3526 0.9287
-15.6832 -8.9510 -1.3240 0.9301
-14.5587 -10.1301 -1.3005 0.9313
-12.2072 -12.2335 -1.2672 0.9330
-7.0718 -15.5349 -1.2515 0.9338
-5.6873 -16.1855 -1.2579 0.9335
-2.7770 -17.2805 -1.2833 0.9322
0.3479 -18.0911 -1.3267 0.9300
2.0026 -18.3823 -1.3558 0.9285
3.7260 -18.5913 -1.3903 0.9268
5.5243 -18.7118 -1.4305 0.9247
15.1279 -4.7062 -1.1616 0.9384
14.2457 -0.4811 -1.0451 0.9444
10.1053 1.4737 -0.7488 0.9599
6.4253 3.5264 -0.5374 0.9710
5.6394 3.7859 -0.4980 0.9731
4.0680 4.7163 -0.4567 0.9753
3.4479 4.8047 -0.4336 0.9766
2.9903 5.0669 -0.4314 0.9767
2.5578 5.3789 -0.4367 0.9764
2.1435 5.7896 -0.4527 0.9755
1.0911 6.1343 -0.4568 0.9753
-1.3531 7.3897 -0.5508 0.9703
-3.8720 13.9693 -1.0625 0.9435
-2.3091 2.2154 -0.2346 0.9872
-19.2108 -4.2437 -1.4425 0.9241
-16.0946 -8.4869 -1.3341 0.9296
-14.9829 -9.6999 -1.3087 0.9309
-13.8370 -10.8241 -1.2881 0.9320
-11.4423 -12.8271 -1.2603 0.9334
-10.1921 -13.7142 -1.2528 0.9338
-7.5781 -15.2742 -1.2502 0.9339
-6.2099 -15.9504 -1.2550 0.9337
-0.2540 -17.9621 -1.3172 0.9305
3.0735 -18.5232 -1.3767 0.9275
4.8431 -18.6776 -1.4148 0.9255
6.6918 -18.7388 -1.4589 0.9233
1.7156 -14.3099 -1.3837 0.9437
3.0488 -14.4026 -1.4134 0.9426
11.1570 -14.5244 -1.7583 0.9290
17.7282 -8.9910 -1.9084 0.9232
2.3177 -0.9259 -0.2396 0.9900
15.1198 -4.5250 -1.5152 0.9385
15.3861 -1.7340 -1.4865 0.9397
12.7598 -0.2928 -1.2253 0.9500
11.3188 0.7520 -1.0891 0.9554
8.9795 2.2442 -0.8886 0.9635
7.7447 2.6891 -0.7871 0.9676
6.3783 3.5909 -0.7027 0.9710
4.9784 4.1199 -0.6204 0.9744
3.4457 4.9130 -0.5761 0.9762
2.9304 5.0902 -0.5639 0.9767
2.4976 5.4023 -0.5714 0.9764
1.5682 6.0282 -0.5980 0.9753
0.4896 6.4353 -0.6196 0.9744
-0.7271 7.0593 -0.6813 0.9719
-18.8930 5.9994 -1.9031 0.9234
-18.1823 2.3569 -1.7602 0.9290
-17.6890 0.7013 -1.6996 0.9313
-17.1183 -0.8507 -1.6455 0.9334
-16.4790 -2.3044 -1.5975 0.9353
-12.4668 -8.2637 -1.4359 0.9417
-10.7411 -8.5911 -1.3205 0.9462
-9.8311 -9.4177 -1.3070 0.9468
-8.8856 -10.1804 -1.2973 0.9471
-3.6346 -13.0728 -1.3027 0.9469
-0.0468 -14.0613 -1.3500 0.9451
1.2284 -14.2558 -1.3737 0.9441
4.1927 -15.4788 -1.5396 0.9376
5.7011 -15.4356 -1.5797 0.9360
8.8663 -15.0504 -1.6770 0.9322
10.5244 -14.6905 -1.7349 0.9300
12.2326 -14.2047 -1.7997 0.9274
13.9893 -13.5806 -1.8718 0.9246
11.3198 -2.7087 -1.1174 0.9543
17.9567 -2.6330 -1.7424 0.9297
14.8982 -0.8398 -1.4326 0.9418
11.7982 0.3892 -1.1333 0.9537
9.1403 1.9629 -0.8975 0.9631
7.2066 2.9632 -0.7481 0.9692
5.7888 3.6996 -0.6596 0.9728
3.1468 5.0674 -0.5727 0.9763
2.2653 5.7189 -0.5905 0.9756
0.6946 6.3300 -0.6114 0.9747
-1.1646 7.2834 -0.7081 0.9708
-2.2802 2.2887 -0.3102 0.9871
-18.3447 3.0033 -1.7846 0.9280
-17.3400 -0.2825 -1.6650 0.9327
-12.8067 -7.8870 -1.4440 0.9414
-11.0718 -8.2654 -1.3265 0.9460
-9.2431 -9.9028 -1.3005 0.9470
-6.2368 -11.8895 -1.2890 0.9475
-5.1650 -12.4299 -1.2923 0.9473
-2.9139 -13.3271 -1.3097 0.9467
-0.5128 -13.9706 -1.3421 0.9454
0.7471 -14.1914 -1.3643 0.9445
2.0483 -14.3406 -1.3907 0.9435
5.1317 -15.4627 -1.5641 0.9366
8.2596 -15.1549 -1.6570 0.9330
14.9977 -1.3485 -1.4457 0.9413
11.8102 -0.0046 -1.1339 0.9537
11.0135 0.9816 -1.0615 0.9565
8.6446 2.3688 -0.8605 0.9646
7.5237 2.8040 -0.7708 0.9683
6.7830 3.2434 -0.7218 0.9702
6.1612 3.6540 -0.6877 0.9716
4.8391 4.1920 -0.6147 0.9746
1.4084 5.9631 -0.5882 0.9757
0.8945 6.2273 -0.6040 0.9750
0.3477 6.5081 -0.6257 0.9742
-18.8261 5.5140 -1.8833 0.9242
-18.4942 3.6651 -1.8101 0.9270
-17.5517 0.2997 -1.6853 0.9319
-16.9630 -1.2270 -1.6328 0.9339
-15.5925 -3.9943 -1.5453 0.9374
-14.8234 -5.2445 -1.5096 0.9388
-14.0049 -6.4118 -1.4788 0.9400
-13.1408 -7.4999 -1.4526 0.9410
-12.2339 -8.5125 -1.4309 0.9419
-9.5956 -9.6163 -1.3042 0.9469
-6.6283 -11.6719 -1.2886 0.9475
-5.5697 -12.2350 -1.2906 0.9474
-3.3456 -13.1784 -1.3053 0.9468
-0.9733 -13.8704 -1.3349 0.9457
0.2715 -14.1171 -1.3556 0.9448
1.5571 -14.2935 -1.3804 0.9439
2.8851 -14.3955 -1.4095 0.9427
4.5692 -15.4766 -1.5492 0.9372
6.0899 -15.4097 -1.5907 0.9356
7.6600 -15.2439 -1.6379 0.9337
12.6718 -14.0607 -1.8172 0.9268
14.4405 -13.3994 -1.8913 0.9239
2.3108 -0.9523 -0.2399 0.9900
15.0547 -4.6835 -1.5136 0.9386
15.4699 -1.9131 -1.4965 0.9393
14.2077 -0.4798 -1.3648 0.9445
9.0341 2.1543 -0.8916 0.9634
6.4164 3.5215 -0.7027 0.9710
5.6320 3.7810 -0.6512 0.9731
5.0460 4.0848 -0.6233 0.9742
4.0632 4.7108 -0.5972 0.9753
3.4439 4.7991 -0.5671 0.9765
2.9869 5.0611 -0.5642 0.9767
2.5548 5.3728 -0.5712 0.9764
2.1410 5.7829 -0.5920 0.9755
0.5566 6.4008 -0.6168 0.9745
-0.0174 6.8427 -0.6569 0.9729
-0.6601 7.1688 -0.6911 0.9715
-2.3087 2.2150 -0.3072 0.9872
-18.6303 4.3426 -1.8365 0.9260
-18.2363 2.5647 -1.7680 0.9287
-17.7530 0.8962 -1.7065 0.9311
-17.1912 -0.6681 -1.6517 0.9332
-16.5598 -2.1335 -1.6030 0.9351
-13.4688 -7.1023 -1.4618 0.9406
-12.5776 -8.1427 -1.4385 0.9416
-9.9432 -9.3210 -1.3084 0.9467
-9.0020 -10.0914 -1.2983 0.9471
-7.0150 -11.4459 -1.2888 0.9475
-1.4282 -13.7608 -1.3282 0.9459
-0.1984 -14.0329 -1.3474 0.9452
7.0674 -15.3180 -1.6196 0.9345
10.3210 -14.7406 -1.7276 0.9302
13.7741 -13.6640 -1.8627 0.9250
1.5539 -12.9608 -1.5506 0.9488
4.0460 -13.1782 -1.6375 0.9460
7.9644 -12.5429 -1.7649 0.9419
9.3202 -12.1331 -1.8174 0.9402
15.0849 -7.6505 -2.0091 0.9341
2.3178 -0.9260 -0.2965 0.9900
18.7270 -3.8256 -2.2704 0.9259
15.3369 -1.7285 -1.8333 0.9397
8.6771 2.1686 -1.0624 0.9646
6.9027 3.1113 -0.8994 0.9700
6.3696 3.5859 -0.8683 0.9710
3.9972 4.7369 -0.7362 0.9753
3.4417 4.9073 -0.7120 0.9761
2.9270 5.0844 -0.6969 0.9766
2.4948 5.3960 -0.7062 0.9763
0.5291 3.1732 -0.3821 0.9871
0.4890 6.4272 -0.7657 0.9744
-14.9460 11.7104 -2.2554 0.9264
-15.5255 8.2024 -2.0858 0.9317
-15.4271 3.4205 -1.8770 0.9383
-14.8585 0.5891 -1.7664 0.9419
-14.4527 -0.7183 -1.7189 0.9434
-13.4364 -3.1209 -1.6385 0.9460
-12.1862 -5.2501 -1.5762 0.9480
-11.4853 -6.2160 -1.5513 0.9488
-8.4952 -8.1380 -1.3974 0.9537
-7.6860 -8.8060 -1.3884 0.9540
-6.8423 -9.4178 -1.3828 0.9542
-5.9653 -9.9737 -1.3805 0.9543
-4.1146 -10.9163 -1.3858 0.9541
-3.1421 -11.3016 -1.3934 0.9538
-2.1387 -11.6280 -1.4044 0.9535
-0.0404 -12.1590 -1.4443 0.9522
2.3381 -13.2053 -1.5930 0.9474
6.1401 -12.9384 -1.7012 0.9439
7.4635 -12.6691 -1.7466 0.9425
8.8110 -12.2988 -1.7971 0.9409
11.5633 -11.2255 -1.9143 0.9371
12.9572 -10.5057 -1.9815 0.9350
14.3530 -9.6519 -2.0546 0.9327
17.1134 -5.7503 -2.1445 0.9299
14.8564 -0.8375 -1.7675 0.9418
10.1305 1.2447 -1.2124 0.9597
7.1958 2.9587 -0.9242 0.9691
6.6338 3.4485 -0.8881 0.9703
3.5992 4.7840 -0.7111 0.9762
2.2626 5.7122 -0.7298 0.9756
0.6937 6.3222 -0.7555 0.9747
-14.7692 12.3889 -2.2899 0.9253
-15.4611 8.8402 -2.1156 0.9308
-15.5921 7.1532 -2.0377 0.9332
-15.5985 5.5325 -1.9660 0.9355
-15.2868 2.5027 -1.8400 0.9395
-14.1623 -1.5008 -1.6917 0.9442
-11.7527 -5.8626 -1.5601 0.9485
-7.9925 -8.5629 -1.3914 0.9539
-7.1615 -9.1958 -1.3845 0.9541
-6.2969 -9.7725 -1.3809 0.9543
-5.3994 -10.2932 -1.3807 0.9543
-4.4700 -10.7574 -1.3838 0.9542
-2.5172 -11.5130 -1.3999 0.9536
-1.4946 -11.8016 -1.4131 0.9532
0.6586 -12.5110 -1.4882 0.9508
1.8742 -13.1215 -1.5745 0.9480
3.1096 -13.2119 -1.6123 0.9468
4.3663 -13.1562 -1.6466 0.9457
8.3048 -12.4494 -1.7777 0.9415
9.6658 -12.0123 -1.8315 0.9398
11.0446 -11.4619 -1.8907 0.9379
15.2239 -9.0449 -2.1035 0.9312
19.0094 -3.4387 -2.2947 0.9251
14.9523 -1.3444 -1.7833 0.9413
8.5936 2.3548 -1.0584 0.9647
7.5120 2.7996 -0.9523 0.9682
6.1974 3.6755 -0.8559 0.9714
4.8331 4.1868 -0.7596 0.9746
4.3802 4.5386 -0.7492 0.9749
3.8705 4.8024 -0.7327 0.9755
3.3208 4.9697 -0.7100 0.9762
2.3753 5.4576 -0.7070 0.9763
0.3473 6.4999 -0.7732 0.9741
-0.8983 7.1377 -0.8545 0.9714
-15.0525 11.2555 -2.2326 0.9271
-15.3774 9.4867 -2.1463 0.9298
-15.5584 7.7761 -2.0661 0.9323
-15.5447 4.5529 -1.9241 0.9368
-14.7630 0.2521 -1.7539 0.9423
-13.2905 -3.4046 -1.6297 0.9462
-12.0137 -5.5002 -1.5695 0.9482
-11.3008 -6.4498 -1.5456 0.9489
-10.5430 -7.3359 -1.5257 0.9496
-9.0767 -7.6018 -1.4064 0.9534
-8.2942 -8.3120 -1.3948 0.9538
-7.4761 -8.9658 -1.3867 0.9541
-5.7386 -10.1052 -1.3804 0.9543
-2.8915 -11.3897 -1.3958 0.9538
-1.8803 -11.7009 -1.4077 0.9534
-0.8386 -11.9510 -1.4231 0.9529
0.2365 -12.2986 -1.4612 0.9517
1.4037 -12.8854 -1.5397 0.9491
3.8931 -13.1868 -1.6332 0.9461
5.1684 -13.0779 -1.6704 0.9449
6.4719 -12.8795 -1.7122 0.9436
9.1549 -12.1885 -1.8107 0.9404
14.7048 -9.4140 -2.0740 0.9321
14.9306 -7.7763 -1.9997 0.9344
2.3087 -0.9514 -0.2966 0.9900
17.4186 -5.4189 -2.1669 0.9292
18.5898 -4.0074 -2.2589 0.9263
15.4190 -1.9068 -1.8455 0.9393
14.1698 -0.4785 -1.6841 0.9445
11.5039 0.6394 -1.3686 0.9546
8.7764 2.0929 -1.0717 0.9643
7.8415 2.6280 -0.9824 0.9672
6.9959 3.0628 -0.9072 0.9697
6.4075 3.5166 -0.8682 0.9710
5.6246 3.7760 -0.8047 0.9731
5.0397 4.0797 -0.7702 0.9742
4.5772 4.4365 -0.7572 0.9746
4.0584 4.7052 -0.7381 0.9753
3.4399 4.7936 -0.7008 0.9765
2.1386 5.7761 -0.7316 0.9755
1.6392 6.0330 -0.7426 0.9751
0.5572 3.1326 -0.3779 0.9873
0.5559 6.3929 -0.7622 0.9745
-0.0175 6.8833 -0.8176 0.9727
-1.3492 7.3682 -0.8898 0.9703
-3.8536 13.9027 -1.7137 0.9435
-15.2736 10.1413 -2.1778 0.9288
-15.4499 3.6013 -1.8844 0.9381
-14.9025 0.7523 -1.7725 0.9417
-14.0377 -1.8085 -1.6813 0.9446
-13.5050 -2.9833 -1.6429 0.9458
-12.9134 -4.0895 -1.6090 0.9469
-10.8313 -7.0121 -1.5327 0.9494
-6.9463 -9.3467 -1.3833 0.9542
-6.0732 -9.9094 -1.3806 0.9543
-5.1677 -10.4158 -1.3812 0.9542
-3.2615 -11.2580 -1.3923 0.9539
-1.2314 -11.8648 -1.4169 0.9531
-0.1710 -12.0969 -1.4371 0.9524
4.6884 -13.1288 -1.6560 0.9454
8.6467 -12.3493 -1.7908 0.9411
10.0126 -11.8843 -1.8459 0.9393
14.1842 -9.7628 -2.0454 0.9330
2.4404 -11.5285 -1.6697 0.9535
3.5209 -11.4679 -1.6997 0.9527
4.6199 -11.3301 -1.7337 0.9518
7.9966 -10.4101 -1.8599 0.9483
9.1348 -9.9182 -1.9105 0.9470
11.3951 -8.6253 -2.0249 0.9439
12.6004 -6.3904 -2.0018 0.9445
13.8805 -4.1541 -2.0529 0.9431
15.2877 -1.7229 -2.1798 0.9397
12.2803 -0.2818 -1.7404 0.9516
11.3977 0.7572 -1.6185 0.9549
9.8156 1.5400 -1.4078 0.9607
8.4762 2.1184 -1.2379 0.9653
4.5074 4.4644 -0.8989 0.9747
3.9924 4.7312 -0.8771 0.9753
3.4377 4.9015 -0.8483 0.9761
2.9236 5.0785 -0.8303 0.9766
2.4919 5.3898 -0.8413 0.9763
2.0764 5.8001 -0.8729 0.9754
1.5644 6.0140 -0.8805 0.9752
0.5310 3.1845 -0.4574 0.9870
0.4883 6.4191 -0.9122 0.9743
-1.4222 7.3193 -1.0565 0.9703
-4.0002 13.8482 -2.0424 0.9434
-6.9879 17.9904 -2.7346 0.9250
-8.2876 16.7371 -2.6463 0.9273
-10.3978 14.0139 -2.4725 0.9319
-2.3356 2.1929 -0.4539 0.9871
-13.0279 1.6888 -1.8614 0.9483
-12.7994 0.5075 -1.8150 0.9496
-12.4964 -0.6210 -1.7728 0.9507
-11.6916 -2.7156 -1.7007 0.9527
-11.2005 -3.6808 -1.6705 0.9535
-10.6565 -4.5910 -1.6441 0.9542
-10.0635 -5.4465 -1.6213 0.9548
-9.4249 -6.2473 -1.6021 0.9553
-8.7438 -6.9936 -1.5864 0.9558
-8.0228 -7.6854 -1.5742 0.9561
-6.4383 -8.8618 -1.5520 0.9567
-5.5685 -9.3102 -1.5371 0.9571
-2.9593 -10.6440 -1.5653 0.9563
-2.0185 -10.9747 -1.5811 0.9559
-1.0413 -11.2116 -1.5954 0.9555
-0.0379 -11.3852 -1.6132 0.9550
0.9904 -11.4930 -1.6345 0.9545
2.0418 -11.5322 -1.6594 0.9538
4.2072 -11.3909 -1.7205 0.9521
7.5717 -10.5690 -1.8421 0.9488
8.7094 -10.1136 -1.8911 0.9475
10.9764 -8.8996 -2.0022 0.9445
12.0906 -8.1305 -2.0644 0.9428
13.1376 -7.2237 -2.1243 0.9412
13.2075 -5.7945 -2.0435 0.9434
11.3367 -2.7128 -1.6516 0.9540
7.8362 2.4311 -1.1625 0.9674
5.7734 3.6897 -0.9708 0.9727
4.5972 4.2591 -0.8880 0.9750
4.1820 4.6330 -0.8843 0.9751
3.5949 4.7784 -0.8473 0.9761
3.1395 5.0556 -0.8432 0.9762
2.6679 5.2990 -0.8406 0.9763
2.2600 5.7056 -0.8695 0.9755
0.6230 3.0958 -0.4474 0.9873
0.6929 6.3143 -0.9000 0.9747
-0.4903 7.0668 -1.0037 0.9718
-1.1567 7.2339 -1.0380 0.9708
-6.4607 18.4327 -2.7675 0.9241
-7.8210 17.2163 -2.6793 0.9265
-9.0184 15.9096 -2.5912 0.9288
-10.0526 14.5382 -2.5044 0.9311
-10.9269 13.1252 -2.4198 0.9333
-13.2073 3.3943 -1.9321 0.9464
-12.6180 -0.2056 -1.7881 0.9503
-12.2716 -1.3004 -1.7485 0.9514
-9.0031 -6.7211 -1.5919 0.9556
-7.5519 -8.0909 -1.5682 0.9563
-5.8917 -9.1438 -1.5412 0.9570
-4.1672 -10.0285 -1.5387 0.9571
-3.2924 -10.4746 -1.5557 0.9566
-2.3767 -10.8704 -1.5766 0.9560
0.6033 -11.4606 -1.6261 0.9547
1.6463 -11.5258 -1.6497 0.9541
2.7115 -11.5203 -1.6769 0.9533
3.7969 -11.4405 -1.7079 0.9525
7.1476 -10.7147 -1.8250 0.9493
8.2840 -10.2951 -1.8723 0.9480
9.4221 -9.7781 -1.9240 0.9466
11.6766 -8.4311 -2.0407 0.9435
12.7762 -7.5907 -2.1057 0.9417
13.7964 -5.1540 -2.0868 0.9422
14.6909 -4.0380 -2.1587 0.9403
15.5153 -2.8066 -2.2340 0.9383
11.7512 -0.0046 -1.6650 0.9536
10.9756 0.9782 -1.5613 0.9565
9.4424 1.7004 -1.3594 0.9620
8.1926 2.2449 -1.2036 0.9663
6.1889 3.6704 -1.0195 0.9713
4.8271 4.1816 -0.9049 0.9745
4.3749 4.5331 -0.8926 0.9749
3.8659 4.7967 -0.8729 0.9754
3.3170 4.9639 -0.8459 0.9762
2.8439 5.2082 -0.8408 0.9763
2.3726 5.4512 -0.8424 0.9763
1.4051 5.9489 -0.8661 0.9756
-0.8970 7.1277 -1.0179 0.9714
-7.3316 17.6829 -2.7123 0.9256
-9.6851 15.0567 -2.5366 0.9302
-10.6186 13.6568 -2.4511 0.9325
-11.3955 12.2280 -2.3683 0.9347
-12.5090 9.3535 -2.2131 0.9388
-13.2127 5.1887 -2.0113 0.9443
-12.9776 1.3855 -1.8492 0.9486
-12.7296 0.2174 -1.8039 0.9499
-12.4089 -0.8976 -1.7628 0.9510
-11.0679 -3.9159 -1.6635 0.9537
-9.9063 -5.6539 -1.6161 0.9550
-9.2567 -6.4409 -1.5978 0.9555
-7.0668 -8.4750 -1.5635 0.9564
-4.4900 -9.8634 -1.5355 0.9572
0.2196 -11.4187 -1.6182 0.9549
4.4859 -11.3511 -1.7294 0.9519
6.7245 -10.8476 -1.8084 0.9497
8.9970 -9.9831 -1.9042 0.9472
10.1330 -9.4024 -1.9586 0.9457
11.2596 -8.7159 -2.0175 0.9441
12.3685 -7.9183 -2.0808 0.9424
12.4812 -6.5006 -1.9939 0.9447
15.3955 -1.9039 -2.1980 0.9393
11.6113 0.6454 -1.6477 0.9541
10.0044 1.4589 -1.4325 0.9600
5.6172 3.7710 -0.9586 0.9730
5.0333 4.0745 -0.9176 0.9742
4.5716 4.4311 -0.9021 0.9746
4.0535 4.6996 -0.8794 0.9752
1.6373 6.0259 -0.8848 0.9751
0.5552 6.3849 -0.9081 0.9744
-0.6587 7.1528 -1.0178 0.9714
-3.8134 13.7578 -2.0228 0.9440
-8.1389 16.8937 -2.6570 0.9270
-9.2950 15.5683 -2.5691 0.9294
-12.3433 9.8884 -2.2409 0.9381
-12.7456 8.4627 -2.1677 0.9401
-13.2332 4.3602 -1.9742 0.9453
-13.0502 1.8354 -1.8673 0.9482
-12.8312 0.6477 -1.8204 0.9494
-10.7250 -4.4837 -1.6471 0.9541
-10.1378 -5.3458 -1.6239 0.9548
-8.8284 -6.9061 -1.5882 0.9557
-8.1121 -7.6045 -1.5755 0.9561
-4.8119 -9.6986 -1.5340 0.9572
-3.9479 -10.1405 -1.5419 0.9570
-1.1610 -11.1862 -1.5935 0.9556
-0.1607 -11.3676 -1.6108 0.9551
0.8646 -11.4835 -1.6317 0.9545
2.9838 -11.5073 -1.6844 0.9531
6.3026 -10.9679 -1.7923 0.9502
7.4342 -10.6176 -1.8365 0.9490
8.5716 -10.1739 -1.8849 0.9477
10.8402 -8.9852 -1.9950 0.9447
11.9568 -8.2297 -2.0567 0.9430
2.1629 -10.2176 -1.7205 0.9585
3.1142 -10.1431 -1.7479 0.9579
4.0768 -9.9982 -1.7788 0.9572
6.0222 -9.4842 -1.8508 0.9555
9.8607 -7.4640 -2.0373 0.9511
5.9966 3.3760 -1.1337 0.9725
5.4428 3.7399 -1.0879 0.9736
4.9363 4.0850 -1.0555 0.9744
4.5019 4.4589 -1.0438 0.9746
3.9877 4.7256 -1.0186 0.9752
3.4336 4.8958 -0.9851 0.9760
2.9595 5.1408 -0.9772 0.9762
2.0613 5.7578 -1.0075 0.9755
1.5626 6.0068 -1.0225 0.9752
-0.0877 6.5700 -1.0824 0.9737
-9.4744 10.6378 -2.3468 0.9439
-10.9661 7.1116 -2.1532 0.9484
-11.4871 2.5469 -1.9383 0.9534
-11.3977 1.4775 -1.8934 0.9545
-10.3403 -2.4017 -1.7488 0.9579
-9.9263 -3.2620 -1.7213 0.9585
-9.4612 -4.0761 -1.6971 0.9591
-8.9486 -4.8431 -1.6762 0.9596
-7.7937 -6.2337 -1.6441 0.9603
-6.4843 -7.4291 -1.6245 0.9608
-5.7775 -7.9522 -1.6193 0.9609
-4.2699 -8.8453 -1.6181 0.9610
-2.6488 -9.5273 -1.6290 0.9607
-1.7998 -9.7858 -1.6391 0.9605
-0.9276 -9.9872 -1.6524 0.9602
-0.0337 -10.1295 -1.6687 0.9598
1.8109 -10.2280 -1.7112 0.9588
2.7572 -10.1790 -1.7373 0.9581
3.7159 -10.0608 -1.7668 0.9575
5.6577 -9.6038 -1.8363 0.9558
6.6328 -9.2584 -1.8762 0.9549
7.6044 -8.8304 -1.9198 0.9539
9.5128 -7.7130 -2.0175 0.9516
10.4352 -7.0173 -2.0716 0.9503
10.5423 -5.7966 -1.9819 0.9524
11.2960 -4.9559 -2.0321 0.9512
12.0324 -4.0430 -2.0911 0.9498
13.8222 -0.7792 -2.2807 0.9454
11.8261 0.3901 -1.9493 0.9532
10.3813 1.2755 -1.7231 0.9585
6.2450 3.2464 -1.1595 0.9719
5.6371 3.6027 -1.1021 0.9732
3.1358 5.0497 -0.9792 0.9762
0.5992 2.9775 -0.5003 0.9878
0.6896 6.2846 -1.0415 0.9747
0.1300 6.4930 -1.0699 0.9740
-0.4656 6.7106 -1.1082 0.9731
-6.4857 14.2769 -2.5833 0.9384
-2.2878 2.2963 -0.5340 0.9869
-11.4758 4.0703 -2.0059 0.9518
-11.4999 2.9555 -1.9560 0.9530
-11.4402 1.8729 -1.9097 0.9541
-11.0937 -0.1807 -1.8278 0.9560
-10.4811 -2.0686 -1.7599 0.9576
-9.1455 -4.5620 -1.6837 0.9594
-8.6048 -5.2993 -1.6648 0.9599
-8.0218 -5.9885 -1.6491 0.9602
-7.3993 -6.6292 -1.6366 0.9605
-4.5607 -8.6942 -1.6174 0.9610
-1.2562 -9.9187 -1.6471 0.9603
-0.3701 -10.0834 -1.6622 0.9599
4.3214 -9.9501 -1.7871 0.9570
9.1615 -7.9491 -1.9982 0.9520
11.7638 -4.3947 -2.0688 0.9504
12.4631 -3.4257 -2.1293 0.9490
13.0933 -2.3685 -2.1920 0.9475
11.7217 -0.0046 -1.9310 0.9536
8.3841 2.2975 -1.4321 0.9654
7.3415 2.7361 -1.2907 0.9687
6.5051 3.1105 -1.1879 0.9712
5.8347 3.4604 -1.1175 0.9729
4.7384 4.1048 -1.0328 0.9749
3.3131 4.9581 -0.9824 0.9761
2.8406 5.2022 -0.9764 0.9763
0.7653 3.2402 -0.5485 0.9866
0.3428 6.4156 -1.0584 0.9743
-0.2379 6.6217 -1.0916 0.9735
-6.0671 14.6331 -2.6096 0.9378
-7.1487 13.6537 -2.5389 0.9394
-10.2246 9.1749 -2.2631 0.9458
-11.4440 4.4942 -2.0254 0.9514
-11.5010 3.3686 -1.9743 0.9526
-11.4719 2.2734 -1.9266 0.9537
-10.6139 -1.7291 -1.7716 0.9573
-10.2408 -2.6234 -1.7415 0.9580
-9.8135 -3.4721 -1.7149 0.9587
-7.6364 -6.3955 -1.6409 0.9604
-5.5938 -8.0764 -1.6185 0.9610
-4.0712 -8.9433 -1.6188 0.9609
-3.2670 -9.2977 -1.6235 0.9608
0.1953 -10.1559 -1.6734 0.9597
1.1135 -10.2211 -1.6938 0.9592
2.0486 -10.2220 -1.7174 0.9586
3.9597 -10.0196 -1.7748 0.9573
5.9041 -9.5242 -1.8460 0.9556
6.8788 -9.1582 -1.8869 0.9546
7.8486 -8.7088 -1.9313 0.9536
8.8074 -8.1725 -1.9793 0.9525
9.7484 -7.5461 -2.0309 0.9513
10.7125 -5.5794 -1.9898 0.9522
12.2092 -3.7982 -2.1064 0.9495
12.8667 -2.7737 -2.1683 0.9480
11.5848 0.6439 -1.9114 0.9541
10.0257 1.4620 -1.6691 0.9598
8.8078 2.1004 -1.4917 0.9640
7.7099 2.5839 -1.3395 0.9676
6.7921 2.9736 -1.2215 0.9704
6.0759 3.3346 -1.1418 0.9723
5.5054 3.6960 -1.0924 0.9735
4.0487 4.6940 -1.0212 0.9752
0.5361 3.0141 -0.5043 0.9877
-0.0166 6.5451 -1.0782 0.9738
-1.3096 7.1516 -1.1977 0.9710
-9.3919 10.7774 -2.3550 0.9437
-10.5300 8.4358 -2.2227 0.9468
-10.9256 7.2543 -2.1605 0.9482
-11.3992 4.9216 -2.0455 0.9509
-11.4901 3.7859 -1.9930 0.9521
-11.4925 2.6788 -1.9440 0.9533
-11.2566 0.5682 -1.8568 0.9553
-10.7385 -1.3835 -1.7837 0.9571
-10.3868 -2.2945 -1.7524 0.9578
-9.9793 -3.1603 -1.7244 0.9585
-9.5201 -3.9800 -1.6999 0.9590
-9.0131 -4.7527 -1.6786 0.9595
-7.8682 -6.1550 -1.6457 0.9603
-7.2361 -6.7833 -1.6339 0.9606
-5.1299 -8.3701 -1.6173 0.9610
-1.9039 -9.7575 -1.6378 0.9605
-1.0344 -9.9659 -1.6506 0.9602
-0.1430 -10.1155 -1.6666 0.9598
2.6419 -10.1886 -1.7340 0.9582
4.5664 -9.8972 -1.7956 0.9568
6.5148 -9.3045 -1.8712 0.9550
9.3993 -7.7909 -2.0112 0.9517
10.3250 -7.1066 -2.0649 0.9505
1.9406 -9.1674 -1.7613 0.9626
7.0555 -7.6606 -1.9575 0.9585
7.8807 -7.1556 -2.0008 0.9576
8.6828 -6.5724 -2.0469 0.9566
9.4546 -5.9097 -2.0957 0.9556
9.4544 -4.7949 -1.9925 0.9578
10.6737 -3.1944 -2.0942 0.9557
11.1937 -2.2867 -2.1474 0.9546
12.0037 -0.2755 -2.2568 0.9523
8.6621 2.1648 -1.6782 0.9643
7.6954 2.6719 -1.5311 0.9674
5.3910 3.7043 -1.2295 0.9737
4.4963 4.4534 -1.1895 0.9746
3.3519 4.7792 -1.0972 0.9765
2.4342 5.2650 -1.0903 0.9767
1.9650 5.4889 -1.0958 0.9766
0.5234 3.1391 -0.5982 0.9871
-3.5738 12.3722 -2.4206 0.9489
-6.2706 10.2494 -2.2584 0.9523
-7.5270 10.1447 -2.3743 0.9499
-8.1941 9.2002 -2.3157 0.9511
-2.3326 2.1901 -0.6014 0.9871
-9.2235 7.2268 -2.2024 0.9534
-10.0507 4.2110 -2.0483 0.9566
-10.1520 3.2237 -2.0021 0.9576
-10.1740 2.2558 -1.9588 0.9585
-9.9998 0.3965 -1.8810 0.9601
-9.8129 -0.4877 -1.8467 0.9608
-9.2618 -2.1512 -1.7872 0.9620
-8.0501 -4.3568 -1.7205 0.9634
-7.5572 -5.0093 -1.7042 0.9638
-7.0247 -5.6186 -1.6908 0.9641
-5.8514 -6.7040 -1.6726 0.9644
-5.2152 -7.1783 -1.6677 0.9645
-3.1342 -8.3152 -1.6703 0.9645
-1.6227 -8.8229 -1.6862 0.9641
-0.8356 -8.9973 -1.6984 0.9639
1.6257 -9.1818 -1.7527 0.9628
4.1827 -8.8139 -1.8338 0.9611
5.0413 -8.5575 -1.8668 0.9604
5.8962 -8.2302 -1.9030 0.9596
6.7425 -7.8296 -1.9421 0.9588
7.5746 -7.3533 -1.9843 0.9579
8.3862 -6.7996 -2.0293 0.9570
9.2049 -5.0613 -1.9744 0.9581
9.8586 -4.3253 -2.0235 0.9571
11.0074 -2.6340 -2.1274 0.9550
11.4828 -1.6837 -2.1814 0.9539
11.8253 0.3901 -2.2239 0.9530
10.3599 1.2729 -1.9619 0.9584
9.0739 1.9486 -1.7444 0.9629
8.0363 2.4932 -1.5815 0.9663
7.1565 2.9426 -1.4544 0.9690
5.6304 3.5983 -1.2560 0.9732
4.4847 4.1549 -1.1491 0.9754
3.0661 4.9375 -1.0924 0.9766
2.6072 5.1784 -1.0897 0.9767
2.1416 5.4066 -1.0930 0.9766
1.6651 5.6238 -1.1024 0.9764
-4.2018 11.9880 -2.3877 0.9496
-5.1355 11.3047 -2.3338 0.9507
-5.9792 10.5481 -2.2790 0.9518
-7.9568 9.5576 -2.3375 0.9506
-9.0615 7.6011 -2.2231 0.9530
-9.9915 4.5838 -2.0662 0.9562
-10.1237 3.5907 -2.0190 0.9572
-10.1747 2.6149 -1.9746 0.9581
-10.1496 1.6616 -1.9331 0.9590
-9.8901 -0.1611 -1.8592 0.9605
-9.3817 -1.8516 -1.7974 0.9618
-9.0447 -2.6414 -1.7711 0.9624
-8.6575 -3.3921 -1.7477 0.9629
-8.2236 -4.1021 -1.7274 0.9633
-7.7462 -4.7705 -1.7099 0.9637
-7.2282 -5.3960 -1.6954 0.9640
-6.0809 -6.5149 -1.6751 0.9644
-5.4566 -7.0065 -1.6692 0.9645
-4.8013 -7.4515 -1.6662 0.9646
-4.1173 -7.8489 -1.6659 0.9646
-1.9118 -8.7439 -1.6823 0.9642
-0.3332 -9.0786 -1.7076 0.9637
1.3123 -9.1877 -1.7445 0.9629
2.1542 -9.1527 -1.7674 0.9625
3.8618 -8.8920 -1.8222 0.9613
4.7207 -8.6615 -1.8541 0.9606
6.4276 -7.9880 -1.9271 0.9591
8.8810 -6.4125 -2.0589 0.9564
9.6197 -4.6090 -2.0049 0.9575
11.3140 -2.0466 -2.1611 0.9543
11.7406 -1.0557 -2.2157 0.9532
11.6921 -0.0046 -2.1977 0.9535
9.5199 1.7144 -1.8182 0.9614
5.2352 3.7739 -1.2130 0.9741
3.8567 4.7853 -1.1552 0.9753
0.8650 6.0223 -1.1436 0.9755
0.3362 6.2927 -1.1845 0.9747
-0.2382 6.6304 -1.2471 0.9734
-0.7625 6.0591 -1.1479 0.9755
-2.7840 12.7810 -2.4587 0.9482
-3.8310 12.2216 -2.4074 0.9492
-6.9612 10.8221 -2.4186 0.9490
-8.3464 8.9561 -2.3011 0.9514
-8.8857 7.9734 -2.2440 0.9526
-9.3254 6.9730 -2.1886 0.9537
-9.6690 5.9650 -2.1354 0.9548
-10.0840 3.9601 -2.0363 0.9569
-10.0972 1.0780 -1.9087 0.9595
-9.7560 -0.7057 -1.8385 0.9610
-9.1767 -2.3508 -1.7806 0.9622
-8.8078 -3.1162 -1.7561 0.9627
-6.3059 -6.3195 -1.6780 0.9643
-5.6936 -6.8282 -1.6711 0.9645
-5.0497 -7.2907 -1.6670 0.9645
-3.6750 -8.0731 -1.6673 0.9645
-2.9483 -8.3907 -1.6717 0.9644
-2.1979 -8.6575 -1.6789 0.9643
1.0006 -9.1852 -1.7367 0.9631
1.8384 -9.1730 -1.7585 0.9626
3.5412 -8.9606 -1.8110 0.9615
4.3997 -8.7557 -1.8418 0.9609
7.7819 -7.2208 -1.9954 0.9577
8.5872 -6.6472 -2.0411 0.9568
9.3742 -4.8824 -1.9866 0.9579
2.3061 -0.9503 -0.4688 0.9899
11.5907 -1.4333 -2.1952 0.9536
11.5584 0.6425 -2.1759 0.9540
10.0056 1.4591 -1.9006 0.9597
7.8035 2.6153 -1.5469 0.9671
4.5604 4.4202 -1.1937 0.9745
2.4904 5.2372 -1.0900 0.9767
2.0224 5.4624 -1.0948 0.9766
-0.5592 6.0726 -1.1462 0.9755
-4.4459 11.8231 -2.3742 0.9499
-5.3573 11.1200 -2.3200 0.9510
-6.1776 10.3470 -2.2651 0.9521
-7.4392 10.2563 -2.3815 0.9497
-8.1188 9.3165 -2.3228 0.9509
-2.3070 2.2134 -0.6009 0.9871
-9.1725 7.3483 -2.2091 0.9533
-9.5516 6.3420 -2.1550 0.9544
-10.0181 0.5057 -1.8854 0.9600
-9.5986 -1.2366 -1.8191 0.9614
-8.9515 -2.8348 -1.7649 0.9625
-8.1070 -4.2749 -1.7227 0.9634
-7.6190 -4.9326 -1.7060 0.9637
-6.5261 -6.1177 -1.6814 0.9642
-3.2228 -8.2779 -1.6697 0.9645
-2.4810 -8.5638 -1.6759 0.9644
0.6907 -9.1743 -1.7293 0.9632
2.3685 -9.1340 -1.7736 0.9623
3.2211 -9.0200 -1.8003 0.9618
5.7931 -8.2737 -1.8984 0.9597
6.6407 -7.8821 -1.9372 0.9589
8.2893 -6.8708 -2.0237 0.9571
9.0771 -6.2476 -2.0712 0.9561
0.2496 -8.3058 -1.7565 0.9666
0.9992 -8.3339 -1.7742 0.9663
1.7583 -8.3064 -1.7947 0.9659
4.0624 -7.8712 -1.8723 0.9644
4.8274 -7.6025 -1.9036 0.9639
5.5837 -7.2690 -1.9375 0.9632
6.3266 -6.8692 -1.9740 0.9625
7.0505 -6.4017 -2.0130 0.9618
8.3938 -4.2570 -1.9894 0.9623
2.3183 -0.9262 -0.5277 0.9898
9.4223 -2.8199 -2.0790 0.9606
9.8240 1.5413 -2.1020 0.9602
7.6829 2.6676 -1.7191 0.9673
6.1530 3.4640 -1.4926 0.9715
4.8839 4.0417 -1.3400 0.9744
4.4908 4.4479 -1.3361 0.9745
3.9781 4.7142 -1.3039 0.9751
2.8776 4.9985 -1.2192 0.9767
1.9619 5.4802 -1.2304 0.9765
0.5119 3.0699 -0.6579 0.9874
0.4809 6.3210 -1.3400 0.9744
-0.6219 6.0383 -1.2831 0.9755
-1.4323 7.3712 -1.5873 0.9698
-3.0982 10.7257 -2.3599 0.9554
-5.4850 8.9653 -2.2216 0.9579
-7.2113 8.0967 -2.2919 0.9566
-8.5144 5.5216 -2.1451 0.9594
-9.0819 2.8839 -2.0142 0.9618
-9.0948 1.1789 -1.9385 0.9632
-8.8509 -0.4399 -1.8732 0.9644
-8.3804 -1.9465 -1.8186 0.9654
-8.0689 -2.6516 -1.7953 0.9659
-7.7111 -3.3221 -1.7748 0.9663
-7.3099 -3.9562 -1.7570 0.9666
-6.8683 -4.5527 -1.7418 0.9669
-6.3889 -5.1101 -1.7293 0.9671
-5.8744 -5.6273 -1.7195 0.9673
-4.7491 -6.5367 -1.7079 0.9675
-2.8537 -7.5710 -1.7103 0.9675
-2.1750 -7.8230 -1.7163 0.9673
-1.4762 -8.0264 -1.7251 0.9672
-0.7597 -8.1797 -1.7365 0.9670
0.7178 -8.3299 -1.7673 0.9664
6.0509 -7.0264 -1.9601 0.9628
6.7826 -6.5844 -1.9982 0.9621
8.1714 -5.4950 -2.0815 0.9605
10.0873 -1.4791 -2.1551 0.9592
10.4031 -0.5864 -2.2025 0.9583
10.3383 1.2703 -2.2018 0.9583
8.0229 2.4890 -1.7756 0.9662
7.1519 2.9407 -1.6346 0.9689
5.7377 3.6669 -1.4394 0.9725
5.1032 3.9439 -1.3633 0.9740
4.1668 4.6162 -1.3145 0.9749
3.5198 4.6785 -1.2376 0.9763
2.5909 5.1460 -1.2179 0.9767
2.1339 5.3873 -1.2249 0.9766
1.6699 5.6401 -1.2434 0.9762
-0.9905 6.1947 -1.3261 0.9747
-3.6493 10.4115 -2.3320 0.9559
-4.4734 9.8473 -2.2862 0.9567
-5.2242 9.2161 -2.2393 0.9576
-5.8975 8.5291 -2.1919 0.9585
-2.2980 2.3065 -0.6882 0.9868
-8.0131 6.7216 -2.2108 0.9581
-8.3936 5.8501 -2.1627 0.9590
-8.9083 4.0869 -2.0717 0.9607
-9.1154 2.3427 -1.9894 0.9623
-9.0446 0.6614 -1.9170 0.9636
-8.9146 -0.1452 -1.8846 0.9642
-8.1909 -2.3921 -1.8037 0.9657
-7.8500 -3.0757 -1.7822 0.9661
-7.0379 -4.3343 -1.7472 0.9668
-5.5352 -5.9303 -1.7148 0.9674
-4.3726 -6.7861 -1.7064 0.9675
-1.7396 -7.9561 -1.7215 0.9673
4.2562 -7.8093 -1.8800 0.9643
5.7729 -7.1743 -1.9465 0.9631
6.5115 -6.7575 -1.9836 0.9624
7.2296 -6.2728 -2.0232 0.9616
8.5345 -4.0891 -2.0004 0.9620
9.0622 -3.3854 -2.0449 0.9612
10.2941 -0.9256 -2.1848 0.9586
10.7401 0.9572 -2.2792 0.9569
9.5016 1.7111 -2.0408 0.9613
8.3862 2.2980 -1.8380 0.9651
5.9872 3.5508 -1.4714 0.9719
5.3315 3.8433 -1.3893 0.9735
4.7402 4.1064 -1.3257 0.9747
3.8521 4.7796 -1.2976 0.9752
1.8448 5.5439 -1.2351 0.9764
0.8748 6.0905 -1.3006 0.9752
-3.3235 10.6029 -2.3488 0.9556
-4.9525 9.4591 -2.2569 0.9573
-7.3509 7.8879 -2.2791 0.9569
-8.2613 6.1773 -2.1805 0.9587
-8.5895 5.2991 -2.1334 0.9596
-9.0775 0.9691 -1.9297 0.9634
-8.9702 0.1532 -1.8964 0.9640
-8.8034 -0.6368 -1.8657 0.9646
-8.3063 -2.1278 -1.8125 0.9656
-6.2622 -5.2446 -1.7266 0.9672
-5.1838 -6.2168 -1.7110 0.9674
-3.9854 -7.0181 -1.7060 0.9675
-3.3467 -7.3517 -1.7074 0.9675
-2.6843 -7.6391 -1.7115 0.9674
0.1596 -8.2987 -1.7545 0.9666
0.9078 -8.3335 -1.7719 0.9663
2.4312 -8.2347 -1.8149 0.9655
4.7351 -7.6384 -1.8997 0.9639
6.2375 -6.9212 -1.9695 0.9626
6.9640 -6.4620 -2.0082 0.9619
7.6663 -5.9343 -2.0493 0.9611
8.3377 -5.3378 -2.0926 0.9603
8.3253 -4.3361 -1.9842 0.9624
2.3052 -0.9500 -0.5270 0.9899
10.4704 -0.3536 -2.2145 0.9581
9.9855 1.4562 -2.1331 0.9596
8.7763 2.0928 -1.9071 0.9638
6.2343 3.4215 -1.5032 0.9713
5.5701 3.7393 -1.4181 0.9729
4.5547 4.4147 -1.3408 0.9744
4.0389 4.6826 -1.3071 0.9750
3.3995 4.7374 -1.2325 0.9764
2.9332 4.9702 -1.2199 0.9767
2.4756 5.2062 -1.2186 0.9767
-3.8641 10.2759 -2.3206 0.9561
-4.6702 9.6937 -2.2745 0.9570
-5.4017 9.0474 -2.2274 0.9578
-6.0550 8.3480 -2.1799 0.9587
-7.1424 8.1961 -2.2980 0.9565
-8.1172 6.5028 -2.1985 0.9584
-8.7534 4.7463 -2.1048 0.9601
-9.0722 2.9892 -2.0191 0.9617
-9.1212 2.1261 -1.9797 0.9624
-9.1017 1.2800 -1.9428 0.9631
-9.0175 0.4552 -1.9085 0.9638
-8.1092 -2.5681 -1.7980 0.9658
-5.9385 -5.5669 -1.7206 0.9673
-5.3949 -6.0478 -1.7131 0.9674
-2.9344 -7.5372 -1.7097 0.9675
-0.8473 -8.1638 -1.7349 0.9670
-0.1170 -8.2719 -1.7487 0.9667
0.6269 -8.3269 -1.7651 0.9664
1.3817 -8.3271 -1.7842 0.9661
2.1446 -8.2707 -1.8061 0.9657
3.6822 -7.9807 -1.8579 0.9647
5.2109 -7.4422 -1.9204 0.9635
5.9611 -7.0754 -1.9556 0.9629
6.6950 -6.6415 -1.9934 0.9622
7.4071 -6.1396 -2.0336 0.9614
0.2284 -7.6005 -1.7871 0.9692
1.6060 -7.5870 -1.8226 0.9686
2.3029 -7.5009 -1.8441 0.9683
4.3862 -6.9078 -1.9231 0.9669
5.0652 -6.5940 -1.9542 0.9664
6.3727 -5.7863 -2.0230 0.9652
7.5398 -3.8239 -1.9869 0.9659
8.4251 -2.5215 -2.0669 0.9645
9.3224 -0.2139 -2.1916 0.9624
9.4795 0.6298 -2.2328 0.9617
9.5550 1.4991 -2.2731 0.9610
8.6312 2.1571 -2.0909 0.9641
7.6704 2.6632 -1.9083 0.9672
6.8513 3.0882 -1.7662 0.9696
6.1443 3.4591 -1.6572 0.9714
4.9406 4.0886 -1.5072 0.9740
4.4852 4.4424 -1.4836 0.9744
2.9252 5.0814 -1.3780 0.9762
2.4605 5.3219 -1.3780 0.9762
1.9947 5.5718 -1.3909 0.9760
0.7929 3.0480 -0.7402 0.9871
0.5084 3.0492 -0.7265 0.9874
-0.0892 6.6794 -1.5699 0.9729
-2.7313 9.4554 -2.3131 0.9604
-4.2180 8.5183 -2.2340 0.9617
-5.4537 7.3504 -2.1511 0.9631
-2.3296 2.1872 -0.7510 0.9870
-7.9047 4.1762 -2.1011 0.9639
-8.2084 2.6065 -2.0241 0.9652
-8.2604 1.8315 -1.9885 0.9658
-8.2499 1.0694 -1.9551 0.9664
-8.1800 0.3243 -1.9240 0.9669
-7.8748 -1.1012 -1.8688 0.9679
-7.6457 -1.7759 -1.8448 0.9683
-7.3699 -2.4219 -1.8232 0.9686
-7.0500 -3.0373 -1.8041 0.9689
-6.6890 -3.6202 -1.7875 0.9692
-4.3560 -5.9957 -1.7418 0.9700
-3.8003 -6.3539 -1.7400 0.9700
-2.6172 -6.9436 -1.7440 0.9700
-1.3529 -7.3559 -1.7578 0.9697
-0.6958 -7.4923 -1.7684 0.9696
-0.0252 -7.5803 -1.7816 0.9693
0.6565 -7.6185 -1.7972 0.9691
2.0422 -7.5394 -1.8358 0.9684
3.4373 -7.2431 -1.8842 0.9676
4.8130 -6.7182 -1.9423 0.9666
6.1349 -5.9557 -2.0095 0.9655
6.7631 -5.4835 -2.0463 0.9649
7.3618 -4.9506 -2.0850 0.9642
9.5367 1.1718 -2.2582 0.9613
9.0403 1.9414 -2.1731 0.9627
7.1408 2.9361 -1.8146 0.9688
6.3982 3.3260 -1.6948 0.9708
5.1494 3.9796 -1.5295 0.9736
3.1005 4.9929 -1.3813 0.9761
2.6338 5.2312 -1.3765 0.9762
2.1695 5.4770 -1.3845 0.9761
0.5876 2.9199 -0.7000 0.9878
0.6894 6.2826 -1.4854 0.9744
-3.9582 8.7132 -2.2492 0.9614
-5.2432 7.5828 -2.1667 0.9628
-5.7848 6.9486 -2.1249 0.9635
-2.3068 2.3154 -0.7682 0.9867
-7.1750 6.0186 -2.2010 0.9623
-7.5329 5.2502 -2.1580 0.9630
-7.8171 4.4696 -2.1163 0.9637
-8.1723 2.8986 -2.0379 0.9650
-8.2128 0.6005 -1.9354 0.9667
-8.1073 -0.1321 -1.9057 0.9672
-7.9477 -0.8422 -1.8784 0.9677
-7.4783 -2.1840 -1.8310 0.9685
-6.8285 -3.4063 -1.7935 0.9691
-6.0209 -4.4947 -1.7659 0.9696
-5.5642 -4.9850 -1.7558 0.9698
-5.0754 -5.4377 -1.7482 0.9699
-4.5570 -5.8513 -1.7430 0.9700
-4.0109 -6.2249 -1.7404 0.9700
-3.4396 -6.5570 -1.7402 0.9700
-2.8450 -6.8465 -1.7425 0.9700
-1.5945 -7.2928 -1.7545 0.9698
1.7818 -7.5703 -1.8278 0.9685
2.4793 -7.4705 -1.8499 0.9682
3.1771 -7.3155 -1.8744 0.9678
3.8717 -7.1038 -1.9014 0.9673
4.5589 -6.8341 -1.9307 0.9668
5.2346 -6.5053 -1.9624 0.9663
6.5314 -5.6671 -2.0323 0.9651
7.6619 -3.6710 -1.9967 0.9657
8.1172 -3.0324 -2.0365 0.9650
8.8708 -1.6047 -2.1187 0.9636
9.5065 0.8473 -2.2431 0.9615
8.3716 2.2940 -2.0400 0.9650
6.6641 3.1865 -1.7360 0.9701
4.8027 4.1605 -1.4934 0.9742
3.8474 4.7738 -1.4410 0.9751
3.2774 4.9047 -1.3864 0.9761
2.8074 5.1415 -1.3768 0.9762
0.4571 3.1827 -0.7557 0.9869
-0.7606 6.0434 -1.4316 0.9753
-3.6898 8.8994 -2.2642 0.9612
-4.3886 8.3821 -2.2237 0.9619
-5.0232 7.8092 -2.1823 0.9626
-5.5905 7.1901 -2.1405 0.9633
-6.0886 6.5333 -2.0989 0.9640
-7.4079 5.5392 -2.1739 0.9627
-8.2635 1.6376 -1.9799 0.9660
-8.0135 -0.5797 -1.8883 0.9675
-7.5804 -1.9419 -1.8391 0.9684
-7.2931 -2.5803 -1.8182 0.9687
-6.9626 -3.1877 -1.7997 0.9690
-6.5916 -3.7621 -1.7837 0.9693
-4.2181 -6.0901 -1.7411 0.9700
-1.8338 -7.2232 -1.7515 0.9698
-1.1884 -7.3949 -1.7603 0.9697
-0.5276 -7.5192 -1.7715 0.9695
0.1461 -7.5947 -1.7853 0.9693
1.5219 -7.5937 -1.8202 0.9687
2.2184 -7.5142 -1.8414 0.9683
2.9166 -7.3800 -1.8650 0.9679
3.6127 -7.1896 -1.8911 0.9675
4.3032 -6.9417 -1.9195 0.9670
4.9837 -6.6352 -1.9503 0.9665
5.6497 -6.2689 -1.9834 0.9659
6.2960 -5.8421 -2.0186 0.9653
7.5076 -4.8064 -2.0951 0.9640
2.3044 -0.9496 -0.5858 0.9898
8.3773 -2.6061 -2.0619 0.9646
8.7477 -1.8857 -2.1031 0.9639
9.0569 -1.1200 -2.1448 0.9632
9.2981 -0.3140 -2.1865 0.9625
9.4647 0.5261 -2.2279 0.9618
6.9434 3.0398 -1.7814 0.9693
5.5872 3.7508 -1.5816 0.9727
5.0076 4.0536 -1.5142 0.9739
4.0340 4.6769 -1.4516 0.9749
2.5166 5.2924 -1.3773 0.9762
2.0515 5.5409 -1.3886 0.9760
-0.0169 6.6426 -1.5612 0.9731
-1.3393 7.3140 -1.7475 0.9699
-2.6341 9.5031 -2.3177 0.9603
-3.4131 9.0767 -2.2791 0.9609
-4.1347 8.5824 -2.2389 0.9616
-5.9106 6.7826 -2.1144 0.9637
-8.0719 3.4850 -2.0664 0.9645
-7.8991 -1.0177 -1.8718 0.9678
-7.6760 -1.6957 -1.8475 0.9682
-7.4057 -2.3453 -1.8257 0.9686
-7.0910 -2.9645 -1.8063 0.9689
-6.7348 -3.5514 -1.7894 0.9692
-6.3399 -4.1044 -1.7750 0.9694
-5.9086 -4.6221 -1.7631 0.9696
-4.4215 -5.9495 -1.7421 0.9700
-2.0706 -7.1472 -1.7488 0.9699
-0.7762 -7.4783 -1.7670 0.9696
-0.1071 -7.5723 -1.7798 0.9694
0.5734 -7.6166 -1.7951 0.9691
1.2627 -7.6097 -1.8129 0.9688
1.9578 -7.5502 -1.8332 0.9685
5.4028 -6.4128 -1.9708 0.9661
6.0571 -6.0087 -2.0052 0.9655
0.8407 -7.0123 -1.8286 0.9712
1.4768 -6.9763 -1.8463 0.9710
2.1156 -6.8906 -1.8663 0.9707
4.0154 -6.3237 -1.9395 0.9695
5.2299 -5.6784 -1.9988 0.9686
5.8084 -5.2739 -2.0313 0.9681
6.8368 -3.4674 -1.9848 0.9688
8.1799 -0.9219 -2.1313 0.9666
8.3728 -0.1922 -2.1684 0.9660
8.4976 0.5645 -2.2050 0.9654
8.5494 1.3413 -2.2407 0.9649
8.5239 2.1303 -2.2749 0.9643
6.8409 3.0835 -1.9428 0.9695
4.9341 4.0833 -1.6583 0.9739
3.9683 4.7027 -1.5932 0.9749
3.4172 4.8724 -1.5409 0.9757
2.9454 5.1165 -1.5286 0.9759
1.7973 3.8875 -1.1089 0.9825
0.5077 3.0449 -0.7993 0.9873
0.4852 6.3781 -1.6562 0.9739
-1.4280 7.3488 -1.9383 0.9695
-2.4393 8.4446 -2.2758 0.9643
-4.3729 7.1476 -2.1695 0.9660
-4.9074 6.6141 -2.1324 0.9665
-2.3280 2.1858 -0.8268 0.9869
-6.9342 4.4969 -2.1399 0.9664
-7.3618 3.0845 -2.0667 0.9676
-7.5403 1.6719 -1.9997 0.9686
-7.4881 0.2969 -1.9403 0.9695
-7.3820 -0.3669 -1.9137 0.9699
-7.2262 -1.0105 -1.8892 0.9703
-6.7765 -2.2269 -1.8469 0.9710
-5.3974 -4.3170 -1.7895 0.9718
-4.9671 -4.7582 -1.7809 0.9720
-4.0197 -5.5327 -1.7707 0.9721
-3.5072 -5.8639 -1.7691 0.9722
-1.8396 -6.6166 -1.7781 0.9720
-0.6414 -6.9058 -1.7957 0.9717
-0.0232 -6.9829 -1.8080 0.9716
1.2386 -6.9955 -1.8394 0.9711
3.1520 -6.6420 -1.9036 0.9701
3.7823 -6.4203 -1.9293 0.9697
5.0081 -5.8155 -1.9871 0.9688
6.1579 -4.9928 -2.0526 0.9678
6.6917 -4.5000 -2.0879 0.9672
6.6731 -3.6692 -1.9718 0.9690
2.3162 -1.0162 -0.6549 0.9896
7.8135 -1.8697 -2.0802 0.9673
8.5389 1.0492 -2.2275 0.9651
8.5427 1.8346 -2.2623 0.9645
7.9957 2.4806 -2.1676 0.9660
5.1426 3.9744 -1.6828 0.9735
4.5972 4.2591 -1.6226 0.9744
4.1565 4.6048 -1.6062 0.9747
3.5960 4.7798 -1.5487 0.9756
3.1209 5.0258 -1.5317 0.9759
2.1824 5.5097 -1.5344 0.9758
0.5842 2.9033 -0.7668 0.9878
0.1312 6.5583 -1.6984 0.9733
-0.4765 6.8670 -1.7823 0.9720
-0.9865 6.1693 -1.6176 0.9745
-2.8803 8.2177 -2.2546 0.9647
-3.5455 7.8047 -2.2195 0.9652
-4.1583 7.3357 -2.1833 0.9658
-4.7146 6.8183 -2.1463 0.9663
-5.6478 5.6688 -2.0719 0.9675
-6.4891 5.4433 -2.1930 0.9656
-7.0959 4.0572 -2.1164 0.9668
-7.4437 2.6402 -2.0450 0.9679
-7.5478 1.2357 -1.9803 0.9689
-7.5144 0.5495 -1.9508 0.9693
-7.2901 -0.7725 -1.8981 0.9702
-7.1046 -1.4022 -1.8750 0.9705
-6.8738 -2.0075 -1.8541 0.9708
-6.6005 -2.5861 -1.8355 0.9711
-5.1315 -4.5974 -1.7839 0.9719
-4.6823 -5.0165 -1.7767 0.9720
-4.2050 -5.3994 -1.7719 0.9721
-2.6252 -6.3179 -1.7714 0.9721
-2.0566 -6.5432 -1.7759 0.9721
-1.4706 -6.7261 -1.7826 0.9720
-0.8694 -6.8653 -1.7917 0.9718
1.0010 -7.0078 -1.8329 0.9712
1.6380 -6.9594 -1.8512 0.9709
2.2770 -6.8610 -1.8717 0.9706
2.9148 -6.7113 -1.8945 0.9702
4.7837 -5.9450 -1.9757 0.9690
5.9507 -5.1631 -2.0398 0.9680
6.4960 -4.6904 -2.0745 0.9674
7.3433 -2.7433 -2.0296 0.9681
7.6952 -2.1151 -2.0663 0.9676
8.5178 0.7592 -2.2141 0.9653
8.3568 2.2900 -2.2435 0.9648
7.4409 2.7731 -2.0560 0.9677
4.7965 4.1551 -1.6431 0.9741
3.2973 4.9345 -1.5366 0.9758
2.8271 5.1776 -1.5274 0.9759
1.8843 5.6628 -1.5453 0.9756
0.4517 3.1445 -0.8225 0.9870
-0.2424 6.7482 -1.7484 0.9725
-1.8908 8.6802 -2.3002 0.9640
-2.6193 8.3562 -2.2674 0.9645
-3.3028 7.9660 -2.2328 0.9650
-5.0330 6.4730 -2.1230 0.9667
-2.4185 2.1702 -0.8413 0.9867
-6.7076 5.0156 -2.1686 0.9660
-7.2321 3.6146 -2.0934 0.9671
-7.5017 2.1972 -2.0239 0.9682
-7.5460 1.4954 -1.9918 0.9687
-7.5333 0.8042 -1.9616 0.9692
-7.3472 -0.5315 -1.9073 0.9700
-6.0715 -3.4652 -1.8100 0.9715
-5.6984 -3.9650 -1.7974 0.9717
-5.2916 -4.4317 -1.7871 0.9719
-4.8536 -4.8641 -1.7791 0.9720
-3.8926 -5.6201 -1.7701 0.9721
-3.3740 -5.9413 -1.7691 0.9722
-2.2713 -6.4639 -1.7739 0.9721
-1.6915 -6.6628 -1.7798 0.9720
-1.0957 -6.8185 -1.7881 0.9719
0.1345 -6.9950 -1.8115 0.9715
1.3996 -6.9833 -1.8441 0.9710
2.0382 -6.9037 -1.8638 0.9707
2.6768 -6.7733 -1.8857 0.9704
3.9400 -6.3558 -1.9362 0.9696
4.5569 -6.0669 -1.9646 0.9691
5.7396 -5.3258 -2.0273 0.9682
6.2957 -4.8734 -2.0614 0.9676
6.7844 -3.5335 -1.9806 0.9689
7.5696 -2.3549 -2.0525 0.9678
7.8891 -1.7007 -2.0895 0.9672
8.5471 1.2464 -2.2364 0.9649
7.7649 2.6023 -2.1204 0.9667
6.2164 3.4117 -1.8360 0.9711
4.0290 4.6711 -1.5972 0.9748
3.4750 4.8425 -1.5432 0.9757
2.9782 5.0464 -1.5172 0.9761
2.0627 5.5712 -1.5382 0.9758
0.5517 6.3443 -1.6488 0.9740
-0.0169 6.6336 -1.7176 0.9730
-1.3373 7.3030 -1.9223 0.9698
-2.3520 8.4854 -2.2799 0.9643
-3.7054 7.6912 -2.2105 0.9653
-5.3277 6.1136 -2.0996 0.9670
-2.3057 2.2122 -0.8273 0.9869
-6.5804 5.2716 -2.1831 0.9658
-7.1539 3.8790 -2.1070 0.9669
-7.3432 3.1704 -2.0709 0.9675
-7.4699 2.4613 -2.0364 0.9680
-7.5363 1.7567 -2.0036 0.9685
-7.4974 0.3785 -1.9437 0.9695
-7.2476 -0.9337 -1.8921 0.9703
-6.8087 -2.1562 -1.8492 0.9709
-6.5250 -2.7278 -1.8311 0.9712
-5.4474 -4.2613 -1.7907 0.9718
-4.5643 -5.1167 -1.7753 0.9721
-4.0802 -5.4902 -1.7711 0.9721
-3.5705 -5.8259 -1.7692 0.9722
-3.0376 -6.1224 -1.7696 0.9722
-2.4834 -6.3787 -1.7723 0.9721
-1.9102 -6.5935 -1.7774 0.9720
-1.3201 -6.7654 -1.7847 0.9719
1.7994 -6.9393 -1.8561 0.9708
2.4384 -6.8281 -1.8772 0.9705
3.0752 -6.6653 -1.9006 0.9701
3.7064 -6.4500 -1.9261 0.9697
4.9357 -5.8583 -1.9834 0.9688
5.5251 -5.4809 -2.0150 0.9684
6.0912 -5.0488 -2.0485 0.9678
6.6288 -4.5625 -2.0836 0.9673
1.3656 -6.4510 -1.8667 0.9730
1.9547 -6.3666 -1.8854 0.9727
3.1248 -6.0546 -1.9288 0.9721
3.6990 -5.8254 -1.9535 0.9717
5.3308 -4.8403 -2.0384 0.9705
6.2885 -3.9307 -2.0994 0.9696
6.2475 -3.1685 -1.9831 0.9713
6.9333 -2.0750 -2.0488 0.9704
7.6916 0.5110 -2.1822 0.9685
7.7266 1.2122 -2.2141 0.9680
7.6922 1.9225 -2.2446 0.9676
6.8303 3.0787 -2.1210 0.9693
4.9276 4.0779 -1.8107 0.9738
4.4738 4.4311 -1.7826 0.9742
3.9634 4.6968 -1.7398 0.9748
3.4130 4.8665 -1.6827 0.9756
2.0026 5.5940 -1.6820 0.9756
0.4846 6.3698 -1.8084 0.9738
-0.0890 6.6612 -1.8859 0.9727
-1.4258 7.3375 -2.1161 0.9694
-2.2012 7.6203 -2.2455 0.9676
-2.8329 7.2934 -2.2150 0.9680
-3.4221 6.9110 -2.1832 0.9684
-3.9642 6.4795 -2.1504 0.9689
-6.0371 4.7302 -2.1712 0.9686
-6.5708 3.4715 -2.1038 0.9696
-6.8657 2.1802 -2.0393 0.9705
-6.4892 -1.5072 -1.8860 0.9727
-6.0036 -2.5865 -1.8506 0.9732
-5.7039 -3.0871 -1.8361 0.9734
-5.3695 -3.5592 -1.8237 0.9736
-4.6053 -4.4117 -1.8054 0.9738
-3.7286 -5.1321 -1.7958 0.9740
-2.2398 -5.9423 -1.7978 0.9739
-1.7058 -6.1354 -1.8028 0.9739
-1.1565 -6.2881 -1.8100 0.9738
1.7346 -6.4036 -1.8782 0.9728
2.3231 -6.2896 -1.8981 0.9725
4.0526 -5.6567 -1.9699 0.9715
4.6046 -5.3469 -1.9976 0.9711
5.1375 -4.9874 -2.0270 0.9707
6.1147 -3.3621 -1.9754 0.9714
2.3090 -1.0130 -0.7138 0.9896
6.8185 -2.2911 -2.0363 0.9705
7.3515 -1.0780 -2.1034 0.9696
7.7215 0.9487 -2.2023 0.9682
7.7134 1.6565 -2.2334 0.9677
7.6343 2.3684 -2.2628 0.9673
6.3794 3.3162 -2.0354 0.9706
5.7261 3.6596 -1.9238 0.9721
5.1357 3.9690 -1.8375 0.9734
3.1171 5.0197 -1.6727 0.9757
2.1798 5.5030 -1.6756 0.9757
1.7020 5.7482 -1.6971 0.9754
0.1311 6.5495 -1.8545 0.9731
-0.4758 6.8573 -1.9459 0.9718
-0.9845 6.1573 -1.7652 0.9744
-3.2072 7.0600 -2.1952 0.9683
-4.2782 6.1872 -2.1295 0.9692
-4.7369 5.6899 -2.0959 0.9697
-5.1415 5.1607 -2.0623 0.9702
-5.4909 4.6059 -2.0289 0.9706
-6.6879 3.0682 -2.0830 0.9699
-6.8279 2.4218 -2.0509 0.9703
-6.5619 -1.2951 -1.8935 0.9726
-5.8201 -2.9032 -1.8412 0.9733
-5.1434 -3.8397 -1.8170 0.9737
-3.4336 -5.3288 -1.7946 0.9740
-2.9445 -5.6133 -1.7944 0.9740
-2.4350 -5.8600 -1.7965 0.9740
-1.9073 -6.0680 -1.8007 0.9739
-1.3634 -6.2358 -1.8070 0.9738
-0.2366 -6.4468 -1.8263 0.9735
0.9261 -6.4837 -1.8541 0.9731
1.5144 -6.4341 -1.8712 0.9729
2.6900 -6.1938 -1.9116 0.9723
3.2708 -6.0013 -1.9349 0.9720
3.8422 -5.7597 -1.9600 0.9716
6.3433 -3.0392 -1.9912 0.9712
6.6973 -2.5020 -2.0239 0.9707
7.2678 -1.3147 -2.0908 0.9698
7.4743 -0.6721 -2.1245 0.9693
7.7068 0.6869 -2.1904 0.9683
7.7246 1.3911 -2.2219 0.9679
5.9618 3.5358 -1.9622 0.9716
5.3502 3.8567 -1.8671 0.9730
3.8379 4.7620 -1.7314 0.9749
2.8237 5.1713 -1.6680 0.9758
1.6680 3.8325 -1.1833 0.9828
0.7112 3.0109 -0.8758 0.9872
0.4489 3.1250 -0.8937 0.9870
0.3441 6.4412 -1.8261 0.9735
-0.7587 6.0290 -1.7202 0.9751
-2.9860 7.2018 -2.2071 0.9681
-3.5636 6.8064 -2.1750 0.9686
-4.0933 6.3635 -2.1420 0.9690
-4.5717 5.8798 -2.1085 0.9695
-6.4011 3.9490 -2.1292 0.9692
-6.8869 2.0171 -2.0316 0.9706
-6.9334 0.7402 -1.9740 0.9714
-6.8795 0.1175 -1.9478 0.9718
-6.7771 -0.4902 -1.9236 0.9721
-6.2034 -2.1948 -1.8628 0.9730
-5.9313 -2.7155 -1.8467 0.9732
-5.6227 -3.2091 -1.8327 0.9734
-5.2798 -3.6738 -1.8209 0.9736
-4.9050 -4.1080 -1.8112 0.9738
-4.0683 -4.8790 -1.7984 0.9739
-3.6107 -5.2131 -1.7952 0.9740
-3.1298 -5.5113 -1.7942 0.9740
-2.6277 -5.7723 -1.7954 0.9740
-1.5684 -6.1779 -1.8044 0.9739
0.1246 -6.4775 -1.8341 0.9734
0.7071 -6.4904 -1.8483 0.9732
1.2943 -6.4581 -1.8646 0.9730
2.4713 -6.2532 -1.9035 0.9724
3.0546 -6.0790 -1.9260 0.9721
3.6300 -5.8558 -1.9504 0.9718
5.2685 -4.8887 -2.0347 0.9706
5.7711 -4.4673 -2.0660 0.9701
6.2376 -3.9933 -2.0967 0.9697
6.8968 -2.1456 -2.0447 0.9704
7.1764 -1.5470 -2.0783 0.9699
7.5741 -0.2558 -2.1454 0.9690
7.6828 0.4270 -2.1783 0.9685
7.7002 1.8362 -2.2410 0.9676
7.6028 2.5480 -2.2700 0.9672
5.5718 3.7405 -1.8998 0.9725
4.9944 4.0430 -1.8191 0.9736
4.5374 4.3979 -1.7889 0.9741
3.4707 4.8366 -1.6853 0.9756
2.5309 5.3223 -1.6684 0.9758
2.0602 5.5644 -1.6798 0.9756
0.5174 2.9088 -0.8364 0.9878
0.5510 6.3360 -1.8004 0.9739
-2.1221 7.6559 -2.2490 0.9675
-2.7586 7.3361 -2.2188 0.9679
-4.8443 5.5589 -2.0874 0.9698
-2.3052 2.2117 -0.9044 0.9868
-5.9942 4.8021 -2.1743 0.9686
-6.5456 3.5492 -2.1079 0.9695
-6.9407 0.9761 -1.9842 0.9713
-6.9054 0.3486 -1.9574 0.9717
-6.5134 -1.4388 -1.8884 0.9727
-6.0374 -2.5240 -1.8525 0.9732
-5.7421 -3.0279 -1.8377 0.9734
-5.4118 -3.5036 -1.8251 0.9736
-5.0487 -3.9494 -1.8146 0.9737
-4.6550 -4.3637 -1.8063 0.9738
-4.2329 -4.7452 -1.8001 0.9739
-3.7846 -5.0924 -1.7961 0.9740
-1.7713 -6.1142 -1.8021 0.9739
-1.2238 -6.2718 -1.8090 0.9738
-0.6630 -6.3878 -1.8181 0.9737
0.4887 -6.4909 -1.8427 0.9733
1.6632 -6.4142 -1.8759 0.9728
2.2519 -6.3060 -1.8956 0.9725
2.8374 -6.1498 -1.9173 0.9722
3.4162 -5.9450 -1.9411 0.9719
4.5387 -5.3871 -1.9942 0.9711
5.0741 -5.0336 -2.0233 0.9707
0.1812 -6.0293 -1.8553 0.9751
0.7233 -6.0329 -1.8689 0.9749
1.2688 -5.9939 -1.8844 0.9747
2.3586 -5.7843 -1.9213 0.9742
3.4256 -5.3948 -1.9656 0.9736
5.3754 -4.0688 -2.0736 0.9722
5.7459 -2.9141 -1.9816 0.9734
2.3202 -0.9269 -0.7685 0.9896
6.3597 -1.9033 -2.0418 0.9726
6.6016 -1.3486 -2.0725 0.9722
6.7946 -0.7658 -2.1031 0.9718
6.9344 -0.1591 -2.1334 0.9714
7.0005 1.7496 -2.2194 0.9703
6.7256 3.0315 -2.2691 0.9696
6.1177 3.4441 -2.1594 0.9710
4.9211 4.0725 -1.9647 0.9736
3.4088 4.8604 -1.8260 0.9755
2.0001 5.5871 -1.8253 0.9755
0.8591 3.3024 -1.0495 0.9858
0.4839 6.3613 -1.9622 0.9737
-2.0032 6.9348 -2.2202 0.9702
-4.4833 5.0338 -2.0734 0.9722
-2.3264 2.1842 -0.9815 0.9867
-5.1500 4.0351 -2.0123 0.9730
-6.0508 3.1967 -2.1049 0.9718
-6.2206 2.6063 -2.0745 0.9722
-6.1884 -0.8654 -1.9219 0.9742
-6.0250 -1.3994 -1.9025 0.9744
-5.8220 -1.9132 -1.8849 0.9747
-5.5816 -2.4047 -1.8693 0.9749
-5.3059 -2.8716 -1.8557 0.9751
-3.8937 -4.4611 -1.8213 0.9755
-3.4737 -4.7813 -1.8178 0.9756
-2.5681 -5.3198 -1.8169 0.9756
-2.0866 -5.5358 -1.8196 0.9755
-1.5888 -5.7145 -1.8243 0.9755
-1.0769 -5.8551 -1.8311 0.9754
-0.5532 -5.9563 -1.8399 0.9753
1.0647 -6.0135 -1.8784 0.9748
1.6110 -5.9473 -1.8952 0.9745
2.1559 -5.8370 -1.9139 0.9743
3.2292 -5.4815 -1.9568 0.9737
5.6142 -3.0869 -1.9706 0.9735
6.2575 -2.1026 -2.0304 0.9728
6.7285 -0.9866 -2.0917 0.9719
6.9427 2.1539 -2.2358 0.9700
3.1133 5.0135 -1.8152 0.9756
2.1771 5.4962 -1.8183 0.9756
0.5824 2.8942 -0.9080 0.9877
-0.4751 6.8474 -2.1112 0.9717
-0.9827 6.1458 -1.9143 0.9743
-1.7786 7.0288 -2.2301 0.9701
-2.3693 6.7598 -2.2032 0.9705
-2.9246 6.4379 -2.1749 0.9708
-3.4398 6.0683 -2.1455 0.9712
-3.9115 5.6569 -2.1154 0.9716
-4.3368 5.2092 -2.0848 0.9720
-4.7136 4.7311 -2.0541 0.9724
-5.9736 3.4155 -2.1165 0.9716
-6.1633 2.8276 -2.0857 0.9720
-6.4193 1.0509 -2.0007 0.9731
-6.4052 0.4684 -1.9754 0.9735
-6.3443 -0.1034 -1.9516 0.9738
-6.2388 -0.6611 -1.9297 0.9741
-6.0908 -1.2021 -1.9095 0.9744
-5.9023 -1.7237 -1.8913 0.9746
-5.4129 -2.7001 -1.8605 0.9750
-4.4299 -3.9689 -1.8294 0.9754
-4.0444 -4.3331 -1.8231 0.9755
-3.6334 -4.6655 -1.8188 0.9756
-2.7434 -5.2299 -1.8165 0.9756
-2.2685 -5.4593 -1.8184 0.9756
-0.2202 -5.9992 -1.8465 0.9752
0.8609 -6.0271 -1.8726 0.9748
1.4068 -5.9772 -1.8887 0.9746
1.9526 -5.8834 -1.9067 0.9744
5.8321 -2.7943 -1.9891 0.9733
6.1494 -2.2973 -2.0191 0.9729
6.6552 -1.2039 -2.0802 0.9721
6.8351 -0.6146 -2.1108 0.9717
7.0290 0.6265 -2.1705 0.9709
7.0363 1.2671 -2.1990 0.9705
5.3428 3.8514 -2.0258 0.9728
3.2892 4.9224 -1.8209 0.9755
2.8202 5.1649 -1.8100 0.9757
1.8796 5.6489 -1.8311 0.9754
-0.2417 6.7294 -2.0711 0.9722
-2.1525 6.8668 -2.2134 0.9703
-3.2522 6.2116 -2.1566 0.9711
-3.7405 5.8152 -2.1267 0.9715
-2.4055 2.1586 -0.9941 0.9866
-6.2551 2.4564 -2.0670 0.9723
-6.4122 1.2707 -2.0106 0.9730
-6.4160 0.6850 -1.9846 0.9734
-6.3724 0.1088 -1.9603 0.9737
-5.9773 -1.5312 -1.8979 0.9745
-5.5152 -2.5250 -1.8657 0.9749
-4.9142 -3.4194 -1.8414 0.9753
-4.1916 -4.2006 -1.8252 0.9755
-3.7898 -4.5451 -1.8202 0.9755
-2.4481 -5.3778 -1.8174 0.9756
-1.9623 -5.5845 -1.8206 0.9755
-0.4193 -5.9755 -1.8425 0.9752
0.1159 -6.0260 -1.8538 0.9751
2.2930 -5.8020 -1.9189 0.9742
3.3621 -5.4236 -1.9627 0.9736
4.8642 -4.5135 -2.0410 0.9726
5.3218 -4.1196 -2.0700 0.9722
5.7424 -3.6762 -2.0972 0.9719
5.7038 -2.9707 -1.9780 0.9734
2.3017 -0.9485 -0.7657 0.9896
6.3272 -1.9684 -2.0381 0.9727
7.0105 0.3897 -2.1596 0.9710
7.0408 1.0268 -2.1885 0.9707
6.9121 2.3165 -2.2422 0.9700
6.7497 2.9550 -2.2663 0.9696
4.9877 4.0376 -1.9738 0.9735
4.0189 4.6594 -1.8926 0.9746
3.4664 4.8306 -1.8287 0.9754
1.8261 3.8401 -1.3079 0.9824
-0.0168 6.6154 -2.0348 0.9727
-0.5593 6.0736 -1.8760 0.9748
-1.3170 7.1923 -2.2490 0.9699
-1.9309 6.9661 -2.2234 0.9702
-2.5131 6.6833 -2.1962 0.9706
-4.0234 5.5470 -2.1077 0.9717
-4.4366 5.0911 -2.0771 0.9721
-2.3054 2.2119 -0.9827 0.9867
-5.7965 3.8487 -2.1401 0.9713
-6.0266 3.2678 -2.1086 0.9717
-6.3941 0.3228 -1.9692 0.9736
-6.3218 -0.2457 -1.9459 0.9739
-6.2054 -0.7995 -1.9244 0.9742
-5.6126 -2.3464 -1.8711 0.9749
-5.3411 -2.8165 -1.8572 0.9750
-5.0363 -3.2605 -1.8453 0.9752
-4.7002 -3.6768 -1.8355 0.9753
-3.5258 -4.7443 -1.8181 0.9756
-3.0859 -5.0351 -1.8164 0.9756
-2.1458 -5.5116 -1.8192 0.9756
0.4545 -6.0364 -1.8619 0.9750
1.5448 -5.9576 -1.8930 0.9746
2.0901 -5.8527 -1.9115 0.9743
3.1652 -5.5081 -1.9540 0.9738
3.6883 -5.2676 -1.9779 0.9734
4.6867 -4.6492 -2.0305 0.9728
5.1540 -4.2720 -2.0590 0.9724
5.5941 -3.8503 -2.0888 0.9720
0.1692 -5.6309 -1.8726 0.9765
0.6752 -5.6317 -1.8854 0.9764
1.1838 -5.5921 -1.9000 0.9762
1.6922 -5.5116 -1.9165 0.9760
2.1976 -5.3895 -1.9347 0.9758
2.6968 -5.2253 -1.9546 0.9755
3.6639 -4.7697 -1.9992 0.9750
4.5652 -4.1451 -2.0497 0.9743
5.3569 -3.3484 -2.0999 0.9737
5.3133 -2.6947 -1.9803 0.9752
2.3219 -0.9276 -0.8311 0.9895
5.8675 -1.7560 -2.0358 0.9745
6.4447 0.4282 -2.1470 0.9731
6.4155 1.6034 -2.1981 0.9725
6.3135 2.1921 -2.2216 0.9722
