ply
format ascii 1.0
element vertex 1596
property float32 x
property float32 y
property float32 z
property float32 I
end_header
-0.7438 5.1204 -1.8503 0.9783
-2.0713 4.7374 -1.8490 0.9783
-2.8787 4.2920 -1.8481 0.9783
-3.8814 4.0076 -1.9951 0.9766
-4.8110 2.8414 -1.9981 0.9765
-5.0444 2.4006 -1.9978 0.9765
-5.3890 1.4658 -1.9972 0.9766
-5.5593 -0.5110 -1.9964 0.9766
-5.4914 -1.0047 -1.9964 0.9766
-5.3798 -1.4905 -1.9963 0.9766
-5.2254 -1.9643 -1.9963 0.9766
-4.2096 -3.6683 -1.9967 0.9766
-3.8660 -4.0295 -1.9970 0.9766
-3.4917 -4.3588 -1.9972 0.9766
-3.0895 -4.6535 -1.9975 0.9766
-2.6625 -4.9113 -1.9978 0.9765
-2.2143 -5.1301 -1.9982 0.9765
-1.7483 -5.3081 -1.9985 0.9765
-0.7777 -5.5366 -1.9993 0.9765
-0.2809 -5.5851 -1.9998 0.9765
0.2184 -5.5892 -2.0002 0.9765
0.7162 -5.5487 -2.0007 0.9765
1.2085 -5.4640 -2.0012 0.9765
1.6914 -5.3357 -2.0017 0.9765
2.1610 -5.1649 -2.0022 0.9765
3.0457 -4.7010 -2.0031 0.9765
3.4536 -4.4116 -2.0036 0.9765
4.7822 -2.9279 -2.0052 0.9765
5.0251 -2.4902 -2.0056 0.9765
5.2280 -2.0324 -2.0059 0.9765
5.3892 -1.5583 -2.0062 0.9765
5.6113 -0.0760 -2.0068 0.9764
5.5961 0.4247 -2.0069 0.9764
5.0945 2.3548 -2.0071 0.9764
4.8640 2.7997 -2.0070 0.9764
3.9484 3.9865 -2.0065 0.9764
3.5767 4.3222 -2.0062 0.9764
2.1945 4.8700 -1.9102 0.9776
1.2551 5.0248 -1.8521 0.9782
0.8017 5.1157 -1.8517 0.9782
0.3422 5.1656 -1.8513 0.9782
-0.5807 5.1419 -1.8505 0.9783
-1.0367 5.0684 -1.8500 0.9783
-1.4843 4.9545 -1.8496 0.9783
-1.9198 4.8013 -1.8491 0.9783
-4.1126 3.7847 -1.9987 0.9765
-4.4336 3.4027 -1.9986 0.9765
-4.9658 2.5599 -1.9979 0.9765
-5.1735 2.1065 -1.9976 0.9765
-5.4639 1.1535 -1.9970 0.9766
-5.5444 0.6616 -1.9968 0.9766
-5.5808 0.1644 -1.9966 0.9766
-5.5729 -0.3340 -1.9965 0.9766
-5.5206 -0.8296 -1.9964 0.9766
-5.2852 -1.7972 -1.9963 0.9766
-4.8821 -2.7077 -1.9964 0.9766
-4.6214 -3.1325 -1.9965 0.9766
-3.6284 -4.2454 -1.9971 0.9766
-3.2357 -4.5527 -1.9974 0.9766
-2.8172 -4.8239 -1.9977 0.9765
-2.3762 -5.0567 -1.9980 0.9765
-1.4405 -5.4005 -1.9988 0.9765
-0.9533 -5.5086 -1.9992 0.9765
-0.4583 -5.5729 -1.9996 0.9765
0.0405 -5.5928 -2.0001 0.9765
0.5393 -5.5682 -2.0005 0.9765
2.8944 -4.7951 -2.0029 0.9765
3.3113 -4.5189 -2.0034 0.9765
4.6864 -3.0783 -2.0051 0.9765
4.9431 -2.6486 -2.0054 0.9765
5.3367 -1.7288 -2.0061 0.9765
5.5603 -0.7533 -2.0066 0.9764
5.6066 0.2466 -2.0069 0.9764
5.5626 0.7457 -2.0070 0.9764
5.4741 1.2389 -2.0071 0.9764
5.1669 2.1917 -2.0071 0.9764
4.4017 3.4807 -2.0067 0.9764
4.0733 3.8590 -2.0066 0.9764
3.3221 4.5202 -2.0061 0.9765
2.9023 4.7928 -2.0037 0.9765
1.4143 4.9827 -1.8522 0.9782
-0.8751 5.0992 -1.8502 0.9783
-2.1922 4.6823 -1.8489 0.9783
-2.9959 4.2278 -1.8530 0.9782
-3.5876 4.2097 -1.9779 0.9768
-3.9862 3.9096 -1.9967 0.9766
-4.3235 3.5422 -1.9988 0.9765
-5.2855 1.8055 -1.9974 0.9766
-5.5208 0.8376 -1.9969 0.9766
-5.5730 0.3418 -1.9967 0.9766
-5.5808 -0.1566 -1.9965 0.9766
-5.3397 -1.6282 -1.9963 0.9766
-5.1732 -2.0979 -1.9963 0.9766
-4.7186 -2.9839 -1.9965 0.9766
-4.4340 -3.3931 -1.9966 0.9766
-4.1141 -3.7754 -1.9968 0.9766
-3.7614 -4.1277 -1.9970 0.9766
-2.9690 -4.7316 -1.9976 0.9765
-2.5356 -4.9783 -1.9979 0.9765
-2.0819 -5.1855 -1.9983 0.9765
-1.1279 -5.4751 -1.9990 0.9765
-0.6352 -5.5551 -1.9995 0.9765
-0.1373 -5.5908 -1.9999 0.9765
1.8280 -5.2909 -2.0018 0.9765
2.2932 -5.1080 -2.0023 0.9765
3.1657 -4.6215 -2.0032 0.9765
3.5661 -4.3217 -2.0037 0.9765
4.2790 -3.6210 -2.0046 0.9765
4.8561 -2.8042 -2.0053 0.9765
5.5333 -0.9297 -2.0065 0.9764
5.6115 0.0682 -2.0069 0.9764
5.5107 1.0641 -2.0071 0.9764
5.3939 1.5514 -2.0071 0.9764
5.2340 2.0263 -2.0071 0.9764
5.0323 2.4849 -2.0070 0.9764
4.5103 3.3391 -2.0068 0.9764
4.1941 3.7277 -2.0066 0.9764
3.8445 4.0865 -2.0064 0.9764
3.4643 4.4125 -2.0062 0.9765
1.1255 5.0551 -1.8520 0.9782
0.6700 5.1342 -1.8516 0.9782
-0.2527 5.1693 -1.8508 0.9783
-1.1665 5.0397 -1.8499 0.9783
-2.8524 4.3096 -1.8481 0.9783
-3.3676 4.2160 -1.9296 0.9773
-4.2090 3.6782 -1.9989 0.9765
-4.5193 3.2875 -1.9985 0.9765
-4.7936 2.8708 -1.9981 0.9765
-5.3800 1.4987 -1.9972 0.9766
-5.4916 1.0127 -1.9969 0.9766
-5.5831 0.0210 -1.9966 0.9766
-5.3888 -1.4576 -1.9963 0.9766
-5.2373 -1.9324 -1.9963 0.9766
-4.8110 -2.8323 -1.9964 0.9766
-3.8906 -4.0058 -1.9969 0.9766
-2.2456 -5.1164 -1.9981 0.9765
-0.8115 -5.5316 -1.9993 0.9765
0.1842 -5.5903 -2.0002 0.9765
0.6823 -5.5529 -2.0007 0.9765
1.1751 -5.4712 -2.0012 0.9765
2.5833 -4.9685 -2.0026 0.9765
3.8091 -4.1102 -2.0040 0.9765
4.4806 -3.3695 -2.0048 0.9765
4.7642 -2.9570 -2.0052 0.9765
5.0098 -2.5208 -2.0055 0.9765
5.2155 -2.0643 -2.0059 0.9765
5.3796 -1.5911 -2.0062 0.9765
5.5780 -0.6102 -2.0066 0.9764
5.5985 0.3905 -2.0069 0.9764
5.4405 1.3791 -2.0071 0.9764
4.6143 3.1941 -2.0069 0.9764
4.3107 3.5926 -2.0067 0.9764
3.2047 4.6039 -2.0060 0.9765
2.7753 4.8608 -2.0016 0.9765
1.2857 5.0171 -1.8521 0.9782
-0.0882 5.1751 -1.8509 0.9783
-1.8904 4.8130 -1.8492 0.9783
-2.3116 4.6241 -1.8487 0.9783
-4.0886 3.8090 -1.9983 0.9765
-4.4128 3.4298 -1.9986 0.9765
-4.7002 3.0220 -1.9983 0.9765
-5.1606 2.1381 -1.9976 0.9765
-5.3299 1.6691 -1.9973 0.9766
-5.5403 0.6954 -1.9968 0.9766
-5.5798 0.1985 -1.9966 0.9766
-5.5748 -0.2999 -1.9965 0.9766
-5.5256 -0.7959 -1.9964 0.9766
-5.2961 -1.7648 -1.9963 0.9766
-4.8985 -2.6778 -1.9964 0.9766
-4.6405 -3.1042 -1.9965 0.9766
-4.3454 -3.5060 -1.9967 0.9766
-4.0158 -3.8799 -1.9969 0.9766
-3.6542 -4.2231 -1.9971 0.9766
-3.2634 -4.5328 -1.9974 0.9766
-1.9481 -5.2376 -1.9984 0.9765
-1.4734 -5.3915 -1.9988 0.9765
-0.4923 -5.5699 -1.9996 0.9765
0.0064 -5.5929 -2.0001 0.9765
0.5053 -5.5713 -2.0005 0.9765
1.4878 -5.3955 -2.0015 0.9765
1.9635 -5.2425 -2.0020 0.9765
2.8650 -4.8126 -2.0029 0.9765
3.2836 -4.5389 -2.0034 0.9765
3.6762 -4.2289 -2.0038 0.9765
5.3260 -1.7613 -2.0061 0.9765
5.4626 -1.2795 -2.0063 0.9764
5.6042 -0.2887 -2.0067 0.9764
5.6080 0.2123 -2.0069 0.9764
5.1802 2.1601 -2.0071 0.9764
4.9667 2.6134 -2.0070 0.9764
4.7136 3.0458 -2.0069 0.9764
4.4229 3.4538 -2.0068 0.9764
3.7381 4.1837 -2.0063 0.9764
3.3497 4.4999 -2.0061 0.9765
2.9322 4.7762 -2.0042 0.9765
1.4448 4.9741 -1.8523 0.9782
0.9952 5.0821 -1.8519 0.9782
0.0764 5.1757 -1.8511 0.9783
-0.8440 5.1046 -1.8502 0.9783
-1.2955 5.0078 -1.8498 0.9783
-1.7366 4.8711 -1.8493 0.9783
-2.1636 4.6957 -1.8489 0.9783
-2.9620 4.2346 -1.8480 0.9783
-4.6021 3.1701 -1.9984 0.9765
-5.2744 1.8378 -1.9974 0.9766
-5.4166 1.3599 -1.9971 0.9766
-5.5156 0.8713 -1.9969 0.9766
-5.5708 0.3758 -1.9967 0.9766
-5.5817 -0.1225 -1.9965 0.9766
-5.5482 -0.6198 -1.9964 0.9766
-5.3495 -1.5955 -1.9963 0.9766
-4.9811 -2.5207 -1.9964 0.9766
-4.7367 -2.9550 -1.9965 0.9766
-4.4546 -3.3659 -1.9966 0.9766
-3.7865 -4.1046 -1.9970 0.9766
-3.4058 -4.4265 -1.9973 0.9766
-2.1135 -5.1727 -1.9982 0.9765
-1.1613 -5.4680 -1.9990 0.9765
0.3278 -5.5841 -2.0003 0.9765
0.8248 -5.5339 -2.0008 0.9765
2.2619 -5.1218 -2.0023 0.9765
3.1373 -4.6407 -2.0032 0.9765
4.5659 -3.2535 -2.0049 0.9765
4.8388 -2.8338 -2.0053 0.9765
5.0731 -2.3914 -2.0056 0.9765
5.2670 -1.9297 -2.0060 0.9765
5.5275 -0.9635 -2.0065 0.9764
5.5920 -0.4667 -2.0067 0.9764
5.5867 0.5343 -2.0070 0.9764
5.2463 1.9943 -2.0071 0.9764
4.2168 3.7020 -2.0066 0.9764
3.4912 4.3913 -2.0062 0.9764
1.1563 5.0482 -1.8520 0.9782
-0.0963 -5.2183 -2.0001 0.9779
0.3696 -5.2072 -2.0005 0.9779
0.8327 -5.1546 -2.0009 0.9779
1.7360 -4.9268 -2.0018 0.9779
4.0132 -3.3542 -2.0044 0.9778
4.2972 -2.9835 -2.0048 0.9778
4.5469 -2.5888 -2.0051 0.9778
4.7605 -2.1733 -2.0054 0.9778
4.9360 -1.7403 -2.0057 0.9778
5.1679 -0.8359 -2.0062 0.9778
5.2224 -0.3717 -2.0064 0.9778
5.2351 0.0956 -2.0065 0.9778
5.2060 0.5621 -2.0066 0.9778
5.1353 1.0242 -2.0067 0.9778
4.8717 1.9203 -2.0067 0.9778
4.1890 3.1410 -2.0065 0.9778
3.5636 3.8346 -2.0061 0.9778
3.2071 4.1366 -2.0058 0.9778
1.4425 4.6262 -1.8570 0.9795
1.0213 4.7231 -1.8518 0.9795
0.5959 4.7944 -1.8514 0.9795
0.1659 4.8275 -1.8511 0.9795
-0.6941 4.7780 -1.8503 0.9795
-1.1172 4.6960 -1.8498 0.9795
-1.9329 4.4209 -1.8490 0.9795
-2.8218 4.2072 -1.9413 0.9785
-4.2364 3.0422 -1.9987 0.9779
-4.4900 2.6518 -1.9983 0.9779
-4.8882 1.8114 -1.9977 0.9779
-5.2109 -0.0123 -1.9969 0.9779
-5.1887 -0.4769 -1.9968 0.9779
-5.0211 -1.3911 -1.9967 0.9779
-4.6942 -2.2611 -1.9967 0.9779
-4.2183 -3.0594 -1.9969 0.9779
-2.0666 -4.7878 -1.9984 0.9779
-1.6316 -4.9539 -1.9987 0.9779
-1.1835 -5.0806 -1.9991 0.9779
-0.7258 -5.1669 -1.9995 0.9779
-0.2621 -5.2122 -1.9999 0.9779
1.5783 -4.9792 -2.0017 0.9779
2.0166 -4.8196 -2.0021 0.9779
2.8420 -4.3866 -2.0030 0.9779
3.2226 -4.1165 -2.0034 0.9779
4.1999 -3.1184 -2.0046 0.9778
4.6887 -2.3235 -2.0053 0.9778
4.8780 -1.8963 -2.0056 0.9778
5.0283 -1.4539 -2.0059 0.9778
5.2354 -0.0709 -2.0065 0.9778
5.1652 0.8604 -2.0067 0.9778
4.7532 2.1971 -2.0067 0.9778
4.5381 2.6121 -2.0066 0.9778
4.2868 3.0063 -2.0065 0.9778
3.6839 3.7195 -2.0062 0.9778
2.1427 4.7550 -1.9987 0.9779
0.3193 4.8201 -1.8512 0.9795
-0.1118 4.8283 -1.8508 0.9795
-0.5419 4.7981 -1.8504 0.9795
-0.9674 4.7296 -1.8500 0.9795
-1.3851 4.6234 -1.8496 0.9795
-2.6347 4.2119 -1.9039 0.9789
-3.8388 3.5327 -1.9992 0.9779
-4.4037 2.7934 -1.9985 0.9779
-5.2087 0.1534 -1.9970 0.9779
-5.2013 -0.3117 -1.9968 0.9779
-5.0629 -1.2307 -1.9967 0.9779
-4.7637 -2.1106 -1.9967 0.9779
-3.7259 -3.6441 -1.9972 0.9779
-3.3864 -3.9623 -1.9974 0.9779
-1.3444 -5.0401 -1.9990 0.9779
-0.4277 -5.2008 -1.9998 0.9779
0.0378 -5.2193 -2.0002 0.9779
0.9649 -5.1318 -2.0011 0.9779
1.4191 -5.0264 -2.0015 0.9779
1.8622 -4.8809 -2.0020 0.9779
3.0898 -4.2166 -2.0033 0.9779
4.3727 -2.8723 -2.0049 0.9778
4.6122 -2.4712 -2.0052 0.9778
4.8149 -2.0504 -2.0055 0.9778
5.2310 0.2301 -2.0066 0.9778
4.9839 1.6068 -2.0067 0.9778
4.8207 2.0448 -2.0067 0.9778
4.6190 2.4666 -2.0066 0.9778
4.3804 2.8685 -2.0065 0.9778
4.1068 3.2475 -2.0064 0.9778
3.8005 3.6006 -2.0062 0.9778
3.4638 3.9247 -2.0060 0.9778
3.0996 4.2175 -2.0058 0.9778
2.7107 4.4765 -2.0055 0.9778
2.2952 4.6893 -2.0008 0.9779
1.8067 4.7156 -1.9352 0.9786
0.8996 4.7475 -1.8517 0.9795
0.4725 4.8079 -1.8513 0.9795
0.0418 4.8298 -1.8509 0.9795
-1.2375 4.6655 -1.8497 0.9795
-2.9783 4.2030 -1.9741 0.9782
-3.7248 3.6532 -1.9993 0.9779
-4.0350 3.3058 -1.9990 0.9779
-4.3129 2.9322 -1.9986 0.9779
-5.0630 1.2383 -1.9974 0.9779
-5.2087 -0.1461 -1.9969 0.9779
-5.1747 -0.6101 -1.9968 0.9779
-4.9837 -1.5196 -1.9967 0.9779
-4.8284 -1.9581 -1.9967 0.9779
-3.8397 -3.5236 -1.9971 0.9779
-3.1533 -4.1507 -1.9976 0.9779
-1.9430 -4.8396 -1.9985 0.9779
-1.0526 -5.1096 -1.9992 0.9779
-0.5928 -5.1842 -1.9996 0.9779
0.3378 -5.2092 -2.0005 0.9779
0.8012 -5.1595 -2.0009 0.9779
1.2584 -5.0686 -2.0014 0.9779
1.7059 -4.9373 -2.0018 0.9779
2.1399 -4.7665 -2.0023 0.9779
2.5570 -4.5577 -2.0027 0.9779
2.9540 -4.3124 -2.0031 0.9779
3.3275 -4.0326 -2.0036 0.9779
3.6747 -3.7206 -2.0040 0.9778
4.7471 -2.2023 -2.0054 0.9778
5.0642 -1.3243 -2.0059 0.9778
5.1627 -0.8674 -2.0062 0.9778
5.2093 0.5303 -2.0066 0.9778
5.1414 0.9928 -2.0067 0.9778
4.8833 1.8905 -2.0067 0.9778
4.6952 2.3185 -2.0067 0.9778
3.5870 3.8128 -2.0061 0.9778
2.8518 4.3883 -2.0056 0.9778
2.0089 4.7825 -1.9879 0.9780
-1.0885 4.7029 -1.8499 0.9795
-1.9059 4.4327 -1.8490 0.9795
-4.2178 3.0681 -1.9987 0.9779
-4.4738 2.6792 -1.9984 0.9779
-5.0212 1.3987 -1.9975 0.9779
-5.2109 0.0196 -1.9969 0.9779
-5.1915 -0.4452 -1.9968 0.9779
-4.7079 -2.2324 -1.9967 0.9779
-4.4903 -2.6435 -1.9968 0.9779
-4.2369 -3.0336 -1.9969 0.9779
-3.9497 -3.3996 -1.9971 0.9779
-3.2836 -4.0481 -1.9975 0.9779
-2.9098 -4.3254 -1.9977 0.9779
-1.6618 -4.9438 -1.9987 0.9779
-0.7573 -5.1623 -1.9995 0.9779
-0.2940 -5.2104 -1.9999 0.9779
1.5479 -4.9886 -2.0016 0.9779
1.9871 -4.8318 -2.0021 0.9779
2.4106 -4.6363 -2.0025 0.9779
3.5542 -3.8352 -2.0038 0.9779
4.1807 -3.1440 -2.0046 0.9778
4.4452 -2.7591 -2.0050 0.9778
4.6744 -2.3520 -2.0053 0.9778
4.8662 -1.9261 -2.0056 0.9778
5.0193 -1.4846 -2.0059 0.9778
5.1323 -1.0311 -2.0061 0.9778
5.2043 -0.5693 -2.0063 0.9778
5.2348 -0.1029 -2.0065 0.9778
5.1704 0.8288 -2.0067 0.9778
5.0760 1.2867 -2.0067 0.9778
4.9410 1.7343 -2.0067 0.9778
4.5540 2.5844 -2.0066 0.9778
3.7066 3.6969 -2.0062 0.9778
3.3617 4.0123 -2.0059 0.9778
2.9901 4.2956 -2.0057 0.9778
2.5943 4.5439 -2.0051 0.9778
2.1721 4.7427 -1.9991 0.9779
1.6556 4.6778 -1.9016 0.9790
0.7773 4.7688 -1.8516 0.9795
-0.0823 4.8290 -1.8508 0.9795
-0.5126 4.8014 -1.8504 0.9795
-1.7641 4.4914 -1.8492 0.9795
-2.1572 4.3152 -1.8488 0.9795
-2.5996 4.2128 -1.8970 0.9790
-3.1150 4.1648 -1.9930 0.9780
-4.1183 3.2009 -1.9988 0.9779
-4.3866 2.8203 -1.9985 0.9779
-4.8164 1.9955 -1.9979 0.9779
-5.0929 1.1077 -1.9973 0.9779
-5.2077 0.1853 -1.9970 0.9779
-5.2032 -0.2799 -1.9968 0.9779
-5.0703 -1.1998 -1.9967 0.9779
-4.9430 -1.6472 -1.9967 0.9779
-4.5720 -2.4993 -1.9968 0.9779
-4.3311 -2.8972 -1.9969 0.9779
-3.7481 -3.6212 -1.9972 0.9779
-3.0458 -4.2305 -1.9977 0.9779
0.0060 -5.2194 -2.0002 0.9779
0.4715 -5.1992 -2.0006 0.9779
1.3884 -5.0349 -2.0015 0.9779
1.8323 -4.8921 -2.0019 0.9779
3.0640 -4.2354 -2.0033 0.9779
3.4302 -3.9460 -2.0037 0.9779
3.7693 -3.6251 -2.0041 0.9778
4.0783 -3.2751 -2.0045 0.9778
4.3550 -2.8989 -2.0048 0.9778
4.5969 -2.4993 -2.0052 0.9778
4.8023 -2.0797 -2.0055 0.9778
4.9693 -1.6434 -2.0058 0.9778
5.0967 -1.1938 -2.0060 0.9778
5.1834 -0.7345 -2.0062 0.9778
5.2323 0.1981 -2.0065 0.9778
5.1940 0.6640 -2.0066 0.9778
5.1143 1.1246 -2.0067 0.9778
4.9937 1.5763 -2.0067 0.9778
4.6340 2.4383 -2.0067 0.9778
4.3978 2.8417 -2.0066 0.9778
4.1266 3.2224 -2.0064 0.9778
3.4878 3.9035 -2.0060 0.9778
3.1253 4.1985 -2.0058 0.9778
2.3243 4.6762 -2.0012 0.9779
1.8443 4.7271 -1.9445 0.9785
1.3481 4.6412 -1.8521 0.9795
0.9286 4.7420 -1.8517 0.9795
0.5019 4.8050 -1.8514 0.9795
-0.3596 4.8156 -1.8506 0.9795
-1.6205 4.5456 -1.8493 0.9795
-2.0190 4.3820 -1.8489 0.9795
-2.4204 4.2169 -1.8633 0.9794
-2.9406 4.2041 -1.9661 0.9783
-3.7024 3.6759 -1.9994 0.9779
-4.5409 2.5633 -1.9983 0.9779
-4.7507 2.1477 -1.9980 0.9779
-4.9226 1.7152 -1.9977 0.9779
-5.2096 -0.1143 -1.9969 0.9779
-5.1059 -1.0379 -1.9967 0.9779
-4.9929 -1.4892 -1.9967 0.9779
-4.8402 -1.9285 -1.9967 0.9779
-4.4209 -2.7580 -1.9968 0.9779
-4.1576 -3.1415 -1.9970 0.9779
-3.8612 -3.5001 -1.9971 0.9779
-3.5340 -3.8309 -1.9973 0.9779
-2.3948 -4.6316 -1.9981 0.9779
-0.6245 -5.1804 -1.9996 0.9779
0.3059 -5.2111 -2.0004 0.9779
0.7697 -5.1642 -2.0009 0.9779
1.2274 -5.0761 -2.0013 0.9779
1.6756 -4.9475 -2.0018 0.9779
2.9275 -4.3303 -2.0031 0.9779
3.6518 -3.7429 -2.0039 0.9778
3.9719 -3.4029 -2.0043 0.9778
4.2603 -3.0357 -2.0047 0.9778
4.5149 -2.6441 -2.0051 0.9778
4.7335 -2.2313 -2.0054 0.9778
5.1573 -0.8989 -2.0062 0.9778
5.2358 0.0316 -2.0065 0.9778
5.2124 0.4985 -2.0066 0.9778
4.7092 2.2897 -2.0067 0.9778
4.2271 3.0897 -2.0065 0.9778
3.9344 3.4541 -2.0063 0.9778
3.6103 3.7908 -2.0061 0.9778
2.8786 4.3708 -2.0056 0.9778
2.4745 4.6049 -2.0033 0.9779
2.0479 4.7930 -1.9974 0.9779
1.5096 4.6410 -1.8702 0.9793
-0.0901 -4.8863 -2.0002 0.9791
1.6255 -4.6131 -2.0018 0.9791
4.0232 -2.7933 -2.0046 0.9791
4.4569 -2.0347 -2.0052 0.9790
4.9010 0.0895 -2.0062 0.9790
4.8076 0.9589 -2.0064 0.9790
4.5608 1.7978 -2.0064 0.9790
4.1686 2.5793 -2.0063 0.9790
3.9217 2.9406 -2.0061 0.9790
3.6435 3.2784 -2.0060 0.9790
3.0025 3.8728 -2.0056 0.9790
2.6448 4.1246 -2.0053 0.9790
1.8653 4.5177 -2.0004 0.9791
1.4341 4.5992 -1.9717 0.9794
0.9698 4.4847 -1.8779 0.9804
-0.2484 4.5148 -1.8506 0.9806
-0.6499 4.4737 -1.8502 0.9807
-1.0461 4.3970 -1.8498 0.9807
-1.4338 4.2853 -1.8494 0.9807
-1.8394 4.2069 -1.8792 0.9804
-2.3013 4.1976 -1.9592 0.9795
-3.0718 3.7979 -1.9992 0.9791
-3.3990 3.5096 -1.9996 0.9791
-3.6978 3.1918 -1.9992 0.9791
-3.9670 2.8488 -1.9989 0.9791
-4.2046 2.4833 -1.9986 0.9791
-4.4087 2.0980 -1.9983 0.9791
-2.1610 0.3849 -0.8984 0.9906
-1.9003 -0.0045 -0.7777 0.9918
-1.9579 -0.1800 -0.8047 0.9915
-4.7022 -1.3027 -1.9970 0.9791
-4.5673 -1.7169 -1.9970 0.9791
-4.1898 -2.5012 -1.9971 0.9791
-3.9503 -2.8651 -1.9972 0.9791
-3.6793 -3.2062 -1.9974 0.9791
-2.7002 -4.0671 -1.9980 0.9791
-2.3270 -4.2923 -1.9983 0.9791
-1.9352 -4.4834 -1.9986 0.9791
-1.5279 -4.6388 -1.9989 0.9791
-0.6796 -4.8383 -1.9996 0.9791
0.6258 -4.8485 -2.0008 0.9791
1.0559 -4.7744 -2.0013 0.9791
3.0173 -3.8543 -2.0033 0.9791
3.6554 -3.2581 -2.0041 0.9791
3.9321 -2.9196 -2.0044 0.9791
4.1775 -2.5577 -2.0048 0.9791
4.5668 -1.7754 -2.0054 0.9790
4.8107 -0.9360 -2.0058 0.9790
4.8755 -0.5032 -2.0060 0.9790
4.9013 -0.0664 -2.0062 0.9790
4.7446 1.2336 -2.0064 0.9790
4.4499 2.0569 -2.0064 0.9790
3.7460 3.1610 -2.0061 0.9790
3.4489 3.4822 -2.0059 0.9790
2.7747 4.0386 -2.0054 0.9790
1.1295 4.5222 -1.9077 0.9801
0.7004 4.4692 -1.8514 0.9806
0.2990 4.5130 -1.8511 0.9806
-0.1047 4.5207 -1.8507 0.9806
-1.2969 4.3290 -1.8496 0.9807
-1.6834 4.2102 -1.8558 0.9806
-2.5838 4.1305 -1.9940 0.9792
-3.2859 3.6161 -1.9997 0.9791
-3.5947 3.3080 -1.9994 0.9791
-4.5216 1.8410 -1.9981 0.9791
-4.7756 1.0082 -1.9976 0.9791
-1.9545 0.2332 -0.8056 0.9915
-1.9468 -0.1167 -0.7982 0.9916
-1.9611 -0.2947 -0.8116 0.9915
-4.7413 -1.1526 -1.9970 0.9791
-4.6196 -1.5708 -1.9970 0.9791
-4.2672 -2.3667 -1.9971 0.9791
-4.0393 -2.7379 -1.9972 0.9791
-3.7793 -3.0875 -1.9973 0.9791
-3.1712 -3.7105 -1.9977 0.9791
-2.8280 -3.9790 -1.9979 0.9791
-2.4622 -4.2159 -1.9982 0.9791
-2.0767 -4.4194 -1.9985 0.9791
-1.6745 -4.5877 -1.9988 0.9791
-1.2589 -4.7196 -1.9991 0.9791
-0.8331 -4.8139 -1.9995 0.9791
-0.4005 -4.8700 -1.9999 0.9791
1.3288 -4.7064 -2.0015 0.9791
2.1447 -4.3973 -2.0024 0.9791
2.5288 -4.1894 -2.0028 0.9791
2.8930 -3.9480 -2.0032 0.9791
3.5497 -3.3725 -2.0040 0.9791
4.3181 -2.3137 -2.0050 0.9790
4.6617 -1.5101 -2.0055 0.9790
4.8569 -0.6580 -2.0060 0.9790
4.1009 2.6855 -2.0062 0.9790
2.9019 3.9485 -2.0055 0.9790
2.5378 4.1910 -2.0052 0.9790
0.8457 4.4630 -1.8591 0.9806
0.4424 4.5015 -1.8512 0.9806
0.0391 4.5221 -1.8509 0.9806
-0.7646 4.4553 -1.8501 0.9807
-1.1587 4.3684 -1.8497 0.9807
-1.5433 4.2468 -1.8493 0.9807
-1.9685 4.2046 -1.9001 0.9801
-2.4416 4.1943 -1.9863 0.9792
-2.8202 3.9798 -1.9963 0.9791
-3.4879 3.4209 -1.9995 0.9791
-3.7784 3.0956 -1.9991 0.9791
-4.2668 2.3743 -1.9985 0.9791
-4.7413 1.1596 -1.9977 0.9791
-1.9721 0.2992 -0.8164 0.9914
-1.9475 0.1195 -0.7986 0.9916
-1.9549 -0.2305 -0.8056 0.9915
-4.7756 -1.0012 -1.9970 0.9791
-4.6672 -1.4231 -1.9970 0.9791
-3.5958 -3.2998 -1.9974 0.9791
-2.9530 -3.8869 -1.9978 0.9791
-2.2160 -4.3509 -1.9984 0.9791
-0.9857 -4.7847 -1.9994 0.9791
0.3163 -4.8778 -2.0005 0.9791
0.7502 -4.8311 -2.0010 0.9791
1.1783 -4.7460 -2.0014 0.9791
1.5973 -4.6229 -2.0018 0.9791
2.3942 -4.2674 -2.0026 0.9791
2.7658 -4.0377 -2.0030 0.9791
3.1155 -3.7757 -2.0034 0.9791
3.4405 -3.4834 -2.0038 0.9791
3.7381 -3.1633 -2.0042 0.9791
4.0060 -2.8178 -2.0045 0.9791
4.4443 -2.0619 -2.0052 0.9790
4.9015 0.0595 -2.0062 0.9790
4.8769 0.4965 -2.0063 0.9790
4.8133 0.9295 -2.0064 0.9790
3.6635 3.2561 -2.0060 0.9790
3.3582 3.5695 -2.0058 0.9790
1.8932 4.5070 -2.0007 0.9791
0.9996 4.4898 -1.8826 0.9803
-0.2208 4.5163 -1.8506 0.9806
-0.6226 4.4777 -1.8502 0.9807
-1.0192 4.4034 -1.8498 0.9807
-1.4076 4.2940 -1.8495 0.9807
-2.2684 4.1984 -1.9531 0.9796
-3.3776 3.5303 -1.9996 0.9791
-3.9496 2.8730 -1.9989 0.9791
-4.1894 2.5089 -1.9986 0.9791
-4.5672 1.7242 -1.9980 0.9791
-4.7022 1.3098 -1.9978 0.9791
-2.1864 0.4032 -0.9099 0.9904
-1.9579 0.1827 -0.8048 0.9915
-1.9576 -0.1679 -0.8041 0.9915
-2.1552 -0.3807 -0.8957 0.9906
-4.4089 -2.0906 -1.9970 0.9791
-4.2050 -2.4755 -1.9971 0.9791
-3.6988 -3.1836 -1.9974 0.9791
-3.0750 -3.7909 -1.9978 0.9791
-2.7249 -4.0505 -1.9980 0.9791
-2.3531 -4.2780 -1.9983 0.9791
-0.7092 -4.8340 -1.9996 0.9791
-0.2753 -4.8789 -2.0000 0.9791
0.5962 -4.8522 -2.0008 0.9791
1.8605 -4.5241 -2.0021 0.9791
2.2571 -4.3410 -2.0025 0.9791
2.6358 -4.1233 -2.0029 0.9791
3.3277 -3.5908 -2.0037 0.9791
3.6354 -3.2803 -2.0041 0.9791
4.3763 -2.2020 -2.0051 0.9790
4.6991 -1.3899 -2.0056 0.9790
4.8049 -0.9653 -2.0058 0.9790
4.9008 -0.0964 -2.0062 0.9790
4.8901 0.3411 -2.0063 0.9790
4.6257 1.6236 -2.0064 0.9790
4.4624 2.0296 -2.0064 0.9790
3.7653 3.1380 -2.0061 0.9790
3.4701 3.4610 -2.0059 0.9790
3.1473 3.7564 -2.0057 0.9790
2.7994 4.0216 -2.0054 0.9790
2.0375 4.4488 -2.0027 0.9791
1.6286 4.6014 -1.9977 0.9791
1.1610 4.5302 -1.9140 0.9800
-0.0771 4.5214 -1.8507 0.9806
-0.4799 4.4955 -1.8504 0.9806
-2.1006 4.2020 -1.9227 0.9799
-2.5582 4.1457 -1.9938 0.9792
-2.9231 3.9082 -1.9975 0.9791
-4.1078 2.6410 -1.9987 0.9791
-4.3263 2.2638 -1.9984 0.9791
-1.9527 0.2451 -0.8054 0.9915
-1.9448 -0.2801 -0.8042 0.9915
-4.6291 -1.5426 -1.9970 0.9791
-4.2816 -2.3405 -1.9971 0.9791
-4.0560 -2.7132 -1.9972 0.9791
-3.7981 -3.0643 -1.9973 0.9791
-2.8522 -3.9616 -1.9979 0.9791
-2.1036 -4.4066 -1.9985 0.9791
-0.4302 -4.8674 -1.9999 0.9791
0.8741 -4.8105 -2.0011 0.9791
1.3000 -4.7144 -2.0015 0.9791
1.7156 -4.5806 -2.0019 0.9791
2.5032 -4.2047 -2.0028 0.9791
2.8688 -3.9655 -2.0032 0.9791
3.8184 -3.0663 -2.0043 0.9791
4.3038 -2.3400 -2.0049 0.9790
4.8527 -0.6877 -2.0059 0.9790
4.8951 -0.2521 -2.0061 0.9790
4.8984 0.1855 -2.0062 0.9790
4.8626 0.6216 -2.0063 0.9790
4.6750 1.4757 -2.0064 0.9790
4.5247 1.8867 -2.0064 0.9790
4.3383 2.2827 -2.0063 0.9790
4.1172 2.6604 -2.0062 0.9790
3.8633 3.0168 -2.0061 0.9790
3.5785 3.3491 -2.0060 0.9790
2.5634 4.1755 -2.0053 0.9790
-0.7374 4.4599 -1.8501 0.9807
-2.4079 4.1951 -1.9797 0.9793
-2.7954 3.9965 -1.9961 0.9791
-3.1467 3.7384 -1.9999 0.9791
-3.4670 3.4422 -1.9995 0.9791
-4.0219 2.7705 -1.9988 0.9791
-4.2523 2.4003 -1.9985 0.9791
-4.4488 2.0112 -1.9982 0.9791
-4.6098 1.6062 -1.9979 0.9791
-4.7341 1.1886 -1.9977 0.9791
-1.9506 0.1316 -0.8001 0.9916
-1.9562 -0.2185 -0.8056 0.9915
-4.7816 -0.9720 -1.9970 0.9791
-4.6758 -1.3946 -1.9970 0.9791
-4.5328 -1.8060 -1.9970 0.9791
-4.3538 -2.2032 -1.9970 0.9791
-3.6159 -3.2777 -1.9974 0.9791
-2.9766 -3.8688 -1.9978 0.9791
-2.6201 -4.1194 -1.9981 0.9791
-2.2425 -4.3372 -1.9984 0.9791
-1.8471 -4.5206 -1.9987 0.9791
-1.0149 -4.7785 -1.9994 0.9791
-0.5848 -4.8509 -1.9997 0.9791
-0.1498 -4.8847 -2.0001 0.9791
0.2865 -4.8796 -2.0005 0.9791
0.7207 -4.8356 -2.0009 0.9791
1.1493 -4.7530 -2.0013 0.9791
3.7187 -3.1860 -2.0042 0.9791
4.2270 -2.4755 -2.0048 0.9791
4.7334 -1.2687 -2.0057 0.9790
4.9017 0.0296 -2.0062 0.9790
4.8798 0.4667 -2.0063 0.9790
4.7195 1.3263 -2.0064 0.9790
4.5824 1.7419 -2.0064 0.9790
4.4087 2.1436 -2.0064 0.9790
3.0496 3.8358 -2.0056 0.9790
2.6950 4.0920 -2.0054 0.9790
2.3190 4.3155 -2.0051 0.9790
1.9211 4.4962 -2.0011 0.9791
1.5015 4.6161 -1.9867 0.9792
1.0300 4.4968 -1.8881 0.9803
1.1338 -4.4502 -2.0014 0.9802
2.6204 -3.7757 -2.0030 0.9801
3.2507 -3.2513 -2.0037 0.9801
3.5283 -2.9489 -2.0041 0.9801
3.7779 -2.6229 -2.0044 0.9801
4.1850 -1.9106 -2.0050 0.9801
4.4589 -1.1369 -2.0054 0.9801
4.5430 -0.7348 -2.0056 0.9801
4.5908 -0.3267 -2.0058 0.9801
4.5763 0.4941 -2.0060 0.9801
4.2824 1.6880 -2.0061 0.9801
4.1147 2.0632 -2.0061 0.9801
3.6824 2.7611 -2.0059 0.9801
3.4212 3.0783 -2.0057 0.9801
2.8193 3.6365 -2.0053 0.9801
2.4834 3.8730 -2.0051 0.9801
2.1278 4.0785 -2.0048 0.9801
0.9650 4.4625 -1.9898 0.9803
0.5455 4.3891 -1.9275 0.9809
0.1484 4.3199 -1.8838 0.9813
-0.2354 4.2781 -1.8673 0.9815
-1.0030 4.2157 -1.8885 0.9813
-1.4039 4.1960 -1.9283 0.9809
-2.2019 4.0163 -1.9962 0.9802
-2.8860 3.5682 -2.0001 0.9802
-3.4729 2.9977 -1.9994 0.9802
-3.7258 2.6756 -1.9991 0.9802
-3.9489 2.3322 -1.9987 0.9802
-4.1406 1.9705 -1.9985 0.9802
-1.5979 0.5921 -0.7427 0.9926
-1.5588 0.4240 -0.7040 0.9930
-1.5227 -0.0036 -0.6636 0.9934
-1.4989 -0.2743 -0.6641 0.9934
-1.5617 -0.4327 -0.7063 0.9930
-4.2898 -1.6126 -1.9973 0.9802
-4.1289 -1.9888 -1.9973 0.9802
-3.7102 -2.6909 -1.9975 0.9802
-3.4557 -3.0113 -1.9976 0.9802
-3.1736 -3.3078 -1.9978 0.9802
-2.8662 -3.5780 -1.9980 0.9802
-2.1855 -4.0313 -1.9985 0.9802
-1.8175 -4.2108 -1.9988 0.9802
-1.4349 -4.3568 -1.9991 0.9802
-1.0408 -4.4681 -1.9994 0.9802
-0.6383 -4.5439 -1.9998 0.9802
-0.2305 -4.5836 -2.0001 0.9802
0.1792 -4.5867 -2.0005 0.9802
1.7732 -4.2378 -2.0021 0.9802
2.4988 -3.8569 -2.0028 0.9801
3.4325 -3.0595 -2.0039 0.9801
3.9228 -2.4017 -2.0046 0.9801
4.5780 -0.4725 -2.0057 0.9801
4.6022 -0.0624 -2.0059 0.9801
3.9893 2.2962 -2.0060 0.9801
3.2384 3.2697 -2.0056 0.9801
2.6055 3.7922 -2.0052 0.9801
1.5056 4.3381 -2.0012 0.9802
1.1105 4.4462 -1.9973 0.9802
0.6919 4.4150 -1.9476 0.9807
-0.0994 4.2930 -1.8715 0.9814
-0.4800 4.2505 -1.8642 0.9815
-1.2593 4.2034 -1.9124 0.9810
-2.7713 3.6584 -2.0002 0.9802
-3.0860 3.3961 -1.9999 0.9802
-3.3760 3.1068 -1.9995 0.9802
-3.6390 2.7928 -1.9992 0.9802
-3.8730 2.4568 -1.9989 0.9802
-1.5163 0.3201 -0.6754 0.9933
-1.5223 0.1816 -0.6681 0.9933
-1.5277 0.0450 -0.6661 0.9934
-1.5404 -0.3744 -0.6909 0.9931
-1.5900 -0.5406 -0.7319 0.9927
-4.0079 -2.2228 -1.9974 0.9802
-3.7938 -2.5715 -1.9975 0.9802
-3.2771 -3.2051 -1.9977 0.9802
-2.3125 -3.9596 -1.9984 0.9802
-1.5727 -4.3087 -1.9990 0.9802
-0.7824 -4.5211 -1.9996 0.9802
0.0333 -4.5898 -2.0004 0.9802
0.4426 -4.5694 -2.0008 0.9802
1.2478 -4.4198 -2.0015 0.9802
1.6374 -4.2918 -2.0019 0.9802
2.3748 -3.9341 -2.0027 0.9801
2.7167 -3.7074 -2.0031 0.9801
3.0371 -3.4509 -2.0035 0.9801
3.8442 -2.5251 -2.0045 0.9801
4.0547 -2.1725 -2.0048 0.9801
4.5605 -0.6179 -2.0057 0.9801
4.5978 -0.2087 -2.0058 0.9801
4.3811 1.4124 -2.0061 0.9801
4.0603 2.1682 -2.0060 0.9801
3.8506 2.5216 -2.0060 0.9801
3.6101 2.8548 -2.0058 0.9801
3.0450 3.4502 -2.0055 0.9801
2.7248 3.7076 -2.0053 0.9801
2.3830 3.9353 -2.0050 0.9801
1.2522 4.4116 -1.9986 0.9802
0.8415 4.4412 -1.9700 0.9805
0.4293 4.3682 -1.9129 0.9810
-0.3448 4.2659 -1.8652 0.9815
-1.5231 4.1912 -1.9435 0.9807
-1.9402 4.1441 -1.9942 0.9802
-3.5486 2.9073 -1.9993 0.9802
-3.7931 2.5788 -1.9990 0.9802
-4.0074 2.2299 -1.9987 0.9802
-4.1897 1.8634 -1.9984 0.9802
-1.5904 0.5433 -0.7325 0.9927
-1.5123 0.2294 -0.6666 0.9933
-1.5296 0.0938 -0.6679 0.9933
-1.5226 -0.1795 -0.6682 0.9933
-4.2469 -1.7223 -1.9973 0.9802
-3.6399 -2.7854 -1.9975 0.9802
-3.3772 -3.0992 -1.9977 0.9802
-3.0877 -3.3884 -1.9979 0.9802
-2.0813 -4.0863 -1.9986 0.9802
-1.3226 -4.3924 -1.9992 0.9802
-0.9257 -4.4936 -1.9995 0.9802
-0.5214 -4.5591 -1.9999 0.9802
-0.1127 -4.5882 -2.0002 0.9802
1.5000 -4.3414 -2.0018 0.9802
2.5972 -3.7916 -2.0030 0.9801
2.9256 -3.5455 -2.0033 0.9801
3.2307 -3.2711 -2.0037 0.9801
3.5102 -2.9704 -2.0040 0.9801
4.5887 -0.3548 -2.0058 0.9801
4.6023 0.0559 -2.0059 0.9801
4.4238 1.2724 -2.0061 0.9801
3.9289 2.3979 -2.0060 0.9801
2.8415 3.6192 -2.0054 0.9801
2.1527 4.0654 -2.0049 0.9801
1.7811 4.2402 -2.0044 0.9801
1.3929 4.3727 -2.0000 0.9802
0.1750 4.3227 -1.8854 0.9813
-0.9761 4.2169 -1.8864 0.9813
-1.8001 4.1866 -1.9861 0.9803
-2.1771 4.0293 -1.9960 0.9802
-3.4545 3.0189 -1.9994 0.9802
-4.1285 1.9957 -1.9985 0.9802
-4.2895 1.6194 -1.9982 0.9802
-1.5626 0.4353 -0.7069 0.9929
-1.5019 -0.2653 -0.6647 0.9934
-4.1410 -1.9635 -1.9973 0.9802
-3.9495 -2.3251 -1.9974 0.9802
-2.8880 -3.5604 -1.9980 0.9802
-2.2101 -4.0179 -1.9985 0.9802
-1.4615 -4.3479 -1.9991 0.9802
-1.0681 -4.4616 -1.9994 0.9802
-0.6660 -4.5399 -1.9997 0.9802
-0.2585 -4.5820 -2.0001 0.9802
0.9642 -4.4896 -2.0013 0.9802
1.3611 -4.3866 -2.0016 0.9802
3.1249 -3.3719 -2.0036 0.9801
3.4138 -3.0803 -2.0039 0.9801
3.9080 -2.4256 -2.0046 0.9801
4.1093 -2.0677 -2.0049 0.9801
4.2779 -1.6932 -2.0051 0.9801
4.5750 -0.5005 -2.0057 0.9801
4.6017 -0.0905 -2.0059 0.9801
4.5450 0.7286 -2.0061 0.9801
4.4620 1.1311 -2.0061 0.9801
4.3433 1.5245 -2.0061 0.9801
4.1900 1.9058 -2.0061 0.9801
4.0032 2.2718 -2.0060 0.9801
3.2584 3.2499 -2.0056 0.9801
2.6286 3.7762 -2.0052 0.9801
2.2810 3.9951 -2.0050 0.9801
1.9154 4.1821 -2.0047 0.9801
1.5323 4.3294 -2.0015 0.9802
1.1378 4.4399 -1.9975 0.9802
0.3147 4.3474 -1.8996 0.9812
-1.2317 4.2048 -1.9095 0.9811
-2.0468 4.0945 -1.9950 0.9802
-2.7489 3.6753 -2.0002 0.9802
-3.8579 2.4804 -1.9989 0.9802
-1.5214 0.3309 -0.6785 0.9932
-1.5295 -0.0823 -0.6676 0.9933
-1.5877 -0.5291 -0.7293 0.9927
-3.2966 -3.1850 -1.9977 0.9802
-2.9997 -3.4667 -1.9979 0.9802
-2.6788 -3.7208 -1.9981 0.9802
-2.3366 -3.9454 -1.9984 0.9802
-1.9757 -4.1386 -1.9987 0.9802
-1.5989 -4.2990 -1.9990 0.9802
-1.2093 -4.4252 -1.9993 0.9802
-0.4041 -4.5712 -2.0000 0.9802
0.8209 -4.5177 -2.0011 0.9802
2.3506 -3.9485 -2.0027 0.9801
3.0159 -3.4694 -2.0034 0.9801
3.3139 -3.1871 -2.0038 0.9801
3.8287 -2.5485 -2.0045 0.9801
4.0413 -2.1972 -2.0048 0.9801
4.3685 -1.4447 -2.0053 0.9801
4.3896 1.3856 -2.0061 0.9801
3.6275 2.8327 -2.0058 0.9801
3.3602 3.1447 -2.0057 0.9801
3.0660 3.4315 -2.0055 0.9801
2.4070 3.9208 -2.0050 0.9801
1.2793 4.4045 -1.9989 0.9802
0.4568 4.3732 -1.9163 0.9810
0.0636 4.3108 -1.8789 0.9814
-0.3188 4.2688 -1.8656 0.9815
-0.6992 4.2288 -1.8680 0.9815
-1.0896 4.2117 -1.8959 0.9812
-1.4944 4.1917 -1.9394 0.9808
-2.2809 3.9737 -1.9968 0.9802
-2.6305 3.7607 -2.0001 0.9802
-2.9553 3.5109 -2.0000 0.9802
-3.5308 2.9290 -1.9993 0.9802
-3.7773 2.6020 -1.9990 0.9802
-3.9937 2.2544 -1.9987 0.9802
-1.5925 0.5549 -0.7350 0.9927
-1.5099 0.2385 -0.6662 0.9934
-1.5240 -0.1702 -0.6683 0.9933
-1.5098 -0.3069 -0.6714 0.9933
-4.2574 -1.6963 -1.9973 0.9802
-3.6569 -2.7631 -1.9975 0.9802
-3.3961 -3.0785 -1.9977 0.9802
-3.1083 -3.3694 -1.9978 0.9802
-1.7347 -4.2457 -1.9988 0.9802
-0.9531 -4.4878 -1.9995 0.9802
-0.1407 -4.5874 -2.0002 0.9802
1.0793 -4.4636 -2.0014 0.9802
1.8559 -4.2025 -2.0022 0.9802
3.2106 -3.2907 -2.0037 0.9801
3.9692 -2.3245 -2.0046 0.9801
4.1613 -1.9615 -2.0049 0.9801
4.4446 -1.1913 -2.0054 0.9801
4.5336 -0.7902 -2.0056 0.9801
4.6026 0.0278 -2.0059 0.9801
4.5248 0.8451 -2.0061 0.9801
4.3027 1.6356 -2.0061 0.9801
4.1396 2.0128 -2.0061 0.9801
3.7158 2.7160 -2.0059 0.9801
3.4586 3.0363 -2.0058 0.9801
3.1737 3.3324 -2.0056 0.9801
2.5306 3.8424 -2.0051 0.9801
2.1775 4.0523 -2.0049 0.9801
0.3060 -4.3114 -2.0007 0.9811
0.6894 -4.2677 -2.0011 0.9811
1.0675 -4.1900 -2.0014 0.9811
1.4372 -4.0788 -2.0018 0.9811
2.1398 -3.7600 -2.0025 0.9811
2.4671 -3.5548 -2.0029 0.9811
3.5567 -2.4694 -2.0042 0.9811
4.1977 -1.0703 -2.0052 0.9811
4.2768 -0.6917 -2.0054 0.9811
4.0315 1.5891 -2.0059 0.9811
3.6848 2.2800 -2.0057 0.9811
3.4666 2.5994 -2.0056 0.9811
2.9492 3.1734 -2.0053 0.9811
2.6541 3.4235 -2.0051 0.9811
1.2883 4.1317 -2.0033 0.9811
0.9132 4.2230 -1.9999 0.9811
0.5322 4.2820 -1.9973 0.9812
-0.9973 4.1918 -1.9945 0.9812
-1.3680 4.0886 -1.9956 0.9812
-2.0771 3.7888 -2.0000 0.9811
-2.4074 3.5893 -2.0005 0.9811
-3.0057 3.1035 -1.9998 0.9811
-3.2700 2.8226 -1.9995 0.9811
-3.7183 2.1960 -1.9989 0.9811
-3.8988 1.8554 -1.9987 0.9811
-1.3326 0.4938 -0.6578 0.9938
-1.3168 0.2345 -0.6191 0.9941
-1.3151 -0.2406 -0.6188 0.9941
-1.3192 -0.3655 -0.6336 0.9940
-1.3321 -0.5008 -0.6587 0.9937
-2.6989 -3.3692 -1.9982 0.9812
-2.3879 -3.5969 -1.9984 0.9812
-2.0579 -3.7959 -1.9987 0.9811
-1.3511 -4.1023 -1.9992 0.9811
-0.6010 -4.2785 -1.9999 0.9811
0.1688 -4.3187 -2.0006 0.9811
0.5533 -4.2872 -2.0009 0.9811
1.3067 -4.1222 -2.0017 0.9811
2.0190 -3.8259 -2.0024 0.9811
2.3526 -3.6312 -2.0028 0.9811
2.9614 -3.1566 -2.0035 0.9811
3.6931 -2.2611 -2.0044 0.9811
3.8805 -1.9230 -2.0047 0.9811
4.0371 -1.5694 -2.0049 0.9811
4.1614 -1.2032 -2.0052 0.9811
4.2525 -0.8274 -2.0053 0.9811
4.2744 0.7120 -2.0058 0.9811
4.1939 1.0904 -2.0059 0.9811
4.0800 1.4601 -2.0059 0.9811
3.9334 1.8181 -2.0058 0.9811
3.7555 2.1617 -2.0058 0.9811
2.1244 3.7742 -2.0047 0.9811
1.7791 3.9481 -2.0045 0.9811
1.4197 4.0904 -2.0042 0.9811
0.6684 4.2648 -1.9982 0.9812
-0.4778 4.2310 -1.9709 0.9814
-0.8595 4.2021 -1.9854 0.9813
-1.9547 3.8511 -1.9991 0.9811
-2.2922 3.6643 -2.0007 0.9811
-2.6094 3.4447 -2.0003 0.9811
-3.1788 2.9253 -1.9996 0.9811
-3.4265 2.6297 -1.9993 0.9811
-1.3273 0.4068 -0.6426 0.9939
-1.3069 -0.3177 -0.6225 0.9941
-3.7740 -2.0931 -1.9976 0.9812
-3.5724 -2.4215 -1.9977 0.9812
-3.3424 -2.7306 -1.9978 0.9812
-3.0858 -3.0180 -1.9980 0.9812
-2.5010 -3.5189 -1.9984 0.9812
-2.1775 -3.7284 -1.9986 0.9811
-1.8365 -3.9083 -1.9989 0.9811
-1.4808 -4.0571 -1.9991 0.9811
-0.7367 -4.2569 -1.9998 0.9811
0.0313 -4.3216 -2.0004 0.9811
0.4167 -4.3023 -2.0008 0.9811
0.7989 -4.2488 -2.0012 0.9811
1.8962 -3.8879 -2.0023 0.9811
3.1382 -2.9815 -2.0037 0.9811
3.6191 -2.3773 -2.0043 0.9811
4.2239 -0.9621 -2.0053 0.9811
4.2948 0.5757 -2.0058 0.9811
4.2265 0.9565 -2.0058 0.9811
3.9893 1.6922 -2.0058 0.9811
3.6250 2.3738 -2.0057 0.9811
3.3986 2.6875 -2.0056 0.9811
3.1451 2.9797 -2.0054 0.9811
2.8666 3.2481 -2.0053 0.9811
2.2434 3.7049 -2.0048 0.9811
1.9038 3.8897 -2.0046 0.9811
1.1811 4.1611 -2.0022 0.9811
0.8040 4.2433 -1.9991 0.9811
0.0371 4.2881 -1.9850 0.9813
-0.7222 4.2080 -1.9763 0.9814
-1.8304 3.9096 -1.9982 0.9812
-2.1746 3.7356 -2.0008 0.9811
-2.4987 3.5261 -2.0004 0.9811
-2.8027 3.2886 -2.0001 0.9811
-3.3413 2.7375 -1.9994 0.9811
-3.5716 2.4282 -1.9991 0.9811
-3.7734 2.0997 -1.9988 0.9811
-1.3336 0.4556 -0.6523 0.9938
-1.3251 0.2010 -0.6204 0.9941
-1.3385 0.0821 -0.6208 0.9941
-1.3047 -0.2735 -0.6170 0.9941
-1.3269 -0.4046 -0.6421 0.9939
-1.3280 -0.5385 -0.6633 0.9937
-3.4275 -2.6229 -1.9978 0.9812
-3.1801 -2.9183 -1.9979 0.9812
-2.9074 -3.1906 -1.9981 0.9812
-1.6090 -4.0077 -1.9990 0.9811
-1.2453 -4.1359 -1.9993 0.9811
0.6634 -4.2718 -2.0010 0.9811
1.0419 -4.1964 -2.0014 0.9811
1.4123 -4.0875 -2.0018 0.9811
2.1168 -3.7729 -2.0025 0.9811
2.7544 -3.3380 -2.0032 0.9811
3.3047 -2.7965 -2.0039 0.9811
3.7501 -2.1655 -2.0045 0.9811
3.9288 -1.8227 -2.0048 0.9811
4.1911 -1.0960 -2.0052 0.9811
4.2725 -0.7179 -2.0054 0.9811
4.3198 -0.3340 -2.0056 0.9811
4.2547 0.8216 -2.0058 0.9811
3.4824 2.5781 -2.0056 0.9811
2.0267 3.8274 -2.0047 0.9811
1.6770 3.9923 -2.0044 0.9811
1.3137 4.1242 -2.0036 0.9811
0.9390 4.2177 -2.0001 0.9811
0.5584 4.2790 -1.9975 0.9812
-0.9715 4.1971 -1.9941 0.9812
-2.0538 3.8011 -1.9999 0.9811
-2.3854 3.6040 -2.0006 0.9811
-3.2527 2.8425 -1.9995 0.9811
-1.3146 0.2424 -0.6187 0.9941
-1.3371 0.1248 -0.6216 0.9941
-1.3339 0.0050 -0.6175 0.9941
-1.3173 -0.2327 -0.6192 0.9941
-1.3327 -0.4917 -0.6575 0.9938
-3.7190 -2.1894 -1.9976 0.9812
-3.5091 -2.5125 -1.9977 0.9812
-3.2712 -2.8156 -1.9979 0.9812
-3.0073 -3.0964 -1.9980 0.9812
-2.4098 -3.5822 -1.9984 0.9812
-2.0810 -3.7833 -1.9987 0.9811
-1.7355 -3.9543 -1.9989 0.9811
-0.2434 -4.3143 -2.0002 0.9811
0.1424 -4.3196 -2.0006 0.9811
0.9079 -4.2271 -2.0013 0.9811
1.2815 -4.1301 -2.0017 0.9811
1.6450 -4.0000 -2.0020 0.9811
1.9956 -3.8381 -2.0024 0.9811
2.3304 -3.6455 -2.0028 0.9811
3.2139 -2.9000 -2.0038 0.9811
3.4603 -2.6022 -2.0041 0.9811
3.6791 -2.2836 -2.0044 0.9811
4.1539 -1.2286 -2.0051 0.9811
4.2474 -0.8533 -2.0053 0.9811
4.3069 -0.4712 -2.0055 0.9811
4.3226 0.3015 -2.0057 0.9811
4.2787 0.6859 -2.0058 0.9811
4.2005 1.0648 -2.0059 0.9811
4.0888 1.4352 -2.0059 0.9811
3.5627 2.4662 -2.0057 0.9811
3.3284 2.7739 -2.0056 0.9811
3.0675 3.0595 -2.0054 0.9811
1.8032 3.9372 -2.0045 0.9811
1.4447 4.0817 -2.0042 0.9811
-0.0729 4.2763 -1.9797 0.9813
-1.5770 4.0149 -1.9966 0.9812
-1.9310 3.8626 -1.9989 0.9811
-2.2698 3.6783 -2.0007 0.9811
-2.5883 3.4606 -2.0003 0.9811
-2.8861 3.2154 -2.0000 0.9811
-3.1609 2.9447 -1.9997 0.9811
-3.4104 2.6506 -1.9993 0.9811
-3.8259 2.0020 -1.9988 0.9811
-1.3013 0.2830 -0.6164 0.9941
-1.3316 0.1672 -0.6212 0.9941
-1.3042 -0.3086 -0.6203 0.9941
-1.3325 -0.4440 -0.6501 0.9938
-1.3212 -0.5757 -0.6671 0.9937
-3.7867 -2.0700 -1.9976 0.9812
-3.1042 -2.9991 -1.9980 0.9812
-2.8246 -3.2643 -1.9981 0.9812
-2.5224 -3.5036 -1.9983 0.9812
-2.2002 -3.7150 -1.9986 0.9811
-1.1387 -4.1667 -1.9994 0.9811
0.0049 -4.3216 -2.0004 0.9811
0.3904 -4.3048 -2.0008 0.9811
0.7729 -4.2535 -2.0011 0.9811
1.1494 -4.1684 -2.0015 0.9811
1.5169 -4.0501 -2.0019 0.9811
1.8724 -3.8994 -2.0023 0.9811
2.2131 -3.7175 -2.0026 0.9811
2.5363 -3.5059 -2.0030 0.9811
2.8394 -3.2663 -2.0033 0.9811
3.1199 -3.0006 -2.0037 0.9811
3.8046 -2.0686 -2.0046 0.9811
4.3271 -0.2229 -2.0056 0.9811
4.2983 0.5495 -2.0058 0.9811
3.9996 1.6678 -2.0058 0.9811
3.8348 2.0178 -2.0058 0.9811
3.6394 2.3517 -2.0057 0.9811
3.4150 2.6667 -2.0056 0.9811
2.5865 3.4747 -2.0051 0.9811
1.9276 3.8780 -2.0046 0.9811
0.8300 4.2388 -1.9993 0.9811
0.0633 4.2909 -1.9864 0.9813
-0.3173 4.2493 -1.9724 0.9814
-1.0793 4.1719 -1.9947 0.9812
-1.4480 4.0617 -1.9960 0.9812
-2.1516 3.7486 -2.0007 0.9811
-2.4771 3.5414 -2.0005 0.9811
-3.0658 3.0439 -1.9998 0.9811
-3.3245 2.7579 -1.9994 0.9811
-3.5567 2.4500 -1.9991 0.9811
-3.7605 2.1227 -1.9989 0.9811
-1.3165 0.5952 -0.6688 0.9937
-1.3336 0.4647 -0.6537 0.9938
-1.3100 0.3289 -0.6252 0.9941
-1.3233 0.2090 -0.6201 0.9941
-1.3385 0.0903 -0.6210 0.9941
-1.3363 -0.0293 -0.6187 0.9941
-1.3073 -0.2658 -0.6175 0.9941
-1.3253 -0.3953 -0.6402 0.9939
-3.8506 -1.9485 -1.9976 0.9812
-3.4434 -2.6019 -1.9978 0.9812
-3.1979 -2.8988 -1.9979 0.9812
-2.9268 -3.1727 -1.9981 0.9812
-2.6325 -3.4215 -1.9983 0.9812
-1.9832 -3.8356 -1.9987 0.9811
-1.6334 -3.9978 -1.9990 0.9811
-1.2706 -4.1281 -1.9993 0.9811
-0.5171 -4.2896 -2.0000 0.9811
0.2533 -4.3147 -2.0007 0.9811
1.0162 -4.2026 -2.0014 0.9811
1.3872 -4.0960 -2.0018 0.9811
1.7473 -3.9567 -2.0021 0.9811
2.4234 -3.5846 -2.0029 0.9811
3.2875 -2.8166 -2.0039 0.9811
4.0671 -1.4901 -2.0050 0.9811
4.1843 -1.1215 -2.0052 0.9811
4.3177 -0.3603 -2.0055 0.9811
4.3135 0.4125 -2.0058 0.9811
4.1718 1.1724 -2.0059 0.9811
4.0506 1.5397 -2.0059 0.9811
2.9878 3.1372 -2.0053 0.9811
2.6958 3.3908 -2.0052 0.9811
2.3824 3.6173 -2.0049 0.9811
2.0500 3.8149 -2.0047 0.9811
1.3391 4.1167 -2.0038 0.9811
0.9649 4.2123 -2.0003 0.9811
0.2888 -4.0686 -2.0008 0.9820
0.6506 -4.0273 -2.0011 0.9820
1.6944 -3.7134 -2.0022 0.9820
2.0192 -3.5481 -2.0025 0.9820
2.6183 -3.1339 -2.0032 0.9820
2.8878 -2.8884 -2.0035 0.9820
3.3560 -2.3301 -2.0041 0.9820
3.5509 -2.0217 -2.0044 0.9820
3.7176 -1.6972 -2.0046 0.9820
3.8546 -1.3590 -2.0048 0.9820
3.9608 -1.0099 -2.0050 0.9820
4.0779 -0.2902 -2.0053 0.9820
4.0877 0.0746 -2.0055 0.9819
4.0097 0.7997 -2.0056 0.9819
3.9225 1.1542 -2.0056 0.9819
3.8039 1.4994 -2.0056 0.9819
3.6549 1.8326 -2.0056 0.9819
3.4768 2.1512 -2.0055 0.9819
3.2709 2.4526 -2.0054 0.9820
3.0389 2.7344 -2.0053 0.9820
1.8902 3.6230 -2.0045 0.9820
1.2161 3.9001 -2.0039 0.9820
0.8633 3.9921 -2.0035 0.9820
0.5031 4.0482 -2.0010 0.9820
0.1400 4.0732 -1.9992 0.9820
-0.2238 4.0675 -1.9982 0.9820
-0.9429 3.9633 -1.9983 0.9820
-1.2934 3.8656 -1.9995 0.9820
-2.5644 3.1706 -2.0003 0.9820
-3.0859 2.6637 -1.9996 0.9820
-3.3107 2.3775 -1.9993 0.9820
-3.5091 2.0725 -1.9991 0.9820
-1.1797 0.2101 -0.5878 0.9947
-1.1942 0.1041 -0.5880 0.9947
-1.1956 -0.0028 -0.5865 0.9947
-1.1785 -0.2156 -0.5877 0.9947
-1.1588 -0.3210 -0.5898 0.9947
-3.4972 -2.0877 -1.9979 0.9820
-3.0710 -2.6761 -1.9981 0.9820
-2.8203 -2.9395 -1.9982 0.9820
-1.6151 -3.7418 -1.9991 0.9820
-1.2751 -3.8714 -1.9994 0.9820
-0.9249 -3.9703 -1.9997 0.9820
-0.5672 -4.0376 -2.0000 0.9820
-0.2048 -4.0727 -2.0003 0.9820
0.1592 -4.0755 -2.0006 0.9820
0.5222 -4.0457 -2.0010 0.9820
1.5754 -3.7651 -2.0020 0.9820
2.5172 -3.2154 -2.0031 0.9820
2.7944 -2.9786 -2.0034 0.9820
3.0493 -2.7179 -2.0037 0.9820
3.2801 -2.4355 -2.0040 0.9820
3.6616 -1.8145 -2.0045 0.9820
3.9265 -1.1353 -2.0050 0.9820
4.0880 -0.0554 -2.0054 0.9820
3.8496 1.3777 -2.0056 0.9819
3.7114 1.7155 -2.0056 0.9819
3.3473 2.3474 -2.0054 0.9819
3.1244 2.6364 -2.0053 0.9820
2.8766 2.9044 -2.0052 0.9820
2.6059 3.1491 -2.0050 0.9820
2.3144 3.3686 -2.0048 0.9820
1.3396 3.8597 -2.0040 0.9820
-0.0943 4.0731 -1.9985 0.9820
-1.1695 3.9038 -1.9990 0.9820
-1.5141 3.7868 -2.0005 0.9820
-1.8464 3.6377 -2.0011 0.9820
-2.4624 3.2507 -2.0004 0.9820
-2.9998 2.7606 -1.9997 0.9820
-3.2336 2.4817 -1.9994 0.9820
-1.1246 0.5798 -0.6207 0.9944
-1.1496 0.4681 -0.6089 0.9945
-1.1589 0.3551 -0.5945 0.9946
-1.1713 0.2473 -0.5872 0.9947
-1.1964 0.0353 -0.5871 0.9947
-1.1959 -0.0717 -0.5877 0.9947
-1.1855 -0.1781 -0.5880 0.9947
-1.1430 -0.5064 -0.6132 0.9944
-3.3715 -2.2853 -1.9979 0.9820
-2.9122 -2.8483 -1.9982 0.9820
-2.3603 -3.3210 -1.9985 0.9820
-2.0550 -3.5186 -1.9988 0.9820
-1.7332 -3.6884 -1.9990 0.9820
-1.0506 -3.9387 -1.9996 0.9820
-0.6952 -4.0173 -1.9999 0.9820
0.3932 -4.0600 -2.0009 0.9820
2.1098 -3.4952 -2.0026 0.9820
2.4135 -3.2936 -2.0029 0.9820
2.6981 -3.0658 -2.0033 0.9820
2.9612 -2.8134 -2.0036 0.9820
3.2008 -2.5384 -2.0039 0.9820
3.9855 -0.9079 -2.0051 0.9820
3.9879 0.9025 -2.0056 0.9819
3.6066 1.9259 -2.0056 0.9819
3.2068 2.5358 -2.0054 0.9820
2.9676 2.8115 -2.0052 0.9820
2.7048 3.0647 -2.0051 0.9820
1.4617 3.8153 -2.0041 0.9820
1.1155 3.9299 -2.0039 0.9820
0.7601 4.0115 -2.0027 0.9820
0.3988 4.0586 -2.0004 0.9820
-0.3282 4.0601 -1.9981 0.9820
-1.3925 3.8319 -1.9999 0.9820
-2.0521 3.5252 -2.0008 0.9820
-3.3706 2.2916 -1.9993 0.9820
-1.1426 0.5082 -0.6134 0.9944
-1.1573 0.3953 -0.5999 0.9946
-1.1611 0.2840 -0.5863 0.9947
-1.1852 0.1798 -0.5880 0.9947
-1.1959 0.0733 -0.5877 0.9947
-1.1964 -0.0336 -0.5871 0.9947
-1.1717 -0.2456 -0.5872 0.9947
-3.4424 -2.1769 -1.9979 0.9820
-3.2347 -2.4753 -1.9980 0.9820
-3.0013 -2.7542 -1.9981 0.9820
-2.7439 -3.0111 -1.9983 0.9820
-2.4646 -3.2441 -1.9985 0.9820
-1.5185 -3.7821 -1.9992 0.9820
-1.1752 -3.9031 -1.9995 0.9820
-0.8226 -3.9929 -1.9998 0.9820
0.6260 -4.0312 -2.0011 0.9820
1.6717 -3.7236 -2.0021 0.9820
1.9974 -3.5603 -2.0025 0.9820
2.5991 -3.1498 -2.0031 0.9820
3.3417 -2.3505 -2.0041 0.9820
3.5385 -2.0434 -2.0043 0.9820
3.7071 -1.7198 -2.0046 0.9820
3.8462 -1.3825 -2.0048 0.9820
4.0760 -0.3151 -2.0053 0.9820
4.0675 0.4141 -2.0055 0.9819
4.0145 0.7752 -2.0056 0.9819
3.9294 1.1302 -2.0056 0.9819
3.6661 1.8103 -2.0056 0.9819
3.4899 2.1300 -2.0055 0.9819
3.2858 2.4326 -2.0054 0.9820
2.5241 3.2149 -2.0049 0.9820
2.2270 3.4269 -2.0047 0.9820
1.9123 3.6114 -2.0045 0.9820
0.8877 3.9871 -2.0037 0.9820
-0.1989 4.0689 -1.9983 0.9820
-1.2697 3.8732 -1.9994 0.9820
-1.6114 3.7477 -2.0011 0.9820
-1.9391 3.5889 -2.0010 0.9820
-2.2511 3.4010 -2.0006 0.9820
-3.2962 2.3977 -1.9994 0.9820
-3.4964 2.0939 -1.9991 0.9820
-1.1538 0.4356 -0.6050 0.9945
-1.1782 0.2173 -0.5877 0.9947
-1.1956 0.0045 -0.5865 0.9947
-1.1943 -0.1024 -0.5880 0.9947
-1.1800 -0.2085 -0.5878 0.9947
-1.1586 -0.3134 -0.5887 0.9947
-1.1548 -0.4261 -0.6038 0.9945
-1.1360 -0.5386 -0.6167 0.9944
-3.5099 -2.0663 -1.9979 0.9820
-3.0873 -2.6573 -1.9981 0.9820
-1.9639 -3.5704 -1.9988 0.9820
-1.6379 -3.7318 -1.9991 0.9820
-0.9491 -3.9645 -1.9997 0.9820
-0.5918 -4.0340 -2.0000 0.9820
-0.2297 -4.0714 -2.0003 0.9820
0.4975 -4.0488 -2.0010 0.9820
1.5523 -3.7746 -2.0020 0.9820
2.1990 -3.4400 -2.0027 0.9820
3.2651 -2.4554 -2.0040 0.9820
3.9195 -1.1593 -2.0049 0.9820
4.0638 -0.4446 -2.0053 0.9820
4.0875 -0.0804 -2.0054 0.9820
4.0786 0.2845 -2.0055 0.9819
4.0371 0.6472 -2.0056 0.9819
3.9634 1.0047 -2.0056 0.9819
3.8580 1.3541 -2.0056 0.9819
3.5559 2.0179 -2.0055 0.9819
3.3616 2.3269 -2.0055 0.9819
3.1405 2.6173 -2.0053 0.9820
2.8943 2.8868 -2.0052 0.9820
2.3350 3.3544 -2.0048 0.9820
2.0263 3.5489 -2.0046 0.9820
1.3632 3.8514 -2.0041 0.9820
1.0141 3.9571 -2.0038 0.9820
0.2943 4.0663 -1.9998 0.9820
-0.0694 4.0738 -1.9986 0.9820
-0.4324 4.0500 -1.9979 0.9820
-1.1456 3.9108 -1.9989 0.9820
-1.4909 3.7957 -2.0004 0.9820
-2.4426 3.2657 -2.0004 0.9820
-2.9829 2.7789 -1.9998 0.9820
-3.2184 2.5014 -1.9995 0.9820
-1.1213 0.5868 -0.6208 0.9944
-1.1587 0.3628 -0.5956 0.9946
-1.1896 0.1493 -0.5881 0.9947
-1.1965 0.0426 -0.5873 0.9947
-1.1866 -0.1709 -0.5881 0.9947
-1.1637 -0.2754 -0.5866 0.9947
-1.1444 -0.4987 -0.6124 0.9945
-1.1110 -0.6073 -0.6211 0.9944
-2.9296 -2.8304 -1.9982 0.9820
-2.3805 -3.3065 -1.9985 0.9820
-1.4208 -3.8201 -1.9993 0.9820
-1.0746 -3.9322 -1.9995 0.9820
-0.3590 -4.0618 -2.0002 0.9820
0.7294 -4.0140 -2.0012 0.9820
1.0847 -3.9336 -2.0015 0.9820
1.4314 -3.8219 -2.0019 0.9820
2.0884 -3.5080 -2.0026 0.9820
2.3933 -3.3083 -2.0029 0.9820
2.9439 -2.8314 -2.0036 0.9820
3.1852 -2.5579 -2.0039 0.9820
3.4011 -2.2639 -2.0041 0.9820
3.5900 -1.9518 -2.0044 0.9820
3.7502 -1.6241 -2.0047 0.9820
3.8805 -1.2833 -2.0049 0.9820
4.0828 -0.2103 -2.0054 0.9820
4.0855 0.1547 -2.0055 0.9819
4.0556 0.5185 -2.0056 0.9819
3.8991 1.2308 -2.0056 0.9819
3.7738 1.5736 -2.0056 0.9819
3.6183 1.9039 -2.0056 0.9819
3.4340 2.2189 -2.0055 0.9819
2.9848 2.7933 -2.0052 0.9820
2.4406 3.2786 -2.0049 0.9820
2.1382 3.4828 -2.0047 0.9820
1.8188 3.6592 -2.0044 0.9820
1.1395 3.9231 -2.0039 0.9820
0.7847 4.0071 -2.0029 0.9820
0.0601 4.0747 -1.9989 0.9820
-0.6644 4.0183 -1.9978 0.9820
-1.0204 3.9445 -1.9985 0.9820
-2.0306 3.5377 -2.0009 0.9820
-2.3376 3.3419 -2.0005 0.9820
-2.6259 3.1196 -2.0002 0.9820
-3.1374 2.6026 -1.9996 0.9820
-3.3565 2.3121 -1.9993 0.9820
-3.5489 2.0033 -1.9990 0.9820
-1.1410 0.5158 -0.6143 0.9944
-1.1568 0.4031 -0.6009 0.9946
-1.1956 0.0807 -0.5878 0.9947
-1.1916 -0.1331 -0.5881 0.9947
-1.1590 -0.3457 -0.5933 0.9946
-1.1510 -0.4586 -0.6077 0.9945
-1.1276 -0.5706 -0.6199 0.9944
-3.4556 -2.1558 -1.9979 0.9820
-3.2498 -2.4555 -1.9980 0.9820
-3.0180 -2.7358 -1.9981 0.9820
-2.7622 -2.9943 -1.9983 0.9820
-1.8716 -3.6198 -1.9989 0.9820
-1.5415 -3.7728 -1.9992 0.9820
-0.1250 -4.0761 -2.0004 0.9820
0.6013 -4.0349 -2.0011 0.9820
0.9590 -3.9658 -2.0014 0.9820
1.3091 -3.8652 -2.0018 0.9820
1.6489 -3.7337 -2.0021 0.9820
1.9756 -3.5724 -2.0025 0.9820
2.2868 -3.3825 -2.0028 0.9820
3.1021 -2.6577 -2.0038 0.9820
3.9481 -1.0582 -2.0050 0.9820
4.0271 -0.7020 -2.0052 0.9820
4.0740 -0.3400 -2.0053 0.9820
4.0700 0.3892 -2.0055 0.9819
4.0192 0.7507 -2.0056 0.9819
3.8219 1.4528 -2.0056 0.9819
3.6770 1.7879 -2.0056 0.9819
3.3006 2.4125 -2.0054 0.9820
2.8191 2.9601 -2.0051 0.9820
2.5437 3.1995 -2.0050 0.9820
2.2479 3.4132 -2.0048 0.9820
1.9344 3.5997 -2.0045 0.9820
0.9120 3.9817 -2.0037 0.9820
-0.0711 -3.8555 -2.0005 0.9828
0.6152 -3.8080 -2.0011 0.9828
0.9525 -3.7386 -2.0015 0.9828
1.2824 -3.6393 -2.0018 0.9828
1.6021 -3.5111 -2.0021 0.9828
1.9092 -3.3547 -2.0025 0.9828
2.2011 -3.1716 -2.0028 0.9828
2.4756 -2.9631 -2.0031 0.9828
2.9635 -2.4769 -2.0037 0.9827
3.1730 -2.2030 -2.0040 0.9827
3.6443 -1.2849 -2.0047 0.9827
3.8647 0.0706 -2.0053 0.9827
3.8432 0.4150 -2.0053 0.9827
3.7909 0.7561 -2.0054 0.9827
3.7084 1.0912 -2.0054 0.9827
3.4555 1.7326 -2.0054 0.9827
3.2871 2.0339 -2.0053 0.9827
2.8731 2.5852 -2.0051 0.9827
2.6309 2.8309 -2.0049 0.9827
0.8163 3.7748 -2.0035 0.9827
0.4763 3.8320 -2.0032 0.9827
0.1326 3.8582 -2.0027 0.9828
-0.2120 3.8529 -2.0018 0.9828
-0.5546 3.8179 -2.0014 0.9828
-0.8931 3.7541 -2.0019 0.9828
-1.2242 3.6590 -2.0016 0.9828
-1.5454 3.5346 -2.0013 0.9828
-1.8542 3.3822 -2.0010 0.9828
-2.1481 3.2028 -2.0007 0.9828
-2.4248 2.9980 -2.0003 0.9828
-2.6821 2.7694 -2.0000 0.9828
-2.9180 2.5187 -1.9997 0.9828
-3.1306 2.2482 -1.9995 0.9828
-1.1059 -0.0026 -0.5737 0.9950
-1.0900 -0.1994 -0.5748 0.9950
-1.0573 -0.3974 -0.5860 0.9949
-1.0368 -0.4994 -0.5970 0.9948
-2.9040 -2.5306 -1.9983 0.9828
-2.6669 -2.7797 -1.9984 0.9828
-2.4086 -3.0067 -1.9986 0.9828
-1.8365 -3.3875 -1.9990 0.9828
-1.5272 -3.5382 -1.9992 0.9828
-1.2057 -3.6608 -1.9995 0.9828
-0.1937 -3.8511 -2.0004 0.9828
0.1506 -3.8536 -2.0007 0.9828
1.8014 -3.4135 -2.0023 0.9828
2.0990 -3.2398 -2.0027 0.9828
2.6420 -2.8162 -2.0033 0.9827
3.2947 -2.0172 -2.0041 0.9827
3.6015 -1.4001 -2.0046 0.9827
3.7123 -1.0734 -2.0048 0.9827
3.8446 -0.3968 -2.0051 0.9827
3.8544 0.2926 -2.0053 0.9827
3.7412 0.9727 -2.0054 0.9827
3.6396 1.3025 -2.0054 0.9827
3.1647 2.2193 -2.0052 0.9827
2.9540 2.4926 -2.0051 0.9827
2.4637 2.9773 -2.0048 0.9827
1.2666 3.6492 -2.0039 0.9827
0.9359 3.7471 -2.0036 0.9827
0.5979 3.8151 -2.0034 0.9827
0.2552 3.8526 -2.0031 0.9828
-0.4330 3.8337 -2.0015 0.9828
-0.7732 3.7801 -2.0016 0.9828
-1.1073 3.6963 -2.0018 0.9828
-1.7458 3.4396 -2.0011 0.9828
-2.3284 3.0738 -2.0005 0.9828
-2.8366 2.6104 -1.9999 0.9828
-3.0577 2.3467 -1.9996 0.9828
-1.0240 0.5279 -0.5977 0.9948
-1.0526 0.4286 -0.5896 0.9949
-1.0632 0.3258 -0.5769 0.9950
-1.0831 0.2287 -0.5743 0.9950
-1.0963 -0.1647 -0.5751 0.9950
-1.0741 -0.2611 -0.5735 0.9950
-1.0611 -0.3608 -0.5814 0.9950
-1.0459 -0.4634 -0.5935 0.9949
-1.0083 -0.5592 -0.5981 0.9948
-2.9829 -2.4369 -1.9982 0.9828
-2.2319 -3.1404 -1.9987 0.9828
-1.9432 -3.3273 -1.9989 0.9828
-1.6389 -3.4877 -1.9992 0.9828
-1.3215 -3.6204 -1.9994 0.9828
-0.9934 -3.7244 -1.9997 0.9828
-0.3160 -3.8427 -2.0003 0.9828
0.3718 -3.8390 -2.0009 0.9828
0.7129 -3.7911 -2.0012 0.9828
1.0483 -3.7131 -2.0016 0.9828
1.3755 -3.6054 -2.0019 0.9828
1.6919 -3.4689 -2.0022 0.9828
1.9948 -3.3047 -2.0025 0.9828
2.5510 -2.8987 -2.0032 0.9828
2.7998 -2.6600 -2.0035 0.9827
3.0263 -2.4000 -2.0038 0.9827
3.6762 -1.1909 -2.0047 0.9827
3.8612 -0.1752 -2.0052 0.9827
3.8616 0.1698 -2.0053 0.9827
3.6792 1.1861 -2.0054 0.9827
3.5587 1.5095 -2.0054 0.9827
3.4098 1.8208 -2.0054 0.9827
3.2337 2.1176 -2.0053 0.9827
3.0318 2.3975 -2.0052 0.9827
2.8057 2.6581 -2.0050 0.9827
2.5573 2.8975 -2.0049 0.9827
