ply
format ascii 1.0
element vertex 1595
property float32 x
property float32 y
property float32 z
property float32 I
end_header
-7.5385 -7.2479 -1.9656 0.9583
-6.8548 -7.8853 -1.9639 0.9584
-6.1184 -8.4599 -1.9624 0.9584
-5.3350 -8.9674 -1.9613 0.9584
-3.6516 -9.7669 -1.9599 0.9584
-2.7642 -10.0531 -1.9597 0.9585
0.0004 -10.4336 -1.9611 0.9584
0.9330 -10.3977 -1.9622 0.9584
1.8595 -10.2802 -1.9636 0.9584
6.1581 -8.5134 -1.9749 0.9581
8.2346 -6.6076 -1.9845 0.9579
9.3123 -5.0548 -1.9916 0.9578
10.1011 -3.3295 -1.9991 0.9576
10.5726 -1.4844 -2.0067 0.9575
10.4991 2.3294 -2.0214 0.9572
10.2661 3.2634 -2.0248 0.9571
9.0733 5.8947 -2.0337 0.9569
1.8942 9.8724 -1.8895 0.9599
1.0045 9.9999 -1.8890 0.9599
-1.6801 9.8915 -1.8858 0.9600
-2.5548 9.6932 -1.8842 0.9600
-3.4070 9.4164 -1.8822 0.9601
-4.2296 9.0637 -1.8800 0.9601
-5.0158 8.6383 -1.8775 0.9602
-5.7592 8.1440 -1.8748 0.9602
-7.6749 6.2946 -1.8657 0.9604
-9.7618 4.3423 -2.0082 0.9574
-10.0915 3.4464 -2.0044 0.9575
-10.3393 2.5262 -2.0005 0.9576
-10.5036 1.5895 -1.9968 0.9577
-10.3202 -2.1741 -1.9824 0.9580
-10.0682 -3.0823 -1.9791 0.9581
-9.7374 -3.9633 -1.9761 0.9581
-9.3309 -4.8104 -1.9732 0.9582
-8.8521 -5.6172 -1.9706 0.9582
-6.2989 -8.3284 -1.9627 0.9584
-5.5263 -8.8523 -1.9615 0.9584
-4.7112 -9.3063 -1.9606 0.9584
-3.8598 -9.6870 -1.9600 0.9584
-2.9786 -9.9918 -1.9597 0.9585
-0.2227 -10.4301 -1.9609 0.9584
0.7103 -10.4137 -1.9619 0.9584
1.6389 -10.3157 -1.9633 0.9584
2.5560 -10.1366 -1.9649 0.9583
4.3282 -9.5400 -1.9691 0.9583
5.1697 -9.1266 -1.9715 0.9582
5.9725 -8.6402 -1.9743 0.9582
6.7305 -8.0841 -1.9772 0.9581
7.4376 -7.4623 -1.9803 0.9580
10.6692 1.1512 -2.0170 0.9573
10.5422 2.1034 -2.0206 0.9572
10.3296 3.0419 -2.0240 0.9571
10.0325 3.9589 -2.0272 0.9571
9.6532 4.8465 -2.0303 0.9570
9.1944 5.6974 -2.0331 0.9569
7.3794 7.9582 -2.0400 0.9568
1.2182 9.9768 -1.8892 0.9599
0.3219 10.0421 -1.8885 0.9599
-0.5762 10.0255 -1.8875 0.9600
-1.4685 9.9270 -1.8862 0.9600
-2.3474 9.7478 -1.8846 0.9600
-3.2057 9.4896 -1.8827 0.9601
-4.8315 8.7465 -1.8781 0.9601
-5.5857 8.2682 -1.8755 0.9602
-9.2429 5.4081 -2.0128 0.9574
-9.6710 4.5522 -2.0091 0.9574
-10.0200 3.6631 -2.0053 0.9575
-10.4720 1.8145 -1.9977 0.9577
-10.5723 0.8701 -1.9939 0.9577
-10.5199 -1.0214 -1.9866 0.9579
-10.3686 -1.9537 -1.9832 0.9580
-10.1357 -2.8674 -1.9799 0.9580
-9.8235 -3.7555 -1.9768 0.9581
-9.4349 -4.6113 -1.9739 0.9582
-8.9730 -5.4283 -1.9712 0.9582
-8.4417 -6.2005 -1.9687 0.9583
-6.4767 -8.1932 -1.9631 0.9584
-5.7151 -8.7333 -1.9618 0.9584
-4.9096 -9.2043 -1.9608 0.9584
-4.0663 -9.6028 -1.9601 0.9584
0.4873 -10.4251 -1.9617 0.9584
2.3382 -10.1867 -1.9645 0.9584
4.1220 -9.6277 -1.9685 0.9583
4.9717 -9.2322 -1.9709 0.9582
5.7844 -8.7630 -1.9736 0.9582
6.5537 -8.2232 -1.9765 0.9581
7.2735 -7.6168 -1.9796 0.9580
7.9380 -6.9480 -1.9828 0.9580
9.0797 -5.4437 -1.9898 0.9578
9.5473 -4.6193 -1.9935 0.9578
9.9404 -3.7550 -1.9973 0.9577
10.2556 -2.8574 -2.0011 0.9576
10.6408 -0.9905 -2.0087 0.9574
10.3881 2.8192 -2.0232 0.9571
5.2199 9.5389 -2.0438 0.9567
4.0178 9.2126 -1.8891 0.9599
1.4314 9.9491 -1.8893 0.9599
0.5367 10.0340 -1.8887 0.9599
-1.2560 9.9580 -1.8865 0.9600
-2.1389 9.7979 -1.8850 0.9600
-3.8404 9.2417 -1.8811 0.9601
-4.6448 8.8506 -1.8787 0.9601
-6.7950 7.2698 -1.8704 0.9603
-7.4048 6.6225 -1.8672 0.9604
-10.5560 1.0966 -1.9948 0.9577
-10.5920 0.1489 -1.9911 0.9578
-10.5438 -0.7965 -1.9875 0.9579
-9.5346 -4.4099 -1.9745 0.9581
-9.0899 -5.2368 -1.9718 0.9582
-7.9936 -6.7545 -1.9671 0.9583
-7.3509 -7.4342 -1.9651 0.9583
-5.9015 -8.6103 -1.9620 0.9584
-3.4033 -9.8557 -1.9598 0.9585
-2.5091 -10.1198 -1.9597 0.9585
0.2642 -10.4318 -1.9614 0.9584
1.1958 -10.3728 -1.9626 0.9584
2.1193 -10.2323 -1.9641 0.9584
3.0277 -10.0112 -1.9659 0.9583
5.5938 -8.8817 -1.9729 0.9582
6.3740 -8.3585 -1.9758 0.9581
7.1062 -7.7676 -1.9788 0.9581
7.7844 -7.1133 -1.9820 0.9580
8.4032 -6.4004 -1.9854 0.9579
8.9573 -5.6342 -1.9890 0.9578
9.4421 -4.8203 -1.9926 0.9578
10.1875 -3.0747 -2.0002 0.9576
10.6124 -1.2173 -2.0078 0.9575
10.6994 0.6933 -2.0153 0.9573
10.6136 1.6493 -2.0189 0.9572
10.4419 2.5953 -2.0224 0.9572
10.1850 3.5235 -2.0257 0.9571
9.8447 4.4262 -2.0288 0.9570
8.9246 6.1244 -2.0345 0.9569
7.0033 8.2976 -2.0409 0.9568
6.2387 8.8967 -2.0424 0.9567
4.5435 9.8383 -2.0369 0.9569
2.5235 9.7312 -1.8896 0.9599
1.6439 9.9167 -1.8894 0.9599
0.7512 10.0211 -1.8889 0.9599
-0.1470 10.0437 -1.8880 0.9599
-1.0430 9.9842 -1.8869 0.9600
-1.9292 9.8435 -1.8854 0.9600
-2.7983 9.6228 -1.8836 0.9600
-3.6428 9.3243 -1.8816 0.9601
-5.9608 7.9924 -1.8740 0.9602
-7.2644 6.7822 -1.8680 0.9604
-7.8277 6.0955 -1.8648 0.9604
8.9012 -3.1856 -1.9984 0.9621
9.1657 -2.3818 -2.0018 0.9620
9.3577 -1.5560 -2.0052 0.9620
9.4822 0.9857 -2.0152 0.9618
8.9214 3.4803 -2.0242 0.9616
7.1711 6.4145 -2.0338 0.9614
6.5752 7.0357 -2.0356 0.9614
5.9248 7.6006 -2.0371 0.9614
3.4320 8.2609 -1.8909 0.9641
2.6720 8.5079 -1.8850 0.9642
1.9013 8.7125 -1.8850 0.9642
1.1151 8.8461 -1.8847 0.9642
-1.2686 8.8130 -1.8821 0.9643
-2.0493 8.6579 -1.8807 0.9643
-2.8121 8.4328 -1.8790 0.9643
-3.5506 8.1396 -1.8771 0.9643
-5.5610 6.8812 -1.8702 0.9645
-6.1448 6.3478 -1.8675 0.9645
-6.6772 5.7648 -1.8647 0.9646
-8.1955 4.8382 -2.0117 0.9618
-8.8959 3.2915 -2.0050 0.9620
-9.3081 1.6503 -1.9982 0.9621
-9.4218 -0.0324 -1.9916 0.9622
-9.2365 -1.7031 -1.9853 0.9623
-8.4188 -4.0741 -1.9770 0.9625
-8.0114 -4.8040 -1.9746 0.9625
-7.5419 -5.4944 -1.9724 0.9626
-7.0139 -6.1402 -1.9705 0.9626
-6.4318 -6.7364 -1.9687 0.9626
-5.1236 -7.7631 -1.9661 0.9627
-2.8791 -8.8356 -1.9643 0.9627
-2.0782 -9.0573 -1.9643 0.9627
-0.4334 -9.2864 -1.9651 0.9627
2.0479 -9.0844 -1.9685 0.9626
5.1208 -7.8238 -1.9765 0.9625
5.8067 -7.3446 -1.9791 0.9624
6.4486 -6.8059 -1.9818 0.9624
7.0412 -6.2117 -1.9848 0.9623
7.5796 -5.5664 -1.9878 0.9623
8.0594 -4.8748 -1.9910 0.9622
8.8275 -3.3739 -1.9976 0.9621
9.1090 -2.5762 -2.0010 0.9620
9.5139 -0.0691 -2.0111 0.9618
9.4975 0.7824 -2.0144 0.9618
9.4045 1.6303 -2.0176 0.9617
9.2352 2.4677 -2.0206 0.9617
8.6730 4.0832 -2.0263 0.9616
8.2839 4.8478 -2.0289 0.9615
7.8268 5.5749 -2.0312 0.9615
6.7228 6.8921 -2.0351 0.9614
6.0850 7.4709 -2.0367 0.9614
3.8725 8.7859 -2.0296 0.9615
2.8533 8.4486 -1.8850 0.9642
2.0872 8.6700 -1.8850 0.9642
1.3041 8.8207 -1.8848 0.9642
-1.0800 8.8395 -1.8824 0.9642
-1.8640 8.7015 -1.8810 0.9643
-3.3765 8.2158 -1.8776 0.9643
-4.0925 7.8726 -1.8755 0.9644
-4.7736 7.4664 -1.8732 0.9644
-5.4144 7.0009 -1.8708 0.9645
-6.0097 6.4800 -1.8681 0.9645
-6.5548 5.9085 -1.8654 0.9646
-8.0933 5.0143 -2.0125 0.9618
-8.8270 3.4824 -2.0058 0.9619
-9.2744 1.8497 -1.9990 0.9621
-9.3868 1.0121 -1.9957 0.9621
-9.2742 -1.5058 -1.9860 0.9623
-8.5066 -3.8943 -1.9776 0.9625
-7.6596 -5.3333 -1.9729 0.9626
-7.1453 -5.9901 -1.9709 0.9626
-6.5757 -6.5986 -1.9691 0.9626
-5.9553 -7.1541 -1.9676 0.9627
-5.2891 -7.6527 -1.9664 0.9627
-3.8396 -8.4647 -1.9647 0.9627
-3.0675 -8.7722 -1.9644 0.9627
-2.2714 -9.0107 -1.9643 0.9627
-0.6319 -9.2743 -1.9649 0.9627
1.0296 -9.2473 -1.9668 0.9627
1.8528 -9.1245 -1.9681 0.9626
4.2177 -8.3300 -1.9736 0.9625
6.2994 -6.9399 -1.9812 0.9624
7.4560 -5.7251 -1.9871 0.9623
8.3827 -4.3207 -1.9935 0.9622
9.0481 -2.7693 -2.0002 0.9621
9.4284 -1.1187 -2.0069 0.9619
9.5084 0.5789 -2.0136 0.9618
9.0560 3.0935 -2.0229 0.9616
8.7555 3.8955 -2.0257 0.9616
8.3833 4.6681 -2.0283 0.9615
6.2423 7.3378 -2.0364 0.9614
5.5655 7.8714 -2.0377 0.9614
4.0709 8.7253 -2.0352 0.9614
3.0332 8.3854 -1.8849 0.9642
2.2721 8.6234 -1.8850 0.9642
1.4926 8.7912 -1.8849 0.9642
-0.0956 8.9109 -1.8837 0.9642
-1.6778 8.7409 -1.8814 0.9643
-5.8717 6.6094 -1.8688 0.9645
-6.9333 5.4426 -1.8632 0.9646
-8.4051 4.4467 -2.0100 0.9619
-8.7541 3.6719 -2.0066 0.9619
-9.2365 2.0485 -1.9998 0.9621
-9.4220 0.3709 -1.9932 0.9622
-9.4021 -0.4716 -1.9899 0.9622
-9.3077 -1.3075 -1.9868 0.9623
-8.9001 -2.9343 -1.9809 0.9624
-7.2734 -5.8373 -1.9714 0.9626
-5.4523 -7.5389 -1.9667 0.9627
-4.0201 -8.3813 -1.9649 0.9627
-3.2545 -8.7049 -1.9644 0.9627
0.0003 -9.2985 -1.9655 0.9627
0.8314 -9.2659 -1.9665 0.9627
2.4706 -8.9828 -1.9693 0.9626
3.2662 -8.7341 -1.9711 0.9626
4.7787 -8.0309 -1.9754 0.9625
5.4839 -7.5813 -1.9778 0.9625
6.1475 -7.0707 -1.9805 0.9624
6.7643 -6.5025 -1.9833 0.9624
7.8375 -5.2110 -1.9895 0.9623
8.6681 -3.7453 -1.9960 0.9621
8.9832 -2.9610 -1.9994 0.9621
9.2274 -2.1503 -2.0027 0.9620
9.3985 -1.3196 -2.0061 0.9619
9.4947 -0.4755 -2.0095 0.9619
9.5149 0.3752 -2.0128 0.9618
9.4585 1.2257 -2.0161 0.9618
9.3256 2.0690 -2.0192 0.9617
8.4787 4.4864 -2.0277 0.9615
8.0537 5.2322 -2.0301 0.9615
7.0085 6.5955 -2.0343 0.9614
6.3966 7.2013 -2.0360 0.9614
5.7317 7.7494 -2.0374 0.9614
3.2118 8.3183 -1.8848 0.9642
2.4561 8.5728 -1.8850 0.9642
0.8910 8.8709 -1.8846 0.9642
0.0950 8.9118 -1.8839 0.9642
-3.0236 8.3567 -1.8785 0.9643
-3.7541 8.0447 -1.8765 0.9644
-4.4526 7.6683 -1.8744 0.9644
-5.1133 7.2307 -1.8720 0.9644
-5.7310 6.7357 -1.8694 0.9645
-6.3007 6.1878 -1.8667 0.9645
-8.3114 4.6273 -2.0108 0.9619
-8.6770 3.8598 -2.0074 0.9619
-9.1942 2.2465 -2.0007 0.9620
-9.3424 1.4137 -1.9973 0.9621
-9.4156 0.5725 -1.9939 0.9622
-9.3370 -1.1086 -1.9875 0.9623
-9.1866 -1.9353 -1.9845 0.9623
-8.9638 -2.7442 -1.9816 0.9624
-8.3102 -4.2841 -1.9763 0.9625
-5.6131 -7.4216 -1.9669 0.9627
-4.1987 -8.2940 -1.9650 0.9627
-2.6547 -8.9054 -1.9643 0.9627
-1.8486 -9.1072 -1.9643 0.9627
-0.1985 -9.2954 -1.9653 0.9627
0.6330 -9.2803 -1.9662 0.9627
1.4604 -9.1923 -1.9674 0.9627
3.0779 -8.7999 -1.9706 0.9626
4.6045 -8.1290 -1.9748 0.9625
5.9929 -7.1981 -1.9799 0.9624
6.6213 -6.6434 -1.9827 0.9624
7.1991 -6.0343 -1.9856 0.9623
7.7214 -5.3754 -1.9887 0.9623
8.1839 -4.6716 -1.9919 0.9622
8.5826 -3.9283 -1.9952 0.9621
8.9142 -3.1512 -1.9985 0.9621
9.3643 -1.5197 -2.0053 0.9620
9.4786 -0.6782 -2.0087 0.9619
9.5170 0.1716 -2.0120 0.9618
9.3643 1.8684 -2.0184 0.9617
8.1615 5.0574 -2.0295 0.9615
7.6856 5.7727 -2.0318 0.9615
7.1464 6.4427 -2.0338 0.9614
5.1937 8.1248 -2.0383 0.9613
4.4491 8.5601 -2.0392 0.9613
3.3888 8.2473 -1.8847 0.9642
2.6388 8.5182 -1.8850 0.9642
1.0806 8.8503 -1.8847 0.9642
-0.5112 8.8944 -1.8832 0.9642
-2.0830 8.6496 -1.8806 0.9643
-2.8448 8.4214 -1.8789 0.9643
-5.5875 6.8591 -1.8700 0.9645
-6.1691 6.3234 -1.8674 0.9645
-7.7382 5.5109 -2.0081 0.9619
-8.5959 4.0461 -2.0082 0.9619
-9.1478 2.4436 -2.0015 0.9620
-9.4049 0.7741 -1.9947 0.9622
-9.4210 -0.0691 -1.9915 0.9622
-9.3621 -0.9090 -1.9883 0.9623
-9.0235 -2.5528 -1.9823 0.9624
-8.4024 -4.1067 -1.9769 0.9625
-6.9897 -6.1672 -1.9704 0.9626
-6.4053 -6.7612 -1.9687 0.9626
-4.3755 -8.2030 -1.9652 0.9627
-2.0429 -9.0654 -1.9643 0.9627
1.2633 -9.2199 -1.9671 0.9627
2.8884 -8.8618 -1.9702 0.9626
4.4284 -8.2233 -1.9743 0.9625
5.1515 -7.8042 -1.9766 0.9625
7.0658 -6.1846 -1.9849 0.9623
8.0789 -4.8437 -1.9911 0.9622
8.4933 -4.1093 -1.9944 0.9622
8.8412 -3.3398 -1.9977 0.9621
9.1196 -2.5409 -2.0011 0.9620
9.3259 -1.7189 -2.0045 0.9620
9.4581 -0.8804 -2.0079 0.9619
9.5148 -0.0320 -2.0112 0.9618
9.4950 0.8195 -2.0145 0.9618
9.2261 2.5038 -2.0208 0.9617
8.9785 3.3228 -2.0237 0.9616
8.6575 4.1172 -2.0264 0.9616
8.2654 4.8803 -2.0290 0.9615
7.8053 5.6056 -2.0313 0.9615
7.2808 6.2869 -2.0334 0.9614
6.0560 7.4948 -2.0368 0.9614
5.3656 8.0108 -2.0381 0.9613
3.7789 8.6648 -1.9982 0.9621
2.8204 8.4597 -1.8850 0.9642
2.0534 8.6780 -1.8850 0.9642
-3.4084 8.2022 -1.8775 0.9643
-4.1229 7.8562 -1.8754 0.9644
-5.4413 6.9793 -1.8707 0.9645
-6.0345 6.4562 -1.8680 0.9645
-8.1123 4.9824 -2.0124 0.9618
-9.0971 2.6398 -2.0023 0.9620
-9.4240 0.1325 -1.9922 0.9622
-9.0792 -2.3600 -1.9829 0.9624
-8.8196 -3.1572 -1.9801 0.9624
-8.4909 -3.9272 -1.9775 0.9625
-7.6384 -5.3628 -1.9728 0.9626
-7.1216 -6.0177 -1.9708 0.9626
-5.2591 -7.6731 -1.9663 0.9627
-4.5504 -8.1083 -1.9654 0.9627
-3.8066 -8.4796 -1.9647 0.9627
-3.0332 -8.7840 -1.9643 0.9627
-1.4218 -9.1842 -1.9645 0.9627
-0.5957 -9.2768 -1.9650 0.9627
0.2355 -9.2967 -1.9658 0.9627
1.8884 -9.1175 -1.9682 0.9626
2.6976 -8.9196 -1.9698 0.9626
3.4869 -8.6511 -1.9716 0.9626
4.2504 -8.3139 -1.9737 0.9625
4.9819 -7.9102 -1.9760 0.9625
5.6759 -7.4431 -1.9786 0.9625
6.3268 -6.9157 -1.9813 0.9624
8.4001 -4.2883 -1.9936 0.9622
9.2833 -1.9172 -2.0037 0.9620
9.4334 -1.0820 -2.0071 0.9619
9.4287 1.4652 -2.0170 0.9617
8.3655 4.7010 -2.0284 0.9615
7.4119 6.1283 -2.0329 0.9614
6.2138 7.3623 -2.0364 0.9614
5.5349 7.8932 -2.0378 0.9614
4.0356 8.7385 -2.0346 0.9614
3.0005 8.3972 -1.8849 0.9642
1.4583 8.7969 -1.8849 0.9642
0.6664 8.8898 -1.8844 0.9642
-0.1304 8.9103 -1.8836 0.9642
-0.9253 8.8581 -1.8826 0.9642
-1.7118 8.7340 -1.8813 0.9643
-3.2330 8.2752 -1.8780 0.9643
-3.9550 7.9447 -1.8759 0.9644
-5.8971 6.5860 -1.8687 0.9645
-6.9540 5.4151 -1.8630 0.9646
7.7073 -3.5641 -1.9957 0.9657
8.0070 -2.8656 -1.9987 0.9657
8.4147 -1.3992 -2.0048 0.9656
8.5190 -0.6429 -2.0078 0.9655
8.5551 0.1209 -2.0108 0.9655
8.4211 1.6461 -2.0166 0.9654
8.2515 2.3950 -2.0193 0.9653
7.3474 4.5134 -2.0266 0.9652
6.9218 5.1569 -2.0286 0.9652
6.4393 5.7599 -2.0305 0.9651
5.3192 6.8238 -2.0334 0.9651
2.3985 7.6372 -1.8813 0.9676
1.0010 7.9409 -1.8811 0.9676
0.2875 7.9964 -1.8805 0.9677
-0.4278 7.9868 -1.8798 0.9677
-1.8400 7.7737 -1.8775 0.9677
-2.5251 7.5722 -1.8760 0.9677
-3.1886 7.3097 -1.8743 0.9678
-3.8249 6.9885 -1.8724 0.9678
-6.0005 5.1805 -1.8631 0.9680
-6.9515 4.9916 -2.0113 0.9654
-7.9996 2.9599 -2.0047 0.9656
-8.2195 2.2300 -2.0016 0.9656
-8.3731 1.4845 -1.9986 0.9657
-8.4782 -0.0291 -1.9926 0.9658
-8.4295 -0.7853 -1.9897 0.9658
-8.1330 -2.2666 -1.9843 0.9659
-7.8880 -2.9803 -1.9818 0.9659
-7.2153 -4.3266 -1.9773 0.9660
-5.7943 -6.0687 -1.9720 0.9661
-5.2255 -6.5577 -1.9707 0.9661
-4.6163 -6.9946 -1.9696 0.9662
-3.2957 -7.6991 -1.9683 0.9662
-1.1362 -8.2971 -1.9682 0.9662
-0.3905 -8.3675 -1.9687 0.9662
0.3587 -8.3722 -1.9695 0.9662
1.8450 -8.1842 -1.9717 0.9661
2.5707 -7.9927 -1.9732 0.9661
3.2772 -7.7378 -1.9749 0.9661
5.2285 -6.6131 -1.9813 0.9660
5.8056 -6.1273 -1.9838 0.9659
6.3382 -5.5915 -1.9864 0.9659
7.9410 -3.0351 -1.9980 0.9657
8.5527 -0.0621 -2.0101 0.9655
8.5365 0.7032 -2.0131 0.9654
8.2982 2.2173 -2.0187 0.9653
8.0774 2.9536 -2.0213 0.9653
7.4404 4.3541 -2.0261 0.9652
7.0289 5.0065 -2.0282 0.9652
5.4631 6.7074 -2.0331 0.9651
4.1865 7.5802 -2.0352 0.9650
1.8736 7.7827 -1.8814 0.9676
0.4585 7.9890 -1.8807 0.9677
-2.3630 7.6260 -1.8764 0.9677
-4.2878 6.7066 -1.8708 0.9678
-4.8640 6.2892 -1.8686 0.9679
-5.8902 5.3094 -1.8637 0.9679
-7.9373 3.1314 -2.0054 0.9655
-8.1729 2.4061 -2.0023 0.9656
-8.3424 1.6639 -1.9993 0.9656
-8.4450 0.9105 -1.9963 0.9657
-8.4799 0.1523 -1.9933 0.9658
-8.4473 -0.6050 -1.9904 0.9658
-8.3477 -1.3553 -1.9876 0.9658
-7.6601 -3.5067 -1.9800 0.9660
-6.4364 -5.3958 -1.9739 0.9661
-4.7654 -6.8951 -1.9699 0.9661
-4.1286 -7.2900 -1.9690 0.9662
-3.4597 -7.6273 -1.9684 0.9662
-2.0467 -8.1194 -1.9679 0.9662
-0.5694 -8.3567 -1.9686 0.9662
0.1795 -8.3771 -1.9693 0.9662
0.9276 -8.3316 -1.9702 0.9661
2.3987 -8.0443 -1.9728 0.9661
5.0844 -6.7215 -1.9808 0.9660
5.6715 -6.2481 -1.9832 0.9659
6.7108 -5.1529 -1.9885 0.9658
7.5425 -3.8876 -1.9943 0.9657
7.8714 -3.2031 -1.9973 0.9657
8.4781 1.2836 -2.0153 0.9654
7.8652 3.4994 -2.0232 0.9652
7.5298 4.1929 -2.0255 0.9652
7.1327 4.8539 -2.0277 0.9652
6.1661 6.0566 -2.0313 0.9651
5.6045 6.5880 -2.0328 0.9651
4.9965 7.0666 -2.0340 0.9651
3.6612 7.8472 -2.0351 0.9650
2.7228 7.5272 -1.8813 0.9676
2.0396 7.7409 -1.8814 0.9676
-1.5064 7.8479 -1.8781 0.9677
-4.1445 6.7986 -1.8713 0.9678
-4.7298 6.3937 -1.8691 0.9678
-6.6827 5.2458 -1.9967 0.9657
-7.1796 4.6636 -2.0121 0.9654
-7.5563 3.9976 -2.0091 0.9655
-7.8714 3.3017 -2.0061 0.9655
-8.1225 2.5813 -2.0031 0.9656
-8.4612 -0.4244 -1.9911 0.9658
-8.2277 -1.9180 -1.9855 0.9659
-7.7355 -3.3430 -1.9805 0.9660
-7.3975 -4.0162 -1.9783 0.9660
-7.0018 -4.6561 -1.9762 0.9660
-6.5517 -5.2580 -1.9743 0.9661
-6.0507 -5.8174 -1.9727 0.9661
-4.9124 -6.7924 -1.9701 0.9661
-4.2840 -7.2007 -1.9692 0.9662
-3.6223 -7.5520 -1.9685 0.9662
-2.9326 -7.8438 -1.9681 0.9662
-2.2199 -8.0738 -1.9679 0.9662
-1.4899 -8.2403 -1.9681 0.9662
-0.7479 -8.3420 -1.9684 0.9662
0.0003 -8.3782 -1.9691 0.9662
0.7491 -8.3484 -1.9700 0.9661
2.2257 -8.0922 -1.9725 0.9661
4.3036 -7.2325 -1.9780 0.9660
4.9381 -6.8268 -1.9802 0.9660
5.5349 -6.3661 -1.9826 0.9659
6.5969 -5.2935 -1.9879 0.9658
7.0534 -4.6896 -1.9907 0.9658
7.4550 -4.0466 -1.9936 0.9657
7.7983 -3.3695 -1.9965 0.9657
8.2986 -1.9338 -2.0026 0.9656
8.4511 -1.1865 -2.0057 0.9655
8.5361 -0.4275 -2.0087 0.9655
8.3800 1.8592 -2.0174 0.9653
8.1913 2.6039 -2.0201 0.9653
7.6157 4.0298 -2.0250 0.9652
7.2331 4.6991 -2.0272 0.9652
6.7910 5.3317 -2.0292 0.9651
5.7431 6.4656 -2.0325 0.9651
4.5060 7.3928 -2.0348 0.9651
2.9972 7.7627 -1.9557 0.9664
2.2047 7.6955 -1.8814 0.9676
0.7999 7.9632 -1.8809 0.9676
-2.0355 7.7230 -1.8771 0.9677
-2.7151 7.5041 -1.8755 0.9677
-3.9992 6.8875 -1.8718 0.9678
-4.5933 6.4952 -1.8697 0.9678
-7.4718 4.1598 -2.0098 0.9655
-7.8018 3.4705 -2.0068 0.9655
-8.4043 1.2718 -1.9977 0.9657
-8.4713 -0.2434 -1.9918 0.9658
-8.4036 -0.9978 -1.9889 0.9658
-7.1015 -4.5064 -1.9767 0.9660
-6.6641 -5.1178 -1.9748 0.9661
-5.6379 -6.2120 -1.9716 0.9661
-5.0572 -6.6867 -1.9704 0.9661
-4.4374 -7.1081 -1.9694 0.9662
-3.7833 -7.4733 -1.9686 0.9662
-3.0998 -7.7796 -1.9682 0.9662
-2.3921 -8.0245 -1.9680 0.9662
-1.6657 -8.2063 -1.9680 0.9662
-0.9261 -8.3236 -1.9683 0.9662
0.5703 -8.3616 -1.9697 0.9661
2.7726 -7.9270 -1.9737 0.9661
3.4728 -7.6545 -1.9755 0.9661
4.7896 -6.9289 -1.9796 0.9660
5.3959 -6.4811 -1.9820 0.9659
6.4800 -5.4316 -1.9872 0.9659
6.9491 -4.8377 -1.9900 0.9658
7.3641 -4.2037 -1.9929 0.9658
7.7217 -3.5342 -1.9958 0.9657
8.2523 -2.1101 -2.0019 0.9656
8.4207 -1.3665 -2.0049 0.9656
8.5551 0.1543 -2.0110 0.9655
8.5195 0.9192 -2.0139 0.9654
8.0030 3.1580 -2.0220 0.9653
6.9020 5.1841 -2.0287 0.9652
6.4170 5.7852 -2.0305 0.9651
5.8791 6.3403 -2.0321 0.9651
5.2927 6.8446 -2.0335 0.9651
3.9939 7.6844 -2.0354 0.9650
3.2810 7.9849 -2.0289 0.9651
2.3687 7.6465 -1.8813 0.9676
0.9701 7.9447 -1.8811 0.9676
0.2564 7.9973 -1.8805 0.9677
-1.1697 7.9076 -1.8787 0.9677
-4.4545 6.5939 -1.8702 0.9678
-5.0197 6.1621 -1.8679 0.9679
-7.3837 4.3202 -2.0106 0.9655
-8.0105 2.9285 -2.0045 0.9656
-8.4775 -0.0622 -1.9925 0.9658
-8.4259 -0.8181 -1.9896 0.9658
-8.3075 -1.5654 -1.9868 0.9659
-7.8759 -3.0109 -1.9817 0.9659
-7.5665 -3.6981 -1.9793 0.9660
-7.1980 -4.3545 -1.9772 0.9660
-6.7735 -4.9752 -1.9752 0.9661
-6.2964 -5.5555 -1.9735 0.9661
-5.7704 -6.0910 -1.9719 0.9661
-5.1998 -6.5779 -1.9706 0.9661
-3.9425 -7.3913 -1.9688 0.9662
-2.5632 -7.9716 -1.9680 0.9662
-1.8408 -8.1687 -1.9680 0.9662
-1.1039 -8.3015 -1.9682 0.9662
0.3913 -8.3709 -1.9695 0.9662
1.1382 -8.3068 -1.9705 0.9661
1.8769 -8.1771 -1.9718 0.9661
2.6019 -7.9829 -1.9733 0.9661
3.3075 -7.7253 -1.9750 0.9661
4.6391 -7.0279 -1.9791 0.9660
5.2545 -6.5931 -1.9814 0.9660
6.3603 -5.5671 -1.9865 0.9659
7.6416 -3.6973 -1.9951 0.9657
7.9533 -3.0043 -1.9981 0.9657
8.5039 -0.7916 -2.0073 0.9655
6.5379 5.6454 -2.0301 0.9651
6.0123 6.2120 -2.0318 0.9651
4.1570 7.5966 -2.0352 0.9650
3.4558 7.9241 -2.0317 0.9651
-0.2881 7.9938 -1.8799 0.9677
-1.7040 7.8058 -1.8777 0.9677
-2.3927 7.6165 -1.8763 0.9677
-3.0608 7.3657 -1.8746 0.9678
-3.7029 7.0558 -1.8728 0.9678
-4.3137 6.6895 -1.8707 0.9678
-4.8882 6.2699 -1.8685 0.9679
-5.4219 5.8008 -1.8661 0.9679
-5.9105 5.2861 -1.8636 0.9679
-7.2922 4.4787 -2.0113 0.9654
-7.6518 3.8037 -2.0083 0.9655
-7.9490 3.1002 -2.0052 0.9655
-8.1817 2.3741 -2.0022 0.9656
-8.3483 1.6312 -1.9991 0.9657
-8.4443 -0.6379 -1.9903 0.9658
-8.3418 -1.3878 -1.9875 0.9658
-7.9408 -2.8426 -1.9823 0.9659
-6.8799 -4.8303 -1.9757 0.9660
-6.4150 -5.4206 -1.9739 0.9661
-5.9004 -5.9673 -1.9723 0.9661
-4.7384 -6.9134 -1.9698 0.9661
-4.1001 -7.3059 -1.9690 0.9662
-3.4300 -7.6406 -1.9684 0.9662
-2.7332 -7.9151 -1.9680 0.9662
-2.0151 -8.1274 -1.9679 0.9662
-1.2811 -8.2756 -1.9681 0.9662
-0.5368 -8.3589 -1.9686 0.9662
0.9601 -8.3281 -1.9703 0.9661
1.7013 -8.2141 -1.9715 0.9661
2.4301 -8.0351 -1.9729 0.9661
5.1108 -6.7020 -1.9809 0.9660
5.6961 -6.2263 -1.9833 0.9659
7.1726 -4.5116 -1.9915 0.9658
7.8844 -3.1726 -1.9974 0.9657
8.1486 -2.4593 -2.0004 0.9656
8.3485 -1.7241 -2.0035 0.9656
8.4820 -0.9729 -2.0065 0.9655
8.5478 -0.2116 -2.0095 0.9655
7.8519 3.5302 -2.0233 0.9652
7.5138 4.2224 -2.0256 0.9652
5.5789 6.6100 -2.0329 0.9651
3.6297 7.8594 -2.0346 0.9651
2.0094 7.7488 -1.8814 0.9676
-0.1171 7.9989 -1.8801 0.9677
-2.9032 7.4312 -1.8750 0.9677
-4.1708 6.7820 -1.8712 0.9678
-4.7544 6.3749 -1.8690 0.9679
-5.2983 5.9172 -1.8667 0.9679
-5.7980 5.4131 -1.8642 0.9679
-6.7390 5.2477 -2.0074 0.9655
-7.1973 4.6353 -2.0120 0.9654
7.2690 -2.6015 -1.9990 0.9686
7.4827 -1.9444 -2.0017 0.9686
7.7305 -0.5834 -2.0073 0.9685
7.7622 0.1097 -2.0100 0.9684
7.7316 0.8037 -2.0126 0.9684
7.4838 2.1722 -2.0177 0.9683
6.9935 3.4772 -2.0222 0.9682
6.2752 4.6752 -2.0261 0.9682
5.8372 5.2213 -2.0278 0.9682
5.3512 5.7260 -2.0292 0.9681
4.8212 6.1849 -2.0304 0.9681
4.2515 6.5941 -2.0314 0.9681
3.6468 6.9501 -2.0322 0.9681
2.2123 7.0441 -1.9117 0.9700
1.5467 7.0878 -1.8783 0.9705
0.9072 7.1967 -1.8781 0.9705
0.2606 7.2471 -1.8776 0.9705
-0.3877 7.2387 -1.8769 0.9705
-2.2890 6.8643 -1.8735 0.9705
-4.5306 5.6062 -1.8663 0.9707
-5.0075 5.1730 -1.8641 0.9707
-5.8420 5.0438 -1.9984 0.9686
-6.3136 4.5336 -2.0125 0.9684
-7.2603 2.6863 -2.0044 0.9685
-7.4609 2.0242 -2.0016 0.9686
-7.6809 0.6623 -1.9961 0.9686
-7.5519 -1.3925 -1.9883 0.9688
-7.3883 -2.0591 -1.9859 0.9688
-7.1666 -2.7078 -1.9836 0.9688
-6.8886 -3.3336 -1.9814 0.9689
-6.1737 -4.4977 -1.9777 0.9689
-5.2667 -5.5161 -1.9747 0.9690
-3.6103 -6.7054 -1.9718 0.9690
-2.3585 -7.2380 -1.9710 0.9690
-1.7025 -7.4197 -1.9710 0.9690
-0.3550 -7.6068 -1.9717 0.9690
1.0051 -7.5548 -1.9733 0.9690
1.6770 -7.4391 -1.9744 0.9690
2.9784 -7.0323 -1.9774 0.9689
3.5980 -6.7441 -1.9791 0.9689
4.1902 -6.4020 -1.9811 0.9689
4.7504 -6.0084 -1.9832 0.9688
5.2741 -5.5663 -1.9854 0.9688
5.7572 -5.0790 -1.9878 0.9688
6.1957 -4.5501 -1.9903 0.9687
6.9248 -3.3839 -1.9956 0.9687
7.2093 -2.7555 -1.9983 0.9686
7.4369 -2.1033 -2.0011 0.9686
7.6056 -1.4325 -2.0038 0.9685
7.7446 0.6380 -2.0120 0.9684
7.3253 2.6786 -2.0195 0.9683
7.0645 3.3259 -2.0217 0.9683
6.7461 3.9478 -2.0238 0.9682
5.9464 5.0943 -2.0274 0.9682
5.4716 5.6094 -2.0289 0.9681
3.7943 6.8700 -2.0320 0.9681
3.1662 7.1835 -2.0326 0.9681
2.4415 7.2294 -1.9757 0.9690
1.6979 7.0532 -1.8784 0.9705
1.0610 7.1759 -1.8782 0.9705
-1.5170 7.0815 -1.8751 0.9705
-3.3324 6.4105 -1.8707 0.9706
-4.4109 5.7033 -1.8668 0.9706
-4.8971 5.2804 -1.8647 0.9707
-5.5488 5.0016 -1.9342 0.9696
-6.2164 4.6685 -2.0129 0.9684
-6.6007 4.0896 -2.0105 0.9684
-6.9303 3.4788 -2.0078 0.9685
-7.2035 2.8419 -2.0050 0.9685
-7.4184 2.1840 -2.0023 0.9686
-7.6674 0.8267 -1.9967 0.9686
-7.4327 -1.9011 -1.9864 0.9688
-7.2248 -2.5546 -1.9841 0.9688
-6.2697 -4.3655 -1.9781 0.9689
-5.8498 -4.9041 -1.9764 0.9690
-5.3844 -5.4031 -1.9750 0.9690
-4.3319 -6.2679 -1.9727 0.9690
-3.7532 -6.6271 -1.9720 0.9690
-1.1940 -7.5188 -1.9712 0.9690
0.8432 -7.5736 -1.9731 0.9690
1.5173 -7.4721 -1.9741 0.9690
2.1802 -7.3115 -1.9755 0.9690
2.8268 -7.0930 -1.9770 0.9689
3.4521 -6.8180 -1.9787 0.9689
4.6196 -6.1071 -1.9827 0.9689
5.1525 -5.6763 -1.9849 0.9688
5.6456 -5.1995 -1.9872 0.9688
6.8487 -3.5301 -1.9949 0.9687
7.3878 -2.2611 -2.0004 0.9686
7.5707 -1.5943 -2.0032 0.9685
7.6935 -0.9129 -2.0059 0.9685
7.7548 -0.2222 -2.0087 0.9685
7.7540 0.4721 -2.0114 0.9684
7.5655 1.8491 -2.0165 0.9683
6.8273 3.8017 -2.0233 0.9682
5.5894 5.4901 -2.0285 0.9681
5.0799 5.9714 -2.0299 0.9681
4.5286 6.4048 -2.0310 0.9681
3.9400 6.7867 -2.0319 0.9681
3.3190 7.1137 -2.0325 0.9681
2.6614 7.3575 -2.0258 0.9682
0.5704 7.2303 -1.8779 0.9705
-1.3654 7.1134 -1.8754 0.9705
-1.9941 6.9583 -1.8742 0.9705
-3.1952 6.4817 -1.8711 0.9706
-3.7579 6.1644 -1.8693 0.9706
-4.2890 5.7979 -1.8673 0.9706
-4.7844 5.3855 -1.8652 0.9707
-5.2797 4.9678 -1.8770 0.9705
-6.1095 4.7959 -2.0110 0.9684
-7.1435 2.9963 -2.0057 0.9685
-7.3724 2.3429 -2.0029 0.9685
-7.5418 1.6726 -2.0001 0.9686
-7.6505 0.9908 -1.9974 0.9686
-7.6840 -0.3854 -1.9920 0.9687
-7.6091 -1.0689 -1.9895 0.9688
-7.2797 -2.4001 -1.9847 0.9688
-6.7220 -3.6494 -1.9804 0.9689
-5.9545 -4.7787 -1.9768 0.9689
-5.4996 -5.2876 -1.9753 0.9690
-4.4655 -6.1745 -1.9730 0.9690
-3.8944 -6.5459 -1.9721 0.9690
-2.6660 -7.1309 -1.9711 0.9690
-2.0182 -7.3400 -1.9710 0.9690
-1.3545 -7.4914 -1.9711 0.9690
0.0003 -7.6164 -1.9720 0.9690
0.6810 -7.5890 -1.9728 0.9690
1.3569 -7.5018 -1.9739 0.9690
2.6739 -7.1504 -1.9766 0.9689
3.3048 -6.8888 -1.9783 0.9689
5.9918 -4.8080 -1.9891 0.9688
6.4056 -4.2590 -1.9917 0.9687
7.3353 -2.4178 -1.9997 0.9686
7.6696 -1.0768 -2.0053 0.9685
7.7458 -0.3879 -2.0080 0.9685
7.7599 0.3060 -2.0107 0.9684
7.4290 2.3615 -2.0183 0.9683
7.1965 3.0192 -2.0206 0.9683
6.9054 3.6539 -2.0228 0.9682
6.5578 4.2604 -2.0248 0.9682
5.7045 5.3684 -2.0282 0.9682
5.2057 5.8606 -2.0296 0.9681
4.6640 6.3058 -2.0307 0.9681
4.0839 6.7003 -2.0317 0.9681
-1.2131 7.1420 -1.8757 0.9705
-2.4613 6.8027 -1.8731 0.9706
-3.0566 6.5500 -1.8715 0.9706
-3.6260 6.2448 -1.8697 0.9706
-4.1651 5.8898 -1.8678 0.9706
-5.1350 5.0430 -1.8635 0.9707
-6.4239 4.3708 -2.0117 0.9684
-6.7796 3.7745 -2.0091 0.9684
-7.5067 1.8342 -2.0008 0.9686
-7.6301 1.1546 -1.9980 0.9686
-7.6922 0.4677 -1.9953 0.9687
-7.6325 -0.9062 -1.9901 0.9687
-7.5116 -1.5824 -1.9876 0.9688
-7.3314 -2.2445 -1.9852 0.9688
-6.8001 -3.5057 -1.9809 0.9689
-6.4535 -4.0952 -1.9789 0.9689
-5.6124 -5.1696 -1.9757 0.9690
-5.1246 -5.6465 -1.9743 0.9690
-2.8180 -7.0725 -1.9712 0.9690
-2.1747 -7.2952 -1.9710 0.9690
-1.5143 -7.4605 -1.9710 0.9690
-0.8419 -7.5671 -1.9713 0.9690
-0.1626 -7.6140 -1.9719 0.9690
0.5184 -7.6010 -1.9726 0.9690
2.5199 -7.2046 -1.9762 0.9690
4.3520 -6.2958 -1.9816 0.9689
5.4150 -5.4330 -1.9861 0.9688
7.2795 -2.5733 -1.9991 0.9686
7.4906 -1.9153 -2.0019 0.9686
7.6423 -1.2402 -2.0046 0.9685
7.7332 -0.5533 -2.0074 0.9685
7.7622 0.1400 -2.0101 0.9684
7.6331 1.5230 -2.0153 0.9684
6.6459 4.1182 -2.0243 0.9682
5.3290 5.7470 -2.0293 0.9681
4.2258 6.6108 -2.0315 0.9681
3.6197 6.9644 -2.0322 0.9681
2.1734 7.0160 -1.9017 0.9701
1.5190 7.0937 -1.8783 0.9705
-0.4159 7.2370 -1.8769 0.9705
-1.0602 7.1673 -1.8759 0.9705
-1.6952 7.0396 -1.8748 0.9705
-2.3157 6.8550 -1.8734 0.9705
-2.9164 6.6153 -1.8719 0.9706
-4.5522 5.5882 -1.8662 0.9707
-5.0274 5.1532 -1.8640 0.9707
-5.8882 5.0437 -2.0074 0.9685
-6.3309 4.5087 -2.0124 0.9684
-6.6995 3.9199 -2.0097 0.9684
-7.0134 3.3012 -2.0070 0.9685
-7.2702 2.6578 -2.0042 0.9685
-7.6983 -0.0565 -1.9933 0.9687
-7.6525 -0.7430 -1.9907 0.9687
-7.3798 -2.0878 -1.9858 0.9688
-7.1556 -2.7356 -1.9835 0.9688
-6.5411 -3.9571 -1.9794 0.9689
-6.1558 -4.5215 -1.9776 0.9689
-4.1716 -6.3746 -1.9725 0.9690
-2.9688 -7.0109 -1.9713 0.9690
-2.3303 -7.2471 -1.9710 0.9690
-1.0035 -7.5470 -1.9712 0.9690
-0.3254 -7.6082 -1.9717 0.9690
1.0346 -7.5510 -1.9733 0.9690
1.7060 -7.4327 -1.9745 0.9690
2.3649 -7.2556 -1.9759 0.9690
3.6244 -6.7303 -1.9792 0.9689
5.2961 -5.5460 -1.9855 0.9688
5.7773 -5.0568 -1.9879 0.9688
6.9384 -3.3570 -1.9957 0.9687
7.2204 -2.7275 -1.9984 0.9686
7.6116 -1.4029 -2.0040 0.9685
7.7171 -0.7183 -2.0067 0.9685
7.7425 0.6682 -2.0121 0.9684
7.6617 1.3590 -2.0147 0.9684
7.3151 2.7072 -2.0196 0.9683
7.0518 3.3536 -2.0218 0.9683
6.3549 4.5639 -2.0258 0.9682
5.9267 5.1177 -2.0275 0.9682
4.3658 6.5182 -2.0313 0.9681
2.3986 7.1946 -1.9636 0.9692
1.6704 7.0597 -1.8784 0.9705
1.0330 7.1800 -1.8782 0.9705
0.3873 7.2419 -1.8777 0.9705
-0.9068 7.1893 -1.8762 0.9705
-2.1689 6.9043 -1.8738 0.9705
-2.7748 6.6775 -1.8723 0.9706
-3.3572 6.3972 -1.8706 0.9706
-4.9174 5.2610 -1.8646 0.9707
-5.6008 5.0091 -1.9455 0.9694
-7.4264 2.1549 -2.0021 0.9686
-7.5787 1.4809 -1.9994 0.9686
-7.6701 0.7968 -1.9966 0.9686
-7.7002 0.1082 -1.9939 0.9687
-7.6690 -0.5793 -1.9913 0.9687
-7.2144 -2.5826 -1.9840 0.9688
-6.9473 -3.2132 -1.9819 0.9689
-5.8304 -4.9267 -1.9764 0.9690
-4.3074 -6.2846 -1.9727 0.9690
-3.1182 -6.9461 -1.9714 0.9690
-1.1647 -7.5235 -1.9712 0.9690
0.8728 -7.5704 -1.9731 0.9690
1.5464 -7.4664 -1.9742 0.9690
2.8545 -7.0822 -1.9770 0.9689
3.4789 -6.8048 -1.9788 0.9689
4.0768 -6.4730 -1.9807 0.9689
4.6436 -6.0893 -1.9827 0.9689
5.6662 -5.1777 -1.9873 0.9688
6.5137 -4.0971 -1.9924 0.9687
7.6867 1.1945 -2.0141 0.9684
7.3693 2.5494 -2.0190 0.9683
6.4497 4.4260 -2.0253 0.9682
5.5681 5.5121 -2.0286 0.9681
5.0567 5.9913 -2.0299 0.9681
4.5037 6.4226 -2.0310 0.9681
3.9136 6.8021 -2.0319 0.9681
3.2913 7.1267 -2.0325 0.9681
1.8211 7.0224 -1.8784 0.9705
1.1863 7.1565 -1.8782 0.9705
0.5422 7.2324 -1.8779 0.9705
-0.1061 7.2496 -1.8772 0.9705
-0.7529 7.2079 -1.8764 0.9705
-2.6319 6.7367 -1.8726 0.9706
-4.3114 5.7809 -1.8672 0.9706
-4.8051 5.3665 -1.8651 0.9707
-5.3239 4.9705 -1.8858 0.9704
-6.8703 3.6005 -2.0083 0.9685
6.6490 -2.3796 -1.9992 0.9711
6.8436 -1.7783 -2.0017 0.9710
6.9839 -1.1613 -2.0042 0.9710
7.0686 -0.5334 -2.0068 0.9710
7.0968 0.1003 -2.0092 0.9709
7.0680 0.7348 -2.0117 0.9709
6.6424 2.5912 -2.0184 0.9708
6.3907 3.1774 -2.0204 0.9708
6.0869 3.7390 -2.0223 0.9707
3.3310 6.3483 -2.0295 0.9706
-0.3541 6.6121 -1.8745 0.9728
-2.0912 6.2711 -1.8714 0.9729
-3.1687 5.7896 -1.8684 0.9729
-4.1405 5.1234 -1.8648 0.9730
-4.7482 4.9051 -1.9326 0.9720
-5.3783 4.6434 -2.0115 0.9709
-5.7718 4.1444 -2.0115 0.9709
-6.1115 3.6079 -2.0091 0.9709
-7.0266 0.6059 -1.9966 0.9711
-6.9108 -1.2743 -1.9894 0.9712
-6.3057 -3.0515 -1.9831 0.9713
-6.0024 -3.5993 -1.9813 0.9713
-5.6522 -4.1178 -1.9797 0.9713
-5.2578 -4.6028 -1.9782 0.9714
-3.8429 -5.8226 -1.9750 0.9714
-3.3062 -6.1405 -1.9743 0.9714
-2.7438 -6.4099 -1.9738 0.9714
-1.5591 -6.7949 -1.9736 0.9714
0.2986 -6.9695 -1.9748 0.9714
0.9204 -6.9179 -1.9757 0.9714
1.5356 -6.8117 -1.9767 0.9714
2.7269 -6.4384 -1.9794 0.9714
3.2939 -6.1741 -1.9810 0.9713
3.8357 -5.8604 -1.9828 0.9713
4.8271 -5.0945 -1.9868 0.9712
5.6693 -4.1635 -1.9913 0.9712
6.0258 -3.6448 -1.9936 0.9711
6.9554 -1.3100 -2.0036 0.9710
7.0535 -0.6843 -2.0062 0.9710
7.0079 1.2148 -2.0135 0.9709
6.6946 2.4479 -2.0179 0.9708
5.4326 4.6542 -2.0251 0.9707
4.9985 5.1243 -2.0265 0.9707
0.9691 6.5544 -1.8757 0.9728
0.3796 6.6134 -1.8753 0.9728
-0.8028 6.5705 -1.8739 0.9729
-1.3858 6.4691 -1.8729 0.9729
-1.9569 6.3154 -1.8717 0.9729
-2.5115 6.1108 -1.8703 0.9729
-3.0448 5.8573 -1.8688 0.9729
-3.5527 5.5568 -1.8671 0.9730
-4.0309 5.2121 -1.8653 0.9730
-5.2738 4.7538 -2.0100 0.9709
-5.6834 4.2682 -2.0121 0.9709
-6.0347 3.7389 -2.0097 0.9709
-6.3368 3.1809 -2.0072 0.9710
-6.5874 2.5988 -2.0047 0.9710
-6.7846 1.9974 -2.0022 0.9710
-7.0141 0.7563 -1.9971 0.9711
-6.8024 -1.7399 -1.9877 0.9712
-6.6127 -2.3382 -1.9856 0.9713
-6.3710 -2.9166 -1.9836 0.9713
-5.7401 -3.9967 -1.9801 0.9713
-5.3560 -4.4901 -1.9786 0.9714
-4.9301 -4.9473 -1.9772 0.9714
-3.9669 -5.7396 -1.9752 0.9714
-3.4370 -6.0689 -1.9744 0.9714
-1.0934 -6.8857 -1.9737 0.9714
-0.4740 -6.9571 -1.9741 0.9714
1.3893 -6.8420 -1.9765 0.9714
3.7087 -5.9397 -1.9824 0.9713
5.1667 -4.7583 -1.9884 0.9712
5.9448 -3.7717 -1.9931 0.9712
6.5372 -2.6602 -1.9980 0.9711
6.7572 -2.0681 -2.0005 0.9711
6.9237 -1.4581 -2.0030 0.9710
7.0351 -0.8347 -2.0056 0.9710
7.0889 0.4316 -2.0105 0.9709
6.9150 1.6901 -2.0152 0.9708
6.7437 2.3036 -2.0174 0.9708
6.2385 3.4738 -2.0214 0.9708
5.9084 4.0208 -2.0232 0.9707
3.5989 6.1991 -2.0292 0.9706
3.0315 6.4976 -2.0298 0.9706
1.7624 6.6887 -1.9581 0.9717
-0.6621 6.5869 -1.8741 0.9729
-1.2473 6.4981 -1.8732 0.9729
-1.8217 6.3568 -1.8720 0.9729
-2.3806 6.1643 -1.8707 0.9729
-2.9195 5.9222 -1.8692 0.9729
-3.4338 5.6328 -1.8675 0.9729
-3.9195 5.2984 -1.8657 0.9730
-5.1671 4.8619 -2.0085 0.9709
-6.2692 3.3167 -2.0078 0.9709
-6.5323 2.7400 -2.0053 0.9710
-6.7424 2.1427 -2.0028 0.9710
-7.0427 0.2771 -1.9953 0.9711
-7.0307 -0.3526 -1.9928 0.9712
-6.8399 -1.5944 -1.9882 0.9712
-6.6629 -2.1967 -1.9861 0.9713
-6.4334 -2.7803 -1.9841 0.9713
-5.8254 -3.8738 -1.9805 0.9713
-5.4517 -4.3753 -1.9789 0.9714
-4.0892 -5.6541 -1.9754 0.9714
-3.0157 -6.2873 -1.9740 0.9714
-2.4415 -6.5304 -1.9737 0.9714
-1.8482 -6.7220 -1.9736 0.9714
-1.2404 -6.8605 -1.9737 0.9714
-0.6227 -6.9450 -1.9740 0.9714
1.2425 -6.8693 -1.9762 0.9714
3.5800 -6.0164 -1.9819 0.9713
4.1070 -5.6778 -1.9838 0.9713
5.4831 -4.3997 -1.9902 0.9712
5.8611 -3.8969 -1.9925 0.9712
6.1933 -3.3618 -1.9949 0.9711
6.7094 -2.2115 -1.9999 0.9711
6.8888 -1.6053 -2.0024 0.9710
7.0135 -0.9847 -2.0050 0.9710
6.7897 2.1583 -2.0169 0.9708
6.5766 2.7591 -2.0190 0.9708
5.9918 3.8927 -2.0228 0.9707
5.6247 4.4160 -2.0244 0.9707
4.7554 5.3537 -2.0272 0.9707
4.2604 5.7601 -2.0282 0.9707
3.7303 6.1202 -2.0291 0.9706
2.5829 6.6897 -2.0301 0.9706
1.9533 6.8181 -2.0078 0.9709
0.0706 6.6229 -1.8750 0.9728
-0.5212 6.6003 -1.8743 0.9729
-1.6856 6.3953 -1.8723 0.9729
-3.3133 5.7062 -1.8679 0.9729
-3.8062 5.3823 -1.8662 0.9730
-6.1987 3.4510 -2.0084 0.9709
-6.8659 1.6776 -2.0009 0.9710
-6.9795 1.0562 -1.9983 0.9711
-7.0372 0.4279 -1.9959 0.9711
-7.0386 -0.2022 -1.9934 0.9712
-6.9841 -0.8292 -1.9910 0.9712
-6.8742 -1.4482 -1.9888 0.9712
-6.7100 -2.0542 -1.9866 0.9712
-6.4930 -2.6427 -1.9845 0.9713
-6.2249 -3.2091 -1.9826 0.9713
-4.6925 -5.1703 -1.9766 0.9714
-3.6940 -5.9173 -1.9748 0.9714
-3.1496 -6.2217 -1.9741 0.9714
-0.7710 -6.9298 -1.9739 0.9714
-0.1489 -6.9726 -1.9744 0.9714
1.0952 -6.8934 -1.9760 0.9714
2.3072 -6.5965 -1.9784 0.9714
2.8895 -6.3688 -1.9798 0.9713
4.4871 -5.3895 -1.9853 0.9713
4.9558 -4.9723 -1.9874 0.9712
5.3862 -4.5147 -1.9896 0.9712
6.1181 -3.4924 -1.9943 0.9711
6.4136 -2.9355 -1.9968 0.9711
7.0710 -0.5059 -2.0069 0.9710
7.0967 0.1280 -2.0094 0.9709
6.9772 1.3921 -2.0141 0.9709
6.8325 2.0121 -2.0164 0.9708
6.3785 3.2024 -2.0205 0.9708
5.7168 4.2939 -2.0240 0.9707
5.3143 4.7910 -2.0256 0.9707
4.8682 5.2500 -2.0269 0.9707
3.3062 6.3613 -2.0295 0.9706
1.3875 6.4793 -1.8758 0.9728
0.2122 6.6204 -1.8751 0.9728
-0.3799 6.6106 -1.8745 0.9728
-0.9685 6.5472 -1.8736 0.9729
-2.1156 6.2627 -1.8713 0.9729
-2.6646 6.0441 -1.8699 0.9729
-3.1912 5.7770 -1.8683 0.9729
-3.6911 5.4637 -1.8666 0.9730
-4.1602 5.1070 -1.8647 0.9730
-5.3971 4.6231 -2.0118 0.9709
-5.7876 4.1217 -2.0114 0.9709
-6.6486 2.4306 -2.0040 0.9710
-6.9574 1.2056 -1.9989 0.9711
-7.0285 0.5785 -1.9964 0.9711
-7.0022 -0.6798 -1.9916 0.9712
-6.2935 -3.0759 -1.9831 0.9713
-5.9881 -3.6226 -1.9813 0.9713
-3.8201 -5.8375 -1.9749 0.9714
-1.5326 -6.8010 -1.9736 0.9714
-0.2980 -6.9674 -1.9742 0.9714
0.3258 -6.9684 -1.9749 0.9714
0.9474 -6.9144 -1.9757 0.9714
1.5621 -6.8058 -1.9768 0.9714
2.1653 -6.6432 -1.9780 0.9714
3.8587 -5.8456 -1.9829 0.9713
5.2870 -4.6277 -1.9891 0.9712
6.3475 -3.0711 -1.9962 0.9711
6.8098 -1.8973 -2.0012 0.9710
7.0958 -0.0238 -2.0088 0.9709
7.0781 0.6109 -2.0112 0.9709
6.8722 1.8650 -2.0158 0.9708
6.6853 2.4741 -2.0180 0.9708
5.4146 4.6755 -2.0252 0.9707
4.9786 5.1439 -2.0266 0.9707
4.5018 5.5713 -2.0277 0.9707
3.9879 5.9540 -2.0287 0.9706
3.4413 6.2887 -2.0294 0.9706
2.8665 6.5726 -2.0299 0.9706
0.9435 6.5581 -1.8757 0.9728
0.3538 6.6148 -1.8753 0.9728
-2.5352 6.1008 -1.8703 0.9729
-3.0675 5.8451 -1.8687 0.9729
-3.5742 5.5427 -1.8670 0.9730
-4.5753 4.8950 -1.8968 0.9725
-5.6997 4.2458 -2.0120 0.9709
-6.0489 3.7151 -2.0096 0.9709
-6.3488 3.1560 -2.0071 0.9710
-6.5971 2.5730 -2.0046 0.9710
-7.0166 0.7289 -1.9970 0.9711
-7.0171 -0.5301 -1.9922 0.9712
-6.9336 -1.1535 -1.9898 0.9712
-6.3593 -2.9413 -1.9835 0.9713
-6.0655 -3.4944 -1.9817 0.9713
-5.7242 -4.0189 -1.9800 0.9713
-4.9107 -4.9663 -1.9772 0.9714
-4.4448 -5.3821 -1.9761 0.9714
-3.4133 -6.0821 -1.9744 0.9714
-2.8556 -6.3611 -1.9739 0.9714
-1.6777 -6.7666 -1.9736 0.9714
-0.4469 -6.9590 -1.9741 0.9714
2.6135 -6.4841 -1.9791 0.9714
3.7319 -5.9255 -1.9824 0.9713
4.2504 -5.5737 -1.9843 0.9713
4.7362 -5.1771 -1.9864 0.9713
5.5944 -4.2611 -1.9908 0.9712
5.9597 -3.7487 -1.9932 0.9712
6.2785 -3.2052 -1.9956 0.9711
6.5479 -2.6348 -1.9981 0.9711
6.9297 -1.4311 -2.0031 0.9710
7.0387 -0.8074 -2.0057 0.9710
7.0915 -0.1755 -2.0082 0.9709
6.9087 1.7172 -2.0153 0.9708
6.5066 2.9254 -2.0196 0.9708
6.2252 3.4983 -2.0215 0.9708
5.8929 4.0439 -2.0233 0.9707
5.5124 4.5578 -2.0249 0.9707
5.0867 5.0355 -2.0263 0.9707
4.1139 5.8667 -2.0285 0.9707
3.0062 6.5095 -2.0298 0.9706
2.4107 6.7466 -2.0282 0.9707
0.4952 6.6061 -1.8754 0.9728
-0.0969 6.6219 -1.8748 0.9728
-0.6878 6.5841 -1.8741 0.9729
-1.2726 6.4931 -1.8731 0.9729
-1.8464 6.3495 -1.8720 0.9729
-2.4045 6.1548 -1.8706 0.9729
-5.1867 4.8424 -2.0088 0.9709
6.1202 -2.1904 -1.9994 0.9732
6.4272 -1.0688 -2.0040 0.9731
6.5045 -0.4909 -2.0063 0.9731
6.5298 0.0923 -2.0086 0.9730
6.5027 0.6760 -2.0109 0.9730
6.4232 1.2556 -2.0130 0.9730
6.1095 2.3833 -2.0171 0.9729
5.8775 2.9223 -2.0189 0.9729
5.5977 3.4385 -2.0206 0.9729
5.2722 3.9279 -2.0222 0.9729
4.4948 4.8096 -2.0248 0.9728
4.0492 5.1945 -2.0258 0.9728
3.5704 5.5378 -2.0266 0.9728
2.5293 6.0879 -2.0277 0.9728
1.4004 6.4173 -2.0203 0.9729
0.2188 6.0858 -1.8731 0.9748
-0.8670 6.0232 -1.8717 0.9749
-1.4009 5.9187 -1.8708 0.9749
-1.9229 5.7663 -1.8696 0.9749
-2.4287 5.5677 -1.8683 0.9749
-2.9141 5.3243 -1.8669 0.9749
-3.3752 5.0384 -1.8653 0.9749
-4.9536 4.2767 -2.0129 0.9730
-5.3102 3.8130 -2.0107 0.9730
-5.6233 3.3197 -2.0085 0.9730
-5.8907 2.8009 -2.0062 0.9731
-6.1103 2.2608 -2.0039 0.9731
-6.2271 -1.7355 -1.9883 0.9733
-5.8080 -2.8106 -1.9846 0.9734
-5.2067 -3.7932 -1.9814 0.9734
-4.8438 -4.2403 -1.9801 0.9734
-1.9902 -6.1076 -1.9758 0.9735
-0.8716 -6.3648 -1.9760 0.9735
0.8480 -6.3738 -1.9777 0.9735
2.5120 -5.9311 -1.9811 0.9734
3.0341 -5.6872 -1.9826 0.9734
3.5330 -5.3979 -1.9843 0.9734
4.0046 -5.0652 -1.9860 0.9733
4.4454 -4.6917 -1.9879 0.9733
5.2202 -3.8336 -1.9921 0.9733
5.5479 -3.3557 -1.9943 0.9732
6.0703 -2.3201 -1.9988 0.9732
6.2605 -1.7706 -2.0011 0.9731
6.4011 -1.2056 -2.0035 0.9731
6.4908 -0.6297 -2.0058 0.9731
6.5139 0.5366 -2.0103 0.9730
6.3279 1.6908 -2.0146 0.9730
6.1576 2.2516 -2.0166 0.9729
5.9374 2.7953 -2.0185 0.9729
5.6688 3.3174 -2.0202 0.9729
4.9955 4.2796 -2.0232 0.9728
4.5960 4.7117 -2.0245 0.9728
4.1589 5.1062 -2.0256 0.9728
3.6877 5.4597 -2.0265 0.9728
3.1863 5.7692 -2.0271 0.9728
2.6588 6.0322 -2.0276 0.9728
1.5386 6.3912 -2.0220 0.9729
0.9093 6.1501 -1.9122 0.9743
-0.1955 6.0852 -1.8726 0.9748
-0.7381 6.0410 -1.8719 0.9749
-1.7994 5.8070 -1.8699 0.9749
-2.3094 5.6193 -1.8686 0.9749
-2.8001 5.3865 -1.8672 0.9749
-4.4417 4.7894 -2.0091 0.9730
-5.2288 3.9267 -2.0113 0.9730
-5.5525 3.4401 -2.0091 0.9730
-6.0622 2.3916 -2.0045 0.9731
-6.2444 1.8384 -2.0021 0.9731
-6.4568 0.6962 -1.9975 0.9732
-6.4858 0.1165 -1.9952 0.9732
-6.4631 -0.4629 -1.9930 0.9732
-6.2643 -1.6023 -1.9888 0.9733
-5.8680 -2.6864 -1.9850 0.9734
-5.2876 -3.6817 -1.9818 0.9734
-4.5420 -4.5578 -1.9791 0.9734
-4.1145 -4.9428 -1.9781 0.9734
-3.6549 -5.2883 -1.9772 0.9735
-3.1668 -5.5917 -1.9766 0.9735
-2.6540 -5.8509 -1.9761 0.9735
-1.5701 -6.2287 -1.9758 0.9735
0.7114 -6.3898 -1.9775 0.9735
1.8391 -6.1675 -1.9795 0.9734
2.9112 -5.7497 -1.9823 0.9734
3.4160 -5.4711 -1.9839 0.9734
3.8945 -5.1486 -1.9856 0.9733
4.3430 -4.7846 -1.9875 0.9733
5.1356 -3.9434 -1.9916 0.9733
5.4733 -3.4726 -1.9937 0.9732
5.7682 -2.9731 -1.9960 0.9732
6.0176 -2.4487 -1.9983 0.9732
6.4740 -0.7682 -2.0052 0.9731
6.5222 0.3971 -2.0098 0.9730
6.2029 2.1189 -2.0161 0.9729
5.9945 2.6671 -2.0180 0.9729
5.7373 3.1948 -2.0198 0.9729
5.0850 4.1711 -2.0229 0.9729
4.6951 4.6117 -2.0242 0.9728
3.8033 5.3790 -2.0263 0.9728
3.3087 5.6993 -2.0270 0.9728
2.7871 5.9737 -2.0275 0.9728
1.6764 6.3623 -2.0237 0.9728
1.0575 6.2288 -1.9433 0.9739
0.4790 6.0716 -1.8733 0.9748
-0.0654 6.0885 -1.8728 0.9748
-0.6088 6.0561 -1.8721 0.9748
-1.1468 5.9747 -1.8712 0.9749
-2.1891 5.6684 -1.8690 0.9749
-3.1580 5.1803 -1.8661 0.9749
-3.6150 4.8867 -1.8696 0.9749
-5.1449 4.0387 -2.0118 0.9730
-5.7687 3.0519 -2.0073 0.9731
-6.0113 2.5215 -2.0050 0.9731
-6.4422 0.8344 -1.9980 0.9732
-6.4114 -0.9007 -1.9914 0.9733
-6.2987 -1.4683 -1.9893 0.9733
-5.6680 -3.0772 -1.9837 0.9734
-5.3661 -3.5684 -1.9821 0.9734
-5.0222 -4.0306 -1.9807 0.9734
-4.2198 -4.8542 -1.9783 0.9734
-3.7676 -5.2094 -1.9774 0.9735
-3.2859 -5.5231 -1.9767 0.9735
-2.2496 -6.0172 -1.9759 0.9735
-1.1429 -6.3214 -1.9758 0.9735
-0.5737 -6.3991 -1.9761 0.9735
0.5745 -6.4029 -1.9773 0.9735
1.7065 -6.2046 -1.9793 0.9734
2.2554 -6.0311 -1.9805 0.9734
3.2976 -5.5418 -1.9835 0.9734
3.7827 -5.2295 -1.9852 0.9734
4.6619 -4.4815 -1.9890 0.9733
5.0488 -4.0513 -1.9911 0.9733
5.3964 -3.5879 -1.9932 0.9732
5.7017 -3.0950 -1.9954 0.9732
6.4543 -0.9062 -2.0047 0.9731
6.5170 -0.3264 -2.0070 0.9731
6.4855 0.8404 -2.0115 0.9730
6.2454 1.9853 -2.0157 0.9729
5.5102 3.5798 -2.0211 0.9729
4.7919 4.5096 -2.0239 0.9728
3.9171 5.2959 -2.0261 0.9728
2.9140 5.9124 -2.0274 0.9728
0.6087 6.0603 -1.8734 0.9748
0.0649 6.0889 -1.8729 0.9748
-0.4792 6.0683 -1.8723 0.9748
-2.0677 5.7148 -1.8693 0.9749
-2.5681 5.5033 -1.8679 0.9749
-3.0471 5.2477 -1.8664 0.9749
-4.1432 4.8696 -1.9666 0.9736
-4.6667 4.5831 -2.0118 0.9730
-5.4032 3.6764 -2.0101 0.9730
-5.7036 3.1754 -2.0079 0.9731
-6.1635 2.1049 -2.0032 0.9731
-6.3195 1.5441 -2.0009 0.9731
-6.4247 0.9722 -1.9986 0.9732
-6.4784 0.3939 -1.9963 0.9732
-6.4804 -0.1862 -1.9941 0.9732
-6.3302 -1.3336 -1.9898 0.9733
-5.7337 -2.9559 -1.9841 0.9734
-5.4422 -3.4534 -1.9825 0.9734
-5.1081 -3.9229 -1.9810 0.9734
-4.3232 -4.7634 -1.9786 0.9734
-3.8785 -5.1281 -1.9776 0.9735
-2.3779 -5.9679 -1.9759 0.9735
-1.2778 -6.2954 -1.9758 0.9735
-0.7104 -6.3851 -1.9760 0.9735
-0.1372 -6.4245 -1.9765 0.9735
0.4374 -6.4131 -1.9771 0.9735
1.0090 -6.3511 -1.9780 0.9734
1.5732 -6.2388 -1.9790 0.9734
2.1255 -6.0770 -1.9802 0.9734
3.1777 -5.6099 -1.9831 0.9734
4.1325 -4.9636 -1.9866 0.9733
4.5639 -4.5791 -1.9885 0.9733
4.9598 -4.1573 -1.9906 0.9733
6.1290 -2.1666 -1.9995 0.9732
6.3054 -1.6123 -2.0018 0.9731
6.4317 -1.0437 -2.0041 0.9731
6.5067 -0.4655 -2.0064 0.9731
6.5297 0.1177 -2.0087 0.9730
6.4185 1.2806 -2.0131 0.9730
5.8663 2.9453 -2.0190 0.9729
5.2570 3.9485 -2.0222 0.9729
4.4761 4.8272 -2.0248 0.9728
1.9504 6.2961 -2.0273 0.9728
1.3724 6.4088 -2.0159 0.9729
0.7403 6.0633 -1.8788 0.9748
-0.3493 6.0777 -1.8725 0.9748
-0.8905 6.0197 -1.8717 0.9749
-2.9347 5.3127 -1.8668 0.9749
-3.3947 5.0250 -1.8652 0.9749
-4.5646 4.6788 -2.0105 0.9730
-4.9700 4.2572 -2.0128 0.9730
-5.3247 3.7921 -2.0106 0.9730
-5.6359 3.2976 -2.0084 0.9730
-5.9013 2.7777 -2.0061 0.9731
-6.2868 1.6793 -2.0015 0.9731
-6.4473 -0.6260 -1.9924 0.9733
-6.0321 -2.3061 -1.9863 0.9733
-5.7968 -2.8332 -1.9845 0.9734
-5.1918 -3.8134 -1.9813 0.9734
-4.4246 -4.6705 -1.9788 0.9734
-3.0242 -5.6696 -1.9764 0.9735
-0.8468 -6.3682 -1.9760 0.9735
-0.2745 -6.4197 -1.9764 0.9735
0.3001 -6.4205 -1.9770 0.9735
0.8729 -6.3705 -1.9777 0.9734
1.9948 -6.1201 -1.9799 0.9734
2.5352 -5.9214 -1.9812 0.9734
3.0564 -5.6755 -1.9827 0.9734
3.5541 -5.3842 -1.9843 0.9734
4.4638 -4.6745 -1.9880 0.9733
5.5612 -3.3342 -1.9944 0.9732
5.8434 -2.8272 -1.9966 0.9732
6.2677 -1.7463 -2.0012 0.9731
6.5290 -0.0219 -2.0082 0.9730
6.5121 0.5620 -2.0104 0.9730
6.4428 1.1428 -2.0126 0.9730
6.3215 1.7156 -2.0147 0.9730
5.9267 2.8185 -2.0186 0.9729
5.6560 3.3396 -2.0203 0.9729
5.3393 3.8345 -2.0219 0.9729
4.9789 4.2992 -2.0233 0.9728
4.1391 5.1224 -2.0256 0.9728
3.1638 5.7816 -2.0272 0.9728
2.0852 6.2546 -2.0279 0.9728
1.5135 6.3962 -2.0217 0.9729
0.8828 6.1360 -1.9067 0.9744
0.3253 6.0814 -1.8732 0.9748
-0.2192 6.0843 -1.8726 0.9748
-0.7616 6.0380 -1.8719 0.9749
-1.2973 5.9429 -1.8710 0.9749
-2.3312 5.6101 -1.8686 0.9749
-3.2871 5.0975 -1.8656 0.9749
-3.8026 4.8775 -1.9023 0.9744
-4.4608 4.7725 -2.0093 0.9730
-5.2438 3.9061 -2.0112 0.9730
-5.5656 3.4183 -2.0090 0.9730
-6.0712 2.3679 -2.0044 0.9731
-6.2511 1.8139 -2.0020 0.9731
-6.3808 1.2468 -1.9997 0.9732
-6.4859 0.0912 -1.9951 0.9732
-6.3846 -1.0622 -1.9908 0.9733
-6.0814 -2.1770 -1.9868 0.9733
-5.5871 -3.2188 -1.9832 0.9734
-5.2731 -3.7021 -1.9817 0.9734
-4.9178 -4.1555 -1.9803 0.9734
-4.0951 -4.9587 -1.9781 0.9734
-3.6342 -5.3024 -1.9772 0.9735
-1.5459 -6.2348 -1.9758 0.9735
-0.9828 -6.3485 -1.9759 0.9735
-0.4118 -6.4120 -1.9763 0.9735
0.7363 -6.3871 -1.9775 0.9735
1.3046 -6.2987 -1.9785 0.9734
1.8631 -6.1605 -1.9796 0.9734
2.9337 -5.7385 -1.9823 0.9734
3.4374 -5.4579 -1.9839 0.9734
4.7751 -4.3634 -1.9896 0.9733
5.1512 -3.9235 -1.9917 0.9733
5.4871 -3.4514 -1.9938 0.9732
5.7800 -2.9507 -1.9961 0.9732
6.0274 -2.4254 -1.9984 0.9732
6.3776 -1.3171 -2.0030 0.9731
6.4773 -0.7430 -2.0053 0.9731
6.5252 -0.1615 -2.0076 0.9731
6.4641 1.0045 -2.0121 0.9730
6.3552 1.5796 -2.0142 0.9730
6.1949 2.1431 -2.0162 0.9729
5.9843 2.6906 -2.0181 0.9729
5.7250 3.2172 -2.0199 0.9729
5.4191 3.7188 -2.0215 0.9729
5.0689 4.1911 -2.0230 0.9729
3.7824 5.3939 -2.0263 0.9728
2.2184 6.2084 -2.0278 0.9728
1.6513 6.3678 -2.0234 0.9728
-3.6411 4.8822 -1.8733 0.9748
-4.7848 4.4672 -2.0134 0.9730
-5.1604 4.0184 -2.0117 0.9730
5.4540 -2.5221 -1.9974 0.9750
5.6635 -2.0269 -1.9995 0.9750
5.8282 -1.5145 -2.0017 0.9749
5.9466 -0.9888 -2.0038 0.9749
6.0176 -0.4541 -2.0060 0.9749
6.0405 0.0854 -2.0081 0.9749
6.0149 0.6253 -2.0102 0.9748
5.4350 2.7022 -2.0176 0.9747
5.1759 3.1795 -2.0192 0.9747
4.5336 4.0552 -2.0219 0.9747
4.1555 4.4465 -2.0230 0.9747
3.7434 4.8022 -2.0240 0.9747
3.3007 5.1194 -2.0247 0.9747
2.8309 5.3953 -2.0253 0.9746
1.8261 5.8146 -2.0259 0.9746
1.2983 5.9494 -2.0242 0.9747
0.2083 5.7916 -1.9264 0.9759
-0.8015 5.5683 -1.8700 0.9766
-2.2455 5.1479 -1.8669 0.9766
-3.8021 4.7047 -2.0107 0.9748
-4.2140 4.3533 -2.0140 0.9748
-4.5817 3.9556 -2.0121 0.9748
-4.9119 3.5270 -2.0101 0.9748
-5.2019 3.0709 -2.0080 0.9749
-5.6534 2.0918 -2.0037 0.9749
-6.0022 -0.0206 -1.9952 0.9750
-5.8909 -1.0862 -1.9912 0.9751
-5.7649 -1.6066 -1.9893 0.9751
-5.1196 -3.0700 -1.9843 0.9752
-4.8215 -3.5126 -1.9829 0.9752
-4.4856 -3.9268 -1.9816 0.9752
-2.8214 -5.2401 -1.9783 0.9752
-2.3415 -5.4702 -1.9779 0.9752
0.2548 -5.9473 -1.9787 0.9752
0.7854 -5.9030 -1.9795 0.9752
1.3102 -5.8118 -1.9804 0.9752
1.8251 -5.6746 -1.9814 0.9752
2.8095 -5.2661 -1.9840 0.9752
3.2712 -4.9979 -1.9855 0.9751
4.4912 -3.9621 -1.9908 0.9751
5.1349 -3.1059 -1.9948 0.9750
5.3974 -2.6375 -1.9969 0.9750
5.9226 -1.1155 -2.0033 0.9749
6.0050 -0.5826 -2.0055 0.9749
6.0394 -0.0438 -2.0076 0.9749
6.0254 0.4964 -2.0097 0.9748
5.8524 1.5638 -2.0136 0.9748
5.6945 2.0823 -2.0155 0.9748
5.4904 2.5849 -2.0172 0.9747
4.6186 3.9568 -2.0216 0.9747
3.8448 4.7206 -2.0238 0.9747
3.4091 5.0472 -2.0246 0.9747
2.9455 5.3332 -2.0252 0.9746
1.9501 5.7742 -2.0259 0.9746
0.3354 5.8434 -1.9456 0.9756
-0.6823 5.5847 -1.8702 0.9766
-1.6636 5.3688 -1.8684 0.9766
-2.5910 4.9842 -1.8673 0.9766
-3.1372 4.9069 -1.9359 0.9757
-4.1198 4.4423 -2.0139 0.9748
-4.4971 4.0537 -2.0125 0.9748
-5.1364 3.1823 -2.0085 0.9749
-5.3944 2.7079 -2.0064 0.9749
-5.6088 2.2128 -2.0042 0.9749
-5.7778 1.7010 -2.0021 0.9749
-5.9003 1.1768 -1.9999 0.9750
-5.9755 0.6443 -1.9978 0.9750
-5.9823 -0.4285 -1.9936 0.9750
-5.9142 -0.9602 -1.9916 0.9751
-5.6384 -1.9936 -1.9879 0.9751
-5.4331 -2.4872 -1.9862 0.9751
-5.1850 -2.9603 -1.9847 0.9751
-4.8963 -3.4092 -1.9832 0.9752
-3.8105 -4.5776 -1.9798 0.9752
-2.9330 -5.1789 -1.9784 0.9752
-2.4581 -5.4190 -1.9780 0.9752
-1.9639 -5.6163 -1.9777 0.9752
-1.4543 -5.7691 -1.9777 0.9752
-0.9331 -5.8763 -1.9778 0.9752
0.6589 -5.9178 -1.9793 0.9752
2.2078 -5.5399 -1.9823 0.9752
3.6058 -4.7668 -1.9868 0.9751
4.0207 -4.4295 -1.9885 0.9751
4.4045 -4.0564 -1.9904 0.9751
4.7538 -3.6502 -1.9923 0.9751
5.3385 -2.7516 -1.9964 0.9750
5.5688 -2.2661 -1.9985 0.9750
5.8959 -1.2416 -2.0028 0.9749
5.9897 -0.7107 -2.0050 0.9749
6.0356 -0.1730 -2.0071 0.9749
5.7365 1.9596 -2.0150 0.9748
5.5434 2.4664 -2.0168 0.9747
5.3052 2.9541 -2.0184 0.9747
5.0238 3.4188 -2.0199 0.9747
2.5764 5.5221 -2.0255 0.9746
2.0731 5.7310 -2.0258 0.9746
1.0177 5.9942 -2.0210 0.9747
-0.0610 5.6812 -1.8886 0.9763
-1.0602 5.5235 -1.8696 0.9766
-1.5486 5.4039 -1.8686 0.9766
-2.0240 5.2408 -1.8675 0.9766
-2.4824 5.0356 -1.8662 0.9766
-2.9997 4.9207 -1.9156 0.9760
-3.5943 4.8588 -2.0090 0.9748
-4.4104 4.1499 -2.0130 0.9748
-4.7588 3.7356 -2.0110 0.9748
-5.0684 3.2922 -2.0090 0.9748
-5.5616 2.3328 -2.0048 0.9749
-5.9618 0.7721 -1.9983 0.9750
-6.0006 0.2362 -1.9962 0.9750
-5.9915 -0.3005 -1.9941 0.9750
-5.6809 -1.8730 -1.9884 0.9751
-5.4861 -2.3709 -1.9866 0.9751
-3.9080 -4.4955 -1.9800 0.9752
-2.0836 -5.5731 -1.9778 0.9752
-1.5773 -5.7366 -1.9777 0.9752
-0.5314 -5.9268 -1.9780 0.9752
1.0602 -5.8612 -1.9799 0.9752
1.5803 -5.7459 -1.9809 0.9752
2.5808 -5.3796 -1.9834 0.9752
3.0533 -5.1313 -1.9848 0.9751
3.5023 -4.8419 -1.9864 0.9751
4.3157 -4.1487 -1.9899 0.9751
