ply
format ascii 1.0
element vertex 1594
property float32 x
property float32 y
property float32 z
property float32 I
end_header
-1.1546 -6.8290 -1.7933 0.9718
0.0779 -7.0139 -1.8161 0.9714
0.7088 -7.0361 -1.8310 0.9712
3.2633 -6.6271 -1.9126 0.9699
4.5118 -6.1088 -1.9663 0.9691
5.1150 -5.7682 -1.9961 0.9686
6.2557 -4.9233 -2.0612 0.9676
6.7505 -3.5848 -1.9790 0.9689
7.5389 -2.4115 -2.0494 0.9678
7.8603 -1.7602 -2.0856 0.9673
8.3287 -0.3476 -2.1583 0.9661
8.5287 1.1747 -2.2291 0.9651
5.6008 3.6963 -1.7375 0.9727
5.0425 4.0166 -1.6692 0.9737
3.0839 5.1331 -1.5505 0.9756
0.8591 3.0672 -0.8247 0.9869
-3.6390 7.7051 -2.2063 0.9654
-6.5398 5.3221 -2.1831 0.9658
-6.8672 4.6360 -2.1453 0.9663
-7.1290 3.9364 -2.1085 0.9669
-7.4169 -0.2318 -1.9213 0.9698
-7.2730 -0.8809 -1.8969 0.9702
-7.0813 -1.5081 -1.8746 0.9705
-6.8444 -2.1107 -1.8545 0.9708
-6.2458 -3.2335 -1.8210 0.9714
-5.0728 -4.6842 -1.7877 0.9719
-4.6179 -5.0992 -1.7812 0.9720
-3.6260 -5.8181 -1.7750 0.9721
-2.1099 -6.0149 -1.8045 0.9738
-1.0153 -6.3406 -1.8178 0.9737
-0.4483 -6.4407 -1.8277 0.9735
0.1287 -6.4974 -1.8397 0.9733
0.7130 -6.5096 -1.8538 0.9731
1.8925 -6.3961 -1.8883 0.9727
2.4817 -6.2684 -1.9086 0.9724
3.6422 -5.8671 -1.9550 0.9717
4.7536 -5.2677 -2.0087 0.9709
5.2805 -4.8933 -2.0380 0.9705
6.2370 -3.9869 -2.0956 0.9697
6.2080 -3.2278 -1.9808 0.9713
2.2968 -0.9446 -0.7031 0.9897
7.1762 -1.5416 -2.0779 0.9699
7.5675 -0.2499 -2.1435 0.9690
7.6728 0.4323 -2.1756 0.9686
7.7126 1.1308 -2.2067 0.9681
7.5832 2.5481 -2.2647 0.9673
6.1404 3.3764 -1.9838 0.9713
4.0445 4.6971 -1.7547 0.9746
3.5012 4.8879 -1.7021 0.9753
2.0981 5.6822 -1.7148 0.9751
0.8306 3.0678 -0.8997 0.9869
0.5630 6.5437 -1.8593 0.9731
-0.0238 6.8713 -1.9452 0.9718
-0.5743 6.1736 -1.7552 0.9746
-2.1217 7.6262 -2.2409 0.9676
-3.3495 6.9352 -2.1803 0.9685
-4.8392 5.5419 -2.0828 0.9699
-5.2303 5.0080 -2.0500 0.9703
-6.3005 4.1740 -2.1395 0.9691
-6.9445 0.9690 -1.9850 0.9713
-6.9106 0.3413 -1.9587 0.9716
-6.8273 -0.2729 -1.9343 0.9720
-6.3040 -2.0042 -1.8726 0.9729
-5.7511 -3.0411 -1.8417 0.9733
-5.4205 -3.5182 -1.8294 0.9735
-5.0568 -3.9653 -1.8192 0.9736
-4.6623 -4.3809 -1.8111 0.9738
-3.3155 -5.4246 -1.7998 0.9739
-2.8194 -5.7002 -1.8003 0.9739
-1.7693 -6.1359 -1.8078 0.9738
-1.2198 -6.2933 -1.8148 0.9737
-0.6570 -6.4090 -1.8239 0.9736
-0.0834 -6.4817 -1.8351 0.9734
0.4985 -6.5103 -1.8484 0.9732
1.0861 -6.4937 -1.8639 0.9730
2.2665 -6.3207 -1.9009 0.9725
2.8531 -6.1624 -1.9224 0.9722
3.4327 -5.9552 -1.9459 0.9718
4.0015 -5.6986 -1.9712 0.9715
5.6019 -4.6303 -2.0575 0.9702
6.0804 -4.1727 -2.0877 0.9698
6.0641 -3.4091 -1.9694 0.9715
6.4455 -2.9004 -2.0009 0.9710
7.0808 -1.7648 -2.0659 0.9701
7.3249 -1.1443 -2.0988 0.9696
7.5133 -0.4942 -2.1316 0.9692
7.6417 0.1805 -2.1639 0.9687
7.6283 2.2888 -2.2546 0.9674
6.3770 3.2400 -2.0249 0.9707
5.7511 3.6006 -1.9209 0.9722
5.1814 3.9280 -1.8407 0.9733
4.7329 4.3039 -1.8110 0.9738
4.2249 4.5942 -1.7669 0.9744
3.1797 5.0163 -1.6813 0.9756
0.9645 3.1505 -0.9328 0.9864
-1.1265 7.4847 -2.1427 0.9690
-2.5287 7.4317 -2.2223 0.9679
-3.1377 7.0780 -2.1918 0.9683
-3.7021 6.6722 -2.1601 0.9688
-4.2180 6.2207 -2.1277 0.9692
-4.6826 5.7299 -2.0949 0.9697
-6.1968 4.4031 -2.1520 0.9689
-6.4615 3.7727 -2.1182 0.9694
-6.9069 1.8418 -2.0236 0.9707
-6.9441 1.2013 -1.9950 0.9711
-6.3883 -1.8036 -1.8792 0.9728
-5.1935 -3.8053 -1.8227 0.9736
-4.8100 -4.2326 -1.8138 0.9737
-3.9569 -4.9885 -1.8025 0.9739
-1.9666 -6.0680 -1.8058 0.9738
0.2849 -6.5051 -1.8433 0.9733
0.8707 -6.5051 -1.8580 0.9731
1.4604 -6.4593 -1.8747 0.9728
2.0509 -6.3665 -1.8935 0.9726
3.7949 -5.7982 -1.9618 0.9716
4.8973 -5.1721 -2.0164 0.9708
5.9118 -4.3476 -2.0774 0.9700
6.3104 -3.0913 -1.9893 0.9712
6.6665 -2.5568 -2.0213 0.9708
6.9786 -1.9835 -2.0539 0.9703
7.2418 -1.3750 -2.0867 0.9698
7.4511 -0.7351 -2.1196 0.9694
7.6020 -0.0688 -2.1522 0.9689
7.6901 0.6184 -2.1840 0.9684
7.6637 2.0291 -2.2443 0.9676
7.3611 2.6714 -2.2169 0.9680
6.6239 3.0975 -2.0701 0.9701
5.9726 3.4731 -1.9559 0.9717
3.8473 4.6910 -1.7175 0.9751
3.3756 4.9593 -1.6983 0.9754
2.4440 5.4870 -1.7005 0.9753
1.9694 5.7547 -1.7219 0.9750
0.9627 6.3201 -1.8098 0.9738
-0.1911 6.9645 -1.9723 0.9715
-0.7401 6.3116 -1.7990 0.9739
-1.6341 7.8195 -2.2615 0.9673
-2.9198 7.2137 -2.2031 0.9682
-4.0351 6.3907 -2.1396 0.9691
-2.1875 2.3872 -0.9166 0.9866
-5.7276 5.2270 -2.1951 0.9683
-6.5987 3.3673 -2.0972 0.9697
-6.7677 2.7232 -2.0652 0.9701
-6.8798 2.0775 -2.0345 0.9706
-6.9367 1.4348 -2.0053 0.9710
-6.9404 0.7994 -1.9778 0.9714
-6.8930 0.1750 -1.9520 0.9717
-6.7968 -0.4350 -1.9281 0.9721
-6.6541 -1.0275 -1.9060 0.9724
-6.2387 -2.1494 -1.8680 0.9729
-4.5515 -4.4869 -1.8093 0.9738
-1.6233 -6.1822 -1.8095 0.9738
-1.0700 -6.3285 -1.8170 0.9737
-0.5040 -6.4328 -1.8267 0.9735
0.0721 -6.4938 -1.8385 0.9734
1.2444 -6.4814 -1.8684 0.9729
5.2302 -4.9320 -2.0351 0.9706
5.7345 -4.5130 -2.0658 0.9701
6.1702 -3.2767 -1.9778 0.9714
2.2877 -0.9642 -0.7028 0.9897
6.8699 -2.1975 -2.0419 0.9705
7.3811 -0.9725 -2.1076 0.9695
7.6654 0.3650 -2.1725 0.9686
7.7117 1.0622 -2.2037 0.9682
7.5962 2.4791 -2.2620 0.9673
6.2025 3.3406 -1.9944 0.9711
5.5934 3.6913 -1.8972 0.9725
4.5941 4.3833 -1.7976 0.9739
3.0802 5.1270 -1.6932 0.9754
2.1445 5.6560 -1.7124 0.9752
0.8609 3.0735 -0.9036 0.9868
1.1550 6.2123 -1.7888 0.9741
0.6175 6.5132 -1.8521 0.9732
-2.6962 7.3422 -2.2142 0.9680
-3.2937 6.9739 -2.1834 0.9684
-3.8454 6.5552 -2.1515 0.9689
-4.3478 6.0926 -2.1189 0.9694
-5.9654 4.8547 -2.1773 0.9685
-6.2737 4.2352 -2.1428 0.9690
-6.5225 3.6015 -2.1093 0.9695
-6.9161 0.4019 -1.9612 0.9716
-6.8375 -0.2137 -1.9366 0.9720
-6.7115 -0.8129 -1.9139 0.9723
-6.5405 -1.3929 -1.8931 0.9726
-6.3270 -1.9511 -1.8744 0.9729
-6.0731 -2.4852 -1.8576 0.9731
-5.7815 -2.9931 -1.8430 0.9733
-5.4542 -3.4730 -1.8305 0.9735
-5.0936 -3.9231 -1.8201 0.9736
-3.8344 -5.0795 -1.8017 0.9739
-3.3627 -5.3957 -1.7998 0.9739
-2.8687 -5.6750 -1.8002 0.9739
-2.3544 -5.9163 -1.8026 0.9739
-1.8221 -6.1183 -1.8072 0.9738
-1.9650 -5.6019 -1.8260 0.9755
-0.9451 -5.9022 -1.8385 0.9753
-0.4172 -5.9932 -1.8478 0.9752
0.1197 -6.0432 -1.8591 0.9750
1.2095 -6.0165 -1.8876 0.9746
3.8911 -5.1736 -1.9911 0.9733
4.3931 -4.8682 -2.0169 0.9729
4.8746 -4.5172 -2.0441 0.9726
5.3315 -4.1213 -2.0727 0.9722
5.7424 -3.6707 -2.0963 0.9719
5.7101 -2.9689 -1.9795 0.9734
2.2971 -0.9447 -0.7639 0.9897
6.5748 -1.4124 -2.0684 0.9722
6.7713 -0.8323 -2.0984 0.9719
7.0022 0.3945 -2.1571 0.9711
7.0297 1.0306 -2.1853 0.9707
6.7311 2.9532 -2.2609 0.9697
6.1317 3.3717 -2.1523 0.9711
5.5296 3.7187 -2.0496 0.9725
4.4686 4.3385 -1.9157 0.9743
3.4970 4.8820 -1.8471 0.9752
2.0955 5.6753 -1.8608 0.9750
1.1028 6.2328 -1.9469 0.9739
0.5623 6.5350 -2.0175 0.9729
-1.3192 7.1660 -2.2411 0.9700
-1.9312 6.9414 -2.2161 0.9703
-4.0197 5.5303 -2.1028 0.9718
-5.5031 4.3994 -2.1670 0.9709
-5.7941 3.8385 -2.1377 0.9713
-6.2026 2.6702 -2.0770 0.9721
-6.3986 0.3160 -1.9705 0.9735
-6.3273 -0.2529 -1.9477 0.9738
-6.2117 -0.8073 -1.9266 0.9741
-6.0538 -1.3444 -1.9074 0.9744
-5.6202 -2.3571 -1.8745 0.9748
-4.3411 -4.0791 -1.8322 0.9754
-3.5297 -4.7615 -1.8231 0.9755
-3.0885 -5.0530 -1.8215 0.9755
-2.6263 -5.3097 -1.8220 0.9755
0.4635 -6.0532 -1.8673 0.9749
1.0093 -6.0342 -1.8818 0.9747
1.5568 -5.9718 -1.8982 0.9745
2.1032 -5.8652 -1.9165 0.9743
2.6453 -5.7136 -1.9366 0.9740
3.1799 -5.5167 -1.9585 0.9737
3.7032 -5.2739 -1.9821 0.9734
5.5803 -3.1371 -1.9690 0.9736
5.9237 -2.6656 -1.9980 0.9732
6.2286 -2.1582 -2.0275 0.9728
6.8688 -0.4518 -2.1173 0.9716
6.9771 0.1648 -2.1466 0.9712
6.9395 2.0822 -2.2285 0.9701
6.3679 3.2353 -2.1969 0.9706
5.1746 3.9229 -1.9973 0.9732
4.6469 4.2256 -1.9319 0.9741
3.1759 5.0102 -1.8246 0.9755
1.9749 3.8339 -1.3265 0.9821
1.0322 3.3717 -1.0846 0.9854
0.6662 3.1602 -0.9934 0.9866
0.1968 6.7389 -2.0736 0.9722
-1.7106 7.0303 -2.2255 0.9702
-3.8568 5.6879 -2.1137 0.9716
-4.2872 5.2461 -2.0839 0.9720
-2.2853 2.3359 -1.0051 0.9864
-5.0029 4.2747 -2.0240 0.9728
-5.6960 4.0473 -2.1492 0.9712
-6.2877 2.2944 -2.0587 0.9724
-6.3795 1.7012 -2.0308 0.9727
-6.4132 0.5271 -1.9792 0.9734
-6.3586 -0.0463 -1.9558 0.9737
-6.2589 -0.6064 -1.9341 0.9740
-6.1163 -1.1501 -1.9142 0.9743
-4.4782 -3.9406 -1.8347 0.9753
-3.6855 -4.6464 -1.8241 0.9755
-3.2524 -4.9503 -1.8218 0.9755
-0.8045 -5.9306 -1.8408 0.9753
-0.2739 -6.0106 -1.8507 0.9751
0.2649 -6.0495 -1.8625 0.9750
1.3565 -5.9997 -1.8920 0.9746
2.4477 -5.7743 -1.9290 0.9741
4.0276 -5.0962 -1.9979 0.9732
4.5245 -4.7785 -2.0241 0.9728
5.4493 -4.0075 -2.0805 0.9721
5.8023 -2.8424 -1.9873 0.9733
6.1218 -2.3478 -2.0167 0.9729
6.8152 -0.6724 -2.1064 0.9717
6.9441 -0.0628 -2.1359 0.9714
5.9643 3.4683 -2.1221 0.9715
4.3686 4.4497 -1.9180 0.9742
3.8426 4.6852 -1.8638 0.9750
3.3715 4.9534 -1.8430 0.9752
2.9067 5.2170 -1.8369 0.9753
0.7237 2.9515 -0.9347 0.9874
0.9614 6.3120 -1.9638 0.9736
-0.1908 6.9547 -2.1399 0.9713
-0.7386 6.2986 -1.9506 0.9738
-1.4862 7.1115 -2.2346 0.9701
-2.6617 6.5759 -2.1820 0.9707
-4.1352 5.4117 -2.0948 0.9719
-2.1878 2.3875 -0.9960 0.9865
-4.8868 4.4597 -2.0349 0.9727
-5.5907 4.2539 -2.1608 0.9710
-6.2411 2.5113 -2.0692 0.9722
-6.4114 1.3262 -2.0138 0.9730
-6.4215 0.7396 -1.9882 0.9733
-6.3839 0.1621 -1.9642 0.9736
-5.7963 -1.9970 -1.8857 0.9747
-5.5507 -2.4860 -1.8707 0.9749
-5.2700 -2.9504 -1.8577 0.9750
-4.9562 -3.3883 -1.8466 0.9752
-4.6116 -3.7981 -1.8376 0.9753
-4.2382 -4.1781 -1.8305 0.9754
-3.8381 -4.5269 -1.8255 0.9755
-2.4989 -5.3725 -1.8225 0.9755
-1.5115 -5.7566 -1.8306 0.9754
-0.9960 -5.8912 -1.8377 0.9753
-0.4690 -5.9861 -1.8468 0.9752
0.0670 -6.0401 -1.8579 0.9750
2.2493 -5.8290 -1.9217 0.9742
3.3216 -5.4560 -1.9647 0.9736
3.8413 -5.2009 -1.9887 0.9733
4.3450 -4.9000 -2.0143 0.9730
4.8287 -4.5534 -2.0414 0.9726
5.7049 -3.7171 -2.0943 0.9719
2.2870 -0.9639 -0.7633 0.9897
6.3033 -2.0163 -2.0355 0.9727
6.5530 -1.4674 -2.0655 0.9723
6.7544 -0.8900 -2.0955 0.9719
7.0297 0.9682 -2.1826 0.9707
7.0011 1.6110 -2.2096 0.9704
6.9082 2.2545 -2.2351 0.9700
5.5858 3.6864 -2.0585 0.9724
5.0295 4.0062 -1.9777 0.9734
4.5106 4.3037 -1.9176 0.9742
3.5427 4.8560 -1.8488 0.9752
1.8057 3.7219 -1.2724 0.9828
1.1535 6.2044 -1.9410 0.9739
0.0357 6.8286 -2.1004 0.9718
-1.2581 7.1846 -2.2435 0.9699
-2.4568 6.6901 -2.1921 0.9706
-3.0049 6.3624 -2.1642 0.9710
-4.3946 5.1220 -2.0758 0.9722
-6.0050 3.3158 -2.1099 0.9717
-6.1876 2.7278 -2.0799 0.9721
-6.3174 2.1351 -2.0511 0.9725
-6.4235 0.9533 -1.9974 0.9732
-6.4031 0.3721 -1.9728 0.9735
-6.3362 -0.1981 -1.9498 0.9738
-5.6448 -2.3099 -1.8759 0.9748
-5.3766 -2.7835 -1.8622 0.9750
-4.7411 -3.6516 -1.8406 0.9753
-4.3780 -4.0426 -1.8328 0.9754
-2.1929 -5.5105 -1.8242 0.9755
-1.8371 -5.2373 -1.8449 0.9769
-0.8832 -5.5156 -1.8568 0.9767
-0.3897 -5.5987 -1.8655 0.9766
0.1118 -5.6432 -1.8762 0.9765
0.6186 -5.6481 -1.8887 0.9763
1.1283 -5.6126 -1.9030 0.9762
1.6380 -5.5360 -1.9191 0.9760
2.6458 -5.2571 -1.9563 0.9755
4.0794 -4.5206 -2.0241 0.9747
4.5222 -4.1906 -2.0494 0.9743
4.9410 -3.8194 -2.0759 0.9740
5.3150 -3.3976 -2.0969 0.9738
5.2806 -2.7457 -1.9784 0.9752
6.0599 -1.3017 -2.0603 0.9742
6.3590 -0.2100 -2.1149 0.9735
6.4506 0.9457 -2.1671 0.9729
6.3152 2.1220 -2.2145 0.9723
4.9710 4.0308 -2.1273 0.9734
4.3184 4.1926 -2.0007 0.9749
3.9414 4.5774 -2.0079 0.9749
3.4927 4.8760 -1.9937 0.9750
3.0276 5.1402 -1.9830 0.9752
1.8330 3.8635 -1.4215 0.9821
2.0929 5.6683 -2.0085 0.9749
1.1014 6.2248 -2.1013 0.9737
-0.5727 6.1565 -2.0553 0.9743
-1.2080 6.5618 -2.2178 0.9723
-1.7700 6.3621 -2.1951 0.9725
-2.3045 6.1107 -2.1709 0.9728
-2.8069 5.8118 -2.1454 0.9732
-3.2732 5.4701 -2.1189 0.9735
-4.0849 4.6780 -2.0644 0.9742
-4.7218 3.7748 -2.0094 0.9748
-5.7474 2.4742 -2.0800 0.9740
-5.9425 1.3784 -2.0278 0.9746
-5.9696 0.8329 -2.0035 0.9749
-5.9515 0.2939 -1.9807 0.9752
-5.8899 -0.2354 -1.9594 0.9755
-5.7866 -0.7521 -1.9397 0.9757
-5.6434 -1.2533 -1.9216 0.9759
-5.4623 -1.7367 -1.9053 0.9761
-5.2453 -2.1999 -1.8907 0.9763
-4.9943 -2.6409 -1.8779 0.9765
-4.0576 -3.8128 -1.8508 0.9768
-3.6909 -4.1476 -1.8455 0.9769
-3.3003 -4.4520 -1.8422 0.9769
-2.8879 -4.7249 -1.8407 0.9769
-2.4557 -4.9648 -1.8412 0.9769
0.9417 -5.6303 -1.8975 0.9762
1.4517 -5.5688 -1.9130 0.9760
1.9600 -5.4658 -1.9301 0.9758
2.4635 -5.3208 -1.9490 0.9756
3.4430 -4.9033 -1.9916 0.9751
4.7908 -3.9599 -2.0661 0.9741
5.1846 -3.5579 -2.0901 0.9738
5.1627 -2.9023 -1.9687 0.9753
5.7496 -1.9923 -2.0227 0.9747
5.9847 -1.4916 -2.0502 0.9743
6.2230 2.4913 -2.2282 0.9721
6.0293 3.0633 -2.2480 0.9719
5.7353 3.5907 -2.2493 0.9719
4.4457 4.0427 -1.9974 0.9750
4.0841 4.4411 -2.0056 0.9749
2.2662 5.5706 -1.9991 0.9750
1.0448 3.4129 -1.1864 0.9851
0.7635 6.4136 -2.1470 0.9731
-2.1125 6.2084 -2.1799 0.9727
-3.1070 5.5997 -2.1287 0.9734
-2.2822 2.3327 -1.0848 0.9863
-5.5025 3.2128 -2.1180 0.9735
-5.6908 2.6734 -2.0900 0.9738
-5.9211 1.5789 -2.0370 0.9745
-5.9632 0.4901 -1.9889 0.9751
-5.9174 -0.0431 -1.9670 0.9754
-5.3287 -2.0329 -1.8958 0.9762
-4.1854 -3.6830 -1.8532 0.9768
-3.4459 -4.3442 -1.8432 0.9769
-3.0412 -4.6288 -1.8410 0.9769
-2.1723 -5.0994 -1.8425 0.9769
-0.2558 -5.6145 -1.8682 0.9766
0.2474 -5.6484 -1.8794 0.9764
0.7552 -5.6425 -1.8923 0.9763
1.2652 -5.5961 -1.9071 0.9761
3.2675 -4.9924 -1.9833 0.9752
3.7425 -4.7354 -2.0063 0.9749
4.2004 -4.4361 -2.0307 0.9746
4.6371 -4.0950 -2.0564 0.9743
5.0488 -3.7130 -2.0832 0.9739
5.3643 -2.6278 -1.9856 0.9751
6.2724 -0.6188 -2.0951 0.9738
6.4426 0.5181 -2.1485 0.9731
6.4459 1.1034 -2.1738 0.9728
6.2791 2.2787 -2.2204 0.9722
6.1071 2.8558 -2.2410 0.9720
5.8760 3.4169 -2.2595 0.9718
5.3699 3.8013 -2.1870 0.9726
4.2213 4.2996 -2.0029 0.9749
3.3674 4.9473 -1.9893 0.9751
1.7700 3.9738 -1.4460 0.9818
0.7546 3.0774 -1.0533 0.9867
0.9602 6.3037 -2.1196 0.9735
0.4095 6.6110 -2.2018 0.9725
-0.7371 6.2857 -2.1037 0.9737
-2.9358 5.7241 -2.1384 0.9732
-2.1884 2.3882 -1.0768 0.9864
-4.5098 4.1156 -2.0295 0.9746
-5.1562 3.9233 -2.1537 0.9731
-5.7848 2.3277 -2.0727 0.9741
-5.8933 1.7796 -2.0463 0.9744
-5.9691 0.6875 -1.9973 0.9750
-5.7520 -0.8882 -1.9347 0.9758
-5.4075 -1.8630 -1.9012 0.9762
-5.1812 -2.3205 -1.8871 0.9764
-4.9214 -2.7553 -1.8748 0.9765
-4.3096 -3.5494 -1.8559 0.9767
-3.9617 -3.9055 -1.8492 0.9768
-3.5884 -4.2323 -1.8444 0.9769
-2.7738 -4.7925 -1.8406 0.9769
-1.4129 -5.3810 -1.8493 0.9768
-0.9308 -5.5055 -1.8560 0.9767
0.0626 -5.6406 -1.8751 0.9765
3.0901 -5.0758 -1.9753 0.9753
3.5706 -4.8344 -1.9978 0.9750
4.0351 -4.5505 -2.0217 0.9747
4.9014 -3.8574 -2.0733 0.9741
5.2807 -3.4407 -2.0951 0.9738
5.2496 -2.7878 -1.9758 0.9753
5.8168 -1.8607 -2.0301 0.9746
6.0404 -1.3527 -2.0576 0.9742
6.2190 -0.8194 -2.0851 0.9739
6.4513 0.8885 -2.1647 0.9729
6.3272 2.0649 -2.2124 0.9723
5.9673 3.2140 -2.2530 0.9718
5.0229 4.0010 -2.1346 0.9733
3.9799 4.5416 -2.0073 0.9749
3.5384 4.8501 -1.9956 0.9750
1.8662 3.8466 -1.4212 0.9821
2.1393 5.6422 -2.0058 0.9749
0.6159 6.4960 -2.1690 0.9729
0.0356 6.7961 -2.2591 0.9718
-0.5167 6.1324 -2.0457 0.9744
-1.1519 6.5783 -2.2199 0.9722
-1.7164 6.3839 -2.1974 0.9725
-2.2538 6.1373 -2.1733 0.9728
-2.7595 5.8429 -2.1479 0.9731
-4.0493 4.7195 -2.0671 0.9741
-4.3947 4.2818 -2.0395 0.9745
-5.3333 3.6004 -2.1390 0.9732
-5.5579 3.0689 -2.1104 0.9736
-5.8592 1.9803 -2.0558 0.9743
-5.9374 1.4318 -2.0302 0.9746
-5.9689 0.8859 -2.0058 0.9749
-5.6591 -1.2052 -1.9233 0.9759
-5.4816 -1.6904 -1.9068 0.9761
-5.2680 -2.1557 -1.8920 0.9763
-4.7402 -3.0184 -1.8680 0.9766
-3.7278 -4.1162 -1.8460 0.9769
-3.3394 -4.4237 -1.8424 0.9769
-2.0503 -5.1522 -1.8432 0.9769
-1.5862 -5.3263 -1.8473 0.9768
-1.7233 -4.9127 -1.8618 0.9781
-1.2816 -5.0596 -1.8665 0.9781
-0.8282 -5.1717 -1.8730 0.9780
-0.3653 -5.2481 -1.8813 0.9779
0.1047 -5.2879 -1.8914 0.9778
0.5794 -5.2902 -1.9031 0.9776
1.5327 -5.1800 -1.9318 0.9773
2.0058 -5.0662 -1.9485 0.9771
2.4726 -4.9129 -1.9669 0.9769
3.3749 -4.4872 -2.0078 0.9764
3.8037 -4.2151 -2.0303 0.9762
4.2130 -3.9041 -2.0540 0.9759
4.9417 -3.1589 -2.0974 0.9754
2.2975 -0.9449 -0.8884 0.9895
5.4157 -1.6805 -2.0278 0.9762
5.6136 -1.2059 -2.0532 0.9759
5.9528 0.8727 -2.1515 0.9748
5.8180 1.9549 -2.1949 0.9743
4.9077 3.9795 -2.2595 0.9735
3.7420 4.3458 -2.0508 0.9759
3.4884 4.8700 -2.1422 0.9749
3.0238 5.1338 -2.1307 0.9750
1.8112 3.8176 -1.5111 0.9822
0.5390 6.2653 -2.2488 0.9736
-3.4237 4.7103 -2.0824 0.9756
-3.7835 4.3329 -2.0571 0.9759
-4.1034 3.9290 -2.0316 0.9762
-4.9747 3.2957 -2.1340 0.9750
-5.1857 2.8048 -2.1083 0.9753
-5.4669 1.7948 -2.0577 0.9759
-5.5402 1.2851 -2.0338 0.9761
-5.5573 0.2744 -1.9897 0.9766
-5.5037 -0.2200 -1.9697 0.9769
-5.2801 -1.1726 -1.9342 0.9773
-4.9127 -2.0604 -1.9051 0.9776
-4.4161 -2.8663 -1.8827 0.9779
-3.8054 -3.5758 -1.8674 0.9781
-3.0961 -4.1765 -1.8592 0.9782
-2.3038 -4.6577 -1.8582 0.9782
-1.8815 -4.8505 -1.8605 0.9781
-0.0679 -5.2776 -1.8875 0.9778
0.8818 -5.2720 -1.9115 0.9775
1.8333 -5.1124 -1.9422 0.9772
2.7640 -4.7951 -1.9792 0.9768
3.6489 -4.3191 -2.0220 0.9763
4.0658 -4.0223 -2.0452 0.9760
4.4608 -3.6871 -2.0696 0.9757
5.3333 -1.8480 -2.0185 0.9763
5.5459 -1.3823 -2.0439 0.9760
5.9545 0.6752 -2.1430 0.9749
5.9331 1.2163 -2.1659 0.9746
5.8587 1.7578 -2.1874 0.9744
5.5481 2.8188 -2.2254 0.9739
5.3125 3.3261 -2.2414 0.9737
4.3784 3.9815 -2.1163 0.9752
1.9714 3.8271 -1.5395 0.9819
2.2634 5.5637 -2.1480 0.9748
1.7855 5.8325 -2.1813 0.9744
0.7450 6.2577 -2.2536 0.9736
-0.3676 6.1099 -2.1889 0.9743
-1.9486 5.7267 -2.1632 0.9746
-2.8712 5.1747 -2.1163 0.9752
-3.6564 4.4742 -2.0663 0.9758
-2.2791 2.3296 -1.1655 0.9863
-4.8800 3.4675 -2.1408 0.9749
-5.2946 2.4873 -2.0919 0.9755
-5.5185 1.4716 -2.0424 0.9760
-5.5640 0.9626 -2.0193 0.9763
-5.5279 -0.0403 -1.9769 0.9768
-5.4492 -0.5279 -1.9578 0.9770
-5.3321 -1.0027 -1.9402 0.9772
-4.9900 -1.9037 -1.9099 0.9776
-3.9249 -3.4538 -1.8696 0.9780
-3.5904 -3.7786 -1.8640 0.9781
-3.2325 -4.0753 -1.8601 0.9781
-0.7048 -5.1958 -1.8751 0.9780
-0.2398 -5.2624 -1.8838 0.9779
0.2318 -5.2922 -1.8944 0.9777
1.6601 -5.1533 -1.9361 0.9773
2.1318 -5.0290 -1.9533 0.9771
3.4917 -4.4180 -2.0138 0.9764
4.6969 -3.4541 -2.0849 0.9755
4.9825 -2.4408 -1.9841 0.9767
5.2459 -2.0119 -2.0092 0.9764
5.6596 -1.0746 -2.0601 0.9758
5.8032 -0.5725 -2.0853 0.9755
5.9007 -0.0534 -2.1102 0.9752
5.9493 0.4784 -2.1344 0.9750
5.9470 1.0180 -2.1576 0.9747
5.8921 1.5601 -2.1797 0.9744
5.7835 2.0989 -2.2002 0.9742
5.6210 2.6285 -2.2190 0.9740
5.4048 3.1429 -2.2358 0.9738
4.7603 4.0529 -2.2357 0.9738
4.0780 4.1537 -2.0816 0.9756
3.8331 4.6736 -2.1615 0.9746
3.3632 4.9412 -2.1375 0.9749
2.4350 5.4669 -2.1402 0.9749
-0.7204 6.1434 -2.2120 0.9741
-1.2542 6.0013 -2.1925 0.9743
-1.7671 5.8089 -2.1713 0.9745
-2.2544 5.5698 -2.1488 0.9748
-2.7120 5.2877 -2.1251 0.9751
-3.1361 4.9670 -2.1007 0.9754
-4.4496 3.3857 -1.9995 0.9765
-5.0373 3.1661 -2.1276 0.9750
-5.4909 1.6581 -2.0512 0.9759
-5.5524 1.1485 -2.0276 0.9762
-5.5469 0.1408 -1.9842 0.9767
-5.4826 -0.3509 -1.9646 0.9769
-5.3793 -0.8306 -1.9465 0.9771
-5.0628 -1.7443 -1.9149 0.9775
-4.8532 -2.1736 -1.9017 0.9777
-4.6118 -2.5819 -1.8901 0.9778
-2.9942 -4.2482 -1.8586 0.9782
-0.8728 -5.1623 -1.8723 0.9780
0.5330 -5.2917 -1.9019 0.9777
3.3322 -4.5116 -2.0057 0.9765
4.5626 -3.5908 -2.0763 0.9756
4.8777 -2.5903 -1.9750 0.9768
2.2854 -0.9632 -0.8869 0.9895
5.3942 -1.7255 -2.0253 0.9762
5.7559 -0.7584 -2.0761 0.9756
5.8705 -0.2450 -2.1012 0.9753
5.6867 2.4362 -2.2124 0.9741
5.2404 3.4584 -2.2453 0.9737
4.2501 4.0551 -2.1007 0.9754
2.1366 5.6351 -2.1552 0.9747
0.8602 3.0710 -1.1405 0.9865
0.5939 6.2640 -2.2501 0.9736
-0.5160 6.1246 -2.1980 0.9742
-1.5822 5.8849 -2.1792 0.9744
-2.0794 5.6625 -2.1572 0.9747
-2.9850 5.0885 -2.1097 0.9753
-3.3865 4.7454 -2.0848 0.9755
-3.7502 4.3709 -2.0595 0.9758
-4.0740 3.9694 -2.0341 0.9761
-4.9501 3.3417 -2.1358 0.9749
-5.1674 2.8533 -2.1109 0.9752
-5.5350 1.3348 -2.0361 0.9761
-5.5603 0.3231 -1.9918 0.9766
-5.5107 -0.1722 -1.9716 0.9769
-5.4215 -0.6567 -1.9529 0.9771
-5.1312 -1.5824 -1.9202 0.9774
-4.9337 -2.0189 -1.9063 0.9776
-4.4430 -2.8291 -1.8836 0.9779
-3.8376 -3.5436 -1.8679 0.9781
-3.4966 -3.8610 -1.8628 0.9781
-2.7479 -4.4091 -1.8579 0.9782
-2.3441 -4.6372 -1.8581 0.9782
-1.4878 -4.9958 -1.8641 0.9781
-1.6212 -4.6216 -1.8769 0.9792
-1.2055 -4.7591 -1.8814 0.9792
-0.7788 -4.8636 -1.8875 0.9791
0.5444 -4.9703 -1.9161 0.9788
1.8817 -4.7529 -1.9590 0.9783
2.3183 -4.6065 -1.9762 0.9782
3.1602 -4.2018 -2.0148 0.9777
3.9393 -3.6504 -2.0581 0.9773
4.2969 -3.3216 -2.0813 0.9770
4.6125 -2.9485 -2.0979 0.9768
2.2978 -0.9450 -0.9521 0.9894
5.2227 -1.1219 -2.0471 0.9774
5.3627 -0.6592 -2.0706 0.9771
5.5135 0.3106 -2.1162 0.9766
5.5198 0.8093 -2.1379 0.9764
5.2465 2.3018 -2.1955 0.9758
5.0567 2.7805 -2.2115 0.9756
4.8187 3.2406 -2.2254 0.9754
4.5342 3.6767 -2.2371 0.9753
4.1560 4.0350 -2.2198 0.9755
3.7372 4.3403 -2.1949 0.9758
1.8020 3.7981 -1.6110 0.9822
0.8360 3.0877 -1.2259 0.9864
1.0177 5.7523 -2.2386 0.9753
0.4982 5.7906 -2.2273 0.9754
-1.0302 5.5961 -2.1806 0.9759
-1.5118 5.4340 -2.1615 0.9761
-4.0834 3.2644 -2.0034 0.9779
-4.8405 2.6181 -2.1089 0.9767
-4.9969 2.1512 -2.0848 0.9770
-5.1111 1.6780 -2.0615 0.9772
-5.2151 0.7277 -2.0179 0.9777
-4.6152 -1.9356 -1.9179 0.9788
-4.3980 -2.3256 -1.9065 0.9789
-3.8782 -3.0411 -1.8886 0.9791
-3.2569 -3.6599 -1.8775 0.9792
-2.9129 -3.9294 -1.8744 0.9793
-2.5491 -4.1706 -1.8731 0.9793
-2.1675 -4.3823 -1.8735 0.9793
-0.9360 -4.8292 -1.8851 0.9791
-0.5036 -4.9123 -1.8923 0.9791
0.3809 -4.9743 -1.9118 0.9789
0.8282 -4.9518 -1.9240 0.9787
1.2755 -4.8930 -1.9377 0.9786
3.4153 -4.0426 -2.0281 0.9776
4.9678 -1.7214 -2.0148 0.9777
5.1614 -1.2864 -2.0384 0.9775
5.4994 0.1299 -2.1081 0.9767
5.1318 2.6073 -2.2058 0.9756
4.9113 3.0748 -2.2205 0.9755
4.6435 3.5203 -2.2331 0.9753
4.2796 3.8917 -2.2167 0.9755
3.9037 4.2450 -2.2101 0.9756
3.5829 4.6718 -2.2562 0.9751
3.1556 4.9783 -2.2587 0.9751
0.6240 2.9596 -1.1591 0.9871
0.6884 5.7827 -2.2317 0.9754
0.1690 5.7877 -2.2189 0.9755
-1.3379 5.4986 -2.1687 0.9760
-1.8062 5.3081 -2.1487 0.9763
-2.2499 5.0754 -2.1275 0.9765
-2.6655 4.8041 -2.1054 0.9767
-3.0499 4.4979 -2.0826 0.9770
-3.4003 4.1608 -2.0592 0.9772
-4.2300 3.0056 -1.9885 0.9780
-4.7726 2.7866 -2.1179 0.9766
-5.1619 1.3765 -2.0472 0.9774
-5.2083 0.9010 -2.0255 0.9776
-5.1814 -0.0377 -1.9857 0.9780
-5.1107 -0.4951 -1.9677 0.9782
-5.0037 -0.9409 -1.9511 0.9784
-4.6871 -1.7881 -1.9225 0.9787
-4.4809 -2.1853 -1.9105 0.9789
-3.0411 -3.8340 -1.8753 0.9793
-2.6843 -4.0857 -1.8734 0.9793
-2.3090 -4.3083 -1.8732 0.9793
-1.9172 -4.5007 -1.8747 0.9793
-1.5108 -4.6617 -1.8779 0.9792
-0.6627 -4.8859 -1.8895 0.9791
-0.2254 -4.9471 -1.8978 0.9790
0.2178 -4.9735 -1.9078 0.9789
1.1121 -4.9188 -1.9325 0.9786
1.5580 -4.8366 -1.9473 0.9785
1.9997 -4.7173 -1.9635 0.9783
2.8582 -4.3670 -2.0001 0.9779
3.2690 -4.1362 -2.0204 0.9777
4.0376 -3.5656 -2.0643 0.9772
4.3737 -2.6504 -1.9598 0.9783
4.6465 -2.2762 -1.9828 0.9781
4.8879 -1.8746 -2.0062 0.9778
5.0949 -1.4481 -2.0298 0.9776
5.4792 -0.0496 -2.0998 0.9768
5.5199 0.4439 -2.1221 0.9766
5.3541 1.9430 -2.1827 0.9759
5.2003 2.4318 -2.2000 0.9757
4.9975 2.9061 -2.2154 0.9755
4.7468 3.3602 -2.2287 0.9754
2.8691 5.1494 -2.2590 0.9751
2.3964 5.3802 -2.2571 0.9751
1.9033 5.5613 -2.2526 0.9751
-0.1582 5.7639 -2.2097 0.9756
-0.6666 5.6850 -2.1935 0.9758
-2.9131 4.6137 -2.0910 0.9769
-2.1897 2.3896 -1.2421 0.9862
-4.6956 2.9514 -2.1254 0.9765
-5.1346 1.5505 -2.0554 0.9773
-5.1960 1.0748 -2.0334 0.9775
-5.2168 0.6009 -2.0124 0.9778
-5.0470 -0.7793 -1.9570 0.9784
-4.9178 -1.2165 -1.9414 0.9785
-4.0809 -2.7899 -1.8944 0.9790
-3.8004 -3.1300 -1.8867 0.9791
-2.4484 -4.2303 -1.8731 0.9793
-1.6610 -4.6065 -1.8766 0.9792
-0.8208 -4.8549 -1.8869 0.9791
0.5008 -4.9718 -1.9149 0.9788
1.3953 -4.8709 -1.9417 0.9785
2.2762 -4.6224 -1.9745 0.9782
2.7044 -4.4422 -1.9930 0.9780
3.5211 -3.9709 -2.0338 0.9775
4.5502 -2.4164 -1.9743 0.9782
2.2846 -0.9629 -0.9501 0.9894
5.0234 -1.6069 -2.0211 0.9777
5.2068 -1.1660 -2.0448 0.9774
5.3509 -0.7050 -2.0683 0.9771
5.4529 -0.2276 -2.0915 0.9769
5.4842 1.2619 -2.1566 0.9762
4.8440 3.1968 -2.2241 0.9754
4.1895 3.9973 -2.2190 0.9755
1.8414 3.7954 -1.6166 0.9821
2.0857 5.5010 -2.2545 0.9751
0.8697 3.1047 -1.2356 0.9863
0.5489 5.7892 -2.2285 0.9754
-1.4658 5.4518 -2.1634 0.9761
-2.3644 5.0062 -2.1217 0.9766
-2.7719 4.7251 -2.0993 0.9768
-4.0595 3.3036 -2.0057 0.9778
-4.8230 2.6631 -2.1113 0.9767
-5.1018 1.7243 -2.0638 0.9772
-5.1783 1.2488 -2.0413 0.9774
-5.1661 -0.1615 -1.9807 0.9781
-5.0855 -0.6160 -1.9631 0.9783
-4.8182 -1.4858 -1.9322 0.9786
-4.6348 -1.8966 -1.9191 0.9788
-4.4204 -2.2885 -1.9075 0.9789
-4.1769 -2.6596 -1.8976 0.9790
-3.2893 -3.6321 -1.8778 0.9792
-2.2054 -4.3629 -1.8734 0.9793
-1.8095 -4.5470 -1.8754 0.9793
-1.3995 -4.6995 -1.8791 0.9792
-1.5290 -4.3589 -1.8906 0.9802
-1.1368 -4.4879 -1.8948 0.9802
-0.3237 -4.6510 -1.9081 0.9801
0.0928 -4.6834 -1.9172 0.9800
1.7703 -4.4716 -1.9683 0.9794
2.1800 -4.3315 -1.9846 0.9793
2.5802 -4.1564 -2.0022 0.9791
3.3408 -3.7021 -2.0409 0.9787
4.0275 -3.1133 -2.0834 0.9782
4.2832 -2.2271 -1.9758 0.9794
2.2980 -0.9451 -1.0170 0.9893
4.7129 -1.4625 -2.0196 0.9789
5.0042 -0.6151 -2.0635 0.9784
5.0916 -0.1681 -2.0850 0.9782
5.0972 1.2197 -2.1451 0.9776
4.8760 2.1393 -2.1792 0.9772
4.4741 3.0089 -2.2067 0.9770
3.5590 4.1333 -2.2324 0.9767
3.1818 4.4419 -2.2362 0.9767
1.8899 5.1184 -2.2331 0.9767
0.9446 5.3387 -2.2189 0.9768
-0.0186 5.3654 -2.1960 0.9771
-0.9579 5.2034 -2.1654 0.9774
-1.8356 4.8671 -2.1289 0.9778
-2.6198 4.3781 -2.0882 0.9782
-2.1289 2.4380 -1.3247 0.9861
-2.3837 2.2824 -1.3507 0.9858
-3.8186 3.0527 -2.0009 0.9791
-4.5334 2.4520 -2.1094 0.9780
-4.6833 2.0162 -2.0869 0.9782
-1.9511 -0.2536 -0.8052 0.9915
-4.3474 -1.8233 -1.9295 0.9798
-4.1442 -2.1914 -1.9186 0.9799
-3.9133 -2.5399 -1.9094 0.9800
-3.6564 -2.8672 -1.9017 0.9801
-3.0717 -3.4517 -1.8911 0.9802
-2.7475 -3.7063 -1.8882 0.9803
-2.4045 -3.9339 -1.8870 0.9803
-2.0445 -4.1335 -1.8874 0.9803
-1.2816 -4.4443 -1.8931 0.9802
-0.8826 -4.5536 -1.8983 0.9802
-0.4747 -4.6308 -1.9052 0.9801
0.3589 -4.6865 -1.9237 0.9799
0.7800 -4.6637 -1.9352 0.9798
1.2008 -4.6063 -1.9482 0.9796
1.6187 -4.5141 -1.9627 0.9795
2.0310 -4.3868 -1.9785 0.9793
2.8279 -4.0272 -2.0140 0.9790
3.5678 -3.5296 -2.0540 0.9785
4.1914 -2.3563 -1.9679 0.9794
4.8212 -1.2016 -2.0336 0.9788
5.0643 -0.3331 -2.0772 0.9783
5.1439 0.5833 -2.1187 0.9779
5.1180 1.0492 -2.1382 0.9777
5.0468 1.5143 -2.1565 0.9775
4.7678 2.4224 -2.1887 0.9772
4.5608 2.8554 -2.2023 0.9770
4.0189 3.6546 -2.2232 0.9768
3.6887 4.0112 -2.2303 0.9767
2.9268 4.6173 -2.2374 0.9766
1.5947 5.2091 -2.2296 0.9767
0.1570 5.3749 -2.2008 0.9770
-1.2445 5.1148 -2.1544 0.9775
-1.6812 4.9407 -2.1360 0.9777
-2.4845 4.4778 -2.0958 0.9781
-2.8448 4.1955 -2.0746 0.9783
-3.1741 3.8840 -2.0529 0.9786
-3.9576 2.8121 -1.9870 0.9792
-4.4662 2.6077 -2.1167 0.9779
-4.6331 2.1766 -2.0950 0.9781
-4.7579 1.7362 -2.0729 0.9783
-1.9565 0.1608 -0.8035 0.9916
-1.9579 -0.1897 -0.8051 0.9915
-2.2011 -0.4139 -0.9167 0.9904
-4.5773 -1.2923 -1.9466 0.9797
-4.0008 -2.4148 -1.9126 0.9800
-2.1780 -4.0638 -1.8870 0.9803
-1.8083 -4.2451 -1.8885 0.9803
-0.6248 -4.6063 -1.9025 0.9801
0.2052 -4.6864 -1.9199 0.9799
0.6259 -4.6760 -1.9308 0.9798
1.0471 -4.6313 -1.9433 0.9797
1.4663 -4.5519 -1.9572 0.9795
2.2884 -4.2880 -1.9892 0.9792
3.7866 -3.3439 -2.0675 0.9784
4.1087 -3.0216 -2.0874 0.9782
4.3481 -2.1300 -1.9816 0.9793
4.5706 -1.7529 -2.0035 0.9791
4.7605 -1.3531 -2.0255 0.9788
4.9150 -0.9332 -2.0475 0.9786
5.1080 -0.0462 -2.0907 0.9782
5.0781 1.3445 -2.1500 0.9776
4.9781 1.8066 -2.1674 0.9774
4.8324 2.2598 -2.1833 0.9772
4.6416 2.6991 -2.1975 0.9771
3.0753 4.5181 -2.2369 0.9767
1.7656 5.1591 -2.2317 0.9767
0.8154 5.3535 -2.2163 0.9769
0.3331 5.3780 -2.2053 0.9770
-0.6196 5.2839 -2.1774 0.9773
-1.0800 5.1680 -2.1608 0.9774
-1.5238 5.0091 -2.1429 0.9776
-1.9468 4.8098 -2.1237 0.9778
-3.0574 4.0011 -2.0609 0.9785
-2.1546 2.3513 -1.3052 0.9863
-3.6402 3.3220 -2.0170 0.9789
-4.3908 2.7598 -2.1225 0.9778
-4.5776 2.3359 -2.1033 0.9780
-4.7169 1.8979 -2.0809 0.9783
-1.9224 0.0488 -0.7870 0.9917
-1.9489 -0.1247 -0.7993 0.9916
-4.6291 -1.1451 -1.9517 0.9796
-4.2957 -1.9239 -1.9264 0.9799
-3.5832 -2.9512 -1.8999 0.9801
-3.2959 -3.2492 -1.8942 0.9802
-2.6572 -3.7700 -1.8877 0.9803
-2.3094 -3.9903 -1.8869 0.9803
-1.1755 -4.4767 -1.8943 0.9802
-0.7739 -4.5775 -1.9000 0.9801
-0.3640 -4.6460 -1.9073 0.9801
1.3134 -4.5850 -1.9520 0.9796
1.7300 -4.4834 -1.9668 0.9794
2.1404 -4.3467 -1.9830 0.9793
3.3052 -3.7274 -2.0389 0.9787
3.9963 -3.1451 -2.0814 0.9783
4.2925 -2.7968 -2.0968 0.9781
4.2592 -2.2618 -1.9737 0.9794
2.2838 -0.9626 -1.0143 0.9893
5.0848 -0.2122 -2.0829 0.9782
5.1347 0.2445 -2.1039 0.9780
5.1413 0.7081 -2.1241 0.9778
4.8910 2.0953 -2.1777 0.9773
4.4978 2.9683 -2.2056 0.9770
4.2361 3.3743 -2.2165 0.9769
3.9339 3.7534 -2.2253 0.9768
3.5940 4.1012 -2.2318 0.9767
2.8156 4.6866 -2.2376 0.9766
1.8600 3.8338 -1.7440 0.9818
1.9348 5.1028 -2.2335 0.9767
0.9136 3.2614 -1.3862 0.9855
0.9914 5.3324 -2.2198 0.9768
-0.9133 5.2155 -2.1671 0.9774
-1.3637 5.0721 -2.1496 0.9776
-2.9363 4.1146 -2.0688 0.9784
-2.3189 2.2593 -1.3251 0.9861
-3.7960 3.0891 -2.0030 0.9791
-4.7847 1.6171 -2.0671 0.9784
-1.9470 0.2890 -0.8056 0.9915
-1.9458 0.1131 -0.7977 0.9916
-1.9273 -0.0602 -0.7892 0.9917
-1.9540 -0.2367 -0.8056 0.9915
-4.6766 -0.9960 -1.9569 0.9795
-4.5367 -1.3990 -1.9430 0.9797
-4.1652 -2.1564 -1.9196 0.9799
-3.9369 -2.5069 -1.9102 0.9800
-3.4037 -3.1429 -1.8961 0.9802
-2.4387 -3.9129 -1.8870 0.9803
0.4842 -4.4211 -1.9383 0.9808
0.8817 -4.3861 -1.9498 0.9807
1.6697 -4.2173 -1.9768 0.9804
2.0550 -4.0833 -1.9922 0.9803
2.4311 -3.9162 -2.0089 0.9801
3.4756 -3.2207 -2.0651 0.9795
3.7845 -2.9255 -2.0847 0.9793
3.7797 -2.4161 -1.9550 0.9806
4.0210 -2.0907 -1.9751 0.9804
2.2983 -0.9452 -1.0830 0.9892
4.8034 0.2706 -2.0967 0.9792
4.8026 0.7041 -2.1154 0.9790
4.6756 1.5711 -2.1497 0.9787
4.5487 1.9957 -2.1648 0.9786
4.3800 2.4085 -2.1784 0.9784
3.9214 3.1797 -2.2003 0.9782
3.6353 3.5294 -2.2082 0.9781
3.3148 3.8496 -2.2140 0.9781
2.9630 4.1366 -2.2176 0.9780
2.5839 4.3869 -2.2189 0.9780
1.7602 4.7671 -2.2147 0.9781
-0.8940 4.8563 -2.1520 0.9787
-1.3135 4.7211 -2.1357 0.9788
-2.4508 4.0958 -2.0802 0.9794
-2.0956 2.3999 -1.3885 0.9862
-2.3482 2.2484 -1.4169 0.9859
-3.5820 2.8636 -1.9986 0.9802
-3.7840 2.5068 -1.9782 0.9804
-4.2570 2.3025 -2.1092 0.9791
-4.4020 1.8950 -2.0887 0.9793
-1.5165 0.2116 -0.6673 0.9933
-1.5288 -0.0611 -0.6668 0.9933
-1.5195 -0.1975 -0.6678 0.9933
-1.5250 -0.3387 -0.6808 0.9932
-3.9141 -2.0698 -1.9297 0.9809
-3.6970 -2.3996 -1.9209 0.9810
-2.5973 -3.5036 -1.9007 0.9811
-2.2731 -3.7189 -1.8996 0.9812
-0.4486 -4.3755 -1.9169 0.9810
0.3389 -4.4257 -1.9345 0.9808
1.1332 -4.3469 -1.9578 0.9806
1.9150 -4.1362 -1.9864 0.9803
2.6635 -3.7932 -2.0200 0.9800
3.3566 -3.3207 -2.0578 0.9796
3.6751 -3.0377 -2.0780 0.9794
3.9358 -2.2126 -1.9677 0.9805
2.2818 -1.0268 -1.0905 0.9891
4.3548 -1.5090 -2.0086 0.9801
4.6469 -0.7260 -2.0498 0.9797
4.7935 0.1132 -2.0897 0.9793
4.7115 1.4136 -2.1438 0.9788
4.6001 1.8415 -2.1595 0.9786
3.7441 3.4047 -2.2055 0.9782
2.7255 4.2998 -2.2187 0.9780
1.9810 3.8458 -1.8853 0.9813
1.4854 4.8520 -2.2115 0.9781
0.6550 3.1066 -1.3837 0.9862
0.5956 5.0027 -2.1957 0.9783
-0.2993 4.9749 -2.1721 0.9785
-0.7368 4.8957 -2.1577 0.9786
-1.1619 4.7752 -2.1418 0.9788
-1.9588 4.4187 -2.1065 0.9791
-2.6625 3.9266 -2.0676 0.9795
-2.1895 2.2380 -1.3645 0.9864
-3.7140 2.6390 -1.9856 0.9803
-1.5967 0.5827 -0.7408 0.9926
-1.5036 0.2601 -0.6650 0.9934
-1.5286 0.1256 -0.6684 0.9933
-1.4967 -0.2814 -0.6637 0.9934
-1.5647 -0.4418 -0.7086 0.9929
-4.1677 -1.5900 -1.9440 0.9807
-3.5464 -2.5984 -1.9160 0.9810
-3.2896 -2.8947 -1.9097 0.9811
-3.0107 -3.1685 -1.9048 0.9811
-2.7115 -3.4184 -1.9015 0.9811
-2.3936 -3.6432 -1.8998 0.9812
-2.0590 -3.8418 -1.8996 0.9812
-1.7094 -4.0129 -1.9010 0.9811
-1.3468 -4.1558 -1.9039 0.9811
-0.9732 -4.2693 -1.9083 0.9811
0.5909 -4.4149 -1.9412 0.9808
1.3834 -4.2944 -1.9663 0.9805
1.7739 -4.1846 -1.9808 0.9804
3.2350 -3.4166 -2.0506 0.9797
3.5610 -3.1447 -2.0705 0.9795
4.7783 -0.0432 -2.0825 0.9794
4.7953 0.8209 -2.1203 0.9790
4.7416 1.2554 -2.1377 0.9788
4.6457 1.6860 -2.1539 0.9787
3.5525 3.6184 -2.2100 0.9781
3.2233 3.9301 -2.2152 0.9781
2.8638 4.2075 -2.2181 0.9780
0.7577 3.0901 -1.3866 0.9862
0.3105 5.0131 -2.1890 0.9783
-0.1370 4.9931 -2.1769 0.9784
-1.0081 4.8240 -2.1478 0.9787
-1.4231 4.6782 -2.1311 0.9789
-2.1931 4.2762 -2.0944 0.9792
-2.8626 3.7463 -2.0548 0.9796
-2.1358 2.3307 -1.3778 0.9863
-4.1188 2.5888 -2.1202 0.9790
-4.3005 2.1945 -2.1041 0.9792
-1.5748 0.4755 -0.7169 0.9928
-1.5128 0.3129 -0.6732 0.9933
-1.5271 0.0388 -0.6658 0.9934
-1.5296 -0.0979 -0.6680 0.9933
-1.5113 -0.2334 -0.6665 0.9933
-1.5433 -0.3818 -0.6929 0.9931
-3.8584 -2.1601 -1.9272 0.9809
-3.6345 -2.4847 -1.9187 0.9810
-3.1152 -3.0710 -1.9064 0.9811
-2.8232 -3.3298 -1.9026 0.9811
-1.4809 -4.1069 -1.9026 0.9811
-1.1110 -4.2312 -1.9065 0.9811
-0.7313 -4.3257 -1.9120 0.9810
-0.3439 -4.3896 -1.9189 0.9810
0.0491 -4.4221 -1.9274 0.9809
0.8430 -4.3909 -1.9486 0.9807
1.2393 -4.3263 -1.9613 0.9806
2.0178 -4.0978 -1.9907 0.9803
3.7565 -2.9564 -2.0833 0.9794
4.0320 -2.6271 -2.0973 0.9792
3.9986 -2.1235 -1.9732 0.9804
4.4019 -1.4081 -2.0142 0.9800
4.8045 0.6617 -2.1136 0.9791
4.7662 1.0967 -2.1315 0.9789
4.6857 1.5292 -2.1481 0.9787
4.3983 2.3689 -2.1772 0.9784
4.1925 2.7669 -2.1892 0.9783
3.3474 3.8198 -2.2135 0.9781
2.9986 4.1102 -2.2173 0.9780
2.6219 4.3642 -2.2189 0.9780
0.9237 4.9684 -2.2024 0.9782
0.0262 5.0056 -2.1815 0.9784
-0.4177 4.9578 -2.1683 0.9785
-0.8523 4.8674 -2.1536 0.9787
-1.2733 4.7360 -2.1373 0.9788
-1.6768 4.5660 -2.1199 0.9790
-2.0592 4.3600 -2.1014 0.9792
-2.4173 4.1208 -2.0821 0.9794
-2.7486 3.8516 -2.0622 0.9796
-2.2698 2.2115 -1.3811 0.9863
-3.7658 2.5422 -1.9802 0.9804
-1.5893 0.5371 -0.7311 0.9927
-1.5390 0.3711 -0.6900 0.9931
-1.5135 0.2246 -0.6668 0.9933
-1.5279 -0.0478 -0.6662 0.9934
-1.5218 -0.1843 -0.6681 0.9933
-1.5178 -0.3232 -0.6763 0.9933
-4.1219 -1.6867 -1.9410 0.9808
-3.9339 -2.0366 -1.9306 0.9809
-3.7193 -2.3683 -1.9217 0.9809
-3.4797 -2.6801 -1.9142 0.9810
-3.2168 -2.9704 -1.9082 0.9811
-2.9323 -3.2379 -1.9038 0.9811
-2.3054 -3.6991 -1.8996 0.9812
-1.9666 -3.8904 -1.8998 0.9812
-1.3689 -3.9024 -1.9143 0.9819
-0.6570 -4.1031 -1.9234 0.9819
-0.2896 -4.1599 -1.9302 0.9818
0.0829 -4.1867 -1.9384 0.9817
0.4582 -4.1832 -1.9479 0.9816
0.8340 -4.1488 -1.9588 0.9815
2.2958 -3.6982 -2.0149 0.9810
2.9662 -3.2870 -2.0494 0.9807
3.5597 -2.2755 -1.9556 0.9816
3.7847 -1.9678 -1.9745 0.9814
4.1536 -1.2889 -2.0131 0.9810
4.2928 -0.9222 -2.0324 0.9808
4.4702 -0.1476 -2.0703 0.9805
4.5048 0.2538 -2.0885 0.9803
4.2574 1.8679 -2.1520 0.9797
3.9003 2.6230 -2.1757 0.9795
3.6664 2.9730 -2.1849 0.9794
3.0979 3.5978 -2.1977 0.9793
1.8508 3.9011 -1.9987 0.9811
0.4032 4.6862 -2.1772 0.9795
-0.0162 4.6802 -2.1664 0.9796
-0.4310 4.6334 -2.1540 0.9797
-1.6074 4.2621 -2.1085 0.9801
-1.9648 4.0681 -2.0912 0.9803
-2.2996 3.8431 -2.0731 0.9805
-2.6094 3.5901 -2.0544 0.9806
-2.0882 2.3914 -1.4696 0.9861
-4.0055 2.1665 -2.1079 0.9801
-1.3225 0.5694 -0.6665 0.9937
-1.3284 0.1854 -0.6208 0.9941
-1.3379 -0.0535 -0.6198 0.9941
-1.3307 -0.1729 -0.6211 0.9941
-1.3252 -0.5558 -0.6652 0.9937
-3.4998 -2.2716 -1.9313 0.9818
-3.2715 -2.5653 -1.9244 0.9818
-3.0210 -2.8387 -1.9188 0.9819
-2.7499 -3.0902 -1.9148 0.9819
-2.4601 -3.3186 -1.9122 0.9820
-1.8307 -3.7013 -1.9114 0.9820
-1.4948 -3.8535 -1.9132 0.9819
-0.7898 -4.0749 -1.9213 0.9819
0.3207 -4.1881 -1.9443 0.9817
0.6966 -4.1650 -1.9547 0.9816
1.0716 -4.1108 -1.9664 0.9814
1.8095 -3.9084 -1.9936 0.9812
2.1674 -3.7602 -2.0090 0.9811
2.5145 -3.5810 -2.0254 0.9809
2.8481 -3.3713 -2.0428 0.9807
3.1655 -3.1316 -2.0611 0.9806
3.4639 -2.8631 -2.0802 0.9804
3.7053 -2.0830 -1.9676 0.9814
2.2775 -1.0249 -1.1560 0.9891
4.2456 -1.0582 -2.0254 0.9809
4.3641 -0.6818 -2.0446 0.9807
4.4483 -0.2926 -2.0635 0.9805
4.5072 0.5111 -2.0997 0.9802
4.4124 1.3239 -2.1324 0.9799
4.3061 1.7238 -2.1470 0.9798
3.7561 2.8475 -2.1818 0.9794
3.5001 3.1828 -2.1898 0.9794
3.2112 3.4920 -2.1959 0.9793
1.7907 4.4018 -2.1997 0.9793
1.3883 4.5350 -2.1953 0.9793
0.5569 4.6780 -2.1807 0.9794
0.1369 4.6872 -2.1706 0.9795
-1.4716 4.3248 -2.1146 0.9801
-2.1799 3.9288 -2.0798 0.9804
-2.4992 3.6857 -2.0613 0.9806
-2.7920 3.4164 -2.0423 0.9807
-2.1819 2.2303 -1.4442 0.9863
-3.2910 2.8120 -2.0037 0.9811
-3.4947 2.4831 -1.9844 0.9813
-4.1015 1.9268 -2.0976 0.9802
-1.3158 0.3509 -0.6303 0.9940
-1.3344 -0.0097 -0.6177 0.9941
-1.3367 -0.1295 -0.6216 0.9941
-3.5775 -2.1593 -1.9342 0.9818
-3.3577 -2.4602 -1.9267 0.9818
-2.8514 -3.0008 -1.9161 0.9819
-2.5682 -3.2378 -1.9129 0.9819
-1.9503 -3.6390 -1.9111 0.9820
-1.2756 -3.9359 -1.9152 0.9819
-0.5590 -4.1212 -1.9251 0.9818
0.5591 -4.1770 -1.9507 0.9816
0.9347 -4.1342 -1.9620 0.9815
1.6764 -3.9548 -1.9883 0.9812
2.7278 -3.4515 -2.0364 0.9808
3.0515 -3.2227 -2.0544 0.9806
3.6363 -2.6742 -2.0893 0.9803
4.0320 -1.5464 -1.9989 0.9811
4.1941 -1.1921 -2.0183 0.9810
4.3246 -0.8211 -2.0376 0.9808
4.4216 -0.4362 -2.0566 0.9806
4.5077 0.3625 -2.0933 0.9803
4.4415 1.1760 -2.1267 0.9800
4.3496 1.5785 -2.1418 0.9798
3.8410 2.7190 -2.1783 0.9795
1.9344 4.3430 -2.2007 0.9793
0.7619 3.1073 -1.4809 0.9860
-0.1282 4.6716 -2.1632 0.9796
-0.5410 4.6141 -2.1504 0.9797
-1.3333 4.3829 -2.1206 0.9800
-2.0570 4.0106 -2.0864 0.9803
-2.3853 3.7778 -2.0681 0.9805
-2.6880 3.5178 -2.0493 0.9807
-2.1283 2.3226 -1.4582 0.9862
-3.6074 2.2674 -1.9723 0.9814
-4.0491 2.0662 -2.1042 0.9802
-1.3385 -0.0857 -0.6209 0.9941
-1.3244 -0.2045 -0.6203 0.9941
-1.3337 -0.4595 -0.6529 0.9938
-1.3178 -0.5902 -0.6684 0.9937
-3.6519 -2.0446 -1.9373 0.9817
-2.9502 -2.9083 -1.9176 0.9819
-2.3793 -3.3758 -1.9117 0.9820
-2.0680 -3.5731 -1.9110 0.9820
-1.7418 -3.7448 -1.9117 0.9820
-1.0522 -4.0071 -1.9177 0.9819
-0.6925 -4.0960 -1.9229 0.9819
-0.3256 -4.1556 -1.9295 0.9818
0.4215 -4.1849 -1.9469 0.9816
0.7974 -4.1535 -1.9577 0.9815
1.9065 -3.8717 -1.9976 0.9812
2.9350 -3.3099 -2.0477 0.9807
3.5389 -2.7851 -2.0846 0.9803
3.7639 -1.9988 -1.9727 0.9814
4.2807 -0.9586 -2.0305 0.9809
4.3901 -0.5784 -2.0497 0.9807
4.5035 0.6203 -2.1043 0.9802
4.2709 1.8297 -2.1507 0.9797
4.1150 2.2163 -2.1635 0.9796
3.6907 2.9398 -2.1841 0.9794
3.1285 3.5700 -2.1972 0.9793
2.8022 3.8409 -2.2008 0.9793
1.2784 4.5638 -2.1938 0.9793
-1.5715 4.2793 -2.1101 0.9801
-2.2680 3.8663 -2.0749 0.9804
-2.5804 3.6159 -2.0562 0.9806
-3.3488 2.7252 -1.9985 0.9811
-3.5439 2.3925 -1.9793 0.9813
-3.9890 2.2026 -2.1093 0.9801
-1.3061 0.3150 -0.6219 0.9941
-1.3385 0.0778 -0.6206 0.9941
-1.3372 -0.0418 -0.6193 0.9941
-1.3326 -0.1614 -0.6213 0.9941
-1.3032 -0.2776 -0.6168 0.9941
-3.7231 -1.9274 -1.9406 0.9817
-3.5208 -2.2419 -1.9321 0.9818
-3.2947 -2.5376 -1.9250 0.9818
-3.0463 -2.8129 -1.9193 0.9819
-2.7772 -3.0666 -1.9151 0.9819
-2.1837 -3.5038 -1.9111 0.9820
-1.8628 -3.6850 -1.9113 0.9820
-0.9653 -3.8108 -1.9283 0.9826
0.0786 -3.9697 -1.9476 0.9825
0.4343 -3.9654 -1.9567 0.9824
0.7904 -3.9316 -1.9671 0.9823
1.1445 -3.8681 -1.9787 0.9822
1.4945 -3.7749 -1.9915 0.9821
3.0964 -2.8694 -2.0707 0.9814
3.3600 -2.1478 -1.9561 0.9824
3.5704 -1.8564 -1.9740 0.9822
4.1408 -0.5090 -2.0464 0.9816
4.2359 0.2387 -2.0811 0.9813
4.2308 0.6203 -2.0975 0.9811
4.1110 1.3814 -2.1273 0.9809
3.9960 1.7532 -2.1405 0.9807
3.6584 2.4603 -2.1626 0.9805
3.1858 3.0931 -2.1781 0.9804
2.9040 3.3726 -2.1831 0.9804
2.5953 3.6232 -2.1862 0.9803
1.5420 4.1762 -2.1837 0.9804
1.1609 4.2877 -2.1790 0.9804
-0.0152 4.3911 -2.1540 0.9806
-0.4046 4.3488 -2.1424 0.9807
-0.7859 4.2693 -2.1294 0.9808
-1.5106 4.0054 -2.0998 0.9811
-1.8474 3.8250 -2.0836 0.9813
-2.4561 3.3791 -2.0491 0.9816
-2.0807 2.3828 -1.5517 0.9860
-2.2783 2.1815 -1.5473 0.9860
-3.3594 2.2256 -1.9767 0.9822
-1.1455 0.4931 -0.6117 0.9945
-1.1581 0.3802 -0.5979 0.9946
-1.1963 0.0591 -0.5875 0.9947
-1.1890 -0.1545 -0.5881 0.9947
-1.1682 -0.2594 -0.5870 0.9947
-1.1475 -0.4813 -0.6104 0.9945
-1.1189 -0.5917 -0.6209 0.9944
-2.8659 -2.6929 -1.9290 0.9826
-2.6091 -2.9318 -1.9251 0.9827
-1.7371 -3.5120 -1.9219 0.9827
-1.4183 -3.6562 -1.9237 0.9827
-0.7492 -3.8655 -1.9314 0.9826
-0.0510 -3.9641 -1.9446 0.9825
0.3041 -3.9703 -1.9532 0.9824
0.6602 -3.9473 -1.9632 0.9823
1.7132 -3.7003 -2.0002 0.9820
2.0512 -3.5586 -2.0148 0.9819
2.3787 -3.3875 -2.0304 0.9817
2.6930 -3.1876 -2.0469 0.9816
2.9916 -2.9596 -2.0642 0.9814
3.4962 -1.9655 -1.9674 0.9823
3.8595 -1.3373 -2.0036 0.9820
3.9995 -0.9968 -2.0218 0.9818
4.1858 -0.2753 -2.0577 0.9815
4.2289 0.0999 -2.0749 0.9813
4.2368 0.4804 -2.0916 0.9812
4.1439 1.2433 -2.1222 0.9809
3.7306 2.3357 -2.1590 0.9806
3.5225 2.6704 -2.1683 0.9805
3.2817 2.9842 -2.1758 0.9804
3.0103 3.2735 -2.1815 0.9804
2.3871 3.7659 -2.1871 0.9803
2.0417 3.9636 -2.1870 0.9803
0.5223 4.3873 -2.1673 0.9805
-1.3827 4.0637 -2.1056 0.9811
-1.7265 3.8945 -2.0896 0.9812
-2.0503 3.6953 -2.0729 0.9813
-2.3518 3.4684 -2.0556 0.9815
-2.1742 2.2224 -1.5251 0.9862
-1.1370 0.5342 -0.6162 0.9944
-1.1584 0.3089 -0.5881 0.9947
-1.1946 0.0982 -0.5880 0.9947
-1.1958 -0.0087 -0.5866 0.9947
-1.1933 -0.1156 -0.5881 0.9947
-1.1773 -0.2214 -0.5876 0.9947
-1.1589 -0.3272 -0.5907 0.9946
-1.1326 -0.5523 -0.6181 0.9944
-3.3924 -2.0476 -1.9437 0.9825
-3.1846 -2.3334 -1.9366 0.9826
-2.4367 -3.0720 -1.9234 0.9827
-1.5363 -3.6064 -1.9229 0.9827
-1.2102 -3.7342 -1.9255 0.9827
-0.5302 -3.9090 -1.9350 0.9826
0.5299 -3.9592 -1.9594 0.9824
0.8857 -3.9175 -1.9701 0.9823
2.2603 -3.4535 -2.0246 0.9818
2.5797 -3.2640 -2.0408 0.9816
3.1717 -2.8009 -2.0756 0.9813
3.4188 -2.0717 -1.9609 0.9823
4.1615 -0.4106 -2.0512 0.9815
4.2232 0.7229 -2.1017 0.9811
4.0837 1.4820 -2.1310 0.9808
3.9590 1.8513 -2.1438 0.9807
3.7982 2.2087 -2.1552 0.9806
3.3734 2.8721 -2.1732 0.9805
3.1130 3.1707 -2.1796 0.9804
2.8236 3.4428 -2.1841 0.9804
2.1703 3.8953 -2.1873 0.9803
1.4407 4.2098 -2.1826 0.9804
0.7659 3.1237 -1.5776 0.9858
0.6662 4.3740 -2.1703 0.9805
0.2724 4.3980 -2.1615 0.9806
-0.5079 4.3310 -2.1390 0.9808
-0.8865 4.2419 -2.1257 0.9809
-1.9343 3.7715 -2.0791 0.9813
-3.2284 2.4565 -1.9899 0.9821
-3.4034 2.1392 -1.9718 0.9822
-1.1589 0.3500 -0.5938 0.9946
-1.1725 0.2425 -0.5873 0.9947
-1.1964 0.0304 -0.5870 0.9947
-1.1958 -0.0765 -0.5877 0.9947
-1.1847 -0.1829 -0.5880 0.9947
-1.1050 -0.6186 -0.6212 0.9944
-3.2632 -2.2309 -1.9390 0.9825
-3.0414 -2.5049 -1.9327 0.9826
-1.3307 -3.6905 -1.9244 0.9827
-0.6569 -3.8853 -1.9329 0.9826
-0.3088 -3.9412 -1.9392 0.9825
0.0440 -3.9686 -1.9468 0.9825
0.3996 -3.9671 -1.9558 0.9824
0.7557 -3.9362 -1.9660 0.9823
1.1102 -3.8756 -1.9775 0.9822
1.4607 -3.7853 -1.9902 0.9821
1.8048 -3.6652 -2.0040 0.9820
2.4644 -3.3367 -2.0347 0.9817
2.7748 -3.1291 -2.0515 0.9815
3.3413 -2.6296 -2.0857 0.9812
3.3449 -2.1794 -1.9583 0.9824
3.5510 -1.8858 -1.9722 0.9822
4.0319 -0.9029 -2.0267 0.9818
4.2007 -0.1753 -2.0624 0.9814
4.2345 0.2016 -2.0795 0.9813
4.2328 0.5830 -2.0959 0.9811
4.1949 0.9653 -2.1115 0.9810
4.1203 1.3447 -2.1260 0.9809
3.8612 2.0796 -2.1512 0.9807
3.6781 2.4274 -2.1617 0.9806
2.2964 3.8223 -2.1873 0.9803
1.8753 3.8654 -2.1075 0.9810
1.1985 4.2785 -2.1795 0.9804
0.8098 4.3555 -2.1731 0.9805
0.0230 4.3932 -2.1550 0.9806
-0.3669 4.3545 -2.1436 0.9807
-0.7492 4.2787 -2.1307 0.9808
-1.1203 4.1670 -2.1166 0.9810
-1.4768 4.0214 -2.1014 0.9811
-2.0660 2.4079 -1.5563 0.9860
-2.2294 2.1722 -1.5268 0.9862
-3.1570 2.5692 -1.9966 0.9820
-3.3429 2.2567 -1.9784 0.9822
-1.1434 0.5041 -0.6130 0.9944
-1.1575 0.3912 -0.5993 0.9946
-1.1858 0.1760 -0.5880 0.9947
-1.1960 0.0695 -0.5877 0.9947
-1.1708 -0.2493 -0.5872 0.9947
-1.1588 -0.3574 -0.5948 0.9946
-1.1493 -0.4703 -0.6091 0.9945
-1.1237 -0.5818 -0.6207 0.9944
-3.1251 -2.4069 -1.9349 0.9826
-2.6349 -2.9095 -1.9254 0.9827
-2.0720 -3.3247 -1.9216 0.9827
-1.7675 -3.4966 -1.9218 0.9827
-1.1210 -3.7640 -1.9265 0.9827
-0.5921 -3.6974 -1.9426 0.9833
0.0747 -3.7700 -1.9562 0.9832
0.7502 -3.7318 -1.9747 0.9830
1.4177 -3.5809 -1.9980 0.9828
1.7428 -3.4630 -2.0112 0.9827
2.6558 -2.9430 -2.0565 0.9823
3.1777 -2.0313 -1.9566 0.9831
2.2824 -0.9387 -1.2803 0.9889
3.8161 -0.8198 -2.0249 0.9826
3.9064 -0.4802 -2.0418 0.9824
3.8696 1.3003 -2.1178 0.9818
3.4403 2.3136 -2.1508 0.9815
2.7293 3.1697 -2.1700 0.9813
2.4390 3.4050 -2.1728 0.9813
2.1267 3.6107 -2.1739 0.9813
1.4492 3.9249 -2.1705 0.9813
0.8754 3.2332 -1.7377 0.9850
-0.0143 4.1303 -2.1427 0.9816
-0.3806 4.0917 -2.1319 0.9817
-0.7398 4.0184 -2.1197 0.9818
-1.7410 3.6048 -2.0768 0.9821
-2.3169 3.1876 -2.0443 0.9824
-2.2516 2.1559 -1.6172 0.9861
-3.0009 2.3990 -1.9931 0.9828
-3.1754 2.1036 -1.9760 0.9830
-1.0484 0.4513 -0.5922 0.9949
-1.0774 0.2499 -0.5738 0.9950
-1.0981 0.1532 -0.5752 0.9950
-1.1066 -0.0442 -0.5745 0.9950
-1.0802 -0.2399 -0.5740 0.9950
-1.0188 -0.5387 -0.5979 0.9948
-3.1525 -2.0462 -1.9498 0.9832
-2.7230 -2.5586 -1.9384 0.9833
-2.4792 -2.7859 -1.9347 0.9833
-2.2182 -2.9922 -1.9323 0.9834
-1.6507 -3.3375 -1.9316 0.9834
-1.3477 -3.4744 -1.9333 0.9833
-1.0341 -3.5863 -1.9363 0.9833
-0.3826 -3.7322 -1.9463 0.9832
0.2887 -3.7700 -1.9615 0.9831
0.6267 -3.7472 -1.9710 0.9830
0.9636 -3.6962 -1.9816 0.9829
1.2970 -3.6169 -1.9934 0.9828
1.9446 -3.3737 -2.0201 0.9826
2.2541 -3.2102 -2.0349 0.9825
2.5509 -3.0194 -2.0506 0.9823
3.0957 -2.5588 -2.0836 0.9821
3.3301 -2.2853 -2.0953 0.9820
3.3055 -1.8583 -1.9673 0.9831
3.6454 -1.2631 -2.0015 0.9828
3.7756 -0.9410 -2.0186 0.9826
3.8769 -0.6057 -2.0357 0.9825
3.9638 0.8126 -2.0991 0.9819
3.9012 1.1705 -2.1130 0.9818
3.5085 2.1966 -2.1475 0.9815
3.3120 2.5108 -2.1561 0.9814
2.5479 3.3222 -2.1720 0.9813
0.1208 4.1355 -2.1463 0.9815
-0.2473 4.1099 -2.1360 0.9816
-1.3023 3.8274 -2.0974 0.9819
-1.6268 3.6697 -2.0824 0.9821
-1.9329 3.4835 -2.0667 0.9822
-2.2182 3.2713 -2.0504 0.9823
-2.4806 3.0354 -2.0337 0.9825
-2.9302 2.5036 -1.9994 0.9828
-1.0586 0.3863 -0.5846 0.9949
-1.0921 0.1889 -0.5749 0.9950
-1.0888 -0.2047 -0.5748 0.9950
-3.0252 -2.2166 -1.9456 0.9832
-2.5704 -2.7051 -1.9359 0.9833
-2.3155 -2.9193 -1.9330 0.9833
-1.1500 -3.5483 -1.9351 0.9833
-0.5037 -3.7135 -1.9441 0.9833
-0.1711 -3.7561 -1.9506 0.9832
0.1652 -3.7713 -1.9584 0.9831
0.8406 -3.7181 -1.9776 0.9830
1.1756 -3.6492 -1.9889 0.9829
2.1422 -3.2732 -2.0294 0.9825
2.4440 -3.0923 -2.0448 0.9824
2.7314 -2.8847 -2.0609 0.9823
2.3046 -1.1290 -1.3313 0.9885
2.2949 -0.8801 -1.2751 0.9890
3.9254 -0.3873 -2.0463 0.9824
3.9760 -0.0360 -2.0627 0.9822
3.9939 0.3212 -2.0786 0.9821
3.9281 1.0400 -2.1080 0.9819
3.8436 1.3949 -2.1212 0.9817
3.5725 2.0774 -2.1439 0.9815
3.3875 2.3980 -2.1531 0.9815
2.9260 2.9803 -2.1667 0.9814
2.6537 3.2356 -2.1709 0.9813
2.0395 3.6605 -2.1739 0.9813
1.7040 3.8256 -2.1726 0.9813
0.7597 3.0986 -1.6551 0.9857
0.6264 4.1123 -2.1580 0.9814
0.2562 4.1359 -2.1497 0.9815
-0.1131 4.1234 -2.1399 0.9816
-0.4779 4.0754 -2.1287 0.9817
-0.8345 3.9930 -2.1162 0.9818
-1.1796 3.8776 -2.1026 0.9819
-2.4632 2.2479 -1.7300 0.9851
-3.0505 2.3211 -1.9885 0.9829
-0.9760 0.6134 -0.5980 0.9948
-1.0260 0.5236 -0.5976 0.9948
-1.0842 0.2243 -0.5744 0.9950
-1.1015 0.1269 -0.5752 0.9950
-1.1059 -0.0708 -0.5749 0.9950
-1.0956 -0.1692 -0.5751 0.9950
-1.0728 -0.2654 -0.5733 0.9950
-1.0449 -0.4680 -0.5940 0.9949
-2.8895 -2.3798 -1.9419 0.9833
-2.6593 -2.6216 -1.9373 0.9833
-2.4108 -2.8434 -1.9339 0.9833
-1.5706 -3.3766 -1.9319 0.9834
-1.2646 -3.5069 -1.9340 0.9833
-0.9484 -3.6120 -1.9374 0.9833
-0.2933 -3.7436 -1.9481 0.9832
0.0418 -3.7690 -1.9554 0.9832
0.7173 -3.7363 -1.9737 0.9830
1.0535 -3.6777 -1.9847 0.9829
2.0288 -3.3325 -2.0240 0.9826
2.6281 -2.9637 -2.0549 0.9823
3.1573 -2.0572 -1.9550 0.9832
3.3569 -1.7827 -1.9718 0.9830
3.9912 0.1900 -2.0729 0.9822
3.8785 1.2658 -2.1165 0.9818
3.6321 1.9562 -2.1402 0.9816
3.2539 2.5919 -2.1581 0.9814
2.4683 3.3833 -2.1726 0.9813
1.4835 3.9127 -2.1708 0.9813
1.1265 4.0215 -2.1666 0.9814
0.7613 4.0946 -2.1606 0.9814
0.3917 4.1315 -2.1529 0.9815
-0.3452 4.0970 -2.1330 0.9816
-1.0549 3.9235 -2.1077 0.9819
-1.3910 3.7880 -2.0935 0.9820
-1.7108 3.6224 -2.0783 0.9821
-2.0115 3.4290 -2.0624 0.9822
-2.2909 3.2102 -2.0460 0.9824
-2.2162 2.1593 -1.6052 0.9862
-3.1596 2.1330 -1.9777 0.9830
-1.0464 0.4613 -0.5932 0.9949
-1.1066 -0.0346 -0.5744 0.9950
-1.1008 -0.1333 -0.5752 0.9950
-1.0523 -0.4306 -0.5898 0.9949
-2.9688 -2.2865 -1.9440 0.9833
-2.2443 -2.9731 -1.9325 0.9834
-1.6796 -3.3228 -1.9315 0.9834
-1.3778 -3.4621 -1.9331 0.9833
-1.0651 -3.5765 -1.9360 0.9833
-1.1743 -3.3477 -1.9431 0.9840
0.0710 -3.5853 -1.9640 0.9838
0.3921 -3.5797 -1.9723 0.9837
0.7131 -3.5473 -1.9818 0.9836
1.0321 -3.4881 -1.9923 0.9835
1.3468 -3.4019 -2.0039 0.9835
1.9549 -3.1491 -2.0301 0.9832
2.7795 -2.5757 -2.0755 0.9829
