ply
format ascii 1.0
element vertex 1591
property float32 x
property float32 y
property float32 z
property float32 I
end_header
-7.8362 -9.2524 -1.9974 0.9520
-4.1027 -11.4190 -1.9989 0.9520
-3.0669 -11.7423 -1.9993 0.9520
-2.0061 -11.9720 -1.9998 0.9520
-0.9289 -12.1061 -2.0002 0.9520
0.1563 -12.1435 -2.0007 0.9520
2.3157 -11.9275 -2.0016 0.9519
4.4033 -11.3304 -2.0026 0.9519
8.0995 -9.0788 -2.0043 0.9519
9.5894 -7.4955 -2.0051 0.9519
10.2224 -6.6101 -2.0054 0.9518
12.0828 -1.5399 -2.0066 0.9518
12.1728 -0.4544 -2.0067 0.9518
11.8583 2.7894 -2.0069 0.9518
11.5615 3.8375 -2.0068 0.9518
10.6929 5.8329 -2.0066 0.9518
8.0948 7.8135 -1.8534 0.9554
7.3634 8.5042 -1.8532 0.9554
5.7308 9.6755 -1.8525 0.9554
4.8426 10.1469 -1.8522 0.9554
3.9161 10.5368 -1.8518 0.9555
0.9200 10.4881 -1.7344 0.9582
-0.8360 9.1212 -1.5089 0.9635
-4.8712 10.1049 -1.8480 0.9555
-6.5887 9.0729 -1.8472 0.9556
-9.8554 5.3261 -1.8455 0.9556
-10.2904 4.4238 -1.8452 0.9556
-12.0044 1.6632 -1.9965 0.9521
-12.1042 0.5842 -1.9964 0.9521
-12.1075 -0.4994 -1.9963 0.9521
-12.0143 -1.5789 -1.9962 0.9521
-10.4831 1.7327 -1.9972 0.9577
-10.5954 0.7892 -1.9970 0.9577
-10.2002 -2.9711 -1.9969 0.9577
-9.8943 -3.8706 -1.9970 0.9577
-9.5095 -4.7392 -1.9971 0.9577
-9.0487 -5.5701 -1.9972 0.9577
-8.5157 -6.3566 -1.9974 0.9577
-7.2503 -7.7722 -1.9978 0.9577
-6.5278 -8.3899 -1.9981 0.9577
-4.0717 -9.8250 -1.9990 0.9576
-3.1783 -10.1513 -1.9994 0.9576
-2.2592 -10.3966 -1.9998 0.9576
-1.3218 -10.5589 -2.0002 0.9576
-0.3733 -10.6369 -2.0006 0.9576
1.5260 -10.5379 -2.0014 0.9576
4.2680 -9.7623 -2.0026 0.9576
5.1240 -9.3438 -2.0030 0.9576
5.9394 -8.8505 -2.0034 0.9575
6.7075 -8.2861 -2.0038 0.9575
7.4222 -7.6551 -2.0041 0.9575
8.0777 -6.9627 -2.0045 0.9575
8.6687 -6.2142 -2.0048 0.9575
9.6388 -4.5738 -2.0053 0.9575
10.0099 -3.6949 -2.0056 0.9575
10.3010 -2.7862 -2.0058 0.9575
10.5095 -1.8551 -2.0059 0.9575
10.6339 -0.9089 -2.0060 0.9575
10.6730 0.0447 -2.0061 0.9575
10.6267 0.9979 -2.0062 0.9575
10.4951 1.9432 -2.0062 0.9575
10.2795 2.8729 -2.0062 0.9575
9.6035 4.6559 -2.0060 0.9575
9.1486 5.4948 -2.0059 0.9575
8.0070 7.0194 -2.0014 0.9576
6.1370 7.7124 -1.8526 0.9607
5.4227 8.2286 -1.8523 0.9607
3.8707 9.0592 -1.8517 0.9607
3.0454 9.3671 -1.8514 0.9607
2.1961 9.5999 -1.8510 0.9607
1.3295 9.7558 -1.8507 0.9607
0.4526 9.8336 -1.8503 0.9607
-0.4275 9.8327 -1.8499 0.9607
-1.3039 9.7532 -1.8495 0.9607
-3.0173 9.3616 -1.8488 0.9608
-5.3882 8.2216 -1.8476 0.9608
-6.0999 7.7060 -1.8473 0.9608
-8.4069 5.0785 -1.8461 0.9608
-8.8258 4.3066 -1.8459 0.9608
-10.5758 1.0203 -1.9971 0.9577
-10.6241 0.0715 -1.9970 0.9577
-9.1679 -5.3712 -1.9972 0.9577
-8.6522 -6.1692 -1.9973 0.9577
-8.0673 -6.9181 -1.9975 0.9577
-6.7092 -8.2452 -1.9980 0.9577
-5.9467 -8.8128 -1.9983 0.9577
-2.4855 -10.3443 -1.9997 0.9576
-0.6053 -10.6257 -2.0005 0.9576
4.0538 -9.8526 -2.0025 0.9576
6.5248 -8.4301 -2.0037 0.9575
7.9235 -7.1370 -2.0044 0.9575
8.5307 -6.4017 -2.0047 0.9575
9.5364 -4.7829 -2.0053 0.9575
10.6114 -1.1407 -2.0060 0.9575
10.6714 -0.1883 -2.0061 0.9575
10.6459 0.7658 -2.0062 0.9575
10.5350 1.7137 -2.0062 0.9575
10.3398 2.6479 -2.0062 0.9575
9.7029 4.4453 -2.0061 0.9575
5.6012 8.1086 -1.8524 0.9607
4.0676 8.9730 -1.8518 0.9607
2.4052 9.5501 -1.8511 0.9607
1.5422 9.7249 -1.8507 0.9607
0.6672 9.8218 -1.8504 0.9607
-1.9596 9.6412 -1.8492 0.9607
-2.8124 9.4257 -1.8488 0.9608
-4.4430 8.7712 -1.8481 0.9608
-5.9306 7.8376 -1.8474 0.9608
-6.6058 7.2752 -1.8470 0.9608
-7.2280 6.6549 -1.8467 0.9608
-8.2943 5.2609 -1.8462 0.9608
-8.7300 4.4983 -1.8459 0.9608
-10.5511 1.2508 -1.9971 0.9577
-10.5041 -1.5912 -1.9969 0.9577
-10.3200 -2.5232 -1.9969 0.9577
-10.0536 -3.4351 -1.9969 0.9577
-9.7070 -4.3196 -1.9970 0.9577
-8.7846 -5.9787 -1.9973 0.9577
-7.5820 -7.4480 -1.9977 0.9577
-6.8873 -8.0965 -1.9979 0.9577
-4.4961 -9.6372 -1.9989 0.9576
-3.6179 -10.0021 -1.9992 0.9576
-2.7105 -10.2872 -1.9996 0.9576
-0.8370 -10.6095 -2.0004 0.9576
1.0647 -10.5934 -2.0012 0.9576
2.0071 -10.4581 -2.0016 0.9576
2.9339 -10.2392 -2.0020 0.9576
3.8376 -9.9382 -2.0024 0.9576
4.7110 -9.5576 -2.0028 0.9576
7.0805 -7.9710 -2.0040 0.9575
7.7656 -7.3079 -2.0043 0.9575
8.3887 -6.5861 -2.0046 0.9575
8.9448 -5.8113 -2.0049 0.9575
9.8387 -4.1279 -2.0055 0.9575
10.1691 -3.2329 -2.0057 0.9575
10.5838 -1.3720 -2.0060 0.9575
10.3951 2.4217 -2.0062 0.9575
10.1370 3.3405 -2.0062 0.9575
9.7977 4.2325 -2.0061 0.9575
8.8871 5.9076 -2.0058 0.9575
8.3230 6.6772 -2.0056 0.9575
7.1075 6.8311 -1.8529 0.9607
6.4681 7.4377 -1.8527 0.9607
5.7770 7.9847 -1.8524 0.9607
5.0399 8.4675 -1.8522 0.9607
4.2627 8.8824 -1.8518 0.9607
3.4516 9.2261 -1.8515 0.9607
1.7541 9.6894 -1.8508 0.9607
0.8814 9.8054 -1.8505 0.9607
0.0010 5.2427 -0.9854 0.9789
-1.7489 9.6822 -1.8493 0.9607
-2.6062 9.4853 -1.8489 0.9608
-6.4458 7.4179 -1.8471 0.9608
-8.1779 5.4408 -1.8462 0.9608
-8.6300 4.6879 -1.8460 0.9608
-10.3479 2.4150 -1.9973 0.9577
-10.6111 0.5350 -1.9970 0.9577
-10.6161 -0.4150 -1.9969 0.9577
-10.3726 -2.2974 -1.9969 0.9577
-10.1261 -3.2148 -1.9969 0.9577
-9.7988 -4.1067 -1.9970 0.9577
-9.3933 -4.9658 -1.9971 0.9577
-8.9128 -5.7855 -1.9973 0.9577
-8.3611 -6.5591 -1.9974 0.9577
-7.7425 -7.2806 -1.9976 0.9577
-6.3251 -8.5443 -1.9982 0.9577
-2.9342 -10.2251 -1.9995 0.9576
-0.1182 -10.6434 -2.0007 0.9576
1.7783 -10.4989 -2.0015 0.9576
2.7096 -10.3002 -2.0019 0.9576
5.3469 -9.2188 -2.0031 0.9576
6.1502 -8.7060 -2.0035 0.9575
6.9045 -8.1233 -2.0039 0.9575
7.6039 -7.4753 -2.0042 0.9575
8.8156 -6.0049 -2.0049 0.9575
9.7460 -4.3415 -2.0054 0.9575
10.0959 -3.4539 -2.0056 0.9575
10.3650 -2.5385 -2.0058 0.9575
10.5512 -1.6026 -2.0060 0.9575
10.6528 -0.6537 -2.0061 0.9575
10.6690 0.3005 -2.0061 0.9575
10.4455 2.1942 -2.0062 0.9575
9.4889 4.8847 -2.0060 0.9575
8.4670 6.4942 -2.0057 0.9575
6.6291 7.2950 -1.8527 0.9607
5.2237 8.3559 -1.8522 0.9607
4.4557 8.7877 -1.8519 0.9607
2.8198 9.4369 -1.8513 0.9607
1.9652 9.6493 -1.8509 0.9607
1.0952 9.7843 -1.8506 0.9607
0.2167 9.8410 -1.8502 0.9607
-1.5372 9.7185 -1.8494 0.9607
-4.0564 8.9576 -1.8483 0.9608
-5.5835 8.0897 -1.8475 0.9608
-7.5245 6.3165 -1.8466 0.9608
-8.0575 5.6182 -1.8463 0.9608
-8.5259 4.8753 -1.8460 0.9608
-8.9262 4.0937 -1.8458 0.9608
-9.9981 3.5428 -1.9937 0.9577
-10.4868 1.7101 -1.9971 0.9577
-10.5970 0.7664 -1.9970 0.9577
-10.6227 -0.1832 -1.9969 0.9577
-10.4202 -2.0705 -1.9969 0.9577
-9.8860 -3.8918 -1.9970 0.9577
-9.4993 -4.7596 -1.9971 0.9577
-9.0367 -5.5895 -1.9972 0.9577
-8.5020 -6.3750 -1.9974 0.9577
-6.5098 -8.4039 -1.9981 0.9577
-4.9120 -9.4311 -1.9987 0.9576
-4.0506 -9.8338 -1.9990 0.9576
-3.1565 -10.1582 -1.9994 0.9576
-1.2990 -10.5618 -2.0002 0.9576
-0.3504 -10.6378 -2.0006 0.9576
1.5487 -10.5347 -2.0014 0.9576
2.4841 -10.3564 -2.0018 0.9576
3.4000 -10.0952 -2.0022 0.9576
4.2891 -9.7531 -2.0026 0.9576
5.1442 -9.3328 -2.0030 0.9576
5.9584 -8.8377 -2.0034 0.9575
6.7253 -8.2717 -2.0038 0.9575
8.0927 -6.9453 -2.0045 0.9575
9.2021 -5.3960 -2.0051 0.9575
9.6486 -4.5530 -2.0053 0.9575
10.5135 -1.8324 -2.0059 0.9575
10.6358 -0.8860 -2.0060 0.9575
10.6245 1.0208 -2.0062 0.9575
10.2733 2.8950 -2.0062 0.9575
9.5934 4.6765 -2.0060 0.9575
9.1367 5.5144 -2.0059 0.9575
8.6069 6.3080 -2.0057 0.9575
6.7869 7.1489 -1.8528 0.9607
6.1204 7.7255 -1.8526 0.9607
3.8512 9.0675 -1.8517 0.9607
2.1754 9.6045 -1.8510 0.9607
1.3085 9.7586 -1.8506 0.9607
-1.3248 9.7503 -1.8495 0.9607
-2.1901 9.5910 -1.8491 0.9608
-3.8602 9.0445 -1.8484 0.9608
-4.6517 8.6617 -1.8480 0.9608
-5.4058 8.2100 -1.8476 0.9608
-6.1165 7.6928 -1.8473 0.9608
-8.4178 5.0603 -1.8461 0.9608
-8.8350 4.2876 -1.8459 0.9608
-10.2331 2.8643 -1.9973 0.9577
-10.4472 1.9386 -1.9972 0.9577
-10.5779 0.9975 -1.9971 0.9577
-10.6242 0.0486 -1.9970 0.9577
-10.5858 -0.9006 -1.9969 0.9577
-10.2566 -2.7699 -1.9969 0.9577
-9.9684 -3.6751 -1.9970 0.9577
-9.1564 -5.3909 -1.9972 0.9577
-6.6914 -8.2596 -1.9980 0.9577
-5.9277 -8.8256 -1.9983 0.9577
-3.3773 -10.0864 -1.9993 0.9576
-1.5292 -10.5304 -2.0001 0.9576
3.1787 -10.1664 -2.0021 0.9576
4.0750 -9.8439 -2.0025 0.9576
4.9390 -9.4424 -2.0029 0.9576
5.7639 -8.9652 -2.0033 0.9575
6.5429 -8.4161 -2.0037 0.9575
7.9389 -7.1200 -2.0044 0.9575
9.0819 -5.5954 -2.0050 0.9575
9.5467 -4.7624 -2.0053 0.9575
9.9351 -3.8910 -2.0055 0.9575
10.2440 -2.9883 -2.0057 0.9575
10.6442 0.7887 -2.0062 0.9575
10.3340 2.6702 -2.0062 0.9575
10.0539 3.5825 -2.0061 0.9575
9.6933 4.4661 -2.0060 0.9575
8.1583 6.8729 -2.0051 0.9575
6.2877 7.5904 -1.8526 0.9607
4.0483 8.9817 -1.8518 0.9607
2.3846 9.5552 -1.8511 0.9607
0.6460 9.8232 -1.8504 0.9607
-0.2340 9.8396 -1.8500 0.9607
-1.0438 9.1794 -1.7365 0.9631
-1.9804 9.6369 -1.8492 0.9607
-3.6621 9.1270 -1.8485 0.9608
-4.4618 8.7616 -1.8481 0.9608
-5.2256 8.3264 -1.8477 0.9608
-6.6214 7.2610 -1.8470 0.9608
-7.2423 6.6393 -1.8467 0.9608
-7.8052 5.9649 -1.8464 0.9608
-8.7396 4.4795 -1.8459 0.9608
-10.1684 3.0870 -1.9974 0.9577
-10.5538 1.2281 -1.9971 0.9577
-10.6030 -0.6694 -1.9969 0.9577
-10.0462 -3.4567 -1.9969 0.9577
-9.6976 -4.3405 -1.9970 0.9577
-9.2717 -5.1897 -1.9971 0.9577
-8.7717 -5.9976 -1.9973 0.9577
-8.2016 -6.7579 -1.9975 0.9577
-7.5660 -7.4643 -1.9977 0.9577
-6.8698 -8.1113 -1.9980 0.9577
-4.4754 -9.6469 -1.9989 0.9576
-3.5964 -10.0099 -1.9992 0.9576
-1.7585 -10.4940 -2.0000 0.9576
-0.8142 -10.6113 -2.0004 0.9576
6.3574 -8.5565 -2.0036 0.9575
8.4029 -6.5680 -2.0046 0.9575
8.9573 -5.7920 -2.0049 0.9575
9.8475 -4.1068 -2.0055 0.9575
10.1761 -3.2110 -2.0057 0.9575
10.6588 0.5562 -2.0062 0.9575
10.5667 1.5061 -2.0062 0.9575
9.7886 4.2536 -2.0061 0.9575
8.8743 5.9267 -2.0058 0.9575
7.0928 6.8463 -1.8529 0.9607
5.0217 8.4783 -1.8521 0.9607
3.4317 9.2335 -1.8515 0.9607
1.7332 9.6931 -1.8508 0.9607
0.8603 9.8072 -1.8505 0.9607
-1.7697 9.6784 -1.8493 0.9607
-2.6266 9.4796 -1.8489 0.9608
-3.4622 9.2052 -1.8485 0.9608
-5.0429 8.4388 -1.8478 0.9608
-5.7755 7.9531 -1.8475 0.9608
-7.0960 6.7960 -1.8468 0.9608
-7.6735 6.1340 -1.8465 0.9608
-8.1895 5.4232 -1.8462 0.9608
-9.0215 3.8784 -1.8457 0.9608
-10.0988 3.3082 -1.9974 0.9577
-10.3530 2.3927 -1.9973 0.9577
-10.5246 1.4582 -1.9971 0.9577
-9.3239 1.5411 -1.9976 0.9621
-9.4238 0.7020 -1.9975 0.9621
-9.3978 -0.9861 -1.9974 0.9621
-9.2721 -1.8216 -1.9974 0.9621
-9.0724 -2.6426 -1.9974 0.9621
-8.8003 -3.4426 -1.9975 0.9621
-8.4580 -4.2151 -1.9976 0.9621
-8.0481 -4.9541 -1.9977 0.9621
-7.0393 -6.3082 -1.9980 0.9621
-6.4483 -6.9125 -1.9982 0.9621
-2.8265 -9.0277 -1.9996 0.9621
-2.0091 -9.2457 -2.0000 0.9621
-0.3320 -9.4590 -2.0007 0.9620
1.3570 -9.3705 -2.0014 0.9620
2.1890 -9.2135 -2.0018 0.9620
3.0038 -8.9828 -2.0021 0.9620
5.9636 -7.3671 -2.0035 0.9620
7.7069 -5.5248 -2.0044 0.9620
8.5691 -4.0662 -2.0049 0.9620
9.4882 0.0397 -2.0056 0.9620
9.4469 0.8871 -2.0057 0.9620
9.1382 2.5540 -2.0057 0.9620
8.8733 3.3600 -2.0056 0.9620
7.1177 6.2398 -2.0008 0.9620
5.4560 6.8566 -1.8522 0.9648
4.8211 7.3156 -1.8520 0.9648
4.1477 7.7159 -1.8517 0.9648
2.7077 8.3283 -1.8511 0.9648
1.1821 8.6742 -1.8505 0.9648
0.4025 8.7436 -1.8502 0.9648
-0.3801 8.7430 -1.8498 0.9649
-1.1594 8.6725 -1.8495 0.9649
-2.6831 8.3247 -1.8488 0.9649
-4.1201 7.7116 -1.8481 0.9649
-4.7917 7.3115 -1.8478 0.9649
-5.4248 6.8531 -1.8475 0.9649
-6.5556 5.7766 -1.8470 0.9649
-7.4769 4.5167 -1.8465 0.9649
-7.9531 3.8808 -1.8706 0.9645
-9.0960 2.5671 -1.9978 0.9621
-9.4064 0.9075 -1.9976 0.9621
-9.1279 -2.4440 -1.9974 0.9621
-8.8733 -3.2497 -1.9975 0.9621
-8.5479 -4.0295 -1.9975 0.9621
-7.1751 -6.1530 -1.9980 0.9621
-5.2888 -7.8378 -1.9987 0.9621
-4.5681 -8.2800 -1.9989 0.9621
-3.8108 -8.6563 -1.9992 0.9621
-3.0227 -8.9635 -1.9995 0.9621
-2.2103 -9.1992 -1.9999 0.9621
-1.3800 -9.3615 -2.0002 0.9621
-0.5383 -9.4490 -2.0006 0.9620
0.3080 -9.4611 -2.0009 0.9620
1.1521 -9.3975 -2.0013 0.9620
1.9873 -9.2587 -2.0017 0.9620
5.1076 -7.9821 -2.0031 0.9620
5.8012 -7.4952 -2.0035 0.9620
6.4486 -6.9482 -2.0038 0.9620
8.4781 -4.2521 -2.0049 0.9620
8.8249 -3.4781 -2.0051 0.9620
9.4334 -1.0141 -2.0055 0.9620
9.4640 0.6807 -2.0057 0.9620
9.3654 1.5234 -2.0057 0.9620
9.1918 2.3540 -2.0057 0.9620
8.9446 3.1656 -2.0056 0.9620
8.6258 3.9518 -2.0055 0.9620
8.2378 4.7062 -2.0054 0.9620
6.1845 6.2092 -1.8525 0.9648
5.6045 6.7361 -1.8523 0.9648
4.9797 7.2089 -1.8520 0.9648
4.3153 7.6239 -1.8518 0.9648
3.6165 7.9777 -1.8515 0.9648
-1.7425 8.5731 -1.8492 0.9649
-2.5009 8.3816 -1.8489 0.9649
-3.9510 7.8000 -1.8482 0.9649
-4.6312 7.4146 -1.8479 0.9649
-5.2741 6.9701 -1.8476 0.9649
-5.8747 6.4701 -1.8473 0.9649
-6.4282 5.9185 -1.8470 0.9649
-6.9303 5.3199 -1.8468 0.9649
-7.3768 4.6789 -1.8465 0.9649
-9.0380 2.7651 -1.9979 0.9621
-9.3844 1.1125 -1.9976 0.9621
-9.4319 -0.5751 -1.9974 0.9621
-9.1790 -2.2442 -1.9974 0.9621
-8.9420 -3.0553 -1.9974 0.9621
-8.2564 -4.5981 -1.9976 0.9621
-7.8132 -5.3176 -1.9978 0.9621
-6.7434 -6.6242 -1.9981 0.9621
-6.1254 -7.2009 -1.9983 0.9621
-5.4584 -7.7203 -1.9986 0.9621
-3.9986 -8.5708 -1.9992 0.9621
-2.4105 -9.1484 -1.9998 0.9621
-0.7443 -9.4346 -2.0005 0.9620
1.7847 -9.2994 -2.0016 0.9620
2.6088 -9.1045 -2.0020 0.9620
3.4123 -8.8367 -2.0023 0.9620
6.2952 -7.0870 -2.0037 0.9620
7.9523 -5.1665 -2.0046 0.9620
9.2617 -2.0552 -2.0054 0.9620
9.4807 -0.3743 -2.0056 0.9620
9.3964 1.3187 -2.0057 0.9620
8.3387 4.5254 -2.0055 0.9620
7.9006 5.2519 -2.0053 0.9620
7.3992 5.9361 -2.0052 0.9620
6.3187 6.0729 -1.8525 0.9648
5.1360 7.0987 -1.8521 0.9648
4.4808 7.5281 -1.8518 0.9648
3.7898 7.8972 -1.8516 0.9648
3.0688 8.2029 -1.8513 0.9648
2.3234 8.4428 -1.8510 0.9648
1.5596 8.6151 -1.8507 0.9648
0.7837 8.7185 -1.8503 0.9648
0.0010 5.2420 -1.1081 0.9788
-1.5551 8.6095 -1.8493 0.9649
-5.1210 7.0838 -1.8477 0.9649
-5.7324 6.5970 -1.8474 0.9649
-6.2978 6.0576 -1.8471 0.9649
-6.8128 5.4700 -1.8468 0.9649
-7.2732 4.8389 -1.8466 0.9649
-8.6496 3.7405 -1.9920 0.9622
-9.2036 2.1479 -1.9977 0.9621
-9.3581 1.3171 -1.9976 0.9621
-9.2258 -2.0434 -1.9974 0.9621
-8.3546 -4.4168 -1.9976 0.9621
-7.9272 -5.1457 -1.9977 0.9621
-6.2809 -7.0653 -1.9983 0.9621
-5.6254 -7.5991 -1.9985 0.9621
-4.9247 -8.0723 -1.9988 0.9621
-4.1845 -8.4812 -1.9991 0.9621
-3.4107 -8.8224 -1.9994 0.9621
-2.6094 -9.0933 -1.9997 0.9621
-1.7870 -9.2916 -2.0001 0.9621
-0.1051 -9.4647 -2.0008 0.9620
0.7409 -9.4379 -2.0011 0.9620
1.5813 -9.3357 -2.0015 0.9620
2.4094 -9.1589 -2.0019 0.9620
4.0021 -8.5871 -2.0026 0.9620
7.3282 -6.0166 -2.0042 0.9620
8.6643 -3.8597 -2.0050 0.9620
9.3799 -1.4247 -2.0055 0.9620
9.4229 1.1133 -2.0057 0.9620
8.7901 3.5717 -2.0056 0.9620
8.4356 4.3424 -2.0055 0.9620
6.7599 6.2190 -1.9416 0.9631
3.2472 8.1343 -1.8514 0.9648
0.1927 8.7503 -1.8501 0.9648
-1.3669 8.6418 -1.8494 0.9649
-2.1330 8.4836 -1.8491 0.9649
-3.6072 7.9657 -1.8484 0.9649
-4.3036 7.6103 -1.8481 0.9649
-4.9654 7.1942 -1.8477 0.9649
-5.5873 6.7208 -1.8474 0.9649
-6.1643 6.1938 -1.8472 0.9649
-6.6920 5.6176 -1.8469 0.9649
-8.9091 3.1569 -1.9979 0.9621
-9.1547 2.3483 -1.9978 0.9621
-9.3272 1.5210 -1.9976 0.9621
-9.4253 0.6817 -1.9975 0.9621
-9.4482 -0.1630 -1.9975 0.9621
-9.3956 -1.0063 -1.9974 0.9621
-9.2681 -1.8416 -1.9974 0.9621
-8.7929 -3.4615 -1.9975 0.9621
-8.4489 -4.2333 -1.9976 0.9621
-8.0375 -4.9714 -1.9977 0.9621
-7.5618 -5.6700 -1.9978 0.9621
-7.0257 -6.3234 -1.9980 0.9621
-5.7897 -7.4743 -1.9985 0.9621
-5.0995 -7.9626 -1.9987 0.9621
-4.3685 -8.3875 -1.9990 0.9621
-3.6023 -8.7455 -1.9993 0.9621
-1.9893 -9.2500 -2.0000 0.9621
1.3771 -9.3676 -2.0014 0.9620
3.0232 -8.9764 -2.0021 0.9620
4.5738 -8.2982 -2.0029 0.9620
5.2977 -7.8578 -2.0032 0.9620
7.7188 -5.5082 -2.0044 0.9620
8.1810 -4.7973 -2.0047 0.9620
8.5778 -4.0477 -2.0049 0.9620
8.9060 -3.2657 -2.0051 0.9620
9.1629 -2.4572 -2.0053 0.9620
9.3464 -1.6290 -2.0054 0.9620
9.4450 0.9075 -2.0057 0.9620
8.1225 4.9023 -2.0054 0.9620
7.6515 5.6079 -2.0053 0.9620
5.4412 6.8683 -1.8522 0.9648
2.6898 8.3341 -1.8511 0.9648
0.3837 8.7444 -1.8502 0.9648
-1.1780 8.6699 -1.8495 0.9649
-1.9474 8.5285 -1.8491 0.9649
-2.7010 8.3189 -1.8488 0.9649
-4.1367 7.7027 -1.8481 0.9649
-5.4395 6.8414 -1.8475 0.9649
-6.0279 6.3271 -1.8472 0.9649
-7.0555 5.1520 -1.8467 0.9649
-7.4866 4.5006 -1.8465 0.9649
-7.9909 3.8780 -1.8775 0.9643
-9.2920 1.7242 -1.9977 0.9621
-9.4154 -0.8010 -1.9974 0.9621
-8.8663 -3.2688 -1.9975 0.9621
-7.1619 -6.1684 -1.9980 0.9621
-6.5829 -6.7842 -1.9982 0.9621
-5.9512 -7.3460 -1.9984 0.9621
-3.7922 -8.6645 -1.9992 0.9621
-3.0035 -8.9700 -1.9996 0.9621
-2.1906 -9.2040 -1.9999 0.9621
-0.5180 -9.4502 -2.0006 0.9620
0.3283 -9.4604 -2.0009 0.9620
2.0072 -9.2544 -2.0017 0.9620
2.8264 -9.0398 -2.0021 0.9620
3.6233 -8.7528 -2.0024 0.9620
4.3915 -8.3956 -2.0028 0.9620
6.4635 -6.9343 -2.0038 0.9620
7.0582 -6.3302 -2.0041 0.9620
7.5965 -5.6751 -2.0044 0.9620
8.4872 -4.2339 -2.0049 0.9620
9.4356 -0.9938 -2.0055 0.9620
9.4625 0.7011 -2.0057 0.9620
9.3621 1.5436 -2.0057 0.9620
8.2277 4.7239 -2.0054 0.9620
7.2507 6.1083 -2.0040 0.9620
6.1711 6.2225 -1.8525 0.9648
4.9642 7.2196 -1.8520 0.9648
4.2988 7.6331 -1.8518 0.9648
3.5993 7.9854 -1.8515 0.9648
1.3526 8.6496 -1.8506 0.9648
0.5744 8.7343 -1.8502 0.9648
-1.7610 8.5693 -1.8492 0.9649
-2.5190 8.3762 -1.8489 0.9649
-4.6471 7.4046 -1.8479 0.9649
-5.8886 6.4574 -1.8473 0.9649
-7.3868 4.6630 -1.8465 0.9649
-7.7729 3.9841 -1.8463 0.9649
-8.7512 3.5380 -1.9953 0.9621
-9.0439 2.7456 -1.9978 0.9621
-9.4464 0.2495 -1.9975 0.9621
-9.4307 -0.5954 -1.9974 0.9621
-9.1742 -2.2640 -1.9974 0.9621
-8.9354 -3.0745 -1.9974 0.9621
-8.2465 -4.6158 -1.9976 0.9621
-6.7292 -6.6387 -1.9981 0.9621
-5.4418 -7.7320 -1.9986 0.9621
-4.7300 -8.1883 -1.9989 0.9621
-3.1984 -8.9020 -1.9995 0.9621
-1.5638 -9.3322 -2.0001 0.9621
0.9670 -9.4179 -2.0012 0.9620
3.4313 -8.8294 -2.0023 0.9620
4.9494 -8.0807 -2.0030 0.9620
5.6524 -7.6076 -2.0034 0.9620
6.3104 -7.0734 -2.0037 0.9620
6.9181 -6.4824 -2.0040 0.9620
7.4706 -5.8394 -2.0043 0.9620
7.9634 -5.1493 -2.0046 0.9620
8.3926 -4.4180 -2.0048 0.9620
8.7546 -3.6510 -2.0050 0.9620
9.0466 -2.8546 -2.0052 0.9620
9.2661 -2.0353 -2.0054 0.9620
9.4115 -1.1995 -2.0055 0.9620
9.3936 1.3389 -2.0057 0.9620
9.2364 2.1727 -2.0057 0.9620
9.0052 2.9890 -2.0056 0.9620
8.7019 3.7814 -2.0056 0.9620
8.3289 4.5433 -2.0055 0.9620
7.8892 5.2688 -2.0053 0.9620
7.3864 5.9520 -2.0052 0.9620
6.3056 6.0865 -1.8525 0.9648
5.1207 7.1097 -1.8521 0.9648
4.4646 7.5377 -1.8518 0.9648
3.7728 7.9053 -1.8516 0.9648
2.3052 8.4478 -1.8510 0.9648
1.5411 8.6184 -1.8507 0.9648
-0.7987 8.7139 -1.8497 0.9649
-2.3357 8.4296 -1.8490 0.9649
-6.3108 6.0440 -1.8471 0.9649
-6.8245 5.4553 -1.8468 0.9649
-7.6843 4.1528 -1.8463 0.9649
-8.6589 3.7225 -1.9923 0.9622
-8.9820 2.9424 -1.9979 0.9621
-9.2082 2.1281 -1.9977 0.9621
-9.3609 1.2969 -1.9976 0.9621
-9.4388 0.4556 -1.9975 0.9621
-9.4415 -0.3894 -1.9974 0.9621
-8.3876 1.3863 -1.9980 0.9657
-8.4775 0.6315 -1.9979 0.9657
-8.4541 -0.8871 -1.9978 0.9657
-8.3410 -1.6387 -1.9978 0.9657
-8.1614 -2.3773 -1.9978 0.9657
-7.9166 -3.0969 -1.9979 0.9657
-6.8133 -5.0859 -1.9982 0.9657
-6.3323 -5.6746 -1.9984 0.9657
-5.8006 -6.2182 -1.9986 0.9657
-3.9457 -7.5362 -1.9993 0.9657
-2.5424 -8.1203 -1.9998 0.9656
-1.0572 -8.4457 -2.0004 0.9656
-0.2986 -8.5078 -2.0008 0.9656
0.4627 -8.5018 -2.0011 0.9656
1.2205 -8.4279 -2.0014 0.9656
2.7016 -8.0789 -2.0021 0.9656
3.4130 -7.8066 -2.0024 0.9656
4.0974 -7.4717 -2.0027 0.9656
5.3631 -6.6253 -2.0033 0.9656
5.9344 -6.1206 -2.0036 0.9656
6.4583 -5.5668 -2.0039 0.9656
7.7057 -3.6565 -2.0046 0.9656
8.0023 -2.9538 -2.0048 0.9656
8.2348 -2.2274 -2.0049 0.9656
8.4014 -1.4829 -2.0050 0.9656
8.5007 -0.7266 -2.0051 0.9656
8.5319 0.0357 -2.0052 0.9655
7.6770 3.7219 -2.0051 0.9656
7.3134 4.3926 -2.0050 0.9656
6.8913 5.0280 -2.0049 0.9656
6.4054 5.6153 -2.0020 0.9656
5.4381 5.7035 -1.8521 0.9681
4.9064 6.1659 -1.8519 0.9681
4.3355 6.5787 -1.8517 0.9681
2.4351 7.4897 -1.8510 0.9682
1.7560 7.6762 -1.8507 0.9682
1.0631 7.8011 -1.8504 0.9682
-0.3419 7.8632 -1.8498 0.9682
-1.0428 7.8000 -1.8495 0.9682
-3.0720 7.2408 -1.8486 0.9682
-5.8969 5.1962 -1.8472 0.9682
-6.7258 4.0629 -1.8467 0.9682
-8.1824 2.3093 -1.9982 0.9657
-8.3555 1.5690 -1.9981 0.9657
-8.4618 0.8163 -1.9980 0.9657
-8.5006 0.0572 -1.9979 0.9657
-8.4715 -0.7024 -1.9978 0.9657
-8.3748 -1.4563 -1.9978 0.9657
-7.9823 -2.9234 -1.9979 0.9657
-7.6895 -3.6249 -1.9979 0.9657
-5.3676 -6.5964 -1.9987 0.9657
-4.7574 -7.0503 -1.9989 0.9657
-3.4278 -7.7864 -1.9995 0.9656
-2.7189 -8.0626 -1.9997 0.9656
-1.9881 -8.2745 -2.0000 0.9656
-1.2412 -8.4203 -2.0004 0.9656
-0.4842 -8.4989 -2.0007 0.9656
0.2770 -8.5095 -2.0010 0.9656
1.7874 -8.3272 -2.0017 0.9656
2.5245 -8.1356 -2.0020 0.9656
3.9332 -7.5590 -2.0026 0.9656
5.2171 -6.7406 -2.0033 0.9656
5.7992 -6.2485 -2.0036 0.9656
6.8203 -5.1182 -2.0041 0.9656
7.6239 -3.8237 -2.0045 0.9656
8.3669 -1.6659 -2.0050 0.9656
8.4827 -0.9119 -2.0051 0.9656
8.5306 -0.1505 -2.0052 0.9655
8.4215 1.3699 -2.0053 0.9655
8.0431 2.8465 -2.0052 0.9655
7.7564 3.5535 -2.0051 0.9656
5.5614 5.5836 -1.8522 0.9681
5.0399 6.0575 -1.8520 0.9681
4.4781 6.4827 -1.8518 0.9681
1.9232 7.6363 -1.8507 0.9682
-1.5672 7.7107 -1.8492 0.9682
-4.1656 6.6692 -1.8481 0.9682
-5.7823 5.3238 -1.8473 0.9682
-6.2340 4.7854 -1.8470 0.9682
-6.6357 4.2089 -1.8468 0.9682
-8.1303 2.4874 -1.9982 0.9657
-8.3194 1.7510 -1.9981 0.9657
-8.4421 1.0008 -1.9980 0.9657
-8.4974 0.2427 -1.9979 0.9657
-8.4848 -0.5173 -1.9978 0.9657
-8.4046 -1.2732 -1.9978 0.9657
-8.2573 -2.0189 -1.9978 0.9657
-7.7667 -3.4562 -1.9979 0.9657
-7.0285 -4.7835 -1.9981 0.9657
-4.2705 -7.3564 -1.9991 0.9657
-3.5968 -7.7095 -1.9994 0.9656
-2.8941 -8.0011 -1.9997 0.9656
-1.4246 -8.3909 -2.0003 0.9656
0.8515 -8.4724 -2.0012 0.9656
1.6052 -8.3639 -2.0016 0.9656
3.0689 -7.9474 -2.0022 0.9656
3.7671 -7.6427 -2.0026 0.9656
4.4355 -7.2768 -2.0029 0.9656
5.0686 -6.8526 -2.0032 0.9656
5.6613 -6.3733 -2.0035 0.9656
7.5385 -3.9891 -2.0045 0.9656
7.8654 -3.3000 -2.0047 0.9656
8.1294 -2.5844 -2.0048 0.9656
8.3284 -1.8481 -2.0050 0.9656
8.4607 -1.0968 -2.0051 0.9656
8.5252 -0.3366 -2.0052 0.9656
8.5214 0.4263 -2.0052 0.9655
8.4494 1.1858 -2.0053 0.9655
8.3097 1.9358 -2.0053 0.9655
7.1044 4.7226 -2.0050 0.9656
5.8650 5.6369 -1.9118 0.9671
3.4082 7.1018 -1.8513 0.9682
2.7598 7.3769 -1.8511 0.9682
2.0894 7.5928 -1.8508 0.9682
1.4026 7.7479 -1.8505 0.9682
0.7048 7.8410 -1.8502 0.9682
0.0010 5.1812 -1.2177 0.9789
-0.7015 7.8387 -1.8496 0.9682
-1.3987 7.7434 -1.8493 0.9682
-2.0844 7.5862 -1.8490 0.9682
-2.7533 7.3685 -1.8487 0.9682
-4.0193 6.7588 -1.8481 0.9682
-5.1563 5.9339 -1.8476 0.9682
-5.6649 5.4489 -1.8473 0.9682
-6.1282 4.9204 -1.8471 0.9682
-6.5425 4.3528 -1.8468 0.9682
-7.8046 3.3751 -1.9984 0.9657
-8.0742 2.6642 -1.9983 0.9657
-8.2793 1.9322 -1.9981 0.9657
-8.1021 -2.5723 -1.9978 0.9657
-7.5156 -3.9732 -1.9980 0.9657
-6.6896 -5.2479 -1.9982 0.9657
-6.1945 -5.8249 -1.9984 0.9657
-5.6500 -6.3556 -1.9986 0.9657
-3.7640 -7.6289 -1.9993 0.9656
-3.0679 -7.9357 -1.9996 0.9656
-0.8545 -8.4690 -2.0005 0.9656
1.4222 -8.3966 -2.0015 0.9656
2.8946 -8.0122 -2.0022 0.9656
3.5993 -7.7228 -2.0025 0.9656
4.2755 -7.3716 -2.0028 0.9656
4.9177 -6.9613 -2.0031 0.9656
5.5206 -6.4951 -2.0034 0.9656
6.0796 -5.9768 -2.0037 0.9656
6.5901 -5.4106 -2.0040 0.9656
7.0479 -4.8008 -2.0042 0.9656
7.4494 -4.1525 -2.0044 0.9656
7.7914 -3.4708 -2.0046 0.9656
8.2860 -2.0293 -2.0049 0.9656
8.5157 -0.5226 -2.0052 0.9656
8.3500 1.7540 -2.0053 0.9655
8.1598 2.4929 -2.0052 0.9655
7.9043 3.2117 -2.0052 0.9656
7.5854 3.9048 -2.0051 0.9656
7.2059 4.5665 -2.0050 0.9656
6.2581 5.7573 -1.9985 0.9657
5.2997 5.8321 -1.8521 0.9681
4.7570 6.2815 -1.8519 0.9681
4.1764 6.6806 -1.8516 0.9681
2.9202 7.3151 -1.8512 0.9682
2.2547 7.5457 -1.8509 0.9682
0.8758 7.8240 -1.8503 0.9682
-1.9185 7.6302 -1.8491 0.9682
-2.5920 7.4271 -1.8488 0.9682
-3.8710 6.8452 -1.8482 0.9682
-4.4663 6.4710 -1.8479 0.9682
-5.5449 5.5714 -1.8474 0.9682
-6.0196 5.0531 -1.8471 0.9682
-6.4461 4.4947 -1.8469 0.9682
-6.8678 3.9271 -1.8593 0.9680
-7.7212 3.5410 -1.9964 0.9657
-8.0143 2.8398 -1.9983 0.9657
-8.3906 1.3682 -1.9980 0.9657
-8.4788 0.6132 -1.9979 0.9657
-8.4522 -0.9053 -1.9978 0.9657
-8.3375 -1.6567 -1.9978 0.9657
-7.2303 -4.4722 -1.9981 0.9657
-5.2080 -6.7234 -1.9988 0.9657
-4.5872 -7.1626 -1.9990 0.9657
-3.9295 -7.5447 -1.9993 0.9657
-3.2403 -7.8666 -1.9995 0.9656
-0.2803 -8.5084 -2.0008 0.9656
0.4809 -8.5008 -2.0011 0.9656
1.2386 -8.4253 -2.0014 0.9656
1.9866 -8.2823 -2.0018 0.9656
5.3774 -6.6138 -2.0033 0.9656
6.9413 -4.9533 -2.0041 0.9656
7.7136 -3.6399 -2.0046 0.9656
8.5318 0.0541 -2.0052 0.9655
7.9725 3.0385 -2.0052 0.9655
7.6689 3.7384 -2.0051 0.9656
5.4258 5.7152 -1.8521 0.9681
4.8931 6.1764 -1.8519 0.9681
4.3213 6.5880 -1.8517 0.9681
3.0792 7.2499 -1.8512 0.9682
1.7395 7.6799 -1.8507 0.9682
1.0464 7.8033 -1.8504 0.9682
0.3451 7.8644 -1.8501 0.9682
-0.3588 7.8625 -1.8498 0.9682
-1.0595 7.7977 -1.8495 0.9682
-2.4294 7.4822 -1.8489 0.9682
-4.3241 6.5672 -1.8480 0.9682
-4.8928 6.1537 -1.8477 0.9682
-5.4221 5.6912 -1.8474 0.9682
-5.9081 5.1834 -1.8472 0.9682
-6.3467 4.6344 -1.8470 0.9682
-7.6320 3.7038 -1.9938 0.9657
-8.1874 2.2917 -1.9982 0.9657
-8.5007 0.0389 -1.9979 0.9657
-8.2066 -2.2163 -1.9978 0.9657
-7.3260 -4.3133 -1.9980 0.9657
-6.9119 -4.9508 -1.9982 0.9657
-5.3534 -6.6080 -1.9987 0.9657
-2.7016 -8.0685 -1.9998 0.9656
-0.4659 -8.4999 -2.0007 0.9656
1.0544 -8.4500 -2.0013 0.9656
2.5420 -8.1302 -2.0020 0.9656
3.2587 -7.8719 -2.0023 0.9656
4.6089 -7.1687 -2.0030 0.9656
5.2316 -6.7294 -2.0033 0.9656
5.8126 -6.2360 -2.0036 0.9656
6.3473 -5.6926 -2.0038 0.9656
7.2608 -4.4734 -2.0043 0.9656
7.6321 -3.8073 -2.0045 0.9656
8.1892 -2.3889 -2.0049 0.9656
8.3705 -1.6479 -2.0050 0.9656
8.5088 0.6304 -2.0052 0.9655
8.4185 1.3880 -2.0053 0.9655
8.2609 2.1345 -2.0053 0.9655
7.7488 3.5702 -2.0051 0.9656
7.3985 4.2479 -2.0050 0.9656
6.5236 5.4958 -2.0048 0.9656
5.0268 6.0683 -1.8520 0.9681
4.4641 6.4923 -1.8518 0.9681
3.2368 7.1813 -1.8513 0.9682
1.2164 7.7790 -1.8505 0.9682
-0.8892 7.8193 -1.8495 0.9682
-2.2656 7.5337 -1.8489 0.9682
-3.5689 7.0081 -1.8483 0.9682
-4.7575 6.2592 -1.8478 0.9682
-5.2968 5.8084 -1.8475 0.9682
-6.6447 4.1946 -1.8468 0.9682
-7.5395 3.8644 -1.9911 0.9658
-7.8831 3.1870 -1.9984 0.9657
-8.1356 2.4699 -1.9982 0.9657
-8.3231 1.7331 -1.9981 0.9657
-8.4442 0.9826 -1.9980 0.9657
-8.4979 0.2244 -1.9979 0.9657
-8.4837 -0.5356 -1.9978 0.9657
-7.0182 -4.7987 -1.9981 0.9657
-5.4962 -6.4894 -1.9987 0.9657
-4.2547 -7.3656 -1.9991 0.9657
-2.1504 -8.2335 -2.0000 0.9656
-0.6512 -8.4874 -2.0006 0.9656
0.1096 -8.5130 -2.0009 0.9656
0.8697 -8.4706 -2.0013 0.9656
1.6232 -8.3605 -2.0016 0.9656
2.3639 -8.1834 -2.0019 0.9656
3.0860 -7.9408 -2.0023 0.9656
3.7836 -7.6346 -2.0026 0.9656
4.4512 -7.2673 -2.0029 0.9656
5.0833 -6.8416 -2.0032 0.9656
5.6750 -6.3611 -2.0035 0.9656
6.2214 -5.8296 -2.0038 0.9656
6.7181 -5.2512 -2.0040 0.9656
7.1612 -4.6306 -2.0043 0.9656
7.5470 -3.9729 -2.0045 0.9656
8.1350 -2.5670 -2.0048 0.9656
8.5259 -0.3183 -2.0052 0.9656
8.5205 0.4446 -2.0052 0.9655
8.4468 1.2040 -2.0053 0.9655
8.3055 1.9537 -2.0053 0.9655
8.0976 2.6878 -2.0052 0.9655
7.4896 4.0855 -2.0051 0.9656
5.1582 5.9573 -1.8520 0.9681
2.7439 7.3828 -1.8511 0.9682
2.0731 7.5973 -1.8508 0.9682
-0.7183 7.8371 -1.8496 0.9682
-2.7692 7.3625 -1.8487 0.9682
-3.4152 7.0846 -1.8484 0.9682
-6.1388 4.9072 -1.8471 0.9682
-6.5518 4.3387 -1.8468 0.9682
-7.2168 3.9002 -1.9280 0.9669
-7.8118 3.3583 -1.9984 0.9657
-8.2834 1.9144 -1.9981 0.9657
-8.4208 1.1667 -1.9980 0.9657
-7.6148 1.2586 -1.9984 0.9686
-7.6752 -0.8053 -1.9982 0.9686
-7.4095 -2.1583 -1.9982 0.9686
-7.1872 -2.8116 -1.9982 0.9686
-6.5728 -4.0460 -1.9984 0.9686
-6.1855 -4.6172 -1.9985 0.9686
-5.2660 -5.6451 -1.9988 0.9686
-4.7411 -6.0935 -1.9990 0.9686
-2.9569 -7.1349 -1.9997 0.9686
-2.3080 -7.3715 -2.0000 0.9686
-0.9597 -7.6667 -2.0005 0.9686
-0.2711 -7.7229 -2.0008 0.9686
0.4200 -7.7174 -2.0011 0.9686
1.1078 -7.6502 -2.0014 0.9686
4.3106 -6.4233 -2.0029 0.9685
5.3862 -5.5552 -2.0034 0.9685
5.8616 -5.0525 -2.0037 0.9685
6.2902 -4.5092 -2.0039 0.9685
6.6686 -3.9297 -2.0041 0.9685
6.9936 -3.3186 -2.0043 0.9685
7.4736 -2.0215 -2.0046 0.9685
7.2415 2.7420 -2.0049 0.9685
6.2544 4.5632 -2.0046 0.9685
5.8203 5.1024 -2.0041 0.9685
4.9355 5.1764 -1.8519 0.9709
4.4530 5.5961 -1.8517 0.9709
2.8090 6.5742 -1.8510 0.9709
0.3285 7.1377 -1.8500 0.9709
-0.3103 7.1374 -1.8497 0.9709
-1.5750 6.9662 -1.8492 0.9709
-2.1906 6.7966 -1.8489 0.9709
-3.9125 5.9700 -1.8481 0.9709
-4.9111 5.1771 -1.8476 0.9709
-5.7526 4.2196 -1.8472 0.9710
-6.4939 3.9229 -1.9644 0.9691
-7.2120 2.7519 -1.9986 0.9686
-7.5856 1.4245 -1.9984 0.9686
-7.6822 0.7411 -1.9983 0.9686
-7.7174 0.0519 -1.9982 0.9686
-7.6910 -0.6377 -1.9982 0.9686
-7.6032 -1.3221 -1.9982 0.9686
-7.2468 -2.6540 -1.9982 0.9686
-6.9810 -3.2909 -1.9983 0.9686
-6.6594 -3.9015 -1.9984 0.9686
-5.3878 -5.5287 -1.9988 0.9686
-4.8728 -5.9884 -1.9990 0.9686
-4.3189 -6.4004 -1.9992 0.9686
-3.7303 -6.7614 -1.9994 0.9686
-3.1118 -7.0685 -1.9997 0.9686
-0.4395 -7.7149 -2.0008 0.9686
0.9406 -7.6722 -2.0013 0.9686
1.6224 -7.5587 -2.0017 0.9686
2.2915 -7.3846 -2.0020 0.9686
2.9424 -7.1515 -2.0023 0.9686
4.7353 -6.1180 -2.0031 0.9685
5.2635 -5.6713 -2.0034 0.9685
5.7498 -5.1791 -2.0036 0.9685
6.5811 -4.0742 -2.0041 0.9685
7.2023 -2.8386 -2.0044 0.9685
7.5935 -1.5119 -2.0047 0.9685
7.5014 1.9210 -2.0049 0.9685
7.0395 3.2250 -2.0048 0.9685
5.9314 4.9752 -2.0045 0.9685
5.2889 5.3100 -1.9405 0.9695
-0.7918 7.0993 -1.8495 0.9709
-2.0418 6.8431 -1.8490 0.9709
-4.3065 5.6913 -1.8479 0.9709
-5.2492 4.8330 -1.8474 0.9709
-5.6593 4.3442 -1.8472 0.9710
-6.2193 3.9447 -1.9069 0.9700
-6.8579 3.5337 -1.9975 0.9686
-7.1504 2.9087 -1.9987 0.9686
-7.6642 0.9086 -1.9983 0.9686
-7.7145 0.2203 -1.9982 0.9686
-7.4966 -1.8329 -1.9982 0.9686
-7.0511 -3.1377 -1.9983 0.9686
-5.9678 -4.8957 -1.9986 0.9686
-5.0023 -5.8805 -1.9989 0.9686
-4.4574 -6.3045 -1.9991 0.9686
-3.2652 -6.9987 -1.9996 0.9686
-2.6273 -7.2633 -1.9998 0.9686
-1.9682 -7.4699 -2.0001 0.9686
-1.2932 -7.6170 -2.0004 0.9686
0.7729 -7.6906 -2.0013 0.9686
1.4570 -7.5920 -2.0016 0.9686
2.1297 -7.4326 -2.0019 0.9686
3.4193 -6.9371 -2.0025 0.9685
4.0259 -6.6049 -2.0028 0.9685
5.6352 -5.3032 -2.0036 0.9685
7.6683 1.0762 -2.0049 0.9685
7.3543 2.4235 -2.0049 0.9685
7.1082 3.0707 -2.0048 0.9685
6.0387 4.8446 -2.0045 0.9685
5.5643 5.3479 -1.9982 0.9686
4.6932 5.3967 -1.8518 0.9709
0.6397 7.1170 -1.8502 0.9709
0.0010 5.1690 -1.3383 0.9789
-0.6367 7.1152 -1.8496 0.9709
-1.2696 7.0288 -1.8493 0.9709
-3.0863 6.4377 -1.8485 0.9709
-3.6486 6.1354 -1.8482 0.9709
-4.1815 5.7842 -1.8480 0.9709
-5.1426 4.9465 -1.8475 0.9709
-5.9609 3.9659 -1.8538 0.9709
-6.7712 3.6782 -1.9951 0.9687
-7.0853 3.0641 -1.9987 0.9686
-7.3302 2.4187 -1.9986 0.9686
-7.5164 1.7542 -1.9984 0.9686
-7.6537 -0.9891 -1.9982 0.9686
-7.5347 -1.6688 -1.9982 0.9686
-7.3556 -2.3353 -1.9982 0.9686
-7.1178 -2.9831 -1.9982 0.9686
-6.4740 -4.2024 -1.9984 0.9686
-6.0731 -4.7643 -1.9986 0.9686
-5.6237 -5.2881 -1.9987 0.9686
-4.5938 -6.2056 -1.9991 0.9686
-4.0215 -6.5918 -1.9993 0.9686
-2.7850 -7.2040 -1.9998 0.9686
-1.4591 -7.5867 -2.0003 0.9686
-0.7757 -7.6878 -2.0006 0.9686
0.6049 -7.7054 -2.0012 0.9686
1.9669 -7.4770 -2.0018 0.9686
3.2670 -7.0098 -2.0024 0.9686
3.8807 -6.6909 -2.0027 0.9685
4.4635 -6.3184 -2.0030 0.9685
5.5180 -5.4247 -2.0035 0.9685
7.0713 -3.1500 -2.0043 0.9685
7.3250 -2.5060 -2.0045 0.9685
7.5201 -1.8418 -2.0046 0.9685
7.6550 -1.1627 -2.0047 0.9685
7.7286 -0.4743 -2.0048 0.9685
7.4055 2.2624 -2.0049 0.9685
7.1736 2.9148 -2.0048 0.9685
6.5398 4.1444 -2.0047 0.9685
6.1431 4.7118 -2.0045 0.9685
4.3174 5.7011 -1.8516 0.9709
2.6504 6.6395 -1.8510 0.9709
2.0465 6.8488 -1.8507 0.9709
1.4263 7.0032 -1.8505 0.9709
0.7949 7.1016 -1.8502 0.9709
-1.1159 7.0551 -1.8494 0.9709
-1.7414 6.9261 -1.8491 0.9709
-6.6816 3.8207 -1.9928 0.9687
-7.0169 3.2180 -1.9988 0.9686
-7.2758 2.5781 -1.9986 0.9686
-7.6175 1.2422 -1.9983 0.9686
-7.6735 -0.8219 -1.9982 0.9686
-7.4048 -2.1742 -1.9982 0.9686
-6.9002 -3.4573 -1.9983 0.9686
-6.5641 -4.0601 -1.9984 0.9686
-6.1755 -4.6305 -1.9985 0.9686
-5.7376 -5.1640 -1.9987 0.9686
-5.2538 -5.6564 -1.9988 0.9686
-3.5672 -6.8491 -1.9995 0.9686
-2.9415 -7.1413 -1.9997 0.9686
-2.2921 -7.3765 -2.0000 0.9686
-1.6243 -7.5528 -2.0003 0.9686
-0.2544 -7.7235 -2.0008 0.9686
0.4366 -7.7165 -2.0011 0.9686
1.8033 -7.5179 -2.0017 0.9686
2.4680 -7.3279 -2.0020 0.9686
4.8807 -6.0029 -2.0032 0.9685
6.2999 -4.4957 -2.0039 0.9685
6.6770 -3.9154 -2.0041 0.9685
7.0007 -3.3035 -2.0043 0.9685
7.2684 -2.6652 -2.0045 0.9685
7.6277 -1.3295 -2.0047 0.9685
7.7163 -0.6428 -2.0048 0.9685
7.7431 0.0491 -2.0049 0.9685
7.7079 0.7406 -2.0049 0.9685
7.2355 2.7576 -2.0049 0.9685
6.2446 4.5767 -2.0046 0.9685
4.4409 5.6057 -1.8517 0.9709
3.9220 5.9793 -1.8515 0.9709
2.7948 6.5802 -1.8510 0.9709
2.1955 6.8027 -1.8508 0.9709
1.5789 6.9707 -1.8505 0.9709
0.3132 7.1383 -1.8500 0.9709
-0.3257 7.1367 -1.8497 0.9709
-0.9617 7.0780 -1.8495 0.9709
-2.2052 6.7919 -1.8489 0.9709
-2.8027 6.5667 -1.8486 0.9709
-3.3776 6.2892 -1.8484 0.9709
-4.4416 5.5863 -1.8478 0.9709
-4.9222 5.1665 -1.8476 0.9709
-5.7616 4.2072 -1.8472 0.9710
-6.9452 3.3705 -1.9988 0.9686
-7.2179 2.7364 -1.9986 0.9686
-7.4329 2.0805 -1.9985 0.9686
-7.6837 0.7246 -1.9983 0.9686
-7.7175 0.0353 -1.9982 0.9686
-7.6896 -0.6542 -1.9982 0.9686
-7.4505 -2.0121 -1.9982 0.9686
-6.9739 -3.3059 -1.9983 0.9686
-6.6510 -3.9158 -1.9984 0.9686
-6.2750 -4.4946 -1.9985 0.9686
-5.3759 -5.5403 -1.9988 0.9686
-4.8600 -5.9989 -1.9990 0.9686
-4.3051 -6.4098 -1.9992 0.9686
-3.7158 -6.7694 -1.9994 0.9686
-3.0966 -7.0752 -1.9997 0.9686
-1.1103 -7.6461 -2.0005 0.9686
-0.4229 -7.7158 -2.0008 0.9686
3.5848 -6.8534 -2.0026 0.9685
4.1832 -6.5067 -2.0028 0.9685
5.2757 -5.6600 -2.0034 0.9685
5.7609 -5.1667 -2.0036 0.9685
6.2002 -4.6320 -2.0038 0.9685
6.5898 -4.0600 -2.0041 0.9685
7.7423 -0.1199 -2.0049 0.9685
7.7222 0.5722 -2.0049 0.9685
7.6403 1.2597 -2.0049 0.9685
7.4972 1.9372 -2.0049 0.9685
7.2940 2.5991 -2.0049 0.9685
7.0325 3.2402 -2.0048 0.9685
5.2511 5.2948 -1.9308 0.9697
4.5623 5.5075 -1.8517 0.9709
3.5087 6.2301 -1.8513 0.9709
2.9378 6.5179 -1.8511 0.9709
1.7306 6.9348 -1.8506 0.9709
1.1041 7.0607 -1.8503 0.9709
0.4689 7.1300 -1.8501 0.9709
-0.1224 5.1476 -1.3332 0.9789
-0.8071 7.0976 -1.8495 0.9709
-4.3188 5.6821 -1.8479 0.9709
-4.8084 5.2729 -1.8477 0.9709
-5.2596 4.8217 -1.8474 0.9709
-5.6686 4.3320 -1.8472 0.9710
-7.6662 0.8921 -1.9983 0.9686
-7.7149 0.2037 -1.9982 0.9686
-7.7021 -0.4862 -1.9982 0.9686
-7.4926 -1.8490 -1.9982 0.9686
-7.2976 -2.5110 -1.9982 0.9686
-6.7348 -3.7697 -1.9983 0.9686
-5.9573 -4.9086 -1.9986 0.9686
-4.9896 -5.8913 -1.9989 0.9686
-4.4438 -6.3141 -1.9991 0.9686
-3.8625 -6.6866 -1.9994 0.9686
-3.2501 -7.0057 -1.9996 0.9686
0.0994 -7.7276 -2.0010 0.9686
4.6139 -6.2098 -2.0030 0.9685
5.1508 -5.7736 -2.0033 0.9685
6.8496 -3.6057 -2.0042 0.9685
7.5622 -1.6610 -2.0047 0.9685
7.5377 1.7731 -2.0049 0.9685
7.3491 2.4393 -2.0049 0.9685
6.7973 3.7078 -2.0047 0.9685
6.4385 4.3000 -2.0046 0.9685
5.5521 5.3591 -1.9980 0.9686
4.6815 5.4068 -1.8518 0.9709
3.6439 6.1523 -1.8514 0.9709
2.4904 6.7009 -1.8509 0.9709
1.8816 6.8956 -1.8507 0.9709
-0.6520 7.1138 -1.8496 0.9709
-1.2847 7.0260 -1.8493 0.9709
-2.5137 6.6833 -1.8488 0.9709
-4.1939 5.7751 -1.8480 0.9709
-5.9849 3.9632 -1.8586 0.9708
-6.7799 3.6640 -1.9954 0.9687
-7.3353 2.4029 -1.9986 0.9686
-7.5202 1.7380 -1.9984 0.9686
-7.6450 1.0592 -1.9983 0.9686
-7.7087 0.3721 -1.9982 0.9686
-7.7109 -0.3180 -1.9982 0.9686
-7.6516 -1.0056 -1.9982 0.9686
-7.0587 -0.1066 -1.9985 0.9711
-7.0208 -0.7367 -1.9985 0.9711
-6.9269 -1.3609 -1.9984 0.9711
-6.7777 -1.9742 -1.9985 0.9711
-6.5744 -2.5718 -1.9985 0.9711
-6.3186 -3.1489 -1.9986 0.9711
-4.3367 -5.5737 -1.9992 0.9711
-3.8219 -5.9394 -1.9994 0.9711
-3.2764 -6.2577 -1.9996 0.9711
-2.7046 -6.5261 -1.9999 0.9711
-0.8778 -7.0123 -2.0006 0.9710
0.3841 -7.0585 -2.0012 0.9710
1.6344 -6.8794 -2.0017 0.9710
2.8333 -6.4805 -2.0023 0.9710
4.4518 -5.4995 -2.0030 0.9710
6.0984 -3.5937 -2.0039 0.9710
6.3956 -3.0348 -2.0041 0.9710
6.6417 -2.4516 -2.0042 0.9710
6.8345 -1.8486 -2.0043 0.9710
7.0551 -0.6030 -2.0045 0.9710
7.0809 0.0296 -2.0046 0.9710
6.9628 1.2892 -2.0046 0.9710
6.6221 2.5075 -2.0046 0.9710
6.3715 3.0890 -2.0045 0.9710
6.0698 3.6456 -2.0044 0.9710
4.8665 5.1040 -1.9964 0.9711
3.0960 5.7595 -1.8511 0.9732
2.5689 6.0123 -1.8509 0.9732
2.0213 6.2170 -1.8507 0.9732
-0.2838 6.5278 -1.8497 0.9732
-0.8657 6.4754 -1.8495 0.9732
-1.4405 6.3713 -1.8492 0.9732
-2.5505 6.0117 -1.8487 0.9732
-3.0769 5.7590 -1.8484 0.9732
-3.5786 5.4605 -1.8482 0.9732
-4.0516 5.1183 -1.8480 0.9732
-4.4921 4.7354 -1.8478 0.9732
-5.4232 3.9780 -1.9040 0.9724
-6.3462 3.0967 -1.9990 0.9711
-6.7950 1.9177 -1.9988 0.9711
-6.9387 1.3030 -1.9986 0.9711
-7.0271 0.6779 -1.9986 0.9711
-7.0593 0.0475 -1.9985 0.9711
-6.8192 -1.8258 -1.9985 0.9711
-6.6289 -2.4277 -1.9985 0.9711
-6.0916 -3.5688 -1.9986 0.9711
-4.4572 -5.4776 -1.9992 0.9711
-3.9504 -5.8545 -1.9994 0.9711
-3.4120 -6.1846 -1.9996 0.9711
-2.2576 -6.6946 -2.0000 0.9711
-1.6508 -6.8703 -2.0003 0.9711
-1.0306 -6.9912 -2.0006 0.9710
-0.4020 -7.0563 -2.0008 0.9710
0.2300 -7.0649 -2.0011 0.9710
0.8603 -7.0171 -2.0014 0.9710
2.6911 -6.5406 -2.0022 0.9710
3.2650 -6.2749 -2.0025 0.9710
4.3306 -5.5952 -2.0030 0.9710
4.8137 -5.1866 -2.0032 0.9710
6.0184 -3.7259 -2.0038 0.9710
6.3277 -3.1736 -2.0040 0.9710
6.5865 -2.5959 -2.0042 0.9710
6.7925 -1.9973 -2.0043 0.9710
7.0402 -0.7568 -2.0045 0.9710
7.0799 -0.1249 -2.0046 0.9710
7.0629 0.5080 -2.0046 0.9710
6.9893 1.1369 -2.0046 0.9710
6.6753 2.3624 -2.0046 0.9710
2.6995 5.9550 -1.8510 0.9732
2.1565 6.1716 -1.8507 0.9732
0.4429 6.5200 -1.8500 0.9732
-1.8675 6.2588 -1.8490 0.9732
-2.9506 5.8250 -1.8485 0.9732
-3.4587 5.5374 -1.8483 0.9732
-4.3878 4.8324 -1.8478 0.9732
-6.2772 3.2345 -1.9991 0.9711
-6.7516 2.0656 -1.9988 0.9711
-7.0107 0.8311 -1.9986 0.9711
-7.0463 -0.4296 -1.9985 0.9711
-6.9797 -1.0573 -1.9984 0.9711
-6.4498 -2.8702 -1.9985 0.9711
-6.1679 -3.4350 -1.9986 0.9711
-5.4589 -4.4782 -1.9988 0.9711
-5.0374 -4.9483 -1.9990 0.9711
-4.5756 -5.3790 -1.9991 0.9711
-4.0772 -5.7667 -1.9993 0.9711
-3.5461 -6.1085 -1.9995 0.9711
-2.4031 -6.6435 -2.0000 0.9711
-1.8002 -6.8325 -2.0002 0.9711
1.9478 -6.7978 -2.0018 0.9710
2.5476 -6.5975 -2.0021 0.9710
4.6992 -5.2902 -2.0031 0.9710
5.1536 -4.8499 -2.0034 0.9710
5.5668 -4.3706 -2.0036 0.9710
5.9355 -3.8562 -2.0038 0.9710
6.5281 -2.7390 -2.0041 0.9710
7.0219 -0.9103 -2.0045 0.9710
7.0754 -0.2794 -2.0046 0.9710
7.0722 0.3538 -2.0046 0.9710
6.8965 1.6066 -2.0046 0.9710
6.5003 2.8081 -2.0045 0.9710
6.2232 3.3774 -2.0045 0.9710
5.5223 4.4303 -2.0042 0.9710
3.8335 5.2985 -1.8514 0.9732
3.3446 5.6192 -1.8512 0.9732
2.8289 5.8948 -1.8510 0.9732
0.5851 6.5090 -1.8501 0.9732
-2.2859 6.1177 -1.8488 0.9732
-2.8229 5.8882 -1.8486 0.9732
-4.7039 4.5245 -1.8477 0.9732
-5.0887 4.0858 -1.8475 0.9732
-6.2053 3.3708 -1.9991 0.9711
-6.7050 2.2125 -1.9988 0.9711
-7.0506 0.3555 -1.9985 0.9711
-7.0540 -0.2758 -1.9985 0.9711
-7.0011 -0.9048 -1.9984 0.9711
-6.7285 -2.1362 -1.9985 0.9711
-6.5109 -2.7287 -1.9985 0.9711
-5.9219 -3.8441 -1.9987 0.9711
-5.5552 -4.3580 -1.9988 0.9711
-5.1441 -4.8371 -1.9989 0.9711
-4.6918 -5.2777 -1.9991 0.9711
-4.2019 -5.6762 -1.9993 0.9711
-3.1255 -6.3347 -1.9997 0.9711
-2.5474 -6.5893 -1.9999 0.9711
-0.0785 -7.0678 -2.0010 0.9710
0.5532 -7.0475 -2.0012 0.9710
1.7990 -6.8385 -2.0018 0.9710
2.9879 -6.4109 -2.0023 0.9710
4.5825 -5.3914 -2.0031 0.9710
5.0464 -4.9610 -2.0033 0.9710
6.1830 -3.4466 -2.0039 0.9710
6.4667 -2.8807 -2.0041 0.9710
7.0003 -1.0633 -2.0045 0.9710
7.0782 0.1994 -2.0046 0.9710
6.7721 2.0689 -2.0046 0.9710
5.9806 3.7900 -2.0044 0.9710
5.6178 4.3089 -2.0043 0.9710
5.2091 4.7923 -2.0038 0.9710
4.5160 4.9697 -1.9010 0.9725
3.9483 5.2137 -1.8514 0.9732
2.9570 5.8319 -1.8511 0.9732
1.8716 6.2635 -1.8506 0.9732
1.3044 6.4048 -1.8504 0.9732
0.1135 5.1525 -1.4590 0.9788
-1.0206 6.4526 -1.8494 0.9732
-2.1519 6.1663 -1.8489 0.9732
-2.6938 5.9486 -1.8486 0.9732
-3.7084 5.3729 -1.8481 0.9732
-4.1730 5.0196 -1.8479 0.9732
-6.1292 3.5048 -1.9988 0.9711
-6.6553 2.3583 -1.9988 0.9711
-6.8389 1.7542 -1.9987 0.9711
-7.0413 0.5093 -1.9985 0.9711
-6.9240 -1.3758 -1.9984 0.9711
-6.0043 -3.7139 -1.9987 0.9711
-4.3247 -5.5831 -1.9992 0.9711
-3.8091 -5.9476 -1.9994 0.9711
-3.2629 -6.2648 -1.9996 0.9711
-2.0965 -6.7470 -2.0001 0.9711
-0.8627 -7.0142 -2.0006 0.9710
0.3993 -7.0576 -2.0012 0.9710
1.0283 -6.9947 -2.0014 0.9710
1.6492 -6.8758 -2.0017 0.9710
2.8472 -6.4744 -2.0023 0.9710
3.9549 -5.8660 -2.0028 0.9710
4.4636 -5.4899 -2.0030 0.9710
4.9368 -5.0698 -2.0033 0.9710
5.7614 -4.1113 -2.0037 0.9710
6.4021 -3.0211 -2.0041 0.9710
7.0564 -0.5878 -2.0045 0.9710
7.0809 0.0449 -2.0046 0.9710
7.0487 0.6772 -2.0046 0.9710
6.8157 1.9207 -2.0046 0.9710
6.6167 2.5218 -2.0046 0.9710
6.3648 3.1027 -2.0045 0.9710
4.0613 5.1264 -1.8515 0.9732
3.5867 5.4682 -1.8513 0.9732
2.5559 6.0178 -1.8509 0.9732
2.0079 6.2213 -1.8507 0.9732
-0.2978 6.5271 -1.8497 0.9732
-2.0169 6.2120 -1.8489 0.9732
-2.5634 6.0062 -1.8487 0.9732
-3.5903 5.4527 -1.8482 0.9732
-4.0626 5.1096 -1.8480 0.9732
-4.5022 4.7257 -1.8478 0.9732
-5.4453 3.9762 -1.9087 0.9724
-6.0450 3.6339 -1.9967 0.9711
-6.3528 3.0830 -1.9990 0.9711
-6.9415 1.2881 -1.9986 0.9711
-7.0594 0.0323 -1.9985 0.9711
-7.0340 -0.5984 -1.9985 0.9711
-6.6237 -2.4420 -1.9985 0.9711
-6.0839 -3.5819 -1.9986 0.9711
-4.9174 -5.0678 -1.9990 0.9711
-2.8324 -6.4715 -1.9998 0.9711
-2.2432 -6.6994 -2.0001 0.9711
-0.3868 -7.0571 -2.0008 0.9710
0.2452 -7.0644 -2.0011 0.9710
3.8258 -5.9507 -2.0027 0.9710
5.2685 -4.7251 -2.0034 0.9710
5.6701 -4.2360 -2.0036 0.9710
6.0264 -3.7129 -2.0038 0.9710
6.3346 -3.1600 -2.0040 0.9710
5.8006 4.0598 -2.0043 0.9710
5.4144 4.5614 -2.0042 0.9710
4.9714 5.0128 -1.9986 0.9711
4.1723 5.0367 -1.8515 0.9732
3.2088 5.6976 -1.8512 0.9732
2.6867 5.9608 -1.8509 0.9732
2.1432 6.1762 -1.8507 0.9732
1.5828 6.3422 -1.8505 0.9732
1.0098 6.4574 -1.8503 0.9732
0.4288 6.5209 -1.8500 0.9732
-0.1221 5.1346 -1.4540 0.9789
-1.3149 6.3986 -1.8493 0.9732
-1.8810 6.2547 -1.8490 0.9732
-2.9631 5.8186 -1.8485 0.9732
-5.2262 3.9939 -1.8621 0.9730
-5.9581 3.7611 -1.9947 0.9711
-6.9118 1.4393 -1.9987 0.9711
-7.0571 0.1864 -1.9985 0.9711
-7.0454 -0.4448 -1.9985 0.9711
-6.6753 -2.2969 -1.9985 0.9711
-6.4437 -2.8841 -1.9985 0.9711
-6.1605 -3.4483 -1.9986 0.9711
-5.8282 -3.9850 -1.9987 0.9711
-5.4492 -4.4900 -1.9988 0.9711
-4.0648 -5.7755 -1.9993 0.9711
-2.3888 -6.6487 -2.0000 0.9711
-1.7855 -6.8363 -2.0002 0.9711
-0.5407 -7.0468 -2.0008 0.9710
0.0910 -7.0679 -2.0010 0.9710
0.7221 -7.0325 -2.0013 0.9710
1.3476 -6.9408 -2.0016 0.9710
1.9625 -6.7936 -2.0019 0.9710
2.5618 -6.5921 -2.0021 0.9710
4.2196 -5.6791 -2.0029 0.9710
5.1640 -4.8388 -2.0034 0.9710
6.2640 -3.2974 -2.0040 0.9710
6.7518 -2.1305 -2.0043 0.9710
7.0239 -0.8952 -2.0045 0.9710
7.0715 0.3690 -2.0046 0.9710
6.4942 2.8220 -2.0045 0.9710
5.8879 3.9322 -2.0044 0.9710
4.2813 4.9445 -1.8516 0.9732
3.8221 5.3067 -1.8514 0.9732
1.7208 6.3064 -1.8506 0.9732
1.1505 6.4340 -1.8503 0.9732
0.5711 6.5102 -1.8501 0.9732
-0.5964 6.5062 -1.8496 0.9732
-1.1750 6.4260 -1.8493 0.9732
-2.8355 5.8821 -1.8486 0.9732
-3.3492 5.6045 -1.8483 0.9732
-5.0975 4.0748 -1.8474 0.9732
-6.2125 3.3574 -1.9991 0.9711
-7.0514 0.3403 -1.9985 0.9711
-6.4805 0.4827 -1.9988 0.9732
-6.4627 -0.6781 -1.9987 0.9732
-6.3763 -1.2527 -1.9987 0.9732
-4.8403 -4.3376 -1.9991 0.9732
-3.9918 -5.1305 -1.9994 0.9732
-3.5179 -5.4671 -1.9996 0.9732
-3.0158 -5.7600 -1.9998 0.9732
-1.9431 -6.2060 -2.0002 0.9732
-1.3811 -6.3555 -2.0005 0.9731
-0.8079 -6.4543 -2.0007 0.9731
-0.2282 -6.5014 -2.0009 0.9731
0.3535 -6.4967 -2.0012 0.9731
0.9326 -6.4399 -2.0014 0.9731
3.1304 -5.7084 -2.0024 0.9731
3.6282 -5.4065 -2.0027 0.9731
5.2941 -3.7951 -2.0035 0.9731
5.6124 -3.3073 -2.0037 0.9731
5.8859 -2.7930 -2.0039 0.9731
6.1123 -2.2562 -2.0040 0.9731
6.4927 -0.5549 -2.0043 0.9731
6.5165 0.0273 -2.0043 0.9731
6.0942 2.3076 -2.0043 0.9731
5.5859 3.3550 -2.0042 0.9731
4.4870 4.7060 -2.0000 0.9732
3.7502 4.7129 -1.8525 0.9751
3.3118 5.0253 -1.8511 0.9751
2.3642 5.5333 -1.8508 0.9751
1.8603 5.7218 -1.8506 0.9751
0.2765 6.0081 -1.8499 0.9751
-0.2612 6.0080 -1.8497 0.9751
-0.7968 5.9599 -1.8494 0.9752
-1.3258 5.8641 -1.8492 0.9752
-2.8321 5.3008 -1.8485 0.9752
-3.7293 4.7111 -1.8481 0.9752
-5.8416 2.8505 -1.9992 0.9732
-6.0724 2.3171 -1.9991 0.9732
-6.4760 -0.5369 -1.9987 0.9732
-6.4021 -1.1133 -1.9987 0.9732
-6.2771 -1.6807 -1.9987 0.9732
-5.8781 -2.7710 -1.9988 0.9732
-5.6073 -3.2851 -1.9989 0.9732
-4.9338 -4.2309 -1.9991 0.9732
-4.5364 -4.6550 -1.9992 0.9732
-4.1028 -5.0421 -1.9994 0.9732
-3.6363 -5.3889 -1.9996 0.9732
-3.1407 -5.6927 -1.9997 0.9732
-2.6198 -5.9511 -1.9999 0.9732
-2.0780 -6.1620 -2.0002 0.9732
-0.3700 -6.4947 -2.0009 0.9731
0.2117 -6.5026 -2.0011 0.9731
3.0050 -5.7751 -2.0024 0.9731
3.9856 -5.1495 -2.0029 0.9731
4.4302 -4.7734 -2.0031 0.9731
5.2099 -3.9096 -2.0035 0.9731
5.5388 -3.4289 -2.0037 0.9731
6.0615 -2.3890 -2.0040 0.9731
6.3906 -1.2724 -2.0042 0.9731
6.5155 -0.1149 -2.0043 0.9731
6.4321 1.0463 -2.0044 0.9731
6.3129 1.6167 -2.0044 0.9731
5.9242 2.7141 -2.0043 0.9731
5.6579 3.2323 -2.0042 0.9731
5.3463 3.7247 -2.0041 0.9731
4.5935 4.6119 -2.0021 0.9731
3.4207 4.9520 -1.8512 0.9751
2.9644 5.2373 -1.8510 0.9751
1.4692 5.8339 -1.8504 0.9751
0.9421 5.9411 -1.8502 0.9751
0.4076 6.0008 -1.8500 0.9751
-0.1109 5.1261 -1.5771 0.9788
-0.6665 5.9761 -1.8495 0.9751
-2.2263 5.5833 -1.8488 0.9752
-2.7158 5.3615 -1.8486 0.9752
-3.6257 4.7915 -1.8481 0.9752
-4.0387 4.4480 -1.8479 0.9752
-4.4195 4.0690 -1.8477 0.9752
-5.1386 3.9445 -1.9925 0.9733
-5.4895 3.4818 -1.9994 0.9732
-6.3595 1.3385 -1.9989 0.9732
-6.4248 -0.9733 -1.9987 0.9732
-5.9371 -2.6420 -1.9988 0.9732
-5.6776 -3.1619 -1.9988 0.9732
-5.3727 -3.6566 -1.9989 0.9732
-5.0248 -4.1222 -1.9991 0.9732
-4.6368 -4.5549 -1.9992 0.9732
-4.2117 -4.9512 -1.9993 0.9732
-3.2641 -5.6227 -1.9997 0.9732
-1.6570 -6.2889 -2.0003 0.9732
-1.0887 -6.4125 -2.0006 0.9731
0.0697 -6.5055 -2.0011 0.9731
2.3448 -6.0722 -2.0021 0.9731
3.3887 -5.5594 -2.0026 0.9731
4.7430 -4.4635 -2.0032 0.9731
5.1232 -4.0223 -2.0034 0.9731
5.4625 -3.5489 -2.0036 0.9731
6.0078 -2.5207 -2.0039 0.9731
6.3612 -1.4115 -2.0042 0.9731
6.4622 -0.8377 -2.0043 0.9731
6.3467 1.4785 -2.0044 0.9731
6.1892 2.0396 -2.0044 0.9731
5.7271 3.1081 -2.0042 0.9731
5.0822 4.0772 -2.0040 0.9731
4.6973 4.5146 -2.0039 0.9731
4.2165 4.8486 -1.9764 0.9735
3.5280 4.8763 -1.8512 0.9751
3.0781 5.1714 -1.8511 0.9751
2.6035 5.4252 -1.8509 0.9751
0.5385 5.9907 -1.8500 0.9751
0.0010 5.1443 -1.5823 0.9787
-0.5360 5.9894 -1.8496 0.9751
-1.5928 5.7969 -1.8491 0.9752
-2.5983 5.4196 -1.8486 0.9752
-3.5203 4.8696 -1.8482 0.9752
-4.3297 4.1646 -1.8478 0.9752
-4.9657 3.9870 -1.9587 0.9737
-5.7118 3.1027 -1.9993 0.9732
-6.1719 2.0366 -1.9990 0.9732
-6.4352 0.9057 -1.9988 0.9732
-6.4901 0.3272 -1.9988 0.9732
-6.3444 -1.4052 -1.9987 0.9732
-6.1936 -1.9663 -1.9987 0.9732
-5.9933 -2.5118 -1.9988 0.9732
-4.7350 -4.4525 -1.9992 0.9732
-4.3187 -4.8580 -1.9993 0.9732
-3.3859 -5.5500 -1.9996 0.9732
-2.8769 -5.8308 -1.9998 0.9732
-2.3448 -6.0651 -2.0001 0.9732
-0.6530 -6.4720 -2.0008 0.9731
-0.0723 -6.5053 -2.0010 0.9731
1.6557 -6.2940 -2.0018 0.9731
2.7500 -5.9004 -2.0023 0.9731
3.7569 -5.3182 -2.0027 0.9731
5.0341 -4.1331 -2.0034 0.9731
5.3837 -3.6672 -2.0036 0.9731
5.6902 -3.1719 -2.0037 0.9731
5.9513 -2.6511 -2.0039 0.9731
6.1647 -2.1090 -2.0040 0.9731
6.3288 -1.5500 -2.0041 0.9731
6.4423 -0.9785 -2.0042 0.9731
6.5042 -0.3991 -2.0043 0.9731
6.0371 2.4531 -2.0043 0.9731
5.7937 2.9824 -2.0043 0.9731
5.5038 3.4879 -2.0042 0.9731
4.7948 4.4111 -2.0039 0.9731
3.6337 4.7982 -1.8513 0.9751
3.1902 5.1032 -1.8511 0.9751
2.7214 5.3672 -1.8509 0.9751
2.2308 5.5883 -1.8507 0.9751
1.7225 5.7646 -1.8505 0.9751
1.2005 5.8947 -1.8503 0.9751
0.6691 5.9777 -1.8501 0.9751
0.1131 5.1334 -1.5793 0.9787
-0.9394 5.9389 -1.8494 0.9752
-1.9807 5.6755 -1.8489 0.9752
-3.8410 4.6202 -1.8480 0.9752
-4.2379 4.2582 -1.8478 0.9752
-4.7692 4.0035 -1.9152 0.9743
-5.3237 3.7120 -1.9962 0.9732
-6.4815 0.4688 -1.9988 0.9732
-6.4612 -0.6920 -1.9987 0.9732
-6.3735 -1.2664 -1.9987 0.9732
-5.8100 -2.9111 -1.9988 0.9732
-5.5270 -3.4186 -1.9989 0.9732
-5.1998 -3.8989 -1.9990 0.9732
-4.4236 -4.7625 -1.9993 0.9732
-3.5062 -5.4746 -1.9996 0.9732
-2.4765 -6.0124 -2.0000 0.9732
-1.9297 -6.2102 -2.0002 0.9732
-0.2142 -6.5019 -2.0009 0.9731
0.3675 -6.4959 -2.0012 0.9731
0.9464 -6.4379 -2.0014 0.9731
1.5179 -6.3284 -2.0017 0.9731
2.0774 -6.1683 -2.0020 0.9731
4.1080 -5.0526 -2.0029 0.9731
5.3023 -3.7837 -2.0035 0.9731
5.6195 -3.2952 -2.0037 0.9731
6.1171 -2.2430 -2.0040 0.9731
