ply
format ascii 1.0
element vertex 1582
property float32 x
property float32 y
property float32 z
property float32 I
end_header
6.2137 3.7165 -0.3672 0.9714
5.4032 3.9272 -0.3388 0.9736
4.8270 4.2163 -0.3250 0.9747
3.8511 4.8222 -0.3130 0.9756
3.2967 4.9834 -0.3030 0.9764
2.8191 5.2225 -0.3010 0.9765
1.3709 5.9468 -0.3095 0.9759
0.3088 6.4772 -0.3289 0.9744
-0.2918 6.9729 -0.3539 0.9724
-2.4207 2.1394 -0.1638 0.9871
-9.9707 -8.5302 -0.6655 0.9488
15.4413 -1.6707 -0.7877 0.9397
11.5835 0.8256 -0.5889 0.9546
10.0033 1.6207 -0.5139 0.9602
8.9901 2.2964 -0.4706 0.9635
6.9199 3.1654 -0.3859 0.9700
4.9553 4.1519 -0.3279 0.9744
3.9675 4.7638 -0.3144 0.9755
2.8892 5.0990 -0.2972 0.9768
2.4533 5.4056 -0.3011 0.9765
1.5186 6.0197 -0.3148 0.9754
-0.1469 6.9006 -0.3500 0.9727
-0.7862 7.0699 -0.3608 0.9719
-1.4973 7.3780 -0.3818 0.9703
-2.3453 2.1601 -0.1617 0.9873
2.3243 -0.9737 -0.1278 0.9900
17.9001 -2.3098 -0.9153 0.9303
11.7693 0.5961 -0.5976 0.9539
10.3297 1.4565 -0.5290 0.9591
7.9830 2.6367 -0.4264 0.9669
6.5374 3.5539 -0.3774 0.9706
5.0858 4.0865 -0.3309 0.9742
4.4552 4.2885 -0.3136 0.9755
4.0850 4.7049 -0.3160 0.9754
3.4969 4.8414 -0.3029 0.9764
2.5624 5.3510 -0.3009 0.9765
2.1473 5.7548 -0.3115 0.9757
1.6468 6.0049 -0.3158 0.9754
0.5649 6.3494 -0.3233 0.9748
-2.3127 2.2196 -0.1626 0.9872
6.6384 -18.7042 -1.4552 0.9235
11.0997 1.2512 -0.8190 0.9562
9.3852 1.9192 -0.7024 0.9623
6.7576 3.4336 -0.5558 0.9701
5.8763 3.6807 -0.5084 0.9726
5.2598 3.9906 -0.4841 0.9739
3.6037 4.7076 -0.4347 0.9765
3.1827 5.0328 -0.4366 0.9764
2.2813 5.6306 -0.4454 0.9759
1.8019 5.9195 -0.4537 0.9755
0.1771 6.5345 -0.4793 0.9741
-0.4395 7.0375 -0.5170 0.9721
-1.0970 7.1691 -0.5318 0.9713
-19.4838 -3.7762 -1.4552 0.9235
-17.4590 -6.7791 -1.3732 0.9276
-14.1456 -10.5050 -1.2919 0.9318
-9.8209 -8.7578 -0.9648 0.9486
-11.7658 -12.5516 -1.2614 0.9333
-10.5237 -13.4586 -1.2527 0.9338
-9.2452 -14.2926 -1.2481 0.9340
-7.9283 -15.0558 -1.2476 0.9340
-5.1690 -16.3752 -1.2591 0.9334
-3.7205 -16.9319 -1.2711 0.9328
-0.6667 -17.8340 -1.3085 0.9309
4.3783 -18.6127 -1.4020 0.9262
6.2068 -18.6983 -1.4446 0.9240
15.1121 -1.3216 -1.1123 0.9410
12.0009 0.0268 -0.8799 0.9530
7.5515 2.8432 -0.5916 0.9682
6.7339 3.2492 -0.5482 0.9705
6.2053 3.7115 -0.5302 0.9714
5.3962 3.9221 -0.4891 0.9736
3.8466 4.8165 -0.4520 0.9756
3.2928 4.9776 -0.4376 0.9763
2.8158 5.2165 -0.4347 0.9765
1.9030 5.8197 -0.4489 0.9757
0.8549 6.1965 -0.4586 0.9752
-0.2915 6.9638 -0.5110 0.9724
-17.6994 -6.4573 -1.3814 0.9272
-16.6382 -7.8185 -1.3479 0.9289
-14.4101 -10.2489 -1.2966 0.9315
-9.9513 -8.5136 -0.9602 0.9488
-9.5422 -14.1074 -1.2488 0.9340
-6.8861 -15.5965 -1.2501 0.9339
-4.0575 -16.8102 -1.2680 0.9330
-2.5702 -17.3133 -1.2834 0.9322
-1.0288 -17.7451 -1.3033 0.9312
2.2357 -18.3829 -1.3578 0.9284
5.7797 -18.6871 -1.4342 0.9245
15.4295 -1.6695 -1.1379 0.9397
11.5574 0.8237 -0.8496 0.9546
9.9836 1.6175 -0.7416 0.9602
8.9494 2.2860 -0.6773 0.9636
7.7566 2.7399 -0.6032 0.9675
6.9097 3.1607 -0.5571 0.9700
6.3646 3.6313 -0.5373 0.9710
5.5356 3.8520 -0.4945 0.9733
4.4836 4.4969 -0.4656 0.9749
3.9628 4.7582 -0.4540 0.9755
3.4036 4.9222 -0.4388 0.9763
2.4505 5.3994 -0.4348 0.9765
2.0311 5.8049 -0.4509 0.9756
1.5168 6.0126 -0.4547 0.9754
0.4374 6.4047 -0.4707 0.9746
-0.7863 7.0707 -0.5216 0.9719
-2.3444 2.1593 -0.2337 0.9873
-18.9524 -4.6342 -1.4306 0.9247
-16.8851 -7.5150 -1.3551 0.9286
-14.6729 -9.9883 -1.3015 0.9313
-11.0987 -13.0513 -1.2562 0.9336
-9.8371 -13.9184 -1.2497 0.9339
-8.5381 -14.7139 -1.2473 0.9340
-5.8184 -16.0965 -1.2550 0.9337
-2.9164 -17.2040 -1.2794 0.9324
-1.3878 -17.6524 -1.2983 0.9314
0.1985 -18.0275 -1.3219 0.9302
1.8475 -18.3258 -1.3505 0.9288
5.3569 -18.6708 -1.4242 0.9251
2.3203 -0.9721 -0.1845 0.9900
17.2953 -2.2317 -1.2786 0.9324
11.7685 0.5961 -0.8640 0.9538
9.0142 2.1062 -0.6787 0.9636
6.5283 3.5490 -0.5448 0.9706
5.6780 3.7804 -0.5002 0.9730
4.0802 4.6993 -0.4563 0.9753
3.4928 4.8358 -0.4374 0.9764
3.0341 5.1072 -0.4356 0.9765
2.5594 5.3448 -0.4345 0.9765
1.0945 6.0769 -0.4527 0.9755
0.5642 6.3415 -0.4668 0.9748
-0.6458 7.1403 -0.5257 0.9717
-19.1796 -4.2741 -1.4408 0.9242
-18.1744 -5.7964 -1.3987 0.9263
-17.1302 -7.2062 -1.3626 0.9282
-14.9339 -9.7231 -1.3066 0.9310
-12.6011 -11.8826 -1.2699 0.9329
-11.3833 -12.8417 -1.2583 0.9335
-10.1301 -13.7257 -1.2508 0.9339
-8.8398 -14.5375 -1.2475 0.9340
5.4743 -15.4243 -1.5713 0.9363
7.0259 -15.2989 -1.6162 0.9346
13.7365 -13.6548 -1.8595 0.9251
19.0961 -3.0064 -1.8559 0.9253
11.6937 0.2664 -1.1229 0.9541
9.3677 1.9156 -0.9180 0.9623
8.5036 2.5485 -0.8523 0.9650
7.3364 2.9357 -0.7586 0.9687
5.2531 3.9855 -0.6330 0.9739
4.6598 4.2421 -0.6050 0.9750
4.2360 4.6131 -0.6013 0.9751
2.7038 5.2650 -0.5682 0.9765
2.2787 5.6240 -0.5826 0.9759
1.7998 5.9126 -0.5934 0.9755
0.6569 3.1433 -0.3083 0.9872
-0.4358 6.9774 -0.6712 0.9723
-1.0955 7.1590 -0.6953 0.9713
-18.7369 4.9021 -1.8594 0.9251
-18.3677 3.0854 -1.7881 0.9279
-17.9057 1.3807 -1.7241 0.9304
-16.7469 -1.7137 -1.6162 0.9346
-13.7041 -6.7869 -1.4682 0.9404
-12.8226 -7.8493 -1.4434 0.9414
-11.0856 -8.2326 -1.3257 0.9460
-9.6816 -8.6335 -1.2454 0.9492
-6.2472 -11.8635 -1.2872 0.9475
-4.0673 -12.8850 -1.2972 0.9472
-1.7416 -13.6582 -1.3219 0.9462
-0.5214 -13.9477 -1.3400 0.9455
2.0407 -14.3184 -1.3885 0.9435
3.3855 -14.3917 -1.4194 0.9423
5.1250 -15.4394 -1.5618 0.9367
6.6652 -15.3366 -1.6054 0.9350
8.2554 -15.1318 -1.6549 0.9331
11.5882 -14.3780 -1.7729 0.9285
15.0920 -1.3199 -1.4544 0.9409
11.9704 0.0267 -1.1492 0.9530
11.1051 1.0212 -1.0706 0.9562
9.6579 1.7691 -0.9426 0.9613
7.5396 2.8388 -0.7734 0.9681
6.7241 3.2445 -0.7168 0.9704
6.1520 3.6796 -0.6882 0.9716
5.3892 3.9170 -0.6396 0.9736
4.8150 4.2058 -0.6138 0.9746
4.3563 4.5527 -0.6049 0.9750
3.8420 4.8108 -0.5911 0.9756
3.2890 4.9719 -0.5723 0.9763
2.8126 5.2105 -0.5685 0.9765
2.3386 5.4477 -0.5692 0.9765
1.3677 5.9327 -0.5845 0.9758
-0.9349 7.0792 -0.6855 0.9717
-18.4611 3.4925 -1.8038 0.9273
-16.2287 -2.8007 -1.5811 0.9360
-15.5044 -4.1305 -1.5404 0.9376
-13.9003 -6.5320 -1.4745 0.9401
-13.0288 -7.6121 -1.4487 0.9412
-8.5126 -10.4374 -1.2931 0.9473
-5.4244 -12.2859 -1.2894 0.9475
-4.3249 -12.7801 -1.2953 0.9472
-2.0163 -13.5824 -1.3183 0.9463
-0.8051 -13.8871 -1.3355 0.9456
0.4459 -14.1243 -1.3567 0.9448
3.0727 -14.3819 -1.4119 0.9426
4.7783 -15.4494 -1.5525 0.9371
7.8857 -15.1883 -1.6430 0.9335
11.1952 -14.4899 -1.7579 0.9291
12.9254 -13.9502 -1.8258 0.9264
14.7039 -13.2662 -1.9013 0.9235
2.3256 -0.9186 -0.2401 0.9900
15.1724 -4.4734 -1.5186 0.9384
15.4285 -1.6693 -1.4899 0.9395
13.1230 -0.2403 -1.2601 0.9486
11.3906 0.8119 -1.0963 0.9551
7.7442 2.7355 -0.7885 0.9675
6.3558 3.6263 -0.7025 0.9710
5.5283 3.8470 -0.6466 0.9733
4.4782 4.4915 -0.6089 0.9748
1.5150 6.0055 -0.5946 0.9754
0.9743 6.1289 -0.5958 0.9754
0.4368 6.3968 -0.6156 0.9746
-0.1455 6.8330 -0.6562 0.9729
-0.7864 7.0715 -0.6831 0.9718
-1.4929 7.3565 -0.7207 0.9703
-2.3440 2.1589 -0.3059 0.9873
-18.8717 5.7754 -1.8947 0.9238
-18.1287 2.1501 -1.7526 0.9293
-17.6214 0.5039 -1.6924 0.9316
-16.3870 -2.4824 -1.5912 0.9356
-15.6756 -3.8330 -1.5493 0.9372
-14.9098 -5.0950 -1.5127 0.9386
-13.2328 -7.3708 -1.4542 0.9409
-10.6050 -8.7019 -1.3170 0.9464
-5.6719 -12.1637 -1.2885 0.9475
-4.5805 -12.6721 -1.2936 0.9473
-3.4533 -13.1189 -1.3024 0.9469
-2.2890 -13.5031 -1.3149 0.9465
1.4375 -14.2589 -1.3759 0.9440
2.7624 -14.3678 -1.4046 0.9429
4.4341 -15.4546 -1.5436 0.9374
10.8048 -14.5949 -1.7434 0.9296
14.2913 -13.4369 -1.8832 0.9242
11.6887 0.5920 -1.1236 0.9541
7.0808 3.0647 -0.7407 0.9695
6.5191 3.5440 -0.7124 0.9706
5.6705 3.7754 -0.6540 0.9730
3.0306 5.1013 -0.5697 0.9764
2.5565 5.3387 -0.5683 0.9765
1.6430 5.9909 -0.5964 0.9753
0.5628 3.1249 -0.3048 0.9873
0.5635 6.3337 -0.6105 0.9748
-18.6328 4.3247 -1.8364 0.9260
-18.2334 2.5434 -1.7674 0.9287
-17.7450 0.8726 -1.7057 0.9311
-16.5420 -2.1593 -1.6016 0.9352
-15.8440 -3.5308 -1.5584 0.9369
-15.0902 -4.8127 -1.5206 0.9383
-14.2857 -6.0096 -1.4879 0.9396
-9.9019 -9.3374 -1.3066 0.9468
-8.9579 -10.1056 -1.2965 0.9472
-7.9791 -10.8112 -1.2900 0.9474
-5.9175 -12.0384 -1.2878 0.9475
4.6546 -13.1147 -1.6530 0.9455
5.9484 -12.9525 -1.6931 0.9442
8.6155 -12.3414 -1.7879 0.9412
9.9830 -11.8784 -1.8431 0.9394
11.3674 -11.2998 -1.9039 0.9375
12.7629 -10.5971 -1.9705 0.9354
15.5548 -8.7830 -2.1219 0.9306
15.7111 -7.1021 -2.0481 0.9329
19.0242 -2.9951 -2.2876 0.9254
9.1584 1.8728 -1.1104 0.9630
8.4281 2.5259 -1.0451 0.9652
7.3251 2.9312 -0.9372 0.9687
6.7382 3.4237 -0.8978 0.9700
4.6541 4.2369 -0.7476 0.9750
3.1753 5.0212 -0.7057 0.9764
2.7007 5.2589 -0.7022 0.9765
1.7977 5.9056 -0.7333 0.9754
0.7309 6.2421 -0.7465 0.9750
0.1766 6.5179 -0.7745 0.9741
-0.4384 7.0188 -0.8354 0.9721
-1.0939 7.1489 -0.8591 0.9713
-15.1873 10.6999 -2.2068 0.9279
-15.4629 8.9418 -2.1218 0.9306
-15.3012 2.5703 -1.8430 0.9394
-15.0059 1.1571 -1.7878 0.9412
-14.6290 -0.1830 -1.7379 0.9428
-14.1785 -1.4509 -1.6930 0.9442
-13.6615 -2.6478 -1.6530 0.9455
-11.0371 -6.7563 -1.5372 0.9492
-8.8008 -7.8481 -1.4007 0.9536
-7.1727 -9.1730 -1.3832 0.9542
-4.4796 -10.7378 -1.3820 0.9542
-2.5258 -11.4949 -1.3980 0.9537
-1.5026 -11.7841 -1.4111 0.9533
1.8590 -13.0437 -1.5651 0.9483
3.1039 -13.1949 -1.6101 0.9469
6.9638 -12.7643 -1.7272 0.9431
9.6672 -11.9946 -1.8299 0.9398
15.2360 -9.0207 -2.1033 0.9312
16.6741 -6.1932 -2.1129 0.9309
19.0345 -3.3988 -2.2968 0.9251
15.0910 -1.3198 -1.7994 0.9408
11.9634 0.0267 -1.4211 0.9530
9.3669 1.7158 -1.1312 0.9624
8.6067 2.3878 -1.0610 0.9647
7.5278 2.8343 -0.9555 0.9681
6.1883 3.7013 -0.8565 0.9714
5.3822 3.9119 -0.7904 0.9736
4.3511 4.5471 -0.7476 0.9750
3.2852 4.9661 -0.7073 0.9763
1.3660 5.9256 -0.7223 0.9758
0.8528 6.1814 -0.7412 0.9752
-15.1028 11.1115 -2.2272 0.9273
-15.4125 9.3403 -2.1407 0.9300
-15.5790 7.6290 -2.0605 0.9325
-15.5385 4.4083 -1.9186 0.9370
-15.3565 2.9052 -1.8565 0.9390
-14.7224 0.1184 -1.7489 0.9424
-13.7858 -2.3791 -1.6618 0.9452
-13.2217 -3.5223 -1.6253 0.9464
-12.6012 -4.5973 -1.5933 0.9474
-11.2088 -6.5488 -1.5420 0.9491
-10.4442 -7.4282 -1.5224 0.9497
-8.9834 -7.6855 -1.4043 0.9535
-8.1903 -8.3852 -1.3923 0.9539
-7.3666 -9.0323 -1.3845 0.9541
-4.6960 -10.6360 -1.3811 0.9542
-0.6939 -11.9692 -1.4242 0.9529
0.3891 -12.3270 -1.4650 0.9515
1.5692 -12.9025 -1.5439 0.9490
4.0701 -13.1595 -1.6362 0.9460
6.6594 -12.8264 -1.7167 0.9434
10.7297 -11.5804 -1.8753 0.9384
12.1210 -10.9359 -1.9392 0.9364
13.5194 -10.1623 -2.0090 0.9341
14.9165 -9.2506 -2.0849 0.9317
2.3257 -0.9186 -0.2970 0.9900
15.1838 -4.4767 -1.8804 0.9382
18.7771 -3.7525 -2.2746 0.9258
15.4274 -1.6692 -1.8433 0.9394
12.7165 -0.2329 -1.5108 0.9501
11.3446 0.8086 -1.3510 0.9552
9.6634 1.5656 -1.1628 0.9613
8.6939 2.2207 -1.0659 0.9645
6.8893 3.1514 -0.8999 0.9699
4.9366 4.1363 -0.7650 0.9744
4.4727 4.4860 -0.7525 0.9748
3.3956 4.9107 -0.7092 0.9762
2.0264 5.7914 -0.7288 0.9756
-0.1463 6.8737 -0.8167 0.9727
-15.0098 11.5259 -2.2480 0.9266
-15.3546 9.7421 -2.1600 0.9294
-15.5527 8.0164 -2.0784 0.9319
-15.6187 6.3555 -2.0030 0.9343
-15.5661 4.7638 -1.9337 0.9365
-15.1522 1.7971 -1.8125 0.9404
-14.8118 0.4236 -1.7601 0.9421
-13.9068 -2.1067 -1.6708 0.9449
-13.3564 -3.2659 -1.6333 0.9461
-12.0877 -5.3798 -1.5716 0.9481
-11.3783 -6.3378 -1.5471 0.9489
-10.6236 -7.2318 -1.5266 0.9495
-9.2397 -7.5815 -1.4197 0.9530
-7.5588 -8.8887 -1.3860 0.9541
-5.8259 -10.0401 -1.3789 0.9543
-3.9637 -10.9655 -1.3850 0.9541
-2.9855 -11.3418 -1.3931 0.9539
-1.9764 -11.6589 -1.4047 0.9535
-0.9367 -11.9148 -1.4197 0.9530
1.2869 -12.7650 -1.5240 0.9496
2.5365 -13.1929 -1.5958 0.9473
5.0539 -13.0739 -1.6650 0.9451
6.3564 -12.8834 -1.7065 0.9438
7.6856 -12.5975 -1.7529 0.9423
10.4120 -11.7112 -1.8614 0.9388
13.1980 -10.3519 -1.9925 0.9347
14.5962 -9.4727 -2.0670 0.9323
15.9318 -8.4200 -2.1405 0.9300
17.3354 -5.5006 -2.1604 0.9294
18.5156 -4.0976 -2.2526 0.9265
17.5972 -2.2707 -2.1076 0.9310
14.6316 -0.5689 -1.7393 0.9427
8.8874 2.0766 -1.0841 0.9639
7.0701 3.0601 -0.9151 0.9694
5.0665 4.0709 -0.7720 0.9742
3.4846 4.8245 -0.7069 0.9763
3.0271 5.0954 -0.7040 0.9764
1.6410 5.9838 -0.7370 0.9753
-0.6441 7.1209 -0.8493 0.9716
-1.3187 7.2604 -0.8765 0.9707
-2.3169 2.2237 -0.3815 0.9871
-15.6146 6.7309 -2.0198 0.9338
-15.2186 2.1229 -1.8253 0.9400
-14.8971 0.7325 -1.7717 0.9417
-12.8929 -4.1119 -1.6075 0.9469
-10.8008 -7.0321 -1.5309 0.9494
-8.5568 -8.0690 -1.3971 0.9537
-7.7492 -8.7421 -1.3877 0.9540
-5.1237 -10.4234 -1.3797 0.9543
5.1537 -11.2222 -1.7497 0.9513
7.4091 -10.6133 -1.8340 0.9491
8.5481 -10.1711 -1.8825 0.9477
9.6876 -9.6300 -1.9354 0.9463
10.8210 -8.9847 -1.9928 0.9448
13.0279 -7.3561 -2.1198 0.9413
13.0818 -5.9135 -2.0341 0.9437
14.0218 -4.8826 -2.1037 0.9418
14.8785 -0.9937 -2.1128 0.9415
11.6920 0.2664 -1.6571 0.9539
10.7131 1.2076 -1.5275 0.9574
9.1863 1.8785 -1.3285 0.9628
6.6359 3.3718 -1.0547 0.9704
1.7956 5.8987 -0.8736 0.9754
0.6457 3.0895 -0.4472 0.9873
-0.4378 7.0094 -0.9951 0.9720
-6.3700 18.5502 -2.7790 0.9238
-7.7459 17.3340 -2.6901 0.9262
-8.9577 16.0253 -2.6013 0.9285
-10.0050 14.6502 -2.5137 0.9308
-11.6209 11.7917 -2.3458 0.9353
-12.2030 10.3459 -2.2668 0.9374
-12.9588 7.4937 -2.1210 0.9413
-13.1516 6.1086 -2.0546 0.9431
-12.9048 0.9951 -1.8339 0.9491
-11.4040 -3.2904 -1.6817 0.9532
-10.8792 -4.2243 -1.6536 0.9539
-10.3039 -5.1030 -1.6292 0.9546
-9.0158 -6.6954 -1.5912 0.9556
-8.3090 -7.4095 -1.5774 0.9560
-6.7821 -8.6735 -1.5600 0.9565
-5.9313 -9.1695 -1.5473 0.9568
-2.3852 -10.8551 -1.5747 0.9561
-1.4174 -11.1157 -1.5877 0.9557
0.5970 -11.4470 -1.6241 0.9547
1.6408 -11.5126 -1.6477 0.9541
4.8978 -11.2699 -1.7411 0.9516
6.0173 -11.0294 -1.7802 0.9505
7.1482 -10.7015 -1.8234 0.9493
8.2863 -10.2812 -1.8710 0.9481
9.4262 -9.7633 -1.9229 0.9466
10.5616 -9.1424 -1.9793 0.9451
12.7868 -7.5706 -2.1055 0.9417
12.8592 -6.1341 -2.0187 0.9441
14.7070 -4.0096 -2.1599 0.9403
15.0900 -1.3197 -2.1462 0.9406
11.0838 1.0192 -1.5771 0.9560
9.5128 1.7425 -1.3703 0.9617
7.3365 2.7623 -1.1108 0.9688
6.1798 3.6962 -1.0203 0.9713
5.3752 3.9068 -0.9415 0.9735
3.8329 4.7994 -0.8703 0.9755
2.3332 5.4350 -0.8380 0.9764
0.8518 6.1738 -0.8831 0.9751
0.3072 6.4446 -0.9142 0.9743
-1.6410 7.3121 -1.0618 0.9702
-6.0312 18.8134 -2.7993 0.9233
-7.4443 17.6225 -2.7106 0.9256
-9.7789 14.9706 -2.5336 0.9303
-10.7014 13.5606 -2.4476 0.9326
-11.4667 12.1235 -2.3644 0.9348
-12.5559 9.2377 -2.2087 0.9390
-13.1356 2.4850 -1.8942 0.9474
-12.9572 1.2674 -1.8447 0.9488
-12.6997 0.1021 -1.7995 0.9500
-11.9737 -2.0664 -1.7216 0.9521
-11.0044 -4.0147 -1.6597 0.9538
-10.4403 -4.9061 -1.6345 0.9545
-9.1724 -6.5237 -1.5948 0.9555
-7.7382 -7.9223 -1.5691 0.9562
-6.1337 -9.0682 -1.5512 0.9567
-3.5105 -10.3735 -1.5517 0.9567
-1.6421 -11.0613 -1.5844 0.9558
-0.6536 -11.2740 -1.6001 0.9554
4.6428 -11.3133 -1.7327 0.9518
6.8877 -10.7848 -1.8131 0.9496
10.3016 -9.2944 -1.9659 0.9455
12.5361 -7.7744 -2.0901 0.9421
15.3506 -3.0677 -2.2180 0.9387
8.4923 2.1692 -1.2419 0.9652
7.5012 2.6497 -1.1272 0.9684
6.2923 3.5901 -1.0265 0.9712
5.5137 3.8369 -0.9518 0.9732
4.9304 4.1311 -0.9114 0.9743
3.3916 4.9049 -0.8449 0.9762
2.8758 5.0754 -0.8266 0.9767
2.4420 5.3806 -0.8372 0.9764
1.5154 6.0070 -0.8778 0.9753
0.5004 3.1476 -0.4516 0.9872
0.4357 6.3807 -0.9062 0.9745
-0.7866 7.0732 -1.0084 0.9717
-1.4736 7.2617 -1.0499 0.9705
-4.0998 13.7546 -2.0336 0.9437
-8.4216 16.6362 -2.6420 0.9274
-9.5443 15.2885 -2.5537 0.9298
-10.5037 13.8875 -2.4671 0.9321
-2.3432 2.1582 -0.4514 0.9872
-12.4591 9.5672 -2.2257 0.9385
-13.0774 6.7405 -2.0846 0.9423
-13.2353 4.0505 -1.9612 0.9456
-13.0055 1.5425 -1.8556 0.9485
-12.7655 0.3650 -1.8095 0.9497
-12.4516 -0.7590 -1.7675 0.9509
-12.0702 -1.8285 -1.7297 0.9519
-10.5742 -4.7062 -1.6399 0.9543
-7.9107 -7.7728 -1.5714 0.9562
-7.1455 -8.4026 -1.5628 0.9564
-6.3371 -8.9663 -1.5557 0.9566
-3.7134 -10.2731 -1.5478 0.9568
-0.8829 -11.2307 -1.5962 0.9555
0.1254 -11.3941 -1.6145 0.9550
1.1585 -11.4911 -1.6364 0.9544
2.2146 -11.5188 -1.6620 0.9537
3.2920 -11.4739 -1.6913 0.9529
4.3885 -11.3525 -1.7245 0.9520
5.5015 -11.1504 -1.7617 0.9510
7.7630 -10.4860 -1.8486 0.9487
10.0411 -9.4407 -1.9528 0.9458
2.3125 -0.9688 -0.3552 0.9899
14.3030 -4.5384 -2.1262 0.9412
15.1635 -3.3557 -2.2005 0.9392
15.9449 -2.0575 -2.2779 0.9371
11.8019 0.5978 -1.6743 0.9534
10.2344 1.4430 -1.4644 0.9591
6.4538 3.5085 -1.0408 0.9708
3.0236 5.0895 -0.8388 0.9764
0.5560 3.0872 -0.4445 0.9874
0.5621 6.3179 -0.8987 0.9747
-0.0050 6.7946 -0.9627 0.9729
-1.3098 7.2115 -1.0385 0.9708
-9.3010 15.6036 -2.5738 0.9292
-10.2976 14.2128 -2.4868 0.9315
-11.1343 12.7857 -2.4022 0.9338
-2.3195 2.2262 -0.4555 0.9871
-12.3552 9.8975 -2.2430 0.9380
-13.0312 7.0593 -2.0999 0.9419
-13.2382 4.3508 -1.9744 0.9453
-12.8273 0.6307 -1.8197 0.9494
-12.1635 -1.5878 -1.7381 0.9517
-11.7339 -2.6149 -1.7034 0.9526
-11.2464 -3.5868 -1.6726 0.9534
-10.1152 -5.3651 -1.6223 0.9548
-9.4791 -6.1716 -1.6027 0.9553
-8.0812 -7.6205 -1.5738 0.9561
-6.5319 -8.8503 -1.5585 0.9565
4.5429 -9.8922 -1.7933 0.9568
9.3840 -7.7916 -2.0093 0.9518
10.3121 -7.1077 -2.0632 0.9505
11.1961 -5.0611 -2.0241 0.9514
11.9417 -4.1583 -2.0831 0.9500
13.7684 -0.9195 -2.2732 0.9456
11.6911 0.2664 -1.9265 0.9537
10.6903 1.2050 -1.7723 0.9573
9.3153 1.9049 -1.5663 0.9622
8.1590 2.4452 -1.4032 0.9661
5.7030 3.5721 -1.1086 0.9731
4.2207 4.5964 -1.0280 0.9750
3.5868 4.6855 -0.9721 0.9764
3.1679 5.0094 -0.9764 0.9763
2.6944 5.2467 -0.9716 0.9764
0.6272 3.0014 -0.5051 0.9876
0.1741 6.4262 -1.0590 0.9743
-0.4137 6.6237 -1.0933 0.9735
-6.4191 14.3647 -2.5920 0.9382
-9.1783 11.1515 -2.3793 0.9431
-10.8230 7.6251 -2.1810 0.9477
-11.4765 4.1290 -2.0093 0.9518
-11.5036 3.0097 -1.9589 0.9529
-11.4464 1.9228 -1.9121 0.9540
-11.3109 0.8722 -1.8689 0.9551
-10.8286 -1.1081 -1.7932 0.9568
-10.4923 -2.0335 -1.7607 0.9576
-10.0990 -2.9139 -1.7316 0.9583
-9.6527 -3.7481 -1.7059 0.9589
-8.6168 -5.2747 -1.6644 0.9599
-8.0336 -5.9660 -1.6485 0.9602
-6.0561 -7.7451 -1.6197 0.9609
-3.7829 -9.0679 -1.6186 0.9610
-2.9682 -9.4031 -1.6244 0.9608
-1.2633 -9.9071 -1.6453 0.9603
0.5307 -10.1770 -1.6788 0.9595
3.3538 -10.1034 -1.7537 0.9578
6.2697 -9.3863 -1.8595 0.9553
7.2447 -8.9889 -1.9019 0.9543
10.1013 -7.2731 -2.0506 0.9508
11.0176 -5.2557 -2.0110 0.9517
11.7753 -4.3736 -2.0693 0.9504
12.4759 -3.4014 -2.1303 0.9489
13.6555 -1.1943 -2.2582 0.9459
9.6023 1.7589 -1.6082 0.9612
8.4236 2.3370 -1.4401 0.9652
7.3644 2.7728 -1.2964 0.9686
5.8265 3.4849 -1.1184 0.9729
5.2981 3.8507 -1.0790 0.9738
4.3405 4.5361 -1.0343 0.9749
3.8284 4.7937 -1.0106 0.9754
3.2775 4.9544 -0.9786 0.9762
2.3305 5.4287 -0.9732 0.9763
1.8941 5.7924 -1.0040 0.9756
0.7455 3.2338 -0.5467 0.9866
0.8507 6.1662 -1.0254 0.9751
0.3042 6.3803 -1.0523 0.9744
-0.8058 6.1017 -1.0139 0.9754
-1.6239 7.2360 -1.2217 0.9704
-6.1611 14.5848 -2.6083 0.9378
-9.0074 11.4139 -2.3953 0.9428
-2.4031 2.1237 -0.5283 0.9871
-10.7342 7.8975 -2.1954 0.9474
-11.4576 4.3901 -2.0213 0.9515
-11.4667 2.1693 -1.9225 0.9538
-11.3486 1.1101 -1.8785 0.9548
-11.1570 0.0897 -1.8381 0.9558
-10.8973 -0.8893 -1.8012 0.9566
-10.1941 -2.7158 -1.7379 0.9581
-9.7597 -3.5606 -1.7115 0.9588
-8.1711 -5.8115 -1.6518 0.9602
-6.9056 -7.0699 -1.6281 0.9607
-4.7471 -8.5823 -1.6157 0.9610
-2.3230 -9.6240 -1.6310 0.9607
-1.4639 -9.8608 -1.6423 0.9604
0.3207 -10.1584 -1.6743 0.9596
1.2423 -10.2149 -1.6952 0.9591
2.1807 -10.2066 -1.7194 0.9586
3.1333 -10.1306 -1.7469 0.9579
4.0972 -9.9841 -1.7779 0.9572
6.0454 -9.4660 -1.8503 0.9555
7.0212 -9.0876 -1.8919 0.9545
7.9914 -8.6250 -1.9370 0.9535
9.8891 -7.4335 -2.0381 0.9511
10.8014 -6.6986 -2.0938 0.9498
10.8367 -5.4454 -1.9979 0.9520
2.3259 -0.9187 -0.4120 0.9899
12.3207 -3.6326 -2.1161 0.9493
12.6486 -0.2317 -2.0841 0.9500
11.4534 0.8163 -1.8916 0.9545
6.6774 3.0545 -1.2097 0.9707
5.4174 3.7698 -1.0873 0.9736
3.9440 4.7356 -1.0153 0.9753
2.4391 5.3744 -0.9723 0.9764
2.0216 5.7778 -1.0084 0.9755
0.9707 6.1066 -1.0186 0.9752
0.4326 6.3341 -1.0459 0.9746
-0.1391 6.5334 -1.0765 0.9739
-0.6936 6.2375 -1.0339 0.9749
-1.4473 7.1318 -1.1988 0.9709
-4.0802 13.6890 -2.3532 0.9437
-7.0005 13.8288 -2.5534 0.9391
-7.9787 12.7806 -2.4821 0.9407
-9.5548 10.5272 -2.3420 0.9440
-11.0092 6.9851 -2.1479 0.9485
-11.2072 0.3205 -1.8470 0.9556
-9.8640 -3.3707 -1.7172 0.9586
-9.3908 -4.1796 -1.6933 0.9592
-8.8706 -4.9410 -1.6727 0.9597
-8.3065 -5.6545 -1.6554 0.9601
-7.7016 -6.3195 -1.6412 0.9604
-6.3794 -7.5017 -1.6223 0.9609
-4.9223 -8.4828 -1.6157 0.9610
-4.1481 -8.8959 -1.6170 0.9610
-3.3457 -9.2559 -1.6214 0.9609
-2.5169 -9.5616 -1.6288 0.9607
-0.7865 -10.0038 -1.6531 0.9601
0.1116 -10.1366 -1.6700 0.9597
1.0291 -10.2076 -1.6901 0.9593
10.5948 -6.8758 -2.0807 0.9501
10.6535 -5.6305 -1.9851 0.9523
12.1620 -3.8591 -2.1020 0.9496
13.4147 -1.7310 -2.2282 0.9466
8.9492 2.0911 -1.5140 0.9634
5.0214 4.0347 -1.0612 0.9742
4.0607 4.6769 -1.0204 0.9752
3.4764 4.8131 -0.9781 0.9762
2.1348 5.7214 -1.0060 0.9755
0.5357 2.9744 -0.4979 0.9878
0.5594 6.2878 -1.0399 0.9747
-0.6062 6.7024 -1.1087 0.9731
-1.2777 7.0345 -1.1778 0.9714
-6.7580 14.0594 -2.5698 0.9387
-7.7653 13.0272 -2.4984 0.9404
-9.3993 10.7934 -2.3578 0.9436
-10.9340 7.2567 -2.1619 0.9482
-11.2207 6.0785 -2.1023 0.9496
-11.4052 4.9164 -2.0460 0.9509
-11.4943 3.7776 -1.9932 0.9521
-11.2538 0.5534 -1.8562 0.9554
-11.0247 -0.4449 -1.8177 0.9563
-10.7304 -1.4007 -1.7827 0.9571
-10.3759 -2.3122 -1.7512 0.9578
-8.9941 -4.7704 -1.6772 0.9596
-5.8333 -7.9038 -1.6183 0.9610
-5.0960 -8.3806 -1.6158 0.9610
-4.3285 -8.8057 -1.6164 0.9610
4.0584 -8.8371 -1.8278 0.9612
5.7753 -8.2730 -1.8964 0.9598
6.6245 -7.8823 -1.9353 0.9590
7.4604 -7.4160 -1.9772 0.9581
9.8008 -5.5340 -2.1155 0.9552
10.9436 -2.7433 -2.1206 0.9551
11.4300 -1.7995 -2.1749 0.9540
10.6675 1.2024 -2.0178 0.9572
9.2977 1.9013 -1.7838 0.9621
8.2038 2.4586 -1.6098 0.9657
6.4414 3.2729 -1.3581 0.9710
5.0780 3.8527 -1.1981 0.9744
3.1002 4.9024 -1.0902 0.9767
2.6397 5.1401 -1.0861 0.9768
1.6978 5.5776 -1.0959 0.9765
0.6185 2.9593 -0.5683 0.9878
-0.4153 6.6489 -1.2522 0.9733
-0.9773 6.3864 -1.2144 0.9740
-3.1111 12.6414 -2.4470 0.9484
-7.2096 10.5569 -2.4029 0.9493
-8.5333 8.6587 -2.2850 0.9517
-9.0416 7.6656 -2.2280 0.9529
-9.9866 4.6385 -2.0697 0.9562
-9.6737 -0.9899 -1.8278 0.9612
-9.0550 -2.6127 -1.7714 0.9624
-8.6682 -3.3658 -1.7478 0.9629
-6.0913 -6.4982 -1.6741 0.9644
-5.4666 -6.9912 -1.6681 0.9645
-2.6785 -8.4854 -1.6725 0.9644
-1.9191 -8.7337 -1.6807 0.9643
-1.1386 -8.9289 -1.6919 0.9640
3.8609 -8.8840 -1.8207 0.9613
5.5790 -8.3523 -1.8879 0.9599
6.4305 -7.9786 -1.9261 0.9592
7.2699 -7.5299 -1.9673 0.9583
8.8879 -6.3994 -2.0586 0.9564
9.6488 -5.7127 -2.1076 0.9554
10.8219 -2.9504 -2.1083 0.9554
11.7516 -1.0277 -2.2173 0.9531
11.8479 0.0264 -2.2270 0.9529
9.5836 1.7555 -1.8313 0.9611
5.2157 3.7909 -1.2119 0.9741
4.3352 4.5305 -1.1786 0.9748
3.2055 4.8457 -1.0921 0.9766
2.2813 5.3141 -1.0870 0.9767
-0.2749 6.5670 -1.2354 0.9736
-0.7935 6.0089 -1.1392 0.9756
-3.9091 12.1939 -2.4069 0.9492
-4.8716 11.5323 -2.3531 0.9503
-7.7684 9.8440 -2.3570 0.9502
-9.3653 6.8903 -2.1854 0.9538
-9.9433 4.8692 -2.0810 0.9559
-10.1709 2.8855 -1.9872 0.9579
-10.1655 1.9231 -1.9446 0.9588
-10.0871 0.9867 -1.9050 0.9596
-9.7304 -0.7941 -1.8350 0.9610
-9.4612 -1.6328 -1.8046 0.9617
-9.1369 -2.4341 -1.7773 0.9622
-6.8139 -5.8294 -1.6855 0.9642
-5.6129 -6.8820 -1.6692 0.9645
-4.9641 -7.3391 -1.6654 0.9646
-4.2860 -7.7487 -1.6644 0.9646
-2.8498 -8.4211 -1.6710 0.9645
-2.0954 -8.6813 -1.6786 0.9643
-0.5242 -9.0422 -1.7024 0.9638
0.2885 -9.1396 -1.7187 0.9635
2.8068 -9.0751 -1.7855 0.9621
5.3823 -8.4277 -1.8796 0.9601
6.2358 -8.0710 -1.9171 0.9593
7.9046 -7.1318 -2.0011 0.9576
9.4799 -5.8790 -2.0967 0.9556
9.4781 -4.7627 -1.9938 0.9577
2.3260 -0.9187 -0.4701 0.9899
10.6967 -3.1538 -2.0961 0.9556
11.6609 -1.2617 -2.2046 0.9534
11.4273 0.8145 -2.1533 0.9544
8.6786 2.2168 -1.6836 0.9642
7.6944 2.7179 -1.5338 0.9673
6.8171 3.1183 -1.4090 0.9699
4.7787 4.0040 -1.1718 0.9749
2.8516 5.0327 -1.0873 0.9767
2.3886 5.2630 -1.0864 0.9768
1.9178 5.4810 -1.0915 0.9766
0.4952 3.1148 -0.5928 0.9872
0.4223 6.1845 -1.1651 0.9751
-3.6762 12.3334 -2.4190 0.9490
-4.6582 11.6916 -2.3656 0.9501
-2.3424 2.1574 -0.5986 0.9871
-9.2749 7.1220 -2.1980 0.9535
-9.6318 6.1112 -2.1441 0.9546
-9.8955 5.1005 -2.0925 0.9557
-10.1614 3.1097 -1.9974 0.9577
-9.9799 0.2854 -1.8766 0.9602
-9.7840 -0.5964 -1.8424 0.9609
-9.2160 -2.2535 -1.7833 0.9621
-8.4394 -3.7561 -1.7363 0.9631
-7.4819 -5.0932 -1.7012 0.9638
-6.9429 -5.6970 -1.6881 0.9641
-6.3673 -6.2564 -1.6779 0.9643
-5.7575 -6.7705 -1.6705 0.9645
-4.4442 -7.6589 -1.6644 0.9646
-3.7449 -8.0312 -1.6656 0.9646
1.7627 -9.1684 -1.7549 0.9627
3.4664 -8.9671 -1.8070 0.9616
4.3259 -8.7678 -1.8377 0.9610
5.1854 -8.4994 -1.8714 0.9603
6.0405 -8.1594 -1.9082 0.9595
6.8862 -7.7454 -1.9480 0.9587
7.7167 -7.2553 -1.9908 0.9578
8.5256 -6.6870 -2.0366 0.9569
9.3254 -4.9285 -1.9826 0.9580
2.3081 -0.9669 -0.4704 0.9899
11.5657 -1.4924 -2.1919 0.9536
11.9468 -0.4645 -2.2472 0.9525
10.2044 1.4388 -1.9370 0.9589
7.0166 3.0369 -1.4371 0.9694
6.2028 3.3720 -1.3270 0.9717
5.5061 3.6660 -1.2433 0.9734
4.4133 4.2481 -1.1514 0.9754
3.4162 4.7297 -1.0966 0.9765
2.0268 5.4320 -1.0898 0.9767
0.5306 2.9463 -0.5627 0.9879
0.5448 6.1237 -1.1556 0.9753
-0.0047 6.4107 -1.2050 0.9742
-1.3032 7.1750 -1.3707 0.9708
-3.4389 12.4678 -2.4310 0.9487
-6.1785 10.3652 -2.2681 0.9521
-7.4427 10.2724 -2.3843 0.9497
-2.3247 2.2312 -0.6057 0.9870
-10.1773 2.3622 -1.9638 0.9584
-10.0160 0.4925 -1.8849 0.9600
-9.8345 -0.3969 -1.8500 0.9607
-9.5919 -1.2521 -1.8182 0.9614
-8.5382 -3.5918 -1.7411 0.9630
-7.6002 -4.9483 -1.7046 0.9638
-6.5026 -6.1319 -1.6800 0.9643
-4.6010 -7.5666 -1.6645 0.9646
-3.9079 -7.9501 -1.6651 0.9646
2.8935 -8.1527 -1.8286 0.9652
3.6642 -7.9788 -1.8559 0.9647
4.4329 -7.7426 -1.8859 0.9642
5.1955 -7.4424 -1.9186 0.9636
5.9472 -7.0763 -1.9539 0.9629
8.7090 -4.9175 -2.1141 0.9599
8.6679 -3.9183 -2.0107 0.9619
9.1847 -3.1983 -2.0558 0.9610
9.6463 -2.4181 -2.1021 0.9602
10.3711 -0.6926 -2.1971 0.9584
10.6172 0.2419 -2.2449 0.9575
10.6445 1.1999 -2.2643 0.9572
8.1897 2.4544 -1.8072 0.9656
4.5853 4.1743 -1.3107 0.9750
3.0790 4.8690 -1.2177 0.9767
2.6173 5.0966 -1.2111 0.9768
2.1595 5.3298 -1.2156 0.9768
1.6965 5.5732 -1.2314 0.9765
0.6149 2.9422 -0.6354 0.9878
0.1741 6.4240 -1.3584 0.9741
-0.9648 6.3053 -1.3483 0.9743
-3.5922 10.4610 -2.3380 0.9558
-4.4237 9.8994 -2.2920 0.9566
-6.4617 7.8508 -2.1493 0.9593
-7.5218 7.6323 -2.2651 0.9571
-8.3791 5.9033 -2.1666 0.9590
-9.0459 3.2545 -2.0321 0.9615
-9.0493 0.6978 -1.9185 0.9636
-8.9209 -0.1116 -1.8859 0.9642
-8.4927 -1.6460 -1.8286 0.9653
-8.2002 -2.3660 -1.8041 0.9657
-7.8598 -3.0519 -1.7822 0.9661
-7.4748 -3.7019 -1.7632 0.9665
-7.0481 -4.3145 -1.7468 0.9668
-6.0806 -5.4224 -1.7222 0.9672
-5.5450 -5.9154 -1.7139 0.9674
-4.9779 -6.3662 -1.7082 0.9675
-4.3816 -6.7737 -1.7053 0.9676
-3.7582 -7.1369 -1.7050 0.9676
-3.1098 -7.4544 -1.7073 0.9675
-2.4385 -7.7250 -1.7123 0.9674
-1.7463 -7.9475 -1.7200 0.9673
0.4334 -8.3111 -1.7592 0.9665
1.1866 -8.3256 -1.7777 0.9662
1.9487 -8.2839 -1.7988 0.9658
2.7167 -8.1840 -1.8228 0.9654
3.4873 -8.0242 -1.8494 0.9649
6.5155 -6.7486 -1.9829 0.9624
9.0706 -3.3690 -2.0453 0.9612
9.9592 -1.7783 -2.1385 0.9595
10.3029 -0.9010 -2.1861 0.9586
9.5649 1.7520 -2.0555 0.9610
3.1866 4.8170 -1.2208 0.9767
2.7227 5.0440 -1.2116 0.9768
2.2648 5.2755 -1.2136 0.9768
1.8038 5.5162 -1.2268 0.9766
0.4350 3.1527 -0.6727 0.9871
0.3027 6.3495 -1.3437 0.9743
-3.3915 10.5792 -2.3483 0.9556
-5.0143 9.4198 -2.2557 0.9573
-6.3311 8.0225 -2.1603 0.9591
-8.8585 4.3380 -2.0850 0.9605
-9.1216 1.7256 -1.9623 0.9628
-8.9557 0.0720 -1.8931 0.9640
-8.5528 -1.4760 -1.8346 0.9651
-7.5670 -3.5558 -1.7673 0.9664
-7.1496 -4.1771 -1.7503 0.9667
-5.1108 -6.2664 -1.7093 0.9675
-4.5210 -6.6840 -1.7057 0.9675
-3.2608 -7.3856 -1.7065 0.9675
-2.5946 -7.6671 -1.7110 0.9674
-1.9070 -7.9008 -1.7180 0.9673
-1.2003 -8.0852 -1.7278 0.9671
-0.4765 -8.2188 -1.7402 0.9669
0.2620 -8.3000 -1.7553 0.9666
1.7730 -8.2985 -1.7937 0.9659
2.5399 -8.2122 -1.8170 0.9655
3.3102 -8.0663 -1.8430 0.9650
4.0804 -7.8590 -1.8718 0.9644
6.3473 -6.8505 -1.9741 0.9625
8.4386 -5.2333 -2.0989 0.9602
9.8701 -1.9725 -2.1276 0.9597
10.2306 -1.1069 -2.1752 0.9588
10.5147 -0.1926 -2.2230 0.9579
10.7140 0.7636 -2.2705 0.9570
9.8655 1.5984 -2.1126 0.9600
8.6630 2.2128 -1.8900 0.9641
7.6818 2.7135 -1.7221 0.9672
6.1301 3.4975 -1.4919 0.9716
5.4592 3.7989 -1.4059 0.9732
4.4507 4.4639 -1.3324 0.9746
3.9344 4.7241 -1.2996 0.9752
3.2949 4.7650 -1.2246 0.9766
2.3699 5.2217 -1.2121 0.9768
1.9104 5.4598 -1.2227 0.9766
0.7790 3.0877 -0.6731 0.9871
0.4845 3.0477 -0.6523 0.9875
0.4287 6.2769 -1.3299 0.9746
-4.8429 9.5667 -2.2666 0.9571
-5.5591 8.9049 -2.2190 0.9580
-7.2760 8.0164 -2.2884 0.9567
-8.2125 6.3063 -2.1887 0.9586
-8.5526 5.4265 -2.1410 0.9594
-8.9893 3.6579 -2.0515 0.9611
-9.0926 2.7827 -2.0100 0.9619
-9.1241 1.9211 -1.9709 0.9626
-8.8270 -0.5381 -1.8693 0.9645
-8.6102 -1.3043 -1.8408 0.9650
-8.0219 -2.7412 -1.7919 0.9659
-7.6570 -3.4079 -1.7716 0.9663
-7.2490 -4.0378 -1.7540 0.9666
-6.3155 -5.1821 -1.7269 0.9672
-5.2422 -6.1644 -1.7105 0.9675
-3.4106 -7.3143 -1.7059 0.9675
-2.7496 -7.6066 -1.7097 0.9675
-2.0667 -7.8514 -1.7162 0.9674
-0.6441 -8.1927 -1.7371 0.9670
0.8394 -8.3258 -1.7688 0.9664
1.5977 -8.3102 -1.7888 0.9660
3.1332 -8.1052 -1.8368 0.9651
3.9037 -7.9121 -1.8649 0.9646
5.4307 -7.3356 -1.9293 0.9634
6.9074 -6.4944 -2.0041 0.9620
8.2969 -4.3849 -1.9837 0.9624
9.7774 -2.1638 -2.1168 0.9599
10.1543 -1.3103 -2.1642 0.9590
8.9165 2.0834 -1.9355 0.9633
7.8916 2.6065 -1.7568 0.9666
7.0271 3.0414 -1.6185 0.9692
5.6106 3.7355 -1.4248 0.9728
4.9809 4.0022 -1.3506 0.9742
3.4042 4.7130 -1.2289 0.9765
0.5269 2.9255 -0.6283 0.9879
0.5521 6.2061 -1.3170 0.9748
-0.0048 6.5285 -1.3800 0.9737
-0.6221 6.8785 -1.4599 0.9722
-1.3110 7.2181 -1.5507 0.9705
-3.8584 10.2943 -2.3238 0.9560
-5.4016 9.0618 -2.2300 0.9578
-6.0570 8.3599 -2.1822 0.9587
-7.1461 8.2060 -2.3001 0.9565
-8.1225 6.5068 -2.1999 0.9583
-8.4819 5.6293 -2.1518 0.9592
-8.9551 3.8602 -2.0613 0.9609
-9.0159 0.4433 -1.9081 0.9638
-8.8689 -0.3579 -1.8762 0.9644
-8.6648 -1.1310 -1.8471 0.9649
-8.4071 -1.8735 -1.8207 0.9654
-5.9176 -5.5802 -1.7193 0.9673
-5.3719 -6.0602 -1.7118 0.9674
-4.1905 -6.8915 -1.7049 0.9676
4.7173 -6.7574 -1.9368 0.9667
6.0465 -6.0106 -2.0037 0.9656
6.6794 -5.5460 -2.0404 0.9650
7.2837 -5.0204 -2.0791 0.9643
7.8285 -4.4203 -2.1129 0.9637
8.2224 -2.8632 -2.0463 0.9649
8.6153 -2.1597 -2.0875 0.9642
8.9496 -1.4090 -2.1293 0.9635
9.5313 1.0744 -2.2543 0.9614
9.2622 1.8940 -2.2219 0.9619
8.1755 2.4502 -2.0059 0.9655
7.2679 2.9083 -1.8398 0.9683
6.4971 3.3012 -1.7128 0.9705
4.6541 4.2369 -1.4792 0.9745
3.6138 4.7209 -1.3973 0.9759
2.6606 5.1809 -1.3688 0.9764
0.6114 2.9254 -0.7024 0.9878
-0.4229 6.7711 -1.5945 0.9725
-4.5944 8.2194 -2.2131 0.9620
-5.2100 7.6290 -2.1712 0.9628
-5.7572 6.9949 -2.1292 0.9635
-7.1560 6.0669 -2.2049 0.9622
-8.0228 3.7264 -2.0790 0.9643
-8.1689 2.9390 -2.0404 0.9650
-8.2626 1.3880 -1.9691 0.9662
-8.2165 0.6336 -1.9368 0.9667
-8.1126 -0.1015 -1.9068 0.9672
-7.9543 -0.8139 -1.8792 0.9677
-7.4866 -2.1601 -1.8313 0.9685
-7.1834 -2.7892 -1.8111 0.9688
-6.8378 -3.3864 -1.7933 0.9691
-6.0303 -4.4783 -1.7653 0.9696
-5.5735 -4.9702 -1.7551 0.9698
-2.8525 -6.8376 -1.7412 0.9700
-2.2362 -7.0842 -1.7459 0.9699
-1.6009 -7.2855 -1.7531 0.9698
-0.9487 -7.4402 -1.7628 0.9697
1.7796 -7.5650 -1.8265 0.9686
3.1769 -7.3100 -1.8732 0.9678
4.5607 -6.8278 -1.9298 0.9668
5.8977 -6.1086 -1.9956 0.9657
7.1478 -5.1465 -2.0700 0.9645
7.7129 -4.5665 -2.1066 0.9638
8.1246 -3.0177 -2.0369 0.9650
9.1626 -0.8013 -2.1616 0.9629
9.3759 0.0209 -2.2035 0.9622
9.5117 0.8747 -2.2449 0.9615
9.5461 1.7486 -2.2809 0.9609
7.4679 2.8118 -1.8754 0.9677
6.6647 3.2159 -1.7392 0.9701
5.3467 3.8861 -1.5535 0.9732
4.7786 4.1740 -1.4912 0.9743
4.3244 4.5193 -1.4700 0.9746
3.8145 4.7763 -1.4366 0.9752
3.2397 4.8974 -1.3800 0.9762
2.7678 5.1275 -1.3694 0.9763
1.8340 5.6086 -1.3868 0.9760
0.4291 3.1104 -0.7379 0.9872
-0.7919 5.9965 -1.4215 0.9755
-2.1810 9.7182 -2.3408 0.9599
-2.9915 9.3317 -2.3031 0.9605
-3.7477 8.8718 -2.2635 0.9612
-7.9795 3.9075 -2.0882 0.9642
-8.1414 3.1194 -2.0491 0.9648
-8.2355 2.3364 -2.0119 0.9654
-8.2648 1.5635 -1.9769 0.9660
-8.2323 0.8053 -1.9440 0.9666
-8.1414 0.0655 -1.9135 0.9671
-7.9953 -0.6525 -1.8853 0.9676
-7.7971 -1.3456 -1.8596 0.9680
-7.5500 -2.0114 -1.8363 0.9684
-6.9208 -3.2522 -1.7972 0.9691
-5.6814 -4.8605 -1.7572 0.9697
-5.1996 -5.3234 -1.7489 0.9699
-4.6875 -5.7474 -1.7431 0.9700
-2.3795 -7.0315 -1.7446 0.9700
-1.0999 -7.4089 -1.7603 0.9697
0.2398 -7.5956 -1.7860 0.9693
1.6195 -7.5802 -1.8217 0.9687
2.3175 -7.4929 -1.8433 0.9683
3.0165 -7.3506 -1.8674 0.9679
3.7132 -7.1517 -1.8939 0.9674
4.4035 -6.8950 -1.9228 0.9669
5.0833 -6.5793 -1.9540 0.9664
7.5947 -4.7099 -2.1003 0.9639
2.3269 -0.9191 -0.5880 0.9898
8.4417 -2.4889 -2.0684 0.9645
8.8038 -1.7594 -2.1100 0.9638
9.3335 -0.1709 -2.1940 0.9624
9.5597 1.5488 -2.2760 0.9610
7.6691 2.7090 -1.9116 0.9671
6.8376 3.1278 -1.7671 0.9696
6.1214 3.4925 -1.6564 0.9715
5.4842 3.8163 -1.5703 0.9729
2.8752 5.0743 -1.3707 0.9763
2.4091 5.3082 -1.3700 0.9763
0.4810 3.0255 -0.7200 0.9875
-0.1412 6.6322 -1.5591 0.9731
-1.4796 7.2912 -1.7485 0.9699
-5.5145 7.2911 -2.1485 0.9631
-7.6835 4.8750 -2.1386 0.9633
-8.1103 3.3002 -2.0579 0.9647
-8.2197 2.5155 -2.0203 0.9653
-8.2636 1.7399 -1.9847 0.9659
-8.2451 0.9779 -1.9514 0.9665
-8.1673 0.2335 -1.9203 0.9670
-7.8471 -1.1887 -1.8653 0.9679
-7.3281 -2.5041 -1.8201 0.9687
-7.0016 -3.1162 -1.8012 0.9690
-6.2287 -4.2401 -1.7709 0.9695
-5.7875 -4.7489 -1.7595 0.9697
-4.8077 -5.6535 -1.7442 0.9700
-4.2738 -6.0469 -1.7403 0.9700
-1.8949 -7.1987 -1.7495 0.9699
-1.2502 -7.3750 -1.7580 0.9697
-0.5900 -7.5040 -1.7691 0.9695
0.0835 -7.5842 -1.7826 0.9693
1.4598 -7.5926 -1.8171 0.9687
2.1570 -7.5178 -1.8381 0.9684
3.5536 -7.2025 -1.8876 0.9675
4.2458 -6.9592 -1.9159 0.9671
4.9283 -6.6571 -1.9467 0.9665
5.5968 -6.2951 -1.9797 0.9660
6.8707 -5.3890 -2.0522 0.9648
7.4648 -4.8445 -2.0915 0.9641
2.3036 -0.9651 -0.5870 0.9898
8.7259 -1.9311 -2.1004 0.9639
7.0162 3.0367 -1.7968 0.9691
5.6248 3.7450 -1.5881 0.9726
5.0339 4.0447 -1.5177 0.9738
4.0458 4.6598 -1.4503 0.9750
2.9832 5.0214 -1.3727 0.9763
2.0500 5.4942 -1.3782 0.9762
1.5762 5.7475 -1.4007 0.9758
0.5232 2.9049 -0.6937 0.9879
-2.6256 9.5188 -2.3207 0.9602
-3.4076 9.0916 -2.2819 0.9609
-4.1318 8.5959 -2.2415 0.9616
-5.3877 7.4361 -2.1582 0.9630
-5.9131 6.7902 -2.1161 0.9637
-7.6161 5.0546 -2.1483 0.9631
-7.8817 4.2697 -2.1067 0.9638
-8.0756 3.4811 -2.0668 0.9645
-8.2547 1.1515 -1.9588 0.9663
-8.1902 0.4027 -1.9272 0.9669
-7.8944 -1.0305 -1.8711 0.9678
-7.3970 -2.3591 -1.8247 0.9686
-6.3251 -4.1181 -1.7739 0.9695
-5.8918 -4.6353 -1.7619 0.9697
-3.8443 -6.3220 -1.7390 0.9701
3.6931 -6.4504 -1.9245 0.9698
4.9250 -5.8600 -1.9820 0.9689
5.5158 -5.4830 -2.0137 0.9684
7.0462 -3.1852 -2.0021 0.9686
7.4351 -2.5890 -2.0384 0.9680
8.0613 -1.2691 -2.1129 0.9668
8.4468 0.1925 -2.1876 0.9657
8.5488 1.7482 -2.2592 0.9646
7.2562 2.9036 -2.0236 0.9682
6.4875 3.2963 -1.8841 0.9704
5.8121 3.6405 -1.7757 0.9721
5.2051 3.9491 -1.6917 0.9734
4.6481 4.2315 -1.6275 0.9744
1.5790 3.8970 -1.0887 0.9828
1.7335 5.6950 -1.5413 0.9757
-0.9225 6.0287 -1.5791 0.9751
-2.1161 8.5986 -2.2928 0.9641
-2.8338 8.2525 -2.2592 0.9646
-4.6838 6.8585 -2.1504 0.9663
-6.8115 4.7989 -2.1574 0.9662
-7.0856 4.0974 -2.1193 0.9667
-7.4399 2.6767 -2.0472 0.9679
-7.5239 1.9685 -2.0136 0.9684
-7.5488 1.2680 -1.9819 0.9689
-7.5173 0.5797 -1.9521 0.9693
-7.2959 -0.7466 -1.8989 0.9702
-7.1114 -1.3783 -1.8755 0.9705
-6.8814 -1.9855 -1.8544 0.9708
-5.9450 -3.6392 -1.8048 0.9716
-5.1403 -4.5839 -1.7832 0.9719
-4.6910 -5.0043 -1.7760 0.9721
-3.1819 -6.0425 -1.7682 0.9722
-2.6324 -6.3100 -1.7702 0.9721
-2.0632 -6.5362 -1.7746 0.9721
-1.4765 -6.7198 -1.7814 0.9720
-0.2600 -6.9542 -1.8018 0.9717
0.3652 -7.0025 -1.8155 0.9714
0.9981 -7.0032 -1.8316 0.9712
3.5486 -6.5044 -1.9184 0.9698
5.3819 -5.5744 -2.0062 0.9685
5.9553 -5.1551 -2.0394 0.9680
6.9998 -4.1444 -2.1062 0.9669
8.0008 -1.4286 -2.1043 0.9670
8.2408 -0.7207 -2.1418 0.9664
8.5527 1.5666 -2.2513 0.9647
8.3912 2.3280 -2.2547 0.9647
7.4557 2.8072 -2.0627 0.9676
6.6546 3.2110 -1.9131 0.9699
5.9604 3.5650 -1.7982 0.9717
5.3395 3.8808 -1.7091 0.9731
4.7724 4.1685 -1.6407 0.9742
3.8098 4.7705 -1.5807 0.9751
2.7895 5.1677 -1.5205 0.9760
1.6603 3.8674 -1.0897 0.9828
1.8442 5.6399 -1.5364 0.9758
0.6900 2.9932 -0.7953 0.9874
-2.6730 8.3379 -2.2671 0.9645
-3.9853 7.4868 -2.1960 0.9656
-5.0759 6.4321 -2.1215 0.9667
-2.3916 2.1136 -0.8264 0.9869
-7.2523 3.5514 -2.0908 0.9672
-7.4120 2.8400 -2.0552 0.9677
-7.5294 0.7365 -1.9588 0.9692
-7.3315 -0.5983 -1.9046 0.9701
-7.1579 -1.2353 -1.8807 0.9704
-6.9381 -1.8484 -1.8591 0.9708
-5.6507 -4.0189 -1.7954 0.9718
-5.2393 -4.4823 -1.7852 0.9719
-4.3255 -5.3035 -1.7720 0.9721
-2.7604 -6.2522 -1.7696 0.9722
-2.1956 -6.4879 -1.7734 0.9721
-0.4021 -6.9365 -1.7990 0.9717
0.2208 -6.9956 -1.8122 0.9715
1.4892 -6.9704 -1.8455 0.9710
2.1290 -6.8836 -1.8656 0.9707
2.7683 -6.7457 -1.8879 0.9703
3.4036 -6.5555 -1.9125 0.9699
4.0313 -6.3122 -1.9392 0.9695
4.6472 -6.0149 -1.9680 0.9691
5.2470 -5.6630 -1.9989 0.9686
6.3787 -4.7948 -2.0661 0.9676
2.3286 -0.9198 -0.6482 0.9897
7.9371 -1.5862 -2.0957 0.9671
8.5231 2.1771 -2.2776 0.9643
6.8271 3.1229 -1.9438 0.9695
6.1125 3.4875 -1.8221 0.9713
4.8987 4.1045 -1.6547 0.9739
3.9248 4.7125 -1.5879 0.9750
3.3714 4.8757 -1.5348 0.9758
2.8742 5.0724 -1.5095 0.9762
0.4803 3.0213 -0.7921 0.9874
-0.1410 6.6231 -1.7152 0.9730
-1.4774 7.2800 -1.9234 0.9698
-2.5097 8.4199 -2.2748 0.9643
-3.8453 7.5960 -2.2044 0.9654
-5.4318 5.9846 -2.0926 0.9672
-2.3411 2.1563 -0.8241 0.9869
-6.6633 5.1167 -2.1752 0.9659
-7.2066 3.7145 -2.0992 0.9671
-7.5445 1.5885 -1.9962 0.9686
-7.5386 0.8941 -1.9656 0.9691
-7.4777 0.2138 -1.9369 0.9696
-7.3646 -0.4489 -1.9104 0.9700
-6.4442 -2.8681 -1.8263 0.9713
-6.1106 -3.4036 -1.8110 0.9715
-5.7405 -3.9078 -1.7980 0.9717
-5.3366 -4.3789 -1.7874 0.9719
-4.9010 -4.8156 -1.7790 0.9720
-3.9441 -5.5805 -1.7693 0.9722
-3.4272 -5.9061 -1.7680 0.9722
-2.8874 -6.1922 -1.7690 0.9722
-1.1529 -6.8009 -1.7860 0.9719
-0.5438 -6.9164 -1.7963 0.9717
0.7066 -7.0089 -1.8239 0.9713
1.3426 -6.9833 -1.8412 0.9710
3.2582 -6.6039 -1.9066 0.9700
4.5070 -6.0880 -1.9612 0.9692
6.2543 -4.9056 -2.0581 0.9677
6.7835 -4.4024 -2.0938 0.9671
6.7530 -3.5690 -1.9776 0.9689
7.5464 -2.3945 -2.0499 0.9678
7.8705 -1.7418 -2.0871 0.9672
8.3440 -0.3244 -2.1620 0.9661
8.5480 1.2052 -2.2351 0.9650
8.5369 1.9947 -2.2699 0.9644
7.8650 2.5977 -2.1446 0.9664
6.2687 3.4079 -1.8474 0.9709
4.4829 4.3151 -1.6110 0.9746
1.5824 5.7702 -1.5492 0.9756
0.5585 6.2778 -1.6319 0.9743
-0.0048 6.5560 -1.6975 0.9733
-0.6204 6.8592 -1.7832 0.9719
-1.3071 7.1965 -1.8938 0.9702
-3.0477 8.1314 -2.2484 0.9648
-3.7024 7.7025 -2.2127 0.9653
-4.3032 7.2191 -2.1760 0.9659
-2.3373 2.2432 -0.8388 0.9867
-6.5840 5.2743 -2.1842 0.9657
-7.5378 1.7496 -2.0036 0.9685
-7.2435 -0.9455 -1.8914 0.9703
-7.0446 -1.5699 -1.8687 0.9706
-6.1905 -3.2834 -1.8143 0.9715
-5.4322 -4.2737 -1.7896 0.9718
-5.0037 -4.7184 -1.7807 0.9720
-4.5454 -5.1277 -1.7742 0.9721
-4.0594 -5.5003 -1.7700 0.9721
4.5291 -5.3890 -1.9928 0.9712
6.0491 -3.4156 -1.9666 0.9715
6.4340 -2.9084 -1.9989 0.9711
7.0774 -1.7742 -2.0655 0.9701
7.3257 -1.1533 -2.0994 0.9696
7.5186 -0.5021 -2.1332 0.9692
7.6514 0.1743 -2.1666 0.9687
7.7197 0.8702 -2.1992 0.9682
7.7199 1.5787 -2.2307 0.9678
7.6491 2.2924 -2.2606 0.9673
6.4777 3.2913 -2.0569 0.9702
5.8039 3.6353 -1.9387 0.9719
4.6421 4.2260 -1.7771 0.9742
3.6275 4.7387 -1.6894 0.9755
3.1489 4.9794 -1.6679 0.9758
2.6783 5.2154 -1.6598 0.9759
1.5707 3.8766 -1.1841 0.9828
1.7314 5.6879 -1.6832 0.9756
0.1750 6.4585 -1.8290 0.9735
-0.4217 6.7522 -1.9152 0.9723
-0.9212 6.0203 -1.7241 0.9750
-2.5591 7.4524 -2.2306 0.9678
-4.2495 6.2226 -2.1332 0.9692
-4.7126 5.7258 -2.0994 0.9696
-5.1214 5.1967 -2.0655 0.9701
-6.2197 4.3820 -2.1539 0.9689
-6.4800 3.7472 -2.1191 0.9694
-6.9421 1.1661 -1.9928 0.9712
-6.5681 -1.2730 -1.8940 0.9726
-6.1137 -2.3739 -1.8566 0.9731
-5.5067 -3.3709 -1.8278 0.9735
-5.1517 -3.8259 -1.8166 0.9737
-4.3503 -4.6408 -1.8008 0.9739
-3.9081 -4.9980 -1.7961 0.9740
-3.4412 -5.3200 -1.7937 0.9740
-1.9135 -6.0617 -1.7995 0.9739
0.3381 -6.4834 -1.8379 0.9734
0.9235 -6.4798 -1.8529 0.9732
2.1025 -6.3340 -1.8893 0.9726
2.6900 -6.1898 -1.9106 0.9723
4.4030 -5.4631 -1.9863 0.9713
5.4639 -4.7297 -2.0458 0.9704
5.9565 -4.2888 -2.0779 0.9699
6.4011 -3.7899 -2.1059 0.9695
7.0130 -1.9120 -2.0578 0.9702
7.2734 -1.2988 -2.0916 0.9698
7.7261 1.4152 -2.2236 0.9679
6.6445 3.2061 -2.0885 0.9698
5.3322 3.8755 -1.8661 0.9730
4.7661 4.1631 -1.7915 0.9740
4.3135 4.5078 -1.7662 0.9744
3.2578 4.9247 -1.6716 0.9758
2.7861 5.1614 -1.6604 0.9759
1.6445 3.8306 -1.1801 0.9828
1.8419 5.6329 -1.6777 0.9757
0.6933 3.0075 -0.8737 0.9873
0.4248 3.0791 -0.8799 0.9872
-0.2797 6.6824 -1.8934 0.9726
-0.7902 5.9835 -1.7086 0.9752
-2.4130 7.5270 -2.2377 0.9677
-3.0331 7.1800 -2.2065 0.9681
-3.6087 6.7793 -2.1741 0.9686
-4.1357 6.3314 -2.1409 0.9691
-4.6110 5.8430 -2.1071 0.9695
-6.6400 3.2516 -2.0930 0.9697
-6.7961 2.6040 -2.0603 0.9702
-6.8953 1.9562 -2.0290 0.9706
-6.9307 0.6779 -1.9714 0.9715
-6.7634 -0.5519 -1.9210 0.9722
-6.4124 -1.7083 -1.8786 0.9728
-5.5835 -3.2622 -1.8307 0.9735
-5.2361 -3.7241 -1.8190 0.9736
-4.8569 -4.1552 -1.8095 0.9738
-4.4481 -4.5540 -1.8021 0.9739
-3.0661 -5.5431 -1.7933 0.9740
-2.5606 -5.7996 -1.7947 0.9740
-1.4953 -6.1952 -1.8042 0.9739
-0.9400 -6.3320 -1.8122 0.9737
-0.3726 -6.4267 -1.8224 0.9736
3.1389 -6.0456 -1.9284 0.9721
5.3468 -4.8240 -2.0386 0.9705
5.8460 -4.3944 -2.0704 0.9701
6.2619 -3.1466 -1.9839 0.9713
2.3302 -0.9204 -0.7093 0.9896
6.9460 -2.0479 -2.0501 0.9703
7.4372 -0.8047 -2.1177 0.9694
7.5981 -0.1392 -2.1513 0.9689
7.7285 1.2521 -2.2164 0.9680
7.6906 1.9644 -2.2471 0.9675
6.8165 3.1181 -2.1220 0.9693
6.1036 3.4824 -1.9893 0.9712
5.4691 3.8058 -1.8863 0.9727
4.8922 4.0991 -1.8068 0.9738
4.4338 4.4470 -1.7777 0.9742
3.9199 4.7066 -1.7340 0.9749
1.7464 3.8479 -1.1963 0.9826
1.9518 5.5782 -1.6730 0.9757
0.8230 3.2621 -0.9524 0.9861
0.4656 2.9288 -0.8395 0.9877
0.4324 6.3316 -1.7966 0.9740
-0.1408 6.6140 -1.8728 0.9729
-0.6677 6.0042 -1.7102 0.9752
-1.4751 7.2688 -2.0997 0.9696
-2.2648 7.5985 -2.2446 0.9676
-3.4807 6.8757 -2.1817 0.9685
-4.5065 5.9584 -2.1149 0.9694
-4.9405 5.4433 -2.0810 0.9699
-6.0730 4.6634 -2.1676 0.9687
-6.3679 4.0403 -2.1349 0.9691
-6.5960 3.3998 -2.1007 0.9696
-6.7653 2.7529 -2.0677 0.9701
-6.9373 0.8228 -1.9777 0.9714
-6.8893 0.1970 -1.9511 0.9718
-6.6489 -1.0072 -1.9037 0.9724
-6.4614 -1.5799 -1.8831 0.9727
-5.6586 -3.1519 -1.8337 0.9734
-5.3188 -3.6207 -1.8215 0.9736
-4.9467 -4.0589 -1.8115 0.9737
-4.1144 -4.8383 -1.7980 0.9739
-3.6586 -5.1766 -1.7945 0.9740
-2.6784 -5.7441 -1.7942 0.9740
-2.1582 -5.9708 -1.7973 0.9740
-1.6209 -6.1579 -1.8027 0.9739
-1.0687 -6.3043 -1.8102 0.9738
-0.5038 -6.4087 -1.8199 0.9736
0.0712 -6.4700 -1.8317 0.9735
1.2418 -6.4588 -1.8619 0.9730
1.8317 -6.3841 -1.8802 0.9728
3.5826 -5.8723 -1.9474 0.9718
4.1482 -5.6033 -1.9736 0.9714
5.2283 -4.9157 -2.0316 0.9706
5.7339 -4.4974 -2.0630 0.9702
6.2091 -4.0296 -2.0955 0.9697
6.1729 -3.2624 -1.9765 0.9714
2.3009 -0.9640 -0.7062 0.9897
7.1603 -1.5846 -2.0761 0.9700
7.5666 -0.2942 -2.1437 0.9690
7.7272 1.0895 -2.2092 0.9681
7.7057 1.8005 -2.2402 0.9676
6.9941 3.0272 -2.1575 0.9688
4.4771 4.3096 -1.7592 0.9745
4.0357 4.6481 -1.7426 0.9747
1.5805 5.7630 -1.6917 0.9755
-1.1260 6.1996 -1.7838 0.9741
-2.7535 7.3464 -2.2210 0.9679
-3.3501 6.9696 -2.1891 0.9684
-3.8999 6.5425 -2.1562 0.9688
-6.3071 4.1859 -2.1429 0.9690
-6.8567 2.2535 -2.0432 0.9704
-6.9047 0.3395 -1.9570 0.9717
-6.5082 -1.4503 -1.8876 0.9727
-5.7319 -3.0401 -1.8368 0.9734
-5.3997 -3.5156 -1.8241 0.9736
-4.6394 -4.3749 -1.8052 0.9738
-4.2155 -4.7556 -1.7991 0.9739
-3.7655 -5.1020 -1.7951 0.9740
2.0771 -5.8523 -1.9100 0.9743
2.6193 -5.7035 -1.9304 0.9741
3.1542 -5.5092 -1.9526 0.9738
4.1881 -4.9833 -2.0022 0.9731
4.6793 -4.6515 -2.0294 0.9728
5.5671 -3.1435 -1.9664 0.9736
5.9136 -2.6732 -1.9961 0.9732
6.2219 -2.1666 -2.0264 0.9728
6.7060 -1.0557 -2.0880 0.9720
6.9851 0.1591 -2.1490 0.9712
7.0383 0.7934 -2.1785 0.9708
7.0296 1.4375 -2.2069 0.9704
6.8183 2.7284 -2.2589 0.9697
6.4678 3.2863 -2.2314 0.9701
5.7955 3.6301 -2.1034 0.9718
5.1909 3.9383 -2.0041 0.9731
4.6360 4.2204 -1.9283 0.9741
4.1892 4.5621 -1.9051 0.9744
3.1450 4.9733 -1.8099 0.9757
2.6750 5.2090 -1.8011 0.9758
1.7292 5.6808 -1.8265 0.9755
0.7235 6.1792 -1.9136 0.9743
-0.4211 6.7426 -2.0779 0.9721
-0.9199 6.0118 -1.8706 0.9749
-2.3302 6.7860 -2.2069 0.9704
-3.8847 5.6884 -2.1187 0.9716
-4.3140 5.2414 -2.0880 0.9720
-4.6945 4.7635 -2.0571 0.9724
-5.7081 4.0215 -2.1477 0.9712
-6.3829 1.6700 -2.0293 0.9728
-6.4194 1.0783 -2.0021 0.9731
-6.4070 0.4941 -1.9765 0.9735
-6.3477 -0.0794 -1.9526 0.9738
-6.2434 -0.6389 -1.9304 0.9741
-6.0964 -1.1816 -1.9100 0.9743
-5.6827 -2.2065 -1.8750 0.9748
-4.7958 -3.5615 -1.8374 0.9753
-4.4378 -3.9574 -1.8289 0.9754
-4.0522 -4.3228 -1.8224 0.9755
-3.6410 -4.6564 -1.8181 0.9756
-2.2749 -5.4531 -1.8174 0.9756
-1.7824 -5.6466 -1.8213 0.9755
-1.2749 -5.8022 -1.8272 0.9754
-0.7547 -5.9188 -1.8352 0.9753
-0.2241 -5.9953 -1.8453 0.9752
0.3145 -6.0306 -1.8574 0.9750
1.4053 -5.9739 -1.8876 0.9746
2.4953 -5.7416 -1.9256 0.9741
3.0322 -5.5579 -1.9473 0.9739
4.0726 -5.0530 -1.9962 0.9732
5.4905 -3.9532 -2.0810 0.9721
5.8373 -2.7845 -1.9892 0.9733
6.1547 -2.2860 -2.0194 0.9729
6.4305 -1.7532 -2.0501 0.9725
6.6602 -1.1893 -2.0809 0.9721
6.8395 -0.5982 -2.1117 0.9717
6.9793 1.9363 -2.2278 0.9701
6.8560 2.5814 -2.2533 0.9698
5.9432 3.5547 -2.1300 0.9714
4.7598 4.1575 -1.9439 0.9739
4.3079 4.5020 -1.9165 0.9743
3.2538 4.9186 -1.8139 0.9756
1.5952 3.7158 -1.2438 0.9832
1.8396 5.6259 -1.8206 0.9755
0.6978 3.0268 -0.9554 0.9871
0.4262 3.0888 -0.9591 0.9870
-2.1966 6.8520 -2.2132 0.9703
-2.7645 6.5443 -2.1851 0.9707
-4.2196 5.3470 -2.0950 0.9719
-4.6115 4.8757 -2.0642 0.9723
-5.2454 3.8592 -2.0030 0.9731
-5.9118 3.5827 -2.1262 0.9715
-6.1170 2.9955 -2.0949 0.9719
-6.3675 1.8065 -2.0358 0.9727
-6.4154 1.2137 -2.0083 0.9730
-6.4141 0.6274 -1.9823 0.9734
-6.3654 0.0512 -1.9579 0.9737
-5.4837 -2.5769 -1.8636 0.9750
-5.1950 -3.0352 -1.8506 0.9751
-4.5225 -3.8691 -1.8306 0.9754
-4.1431 -4.2417 -1.8237 0.9755
-3.3081 -4.8908 -1.8161 0.9756
-2.8568 -5.1648 -1.8154 0.9756
-1.8969 -5.6055 -1.8202 0.9755
-0.3468 -5.9813 -1.8428 0.9752
0.7332 -6.0291 -1.8681 0.9749
1.2796 -5.9892 -1.8837 0.9747
1.8265 -5.9056 -1.9013 0.9745
2.3709 -5.7774 -1.9208 0.9742
2.9096 -5.6041 -1.9422 0.9739
3.9561 -5.1203 -1.9902 0.9733
4.4562 -4.8096 -2.0167 0.9729
4.9357 -4.4531 -2.0447 0.9726
5.8046 -3.5998 -2.1008 0.9718
5.7589 -2.8939 -1.9824 0.9734
6.3711 -1.8784 -2.0430 0.9726
6.6117 -1.3213 -2.0738 0.9722
6.9408 -0.1271 -2.1352 0.9714
7.0214 0.5004 -2.1651 0.9710
7.0414 1.1408 -2.1940 0.9706
6.9983 1.7876 -2.2217 0.9702
6.8902 2.4338 -2.2476 0.9699
6.0946 3.4773 -2.1582 0.9711
4.8856 4.0936 -1.9605 0.9737
4.4196 4.4327 -1.9253 0.9741
3.3631 4.8636 -1.8188 0.9756
2.8671 5.0600 -1.7888 0.9760
1.7312 3.8145 -1.2884 0.9826
1.9494 5.5713 -1.8155 0.9756
0.8319 3.2978 -1.0461 0.9859
0.4802 3.0205 -0.9407 0.9873
0.4318 6.3231 -1.9494 0.9738
-2.0612 6.9152 -2.2194 0.9703
-2.6374 6.6195 -2.1917 0.9706
-3.6719 5.8817 -2.1327 0.9714
-4.5259 4.9865 -2.0713 0.9722
-2.3407 2.1559 -0.9788 0.9868
-5.1829 3.9799 -2.0099 0.9730
-5.8570 3.7161 -2.1335 0.9714
-6.3493 1.9431 -2.0423 0.9726
-6.2968 -0.3838 -1.9403 0.9739
-5.7911 -1.9789 -1.8824 0.9747
-4.9504 -3.3699 -1.8419 0.9752
-4.6058 -3.7793 -1.8325 0.9754
-2.9622 -5.1049 -1.8154 0.9756
-1.5098 -5.7355 -1.8242 0.9755
0.0663 -6.0196 -1.8516 0.9751
1.1540 -6.0022 -1.8800 0.9747
1.7010 -5.9287 -1.8971 0.9745
2.7866 -5.6479 -1.9371 0.9740
3.8387 -5.1852 -1.9844 0.9734
4.3431 -4.8850 -2.0105 0.9730
5.7163 -3.7098 -2.0960 0.9719
2.3000 -0.9636 -0.7670 0.9896
6.3093 -2.0020 -2.0359 0.9727
6.2501 3.3977 -2.1881 0.9707
4.0306 4.6422 -1.8910 0.9746
2.9983 5.0469 -1.8056 0.9757
2.5293 5.2819 -1.8013 0.9758
2.0585 5.5169 -1.8112 0.9757
0.5156 2.8630 -0.8948 0.9879
-0.0048 6.5381 -2.0110 0.9730
-4.0233 5.5530 -2.1092 0.9717
-4.4376 5.0958 -2.0784 0.9721
-5.1177 4.0997 -2.0169 0.9729
-5.7983 3.8482 -2.1405 0.9713
-6.0295 3.2663 -2.1092 0.9717
-6.3284 2.0798 -2.0489 0.9725
-6.2022 -0.8096 -1.9238 0.9742
-6.0423 -1.3465 -1.9041 0.9744
