ply
format ascii 1.0
element vertex 1594
property float32 x
property float32 y
property float32 z
property float32 I
end_header
-3.4630 -9.7365 -1.9424 0.9588
-2.5792 -10.0001 -1.9411 0.9588
-1.6765 -10.1862 -1.9404 0.9589
0.1597 -10.3213 -1.9402 0.9589
1.0799 -10.2694 -1.9409 0.9588
2.8910 -9.9280 -1.9436 0.9588
4.6194 -9.2780 -1.9481 0.9587
5.4365 -8.8422 -1.9510 0.9586
6.9456 -7.7635 -1.9580 0.9585
7.6259 -7.1278 -1.9620 0.9584
8.2495 -6.4336 -1.9664 0.9583
8.8112 -5.6858 -1.9710 0.9582
9.3064 -4.8895 -1.9760 0.9581
9.7307 -4.0506 -1.9811 0.9580
10.0803 -3.1753 -1.9865 0.9579
10.3519 -2.2700 -1.9920 0.9578
10.5426 -1.3415 -1.9976 0.9577
10.6736 0.5558 -2.0089 0.9574
10.6114 1.5097 -2.0146 0.9573
10.2303 3.3893 -2.0257 0.9571
9.9132 4.2994 -2.0310 0.9570
9.5141 5.1793 -2.0361 0.9569
9.0358 6.0214 -2.0409 0.9568
8.4817 6.8184 -2.0455 0.9567
7.1636 8.2490 -2.0535 0.9565
6.4101 8.8697 -2.0570 0.9564
4.3843 9.1415 -1.9056 0.9596
-4.6870 7.6328 -1.8933 0.9640
-5.9485 6.6566 -1.8870 0.9642
-8.0658 5.2112 -2.0298 0.9615
-8.4790 4.4610 -2.0252 0.9616
-8.8222 3.6783 -2.0204 0.9617
-9.0928 2.8699 -2.0155 0.9618
-9.2894 2.0425 -2.0105 0.9619
-9.4567 0.3579 -2.0004 0.9620
-9.4273 -0.4856 -1.9954 0.9621
-9.3232 -1.3211 -1.9904 0.9622
-8.8975 -2.9422 -1.9809 0.9624
-4.7261 -7.9372 -1.9527 0.9629
-3.2349 -8.6345 -1.9491 0.9630
-2.4505 -8.8831 -1.9479 0.9630
-0.8330 -9.1719 -1.9467 0.9630
0.8098 -9.1767 -1.9473 0.9630
2.4300 -8.8971 -1.9496 0.9630
3.9798 -8.3405 -1.9534 0.9629
5.4131 -7.5217 -1.9589 0.9628
6.0723 -7.0205 -1.9621 0.9628
7.7593 -5.1931 -1.9736 0.9625
8.5971 -3.7489 -1.9825 0.9624
8.9184 -2.9744 -1.9873 0.9623
9.1706 -2.1725 -1.9921 0.9622
9.3510 -1.3494 -1.9971 0.9621
9.4579 -0.5114 -2.0021 0.9620
9.4898 0.3349 -2.0072 0.9619
9.4457 1.1828 -2.0122 0.9618
9.3256 2.0255 -2.0172 0.9617
9.1299 2.8559 -2.0221 0.9616
8.8595 3.6673 -2.0268 0.9616
8.5163 4.4528 -2.0314 0.9615
8.1025 5.2056 -2.0357 0.9614
7.6213 5.9193 -2.0398 0.9613
5.1030 8.2629 -2.0529 0.9611
4.3388 8.6710 -2.0495 0.9611
3.2904 8.3678 -1.9006 0.9639
2.5328 8.6338 -1.9019 0.9639
1.7536 8.8294 -1.9028 0.9639
0.1572 9.0026 -1.9033 0.9639
-0.6461 8.9787 -1.9028 0.9639
-2.2283 8.7111 -1.9006 0.9639
-2.9936 8.4700 -1.8989 0.9639
-3.7328 8.1602 -1.8968 0.9640
-4.4398 7.7845 -1.8943 0.9640
-5.1086 7.3465 -1.8915 0.9641
-5.7337 6.8501 -1.8883 0.9641
-6.3135 6.3032 -1.8858 0.9642
-7.3954 6.1697 -2.0358 0.9614
-7.8993 5.4739 -2.0315 0.9615
-8.3372 4.7370 -2.0269 0.9616
-8.7060 3.9653 -2.0222 0.9616
-9.0032 3.1655 -2.0173 0.9617
-9.4488 0.6644 -2.0022 0.9620
-9.4466 -0.1804 -1.9972 0.9621
-9.2186 -1.8465 -1.9873 0.9623
-8.9957 -2.6549 -1.9826 0.9624
-8.3433 -4.1918 -1.9737 0.9625
-7.9196 -4.9089 -1.9696 0.9626
-6.8956 -6.2142 -1.9621 0.9628
-4.2640 -8.1877 -1.9513 0.9630
-3.5137 -8.5276 -1.9496 0.9630
-2.7373 -8.8009 -1.9482 0.9630
-1.9406 -9.0057 -1.9473 0.9630
-1.1295 -9.1405 -1.9468 0.9630
-0.3098 -9.2044 -1.9467 0.9630
0.5123 -9.1970 -1.9471 0.9630
2.9339 -8.7493 -1.9506 0.9630
5.1640 -7.6886 -1.9578 0.9628
5.8383 -7.2089 -1.9609 0.9628
6.4692 -6.6712 -1.9643 0.9627
7.0518 -6.0793 -1.9681 0.9627
8.0534 -4.7498 -1.9763 0.9625
8.4641 -4.0218 -1.9808 0.9624
9.2940 -1.6498 -1.9953 0.9621
9.4278 -0.8165 -2.0003 0.9621
9.4870 0.0276 -2.0054 0.9620
9.4705 0.8757 -2.0104 0.9619
9.2095 2.5568 -2.0203 0.9617
8.6490 4.1715 -2.0298 0.9615
7.8033 5.6655 -2.0384 0.9613
7.2809 6.3509 -2.0423 0.9613
6.6972 6.9872 -2.0458 0.9612
6.0569 7.5685 -2.0491 0.9611
4.6272 8.5446 -2.0540 0.9611
3.5584 8.2544 -1.9000 0.9639
1.2486 8.9164 -1.9031 0.9639
-2.7189 8.5655 -1.8996 0.9639
-4.8710 7.5122 -1.8925 0.9641
-5.5125 7.0365 -1.8895 0.9641
-6.1071 6.5052 -1.8861 0.9642
-7.1833 6.3981 -2.0334 0.9614
-8.1863 5.0085 -2.0286 0.9615
-9.1544 2.6439 -2.0141 0.9618
-9.4561 0.1255 -1.9990 0.9621
-9.4060 -0.7165 -1.9940 0.9622
-9.0847 -2.3644 -1.9843 0.9623
-8.4812 -3.9227 -1.9752 0.9625
-8.0803 -4.6535 -1.9710 0.9626
-7.6178 -5.3448 -1.9671 0.9627
-6.5238 -6.5894 -1.9600 0.9628
-4.5284 -8.0484 -1.9521 0.9629
-1.4248 -9.0998 -1.9469 0.9630
-0.6075 -9.1894 -1.9467 0.9630
2.6483 -8.8368 -1.9500 0.9630
3.4291 -8.5735 -1.9519 0.9630
4.1848 -8.2431 -1.9541 0.9629
4.9098 -7.8475 -1.9567 0.9629
6.8465 -6.2998 -1.9667 0.9627
7.8892 -5.0039 -1.9748 0.9625
8.3226 -4.2900 -1.9792 0.9624
9.2274 -1.9480 -1.9935 0.9622
9.0629 3.0813 -2.0234 0.9616
8.7723 3.8862 -2.0281 0.9615
8.4094 4.6634 -2.0326 0.9614
6.9155 6.7626 -2.0446 0.9612
5.6216 7.9081 -2.0509 0.9611
4.9002 8.3885 -2.0535 0.9611
3.0846 8.4479 -1.9010 0.9639
1.5364 8.8706 -1.9030 0.9639
-0.8663 8.9592 -1.9026 0.9639
-2.4410 8.6518 -1.9002 0.9639
-5.8973 6.7039 -1.8873 0.9642
-6.8066 6.4696 -1.9850 0.9623
-7.5403 5.9828 -2.0346 0.9614
-8.0264 5.2751 -2.0302 0.9615
-9.4557 0.4319 -2.0008 0.9620
-9.4328 -0.4121 -1.9958 0.9621
-8.6106 -3.6491 -1.9768 0.9625
-7.7924 -5.0991 -1.9685 0.9626
-6.7377 -6.3787 -1.9612 0.9628
-5.4808 -7.4515 -1.9553 0.9629
-4.7884 -7.9008 -1.9529 0.9629
-4.0605 -8.2877 -1.9508 0.9630
-2.5200 -8.8641 -1.9479 0.9630
0.7381 -9.1824 -1.9472 0.9630
2.3602 -8.9152 -1.9494 0.9630
3.1487 -8.6768 -1.9511 0.9630
4.6509 -7.9983 -1.9557 0.9629
8.8930 -3.0433 -1.9868 0.9623
9.1513 -2.2436 -1.9917 0.9622
9.4516 -0.5851 -2.0017 0.9620
9.4526 1.1088 -2.0118 0.9618
9.3392 1.9522 -2.0168 0.9617
9.1500 2.7840 -2.0217 0.9617
8.1415 5.1413 -2.0354 0.9614
7.6660 5.8586 -2.0395 0.9613
6.5265 7.1528 -2.0468 0.9612
5.1669 8.2220 -2.0526 0.9611
1.0293 8.9448 -1.9032 0.9639
-2.1604 8.7289 -1.9008 0.9639
-2.9276 8.4939 -1.8991 0.9639
-3.6694 8.1900 -1.8970 0.9640
-4.3794 7.8199 -1.8945 0.9640
-6.2618 6.3499 -1.8851 0.9642
-8.3016 4.8029 -2.0273 0.9615
-8.6766 4.0340 -2.0226 0.9616
-8.9801 3.2364 -2.0177 0.9617
-9.3792 -0.9466 -1.9926 0.9622
-9.2347 -1.7749 -1.9878 0.9623
-8.7313 -3.3712 -1.9784 0.9625
-7.9591 -4.8478 -1.9699 0.9626
-7.4803 -5.5273 -1.9660 0.9627
-6.3572 -6.7447 -1.9592 0.9628
-5.7219 -7.2739 -1.9563 0.9629
-4.3282 -8.1548 -1.9515 0.9630
-2.8061 -8.7797 -1.9483 0.9630
-1.2008 -9.1315 -1.9468 0.9630
-0.3817 -9.2016 -1.9467 0.9630
0.4405 -9.2005 -1.9470 0.9630
1.2597 -9.1280 -1.9478 0.9630
4.3875 -8.1407 -1.9548 0.9629
5.1031 -7.7277 -1.9575 0.9628
6.4159 -6.7204 -1.9640 0.9627
7.5372 -5.4953 -1.9717 0.9626
8.0145 -4.8116 -1.9760 0.9625
9.2788 -1.7220 -1.9949 0.9622
9.4191 -0.8899 -1.9999 0.9621
9.4848 -0.0465 -2.0049 0.9620
9.2273 2.4842 -2.0199 0.9617
8.9903 3.3051 -2.0247 0.9616
8.6796 4.1030 -2.0294 0.9615
8.2972 4.8714 -2.0338 0.9614
7.8459 5.6034 -2.0380 0.9613
6.7506 6.9336 -2.0455 0.9612
5.4277 8.0467 -2.0517 0.9611
4.6942 8.5090 -2.0542 0.9610
2.8768 8.5227 -1.9014 0.9639
2.1064 8.7503 -1.9025 0.9639
0.5187 8.9893 -1.9033 0.9639
-1.0859 8.9341 -1.9024 0.9639
-1.8773 8.7965 -1.9013 0.9639
-2.6521 8.5872 -1.8998 0.9639
-4.8128 7.5510 -1.8928 0.9641
-6.0571 6.5537 -1.8864 0.9642
-7.1300 6.4513 -2.0325 0.9615
-7.6805 5.7924 -2.0334 0.9614
-8.5488 4.3164 -2.0243 0.9616
-9.3179 1.8857 -2.0096 0.9619
-9.4569 0.1994 -1.9994 0.9621
-9.4134 -0.6431 -1.9944 0.9622
-9.1048 -2.2939 -1.9847 0.9623
-8.8432 -3.0894 -1.9801 0.9624
-8.5132 -3.8571 -1.9756 0.9625
-8.1179 -4.5911 -1.9714 0.9626
-7.1453 -5.9370 -1.9637 0.9627
-6.5760 -6.5392 -1.9603 0.9628
-5.9574 -7.0886 -1.9573 0.9629
-5.2942 -7.5812 -1.9546 0.9629
-0.6793 -9.1844 -1.9467 0.9630
0.1425 -9.2091 -1.9469 0.9630
3.3617 -8.5993 -1.9517 0.9630
6.1910 -6.9201 -1.9627 0.9627
8.9711 -2.8259 -1.9882 0.9623
9.4873 0.4940 -2.0081 0.9619
9.2947 2.1824 -2.0181 0.9617
9.0848 3.0098 -2.0230 0.9616
8.0173 5.3427 -2.0365 0.9614
7.5238 6.0483 -2.0405 0.9613
6.9671 6.7074 -2.0443 0.9612
4.1494 8.6516 -2.0282 0.9615
-4.2054 6.8486 -1.8888 0.9675
-4.7926 6.4372 -1.8861 0.9676
-5.3511 5.9880 -1.8874 0.9675
-6.3153 5.9095 -2.0327 0.9651
-6.8112 5.3181 -2.0309 0.9651
-7.2442 4.6803 -2.0270 0.9652
-7.9272 3.3052 -2.0185 0.9653
-8.1724 2.5794 -2.0141 0.9654
-8.3512 1.8362 -2.0096 0.9655
-8.4625 1.0817 -2.0051 0.9656
-7.7269 -3.3460 -1.9789 0.9660
-6.9830 -4.6477 -1.9715 0.9661
-6.0264 -5.7952 -1.9650 0.9662
-5.4777 -6.3005 -1.9621 0.9663
-4.8878 -6.7553 -1.9597 0.9663
-4.2612 -7.1563 -1.9575 0.9664
-2.9172 -7.7865 -1.9542 0.9664
-0.7513 -8.2720 -1.9521 0.9664
2.9003 -7.8020 -1.9563 0.9664
3.5881 -7.5197 -1.9582 0.9663
6.0246 -5.8231 -1.9692 0.9662
6.5313 -5.2719 -1.9727 0.9661
7.3925 -4.0434 -1.9803 0.9660
7.7397 -3.3750 -1.9844 0.9659
8.0271 -2.6771 -1.9887 0.9658
8.2520 -1.9549 -1.9931 0.9658
8.4123 -1.2140 -1.9976 0.9657
8.4910 1.0633 -2.0112 0.9654
8.2030 2.5660 -2.0200 0.9653
7.9582 3.2942 -2.0243 0.9652
7.6482 3.9989 -2.0284 0.9652
6.8415 5.3136 -2.0359 0.9650
6.3509 5.9124 -2.0393 0.9650
4.5779 7.4126 -2.0476 0.9648
3.9018 7.7977 -2.0493 0.9648
2.2715 7.7432 -1.8965 0.9674
1.5726 7.9182 -1.8973 0.9674
0.8604 8.0286 -1.8977 0.9674
0.1410 8.0733 -1.8977 0.9674
-0.5794 8.0521 -1.8973 0.9674
-1.2946 7.9650 -1.8965 0.9674
-3.3487 7.3205 -1.8919 0.9675
-3.9835 6.9844 -1.8897 0.9675
-5.1461 6.1480 -1.8843 0.9676
-6.1115 6.1015 -2.0296 0.9651
-7.0940 4.9159 -2.0284 0.9652
-7.4890 4.2551 -2.0244 0.9652
-7.8222 3.5628 -2.0201 0.9653
-8.0912 2.8448 -2.0157 0.9654
-8.2942 2.1072 -2.0112 0.9654
-8.4300 1.3561 -2.0067 0.9655
-8.0985 -2.3902 -1.9845 0.9659
-7.5145 -3.7754 -1.9765 0.9660
-6.6998 -5.0319 -1.9693 0.9662
-6.2142 -5.6002 -1.9661 0.9662
-5.6816 -6.1230 -1.9631 0.9663
-4.4923 -7.0174 -1.9582 0.9663
-3.8448 -7.3827 -1.9563 0.9664
-3.1685 -7.6899 -1.9547 0.9664
-2.4686 -7.9369 -1.9535 0.9664
-1.7502 -8.1219 -1.9527 0.9664
-1.0187 -8.2437 -1.9522 0.9664
0.4621 -8.2945 -1.9524 0.9664
2.6455 -7.8893 -1.9556 0.9664
3.3416 -7.6290 -1.9575 0.9664
4.6547 -6.9305 -1.9621 0.9663
5.8294 -6.0114 -1.9680 0.9662
6.8288 -4.8976 -1.9750 0.9661
7.2525 -4.2774 -1.9789 0.9660
7.6206 -3.6210 -1.9829 0.9659
7.9300 -2.9332 -1.9871 0.9659
8.3618 -1.4843 -1.9959 0.9657
8.4800 -0.7344 -2.0004 0.9656
8.5310 0.0248 -2.0050 0.9656
8.2753 2.2974 -2.0185 0.9653
8.0546 3.0327 -2.0228 0.9653
7.7680 3.7466 -2.0269 0.9652
7.4174 4.4330 -2.0309 0.9651
4.1515 7.6662 -2.0490 0.9648
2.5204 7.6641 -1.8961 0.9674
1.8278 7.8622 -1.8971 0.9674
1.1197 7.9961 -1.8976 0.9674
-0.3186 8.0674 -1.8975 0.9674
-1.0364 8.0042 -1.8969 0.9674
-2.4387 7.6829 -1.8944 0.9674
-5.7028 6.0745 -1.9582 0.9663
-6.9361 5.1465 -2.0299 0.9651
-7.3528 4.4985 -2.0259 0.9652
-8.0012 3.1076 -2.0173 0.9653
-8.2283 2.3765 -2.0129 0.9654
-8.3886 1.6296 -2.0084 0.9655
-8.4812 0.8730 -2.0038 0.9656
-8.3533 -1.3937 -1.9904 0.9658
-6.8634 -4.8155 -1.9705 0.9661
-5.8799 -5.9390 -1.9642 0.9662
-5.3194 -6.4308 -1.9614 0.9663
-4.7189 -6.8711 -1.9590 0.9663
-4.0831 -7.2568 -1.9570 0.9664
-3.4166 -7.5854 -1.9552 0.9664
-2.0124 -8.0621 -1.9529 0.9664
0.1934 -8.3045 -1.9523 0.9664
0.9335 -8.2565 -1.9528 0.9664
1.6668 -8.1443 -1.9538 0.9664
5.0461 -6.6604 -1.9639 0.9662
5.6285 -6.1932 -1.9669 0.9662
7.4938 -3.8628 -1.9814 0.9660
7.8248 -3.1858 -1.9856 0.9659
8.0953 -2.4807 -1.9899 0.9658
8.4675 1.2723 -2.0124 0.9654
8.1423 2.7683 -2.0212 0.9653
6.2065 6.0692 -2.0402 0.9650
5.0436 7.0950 -2.0459 0.9649
4.3958 7.5250 -2.0482 0.9648
1.3778 7.9551 -1.8975 0.9674
0.6630 8.0475 -1.8977 0.9674
-0.7769 8.0347 -1.8971 0.9674
-2.1894 7.7601 -1.8950 0.9674
-2.8702 7.5274 -1.8934 0.9674
-3.5264 7.2338 -1.8914 0.9675
-4.1523 6.8820 -1.8890 0.9675
-4.7428 6.4752 -1.8864 0.9676
-5.2932 6.0171 -1.8835 0.9676
-6.2667 5.9564 -2.0320 0.9651
-6.7706 5.3720 -2.0313 0.9651
-7.2087 4.7376 -2.0273 0.9652
-8.1536 2.6436 -2.0145 0.9654
-8.4555 1.1480 -2.0055 0.9655
-8.5049 0.3884 -2.0009 0.9656
-8.4864 -0.3707 -1.9964 0.9657
-8.4007 -1.1235 -1.9919 0.9658
-8.0327 -2.5868 -1.9834 0.9659
-7.4156 -3.9567 -1.9754 0.9661
-7.0202 -4.5938 -1.9718 0.9661
-6.5712 -5.1926 -1.9684 0.9662
-4.3173 -7.1235 -1.9577 0.9664
-1.5500 -8.1618 -1.9525 0.9664
-0.0755 -8.3059 -1.9522 0.9664
1.4021 -8.1923 -1.9534 0.9664
2.1284 -8.0395 -1.9546 0.9664
2.8391 -7.8238 -1.9561 0.9664
3.5290 -7.5468 -1.9580 0.9663
4.1927 -7.2103 -1.9603 0.9663
4.8254 -6.8166 -1.9628 0.9663
6.4890 -5.3219 -1.9724 0.9661
7.3594 -4.1003 -1.9800 0.9660
8.4009 -1.2793 -1.9972 0.9657
8.5007 -0.5263 -2.0017 0.9656
8.5331 0.2345 -2.0062 0.9655
8.2213 2.5014 -2.0196 0.9653
6.8817 5.2593 -2.0356 0.9650
6.3960 5.8618 -2.0390 0.9650
5.8567 6.4187 -2.0421 0.9649
4.6352 7.3760 -2.0474 0.9648
3.0925 7.6877 -1.9475 0.9665
2.3318 7.7249 -1.8964 0.9674
1.6344 7.9055 -1.8973 0.9674
0.9231 8.0215 -1.8977 0.9674
-0.5165 8.0566 -1.8974 0.9674
-1.2325 7.9753 -1.8966 0.9674
-2.6260 7.6189 -1.8940 0.9674
-3.2917 7.3471 -1.8921 0.9675
-3.9292 7.0161 -1.8899 0.9675
-4.5332 6.6288 -1.8874 0.9675
-5.0986 6.1889 -1.8846 0.9676
-6.0615 6.1468 -2.0289 0.9651
-6.5976 5.5921 -2.0327 0.9651
-7.0566 4.9720 -2.0288 0.9652
-7.7956 3.6244 -2.0205 0.9653
-8.2791 2.1724 -2.0116 0.9654
-8.4208 1.4222 -2.0071 0.9655
-8.4948 0.6640 -2.0026 0.9656
-8.5009 -0.0959 -1.9980 0.9657
-7.8622 -3.0357 -1.9807 0.9660
-7.5451 -3.7173 -1.9768 0.9660
-7.1699 -4.3671 -1.9731 0.9661
-6.2586 -5.5523 -1.9663 0.9662
-5.7300 -6.0792 -1.9634 0.9663
-5.1580 -6.5571 -1.9607 0.9663
-4.5474 -6.9827 -1.9584 0.9663
-3.9026 -7.3530 -1.9564 0.9664
-3.2286 -7.6654 -1.9548 0.9664
-2.5306 -7.9177 -1.9536 0.9664
-1.0830 -8.2356 -1.9522 0.9664
1.1361 -8.2320 -1.9531 0.9664
1.8667 -8.1022 -1.9541 0.9664
2.5836 -7.9092 -1.9555 0.9664
3.2817 -7.6542 -1.9573 0.9664
3.9555 -7.3390 -1.9594 0.9663
5.7815 -6.0559 -1.9677 0.9662
6.7892 -4.9499 -1.9747 0.9661
7.9053 -2.9945 -1.9868 0.9659
8.1587 -2.2825 -1.9911 0.9658
8.4723 -0.8004 -2.0000 0.9656
8.5183 0.7206 -2.0091 0.9655
8.0766 2.9692 -2.0224 0.9653
7.0438 5.0306 -2.0343 0.9651
6.5785 5.6484 -2.0378 0.9650
6.0581 6.2224 -2.0410 0.9649
5.4869 6.7475 -2.0440 0.9649
4.8695 7.2191 -2.0466 0.9649
4.2108 7.6329 -2.0488 0.9648
3.5044 7.9575 -2.0435 0.9649
1.8891 7.8474 -1.8970 0.9674
0.4652 8.0614 -1.8978 0.9674
-0.2556 8.0698 -1.8975 0.9674
-0.9739 8.0123 -1.8969 0.9674
-1.6837 7.8894 -1.8959 0.9674
-2.3788 7.7023 -1.8946 0.9674
-3.0534 7.4526 -1.8928 0.9674
-5.5870 6.0451 -1.9346 0.9667
-7.3188 4.5566 -2.0262 0.9652
-7.9782 3.1706 -2.0177 0.9653
-8.4759 0.9394 -2.0042 0.9656
-8.4695 -0.5787 -1.9952 0.9657
-8.3655 -1.3287 -1.9907 0.9658
-8.1959 -2.0649 -1.9864 0.9659
-7.9622 -2.7817 -1.9822 0.9659
-7.3124 -4.1355 -1.9744 0.9661
-6.9019 -4.7625 -1.9708 0.9661
-5.3701 -6.3897 -1.9617 0.9663
-4.7729 -6.8347 -1.9592 0.9663
-4.1399 -7.2254 -1.9571 0.9664
-3.4760 -7.5590 -1.9554 0.9664
-2.7861 -7.8333 -1.9540 0.9664
0.8689 -8.2633 -1.9528 0.9664
1.6031 -8.1566 -1.9537 0.9664
3.0312 -7.7537 -1.9566 0.9664
4.3700 -7.1076 -1.9609 0.9663
4.9933 -6.6987 -1.9636 0.9663
6.1232 -5.7232 -1.9698 0.9661
6.6210 -5.1636 -1.9734 0.9661
7.0685 -4.5612 -1.9771 0.9660
7.7983 -3.2462 -1.9852 0.9659
8.4756 1.2059 -2.0120 0.9654
8.3527 1.9612 -2.0165 0.9654
7.5829 4.1280 -2.0291 0.9651
7.1982 4.7968 -2.0330 0.9651
6.7537 5.4293 -2.0366 0.9650
5.0983 7.0546 -2.0457 0.9649
4.4540 7.4898 -2.0480 0.9648
3.7670 7.8545 -2.0473 0.9648
2.8254 7.5545 -1.8956 0.9674
-3.8099 6.2044 -1.8851 0.9704
-4.3424 5.8324 -1.8827 0.9704
-5.2199 5.8412 -2.0283 0.9682
-6.9074 3.6341 -2.0209 0.9683
-7.1901 2.9978 -2.0170 0.9683
-7.4140 2.3400 -2.0130 0.9684
-7.5778 1.6661 -2.0089 0.9684
-7.6194 -1.0796 -1.9925 0.9687
-7.4779 -1.7513 -1.9885 0.9688
-7.0211 -3.0404 -1.9810 0.9689
-6.7101 -3.6479 -1.9775 0.9689
-6.3474 -4.2247 -1.9742 0.9690
-5.9361 -4.7665 -1.9711 0.9690
-5.4795 -5.2693 -1.9683 0.9691
-3.8758 -6.5092 -1.9615 0.9692
-3.2772 -6.8231 -1.9598 0.9692
-2.0105 -7.2882 -1.9575 0.9692
-1.3521 -7.4360 -1.9569 0.9693
1.3338 -7.4430 -1.9578 0.9692
2.6382 -7.0969 -1.9604 0.9692
3.2635 -6.8395 -1.9621 0.9692
4.4367 -6.1649 -1.9666 0.9691
5.4768 -5.2936 -1.9722 0.9690
5.9365 -4.7918 -1.9753 0.9690
6.3510 -4.2506 -1.9787 0.9689
7.0310 -3.0660 -1.9860 0.9688
7.2906 -2.4315 -1.9899 0.9687
7.4934 -1.7752 -1.9939 0.9687
7.6374 -1.1021 -1.9979 0.9686
7.7435 0.2733 -2.0062 0.9685
7.7040 0.9647 -2.0103 0.9684
7.4397 2.3272 -2.0183 0.9683
7.2163 2.9871 -2.0222 0.9682
6.9338 3.6254 -2.0259 0.9682
6.2003 4.8157 -2.0327 0.9681
5.7548 5.3575 -2.0358 0.9680
4.7238 6.3110 -2.0411 0.9680
3.5346 7.0638 -2.0451 0.9679
2.8850 7.3367 -2.0412 0.9680
2.0571 7.0121 -1.8921 0.9703
1.4241 7.1704 -1.8928 0.9702
0.7791 7.2702 -1.8932 0.9702
-0.5247 7.2916 -1.8928 0.9702
-1.1724 7.2130 -1.8921 0.9703
-1.8100 7.0758 -1.8910 0.9703
-2.4320 6.8812 -1.8897 0.9703
-3.0332 6.6309 -1.8879 0.9703
-3.6086 6.3271 -1.8859 0.9704
-5.5560 5.5470 -2.0328 0.9681
-6.4314 4.4567 -2.0259 0.9682
-6.7908 3.8583 -2.0222 0.9682
-7.5254 1.9119 -2.0104 0.9684
-7.7154 -0.1473 -1.9980 0.9686
-7.6559 -0.8331 -1.9940 0.9687
-7.5360 -1.5095 -1.9900 0.9687
-7.3570 -2.1713 -1.9861 0.9688
-7.1206 -2.8134 -1.9823 0.9689
-6.8290 -3.4310 -1.9788 0.9689
-6.0906 -4.5744 -1.9722 0.9690
-4.6437 -5.9991 -1.9642 0.9691
-3.4973 -6.7154 -1.9604 0.9692
-2.8823 -6.9954 -1.9590 0.9692
-2.2457 -7.2205 -1.9578 0.9692
-1.5922 -7.3891 -1.9571 0.9693
-0.9268 -7.5000 -1.9567 0.9693
1.0920 -7.4811 -1.9575 0.9692
1.7557 -7.3576 -1.9585 0.9692
2.4065 -7.1765 -1.9598 0.9692
3.0394 -6.9391 -1.9615 0.9692
3.6498 -6.6471 -1.9634 0.9692
5.2997 -5.4651 -1.9711 0.9690
5.7749 -4.9785 -1.9741 0.9690
6.5901 -3.8867 -1.9810 0.9689
6.9233 -3.2897 -1.9846 0.9688
7.2030 -2.6643 -1.9885 0.9688
7.4266 -2.0153 -1.9924 0.9687
7.5921 -1.3477 -1.9965 0.9686
7.6978 -0.6667 -2.0006 0.9686
7.7255 0.7144 -2.0088 0.9685
7.6465 1.4033 -2.0129 0.9684
7.0429 3.3969 -2.0246 0.9682
6.7238 4.0185 -2.0281 0.9682
5.9220 5.1657 -2.0347 0.9681
5.4455 5.6813 -2.0376 0.9680
4.9235 6.1522 -2.0402 0.9680
2.3526 7.1537 -1.9498 0.9694
1.6552 7.1197 -1.8926 0.9702
1.0140 7.2408 -1.8931 0.9702
0.3642 7.3029 -1.8932 0.9702
-0.9385 7.2484 -1.8924 0.9703
-1.5804 7.1323 -1.8915 0.9703
-3.4033 6.4432 -1.8867 0.9703
-3.9597 6.1069 -1.8845 0.9704
-4.5467 5.8036 -1.9089 0.9700
-6.9909 3.4615 -2.0198 0.9683
-7.6978 0.7923 -2.0036 0.9685
-6.9409 -3.2103 -1.9800 0.9689
-3.7139 -6.6008 -1.9610 0.9692
-1.8308 -7.3346 -1.9573 0.9692
-1.1691 -7.4665 -1.9568 0.9693
-0.4985 -7.5403 -1.9566 0.9693
0.8492 -7.5115 -1.9572 0.9692
2.8124 -7.0316 -1.9608 0.9692
4.0250 -6.4333 -1.9648 0.9691
4.5884 -6.0563 -1.9673 0.9691
6.0552 -4.6467 -1.9762 0.9690
6.4567 -4.0953 -1.9797 0.9689
6.8086 -3.5096 -1.9833 0.9688
7.1080 -2.8939 -1.9871 0.9688
7.3522 -2.2530 -1.9910 0.9687
7.7334 -0.2279 -2.0032 0.9685
7.3842 2.5106 -2.0194 0.9683
6.8460 3.7964 -2.0269 0.9682
6.4913 4.3993 -2.0303 0.9681
5.6237 5.4994 -2.0366 0.9680
3.9816 6.8160 -2.0438 0.9679
3.3608 7.1501 -2.0456 0.9679
2.6885 7.3630 -2.0295 0.9681
1.8845 7.0614 -1.8923 0.9703
1.2477 7.2037 -1.8929 0.9702
0.6004 7.2872 -1.8932 0.9702
-0.0519 7.3114 -1.8931 0.9702
-0.7036 7.2759 -1.8926 0.9702
-1.3490 7.1811 -1.8918 0.9703
-3.7617 6.2346 -1.8853 0.9704
-4.2972 5.8669 -1.8829 0.9704
-6.5357 4.2953 -2.0249 0.9682
-7.1677 3.0544 -2.0173 0.9683
-7.5659 1.7256 -2.0092 0.9684
-7.6738 1.0418 -2.0051 0.9685
-7.7203 0.3526 -2.0010 0.9686
-7.7051 -0.3366 -1.9969 0.9686
-7.4926 -1.6932 -1.9889 0.9688
-7.2976 -2.3501 -1.9850 0.9688
-5.5212 -5.2270 -1.9685 0.9691
-5.0264 -5.6910 -1.9659 0.9691
-3.3306 -6.7978 -1.9600 0.9692
-2.7092 -7.0628 -1.9586 0.9692
-2.0675 -7.2725 -1.9576 0.9692
-1.4102 -7.4254 -1.9569 0.9693
-0.0687 -7.5567 -1.9566 0.9693
0.6056 -7.5341 -1.9570 0.9693
1.9362 -7.3135 -1.9588 0.9692
2.5825 -7.1168 -1.9602 0.9692
3.2097 -6.8642 -1.9620 0.9692
4.9298 -5.7904 -1.9690 0.9691
5.8981 -4.8373 -1.9750 0.9690
6.6869 -3.7256 -1.9820 0.9689
7.2702 -2.4879 -1.9895 0.9687
7.6272 -1.1615 -1.9976 0.9686
7.7162 -0.4777 -2.0017 0.9686
7.7440 0.2128 -2.0058 0.9685
7.7100 0.9044 -2.0099 0.9684
7.2382 2.9302 -2.0218 0.9682
6.2369 4.7665 -2.0324 0.9681
5.7958 5.3117 -2.0355 0.9680
4.7725 6.2733 -2.0409 0.9680
4.1986 6.6812 -2.0431 0.9679
3.5894 7.0355 -2.0450 0.9679
2.9433 7.3167 -2.0420 0.9679
-0.4678 7.2956 -1.8929 0.9702
-1.1161 7.2223 -1.8922 0.9703
-1.7548 7.0901 -1.8912 0.9703
-2.3784 6.9004 -1.8898 0.9703
-2.9816 6.6549 -1.8881 0.9703
-4.1071 6.0057 -1.8838 0.9704
-4.8184 5.8487 -1.9620 0.9692
-5.9802 5.0688 -2.0298 0.9681
-6.3974 4.5075 -2.0263 0.9682
-7.3206 2.6383 -2.0148 0.9684
-7.5116 1.9710 -2.0107 0.9684
-7.6418 1.2906 -2.0066 0.9685
-7.3750 -2.1141 -1.9864 0.9688
-7.1435 -2.7582 -1.9827 0.9689
-6.1270 -4.5273 -1.9725 0.9690
-5.6903 -5.0481 -1.9695 0.9691
-5.2104 -5.5279 -1.9669 0.9691
-4.6909 -5.9633 -1.9644 0.9691
-4.1360 -6.3510 -1.9623 0.9692
-3.5498 -6.6884 -1.9605 0.9692
-1.6499 -7.3766 -1.9571 0.9693
0.3615 -7.5491 -1.9568 0.9693
1.0335 -7.4891 -1.9574 0.9692
1.6981 -7.3707 -1.9584 0.9692
2.3502 -7.1946 -1.9597 0.9692
3.5974 -6.6748 -1.9632 0.9692
4.7375 -5.9439 -1.9680 0.9691
6.8963 -3.3431 -1.9843 0.9688
7.4093 -2.0729 -1.9921 0.9687
7.6910 -0.7266 -2.0002 0.9686
7.7411 -0.0379 -2.0043 0.9685
7.6559 1.3433 -2.0125 0.9684
7.5206 2.0247 -2.0165 0.9683
7.3242 2.6926 -2.0205 0.9683
6.3842 4.5595 -2.0312 0.9681
5.9614 5.1186 -2.0344 0.9681
4.9709 6.1129 -2.0400 0.9680
3.1835 7.2288 -2.0451 0.9679
1.7107 7.1063 -1.8925 0.9703
0.4212 7.2998 -1.8932 0.9702
-0.2314 7.3076 -1.8930 0.9702
-0.8819 7.2557 -1.8925 0.9703
-2.1544 6.9758 -1.8903 0.9703
-3.3532 6.4702 -1.8869 0.9703
-3.9124 6.1383 -1.8847 0.9704
-4.4633 5.7897 -1.8928 0.9702
-6.6358 4.1315 -2.0239 0.9682
-6.9648 3.5166 -2.0201 0.9683
-7.2366 2.8759 -2.0162 0.9683
-7.4493 2.2147 -2.0122 0.9684
-7.6017 1.5384 -2.0081 0.9685
-7.6928 0.8526 -2.0040 0.9685
-7.6902 -0.5254 -1.9958 0.9687
-7.5973 -1.2067 -1.9917 0.9687
-7.2339 -2.5272 -1.9840 0.9688
-5.3891 -5.3590 -1.9678 0.9691
-4.8835 -5.8108 -1.9653 0.9691
-3.7656 -6.5721 -1.9612 0.9692
-3.1620 -6.8761 -1.9596 0.9692
-1.8880 -7.3203 -1.9574 0.9692
0.1170 -7.5563 -1.9567 0.9693
0.7905 -7.5176 -1.9572 0.9692
1.4584 -7.4203 -1.9580 0.9692
2.7572 -7.0528 -1.9607 0.9692
3.3783 -6.7851 -1.9625 0.9692
4.5404 -6.0912 -1.9671 0.9691
5.0725 -5.6698 -1.9698 0.9691
5.5663 -5.2027 -1.9727 0.9690
6.7799 -3.5621 -1.9830 0.9689
7.6577 -0.9744 -1.9987 0.9686
7.5767 1.7790 -2.0151 0.9684
7.4024 2.4524 -2.0191 0.9683
7.1677 3.1087 -2.0229 0.9682
6.8744 3.7423 -2.0266 0.9682
6.1206 4.9203 -2.0333 0.9681
5.1638 5.9461 -2.0391 0.9680
2.7595 7.3782 -2.0396 0.9680
-4.7826 5.3519 -2.0319 0.9706
-5.6407 4.4042 -2.0259 0.9707
-6.0012 3.8773 -2.0226 0.9707
-6.5718 2.7400 -2.0157 0.9708
-7.0236 0.8978 -2.0045 0.9710
-7.0448 -0.3629 -1.9970 0.9711
-6.9714 -0.9878 -1.9933 0.9712
-6.4272 -2.7832 -1.9828 0.9713
-6.1434 -3.3399 -1.9796 0.9713
-5.0187 -4.8262 -1.9711 0.9715
-4.5629 -5.2483 -1.9688 0.9715
-3.5509 -5.9636 -1.9649 0.9716
-3.0027 -6.2516 -1.9633 0.9716
-2.4317 -6.4905 -1.9621 0.9716
-1.8423 -6.6784 -1.9612 0.9716
-0.6264 -6.8964 -1.9604 0.9716
0.6089 -6.8995 -1.9608 0.9716
1.2222 -6.8202 -1.9615 0.9716
1.8265 -6.6875 -1.9625 0.9716
2.4172 -6.5023 -1.9638 0.9716
2.9899 -6.2660 -1.9655 0.9716
3.5402 -5.9802 -1.9674 0.9715
4.5569 -5.2685 -1.9720 0.9715
5.0154 -4.8477 -1.9747 0.9714
5.4357 -4.3876 -1.9775 0.9714
6.1484 -3.3629 -1.9839 0.9713
6.8558 -1.6242 -1.9945 0.9711
7.0809 0.2499 -2.0058 0.9710
6.5943 2.7297 -2.0204 0.9708
6.3352 3.3124 -2.0238 0.9707
5.2558 4.8929 -2.0328 0.9706
4.3132 5.7624 -2.0377 0.9705
3.7858 6.1301 -2.0397 0.9705
3.2268 6.4486 -2.0414 0.9705
1.3066 6.5786 -1.8987 0.9725
0.1165 6.6729 -1.8894 0.9726
-1.0702 6.5841 -1.8884 0.9727
-1.6523 6.4592 -1.8874 0.9727
-2.7693 6.0539 -1.8846 0.9727
-3.2949 5.7771 -1.8828 0.9727
-5.0748 5.0666 -2.0301 0.9706
-5.4983 4.5870 -2.0271 0.9707
-6.2055 3.5258 -2.0205 0.9708
-6.4838 2.9532 -2.0170 0.9708
-6.8802 1.7480 -2.0096 0.9709
-7.0044 -0.7622 -1.9946 0.9711
-6.7332 -1.9872 -1.9874 0.9712
-5.9376 -3.6804 -1.9776 0.9714
-5.5775 -4.1890 -1.9747 0.9714
-5.1747 -4.6634 -1.9720 0.9715
-4.7323 -5.1000 -1.9696 0.9715
-4.2539 -5.4956 -1.9674 0.9715
-3.2043 -6.1528 -1.9639 0.9716
-2.0578 -6.6162 -1.9615 0.9716
-1.4591 -6.7710 -1.9608 0.9716
-0.8493 -6.8728 -1.9604 0.9716
-0.2330 -6.9209 -1.9604 0.9716
1.0007 -6.8552 -1.9612 0.9716
2.7846 -6.3575 -1.9648 0.9716
3.8774 -5.7731 -1.9687 0.9715
4.8534 -5.0050 -1.9737 0.9714
5.2880 -4.5587 -1.9765 0.9714
6.3367 -3.0109 -1.9861 0.9713
6.5916 -2.4381 -1.9896 0.9712
6.9453 -1.2329 -1.9969 0.9711
7.0408 -0.6098 -2.0007 0.9710
6.9902 1.2829 -2.0119 0.9709
6.4352 3.1038 -2.0226 0.9707
6.1427 3.6712 -2.0259 0.9707
5.7997 4.2108 -2.0290 0.9706
4.4957 5.6176 -2.0369 0.9705
3.4328 6.3391 -2.0408 0.9705
2.8559 6.6248 -2.0423 0.9705
2.2500 6.8418 -2.0389 0.9705
1.5550 6.6887 -1.9440 0.9719
0.9255 6.6092 -1.8893 0.9726
-2.0163 6.3521 -1.8867 0.9727
-2.5727 6.1423 -1.8852 0.9727
-3.1074 5.8829 -1.8835 0.9727
-4.9107 5.2308 -2.0311 0.9706
-5.3499 4.7651 -2.0282 0.9707
-6.8247 1.9711 -2.0110 0.9709
-7.0399 0.7246 -2.0035 0.9710
-6.6019 -2.3645 -1.9852 0.9713
-5.3255 -4.4957 -1.9730 0.9714
-4.8971 -4.9463 -1.9704 0.9715
-4.4313 -5.3571 -1.9682 0.9715
-3.4027 -6.0476 -1.9644 0.9716
-2.2712 -6.5473 -1.9618 0.9716
-1.6776 -6.7210 -1.9610 0.9716
0.1612 -6.9234 -1.9605 0.9716
0.7782 -6.8831 -1.9610 0.9716
1.3895 -6.7890 -1.9617 0.9716
2.5767 -6.4424 -1.9642 0.9716
3.1437 -6.1923 -1.9659 0.9715
4.2027 -5.5472 -1.9702 0.9715
4.6866 -5.1569 -1.9727 0.9714
5.5441 -4.2545 -1.9784 0.9714
5.9108 -3.7491 -1.9815 0.9713
6.5050 -2.6485 -1.9883 0.9712
7.0726 -0.2084 -2.0031 0.9710
7.0763 0.4239 -2.0068 0.9710
7.0234 1.0553 -2.0106 0.9709
6.9139 1.6805 -2.0143 0.9709
6.7486 2.2945 -2.0179 0.9708
6.5283 2.8921 -2.0214 0.9708
5.1359 5.0223 -2.0335 0.9706
3.6350 6.2227 -2.0402 0.9705
1.8210 6.8237 -1.9994 0.9711
0.5480 6.6515 -1.8894 0.9726
-0.0474 6.6736 -1.8893 0.9726
-0.6422 6.6413 -1.8889 0.9726
-2.3733 6.2242 -1.8858 0.9727
-3.4348 5.6928 -1.8822 0.9727
-4.1962 5.7289 -2.0103 0.9709
-5.1957 4.9384 -2.0293 0.9706
-6.2872 3.3707 -2.0195 0.9708
-6.5512 2.7917 -2.0160 0.9708
-6.7618 2.1924 -2.0123 0.9709
-6.8565 -1.5494 -1.9900 0.9712
-5.0568 -4.7874 -1.9713 0.9715
-4.6042 -5.2130 -1.9690 0.9715
-4.1166 -5.5968 -1.9668 0.9715
-3.5977 -5.9361 -1.9650 0.9716
-3.0516 -6.2284 -1.9635 0.9716
-1.8945 -6.6640 -1.9613 0.9716
-1.2922 -6.8043 -1.9607 0.9716
-0.0629 -6.9247 -1.9604 0.9716
0.5550 -6.9039 -1.9608 0.9716
1.1688 -6.8293 -1.9614 0.9716
1.7741 -6.7012 -1.9624 0.9716
2.3662 -6.5206 -1.9637 0.9716
2.9406 -6.2887 -1.9653 0.9716
3.4931 -6.0071 -1.9672 0.9715
4.0193 -5.6779 -1.9693 0.9715
4.9768 -4.8861 -1.9744 0.9714
6.4118 -2.8558 -1.9870 0.9712
6.6528 -2.2766 -1.9906 0.9712
7.0815 0.1946 -2.0055 0.9710
7.0491 0.8269 -2.0092 0.9709
6.9601 1.4549 -2.0129 0.9709
5.2932 4.8511 -2.0326 0.9706
2.6928 6.6941 -2.0426 0.9704
2.0794 6.8886 -2.0370 0.9705
1.3655 6.6047 -1.9093 0.9724
0.7629 6.6301 -1.8893 0.9726
0.1686 6.6719 -1.8894 0.9726
-1.0188 6.5925 -1.8885 0.9726
-1.6019 6.4722 -1.8875 0.9727
-2.1712 6.2994 -1.8863 0.9727
-3.9013 5.7049 -1.9565 0.9717
-4.5586 5.5333 -2.0296 0.9706
-5.4630 4.6304 -2.0273 0.9707
-6.1787 3.5746 -2.0208 0.9708
-6.4616 3.0042 -2.0173 0.9708
-7.0519 0.5512 -2.0024 0.9710
-7.0596 -0.0797 -1.9987 0.9711
-6.9076 -1.3276 -1.9913 0.9712
-6.7496 -1.9349 -1.9877 0.9712
-5.6108 -4.1459 -1.9749 0.9714
-5.2116 -4.6234 -1.9722 0.9715
-4.7725 -5.0634 -1.9698 0.9715
-4.2971 -5.4627 -1.9676 0.9715
-3.7891 -5.8184 -1.9656 0.9715
-3.2524 -6.1280 -1.9640 0.9716
-1.5119 -6.7595 -1.9609 0.9716
-0.9029 -6.8660 -1.9604 0.9716
0.9471 -6.8625 -1.9611 0.9716
1.5560 -6.7537 -1.9620 0.9716
2.1534 -6.5920 -1.9632 0.9716
2.7347 -6.3786 -1.9647 0.9716
3.2956 -6.1148 -1.9665 0.9715
4.3391 -5.4442 -1.9708 0.9715
5.6494 -4.1189 -1.9792 0.9714
6.3121 -3.0599 -1.9858 0.9713
6.7794 -1.8966 -1.9929 0.9712
6.9344 -1.2869 -1.9966 0.9711
7.0347 -0.6646 -2.0003 0.9711
7.0792 -0.0347 -2.0041 0.9710
5.4448 4.6750 -2.0316 0.9706
5.0127 5.1487 -2.0343 0.9706
4.5390 5.5818 -2.0367 0.9705
3.4819 6.3116 -2.0406 0.9705
2.9074 6.6019 -2.0422 0.9705
2.3041 6.8262 -2.0396 0.9705
1.6171 6.7175 -1.9560 0.9717
0.3845 6.6630 -1.8894 0.9726
-0.8050 6.6230 -1.8887 0.9726
-1.3919 6.5220 -1.8879 0.9727
-1.9668 6.3680 -1.8868 0.9727
-4.3728 5.6724 -2.0276 0.9707
-4.8703 5.2696 -2.0314 0.9706
-5.7119 4.3078 -2.0253 0.9707
-6.0634 3.7751 -2.0220 0.9707
-6.8101 2.0246 -2.0113 0.9709
-6.9506 1.4066 -2.0076 0.9709
-7.0351 0.7797 -2.0038 0.9710
-7.0633 0.1489 -2.0000 0.9711
-6.8130 -1.7165 -1.9890 0.9712
-6.3777 -2.8896 -1.9822 0.9713
-4.9360 -4.9084 -1.9706 0.9715
-3.9768 -5.6947 -1.9663 0.9715
-3.4500 -6.0213 -1.9646 0.9716
-2.8972 -6.3002 -1.9631 0.9716
-1.7301 -6.7079 -1.9611 0.9716
1.3363 -6.7993 -1.9617 0.9716
4.1588 -5.5793 -1.9700 0.9715
5.0973 -4.7643 -1.9752 0.9714
6.4832 -2.6988 -1.9880 0.9712
6.8844 -1.5096 -1.9952 0.9711
7.0696 -0.2636 -2.0027 0.9710
7.0303 1.0002 -2.0103 0.9709
6.9258 1.6262 -2.0140 0.9709
6.5497 2.8406 -2.0211 0.9708
6.2807 3.4191 -2.0244 0.9707
5.9601 3.9718 -2.0276 0.9707
4.7153 5.4297 -2.0358 0.9705
3.1187 6.5027 -2.0416 0.9705
1.8878 6.8584 -2.0138 0.9709
-3.4483 5.6155 -2.0269 0.9728
-4.8116 4.5024 -2.0268 0.9728
-5.5189 3.5657 -2.0210 0.9729
-5.8058 3.0545 -2.0178 0.9729
-6.0453 2.5205 -2.0145 0.9730
-6.2355 1.9681 -2.0112 0.9730
-6.4637 0.8262 -2.0043 0.9731
-6.4852 -0.3340 -1.9974 0.9732
-6.1347 -2.0286 -1.9874 0.9733
-5.3549 -3.5641 -1.9785 0.9734
-5.0091 -4.0221 -1.9759 0.9735
-4.6248 -4.4474 -1.9735 0.9735
-3.7534 -5.1875 -1.9694 0.9736
-3.2731 -5.4969 -1.9677 0.9736
-2.7679 -5.7628 -1.9663 0.9736
-2.2416 -5.9832 -1.9652 0.9736
-1.6984 -6.1567 -1.9644 0.9736
-1.1423 -6.2819 -1.9638 0.9736
-0.5775 -6.3579 -1.9636 0.9736
-0.0082 -6.3842 -1.9636 0.9736
3.2628 -5.5117 -1.9701 0.9736
3.7452 -5.2040 -1.9721 0.9735
4.6211 -4.4666 -1.9768 0.9735
5.3560 -3.5846 -1.9823 0.9734
5.9260 -2.5842 -1.9885 0.9733
6.1430 -2.0488 -1.9918 0.9733
6.4311 -0.9280 -1.9985 0.9732
6.4994 -0.3514 -2.0020 0.9731
6.4808 0.8116 -2.0089 0.9730
6.3935 1.3886 -2.0123 0.9730
6.2545 1.9565 -2.0157 0.9729
5.5389 3.5586 -2.0250 0.9728
3.9642 5.2961 -2.0348 0.9727
2.9652 5.9259 -2.0381 0.9726
2.4264 6.1706 -2.0394 0.9726
1.8668 6.3636 -2.0398 0.9726
0.6740 6.2891 -1.9455 0.9739
0.1071 6.1312 -1.8861 0.9747
-2.5858 5.6527 -1.9119 0.9743
-4.6656 4.6580 -2.0278 0.9728
-5.9641 2.7164 -2.0157 0.9729
-6.1723 2.1702 -2.0124 0.9730
-6.3305 1.6083 -2.0090 0.9730
-6.4377 1.0356 -2.0055 0.9731
-6.4931 0.4566 -2.0021 0.9731
-6.4487 -0.7017 -1.9952 0.9732
-6.3497 -1.2719 -1.9918 0.9733
-5.7591 -2.8935 -1.9824 0.9734
-5.4702 -3.3906 -1.9795 0.9734
-4.3612 -4.7000 -1.9721 0.9735
-3.9207 -5.0650 -1.9701 0.9736
-3.4503 -5.3896 -1.9683 0.9736
-2.9536 -5.6715 -1.9668 0.9736
-2.4346 -5.9087 -1.9656 0.9736
-1.8970 -6.0993 -1.9647 0.9736
-0.2148 -6.3804 -1.9636 0.9736
0.9225 -6.3196 -1.9644 0.9736
2.0325 -6.0612 -1.9663 0.9736
2.5667 -5.8600 -1.9677 0.9736
3.0817 -5.6125 -1.9694 0.9736
3.5734 -5.3205 -1.9713 0.9735
4.8719 -4.2000 -1.9785 0.9734
5.2344 -3.7541 -1.9813 0.9734
5.8359 -2.7730 -1.9873 0.9733
6.2563 -1.6977 -1.9939 0.9732
6.3936 -1.1350 -1.9973 0.9732
6.4806 -0.5612 -2.0007 0.9731
6.5161 0.0190 -2.0042 0.9731
6.3108 1.7520 -2.0145 0.9730
6.1394 2.3116 -2.0178 0.9729
5.6483 3.3757 -2.0239 0.9728
5.3322 3.8714 -2.0268 0.9728
4.9722 4.3372 -2.0294 0.9728
2.6243 6.0876 -2.0390 0.9726
0.3075 6.1648 -1.8985 0.9745
-0.7871 6.0793 -1.8855 0.9747
-1.3256 5.9824 -1.8847 0.9747
-2.3742 5.6683 -1.8902 0.9746
-4.0727 5.1986 -2.0312 0.9727
-4.5145 4.8088 -2.0287 0.9728
-4.9188 4.3812 -2.0260 0.9728
-5.2824 3.9195 -2.0232 0.9728
-5.6024 3.4276 -2.0201 0.9729
-6.1026 2.3702 -2.0136 0.9730
-6.2790 1.8135 -2.0102 0.9730
-6.4790 0.6669 -2.0033 0.9731
-6.5014 0.0863 -1.9999 0.9732
-6.3914 -1.0664 -1.9930 0.9732
-6.2604 -1.6294 -1.9897 0.9733
-6.0804 -2.1777 -1.9865 0.9733
-4.5128 -4.5582 -1.9729 0.9735
-4.0840 -4.9372 -1.9708 0.9735
-3.6240 -5.2768 -1.9689 0.9736
-3.1364 -5.5744 -1.9673 0.9736
-2.0937 -6.0357 -1.9650 0.9736
-1.5466 -6.1960 -1.9642 0.9736
0.7174 -6.3454 -1.9641 0.9736
1.2809 -6.2585 -1.9649 0.9736
2.3751 -5.9383 -1.9672 0.9736
2.8975 -5.7074 -1.9687 0.9736
3.8730 -5.1120 -1.9727 0.9735
4.3185 -4.7518 -1.9750 0.9735
5.1075 -3.9195 -1.9802 0.9734
5.4447 -3.4534 -1.9831 0.9734
5.9904 -2.4389 -1.9894 0.9733
6.3496 -1.3405 -1.9961 0.9732
6.4550 -0.7702 -1.9995 0.9732
6.5092 -0.1918 -2.0030 0.9731
6.3604 1.5459 -2.0133 0.9730
6.2073 2.1104 -2.0166 0.9729
6.0039 2.6598 -2.0198 0.9729
5.7515 3.1895 -2.0228 0.9729
4.7210 4.6166 -2.0310 0.9727
4.2953 5.0249 -2.0333 0.9727
3.8339 5.3933 -2.0353 0.9727
3.3406 5.7186 -2.0370 0.9727
2.2745 6.2292 -2.0397 0.9726
-1.6633 5.8953 -1.8841 0.9747
-2.1810 5.7198 -1.8828 0.9747
-3.4038 5.6415 -2.0266 0.9728
-4.3585 4.9546 -2.0297 0.9728
-5.1555 4.0905 -2.0242 0.9728
-5.7826 3.1002 -2.0181 0.9729
-6.0263 2.5680 -2.0148 0.9730
-6.3136 -1.4268 -1.9909 0.9733
-6.1512 -1.9809 -1.9877 0.9733
-5.9407 -2.5176 -1.9845 0.9734
-5.3832 -3.5226 -1.9787 0.9734
-5.0409 -3.9833 -1.9761 0.9735
-4.6599 -4.4116 -1.9737 0.9735
-4.2432 -4.8043 -1.9715 0.9735
-3.3161 -5.4715 -1.9679 0.9736
-2.8129 -5.7413 -1.9665 0.9736
-2.2884 -5.9658 -1.9653 0.9736
-1.7465 -6.1434 -1.9644 0.9736
-1.1913 -6.2729 -1.9639 0.9736
0.5116 -6.3647 -1.9640 0.9736
1.6354 -6.1774 -1.9655 0.9736
2.1811 -6.0106 -1.9667 0.9736
2.7105 -5.7964 -1.9681 0.9736
4.5856 -4.5020 -1.9766 0.9735
4.9755 -4.0806 -1.9792 0.9734
6.1259 -2.0963 -1.9915 0.9733
6.4226 -0.9781 -1.9982 0.9732
6.4955 -0.4021 -2.0017 0.9731
6.4860 0.7608 -2.0086 0.9730
6.4032 1.3385 -2.0120 0.9730
6.2687 1.9073 -2.0154 0.9730
6.0834 2.4627 -2.0186 0.9729
5.8486 3.0000 -2.0218 0.9729
5.5659 3.5148 -2.0247 0.9728
5.2375 4.0027 -2.0275 0.9728
4.8658 4.4595 -2.0301 0.9728
4.4540 4.8813 -2.0325 0.9727
4.0051 5.2645 -2.0346 0.9727
3.0112 5.9023 -2.0380 0.9727
1.3392 6.4778 -2.0346 0.9727
0.7260 6.3089 -1.9533 0.9738
0.1549 6.1302 -1.8861 0.9747
-0.9361 6.0576 -1.8853 0.9747
-1.4719 5.9473 -1.8844 0.9747
-3.1615 5.6452 -1.9901 0.9733
-4.6296 4.6948 -2.0280 0.9728
-5.0230 4.2574 -2.0253 0.9728
-5.6825 3.2876 -2.0192 0.9729
-6.1561 2.2186 -2.0127 0.9730
-6.4303 1.0860 -2.0058 0.9731
-6.4903 0.5074 -2.0024 0.9731
-6.4984 -0.0733 -1.9989 0.9732
-6.3603 -1.2224 -1.9921 0.9733
-6.2157 -1.7818 -1.9888 0.9733
-6.0224 -2.3253 -1.9857 0.9733
-5.7822 -2.8488 -1.9826 0.9734
-5.1696 -3.8199 -1.9771 0.9735
-4.8023 -4.2603 -1.9746 0.9735
-3.9604 -5.0347 -1.9703 0.9735
-3.4925 -5.3629 -1.9685 0.9736
-2.9980 -5.6486 -1.9669 0.9736
-1.9447 -6.0845 -1.9647 0.9736
-1.3938 -6.2316 -1.9641 0.9736
-0.8324 -6.3298 -1.9637 0.9736
0.3054 -6.3774 -1.9638 0.9736
1.4344 -6.2259 -1.9651 0.9736
2.5207 -5.8794 -1.9676 0.9736
3.0375 -5.6359 -1.9692 0.9736
3.5314 -5.3477 -1.9711 0.9735
3.9986 -5.0169 -1.9733 0.9735
4.8384 -4.2374 -1.9782 0.9734
5.8132 -2.8181 -1.9870 0.9733
6.3836 -1.1847 -1.9970 0.9732
6.4750 -0.6117 -2.0004 0.9731
6.5032 0.5502 -2.0074 0.9731
6.4392 1.1298 -2.0108 0.9730
5.9393 2.8076 -2.0206 0.9729
5.3616 3.8292 -2.0265 0.9728
5.0054 4.2977 -2.0292 0.9728
4.6077 4.7327 -2.0316 0.9727
4.1718 5.1303 -2.0338 0.9727
3.1998 5.8002 -2.0375 0.9727
2.6716 6.0666 -2.0389 0.9726
1.5497 6.4374 -2.0366 0.9727
0.9462 6.3927 -1.9877 0.9733
0.3567 6.1812 -1.9044 0.9744
-0.1941 6.1287 -1.8860 0.9747
-1.2789 5.9929 -1.8848 0.9747
-2.3250 5.6749 -1.8863 0.9747
-4.0324 5.2308 -2.0314 0.9727
-4.4773 4.8444 -2.0290 0.9728
-4.8850 4.4200 -2.0263 0.9728
-5.2523 3.9611 -2.0234 0.9728
-5.5762 3.4717 -2.0204 0.9729
-5.8544 2.9560 -2.0172 0.9729
-6.5015 0.1371 -2.0002 0.9732
-6.4766 -0.4425 -1.9967 0.9732
-6.4004 -1.0166 -1.9933 0.9732
-4.9399 -4.1045 -1.9754 0.9735
-4.5487 -4.5233 -1.9731 0.9735
-4.1228 -4.9056 -1.9710 0.9735
-3.6654 -5.2487 -1.9691 0.9736
-3.1801 -5.5501 -1.9675 0.9736
-2.1409 -6.0194 -1.9650 0.9736
-1.5949 -6.1839 -1.9643 0.9736
-1.0369 -6.2999 -1.9638 0.9736
-0.4709 -6.3666 -1.9636 0.9736
0.0988 -6.3836 -1.9637 0.9736
0.6678 -6.3507 -1.9641 0.9736
1.7869 -6.1363 -1.9658 0.9736
2.8526 -5.7295 -1.9686 0.9736
3.3553 -5.4572 -1.9704 0.9735
4.6964 -4.3896 -1.9773 0.9735
5.0761 -3.9588 -1.9800 0.9734
5.4168 -3.4954 -1.9829 0.9734
5.7157 -3.0030 -1.9859 0.9733
6.3380 -1.3898 -1.9958 0.9732
6.5065 -0.2426 -2.0027 0.9731
6.5135 0.3392 -2.0061 0.9731
6.4684 0.9203 -2.0096 0.9730
5.4800 3.6518 -2.0255 0.9728
5.1394 4.1316 -2.0282 0.9728
4.7564 4.5791 -2.0308 0.9727
4.3340 4.9907 -2.0331 0.9727
3.3849 5.6920 -2.0369 0.9727
2.3229 6.2110 -2.0396 0.9726
1.7590 6.3903 -2.0386 0.9726
-4.0640 4.5477 -2.0274 0.9746
-4.4480 4.1622 -2.0249 0.9746
-5.1030 3.2970 -2.0195 0.9747
-5.8978 1.2968 -2.0073 0.9749
-5.9804 0.7644 -2.0041 0.9749
-5.8332 -1.3662 -1.9914 0.9751
-5.6795 -1.8781 -1.9884 0.9751
-4.9592 -3.3008 -1.9802 0.9752
-4.6394 -3.7253 -1.9778 0.9752
-4.2839 -4.1196 -1.9756 0.9753
-2.5645 -5.3394 -1.9689 0.9753
-0.5351 -5.8914 -1.9664 0.9754
-0.0076 -5.9158 -1.9664 0.9754
1.0440 -5.8258 -1.9674 0.9754
2.0644 -5.5533 -1.9694 0.9753
2.5532 -5.3508 -1.9707 0.9753
3.4693 -4.8207 -1.9742 0.9753
3.8895 -4.4968 -1.9763 0.9752
4.2800 -4.1369 -1.9786 0.9752
4.9596 -3.3193 -1.9837 0.9752
5.2432 -2.8678 -1.9865 0.9751
5.4861 -2.3923 -1.9895 0.9751
5.6863 -1.8964 -1.9925 0.9750
5.9514 -0.8588 -1.9988 0.9750
6.0139 -0.3252 -2.0020 0.9749
5.9952 0.7507 -2.0084 0.9749
5.3865 2.8164 -2.0205 0.9747
5.1208 3.2900 -2.0232 0.9747
4.8131 3.7382 -2.0258 0.9746
4.4658 4.1574 -2.0281 0.9746
4.0816 4.5440 -2.0303 0.9746
2.7400 5.4759 -2.0354 0.9745
1.7254 5.8815 -2.0374 0.9745
1.1942 6.0130 -2.0378 0.9745
0.6519 6.0826 -2.0335 0.9745
0.1061 6.0741 -2.0194 0.9747
-3.9163 4.6788 -2.0282 0.9746
-4.6738 3.8992 -2.0233 0.9747
-4.9962 3.4622 -2.0205 0.9747
-5.2775 2.9986 -2.0177 0.9747
-5.8561 1.4878 -2.0084 0.9749
-5.9560 0.9581 -2.0053 0.9749
-6.0081 0.4225 -2.0020 0.9749
-5.8776 -1.1773 -1.9925 0.9750
-5.7404 -1.6942 -1.9895 0.9751
-5.3328 -2.6793 -1.9838 0.9752
-5.0658 -3.1400 -1.9811 0.9752
-4.7596 -3.5748 -1.9787 0.9752
-4.0399 -4.3538 -1.9743 0.9753
-3.6321 -4.6922 -1.9724 0.9753
-3.1965 -4.9933 -1.9708 0.9753
-1.7578 -5.6516 -1.9674 0.9754
-0.7255 -5.8712 -1.9664 0.9754
0.8548 -5.8558 -1.9671 0.9754
1.3741 -5.7585 -1.9679 0.9754
2.8550 -5.1995 -1.9718 0.9753
4.1420 -4.2713 -1.9778 0.9752
4.5119 -3.8897 -1.9802 0.9752
4.8472 -3.4764 -1.9828 0.9752
5.1450 -3.0344 -1.9855 0.9751
6.0289 0.0175 -2.0040 0.9749
5.9487 1.0917 -2.0104 0.9748
5.8367 1.6204 -2.0135 0.9748
5.6774 2.1376 -2.0165 0.9748
5.2221 3.1210 -2.0222 0.9747
4.9293 3.5789 -2.0249 0.9746
3.8188 4.7718 -2.0316 0.9746
3.3810 5.0978 -2.0334 0.9745
2.4249 5.6251 -2.0362 0.9745
1.9146 5.8217 -2.0371 0.9745
1.3882 5.9713 -2.0378 0.9745
0.8490 6.0628 -2.0350 0.9745
0.3044 6.1029 -2.0311 0.9746
-0.7582 5.8554 -1.9626 0.9754
-1.2774 5.7650 -1.9628 0.9754
-2.3560 5.6248 -2.0271 0.9746
-2.8511 5.3977 -2.0292 0.9746
-3.7644 4.8050 -2.0290 0.9746
-5.1804 3.1694 -2.0187 0.9747
-5.8082 1.6775 -2.0096 0.9748
-5.9947 0.6171 -2.0032 0.9749
-6.0162 0.0798 -2.0000 0.9750
-5.9898 -0.4562 -1.9968 0.9750
-5.6294 -2.0162 -1.9876 0.9751
-5.4194 -2.5066 -1.9848 0.9751
-4.8750 -3.4204 -1.9795 0.9752
-4.5451 -3.8369 -1.9772 0.9752
-3.7833 -4.5738 -1.9731 0.9753
-2.9059 -5.1647 -1.9699 0.9753
-2.4322 -5.3999 -1.9686 0.9753
-1.4331 -5.7412 -1.9670 0.9754
-0.9151 -5.8449 -1.9665 0.9754
-0.3902 -5.9027 -1.9664 0.9754
0.1377 -5.9144 -1.9665 0.9754
1.7001 -5.6728 -1.9685 0.9753
2.2005 -5.5019 -1.9697 0.9753
4.7299 -3.6296 -1.9818 0.9752
5.3142 -2.7393 -1.9873 0.9751
5.7336 -1.7570 -1.9933 0.9750
5.8766 -1.2406 -1.9965 0.9750
5.9733 -0.7127 -1.9997 0.9750
6.0242 0.3609 -2.0061 0.9749
5.8828 1.4299 -2.0124 0.9748
5.5518 2.4595 -2.0184 0.9747
5.0403 3.4159 -2.0239 0.9747
4.7214 3.8566 -2.0264 0.9746
4.3636 4.2671 -2.0288 0.9746
3.9698 4.6441 -2.0309 0.9746
3.0870 5.2845 -2.0344 0.9745
1.5806 5.9226 -2.0376 0.9745
0.5020 6.0937 -2.0324 0.9746
-0.5701 5.8960 -1.9690 0.9753
-1.0881 5.7924 -1.9591 0.9755
-2.6737 5.4847 -2.0282 0.9746
-3.1565 5.2316 -2.0310 0.9746
-4.4159 4.1972 -2.0251 0.9746
-5.5734 2.3750 -2.0138 0.9748
-5.7542 1.8657 -2.0107 0.9748
-5.8883 1.3430 -2.0076 0.9749
-5.9751 0.8112 -2.0044 0.9749
-6.0140 0.2747 -2.0012 0.9749
-5.9481 -0.7955 -1.9948 0.9750
-5.6947 -1.8339 -1.9887 0.9751
-5.2634 -2.8084 -1.9830 0.9752
-4.6689 -3.6893 -1.9780 0.9752
-4.3164 -4.0864 -1.9758 0.9753
-3.9307 -4.4504 -1.9737 0.9753
-3.5150 -4.7789 -1.9719 0.9753
-3.0723 -5.0693 -1.9704 0.9753
-2.6063 -5.3195 -1.9690 0.9753
-2.1203 -5.5277 -1.9680 0.9754
-1.1039 -5.8125 -1.9667 0.9754
-0.5811 -5.8871 -1.9664 0.9754
-0.0537 -5.9155 -1.9664 0.9754
1.5153 -5.7237 -1.9681 0.9754
2.0209 -5.5689 -1.9693 0.9753
4.6077 -3.7790 -1.9809 0.9752
5.4666 -2.4348 -1.9892 0.9751
5.6705 -1.9405 -1.9922 0.9751
5.8300 -1.4293 -1.9953 0.9750
6.0104 -0.3721 -2.0017 0.9749
6.0293 0.1657 -2.0049 0.9749
6.0000 0.7038 -2.0081 0.9749
5.9226 1.2380 -2.0113 0.9748
5.7975 1.7640 -2.0144 0.9748
5.4077 2.7739 -2.0202 0.9747
5.1458 3.2495 -2.0230 0.9747
3.7014 4.8654 -2.0321 0.9746
2.7825 5.4540 -2.0353 0.9745
2.2864 5.6838 -2.0364 0.9745
-0.3810 5.9422 -1.9793 0.9752
-0.9004 5.8265 -1.9597 0.9755
-1.9547 5.6711 -1.9940 0.9750
-2.4940 5.5665 -2.0276 0.9746
-2.9840 5.3282 -2.0299 0.9746
-3.8800 4.7097 -2.0284 0.9746
-4.6438 3.9360 -2.0235 0.9747
-4.9696 3.5015 -2.0208 0.9747
-5.2546 3.0401 -2.0179 0.9747
-5.6940 2.0521 -2.0119 0.9748
-5.8451 1.5337 -2.0087 0.9748
-6.0137 -0.0679 -1.9991 0.9750
-5.8874 -1.1315 -1.9928 0.9750
-5.5760 -2.1529 -1.9868 0.9751
-5.3542 -2.6379 -1.9840 0.9752
-5.0907 -3.1007 -1.9814 0.9752
-4.7879 -3.5379 -1.9789 0.9752
-4.4481 -3.9461 -1.9766 0.9752
-4.0742 -4.3225 -1.9745 0.9753
-3.6689 -4.6641 -1.9726 0.9753
-2.7777 -5.2335 -1.9695 0.9753
-1.8019 -5.6379 -1.9674 0.9754
-0.7713 -5.8654 -1.9665 0.9754
0.8090 -5.8621 -1.9671 0.9754
1.8392 -5.6302 -1.9688 0.9753
3.2714 -4.9540 -1.9734 0.9753
4.4809 -3.9244 -1.9800 0.9752
4.8193 -3.5137 -1.9825 0.9752
5.1205 -3.0741 -1.9853 0.9751
6.0280 -0.0295 -2.0038 0.9749
5.9562 1.0451 -2.0101 0.9748
5.8484 1.5745 -2.0133 0.9748
4.6268 3.9727 -2.0271 0.9746
4.2588 4.3743 -2.0294 0.9746
3.8556 4.7414 -2.0314 0.9746
2.9569 5.3598 -2.0348 0.9745
2.4687 5.6057 -2.0361 0.9745
-0.1897 5.9891 -1.9918 0.9751
-2.3118 5.6426 -2.0269 0.9746
-4.8561 3.6623 -2.0218 0.9747
-5.1562 3.2102 -2.0190 0.9747
-5.4140 2.7336 -2.0160 0.9748
-5.6277 2.2365 -2.0130 0.9748
-5.7958 1.7231 -2.0099 0.9748
-5.9906 0.6639 -2.0035 0.9749
-6.0162 0.1269 -2.0003 0.9750
-5.9940 -0.4095 -1.9971 0.9750
-5.9243 -0.9410 -1.9939 0.9750
-5.8078 -1.4632 -1.9909 0.9751
-5.4395 -2.4645 -1.9850 0.9751
-5.1909 -2.9357 -1.9823 0.9752
-4.9021 -3.3825 -1.9798 0.9752
-3.8192 -4.5444 -1.9732 0.9753
-3.3957 -4.8626 -1.9715 0.9753
-2.9463 -5.1422 -1.9700 0.9753
-2.4744 -5.3810 -1.9687 0.9753
2.1574 -5.5186 -1.9696 0.9753
3.9651 -4.4320 -1.9767 0.9752
4.3496 -4.0655 -1.9791 0.9752
4.7008 -3.6660 -1.9816 0.9752
5.2920 -2.7803 -1.9871 0.9751
5.5270 -2.3007 -1.9900 0.9751
5.7189 -1.8014 -1.9931 0.9750
5.8660 -1.2863 -1.9962 0.9750
5.9668 -0.7592 -1.9994 0.9750
6.0260 0.3138 -2.0058 0.9749
5.9835 0.8513 -2.0090 0.9748
5.8930 1.3837 -2.0121 0.9748
4.7509 3.8192 -2.0262 0.9746
4.0057 4.6126 -2.0307 0.9746
2.6482 5.5217 -2.0356 0.9745
2.1464 5.7390 -2.0367 0.9745
-3.3860 4.5479 -2.0276 0.9762
-3.7742 4.2234 -2.0255 0.9762
-4.4541 3.4777 -2.0208 0.9763
-4.9880 2.6242 -2.0155 0.9763
-5.3596 1.6916 -2.0098 0.9764
-5.5585 0.7105 -2.0039 0.9765
-5.5914 0.2116 -2.0009 0.9765
-5.4240 -1.2703 -1.9922 0.9766
-5.2817 -1.7465 -1.9894 0.9766
-3.6246 -4.1690 -1.9755 0.9768
-3.2356 -4.4719 -1.9739 0.9768
-2.8219 -4.7391 -1.9724 0.9768
-2.3865 -4.9688 -1.9712 0.9769
-1.9330 -5.1593 -1.9702 0.9769
-1.4646 -5.3092 -1.9695 0.9769
-0.0070 -5.5057 -1.9689 0.9769
0.4841 -5.4853 -1.9692 0.9769
1.4518 -5.3157 -1.9706 0.9769
2.3759 -4.9792 -1.9729 0.9768
3.9816 -3.8484 -1.9802 0.9768
4.3139 -3.4821 -1.9825 0.9767
4.6130 -3.0873 -1.9850 0.9767
5.4313 -1.2867 -1.9960 0.9766
5.5901 -0.3023 -2.0020 0.9765
5.5714 0.6977 -2.0079 0.9764
5.3743 1.6811 -2.0137 0.9764
5.2101 2.1567 -2.0165 0.9763
5.0036 2.6162 -2.0192 0.9763
4.4701 3.4719 -2.0241 0.9762
2.5439 5.0840 -2.0330 0.9761
1.1088 5.5827 -2.0354 0.9761
0.0993 5.6876 -2.0342 0.9761
-0.4078 5.6675 -2.0320 0.9762
-1.4070 5.5004 -2.0303 0.9762
-2.3633 5.1664 -2.0317 0.9762
-2.8125 4.9312 -2.0301 0.9762
-3.6369 4.3450 -2.0263 0.9762
-4.9029 2.7857 -2.0165 0.9763
-5.4421 1.3826 -2.0080 0.9764
-5.5356 0.8905 -2.0050 0.9765
-5.5846 0.3927 -2.0020 0.9765
-5.5890 -0.1067 -1.9990 0.9765
-5.5490 -0.6038 -1.9961 0.9766
-4.9601 -2.4920 -1.9850 0.9767
-4.4278 -3.3255 -1.9803 0.9768
-2.9745 -4.6465 -1.9729 0.9768
-2.0993 -5.0949 -1.9706 0.9769
-1.1600 -5.3830 -1.9692 0.9769
-0.6752 -5.4642 -1.9689 0.9769
0.3063 -5.4977 -1.9691 0.9769
1.7525 -5.2262 -1.9712 0.9769
2.2129 -5.0522 -1.9724 0.9768
4.5086 -3.2335 -1.9841 0.9767
5.0245 -2.3874 -1.9893 0.9766
5.2247 -1.9325 -1.9921 0.9766
5.3840 -1.4610 -1.9950 0.9766
5.5009 -0.9765 -1.9979 0.9765
5.6035 0.0163 -2.0039 0.9765
5.5278 1.0145 -2.0098 0.9764
5.4231 1.5056 -2.0127 0.9764
5.2746 1.9860 -2.0155 0.9763
5.0833 2.4517 -2.0182 0.9763
4.8506 2.8990 -2.0208 0.9763
4.5782 3.3240 -2.0232 0.9763
3.5459 4.4309 -2.0294 0.9762
2.2513 5.2223 -2.0337 0.9761
1.7774 5.4047 -2.0346 0.9761
1.2888 5.5435 -2.0352 0.9761
0.7894 5.6373 -2.0356 0.9761
0.2835 5.6843 -2.0353 0.9761
-0.2243 5.6797 -2.0327 0.9761
-2.1947 5.2398 -2.0315 0.9762
-3.4957 4.4621 -2.0270 0.9762
-3.8756 4.1283 -2.0249 0.9762
-4.2235 3.7619 -2.0226 0.9763
-4.8125 2.9443 -2.0175 0.9763
-5.0490 2.5000 -2.0148 0.9764
-5.2445 2.0369 -2.0119 0.9764
-5.5926 0.0742 -2.0001 0.9765
-5.5686 -0.4242 -1.9972 0.9766
-5.5006 -0.9177 -1.9942 0.9766
-5.3891 -1.4026 -1.9914 0.9766
-5.2353 -1.8750 -1.9886 0.9767
-5.0405 -2.3313 -1.9860 0.9767
-4.5350 -3.1818 -1.9811 0.9767
-3.8893 -3.9284 -1.9769 0.9768
-2.2635 -5.0252 -1.9709 0.9769
-1.8055 -5.2046 -1.9700 0.9769
-1.3337 -5.3431 -1.9694 0.9769
-0.8517 -5.4397 -1.9690 0.9769
-0.3632 -5.4936 -1.9688 0.9769
0.1282 -5.5044 -1.9689 0.9769
0.6187 -5.4721 -1.9693 0.9769
1.1045 -5.3968 -1.9699 0.9769
1.5821 -5.2792 -1.9708 0.9769
2.4979 -4.9203 -1.9733 0.9768
4.0761 -3.7507 -1.9808 0.9767
4.3996 -3.3762 -1.9832 0.9767
4.6891 -2.9742 -1.9857 0.9767
4.9422 -2.5475 -1.9883 0.9767
5.1568 -2.0996 -1.9911 0.9766
5.3311 -1.6336 -1.9939 0.9766
5.5981 -0.1650 -2.0028 0.9765
5.5988 0.3354 -2.0058 0.9765
5.5548 0.8346 -2.0087 0.9764
5.4662 1.3286 -2.0116 0.9764
5.3334 1.8133 -2.0145 0.9764
5.1575 2.2848 -2.0172 0.9763
4.0523 3.9626 -2.0268 0.9762
2.8661 4.9065 -2.0320 0.9762
2.4187 5.1457 -2.0333 0.9761
1.9511 5.3436 -2.0343 0.9761
-0.0404 5.6863 -2.0335 0.9761
-0.5468 5.6544 -2.0315 0.9762
-1.0483 5.5802 -2.0304 0.9762
-1.5417 5.4642 -2.0303 0.9762
-2.0235 5.3067 -2.0310 0.9762
-2.4890 5.1058 -2.0313 0.9762
-3.3507 4.5745 -2.0278 0.9762
-3.7414 4.2532 -2.0257 0.9762
-4.1013 3.8982 -2.0235 0.9762
-4.4273 3.5127 -2.0210 0.9763
-4.9679 2.6634 -2.0158 0.9763
-5.1785 2.2067 -2.0130 0.9764
-5.3469 1.7336 -2.0101 0.9764
-5.5535 0.7540 -2.0042 0.9765
-5.5824 -0.2439 -1.9982 0.9765
-5.5303 -0.7396 -1.9953 0.9766
-5.4345 -1.2281 -1.9924 0.9766
-5.1157 -2.1680 -1.9869 0.9767
-4.6375 -3.0347 -1.9819 0.9767
-4.3435 -3.4322 -1.9797 0.9768
-3.2707 -4.4468 -1.9740 0.9768
-2.4254 -4.9503 -1.9713 0.9769
-1.5061 -5.2977 -1.9696 0.9769
-1.0274 -5.4096 -1.9691 0.9769
-0.5408 -5.4790 -1.9689 0.9769
0.4412 -5.4888 -1.9692 0.9769
0.9292 -5.4290 -1.9697 0.9769
1.4102 -5.3267 -1.9705 0.9769
1.8806 -5.1824 -1.9715 0.9769
2.7752 -4.7726 -1.9743 0.9768
3.1925 -4.5100 -1.9760 0.9768
3.5855 -4.2114 -1.9779 0.9768
4.2862 -3.5153 -1.9823 0.9767
5.0836 -2.2642 -1.9901 0.9766
5.2727 -1.8044 -1.9929 0.9766
5.5255 -0.8415 -1.9987 0.9765
5.5759 0.6541 -2.0077 0.9764
5.5034 1.1504 -2.0106 0.9764
5.2262 2.1157 -2.0162 0.9763
4.1768 3.8280 -2.0261 0.9762
3.8226 4.1894 -2.0281 0.9762
2.5834 5.0637 -2.0329 0.9761
1.6443 5.4473 -2.0348 0.9761
0.6508 5.6552 -2.0357 0.9761
0.1437 5.6873 -2.0345 0.9761
-0.8673 5.6119 -2.0307 0.9762
-1.3640 5.5112 -2.0303 0.9762
-2.3231 5.1850 -2.0318 0.9762
-2.7741 4.9534 -2.0302 0.9762
-3.6032 4.3737 -2.0265 0.9762
-3.9746 4.0306 -2.0243 0.9762
-4.6163 3.2526 -2.0194 0.9763
-4.8815 2.8242 -2.0168 0.9763
-5.1069 2.3744 -2.0140 0.9764
-5.5821 0.4364 -2.0023 0.9765
-5.5904 -0.0631 -1.9993 0.9765
-5.5543 -0.5606 -1.9963 0.9766
-4.9799 -2.4535 -1.9853 0.9767
-4.7354 -2.8842 -1.9828 0.9767
-4.4541 -3.2912 -1.9805 0.9767
-4.1383 -3.6713 -1.9783 0.9768
-3.7907 -4.0217 -1.9764 0.9768
-2.5849 -4.8702 -1.9717 0.9768
-2.1391 -5.0786 -1.9707 0.9769
-1.6769 -5.2469 -1.9698 0.9769
-0.7179 -5.4588 -1.9689 0.9769
0.2633 -5.4998 -1.9690 0.9769
2.1733 -5.0690 -1.9723 0.9768
4.1683 -3.6506 -1.9815 0.9767
4.4827 -3.2683 -1.9839 0.9767
