ply
format ascii 1.0
element vertex 1593
property float32 x
property float32 y
property float32 z
property float32 I
end_header
10.6169 0.2538 -2.2448 0.9575
8.0472 2.4193 -1.7762 0.9662
5.7853 3.6284 -1.4435 0.9725
4.5870 4.1792 -1.3117 0.9749
4.2206 4.5991 -1.3195 0.9748
3.1067 4.9143 -1.2289 0.9765
2.6481 5.1571 -1.2254 0.9766
2.1909 5.4068 -1.2332 0.9764
0.6224 2.9752 -0.6425 0.9876
0.1812 6.5908 -1.3937 0.9734
-0.4309 6.9527 -1.4725 0.9719
-1.1146 7.3121 -1.5635 0.9702
-2.6819 10.9288 -2.3787 0.9550
-2.2554 2.2940 -0.6800 0.9869
-9.0409 3.2696 -2.0322 0.9615
-9.1131 2.4012 -1.9921 0.9622
-8.9256 -0.0937 -1.8868 0.9642
-8.7413 -0.8760 -1.8570 0.9647
-8.5021 -1.6286 -1.8299 0.9652
-8.2118 -2.3492 -1.8054 0.9657
-6.6017 -4.8758 -1.7348 0.9670
-4.4063 -6.7675 -1.7070 0.9675
-3.7840 -7.1324 -1.7067 0.9675
-3.1365 -7.4518 -1.7090 0.9675
-1.7745 -7.9488 -1.7216 0.9673
-0.3374 -8.2475 -1.7448 0.9668
1.9183 -8.2958 -1.7998 0.9658
2.6861 -8.1983 -1.8236 0.9653
4.9905 -7.5387 -1.9111 0.9637
5.7453 -7.1906 -1.9455 0.9631
6.4853 -6.7757 -1.9826 0.9624
7.2051 -6.2928 -2.0221 0.9616
7.8983 -5.7411 -2.0640 0.9609
8.5385 -5.1085 -2.1033 0.9601
9.9386 -1.8255 -2.1360 0.9595
10.2846 -0.9518 -2.1833 0.9587
9.4188 1.6736 -2.0221 0.9616
8.3336 2.2637 -1.8254 0.9653
7.4274 2.7500 -1.6742 0.9681
4.3738 4.5169 -1.3290 0.9746
3.2459 4.8421 -1.2322 0.9764
2.7851 5.0838 -1.2253 0.9766
2.3284 5.3309 -1.2296 0.9765
1.8670 5.5884 -1.2454 0.9762
-0.2405 6.8525 -1.4494 0.9724
-4.9480 9.4587 -2.2564 0.9573
-5.6516 8.7912 -2.2092 0.9582
-6.2761 8.0746 -2.1617 0.9591
-7.8478 7.0418 -2.2288 0.9578
-8.2606 6.1754 -2.1801 0.9587
-8.8363 4.4131 -2.0878 0.9604
-9.0051 3.5323 -2.0447 0.9612
-9.0990 2.6602 -2.0039 0.9620
-9.0775 0.9629 -1.9296 0.9634
-8.5794 -1.4061 -1.8377 0.9651
-8.3040 -2.1365 -1.8125 0.9656
-7.9798 -2.8335 -1.7899 0.9660
-7.6098 -3.4954 -1.7701 0.9663
-7.1972 -4.1204 -1.7530 0.9667
-5.1743 -6.2270 -1.7114 0.9674
-4.5878 -6.6493 -1.7076 0.9675
1.8034 5.7368 -1.4133 0.9756
0.7965 6.2970 -1.4917 0.9743
-0.3661 6.9093 -1.6261 0.9720
-0.8916 6.2227 -1.4774 0.9745
-2.2504 2.3303 -0.7614 0.9868
-7.1042 6.1493 -2.2083 0.9621
-7.7728 4.6036 -2.1232 0.9636
-7.9977 3.8175 -2.0828 0.9642
-8.2401 2.2503 -2.0075 0.9655
-8.1292 -0.0125 -1.9106 0.9671
-7.7757 -1.4173 -1.8576 0.9680
-7.2275 -2.7126 -1.8143 0.9688
-6.8879 -3.3139 -1.7964 0.9691
-5.6393 -4.9118 -1.7576 0.9697
-5.1548 -5.3710 -1.7496 0.9699
-4.6402 -5.7914 -1.7441 0.9700
-4.0976 -6.1718 -1.7411 0.9700
-2.9373 -6.8073 -1.7425 0.9700
-1.0410 -7.4292 -1.7631 0.9696
-0.3763 -7.5427 -1.7749 0.9694
0.3009 -7.6071 -1.7892 0.9692
1.6819 -7.5822 -1.8253 0.9686
3.0789 -7.3427 -1.8713 0.9678
3.7749 -7.1387 -1.8979 0.9674
4.4642 -6.8769 -1.9269 0.9669
5.1425 -6.5559 -1.9583 0.9663
5.8051 -6.1748 -1.9918 0.9658
6.4467 -5.7331 -2.0276 0.9652
7.0617 -5.2304 -2.0653 0.9645
7.6283 -4.6573 -2.1006 0.9639
7.5982 -3.7527 -1.9917 0.9658
2.3521 -0.9106 -0.5928 0.9897
8.4724 -2.4362 -2.0719 0.9644
8.8287 -1.7036 -2.1132 0.9637
9.1220 -0.9266 -2.1549 0.9630
9.4925 0.7373 -2.2377 0.9616
9.5223 1.6041 -2.2695 0.9611
6.7205 3.1231 -1.7417 0.9700
5.4269 3.8235 -1.5602 0.9731
4.4200 4.4835 -1.4797 0.9745
3.9153 4.7546 -1.4475 0.9750
3.3476 4.8983 -1.3944 0.9759
2.8778 5.1432 -1.3851 0.9761
1.7570 3.9265 -1.0110 0.9825
-0.1780 6.8104 -1.6011 0.9724
-0.7074 6.0976 -1.4427 0.9751
-2.8467 9.3932 -2.3068 0.9605
-3.6116 8.9477 -2.2677 0.9611
-4.3174 8.4365 -2.2273 0.9618
-5.5345 7.2536 -2.1443 0.9632
-7.3720 5.6148 -2.1779 0.9626
-7.6914 4.8384 -2.1356 0.9634
-7.9377 4.0536 -2.0947 0.9640
-8.1133 3.2667 -2.0556 0.9647
-8.2208 2.4836 -2.0183 0.9653
-8.2430 0.9491 -1.9501 0.9665
-8.1640 0.2063 -1.9193 0.9670
-8.0292 -0.5155 -1.8909 0.9675
-7.3212 -2.5261 -1.8202 0.9687
-6.9941 -3.1370 -1.8015 0.9690
-6.6262 -3.7151 -1.7854 0.9693
-5.7783 -4.7666 -1.7605 0.9697
-4.2632 -6.0620 -1.7417 0.9700
-3.1172 -6.7229 -1.7416 0.9700
-2.5099 -6.9890 -1.7453 0.9699
-1.8827 -7.2103 -1.7514 0.9698
-0.5771 -7.5138 -1.7711 0.9695
0.7809 -7.6220 -1.8007 0.9690
2.1704 -7.5234 -1.8403 0.9683
2.8694 -7.3928 -1.8638 0.9679
7.4512 -3.9319 -1.9801 0.9660
2.2972 -0.9609 -0.5852 0.9898
8.3543 -2.6466 -2.0596 0.9646
9.2861 -0.3592 -2.1841 0.9625
8.7260 2.0382 -2.1060 0.9638
6.9424 3.0027 -1.7777 0.9694
3.0172 5.0686 -1.3863 0.9761
0.8494 3.0835 -0.7517 0.9869
0.5615 3.0956 -0.7394 0.9872
0.0046 6.7144 -1.5780 0.9728
-0.5398 6.0696 -1.4321 0.9753
-1.3350 7.4177 -1.7713 0.9695
-4.1123 8.5961 -2.2396 0.9616
-4.7739 8.0444 -2.1985 0.9623
-5.3692 7.4426 -2.1568 0.9630
-7.2618 5.8449 -2.1908 0.9624
-7.8714 4.2895 -2.1068 0.9638
-8.1955 2.7177 -2.0293 0.9651
-8.2553 1.1755 -1.9598 0.9663
-8.1937 0.4270 -1.9283 0.9668
-7.9033 -1.0066 -1.8725 0.9678
-7.0966 -2.9571 -1.8069 0.9689
-6.7406 -3.5452 -1.7900 0.9692
-6.3457 -4.0994 -1.7755 0.9694
-5.9144 -4.6182 -1.7636 0.9696
-5.4492 -5.1001 -1.7541 0.9698
-4.9524 -5.5440 -1.7471 0.9699
-4.4263 -5.9485 -1.7426 0.9700
-3.8732 -6.3125 -1.7406 0.9700
-3.2951 -6.6346 -1.7410 0.9700
-2.6943 -6.9138 -1.7439 0.9700
-1.4328 -7.3380 -1.7572 0.9697
-0.1067 -7.5745 -1.7803 0.9694
1.9609 -7.5519 -1.8337 0.9684
2.6597 -7.4378 -1.8565 0.9681
4.0518 -7.0410 -1.9092 0.9672
5.4098 -6.4106 -1.9714 0.9661
6.0646 -6.0053 -2.0059 0.9655
7.2991 -5.0122 -2.0810 0.9643
7.7885 -3.5060 -2.0074 0.9655
8.2313 -2.8526 -2.0474 0.9648
8.6221 -2.1486 -2.0884 0.9641
9.0528 1.8602 -2.1721 0.9627
7.1738 2.8771 -1.8165 0.9687
5.1975 3.9474 -1.5339 0.9735
4.6540 4.2403 -1.4797 0.9745
3.6361 4.7522 -1.4063 0.9757
3.1583 4.9959 -1.3891 0.9760
1.7555 5.7644 -1.4162 0.9755
-1.1129 7.3013 -1.7358 0.9701
-2.3621 9.6253 -2.3293 0.9601
-3.9014 8.7505 -2.2517 0.9614
-4.5822 8.2156 -2.2109 0.9621
-5.1978 7.6278 -2.1694 0.9628
-5.7452 6.9962 -2.1276 0.9635
-2.2561 2.2947 -0.7563 0.9869
-8.1644 2.9526 -2.0404 0.9650
-8.1165 -0.0852 -1.9077 0.9672
-7.4967 -2.1446 -1.8326 0.9685
-7.1954 -2.7743 -1.8124 0.9688
-5.5921 -4.9595 -1.7567 0.9698
-5.1046 -5.4149 -1.7490 0.9699
-4.5871 -5.8314 -1.7437 0.9700
-4.0418 -6.2076 -1.7409 0.9700
-3.4710 -6.5425 -1.7406 0.9700
-1.6266 -7.2861 -1.7546 0.9698
-0.9751 -7.4427 -1.7642 0.9696
-0.3089 -7.5514 -1.7762 0.9694
1.7517 -7.5755 -1.8274 0.9686
4.5328 -6.8474 -1.9299 0.9668
6.5096 -5.6854 -2.0313 0.9651
7.1217 -5.1766 -2.0692 0.9645
7.6797 -4.5947 -2.1033 0.9639
7.6465 -3.6917 -1.9956 0.9657
8.1036 -3.0540 -2.0353 0.9650
8.5107 -2.3649 -2.0760 0.9644
9.1476 -0.8465 -2.1591 0.9630
9.4008 1.6704 -2.2440 0.9615
8.3193 2.2598 -2.0261 0.9652
7.4156 2.7457 -1.8585 0.9680
6.6483 3.1623 -1.7303 0.9702
5.9744 3.5275 -1.6306 0.9719
5.3687 3.8550 -1.5533 0.9732
4.3684 4.5113 -1.4759 0.9745
3.3000 4.9227 -1.3929 0.9759
0.7080 2.9829 -0.7205 0.9875
0.9028 6.2408 -1.4820 0.9744
0.3549 6.5299 -1.5369 0.9735
-0.2402 6.8431 -1.6093 0.9723
-0.7663 6.1249 -1.4507 0.9750
-3.6851 8.8992 -2.2637 0.9612
-6.0871 6.5327 -2.0985 0.9640
-7.0210 6.2999 -2.2170 0.9620
-7.4074 5.5375 -2.1736 0.9627
-7.7193 4.7600 -2.1314 0.9634
-8.1271 3.1879 -2.0517 0.9648
-8.2279 2.4055 -2.0147 0.9654
-8.2377 0.8738 -1.9469 0.9665
-8.0127 -0.5866 -1.8882 0.9675
-7.8201 -1.2817 -1.8624 0.9680
-5.2540 -5.2824 -1.7510 0.9699
-4.7453 -5.7106 -1.7450 0.9700
1.8085 5.7532 -1.5615 0.9754
0.7955 6.2889 -1.6413 0.9741
0.2400 6.5815 -1.7052 0.9732
-2.0338 8.6206 -2.2933 0.9641
-2.7547 8.2832 -2.2602 0.9646
-3.4294 7.8809 -2.2253 0.9651
-4.0524 7.4211 -2.1893 0.9657
-5.1278 6.3597 -2.1152 0.9668
-6.4230 5.5597 -2.1995 0.9655
-7.2705 3.4704 -2.0859 0.9673
-7.4238 2.7602 -2.0507 0.9678
-7.5156 2.0524 -2.0172 0.9683
-7.5482 1.3518 -1.9854 0.9688
-7.4461 -0.0115 -1.9279 0.9697
-6.6483 -2.4952 -1.8386 0.9711
-5.2003 -4.5294 -1.7856 0.9719
-4.2816 -5.3438 -1.7729 0.9721
-3.2570 -6.0086 -1.7696 0.9722
-2.7105 -6.2817 -1.7714 0.9721
-2.1440 -6.5137 -1.7755 0.9721
-0.3467 -6.9503 -1.8018 0.9717
0.2771 -7.0051 -1.8152 0.9714
0.9090 -7.0125 -1.8309 0.9712
1.5463 -6.9712 -1.8488 0.9709
2.1861 -6.8798 -1.8691 0.9706
3.4596 -6.5424 -1.9162 0.9699
4.0861 -6.2944 -1.9430 0.9695
4.7005 -5.9923 -1.9719 0.9690
5.2983 -5.6357 -2.0028 0.9685
6.4245 -4.7584 -2.0700 0.9675
6.8883 -3.4020 -1.9892 0.9688
2.3569 -0.9125 -0.6544 0.9896
7.6519 -2.2003 -2.0615 0.9676
8.2068 -0.8337 -2.1358 0.9665
8.3916 -0.0995 -2.1729 0.9659
8.4035 2.2020 -2.2493 0.9647
6.0300 3.4879 -1.8036 0.9716
5.4196 3.8184 -1.7165 0.9730
4.8606 4.1204 -1.6498 0.9740
4.4145 4.4779 -1.6281 0.9744
2.8956 5.1750 -1.5354 0.9758
0.7484 3.0320 -0.8086 0.9872
0.9545 6.2050 -1.6255 0.9744
0.4111 6.4914 -1.6841 0.9735
-1.8095 8.7081 -2.3028 0.9639
-2.5431 8.3915 -2.2703 0.9644
-3.2323 8.0079 -2.2359 0.9649
-3.8713 7.5646 -2.2002 0.9655
-4.9817 6.5291 -2.1264 0.9666
-5.4475 5.9523 -2.0891 0.9672
-6.9759 4.3884 -2.1339 0.9665
-7.3844 2.9732 -2.0611 0.9676
-7.4944 2.2642 -2.0270 0.9682
-7.5445 1.5609 -1.9948 0.9687
-7.4750 0.1889 -1.9360 0.9696
-6.9869 -1.7311 -1.8637 0.9707
-6.7327 -2.3230 -1.8441 0.9710
-6.4372 -2.8872 -1.8267 0.9713
-5.7323 -3.9249 -1.7988 0.9717
-4.4265 -5.2310 -1.7742 0.9721
-2.8766 -6.2040 -1.7706 0.9721
-0.5318 -6.9248 -1.7982 0.9717
0.0890 -6.9936 -1.8109 0.9715
0.7188 -7.0154 -1.8259 0.9713
1.9941 -6.9125 -1.8628 0.9707
2.6336 -6.7854 -1.8846 0.9704
3.2699 -6.6064 -1.9086 0.9700
5.1210 -5.7484 -1.9933 0.9687
6.2627 -4.9038 -2.0595 0.9677
6.7856 -4.3967 -2.0935 0.9671
2.2964 -0.9606 -0.6445 0.9898
7.5496 -2.3917 -2.0505 0.9678
7.8723 -1.7391 -2.0874 0.9672
8.1387 -1.0478 -2.1247 0.9667
8.3432 -0.3228 -2.1618 0.9661
8.4802 0.4304 -2.1985 0.9655
6.2257 3.3817 -1.8344 0.9712
5.5965 3.7227 -1.7403 0.9726
3.5074 4.8479 -1.5493 0.9756
3.0148 5.0645 -1.5260 0.9759
1.8718 3.8992 -1.1199 0.9823
2.0964 5.6004 -1.5483 0.9756
0.5782 6.4034 -1.6647 0.9738
-2.3274 8.4938 -2.2803 0.9643
-3.0306 8.1296 -2.2464 0.9648
-4.2862 7.2227 -2.1746 0.9659
-2.3162 2.2329 -0.8330 0.9868
-6.8923 4.5981 -2.1452 0.9663
-7.3393 3.1862 -2.0716 0.9675
-7.4678 2.4764 -2.0371 0.9680
-7.5452 1.0744 -1.9733 0.9690
-7.4003 -0.2762 -1.9174 0.9699
-7.2512 -0.9236 -1.8926 0.9702
-7.0547 -1.5484 -1.8701 0.9706
-6.5300 -2.7210 -1.8316 0.9712
-6.2071 -3.2646 -1.8159 0.9714
-5.8471 -3.7773 -1.8024 0.9716
-5.4526 -4.2576 -1.7912 0.9718
-4.5690 -5.1148 -1.7758 0.9721
-4.0845 -5.4891 -1.7715 0.9721
-3.0408 -6.1227 -1.7700 0.9721
-1.9121 -6.5947 -1.7778 0.9720
-0.7159 -6.8951 -1.7949 0.9718
-0.0983 -6.9778 -1.8069 0.9716
0.5291 -7.0139 -1.8212 0.9714
1.1635 -7.0019 -1.8378 0.9711
1.8022 -6.9407 -1.8567 0.9708
2.4420 -6.8290 -1.8778 0.9705
3.7115 -6.4496 -1.9267 0.9697
4.3337 -6.1800 -1.9543 0.9693
4.9419 -5.8562 -1.9840 0.9688
6.0981 -5.0444 -2.0491 0.9678
6.6359 -4.5568 -2.0842 0.9673
7.0555 -3.1761 -2.0034 0.9685
7.7812 -1.9391 -2.0763 0.9674
8.5333 0.9708 -2.2237 0.9651
6.4283 3.2717 -1.8676 0.9706
5.7785 3.6242 -1.7661 0.9722
4.6481 4.2350 -1.6281 0.9744
3.6506 4.7711 -1.5555 0.9755
0.7416 6.3173 -1.6469 0.9741
0.1818 6.6121 -1.7126 0.9730
-0.4297 6.9332 -1.7986 0.9717
-1.1113 7.2904 -1.9094 0.9700
-3.4943 7.8372 -2.2218 0.9652
-4.1118 7.3721 -2.1856 0.9657
-4.6732 6.8579 -2.1487 0.9663
-2.2568 2.2954 -0.8335 0.9868
-6.4610 5.4921 -2.1956 0.9656
-7.0783 4.1071 -2.1189 0.9668
-7.5215 1.9818 -2.0139 0.9684
-7.5187 0.5943 -1.9528 0.9693
-7.3010 -0.7317 -1.8998 0.9701
-5.9588 -3.6269 -1.8062 0.9716
-4.2326 -5.3808 -1.7726 0.9721
-3.7300 -5.7287 -1.7699 0.9721
-3.2032 -6.0377 -1.7697 0.9722
-2.6545 -6.3068 -1.7717 0.9721
-2.0861 -6.5346 -1.7761 0.9721
-0.8989 -6.8614 -1.7917 0.9718
0.9727 -7.0106 -1.8326 0.9712
2.2502 -6.8678 -1.8712 0.9706
3.5228 -6.5200 -1.9188 0.9698
5.3571 -5.5970 -2.0060 0.9685
5.9310 -5.1801 -2.0389 0.9680
6.4780 -4.7087 -2.0735 0.9675
6.9308 -3.3461 -1.9927 0.9687
7.3314 -2.7630 -2.0286 0.9681
7.6851 -2.1355 -2.0652 0.9676
7.9860 -1.4669 -2.1023 0.9670
8.2283 -0.7615 -2.1396 0.9664
8.4064 -0.0244 -2.1766 0.9659
8.5494 1.5191 -2.2483 0.9648
6.6384 3.1576 -1.9033 0.9701
3.8610 4.7753 -1.5900 0.9749
3.3178 4.9493 -1.5428 0.9757
2.8487 5.2000 -1.5352 0.9758
0.7065 2.9766 -0.7921 0.9874
0.9017 6.2329 -1.6306 0.9743
-0.7652 6.1165 -1.5960 0.9749
-1.8848 8.6796 -2.2997 0.9640
-3.2987 7.9660 -2.2324 0.9650
-3.9323 7.5171 -2.1965 0.9656
-5.4908 5.8928 -2.0854 0.9673
-6.7073 5.0141 -2.1683 0.9660
-7.0025 4.3181 -2.1301 0.9666
-7.2323 3.6120 -2.0931 0.9671
-7.5021 2.1933 -2.0237 0.9682
-7.5333 0.7991 -1.9615 0.9692
-7.3465 -0.5378 -1.9072 0.9700
-7.1781 -1.1764 -1.8833 0.9704
-6.7049 -2.3808 -1.8422 0.9710
-5.6933 -3.9735 -1.7976 0.9717
-5.2856 -4.4403 -1.7874 0.9719
-4.3784 -5.2691 -1.7738 0.9721
0.2396 6.5726 -1.8619 0.9730
-2.4876 7.4797 -2.2315 0.9678
-3.1014 7.1271 -2.2004 0.9682
-3.6705 6.7217 -2.1681 0.9687
-4.6594 5.7787 -2.1015 0.9696
-2.2556 2.3357 -0.9192 0.9866
-6.4498 3.8201 -2.1221 0.9693
-6.6580 3.1780 -2.0885 0.9698
-6.9016 1.8847 -2.0253 0.9707
-6.9267 0.6100 -1.9685 0.9715
-6.8625 -0.0106 -1.9427 0.9719
-6.7504 -0.6154 -1.9189 0.9722
-6.1496 -2.3081 -1.8595 0.9731
-5.2025 -3.7708 -1.8190 0.9736
-4.4095 -4.5944 -1.8028 0.9739
-3.9711 -4.9563 -1.7979 0.9739
-3.0212 -5.5736 -1.7947 0.9740
-2.5141 -5.8265 -1.7964 0.9740
-1.9883 -6.0407 -1.8003 0.9739
-1.4460 -6.2148 -1.8064 0.9738
-0.8895 -6.3479 -1.8146 0.9737
-0.3212 -6.4386 -1.8250 0.9736
1.4298 -6.4456 -1.8691 0.9729
2.0196 -6.3559 -1.8880 0.9727
3.1900 -6.0326 -1.9319 0.9720
4.3244 -5.5129 -1.9835 0.9713
5.3907 -4.7940 -2.0422 0.9705
7.2366 -1.3964 -2.0864 0.9698
7.4505 -0.7569 -2.1201 0.9693
7.6061 -0.0902 -2.1534 0.9689
7.7252 1.3014 -2.2178 0.9680
6.7003 3.1137 -2.0916 0.9698
5.4122 3.8132 -1.8743 0.9729
4.4089 4.4723 -1.7779 0.9742
3.3611 4.9180 -1.6863 0.9755
1.9507 5.6696 -1.6974 0.9754
-0.1775 6.7916 -1.9233 0.9722
-0.7056 6.0818 -1.7333 0.9749
-2.9218 7.2387 -2.2099 0.9681
-3.5048 6.8485 -2.1779 0.9685
-4.0401 6.4100 -2.1450 0.9690
-5.3316 4.8710 -2.0444 0.9704
-6.6017 3.3713 -2.0985 0.9697
-6.7691 2.7254 -2.0658 0.9701
-6.8794 2.0783 -2.0344 0.9706
-6.9344 1.4347 -2.0047 0.9710
-6.9362 0.7987 -1.9766 0.9714
-6.6445 -1.0280 -1.9034 0.9724
-6.4562 -1.5996 -1.8830 0.9727
-5.9572 -2.6719 -1.8483 0.9732
-5.6514 -3.1685 -1.8342 0.9734
-4.9384 -4.0738 -1.8123 0.9737
-4.1053 -4.8514 -1.7991 0.9739
-3.6491 -5.1888 -1.7958 0.9740
-2.6682 -5.7547 -1.7957 0.9740
0.6652 -6.4925 -1.8476 0.9732
2.4315 -6.2647 -1.9024 0.9724
3.0160 -6.0935 -1.9248 0.9721
4.1578 -5.6035 -1.9753 0.9714
6.2087 -4.0229 -2.0943 0.9697
2.2956 -0.9602 -0.7044 0.9897
7.1618 -1.5821 -2.0763 0.9700
7.5659 -0.2927 -2.1434 0.9690
7.7022 1.7991 -2.2391 0.9677
7.6083 2.5115 -2.2682 0.9672
6.9211 2.9935 -2.1347 0.9691
3.0123 5.0604 -1.6672 0.9758
1.8450 3.8433 -1.2069 0.9824
0.9146 3.3202 -0.9749 0.9858
0.5594 3.0838 -0.8872 0.9871
0.0046 6.6961 -1.8956 0.9725
-0.5389 6.0596 -1.7222 0.9750
-2.0999 7.6633 -2.2494 0.9675
-2.7382 7.3454 -2.2192 0.9679
-3.3348 6.9709 -2.1876 0.9684
-4.8319 5.5725 -2.0880 0.9698
-2.3147 2.2314 -0.9102 0.9867
-5.9900 4.8212 -2.1768 0.9685
-6.9236 1.6271 -2.0134 0.9709
-6.9069 0.3600 -1.9580 0.9717
-6.8233 -0.2547 -1.9330 0.9720
-6.6926 -0.8524 -1.9099 0.9723
-6.5172 -1.4304 -1.8889 0.9726
-5.0534 -3.9459 -1.8150 0.9737
-4.6596 -4.3611 -1.8067 0.9738
-4.2372 -4.7433 -1.8005 0.9739
-3.3156 -5.4038 -1.7948 0.9740
-2.3058 -5.9169 -1.7977 0.9739
-1.2249 -6.2731 -1.8094 0.9738
-0.6634 -6.3893 -1.8185 0.9736
0.4898 -6.4924 -1.8432 0.9733
1.0763 -6.4769 -1.8587 0.9731
3.4208 -5.9445 -1.9416 0.9719
5.0801 -5.0305 -2.0239 0.9707
6.0773 -4.1732 -2.0870 0.9698
6.0632 -3.4103 -1.9693 0.9715
7.0823 -1.7649 -2.0663 0.9701
7.5201 -0.4931 -2.1334 0.9692
7.6510 0.1829 -2.1666 0.9687
7.6441 2.2981 -2.2597 0.9674
5.7704 3.6191 -1.9283 0.9721
5.1837 3.9369 -1.8427 0.9733
4.6422 4.2295 -1.7778 0.9742
3.6461 4.7653 -1.6986 0.9754
3.1728 5.0188 -1.6809 0.9756
1.7578 5.7719 -1.7081 0.9752
0.6116 2.9232 -0.8455 0.9877
0.7407 6.3091 -1.7983 0.9739
-1.9011 7.7468 -2.2581 0.9674
-4.2402 6.2225 -2.1316 0.9692
-6.2119 4.3893 -2.1532 0.9689
-6.6756 3.1133 -2.0852 0.9698
-6.9079 1.8201 -2.0223 0.9707
-6.9414 1.1791 -1.9932 0.9712
-6.7366 -0.6751 -1.9166 0.9722
-6.5743 -1.2593 -1.8950 0.9726
-6.1232 -2.3609 -1.8578 0.9731
-5.8391 -2.8740 -1.8424 0.9733
-5.1656 -3.8151 -1.8180 0.9737
-3.4599 -5.3139 -1.7951 0.9740
-1.9346 -6.0599 -1.8008 0.9739
-1.3908 -6.2301 -1.8071 0.9738
-0.2637 -6.4453 -1.8262 0.9735
0.9000 -6.4864 -1.8538 0.9731
1.4889 -6.4387 -1.8709 0.9729
2.0786 -6.3443 -1.8900 0.9726
2.6661 -6.2021 -1.9111 0.9723
3.2479 -6.0113 -1.9343 0.9720
3.8205 -5.7713 -1.9594 0.9716
6.3757 -3.8145 -2.1033 0.9696
6.6868 -2.5200 -2.0229 0.9707
7.2606 -1.3336 -2.0898 0.9698
7.4688 -0.6912 -2.1234 0.9693
7.7047 0.6679 -2.1893 0.9684
7.7241 1.3725 -2.2209 0.9679
7.6734 2.0843 -2.2510 0.9675
6.6284 3.1529 -2.0779 0.9699
5.3543 3.8446 -1.8660 0.9730
4.3574 4.5000 -1.7733 0.9743
3.8563 4.7694 -1.7363 0.9748
3.3138 4.9433 -1.6848 0.9756
0.3539 6.5126 -1.8464 0.9733
-0.7642 6.1079 -1.7426 0.9747
-1.6992 7.8244 -2.2667 0.9673
-2.3600 7.5433 -2.2375 0.9677
-3.5606 6.8066 -2.1746 0.9686
-4.0910 6.3636 -2.1417 0.9690
-6.1218 4.5765 -2.1638 0.9687
-6.6211 3.3068 -2.0951 0.9697
-6.7827 2.6605 -2.0626 0.9702
-6.9370 1.3705 -2.0018 0.9710
-6.9335 0.7355 -1.9738 0.9714
-6.8793 0.1122 -1.9477 0.9718
-6.7765 -0.4961 -1.9235 0.9721
-6.2011 -2.2019 -1.8629 0.9730
-5.9282 -2.7230 -1.8468 0.9732
-5.6188 -3.2168 -1.8329 0.9734
-4.4938 -4.5181 -1.8040 0.9739
0.6409 2.9321 -0.9232 0.9875
0.7934 6.2725 -1.9447 0.9739
0.2393 6.5637 -2.0202 0.9729
-0.3645 6.8800 -2.1191 0.9716
-0.8865 6.1873 -1.9225 0.9742
-1.6679 7.0697 -2.2342 0.9701
-2.8275 6.4977 -2.1796 0.9708
-4.2648 5.2894 -2.0899 0.9720
-4.9869 4.3166 -2.0287 0.9728
-5.6801 4.0903 -2.1529 0.9711
-6.3742 1.7407 -2.0323 0.9727
-6.4171 1.1492 -2.0052 0.9731
-6.4111 0.5646 -1.9795 0.9734
-6.2596 -0.5707 -1.9333 0.9740
-5.9362 -1.6408 -1.8943 0.9746
-5.7154 -2.1451 -1.8777 0.9748
-5.4581 -2.6260 -1.8630 0.9750
-5.1665 -3.0815 -1.8503 0.9751
-4.8426 -3.5100 -1.8396 0.9753
-4.4888 -3.9097 -1.8309 0.9754
-4.1070 -4.2792 -1.8243 0.9755
-2.3422 -5.4281 -1.8184 0.9756
-1.3466 -5.7877 -1.8277 0.9754
-0.2989 -5.9919 -1.8453 0.9752
2.4188 -5.7686 -1.9240 0.9742
3.4850 -5.3684 -1.9686 0.9736
4.9756 -4.4248 -2.0480 0.9725
5.4272 -4.0197 -2.0773 0.9721
5.7871 -2.8582 -1.9852 0.9734
6.3915 -1.8378 -2.0456 0.9726
6.9475 -0.0824 -2.1370 0.9713
6.9899 1.8316 -2.2225 0.9702
6.6901 3.1090 -2.2691 0.9696
6.0127 3.4779 -2.1365 0.9713
3.9007 4.7370 -1.8874 0.9746
3.3569 4.9120 -1.8299 0.9754
2.8885 5.1624 -1.8195 0.9755
1.9483 5.6625 -1.8419 0.9753
0.7538 3.0537 -0.9674 0.9869
0.9520 6.1890 -1.9260 0.9741
-0.7047 6.0738 -1.8807 0.9747
-1.4828 7.1361 -2.2418 0.9700
-3.1981 6.2493 -2.1592 0.9710
-4.1396 5.4255 -2.0991 0.9718
-4.5401 4.9609 -2.0684 0.9722
-5.8649 3.6895 -2.1312 0.9714
-6.0804 3.1051 -2.1000 0.9718
-6.2422 2.5133 -2.0698 0.9722
-6.4095 1.3261 -2.0132 0.9730
-6.3787 0.1612 -1.9626 0.9737
-6.2937 -0.4041 -1.9398 0.9740
-6.1651 -0.9538 -1.9188 0.9742
-5.7856 -1.9962 -1.8825 0.9747
-5.5390 -2.4843 -1.8672 0.9749
-5.2574 -2.9477 -1.8539 0.9751
-3.3997 -4.8342 -1.8178 0.9756
-2.9529 -5.1153 -1.8167 0.9756
-2.4859 -5.3613 -1.8177 0.9756
-2.0007 -5.5711 -1.8207 0.9755
-1.4997 -5.7435 -1.8258 0.9755
-0.4586 -5.9715 -1.8421 0.9752
1.1643 -6.0060 -1.8817 0.9747
1.7112 -5.9316 -1.8988 0.9745
2.2562 -5.8130 -1.9179 0.9742
2.7962 -5.6493 -1.9388 0.9740
3.8473 -5.1851 -1.9859 0.9733
4.3511 -4.8842 -2.0119 0.9730
4.8349 -4.5376 -2.0395 0.9726
5.6830 -2.9988 -1.9764 0.9735
2.2947 -0.9599 -0.7651 0.9896
6.3116 -1.9995 -2.0364 0.9727
6.7640 -0.8708 -2.0976 0.9719
7.0401 0.9927 -2.1868 0.9707
6.9176 2.2835 -2.2406 0.9700
6.7582 2.9230 -2.2648 0.9697
6.2076 3.3719 -2.1728 0.9709
5.5811 3.7124 -2.0617 0.9723
5.0105 4.0216 -1.9761 0.9735
3.4988 4.8360 -1.8359 0.9753
2.0913 5.5867 -1.8348 0.9753
0.9266 3.3637 -1.0731 0.9855
0.5611 3.0933 -0.9670 0.9869
0.5767 6.3865 -1.9723 0.9735
-0.5384 6.0541 -1.8695 0.9749
-1.9107 6.9728 -2.2238 0.9702
-3.5482 5.9790 -2.1384 0.9713
-4.0101 5.5587 -2.1082 0.9717
-2.3131 2.2299 -0.9882 0.9866
-5.1074 4.1108 -2.0166 0.9729
-5.7897 3.8626 -2.1407 0.9713
-6.0215 3.2814 -2.1092 0.9717
-6.1993 2.6913 -2.0787 0.9721
-6.3241 2.0972 -2.0493 0.9725
-6.3973 1.5035 -2.0213 0.9729
-6.4205 0.9143 -1.9947 0.9732
-5.3454 -2.8114 -1.8577 0.9750
-4.7045 -3.6735 -1.8359 0.9753
-3.9469 -4.4183 -1.8222 0.9755
-3.5295 -4.7432 -1.8185 0.9756
-1.6515 -5.6958 -1.8241 0.9755
-0.6175 -5.9475 -1.8392 0.9753
1.0003 -6.0198 -1.8770 0.9748
3.6930 -5.2664 -1.9784 0.9734
4.2019 -4.9792 -2.0039 0.9731
4.6921 -4.6463 -2.0310 0.9727
5.5986 -3.8445 -2.0889 0.9720
5.5757 -3.1361 -1.9676 0.9736
6.4918 -1.6178 -2.0578 0.9724
6.7087 -1.0472 -2.0885 0.9720
6.8744 -0.4507 -2.1190 0.9716
7.0265 1.4438 -2.2064 0.9704
6.9525 2.0901 -2.2330 0.9701
6.8130 2.7323 -2.2578 0.9697
5.1767 3.9316 -1.9994 0.9732
4.6361 4.2240 -1.9291 0.9741
4.1996 4.5763 -1.9104 0.9743
2.2332 5.5113 -1.8290 0.9754
1.7555 5.7646 -1.8535 0.9751
0.7397 6.3008 -1.9513 0.9738
0.1813 6.5941 -2.0290 0.9728
-0.4284 6.9135 -2.1305 0.9714
-1.1055 7.2525 -2.2565 0.9698
-1.7292 7.0463 -2.2316 0.9701
-2.3231 6.7816 -2.2049 0.9704
-2.8818 6.4635 -2.1767 0.9708
-3.4008 6.0973 -2.1474 0.9712
-3.8764 5.6887 -2.1173 0.9716
-4.3057 5.2433 -2.0868 0.9720
-2.2582 2.2969 -0.9907 0.9866
-5.0179 4.2654 -2.0256 0.9728
-6.4078 0.5065 -1.9771 0.9735
-6.3501 -0.0667 -1.9533 0.9738
-6.2474 -0.6261 -1.9312 0.9741
-5.9158 -1.6924 -1.8926 0.9746
-5.6912 -2.1944 -1.8761 0.9748
-5.4304 -2.6728 -1.8616 0.9750
-5.1354 -3.1257 -1.8491 0.9752
-4.4517 -3.9481 -1.8302 0.9754
-2.7683 -5.2180 -1.8168 0.9756
-1.8020 -5.6446 -1.8225 0.9755
-1.2952 -5.8017 -1.8284 0.9754
-0.7755 -5.9198 -1.8364 0.9753
-0.2454 -5.9979 -1.8464 0.9752
0.2928 -6.0348 -1.8584 0.9750
1.3831 -5.9815 -1.8883 0.9746
2.4730 -5.7529 -1.9260 0.9741
3.5373 -5.3435 -1.9710 0.9735
4.0510 -5.0702 -1.9961 0.9732
5.0221 -4.3862 -2.0509 0.9725
5.4709 -3.9767 -2.0803 0.9721
6.4173 -1.7832 -2.0486 0.9725
6.6489 -1.2213 -2.0793 0.9721
6.8303 -0.6321 -2.1098 0.9717
5.9490 3.5125 -2.1249 0.9715
4.3519 4.4942 -1.9242 0.9742
3.8515 4.7634 -1.8841 0.9747
3.3097 4.9372 -1.8282 0.9754
2.8418 5.1873 -1.8192 0.9756
1.6387 3.7519 -1.2593 0.9830
1.9002 5.6880 -1.8446 0.9752
0.3535 6.5038 -2.0034 0.9731
-0.2392 6.8144 -2.0973 0.9719
-0.7631 6.0993 -1.8906 0.9746
-1.5450 7.1145 -2.2393 0.9700
-2.1484 6.8669 -2.2131 0.9703
-3.2495 6.2119 -2.1563 0.9711
-4.1820 5.3804 -2.0960 0.9719
-4.5776 4.9127 -2.0653 0.9723
-4.9238 4.4181 -2.0348 0.9727
-5.6182 4.2000 -2.1575 0.9711
-5.8890 3.6314 -2.1280 0.9715
-6.0990 3.0460 -2.0969 0.9719
-6.4161 0.6806 -1.9845 0.9734
-6.1499 -1.0079 -1.9168 0.9743
-5.9758 -1.5375 -1.8979 0.9745
-5.7625 -2.0462 -1.8808 0.9747
-5.2273 -2.9927 -1.8527 0.9751
-4.9098 -3.4267 -1.8416 0.9753
-4.5618 -3.8323 -1.8325 0.9754
-3.7827 -4.5522 -1.8205 0.9755
-0.8848 6.1756 -2.0738 0.9740
-1.5277 6.4753 -2.2115 0.9723
-3.0787 5.6380 -2.1353 0.9733
-3.5238 5.2721 -2.1079 0.9736
-2.2609 2.3412 -1.0819 0.9864
-4.6033 3.9845 -2.0238 0.9747
-5.6816 2.7120 -2.0927 0.9738
-5.8229 2.1650 -2.0650 0.9742
-5.9157 1.6155 -2.0384 0.9745
-5.5364 -1.5303 -1.9093 0.9761
-4.8260 -2.8785 -1.8679 0.9766
-4.1959 -3.6546 -1.8496 0.9768
-3.4593 -4.3176 -1.8390 0.9769
-3.0562 -4.6032 -1.8367 0.9770
-2.6325 -4.8564 -1.8362 0.9770
-2.1903 -5.0762 -1.8377 0.9770
-1.7317 -5.2613 -1.8412 0.9769
-1.2589 -5.4107 -1.8466 0.9769
-0.2793 -5.5980 -1.8631 0.9767
0.2228 -5.6341 -1.8743 0.9765
1.7480 -5.5013 -1.9188 0.9760
2.2535 -5.3744 -1.9372 0.9757
3.2417 -4.9936 -1.9790 0.9752
4.6152 -4.1043 -2.0530 0.9743
5.3957 -3.2942 -2.1014 0.9737
5.6426 -2.1845 -2.0113 0.9748
5.8960 -1.6954 -2.0393 0.9745
6.2717 -0.6371 -2.0955 0.9738
6.3867 -0.0757 -2.1231 0.9734
6.4490 0.5009 -2.1501 0.9731
6.4558 1.0876 -2.1762 0.9728
6.4050 1.6783 -2.2010 0.9725
5.8970 3.4109 -2.2645 0.9717
4.8415 4.1041 -2.1098 0.9736
4.2423 4.3033 -2.0087 0.9749
1.9458 5.6554 -1.9880 0.9751
0.7523 3.0479 -1.0435 0.9869
0.4095 6.4653 -2.1534 0.9731
-0.7037 6.0657 -2.0298 0.9746
-1.9150 6.3190 -2.1948 0.9726
-2.4431 6.0528 -2.1697 0.9729
-3.3945 5.3857 -2.1162 0.9735
-3.8110 4.9948 -2.0884 0.9739
-4.1845 4.5723 -2.0603 0.9742
-4.5135 4.1235 -2.0322 0.9746
-5.8929 1.7803 -2.0463 0.9744
-5.9526 1.2316 -2.0206 0.9747
-5.9659 0.6870 -1.9962 0.9750
-5.8603 -0.3762 -1.9520 0.9756
-5.1709 -2.3192 -1.8838 0.9764
-4.9103 -2.7531 -1.8713 0.9766
-4.2976 -3.5451 -1.8519 0.9768
-3.9493 -3.9001 -1.8450 0.9769
-3.5759 -4.2258 -1.8401 0.9769
-2.7616 -4.7839 -1.8361 0.9770
-1.8709 -5.2095 -1.8399 0.9769
-1.4021 -5.3697 -1.8448 0.9769
-0.9205 -5.4934 -1.8515 0.9768
-0.4285 -5.5796 -1.8602 0.9767
0.0716 -5.6274 -1.8707 0.9766
1.0863 -5.6040 -1.8975 0.9762
2.6037 -5.2604 -1.9511 0.9756
3.0962 -5.0615 -1.9723 0.9753
3.5765 -4.8201 -1.9951 0.9750
4.0411 -4.5362 -2.0194 0.9747
4.4861 -4.2102 -2.0451 0.9744
4.9077 -3.8428 -2.0719 0.9741
5.2910 -3.4283 -2.0957 0.9738
2.2939 -0.9595 -0.8265 0.9896
5.8243 -1.8451 -2.0309 0.9746
6.0484 -1.3361 -2.0590 0.9742
6.4360 0.3267 -2.1421 0.9732
6.4264 1.5011 -2.1937 0.9726
6.1829 2.6742 -2.2392 0.9720
5.9718 3.2438 -2.2590 0.9718
5.5732 3.7072 -2.2250 0.9722
5.0037 4.0162 -2.1328 0.9733
4.3505 4.1827 -2.0061 0.9749
3.9749 4.5716 -2.0137 0.9748
3.4944 4.8299 -1.9816 0.9752
3.0073 5.0520 -1.9543 0.9755
1.8463 3.8461 -1.4181 0.9822
1.6073 5.8346 -2.0117 0.9748
-1.7507 6.3891 -2.2021 0.9725
-2.2881 6.1377 -2.1774 0.9728
-2.7930 5.8385 -2.1514 0.9731
-4.0771 4.7021 -2.0687 0.9741
-4.7166 3.7963 -2.0126 0.9748
-5.8658 1.9452 -2.0542 0.9743
-5.9486 0.3100 -1.9800 0.9752
-5.8870 -0.2197 -1.9582 0.9755
-5.4595 -1.7214 -1.9028 0.9762
-5.2426 -2.1846 -1.8879 0.9763
-4.9918 -2.6255 -1.8748 0.9765
-4.7092 -3.0422 -1.8636 0.9766
-3.6905 -4.1313 -1.8414 0.9769
-2.8890 -4.7084 -1.8362 0.9770
-2.0087 -5.1545 -1.8389 0.9770
-1.5441 -5.3254 -1.8431 0.9769
-1.0662 -5.4602 -1.8493 0.9768
-0.0791 -5.6172 -1.8674 0.9766
0.9335 -5.6178 -1.8930 0.9763
1.4430 -5.5574 -1.9086 0.9761
3.4340 -4.8970 -1.9881 0.9751
3.9036 -4.6258 -2.0120 0.9748
5.7489 -1.9923 -2.0225 0.9747
5.9857 -1.4916 -2.0505 0.9743
6.4425 1.3238 -2.1863 0.9727
6.2347 2.5004 -2.2329 0.9721
4.0919 4.4590 -2.0117 0.9748
2.6985 5.2554 -1.9638 0.9754
0.6142 2.9360 -0.9971 0.9874
-0.4191 6.7627 -2.2523 0.9718
-1.5840 6.4545 -2.2092 0.9724
-2.1301 6.2184 -2.1849 0.9727
-2.6452 5.9330 -2.1593 0.9730
-3.5662 5.2334 -2.1051 0.9737
-5.2679 3.7222 -2.1441 0.9732
-5.5124 3.1985 -2.1185 0.9735
-5.6980 2.6574 -2.0899 0.9738
-5.8344 2.1099 -2.0623 0.9742
-5.9224 1.5605 -2.0358 0.9745
-5.9634 1.0129 -2.0107 0.9748
-5.9587 0.4710 -1.9869 0.9751
-5.9100 -0.0621 -1.9646 0.9754
-5.8189 -0.5831 -1.9439 0.9757
-5.6875 -1.0894 -1.9249 0.9759
-5.3113 -2.0479 -1.8922 0.9763
-5.0705 -2.4957 -1.8786 0.9765
-3.0146 -4.6300 -1.8365 0.9770
-2.1451 -5.0963 -1.8380 0.9770
-0.2292 -5.6034 -1.8642 0.9766
0.7808 -5.6279 -1.8887 0.9763
1.2903 -5.5798 -1.9037 0.9761
1.7989 -5.4905 -1.9205 0.9759
2.3039 -5.3593 -1.9391 0.9757
3.2901 -4.9700 -1.9813 0.9752
4.2217 -4.4108 -2.0295 0.9746
5.3816 -2.5982 -1.9864 0.9751
6.1256 -1.1251 -2.0702 0.9741
6.2810 2.3256 -2.2264 0.9722
6.1056 2.9042 -2.2474 0.9719
4.7880 4.1330 -2.1025 0.9737
3.7809 4.6761 -1.9989 0.9750
3.3056 4.9311 -1.9733 0.9753
2.8383 5.1809 -1.9636 0.9754
1.8978 5.6808 -1.9909 0.9751
0.7210 3.0377 -1.0378 0.9869
0.8982 6.2086 -2.0852 0.9739
-0.7620 6.0906 -2.0403 0.9745
-1.4148 6.5151 -2.2161 0.9723
-1.9693 6.2946 -2.1924 0.9726
-2.4943 6.0235 -2.1671 0.9729
-2.9851 5.7064 -2.1407 0.9732
-3.4381 5.3481 -2.1134 0.9736
-3.8504 4.9538 -2.0856 0.9739
-4.5440 4.0773 -2.0294 0.9746
-5.6475 2.8205 -2.0984 0.9737
-5.7986 2.2745 -2.0705 0.9741
-5.9010 1.7253 -2.0436 0.9744
-5.9560 1.1767 -2.0181 0.9747
-5.9648 0.6327 -1.9939 0.9750
-5.9291 0.0967 -1.9711 0.9753
-5.7311 -0.9393 -1.9305 0.9758
-5.5725 -1.4337 -1.9127 0.9760
-5.3769 -1.9093 -1.8966 0.9762
-3.9130 -3.9341 -1.8444 0.9769
-3.1384 -4.5487 -1.8370 0.9770
1.7995 5.7244 -2.1458 0.9748
0.6615 3.0262 -1.1077 0.9869
0.7913 6.2558 -2.2549 0.9736
0.2290 6.2805 -2.2474 0.9737
-0.8775 6.1245 -2.2125 0.9741
-1.4076 5.9661 -2.1921 0.9743
-2.8443 5.2087 -2.1223 0.9751
-2.2704 2.3510 -1.1688 0.9862
-4.2698 3.6959 -2.0195 0.9763
-5.5133 1.5056 -2.0438 0.9760
-5.4501 -0.4969 -1.9571 0.9770
-5.3344 -0.9723 -1.9390 0.9772
-4.9949 -1.8747 -1.9079 0.9776
-4.5234 -2.6980 -1.8835 0.9779
-3.9352 -3.4276 -1.8662 0.9781
-3.2456 -4.0508 -1.8562 0.9782
-2.8676 -4.3191 -1.8540 0.9782
-2.4701 -4.5568 -1.8535 0.9782
-2.0551 -4.7627 -1.8550 0.9782
-0.7258 -5.1794 -1.8703 0.9780
0.6836 -5.2740 -1.9018 0.9777
1.1601 -5.2302 -1.9158 0.9775
1.6357 -5.1476 -1.9315 0.9773
2.5722 -4.8643 -1.9677 0.9769
3.4689 -4.4223 -2.0099 0.9764
3.8941 -4.1421 -2.0331 0.9761
4.2991 -3.8232 -2.0574 0.9759
4.6802 -3.4665 -2.0828 0.9756
5.2362 -2.0271 -2.0079 0.9764
5.4659 -1.5717 -2.0338 0.9761
5.6557 -1.0913 -2.0598 0.9758
5.4231 3.1368 -2.2404 0.9737
5.1560 3.6327 -2.2555 0.9736
4.8349 4.0985 -2.2666 0.9734
4.0756 4.1342 -2.0760 0.9756
3.6107 4.3847 -2.0312 0.9762
2.8813 5.1495 -2.1102 0.9752
1.9434 5.6482 -2.1361 0.9749
0.7489 3.0337 -1.1175 0.9868
0.9495 6.1726 -2.2333 0.9738
-0.1634 6.2511 -2.2362 0.9738
-1.2507 6.0190 -2.1984 0.9742
-2.2544 5.5852 -2.1539 0.9747
-2.7131 5.3016 -2.1297 0.9750
-3.1382 4.9791 -2.1047 0.9753
-3.8764 4.2356 -2.0532 0.9759
-4.1853 3.8237 -2.0273 0.9762
-5.3858 2.1685 -2.0762 0.9756
-5.5509 1.1485 -2.0271 0.9762
-4.8441 -2.1726 -1.8985 0.9777
-4.3300 -2.9647 -1.8766 0.9780
-3.3549 -3.9646 -1.8572 0.9782
-2.9831 -4.2418 -1.8544 0.9782
-2.5912 -4.4888 -1.8535 0.9782
-1.7552 -4.8874 -1.8571 0.9782
-0.8633 -5.1518 -1.8680 0.9781
0.0671 -5.2741 -1.8862 0.9778
0.5409 -5.2797 -1.8979 0.9777
1.0172 -5.2474 -1.9114 0.9775
1.4933 -5.1765 -1.9266 0.9774
1.9664 -5.0664 -1.9435 0.9772
4.9194 -3.1875 -2.0962 0.9754
4.8839 -2.5772 -1.9748 0.9768
5.8779 -0.2274 -2.1036 0.9753
5.9609 0.8406 -2.1528 0.9748
5.9248 1.3839 -2.1758 0.9745
5.8351 1.9262 -2.1974 0.9742
5.6911 2.4615 -2.2174 0.9740
5.2415 3.4866 -2.2512 0.9736
4.9386 3.9639 -2.2646 0.9735
4.2193 4.0565 -2.0931 0.9754
0.5345 2.9468 -1.0710 0.9874
-0.5375 6.0437 -2.1698 0.9746
-1.0920 6.0673 -2.2046 0.9742
-1.6136 5.8887 -2.1835 0.9744
-2.1107 5.6620 -2.1609 0.9747
-3.4142 4.7326 -2.0869 0.9755
-3.7757 4.3544 -2.0610 0.9758
-2.3098 2.2267 -1.1473 0.9865
-4.9617 3.3102 -2.1330 0.9750
-5.1818 2.8238 -2.1103 0.9752
-5.3456 2.3207 -2.0840 0.9755
-5.4639 1.8119 -2.0585 0.9758
-5.5374 1.3014 -2.0342 0.9761
-5.5547 0.2895 -1.9891 0.9766
-5.4083 -0.6888 -1.9497 0.9771
-5.1112 -1.6116 -1.9165 0.9775
-3.0968 -4.1617 -1.8551 0.9782
-2.7107 -4.4179 -1.8536 0.9782
-1.8846 -4.8360 -1.8561 0.9782
0.8743 -5.2611 -1.9072 0.9776
1.3507 -5.2018 -1.9219 0.9774
1.8250 -5.1036 -1.9382 0.9772
2.2943 -4.9659 -1.9562 0.9770
2.7556 -4.7886 -1.9757 0.9768
3.6412 -4.3149 -2.0190 0.9763
4.4547 -3.6850 -2.0674 0.9757
4.8200 -3.3098 -2.0909 0.9755
5.0808 -2.2871 -1.9925 0.9766
5.3327 -1.8481 -2.0183 0.9763
5.5468 -1.3823 -2.0442 0.9760
5.8484 -0.3835 -2.0959 0.9754
5.9413 1.2208 -2.1690 0.9746
5.7400 2.3021 -2.2116 0.9741
5.5581 2.8288 -2.2302 0.9739
5.0347 3.8238 -2.2608 0.9735
4.3655 3.9775 -2.1119 0.9752
3.8872 4.2358 -2.0559 0.9759
3.1609 5.0000 -2.1154 0.9752
2.6951 5.2488 -2.1100 0.9752
1.7511 5.7500 -2.1495 0.9748
0.7369 6.2771 -2.2601 0.9735
-0.9315 6.1109 -2.2106 0.9741
-1.9645 5.7348 -2.1678 0.9746
-2.8875 5.1770 -2.1198 0.9751
-3.2983 4.8402 -2.0946 0.9754
-3.6714 4.4709 -2.0688 0.9757
-5.3012 2.4723 -2.0918 0.9755
-5.4331 1.9648 -2.0661 0.9758
-5.5628 0.9449 -2.0178 0.9763
-5.5629 0.4397 -1.9955 0.9766
-5.5215 -0.0580 -1.9746 0.9768
-5.4402 -0.5452 -1.9552 0.9770
-5.3207 -1.0192 -1.9373 0.9772
-4.4966 -2.7369 -1.8825 0.9779
-4.2133 -3.1118 -1.8731 0.9780
-3.9029 -3.4614 -1.8655 0.9781
-3.5674 -3.7843 -1.8598 0.9781
-2.4292 -4.5789 -1.8536 0.9782
-2.0126 -4.7816 -1.8552 0.9782
-1.5807 -4.9513 -1.8587 0.9782
-0.6796 -5.1879 -1.8711 0.9780
-0.2149 -5.2527 -1.8800 0.9779
0.7314 -5.2714 -1.9031 0.9776
1.6831 -5.1372 -1.9332 0.9773
2.6183 -4.8459 -1.9697 0.9769
3.0721 -4.6408 -1.9902 0.9766
4.7027 -2.8136 -1.9597 0.9770
4.9984 -2.4132 -1.9849 0.9767
5.4867 -1.5246 -2.0364 0.9761
5.8147 -0.5381 -2.0883 0.9755
5.9105 -0.0171 -2.1137 0.9752
5.9573 0.5165 -2.1384 0.9749
5.9528 1.0578 -2.1621 0.9746
5.8955 1.6014 -2.1846 0.9744
5.1263 3.6810 -2.2569 0.9735
3.7245 4.6064 -2.1184 0.9751
3.3014 4.9248 -2.1203 0.9751
2.8347 5.1744 -2.1099 0.9752
1.6862 3.8606 -1.5065 0.9823
0.7183 3.0262 -1.1123 0.9869
0.8969 6.2003 -2.2403 0.9737
-0.2192 6.2446 -2.2345 0.9738
-1.3034 6.0018 -2.1963 0.9742
-1.8157 5.8036 -2.1746 0.9745
-2.3018 5.5586 -2.1515 0.9748
-2.7573 5.2709 -2.1273 0.9750
-3.5636 4.5848 -2.0766 0.9756
-4.2140 3.7812 -2.0247 0.9762
-4.4768 3.3467 -1.9988 0.9765
-5.0587 3.1194 -2.1253 0.9751
-5.2528 2.6234 -2.0997 0.9754
-5.3983 2.1175 -2.0737 0.9757
-4.8212 -2.2145 -1.8973 0.9777
-4.5760 -2.6198 -1.8856 0.9778
-2.9447 -4.2679 -1.8543 0.9782
0.2117 5.8049 -2.2260 0.9754
-1.3034 5.5247 -2.1753 0.9760
-2.2215 5.1050 -2.1335 0.9764
-3.0273 4.5293 -2.0877 0.9769
-3.3805 4.1926 -2.0639 0.9772
-2.2801 2.3611 -1.2578 0.9860
-4.2177 3.0372 -1.9918 0.9780
-4.7562 2.8170 -2.1184 0.9766
-4.9358 2.3560 -2.0959 0.9768
-5.0673 1.8841 -2.0718 0.9771
-5.1568 1.4082 -2.0485 0.9774
-5.1810 -0.0080 -1.9855 0.9781
-5.1117 -0.4660 -1.9670 0.9783
-5.0060 -0.9125 -1.9500 0.9784
-4.8656 -1.3449 -1.9345 0.9786
-4.6920 -1.7610 -1.9205 0.9788
-4.4871 -2.1588 -1.9082 0.9789
-3.7015 -3.2240 -1.8811 0.9792
-3.3889 -3.5310 -1.8755 0.9793
-3.0538 -3.8115 -1.8716 0.9793
-2.3243 -4.2879 -1.8691 0.9793
-1.9337 -4.4815 -1.8705 0.9793
-1.5285 -4.6439 -1.8736 0.9793
-0.6826 -4.8712 -1.8850 0.9792
-0.2462 -4.9342 -1.8932 0.9791
0.6423 -4.9552 -1.9148 0.9788
3.2481 -4.1407 -2.0168 0.9777
3.6435 -3.8756 -2.0385 0.9775
5.0886 -1.4632 -2.0291 0.9776
5.2607 -1.0151 -2.0532 0.9773
5.3925 -0.5478 -2.0771 0.9770
5.3666 1.9325 -2.1859 0.9759
5.0136 2.9000 -2.2196 0.9755
4.0702 4.1287 -2.2217 0.9755
3.3337 4.8782 -2.2642 0.9750
2.8776 5.1429 -2.2584 0.9751
0.8896 5.7830 -2.2422 0.9752
0.3678 5.8078 -2.2301 0.9754
-0.1510 5.7799 -2.2157 0.9755
-0.6614 5.7008 -2.1993 0.9757
-1.6357 5.3973 -2.1612 0.9761
-2.0902 5.1786 -2.1401 0.9764
-2.9146 4.6243 -2.0948 0.9769
-3.2783 4.2966 -2.0711 0.9771
-3.6064 3.9406 -2.0471 0.9774
-4.6908 2.9508 -2.1237 0.9765
-4.8881 2.4962 -2.1033 0.9768
-5.1343 1.5511 -2.0554 0.9773
-5.1947 1.0748 -2.0329 0.9775
-5.1945 0.1313 -1.9913 0.9780
-5.1364 -0.3298 -1.9724 0.9782
-5.0414 -0.7799 -1.9550 0.9784
-4.9112 -1.2168 -1.9390 0.9786
-4.7475 -1.6380 -1.9246 0.9787
-4.5517 -2.0415 -1.9117 0.9789
-4.3258 -2.4254 -1.9005 0.9790
-4.0716 -2.7877 -1.8910 0.9791
-3.7907 -3.1270 -1.8831 0.9792
-3.4851 -3.4416 -1.8770 0.9792
-2.4383 -4.2239 -1.8690 0.9793
-1.6515 -4.5985 -1.8724 0.9793
-1.2373 -4.7385 -1.8768 0.9792
0.5083 -4.9612 -1.9112 0.9789
1.4019 -4.8597 -1.9383 0.9786
1.8451 -4.7539 -1.9542 0.9784
2.2822 -4.6109 -1.9716 0.9782
2.7102 -4.4306 -1.9904 0.9780
3.9089 -3.6685 -2.0543 0.9773
4.2690 -3.3427 -2.0778 0.9770
4.5917 -2.9752 -2.0967 0.9768
5.3574 -0.6897 -2.0700 0.9771
5.4593 -0.2112 -2.0937 0.9769
5.4895 1.2822 -2.1603 0.9761
5.4024 1.7834 -2.1802 0.9759
5.2655 2.2774 -2.1985 0.9757
4.1853 4.0238 -2.2249 0.9754
3.4621 4.7852 -2.2634 0.9750
1.8202 3.7918 -1.6118 0.9821
1.5623 5.6714 -2.2544 0.9751
-1.4946 5.4546 -2.1673 0.9761
-1.9566 5.2486 -2.1466 0.9763
-2.3925 5.0013 -2.1246 0.9765
-2.7990 4.7165 -2.1017 0.9768
-3.1729 4.3981 -2.0782 0.9770
-3.5119 4.0501 -2.0543 0.9773
-2.3081 2.2251 -1.2286 0.9864
-4.3029 2.8707 -1.9822 0.9781
-4.8365 2.6356 -2.1108 0.9767
-4.9935 2.1678 -2.0862 0.9770
-5.2045 0.2712 -1.9972 0.9779
-5.0737 -0.6462 -1.9600 0.9783
-4.9539 -1.0873 -1.9436 0.9785
-4.8000 -1.5135 -1.9287 0.9787
-4.6137 -1.9225 -1.9154 0.9788
-4.1507 -2.6814 -1.8937 0.9791
-3.8776 -3.0278 -1.8853 0.9791
-3.5792 -3.3499 -1.8787 0.9792
-3.2574 -3.6465 -1.8737 0.9793
-2.9139 -3.9160 -1.8706 0.9793
-2.5508 -4.1572 -1.8691 0.9793
-2.1699 -4.3691 -1.8694 0.9793
-1.3628 -4.6999 -1.8753 0.9793
-0.9406 -4.8170 -1.8808 0.9792
-0.5088 -4.9005 -1.8881 0.9791
0.8213 -4.9422 -1.9199 0.9788
1.2682 -4.8843 -1.9338 0.9786
2.1519 -4.6576 -1.9662 0.9783
3.0029 -4.2823 -2.0043 0.9778
3.4085 -4.0390 -2.0253 0.9776
3.7964 -3.7593 -2.0475 0.9774
4.4997 -3.0899 -2.0918 0.9769
4.4738 -2.5164 -1.9670 0.9783
2.3144 -1.0419 -0.9727 0.9892
4.9672 -1.7214 -2.0146 0.9777
5.3184 -0.8302 -2.0628 0.9772
5.4333 -0.3562 -2.0866 0.9769
5.5042 0.1316 -2.1099 0.9767
5.5290 0.6290 -2.1325 0.9764
5.5059 1.1314 -2.1541 0.9762
5.3118 2.1303 -2.1932 0.9758
4.6514 3.5326 -2.2383 0.9753
3.5449 4.6330 -2.2355 0.9753
3.1569 4.9936 -2.2640 0.9750
2.2169 5.4708 -2.2621 0.9750
1.7154 5.6330 -2.2565 0.9751
0.6808 5.7993 -2.2377 0.9753
0.1595 5.8029 -2.2246 0.9754
-1.3516 5.5078 -2.1733 0.9760
-2.2647 5.0796 -2.1313 0.9765
-4.9509 2.3090 -2.0935 0.9769
-5.2111 0.4119 -2.0032 0.9779
-5.1027 -0.5114 -1.9652 0.9783
-4.9935 -0.9565 -1.9484 0.9785
-4.8496 -1.3874 -1.9330 0.9786
-4.2274 -2.5730 -1.8965 0.9790
-3.9623 -2.9264 -1.8876 0.9791
-3.0191 -3.8381 -1.8713 0.9793
-2.6617 -4.0879 -1.8694 0.9793
-0.6392 -4.8791 -1.8857 0.9791
-0.2021 -4.9386 -1.8942 0.9790
0.6871 -4.9525 -1.9161 0.9788
1.1343 -4.9055 -1.9295 0.9787
2.4547 -4.5432 -1.9789 0.9781
3.2885 -4.1158 -2.0189 0.9777
4.0558 -3.5423 -2.0636 0.9772
4.4049 -3.2018 -2.0869 0.9769
4.6612 -2.2504 -1.9835 0.9781
5.4034 -0.5000 -2.0795 0.9770
5.5265 0.4791 -2.1258 0.9765
5.3536 1.9822 -2.1877 0.9758
4.7367 3.4012 -2.2347 0.9753
4.4020 3.7998 -2.2285 0.9754
4.0227 4.1543 -2.2161 0.9755
3.6656 4.5336 -2.2342 0.9753
2.8311 5.1677 -2.2581 0.9751
1.8674 5.5898 -2.2585 0.9751
0.7199 3.0328 -1.1945 0.9867
-0.7119 5.6901 -2.1976 0.9757
-1.6823 5.3773 -2.1592 0.9762
-2.1344 5.1544 -2.1379 0.9764
-2.5589 4.8916 -2.1156 0.9766
-3.6373 3.9036 -2.0447 0.9774
-4.7130 2.9063 -2.1219 0.9766
-5.1422 1.5034 -2.0531 0.9773
-5.1985 1.0271 -2.0307 0.9776
-5.2141 0.5531 -2.0094 0.9778
-4.8963 -1.2598 -1.9375 0.9786
-4.7293 -1.6793 -1.9232 0.9787
-4.0446 -2.8228 -1.8901 0.9791
0.6661 3.0474 -1.2767 0.9866
0.1965 5.3897 -2.2073 0.9770
-1.2121 5.1379 -2.1605 0.9774
-1.6515 4.9658 -2.1418 0.9776
-2.4603 4.5056 -2.1010 0.9781
-3.1552 3.9131 -2.0573 0.9785
-2.2156 2.2943 -1.3053 0.9863
-3.9457 2.8413 -1.9900 0.9792
-4.4483 2.6346 -2.1159 0.9779
-4.7512 1.7665 -2.0746 0.9783
-2.1650 0.3877 -0.9002 0.9905
-1.9578 0.1724 -0.8044 0.9915
-1.8994 -0.0029 -0.7774 0.9918
-4.5810 -1.2662 -1.9452 0.9797
-4.2279 -2.0341 -1.9203 0.9799
-4.0082 -2.3907 -1.9101 0.9800
-3.7619 -2.7266 -1.9015 0.9801
-3.4906 -3.0403 -1.8946 0.9802
-2.8807 -3.5953 -1.8855 0.9803
-1.8241 -4.2275 -1.8844 0.9803
-1.4418 -4.3803 -1.8874 0.9803
-0.6436 -4.5931 -1.8982 0.9802
0.6051 -4.6681 -1.9265 0.9799
1.0260 -4.6254 -1.9391 0.9797
1.4452 -4.5481 -1.9531 0.9796
1.8600 -4.4358 -1.9686 0.9794
3.0505 -3.8889 -2.0229 0.9789
4.0965 -3.0341 -2.0864 0.9782
4.0836 -2.4931 -1.9582 0.9795
4.3378 -2.1424 -1.9801 0.9793
4.5625 -1.7663 -2.0024 0.9791
4.7547 -1.3672 -2.0248 0.9788
5.0308 -0.5111 -2.0696 0.9784
5.1098 -0.0606 -2.0915 0.9782
4.8453 2.2517 -2.1867 0.9772
3.8304 3.8855 -2.2331 0.9767
3.4776 4.2231 -2.2390 0.9766
1.7789 5.1701 -2.2377 0.9766
0.3415 5.3916 -2.2111 0.9769
-0.1403 5.3683 -2.1978 0.9771
-0.6146 5.2976 -2.1827 0.9772
-1.0766 5.1813 -2.1659 0.9774
-1.5218 5.0217 -2.1476 0.9776
-3.0590 4.0093 -2.0640 0.9784
-3.3678 3.6799 -2.0416 0.9787
-2.3594 2.1556 -1.3080 0.9863
-3.8811 2.9560 -1.9967 0.9791
-4.0836 2.5689 -1.9745 0.9794
-4.8763 1.0089 -2.0380 0.9787
-1.9223 0.0486 -0.7870 0.9917
-1.9490 -0.1251 -0.7993 0.9916
-1.9954 -0.3087 -0.8264 0.9913
-4.4711 -1.5427 -1.9358 0.9798
-4.0770 -2.2858 -1.9130 0.9800
-3.8384 -2.6281 -1.9039 0.9801
-3.2869 -3.2460 -1.8907 0.9802
-2.6480 -3.7652 -1.8839 0.9803
-1.5578 -4.3377 -1.8863 0.9803
-1.1669 -4.4691 -1.8904 0.9802
-0.7657 -4.5693 -1.8962 0.9802
-0.3562 -4.6374 -1.9035 0.9801
0.4789 -4.6743 -1.9231 0.9799
0.8998 -4.6419 -1.9352 0.9798
1.3198 -4.5749 -1.9488 0.9796
1.7361 -4.4731 -1.9638 0.9795
2.1463 -4.3363 -1.9802 0.9793
3.6670 -3.4414 -2.0582 0.9785
4.0019 -3.1336 -2.0803 0.9783
4.3002 -2.7863 -2.0971 0.9781
4.2646 -2.2503 -1.9735 0.9794
4.7006 -1.4892 -2.0181 0.9789
4.8685 -1.0755 -2.0406 0.9787
5.0904 -0.1969 -2.0850 0.9782
5.0234 1.6582 -2.1651 0.9774
4.8932 2.1164 -2.1820 0.9772
4.2335 3.3980 -2.2218 0.9768
3.9292 3.7776 -2.2308 0.9767
3.5871 4.1256 -2.2375 0.9766
2.8038 4.7101 -2.2434 0.9766
1.9181 5.1240 -2.2392 0.9766
1.4493 5.2610 -2.2334 0.9767
0.0036 5.3803 -2.2020 0.9770
-0.4735 5.3237 -2.1874 0.9772
-0.9397 5.2208 -2.1711 0.9773
-1.3904 5.0740 -2.1532 0.9775
-2.6092 4.3967 -2.0925 0.9781
-2.9600 4.1030 -2.0706 0.9784
-3.2787 3.7813 -2.0484 0.9786
-3.8133 3.0692 -2.0034 0.9791
-4.0267 2.6864 -1.9811 0.9793
-4.5255 2.4662 -2.1094 0.9780
-4.8624 1.1427 -2.0443 0.9786
-1.9456 0.2771 -0.8043 0.9915
-1.9422 0.1012 -0.7960 0.9916
-1.9321 -0.0721 -0.7913 0.9917
-4.6628 -1.0234 -1.9538 0.9796
-4.5200 -1.4252 -1.9397 0.9797
-4.3463 -1.8111 -1.9271 0.9799
-3.9127 -2.5277 -1.9065 0.9801
-3.6562 -2.8549 -1.8985 0.9802
-3.3755 -3.1593 -1.8922 0.9802
-3.0725 -3.4395 -1.8876 0.9803
-2.0470 -4.1216 -1.8835 0.9803
-1.6727 -4.2923 -1.8854 0.9803
-1.2854 -4.4329 -1.8890 0.9802
-0.0657 -4.6655 -1.9097 0.9800
0.3528 -4.6773 -1.9197 0.9799
1.1941 -4.5987 -1.9445 0.9797
1.6118 -4.5073 -1.9591 0.9795
2.0241 -4.3810 -1.9752 0.9794
2.4282 -4.2196 -1.9925 0.9792
3.9039 -3.2293 -2.0736 0.9783
4.2147 -2.8942 -2.0925 0.9781
4.1887 -2.3560 -1.9669 0.9794
2.3023 -1.0364 -1.0334 0.9891
4.6435 -1.6092 -2.0113 0.9790
5.1296 0.1226 -2.1000 0.9781
5.1239 1.0529 -2.1409 0.9776
5.0534 1.5192 -2.1597 0.9775
4.9371 1.9800 -2.1771 0.9773
4.3170 3.2787 -2.2186 0.9768
4.0246 3.6669 -2.2283 0.9767
3.6935 4.0248 -2.2357 0.9767
3.3269 4.3480 -2.2407 0.9766
2.5034 4.8755 -2.2431 0.9766
1.5912 5.2249 -2.2354 0.9767
0.1481 5.3880 -2.2060 0.9770
-1.2571 5.1225 -2.1587 0.9775
-2.1092 4.7306 -2.1198 0.9779
-2.8580 4.1942 -2.0772 0.9783
-2.2248 2.2629 -1.2988 0.9864
-4.4682 2.5926 -2.1143 0.9779
-4.8450 1.2766 -2.0506 0.9786
-4.6994 -0.9002 -1.9583 0.9795
-4.5662 -1.3063 -1.9438 0.9797
-4.2072 -2.0708 -1.9192 0.9799
-3.9847 -2.4253 -1.9092 0.9800
-3.1656 -3.3581 -1.8888 0.9803
-2.8479 -3.6205 -1.8853 0.9803
-1.7864 -4.2442 -1.8846 0.9803
-1.4028 -4.3940 -1.8878 0.9803
-0.1905 -4.6554 -1.9069 0.9801
0.6473 -4.6654 -1.9277 0.9798
1.4870 -4.5384 -1.9546 0.9796
3.0883 -3.8652 -2.0249 0.9788
4.1265 -2.9995 -2.0879 0.9782
4.5833 -1.7273 -2.0046 0.9791
5.0406 -0.4665 -2.0718 0.9784
5.1154 -0.0148 -2.0936 0.9781
5.1362 0.9126 -2.1350 0.9777
5.0794 1.3797 -2.1542 0.9775
4.8283 2.2966 -2.1883 0.9772
4.6345 2.7364 -2.2028 0.9770
4.3966 3.1570 -2.2153 0.9769
3.7967 3.9209 -2.2338 0.9767
2.6335 4.8073 -2.2434 0.9766
0.7580 3.1936 -1.3434 0.9859
0.7770 5.3713 -2.2212 0.9768
0.2930 5.3915 -2.2098 0.9769
-0.1883 5.3633 -2.1964 0.9771
-0.6616 5.2880 -2.1811 0.9772
-1.1221 5.1672 -2.1641 0.9774
-2.3843 4.5579 -2.1053 0.9780
-3.0915 3.9774 -2.0617 0.9785
-2.1790 2.3385 -1.3082 0.9863
-4.5944 2.2946 -2.1019 0.9780
-4.8802 0.9642 -2.0359 0.9787
-2.0690 -0.3391 -0.8581 0.9910
-4.6095 -1.1860 -1.9480 0.9796
-4.4541 -1.5816 -1.9345 0.9798
-4.2685 -1.9606 -1.9225 0.9799
-3.8131 -2.6613 -1.9031 0.9801
-3.5467 -2.9795 -1.8958 0.9802
-3.2569 -3.2744 -1.8902 0.9802
-2.9453 -3.5445 -1.8861 0.9803
1.5258 4.8537 -2.2174 0.9780
0.6340 5.0121 -2.2018 0.9782
-0.2644 4.9906 -2.1780 0.9784
-1.1314 4.7959 -2.1475 0.9787
-1.9333 4.4428 -2.1116 0.9791
-2.9545 3.6643 -2.0514 0.9797
-2.1876 2.2653 -1.3725 0.9864
-4.1733 2.4718 -2.1139 0.9791
-4.3454 2.0741 -2.0984 0.9792
-1.5594 0.4259 -0.7045 0.9930
-1.5008 0.2688 -0.6645 0.9934
-1.5279 0.1346 -0.6685 0.9933
-1.5276 -0.1393 -0.6685 0.9933
-1.4993 -0.2733 -0.6642 0.9934
-3.7866 -2.2585 -1.9215 0.9809
-3.5548 -2.5765 -1.9134 0.9810
-3.2992 -2.8736 -1.9068 0.9811
-3.0215 -3.1482 -1.9017 0.9811
-2.0731 -3.8245 -1.8959 0.9812
-1.7246 -3.9968 -1.8971 0.9812
-1.3630 -4.1409 -1.8999 0.9812
-0.9902 -4.2558 -1.9043 0.9811
1.3636 -4.2913 -1.9624 0.9805
1.7542 -4.1835 -1.9770 0.9804
2.1377 -4.0425 -1.9930 0.9802
2.5114 -3.8686 -2.0101 0.9801
3.5456 -3.1531 -2.0678 0.9795
3.8489 -2.8507 -2.0874 0.9793
4.0717 -2.0110 -1.9791 0.9804
4.2797 -1.6568 -2.0000 0.9802
4.7798 -0.0567 -2.0833 0.9794
4.8013 0.8088 -2.1220 0.9790
4.5191 2.1001 -2.1718 0.9785
4.3406 2.5107 -2.1854 0.9784
3.5675 3.6187 -2.2146 0.9781
2.4920 4.4538 -2.2242 0.9780
0.7691 4.9998 -2.2046 0.9782
0.3182 5.0249 -2.1943 0.9783
-0.1308 5.0052 -2.1821 0.9784
-1.0048 4.8356 -2.1525 0.9787
-1.8184 4.5050 -2.1173 0.9790
-2.2942 2.0960 -1.3543 0.9865
-3.6411 2.7732 -1.9947 0.9802
-3.8337 2.4117 -1.9739 0.9804
-4.2979 2.1948 -2.1032 0.9792
-1.5748 0.4758 -0.7170 0.9928
-1.5233 0.1754 -0.6683 0.9933
-1.5271 0.0386 -0.6658 0.9934
-1.5112 -0.2338 -0.6664 0.9933
-1.5435 -0.3824 -0.6930 0.9931
-1.5915 -0.5491 -0.7337 0.9927
-4.0498 -1.8164 -1.9344 0.9808
-3.6269 -2.4833 -1.9157 0.9810
-2.1748 -3.7674 -1.8958 0.9812
-1.8306 -3.9481 -1.8966 0.9812
-0.3365 -4.3818 -1.9153 0.9810
0.0562 -4.4140 -1.9238 0.9809
0.8495 -4.3821 -1.9453 0.9807
1.6376 -4.2193 -1.9725 0.9804
2.0235 -4.0883 -1.9880 0.9803
2.7657 -3.7273 -2.0228 0.9800
3.1163 -3.4981 -2.0418 0.9798
3.4495 -3.2373 -2.0617 0.9796
3.7622 -2.9459 -2.0825 0.9794
4.0037 -2.1127 -1.9729 0.9804
2.2919 -0.9587 -1.0827 0.9892
4.4071 -1.3962 -2.0148 0.9800
4.7627 -0.1842 -2.0772 0.9794
4.8086 0.6781 -2.1164 0.9790
4.7696 1.1141 -2.1346 0.9789
4.5645 1.9742 -2.1674 0.9785
4.3985 2.3892 -2.1815 0.9784
4.1912 2.7879 -2.1938 0.9783
3.9443 3.1658 -2.2042 0.9782
3.6597 3.5185 -2.2125 0.9781
3.3404 3.8418 -2.2187 0.9780
2.6105 4.3853 -2.2242 0.9780
1.7861 4.7713 -2.2203 0.9780
1.3498 4.8998 -2.2149 0.9781
0.5289 2.9160 -1.2916 0.9872
0.4535 5.0221 -2.1976 0.9782
0.0034 5.0157 -2.1859 0.9784
-0.4415 4.9652 -2.1724 0.9785
-1.2981 4.7373 -2.1407 0.9788
-1.7014 4.5641 -2.1228 0.9790
-2.4406 4.1126 -2.0842 0.9793
-2.7706 3.8405 -2.0638 0.9795
-3.5767 2.8789 -2.0010 0.9802
-3.7796 2.5215 -1.9801 0.9804
-4.2468 2.3143 -2.1078 0.9791
-1.5156 0.2158 -0.6672 0.9933
-1.5286 -0.0571 -0.6666 0.9933
-3.9136 -2.0584 -1.9271 0.9809
-3.6968 -2.3882 -1.9181 0.9810
-3.4553 -2.6980 -1.9106 0.9811
-3.1906 -2.9862 -1.9045 0.9811
-2.9045 -3.2515 -1.9001 0.9812
-2.5988 -3.4924 -1.8972 0.9812
-2.2751 -3.7079 -1.8959 0.9812
-1.5814 -4.0579 -1.8981 0.9812
-1.2150 -4.1905 -1.9015 0.9811
-0.8383 -4.2934 -1.9065 0.9811
0.7304 -4.3952 -1.9418 0.9807
1.5205 -4.2521 -1.9681 0.9805
2.2885 -3.9769 -1.9997 0.9802
2.6575 -3.7898 -2.0173 0.9800
3.3516 -3.3188 -2.0556 0.9796
3.6707 -3.0364 -2.0762 0.9794
3.9593 -2.7188 -2.0932 0.9793
3.9333 -2.2123 -1.9668 0.9805
4.3544 -1.5090 -2.0084 0.9801
4.5186 -1.1260 -2.0295 0.9799
4.6485 -0.7256 -2.0504 0.9797
4.7420 -0.3109 -2.0711 0.9795
4.8121 0.5475 -2.1107 0.9791
4.2576 2.6703 -2.1903 0.9783
4.0224 3.0549 -2.2013 0.9782
3.4396 3.7482 -2.2171 0.9780
2.7268 4.3133 -2.2240 0.9780
1.4818 4.8659 -2.2168 0.9781
0.6360 3.0401 -1.3536 0.9865
0.1381 5.0223 -2.1896 0.9783
-0.7475 4.9041 -2.1620 0.9786
-1.1735 4.7818 -2.1458 0.9787
-1.5826 4.6200 -2.1283 0.9789
-1.9712 4.4213 -2.1097 0.9791
-2.9842 3.6340 -2.0493 0.9797
-2.2017 2.2395 -1.3687 0.9864
-3.5093 2.9830 -2.0073 0.9801
-3.7223 2.6302 -1.9864 0.9803
-4.1923 2.4325 -2.1124 0.9791
-4.3592 2.0330 -2.0963 0.9792
-1.5536 0.4094 -0.7002 0.9930
-1.5050 0.2556 -0.6653 0.9934
-1.5245 -0.0160 -0.6645 0.9934
-1.4997 -0.2873 -0.6655 0.9934
-4.1558 -1.6024 -1.9411 0.9808
-3.9736 -1.9558 -1.9302 0.9809
-3.2723 -2.9021 -1.9062 0.9811
-2.9925 -3.1744 -1.9013 0.9811
-2.6924 -3.4228 -1.8979 0.9812
-2.0388 -3.8430 -1.8959 0.9812
-1.3261 -4.1538 -1.9003 0.9812
-0.1799 -4.3985 -1.9185 0.9810
0.2144 -4.4179 -1.9277 0.9809
1.4030 -4.2820 -1.9638 0.9805
1.7930 -4.1709 -1.9786 0.9804
2.5482 -3.8493 -2.0119 0.9801
2.9079 -3.6394 -2.0302 0.9799
3.2519 -3.3975 -2.0496 0.9797
3.5772 -3.1243 -2.0699 0.9795
4.0939 -1.9765 -1.9812 0.9804
4.2988 -1.6201 -2.0021 0.9802
4.7847 -0.0139 -2.0853 0.9793
4.8119 0.4172 -2.1050 0.9791
4.6439 1.7194 -2.1581 0.9786
4.5031 2.1419 -2.1732 0.9785
4.3204 2.5509 -2.1866 0.9783
4.0971 2.9419 -2.1982 0.9782
3.8348 3.3102 -2.2078 0.9781
3.5360 3.6516 -2.2153 0.9781
2.8409 4.2379 -2.2235 0.9780
2.4520 4.4758 -2.2242 0.9780
2.0411 4.6732 -2.2225 0.9780
1.6129 4.8280 -2.2184 0.9780
0.7565 3.1871 -1.4276 0.9858
0.7240 5.0044 -2.2037 0.9782
0.2731 5.0249 -2.1932 0.9783
-0.1755 5.0007 -2.1807 0.9784
