ply
format ascii 1.0
element vertex 1596
property float32 x
property float32 y
property float32 z
property float32 I
end_header
-5.3865 4.7778 -2.0383 0.9705
-6.4160 3.9046 -2.1262 0.9693
-6.9378 1.3266 -1.9996 0.9711
-6.8735 0.0692 -1.9459 0.9718
-6.7676 -0.5383 -1.9219 0.9722
-6.6156 -1.1276 -1.8998 0.9725
-6.4200 -1.6959 -1.8798 0.9728
-5.9075 -2.7605 -1.8460 0.9733
-5.5954 -3.2527 -1.8322 0.9735
-5.2490 -3.7158 -1.8206 0.9736
-4.8708 -4.1482 -1.8112 0.9738
-4.4628 -4.5484 -1.8039 0.9739
-4.0273 -4.9149 -1.7988 0.9739
-3.5664 -5.2465 -1.7959 0.9740
-3.0823 -5.5418 -1.7952 0.9740
-2.5771 -5.7997 -1.7966 0.9740
-2.0529 -6.0189 -1.8003 0.9739
-0.3889 -6.4323 -1.8243 0.9736
0.1885 -6.4848 -1.8366 0.9734
4.4458 -4.8229 -2.0175 0.9729
4.9258 -4.4672 -2.0453 0.9726
5.3807 -4.0665 -2.0745 0.9722
5.7885 -3.6109 -2.0984 0.9719
5.7512 -2.9091 -1.9824 0.9734
2.3229 -0.9247 -0.7690 0.9896
6.3644 -1.8952 -2.0425 0.9726
6.6057 -1.3389 -2.0731 0.9722
7.0387 1.1199 -2.1922 0.9706
6.8899 2.4114 -2.2452 0.9699
6.7170 3.0489 -2.2689 0.9696
6.0592 3.4335 -2.1421 0.9713
5.4543 3.7716 -2.0397 0.9726
4.4265 4.4130 -1.9225 0.9742
3.9567 4.7215 -1.8947 0.9745
3.4134 4.9041 -1.8378 0.9753
2.9457 5.1614 -1.8279 0.9754
1.7097 3.7360 -1.2637 0.9830
2.0061 5.6760 -1.8517 0.9751
1.0090 6.2186 -1.9377 0.9740
-0.1231 6.8309 -2.1014 0.9718
-0.6608 6.1258 -1.8951 0.9745
-2.0360 6.9150 -2.2172 0.9703
-3.1519 6.2790 -2.1609 0.9710
-5.5624 4.3025 -2.1629 0.9710
-5.8433 3.7366 -2.1333 0.9714
-6.2300 2.5613 -2.0718 0.9722
-6.3438 1.9666 -2.0428 0.9726
-6.3833 0.2062 -1.9644 0.9736
-6.3020 -0.3605 -1.9415 0.9739
-6.1768 -0.9119 -1.9204 0.9742
-6.0098 -1.4454 -1.9012 0.9745
-5.8033 -1.9584 -1.8839 0.9747
-5.2803 -2.9145 -1.8551 0.9751
-3.8546 -4.4964 -1.8216 0.9755
-3.4314 -4.8141 -1.8184 0.9756
0.0411 -6.0246 -1.8531 0.9751
0.5831 -6.0392 -1.8662 0.9749
1.1293 -6.0111 -1.8812 0.9747
2.2225 -5.8235 -1.9172 0.9743
3.2961 -5.4558 -1.9606 0.9737
3.8170 -5.2033 -1.9849 0.9734
4.3222 -4.9048 -2.0108 0.9730
4.8077 -4.5605 -2.0382 0.9726
5.6922 -3.7305 -2.0933 0.9719
2.2880 -0.9707 -0.7645 0.9897
6.5497 -1.4810 -2.0654 0.9723
6.7544 -0.9032 -2.0960 0.9719
7.0392 0.9589 -2.1851 0.9707
7.0133 1.6039 -2.2128 0.9703
6.9228 2.2501 -2.2390 0.9700
6.7665 2.8904 -2.2632 0.9697
6.2205 3.3431 -2.1721 0.9709
4.5189 4.3075 -1.9202 0.9742
4.0803 4.6531 -1.9035 0.9744
3.0625 5.0972 -1.8290 0.9754
0.5942 3.2063 -1.0030 0.9864
-0.5188 6.0841 -1.8781 0.9748
-1.2696 7.2016 -2.2492 0.9699
-1.8862 6.9797 -2.2238 0.9702
-2.4717 6.7007 -2.1967 0.9706
-3.0206 6.3695 -2.1682 0.9709
-3.5288 5.9916 -2.1388 0.9713
-3.9927 5.5727 -2.1086 0.9717
-2.3561 2.2856 -1.0096 0.9864
-5.4791 4.4378 -2.1687 0.9709
-5.7797 3.8810 -2.1413 0.9713
-6.0135 3.3000 -2.1098 0.9717
-6.3952 1.5215 -2.0219 0.9729
-6.3265 -0.2199 -1.9471 0.9739
-6.0554 -1.3136 -1.9058 0.9744
-5.6239 -2.3282 -1.8722 0.9748
-5.3534 -2.8002 -1.8582 0.9750
-5.0493 -3.2463 -1.8463 0.9752
-4.7137 -3.6646 -1.8364 0.9753
-3.5396 -4.7376 -1.8190 0.9756
-3.0994 -5.0301 -1.8173 0.9756
-2.6382 -5.2879 -1.8176 0.9756
-0.6269 -5.9478 -1.8395 0.9753
-0.0937 -6.0144 -1.8501 0.9751
0.9923 -6.0222 -1.8773 0.9748
1.5396 -5.9616 -1.8938 0.9746
2.0861 -5.8567 -1.9123 0.9743
3.1636 -5.5119 -1.9547 0.9738
4.6882 -4.6510 -2.0312 0.9727
6.4907 -1.6213 -2.0577 0.9724
6.8737 -0.4536 -2.1188 0.9716
6.9842 0.1644 -2.1488 0.9712
7.0258 1.4419 -2.2060 0.9704
6.9516 2.0885 -2.2326 0.9701
5.7500 3.6064 -2.0877 0.9720
4.2050 4.5841 -1.9133 0.9743
3.6503 4.7733 -1.8483 0.9752
2.2443 5.5459 -1.8402 0.9753
0.1786 6.6680 -2.0517 0.9725
-1.1109 7.2476 -2.2552 0.9698
-1.7345 7.0408 -2.2304 0.9701
-3.8809 5.6811 -2.1162 0.9716
-4.3098 5.2353 -2.0857 0.9720
-5.0211 4.2565 -2.0246 0.9728
-5.7126 4.0245 -2.1493 0.9712
-5.9600 3.4466 -2.1176 0.9716
-6.1533 2.8583 -2.0869 0.9720
-6.4069 0.4950 -1.9765 0.9735
-6.2448 -0.6378 -1.9308 0.9741
-5.4244 -2.6844 -1.8615 0.9750
-4.8006 -3.5625 -1.8387 0.9753
-4.0574 -4.3249 -1.8240 0.9755
-3.6463 -4.6591 -1.8197 0.9755
-3.2117 -4.9601 -1.8175 0.9756
-1.7873 -5.6516 -1.8232 0.9755
-1.2796 -5.8077 -1.8292 0.9754
-0.7590 -5.9247 -1.8372 0.9753
0.8554 -6.0306 -1.8734 0.9748
2.4933 -5.7488 -1.9273 0.9741
4.0713 -5.0601 -1.9976 0.9732
5.0414 -4.3718 -2.0524 0.9725
5.4894 -3.9600 -2.0819 0.9721
6.4288 -1.7597 -2.0501 0.9725
6.6582 -1.1960 -2.0807 0.9721
6.9619 0.0079 -2.1413 0.9713
7.0342 1.2802 -2.1991 0.9705
6.8531 2.5709 -2.2513 0.9698
6.5575 3.1542 -2.2382 0.9700
5.9032 3.5208 -2.1141 0.9716
5.3124 3.8508 -2.0181 0.9729
4.7681 4.1539 -1.9450 0.9739
4.3311 4.5142 -1.9242 0.9742
3.7698 4.7073 -1.8549 0.9751
3.2966 4.9684 -1.8340 0.9754
2.8299 5.2250 -1.8277 0.9754
0.8775 6.2899 -1.9534 0.9738
0.3243 6.5893 -2.0292 0.9728
-0.2785 6.9146 -2.1285 0.9715
-0.8135 6.2368 -1.9346 0.9740
-2.1827 6.8473 -2.2105 0.9704
-2.7505 6.5416 -2.1827 0.9707
-4.2068 5.3501 -2.0934 0.9719
-4.9430 4.3843 -2.0322 0.9727
-5.6417 4.1667 -2.1572 0.9711
-6.1100 3.0063 -2.0945 0.9719
-6.4143 0.6403 -1.9827 0.9734
-6.3673 0.0641 -1.9585 0.9737
-6.2749 -0.4991 -1.9361 0.9740
-5.4932 -2.5669 -1.8650 0.9749
-5.2057 -3.0262 -1.8520 0.9751
-4.1565 -4.2362 -1.8254 0.9755
-3.7516 -4.5785 -1.8206 0.9755
-3.3226 -4.8879 -1.8179 0.9756
-1.9122 -5.6065 -1.8220 0.9755
-1.4080 -5.7722 -1.8275 0.9754
0.1753 -6.0322 -1.8562 0.9751
4.5694 -4.1440 -2.0505 0.9743
4.9863 -3.7684 -2.0776 0.9740
5.3572 -3.3418 -2.0988 0.9737
5.3180 -2.6900 -1.9810 0.9752
2.3247 -0.9254 -0.8317 0.9895
5.8717 -1.7484 -2.0365 0.9745
6.2568 -0.6944 -2.0926 0.9738
6.4448 0.4411 -2.1473 0.9731
6.4120 1.6183 -2.1982 0.9725
6.3080 2.2077 -2.2215 0.9722
6.1442 2.7890 -2.2429 0.9720
5.4468 3.7663 -2.2012 0.9725
4.2764 4.2632 -2.0072 0.9749
2.9421 5.1550 -1.9730 0.9753
0.7857 3.0735 -1.0545 0.9867
1.0077 6.2104 -2.0914 0.9738
0.4653 6.5039 -2.1675 0.9729
-0.1226 6.7996 -2.2606 0.9717
-1.3063 6.5482 -2.2195 0.9722
-2.3971 6.0758 -2.1711 0.9728
-2.8948 5.7670 -2.1449 0.9732
-4.4863 4.1612 -2.0340 0.9745
-5.4038 3.4556 -2.1321 0.9733
-5.6137 2.9189 -2.1032 0.9737
-5.8853 1.8245 -2.0482 0.9744
-5.9385 0.1919 -1.9750 0.9753
-5.8676 -0.3357 -1.9536 0.9755
-5.7554 -0.8497 -1.9338 0.9758
-3.9762 -3.8761 -1.8458 0.9769
-3.2089 -4.5020 -1.8377 0.9770
-1.9031 -5.1985 -1.8402 0.9769
-0.4618 -5.5766 -1.8600 0.9767
0.5444 -5.6380 -1.8828 0.9764
1.0537 -5.6088 -1.8970 0.9762
2.0711 -5.4268 -1.9308 0.9758
2.5733 -5.2728 -1.9503 0.9756
3.0668 -5.0763 -1.9714 0.9753
3.5484 -4.8372 -1.9942 0.9750
5.2691 -3.4532 -2.0941 0.9738
5.2384 -2.7988 -1.9742 0.9753
5.8109 -1.8730 -2.0294 0.9746
6.2188 -0.8316 -2.0856 0.9739
6.3518 -0.2765 -2.1134 0.9736
6.4594 0.8799 -2.1670 0.9729
6.4288 1.4702 -2.1921 0.9726
5.9824 3.2151 -2.2576 0.9718
5.5927 3.6848 -2.2263 0.9722
5.0281 4.0001 -2.1357 0.9733
4.3660 4.1618 -2.0050 0.9749
3.9921 4.5526 -2.0127 0.9748
3.5271 4.8329 -1.9888 0.9751
1.8547 3.8241 -1.4128 0.9822
0.8707 3.1136 -1.0747 0.9865
0.6049 6.4285 -2.1463 0.9732
0.0295 6.7390 -2.2401 0.9720
-1.1622 6.5924 -2.2251 0.9722
-2.7735 5.8485 -2.1516 0.9731
-3.2438 5.5076 -2.1247 0.9734
-3.6744 5.1284 -2.0971 0.9738
-5.5658 3.0543 -2.1104 0.9736
-5.7384 2.5109 -2.0821 0.9739
-5.8620 1.9623 -2.0548 0.9743
-5.9496 0.3258 -1.9806 0.9752
-5.6452 -1.2246 -1.9201 0.9759
-5.4652 -1.7089 -1.9034 0.9762
-4.0654 -3.7893 -1.8474 0.9768
-2.8985 -4.7042 -1.8367 0.9770
-2.0181 -5.1521 -1.8393 0.9769
-1.0752 -5.4596 -1.8497 0.9768
-0.0875 -5.6181 -1.8677 0.9766
0.9260 -5.6200 -1.8933 0.9763
1.4360 -5.5601 -1.9088 0.9761
2.4482 -5.3154 -1.9453 0.9756
2.9442 -5.1296 -1.9660 0.9754
5.1787 -3.5623 -2.0894 0.9739
5.1567 -2.9054 -1.9675 0.9754
5.4703 -2.4669 -1.9947 0.9750
5.7476 -1.9958 -2.0224 0.9747
5.9847 -1.4949 -2.0505 0.9743
6.1778 -0.9674 -2.0786 0.9740
6.3232 -0.4173 -2.1065 0.9736
6.4580 0.7328 -2.1604 0.9730
6.4419 1.3221 -2.1860 0.9727
6.2337 2.4992 -2.2325 0.9721
6.0402 3.0738 -2.2528 0.9718
4.4529 4.0582 -2.0027 0.9749
4.0897 4.4584 -2.0111 0.9748
3.6457 4.7674 -1.9950 0.9750
2.7098 5.2825 -1.9735 0.9753
2.2415 5.5390 -1.9862 0.9751
0.6185 2.9650 -1.0068 0.9873
-0.3851 6.1375 -2.0441 0.9744
-1.5889 6.4498 -2.2080 0.9724
-2.1350 6.2131 -2.1838 0.9727
-2.6499 5.9272 -2.1582 0.9730
-3.1296 5.5968 -2.1315 0.9733
-3.5704 5.2267 -2.1041 0.9737
-3.9696 4.8221 -2.0761 0.9740
-4.6355 3.9297 -2.0200 0.9747
-5.2751 3.7163 -2.1449 0.9732
-5.6998 2.6476 -2.0891 0.9739
-5.8356 2.0999 -2.0615 0.9742
-5.9633 1.0024 -2.0100 0.9748
-5.9084 -0.0729 -1.9641 0.9754
-5.6844 -1.1004 -1.9246 0.9759
-5.5138 -1.5894 -1.9074 0.9761
-5.0649 -2.5065 -1.8785 0.9765
-4.1531 -3.7007 -1.8490 0.9768
-3.7936 -4.0437 -1.8431 0.9769
-2.1322 -5.1035 -1.8385 0.9770
-1.6712 -5.2843 -1.8423 0.9769
-0.2130 -5.6067 -1.8650 0.9766
1.3083 -5.5790 -1.9048 0.9761
2.8209 -5.1801 -1.9606 0.9754
3.7832 -4.7019 -2.0061 0.9749
4.2400 -4.3991 -2.0309 0.9746
4.6755 -4.0545 -2.0571 0.9743
5.6818 -2.1167 -2.0155 0.9748
5.9293 -1.6230 -2.0434 0.9744
6.3989 0.0073 -2.1270 0.9734
6.4531 0.5861 -2.1539 0.9731
6.3917 1.7652 -2.2042 0.9724
6.2728 2.3532 -2.2270 0.9722
5.3051 3.8455 -2.1780 0.9728
4.7618 4.1484 -2.0993 0.9737
4.1847 4.3616 -2.0092 0.9748
3.2925 4.9622 -1.9795 0.9752
2.8264 5.2186 -1.9728 0.9753
1.7113 3.9705 -1.4372 0.9819
0.8764 6.2816 -2.1083 0.9736
0.3239 6.5802 -2.1900 0.9726
-0.2732 6.7813 -2.2560 0.9718
-0.8118 6.2242 -2.0865 0.9739
-1.4479 6.5009 -2.2139 0.9723
-2.0009 6.2772 -2.1900 0.9726
-2.5241 6.0032 -2.1647 0.9729
-3.4638 5.3228 -2.1110 0.9736
-3.8737 4.9264 -2.0832 0.9739
-2.2206 2.3562 -1.0762 0.9864
-4.5621 4.0465 -2.0270 0.9746
-5.2032 3.8429 -2.1502 0.9731
-5.4606 3.3232 -2.1248 0.9734
-5.9056 1.6878 -2.0416 0.9744
-5.9248 0.0596 -1.9695 0.9753
-5.3618 -1.9432 -1.8957 0.9762
-5.1285 -2.3965 -1.8817 0.9764
-4.5652 -3.2317 -1.8592 0.9767
-4.2390 -3.6102 -1.8508 0.9768
-3.5081 -4.2813 -1.8399 0.9769
-1.3163 -5.3962 -1.8463 0.9769
0.1637 -5.6335 -1.8734 0.9765
3.8492 -4.1756 -2.0309 0.9762
4.2568 -3.8605 -2.0551 0.9759
2.3266 -0.9262 -0.8955 0.9894
5.6380 -1.1427 -2.0572 0.9759
5.7893 -0.6426 -2.0830 0.9756
5.9516 0.4074 -2.1333 0.9750
5.4456 3.0858 -2.2383 0.9738
4.8700 4.0557 -2.2664 0.9734
3.6861 4.3987 -2.0523 0.9759
3.4048 4.8918 -2.1313 0.9750
2.0010 5.6617 -2.1474 0.9748
0.7829 3.0624 -1.1304 0.9867
0.4494 6.2822 -2.2523 0.9736
-0.1127 6.2540 -2.2368 0.9738
-0.6590 6.1084 -2.1971 0.9742
-1.7202 5.8425 -2.1780 0.9745
-2.2118 5.6061 -2.1552 0.9747
-2.6735 5.3261 -2.1311 0.9750
-3.1019 5.0068 -2.1063 0.9753
-4.4307 3.4272 -2.0031 0.9765
-5.2205 2.7145 -2.1042 0.9753
-5.3745 2.2096 -2.0780 0.9756
-5.5472 1.1892 -2.0288 0.9762
-5.5678 0.6812 -2.0059 0.9765
-5.5462 0.1792 -1.9844 0.9767
-5.4839 -0.3137 -1.9643 0.9769
-5.3826 -0.7947 -1.9457 0.9772
-4.6216 -2.5509 -1.8877 0.9778
-4.3517 -2.9376 -1.8776 0.9779
-3.7296 -3.6358 -1.8626 0.9781
-3.0108 -4.2240 -1.8550 0.9782
-2.6200 -4.4734 -1.8539 0.9782
-2.2108 -4.6915 -1.8547 0.9782
-1.7855 -4.8771 -1.8573 0.9782
-1.3459 -5.0291 -1.8617 0.9781
-0.8943 -5.1465 -1.8680 0.9781
0.0360 -5.2738 -1.8860 0.9778
0.9867 -5.2520 -1.9110 0.9776
1.9371 -5.0758 -1.9428 0.9772
2.8646 -4.7416 -1.9810 0.9767
3.7438 -4.2485 -2.0250 0.9762
4.1568 -3.9431 -2.0489 0.9760
4.8993 -3.2109 -2.0948 0.9754
5.3889 -1.7370 -2.0247 0.9762
5.5933 -1.2647 -2.0507 0.9759
5.7556 -0.7697 -2.0766 0.9756
5.9420 0.2732 -2.1272 0.9750
5.9274 1.3555 -2.1744 0.9745
5.5030 2.9575 -2.2341 0.9738
5.2539 3.4616 -2.2500 0.9736
4.9531 3.9404 -2.2634 0.9735
4.2470 4.0483 -2.0982 0.9754
3.0548 5.0845 -2.1212 0.9751
1.8484 3.8111 -1.5147 0.9822
0.5909 6.2803 -2.2558 0.9736
-0.5177 6.0715 -2.1791 0.9744
-1.0703 6.0710 -2.2045 0.9742
-1.5930 5.8945 -2.1835 0.9744
-2.3435 2.2734 -1.1676 0.9862
-4.9559 3.3279 -2.1348 0.9750
-5.1747 2.8397 -2.1108 0.9752
-5.4602 1.8277 -2.0591 0.9758
-5.5033 -0.1913 -1.9692 0.9769
-4.6846 -2.4504 -1.8906 0.9778
-4.4220 -2.8430 -1.8800 0.9779
-4.1309 -3.2114 -1.8711 0.9780
-3.8132 -3.5542 -1.8641 0.9781
-2.7196 -4.4138 -1.8540 0.9782
-2.3149 -4.6399 -1.8543 0.9782
0.8672 -5.2631 -1.9075 0.9776
2.2887 -4.9692 -1.9564 0.9770
2.7505 -4.7921 -1.9759 0.9768
4.0553 -4.0232 -2.0428 0.9760
4.4517 -3.6890 -2.0675 0.9757
4.7928 -2.7004 -1.9673 0.9769
5.0793 -2.2906 -1.9925 0.9766
5.3315 -1.8513 -2.0183 0.9763
5.5459 -1.3853 -2.0442 0.9760
5.7191 -0.8956 -2.0701 0.9757
5.8479 -0.3859 -2.0958 0.9754
5.9293 0.1396 -2.1210 0.9751
5.5571 2.8280 -2.2298 0.9739
4.3681 3.9809 -2.1135 0.9752
3.6411 4.7613 -2.1435 0.9749
3.1463 4.9805 -2.1067 0.9753
2.2387 5.5320 -2.1341 0.9750
0.6205 2.9746 -1.0866 0.9872
0.7326 6.2748 -2.2592 0.9735
0.1681 6.2753 -2.2449 0.9737
-0.3851 6.1375 -2.1991 0.9742
-0.9362 6.1073 -2.2095 0.9741
-2.4462 5.4715 -2.1433 0.9749
-2.8917 5.1714 -2.1188 0.9751
-4.3003 3.6455 -2.0160 0.9763
-5.3031 2.4633 -2.0910 0.9755
-5.5206 1.4449 -2.0407 0.9760
-5.4381 -0.5554 -1.9548 0.9770
-5.3179 -1.0295 -1.9370 0.9773
-5.1612 -1.4878 -1.9208 0.9774
-4.9698 -1.9282 -1.9063 0.9776
-4.7456 -2.3485 -1.8935 0.9778
-4.4905 -2.7468 -1.8824 0.9779
-3.8951 -3.4708 -1.8657 0.9781
-3.5587 -3.7933 -1.8600 0.9781
-2.8181 -4.3523 -1.8542 0.9782
-2.4179 -4.5862 -1.8541 0.9782
-2.0004 -4.7883 -1.8557 0.9782
-0.1997 -5.2556 -1.8808 0.9779
0.7478 -5.2718 -1.9041 0.9776
1.2247 -5.2227 -1.9183 0.9775
2.6358 -4.8402 -1.9709 0.9769
3.0895 -4.6334 -1.9915 0.9766
3.9525 -4.1009 -2.0368 0.9761
4.3547 -3.7763 -2.0612 0.9758
4.7307 -3.4127 -2.0860 0.9755
4.7161 -2.7982 -1.9610 0.9770
5.4959 -1.5044 -2.0377 0.9761
5.6797 -1.0203 -2.0636 0.9758
5.8199 -0.5152 -2.0894 0.9755
5.9579 0.5411 -2.1394 0.9749
5.8906 1.6269 -2.1854 0.9744
5.7764 2.1670 -2.2063 0.9741
5.6078 2.6974 -2.2253 0.9739
5.1101 3.7041 -2.2570 0.9735
3.7603 4.6954 -2.1512 0.9748
3.2883 4.9560 -2.1269 0.9751
2.8229 5.2120 -2.1197 0.9751
2.3565 5.4676 -2.1291 0.9750
0.7121 3.0680 -1.1263 0.9867
0.3091 6.2805 -2.2487 0.9736
-0.2513 6.2382 -2.2326 0.9738
-1.8450 5.7880 -2.1725 0.9745
-2.3295 5.5404 -2.1493 0.9748
-3.2029 4.9219 -2.1000 0.9754
-3.5854 4.5598 -2.0743 0.9757
-2.2222 2.3579 -1.1587 0.9863
-4.2311 3.7529 -2.0225 0.9763
-5.2630 2.5896 -2.0976 0.9754
-5.5564 1.0625 -2.0230 0.9763
-5.5663 0.5557 -2.0004 0.9765
-5.5345 0.0557 -1.9793 0.9768
-5.2038 -1.3746 -1.9247 0.9774
-4.8048 -2.2452 -1.8966 0.9777
-3.2912 -4.0166 -1.8570 0.9782
-2.5199 -4.5306 -1.8539 0.9782
-2.1065 -4.7407 -1.8551 0.9782
-1.6774 -4.9181 -1.8582 0.9782
-1.2347 -5.0616 -1.8631 0.9781
-0.7805 -5.1702 -1.8698 0.9780
-0.3170 -5.2431 -1.8784 0.9779
0.1534 -5.2793 -1.8887 0.9778
3.6017 -3.9072 -2.0364 0.9775
4.4911 -2.8015 -2.0285 0.9776
4.6078 -2.3307 -1.9788 0.9781
5.2447 -1.0630 -2.0507 0.9773
5.3807 -0.5972 -2.0747 0.9771
5.4740 -0.1155 -2.0982 0.9768
5.5221 0.3780 -2.1211 0.9766
5.4755 1.3819 -2.1641 0.9761
5.2313 2.3745 -2.2016 0.9757
4.7898 3.3120 -2.2316 0.9754
4.4983 3.7462 -2.2433 0.9752
3.3739 4.8474 -2.2633 0.9750
2.9290 5.1323 -2.2646 0.9750
1.9642 5.5574 -2.2588 0.9751
0.4153 5.8056 -2.2305 0.9754
-0.6158 5.7079 -2.2001 0.9757
-1.5937 5.4128 -2.1623 0.9761
-2.0507 5.1977 -2.1413 0.9763
-2.4808 4.9422 -2.1191 0.9766
-2.8807 4.6498 -2.0962 0.9768
-3.2476 4.3247 -2.0726 0.9771
-2.4753 2.2959 -1.2938 0.9856
-4.8735 2.5341 -2.1050 0.9767
-5.0215 2.0644 -2.0806 0.9770
-5.1910 1.1128 -2.0345 0.9775
-5.2140 0.6379 -2.0130 0.9777
-5.1973 0.1679 -1.9927 0.9780
-5.0502 -0.7456 -1.9563 0.9784
-4.9227 -1.1839 -1.9402 0.9785
-4.0918 -2.7621 -1.8919 0.9791
-3.5086 -3.4203 -1.8777 0.9792
-3.1814 -3.7111 -1.8732 0.9793
-2.8330 -3.9745 -1.8704 0.9793
-2.0803 -4.4145 -1.8702 0.9793
-1.2662 -4.7311 -1.8769 0.9792
-0.4071 -4.9163 -1.8905 0.9791
0.0338 -4.9575 -1.8998 0.9790
0.9268 -4.9331 -1.9235 0.9787
1.8177 -4.7628 -1.9536 0.9784
3.1018 -4.2284 -2.0096 0.9778
3.5038 -3.9761 -2.0309 0.9776
3.8873 -3.6875 -2.0533 0.9773
4.2491 -3.3634 -2.0767 0.9771
4.5409 -2.4261 -1.9729 0.9782
2.2855 -0.9697 -0.9514 0.9894
5.0185 -1.6176 -2.0206 0.9777
5.5144 0.2535 -2.1155 0.9766
5.5274 0.7529 -2.1378 0.9764
5.4920 1.2560 -2.1590 0.9762
5.4073 1.7576 -2.1789 0.9759
5.2728 2.2523 -2.1973 0.9757
4.5756 3.6401 -2.2406 0.9753
4.2005 4.0041 -2.2239 0.9754
3.7732 4.3030 -2.1932 0.9758
3.0432 5.0653 -2.2645 0.9750
2.0894 5.5152 -2.2601 0.9751
0.5524 2.9803 -1.1616 0.9871
-0.9907 5.6194 -2.1867 0.9759
-1.9386 5.2555 -2.1467 0.9763
-2.7836 4.7263 -2.1020 0.9768
-3.4995 4.0620 -2.0546 0.9773
-4.6160 3.0996 -2.1307 0.9765
-4.9884 2.1827 -2.0866 0.9769
-5.1046 1.7087 -2.0629 0.9772
-5.2120 0.7565 -2.0183 0.9777
-5.1596 -0.1793 -1.9784 0.9781
-5.0766 -0.6337 -1.9605 0.9783
-4.9578 -1.0755 -1.9441 0.9785
-4.8048 -1.5024 -1.9292 0.9787
-4.6193 -1.9123 -1.9159 0.9788
-4.4030 -2.3031 -1.9042 0.9789
-4.1576 -2.6730 -1.8941 0.9790
-3.5870 -3.3433 -1.8791 0.9792
-2.5591 -4.1533 -1.8695 0.9793
-2.1783 -4.3660 -1.8698 0.9793
-0.5166 -4.9006 -1.8884 0.9791
-0.0771 -4.9504 -1.8973 0.9790
0.3674 -4.9652 -1.9079 0.9789
1.7069 -4.7922 -1.9495 0.9784
2.1466 -4.6607 -1.9664 0.9783
2.5782 -4.4919 -1.9848 0.9781
3.4047 -4.0427 -2.0255 0.9776
3.7932 -3.7631 -2.0476 0.9774
4.1607 -3.4479 -2.0708 0.9771
2.3081 -1.0409 -0.9703 0.9892
4.9661 -1.7245 -2.0146 0.9777
5.3178 -0.8328 -2.0627 0.9772
5.5038 0.1296 -2.1097 0.9767
5.5055 1.1299 -2.1538 0.9762
4.9184 3.0849 -2.2249 0.9754
4.6500 3.5322 -2.2378 0.9753
4.2849 3.9051 -2.2217 0.9755
3.8885 4.2390 -2.2044 0.9757
3.5713 4.6700 -2.2530 0.9751
3.1423 4.9742 -2.2547 0.9751
1.9648 3.8302 -1.6497 0.9817
1.7119 5.6317 -2.2557 0.9751
0.6399 3.0675 -1.2008 0.9867
0.6768 5.7974 -2.2367 0.9753
0.1554 5.8006 -2.2237 0.9754
-0.8664 5.6521 -2.1913 0.9758
-1.3560 5.5042 -2.1724 0.9760
-3.0681 4.4914 -2.0844 0.9770
-4.7832 2.7660 -2.1174 0.9766
-4.9527 2.3006 -2.0927 0.9769
-5.0795 1.8278 -2.0687 0.9771
-5.1641 1.3516 -2.0456 0.9774
-5.2075 0.8754 -2.0236 0.9776
-5.2106 0.4025 -2.0027 0.9779
-5.1745 -0.0639 -1.9831 0.9781
-4.4599 -2.2071 -1.9070 0.9789
-3.3480 -3.5688 -1.8752 0.9793
-3.0101 -3.8461 -1.8716 0.9793
-2.6518 -4.0954 -1.8697 0.9793
-2.2752 -4.3156 -1.8696 0.9793
-1.4750 -4.6639 -1.8745 0.9793
-0.6255 -4.8827 -1.8864 0.9791
-0.1878 -4.9412 -1.8949 0.9790
0.7025 -4.9527 -1.9170 0.9788
2.0372 -4.6971 -1.9620 0.9783
2.4710 -4.5377 -1.9800 0.9781
3.3045 -4.1070 -2.0201 0.9777
4.4014 -2.6115 -1.9613 0.9783
4.9115 -1.8298 -2.0086 0.9778
5.4080 -0.4788 -2.0806 0.9770
5.4903 0.0063 -2.1040 0.9768
5.5268 0.5020 -2.1267 0.9765
5.5159 1.0038 -2.1485 0.9763
5.3464 2.0057 -2.1883 0.9758
4.9783 2.9691 -2.2213 0.9755
4.7216 3.4225 -2.2348 0.9753
4.3797 3.8155 -2.2260 0.9754
4.0050 4.1743 -2.2169 0.9755
3.2662 4.9225 -2.2639 0.9750
0.7106 3.0616 -1.2044 0.9866
0.8076 5.7883 -2.2397 0.9753
0.2857 5.8047 -2.2272 0.9754
-0.2324 5.7687 -2.2125 0.9756
-0.7411 5.6816 -2.1957 0.9758
-1.7096 5.3633 -2.1572 0.9762
-2.1603 5.1378 -2.1359 0.9764
-2.5832 4.8728 -2.1135 0.9767
-2.9752 4.5719 -2.0903 0.9769
-3.3334 4.2393 -2.0666 0.9772
-4.1867 3.0921 -1.9946 0.9780
-4.7299 2.8785 -2.1219 0.9766
-4.9143 2.4180 -2.0989 0.9768
-5.1468 1.4710 -2.0513 0.9773
-5.2135 0.5205 -2.0078 0.9778
-5.1871 0.0522 -1.9879 0.9780
-5.1227 -0.4075 -1.9693 0.9782
-4.7162 -1.7093 -1.9224 0.9787
-1.1615 -4.7614 -1.8782 0.9792
-0.7340 -4.8626 -1.8846 0.9792
-0.2981 -4.9298 -1.8926 0.9791
0.1442 -4.9622 -1.9024 0.9790
3.3806 -3.6673 -2.0414 0.9787
3.7332 -3.3857 -2.0627 0.9785
4.0632 -3.0708 -2.0845 0.9782
4.3124 -2.1813 -1.9779 0.9793
2.3346 -0.9294 -1.0284 0.9892
4.7363 -1.4104 -2.0226 0.9789
4.8971 -0.9926 -2.0450 0.9786
5.1034 -0.1077 -2.0892 0.9782
5.1445 0.3521 -2.1104 0.9780
5.1417 0.8181 -2.1309 0.9777
5.0004 1.7501 -2.1683 0.9774
4.8609 2.2064 -2.1848 0.9772
4.6759 2.6496 -2.1996 0.9770
2.7162 4.7593 -2.2428 0.9766
1.7603 3.8466 -1.7313 0.9819
0.8243 3.2243 -1.3621 0.9857
0.3856 5.3895 -2.2114 0.9769
-0.0968 5.3705 -2.1984 0.9771
-0.5722 5.3041 -2.1834 0.9772
-1.0357 5.1918 -2.1667 0.9774
-1.9092 4.8391 -2.1291 0.9778
-2.3113 4.6045 -2.1086 0.9780
-2.6859 4.3353 -2.0873 0.9782
-3.0302 4.0352 -2.0653 0.9784
-2.1520 2.3876 -1.3155 0.9862
-3.8618 2.9871 -1.9982 0.9791
-4.3707 2.7949 -2.1233 0.9778
-4.5649 2.3736 -2.1058 0.9780
-4.7070 1.9351 -2.0829 0.9782
-4.8726 1.0445 -2.0395 0.9787
-1.9537 0.2390 -0.8055 0.9915
-4.6339 -1.1145 -1.9506 0.9796
-4.0941 -2.2598 -1.9139 0.9800
-3.5951 -2.9264 -1.8972 0.9802
-2.6725 -3.7493 -1.8844 0.9803
-1.5846 -4.3284 -1.8865 0.9803
-1.1942 -4.4621 -1.8905 0.9802
0.8728 -4.6461 -1.9348 0.9798
1.2933 -4.5813 -1.9483 0.9796
1.7104 -4.4816 -1.9632 0.9795
2.1213 -4.3468 -1.9796 0.9793
2.9137 -3.9720 -2.0161 0.9789
3.2892 -3.7326 -2.0362 0.9787
3.6468 -3.4593 -2.0573 0.9785
3.9834 -3.1531 -2.0792 0.9783
4.2832 -2.8070 -2.0959 0.9781
4.2506 -2.2710 -1.9724 0.9794
2.2846 -0.9693 -1.0157 0.9893
5.0865 -0.2214 -2.0837 0.9782
5.1382 0.2362 -2.1052 0.9780
5.0282 1.6343 -2.1639 0.9774
4.9001 2.0932 -2.1808 0.9772
4.7264 2.5401 -2.1961 0.9771
3.9437 3.7592 -2.2299 0.9767
3.2278 4.4227 -2.2409 0.9766
2.8221 4.6971 -2.2427 0.9766
1.9378 5.1151 -2.2387 0.9766
0.5069 5.3867 -2.2144 0.9769
0.0235 5.3798 -2.2018 0.9770
-0.9210 5.2241 -2.1711 0.9773
-1.8045 4.8921 -2.1341 0.9777
-2.9470 4.1131 -2.0709 0.9784
-3.2671 3.7923 -2.0487 0.9786
-2.2568 2.1893 -1.2869 0.9865
-4.6751 2.0456 -2.0886 0.9782
-4.7874 1.6025 -2.0662 0.9784
-4.8604 1.1564 -2.0448 0.9786
-1.9442 0.2822 -0.8041 0.9915
-1.9438 0.1064 -0.7967 0.9916
-1.9301 -0.0671 -0.7904 0.9917
-1.9529 -0.2438 -0.8055 0.9915
-4.6665 -1.0123 -1.9543 0.9796
-3.9192 -2.5197 -1.9069 0.9801
-3.3828 -3.1530 -1.8926 0.9802
-3.0800 -3.4341 -1.8880 0.9803
-2.7565 -3.6895 -1.8849 0.9803
-2.4142 -3.9181 -1.8835 0.9803
-2.0549 -4.1187 -1.8838 0.9803
-1.6805 -4.2902 -1.8858 0.9803
-1.2930 -4.4316 -1.8894 0.9802
-0.4870 -4.6203 -1.9015 0.9801
-0.0727 -4.6661 -1.9100 0.9800
0.3462 -4.6785 -1.9200 0.9799
0.7673 -4.6569 -1.9316 0.9798
1.1882 -4.6008 -1.9448 0.9797
1.6064 -4.5098 -1.9594 0.9795
2.4237 -4.2227 -1.9927 0.9792
2.8172 -4.0266 -2.0113 0.9790
3.1967 -3.7958 -2.0311 0.9788
3.9012 -3.2328 -2.0737 0.9783
4.2115 -2.8969 -2.0921 0.9781
4.1870 -2.3591 -1.9669 0.9794
2.2965 -1.0357 -1.0311 0.9892
4.6424 -1.6121 -2.0113 0.9790
5.1293 0.1208 -2.0999 0.9781
5.1487 0.5842 -2.1207 0.9779
5.1236 1.0515 -2.1407 0.9776
5.0530 1.5181 -2.1594 0.9775
4.9365 1.9792 -2.1767 0.9773
4.7742 2.4296 -2.1924 0.9771
4.3158 3.2783 -2.2181 0.9768
4.0231 3.6666 -2.2278 0.9767
3.6917 4.0245 -2.2351 0.9767
2.9263 4.6323 -2.2425 0.9766
2.0529 5.0728 -2.2397 0.9766
0.6405 3.0703 -1.2837 0.9865
0.6282 5.3808 -2.2172 0.9769
0.1443 5.3861 -2.2052 0.9770
-1.2611 5.1193 -2.1578 0.9775
-1.6984 4.9426 -2.1390 0.9777
-2.1131 4.7265 -2.1190 0.9779
-2.5019 4.4742 -2.0980 0.9781
-3.1901 3.8751 -2.0542 0.9785
-2.2249 2.2573 -1.2972 0.9864
-3.7450 3.1748 -2.0094 0.9790
-3.9690 2.7962 -1.9871 0.9792
-4.6408 2.1557 -2.0943 0.9781
-4.7630 1.7139 -2.0717 0.9784
-2.1039 0.3537 -0.8732 0.9908
-1.9104 -0.0236 -0.7819 0.9918
-4.6970 -0.9093 -1.9580 0.9795
-4.5630 -1.3154 -1.9436 0.9797
-4.2025 -2.0797 -1.9191 0.9799
-2.8394 -3.6280 -1.8855 0.9803
-2.5016 -3.8634 -1.8837 0.9803
-1.3912 -4.3990 -1.8883 0.9803
-0.9952 -4.5172 -1.8931 0.9802
-0.5898 -4.6037 -1.8996 0.9801
0.2410 -4.6785 -1.9173 0.9800
1.5020 -4.5359 -1.9556 0.9796
1.9164 -4.4187 -1.9712 0.9794
3.1032 -3.8568 -2.0260 0.9788
3.8176 -3.3106 -2.0681 0.9784
4.1379 -2.9851 -2.0882 0.9782
4.1217 -2.4455 -1.9615 0.9795
4.7797 -1.3083 -2.0282 0.9788
4.9313 -0.8858 -2.0506 0.9786
5.0448 -0.4466 -2.0728 0.9783
5.1341 0.9344 -2.1358 0.9777
4.9700 1.8645 -2.1725 0.9773
4.6229 2.7572 -2.2030 0.9770
4.3826 3.1768 -2.2154 0.9769
4.1002 3.5720 -2.2256 0.9768
3.7782 3.9379 -2.2335 0.9767
3.0288 4.5648 -2.2421 0.9766
2.1669 5.0276 -2.2406 0.9766
0.7495 5.3719 -2.2199 0.9768
0.2653 5.3893 -2.2084 0.9769
-0.2158 5.3584 -2.1948 0.9771
-0.6887 5.2803 -2.1794 0.9772
-2.0116 4.7842 -2.1241 0.9778
-2.4071 4.5406 -2.1034 0.9780
-3.1109 3.9563 -2.0598 0.9785
-2.1862 2.3198 -1.3046 0.9863
-3.6832 3.2670 -2.0150 0.9789
-4.4233 2.6919 -2.1192 0.9779
-4.7361 1.8251 -2.0773 0.9783
-1.9556 -0.1556 -0.8029 0.9916
-4.4419 -1.6099 -1.9337 0.9798
-4.0378 -2.3473 -1.9115 0.9800
-3.2344 -3.2964 -1.8901 0.9802
-2.5879 -3.8070 -1.8840 0.9803
-2.2368 -4.0218 -1.8835 0.9803
-1.8698 -4.2080 -1.8846 0.9803
-1.4886 -4.3646 -1.8873 0.9803
-1.0954 -4.4906 -1.8918 0.9802
-0.6921 -4.5851 -1.8978 0.9802
-0.2810 -4.6473 -1.9055 0.9801
0.1359 -4.6765 -1.9148 0.9800
3.1816 -3.4515 -2.0458 0.9797
4.0481 -2.0477 -1.9771 0.9804
4.4399 -1.3221 -2.0189 0.9800
4.5874 -0.9298 -2.0399 0.9798
4.6996 -0.5216 -2.0607 0.9796
4.7742 -0.1007 -2.0811 0.9794
4.8038 0.7643 -2.1199 0.9790
4.6664 1.6332 -2.1547 0.9787
4.5339 2.0580 -2.1700 0.9785
4.3593 2.4703 -2.1837 0.9784
3.5968 3.5858 -2.2134 0.9781
3.2705 3.9027 -2.2191 0.9780
1.8071 3.9489 -1.8926 0.9812
0.8222 3.2162 -1.4467 0.9856
0.3593 5.0229 -2.1946 0.9783
-0.5337 4.9475 -2.1687 0.9785
-2.1609 4.3048 -2.0992 0.9792
-2.1272 2.3601 -1.3847 0.9862
-4.4246 1.8191 -2.0849 0.9793
-1.5189 0.3256 -0.6770 0.9932
-1.5215 0.1861 -0.6680 0.9933
-1.5280 0.0494 -0.6663 0.9934
-1.5296 -0.0875 -0.6677 0.9933
-1.5138 -0.2235 -0.6669 0.9933
-1.5386 -0.3700 -0.6896 0.9931
-1.5891 -0.5363 -0.7309 0.9927
-3.8674 -2.1346 -1.9252 0.9809
-3.6447 -2.4604 -1.9165 0.9810
-3.1278 -3.0491 -1.9037 0.9811
-2.8369 -3.3092 -1.8996 0.9812
-2.5266 -3.5447 -1.8971 0.9812
-1.4980 -4.0920 -1.8991 0.9812
-0.3627 -4.3795 -1.9152 0.9810
0.0301 -4.4138 -1.9237 0.9809
0.8240 -4.3861 -1.9450 0.9807
2.0000 -4.0983 -1.9874 0.9803
2.3779 -3.9360 -2.0041 0.9801
3.4306 -3.2542 -2.0608 0.9796
3.7449 -2.9643 -2.0815 0.9794
4.0232 -2.6367 -2.0964 0.9792
3.9908 -2.1322 -1.9719 0.9805
4.3977 -1.4175 -2.0137 0.9800
4.6749 -0.6252 -2.0556 0.9796
4.8044 0.2209 -2.0960 0.9792
4.6930 1.5254 -2.1506 0.9787
4.5711 1.9526 -2.1663 0.9785
4.4070 2.3684 -2.1804 0.9784
2.6276 4.3734 -2.2235 0.9780
1.8698 3.8553 -1.8674 0.9815
1.8045 4.7631 -2.2198 0.9780
0.4723 5.0198 -2.1974 0.9782
-1.6858 4.5701 -2.1229 0.9790
-2.0687 4.3622 -2.1041 0.9792
-2.4271 4.1211 -2.0844 0.9793
-3.0602 3.5521 -2.0433 0.9798
-3.5685 2.8903 -2.0013 0.9802
-3.7726 2.5333 -1.9805 0.9804
-4.2431 2.3285 -2.1094 0.9791
-4.3940 1.9226 -2.0903 0.9793
-1.5367 0.3656 -0.6884 0.9931
-1.5147 0.2198 -0.6670 0.9933
-1.5296 0.0837 -0.6676 0.9933
-1.5283 -0.0531 -0.6665 0.9933
-3.7029 -2.3806 -1.9185 0.9810
-2.9116 -3.2463 -1.9005 0.9812
-1.9428 -3.8940 -1.8965 0.9812
-1.5887 -4.0559 -1.8984 0.9812
1.1214 -4.3421 -1.9545 0.9806
1.5154 -4.2545 -1.9683 0.9805
1.9039 -4.1337 -1.9834 0.9803
3.3486 -3.3221 -2.0557 0.9796
3.6682 -3.0397 -2.0762 0.9794
3.9564 -2.7215 -2.0928 0.9793
2.2893 -1.0324 -1.0945 0.9891
4.3534 -1.5117 -2.0084 0.9801
4.6480 -0.7279 -2.0504 0.9797
4.8118 0.5460 -2.1105 0.9791
4.7854 0.9821 -2.1290 0.9789
4.7168 1.4171 -2.1464 0.9787
4.4520 2.2656 -2.1770 0.9784
4.0213 3.0546 -2.2008 0.9782
3.7475 3.4154 -2.2098 0.9781
3.4380 3.7480 -2.2166 0.9781
3.0959 4.0483 -2.2211 0.9780
2.7246 4.3130 -2.2233 0.9780
1.9770 3.8541 -1.8878 0.9813
1.4788 4.8650 -2.2161 0.9781
-0.3126 4.9828 -2.1759 0.9785
-1.9750 4.4175 -2.1089 0.9791
-2.3398 4.1844 -2.0894 0.9793
-2.6781 3.9205 -2.0692 0.9795
-2.1996 2.2315 -1.3656 0.9864
-4.1975 2.4273 -2.1132 0.9791
-4.3610 2.0257 -2.0956 0.9792
-1.5290 0.1181 -0.6683 0.9933
-3.7594 -2.2996 -1.9206 0.9810
-3.5244 -2.6154 -1.9127 0.9810
-3.2657 -2.9100 -1.9063 0.9811
-2.9851 -3.1819 -1.9015 0.9811
-0.9407 -4.2696 -1.9054 0.9811
-0.5574 -4.3506 -1.9116 0.9810
-0.1672 -4.4006 -1.9192 0.9810
0.6248 -4.4052 -1.9391 0.9808
1.4171 -4.2795 -1.9647 0.9805
1.8073 -4.1671 -1.9795 0.9804
2.9218 -3.6314 -2.0313 0.9799
3.8710 -2.2968 -1.9617 0.9806
4.3071 -1.6046 -2.0032 0.9801
4.6187 -0.8297 -2.0451 0.9797
4.7867 0.0055 -2.0861 0.9793
4.7960 0.8728 -2.1245 0.9790
4.7380 1.3085 -2.1422 0.9788
4.6375 1.7397 -2.1586 0.9786
4.0840 2.9603 -2.1983 0.9782
2.4297 4.4861 -2.2235 0.9780
1.5884 4.8337 -2.2175 0.9780
0.7161 3.0855 -1.3805 0.9863
-1.4857 4.6609 -2.1320 0.9789
-2.2508 4.2458 -2.0943 0.9792
-2.9128 3.7044 -2.0538 0.9796
-2.1635 2.2957 -1.3748 0.9863
-3.4535 3.0632 -2.0119 0.9801
-3.6746 2.7140 -1.9909 0.9803
-4.3257 2.1284 -2.1010 0.9792
-4.4528 1.7159 -2.0797 0.9794
-1.5263 0.1524 -0.6685 0.9933
-1.5244 0.0153 -0.6644 0.9934
-1.5288 -0.1216 -0.6684 0.9933
-1.5047 -0.2565 -0.6652 0.9934
-1.5541 -0.4105 -0.7005 0.9930
-1.5962 -0.5785 -0.7399 0.9926
-4.0176 -1.8774 -1.9327 0.9808
-3.8144 -2.2174 -1.9229 0.9809
-3.5855 -2.5382 -1.9146 0.9810
-3.3326 -2.8383 -1.9078 0.9811
-2.7615 -3.3701 -1.8988 0.9812
-2.4467 -3.5993 -1.8967 0.9812
-1.4073 -4.1260 -1.8999 0.9812
-0.6541 -4.3332 -1.9099 0.9811
-0.2655 -4.3910 -1.9172 0.9810
0.1284 -4.4174 -1.9260 0.9809
3.5873 -2.2377 -1.9571 0.9815
3.8100 -1.9272 -1.9764 0.9814
2.3456 -0.9337 -1.1686 0.9889
4.1735 -1.2428 -2.0157 0.9810
4.3095 -0.8735 -2.0354 0.9808
4.4795 -0.0945 -2.0739 0.9804
4.5021 0.7163 -2.1102 0.9801
4.4552 1.1244 -2.1269 0.9800
4.2429 1.9259 -2.1568 0.9797
4.0778 2.3107 -2.1696 0.9796
3.0561 3.6468 -2.2024 0.9792
2.3629 4.1402 -2.2066 0.9792
1.7869 3.9048 -1.9877 0.9813
1.5853 4.4853 -2.2021 0.9792
0.7575 4.6683 -2.1891 0.9794
0.3360 4.6970 -2.1797 0.9795
-1.6719 4.2376 -2.1086 0.9801
-2.0264 4.0369 -2.0908 0.9803
-2.6635 3.5468 -2.0531 0.9806
-2.1197 2.3518 -1.4656 0.9861
-3.4078 2.6359 -1.9942 0.9812
-3.5940 2.2982 -1.9747 0.9814
-1.3281 0.4117 -0.6436 0.9939
-1.3323 0.1630 -0.6213 0.9941
-1.3385 -0.0766 -0.6206 0.9941
-1.3058 -0.3140 -0.6217 0.9941
-1.3331 -0.4499 -0.6513 0.9938
-1.3199 -0.5814 -0.6676 0.9937
-3.6606 -2.0205 -1.9354 0.9817
-2.6871 -3.1345 -1.9111 0.9820
-1.7575 -3.7296 -1.9085 0.9820
-1.4190 -3.8760 -1.9106 0.9820
-0.7099 -4.0853 -1.9194 0.9819
0.0285 -4.1780 -1.9340 0.9818
2.2459 -3.7175 -2.0104 0.9810
2.5905 -3.5315 -2.0273 0.9809
2.9212 -3.3150 -2.0452 0.9807
3.7888 -2.4830 -2.0968 0.9802
4.1345 -1.3327 -2.0107 0.9810
4.2785 -0.9674 -2.0305 0.9809
4.3897 -0.5870 -2.0500 0.9807
4.5058 0.2072 -2.0879 0.9803
4.2781 1.8275 -2.1534 0.9797
4.1228 2.2157 -2.1665 0.9796
3.9291 2.5888 -2.1780 0.9795
3.6986 2.9424 -2.1877 0.9794
3.4332 3.2727 -2.1955 0.9793
3.1354 3.5756 -2.2013 0.9793
2.8082 3.8478 -2.2050 0.9792
2.4550 4.0861 -2.2065 0.9792
1.8454 3.8049 -1.9574 0.9815
1.6861 4.4508 -2.2031 0.9792
1.2790 4.5734 -2.1982 0.9793
0.4417 4.6937 -2.1823 0.9794
-0.8045 4.5635 -2.1450 0.9798
-1.5797 4.2827 -2.1130 0.9801
-1.9397 4.0902 -2.0954 0.9802
-2.2771 3.8663 -2.0770 0.9804
-2.5894 3.6141 -2.0580 0.9806
-2.8745 3.3366 -2.0386 0.9808
-3.3562 2.7183 -1.9992 0.9811
-3.5504 2.3840 -1.9795 0.9813
-1.3207 0.5779 -0.6673 0.9937
-1.3047 0.3104 -0.6208 0.9941
-1.3375 -0.0465 -0.6195 0.9941
-1.3318 -0.1662 -0.6212 0.9941
-1.3015 -0.2823 -0.6165 0.9941
-1.3287 -0.4155 -0.6444 0.9939
-3.7094 -1.9403 -1.9377 0.9817
-3.5056 -2.2538 -1.9291 0.9818
-3.0282 -2.8225 -1.9162 0.9819
-2.7578 -3.0749 -1.9119 0.9820
-2.4686 -3.3041 -1.9092 0.9820
-1.8403 -3.6887 -1.9082 0.9820
-1.5049 -3.8419 -1.9099 0.9820
-0.4358 -4.1340 -1.9242 0.9818
-0.0650 -4.1730 -1.9318 0.9818
0.3094 -4.1817 -1.9409 0.9817
0.6854 -4.1597 -1.9514 0.9816
1.7992 -3.9064 -1.9908 0.9812
2.5054 -3.5809 -2.0230 0.9809
2.8399 -3.3720 -2.0406 0.9808
3.1582 -3.1331 -2.0592 0.9806
3.4576 -2.8652 -2.0786 0.9804
3.7261 -2.5631 -2.0934 0.9803
4.0935 -1.4214 -2.0058 0.9811
4.2454 -1.0605 -2.0255 0.9809
4.4993 0.1059 -2.0833 0.9804
4.5108 0.5118 -2.1014 0.9802
4.4837 0.9202 -2.1187 0.9800
4.3109 1.7283 -2.1498 0.9797
3.7597 2.8559 -2.1855 0.9794
3.5028 3.1924 -2.1938 0.9793
3.2129 3.5025 -2.2001 0.9793
2.8927 3.7827 -2.2043 0.9792
2.1755 4.2409 -2.2063 0.9792
0.6423 3.0791 -1.4560 0.9862
0.5473 4.6878 -2.1847 0.9794
-1.1025 4.4754 -2.1335 0.9799
-1.4864 4.3257 -2.1172 0.9800
-1.8515 4.1414 -2.0999 0.9802
-2.1949 3.9252 -2.0817 0.9804
-2.5137 3.6798 -2.0628 0.9805
-2.8058 3.4083 -2.0434 0.9807
-2.1919 2.2238 -1.4454 0.9863
-3.9490 2.2836 -2.1115 0.9801
-1.3125 0.6097 -0.6699 0.9936
-1.3202 0.2219 -0.6197 0.9941
-1.3382 0.1034 -0.6213 0.9941
-1.3352 -0.0165 -0.6181 0.9941
-1.3359 -0.1364 -0.6216 0.9941
-1.3307 -0.5163 -0.6607 0.9937
-2.8274 -3.0138 -1.9128 0.9820
-2.2404 -3.4601 -1.9081 0.9820
-1.5901 -3.8061 -1.9093 0.9820
-0.8909 -4.0436 -1.9166 0.9819
-0.1583 -4.1660 -1.9298 0.9818
0.5912 -4.1681 -1.9487 0.9816
0.9668 -4.1229 -1.9602 0.9815
1.3399 -4.0463 -1.9730 0.9814
1.7081 -3.9383 -1.9871 0.9813
2.7575 -3.4272 -2.0361 0.9808
3.0801 -3.1957 -2.0545 0.9806
4.2103 -1.1525 -2.0206 0.9809
4.3382 -0.7793 -2.0402 0.9808
4.4905 0.0051 -2.0786 0.9804
4.4941 0.8179 -2.1144 0.9801
4.3412 1.6286 -2.1462 0.9798
3.8186 2.7680 -2.1831 0.9794
3.2885 3.4275 -2.1987 0.9793
1.4844 4.5171 -2.2009 0.9793
0.7201 3.1027 -1.4744 0.9861
0.6528 4.6793 -2.1870 0.9794
0.2312 4.6976 -2.1771 0.9795
-0.6014 4.6104 -2.1522 0.9797
-2.4363 3.7438 -2.0676 0.9805
-2.1560 2.2877 -1.4551 0.9862
-3.6353 2.2123 -1.9698 0.9814
-1.3311 0.5129 -0.6603 0.9937
-1.3120 0.2509 -0.6183 0.9941
-1.3349 0.0134 -0.6179 0.9941
-1.3381 -0.1064 -0.6214 0.9941
-1.3331 -0.4832 -0.6564 0.9938
-1.3115 -0.6129 -0.6701 0.9936
-3.1560 -2.6878 -1.9189 0.9819
-2.8957 -2.9513 -1.9139 0.9819
-2.3177 -3.4096 -1.9083 0.9820
-1.3330 -3.9082 -1.9114 0.9820
-0.9806 -4.0200 -1.9154 0.9819
-0.6194 -4.1033 -1.9209 0.9819
0.1215 -4.1811 -1.9362 0.9817
2.8374 -3.0781 -2.0535 0.9815
3.3859 -2.1121 -1.9575 0.9824
3.5941 -1.8180 -1.9757 0.9822
2.4229 -0.9645 -1.2792 0.9884
3.9326 -1.1710 -2.0127 0.9819
4.0585 -0.8226 -2.0313 0.9817
4.1528 -0.4609 -2.0496 0.9816
4.2139 -0.0889 -2.0675 0.9814
4.2402 0.2903 -2.0848 0.9812
4.2308 0.6731 -2.1014 0.9811
3.9819 1.8074 -2.1450 0.9807
3.6340 2.5128 -2.1672 0.9805
1.7786 3.8867 -2.0966 0.9811
1.1019 4.3099 -2.1821 0.9804
-0.0792 4.3944 -2.1559 0.9806
-1.2183 4.1376 -2.1157 0.9810
-1.5712 3.9824 -2.1000 0.9811
-2.1122 2.3434 -1.5475 0.9860
-2.2772 2.1122 -1.5235 0.9863
-3.2130 2.4853 -1.9925 0.9821
-1.1490 0.4724 -0.6094 0.9945
-1.1588 0.3592 -0.5951 0.9946
-1.1704 0.2509 -0.5871 0.9947
-1.1960 -0.0684 -0.5876 0.9947
-1.1860 -0.1751 -0.5880 0.9947
-1.1625 -0.2796 -0.5865 0.9947
-1.1576 -0.3906 -0.5993 0.9946
-1.1086 -0.6119 -0.6211 0.9944
-3.2728 -2.2093 -1.9369 0.9826
-3.0521 -2.4844 -1.9304 0.9826
-2.8105 -2.7398 -1.9253 0.9827
-2.5497 -2.9742 -1.9216 0.9827
-2.2711 -3.1863 -1.9193 0.9827
-1.6678 -3.5391 -1.9191 0.9827
-1.3464 -3.6778 -1.9212 0.9827
-1.0144 -3.7902 -1.9246 0.9827
0.0270 -3.9619 -1.9434 0.9825
0.7388 -3.9326 -1.9628 0.9823
1.4444 -3.7848 -1.9871 0.9821
2.1254 -3.5180 -2.0161 0.9819
3.0571 -2.8999 -2.0669 0.9814
3.3320 -2.6375 -2.0845 0.9812
3.5760 -2.3436 -2.0972 0.9811
3.5442 -1.8936 -1.9711 0.9823
4.0298 -0.9112 -2.0266 0.9818
4.2018 -0.1829 -2.0630 0.9814
4.0153 1.7152 -2.1418 0.9807
3.4680 2.7590 -2.1738 0.9804
3.2185 3.0680 -2.1811 0.9804
2.9388 3.3514 -2.1865 0.9803
1.8422 3.7983 -2.0707 0.9814
1.5803 4.1715 -2.1881 0.9803
1.1989 4.2870 -2.1835 0.9804
0.8088 4.3639 -2.1770 0.9804
0.0193 4.4007 -2.1587 0.9806
-0.3719 4.3612 -2.1470 0.9807
-0.7553 4.2842 -2.1339 0.9808
-1.4844 4.0243 -2.1040 0.9811
-2.1419 3.6368 -2.0703 0.9814
-2.0935 2.4300 -1.5733 0.9858
-2.2196 2.1532 -1.5169 0.9863
-1.1441 0.5006 -0.6126 0.9945
-1.1633 0.2768 -0.5865 0.9947
-1.1864 0.1722 -0.5881 0.9947
-1.1961 0.0655 -0.5876 0.9947
-1.1965 -0.0416 -0.5872 0.9947
-1.1898 -0.1485 -0.5881 0.9947
-3.3247 -2.1375 -1.9388 0.9825
-3.1094 -2.4173 -1.9319 0.9826
-2.8729 -2.6778 -1.9265 0.9827
1.3570 -3.8098 -1.9838 0.9821
1.7036 -3.6987 -1.9975 0.9820
2.3702 -3.3876 -2.0281 0.9817
2.6853 -3.1885 -2.0448 0.9816
2.9848 -2.9612 -2.0624 0.9814
3.5172 -2.4194 -2.0940 0.9812
3.4928 -1.9680 -1.9665 0.9823
3.9992 -0.9990 -2.0220 0.9818
4.2400 0.4811 -2.0932 0.9812
4.0465 1.6223 -2.1385 0.9808
3.2839 2.9928 -2.1794 0.9804
3.0115 3.2830 -2.1853 0.9803
2.7111 3.5452 -2.1892 0.9803
2.0388 3.9744 -2.1911 0.9803
0.5132 4.3960 -2.1710 0.9805
0.1180 4.4046 -2.1613 0.9806
-1.3965 4.0642 -2.1080 0.9810
-2.3654 3.4627 -2.0570 0.9815
-2.6417 3.2090 -2.0388 0.9817
-1.1558 0.4159 -0.6025 0.9945
-1.1582 0.3031 -0.5872 0.9947
-1.1950 0.0923 -0.5879 0.9947
-1.1960 -0.0148 -0.5867 0.9947
-1.1525 -0.4471 -0.6064 0.9945
-1.1307 -0.5595 -0.6188 0.9944
-3.3751 -2.0645 -1.9407 0.9825
-2.1260 -3.2834 -1.9187 0.9827
-0.8452 -3.8362 -1.9269 0.9827
-0.5006 -3.9077 -1.9325 0.9826
-0.1501 -3.9510 -1.9394 0.9825
0.2042 -3.9656 -1.9478 0.9825
0.5604 -3.9510 -1.9574 0.9824
0.9162 -3.9069 -1.9684 0.9823
1.2693 -3.8330 -1.9806 0.9822
1.6174 -3.7293 -1.9940 0.9821
2.6077 -3.2411 -2.0405 0.9816
3.4399 -2.0410 -1.9620 0.9823
3.9667 -1.0858 -2.0174 0.9818
4.1711 -0.3693 -2.0540 0.9815
4.2228 0.7685 -2.1054 0.9811
3.9464 1.8982 -2.1481 0.9807
3.3474 2.9162 -2.1777 0.9804
3.0825 3.2128 -2.1840 0.9804
2.4694 3.7217 -2.1909 0.9803
0.7465 3.2163 -1.6196 0.9854
0.6121 4.3877 -2.1731 0.9805
-0.5644 4.3274 -2.1407 0.9807
-0.9426 4.2323 -2.1269 0.9809
-1.3076 4.1021 -2.1119 0.9810
-2.2922 3.5225 -2.0615 0.9815
-2.5749 3.2747 -2.0434 0.9816
-2.4687 2.1897 -1.6187 0.9854
-3.2600 2.4077 -1.9879 0.9821
-1.1528 0.4442 -0.6060 0.9945
-1.1765 0.2250 -0.5876 0.9947
-1.1948 -0.0950 -0.5879 0.9947
-1.1814 -0.2014 -0.5878 0.9947
-1.1376 -0.5316 -0.6159 0.9944
-3.4240 -1.9905 -1.9427 0.9825
-3.2200 -2.2795 -1.9352 0.9826
-2.7474 -2.8001 -1.9243 0.9827
-2.1993 -3.2354 -1.9190 0.9827
-1.9011 -3.4181 -1.9185 0.9827
-1.5890 -3.5760 -1.9195 0.9827
-0.9304 -3.8140 -1.9257 0.9827
-0.5876 -3.8924 -1.9309 0.9826
-0.2384 -3.9428 -1.9376 0.9826
0.1152 -3.9646 -1.9456 0.9825
2.9613 -2.6856 -2.0739 0.9821
3.2118 -2.4273 -2.0885 0.9820
3.2021 -1.9975 -1.9579 0.9831
3.9174 -0.4348 -2.0447 0.9824
3.9960 0.2735 -2.0779 0.9821
3.9852 0.6341 -2.0935 0.9820
3.9402 0.9944 -2.1082 0.9819
3.8604 1.3511 -2.1218 0.9817
3.7462 1.7005 -2.1343 0.9816
3.4168 2.3627 -2.1551 0.9815
3.2041 2.6684 -2.1632 0.9814
2.9616 2.9525 -2.1695 0.9813
2.3971 3.4440 -2.1768 0.9813
2.0807 3.6457 -2.1777 0.9813
0.8276 3.2372 -1.7334 0.9851
0.2963 4.1421 -2.1543 0.9815
-0.0745 4.1331 -2.1445 0.9815
-0.4410 4.0884 -2.1333 0.9816
-0.7997 4.0088 -2.1207 0.9817
-1.1471 3.8959 -2.1069 0.9819
-2.0914 3.3757 -2.0601 0.9823
-2.3650 3.1494 -2.0432 0.9824
-2.1045 2.3349 -1.6307 0.9859
-0.9710 0.6209 -0.5979 0.9948
-1.0223 0.5316 -0.5977 0.9948
-1.0520 0.4325 -0.5900 0.9949
-1.0631 0.3296 -0.5774 0.9950
-1.0823 0.2320 -0.5742 0.9950
-1.0968 -0.1619 -0.5752 0.9950
-1.0465 -0.4609 -0.5932 0.9949
-1.0094 -0.5571 -0.5981 0.9948
-3.1090 -2.0987 -1.9460 0.9832
-2.6706 -2.6034 -1.9349 0.9833
-2.4230 -2.8264 -1.9313 0.9834
-2.1584 -3.0281 -1.9292 0.9834
-1.5850 -3.3635 -1.9289 0.9834
-0.6399 -3.6822 -1.9389 0.9833
-0.3094 -3.7361 -1.9449 0.9832
0.0257 -3.7629 -1.9522 0.9832
2.0148 -3.3350 -2.0214 0.9826
2.6160 -2.9686 -2.0527 0.9823
3.9934 0.1836 -2.0739 0.9821
3.9911 0.5437 -2.0896 0.9820
3.7780 1.6139 -2.1313 0.9817
3.6383 1.9553 -2.1428 0.9816
3.4652 2.2831 -2.1528 0.9815
2.4730 3.3886 -2.1763 0.9813
0.3894 4.1386 -2.1565 0.9814
0.0181 4.1387 -2.1471 0.9815
-0.3499 4.1029 -2.1362 0.9816
-1.7184 3.6235 -2.0805 0.9821
-2.0193 3.4286 -2.0643 0.9822
-2.2987 3.2083 -2.0475 0.9824
-2.0773 2.4113 -1.6511 0.9858
-2.9889 2.4209 -1.9954 0.9828
-3.1653 2.1254 -1.9779 0.9830
-1.0107 0.5546 -0.5981 0.9948
-1.0615 0.3553 -0.5807 0.9950
-1.0757 0.2559 -0.5736 0.9950
-1.1063 0.0606 -0.5748 0.9950
-1.1066 -0.0385 -0.5744 0.9950
-1.0629 -0.3324 -0.5778 0.9950
-1.0211 -0.5341 -0.5978 0.9948
-3.1581 -2.0304 -1.9477 0.9832
-2.9541 -2.2966 -1.9412 0.9833
-1.9500 -3.1647 -1.9284 0.9834
-1.6597 -3.3266 -1.9287 0.9834
-1.3571 -3.4645 -1.9303 0.9834
-0.0586 -3.7588 -1.9502 0.9832
0.2786 -3.7649 -1.9585 0.9831
0.9538 -3.6931 -1.9788 0.9830
1.2875 -3.6147 -1.9907 0.9829
1.9361 -3.3732 -2.0177 0.9826
2.2462 -3.2105 -2.0327 0.9825
3.0910 -2.5614 -2.0826 0.9821
3.3024 -1.8607 -1.9664 0.9831
2.2321 -1.0066 -1.2702 0.9890
3.6442 -1.2654 -2.0013 0.9828
3.8776 -0.6072 -2.0361 0.9825
3.9492 -0.2606 -2.0532 0.9823
3.9886 0.0939 -2.0698 0.9822
3.9949 0.4533 -2.0858 0.9820
3.9671 0.8142 -2.1009 0.9819
3.9047 1.1731 -2.1151 0.9818
2.8302 3.0853 -2.1720 0.9813
1.5731 3.8871 -2.1754 0.9813
0.1109 4.1421 -2.1496 0.9815
-0.2582 4.1152 -2.1391 0.9816
-0.9747 3.9566 -2.1139 0.9818
-1.3153 3.8276 -2.0997 0.9819
-1.6399 3.6680 -2.0844 0.9821
-2.2308 3.2657 -2.0517 0.9823
-2.4927 3.0280 -2.0347 0.9825
-2.6304 2.2299 -1.7890 0.9846
-3.1237 2.2006 -1.9823 0.9829
-1.0412 0.4837 -0.5956 0.9948
-1.0592 0.3811 -0.5840 0.9949
-1.1051 0.0854 -0.5750 0.9950
-1.1030 -0.1127 -0.5752 0.9950
-1.0637 -0.3066 -0.5743 0.9950
-1.0556 -0.4095 -0.5874 0.9949
-1.0319 -0.5107 -0.5973 0.9948
-0.9836 -0.6016 -0.5981 0.9948
-2.7878 -2.4841 -1.9371 0.9833
-2.5492 -2.7173 -1.9329 0.9834
-1.4339 -3.4323 -1.9297 0.9834
-0.8031 -3.6451 -1.9364 0.9833
-0.4756 -3.7125 -1.9417 0.9833
0.1940 -3.7660 -1.9563 0.9832
0.5321 -3.7512 -1.9655 0.9831
1.8567 -3.4096 -2.0141 0.9827
2.7570 -2.8605 -2.0610 0.9823
3.0266 -2.6246 -2.0783 0.9821
3.2696 -2.3587 -2.0915 0.9820
3.2528 -1.9300 -1.9621 0.9831
3.6070 -1.3438 -1.9969 0.9828
3.7452 -1.0251 -2.0144 0.9827
3.9818 0.0045 -2.0657 0.9822
3.9965 0.3630 -2.0818 0.9821
3.9773 0.7238 -2.0972 0.9819
3.7125 1.7858 -2.1372 0.9816
3.5560 2.1209 -2.1480 0.9815
3.3668 2.4405 -2.1573 0.9814
2.3203 3.4970 -2.1772 0.9813
1.9991 3.6910 -2.1776 0.9813
1.6602 3.8521 -2.1761 0.9813
1.3075 3.9789 -2.1727 0.9813
0.7177 3.0923 -1.6469 0.9858
-0.5311 4.0718 -2.1303 0.9817
-0.8873 3.9838 -2.1174 0.9818
-1.2313 3.8629 -2.1033 0.9819
-1.5602 3.7108 -2.0883 0.9820
-0.9850 0.5994 -0.5982 0.9948
-1.1033 0.1101 -0.5752 0.9950
-1.1062 0.0111 -0.5739 0.9950
-1.0675 -0.2820 -0.5728 0.9950
-1.0406 -0.4863 -0.5959 0.9948
-3.0589 -2.1654 -1.9443 0.9833
-2.8446 -2.4227 -1.9384 0.9833
-2.6107 -2.6608 -1.9339 0.9833
-1.2019 -3.5240 -1.9316 0.9834
-0.8840 -3.6241 -1.9352 0.9833
-0.2264 -3.7453 -1.9466 0.9832
0.1094 -3.7653 -1.9542 0.9832
3.0433 -2.3000 -2.0893 0.9828
3.0335 -1.8923 -1.9582 0.9838
3.2170 -1.6272 -1.9745 0.9837
2.2491 -0.8953 -1.3259 0.9890
3.5130 -1.0461 -2.0076 0.9834
3.6219 -0.7341 -2.0241 0.9833
3.7025 -0.4109 -2.0403 0.9832
3.7534 -0.0792 -2.0562 0.9830
3.7735 0.2583 -2.0716 0.9829
3.6412 1.2744 -2.1129 0.9826
3.5323 1.6034 -2.1246 0.9825
3.0188 2.5140 -2.1517 0.9822
2.5353 3.0254 -2.1619 0.9822
2.2576 3.2436 -2.1645 0.9821
1.9596 3.4335 -2.1653 0.9821
1.6443 3.5932 -2.1643 0.9821
1.3152 3.7211 -2.1616 0.9822
0.2792 3.9034 -2.1434 0.9823
-0.0702 3.8960 -2.1342 0.9824
-0.7543 3.7813 -2.1118 0.9826
-1.0824 3.6761 -2.0989 0.9827
-1.9759 3.1893 -2.0548 0.9830
-2.2354 2.9768 -2.0389 0.9832
-2.0967 2.3262 -1.7152 0.9858
-2.8733 2.2225 -1.9896 0.9836
-0.8895 0.5688 -0.5783 0.9952
-0.9683 0.3981 -0.5734 0.9952
-1.0047 0.2154 -0.5628 0.9953
-1.0272 -0.0588 -0.5635 0.9953
-1.0184 -0.1504 -0.5638 0.9953
-0.9979 -0.2400 -0.5622 0.9953
-0.9628 -0.4241 -0.5762 0.9952
-2.0541 -2.8817 -1.9382 0.9840
-1.5084 -3.2009 -1.9380 0.9840
-0.9172 -3.4270 -1.9431 0.9840
-0.2943 -3.5541 -1.9532 0.9839
0.6667 -3.5490 -1.9778 0.9837
0.9863 -3.4938 -1.9883 0.9836
1.3020 -3.4115 -2.0000 0.9835
1.6116 -3.3023 -2.0126 0.9834
1.9130 -3.1665 -2.0262 0.9833
2.4818 -2.8164 -2.0560 0.9830
3.1731 -1.6953 -1.9704 0.9837
2.2307 -0.9464 -1.3272 0.9890
3.6851 -0.4928 -2.0363 0.9832
3.7318 0.8534 -2.0967 0.9827
3.2657 2.1517 -2.1420 0.9823
2.8497 2.7164 -2.1563 0.9822
2.3292 3.1915 -2.1640 0.9821
2.0360 3.3887 -2.1652 0.9821
0.7163 3.8647 -2.1527 0.9822
-0.6704 3.8027 -2.1149 0.9825
-1.0014 3.7053 -2.1022 0.9826
-1.3197 3.5776 -2.0885 0.9828
-1.6226 3.4215 -2.0740 0.9829
-2.2036 2.1377 -1.6815 0.9861
-0.9634 0.4215 -0.5759 0.9952
-0.9783 0.3275 -0.5651 0.9953
-0.9987 0.2376 -0.5622 0.9953
-1.0272 0.0562 -0.5635 0.9953
-1.0216 -0.1275 -0.5639 0.9953
-1.0041 -0.2178 -0.5627 0.9953
-0.9800 -0.3064 -0.5624 0.9953
-0.9678 -0.4006 -0.5737 0.9952
-0.9354 -0.4893 -0.5782 0.9952
-0.8880 -0.5709 -0.5782 0.9952
-2.5974 -2.4210 -1.9447 0.9839
-2.3663 -2.6383 -1.9410 0.9840
-2.1185 -2.8356 -1.9386 0.9840
-1.5795 -3.1658 -1.9378 0.9840
-0.9932 -3.4040 -1.9421 0.9840
-0.6867 -3.4865 -1.9463 0.9839
0.2649 -3.5802 -1.9663 0.9838
0.5863 -3.5586 -1.9754 0.9837
0.9065 -3.5101 -1.9856 0.9836
1.5347 -3.3322 -2.0093 0.9834
2.4135 -2.8658 -2.0521 0.9831
2.6804 -2.6592 -2.0680 0.9829
2.9293 -2.4274 -2.0837 0.9828
3.1515 -2.1678 -2.0950 0.9827
2.1964 -0.9905 -1.3196 0.9891
3.4484 -1.1974 -1.9993 0.9835
3.5708 -0.8919 -2.0159 0.9834
3.7317 -0.2463 -2.0483 0.9831
3.7438 0.7684 -2.0933 0.9827
3.6836 1.1067 -2.1066 0.9826
3.4660 1.7638 -2.1300 0.9824
3.1231 2.3723 -2.1481 0.9823
2.9079 2.6501 -2.1548 0.9822
2.3994 3.1377 -2.1634 0.9821
2.1112 3.3420 -2.1651 0.9821
1.4816 3.6611 -2.1632 0.9821
1.1468 3.7726 -2.1596 0.9822
0.6427 3.0807 -1.7237 0.9857
0.4546 3.8943 -2.1474 0.9823
0.1046 3.9040 -2.1390 0.9823
-0.2434 3.8797 -2.1291 0.9824
-0.5859 3.8222 -2.1179 0.9825
-1.5483 3.4632 -2.0777 0.9828
-2.1081 3.0860 -2.0469 0.9831
-2.3566 2.8627 -2.0308 0.9832
-2.1684 2.1999 -1.6918 0.9860
-0.8617 0.6071 -0.5773 0.9952
-0.9144 0.5288 -0.5785 0.9952
-0.9555 0.4438 -0.5770 0.9952
-0.9757 0.3511 -0.5680 0.9953
-1.0274 -0.0127 -0.5627 0.9953
-1.0096 -0.1954 -0.5632 0.9953
-2.8608 -2.1230 -1.9512 0.9839
-2.4258 -2.5857 -1.9418 0.9840
-1.0688 -3.3795 -1.9413 0.9840
-0.7641 -3.4682 -1.9451 0.9839
1.7632 -3.2378 -2.0193 0.9833
3.0979 -2.2348 -2.0922 0.9827
3.0812 -1.8282 -1.9623 0.9838
2.2762 -0.8480 -1.3304 0.9890
3.5427 -0.9697 -2.0117 0.9834
3.7180 -0.3292 -2.0443 0.9831
3.7538 0.6832 -2.0898 0.9827
3.5002 1.6836 -2.1273 0.9824
3.1726 2.2997 -2.1461 0.9823
2.7289 2.8443 -2.1588 0.9822
1.8827 3.4761 -2.1652 0.9821
1.2316 3.7478 -2.1607 0.9822
0.7135 3.0741 -1.7285 0.9857
0.5422 3.8866 -2.1493 0.9823
0.1922 3.9047 -2.1412 0.9823
-0.5008 3.8397 -2.1208 0.9825
-0.8370 3.7580 -2.1087 0.9826
-1.1620 3.6453 -2.0955 0.9827
-1.4729 3.5031 -2.0814 0.9828
-1.7672 3.3335 -2.0665 0.9829
-2.0424 3.1386 -2.0509 0.9831
-2.1327 2.2629 -1.7031 0.9859
-2.3883 2.1184 -1.7485 0.9855
-0.9023 0.5491 -0.5785 0.9952
-0.9724 0.3747 -0.5707 0.9953
-1.0101 0.1931 -0.5632 0.9953
-1.0244 0.1023 -0.5639 0.9953
-1.0273 0.0103 -0.5627 0.9953
-1.0260 -0.0816 -0.5637 0.9953
-1.0144 -0.1729 -0.5636 0.9953
-0.9754 -0.3535 -0.5682 0.9953
-0.8602 -0.6090 -0.5773 0.9952
-2.7065 -2.3050 -1.9471 0.9839
-2.4842 -2.5319 -1.9427 0.9840
-1.9892 -2.9262 -1.9379 0.9840
-1.7194 -3.0915 -1.9375 0.9840
-1.1438 -3.3534 -1.9406 0.9840
-0.8412 -3.4483 -1.9440 0.9839
0.1041 -3.5810 -1.9622 0.9838
2.8881 -2.1827 -2.0901 0.9834
2.8782 -1.7954 -1.9586 0.9845
1.9998 -0.4053 -1.1781 0.9906
2.0363 -0.2260 -1.1829 0.9906
2.0280 -0.0428 -1.1711 0.9907
2.0251 0.3222 -1.1839 0.9906
1.9633 0.4955 -1.1691 0.9907
1.8880 0.6608 -1.1549 0.9908
3.2031 1.8151 -2.1256 0.9831
2.8498 2.3733 -2.1412 0.9830
2.3928 2.8553 -2.1508 0.9829
2.1306 3.0610 -2.1532 0.9829
1.5518 3.3910 -2.1531 0.9829
1.2412 3.5119 -2.1505 0.9829
0.8139 3.1836 -1.8972 0.9849
0.5938 3.6598 -2.1406 0.9830
-0.0663 3.6796 -2.1248 0.9831
-0.7128 3.5734 -2.1037 0.9833
-1.0232 3.4752 -2.0915 0.9834
-1.6042 3.1959 -2.0645 0.9836
-1.8700 3.0184 -2.0500 0.9837
-2.0887 2.3174 -1.8012 0.9857
-2.2630 2.0990 -1.7820 0.9858
-0.7770 0.6010 -0.5671 0.9955
-0.9576 0.0309 -0.5531 0.9956
-0.9571 -0.0547 -0.5535 0.9956
-0.9297 -0.2236 -0.5521 0.9956
-0.8870 -0.3907 -0.5596 0.9955
-0.8514 -0.4699 -0.5614 0.9955
-0.8064 -0.5444 -0.5617 0.9955
-0.7646 -0.6224 -0.5692 0.9955
-2.4208 -2.3599 -1.9519 0.9845
-2.1967 -2.5625 -1.9487 0.9845
-1.4372 -3.0497 -1.9465 0.9845
-0.8738 -3.2648 -1.9513 0.9845
-0.5799 -3.3371 -1.9556 0.9845
0.0232 -3.4081 -1.9677 0.9844
0.9386 -3.3247 -1.9946 0.9842
1.2386 -3.2455 -2.0056 0.9841
2.3579 -2.6757 -2.0591 0.9837
3.0097 -1.6081 -1.9701 0.9844
1.8598 -0.7890 -1.1664 0.9907
1.9812 -0.4480 -1.1727 0.9907
2.0326 -0.2718 -1.1840 0.9906
2.0336 -0.0885 -1.1752 0.9906
2.0340 0.0935 -1.1756 0.9906
3.0837 2.0318 -2.1321 0.9831
2.6899 2.5641 -2.1455 0.9830
1.0018 3.5822 -2.1476 0.9830
0.3465 3.6823 -2.1354 0.9831
0.0161 3.6842 -2.1271 0.9831
-0.3116 3.6543 -2.1175 0.9832
-0.6335 3.5934 -2.1066 0.9833
-0.9465 3.5025 -2.0947 0.9834
-2.0567 2.8705 -2.0388 0.9838
-2.0537 2.3838 -1.8166 0.9856
-2.1954 2.1297 -1.7659 0.9860
-0.7659 0.6203 -0.5690 0.9955
-0.8878 0.3885 -0.5595 0.9955
-0.9304 0.2214 -0.5521 0.9956
-0.9572 0.0524 -0.5534 0.9956
-0.9576 -0.0333 -0.5532 0.9956
-0.9518 -0.1188 -0.5538 0.9956
-0.8177 -0.5257 -0.5613 0.9955
-2.4744 -2.3063 -1.9529 0.9845
-2.2544 -2.5135 -1.9494 0.9845
-1.5049 -3.0164 -1.9462 0.9846
-1.2304 -3.1411 -1.9477 0.9845
-0.9463 -3.2430 -1.9504 0.9845
-0.3558 -3.3753 -1.9596 0.9844
-0.0531 -3.4047 -1.9659 0.9844
0.2522 -3.4088 -1.9735 0.9843
2.0266 -2.8965 -2.0410 0.9838
