ply
format ascii 1.0
element vertex 1596
property float32 x
property float32 y
property float32 z
property float32 I
end_header
1.8530 3.9504 -1.0255 0.9822
2.0649 5.6707 -1.4183 0.9755
0.8154 3.0672 -0.7459 0.9870
0.5318 6.5466 -1.5437 0.9734
-0.0573 6.8718 -1.6151 0.9722
-1.8593 9.8204 -2.3490 0.9598
-4.1795 8.5368 -2.2339 0.9617
-4.8344 7.9804 -2.1929 0.9624
-5.9426 6.7287 -2.1098 0.9638
-7.8927 4.2079 -2.1021 0.9639
-8.0826 3.4212 -2.0628 0.9646
-8.2591 1.8611 -1.9898 0.9658
-7.8838 -1.0781 -1.8701 0.9678
-7.3823 -2.4029 -1.8246 0.9686
-7.0638 -3.0205 -1.8056 0.9689
-3.8160 -6.3514 -1.7414 0.9700
-3.2351 -6.6695 -1.7422 0.9700
-2.0077 -7.1748 -1.7510 0.9699
-0.7074 -7.4970 -1.7698 0.9695
0.6474 -7.6248 -1.7985 0.9690
1.3387 -7.6122 -1.8165 0.9687
2.7350 -7.4266 -1.8600 0.9680
4.8114 -6.7250 -1.9434 0.9666
6.7642 -5.4880 -2.0472 0.9648
7.3633 -4.9539 -2.0858 0.9642
7.3562 -4.0458 -1.9731 0.9661
8.6610 -2.0707 -2.0929 0.9641
9.2438 -0.5173 -2.1759 0.9627
9.4286 0.3158 -2.2172 0.9620
7.8457 2.4411 -1.9311 0.9668
6.3287 3.2982 -1.6773 0.9711
5.1317 3.9762 -1.5257 0.9737
4.6815 4.3489 -1.5017 0.9741
4.1722 4.6357 -1.4658 0.9747
3.6033 4.8051 -1.4116 0.9756
2.2020 5.5895 -1.4119 0.9756
0.1201 6.7739 -1.5923 0.9725
-2.4500 9.5774 -2.3234 0.9602
-5.7982 6.9207 -2.1219 0.9636
-7.1858 5.9870 -2.1982 0.9623
-7.5418 5.2180 -2.1554 0.9630
-7.8240 4.4370 -2.1139 0.9637
-8.0344 3.6506 -2.0741 0.9644
-8.2100 0.5668 -1.9341 0.9668
-8.1025 -0.1657 -1.9047 0.9672
-7.7279 -1.5603 -1.8529 0.9681
-7.4670 -2.2170 -1.8306 0.9685
-4.5293 -5.8787 -1.7441 0.9700
-3.4069 -6.5811 -1.7417 0.9700
-1.5546 -7.3104 -1.7565 0.9698
-0.2327 -7.5651 -1.7788 0.9694
1.8321 -7.5714 -1.8308 0.9685
2.5310 -7.4673 -1.8531 0.9681
3.2300 -7.3077 -1.8778 0.9677
4.6130 -6.8163 -1.9344 0.9667
5.2885 -6.4821 -1.9661 0.9662
5.9472 -6.0876 -2.0001 0.9656
7.1921 -5.1160 -2.0743 0.9644
8.1543 -2.9777 -2.0402 0.9650
8.5548 -2.2825 -2.0809 0.9643
9.1758 -0.7538 -2.1638 0.9629
9.5117 0.9237 -2.2460 0.9615
9.1151 1.7171 -2.1799 0.9626
7.2547 2.7720 -1.8252 0.9686
5.2933 3.8849 -1.5431 0.9734
4.3183 4.5535 -1.4749 0.9745
3.2674 4.9858 -1.4010 0.9758
2.8019 5.2438 -1.3973 0.9759
1.8669 5.7892 -1.4296 0.9753
0.6811 3.0096 -0.7252 0.9874
0.8532 6.3688 -1.5102 0.9739
0.2927 6.6787 -1.5712 0.9729
-0.2847 6.2391 -1.4679 0.9747
-2.2097 9.6824 -2.3341 0.9600
-3.0160 9.2950 -2.2967 0.9606
-5.0879 7.7334 -2.1756 0.9627
-5.6480 7.1098 -2.1340 0.9634
-2.2273 2.3401 -0.7593 0.9868
-7.0678 6.2079 -2.2109 0.9621
-7.4457 5.4439 -2.1677 0.9628
-8.1413 3.0938 -2.0469 0.9648
-8.2347 2.3125 -2.0102 0.9655
-8.2307 0.7843 -1.9432 0.9666
-6.9186 -3.2684 -1.7983 0.9690
-6.5421 -3.8394 -1.7828 0.9693
-6.1280 -4.3758 -1.7697 0.9695
-5.6787 -4.8759 -1.7591 0.9697
-4.6841 -5.7626 -1.7453 0.9699
-4.1434 -6.1465 -1.7421 0.9700
-3.5768 -6.4892 -1.7414 0.9700
-2.9862 -6.7894 -1.7432 0.9700
-2.3739 -7.0459 -1.7474 0.9699
-1.0930 -7.4226 -1.7633 0.9696
0.9347 -7.6259 -1.8057 0.9689
1.6287 -7.5914 -1.8248 0.9686
2.3271 -7.5033 -1.8463 0.9682
3.7232 -7.1602 -1.8967 0.9674
4.4135 -6.9025 -1.9255 0.9669
7.0179 -5.2728 -2.0630 0.9646
7.5628 -3.7997 -1.9891 0.9658
8.4437 -2.4903 -2.0690 0.9645
8.8040 -1.7610 -2.1101 0.9638
9.3301 -0.1739 -2.1932 0.9624
9.4825 0.6720 -2.2342 0.9617
8.3814 2.1358 -2.0328 0.9651
6.7277 3.0716 -1.7382 0.9701
5.4586 3.7913 -1.5620 0.9731
3.9662 4.7515 -1.4546 0.9749
2.4737 5.4310 -1.4026 0.9758
2.0057 5.7059 -1.4215 0.9755
0.4608 6.5858 -1.5516 0.9732
-0.6797 6.2151 -1.4694 0.9746
-1.9654 9.7804 -2.3446 0.9598
-4.2650 8.4702 -2.2288 0.9618
-2.1904 2.4249 -0.7680 0.9867
-6.9435 6.4269 -2.2236 0.9619
-7.9203 4.1095 -2.0971 0.9640
-8.1015 3.3228 -2.0580 0.9647
-8.2143 2.5395 -2.0207 0.9653
-8.2615 1.7648 -1.9855 0.9659
-8.2464 1.0032 -1.9524 0.9664
-8.1720 0.2589 -1.9216 0.9670
-7.3481 -0.5343 -1.9076 0.9700
-7.1803 -1.1733 -1.8838 0.9704
-6.7080 -2.3785 -1.8428 0.9710
-6.4088 -2.9403 -1.8257 0.9713
-6.0711 -3.4722 -1.8108 0.9715
-5.6972 -3.9726 -1.7983 0.9717
-4.8506 -4.8728 -1.7802 0.9720
-4.3824 -5.2698 -1.7746 0.9721
-3.8873 -5.6296 -1.7713 0.9721
-2.8250 -6.2325 -1.7717 0.9721
-2.2620 -6.4732 -1.7754 0.9721
-1.6808 -6.6717 -1.7814 0.9720
-1.0835 -6.8268 -1.7897 0.9718
-0.4726 -6.9372 -1.8003 0.9717
0.1497 -7.0016 -1.8132 0.9715
1.4175 -6.9872 -1.8460 0.9710
2.0573 -6.9059 -1.8657 0.9707
3.9619 -6.3518 -1.9383 0.9695
5.1809 -5.7144 -1.9971 0.9686
6.3178 -4.8583 -2.0635 0.9676
6.8029 -3.5138 -1.9825 0.9689
7.5844 -2.3295 -2.0543 0.9677
8.1616 -0.9777 -2.1283 0.9666
8.3591 -0.2495 -2.1653 0.9660
8.4890 2.0623 -2.2619 0.9645
6.1306 3.4010 -1.8152 0.9714
4.5248 4.4285 -1.6393 0.9742
1.8375 3.9173 -1.1203 0.9823
0.8164 3.0710 -0.8228 0.9870
0.5310 6.5380 -1.6984 0.9733
-0.0572 6.8623 -1.7768 0.9720
-0.6040 6.1608 -1.6028 0.9747
-1.6578 8.7560 -2.3074 0.9638
-3.7464 7.6522 -2.2060 0.9654
-6.6041 5.2169 -2.1791 0.9658
-7.1690 3.8221 -2.1035 0.9670
-7.3541 3.1129 -2.0677 0.9675
-7.4766 2.4035 -2.0334 0.9681
-7.5387 1.6988 -2.0009 0.9686
-7.5429 1.0035 -1.9702 0.9690
-6.7876 -2.2093 -1.8482 0.9709
-6.5001 -2.7795 -1.8304 0.9712
-5.4118 -4.3072 -1.7908 0.9718
-4.9817 -4.7503 -1.7823 0.9720
-4.5218 -5.1578 -1.7760 0.9721
-3.5215 -5.8612 -1.7704 0.9721
-0.6520 -6.9097 -1.7970 0.9717
-0.0328 -6.9876 -1.8092 0.9715
0.5959 -7.0186 -1.8238 0.9713
2.5107 -6.8176 -1.8811 0.9704
3.1483 -6.6485 -1.9047 0.9701
3.7795 -6.4265 -1.9304 0.9697
4.4007 -6.1509 -1.9582 0.9692
5.0074 -5.8209 -1.9881 0.9688
5.5951 -5.4362 -2.0198 0.9683
7.4821 -2.5133 -2.0436 0.9679
7.8146 -1.8683 -2.0804 0.9673
8.0919 -1.1840 -2.1175 0.9668
8.3083 -0.4649 -2.1545 0.9662
8.4581 0.2833 -2.1912 0.9656
7.8329 2.4371 -2.1240 0.9667
7.0209 2.8945 -1.9663 0.9691
6.3197 3.2935 -1.8452 0.9710
5.1251 3.9710 -1.6787 0.9736
4.1671 4.6300 -1.6128 0.9746
3.6157 4.8216 -1.5604 0.9754
1.9470 3.8842 -1.1250 0.9822
0.9137 3.1086 -0.8389 0.9867
0.6313 3.1714 -0.8372 0.9867
0.1199 6.7647 -1.7518 0.9724
-0.4390 6.1150 -1.5874 0.9750
-1.4345 8.8302 -2.3163 0.9637
-2.8984 8.1984 -2.2515 0.9647
-4.1739 7.3136 -2.1803 0.9658
-5.2245 6.2359 -2.1064 0.9669
-2.3386 2.3323 -0.8552 0.9864
-6.4996 5.4153 -2.1904 0.9656
-6.8344 4.7286 -2.1518 0.9662
-7.1030 4.0280 -2.1142 0.9668
-7.3066 3.3199 -2.0780 0.9674
-7.5267 1.9035 -2.0102 0.9684
-7.4235 -0.1519 -1.9225 0.9698
-7.2840 -0.8033 -1.8974 0.9702
-6.5881 -2.6162 -1.8354 0.9711
-5.5313 -4.1715 -1.7938 0.9718
-5.1103 -4.6247 -1.7845 0.9719
-3.1439 -6.0732 -1.7707 0.9721
-1.4336 -6.7417 -1.7846 0.9719
-0.8304 -6.8783 -1.7938 0.9718
-0.2144 -6.9697 -1.8054 0.9716
1.0455 -7.0115 -1.8355 0.9711
2.3242 -6.8571 -1.8746 0.9705
2.9628 -6.7032 -1.8976 0.9702
4.8322 -5.9228 -1.9792 0.9689
5.4260 -5.5541 -2.0104 0.9684
5.9971 -5.1305 -2.0434 0.9679
6.5406 -4.6525 -2.0782 0.9674
6.5432 -3.8241 -1.9623 0.9692
6.9803 -3.2821 -1.9971 0.9686
7.3756 -2.6934 -2.0330 0.9681
8.0171 -1.3874 -2.1066 0.9669
8.2518 -0.6779 -2.1437 0.9664
8.5213 0.8275 -2.2167 0.9652
8.5463 1.6099 -2.2517 0.9647
8.0931 2.2886 -2.1776 0.9658
5.2863 3.8798 -1.6978 0.9733
4.3130 4.5479 -1.6228 0.9744
3.7544 4.7438 -1.5664 0.9753
3.2823 5.0086 -1.5505 0.9756
2.8157 5.2697 -1.5470 0.9756
1.8694 5.7969 -1.5770 0.9751
0.6751 2.9829 -0.7919 0.9874
0.8521 6.3607 -1.6616 0.9738
-0.2847 6.2390 -1.6171 0.9745
-2.6956 8.3076 -2.2614 0.9646
-4.0013 7.4561 -2.1909 0.9656
-4.5731 6.9508 -2.1543 0.9662
-5.0862 6.4027 -2.1172 0.9668
-2.2260 2.3388 -0.8360 0.9867
-6.7436 4.9306 -2.1630 0.9661
-7.2539 3.5268 -2.0884 0.9672
-7.5474 1.4076 -1.9878 0.9688
-7.3297 -0.6155 -1.9045 0.9701
-6.9360 -1.8641 -1.8596 0.9708
-4.3219 -5.3169 -1.7741 0.9721
-3.8236 -5.6719 -1.7711 0.9721
-2.7555 -6.2649 -1.7721 0.9721
-2.1901 -6.5004 -1.7760 0.9721
-1.6068 -6.6935 -1.7823 0.9720
-1.0077 -6.8431 -1.7909 0.9718
-0.3952 -6.9478 -1.8018 0.9717
0.8601 -7.0174 -1.8305 0.9712
2.1375 -6.8922 -1.8684 0.9706
3.4124 -6.5625 -1.9151 0.9699
4.0399 -6.3182 -1.9417 0.9695
4.6556 -6.0200 -1.9704 0.9690
5.2550 -5.6672 -2.0011 0.9686
5.8332 -5.2597 -2.0336 0.9681
6.3853 -4.7975 -2.0679 0.9675
6.8569 -3.4450 -1.9869 0.9688
2.3272 -0.9192 -0.6479 0.9897
7.6270 -2.2495 -2.0589 0.9677
8.1898 -0.8882 -2.1329 0.9665
8.4997 0.6023 -2.2063 0.9654
8.3669 2.1321 -2.2356 0.9650
6.0512 3.4461 -1.8030 0.9716
3.9614 4.7457 -1.6006 0.9748
2.9516 5.1937 -1.5467 0.9756
2.0101 5.7187 -1.5695 0.9753
0.4602 6.5771 -1.7071 0.9731
-0.1349 6.9051 -1.7882 0.9719
-1.7527 8.7222 -2.3035 0.9639
-2.4890 8.4113 -2.2712 0.9644
-3.8240 7.5942 -2.2015 0.9655
-4.4123 7.1029 -2.1650 0.9660
-2.1929 2.4276 -0.8470 0.9866
-6.6472 5.1312 -2.1742 0.9659
-7.3728 3.0239 -2.0633 0.9676
-7.5424 1.6111 -1.9969 0.9686
-6.4373 -1.6530 -1.8815 0.9727
-6.2038 -2.1997 -1.8634 0.9730
-5.6221 -3.2154 -1.8335 0.9734
-4.4975 -4.5181 -1.8047 0.9738
-4.0643 -4.8873 -1.7995 0.9739
-3.6057 -5.2216 -1.7964 0.9740
-2.0977 -6.0031 -1.8002 0.9739
-1.5583 -6.1857 -1.8058 0.9738
-0.4378 -6.4269 -1.8236 0.9736
0.1386 -6.4831 -1.8357 0.9734
0.7223 -6.4949 -1.8500 0.9732
1.3108 -6.4612 -1.8664 0.9730
3.0739 -6.0769 -1.9279 0.9721
3.6499 -5.8515 -1.9524 0.9717
2.3021 -0.9393 -0.7039 0.9897
7.1872 -1.5215 -2.0797 0.9699
7.6845 0.4582 -2.1793 0.9685
7.7239 1.1590 -2.2111 0.9681
6.1219 3.3962 -1.9819 0.9713
4.5191 4.4229 -1.7901 0.9741
4.0179 4.7053 -1.7516 0.9746
3.0063 5.1548 -1.6893 0.9755
1.8211 3.8824 -1.2140 0.9823
1.0722 6.2302 -1.7897 0.9741
0.5304 6.5293 -1.8545 0.9731
-0.0571 6.8528 -1.9400 0.9719
-1.4940 7.8907 -2.2735 0.9672
-3.3909 6.9261 -2.1831 0.9684
-5.2596 4.9787 -2.0502 0.9703
-6.7395 2.8527 -2.0718 0.9700
-6.8613 2.2057 -2.0403 0.9705
-6.9274 1.5611 -2.0103 0.9709
-6.2760 -2.0428 -1.8684 0.9729
-6.0146 -2.5718 -1.8518 0.9732
-5.7159 -3.0742 -1.8373 0.9734
-5.0156 -3.9919 -1.8147 0.9737
-4.1934 -4.7832 -1.8008 0.9739
-3.7419 -5.1278 -1.7971 0.9740
-3.2664 -5.4367 -1.7955 0.9740
-2.2519 -5.9424 -1.7990 0.9739
-1.1672 -6.2904 -1.8112 0.9738
-0.0304 -6.4712 -1.8320 0.9735
0.5515 -6.4961 -1.8456 0.9733
2.3184 -6.2953 -1.8992 0.9725
2.9043 -6.1333 -1.9211 0.9722
3.4830 -5.9223 -1.9450 0.9718
4.0509 -5.6619 -1.9708 0.9715
5.1374 -4.9916 -2.0278 0.9707
5.6473 -4.5818 -2.0587 0.9702
6.1026 -3.3564 -1.9717 0.9715
6.8198 -2.2908 -2.0366 0.9705
7.1115 -1.7002 -2.0700 0.9701
7.5366 -0.4217 -2.1369 0.9691
7.6298 2.3739 -2.2621 0.9673
7.0101 2.8900 -2.1465 0.9690
6.3106 3.2888 -2.0145 0.9709
5.6867 3.6435 -1.9120 0.9723
4.6697 4.3379 -1.8043 0.9739
4.1619 4.6243 -1.7612 0.9745
3.6113 4.8158 -1.7040 0.9753
3.1422 5.0788 -1.6907 0.9755
1.9159 3.8221 -1.2103 0.9824
2.2065 5.6011 -1.7042 0.9753
0.9186 3.1252 -0.9221 0.9865
0.6924 6.4399 -1.8336 0.9734
-0.4385 6.1088 -1.7338 0.9749
-1.2923 7.9545 -2.2814 0.9671
-1.9728 7.7120 -2.2535 0.9674
-2.6183 7.4059 -2.2237 0.9679
-3.7820 6.6269 -2.1601 0.9688
-4.2917 6.1668 -2.1269 0.9692
-2.3293 2.3230 -0.9313 0.9864
-5.9267 4.9380 -2.1838 0.9684
-6.4971 3.6845 -2.1145 0.9694
-6.6932 3.0412 -2.0812 0.9699
-6.8316 2.3943 -2.0493 0.9704
-6.9174 0.4776 -1.9629 0.9716
-6.3449 -1.8838 -1.8737 0.9729
-5.4829 -3.4130 -1.8283 0.9735
-3.4074 -5.3504 -1.7957 0.9740
-2.9162 -5.6332 -1.7958 0.9740
-2.4046 -5.8782 -1.7979 0.9739
-1.8748 -6.0841 -1.8023 0.9739
-0.1986 -6.4556 -1.8284 0.9735
0.9672 -6.4864 -1.8566 0.9731
1.5567 -6.4334 -1.8738 0.9729
2.1467 -6.3334 -1.8931 0.9726
2.7340 -6.1855 -1.9145 0.9723
3.3152 -5.9889 -1.9379 0.9719
3.8866 -5.7430 -1.9631 0.9716
4.4443 -5.4473 -1.9902 0.9712
4.9840 -5.1017 -2.0191 0.9708
6.3752 -2.9976 -1.9943 0.9711
7.2875 -1.2611 -2.0937 0.9697
7.6308 0.0566 -2.1603 0.9688
7.6607 2.1663 -2.2537 0.9674
7.2321 2.7633 -2.1917 0.9683
5.2793 3.8746 -1.8539 0.9731
4.7410 4.1793 -1.7892 0.9741
4.3076 4.5422 -1.7721 0.9743
3.7498 4.7380 -1.7105 0.9752
3.2783 5.0025 -1.6932 0.9754
1.8671 5.7898 -1.7222 0.9750
0.6735 2.9758 -0.8637 0.9874
0.8510 6.3524 -1.8144 0.9737
-1.0010 7.3708 -2.1058 0.9695
-1.7777 7.7895 -2.2619 0.9673
-2.4340 7.5014 -2.2326 0.9677
-4.1483 6.3053 -2.1367 0.9691
-4.6213 5.8174 -2.1032 0.9696
-6.1563 4.5012 -2.1590 0.9688
-6.7971 2.5830 -2.0585 0.9702
-6.9390 1.2941 -1.9983 0.9711
-6.8699 0.0385 -1.9448 0.9718
-6.1717 -2.2664 -1.8613 0.9730
-5.2332 -3.7369 -1.8204 0.9736
-4.8538 -4.1676 -1.8111 0.9738
-4.0083 -4.9311 -1.7990 0.9739
-3.5465 -5.2610 -1.7962 0.9740
-3.0616 -5.5546 -1.7955 0.9740
-1.4897 -6.2057 -1.8067 0.9738
-0.9339 -6.3422 -1.8148 0.9737
-0.3661 -6.4363 -1.8250 0.9736
0.7958 -6.4932 -1.8519 0.9732
1.9748 -6.3675 -1.8873 0.9727
2.5632 -6.2337 -1.9081 0.9724
4.2834 -5.5387 -1.9821 0.9713
4.8288 -5.2076 -2.0105 0.9709
5.3531 -4.8268 -2.0405 0.9705
6.2990 -3.9052 -2.0981 0.9697
6.2653 -3.1478 -1.9849 0.9713
2.3290 -0.9200 -0.7089 0.9896
7.4361 -0.8065 -2.1174 0.9694
7.5958 -0.1416 -2.1507 0.9689
7.6854 1.9585 -2.2452 0.9676
7.4637 2.6310 -2.2404 0.9676
6.0427 3.4412 -1.9686 0.9715
3.9565 4.7399 -1.7479 0.9747
3.4149 4.9260 -1.6968 0.9754
1.7900 3.9298 -1.2225 0.9822
0.7558 2.9771 -0.8695 0.9873
1.0064 6.2666 -1.7968 0.9740
0.4596 6.5684 -1.8640 0.9730
-0.6775 6.1958 -1.7644 0.9744
-2.8756 7.2609 -2.2109 0.9681
-4.0006 6.4402 -2.1463 0.9690
-5.3042 4.9095 -2.0461 0.9704
-6.0656 4.6822 -2.1692 0.9686
-6.3556 4.0558 -2.1344 0.9691
-6.7578 2.7717 -2.0678 0.9701
-6.8726 2.1247 -2.0364 0.9705
-6.9319 1.4807 -2.0066 0.9710
-6.9378 0.8440 -1.9785 0.9714
-6.3729 0.1071 -1.9604 0.9737
-5.7649 -2.0441 -1.8813 0.9747
-5.2303 -2.9913 -1.8532 0.9751
-4.1886 -4.2078 -1.8262 0.9755
-3.7860 -4.5526 -1.8212 0.9755
-3.3591 -4.8646 -1.8183 0.9756
-2.9101 -5.1426 -1.8175 0.9756
-1.4512 -5.7607 -1.8272 0.9754
-0.4074 -5.9812 -1.8440 0.9752
0.1289 -6.0308 -1.8554 0.9751
0.6716 -6.0385 -1.8688 0.9749
1.2179 -6.0034 -1.8841 0.9747
1.7650 -5.9246 -1.9014 0.9745
3.3803 -5.4193 -1.9645 0.9736
5.7184 -2.9537 -1.9796 0.9734
6.3388 -1.9469 -2.0396 0.9726
6.5843 -1.3938 -2.0701 0.9722
6.7810 -0.8123 -2.1006 0.9718
6.9247 -0.2067 -2.1308 0.9714
7.0118 0.4180 -2.1605 0.9710
7.0388 1.0562 -2.1892 0.9707
7.0031 1.7014 -2.2167 0.9703
6.9027 2.3467 -2.2425 0.9699
4.9543 4.0497 -1.9681 0.9736
4.0129 4.6995 -1.9007 0.9745
1.7537 3.7387 -1.2702 0.9829
0.8218 3.0916 -0.9839 0.9867
1.0709 6.2221 -1.9419 0.9739
0.5296 6.5206 -2.0122 0.9730
-0.0571 6.8432 -2.1049 0.9718
-2.5504 6.6565 -2.1925 0.9706
-4.4630 5.0533 -2.0737 0.9722
-5.5274 4.3664 -2.1666 0.9710
-5.8145 3.8028 -2.1369 0.9713
-6.0409 3.2207 -2.1056 0.9718
-6.2135 2.6301 -2.0753 0.9722
-6.4016 1.4426 -2.0184 0.9729
-6.4200 0.8541 -1.9921 0.9733
-6.3903 0.2741 -1.9673 0.9736
-6.3145 -0.2940 -1.9443 0.9739
-5.5916 -2.3909 -1.8705 0.9749
-5.0087 -3.3019 -1.8452 0.9752
-4.3012 -4.1013 -1.8280 0.9754
-3.9060 -4.4554 -1.8224 0.9755
-3.4860 -4.7771 -1.8189 0.9756
-2.5797 -5.3184 -1.8181 0.9756
-1.5994 -5.7154 -1.8255 0.9755
-0.5623 -5.9591 -1.8410 0.9753
-0.0282 -6.0206 -1.8518 0.9751
1.0584 -6.0181 -1.8794 0.9748
1.6056 -5.9522 -1.8962 0.9745
2.6929 -5.6869 -1.9354 0.9740
3.2266 -5.4864 -1.9577 0.9737
3.7490 -5.2400 -1.9817 0.9734
4.7444 -4.6097 -2.0346 0.9727
5.2091 -4.2263 -2.0632 0.9723
5.6380 -3.7932 -2.0901 0.9720
6.2586 -2.1023 -2.0307 0.9727
6.5176 -1.5582 -2.0612 0.9723
6.8885 -0.3855 -2.1221 0.9715
6.9924 0.2342 -2.1519 0.9711
7.0373 0.8691 -2.1810 0.9708
6.9387 2.1589 -2.2351 0.9700
6.7918 2.8000 -2.2596 0.9697
6.3014 3.2840 -2.1856 0.9707
4.5846 4.2589 -1.9247 0.9742
4.1567 4.6185 -1.9112 0.9743
3.1384 5.0726 -1.8347 0.9753
2.2038 5.5942 -1.8493 0.9752
0.9429 3.2079 -1.0284 0.9861
0.6343 3.1865 -0.9993 0.9865
0.6915 6.4314 -1.9896 0.9733
0.1196 6.7461 -2.0753 0.9722
-1.7948 7.0160 -2.2274 0.9701
-3.4536 6.0515 -2.1431 0.9713
-3.9242 5.6388 -2.1130 0.9717
-4.3484 5.1901 -2.0826 0.9721
-5.0498 4.2074 -2.0217 0.9729
-5.9805 3.3915 -2.1147 0.9716
-6.3038 2.2093 -2.0545 0.9724
-6.4197 1.0250 -1.9996 0.9732
-6.4038 0.4421 -1.9744 0.9735
-6.3412 -0.1297 -1.9508 0.9738
-6.2339 -0.6875 -1.9291 0.9741
-6.0840 -1.2284 -1.9091 0.9744
-5.8937 -1.7499 -1.8910 0.9746
-5.6651 -2.2496 -1.8748 0.9748
-4.4114 -3.9922 -1.8300 0.9754
-3.6109 -4.6867 -1.8198 0.9755
-2.7169 -5.2482 -1.8177 0.9756
-1.7462 -5.6669 -1.8239 0.9755
-1.2376 -5.8197 -1.8300 0.9754
-0.7163 -5.9334 -1.8382 0.9753
-0.1848 -6.0069 -1.8485 0.9752
0.8990 -6.0291 -1.8749 0.9748
3.0720 -5.5496 -1.9510 0.9738
3.5980 -5.3166 -1.9745 0.9735
4.1101 -5.0377 -1.9998 0.9732
4.6042 -4.7129 -2.0265 0.9728
5.5216 -3.9277 -2.0842 0.9720
5.8607 -2.7556 -1.9919 0.9733
6.6725 -1.1547 -2.0828 0.9721
6.8476 -0.5625 -2.1133 0.9717
6.9681 0.0517 -2.1433 0.9713
7.0305 0.6828 -2.1726 0.9709
7.0317 1.3246 -2.2008 0.9705
6.9692 1.9707 -2.2276 0.9701
6.8415 2.6141 -2.2527 0.9698
6.4961 3.1729 -2.2236 0.9702
5.8539 3.5389 -2.1040 0.9718
5.2722 3.8694 -2.0115 0.9730
4.7348 4.1739 -1.9414 0.9739
4.3021 4.5365 -1.9230 0.9742
3.7452 4.7321 -1.8562 0.9751
3.2743 4.9964 -1.8374 0.9753
2.8088 5.2569 -1.8332 0.9754
2.3415 5.5175 -1.8436 0.9752
0.8499 6.3441 -1.9687 0.9736
0.2915 6.6517 -2.0479 0.9725
-0.2847 6.2388 -1.9209 0.9742
-2.2162 6.8301 -2.2086 0.9704
-3.3080 6.1642 -2.1517 0.9711
-4.9600 4.3565 -2.0305 0.9728
-5.6573 4.1363 -2.1556 0.9711
-5.9155 3.5615 -2.1238 0.9715
-6.1194 2.9752 -2.0929 0.9719
-6.4153 1.1965 -2.0072 0.9731
-6.3642 0.0357 -1.9575 0.9737
-6.1320 -1.0726 -1.9147 0.9743
-5.9532 -1.6000 -1.8961 0.9745
-5.4812 -2.5893 -1.8646 0.9749
-5.1923 -3.0472 -1.8517 0.9751
-4.8709 -3.4782 -1.8410 0.9753
-0.3407 -5.9897 -1.8453 0.9752
1.8334 -5.9117 -1.9037 0.9744
3.4459 -5.3893 -1.9675 0.9736
3.9625 -5.1238 -1.9922 0.9733
4.9412 -4.4553 -2.0464 0.9725
5.7989 -3.5951 -2.0986 0.9719
2.3309 -0.9207 -0.7708 0.9896
6.3721 -1.8794 -2.0434 0.9726
6.6117 -1.3225 -2.0739 0.9722
7.0185 0.4973 -2.1641 0.9710
7.0378 1.1367 -2.1927 0.9706
6.9941 1.7823 -2.2200 0.9702
6.6977 3.0579 -2.2646 0.9697
6.0341 3.4363 -2.1358 0.9714
4.8877 4.0874 -1.9597 0.9737
3.9516 4.7340 -1.8967 0.9745
3.4107 4.9199 -1.8413 0.9753
2.9445 5.1811 -1.8330 0.9754
2.0052 5.7046 -1.8598 0.9750
1.0051 6.2584 -1.9496 0.9738
0.4590 6.5595 -2.0225 0.9729
-0.1345 6.8857 -2.1183 0.9716
-2.6205 6.6169 -2.1890 0.9707
-3.1587 6.2731 -2.1603 0.9710
-3.6552 5.8842 -2.1306 0.9714
-4.1068 5.4559 -2.1004 0.9718
-2.1985 2.4338 -1.0088 0.9864
-6.0655 3.1471 -2.1018 0.9718
-6.2314 2.5558 -2.0716 0.9722
-6.3447 1.9615 -2.0426 0.9726
-6.3833 0.2023 -1.9644 0.9736
-5.8516 -0.4255 -1.9502 0.9756
-4.8851 -2.7939 -1.8707 0.9766
-3.9160 -3.9339 -1.8451 0.9769
-3.5402 -4.2570 -1.8404 0.9769
-3.1413 -4.5492 -1.8377 0.9770
-1.3567 -5.3855 -1.8461 0.9769
-0.8738 -5.5057 -1.8530 0.9768
-0.3807 -5.5883 -1.8619 0.9767
0.6269 -5.6369 -1.8853 0.9764
1.6457 -5.5242 -1.9160 0.9760
2.1523 -5.4056 -1.9340 0.9758
3.6238 -4.7958 -1.9981 0.9750
4.0867 -4.5075 -2.0225 0.9747
4.9487 -3.8055 -2.0751 0.9740
5.3233 -3.3833 -2.0966 0.9738
5.2883 -2.7315 -1.9785 0.9752
6.0682 -1.2846 -2.0618 0.9742
6.4579 0.9690 -2.1707 0.9728
6.3204 2.1488 -2.2190 0.9723
6.1627 2.7307 -2.2406 0.9720
5.5009 3.7301 -2.2093 0.9724
4.3129 4.2212 -2.0060 0.9749
3.4652 4.8809 -1.9897 0.9751
2.0625 5.6642 -2.0037 0.9749
0.8188 3.0800 -1.0594 0.9867
0.5289 6.5117 -2.1717 0.9728
-0.0567 6.8053 -2.2622 0.9717
-0.6015 6.1351 -2.0491 0.9743
-2.3396 6.1064 -2.1737 0.9728
-3.3056 5.4567 -2.1207 0.9735
-5.3764 3.5163 -2.1354 0.9733
-5.5920 2.9813 -2.1065 0.9736
-5.7579 2.4373 -2.0784 0.9740
-5.8750 1.8886 -2.0513 0.9743
-5.9442 1.3395 -2.0254 0.9746
-5.9668 0.7938 -2.0009 0.9749
-5.9444 0.2550 -1.9778 0.9752
-5.6244 -1.2890 -1.9181 0.9760
-4.9652 -2.6705 -1.8740 0.9765
-3.2599 -4.4673 -1.8383 0.9770
-2.8460 -4.7369 -1.8369 0.9770
-0.0264 -5.6236 -1.8693 0.9766
0.4788 -5.6397 -1.8814 0.9764
2.5079 -5.2961 -1.9479 0.9756
3.0025 -5.1053 -1.9688 0.9753
4.8292 -3.9181 -2.0672 0.9741
6.0088 -1.4366 -2.0536 0.9743
6.3361 -0.3546 -2.1095 0.9736
6.4244 0.2152 -2.1367 0.9733
6.0149 3.1347 -2.2546 0.9718
4.4156 4.1019 -2.0034 0.9749
3.6024 4.8038 -1.9959 0.9750
3.1345 5.0663 -1.9803 0.9752
2.2010 5.5872 -1.9961 0.9750
0.9239 3.1433 -1.0891 0.9863
0.5983 3.0056 -1.0187 0.9872
0.1194 6.7367 -2.2397 0.9720
-0.4376 6.0963 -2.0316 0.9746
-3.1741 5.5618 -2.1286 0.9734
-3.6108 5.1884 -2.1012 0.9737
-4.6625 3.8847 -2.0173 0.9747
-5.5343 3.1384 -2.1148 0.9735
-5.7146 2.5966 -2.0865 0.9739
-5.8459 2.0488 -2.0591 0.9742
-5.9650 0.9524 -2.0079 0.9749
-5.9555 0.4112 -1.9844 0.9752
-5.8069 -0.6404 -1.9419 0.9757
-5.6712 -1.1451 -1.9232 0.9759
-5.2872 -2.0995 -1.8910 0.9763
-5.0427 -2.5450 -1.8776 0.9765
-4.4590 -3.3628 -1.8564 0.9767
-4.1237 -3.7319 -1.8487 0.9768
-3.7623 -4.0722 -1.8429 0.9769
-2.9688 -4.6616 -1.8371 0.9770
-2.0947 -5.1207 -1.8391 0.9769
-1.6327 -5.2984 -1.8429 0.9769
-0.6694 -5.5448 -1.8565 0.9767
-0.1726 -5.6114 -1.8662 0.9766
0.8390 -5.6269 -1.8911 0.9763
1.3488 -5.5740 -1.9063 0.9761
2.8593 -5.1653 -1.9625 0.9754
4.2740 -4.3749 -2.0330 0.9745
4.7075 -4.0272 -2.0593 0.9742
5.1129 -3.6369 -2.0857 0.9739
6.3006 -0.5176 -2.1014 0.9737
6.4544 0.6268 -2.1556 0.9730
6.4486 1.2148 -2.1812 0.9727
5.8376 3.5290 -2.2674 0.9717
5.2651 3.8642 -2.1709 0.9728
4.5146 3.9798 -2.0005 0.9750
4.1597 4.3862 -2.0094 0.9748
2.3386 5.5106 -1.9899 0.9751
0.6711 2.9652 -1.0106 0.9873
0.2911 6.6425 -2.2101 0.9724
-2.5528 5.9854 -2.1630 0.9729
-3.0393 5.6635 -2.1365 0.9733
-2.2245 2.3372 -1.0725 0.9865
-5.6672 2.7554 -2.0946 0.9738
-5.8126 2.2089 -2.0670 0.9741
-5.9096 1.6596 -2.0404 0.9745
-5.9592 1.1114 -2.0150 0.9748
-5.8389 -0.4903 -1.9477 0.9756
-5.7148 -0.9996 -1.9285 0.9758
-5.5519 -1.4921 -1.9110 0.9761
-5.3521 -1.9654 -1.8952 0.9763
-4.8499 -2.8463 -1.8692 0.9766
-4.2243 -3.6271 -1.8508 0.9768
-2.2265 -5.0622 -1.8383 0.9770
-1.7689 -5.2503 -1.8416 0.9769
0.1836 -5.6351 -1.8741 0.9765
0.6906 -5.6346 -1.8870 0.9764
1.7094 -5.5116 -1.9182 0.9760
2.7152 -5.2218 -1.9564 0.9755
3.6827 -4.7620 -2.0011 0.9749
4.9993 -3.7561 -2.0786 0.9740
5.2297 -3.2422 -2.0453 0.9744
5.3277 -2.6767 -1.9819 0.9752
2.3359 -0.9227 -0.8348 0.9895
5.8785 -1.7338 -2.0373 0.9745
6.0926 -1.2186 -2.0653 0.9741
6.2607 -0.6790 -2.0933 0.9738
6.4454 0.4567 -2.1479 0.9731
6.1388 2.8027 -2.2432 0.9720
5.4292 3.7709 -2.1973 0.9725
3.4065 4.9138 -1.9875 0.9751
2.9408 5.1747 -1.9785 0.9752
1.7726 3.8918 -1.4215 0.9821
1.0038 6.2502 -2.1042 0.9737
-0.1328 6.7974 -2.2599 0.9717
-1.3151 6.5444 -2.2189 0.9723
-2.4043 6.0709 -2.1705 0.9729
-2.2078 2.4442 -1.0949 0.9862
-5.1345 3.9635 -2.1561 0.9730
-5.4062 3.4499 -2.1318 0.9733
-5.6155 2.9136 -2.1029 0.9737
-5.7753 2.3687 -2.0749 0.9740
-5.9496 1.2709 -2.0223 0.9747
-5.9385 0.1882 -1.9750 0.9753
-5.5387 0.0931 -1.9809 0.9767
-5.4696 -0.3977 -1.9611 0.9770
-5.3618 -0.8761 -1.9428 0.9772
-5.0368 -1.7859 -1.9111 0.9776
-4.8234 -2.2129 -1.8977 0.9777
-4.3037 -3.0010 -1.8763 0.9780
-3.3213 -3.9937 -1.8575 0.9782
-2.9474 -4.2683 -1.8549 0.9782
-1.7141 -4.9052 -1.8582 0.9782
-1.2726 -5.0515 -1.8629 0.9781
-0.8194 -5.1631 -1.8695 0.9780
0.5873 -5.2803 -1.8999 0.9777
1.0639 -5.2443 -1.9136 0.9775
1.5400 -5.1695 -1.9289 0.9773
2.0129 -5.0554 -1.9459 0.9771
2.4796 -4.9019 -1.9645 0.9769
3.3818 -4.4756 -2.0060 0.9765
4.2201 -3.8917 -2.0529 0.9759
4.9494 -3.1457 -2.0972 0.9754
4.9132 -2.5377 -1.9775 0.9768
2.3028 -0.9396 -0.8894 0.9895
5.6210 -1.1899 -2.0547 0.9759
5.7764 -0.6920 -2.0805 0.9756
5.8863 -0.1757 -2.1059 0.9753
5.9479 0.3546 -2.1308 0.9750
5.9588 0.8941 -2.1548 0.9747
5.9172 1.4375 -2.1776 0.9745
5.8219 1.9793 -2.1990 0.9742
5.4685 3.0337 -2.2363 0.9738
5.2117 3.5341 -2.2518 0.9736
4.1799 4.0910 -2.0915 0.9755
3.7167 4.3525 -2.0467 0.9760
3.4608 4.8747 -2.1379 0.9749
2.9952 5.1357 -2.1261 0.9751
1.7813 3.7975 -1.5000 0.9823
2.0599 5.6570 -2.1529 0.9747
0.5102 6.2809 -2.2535 0.9736
-3.8090 4.3129 -2.0577 0.9759
-4.1262 3.9058 -2.0318 0.9762
-4.9920 3.2649 -2.1331 0.9750
-5.3591 2.2684 -2.0811 0.9756
-5.5422 1.2489 -2.0316 0.9762
-5.5679 0.7407 -2.0087 0.9764
-5.2629 -1.2062 -1.9308 0.9773
-4.6530 -2.5025 -1.8893 0.9778
-4.0923 -3.2570 -1.8704 0.9780
-3.7715 -3.5963 -1.8636 0.9781
-3.4263 -3.9082 -1.8586 0.9782
-3.0585 -4.1913 -1.8555 0.9782
-2.2636 -4.6665 -1.8547 0.9782
-1.4026 -5.0124 -1.8613 0.9781
-0.9527 -5.1342 -1.8674 0.9781
-0.4926 -5.2206 -1.8752 0.9780
1.4014 -5.1953 -1.9243 0.9774
1.8755 -5.0928 -1.9408 0.9772
3.2536 -4.5476 -1.9996 0.9765
3.6875 -4.2866 -2.0221 0.9763
4.1030 -3.9865 -2.0458 0.9760
4.8274 -2.6551 -1.9702 0.9769
5.5675 -1.3311 -2.0471 0.9760
5.8592 -0.3279 -2.0986 0.9754
5.9351 0.1988 -2.1236 0.9751
5.8553 1.8218 -2.1929 0.9743
4.9986 3.8730 -2.2613 0.9735
4.3190 4.0122 -2.1081 0.9753
1.9120 3.8144 -1.5258 0.9820
2.1982 5.5801 -2.1447 0.9748
0.9199 3.1296 -1.1665 0.9862
0.6749 6.2765 -2.2575 0.9735
-0.4373 6.0909 -2.1837 0.9744
-0.9898 6.0924 -2.2072 0.9741
-2.0173 5.7060 -2.1643 0.9746
-2.9332 5.1396 -2.1162 0.9752
-3.3399 4.7993 -2.0910 0.9755
-3.7089 4.4269 -2.0653 0.9758
-2.3110 2.3047 -1.1672 0.9862
-4.3258 3.6041 -2.0135 0.9764
-4.9181 3.4028 -2.1387 0.9749
-5.4444 1.9081 -2.0631 0.9758
-5.5266 1.3977 -2.0386 0.9761
-5.5648 0.8885 -2.0152 0.9763
-5.5147 -0.1128 -1.9725 0.9768
-5.4293 -0.5988 -1.9533 0.9771
-5.3058 -1.0713 -1.9357 0.9773
-5.1460 -1.5279 -1.9197 0.9775
-4.7250 -2.3846 -1.8927 0.9778
-4.4674 -2.7808 -1.8818 0.9779
-3.8677 -3.5001 -1.8654 0.9781
-3.5293 -3.8201 -1.8599 0.9781
-2.7855 -4.3739 -1.8544 0.9782
0.3102 -5.2838 -1.8928 0.9778
0.7858 -5.2700 -1.9054 0.9776
2.2084 -4.9963 -1.9534 0.9771
2.6716 -4.8261 -1.9726 0.9768
3.1241 -4.6163 -1.9933 0.9766
3.9839 -4.0780 -2.0387 0.9761
4.7511 -2.7768 -1.9679 0.9769
5.0310 -2.3655 -1.9881 0.9767
5.2893 -1.9315 -2.0137 0.9764
5.5105 -1.4703 -2.0395 0.9761
5.8279 -0.4788 -2.0911 0.9755
5.9180 0.0439 -2.1164 0.9752
5.9587 0.5787 -2.1409 0.9749
5.9479 1.1205 -2.1644 0.9746
5.8840 1.6639 -2.1867 0.9744
5.7661 2.2032 -2.2074 0.9741
5.0894 3.7352 -2.2576 0.9735
4.4605 3.9321 -2.1264 0.9751
2.8019 5.2438 -2.1261 0.9751
2.3356 5.5037 -2.1381 0.9749
0.7000 3.0931 -1.1341 0.9866
0.2751 6.2787 -2.2474 0.9737
-0.2844 6.2330 -2.2313 0.9738
-0.8328 6.1320 -2.2130 0.9741
-1.3643 5.9780 -2.1927 0.9743
-1.8736 5.7743 -2.1709 0.9745
-2.8078 5.2321 -2.1234 0.9751
-3.6053 4.5385 -2.0728 0.9757
-2.2240 2.3366 -1.1536 0.9864
-4.2462 3.7295 -2.0210 0.9763
-4.8403 3.5390 -2.1442 0.9748
-5.2717 2.5631 -2.0962 0.9754
-5.4120 2.0566 -2.0704 0.9757
-5.5072 1.5466 -2.0456 0.9760
-5.5581 1.0366 -2.0219 0.9763
-5.5660 0.5304 -1.9995 0.9765
-5.5322 0.0310 -1.9784 0.9768
-5.3456 -0.9350 -1.9407 0.9772
-4.5456 -2.6677 -1.8848 0.9779
-4.2674 -3.0472 -1.8752 0.9780
-3.6304 -3.7297 -1.8613 0.9781
-3.2756 -4.0298 -1.8571 0.9782
-1.6595 -4.9254 -1.8587 0.9782
-0.7620 -5.1746 -1.8704 0.9780
-0.2984 -5.2460 -1.8790 0.9779
1.1236 -5.2370 -1.9154 0.9775
2.0718 -5.0384 -1.9481 0.9771
2.5375 -4.8799 -1.9669 0.9769
2.9934 -4.6816 -1.9871 0.9767
3.8631 -4.1662 -2.0318 0.9762
4.6529 -3.4959 -2.0812 0.9756
5.4501 -1.6074 -2.0320 0.9762
5.6429 -1.1287 -2.0579 0.9759
5.7928 -0.6282 -2.0837 0.9756
5.9521 0.4218 -2.1338 0.9750
5.9082 1.5056 -2.1803 0.9744
5.8061 2.0467 -2.2015 0.9742
5.6497 2.5794 -2.2210 0.9740
4.8040 4.0174 -2.2395 0.9737
4.1207 4.1244 -2.0849 0.9755
3.8516 4.6141 -2.1494 0.9748
2.9371 5.1682 -2.1258 0.9751
0.7790 3.0683 -1.1321 0.9866
-0.6744 6.1669 -2.2185 0.9740
-1.2114 6.0282 -2.1988 0.9742
-1.7277 5.8386 -2.1774 0.9745
-2.6795 5.3214 -2.1306 0.9750
-3.1072 5.0019 -2.1057 0.9753
-4.1630 3.8532 -2.0286 0.9762
-5.0226 3.2052 -2.1307 0.9750
-5.2222 2.7095 -2.1039 0.9753
-5.4840 1.6954 -2.0527 0.9759
-5.1908 0.0872 -1.9895 0.9780
-5.1293 -0.3730 -1.9708 0.9782
-4.8978 -1.2577 -1.9378 0.9786
-4.3038 -2.4614 -1.9000 0.9790
-4.0469 -2.8219 -1.8906 0.9791
-3.4556 -3.4714 -1.8771 0.9792
-3.1249 -3.7576 -1.8729 0.9793
-2.7733 -4.0163 -1.8704 0.9793
-1.6127 -4.6151 -1.8735 0.9793
-1.1971 -4.7521 -1.8780 0.9792
0.5518 -4.9615 -1.9130 0.9788
0.9992 -4.9254 -1.9260 0.9787
1.8886 -4.7432 -1.9565 0.9784
2.3251 -4.5964 -1.9740 0.9782
2.7522 -4.4124 -1.9929 0.9780
3.9461 -3.6390 -2.0571 0.9773
4.3038 -3.3096 -2.0806 0.9770
4.6196 -2.9361 -2.0976 0.9768
4.5828 -2.3671 -1.9767 0.9781
5.0496 -1.5510 -2.0243 0.9776
5.2293 -1.1070 -2.0484 0.9774
5.3692 -0.6432 -2.0723 0.9771
5.4667 -0.1632 -2.0959 0.9768
5.4820 1.3318 -2.1619 0.9761
5.3898 1.8324 -2.1816 0.9759
5.0563 2.8050 -2.2159 0.9755
4.5297 3.7026 -2.2420 0.9753
3.7118 4.3469 -2.1905 0.9758
2.9766 5.1038 -2.2642 0.9750
0.8219 3.0919 -1.2260 0.9864
-0.0483 5.7867 -2.2177 0.9755
-2.0012 5.2231 -2.1435 0.9763
-2.4342 4.9720 -2.1215 0.9766
-2.8374 4.6838 -2.0986 0.9768
-3.2079 4.3625 -2.0751 0.9771
-3.5432 4.0120 -2.0512 0.9773
-2.4598 2.3285 -1.2980 0.9856
-4.1018 3.2402 -2.0032 0.9779
-5.0066 2.1192 -2.0834 0.9770
-5.2016 0.2231 -1.9952 0.9779
-5.0634 -0.6924 -1.9585 0.9783
-4.9402 -1.1322 -1.9423 0.9785
-4.1246 -2.7191 -1.8932 0.9791
-3.8488 -3.0632 -1.8851 0.9791
-3.2236 -3.6770 -1.8739 0.9793
-2.8779 -3.9438 -1.8709 0.9793
-2.1299 -4.3910 -1.8702 0.9793
0.4216 -4.9652 -1.9096 0.9789
0.8687 -4.9397 -1.9220 0.9787
1.3157 -4.8778 -1.9361 0.9786
1.7600 -4.7790 -1.9516 0.9784
2.1986 -4.6431 -1.9687 0.9782
2.6288 -4.4699 -1.9872 0.9780
3.8374 -3.7285 -2.0504 0.9773
4.5040 -2.4771 -1.9698 0.9782
5.1809 -1.2387 -2.0414 0.9774
5.4428 -0.3046 -2.0890 0.9769
5.5086 0.1845 -2.1122 0.9767
5.4218 1.6870 -2.1760 0.9760
3.5408 4.7217 -2.2617 0.9750
3.1084 5.0242 -2.2641 0.9750
1.9125 3.8153 -1.6355 0.9819
2.1620 5.4882 -2.2605 0.9750
0.1028 5.7972 -2.2219 0.9755
-0.4123 5.7431 -2.2065 0.9756
-2.3109 5.0492 -2.1280 0.9765
-2.3061 2.2998 -1.2481 0.9861
-4.0300 3.3577 -2.0102 0.9778
-4.9664 2.2566 -2.0905 0.9769
-5.0892 1.7836 -2.0666 0.9772
-5.2097 0.8318 -2.0217 0.9777
-5.1697 -0.1058 -1.9815 0.9781
-4.9797 -1.0054 -1.9468 0.9785
-4.8322 -1.4347 -1.9317 0.9786
-4.4407 -2.2411 -1.9062 0.9789
-3.9319 -2.9653 -1.8872 0.9791
-3.6381 -3.2924 -1.8803 0.9792
-3.3204 -3.5940 -1.8751 0.9793
-2.9808 -3.8689 -1.8716 0.9793
-2.6211 -4.1157 -1.8699 0.9793
-1.8492 -4.5204 -1.8716 0.9793
-1.4409 -4.6762 -1.8751 0.9793
-1.0206 -4.7995 -1.8804 0.9792
0.2915 -4.9658 -1.9063 0.9789
0.7382 -4.9509 -1.9182 0.9788
1.1856 -4.8996 -1.9318 0.9786
1.6309 -4.8116 -1.9469 0.9785
2.9268 -4.3247 -2.0011 0.9779
3.3353 -4.0881 -2.0219 0.9777
4.4226 -2.5848 -1.9630 0.9783
5.2926 -0.9159 -2.0584 0.9773
5.4151 -0.4449 -2.0822 0.9770
5.5273 0.5368 -2.1281 0.9765
5.3367 2.0391 -2.1893 0.9758
5.1740 2.5272 -2.2066 0.9756
4.9621 2.9998 -2.2220 0.9755
4.7024 3.4512 -2.2353 0.9753
4.3503 3.8349 -2.2224 0.9755
3.9792 4.1959 -2.2160 0.9755
2.3056 5.4329 -2.2617 0.9750
1.8073 5.6044 -2.2566 0.9751
0.6939 3.0660 -1.2046 0.9866
0.7757 5.7900 -2.2386 0.9753
0.2543 5.8032 -2.2260 0.9754
-0.7706 5.6742 -2.1944 0.9758
-1.2633 5.5355 -2.1759 0.9760
-1.7362 5.3508 -2.1558 0.9762
-2.1851 5.1232 -2.1344 0.9764
-2.2234 2.3361 -1.2359 0.9863
-4.1987 3.0699 -1.9932 0.9780
-4.7435 2.8559 -2.1218 0.9766
-4.9226 2.3934 -2.0976 0.9768
-5.0578 1.9220 -2.0735 0.9771
-5.2023 0.9702 -2.0280 0.9776
-5.2134 0.4968 -2.0069 0.9778
-5.0163 -0.8774 -1.9515 0.9784
-4.7078 -1.7289 -1.9219 0.9787
-3.0820 -3.7916 -1.8725 0.9793
-2.7279 -4.0467 -1.8702 0.9793
-1.9656 -4.4690 -1.8710 0.9793
1.0552 -4.9183 -1.9277 0.9787
2.3791 -4.5754 -1.9763 0.9782
2.8049 -4.3867 -1.9953 0.9779
3.9922 -3.5997 -2.0600 0.9772
2.3465 -0.9269 -0.9668 0.9893
5.0742 -1.4966 -2.0273 0.9776
5.3838 -0.5839 -2.0753 0.9771
5.4757 -0.1021 -2.0988 0.9768
5.5222 0.8919 -2.1436 0.9763
5.4732 1.3947 -2.1645 0.9761
5.3748 1.8946 -2.1839 0.9759
5.2265 2.3862 -2.2018 0.9757
5.0289 2.8639 -2.2178 0.9755
4.7830 3.3221 -2.2317 0.9754
4.4906 3.7552 -2.2433 0.9752
4.1052 4.1089 -2.2258 0.9754
3.7330 4.4720 -2.2324 0.9754
2.9193 5.1369 -2.2642 0.9750
2.4474 5.3732 -2.2627 0.9750
0.9277 5.7761 -2.2419 0.9753
0.4061 5.8048 -2.2299 0.9754
-1.1215 5.5809 -2.1814 0.9759
-1.6006 5.4093 -2.1618 0.9761
-3.2519 4.3201 -2.0721 0.9771
-3.8764 3.5879 -2.0242 0.9776
-4.8752 2.5295 -2.1048 0.9767
-5.1279 1.5853 -2.0569 0.9773
-5.1915 1.1090 -2.0344 0.9775
-5.2143 0.6344 -2.0129 0.9778
-5.1974 0.1647 -1.9927 0.9780
-4.2703 -1.9591 -1.9229 0.9799
-4.0562 -2.3199 -1.9125 0.9800
-3.8152 -2.6603 -1.9036 0.9801
-3.5489 -2.9789 -1.8963 0.9802
-2.9476 -3.5444 -1.8867 0.9803
-1.1290 -4.4817 -1.8916 0.9802
-0.3163 -4.6439 -1.9050 0.9801
0.1000 -4.6759 -1.9142 0.9800
0.5199 -4.6743 -1.9249 0.9799
0.9410 -4.6385 -1.9371 0.9798
1.3609 -4.5681 -1.9508 0.9796
2.1865 -4.3224 -1.9825 0.9793
2.5867 -4.1469 -2.0003 0.9791
2.9746 -3.9366 -2.0194 0.9789
3.3472 -3.6919 -2.0396 0.9787
3.7015 -3.4135 -2.0608 0.9785
4.2228 -2.6838 -2.0478 0.9786
4.2894 -2.2155 -1.9759 0.9794
4.7190 -1.4494 -2.0204 0.9789
4.8832 -1.0337 -2.0428 0.9787
5.0099 -0.6002 -2.0651 0.9784
5.1421 0.3066 -2.1083 0.9780
3.8953 3.8124 -2.2307 0.9767
3.5495 4.1568 -2.2371 0.9767
2.7603 4.7330 -2.2424 0.9766
1.8040 3.8459 -1.7386 0.9818
1.8707 5.1375 -2.2377 0.9766
0.8591 3.2318 -1.3686 0.9857
0.4377 5.3880 -2.2124 0.9769
-0.0448 5.3742 -2.1996 0.9770
-0.5209 5.3129 -2.1849 0.9772
-2.6453 4.3667 -2.0895 0.9782
-2.1353 2.4178 -1.3202 0.9862
-2.3672 2.2408 -1.3341 0.9860
-4.5459 2.4236 -2.1085 0.9780
-4.7996 1.5429 -2.0633 0.9784
-1.9498 0.2594 -0.8051 0.9915
-1.9361 0.0830 -0.7931 0.9917
-4.5041 -1.4661 -1.9386 0.9797
-4.3274 -1.8504 -1.9262 0.9799
-3.3459 -3.1905 -1.8922 0.9802
-3.0406 -3.4682 -1.8877 0.9803
-2.7148 -3.7202 -1.8849 0.9803
-2.0092 -4.1422 -1.8842 0.9803
-1.2445 -4.4475 -1.8902 0.9802
-0.8450 -4.5539 -1.8956 0.9802
-0.4367 -4.6283 -1.9027 0.9801
-0.0219 -4.6700 -1.9113 0.9800
0.3972 -4.6782 -1.9216 0.9799
0.8182 -4.6525 -1.9334 0.9798
2.8629 -4.0015 -2.0137 0.9790
3.2403 -3.7668 -2.0336 0.9788
3.6003 -3.4981 -2.0545 0.9785
3.9396 -3.1964 -2.0763 0.9783
4.2442 -2.8554 -2.0936 0.9781
2.2789 -0.9998 -1.0185 0.9893
4.8390 -1.1569 -2.0363 0.9787
5.0758 -0.2840 -2.0806 0.9783
5.0421 1.5688 -2.1612 0.9774
4.9206 2.0286 -2.1783 0.9773
4.7534 2.4772 -2.1938 0.9771
4.5413 2.9097 -2.2074 0.9770
4.2859 3.3208 -2.2190 0.9768
3.9892 3.7058 -2.2284 0.9767
3.6540 4.0599 -2.2355 0.9767
2.4547 4.8970 -2.2419 0.9766
1.5391 5.2360 -2.2336 0.9767
0.5885 2.9563 -1.2337 0.9871
0.5788 5.3829 -2.2158 0.9769
-2.1524 4.7029 -2.1168 0.9779
-2.5382 4.4474 -2.0958 0.9781
-2.8948 4.1596 -2.0741 0.9783
-3.2198 3.8432 -2.0520 0.9786
-2.2338 2.2277 -1.2912 0.9865
-3.7678 3.1393 -2.0072 0.9790
-3.9883 2.7594 -1.9849 0.9793
-4.4939 2.5485 -2.1144 0.9779
-4.6539 2.1146 -2.0921 0.9781
-4.8516 1.2270 -2.0481 0.9786
-1.9565 -0.2158 -0.8056 0.9915
-4.6867 -0.9463 -1.9568 0.9795
-4.5499 -1.3509 -1.9425 0.9797
-4.3820 -1.7401 -1.9297 0.9798
-4.1845 -2.1119 -1.9184 0.9799
-3.1318 -3.3898 -1.8889 0.9803
-2.8118 -3.6495 -1.8855 0.9803
-2.4726 -3.8825 -1.8839 0.9803
-1.7443 -4.2641 -1.8856 0.9803
-1.3591 -4.4105 -1.8889 0.9803
-0.9625 -4.5261 -1.8938 0.9802
-0.5565 -4.6100 -1.9004 0.9801
-0.1434 -4.6613 -1.9086 0.9800
0.6954 -4.6635 -1.9298 0.9798
1.5349 -4.5285 -1.9570 0.9795
1.9486 -4.4085 -1.9727 0.9794
2.3546 -4.2535 -1.9898 0.9792
2.7500 -4.0635 -2.0081 0.9790
3.1319 -3.8388 -2.0277 0.9788
3.4973 -3.5799 -2.0483 0.9786
4.6071 -1.6824 -2.0074 0.9790
4.7918 -1.2785 -2.0298 0.9788
5.0512 -0.4150 -2.0743 0.9783
4.8069 2.3479 -2.1895 0.9771
4.6077 2.7855 -2.2037 0.9770
4.0798 3.5965 -2.2259 0.9768
2.5819 4.8322 -2.2423 0.9766
2.1382 5.0385 -2.2401 0.9766
0.7199 5.3736 -2.2189 0.9768
0.2361 5.3881 -2.2073 0.9770
-0.2443 5.3544 -2.1937 0.9771
-0.7162 5.2737 -2.1782 0.9773
-1.1748 5.1479 -2.1611 0.9774
-1.6157 4.9793 -2.1425 0.9776
-2.4286 4.5254 -2.1020 0.9780
-2.7940 4.2467 -2.0805 0.9783
-3.1285 3.9382 -2.0585 0.9785
-2.1916 2.3027 -1.3011 0.9864
-3.6967 3.2469 -2.0137 0.9790
-3.9278 2.8718 -1.9914 0.9792
-4.4360 2.6708 -2.1192 0.9779
-4.8325 1.3571 -2.0543 0.9785
-2.1949 0.4093 -0.9138 0.9904
-1.9579 0.1866 -0.8050 0.9915
-2.1482 -0.3758 -0.8926 0.9906
-4.2450 -2.0054 -1.9215 0.9799
-4.0275 -2.3637 -1.9113 0.9800
-3.7832 -2.7015 -1.9026 0.9801
-3.5139 -3.0172 -1.8956 0.9802
-2.5734 -3.8174 -1.8842 0.9803
-2.2218 -4.0308 -1.8837 0.9803
-1.8542 -4.2157 -1.8849 0.9803
-1.4727 -4.3710 -1.8877 0.9803
-1.0792 -4.4956 -1.8922 0.9802
-0.6757 -4.5888 -1.8983 0.9802
0.5726 -4.6717 -1.9263 0.9799
1.8286 -4.4471 -1.9680 0.9794
2.6360 -4.1225 -2.0027 0.9791
3.7445 -3.3763 -2.0635 0.9784
4.0723 -3.0597 -2.0847 0.9782
5.0231 -0.5448 -2.0679 0.9784
4.6704 2.6597 -2.1997 0.9770
3.8540 3.8574 -2.2317 0.9767
3.5037 4.1974 -2.2377 0.9766
3.1201 4.5007 -2.2413 0.9766
2.2697 4.9830 -2.2410 0.9766
1.8126 5.1566 -2.2371 0.9767
0.8609 5.3602 -2.2219 0.9768
-0.1049 5.3691 -2.1979 0.9771
-0.5798 5.3020 -2.1829 0.9772
-1.9150 4.8355 -2.1286 0.9778
-2.6905 4.3312 -2.0868 0.9782
-2.1539 2.3845 -1.3151 0.9862
-2.4760 2.2918 -1.3808 0.9855
-1.9538 0.2377 -0.8056 0.9915
-1.9276 0.0611 -0.7893 0.9917
-1.5257 0.0256 -0.6650 0.9934
-1.5077 -0.2464 -0.6658 0.9934
-1.5495 -0.3979 -0.6972 0.9930
-1.5942 -0.5653 -0.7372 0.9926
-3.6050 -2.5138 -1.9154 0.9810
-3.3541 -2.8153 -1.9085 0.9811
-3.0807 -3.0948 -1.9031 0.9811
-2.4734 -3.5819 -1.8971 0.9812
-2.1430 -3.7871 -1.8964 0.9812
-1.7973 -3.9652 -1.8974 0.9812
-1.4380 -4.1153 -1.8999 0.9812
-0.6868 -4.3274 -1.9096 0.9811
-0.2989 -4.3878 -1.9167 0.9810
0.4909 -4.4140 -1.9356 0.9808
1.6760 -4.2093 -1.9745 0.9804
2.0613 -4.0749 -1.9902 0.9803
2.8013 -3.7073 -2.0251 0.9799
3.1504 -3.4748 -2.0441 0.9797
3.4817 -3.2108 -2.0641 0.9795
3.7908 -2.9151 -2.0841 0.9794
4.0268 -2.0799 -1.9752 0.9804
4.4240 -1.3588 -2.0169 0.9800
4.5747 -0.9684 -2.0379 0.9798
4.8060 0.7211 -2.1180 0.9790
4.7627 1.1571 -2.1360 0.9788
4.6770 1.5900 -2.1529 0.9787
4.5488 2.0156 -2.1683 0.9785
4.1671 2.8257 -2.1943 0.9783
3.9163 3.2012 -2.2044 0.9782
3.6281 3.5509 -2.2125 0.9781
3.3054 3.8709 -2.2184 0.9780
2.9515 4.1573 -2.2220 0.9780
1.8423 3.9275 -1.8906 0.9812
1.7421 4.7841 -2.2189 0.9780
0.8583 4.9872 -2.2055 0.9782
-0.0418 5.0104 -2.1837 0.9784
-0.4858 4.9555 -2.1701 0.9785
-0.9197 4.8579 -2.1548 0.9787
-1.3393 4.7196 -2.1381 0.9788
-1.7405 4.5428 -2.1202 0.9790
-2.1200 4.3302 -2.1012 0.9792
-2.4746 4.0849 -2.0815 0.9794
-2.8017 3.8101 -2.0611 0.9796
-3.5983 2.8424 -1.9984 0.9802
-4.4108 1.8670 -2.0874 0.9793
-1.5275 0.3442 -0.6824 0.9932
-1.5290 0.0656 -0.6670 0.9933
-1.5292 -0.0712 -0.6672 0.9933
-3.8931 -2.0939 -1.9265 0.9809
-3.4296 -2.7296 -1.9103 0.9811
-3.1626 -3.0157 -1.9045 0.9811
-2.8744 -3.2786 -1.9003 0.9812
-2.2410 -3.7300 -1.8965 0.9812
-1.5441 -4.0745 -1.8990 0.9812
-0.7986 -4.3039 -1.9078 0.9811
-0.4127 -4.3734 -1.9145 0.9810
-0.0207 -4.4117 -1.9227 0.9809
0.7725 -4.3923 -1.9436 0.9807
1.1690 -4.3338 -1.9562 0.9806
1.5623 -4.2422 -1.9702 0.9805
2.3288 -3.9597 -2.0020 0.9802
2.6966 -3.7690 -2.0197 0.9800
3.0503 -3.5459 -2.0385 0.9798
3.7040 -3.0052 -2.0788 0.9794
3.9869 -2.6823 -2.0942 0.9793
3.9591 -2.1775 -1.9692 0.9805
2.2766 -0.9988 -1.0834 0.9892
4.3737 -1.4692 -2.0108 0.9801
4.8107 0.5941 -2.1125 0.9791
4.7064 1.4644 -2.1481 0.9787
4.5906 1.8925 -2.1640 0.9786
4.2329 2.7120 -2.1909 0.9783
3.4029 3.7809 -2.2169 0.9780
3.0577 4.0775 -2.2212 0.9780
-1.2187 4.7640 -2.1431 0.9788
-1.6256 4.5982 -2.1255 0.9789
-2.0118 4.3957 -2.1068 0.9791
-2.3739 4.1597 -2.0873 0.9793
-2.7093 3.8931 -2.0671 0.9795
-3.0156 3.5994 -2.0464 0.9797
-2.2112 2.2052 -1.3610 0.9865
-3.5337 2.9442 -2.0046 0.9801
-4.2166 2.3912 -2.1126 0.9791
-4.3736 1.9873 -2.0936 0.9793
-1.5469 0.3912 -0.6954 0.9931
-1.5294 0.1056 -0.6681 0.9933
-1.5243 -0.1681 -0.6684 0.9933
-1.5086 -0.3046 -0.6707 0.9933
-1.5723 -0.4668 -0.7148 0.9929
-3.9522 -1.9946 -1.9294 0.9809
-3.7403 -2.3282 -1.9201 0.9810
-3.2428 -2.9346 -1.9060 0.9811
-1.6491 -4.0312 -1.8982 0.9812
-1.2848 -4.1693 -1.9014 0.9811
-0.9097 -4.2779 -1.9061 0.9811
-0.5259 -4.3563 -1.9124 0.9810
-0.1355 -4.4038 -1.9201 0.9810
0.2594 -4.4196 -1.9295 0.9809
0.6566 -4.4032 -1.9402 0.9808
1.0536 -4.3543 -1.9524 0.9806
2.2193 -4.0091 -1.9971 0.9802
2.5906 -3.8280 -2.0144 0.9800
3.9079 -2.7798 -2.0900 0.9793
4.1194 -1.9369 -1.9838 0.9803
4.3208 -1.5778 -2.0047 0.9801
4.6272 -0.8007 -2.0466 0.9797
4.7896 0.0356 -2.0874 0.9793
4.7931 0.9029 -2.1256 0.9789
4.7321 1.3382 -2.1432 0.9788
4.6287 1.7686 -2.1595 0.9786
4.2953 2.5967 -2.1874 0.9783
3.8005 3.3503 -2.2080 0.9781
3.4976 3.6882 -2.2152 0.9781
3.1615 3.9946 -2.2202 0.9780
2.7956 4.2659 -2.2228 0.9780
1.9910 4.6916 -2.2212 0.9780
0.6708 5.0069 -2.2016 0.9782
0.2201 5.0222 -2.1909 0.9783
-0.6682 4.9199 -2.1639 0.9786
-1.9015 4.4584 -2.1124 0.9791
-2.9294 3.6876 -2.0525 0.9797
-3.4663 3.0446 -2.0107 0.9801
-3.6855 2.6946 -1.9897 0.9803
-4.1616 2.5055 -2.1170 0.9790
-1.5638 0.4392 -0.7079 0.9929
-1.5270 0.1455 -0.6685 0.9933
-1.5235 0.0085 -0.6640 0.9934
-1.5027 -0.2628 -0.6648 0.9934
-1.5569 -0.4184 -0.7026 0.9930
-4.0091 -1.8939 -1.9324 0.9808
-3.8047 -2.2329 -1.9226 0.9809
-3.3210 -2.8516 -1.9077 0.9811
-2.7483 -3.3811 -1.8989 0.9812
-2.4329 -3.6091 -1.8969 0.9812
-1.7530 -3.9856 -1.8976 0.9812
-1.0200 -4.2493 -1.9045 0.9811
-0.6386 -4.3366 -1.9104 0.9811
0.1440 -4.4183 -1.9266 0.9809
0.5407 -4.4114 -1.9369 0.9808
0.9380 -4.3719 -1.9487 0.9807
1.3335 -4.2996 -1.9619 0.9805
2.1089 -4.0558 -1.9922 0.9803
2.8459 -3.6799 -2.0274 0.9799
3.8265 -2.8749 -2.0859 0.9793
4.0551 -2.0373 -1.9778 0.9804
4.4447 -1.3109 -2.0196 0.9800
4.5911 -0.9183 -2.0405 0.9798
4.7021 -0.5100 -2.0613 0.9796
4.7755 -0.0890 -2.0816 0.9794
4.6633 1.6438 -2.1549 0.9787
4.5298 2.0681 -2.1702 0.9785
3.8822 3.2465 -2.2055 0.9782
3.2627 3.9087 -2.2190 0.9780
2.9051 4.1906 -2.2223 0.9780
2.5206 4.4353 -2.2233 0.9780
1.6880 4.8020 -2.2183 0.9780
0.8153 3.2115 -1.4440 0.9856
0.8020 4.9940 -2.2043 0.9782
0.3514 5.0224 -2.1942 0.9783
-0.5408 4.9456 -2.1682 0.9785
-1.3906 4.6995 -2.1359 0.9788
-2.8406 3.7738 -2.0585 0.9796
-3.8202 2.4379 -1.9751 0.9804
-4.2898 2.2257 -2.1062 0.9791
-4.4258 1.8152 -2.0848 0.9793
-1.5781 0.4879 -0.7199 0.9928
-1.3384 -0.0973 -0.6212 0.9941
-1.3216 -0.2160 -0.6199 0.9941
-1.3122 -0.3370 -0.6271 0.9940
-1.3144 -0.6030 -0.6694 0.9936
-3.4132 -2.3800 -1.9261 0.9818
-2.6395 -3.1739 -1.9108 0.9820
-1.7025 -3.7562 -1.9089 0.9820
-1.0108 -4.0122 -1.9152 0.9819
-0.2830 -4.1542 -1.9274 0.9818
0.4645 -4.1768 -1.9453 0.9816
1.5842 -3.9788 -1.9823 0.9813
1.9476 -3.8501 -1.9972 0.9812
2.3018 -3.6902 -2.0132 0.9810
2.9722 -3.2782 -2.0483 0.9807
3.5711 -2.7462 -2.0853 0.9803
3.7901 -1.9576 -1.9746 0.9814
4.1588 -1.2774 -2.0138 0.9810
4.4036 -0.5275 -2.0529 0.9806
4.5084 0.2688 -2.0906 0.9803
4.3790 1.4887 -2.1409 0.9798
4.0960 2.2723 -2.1681 0.9796
3.0888 3.6172 -2.2017 0.9793
1.8274 3.8957 -1.9918 0.9812
1.6279 4.4705 -2.2023 0.9792
0.8554 3.2178 -1.5412 0.9854
0.8024 4.6622 -2.1898 0.9794
-0.0391 4.6869 -2.1696 0.9796
-0.8611 4.5481 -2.1427 0.9798
-1.6312 4.2574 -2.1104 0.9801
-2.2968 2.1742 -1.4640 0.9862
-1.3243 0.5606 -0.6656 0.9937
-1.2992 0.2928 -0.6164 0.9941
-1.3299 0.1769 -0.6210 0.9941
-1.3312 -0.4333 -0.6480 0.9938
-1.3233 -0.5658 -0.6662 0.9937
-3.4780 -2.2928 -1.9283 0.9818
-2.7226 -3.1055 -1.9117 0.9820
-2.4312 -3.3317 -1.9091 0.9820
-2.1229 -3.5334 -1.9081 0.9820
-1.7994 -3.7097 -1.9085 0.9820
-0.0196 -4.1761 -1.9331 0.9818
1.1056 -4.0986 -1.9650 0.9815
1.4769 -4.0104 -1.9782 0.9813
1.8425 -3.8909 -1.9927 0.9812
2.1996 -3.7400 -2.0084 0.9811
3.1943 -3.1036 -2.0616 0.9806
3.4912 -2.8325 -2.0810 0.9804
3.7548 -2.5262 -2.0948 0.9803
2.2742 -0.9978 -1.1496 0.9891
4.1123 -1.3814 -2.0081 0.9811
4.3763 -0.6403 -2.0473 0.9807
4.4575 -0.2494 -2.0665 0.9805
4.5024 0.1508 -2.0852 0.9803
4.4780 0.9650 -2.1204 0.9800
4.4071 1.3712 -2.1364 0.9799
3.9587 2.5364 -2.1763 0.9795
3.7335 2.8928 -2.1862 0.9794
2.8571 3.8099 -2.2043 0.9792
2.5077 4.0532 -2.2062 0.9792
1.9216 3.8335 -1.9849 0.9813
1.7447 4.4288 -2.2034 0.9792
1.3396 4.5573 -2.1988 0.9793
0.6215 3.1221 -1.4735 0.9861
0.0832 4.6936 -2.1730 0.9795
-2.5431 3.6543 -2.0608 0.9806
-3.5222 2.4369 -1.9826 0.9813
-1.3158 0.5978 -0.6690 0.9937
-1.3107 0.3315 -0.6258 0.9941
-1.3294 -0.5279 -0.6621 0.9937
-3.7405 -1.8878 -1.9394 0.9817
-3.0710 -2.7792 -1.9172 0.9819
-2.5180 -3.2682 -1.9097 0.9820
-2.2145 -3.4772 -1.9082 0.9820
-1.8952 -3.6610 -1.9082 0.9820
-1.5621 -3.8186 -1.9097 0.9820
-0.4980 -4.1249 -1.9232 0.9819
0.2455 -4.1828 -1.9395 0.9817
0.6212 -4.1661 -1.9497 0.9816
1.3691 -4.0394 -1.9742 0.9814
1.7366 -3.9290 -1.9884 0.9812
2.0965 -3.7872 -2.0037 0.9811
2.7828 -3.4109 -2.0376 0.9808
3.1040 -3.1772 -2.0560 0.9806
3.4067 -2.9145 -2.0752 0.9804
3.6808 -2.6182 -2.0908 0.9803
3.6619 -2.1402 -1.9633 0.9815
3.8763 -1.8226 -1.9827 0.9813
4.0633 -1.4838 -2.0023 0.9811
4.3461 -0.7521 -2.0416 0.9807
4.4375 -0.3645 -2.0610 0.9806
4.4931 0.0334 -2.0798 0.9804
4.4913 0.8461 -2.1155 0.9801
3.8029 2.7910 -2.1835 0.9794
3.5526 3.1317 -2.1922 0.9793
2.6121 3.9859 -2.2059 0.9792
1.8603 4.3837 -2.2043 0.9792
0.6987 3.0874 -1.4652 0.9861
0.6271 4.6811 -2.1862 0.9794
-0.2131 4.6712 -2.1645 0.9796
-1.0269 4.4996 -2.1363 0.9799
-1.7825 4.1793 -2.1031 0.9802
-2.4536 3.7294 -2.0664 0.9805
-2.7509 3.4629 -2.0472 0.9807
-2.1614 2.2709 -1.4512 0.9863
-3.9148 2.3570 -2.1152 0.9801
-1.3317 0.5061 -0.6594 0.9937
-1.3204 0.3708 -0.6348 0.9940
-1.3342 0.0075 -0.6176 0.9941
-1.3379 -0.1123 -0.6215 0.9941
-1.3179 -0.2305 -0.6193 0.9941
-1.3328 -0.4895 -0.6572 0.9938
-3.7940 -1.7923 -1.9423 0.9817
-3.3848 -2.4169 -1.9252 0.9818
-3.1450 -2.7005 -1.9188 0.9819
-2.8840 -2.9628 -1.9139 0.9819
-2.6033 -3.2027 -1.9105 0.9820
-2.3047 -3.4188 -1.9085 0.9820
-1.6606 -3.7754 -1.9092 0.9820
-1.3187 -3.9138 -1.9117 0.9820
0.5116 -4.1742 -1.9466 0.9816
1.6301 -3.9644 -1.9841 0.9813
2.3453 -3.6680 -2.0153 0.9810
2.6861 -3.4733 -2.0324 0.9808
3.0121 -3.2484 -2.0506 0.9807
3.5947 -2.2285 -1.9577 0.9815
4.4807 -0.0835 -2.0744 0.9804
4.5100 0.3196 -2.0928 0.9803
4.5012 0.7270 -2.1105 0.9801
4.3659 1.5390 -2.1428 0.9798
4.2389 1.9353 -2.1570 0.9797
3.8693 2.6875 -2.1807 0.9794
3.6291 3.0349 -2.1898 0.9794
3.3548 3.3578 -2.1971 0.9793
2.7144 3.9155 -2.2054 0.9792
2.3551 4.1440 -2.2063 0.9792
0.8127 3.2012 -1.5288 0.9855
0.3286 4.6966 -2.1793 0.9795
-0.0915 4.6829 -2.1681 0.9796
-0.5061 4.6284 -2.1552 0.9797
-2.0311 4.0336 -2.0904 0.9803
-2.3619 3.8022 -2.0719 0.9805
-2.6671 3.5432 -2.0528 0.9806
-3.4099 2.6322 -1.9940 0.9812
-4.0367 2.0944 -2.1051 0.9802
-1.3029 0.2783 -0.6167 0.9941
-1.3373 0.0424 -0.6193 0.9941
-1.1953 -0.0869 -0.5879 0.9947
-1.1829 -0.1933 -0.5879 0.9947
-3.4394 -1.9671 -1.9436 0.9825
-3.2373 -2.2574 -1.9359 0.9826
-2.7683 -2.7810 -1.9248 0.9827
-1.9264 -3.4043 -1.9187 0.9827
-1.6155 -3.5643 -1.9196 0.9827
-0.6169 -3.8873 -1.9307 0.9826
-0.2684 -3.9400 -1.9372 0.9826
0.0848 -3.9643 -1.9450 0.9825
0.7964 -3.9255 -1.9647 0.9823
1.1504 -3.8617 -1.9765 0.9822
2.5010 -3.3099 -2.0349 0.9817
2.8099 -3.0992 -2.0520 0.9815
3.3716 -2.5928 -2.0863 0.9812
3.3652 -2.1388 -1.9559 0.9824
3.5755 -1.8468 -1.9740 0.9822
4.0476 -0.8568 -2.0295 0.9817
4.1450 -0.4965 -2.0478 0.9816
3.9953 1.7703 -2.1436 0.9807
3.4328 2.8060 -2.1748 0.9804
3.1788 3.1111 -2.1818 0.9804
2.5846 3.6405 -2.1900 0.9803
2.2504 3.8586 -2.1911 0.9803
0.7523 4.3713 -2.1757 0.9804
0.3577 4.4036 -2.1672 0.9805
-0.4267 4.3521 -2.1450 0.9807
-1.1783 4.1523 -2.1172 0.9810
-1.5329 4.0008 -2.1016 0.9811
-1.8691 3.8177 -2.0851 0.9812
-2.4757 3.3667 -2.0499 0.9816
-2.2690 2.1479 -1.5326 0.9862
-3.3717 2.2051 -1.9762 0.9822
-1.1468 0.4854 -0.6109 0.9945
-1.1964 0.0513 -0.5874 0.9947
-1.1660 -0.2672 -0.5868 0.9947
-1.1460 -0.4900 -0.6114 0.9945
-2.5833 -2.9466 -1.9222 0.9827
-2.0145 -3.3530 -1.9188 0.9827
-1.3878 -3.6621 -1.9210 0.9827
-0.7174 -3.8666 -1.9290 0.9826
0.6926 -3.9385 -1.9616 0.9823
1.0475 -3.8833 -1.9730 0.9822
1.7444 -3.6838 -1.9994 0.9820
2.4082 -3.3659 -2.0301 0.9817
2.7214 -3.1635 -2.0469 0.9816
3.0187 -2.9330 -2.0646 0.9814
3.5442 -2.3844 -2.0953 0.9811
3.5167 -1.9341 -1.9687 0.9823
3.8758 -1.3019 -2.0056 0.9819
4.0133 -0.9595 -2.0241 0.9818
4.1199 -0.6028 -2.0424 0.9816
4.1941 -0.2347 -2.0605 0.9815
4.2340 0.1418 -2.0781 0.9813
4.2386 0.5234 -2.0949 0.9812
4.2069 0.9066 -2.1110 0.9810
4.1384 1.2876 -2.1260 0.9809
3.8909 2.0277 -2.1522 0.9806
3.5009 2.7126 -2.1724 0.9805
2.9807 3.3118 -2.1856 0.9803
1.2557 4.2719 -2.1841 0.9804
0.6246 3.1375 -1.5692 0.9858
-0.3136 4.3691 -2.1487 0.9807
-0.6982 4.2978 -2.1358 0.9808
-1.0719 4.1903 -2.1216 0.9809
-1.7731 3.8742 -2.0900 0.9812
-2.0946 3.6702 -2.0729 0.9813
-2.6669 3.1832 -2.0370 0.9817
-2.1957 2.1897 -1.5211 0.9863
-3.1325 2.6100 -2.0000 0.9820
-3.7413 2.1217 -2.1098 0.9810
-1.1405 0.5182 -0.6145 0.9944
-1.1566 0.4054 -0.6012 0.9946
-1.1583 0.2929 -0.5861 0.9947
-1.1836 0.1890 -0.5880 0.9947
-1.1963 -0.0245 -0.5869 0.9947
-1.1917 -0.1314 -0.5881 0.9947
-2.9135 -2.6366 -1.9275 0.9826
-2.3893 -3.1012 -1.9203 0.9827
-1.7984 -3.4740 -1.9189 0.9827
-0.8173 -3.8435 -1.9275 0.9826
