ply
format ascii 1.0
element vertex 1596
property float32 x
property float32 y
property float32 z
property float32 I
end_header
-7.5475 1.2755 -1.9819 0.9689
-7.5172 0.5889 -1.9523 0.9693
-7.4333 -0.0822 -1.9247 0.9698
-6.8878 -1.9715 -1.8550 0.9708
-6.6170 -2.5514 -1.8362 0.9711
-6.3061 -3.1028 -1.8197 0.9714
-5.9576 -3.6239 -1.8055 0.9716
-5.5739 -4.1132 -1.7936 0.9718
-4.7104 -4.9900 -1.7767 0.9720
-4.2351 -5.3749 -1.7717 0.9721
-3.7337 -5.7223 -1.7691 0.9722
-3.2082 -6.0312 -1.7688 0.9722
-0.2969 -6.9530 -1.8019 0.9717
0.3264 -7.0041 -1.8155 0.9714
0.9576 -7.0078 -1.8313 0.9712
1.5940 -6.9629 -1.8495 0.9709
2.2325 -6.8681 -1.8699 0.9706
2.8701 -6.7222 -1.8925 0.9703
4.7402 -5.9680 -1.9733 0.9690
5.3358 -5.6086 -2.0044 0.9685
6.4571 -4.7262 -2.0719 0.9675
6.9133 -3.3682 -1.9911 0.9687
7.3155 -2.7881 -2.0270 0.9682
7.6711 -2.1634 -2.0637 0.9676
8.2197 -0.7949 -2.1381 0.9665
8.5136 0.7003 -2.2118 0.9653
8.5522 1.4796 -2.2472 0.9648
8.3718 2.2320 -2.2433 0.9648
6.6848 3.1391 -1.9121 0.9699
5.3971 3.8327 -1.7139 0.9730
4.3935 4.4876 -1.6261 0.9744
1.9353 5.6758 -1.5527 0.9755
0.4895 3.2358 -0.8473 0.9866
0.3954 6.4841 -1.6820 0.9735
-0.1925 6.7911 -1.7590 0.9723
-3.8834 7.5600 -2.2006 0.9655
-5.4545 5.9467 -2.0893 0.9672
-6.3057 5.7496 -2.2095 0.9654
-6.6784 5.0777 -2.1722 0.9659
-7.4944 2.2618 -2.0269 0.9682
-7.5362 0.8677 -1.9641 0.9691
-6.9863 -1.7269 -1.8633 0.9707
-6.4378 -2.8811 -1.8262 0.9713
-6.1043 -3.4148 -1.8110 0.9715
-5.7347 -3.9173 -1.7982 0.9717
-3.9415 -5.5850 -1.7699 0.9722
-2.3278 -6.4401 -1.7730 0.9721
-0.5486 -6.9188 -1.7970 0.9717
0.6990 -7.0121 -1.8246 0.9713
3.8739 -6.3821 -1.9330 0.9696
4.4918 -6.0992 -1.9612 0.9692
5.0949 -5.7620 -1.9915 0.9687
6.7370 -3.5919 -1.9768 0.9689
2.2957 -0.9722 -0.6455 0.9898
7.8572 -1.7744 -2.0856 0.9673
8.1269 -1.0861 -2.1229 0.9667
8.4763 0.3869 -2.1969 0.9655
8.5387 1.9462 -2.2675 0.9645
6.9876 2.9756 -1.9664 0.9691
6.2736 3.3609 -1.8428 0.9710
5.6388 3.7028 -1.7466 0.9725
5.0619 4.0127 -1.6725 0.9737
4.6062 4.3739 -1.6446 0.9741
3.0433 5.0364 -1.5236 0.9760
2.1301 5.5731 -1.5448 0.9756
0.5590 2.9609 -0.7802 0.9876
-2.2648 8.5275 -2.2845 0.9642
-3.6295 7.7482 -2.2153 0.9653
-4.7833 6.7492 -2.1418 0.9664
-5.2723 6.1863 -2.1045 0.9670
-2.2879 2.2442 -0.8298 0.9868
-7.3229 3.2597 -2.0754 0.9674
-7.4572 2.5506 -2.0406 0.9680
-7.4124 -0.2031 -1.9199 0.9698
-7.2687 -0.8516 -1.8949 0.9702
-5.5001 -4.1991 -1.7917 0.9718
-4.6255 -5.0632 -1.7756 0.9721
-3.1096 -6.0834 -1.7690 0.9722
-2.5586 -6.3450 -1.7714 0.9721
-1.4008 -6.7430 -1.7832 0.9719
-0.1835 -6.9658 -1.8042 0.9716
0.4414 -7.0084 -1.8182 0.9714
1.0737 -7.0033 -1.8345 0.9711
4.8506 -5.9063 -1.9789 0.9689
6.5543 -3.8075 -1.9626 0.9692
6.9901 -3.2655 -1.9976 0.9686
7.7307 -2.0446 -2.0704 0.9675
8.0238 -1.3717 -2.1077 0.9669
8.5510 1.6236 -2.2536 0.9647
8.1938 2.3285 -2.2055 0.9654
7.3085 2.8021 -2.0266 0.9682
6.5543 3.2095 -1.8896 0.9703
5.8283 -4.4139 -2.0697 0.9701
6.2841 -3.9305 -2.0983 0.9697
7.4271 -0.8409 -2.1160 0.9694
7.5906 -0.1784 -2.1495 0.9689
7.7279 1.2073 -2.2142 0.9680
7.6943 1.9174 -2.2448 0.9676
7.5889 2.6288 -2.2736 0.9672
6.8079 3.0623 -2.1133 0.9694
6.1156 3.4364 -1.9859 0.9713
4.9316 4.0737 -1.8108 0.9738
3.4282 4.8772 -1.6877 0.9755
1.7759 3.8299 -1.1951 0.9826
2.0203 5.6228 -1.6914 0.9755
0.8035 3.0736 -0.8993 0.9869
-0.0807 6.7236 -1.9035 0.9724
-0.6145 6.0484 -1.7211 0.9750
-2.1909 7.6271 -2.2465 0.9675
-2.8231 7.3011 -2.2160 0.9680
-3.4128 6.9196 -2.1842 0.9684
-4.4479 6.0155 -2.1179 0.9694
-4.8873 5.5062 -2.0842 0.9699
-6.5667 3.4851 -2.1046 0.9696
-6.8987 0.2880 -1.9547 0.9717
-6.4933 -1.4929 -1.8862 0.9727
-6.2713 -2.0451 -1.8674 0.9730
-5.3780 -3.5462 -1.8236 0.9736
-5.0121 -3.9887 -1.8134 0.9737
-4.6159 -4.3997 -1.8052 0.9738
-3.7412 -5.1215 -1.7955 0.9740
-3.2669 -5.4297 -1.7939 0.9740
-1.7222 -6.1287 -1.8022 0.9739
2.3025 -6.2932 -1.8971 0.9725
2.8872 -6.1331 -1.9190 0.9722
4.0319 -5.6662 -1.9687 0.9715
5.6278 -4.5942 -2.0567 0.9702
2.3206 -1.0277 -0.7185 0.9895
7.1002 -1.7257 -2.0685 0.9701
7.5311 -0.4520 -2.1358 0.9691
7.6585 0.2244 -2.1690 0.9687
7.6408 2.3385 -2.2621 0.9673
7.1178 2.8946 -2.1752 0.9686
6.3882 3.2892 -2.0341 0.9706
5.7420 3.6378 -1.9243 0.9721
4.6167 4.2426 -1.7750 0.9743
3.1497 5.0252 -1.6790 0.9756
2.6827 5.2729 -1.6748 0.9757
2.2140 5.5206 -1.6839 0.9756
0.1613 6.5974 -1.8682 0.9729
-0.4487 6.9151 -1.9617 0.9716
-1.1285 7.2683 -2.0823 0.9699
-1.9217 7.7429 -2.2585 0.9674
-2.5697 7.4413 -2.2287 0.9678
-3.1774 7.0817 -2.1973 0.9682
-3.7397 6.6703 -2.1649 0.9687
-4.2530 6.2136 -2.1316 0.9692
-4.7143 5.7182 -2.0980 0.9697
-2.2629 2.2934 -0.9121 0.9867
-5.8865 4.9869 -2.1840 0.9684
-6.2178 4.3793 -2.1530 0.9689
-6.6784 3.1044 -2.0849 0.9698
-6.9083 1.8130 -2.0219 0.9707
-6.9408 1.1730 -1.9928 0.9712
-6.5721 -1.2608 -1.8944 0.9726
-5.8376 -2.8723 -1.8418 0.9733
-5.5182 -3.3566 -1.8285 0.9735
-5.1653 -3.8116 -1.8173 0.9737
-4.3681 -4.6274 -1.8014 0.9739
-3.9282 -4.9853 -1.7968 0.9740
-3.4634 -5.3082 -1.7943 0.9740
-2.4682 -5.8438 -1.7958 0.9740
-0.8431 -6.3540 -1.8145 0.9737
2.0624 -6.3448 -1.8887 0.9726
3.8018 -5.7776 -1.9579 0.9717
4.3607 -5.4902 -1.9848 0.9713
4.9024 -5.1531 -2.0135 0.9709
5.4226 -4.7664 -2.0438 0.9704
6.3599 -3.8348 -2.1024 0.9696
6.9860 -1.9702 -2.0548 0.9703
7.2505 -1.3617 -2.0885 0.9698
7.4615 -0.7216 -2.1221 0.9693
7.7270 1.3368 -2.2200 0.9679
7.6804 2.0477 -2.2502 0.9675
7.4466 2.7164 -2.2440 0.9676
6.6746 3.1344 -2.0875 0.9698
5.3897 3.8275 -1.8714 0.9729
4.8329 4.1267 -1.7991 0.9739
2.8733 5.1719 -1.6749 0.9757
1.7111 3.8538 -1.1937 0.9826
-0.1922 6.7817 -1.9206 0.9722
-1.6466 7.8480 -2.2701 0.9672
-2.3096 7.5719 -2.2410 0.9676
-2.9344 7.2353 -2.2103 0.9681
-4.5323 5.9248 -2.1117 0.9695
-6.0945 4.6338 -2.1674 0.9687
-6.3786 4.0065 -2.1324 0.9692
-6.6034 3.3675 -2.0984 0.9697
-6.9354 0.7985 -1.9763 0.9714
-6.6438 -1.0251 -1.9031 0.9724
-6.4558 -1.5957 -1.8826 0.9727
-6.2264 -2.1435 -1.8642 0.9730
-5.6528 -3.1623 -1.8337 0.9734
-5.3134 -3.6294 -1.8216 0.9736
-4.9418 -4.0663 -1.8117 0.9737
-3.1777 -5.4822 -1.7938 0.9740
-2.6780 -5.7467 -1.7948 0.9740
-1.6229 -6.1599 -1.8033 0.9739
0.0654 -6.4723 -1.8324 0.9735
0.6469 -6.4899 -1.8463 0.9733
1.2334 -6.4623 -1.8624 0.9730
2.4098 -6.2675 -1.9009 0.9725
4.6835 -5.2968 -2.0016 0.9710
5.2130 -4.9303 -2.0313 0.9706
6.1888 -4.0464 -2.0933 0.9697
6.1584 -3.2834 -1.9757 0.9714
2.2935 -0.9712 -0.7051 0.9897
6.8636 -2.2087 -2.0412 0.9705
7.5590 -0.3300 -2.1419 0.9690
7.6750 0.3503 -2.1750 0.9686
7.6190 2.4686 -2.2673 0.9673
6.2645 3.3560 -2.0119 0.9709
4.0881 4.6421 -1.7511 0.9746
3.5352 4.8203 -1.6922 0.9755
1.6471 5.8193 -1.7121 0.9752
0.6209 6.3574 -1.8083 0.9738
-0.4948 6.0854 -1.7284 0.9749
-2.0430 7.6923 -2.2531 0.9675
-3.8375 6.5899 -2.1588 0.9688
-4.3414 6.1256 -2.1255 0.9693
-4.7929 5.6238 -2.0918 0.9697
-6.5187 3.6296 -2.1122 0.9695
-6.7088 2.9864 -2.0789 0.9699
-6.8415 2.3400 -2.0469 0.9704
-6.9122 0.4281 -1.9605 0.9716
-6.7081 -0.7859 -1.9120 0.9723
-5.0973 -3.8916 -1.8155 0.9737
-2.8846 -5.6432 -1.7942 0.9740
-2.3732 -5.8852 -1.7964 0.9740
-1.2986 -6.2514 -1.8075 0.9738
-0.7399 -6.3731 -1.8163 0.9737
0.4086 -6.4881 -1.8404 0.9733
0.9934 -6.4791 -1.8556 0.9731
1.5815 -6.4243 -1.8730 0.9729
2.1700 -6.3227 -1.8924 0.9726
3.3354 -5.9756 -1.9373 0.9720
4.9994 -5.0860 -2.0189 0.9708
5.5151 -4.6903 -2.0495 0.9704
7.0382 -1.8614 -2.0610 0.9702
7.6352 0.0700 -2.1616 0.9688
7.7238 1.4666 -2.2256 0.9678
6.5445 3.2047 -2.0629 0.9702
4.9196 -4.4687 -2.0442 0.9726
5.3739 -4.0698 -2.0734 0.9722
5.7850 -3.6183 -2.0987 0.9718
5.7445 -2.9158 -1.9815 0.9734
6.6009 -1.3517 -2.0724 0.9722
6.7942 -0.7692 -2.1031 0.9718
7.0415 1.1001 -2.1921 0.9706
6.7288 3.0267 -2.2694 0.9696
5.4891 3.7648 -2.0473 0.9725
4.9251 4.0683 -1.9648 0.9736
4.4480 4.3972 -1.9238 0.9742
3.9708 4.6962 -1.8916 0.9746
3.4239 4.8712 -1.8314 0.9754
2.9550 5.1203 -1.8184 0.9756
2.0178 5.6158 -1.8354 0.9753
0.8209 3.1400 -0.9983 0.9865
0.5226 3.1104 -0.9701 0.9869
0.4963 6.4136 -1.9786 0.9734
-1.9937 6.9407 -2.2211 0.9702
-2.5722 6.6521 -2.1937 0.9706
-3.6133 5.9274 -2.1352 0.9714
-4.0685 5.5025 -2.1048 0.9718
-4.4765 5.0434 -2.0742 0.9722
-5.1446 4.0458 -2.0131 0.9730
-6.0468 3.2091 -2.1055 0.9718
-6.3356 2.0256 -2.0459 0.9725
-6.4194 0.8455 -1.9915 0.9733
-6.3885 0.2667 -1.9667 0.9736
-6.1911 -0.8520 -1.9222 0.9742
-6.0288 -1.3861 -1.9027 0.9744
-5.3128 -2.8591 -1.8557 0.9751
-5.0050 -3.3003 -1.8440 0.9752
-3.4855 -4.7715 -1.8175 0.9756
-3.0439 -5.0589 -1.8160 0.9756
-2.5817 -5.3117 -1.8165 0.9756
-2.1010 -5.5286 -1.8191 0.9756
-1.6040 -5.7084 -1.8238 0.9755
-1.0930 -5.8501 -1.8305 0.9754
0.5022 -6.0354 -1.8628 0.9750
2.1368 -5.8406 -1.9129 0.9743
3.2101 -5.4886 -1.9557 0.9737
5.1916 -4.2381 -2.0613 0.9723
5.6266 -3.8114 -2.0903 0.9720
2.3091 -1.0226 -0.7768 0.9895
6.5076 -1.5817 -2.0599 0.9724
6.7214 -1.0103 -2.0906 0.9720
7.0393 0.8383 -2.1804 0.9708
7.0260 1.4811 -2.2085 0.9704
6.9488 2.1267 -2.2351 0.9700
6.8061 2.7678 -2.2599 0.9697
5.7339 3.6327 -2.0878 0.9720
5.1500 3.9473 -1.9958 0.9732
4.6106 4.2371 -1.9260 0.9741
3.6179 4.7679 -1.8409 0.9753
2.6794 5.2664 -1.8174 0.9756
0.5995 2.9139 -0.9150 0.9876
0.1611 6.5883 -2.0270 0.9728
-0.4480 6.9052 -2.1283 0.9715
-1.1258 7.2507 -2.2569 0.9698
-3.8881 5.6805 -2.1173 0.9716
-4.3157 5.2347 -2.0867 0.9720
-2.2636 2.2941 -0.9913 0.9866
-5.0245 4.2566 -2.0254 0.9728
-5.7151 4.0252 -2.1501 0.9712
-6.2936 2.2681 -2.0576 0.9724
-6.4068 0.5019 -1.9766 0.9735
-6.3486 -0.0702 -1.9528 0.9738
-6.2456 -0.6285 -1.9307 0.9741
-6.1000 -1.1702 -1.9104 0.9743
-5.9139 -1.6928 -1.8920 0.9746
-5.6896 -2.1938 -1.8756 0.9748
-5.1346 -3.1233 -1.8485 0.9752
-4.8083 -3.5482 -1.8380 0.9753
-4.4523 -3.9443 -1.8295 0.9754
-3.6595 -4.6444 -1.8187 0.9756
-2.2995 -5.4444 -1.8178 0.9756
-1.3033 -5.7969 -1.8275 0.9754
-0.7849 -5.9155 -1.8354 0.9753
-0.2560 -5.9942 -1.8454 0.9752
0.2811 -6.0320 -1.8573 0.9750
1.3692 -5.9809 -1.8872 0.9746
1.9147 -5.8903 -1.9050 0.9744
3.5202 -5.3497 -1.9697 0.9736
4.0336 -5.0784 -1.9948 0.9732
4.5298 -4.7614 -2.0214 0.9729
5.0047 -4.3990 -2.0495 0.9725
5.4540 -3.9920 -2.0789 0.9721
5.8538 -3.5297 -2.1025 0.9718
5.8072 -2.8293 -1.9869 0.9733
6.1274 -2.3353 -2.0169 0.9729
6.4064 -1.8068 -2.0473 0.9725
6.9541 -0.0498 -2.1390 0.9713
7.0269 0.5780 -2.1686 0.9709
7.0391 1.2178 -2.1972 0.9705
6.9882 1.8631 -2.2245 0.9702
6.8723 2.5070 -2.2500 0.9698
6.6644 3.1296 -2.2646 0.9697
5.9889 3.4951 -2.1328 0.9714
4.8265 4.1212 -1.9521 0.9738
4.3793 4.4730 -1.9254 0.9741
3.8805 4.7444 -1.8852 0.9747
3.3376 4.9171 -1.8279 0.9754
1.6442 3.7031 -1.2462 0.9832
0.7436 3.0468 -0.9646 0.9870
0.9355 6.1841 -1.9237 0.9742
0.3943 6.4668 -1.9927 0.9733
-0.7162 6.0629 -1.8778 0.9748
-2.1022 6.8919 -2.2162 0.9703
-3.2081 6.2453 -2.1595 0.9710
-4.1468 5.4208 -2.0992 0.9718
-4.5459 4.9562 -2.0685 0.9722
-6.0820 3.1016 -2.0999 0.9718
-6.3516 1.9169 -2.0406 0.9726
-6.3779 0.1620 -1.9623 0.9737
-5.5397 -2.4792 -1.8667 0.9749
-4.6012 -3.7861 -1.8327 0.9754
-3.8296 -4.5118 -1.8202 0.9755
-3.4063 -4.8266 -1.8170 0.9756
-2.4950 -5.3541 -1.8168 0.9756
-0.9981 -5.8718 -1.8319 0.9754
-0.4731 -5.9669 -1.8410 0.9753
0.0609 -6.0215 -1.8522 0.9751
1.1462 -6.0053 -1.8805 0.9747
2.2361 -5.8159 -1.9165 0.9743
2.7754 -5.6543 -1.9373 0.9740
3.3065 -5.4473 -1.9600 0.9737
3.8257 -5.1947 -1.9843 0.9734
4.3294 -4.8964 -2.0103 0.9730
4.8136 -4.5525 -2.0378 0.9727
2.2919 -0.9706 -0.7656 0.9896
6.2977 -2.0266 -2.0349 0.9727
6.5504 -1.4792 -2.0655 0.9723
6.7551 -0.9028 -2.0962 0.9719
6.9076 -0.3015 -2.1267 0.9715
7.0043 0.3197 -2.1566 0.9711
7.0416 0.9554 -2.1857 0.9707
7.0167 1.5993 -2.2135 0.9703
6.7728 2.8841 -2.2642 0.9697
5.6231 3.6925 -2.0691 0.9722
5.0484 4.0020 -1.9815 0.9734
4.5306 4.3021 -1.9217 0.9742
4.0830 4.6363 -1.9002 0.9745
3.5308 4.8143 -1.8363 0.9753
3.0359 5.0241 -1.8055 0.9757
2.1248 5.5594 -1.8306 0.9754
1.6451 5.8120 -1.8579 0.9750
0.6200 6.3490 -1.9621 0.9737
0.0539 6.6442 -2.0437 0.9726
-1.2416 7.2172 -2.2525 0.9698
-2.4448 6.7218 -2.2000 0.9705
-3.9699 5.6015 -2.1117 0.9717
-4.3887 5.1496 -2.0811 0.9721
-6.3330 -0.1735 -1.9486 0.9738
-6.2221 -0.7290 -1.9269 0.9741
-5.8757 -1.7861 -1.8889 0.9746
-5.6445 -2.2830 -1.8728 0.9748
-5.3777 -2.7560 -1.8586 0.9750
-5.0772 -3.2032 -1.8465 0.9752
-4.7453 -3.6229 -1.8363 0.9753
-4.3841 -4.0136 -1.8282 0.9754
-3.5820 -4.7020 -1.8181 0.9756
-2.6876 -5.2578 -1.8162 0.9756
-1.7174 -5.6711 -1.8225 0.9755
-1.2093 -5.8215 -1.8288 0.9754
0.3800 -6.0344 -1.8597 0.9750
2.0143 -5.8689 -1.9085 0.9744
3.0908 -5.5374 -1.9505 0.9738
3.6153 -5.3034 -1.9742 0.9735
4.1258 -5.0238 -1.9995 0.9732
4.6184 -4.6985 -2.0264 0.9728
5.5331 -3.9128 -2.0844 0.9720
5.5183 -3.2057 -1.9629 0.9736
5.8687 -2.7416 -1.9923 0.9733
6.4527 -1.7066 -2.0530 0.9725
6.9718 0.0639 -2.1445 0.9712
7.0337 0.6944 -2.1739 0.9709
6.8440 2.6240 -2.2545 0.9698
4.9802 -3.7716 -2.0766 0.9740
2.3203 -0.9280 -0.8307 0.9895
6.0829 -1.2456 -2.0640 0.9742
6.3756 -0.1498 -2.1199 0.9735
6.4451 0.4243 -2.1470 0.9731
6.4597 1.0092 -2.1733 0.9728
6.1550 2.7686 -2.2434 0.9720
5.9348 3.3348 -2.2629 0.9717
4.9185 4.0628 -2.1206 0.9735
2.9514 5.1140 -1.9627 0.9754
0.5203 3.0967 -1.0438 0.9869
-0.0805 6.7047 -2.2288 0.9721
-0.6132 6.0361 -2.0168 0.9748
-2.3595 6.1022 -2.1748 0.9728
-3.3219 5.4494 -2.1214 0.9735
-3.7447 5.0645 -2.0937 0.9738
-4.7516 3.7367 -2.0094 0.9748
-5.3826 3.5047 -2.1350 0.9733
-5.5974 2.9707 -2.1064 0.9736
-5.7616 2.4270 -2.0782 0.9740
-5.9449 1.3307 -2.0250 0.9746
-5.8763 -0.2794 -1.9555 0.9755
-5.6210 -1.2924 -1.9172 0.9760
-4.6763 -3.0835 -1.8619 0.9767
-3.6510 -4.1616 -1.8403 0.9769
-3.2596 -4.4623 -1.8369 0.9770
-2.4145 -4.9676 -1.8360 0.9770
-1.0217 -5.4684 -1.8492 0.9768
1.4849 -5.5485 -1.9093 0.9761
2.4934 -5.2968 -1.9460 0.9756
4.3866 -4.2866 -2.0388 0.9745
4.8133 -3.9293 -2.0654 0.9741
5.1811 -2.8719 -1.9691 0.9753
2.3019 -1.0194 -0.8368 0.9894
5.9998 -1.4583 -2.0524 0.9743
6.1898 -0.9304 -2.0806 0.9740
6.3320 -0.3801 -2.1086 0.9736
6.4232 0.1882 -2.1360 0.9733
6.2278 2.5327 -2.2348 0.9721
6.0319 3.1057 -2.2552 0.9718
5.7257 3.6275 -2.2531 0.9718
5.1430 3.9419 -2.1540 0.9731
4.0761 4.4788 -2.0130 0.9748
3.6134 4.7619 -1.9870 0.9751
3.1419 5.0128 -1.9665 0.9754
2.6760 5.2598 -1.9617 0.9754
0.1609 6.5792 -2.1876 0.9726
-0.4388 6.7629 -2.2527 0.9718
-2.1457 6.2135 -2.1851 0.9727
-2.6593 5.9270 -2.1594 0.9730
-3.5770 5.2259 -2.1051 0.9737
-4.6385 3.9296 -2.0208 0.9747
-5.2724 3.7134 -2.1436 0.9732
-5.5161 3.1904 -2.1182 0.9735
-5.7005 2.6499 -2.0896 0.9739
-5.8358 2.1031 -2.0620 0.9742
-5.9631 1.0078 -2.0103 0.9748
-5.9086 -0.0654 -1.9642 0.9754
-5.8173 -0.5854 -1.9435 0.9757
-5.3098 -2.0474 -1.8917 0.9763
-5.0694 -2.4943 -1.8780 0.9765
-4.4934 -3.3158 -1.8563 0.9767
-4.1620 -3.6871 -1.8483 0.9768
-3.4222 -4.3432 -1.8380 0.9770
-3.0179 -4.6253 -1.8358 0.9770
-1.6915 -5.2732 -1.8408 0.9769
-1.2184 -5.4193 -1.8464 0.9769
-0.7336 -5.5286 -1.8538 0.9768
-0.2391 -5.6001 -1.8632 0.9766
0.2625 -5.6331 -1.8745 0.9765
0.7688 -5.6264 -1.8876 0.9763
1.2773 -5.5795 -1.9026 0.9762
1.7850 -5.4915 -1.9194 0.9760
2.2892 -5.3618 -1.9379 0.9757
2.7868 -5.1901 -1.9582 0.9755
3.2743 -4.9760 -1.9800 0.9752
4.2057 -4.4207 -2.0282 0.9746
4.6420 -4.0802 -2.0544 0.9743
5.0535 -3.6988 -2.0817 0.9739
5.4167 -3.2661 -2.1026 0.9737
5.3689 -2.6158 -1.9852 0.9751
6.1177 -1.1490 -2.0691 0.9741
6.4562 1.1170 -2.1780 0.9728
5.8881 3.4363 -2.2662 0.9717
5.3749 3.8170 -2.1913 0.9726
4.8200 4.1157 -2.1068 0.9736
3.3334 4.9110 -1.9730 0.9753
2.8662 5.1591 -1.9618 0.9754
1.9281 5.6547 -1.9859 0.9751
0.9343 6.1759 -2.0763 0.9740
0.3938 6.4580 -2.1506 0.9731
-0.1917 6.7624 -2.2488 0.9719
-1.9267 6.3168 -2.1952 0.9725
-2.4535 6.0497 -2.1700 0.9729
-4.5177 4.1193 -2.0322 0.9746
-4.7998 3.6494 -2.0043 0.9749
-5.4265 3.4084 -2.1301 0.9733
-5.6311 2.8717 -2.1012 0.9737
-5.8931 1.7786 -2.0462 0.9744
-5.9523 1.2306 -2.0204 0.9747
-5.5899 -1.3817 -1.9140 0.9760
-5.3983 -1.8585 -1.8978 0.9762
-4.9118 -2.7477 -1.8708 0.9766
-4.6208 -3.1564 -1.8601 0.9767
-4.3007 -3.5388 -1.8513 0.9768
-3.9534 -3.8935 -1.8444 0.9769
-3.5811 -4.2190 -1.8395 0.9769
-2.3334 -5.0072 -1.8363 0.9770
-0.4421 -5.5755 -1.8592 0.9767
0.0569 -5.6243 -1.8697 0.9766
0.5616 -5.6340 -1.8820 0.9764
2.0839 -5.4198 -1.9302 0.9758
3.0766 -5.0686 -1.9709 0.9753
3.5567 -4.8294 -1.9937 0.9750
4.0212 -4.5478 -2.0179 0.9747
4.8886 -3.8595 -2.0704 0.9741
2.2911 -0.9702 -0.8270 0.9896
6.2194 -0.8312 -2.0858 0.9739
6.4342 0.2937 -2.1410 0.9732
6.4613 0.8767 -2.1675 0.9729
6.3438 2.0554 -2.2166 0.9723
5.6151 3.6873 -2.2330 0.9721
4.3771 4.1563 -2.0064 0.9749
4.0049 4.5476 -2.0143 0.9748
3.5263 4.8082 -1.9821 0.9752
3.0321 5.0178 -1.9488 0.9756
2.5908 5.3049 -1.9625 0.9754
1.6430 5.8046 -2.0053 0.9749
0.5522 2.9248 -0.9894 0.9875
0.0538 6.6349 -2.2055 0.9724
-0.4948 6.0858 -2.0296 0.9746
-2.2422 6.1646 -2.1805 0.9727
-3.2209 5.5312 -2.1276 0.9734
-3.6530 5.1543 -2.1000 0.9737
-4.0431 4.7440 -2.0719 0.9741
-4.6901 3.8436 -2.0157 0.9748
-5.3228 3.6203 -2.1398 0.9732
-5.7289 2.5501 -2.0845 0.9739
-5.9655 0.9082 -2.0058 0.9749
-5.9520 0.3686 -1.9823 0.9752
-5.8950 -0.1615 -1.9603 0.9754
-5.7962 -0.6791 -1.9399 0.9757
-5.6576 -1.1814 -1.9212 0.9759
-5.4809 -1.6661 -1.9042 0.9761
-5.2684 -2.1308 -1.8890 0.9763
-5.0218 -2.5736 -1.8757 0.9765
-4.7433 -2.9925 -1.8643 0.9766
-4.4348 -3.3858 -1.8547 0.9768
-4.0984 -3.7520 -1.8470 0.9769
-2.9416 -4.6735 -1.8356 0.9770
-2.5135 -4.9173 -1.8357 0.9770
-2.0676 -5.1274 -1.8377 0.9770
-1.6059 -5.3026 -1.8417 0.9769
-0.6437 -5.5445 -1.8554 0.9767
-0.1478 -5.6091 -1.8651 0.9766
0.8618 -5.6209 -1.8902 0.9763
1.3703 -5.5665 -1.9056 0.9761
1.8777 -5.4709 -1.9227 0.9759
2.3808 -5.3335 -1.9415 0.9757
2.8768 -5.1541 -1.9620 0.9754
3.3622 -4.9322 -1.9842 0.9752
4.2872 -4.3615 -2.0329 0.9746
4.7192 -4.0134 -2.0593 0.9742
5.4246 -2.5342 -1.9902 0.9751
5.7074 -2.0691 -2.0180 0.9747
5.9508 -1.5738 -2.0461 0.9744
6.3043 -0.5059 -2.1023 0.9737
6.4570 0.6374 -2.1568 0.9730
6.4508 1.2249 -2.1826 0.9727
6.2638 2.4016 -2.2299 0.9721
6.0812 2.9779 -2.2508 0.9719
4.2518 -3.8621 -2.0541 0.9759
4.6355 -3.5106 -2.0794 0.9756
4.9772 -3.1130 -2.0993 0.9754
4.9350 -2.5049 -1.9791 0.9768
2.3221 -0.9287 -0.8944 0.9894
5.4392 -1.6303 -2.0306 0.9762
5.6342 -1.1537 -2.0566 0.9759
5.8935 -0.1385 -2.1081 0.9753
5.9520 0.3919 -2.1331 0.9750
5.9599 0.9311 -2.1571 0.9747
5.9153 1.4740 -2.1800 0.9744
5.6646 2.5480 -2.2212 0.9740
4.1432 4.0959 -2.0834 0.9756
3.4153 4.8589 -2.1239 0.9751
2.0127 5.6016 -2.1286 0.9750
-0.0752 6.2630 -2.2399 0.9737
-1.1662 6.0480 -2.2026 0.9742
-2.1768 5.6297 -2.1585 0.9747
-2.6402 5.3531 -2.1345 0.9750
-3.0705 5.0370 -2.1096 0.9753
-3.4648 4.6859 -2.0840 0.9755
-4.4097 3.4678 -2.0062 0.9765
-4.9925 3.2507 -2.1304 0.9750
-5.2048 2.7623 -2.1072 0.9753
-5.4750 1.7504 -2.0555 0.9759
-5.5429 1.2407 -2.0312 0.9762
-5.5675 0.7333 -2.0082 0.9764
-5.2599 -1.2093 -1.9300 0.9773
-4.6498 -2.5024 -1.8883 0.9778
-4.0900 -3.2549 -1.8692 0.9780
-1.4069 -5.0068 -1.8598 0.9781
-0.4994 -5.2155 -1.8736 0.9780
0.4393 -5.2798 -1.8946 0.9777
1.8630 -5.0922 -1.9391 0.9772
2.3310 -4.9517 -1.9571 0.9770
2.7907 -4.7716 -1.9768 0.9768
4.8436 -3.2810 -2.0921 0.9755
4.8152 -2.6691 -1.9688 0.9769
5.3481 -1.8179 -2.0200 0.9763
5.7297 -0.8612 -2.0720 0.9757
5.9341 0.1738 -2.1230 0.9751
5.9629 0.7101 -2.1474 0.9748
5.8637 1.7946 -2.1929 0.9743
5.5490 2.8570 -2.2319 0.9738
3.1379 5.0064 -2.1129 0.9752
2.2057 5.4999 -2.1191 0.9751
1.7296 5.7505 -2.1474 0.9748
0.6217 3.0216 -1.1032 0.9870
0.7171 6.2804 -2.2605 0.9735
0.1535 6.2799 -2.2464 0.9737
-0.9485 6.1092 -2.2109 0.9741
-1.4753 5.9443 -2.1902 0.9743
-1.9789 5.7303 -2.1680 0.9746
-2.4547 5.4711 -2.1444 0.9748
-2.8989 5.1706 -2.1198 0.9751
-3.6799 4.4636 -2.0687 0.9757
-2.2685 2.2991 -1.1550 0.9864
-4.3029 3.6453 -2.0167 0.9763
-5.4345 1.9585 -2.0658 0.9758
-5.5621 0.4357 -1.9951 0.9766
-4.7499 -2.3371 -1.8931 0.9778
-4.4961 -2.7349 -1.8819 0.9779
-4.2133 -3.1092 -1.8725 0.9780
-3.9036 -3.4582 -1.8650 0.9781
-3.2109 -4.0750 -1.8553 0.9782
-2.4333 -4.5745 -1.8529 0.9782
-2.0177 -4.7772 -1.8545 0.9782
-1.5868 -4.9471 -1.8579 0.9782
0.2460 -5.2787 -1.8898 0.9778
1.1958 -5.2236 -1.9163 0.9775
2.1407 -5.0138 -1.9496 0.9771
3.0575 -4.6465 -1.9891 0.9766
3.4976 -4.4035 -2.0110 0.9764
4.3239 -3.8006 -2.0587 0.9758
4.6903 -2.8281 -1.9586 0.9770
4.9869 -2.4297 -1.9838 0.9767
5.2506 -2.0011 -2.0094 0.9764
5.4779 -1.5449 -2.0354 0.9761
5.6654 -1.0640 -2.0614 0.9758
5.8097 -0.5618 -2.0873 0.9755
5.9573 0.4900 -2.1376 0.9749
5.4146 3.1599 -2.2419 0.9737
5.1458 3.6543 -2.2570 0.9735
4.8135 4.1102 -2.2635 0.9735
4.0559 4.1427 -2.0733 0.9757
3.5967 4.3974 -2.0316 0.9762
1.6723 3.7665 -1.4737 0.9826
0.7391 3.0283 -1.1147 0.9868
0.3834 6.2873 -2.2526 0.9736
-0.1772 6.2524 -2.2368 0.9738
-0.7143 6.0466 -2.1773 0.9745
-1.2626 6.0178 -2.1989 0.9742
-2.2640 5.5822 -2.1542 0.9747
-2.7215 5.2981 -2.1300 0.9750
-3.1454 4.9753 -2.1049 0.9753
-3.8812 4.2315 -2.0534 0.9759
-4.4553 3.3874 -2.0014 0.9765
-5.4907 1.6571 -2.0510 0.9759
-5.5423 0.1408 -1.9826 0.9767
-5.4768 -0.3501 -1.9625 0.9770
-5.3726 -0.8289 -1.9440 0.9772
-5.2313 -1.2931 -1.9271 0.9774
-5.0548 -1.7402 -1.9118 0.9775
-4.0333 -3.3188 -1.8678 0.9781
-3.3598 -3.9582 -1.8566 0.9782
-2.9890 -4.2354 -1.8538 0.9782
-2.5983 -4.4824 -1.8528 0.9782
-2.1894 -4.6983 -1.8536 0.9782
-0.8749 -5.1473 -1.8671 0.9781
0.0533 -5.2714 -1.8852 0.9779
1.0015 -5.2472 -1.9103 0.9776
1.4767 -5.1778 -1.9255 0.9774
1.9491 -5.0694 -1.9422 0.9772
2.8737 -4.7344 -1.9805 0.9767
3.3197 -4.5075 -2.0019 0.9765
3.7502 -4.2413 -2.0246 0.9762
4.1619 -3.9362 -2.0486 0.9760
4.9041 -3.2064 -2.0953 0.9754
4.8695 -2.5962 -1.9734 0.9768
2.2902 -0.9698 -0.8894 0.9895
5.3897 -1.7344 -2.0247 0.9762
5.5938 -1.2632 -2.0508 0.9759
5.9432 0.2713 -2.1275 0.9750
5.9626 0.8090 -2.1518 0.9748
5.2618 3.4553 -2.2511 0.9736
4.9627 3.9341 -2.2647 0.9735
3.7790 4.2910 -2.0447 0.9760
3.5219 4.8021 -2.1296 0.9750
1.8579 3.8042 -1.5140 0.9822
0.5514 2.9209 -1.0630 0.9875
0.6138 6.2852 -2.2583 0.9735
-1.5693 5.9087 -2.1863 0.9744
-2.0681 5.6862 -2.1637 0.9746
-2.5385 5.4191 -2.1400 0.9749
-3.3791 4.7679 -2.0898 0.9755
-3.7437 4.3928 -2.0640 0.9758
-4.9361 3.3573 -2.1348 0.9750
-5.1629 2.8747 -2.1132 0.9752
-5.3309 2.3730 -2.0867 0.9755
-5.4536 1.8653 -2.0612 0.9758
-5.5315 1.3555 -2.0366 0.9761
-5.5083 -0.1509 -1.9706 0.9769
-5.4197 -0.6350 -1.9514 0.9771
-5.2934 -1.1054 -1.9338 0.9773
-4.9345 -1.9958 -1.9035 0.9776
-4.7057 -2.4116 -1.8909 0.9778
-3.8442 -3.5193 -1.8638 0.9781
-3.1430 -4.1257 -1.8547 0.9782
-2.7602 -4.3852 -1.8530 0.9782
-1.5065 -4.9746 -1.8587 0.9782
-1.0603 -5.1043 -1.8643 0.9781
-0.6036 -5.1991 -1.8717 0.9780
0.3325 -5.2800 -1.8919 0.9778
1.2828 -5.2109 -1.9191 0.9775
1.7567 -5.1184 -1.9352 0.9773
2.6879 -4.8157 -1.9722 0.9768
3.5764 -4.3548 -2.0152 0.9763
5.0377 -2.3534 -1.9884 0.9767
5.8312 -0.4679 -2.0920 0.9755
5.9206 0.0543 -2.1174 0.9752
5.9497 1.1297 -2.1657 0.9746
5.8856 1.6726 -2.1881 0.9743
5.7675 2.2113 -2.2089 0.9741
5.5952 2.7399 -2.2279 0.9739
4.3308 -3.2798 -2.0819 0.9770
4.6451 -2.9054 -2.0996 0.9768
4.6029 -2.3363 -1.9781 0.9781
5.2413 -1.0732 -2.0502 0.9773
5.5226 0.3636 -2.1209 0.9766
5.3849 1.8653 -2.1839 0.9759
5.2403 2.3571 -2.2020 0.9757
5.0463 2.8355 -2.2182 0.9755
4.5152 3.7297 -2.2443 0.9752
4.1329 4.0857 -2.2271 0.9754
3.3987 4.8351 -2.2649 0.9750
2.9439 5.1009 -2.2570 0.9751
1.7549 3.7845 -1.5986 0.9823
1.9951 5.5524 -2.2610 0.9750
1.4878 5.6911 -2.2542 0.9751
0.4941 2.9408 -1.1428 0.9873
0.4496 5.8099 -2.2331 0.9753
-0.0695 5.7902 -2.2191 0.9755
-1.0795 5.5985 -2.1850 0.9759
-2.0181 5.2190 -2.1443 0.9763
-3.2201 4.3551 -2.0756 0.9771
-3.5539 4.0039 -2.0516 0.9773
-2.3366 2.2015 -1.2302 0.9863
-4.1092 3.2315 -2.0033 0.9779
-4.3287 2.8185 -1.9795 0.9781
-5.0099 2.1104 -2.0833 0.9770
-5.1190 1.6366 -2.0595 0.9772
-5.1866 1.1609 -2.0368 0.9775
-5.0611 -0.6965 -1.9578 0.9784
-4.9375 -1.1352 -1.9415 0.9785
-4.7801 -1.5588 -1.9267 0.9787
-4.3706 -2.3521 -1.9020 0.9790
-4.1221 -2.7181 -1.8922 0.9791
-3.8467 -3.0613 -1.8840 0.9792
-3.2228 -3.6735 -1.8727 0.9793
-1.3237 -4.7105 -1.8750 0.9793
-0.9013 -4.8243 -1.8807 0.9792
-0.4696 -4.9046 -1.8881 0.9791
0.4129 -4.9618 -1.9080 0.9789
0.8590 -4.9371 -1.9204 0.9788
1.3050 -4.8763 -1.9344 0.9786
1.7484 -4.7787 -1.9500 0.9784
2.1862 -4.6442 -1.9671 0.9783
2.6158 -4.4725 -1.9856 0.9780
3.0340 -4.2638 -2.0054 0.9778
3.8238 -3.7366 -2.0488 0.9774
4.1886 -3.4194 -2.0721 0.9771
4.5215 -3.0628 -2.0929 0.9769
2.2933 -1.0156 -0.9612 0.9893
5.3273 -0.8007 -2.0645 0.9772
5.4396 -0.3265 -2.0883 0.9769
5.5043 1.1604 -2.1557 0.9762
5.4297 1.6618 -2.1760 0.9760
5.3053 2.1575 -2.1948 0.9758
5.1315 2.6421 -2.2118 0.9756
4.9087 3.1099 -2.2269 0.9754
4.2723 3.9262 -2.2236 0.9755
3.5281 4.6495 -2.2367 0.9753
2.6693 5.2465 -2.2558 0.9751
2.1980 5.4808 -2.2630 0.9750
0.6205 3.0155 -1.1798 0.9869
0.6626 5.8029 -2.2382 0.9753
-0.3733 5.7543 -2.2098 0.9756
-2.2768 5.0744 -2.1314 0.9765
-2.6910 4.7997 -2.1087 0.9767
-3.0736 4.4904 -2.0853 0.9770
-2.2713 2.3019 -1.2393 0.9862
-4.2438 2.9889 -1.9892 0.9780
-4.7801 2.7647 -2.1161 0.9766
-5.2073 0.8800 -2.0238 0.9776
-5.2104 0.4082 -2.0029 0.9779
-5.1015 -0.5134 -1.9648 0.9783
-4.2270 -2.5712 -1.8960 0.9790
-3.9623 -2.9239 -1.8871 0.9791
-3.6719 -3.2530 -1.8799 0.9792
-3.3576 -3.5569 -1.8745 0.9793
-1.8986 -4.4952 -1.8700 0.9793
-1.4930 -4.6546 -1.8732 0.9793
-0.2108 -4.9361 -1.8933 0.9791
0.2312 -4.9615 -1.9034 0.9789
0.6766 -4.9516 -1.9152 0.9788
1.5677 -4.8230 -1.9435 0.9785
2.4415 -4.5471 -1.9779 0.9781
3.6684 -3.8560 -2.0396 0.9775
4.3928 -3.2152 -2.0861 0.9770
4.3777 -2.6396 -1.9590 0.9783
4.8923 -1.8645 -2.0064 0.9778
5.2694 -0.9896 -2.0546 0.9773
5.4854 -0.0393 -2.1022 0.9768
5.5266 0.4546 -2.1251 0.9765
5.4661 1.4573 -2.1679 0.9761
5.2084 2.4459 -2.2051 0.9757
4.7546 3.3765 -2.2347 0.9753
4.4310 3.7835 -2.2328 0.9754
3.3199 4.8910 -2.2653 0.9750
0.8754 5.7870 -2.2429 0.9752
0.3543 5.8102 -2.2307 0.9754
-0.1639 5.7810 -2.2163 0.9755
-0.6734 5.7007 -2.1998 0.9757
-1.1689 5.5712 -2.1815 0.9759
-1.6456 5.3952 -2.1616 0.9761
-2.0991 5.1758 -2.1404 0.9764
-2.5255 4.9164 -2.1181 0.9766
-2.9213 4.6207 -2.0949 0.9769
-4.6922 2.9472 -2.1234 0.9765
-5.0330 2.0240 -2.0788 0.9770
-5.1345 1.5496 -2.0553 0.9773
-5.2139 0.6003 -2.0113 0.9778
-5.0411 -0.7778 -1.9547 0.9784
-4.9111 -1.2139 -1.9387 0.9786
-4.7477 -1.6345 -1.9242 0.9787
-4.0737 -2.7826 -1.8905 0.9791
-3.7936 -3.1215 -1.8827 0.9792
-3.4888 -3.4359 -1.8765 0.9792
-3.1612 -3.7243 -1.8720 0.9793
-2.8126 -3.9854 -1.8693 0.9793
-1.6603 -4.5933 -1.8717 0.9793
-1.2472 -4.7337 -1.8760 0.9792
-0.8230 -4.8415 -1.8820 0.9792
-0.3898 -4.9156 -1.8897 0.9791
0.4944 -4.9599 -1.9102 0.9789
1.3864 -4.8612 -1.9372 0.9786
1.8290 -4.7569 -1.9530 0.9784
2.6933 -4.4371 -1.9891 0.9780
3.1091 -4.2216 -2.0092 0.9778
3.5098 -3.9694 -2.0305 0.9776
4.2529 -3.3576 -2.0765 0.9771
4.5427 -2.4220 -1.9728 0.9782
2.2893 -0.9695 -0.9527 0.9894
5.2047 -1.1754 -2.0448 0.9774
5.3511 -0.7152 -2.0689 0.9771
5.5154 0.2518 -2.1158 0.9766
5.2772 2.2472 -2.1980 0.9757
5.0943 2.7291 -2.2147 0.9755
4.8628 3.1933 -2.2294 0.9754
4.5843 3.6341 -2.2418 0.9753
4.2107 3.9983 -2.2252 0.9754
3.7740 4.2854 -2.1883 0.9758
3.4941 4.7643 -2.2642 0.9750
2.1074 5.5139 -2.2621 0.9750
1.6033 5.6644 -2.2560 0.9751
0.5672 5.8071 -2.2360 0.9753
-0.9685 5.6299 -2.1892 0.9758
-1.4535 5.4726 -2.1699 0.9760
-2.3548 5.0269 -2.1273 0.9765
-3.1399 4.4304 -2.0810 0.9770
-4.0543 3.3225 -2.0087 0.9778
-4.2826 2.9129 -1.9848 0.9781
-4.9794 2.2165 -2.0887 0.9769
-5.1641 -0.1415 -1.9797 0.9781
-4.9684 -1.0375 -1.9450 0.9785
-4.8184 -1.4647 -1.9299 0.9787
-4.1805 -2.6375 -1.8942 0.9790
-3.2977 -3.6097 -1.8736 0.9793
-2.5974 -4.1266 -1.8685 0.9793
-2.2194 -4.3418 -1.8686 0.9793
-1.8254 -4.5267 -1.8704 0.9793
-0.1302 -4.9433 -1.8950 0.9790
0.3125 -4.9624 -1.9054 0.9789
1.2046 -4.8932 -1.9311 0.9786
1.6488 -4.8039 -1.9464 0.9785
2.0881 -4.6778 -1.9631 0.9783
2.5198 -4.5145 -1.9813 0.9781
2.9409 -4.3141 -2.0008 0.9779
3.3481 -4.0769 -2.0217 0.9777
3.7384 -3.8032 -2.0437 0.9774
4.1084 -3.4939 -2.0668 0.9772
5.5292 0.5458 -2.1292 0.9765
5.5144 1.0470 -2.1510 0.9762
5.4508 1.5490 -2.1716 0.9760
3.7290 -3.3873 -2.0619 0.9785
4.7325 -1.4185 -2.0220 0.9789
5.0181 -0.5681 -2.0669 0.9784
5.1439 0.8036 -2.1308 0.9777
5.0980 1.2704 -2.1503 0.9775
5.0065 1.7342 -2.1685 0.9774
4.8692 2.1902 -2.1852 0.9772
2.7411 4.7496 -2.2444 0.9766
1.7611 3.7979 -1.7134 0.9821
0.4173 5.3931 -2.2139 0.9769
-0.5399 5.3140 -2.1861 0.9772
-1.4513 5.0522 -2.1514 0.9775
-1.8786 4.8585 -2.1319 0.9777
-2.2820 4.6268 -2.1114 0.9779
-2.6582 4.3605 -2.0901 0.9782
-3.3182 3.7385 -2.0458 0.9786
-4.8014 1.5351 -2.0631 0.9784
-1.9393 -0.0922 -0.7946 0.9916
-4.6477 -1.0686 -1.9518 0.9796
-4.5015 -1.4680 -1.9378 0.9797
-4.1190 -2.2167 -1.9144 0.9800
-3.0399 -3.4651 -1.8866 0.9803
-2.7149 -3.7166 -1.8837 0.9803
-2.3713 -3.9412 -1.8825 0.9803
-2.0111 -4.1378 -1.8829 0.9803
-0.8500 -4.5495 -1.8942 0.9802
-0.4428 -4.6242 -1.9012 0.9801
0.3890 -4.6753 -1.9201 0.9799
1.2287 -4.5910 -1.9451 0.9797
1.6453 -4.4971 -1.9599 0.9795
2.0563 -4.3682 -1.9760 0.9793
2.8504 -4.0058 -2.0122 0.9790
2.2889 -1.0137 -1.0245 0.9892
4.8324 -1.1745 -2.0354 0.9787
5.1327 0.1504 -2.1016 0.9781
5.1497 0.6132 -2.1225 0.9778
5.1222 1.0798 -2.1425 0.9776
4.9308 2.0052 -2.1785 0.9773
4.3050 3.2996 -2.2199 0.9768
3.6787 4.0421 -2.2369 0.9767
2.9120 4.6460 -2.2441 0.9766
1.5736 5.2320 -2.2361 0.9767
0.6213 3.0194 -1.2617 0.9868
-1.2706 5.1197 -2.1589 0.9775
-2.1203 4.7258 -2.1199 0.9779
-2.8667 4.1882 -2.0772 0.9783
-3.1940 3.8742 -2.0550 0.9785
-3.9704 2.7964 -1.9876 0.9792
-4.6411 2.1574 -2.0947 0.9781
-4.7630 1.7165 -2.0721 0.9784
-4.8456 1.2717 -2.0503 0.9786
-1.9552 0.1532 -0.8027 0.9916
-4.6982 -0.9013 -1.9579 0.9795
-4.5650 -1.3066 -1.9434 0.9797
-4.4005 -1.6968 -1.9303 0.9798
-3.4629 -3.0678 -1.8934 0.9802
-3.1670 -3.3549 -1.8882 0.9803
-2.8500 -3.6170 -1.8847 0.9803
-1.4083 -4.3904 -1.8871 0.9803
-1.0139 -4.5097 -1.8918 0.9802
-0.6100 -4.5976 -1.8982 0.9802
-0.1987 -4.6531 -1.9061 0.9801
0.6374 -4.6646 -1.9269 0.9799
1.0575 -4.6194 -1.9395 0.9797
1.4756 -4.5397 -1.9537 0.9796
1.8893 -4.4251 -1.9692 0.9794
2.6921 -4.0911 -2.0044 0.9791
3.0755 -3.8721 -2.0238 0.9789
3.4429 -3.6189 -2.0443 0.9786
3.7912 -3.3324 -2.0659 0.9784
4.1153 -3.0121 -2.0872 0.9782
4.0998 -2.4720 -1.9594 0.9795
4.3520 -2.1203 -1.9813 0.9793
4.7647 -1.3438 -2.0262 0.9788
4.9196 -0.9239 -2.0487 0.9786
5.1134 -0.0366 -2.0928 0.9781
5.1388 0.8891 -2.1344 0.9777
4.9848 1.8184 -2.1717 0.9773
4.8391 2.2724 -2.1880 0.9772
4.6482 2.7127 -2.2027 0.9770
4.1360 3.5317 -2.2259 0.9768
3.8189 3.9006 -2.2342 0.9767
3.4652 4.2366 -2.2401 0.9766
3.0785 4.5355 -2.2435 0.9766
1.6915 3.8097 -1.7060 0.9821
0.3289 5.3938 -2.2117 0.9769
-0.1522 5.3692 -2.1984 0.9771
-1.9543 4.8188 -2.1283 0.9778
-2.3190 2.1145 -1.2844 0.9865
-4.0853 2.5660 -1.9745 0.9794
-4.8165 1.4536 -2.0591 0.9785
-1.9555 0.2252 -0.8056 0.9915
-4.6233 -1.1428 -1.9491 0.9796
-4.4714 -1.5394 -1.9354 0.9798
-4.0783 -2.2815 -1.9126 0.9800
-3.5773 -2.9435 -1.8960 0.9802
-3.2905 -3.2406 -1.8902 0.9802
-2.9819 -3.5131 -1.8859 0.9803
-2.6533 -3.7597 -1.8834 0.9803
-2.3066 -3.9793 -1.8824 0.9803
-0.7760 -4.5655 -1.8954 0.9802
-0.3675 -4.6344 -1.9027 0.9801
0.0472 -4.6705 -1.9116 0.9800
0.8860 -4.6420 -1.9342 0.9798
1.7210 -4.4761 -1.9627 0.9795
2.9206 -3.9657 -2.0157 0.9789
3.2949 -3.7264 -2.0358 0.9787
4.2871 -2.8030 -2.0963 0.9781
4.8608 -1.0977 -2.0395 0.9787
4.9935 -0.6674 -2.0619 0.9785
5.1480 0.6985 -2.1262 0.9778
4.9041 2.0883 -2.1815 0.9772
4.2542 3.3724 -2.2219 0.9768
3.6139 4.1036 -2.2380 0.9766
3.2402 4.4181 -2.2424 0.9766
2.8360 4.6933 -2.2443 0.9766
2.4058 4.9260 -2.2437 0.9766
1.9544 5.1136 -2.2405 0.9766
1.4872 5.2542 -2.2349 0.9767
0.5264 5.3900 -2.2165 0.9769
0.0437 5.3850 -2.2040 0.9770
-0.4335 5.3323 -2.1896 0.9771
-0.9003 5.2334 -2.1734 0.9773
-1.3520 5.0903 -2.1556 0.9775
-2.5759 4.4234 -2.0950 0.9781
-4.0074 2.7256 -1.9835 0.9793
-4.6664 2.0772 -2.0905 0.9782
-4.8565 1.1901 -2.0464 0.9786
-1.9763 0.3009 -0.8182 0.9914
-1.9479 0.1206 -0.7987 0.9916
-1.9241 -0.0527 -0.7878 0.9917
-4.6762 -0.9765 -1.9551 0.9796
-4.1678 -2.1360 -1.9168 0.9800
-3.6877 -2.8155 -1.8989 0.9801
-3.4104 -3.1221 -1.8924 0.9802
-2.4503 -3.8929 -1.8826 0.9803
-2.0937 -4.0960 -1.8827 0.9803
-1.7219 -4.2702 -1.8844 0.9803
-1.3369 -4.4146 -1.8878 0.9803
-0.9407 -4.5282 -1.8928 0.9802
-0.5352 -4.6102 -1.8995 0.9801
0.7143 -4.6589 -1.9291 0.9798
1.1342 -4.6074 -1.9420 0.9797
1.9643 -4.4003 -1.9722 0.9794
2.3691 -4.2444 -1.9894 0.9792
3.8526 -3.2764 -2.0699 0.9784
4.1480 -2.4097 -1.9633 0.9795
4.3950 -2.0532 -1.9854 0.9793
4.9439 -0.8452 -2.0528 0.9786
5.0537 -0.4055 -2.0750 0.9783
5.1229 0.0469 -2.0968 0.9781
4.0440 -2.0527 -1.9765 0.9804
2.3278 -0.9310 -1.0926 0.9891
4.4364 -1.3298 -2.0184 0.9800
4.5846 -0.9388 -2.0395 0.9798
4.6976 -0.5319 -2.0604 0.9796
4.7733 -0.1122 -2.0809 0.9794
4.8058 0.7508 -2.1199 0.9790
4.7601 1.1862 -2.1380 0.9788
3.9032 3.2242 -2.2064 0.9782
3.6135 3.5722 -2.2144 0.9781
2.9343 4.1746 -2.2239 0.9780
2.5520 4.4220 -2.2251 0.9780
1.7882 3.8563 -1.8526 0.9816
1.2854 4.9168 -2.2148 0.9781
-0.5035 4.9563 -2.1712 0.9785
-1.3550 4.7172 -2.1390 0.9788
-1.7551 4.5391 -2.1209 0.9790
-2.4866 4.0791 -2.0820 0.9794
-2.8123 3.8035 -2.0616 0.9796
-3.1083 3.5020 -2.0407 0.9798
-2.2620 2.1312 -1.3544 0.9865
-3.6047 2.8348 -1.9986 0.9802
-3.8028 2.4761 -1.9777 0.9804
-4.2678 2.2650 -2.1057 0.9791
-4.4137 1.8592 -2.0873 0.9793
-1.5826 0.5060 -0.7241 0.9928
-1.5263 0.3416 -0.6817 0.9932
-1.5289 0.0638 -0.6669 0.9933
-1.5172 -0.2088 -0.6674 0.9933
-1.5851 -0.5169 -0.7266 0.9928
-4.0839 -1.7482 -1.9360 0.9808
-3.6717 -2.4211 -1.9167 0.9810
-2.8739 -3.2758 -1.8992 0.9812
-2.2420 -3.7263 -1.8953 0.9812
-1.9015 -3.9122 -1.8957 0.9812
-1.1802 -4.1999 -1.9013 0.9811
-0.4184 -4.3697 -1.9131 0.9810
-0.0274 -4.4084 -1.9213 0.9809
1.5521 -4.2424 -1.9688 0.9805
1.9390 -4.1189 -1.9840 0.9803
3.3754 -3.2984 -2.0568 0.9796
3.6926 -3.0144 -2.0774 0.9794
3.9782 -2.6948 -2.0941 0.9793
3.9496 -2.1893 -1.9681 0.9805
2.2846 -1.0118 -1.0889 0.9892
4.7470 -0.2849 -2.0726 0.9795
4.7998 0.1406 -2.0927 0.9793
4.8125 0.5731 -2.1122 0.9791
4.4446 2.2885 -2.1787 0.9784
3.7362 3.4334 -2.2114 0.9781
3.0829 4.0628 -2.2227 0.9780
2.7112 4.3256 -2.2249 0.9780
1.4655 4.8724 -2.2174 0.9780
0.1228 5.0237 -2.1900 0.9783
-0.7612 4.9026 -2.1623 0.9786
-1.1861 4.7791 -2.1460 0.9787
-2.3455 4.1834 -2.0902 0.9793
-2.6827 3.9194 -2.0700 0.9795
-3.5140 2.9770 -2.0072 0.9801
-4.1948 2.4262 -2.1119 0.9791
-4.3613 2.0273 -2.0960 0.9792
-1.5957 0.5751 -0.7392 0.9926
-1.5054 0.2544 -0.6654 0.9934
-1.5289 0.1198 -0.6684 0.9933
-1.5262 -0.1536 -0.6685 0.9933
-1.5668 -0.4485 -0.7103 0.9929
-3.9729 -1.9548 -1.9297 0.9809
-3.7642 -2.2898 -1.9202 0.9810
-2.9938 -3.1715 -1.9007 0.9811
-2.6945 -3.4196 -1.8974 0.9812
-2.0424 -3.8395 -1.8953 0.9812
-1.6933 -4.0091 -1.8967 0.9812
-1.3313 -4.1505 -1.8996 0.9812
-0.5765 -4.3449 -1.9102 0.9811
0.6019 -4.4046 -1.9375 0.9808
0.9982 -4.3604 -1.9495 0.9807
1.3923 -4.2833 -1.9629 0.9805
2.5364 -3.8545 -2.0109 0.9801
3.2400 -3.4057 -2.0486 0.9797
3.5656 -3.1341 -2.0689 0.9795
3.8664 -2.8300 -2.0882 0.9793
3.8507 -2.3219 -1.9597 0.9806
4.0848 -1.9902 -1.9803 0.9804
4.2908 -1.6353 -2.0012 0.9802
4.6080 -0.8654 -2.0433 0.9798
4.7143 -0.4559 -2.0642 0.9795
4.7830 -0.0343 -2.0846 0.9793
4.8122 0.3958 -2.1043 0.9792
4.8006 0.8305 -2.1233 0.9790
4.5132 2.1194 -2.1730 0.9785
4.1125 2.9205 -2.1983 0.9782
3.5566 3.6327 -2.2157 0.9781
2.4794 4.4630 -2.2251 0.9780
1.6437 4.8206 -2.2197 0.9780
1.2042 4.9342 -2.2135 0.9781
0.3065 5.0268 -2.1948 0.9783
-0.5837 4.9413 -2.1685 0.9785
-1.4297 4.6874 -2.1358 0.9788
-2.8688 3.7502 -2.0578 0.9796
-2.1618 2.3569 -1.3938 0.9861
-2.2911 2.0891 -1.3513 0.9866
-3.6435 2.7702 -1.9947 0.9802
-3.8354 2.4090 -1.9739 0.9804
-4.2985 2.1921 -2.1029 0.9792
-4.4352 1.7836 -2.0834 0.9794
-1.5747 0.4752 -0.7168 0.9928
-1.5127 0.3127 -0.6732 0.9933
-1.5233 0.1754 -0.6683 0.9933
-1.5296 -0.0978 -0.6680 0.9933
-1.5913 -0.5478 -0.7335 0.9927
-3.6289 -2.4788 -1.9153 0.9810
-2.5086 -3.5546 -1.8961 0.9812
-2.1809 -3.7623 -1.8952 0.9812
-1.4806 -4.0962 -1.8982 0.9812
-0.7335 -4.3150 -1.9075 0.9811
-0.3473 -4.3791 -1.9145 0.9810
0.0446 -4.4121 -1.9230 0.9809
0.4399 -4.4134 -1.9330 0.9808
0.8364 -4.3824 -1.9444 0.9807
2.7508 -3.7351 -2.0216 0.9800
3.1015 -3.5077 -2.0406 0.9798
4.0268 -2.6328 -2.0968 0.9792
3.9925 -2.1286 -1.9718 0.9805
4.3984 -1.4154 -2.0137 0.9800
4.6753 -0.6248 -2.0557 0.9796
4.7741 1.0881 -2.1340 0.9789
4.6956 1.5214 -2.1512 0.9787
4.5747 1.9481 -2.1670 0.9785
4.2075 2.7629 -2.1937 0.9783
3.3653 3.8213 -2.2192 0.9780
3.0169 4.1136 -2.2232 0.9780
1.8199 4.7614 -2.2215 0.9780
-0.4043 4.9729 -2.1744 0.9785
-0.8400 4.8831 -2.1594 0.9786
-1.2622 4.7522 -2.1429 0.9788
-2.4092 4.1373 -2.0866 0.9793
-2.2310 2.1884 -1.3620 0.9865
-3.7611 2.5581 -1.9824 0.9803
-4.2283 2.3543 -2.1091 0.9791
-4.3856 1.9522 -2.0921 0.9793
-1.5906 0.5440 -0.7326 0.9927
-1.5228 -0.1784 -0.6682 0.9933
-1.5144 -0.3162 -0.6742 0.9933
-1.5757 -0.4790 -0.7177 0.9928
-4.1236 -1.6679 -1.9386 0.9808
-3.9367 -2.0175 -1.9279 0.9809
-3.4850 -2.6607 -1.9109 0.9811
-2.3167 -3.6807 -1.8954 0.9812
-1.9795 -3.8726 -1.8955 0.9812
-1.2638 -4.1732 -1.9003 0.9812
-0.8891 -4.2800 -1.9051 0.9811
-0.1160 -4.4025 -1.9193 0.9810
0.2782 -4.4167 -1.9287 0.9809
1.0705 -4.3487 -1.9518 0.9806
2.6032 -3.8187 -2.0142 0.9800
3.6229 -3.0811 -2.0727 0.9795
3.8956 -2.2630 -1.9634 0.9805
4.1247 -1.9269 -1.9841 0.9803
4.3253 -1.5680 -2.0051 0.9801
4.6302 -0.7915 -2.0472 0.9797
4.7297 -0.3796 -2.0679 0.9795
4.7913 0.0439 -2.0882 0.9793
4.8132 0.4752 -2.1079 0.9791
4.6292 1.7749 -2.1607 0.9786
4.4833 2.1954 -2.1756 0.9785
3.3071 -3.0041 -2.0681 0.9805
3.8062 -1.9320 -1.9758 0.9814
2.3332 -0.9331 -1.1632 0.9890
4.1703 -1.2500 -2.0152 0.9810
4.3069 -0.8819 -2.0350 0.9808
4.4787 -0.1053 -2.0737 0.9804
4.5103 0.2969 -2.0923 0.9803
4.5040 0.7037 -2.1101 0.9801
4.3741 1.5152 -2.1427 0.9798
3.3771 3.3385 -2.1981 0.9793
1.6099 4.4805 -2.2038 0.9792
-0.4712 4.6380 -2.1579 0.9797
-1.6448 4.2538 -2.1111 0.9801
-2.0004 4.0559 -2.0933 0.9803
-2.6402 3.5708 -2.0556 0.9806
-2.9200 3.2897 -2.0361 0.9808
-2.2542 2.1239 -1.4336 0.9864
-3.5791 2.3304 -1.9769 0.9814
-1.3248 0.5580 -0.6654 0.9937
-1.3303 0.1752 -0.6211 0.9941
-1.3383 -0.0636 -0.6202 0.9941
-1.3232 -0.5664 -0.6662 0.9937
-3.6828 -1.9819 -1.9359 0.9817
-2.9943 -2.8541 -1.9148 0.9819
-2.7222 -3.1029 -1.9107 0.9820
-2.1239 -3.5300 -1.9070 0.9820
-1.4653 -3.8557 -1.9093 0.9820
-0.3962 -4.1375 -1.9239 0.9818
-0.0260 -4.1732 -1.9318 0.9818
1.8323 -3.8923 -1.9914 0.9812
2.1890 -3.7428 -2.0070 0.9811
2.8672 -3.3514 -2.0416 0.9807
3.4805 -2.8412 -2.0797 0.9804
2.2821 -1.0107 -1.1553 0.9891
4.3722 -0.6572 -2.0466 0.9807
4.5019 0.1319 -2.0848 0.9803
4.5113 0.5372 -2.1029 0.9802
4.4134 1.3508 -2.1365 0.9799
4.3054 1.7509 -2.1514 0.9797
3.9726 2.5169 -2.1769 0.9795
3.7500 2.8742 -2.1870 0.9794
2.5331 4.0414 -2.2078 0.9792
1.7734 4.4220 -2.2053 0.9792
0.6268 3.0463 -1.4396 0.9864
-1.1108 4.4755 -2.1345 0.9799
-1.8578 4.1406 -2.1007 0.9802
-2.8091 3.4073 -2.0441 0.9807
-2.1980 2.2276 -1.4486 0.9863
-3.5059 2.4692 -1.9849 0.9813
-1.3124 0.6101 -0.6699 0.9936
-1.3332 0.4805 -0.6560 0.9938
-1.3143 0.3449 -0.6290 0.9940
-1.3382 0.1048 -0.6213 0.9941
-1.3362 -0.1345 -0.6216 0.9941
-1.3118 -0.2517 -0.6183 0.9941
-3.7601 -1.8501 -1.9398 0.9817
-3.5635 -2.1676 -1.9307 0.9818
-3.3429 -2.4668 -1.9231 0.9819
-3.0997 -2.7461 -1.9169 0.9819
-2.5524 -3.2393 -1.9089 0.9820
-1.6040 -3.7978 -1.9083 0.9820
-0.9077 -4.0372 -1.9154 0.9819
-0.5459 -4.1144 -1.9212 0.9819
0.5695 -4.1678 -1.9471 0.9816
1.6841 -3.9445 -1.9853 0.9813
2.0445 -3.8076 -2.0005 0.9811
2.3951 -3.6397 -2.0168 0.9810
3.3615 -2.9547 -2.0717 0.9805
3.6261 -2.1864 -1.9600 0.9815
3.8442 -1.8729 -1.9794 0.9813
4.1977 -1.1838 -2.0188 0.9810
4.3284 -0.8129 -2.0386 0.9808
4.4255 -0.4280 -2.0581 0.9806
4.4873 -0.0322 -2.0771 0.9804
4.5121 0.3711 -2.0956 0.9802
4.4986 0.7783 -2.1133 0.9801
4.4462 1.1854 -2.1300 0.9799
4.3543 1.5884 -2.1455 0.9798
3.8453 2.7307 -2.1831 0.9794
3.6015 3.0753 -2.1921 0.9793
3.3238 3.3950 -2.1992 0.9793
2.6780 3.9453 -2.2072 0.9792
1.5359 4.5045 -2.2029 0.9792
1.1255 4.6115 -2.1973 0.9793
0.2866 4.7007 -2.1799 0.9795
-0.5462 4.6243 -2.1554 0.9797
-0.9497 4.5264 -2.1408 0.9798
-1.7115 4.2200 -2.1079 0.9801
-2.0631 4.0162 -2.0900 0.9803
-2.6935 3.5211 -2.0521 0.9806
-3.6101 2.2675 -1.9733 0.9814
-1.3059 0.2700 -0.6173 0.9941
-1.3367 0.0340 -0.6189 0.9941
-1.3385 -0.0856 -0.6209 0.9941
-1.3337 -0.4591 -0.6529 0.9938
-1.3179 -0.5898 -0.6683 0.9937
-3.6468 -2.0401 -1.9342 0.9818
-3.4358 -2.3469 -1.9260 0.9818
-3.2017 -2.6345 -1.9192 0.9819
-2.9460 -2.9013 -1.9139 0.9819
-2.6703 -3.1460 -1.9101 0.9820
-2.3764 -3.3673 -1.9077 0.9820
-2.0660 -3.5642 -1.9069 0.9820
-1.7407 -3.7354 -1.9076 0.9820
-1.4025 -3.8801 -1.9098 0.9820
-0.6946 -4.0863 -1.9186 0.9819
-0.3288 -4.1463 -1.9253 0.9818
1.1649 -4.0843 -1.9659 0.9815
2.9263 -3.3095 -2.0449 0.9807
3.7582 -2.0037 -1.9714 0.9814
4.1351 -1.3307 -2.0108 0.9810
4.2789 -0.9663 -2.0305 0.9809
4.4724 1.0194 -2.1233 0.9800
4.2814 1.8232 -2.1540 0.9797
3.7053 2.9373 -2.1887 0.9794
3.4412 3.2676 -2.1966 0.9793
3.1447 3.5708 -2.2025 0.9792
2.8188 3.8435 -2.2063 0.9792
1.8717 3.8324 -1.9742 0.9814
1.7004 4.4490 -2.2047 0.9792
1.2943 4.5728 -2.1998 0.9793
0.5730 3.0350 -1.4297 0.9865
0.4586 4.6961 -2.1841 0.9794
0.0381 4.6951 -2.1734 0.9795
-0.7864 4.5710 -2.1469 0.9798
-1.1821 4.4507 -2.1316 0.9799
-1.9221 4.1033 -2.0974 0.9802
-2.2233 2.1809 -1.4416 0.9864
-3.5393 2.4073 -1.9813 0.9813
-3.9784 2.2151 -2.1077 0.9801
-1.3337 0.4562 -0.6524 0.9938
-1.3385 0.0829 -0.6208 0.9941
-1.3333 -0.1562 -0.6214 0.9941
-1.3267 -0.4033 -0.6419 0.9939
-1.3282 -0.5372 -0.6632 0.9937
-3.3000 -2.5194 -1.9218 0.9819
-2.7852 -3.0488 -1.9115 0.9820
-2.1947 -3.4868 -1.9071 0.9820
-1.5421 -3.8243 -1.9087 0.9820
-1.1971 -3.9529 -1.9118 0.9820
1.3842 -4.0331 -1.9738 0.9814
3.4152 -2.9045 -2.0752 0.9804
3.6893 -2.6089 -2.0916 0.9803
3.6679 -2.1307 -1.9635 0.9815
4.0675 -1.4746 -2.0027 0.9811
4.4920 0.8529 -2.1164 0.9800
4.1948 2.0541 -2.1620 0.9796
3.3823 -2.1155 -1.9569 0.9824
3.5906 -1.8225 -1.9752 0.9822
4.0560 -0.8306 -2.0309 0.9817
4.1511 -0.4700 -2.0492 0.9816
4.2326 0.6613 -2.1014 0.9811
4.1880 1.0436 -2.1171 0.9810
4.1067 1.4225 -2.1318 0.9808
3.8341 2.1544 -2.1573 0.9806
3.6445 2.4996 -2.1678 0.9805
3.4210 2.8258 -2.1765 0.9804
3.1656 3.1294 -2.1835 0.9804
2.8808 3.4069 -2.1885 0.9803
1.5088 4.1992 -2.1888 0.9803
0.5165 3.0738 -1.5289 0.9862
-0.4422 4.3525 -2.1460 0.9807
-1.1921 4.1500 -2.1180 0.9809
-1.5457 3.9974 -2.1023 0.9811
-1.8808 3.8133 -2.0856 0.9812
-2.4850 3.3608 -2.0503 0.9816
-1.1181 0.5934 -0.6209 0.9944
-1.1472 0.4832 -0.6106 0.9945
-1.1585 0.3704 -0.5966 0.9946
-1.1887 0.1566 -0.5881 0.9947
-1.1963 -0.0569 -0.5875 0.9947
-1.1877 -0.1634 -0.5881 0.9947
-1.1658 -0.2680 -0.5868 0.9947
-1.1582 -0.3777 -0.5976 0.9946
-1.1148 -0.5999 -0.6210 0.9944
-3.0794 -2.4506 -1.9305 0.9826
-2.8409 -2.7078 -1.9251 0.9827
-1.3904 -3.6587 -1.9199 0.9827
-1.0606 -3.7744 -1.9231 0.9827
-0.0246 -3.9576 -1.9413 0.9825
0.3297 -3.9619 -1.9501 0.9824
0.6850 -3.9371 -1.9603 0.9824
2.7111 -3.1689 -2.0457 0.9816
3.5084 -1.9448 -1.9677 0.9823
2.2796 -1.0096 -1.2230 0.9890
3.8694 -1.3153 -2.0047 0.9820
4.1162 -0.6187 -2.0418 0.9816
4.2402 0.5049 -2.0946 0.9812
4.2107 0.8876 -2.1108 0.9810
3.2736 3.0084 -2.1809 0.9804
3.0005 3.2969 -2.1867 0.9803
2.6995 3.5575 -2.1906 0.9803
2.0267 3.9835 -2.1924 0.9803
1.6620 4.1442 -2.1902 0.9803
0.5023 4.3995 -2.1721 0.9805
-0.2839 4.3760 -2.1511 0.9807
-0.6688 4.3075 -2.1383 0.9808
-1.4033 4.0637 -2.1088 0.9810
-1.7463 3.8921 -2.0925 0.9812
-2.0691 3.6906 -2.0754 0.9813
-2.6448 3.2080 -2.0395 0.9816
-2.4919 2.1111 -1.6020 0.9856
-3.3064 2.3287 -1.9838 0.9821
-1.1557 0.4165 -0.6026 0.9945
-1.1949 0.0936 -0.5879 0.9947
-1.1960 -0.0132 -0.5867 0.9947
-1.1929 -0.1200 -0.5881 0.9947
-1.1764 -0.2257 -0.5876 0.9947
-3.1709 -2.3399 -1.9330 0.9826
-2.9407 -2.6052 -1.9271 0.9826
-2.1366 -3.2746 -1.9179 0.9827
-0.5179 -3.9029 -1.9312 0.9826
-0.1686 -3.9475 -1.9381 0.9826
0.1847 -3.9637 -1.9464 0.9825
0.5399 -3.9508 -1.9560 0.9824
0.8948 -3.9086 -1.9668 0.9823
1.2472 -3.8368 -1.9790 0.9822
1.9353 -3.6043 -2.0067 0.9819
2.8891 -3.0368 -2.0560 0.9815
3.1760 -2.7916 -2.0742 0.9813
3.9550 -1.1154 -2.0157 0.9819
4.0759 -0.7655 -2.0343 0.9817
4.2271 0.7313 -2.1043 0.9811
4.1759 1.1133 -2.1199 0.9809
3.9630 1.8610 -2.1476 0.9807
3.6060 2.5608 -2.1695 0.9805
3.3765 2.8832 -2.1779 0.9804
2.8256 3.4547 -2.1892 0.9803
2.5096 3.6973 -2.1920 0.9803
1.7206 3.8753 -2.0799 0.9813
1.4396 4.2218 -2.1880 0.9803
1.0550 4.3229 -2.1827 0.9804
0.2688 4.4086 -2.1665 0.9805
-0.1245 4.3933 -2.1559 0.9806
-1.2581 4.1245 -2.1152 0.9810
-2.2496 3.5583 -2.0650 0.9814
-2.5354 3.3144 -2.0469 0.9816
-2.1364 2.3292 -1.5503 0.9860
-2.2723 2.0719 -1.5084 0.9864
-3.4058 2.1392 -1.9729 0.9822
-1.1266 0.5745 -0.6203 0.9944
-1.1589 0.3498 -0.5938 0.9946
-1.1911 0.1371 -0.5881 0.9947
-1.1964 0.0304 -0.5870 0.9947
-1.1847 -0.1828 -0.5880 0.9947
-1.1420 -0.5111 -0.6137 0.9944
-3.2588 -2.2260 -1.9358 0.9826
-3.0373 -2.4992 -1.9294 0.9826
-1.9605 -3.3823 -1.9176 0.9827
-1.6519 -3.5447 -1.9183 0.9827
-1.3308 -3.6818 -1.9204 0.9827
-0.9992 -3.7927 -1.9239 0.9827
0.3947 -3.9596 -1.9519 0.9824
1.4535 -3.7804 -1.9867 0.9821
1.7972 -3.6614 -2.0007 0.9820
2.1323 -3.5129 -2.0158 0.9819
2.7668 -3.1291 -2.0488 0.9816
3.5790 -2.3400 -2.0975 0.9811
3.5457 -1.8904 -1.9710 0.9823
3.8970 -1.2541 -2.0081 0.9819
4.2376 0.1934 -2.0808 0.9813
4.2013 0.9576 -2.1137 0.9810
4.1282 1.3376 -2.1286 0.9809
4.0184 1.7111 -2.1424 0.9807
3.8721 2.0744 -2.1547 0.9806
3.4742 2.7541 -2.1747 0.9804
3.2258 3.0631 -2.1821 0.9804
1.9612 4.0156 -2.1921 0.9803
1.2132 4.2862 -2.1851 0.9803
0.5748 3.0445 -1.5198 0.9863
0.4301 4.4037 -2.1704 0.9805
-0.3550 4.3663 -2.1488 0.9807
-0.7382 4.2910 -2.1358 0.9808
-1.1102 4.1799 -2.1214 0.9809
-2.1258 3.6506 -2.0722 0.9814
-2.6924 3.1592 -2.0361 0.9817
-3.1519 2.5830 -1.9989 0.9820
-3.3383 2.2705 -1.9804 0.9822
-1.1425 0.5086 -0.6135 0.9944
-1.1573 0.3958 -0.5999 0.9946
-1.1959 0.0741 -0.5877 0.9947
-1.1500 -0.4651 -0.6085 0.9945
-3.1303 -2.3899 -1.9319 0.9826
-2.6428 -2.8928 -1.9220 0.9827
-2.3710 -3.1123 -1.9192 0.9827
-2.0827 -3.3088 -1.9178 0.9827
-1.7796 -3.4814 -1.9179 0.9827
-1.4633 -3.6289 -1.9194 0.9827
-1.1358 -3.7506 -1.9223 0.9827
-0.1041 -3.9526 -1.9395 0.9825
1.9966 -3.5771 -2.0095 0.9819
2.3255 -3.4113 -2.0252 0.9818
2.6418 -3.2167 -2.0418 0.9816
2.9429 -2.9939 -2.0593 0.9815
3.2264 -2.7439 -2.0776 0.9813
3.4825 -2.4627 -2.0922 0.9812
2.3536 -1.0995 -1.2743 0.9885
3.9794 -1.0525 -2.0191 0.9818
4.0946 -0.7000 -2.0376 0.9817
4.1778 -0.3353 -2.0559 0.9815
4.2419 0.4188 -2.0909 0.9812
4.2205 0.8014 -2.1073 0.9810
4.0677 1.5596 -2.1369 0.9808
3.9362 1.9275 -2.1499 0.9807
2.9582 -2.6871 -2.0733 0.9822
3.2092 -2.4304 -2.0884 0.9820
2.2927 -0.9169 -1.2810 0.9889
3.7107 -1.1122 -2.0096 0.9827
3.9159 -0.4433 -2.0444 0.9824
3.9724 -0.0934 -2.0614 0.9823
3.9964 0.2631 -2.0777 0.9821
3.8651 1.3388 -2.1220 0.9817
3.7525 1.6879 -2.1346 0.9816
3.4267 2.3502 -2.1556 0.9814
3.2157 2.6563 -2.1638 0.9814
2.9751 2.9411 -2.1703 0.9813
2.7070 3.2015 -2.1750 0.9813
2.0994 3.6377 -2.1789 0.9813
1.7661 3.8088 -2.1780 0.9813
1.0583 4.0481 -2.1706 0.9813
-0.0497 4.1372 -2.1464 0.9815
-1.4559 3.7653 -2.0943 0.9820
-1.7724 3.5935 -2.0787 0.9821
-2.0692 3.3944 -2.0623 0.9822
-2.5952 2.9238 -2.0281 0.9825
-3.1913 2.0779 -1.9756 0.9830
-1.0797 0.2417 -0.5740 0.9950
-1.1065 0.0462 -0.5746 0.9950
-1.1065 -0.0526 -0.5747 0.9950
-1.0984 -0.1512 -0.5752 0.9950
-1.0780 -0.2478 -0.5738 0.9950
-1.0622 -0.3464 -0.5796 0.9950
-1.0489 -0.4490 -0.5919 0.9949
-1.0150 -0.5462 -0.5980 0.9948
-3.1319 -2.0651 -1.9462 0.9832
-2.9257 -2.3283 -1.9398 0.9833
-2.4547 -2.7980 -1.9310 0.9834
-2.1928 -3.0019 -1.9286 0.9834
-0.0234 -3.7590 -1.9501 0.9832
0.6503 -3.7377 -1.9682 0.9830
0.9862 -3.6851 -1.9790 0.9830
1.3187 -3.6043 -1.9911 0.9829
2.2725 -3.1936 -2.0334 0.9825
2.5681 -3.0018 -2.0494 0.9824
2.8486 -2.7836 -2.0662 0.9822
3.1111 -2.5397 -2.0835 0.9821
3.3444 -2.2654 -2.0956 0.9820
2.2500 -0.9965 -1.2766 0.9890
3.6546 -1.2423 -2.0025 0.9828
3.7836 -0.9196 -2.0200 0.9826
3.9906 0.1169 -2.0711 0.9822
3.9949 0.4757 -2.0871 0.9820
3.9652 0.8359 -2.1023 0.9819
3.9012 1.1940 -2.1165 0.9818
3.8026 1.5464 -2.1296 0.9817
3.3056 2.5337 -2.1607 0.9814
