ply
format ascii 1.0
element vertex 1596
property float32 x
property float32 y
property float32 z
property float32 I
end_header
-8.5052 -3.8750 -1.9756 0.9625
-6.5678 -6.5581 -1.9619 0.9628
-5.2848 -7.6009 -1.9569 0.9629
-4.5813 -8.0336 -1.9549 0.9629
-3.8435 -8.4031 -1.9532 0.9629
-2.2872 -8.9425 -1.9511 0.9630
-1.4803 -9.1086 -1.9506 0.9630
-0.6622 -9.2040 -1.9506 0.9630
0.1612 -9.2279 -1.9509 0.9630
0.9838 -9.1801 -1.9516 0.9630
2.6022 -8.8711 -1.9542 0.9629
3.3861 -8.6119 -1.9561 0.9629
4.1453 -8.2851 -1.9583 0.9628
4.8739 -7.8928 -1.9608 0.9628
6.2177 -6.9229 -1.9669 0.9627
9.3897 -1.1770 -2.0003 0.9620
9.4937 0.5120 -2.0097 0.9619
9.0808 3.0269 -2.0233 0.9616
8.0039 5.3546 -2.0356 0.9614
6.9490 6.7140 -2.0425 0.9613
4.9432 8.3459 -2.0504 0.9611
3.1300 8.4136 -1.8976 0.9640
0.7922 8.9499 -1.8992 0.9639
-0.8098 8.9440 -1.8983 0.9639
-1.6032 8.8312 -1.8973 0.9640
-3.8723 8.0686 -1.8918 0.9641
-4.5703 7.6810 -1.8893 0.9641
-5.2291 7.2320 -1.8864 0.9642
-6.4083 6.1668 -1.8799 0.9643
-8.4034 4.5725 -2.0222 0.9616
-9.0413 2.9936 -2.0132 0.9618
-9.2508 2.1704 -2.0085 0.9619
-9.4292 -0.3530 -1.9945 0.9622
-9.3387 -1.1896 -1.9900 0.9622
-9.1749 -2.0131 -1.9855 0.9623
-8.9394 -2.8171 -1.9812 0.9624
-8.6346 -3.5955 -1.9771 0.9625
-5.5345 -7.4259 -1.9577 0.9628
-4.1192 -8.2744 -1.9538 0.9629
-1.7795 -9.0555 -1.9508 0.9630
-0.1427 -9.2274 -1.9507 0.9630
0.6809 -9.2061 -1.9513 0.9630
1.4999 -9.1132 -1.9523 0.9629
3.8686 -8.4134 -1.9574 0.9628
4.6091 -8.0449 -1.9599 0.9628
5.3157 -7.6126 -1.9626 0.9628
8.1560 -4.6135 -1.9807 0.9624
8.8847 -3.1049 -1.9894 0.9623
9.4973 0.1990 -2.0080 0.9619
9.4636 1.0475 -2.0126 0.9618
9.3538 1.8915 -2.0172 0.9617
9.1682 2.7241 -2.0217 0.9617
8.9079 3.5384 -2.0261 0.9616
8.5744 4.3275 -2.0302 0.9615
8.1703 5.0848 -2.0342 0.9614
7.1621 6.4778 -2.0413 0.9613
5.2133 8.1755 -2.0496 0.9611
3.4045 8.3040 -1.8971 0.9640
2.6520 8.5795 -1.8982 0.9640
1.8771 8.7851 -1.8989 0.9639
0.2868 8.9798 -1.8991 0.9639
-1.3119 8.8812 -1.8977 0.9640
-3.6062 8.1955 -1.8926 0.9641
-4.9911 7.4045 -1.8875 0.9642
-8.2549 4.8505 -2.0239 0.9616
-8.9454 3.2924 -2.0149 0.9618
-9.1822 2.4759 -2.0103 0.9619
-9.3807 -0.8823 -1.9916 0.9622
-9.2437 -1.7114 -1.9871 0.9623
-9.0344 -2.5233 -1.9828 0.9624
-8.7549 -3.3119 -1.9786 0.9625
-8.4077 -4.0711 -1.9746 0.9625
-6.9929 -6.1185 -1.9641 0.9627
-6.4099 -6.7077 -1.9612 0.9628
-5.1038 -7.7204 -1.9563 0.9629
-4.3907 -8.1368 -1.9544 0.9629
-2.8716 -8.7753 -1.9517 0.9630
-2.0768 -8.9929 -1.9510 0.9630
0.3775 -9.2223 -1.9510 0.9630
2.0117 -9.0179 -1.9531 0.9629
5.0594 -7.7792 -1.9616 0.9628
5.7417 -7.3081 -1.9645 0.9627
6.3811 -6.7783 -1.9678 0.9627
6.9726 -6.1935 -1.9714 0.9626
7.9935 -4.8757 -1.9792 0.9624
8.4143 -4.1523 -1.9834 0.9624
9.0585 -2.6033 -1.9923 0.9622
9.2760 -1.7892 -1.9969 0.9621
9.4205 -0.9572 -2.0016 0.9620
9.4905 -0.1136 -2.0062 0.9619
9.4031 1.5813 -2.0155 0.9618
9.2454 2.4189 -2.0201 0.9617
9.0125 3.2407 -2.0245 0.9616
7.8800 5.5434 -2.0365 0.9614
7.3671 6.2348 -2.0401 0.9613
6.1609 7.4666 -2.0462 0.9612
5.4773 7.9961 -2.0487 0.9611
2.1650 8.7176 -1.8987 0.9639
-0.2195 8.9804 -1.8988 0.9639
-2.5839 8.5863 -1.8954 0.9640
-4.0590 7.9731 -1.8912 0.9641
-4.7472 7.5689 -1.8886 0.9641
-5.3949 7.1045 -1.8857 0.9642
-6.5605 6.0235 -1.8826 0.9642
-8.0971 5.1237 -2.0254 0.9616
-8.8396 3.5881 -2.0166 0.9617
-9.1035 2.7792 -2.0120 0.9618
-9.2935 1.9518 -2.0073 0.9619
-9.4126 -0.5735 -1.9933 0.9622
-9.3028 -1.4073 -1.9888 0.9623
-9.1199 -2.2263 -1.9844 0.9623
-8.8660 -3.0242 -1.9801 0.9624
-8.5434 -3.7949 -1.9760 0.9625
-8.1550 -4.5328 -1.9722 0.9626
-7.1948 -5.8885 -1.9652 0.9627
-6.0167 -7.0521 -1.9595 0.9628
-5.3573 -7.5513 -1.9571 0.9629
-4.6578 -7.9906 -1.9551 0.9629
-2.3720 -8.9207 -1.9512 0.9630
-1.5667 -9.0943 -1.9507 0.9630
0.0736 -9.2287 -1.9508 0.9630
0.8966 -9.1886 -1.9515 0.9630
4.0660 -8.3230 -1.9580 0.9628
4.7981 -7.9375 -1.9605 0.9628
6.7604 -6.4153 -1.9700 0.9626
7.3192 -5.7978 -1.9737 0.9625
7.8227 -5.1323 -1.9777 0.9625
8.2665 -4.4235 -1.9818 0.9624
9.2042 -2.0918 -1.9952 0.9621
9.4735 -0.4256 -2.0045 0.9620
9.4958 0.4218 -2.0092 0.9619
8.8273 3.7483 -2.0272 0.9616
7.5636 5.9852 -2.0388 0.9613
5.7351 7.8081 -2.0478 0.9612
5.0216 8.2977 -2.0502 0.9611
4.2564 8.7017 -2.0476 0.9612
3.2095 8.3830 -1.8974 0.9640
2.4505 8.6404 -1.8984 0.9639
1.6708 8.8272 -1.8990 0.9639
-0.7249 8.9517 -1.8984 0.9639
-3.0616 8.4219 -1.8942 0.9640
-3.7961 8.1061 -1.8920 0.9641
-4.4979 7.7252 -1.8896 0.9641
-5.7804 6.7821 -1.8837 0.9642
-6.3508 6.2285 -1.8803 0.9643
-7.9302 5.3916 -2.0270 0.9616
-9.0147 3.0800 -2.0137 0.9618
-9.2321 2.2586 -2.0090 0.9619
-9.3748 1.4231 -2.0044 0.9620
-9.4423 0.5801 -1.9997 0.9621
-9.3518 -1.1013 -1.9904 0.9622
-8.9678 -2.7328 -1.9817 0.9624
-8.3057 -4.2649 -1.9736 0.9625
-6.8448 -6.2781 -1.9633 0.9627
-6.2487 -6.8536 -1.9605 0.9628
-4.9201 -7.8358 -1.9558 0.9629
-4.1979 -8.2357 -1.9540 0.9629
-3.4443 -8.5709 -1.9525 0.9629
-1.8654 -9.0385 -1.9508 0.9630
-1.0519 -9.1676 -1.9506 0.9630
3.0165 -8.7436 -1.9551 0.9629
3.7882 -8.4487 -1.9572 0.9629
5.9139 -7.1746 -1.9654 0.9627
7.1194 -6.0313 -1.9723 0.9626
8.1100 -4.6896 -1.9803 0.9624
8.5142 -3.9562 -1.9845 0.9623
9.1225 -2.3917 -1.9935 0.9622
9.3210 -1.5723 -1.9981 0.9621
9.4964 0.1089 -2.0075 0.9619
9.3691 1.8023 -2.0167 0.9617
8.6133 4.2451 -2.0298 0.9615
8.2165 5.0060 -2.0338 0.9614
7.7516 5.7292 -2.0375 0.9614
7.2220 6.4085 -2.0410 0.9613
5.9862 7.6115 -2.0469 0.9612
5.2900 8.1247 -2.0493 0.9611
4.5490 8.5727 -2.0514 0.9611
3.4829 8.2708 -1.8970 0.9640
2.7331 8.5535 -1.8981 0.9640
1.9603 8.7666 -1.8989 0.9639
1.1710 8.9081 -1.8992 0.9639
-0.4299 8.9720 -1.8987 0.9639
-2.0145 8.7431 -1.8965 0.9640
-3.5287 8.2303 -1.8929 0.9641
-4.2432 7.8730 -1.8905 0.9641
-4.9214 7.4527 -1.8878 0.9641
-5.5575 6.9731 -1.8848 0.9642
-7.0070 6.1370 -1.9689 0.9626
-7.7543 5.6541 -2.0286 0.9615
-8.9159 3.3779 -2.0154 0.9618
-9.3309 1.7324 -2.0061 0.9619
-9.3909 -0.7935 -1.9921 0.9622
-9.2617 -1.6240 -1.9876 0.9623
-9.0601 -2.4381 -1.9832 0.9624
-8.7879 -3.2293 -1.9790 0.9624
-8.4477 -3.9920 -1.9750 0.9625
-7.5760 -5.4089 -1.9677 0.9627
-6.4742 -6.6476 -1.9615 0.9628
-3.7255 -8.4549 -1.9530 0.9629
-2.9549 -8.7481 -1.9518 0.9630
-1.3531 -9.1282 -1.9506 0.9630
2.7261 -8.8352 -1.9545 0.9629
4.2613 -8.2280 -1.9587 0.9628
5.6711 -7.3611 -1.9642 0.9627
7.4570 -5.6275 -1.9747 0.9625
8.3726 -4.2310 -1.9829 0.9624
9.0312 -2.6884 -1.9918 0.9622
9.4087 -1.0463 -2.0011 0.9620
9.4867 -0.2036 -2.0058 0.9619
9.2658 2.3305 -2.0196 0.9617
8.7418 3.9563 -2.0283 0.9615
8.3709 4.7295 -2.0323 0.9615
7.9307 5.4673 -2.0362 0.9614
7.4246 6.1635 -2.0397 0.9613
5.5522 7.9428 -2.0485 0.9612
4.0100 8.7092 -2.0267 0.9616
2.2476 8.6963 -1.8986 0.9639
1.4635 8.8644 -1.8991 0.9639
-0.1344 8.9823 -1.8989 0.9639
-0.9344 8.9312 -1.8982 0.9640
-3.2572 8.3455 -1.8937 0.9640
7.9239 -2.9794 -1.9896 0.9658
8.3616 -1.5307 -1.9978 0.9657
8.4825 -0.7807 -2.0020 0.9656
8.5363 -0.0212 -2.0062 0.9655
8.4393 1.5017 -2.0146 0.9654
8.2884 2.2527 -2.0186 0.9653
7.7861 3.7033 -2.0263 0.9652
6.5608 5.6601 -2.0365 0.9650
6.0384 6.2314 -2.0393 0.9650
3.4833 7.9595 -2.0420 0.9649
2.5583 7.6373 -1.8930 0.9674
1.8678 7.8380 -1.8937 0.9674
1.1617 7.9748 -1.8941 0.9674
-3.0634 7.4296 -1.8887 0.9675
-3.7096 7.1190 -1.8867 0.9676
-4.3242 6.7514 -1.8843 0.9676
-7.3157 4.5326 -2.0226 0.9653
-7.6758 3.8547 -2.0187 0.9653
-7.9729 3.1485 -2.0146 0.9654
-8.3706 1.6752 -2.0063 0.9655
-8.4992 0.1611 -1.9979 0.9657
-8.1885 -2.0815 -1.9857 0.9659
-7.9549 -2.7979 -1.9819 0.9659
-7.6596 -3.4897 -1.9782 0.9660
-6.8946 -4.7786 -1.9715 0.9661
-5.3617 -6.4065 -1.9634 0.9663
-4.1302 -7.2425 -1.9595 0.9663
-3.4653 -7.5762 -1.9580 0.9663
-2.7743 -7.8505 -1.9569 0.9664
-2.0624 -8.0634 -1.9561 0.9664
-1.3348 -8.2134 -1.9557 0.9664
-0.5971 -8.2994 -1.9556 0.9664
1.6224 -8.1695 -1.9575 0.9664
3.7364 -7.4679 -1.9626 0.9663
4.3926 -7.1133 -1.9649 0.9662
5.0161 -6.7022 -1.9675 0.9662
5.6019 -6.2373 -1.9704 0.9661
6.1456 -5.7221 -1.9735 0.9661
6.6427 -5.1601 -1.9769 0.9660
7.0892 -4.5554 -1.9804 0.9660
7.4813 -3.9125 -1.9842 0.9659
8.4457 -1.0587 -2.0005 0.9656
8.5352 0.4603 -2.0089 0.9655
8.4777 1.2221 -2.0131 0.9654
6.7399 5.4381 -2.0353 0.9650
5.0801 7.0557 -2.0433 0.9649
2.8148 7.5664 -1.8974 0.9674
-0.7264 8.0229 -1.8933 0.9674
-2.1374 7.7571 -1.8910 0.9675
-6.0265 5.7993 -1.9656 0.9662
-6.7256 5.4043 -2.0278 0.9652
-7.1676 4.7743 -2.0240 0.9652
-8.1271 2.6909 -2.0120 0.9654
-8.3173 1.9514 -2.0078 0.9655
-8.4405 1.1994 -2.0036 0.9656
-8.4836 -0.3176 -1.9952 0.9657
-8.4042 -1.0706 -1.9911 0.9658
-8.0484 -2.5363 -1.9833 0.9659
-6.1133 -5.7149 -1.9668 0.9662
-5.5721 -6.2292 -1.9643 0.9662
-4.9888 -6.6936 -1.9620 0.9663
-2.3270 -7.9921 -1.9563 0.9664
-0.1286 -8.3204 -1.9557 0.9664
1.3523 -8.2168 -1.9571 0.9664
2.0809 -8.0685 -1.9583 0.9663
5.3906 -6.4148 -1.9693 0.9662
5.9503 -5.9177 -1.9723 0.9661
6.9306 -4.7831 -1.9791 0.9660
7.3432 -4.1537 -1.9828 0.9659
7.6993 -3.4892 -1.9867 0.9659
8.2300 -2.0744 -1.9947 0.9657
8.3998 -1.3351 -1.9989 0.9657
8.5069 0.9416 -2.0115 0.9654
8.4062 1.6999 -2.0156 0.9654
8.2376 2.4476 -2.0197 0.9653
8.0019 3.1786 -2.0236 0.9652
7.7008 3.8866 -2.0273 0.9652
6.4288 5.8146 -2.0372 0.9650
5.3074 6.8818 -2.0425 0.9649
3.2429 7.9100 -2.0092 0.9655
2.3789 7.6960 -1.8932 0.9674
0.9745 8.0000 -1.8941 0.9674
-1.8814 7.8254 -1.8916 0.9675
-2.5697 7.6204 -1.8900 0.9675
-4.4797 6.6458 -1.8836 0.9676
-5.5721 5.7271 -1.8780 0.9677
-7.0113 5.0111 -2.0254 0.9652
-8.4833 0.7211 -2.0010 0.9656
-8.4412 -0.7940 -1.9926 0.9658
-7.8833 -2.9821 -1.9809 0.9660
-7.5722 -3.6666 -1.9773 0.9660
-6.7779 -4.9368 -1.9707 0.9661
-6.3013 -5.5134 -1.9678 0.9662
-5.2085 -6.5284 -1.9628 0.9663
-3.9584 -7.3357 -1.9591 0.9663
-2.5892 -7.9124 -1.9566 0.9664
3.2344 -7.6917 -1.9610 0.9663
3.9116 -7.3804 -1.9631 0.9663
4.5597 -7.0108 -1.9655 0.9662
5.1737 -6.5852 -1.9682 0.9662
5.7489 -6.1068 -1.9712 0.9661
6.2808 -5.5789 -1.9744 0.9661
7.5748 -3.7380 -1.9852 0.9659
7.8936 -3.0537 -1.9892 0.9658
8.1511 -2.3425 -1.9932 0.9658
8.4729 -0.8609 -2.0016 0.9656
8.4513 1.4212 -2.0141 0.9654
8.3076 2.1736 -2.0182 0.9653
8.0965 2.9114 -2.0222 0.9653
7.8193 3.6286 -2.0260 0.9652
6.0964 6.1729 -2.0390 0.9650
5.5287 6.7005 -2.0416 0.9649
4.9147 7.1748 -2.0439 0.9649
1.2373 7.9634 -1.8940 0.9674
0.5222 8.0421 -1.8941 0.9674
-0.9141 8.0028 -1.8931 0.9674
-1.6232 7.8850 -1.8920 0.9675
-2.3181 7.7033 -1.8906 0.9675
-2.9931 7.4591 -1.8889 0.9675
-4.8427 6.3772 -1.8819 0.9676
-6.3422 5.8230 -2.0235 0.9652
-7.6405 3.9281 -2.0191 0.9653
-7.9444 3.2247 -2.0151 0.9654
-8.1835 2.4983 -2.0109 0.9655
-8.3562 1.7550 -2.0067 0.9655
-8.4693 -0.5160 -1.9942 0.9657
-8.3723 -1.2666 -1.9901 0.9658
-6.4828 -5.3058 -1.9689 0.9662
-5.9756 -5.8546 -1.9661 0.9662
-4.8292 -6.8069 -1.9615 0.9663
-4.1991 -7.2036 -1.9596 0.9663
-3.5372 -7.5435 -1.9581 0.9663
0.0664 -8.3216 -1.9558 0.9664
1.5447 -8.1840 -1.9574 0.9664
3.6650 -7.5021 -1.9623 0.9663
4.9516 -6.7485 -1.9672 0.9662
5.5416 -6.2892 -1.9700 0.9661
6.0900 -5.7791 -1.9732 0.9661
6.5922 -5.2219 -1.9765 0.9660
7.7830 -3.3095 -1.9877 0.9658
8.2809 -1.8820 -1.9958 0.9657
8.1822 2.6414 -2.0207 0.9653
7.9291 3.3669 -2.0246 0.9652
7.6112 4.0679 -2.0283 0.9652
6.7900 5.3730 -2.0350 0.9650
6.2931 5.9658 -2.0380 0.9650
1.4987 7.9179 -1.8939 0.9674
0.7867 8.0207 -1.8941 0.9674
0.0684 8.0581 -1.8939 0.9674
-1.3630 7.9360 -1.8924 0.9675
-2.0639 7.7777 -1.8912 0.9675
-4.0366 6.9329 -1.8855 0.9676
-5.1893 6.0885 -1.8802 0.9677
-7.8398 3.4871 -2.0166 0.9654
-8.1030 2.7685 -2.0125 0.9654
-8.3003 2.0307 -2.0083 0.9655
-8.4158 -0.9910 -1.9916 0.9658
-7.4807 -3.8412 -1.9764 0.9660
-7.0964 -4.4854 -1.9730 0.9661
-6.6576 -5.0923 -1.9699 0.9661
-6.1681 -5.6575 -1.9671 0.9662
-5.6317 -6.1769 -1.9645 0.9662
-3.7847 -7.4250 -1.9587 0.9663
-3.1054 -7.7277 -1.9574 0.9664
-2.4028 -7.9700 -1.9564 0.9664
-1.6820 -8.1500 -1.9558 0.9664
0.5352 -8.3061 -1.9562 0.9664
1.2742 -8.2288 -1.9570 0.9664
2.7194 -7.8825 -1.9597 0.9663
3.4147 -7.6157 -1.9616 0.9663
5.3287 -6.4646 -1.9690 0.9662
5.8929 -5.9729 -1.9720 0.9661
6.4126 -5.4326 -1.9752 0.9661
7.6643 -3.5613 -1.9862 0.9659
7.9672 -2.8694 -1.9902 0.9658
8.2082 -2.1519 -1.9943 0.9657
8.3848 -1.4144 -1.9985 0.9657
8.5386 0.0979 -2.0069 0.9655
8.5135 0.8607 -2.0111 0.9655
8.4202 1.6198 -2.0152 0.9654
8.2587 2.3689 -2.0193 0.9653
8.0301 3.1019 -2.0232 0.9652
7.7358 3.8126 -2.0269 0.9652
7.3780 4.4952 -2.0305 0.9651
5.3718 6.8303 -2.0423 0.9649
3.3691 8.0007 -2.0403 0.9650
2.4517 7.6728 -1.8931 0.9674
1.7584 7.8636 -1.8938 0.9674
1.0503 7.9904 -1.8941 0.9674
0.3336 8.0520 -1.8940 0.9674
-0.3856 8.0479 -1.8936 0.9674
-2.4975 7.6451 -1.8902 0.9675
-3.1663 7.3849 -1.8884 0.9675
-4.4171 6.6890 -1.8839 0.9676
-4.9888 6.2595 -1.8812 0.9676
-6.9648 5.0784 -2.0258 0.9652
-7.3760 4.4288 -2.0220 0.9653
-8.0135 3.0360 -2.0140 0.9654
-8.3904 1.5578 -2.0056 0.9655
-8.1562 -2.1948 -1.9851 0.9659
-7.9128 -2.9078 -1.9813 0.9660
-7.2446 -4.2519 -1.9742 0.9661
-6.8255 -4.8731 -1.9710 0.9661
-6.3543 -5.4542 -1.9681 0.9662
-4.6671 -6.9164 -1.9610 0.9663
-4.0282 -7.2985 -1.9592 0.9663
-3.3589 -7.6230 -1.9578 0.9664
-2.6643 -7.8878 -1.9567 0.9664
-1.2201 -8.2310 -1.9556 0.9664
-0.4813 -8.3070 -1.9556 0.9664
3.1610 -7.7212 -1.9608 0.9663
5.1102 -6.6330 -1.9679 0.9662
6.7159 -5.0683 -1.9774 0.9660
7.5374 -3.8089 -1.9848 0.9659
7.8626 -3.1278 -1.9887 0.9658
8.1267 -2.4192 -1.9928 0.9658
8.3273 -1.6884 -1.9969 0.9657
8.4624 -0.9411 -2.0011 0.9656
8.5306 -0.1831 -2.0053 0.9655
8.5307 0.5795 -2.0095 0.9655
8.4625 1.3407 -2.0137 0.9654
7.8519 3.5535 -2.0256 0.9652
7.5172 4.2472 -2.0292 0.9651
7.1206 4.9088 -2.0326 0.9651
4.3308 7.5502 -2.0457 0.9649
3.6378 7.9009 -2.0443 0.9649
2.7024 7.5865 -1.8928 0.9674
1.3127 7.9512 -1.8940 0.9674
-0.8382 8.0115 -1.8932 0.9674
-1.5484 7.9006 -1.8922 0.9675
-2.9225 7.4879 -1.8891 0.9675
-3.5748 7.1899 -1.8871 0.9675
7.1966 -2.7059 -1.9907 0.9687
7.4230 -2.0572 -1.9944 0.9687
7.5912 -1.3897 -1.9982 0.9686
7.7324 0.6729 -2.0096 0.9684
7.6559 1.3623 -2.0134 0.9684
7.0595 3.3577 -2.0240 0.9682
6.7428 3.9802 -2.0273 0.9682
5.9458 5.1295 -2.0332 0.9681
5.4717 5.6465 -2.0358 0.9680
4.9520 6.1189 -2.0381 0.9680
3.1638 7.2295 -2.0432 0.9679
-0.2476 7.2936 -1.8895 0.9703
-1.5379 7.1275 -1.8879 0.9703
-2.7752 6.7307 -1.8850 0.9704
-6.2518 4.6935 -2.0241 0.9682
-7.4447 2.1958 -2.0097 0.9684
-7.6871 0.8353 -2.0020 0.9686
-7.6840 -0.5414 -1.9945 0.9687
-7.4383 -1.8908 -1.9872 0.9688
-6.9603 -3.1711 -1.9804 0.9689
-6.2670 -4.3436 -1.9743 0.9690
-5.8466 -4.8784 -1.9716 0.9690
-5.3816 -5.3736 -1.9691 0.9691
-4.8755 -5.8255 -1.9669 0.9691
-4.3323 -6.2309 -1.9649 0.9691
-3.1518 -6.8909 -1.9619 0.9692
-2.5235 -7.1407 -1.9609 0.9692
-1.2142 -7.4712 -1.9598 0.9692
-0.5432 -7.5495 -1.9598 0.9692
0.8069 -7.5292 -1.9606 0.9692
1.4757 -7.4307 -1.9615 0.9692
2.1338 -7.2740 -1.9627 0.9692
2.7761 -7.0603 -1.9643 0.9691
3.3977 -6.7909 -1.9661 0.9691
5.5857 -5.2007 -1.9761 0.9690
6.7963 -3.5543 -1.9858 0.9688
7.5757 1.7935 -2.0157 0.9683
5.1487 5.9501 -2.0373 0.9680
2.7438 7.3754 -2.0375 0.9680
1.2893 7.1839 -1.8898 0.9703
0.6436 7.2707 -1.8899 0.9703
-0.0073 7.2984 -1.8897 0.9703
-0.6579 7.2666 -1.8891 0.9703
-1.3027 7.1757 -1.8883 0.9703
-3.1481 6.5597 -1.8839 0.9704
-4.8082 5.5342 -1.8982 0.9702
-6.4994 4.3292 -2.0219 0.9682
-6.8476 3.7259 -2.0184 0.9683
-7.5476 1.7708 -2.0073 0.9685
-7.6608 1.0887 -2.0034 0.9685
-7.7126 0.4004 -1.9996 0.9686
-7.6323 -0.9723 -1.9921 0.9687
-7.5015 -1.6460 -1.9885 0.9688
-7.0652 -2.9420 -1.9816 0.9689
-6.7637 -3.5545 -1.9784 0.9689
-6.4100 -4.1372 -1.9753 0.9690
-5.0666 -5.6641 -1.9677 0.9691
-4.5367 -6.0870 -1.9656 0.9691
-3.3777 -6.7850 -1.9624 0.9692
-1.4596 -7.4276 -1.9599 0.9692
-0.1170 -7.5686 -1.9599 0.9692
0.5585 -7.5507 -1.9603 0.9692
1.8927 -7.3385 -1.9623 0.9692
2.5413 -7.1457 -1.9637 0.9691
4.3553 -6.2372 -1.9697 0.9691
5.4085 -5.3789 -1.9750 0.9690
5.8755 -4.8825 -1.9780 0.9689
6.6713 -3.7737 -1.9845 0.9688
7.4729 -1.8836 -1.9954 0.9687
7.6255 -1.2120 -1.9992 0.9686
7.7183 0.8544 -2.0106 0.9684
7.6255 1.5421 -2.0143 0.9684
7.4712 2.2199 -2.0180 0.9683
6.9819 3.5238 -2.0249 0.9682
6.6504 4.1388 -2.0281 0.9682
6.2641 4.7224 -2.0311 0.9681
5.8260 5.2693 -2.0339 0.9681
4.8085 6.2349 -2.0387 0.9680
3.6309 7.0022 -2.0422 0.9679
2.9900 7.2932 -2.0409 0.9680
0.8826 7.2456 -1.8899 0.9703
0.2330 7.2951 -1.8898 0.9703
-1.7042 7.0883 -1.8876 0.9703
-5.4472 5.5987 -2.0225 0.9682
-6.3573 4.5437 -2.0232 0.9682
-6.7256 3.9519 -2.0197 0.9683
-7.0386 3.3305 -2.0161 0.9683
-7.2942 2.6846 -2.0124 0.9684
-7.4904 2.0197 -2.0087 0.9685
-7.6654 -0.7210 -1.9935 0.9687
-7.3885 -2.0636 -1.9862 0.9688
-7.1626 -2.7095 -1.9828 0.9689
-4.7363 -5.9366 -1.9663 0.9691
-4.1841 -6.3293 -1.9645 0.9691
-3.6002 -6.6718 -1.9629 0.9692
-2.9890 -6.9618 -1.9616 0.9692
-2.3551 -7.1971 -1.9607 0.9692
-1.7035 -7.3761 -1.9601 0.9692
-0.3661 -7.5603 -1.9598 0.9692
0.3096 -7.5642 -1.9601 0.9692
0.9832 -7.5090 -1.9608 0.9692
1.6497 -7.3952 -1.9618 0.9692
2.3041 -7.2234 -1.9631 0.9692
3.5569 -6.7112 -1.9666 0.9691
5.7083 -5.0704 -1.9768 0.9689
6.5393 -3.9887 -1.9833 0.9688
6.8810 -3.3956 -1.9867 0.9688
7.4017 -2.1271 -1.9940 0.9687
7.5762 -1.4614 -1.9978 0.9686
7.6910 -0.7815 -2.0016 0.9686
7.7448 -0.0927 -2.0054 0.9685
7.0898 3.2900 -2.0237 0.9682
5.9933 5.0722 -2.0329 0.9681
5.5243 5.5936 -2.0355 0.9680
5.0092 6.0709 -2.0379 0.9680
4.4524 6.5000 -2.0399 0.9680
3.8584 6.8770 -2.0417 0.9679
1.7589 7.0824 -1.8895 0.9703
1.1206 7.2124 -1.8898 0.9703
-0.1784 7.2958 -1.8896 0.9703
-0.8280 7.2484 -1.8890 0.9703
-2.0999 6.9780 -1.8868 0.9703
-3.3001 6.4824 -1.8834 0.9704
-3.8606 6.1554 -1.8813 0.9704
-5.0787 5.5760 -1.9528 0.9693
-7.2068 2.9253 -2.0138 0.9684
-7.4251 2.2668 -2.0101 0.9684
-7.5832 1.5926 -2.0063 0.9685
-7.6903 -0.4686 -1.9949 0.9687
-7.4573 -1.8204 -1.9875 0.9688
-6.6758 -3.7106 -1.9775 0.9689
-6.3089 -4.2846 -1.9746 0.9690
-5.4330 -5.3230 -1.9693 0.9691
-4.9311 -5.7797 -1.9671 0.9691
-4.3917 -6.1901 -1.9651 0.9691
-3.2173 -6.8611 -1.9621 0.9692
-1.9455 -7.3167 -1.9603 0.9692
-0.6148 -7.5440 -1.9597 0.9692
0.0604 -7.5696 -1.9600 0.9692
0.7354 -7.5362 -1.9605 0.9692
1.4051 -7.4439 -1.9614 0.9692
3.9320 -6.5047 -1.9680 0.9691
5.5352 -5.2527 -1.9758 0.9690
5.9908 -4.7455 -1.9788 0.9689
7.0693 -3.0060 -1.9890 0.9688
7.6557 -1.0335 -2.0002 0.9686
7.7321 -0.3474 -2.0040 0.9685
7.6999 1.0355 -2.0116 0.9684
7.5909 1.7212 -2.0153 0.9684
7.1898 3.0529 -2.0224 0.9682
6.5541 4.2953 -2.0289 0.9681
4.6624 6.3476 -2.0392 0.9680
4.0815 6.7442 -2.0411 0.9680
2.8150 7.3526 -2.0385 0.9680
1.3573 7.1712 -1.8897 0.9703
0.7125 7.2643 -1.8899 0.9703
-0.5890 7.2728 -1.8892 0.9703
-2.4884 6.8452 -1.8858 0.9704
-3.0860 6.5900 -1.8841 0.9704
-3.6575 6.2818 -1.8821 0.9704
-5.5817 5.4742 -2.0242 0.9682
-6.0519 4.9582 -2.0257 0.9682
-7.3515 2.5117 -2.0115 0.9684
-7.6517 1.1615 -2.0039 0.9685
-7.6427 -0.9000 -1.9925 0.9687
-7.5182 -1.5750 -1.9888 0.9688
-7.3347 -2.2352 -1.9853 0.9688
-6.7983 -3.4908 -1.9787 0.9689
-6.4500 -4.0768 -1.9756 0.9690
-6.0521 -4.6291 -1.9728 0.9690
-5.6078 -5.1436 -1.9702 0.9690
-5.1207 -5.6165 -1.9679 0.9691
-4.5947 -6.0443 -1.9658 0.9691
-2.1856 -7.2496 -1.9605 0.9692
-0.8628 -7.5196 -1.9597 0.9692
-0.1888 -7.5670 -1.9598 0.9692
1.1590 -7.4848 -1.9610 0.9692
4.2954 -6.2774 -1.9694 0.9691
4.8442 -5.8769 -1.9719 0.9690
5.3564 -5.4291 -1.9747 0.9690
5.8279 -4.9372 -1.9776 0.9689
6.2550 -4.4049 -1.9808 0.9689
6.9619 -3.2349 -1.9877 0.9688
7.2358 -2.6060 -1.9913 0.9687
7.4532 -1.9540 -1.9950 0.9687
7.6121 -1.2841 -1.9988 0.9686
7.7110 -0.6013 -2.0026 0.9685
7.7487 0.0889 -2.0064 0.9685
7.7245 0.7809 -2.0102 0.9684
7.2818 2.8128 -2.0212 0.9683
6.6882 4.0749 -2.0278 0.9682
6.3076 4.6620 -2.0308 0.9681
5.8749 5.2131 -2.0336 0.9681
4.2999 6.6041 -2.0404 0.9680
3.0606 7.2679 -2.0418 0.9679
0.9513 7.2368 -1.8899 0.9703
0.3022 7.2927 -1.8898 0.9703
-1.6370 7.1047 -1.8877 0.9703
-2.2624 6.9255 -1.8864 0.9703
-2.8685 6.6904 -1.8848 0.9704
-4.0025 6.0613 -1.8807 0.9704
-4.5213 5.6729 -1.8782 0.9705
-6.6890 4.0163 -2.0201 0.9683
-7.0081 3.3978 -2.0165 0.9683
-7.2698 2.7543 -2.0128 0.9684
-7.6147 1.4138 -2.0053 0.9685
-7.7152 0.0385 -1.9976 0.9686
-7.6734 -0.6483 -1.9939 0.9687
-6.2044 -4.4297 -1.9738 0.9690
-5.7768 -4.9585 -1.9712 0.9690
-5.3051 -5.4471 -1.9687 0.9691
-4.7930 -5.8920 -1.9666 0.9691
-3.0551 -6.9335 -1.9618 0.9692
-2.4234 -7.1748 -1.9608 0.9692
0.2378 -7.5666 -1.9601 0.9692
1.5794 -7.4100 -1.9617 0.9692
2.2353 -7.2444 -1.9630 0.9692
2.8747 -7.0218 -1.9645 0.9691
5.6590 -5.1235 -1.9765 0.9690
6.8471 -3.4601 -1.9864 0.9688
7.1412 -2.8408 -1.9899 0.9687
7.7420 -0.1662 -2.0050 0.9685
7.5521 1.8995 -2.0163 0.9683
7.3658 2.5699 -2.0199 0.9683
7.1194 3.2220 -2.0233 0.9682
6.8148 3.8503 -2.0266 0.9682
6.4542 4.4494 -2.0297 0.9681
6.0403 5.0144 -2.0326 0.9681
5.0660 6.0224 -2.0376 0.9680
3.9231 6.8395 -2.0415 0.9679
2.6305 7.3846 -2.0297 0.9681
1.1890 7.2014 -1.8898 0.9703
0.5421 7.2790 -1.8899 0.9703
-0.1091 7.2973 -1.8896 0.9703
-0.7592 7.2563 -1.8890 0.9703
-1.4025 7.1562 -1.8881 0.9703
6.9440 -1.2712 -1.9985 0.9711
7.0697 0.6152 -2.0089 0.9709
6.9986 1.2453 -2.0124 0.9709
6.6880 2.4768 -2.0190 0.9708
6.4505 3.0681 -2.0221 0.9707
6.1602 3.6364 -2.0251 0.9707
5.4307 4.6852 -2.0305 0.9706
4.9971 5.1568 -2.0328 0.9706
1.5971 6.7022 -1.9505 0.9718
-0.2260 6.6584 -1.8860 0.9727
-0.8186 6.6096 -1.8854 0.9727
-1.4040 6.5073 -1.8846 0.9727
-1.9775 6.3522 -1.8834 0.9727
-3.0692 5.8901 -1.8802 0.9728
-5.3151 4.7879 -2.0251 0.9707
-5.7124 4.2885 -2.0222 0.9707
-6.8067 2.0076 -2.0090 0.9709
-6.9465 1.3902 -2.0055 0.9710
-6.8073 -1.7304 -1.9884 0.9712
-6.3717 -2.9029 -1.9822 0.9713
-5.7385 -3.9774 -1.9766 0.9714
-5.3542 -4.4676 -1.9741 0.9714
-4.9289 -4.9216 -1.9718 0.9715
-3.9686 -5.7078 -1.9680 0.9715
-2.8876 -6.3131 -1.9653 0.9716
-1.7188 -6.7202 -1.9637 0.9716
-1.1125 -6.8454 -1.9633 0.9716
0.1211 -6.9348 -1.9635 0.9716
1.3520 -6.8078 -1.9649 0.9716
1.9548 -6.6639 -1.9660 0.9715
3.6582 -5.9240 -1.9710 0.9715
5.5264 -4.2929 -1.9810 0.9713
5.8960 -3.7887 -1.9840 0.9713
6.4961 -2.6898 -1.9904 0.9712
6.7214 -2.1033 -1.9938 0.9711
7.0123 -0.8790 -2.0007 0.9710
7.0751 -0.2506 -2.0042 0.9710
7.0314 1.0136 -2.0111 0.9709
6.2733 3.4298 -2.0240 0.9707
5.1620 4.9874 -2.0320 0.9706
4.7018 5.4337 -2.0342 0.9706
3.6684 6.1935 -2.0378 0.9705
3.1036 6.5004 -2.0392 0.9705
1.1770 6.5582 -1.8863 0.9727
-0.0067 6.6628 -1.8862 0.9727
-2.3311 6.2278 -1.8825 0.9727
-3.3940 5.7042 -1.8790 0.9728
-5.1573 4.9628 -2.0262 0.9707
-5.5712 4.4767 -2.0233 0.9707
-6.5263 2.8290 -2.0137 0.9709
-7.0061 0.9956 -2.0033 0.9710
-7.0546 0.3663 -1.9998 0.9711
-6.9834 -0.8896 -1.9929 0.9712
-6.8647 -1.5063 -1.9896 0.9712
-6.4674 -2.6931 -1.9833 0.9713
-5.5009 -4.2908 -1.9750 0.9714
-5.0903 -4.7586 -1.9726 0.9714
-4.6407 -5.1880 -1.9705 0.9715
-4.1556 -5.5758 -1.9686 0.9715
-3.0945 -6.2160 -1.9657 0.9715
-2.5265 -6.4637 -1.9646 0.9716
-1.9393 -6.6606 -1.9639 0.9716
-1.3373 -6.8054 -1.9634 0.9716
-0.1072 -6.9346 -1.9634 0.9716
0.5117 -6.9181 -1.9638 0.9716
1.1270 -6.8474 -1.9645 0.9716
2.9049 -6.3175 -1.9684 0.9715
4.4876 -5.3402 -1.9747 0.9714
4.9523 -4.9251 -1.9772 0.9714
5.3792 -4.4701 -1.9800 0.9713
5.7648 -3.9785 -1.9829 0.9713
6.1061 -3.4539 -1.9860 0.9713
6.4001 -2.9004 -1.9892 0.9712
6.8366 -1.7232 -1.9959 0.9711
6.9751 -1.1086 -1.9994 0.9711
7.0585 -0.4831 -2.0029 0.9710
6.3793 3.2196 -2.0229 0.9707
6.0756 3.7811 -2.0258 0.9707
5.7219 4.3137 -2.0286 0.9706
5.3211 4.8127 -2.0311 0.9706
4.8763 5.2740 -2.0334 0.9706
3.8692 6.0677 -2.0372 0.9705
1.4102 6.5999 -1.9106 0.9723
0.8057 6.6145 -1.8864 0.9727
0.2127 6.6597 -1.8863 0.9727
-0.9731 6.5879 -1.8852 0.9727
-2.1254 6.3029 -1.8830 0.9727
-2.6768 6.0834 -1.8815 0.9727
-3.2056 5.8150 -1.8797 0.9728
-4.4451 5.4700 -1.9953 0.9711
-4.9918 5.1307 -2.0265 0.9707
-5.8091 4.1518 -2.0214 0.9708
-6.4336 3.0442 -2.0149 0.9708
-7.0433 0.5987 -2.0011 0.9710
-7.0563 -0.0317 -1.9976 0.9711
-6.9148 -1.2802 -1.9908 0.9712
-6.7620 -1.8886 -1.9875 0.9712
-5.9938 -3.5947 -1.9786 0.9714
-5.6418 -4.1093 -1.9759 0.9714
-5.2464 -4.5904 -1.9735 0.9714
-4.8108 -5.0343 -1.9713 0.9715
-4.3384 -5.4378 -1.9693 0.9715
-2.7384 -6.3782 -1.9650 0.9716
-0.9518 -6.8695 -1.9633 0.9716
0.9008 -6.8798 -1.9642 0.9716
2.1108 -6.6174 -1.9663 0.9715
2.6945 -6.4077 -1.9678 0.9715
3.7971 -5.8382 -1.9716 0.9715
4.7851 -5.0830 -1.9763 0.9714
5.2264 -4.6423 -1.9789 0.9714
5.6276 -4.1638 -1.9818 0.9713
5.9856 -3.6510 -1.9848 0.9713
6.5602 -2.5379 -1.9913 0.9712
7.0342 -0.7147 -2.0016 0.9710
7.0739 0.5480 -2.0086 0.9709
7.0088 1.1786 -2.0120 0.9709
6.7101 2.4128 -2.0186 0.9708
6.1935 3.5772 -2.0248 0.9707
5.4742 4.6329 -2.0302 0.9706
5.0452 5.1085 -2.0326 0.9706
4.0656 5.9352 -2.0366 0.9705
3.5229 6.2790 -2.0382 0.9705
2.3513 6.8042 -2.0380 0.9705
1.0230 6.5842 -1.8863 0.9727
0.4318 6.6493 -1.8863 0.9727
-1.9173 6.3711 -1.8835 0.9727
-2.4759 6.1702 -1.8821 0.9727
-4.1373 5.4484 -1.9367 0.9720
-4.8150 5.2865 -2.0243 0.9707
-5.2702 4.8388 -2.0254 0.9707
-6.3337 3.2563 -2.0161 0.9708
-6.5879 2.6741 -2.0128 0.9709
-6.7885 2.0725 -2.0094 0.9709
-6.9343 1.4563 -2.0059 0.9710
-7.0580 0.2007 -1.9989 0.9711
-7.0356 -0.4287 -1.9954 0.9711
-6.9575 -1.0526 -1.9920 0.9712
-6.8246 -1.6660 -1.9887 0.9712
-6.6382 -2.2643 -1.9855 0.9713
-6.3999 -2.8428 -1.9825 0.9713
-6.1120 -3.3972 -1.9796 0.9713
-5.7768 -3.9233 -1.9769 0.9714
-5.3971 -4.4171 -1.9743 0.9714
-4.0229 -5.6704 -1.9682 0.9715
-2.9475 -6.2858 -1.9654 0.9716
-2.3741 -6.5204 -1.9644 0.9716
-1.7825 -6.7038 -1.9637 0.9716
-1.1774 -6.8346 -1.9633 0.9716
0.0553 -6.9355 -1.9635 0.9716
1.2873 -6.8200 -1.9648 0.9716
1.8914 -6.6817 -1.9659 0.9715
2.4814 -6.4910 -1.9672 0.9715
3.6014 -5.9578 -1.9708 0.9715
4.1228 -5.6190 -1.9730 0.9714
5.0681 -4.8094 -1.9779 0.9714
5.4845 -4.3445 -1.9807 0.9713
5.8588 -3.8438 -1.9837 0.9713
6.4691 -2.7508 -1.9901 0.9712
6.6999 -2.1666 -1.9934 0.9712
6.8782 -1.5632 -1.9968 0.9711
7.0836 0.3147 -2.0073 0.9710
6.9387 1.5733 -2.0141 0.9709
6.5700 2.7898 -2.0206 0.9708
5.9875 3.9239 -2.0266 0.9707
5.2085 4.9376 -2.0317 0.9706
4.2574 5.7963 -2.0359 0.9705
3.1649 6.4702 -2.0391 0.9705
1.2391 6.5467 -1.8862 0.9727
0.6505 6.6316 -1.8864 0.9727
0.0565 6.6626 -1.8862 0.9727
-1.1271 6.5625 -1.8850 0.9727
-2.8180 6.0176 -1.8811 0.9728
-3.8494 5.4317 -1.8847 0.9727
-4.6338 5.4367 -2.0223 0.9707
-5.1107 5.0123 -2.0265 0.9707
-5.9024 4.0129 -2.0205 0.9708
-6.7209 2.2963 -2.0106 0.9709
-6.8870 1.6849 -2.0072 0.9710
-7.0521 0.4333 -2.0002 0.9711
-6.7130 -2.0457 -1.9867 0.9712
-6.2238 -3.1958 -1.9806 0.9713
-5.5421 -4.2390 -1.9752 0.9714
-4.6902 -5.1443 -1.9707 0.9715
-4.2088 -5.5366 -1.9688 0.9715
-3.1535 -6.1868 -1.9658 0.9715
-2.5878 -6.4398 -1.9647 0.9716
-2.0025 -6.6422 -1.9639 0.9716
-1.4019 -6.7926 -1.9635 0.9716
-0.7905 -6.8898 -1.9633 0.9716
-0.1730 -6.9332 -1.9634 0.9716
1.0619 -6.8575 -1.9644 0.9716
1.6700 -6.7389 -1.9654 0.9716
3.4021 -6.0708 -1.9701 0.9715
4.4361 -5.3819 -1.9744 0.9714
6.0720 -3.5111 -1.9856 0.9713
6.6208 -2.3845 -1.9922 0.9712
6.8187 -1.7877 -1.9956 0.9711
6.9630 -1.1745 -1.9990 0.9711
7.0523 -0.5499 -2.0025 0.9710
6.9824 1.3432 -2.0129 0.9709
6.1103 3.7228 -2.0255 0.9707
5.7618 4.2586 -2.0283 0.9707
4.4444 5.6510 -2.0352 0.9706
3.9262 6.0302 -2.0371 0.9705
3.3754 6.3610 -2.0386 0.9705
2.7964 6.6406 -2.0398 0.9705
1.4847 6.6396 -1.9260 0.9721
0.8684 6.6065 -1.8863 0.9727
0.2758 6.6575 -1.8863 0.9727
-0.3188 6.6543 -1.8860 0.9727
-0.9107 6.5972 -1.8853 0.9727
-1.4946 6.4865 -1.8844 0.9727
-2.6192 6.1091 -1.8817 0.9727
-3.1506 5.8458 -1.8799 0.9728
-4.3545 5.4637 -1.9779 0.9714
-4.9413 5.1762 -2.0258 0.9707
-6.1130 3.6704 -2.0185 0.9708
-6.5806 -2.4182 -1.9847 0.9713
-5.2904 -4.5410 -1.9737 0.9714
-4.8589 -4.9890 -1.9715 0.9715
-4.3902 -5.3969 -1.9695 0.9715
-3.8881 -5.7618 -1.9678 0.9715
-3.3563 -6.0811 -1.9663 0.9715
-2.7990 -6.3523 -1.9651 0.9716
-2.2204 -6.5735 -1.9642 0.9716
-1.0169 -6.8602 -1.9633 0.9716
-0.4011 -6.9235 -1.9633 0.9716
0.2179 -6.9327 -1.9636 0.9716
3.1992 -6.1773 -1.9694 0.9715
3.7411 -5.8733 -1.9713 0.9715
4.7360 -5.1275 -1.9760 0.9714
5.9497 -3.7070 -1.9845 0.9713
6.2665 -3.1667 -1.9876 0.9712
7.0798 -0.1519 -2.0047 0.9710
7.0775 0.4808 -2.0082 0.9709
7.0184 1.1119 -2.0116 0.9709
6.9029 1.7362 -2.0150 0.9708
6.7315 2.3487 -2.0183 0.9708
6.2262 3.5178 -2.0245 0.9707
5.8960 4.0646 -2.0273 0.9707
5.5172 4.5801 -2.0299 0.9706
5.0929 5.0598 -2.0323 0.9706
4.6263 5.4997 -2.0345 0.9706
1.7548 6.7898 -1.9853 0.9713
1.0854 6.5741 -1.8863 0.9727
0.4949 6.6450 -1.8864 0.9727
-0.0996 6.6618 -1.8861 0.9727
-0.6931 6.6245 -1.8856 0.9727
-2.4175 6.1939 -1.8823 0.9727
-2.9575 5.9484 -1.8806 0.9728
6.3206 1.7179 -2.0146 0.9730
5.3506 3.8404 -2.0258 0.9728
4.5936 4.7404 -2.0303 0.9728
3.6851 5.4908 -2.0339 0.9727
2.6546 6.0658 -2.0366 0.9727
2.1040 6.2811 -2.0374 0.9727
0.9231 6.3372 -1.9698 0.9736
-0.7522 6.0741 -1.8825 0.9747
-1.2903 5.9802 -1.8817 0.9747
-2.3291 5.6487 -1.8793 0.9748
-2.8299 5.4307 -1.8835 0.9747
-4.0295 5.2031 -2.0242 0.9728
-4.4810 4.8270 -2.0258 0.9728
-4.8874 4.4026 -2.0232 0.9728
-5.2534 3.9439 -2.0205 0.9729
-5.8534 2.9395 -2.0146 0.9730
-6.2630 1.8472 -2.0084 0.9730
-6.3925 1.2794 -2.0052 0.9731
-6.4972 0.1231 -1.9988 0.9732
-6.3956 -1.0297 -1.9925 0.9733
-6.2687 -1.5935 -1.9894 0.9733
-6.0926 -2.1429 -1.9865 0.9733
-5.8690 -2.6739 -1.9837 0.9734
-5.5997 -3.1823 -1.9810 0.9734
-4.9334 -4.1164 -1.9763 0.9735
-4.1155 -4.9174 -1.9723 0.9735
-2.6615 -5.8190 -1.9681 0.9736
-2.1311 -6.0304 -1.9672 0.9736
0.6814 -6.3587 -1.9670 0.9736
1.2462 -6.2750 -1.9678 0.9736
1.8017 -6.1421 -1.9688 0.9736
2.3438 -5.9609 -1.9701 0.9736
3.8483 -5.1419 -1.9754 0.9735
5.4304 -3.4895 -1.9854 0.9733
5.9816 -2.4767 -1.9913 0.9733
6.1882 -1.9365 -1.9944 0.9732
6.5112 -0.2307 -2.0040 0.9731
6.5163 0.3514 -2.0072 0.9731
6.3701 1.5081 -2.0135 0.9730
6.0187 2.6233 -2.0194 0.9729
5.7687 3.1539 -2.0222 0.9729
5.1296 4.1389 -2.0273 0.9728
3.8627 5.3649 -2.0334 0.9727
3.3715 5.6923 -2.0349 0.9727
2.8523 5.9740 -2.0362 0.9727
1.1564 6.4436 -2.0136 0.9730
0.5470 6.1792 -1.9080 0.9744
-1.0929 6.0205 -1.8820 0.9747
-1.6246 5.8960 -1.8811 0.9747
-2.1425 5.7239 -1.8798 0.9747
-2.6423 5.5057 -1.8784 0.9748
-3.2180 5.4083 -1.9357 0.9740
-3.8530 5.3288 -2.0226 0.9729
-4.3216 4.9741 -2.0267 0.9728
-5.4624 3.6385 -2.0187 0.9729
-5.7566 3.1323 -2.0158 0.9729
-6.0039 2.6026 -2.0127 0.9730
-6.2024 2.0536 -2.0096 0.9730
-6.3507 1.4900 -2.0064 0.9731
-6.4479 0.9163 -2.0032 0.9731
-6.4935 0.3371 -1.9999 0.9732
-6.1632 -1.9423 -1.9876 0.9733
-5.9569 -2.4805 -1.9847 0.9734
-5.7042 -2.9977 -1.9820 0.9734
-5.0683 -3.9535 -1.9771 0.9735
-4.6905 -4.3848 -1.9749 0.9735
-3.8299 -5.1387 -1.9712 0.9735
-3.3538 -5.4556 -1.9697 0.9736
-2.8522 -5.7293 -1.9685 0.9736
-1.7876 -6.1396 -1.9668 0.9736
-1.2328 -6.2732 -1.9664 0.9736
2.1457 -6.0333 -1.9696 0.9736
2.6772 -5.8222 -1.9710 0.9735
3.1884 -5.5651 -1.9727 0.9735
4.1348 -4.9204 -1.9768 0.9735
5.3099 -3.6645 -1.9844 0.9734
6.1176 -2.1379 -1.9932 0.9732
6.2938 -1.5864 -1.9964 0.9732
6.4204 -1.0205 -1.9996 0.9732
6.4963 -0.4447 -2.0028 0.9731
6.4926 0.7187 -2.0092 0.9730
5.8665 2.9608 -2.0212 0.9729
5.5866 3.4768 -2.0239 0.9728
5.2608 3.9660 -2.0264 0.9728
4.4824 4.8480 -2.0308 0.9727
4.0360 5.2332 -2.0327 0.9727
3.0467 5.8756 -2.0357 0.9727
2.5120 6.1271 -2.0368 0.9727
1.3803 6.4602 -2.0319 0.9727
0.7635 6.2680 -1.9422 0.9739
0.1954 6.1199 -1.8833 0.9747
-1.4299 5.9475 -1.8815 0.9747
-3.6428 5.4042 -2.0046 0.9731
-4.5914 4.7191 -2.0251 0.9728
-6.1350 2.2580 -2.0107 0.9730
-6.3019 1.6992 -2.0076 0.9731
-6.4827 0.5511 -2.0011 0.9731
-6.4569 -0.6073 -1.9948 0.9732
-6.3671 -1.1788 -1.9917 0.9733
-6.2272 -1.7392 -1.9887 0.9733
-6.0385 -2.2843 -1.9858 0.9733
-5.8026 -2.8097 -1.9830 0.9734
-5.1980 -3.7861 -1.9779 0.9734
-4.4332 -4.6391 -1.9737 0.9735
-3.5326 -5.3436 -1.9703 0.9735
-3.0399 -5.6336 -1.9689 0.9736
-2.5241 -5.8790 -1.9679 0.9736
-1.9890 -6.0782 -1.9671 0.9736
-1.4387 -6.2296 -1.9665 0.9736
-0.8773 -6.3323 -1.9663 0.9736
-0.3092 -6.3853 -1.9663 0.9736
0.2615 -6.3884 -1.9666 0.9736
0.8303 -6.3415 -1.9672 0.9736
1.3931 -6.2449 -1.9680 0.9736
1.9455 -6.0992 -1.9691 0.9736
2.4833 -5.9055 -1.9705 0.9735
3.0025 -5.6652 -1.9721 0.9735
3.4990 -5.3799 -1.9739 0.9735
3.9689 -5.0517 -1.9760 0.9735
5.5128 -3.3626 -1.9862 0.9733
5.7992 -2.8618 -1.9891 0.9733
6.2345 -1.7917 -1.9952 0.9732
6.4743 -0.6578 -2.0016 0.9731
6.5176 -0.0780 -2.0048 0.9731
6.4482 1.0844 -2.0112 0.9730
6.3356 1.6576 -2.0143 0.9730
5.9578 2.7647 -2.0202 0.9729
5.3861 3.7890 -2.0255 0.9728
5.0327 4.2592 -2.0279 0.9728
4.2047 5.0959 -2.0321 0.9727
3.2377 5.7708 -2.0352 0.9727
1.5940 6.4184 -2.0341 0.9727
0.9890 6.3657 -1.9814 0.9734
-0.1496 6.1206 -1.8831 0.9747
-0.6946 6.0811 -1.8826 0.9747
-2.2756 5.6710 -1.8795 0.9748
-2.7699 5.4410 -1.8779 0.9748
-3.9790 5.2399 -2.0237 0.9728
-4.8461 4.4494 -2.0235 0.9728
-6.0608 2.4601 -2.0119 0.9730
-6.3812 1.3402 -2.0055 0.9731
-6.4649 0.7646 -2.0023 0.9731
-6.4771 -0.3947 -1.9959 0.9732
-6.4061 -0.9691 -1.9928 0.9733
-6.1136 -2.0854 -1.9868 0.9733
-5.8950 -2.6185 -1.9840 0.9734
-4.1623 -4.8786 -1.9725 0.9735
-3.7076 -5.2259 -1.9708 0.9735
-3.2245 -5.5317 -1.9694 0.9736
-2.1883 -6.0102 -1.9673 0.9736
-1.6431 -6.1794 -1.9667 0.9736
1.1865 -6.2863 -1.9677 0.9736
2.2870 -5.9825 -1.9699 0.9736
3.3188 -5.4902 -1.9732 0.9735
4.6691 -4.4307 -1.9798 0.9734
5.3963 -3.5404 -1.9851 0.9734
5.6987 -3.0495 -1.9880 0.9733
5.9569 -2.5330 -1.9910 0.9733
6.1686 -1.9948 -1.9941 0.9732
6.3319 -1.4390 -1.9972 0.9732
6.4453 -0.8701 -2.0004 0.9731
6.4767 0.8710 -2.0100 0.9730
6.3831 1.4473 -2.0131 0.9730
6.0424 2.5657 -2.0191 0.9729
5.1680 4.0895 -2.0270 0.9728
3.9131 5.3276 -2.0332 0.9727
2.9086 5.9463 -2.0360 0.9727
2.3680 6.1851 -2.0371 0.9727
1.8066 6.3700 -2.0365 0.9727
0.6084 6.2027 -1.9170 0.9743
-0.4941 6.1014 -1.8828 0.9747
-1.5687 5.9115 -1.8812 0.9747
-3.1492 5.4089 -1.9251 0.9741
-4.2740 5.0147 -2.0266 0.9728
-4.6992 4.6087 -2.0245 0.9728
-5.0848 4.1658 -2.0218 0.9729
-5.4284 3.6907 -2.0190 0.9729
-6.1837 2.1127 -2.0099 0.9730
-6.4400 0.9776 -2.0035 0.9731
-6.4911 0.3988 -2.0003 0.9732
-6.4904 -0.1813 -1.9971 0.9732
-6.4382 -0.7582 -1.9939 0.9732
-6.3352 -1.3272 -1.9909 0.9733
-6.1823 -1.8840 -1.9879 0.9733
-5.7332 -2.9439 -1.9823 0.9734
-4.7324 -4.3406 -1.9751 0.9735
-4.3221 -4.7406 -1.9732 0.9735
-2.9066 -5.7024 -1.9686 0.9736
-2.3853 -5.9358 -1.9676 0.9736
-0.1595 -6.3910 -1.9663 0.9736
0.9788 -6.3209 -1.9674 0.9736
1.5393 -6.2114 -1.9683 0.9736
2.0882 -6.0530 -1.9694 0.9736
2.6216 -5.8469 -1.9709 0.9735
3.6251 -5.2978 -1.9745 0.9735
4.0874 -4.9588 -1.9766 0.9735
4.5186 -4.5799 -1.9789 0.9734
5.2741 -3.7142 -1.9841 0.9734
6.2774 -1.6457 -1.9960 0.9732
6.4906 -0.5061 -2.0024 0.9731
6.4981 0.6570 -2.0089 0.9730
6.4236 1.2357 -2.0120 0.9730
6.2975 1.8063 -2.0151 0.9730
6.1204 2.3642 -2.0181 0.9729
5.8935 2.9046 -2.0209 0.9729
4.9330 4.3773 -2.0285 0.9728
4.5278 4.8048 -2.0306 0.9727
4.0851 5.1942 -2.0325 0.9727
2.0163 6.3102 -2.0375 0.9727
1.4420 6.4488 -2.0325 0.9727
0.8276 6.2958 -1.9531 0.9738
0.2535 6.1178 -1.8833 0.9747
-0.8369 6.0626 -1.8824 0.9747
-1.3735 5.9611 -1.8816 0.9747
-2.4074 5.6150 -1.8791 0.9748
-3.5692 5.4050 -1.9922 0.9733
-4.9473 4.3331 -2.0228 0.9729
-5.3068 3.8694 -2.0201 0.9729
-6.1143 2.3165 -2.0111 0.9730
-6.4783 0.6126 -2.0015 0.9731
-6.0608 -2.2272 -1.9861 0.9733
-5.5536 -3.2595 -1.9806 0.9734
-5.2343 -3.7371 -1.9782 0.9734
-4.8746 -4.1842 -1.9759 0.9735
-0.9374 -6.3237 -1.9663 0.9736
0.7701 -6.3489 -1.9671 0.9736
2.4270 -5.9283 -1.9703 0.9735
2.9483 -5.6929 -1.9719 0.9735
3.4474 -5.4123 -1.9737 0.9735
5.4798 -3.4142 -1.9859 0.9733
5.7709 -2.9162 -1.9888 0.9733
6.2162 -1.8504 -1.9949 0.9732
6.3665 -1.2908 -1.9980 0.9732
6.4666 -0.7191 -2.0012 0.9731
6.5124 0.4424 -2.0077 0.9731
6.4571 1.0230 -2.0108 0.9730
6.1915 2.1603 -2.0170 0.9729
5.9828 2.7077 -2.0199 0.9729
5.7254 3.2348 -2.0226 0.9729
5.4211 3.7372 -2.0252 0.9728
5.0723 4.2108 -2.0277 0.9728
4.2525 5.0553 -2.0319 0.9727
3.7880 5.4190 -2.0336 0.9727
1.0558 6.3947 -1.9935 0.9732
-1.1767 6.0042 -1.8819 0.9747
5.7866 -1.6037 -1.9960 0.9750
5.9153 -1.0829 -1.9989 0.9750
5.9972 -0.5519 -2.0019 0.9749
6.0314 -0.0150 -2.0049 0.9749
6.0176 0.5237 -2.0079 0.9749
5.8457 1.5888 -2.0136 0.9748
5.4852 2.6089 -2.0191 0.9747
4.6152 3.9816 -2.0261 0.9746
3.4058 5.0746 -2.0315 0.9746
2.9416 5.3616 -2.0328 0.9746
0.8811 6.0486 -2.0318 0.9746
0.3363 6.0690 -2.0205 0.9747
-0.7116 5.7461 -1.9246 0.9759
-1.2143 5.6279 -1.9138 0.9760
-2.2479 5.4517 -1.9602 0.9754
-3.2857 5.1299 -2.0250 0.9746
-3.7322 4.8193 -2.0262 0.9746
-4.1426 4.4624 -2.0240 0.9747
-4.5187 4.0705 -2.0216 0.9747
-4.8576 3.6468 -2.0191 0.9747
-5.4136 2.7186 -2.0137 0.9748
-5.6265 2.2219 -2.0108 0.9748
-5.9874 0.6506 -2.0020 0.9749
-5.9900 -0.4221 -1.9960 0.9750
-5.9199 -0.9531 -1.9932 0.9750
-5.6408 -1.9840 -1.9876 0.9751
-5.1854 -2.9469 -1.9826 0.9752
-4.5693 -3.8126 -1.9781 0.9752
-4.2070 -4.2007 -1.9762 0.9753
-2.9383 -5.1525 -1.9716 0.9753
-2.4658 -5.3911 -1.9706 0.9753
-1.4680 -5.7394 -1.9692 0.9753
2.1713 -5.5222 -1.9724 0.9753
3.1226 -5.0566 -1.9755 0.9753
3.9790 -4.4303 -1.9794 0.9752
4.7137 -3.6616 -1.9841 0.9752
5.0279 -3.2309 -1.9866 0.9751
5.9725 -0.7486 -2.0008 0.9749
5.5655 2.4258 -2.0181 0.9747
5.0586 3.3842 -2.0231 0.9747
4.7420 3.8261 -2.0254 0.9746
4.3864 4.2380 -2.0274 0.9746
3.9947 4.6165 -2.0293 0.9746
2.6358 5.5207 -2.0335 0.9745
2.1340 5.7363 -2.0344 0.9745
1.6145 5.9056 -2.0351 0.9745
1.0807 6.0217 -2.0336 0.9745
0.5382 6.0801 -2.0290 0.9746
-0.0060 5.9501 -1.9779 0.9752
-0.5243 5.7910 -1.9328 0.9758
-1.5331 5.5641 -1.9185 0.9760
-2.6019 5.4217 -1.9990 0.9750
-3.5729 4.9414 -2.0269 0.9746
-4.7372 3.8065 -2.0200 0.9747
-5.0512 3.3646 -2.0174 0.9747
-5.8753 1.3785 -2.0060 0.9749
-5.9660 0.8478 -2.0031 0.9749
-5.9512 -0.7581 -1.9942 0.9750
-5.8516 -1.2840 -1.9914 0.9751
-5.7059 -1.7981 -1.9886 0.9751
-5.5154 -2.2967 -1.9860 0.9751
-5.2820 -2.7759 -1.9835 0.9752
-5.0075 -3.2319 -1.9811 0.9752
-4.6941 -3.6615 -1.9789 0.9752
-3.9614 -4.4285 -1.9751 0.9753
-3.5478 -4.7603 -1.9735 0.9753
-3.1071 -5.0541 -1.9721 0.9753
-2.6425 -5.3080 -1.9710 0.9753
0.9624 -5.8477 -1.9700 0.9753
1.9879 -5.5894 -1.9719 0.9753
2.4800 -5.3935 -1.9733 0.9753
3.8295 -4.5571 -1.9786 0.9752
4.2252 -4.2021 -1.9808 0.9752
4.5885 -3.8131 -1.9832 0.9752
6.0108 -0.4114 -2.0027 0.9749
5.6396 2.2402 -2.0171 0.9747
5.4244 2.7377 -2.0197 0.9747
5.1650 3.2144 -2.0222 0.9747
4.8634 3.6664 -2.0245 0.9747
4.5219 4.0898 -2.0267 0.9746
3.7302 4.8368 -2.0304 0.9746
3.2865 5.1539 -2.0319 0.9746
2.8156 5.4298 -2.0331 0.9745
-0.3358 5.8465 -1.9466 0.9756
-0.8442 5.7152 -1.9204 0.9759
-1.3455 5.5965 -1.9133 0.9760
-3.8431 4.7292 -2.0256 0.9746
-4.2448 4.3628 -2.0234 0.9747
-4.6114 3.9622 -2.0210 0.9747
-5.2283 3.0721 -2.0157 0.9748
-5.4738 2.5900 -2.0129 0.9748
-5.6748 2.0886 -2.0101 0.9748
-5.9986 0.5099 -2.0012 0.9749
-6.0113 -0.0270 -1.9982 0.9750
-5.9762 -0.5621 -1.9953 0.9750
-5.8937 -1.0912 -1.9924 0.9751
-5.7649 -1.6101 -1.9896 0.9751
-5.5908 -2.1149 -1.9869 0.9751
-5.3730 -2.6017 -1.9844 0.9752
-5.1133 -3.0667 -1.9819 0.9752
-4.1064 -4.2971 -1.9757 0.9753
-3.7037 -4.6422 -1.9740 0.9753
-3.2725 -4.9503 -1.9726 0.9753
-2.8163 -5.2192 -1.9713 0.9753
-2.3385 -5.4468 -1.9704 0.9753
-1.3330 -5.7719 -1.9691 0.9753
-0.8129 -5.8671 -1.9689 0.9753
-0.2865 -5.9162 -1.9689 0.9753
0.2423 -5.9190 -1.9692 0.9753
2.7813 -5.2478 -1.9743 0.9753
3.6760 -4.6789 -1.9779 0.9752
4.0829 -4.3371 -1.9800 0.9752
4.4585 -3.9603 -1.9823 0.9752
5.3686 -2.6493 -1.9900 0.9751
5.9038 -1.1388 -1.9986 0.9750
5.9645 1.0030 -2.0105 0.9748
5.5090 2.5565 -2.0188 0.9747
4.6523 3.9372 -2.0259 0.9746
4.2869 4.3407 -2.0279 0.9746
3.8863 4.7099 -2.0298 0.9746
2.5060 5.5817 -2.0338 0.9745
1.9992 5.7853 -2.0346 0.9745
1.4757 5.9422 -2.0352 0.9745
0.3953 6.0878 -2.0279 0.9746
-0.6578 5.7586 -1.9266 0.9759
-2.1903 5.4584 -1.9550 0.9755
-2.7534 5.4085 -2.0174 0.9747
-4.1006 4.5021 -2.0242 0.9747
-4.8235 3.6932 -2.0194 0.9747
-5.7782 1.7640 -2.0082 0.9749
-5.9947 -0.3653 -1.9964 0.9750
-5.9296 -0.8970 -1.9935 0.9750
-5.8177 -1.4202 -1.9906 0.9751
-5.4583 -2.4245 -1.9853 0.9751
-5.2138 -2.8980 -1.9828 0.9752
-4.9289 -3.3474 -1.9805 0.9752
-4.6057 -3.7695 -1.9784 0.9752
-3.8556 -4.5192 -1.9746 0.9753
-2.9873 -5.1247 -1.9718 0.9753
-2.5170 -5.3677 -1.9707 0.9753
-1.5224 -5.7253 -1.9693 0.9753
-0.4811 -5.9035 -1.9689 0.9753
1.0993 -5.8241 -1.9702 0.9753
2.1187 -5.5422 -1.9723 0.9753
2.6063 -5.3350 -1.9737 0.9753
3.0742 -5.0855 -1.9753 0.9753
3.5187 -4.7956 -1.9772 0.9752
3.9364 -4.4674 -1.9792 0.9752
4.3239 -4.1032 -1.9814 0.9752
4.6781 -3.7057 -1.9838 0.9752
5.2758 -2.8232 -1.9890 0.9751
5.7095 -1.8463 -1.9946 0.9750
6.0211 -0.2705 -2.0035 0.9749
6.0302 0.2679 -2.0064 0.9749
5.7690 1.8624 -2.0151 0.9748
5.5875 2.3726 -2.0178 0.9747
5.3605 2.8650 -2.0204 0.9747
5.0898 3.3356 -2.0228 0.9747
4.0379 4.5780 -2.0291 0.9746
3.6166 4.9239 -2.0308 0.9746
2.6879 5.4951 -2.0334 0.9745
1.1381 6.0127 -2.0341 0.9745
0.5960 6.0760 -2.0294 0.9746
-0.9763 5.6842 -1.9171 0.9760
-1.4788 5.5726 -1.9165 0.9760
-3.0630 5.2608 -2.0235 0.9747
-3.9517 4.6365 -2.0250 0.9746
-4.7015 3.8518 -2.0203 0.9747
-5.0197 3.4128 -2.0177 0.9747
-5.2969 2.9477 -2.0150 0.9748
-5.7200 1.9543 -2.0093 0.9748
-6.0066 0.3690 -2.0004 0.9750
-6.0067 -0.1678 -1.9974 0.9750
-5.9591 -0.7017 -1.9945 0.9750
-5.8644 -1.2286 -1.9917 0.9751
-5.7235 -1.7442 -1.9889 0.9751
-5.0385 -3.1847 -1.9813 0.9752
-4.3833 -4.0204 -1.9771 0.9752
-1.7102 -5.6727 -1.9695 0.9753
0.3809 -5.9121 -1.9693 0.9753
0.9069 -5.8563 -1.9699 0.9753
1.9346 -5.6076 -1.9718 0.9753
2.9042 -5.1823 -1.9747 0.9753
3.3577 -4.9071 -1.9765 0.9752
3.7857 -4.5927 -1.9784 0.9752
4.8834 -3.4390 -1.9854 0.9751
5.4312 -2.5237 -1.9907 0.9751
6.0325 0.0692 -2.0054 0.9749
2.8668 5.4025 -2.0330 0.9745
2.3748 5.6395 -2.0340 0.9745
0.7963 6.0580 -2.0310 0.9746
0.2501 6.0360 -2.0081 0.9749
-1.2924 5.6092 -1.9134 0.9760
-3.3577 5.0848 -2.0255 0.9746
-3.7985 4.7660 -2.0258 0.9746
-4.5742 4.0063 -2.0212 0.9747
-4.9070 3.5780 -2.0187 0.9747
-5.1996 3.1220 -2.0160 0.9748
-5.6556 2.1427 -2.0104 0.9748
-5.9289 1.1008 -2.0045 0.9749
-5.9945 0.5669 -2.0015 0.9749
-5.9822 -0.5055 -1.9956 0.9750
-5.9047 -1.0354 -1.9927 0.9750
-5.7807 -1.5556 -1.9899 0.9751
-5.3981 -2.5509 -1.9846 0.9751
-5.1429 -3.0184 -1.9822 0.9752
-4.1474 -4.2584 -1.9759 0.9753
-3.7479 -4.6073 -1.9742 0.9753
-2.8659 -5.1925 -1.9715 0.9753
-2.3902 -5.4246 -1.9704 0.9753
-0.3426 -5.9132 -1.9689 0.9753
1.2357 -5.7974 -1.9704 0.9753
2.2484 -5.4920 -1.9726 0.9753
2.7312 -5.2735 -1.9741 0.9753
3.1933 -5.0133 -1.9758 0.9753
4.7653 -3.5962 -1.9845 0.9751
5.7534 -1.7127 -1.9954 0.9750
5.8918 -1.1946 -1.9983 0.9750
6.0246 0.4093 -2.0072 0.9749
5.8730 1.4772 -2.0130 0.9748
5.2936 2.9908 -2.0211 0.9747
5.0118 3.4550 -2.0235 0.9747
4.6889 3.8925 -2.0257 0.9746
4.3275 4.2994 -2.0277 0.9746
3.9304 4.6724 -2.0296 0.9746
3.5009 5.0083 -2.0312 0.9746
3.0424 5.3041 -2.0326 0.9746
1.5320 5.9278 -2.0352 0.9745
0.4532 6.0851 -2.0283 0.9746
-0.0886 5.9223 -1.9688 0.9753
-0.6038 5.7711 -1.9288 0.9758
-1.6133 5.5514 -1.9217 0.9759
-2.1340 5.4676 -1.9510 0.9756
-2.6917 5.4138 -2.0098 0.9748
5.3799 -1.4910 -1.9964 0.9766
5.4989 -1.0067 -1.9991 0.9765
5.4314 1.4762 -2.0128 0.9764
4.2863 3.6979 -2.0244 0.9762
3.1624 4.7120 -2.0294 0.9762
2.2776 5.2045 -2.0316 0.9762
1.8052 5.3889 -2.0324 0.9761
0.3143 5.6723 -2.0316 0.9762
-0.1924 5.6692 -2.0285 0.9762
-0.6965 5.6236 -2.0264 0.9762
-1.6830 5.4063 -2.0248 0.9762
-2.6192 5.0265 -2.0269 0.9762
-3.0561 4.7714 -2.0263 0.9762
-3.4662 4.4758 -2.0244 0.9762
-4.1973 3.7810 -2.0202 0.9763
-5.4969 1.1001 -2.0047 0.9765
-5.5654 0.6047 -2.0019 0.9765
-5.5894 0.1059 -1.9992 0.9765
-5.5690 -0.3924 -1.9964 0.9766
-5.3963 -1.3717 -1.9911 0.9766
-4.8232 -2.7411 -1.9839 0.9767
-3.9140 -3.9082 -1.9780 0.9768
-3.1527 -4.5343 -1.9749 0.9768
-2.2946 -5.0167 -1.9727 0.9768
-1.8374 -5.1993 -1.9720 0.9768
-0.8842 -5.4408 -1.9712 0.9769
0.0963 -5.5117 -1.9713 0.9769
0.5875 -5.4824 -1.9718 0.9768
1.0744 -5.4100 -1.9724 0.9768
1.5532 -5.2950 -1.9733 0.9768
2.4722 -4.9411 -1.9758 0.9768
3.3160 -4.4307 -1.9791 0.9768
4.3842 -3.4057 -1.9853 0.9767
4.9315 -2.5791 -1.9902 0.9766
5.3252 -1.6664 -1.9954 0.9766
5.5994 -0.1984 -2.0036 0.9765
5.6025 0.3021 -2.0064 0.9764
5.5608 0.8016 -2.0091 0.9764
5.4744 1.2960 -2.0118 0.9764
5.3440 1.7813 -2.0144 0.9764
5.1703 2.2535 -2.0169 0.9763
4.9546 2.7088 -2.0193 0.9763
4.4041 3.5535 -2.0237 0.9762
4.0736 3.9358 -2.0256 0.9762
3.7096 4.2870 -2.0273 0.9762
3.3150 4.6042 -2.0289 0.9762
2.4473 5.1259 -2.0313 0.9762
1.9813 5.3259 -2.0321 0.9761
1.4990 5.4830 -2.0327 0.9761
0.5012 5.6627 -2.0329 0.9761
-1.0117 5.5731 -2.0255 0.9762
-1.5041 5.4586 -2.0248 0.9762
-1.9851 5.3035 -2.0251 0.9762
-2.4516 5.1083 -2.0262 0.9762
-2.8983 4.8710 -2.0269 0.9762
-3.7105 4.2707 -2.0232 0.9763
-4.4005 3.5360 -2.0187 0.9763
-4.6926 3.1257 -2.0163 0.9763
-5.1600 2.2367 -2.0112 0.9764
-5.4604 1.2811 -2.0057 0.9765
-5.5817 -0.2090 -1.9974 0.9766
-5.5333 -0.7049 -1.9947 0.9766
-5.3062 -1.6722 -1.9895 0.9766
-5.1296 -2.1360 -1.9871 0.9767
-4.9129 -2.5819 -1.9847 0.9767
-4.6579 -3.0064 -1.9825 0.9767
-4.0418 -3.7785 -1.9786 0.9768
-3.3011 -4.4292 -1.9754 0.9768
-2.8911 -4.7029 -1.9741 0.9768
-2.4589 -4.9393 -1.9731 0.9768
-1.5413 -5.2936 -1.9716 0.9769
-1.0629 -5.4089 -1.9713 0.9769
-0.5763 -5.4818 -1.9711 0.9769
-0.0852 -5.5116 -1.9712 0.9769
0.8956 -5.4417 -1.9722 0.9768
1.8497 -5.2009 -1.9740 0.9768
2.7479 -4.7962 -1.9767 0.9768
4.2680 -3.5467 -1.9845 0.9767
4.5725 -3.1557 -1.9868 0.9767
4.8417 -2.7387 -1.9892 0.9766
5.0731 -2.2990 -1.9918 0.9766
5.2649 -1.8399 -1.9944 0.9766
5.5870 -0.3824 -2.0026 0.9765
5.6066 0.1175 -2.0054 0.9765
5.5114 1.1145 -2.0108 0.9764
4.7975 2.9858 -2.0208 0.9763
4.5170 3.4053 -2.0229 0.9763
3.4639 4.4914 -2.0283 0.9762
3.0517 4.7856 -2.0297 0.9762
2.6143 5.0416 -2.0309 0.9762
0.6875 5.6437 -2.0331 0.9761
0.1812 5.6757 -2.0307 0.9762
-0.3251 5.6613 -2.0279 0.9762
-0.8279 5.6047 -2.0260 0.9762
-2.2814 5.1847 -2.0256 0.9762
-2.7370 4.9649 -2.0274 0.9762
-3.5692 4.3922 -2.0239 0.9762
-3.9426 4.0523 -2.0218 0.9763
-4.2835 3.6805 -2.0196 0.9763
-5.0860 2.4066 -2.0121 0.9764
-5.4181 1.4609 -2.0067 0.9764
-5.5192 0.9706 -2.0040 0.9765
-5.5760 0.4740 -2.0012 0.9765
-5.5883 -0.0251 -1.9984 0.9765
-5.4802 -1.0146 -1.9931 0.9766
-4.1654 -3.6446 -1.9793 0.9768
-3.4460 -4.3193 -1.9760 0.9768
-2.1761 -5.0685 -1.9725 0.9768
-1.7149 -5.2405 -1.9718 0.9768
-0.2666 -5.5057 -1.9712 0.9769
0.7159 -5.4675 -1.9719 0.9768
1.2010 -5.3839 -1.9726 0.9768
2.1406 -5.0904 -1.9748 0.9768
3.0153 -4.6363 -1.9778 0.9768
3.4198 -4.3528 -1.9795 0.9768
3.7981 -4.0345 -1.9815 0.9767
4.1472 -3.6837 -1.9836 0.9767
4.7467 -2.8953 -1.9883 0.9767
4.9923 -2.4636 -1.9908 0.9766
5.1989 -2.0112 -1.9934 0.9766
5.3647 -1.5417 -1.9961 0.9766
5.5685 -0.5658 -2.0016 0.9765
5.6046 -0.0671 -2.0044 0.9765
5.5959 0.4335 -2.0071 0.9764
5.4444 1.4244 -2.0125 0.9764
5.3025 1.9067 -2.0151 0.9763
4.6249 3.2535 -2.0221 0.9763
4.3207 3.6566 -2.0242 0.9762
3.2068 4.6815 -2.0292 0.9762
2.7783 4.9518 -2.0305 0.9762
2.3268 5.1824 -2.0315 0.9762
1.8561 5.3714 -2.0323 0.9761
1.3701 5.5169 -2.0328 0.9761
0.3682 5.6701 -2.0319 0.9762
-0.1387 5.6715 -2.0288 0.9762
-0.6431 5.6304 -2.0266 0.9762
-1.6316 5.4220 -2.0248 0.9762
-2.5712 5.0506 -2.0267 0.9762
-3.0109 4.8006 -2.0265 0.9762
-4.1618 3.8211 -2.0204 0.9763
-5.0065 2.5739 -2.0131 0.9764
-5.2092 2.1145 -2.0105 0.9764
-5.5602 0.6576 -2.0022 0.9765
-5.5890 0.1590 -1.9995 0.9765
-5.5732 -0.3396 -1.9967 0.9766
-5.5133 -0.8341 -1.9940 0.9766
-5.4098 -1.3206 -1.9914 0.9766
-5.2638 -1.7955 -1.9889 0.9767
-5.0765 -2.2549 -1.9864 0.9767
-4.5849 -3.1138 -1.9820 0.9767
-4.2847 -3.5067 -1.9800 0.9768
-3.9512 -3.8712 -1.9782 0.9768
-3.1958 -4.5045 -1.9751 0.9768
-2.7797 -4.7686 -1.9738 0.9768
-2.3422 -4.9949 -1.9728 0.9768
-0.4477 -5.4938 -1.9711 0.9769
0.0440 -5.5123 -1.9713 0.9769
1.0230 -5.4197 -1.9723 0.9768
1.9714 -5.1570 -1.9743 0.9768
2.4250 -4.9639 -1.9756 0.9768
2.8602 -4.7315 -1.9772 0.9768
3.6618 -4.1558 -1.9808 0.9767
4.3512 -3.4467 -1.9851 0.9767
4.9062 -2.6254 -1.9899 0.9766
5.5964 -0.2514 -2.0033 0.9765
5.6043 0.2489 -2.0061 0.9765
5.5673 0.7487 -2.0088 0.9764
5.4857 1.2438 -2.0115 0.9764
5.3599 1.7303 -2.0141 0.9764
5.1907 2.2041 -2.0167 0.9763
4.9795 2.6614 -2.0191 0.9763
4.7276 3.0982 -2.0213 0.9763
4.4371 3.5112 -2.0235 0.9762
4.1103 3.8966 -2.0254 0.9762
3.7497 4.2512 -2.0272 0.9762
3.3583 4.5722 -2.0287 0.9762
2.0317 5.3067 -2.0320 0.9762
1.5509 5.4684 -2.0327 0.9761
