ply
format ascii 1.0
element vertex 1603
property float32 x
property float32 y
property float32 z
property float32 I
end_header
2.6542 5.4177 0.7856 0.9760
2.2377 5.8362 0.8139 0.9751
0.6362 6.4789 0.8477 0.9741
0.0586 6.9142 0.9004 0.9725
-0.5776 7.1198 0.9302 0.9716
-2.3055 2.2559 0.4200 0.9871
19.1009 -3.0960 2.5198 0.9249
14.4005 -1.0281 1.8800 0.9434
11.7810 0.2137 1.5344 0.9536
10.8392 1.1703 1.4197 0.9570
9.2145 1.8388 1.2236 0.9628
7.4278 2.9306 1.0398 0.9683
6.6462 3.3361 0.9684 0.9704
4.7495 4.2801 0.8326 0.9745
3.7252 4.8146 0.7927 0.9757
3.2620 5.0994 0.7883 0.9759
2.3718 5.7658 0.8119 0.9752
1.8706 6.0290 0.8220 0.9749
0.2185 6.6993 0.8728 0.9733
11.8249 0.2986 1.2702 0.9535
10.6934 1.2315 1.1559 0.9576
8.2567 2.4953 0.9262 0.9659
7.3500 2.9605 0.8509 0.9686
6.6396 3.3921 0.8006 0.9705
5.9011 3.7140 0.7487 0.9723
5.2909 4.0318 0.7143 0.9736
3.2200 5.1133 0.6489 0.9760
1.8279 6.0430 0.6779 0.9749
0.7404 6.4154 0.6935 0.9744
-0.4641 7.2501 0.7801 0.9712
-1.1452 7.4100 0.8051 0.9703
13.1685 -2.3652 1.4367 0.9476
11.1216 1.0096 1.1992 0.9561
9.6743 1.7599 1.0559 0.9612
7.5846 2.8443 0.8698 0.9679
5.4500 3.9489 0.7227 0.9733
4.7941 4.1746 0.6826 0.9748
4.4199 4.6045 0.6854 0.9746
3.9051 4.8734 0.6706 0.9752
3.3498 5.0454 0.6503 0.9759
1.9647 5.9712 0.6750 0.9750
1.4098 6.0631 0.6684 0.9753
0.3294 6.6319 0.7130 0.9736
-0.2849 7.1555 0.7690 0.9716
-0.9493 7.3066 0.7912 0.9708
2.3244 -0.9302 0.2688 0.9900
12.8787 -2.6354 1.4116 0.9485
13.0986 -0.3015 1.4069 0.9487
7.8233 2.7203 0.8894 0.9672
6.3147 3.5611 0.7785 0.9713
5.6130 3.8640 0.7317 0.9730
4.0419 4.8020 0.6740 0.9751
2.1003 5.9000 0.6725 0.9751
-0.1106 7.0636 0.7586 0.9720
-0.7600 7.2066 0.7781 0.9713
13.2105 -0.6233 1.4201 0.9482
10.4094 1.3787 1.1275 0.9586
9.1165 2.0492 1.0034 0.9631
8.0731 2.5906 0.9104 0.9665
7.1946 3.0412 0.8388 0.9691
6.5029 3.4631 0.7911 0.9708
5.7803 3.7768 0.7415 0.9726
5.1808 4.0892 0.7087 0.9738
4.1801 4.7297 0.6778 0.9749
3.5892 4.8777 0.6503 0.9759
3.0872 5.0928 0.6395 0.9763
2.2350 5.8293 0.6704 0.9752
1.1727 6.1878 0.6763 0.9750
0.0591 6.9741 0.7489 0.9723
-0.5861 7.2252 0.7784 0.9713
-1.2877 7.4853 0.8156 0.9699
-2.3040 2.2545 0.3461 0.9871
12.3390 -3.1520 1.3675 0.9501
19.0293 -3.0844 2.0701 0.9254
13.8647 -0.9899 1.4926 0.9456
11.7804 0.2137 1.2652 0.9537
9.4366 1.8831 1.0333 0.9620
8.3352 2.4546 0.9331 0.9656
7.4163 2.9261 0.8561 0.9684
6.6976 3.3619 0.8047 0.9703
5.9522 3.6874 0.7519 0.9722
4.7436 4.2748 0.6857 0.9746
3.7207 4.8089 0.6529 0.9758
3.2581 5.0933 0.6493 0.9760
2.7799 5.3439 0.6468 0.9761
2.3690 5.7590 0.6687 0.9753
-0.4108 7.2219 0.7768 0.9713
9.3231 1.9295 0.8060 0.9625
6.6301 3.3872 0.6303 0.9706
5.8931 3.7090 0.5894 0.9724
3.2162 5.1074 0.5109 0.9761
2.7388 5.3575 0.5093 0.9761
2.3102 5.7314 0.5231 0.9755
1.2699 6.1284 0.5298 0.9752
-0.4634 7.2402 0.6142 0.9713
-1.1435 7.3993 0.6338 0.9704
-2.2606 2.2887 0.2723 0.9872
11.6476 -3.1876 1.0223 0.9527
11.8151 -2.1221 1.0162 0.9530
12.8025 -1.1334 1.0880 0.9497
11.8972 0.0133 1.0071 0.9534
11.0976 1.0074 0.9433 0.9563
9.6559 1.7565 0.8308 0.9614
6.1239 3.6509 0.6035 0.9718
5.4429 3.9437 0.5690 0.9734
4.7881 4.1694 0.5375 0.9748
4.4145 4.5989 0.5396 0.9747
3.9004 4.8677 0.5280 0.9753
3.3459 5.0394 0.5121 0.9760
2.3901 5.5403 0.5108 0.9761
1.4081 6.0558 0.5263 0.9754
0.8859 6.3304 0.5411 0.9747
0.3290 6.6234 0.5614 0.9737
-0.9480 7.2962 0.6228 0.9709
2.3223 -0.9294 0.2117 0.9900
11.5759 -2.3688 1.0002 0.9537
13.2511 -0.3050 1.1220 0.9482
10.0101 1.5725 0.8578 0.9601
6.9713 3.1472 0.6475 0.9698
5.6056 3.8589 0.5761 0.9731
5.0213 4.1637 0.5522 0.9742
4.0370 4.7962 0.5307 0.9751
3.4763 4.9712 0.5135 0.9759
2.0828 5.8507 0.5257 0.9754
0.4834 6.5421 0.5553 0.9740
11.3465 -2.6086 0.9856 0.9543
12.2481 -1.6831 1.0466 0.9516
13.2860 -0.6268 1.1259 0.9480
11.8384 0.5007 1.0031 0.9535
7.1837 3.0366 0.6602 0.9692
6.4938 3.4582 0.6228 0.9709
4.1751 4.7240 0.5337 0.9750
2.6480 5.4051 0.5095 0.9761
2.2164 5.7806 0.5241 0.9755
0.0590 6.9650 0.5896 0.9724
-1.2858 7.4743 0.6420 0.9700
-2.3026 2.2530 0.2727 0.9872
11.9902 -1.9435 1.0282 0.9524
13.0119 -0.9290 1.1043 0.9490
11.7799 0.2137 0.9974 0.9538
8.3976 2.4729 0.7411 0.9655
6.6879 3.3571 0.6335 0.9704
5.9442 3.6824 0.5919 0.9723
4.7377 4.2694 0.5399 0.9747
4.3148 4.6510 0.5371 0.9749
3.7163 4.8032 0.5141 0.9759
1.8527 5.9715 0.5293 0.9752
1.3108 6.1070 0.5287 0.9752
0.7829 6.3845 0.5445 0.9745
-0.4102 7.2121 0.6115 0.9714
10.8890 1.2540 0.6797 0.9570
9.3061 1.9259 0.5893 0.9626
7.3276 2.9514 0.4899 0.9688
6.6206 3.3824 0.4610 0.9706
5.8852 3.7040 0.4312 0.9725
5.2773 4.0214 0.4114 0.9738
4.6891 4.2865 0.3940 0.9749
3.2125 5.1014 0.3738 0.9761
2.7356 5.3513 0.3727 0.9762
2.3242 5.7661 0.3855 0.9754
0.7386 6.3994 0.3995 0.9745
-1.1419 7.3886 0.4636 0.9705
2.3646 -0.8807 0.1565 0.9899
11.4813 -2.0622 0.7234 0.9543
11.8675 0.0132 0.7359 0.9536
9.6377 1.7532 0.6074 0.9615
8.5772 2.3679 0.5518 0.9650
7.5610 2.8354 0.5007 0.9682
6.8192 3.2788 0.4692 0.9701
5.4359 3.9386 0.4163 0.9735
4.4092 4.5933 0.3948 0.9748
3.8958 4.8619 0.3863 0.9753
2.8640 5.2839 0.3727 0.9762
2.3873 5.5338 0.3737 0.9761
1.9601 5.9571 0.3889 0.9752
0.3285 6.6149 0.4107 0.9738
-0.2841 7.1363 0.4429 0.9718
-0.9466 7.2858 0.4556 0.9710
11.3453 -2.3216 0.7181 0.9546
11.8604 -1.3391 0.7401 0.9533
11.5318 0.7668 0.7167 0.9547
9.9905 1.5694 0.6271 0.9603
8.8641 2.2184 0.5666 0.9640
6.9610 3.1426 0.4736 0.9699
3.4722 4.9654 0.3757 0.9760
2.5163 5.4662 0.3732 0.9762
2.0954 5.8861 0.3874 0.9753
-0.1103 7.0449 0.4369 0.9722
-0.7579 7.1865 0.4481 0.9715
9.0837 2.0418 0.5773 0.9634
8.0468 2.5822 0.5240 0.9667
7.1729 3.0321 0.4829 0.9693
5.1676 4.0787 0.4082 0.9740
4.5694 4.3220 0.3900 0.9751
4.1701 4.7184 0.3905 0.9751
3.5808 4.8662 0.3746 0.9761
2.2298 5.8156 0.3862 0.9753
1.7266 6.0796 0.3919 0.9750
1.1699 6.1728 0.3896 0.9751
0.6338 6.4545 0.4022 0.9743
0.0589 6.9559 0.4314 0.9725
-0.5862 7.2264 0.4496 0.9714
-1.2839 7.4634 0.4696 0.9701
-2.3011 2.2516 0.1996 0.9872
11.5785 -1.8767 0.7274 0.9541
11.7793 0.2137 0.7306 0.9539
11.0869 1.1971 0.6915 0.9563
9.4016 1.8762 0.5945 0.9623
6.6784 3.3523 0.4634 0.9705
5.3236 3.9973 0.4128 0.9737
4.7318 4.2642 0.3950 0.9748
4.3096 4.6454 0.3929 0.9749
2.7734 5.3314 0.3727 0.9762
2.3635 5.7455 0.3852 0.9754
1.8639 6.0076 0.3901 0.9751
0.7819 6.3766 0.3984 0.9746
-1.0837 7.3580 0.4612 0.9706
-2.2513 2.3118 0.2001 0.9872
11.8232 0.2985 0.4664 0.9538
10.8884 1.2540 0.4322 0.9571
9.2891 1.9224 0.3740 0.9627
8.2157 2.4829 0.3384 0.9662
7.3165 2.9470 0.3110 0.9689
5.2706 4.0163 0.2613 0.9738
4.6834 4.2812 0.2502 0.9749
3.2087 5.0955 0.2374 0.9762
2.7324 5.3451 0.2367 0.9763
1.8215 6.0216 0.2481 0.9751
1.2669 6.1137 0.2462 0.9753
0.1706 6.6893 0.2639 0.9736
-1.1403 7.3780 0.2944 0.9706
12.0046 -1.0628 0.4752 0.9529
11.8379 0.0132 0.4668 0.9537
8.5627 2.3639 0.3503 0.9651
7.5493 2.8310 0.3179 0.9682
6.1073 3.6410 0.2804 0.9719
5.4289 3.9335 0.2644 0.9735
4.7762 4.1591 0.2497 0.9750
4.4039 4.5878 0.2508 0.9749
1.9578 5.9502 0.2470 0.9752
0.8837 6.3148 0.2514 0.9748
0.3281 6.6065 0.2608 0.9739
-0.2837 7.1268 0.2812 0.9719
-0.9453 7.2755 0.2893 0.9711
2.3205 -0.9287 0.0986 0.9900
12.9977 -3.8965 0.5350 0.9471
9.9712 1.5664 0.3980 0.9604
8.8487 2.2145 0.3597 0.9641
5.5910 3.8488 0.2676 0.9732
5.0087 4.1533 0.2566 0.9743
4.5465 4.5132 0.2526 0.9747
2.9891 5.2106 0.2369 0.9762
2.5134 5.4599 0.2370 0.9762
1.5408 5.9699 0.2431 0.9756
1.0272 6.2395 0.2493 0.9750
-0.1102 7.0357 0.2775 0.9722
11.7409 -1.6134 0.4673 0.9537
12.2586 -0.5784 0.4839 0.9521
11.8372 0.5007 0.4672 0.9537
10.3465 1.3704 0.4115 0.9591
9.0675 2.0381 0.3665 0.9635
7.1622 3.0275 0.3066 0.9694
5.7573 3.7618 0.2712 0.9728
5.1611 4.0736 0.2593 0.9740
4.5687 4.3215 0.2480 0.9751
4.1651 4.7128 0.2480 0.9751
0.0589 6.9469 0.2739 0.9726
-0.5863 7.2270 0.2859 0.9714
-1.2820 7.4525 0.2982 0.9702
14.2642 -3.6438 0.5805 0.9428
11.6760 -1.8925 0.4664 0.9538
12.1086 -0.8645 0.4787 0.9526
11.7787 0.2137 0.4645 0.9539
9.3843 1.8727 0.3773 0.9624
8.3696 2.4647 0.3440 0.9657
6.6689 3.3475 0.2942 0.9706
5.9282 3.6725 0.2750 0.9725
5.3168 3.9921 0.2622 0.9737
3.7076 4.7919 0.2389 0.9760
2.7702 5.3253 0.2367 0.9763
-0.4091 7.1927 0.2841 0.9716
-2.2520 2.3125 0.1273 0.9872
11.8226 0.2985 0.1998 0.9538
7.3054 2.9425 0.1330 0.9690
6.7339 3.4402 0.1277 0.9702
5.8695 3.6941 0.1171 0.9726
5.2639 4.0112 0.1118 0.9739
4.6776 4.2759 0.1071 0.9750
4.2582 4.6559 0.1066 0.9751
3.6646 4.8066 0.1021 0.9761
2.3188 5.7528 0.1048 0.9755
1.8194 6.0146 0.1061 0.9752
1.2653 6.1064 0.1053 0.9754
-0.4615 7.2108 0.1221 0.9715
-2.2601 2.2881 0.0543 0.9872
14.9790 -1.3261 0.2540 0.9416
11.8086 0.0132 0.1995 0.9539
9.6015 1.7466 0.1648 0.9617
7.5376 2.8266 0.1360 0.9683
6.2209 3.7088 0.1223 0.9714
4.3986 4.5823 0.1073 0.9749
2.8574 5.2718 0.1013 0.9763
2.3818 5.5210 0.1016 0.9762
1.4030 6.0342 0.1046 0.9755
0.3277 6.5981 0.1116 0.9739
-0.2834 7.1173 0.1203 0.9719
2.3197 -0.9283 0.0422 0.9901
15.4992 -1.7500 0.2635 0.9395
12.3785 -0.2849 0.2092 0.9517
11.4808 0.7635 0.1944 0.9550
8.8334 2.2107 0.1538 0.9642
2.9857 5.2046 0.1014 0.9763
2.5105 5.4536 0.1014 0.9763
2.0905 5.8724 0.1053 0.9754
0.4816 6.5174 0.1104 0.9742
-0.7558 7.1666 0.1217 0.9716
16.0503 -2.2056 0.2736 0.9372
11.8366 0.5006 0.2001 0.9537
10.3258 1.3677 0.1759 0.9592
9.0513 2.0345 0.1567 0.9636
7.1515 3.0230 0.1312 0.9694
4.5681 4.3209 0.1062 0.9752
3.5724 4.8549 0.1018 0.9762
2.2246 5.8021 0.1050 0.9754
1.1671 6.1579 0.1059 0.9752
0.0588 6.9379 0.1172 0.9726
-1.2802 7.4417 0.1276 0.9702
18.7507 -3.0393 0.3209 0.9268
14.9618 -1.0682 0.2534 0.9418
11.7781 0.2137 0.1990 0.9540
5.3100 3.9870 0.1122 0.9738
4.2993 4.6343 0.1068 0.9750
3.2430 5.0697 0.1017 0.9762
2.7670 5.3192 0.1013 0.9763
0.7800 6.3609 0.1083 0.9747
0.2171 6.6562 0.1125 0.9737
-2.2527 2.3132 0.0545 0.9872
11.8220 0.2985 -0.0666 0.9538
9.2554 1.9155 -0.0532 0.9629
7.2944 2.9381 -0.0443 0.9690
6.7244 3.4354 -0.0425 0.9702
5.8617 3.6892 -0.0390 0.9727
5.2572 4.0061 -0.0372 0.9739
3.2013 5.0837 -0.0338 0.9763
1.2638 6.0991 -0.0351 0.9754
0.1702 6.6721 -0.0376 0.9737
-0.4609 7.2011 -0.0406 0.9715
2.3781 -0.8858 -0.0143 0.9899
14.9342 -1.3221 -0.0844 0.9418
11.7794 0.0131 -0.0663 0.9540
11.2664 1.0227 -0.0637 0.9558
7.5260 2.8223 -0.0453 0.9684
6.2125 3.7038 -0.0407 0.9715
5.4149 3.9234 -0.0376 0.9736
4.7645 4.1488 -0.0356 0.9750
4.3933 4.5768 -0.0357 0.9749
2.8541 5.2657 -0.0337 0.9763
2.3791 5.5147 -0.0338 0.9763
1.9532 5.9363 -0.0352 0.9753
0.3273 6.5898 -0.0371 0.9740
-0.2830 7.1079 -0.0401 0.9719
15.4985 -1.7499 -0.0878 0.9395
11.4555 0.7618 -0.0646 0.9551
9.9327 1.5603 -0.0566 0.9606
8.8181 2.2069 -0.0512 0.9643
7.7614 2.6988 -0.0463 0.9677
6.9305 3.1288 -0.0428 0.9700
6.3966 3.6072 -0.0413 0.9711
2.9822 5.1986 -0.0337 0.9763
2.5076 5.4473 -0.0338 0.9763
2.0881 5.8656 -0.0351 0.9754
-0.1099 7.0172 -0.0395 0.9723
15.9960 -2.1981 -0.0909 0.9375
10.3052 1.3650 -0.0585 0.9593
9.0353 2.0309 -0.0521 0.9636
7.1409 3.0185 -0.0437 0.9695
6.5866 3.5076 -0.0420 0.9706
5.7421 3.7519 -0.0386 0.9729
4.1553 4.7016 -0.0353 0.9752
3.0694 5.0634 -0.0333 0.9766
2.6358 5.3801 -0.0337 0.9763
1.7205 6.0582 -0.0355 0.9751
1.1657 6.1505 -0.0352 0.9753
0.6315 6.4304 -0.0364 0.9745
-0.5854 7.2165 -0.0408 0.9715
-1.2783 7.4309 -0.0425 0.9703
-3.7290 14.0303 -0.0817 0.9436
-2.2967 2.2473 -0.0181 0.9872
18.6826 -3.0282 -0.1066 0.9271
11.7775 0.2137 -0.0663 0.9540
9.3500 1.8659 -0.0537 0.9626
6.7829 3.4047 -0.0427 0.9701
5.3033 3.9820 -0.0373 0.9738
4.2942 4.6288 -0.0355 0.9751
2.3553 5.7256 -0.0349 0.9755
-0.4080 7.1734 -0.0405 0.9717
-1.0790 7.3265 -0.0417 0.9708
-2.2533 2.3139 -0.0182 0.9872
11.8214 0.2985 -0.3330 0.9538
8.1753 2.4707 -0.2405 0.9664
6.7149 3.4306 -0.2123 0.9703
2.7230 5.3267 -0.1684 0.9763
2.3135 5.7395 -0.1742 0.9755
1.2623 6.0918 -0.1752 0.9754
0.7350 6.3679 -0.1805 0.9747
0.1699 6.6636 -0.1877 0.9737
-1.1354 7.3464 -0.2093 0.9707
-2.2614 2.2895 -0.0906 0.9872
14.8896 -1.3182 -0.4209 0.9419
9.5657 1.7401 -0.2738 0.9618
6.8518 3.2945 -0.2141 0.9700
6.2041 3.6988 -0.2034 0.9715
5.4080 3.9184 -0.1880 0.9736
4.3881 4.5714 -0.1784 0.9750
2.8509 5.2597 -0.1685 0.9763
2.3763 5.5083 -0.1689 0.9763
1.9509 5.9294 -0.1758 0.9753
1.3997 6.0199 -0.1740 0.9756
0.3269 6.5814 -0.1855 0.9740
-0.2826 7.0985 -0.2000 0.9720
12.3145 -0.2835 -0.3468 0.9519
11.4303 0.7601 -0.3226 0.9552
9.9136 1.5573 -0.2826 0.9606
8.9786 2.2471 -0.2606 0.9636
7.7492 2.6946 -0.2310 0.9677
6.9204 3.1242 -0.2138 0.9701
6.3879 3.6023 -0.2065 0.9711
5.5692 3.8338 -0.1904 0.9733
4.9900 4.1378 -0.1825 0.9744
2.0857 5.8588 -0.1751 0.9754
-0.1097 7.0081 -0.1974 0.9723
-0.7537 7.1468 -0.2024 0.9717
15.9420 -2.1907 -0.4531 0.9376
14.5606 -0.6870 -0.4105 0.9433
11.8354 0.5006 -0.3336 0.9537
7.1303 3.0140 -0.2180 0.9695
5.7346 3.7470 -0.1929 0.9730
5.1416 4.0582 -0.1844 0.9741
3.5641 4.8436 -0.1693 0.9762
3.0659 5.0575 -0.1665 0.9766
2.6328 5.3740 -0.1685 0.9763
2.2195 5.7887 -0.1746 0.9755
1.7185 6.0511 -0.1771 0.9751
-2.2952 2.2459 -0.0904 0.9872
18.6151 -3.0173 -0.5310 0.9273
9.3329 1.8624 -0.2680 0.9626
7.3486 2.8994 -0.2224 0.9689
5.9044 3.6578 -0.1956 0.9726
4.7086 4.2432 -0.1785 0.9750
4.2891 4.6233 -0.1776 0.9751
3.6946 4.7752 -0.1700 0.9761
3.2355 5.0580 -0.1691 0.9763
2.7607 5.3069 -0.1684 0.9763
1.8552 5.9795 -0.1763 0.9753
1.3030 6.0705 -0.1748 0.9755
0.2165 6.6392 -0.1870 0.9738
-1.0775 7.3161 -0.2082 0.9708
-2.2540 2.3146 -0.0910 0.9872
8.1619 2.4667 -0.4324 0.9664
7.2724 2.9292 -0.3976 0.9691
5.8462 3.6794 -0.3503 0.9727
4.2430 4.6393 -0.3188 0.9751
1.8130 5.9935 -0.3176 0.9752
1.2608 6.0845 -0.3151 0.9754
-0.4597 7.1818 -0.3650 0.9716
-2.2621 2.2901 -0.1632 0.9872
14.8564 -1.3152 -0.7564 0.9420
9.5479 1.7369 -0.4922 0.9619
8.6601 2.3908 -0.4556 0.9647
7.5028 2.8136 -0.4064 0.9684
6.1958 3.6938 -0.3658 0.9715
5.4010 3.9134 -0.3383 0.9736
4.3829 4.5659 -0.3210 0.9750
3.8730 4.8335 -0.3141 0.9755
3.3227 5.0045 -0.3046 0.9762
2.8476 5.2536 -0.3031 0.9764
2.3736 5.5020 -0.3039 0.9763
1.9487 5.9225 -0.3162 0.9753
1.3980 6.0127 -0.3131 0.9756
0.8794 6.2840 -0.3218 0.9749
0.3265 6.5731 -0.3338 0.9740
-0.2822 7.0891 -0.3598 0.9720
-0.9400 7.2347 -0.3700 0.9712
13.8881 -4.1634 -0.7353 0.9436
9.8945 1.5543 -0.5079 0.9607
8.9632 2.2432 -0.4686 0.9637
5.5620 3.8288 -0.3424 0.9733
4.9838 4.1326 -0.3283 0.9744
3.4521 4.9367 -0.3055 0.9762
2.9754 5.1866 -0.3032 0.9763
2.5018 5.4348 -0.3034 0.9763
1.0223 6.2093 -0.3191 0.9751
0.4798 6.4930 -0.3302 0.9743
-0.1096 6.9989 -0.3550 0.9724
14.5211 -0.6851 -0.7372 0.9434
11.8349 0.5006 -0.6007 0.9537
7.9820 2.5614 -0.4251 0.9670
7.1197 3.0096 -0.3920 0.9695
5.7270 3.7420 -0.3469 0.9730
3.5600 4.8380 -0.3046 0.9762
2.6297 5.3678 -0.3031 0.9763
2.2169 5.7820 -0.3140 0.9755
0.0585 6.9110 -0.3505 0.9727
-0.5838 7.1969 -0.3662 0.9715
-1.2746 7.4095 -0.3813 0.9703
-3.7171 13.9855 -0.7339 0.9437
18.5479 -3.0064 -0.9529 0.9275
10.9727 1.1848 -0.5597 0.9568
8.4805 2.4973 -0.4483 0.9652
6.7637 3.3951 -0.3838 0.9701
5.8966 3.6529 -0.3518 0.9726
2.7575 5.3008 -0.3030 0.9764
2.3498 5.7124 -0.3133 0.9756
1.8530 5.9725 -0.3171 0.9753
1.3014 6.0633 -0.3145 0.9755
0.7771 6.3375 -0.3238 0.9748
0.2162 6.6307 -0.3365 0.9738
-0.4069 7.1542 -0.3634 0.9717
-2.2562 2.3169 -0.1640 0.9871
9.2052 1.9051 -0.6893 0.9630
5.2373 3.9909 -0.4828 0.9739
4.6548 4.2551 -0.4624 0.9750
3.6476 4.7842 -0.4411 0.9762
2.7168 5.3144 -0.4376 0.9763
1.8109 5.9865 -0.4586 0.9752
1.2593 6.0772 -0.4551 0.9754
0.7332 6.3522 -0.4688 0.9747
-0.4591 7.1721 -0.5270 0.9716
-2.2628 2.2908 -0.2361 0.9872
-19.4754 -3.7861 -1.4547 0.9235
-18.4844 -5.3438 -1.4108 0.9257
-17.4533 -6.7864 -1.3730 0.9276
-14.1433 -10.5102 -1.2920 0.9318
-9.2462 -14.2975 -1.2484 0.9340
-7.9299 -15.0610 -1.2480 0.9340
-5.1716 -16.3811 -1.2595 0.9334
-3.7236 -16.9382 -1.2716 0.9328
-0.6704 -17.8413 -1.3091 0.9309
0.9437 -18.1823 -1.3350 0.9296
2.6231 -18.4443 -1.3660 0.9280
4.3737 -18.6220 -1.4026 0.9261
14.8428 -1.3141 -1.0926 0.9420
11.6982 0.0130 -0.8577 0.9542
11.2544 1.0217 -0.8286 0.9557
9.5301 1.7336 -0.7102 0.9619
8.6145 2.3782 -0.6553 0.9648
6.1874 3.6888 -0.5282 0.9715
4.7468 4.1335 -0.4615 0.9751
3.3189 4.9987 -0.4399 0.9762
2.3709 5.4956 -0.4389 0.9763
1.3964 6.0056 -0.4521 0.9756
0.8783 6.2763 -0.4647 0.9749
0.3261 6.5648 -0.4819 0.9740
-0.2819 7.0797 -0.5195 0.9720
-0.9387 7.2246 -0.5342 0.9712
-18.7560 -4.9352 -1.4220 0.9252
-17.7353 -6.4078 -1.3827 0.9272
-15.5825 -9.0369 -1.3208 0.9303
-14.4537 -10.2089 -1.2975 0.9315
-9.9239 -8.4332 -0.9549 0.9491
-12.0942 -12.2988 -1.2647 0.9332
-9.5947 -14.0795 -1.2493 0.9339
-6.9431 -15.5747 -1.2503 0.9339
-4.1192 -16.7947 -1.2679 0.9330
-1.0956 -17.7364 -1.3029 0.9312
2.1631 -18.3817 -1.3571 0.9285
3.8939 -18.5827 -1.3921 0.9267
17.7607 -9.0239 -1.4607 0.9232
13.8813 -4.1614 -1.0626 0.9435
12.2510 -0.2820 -0.8985 0.9520
11.3802 0.7568 -0.8363 0.9553
9.8755 1.5513 -0.7330 0.9607
6.9003 3.1151 -0.5551 0.9701
6.3704 3.5925 -0.5362 0.9711
5.5547 3.8238 -0.4945 0.9733
3.4481 4.9309 -0.4412 0.9762
2.4989 5.4285 -0.4382 0.9763
1.5318 5.9348 -0.4494 0.9757
0.4792 6.4848 -0.4768 0.9743
-18.0146 -6.0215 -1.3927 0.9266
-16.9660 -7.4143 -1.3576 0.9284
-15.8812 -8.7050 -1.3279 0.9299
-14.7617 -9.9014 -1.3033 0.9312
-12.4206 -12.0355 -1.2681 0.9330
-11.1984 -12.9831 -1.2571 0.9335
-9.9405 -13.8563 -1.2504 0.9339
-8.6453 -14.6576 -1.2477 0.9340
-5.9334 -16.0518 -1.2548 0.9337
-3.0402 -17.1713 -1.2786 0.9324
-1.5164 -17.6260 -1.2972 0.9315
3.4196 -18.5370 -1.3821 0.9272
5.2050 -18.6736 -1.4214 0.9252
11.8343 0.5005 -0.8685 0.9536
10.2439 1.3568 -0.7577 0.9594
9.0082 2.0248 -0.6770 0.9636
7.1091 3.0051 -0.5659 0.9695
5.1287 4.0480 -0.4791 0.9741
4.5657 4.3186 -0.4608 0.9751
4.1406 4.6849 -0.4584 0.9752
1.7145 6.0369 -0.4601 0.9751
1.1615 6.1284 -0.4573 0.9753
-0.5830 7.1871 -0.5287 0.9715
-1.2728 7.3987 -0.5505 0.9703
-2.2923 2.2430 -0.2352 0.9872
-19.2900 -4.0921 -1.4459 0.9240
-18.2911 -5.6271 -1.4032 0.9261
-16.1775 -8.3663 -1.3354 0.9296
-11.5317 -12.7349 -1.2597 0.9334
-4.8997 -16.4925 -1.2615 0.9333
-1.9331 -17.5104 -1.2917 0.9318
1.2583 -18.2384 -1.3405 0.9293
2.9507 -18.4848 -1.3725 0.9277
4.7156 -18.6457 -1.4102 0.9258
6.5593 -18.7138 -1.4540 0.9235
18.2121 -2.9520 -1.3528 0.9287
10.8718 1.1738 -0.8018 0.9571
9.2989 1.8557 -0.6953 0.9627
8.4665 2.4932 -0.6471 0.9652
7.3263 2.8906 -0.5775 0.9689
6.7541 3.3903 -0.5541 0.9701
5.8887 3.6480 -0.5079 0.9726
4.2789 4.6123 -0.4613 0.9751
3.6860 4.7640 -0.4417 0.9761
3.2281 5.0464 -0.4392 0.9763
2.7543 5.2947 -0.4376 0.9763
2.3471 5.7058 -0.4524 0.9756
3.6433 4.7786 -0.5769 0.9761
3.1866 5.0603 -0.5741 0.9763
2.3054 5.7196 -0.5920 0.9755
1.8087 5.9795 -0.5997 0.9752
-0.4584 7.1624 -0.6890 0.9716
-1.1305 7.3150 -0.7106 0.9707
-2.2635 2.2915 -0.3092 0.9871
-17.8974 1.3671 -1.7232 0.9304
-17.3547 -0.2287 -1.6663 0.9326
-16.7400 -1.7235 -1.6156 0.9346
-15.3251 -4.4304 -1.5315 0.9379
-14.5367 -5.6523 -1.4974 0.9392
-13.7005 -6.7922 -1.4681 0.9404
-11.0837 -8.2365 -1.3257 0.9460
-10.1871 -9.0891 -1.3107 0.9466
-6.2482 -11.8670 -1.2876 0.9475
-5.1764 -12.4084 -1.2908 0.9474
-4.0691 -12.8888 -1.2976 0.9471
-2.9254 -13.3073 -1.3081 0.9467
-1.7442 -13.6626 -1.3223 0.9462
0.7357 -14.1741 -1.3626 0.9446
3.3815 -14.3978 -1.4199 0.9423
5.1205 -15.4466 -1.5623 0.9367
6.6603 -15.3444 -1.6059 0.9350
8.2502 -15.1404 -1.6553 0.9331
9.8908 -14.8252 -1.7110 0.9309
19.3352 -3.4728 -1.8860 0.9241
14.8299 -1.3129 -1.4293 0.9419
10.9964 0.9982 -1.0601 0.9566
9.5123 1.7304 -0.9282 0.9619
8.6459 2.3869 -0.8611 0.9646
5.3872 3.9033 -0.6387 0.9736
4.7455 4.1323 -0.6041 0.9750
4.3723 4.5550 -0.6062 0.9749
3.8640 4.8221 -0.5932 0.9755
2.3681 5.4893 -0.5739 0.9763
1.9441 5.9087 -0.5972 0.9753
1.3947 5.9984 -0.5912 0.9756
0.3256 6.5565 -0.6302 0.9740
-0.9374 7.2144 -0.6984 0.9712
-18.0304 1.8157 -1.7398 0.9298
-17.5086 0.1917 -1.6810 0.9321
-16.9125 -1.3298 -1.6287 0.9341
-16.2504 -2.7540 -1.5824 0.9359
-15.5292 -4.0861 -1.5416 0.9375
-14.7544 -5.3308 -1.5061 0.9389
-13.9306 -6.4924 -1.4755 0.9401
-12.1502 -8.5819 -1.4281 0.9420
-9.8364 -8.3588 -1.2393 0.9495
-7.5588 -11.0919 -1.2886 0.9475
-5.4691 -12.2683 -1.2895 0.9475
-3.2377 -13.2005 -1.3049 0.9468
-0.8574 -13.8808 -1.3352 0.9456
4.7135 -15.4577 -1.5515 0.9371
6.2399 -15.3817 -1.5936 0.9355
7.8162 -15.2060 -1.6414 0.9336
9.4431 -14.9218 -1.6953 0.9315
14.6246 -13.3090 -1.8984 0.9236
17.7176 -9.0019 -1.9079 0.9232
2.3157 -0.9267 -0.2395 0.9900
15.1796 -1.7139 -1.4666 0.9405
7.7126 2.6819 -0.7839 0.9677
6.8902 3.1106 -0.7258 0.9701
4.5137 4.4806 -0.6106 0.9748
3.9991 4.7511 -0.5962 0.9754
3.4441 4.9252 -0.5770 0.9761
2.4961 5.4223 -0.5731 0.9763
2.0784 5.8384 -0.5950 0.9754
1.5299 5.9278 -0.5877 0.9757
-0.7506 7.1172 -0.6871 0.9717
-18.8835 5.9102 -1.8996 0.9236
-18.5702 4.0341 -1.8244 0.9265
-18.1573 2.2723 -1.7568 0.9291
-16.4352 -2.3789 -1.5943 0.9354
-15.7293 -3.7355 -1.5521 0.9371
-14.1576 -6.1869 -1.4833 0.9398
-12.4002 -8.3174 -1.4335 0.9418
-10.1305 -8.1961 -1.2510 0.9490
-9.7623 -9.4596 -1.3051 0.9468
-7.8301 -10.9146 -1.2896 0.9475
-6.8121 -11.5495 -1.2873 0.9475
0.0505 -14.0631 -1.3501 0.9451
1.3294 -14.2522 -1.3742 0.9441
4.3099 -15.4621 -1.5410 0.9375
5.8231 -15.4117 -1.5817 0.9359
7.3858 -15.2637 -1.6279 0.9341
12.3774 -14.1432 -1.8044 0.9273
14.1408 -13.5066 -1.8774 0.9244
15.8987 -2.1847 -1.5407 0.9375
11.5846 0.4900 -1.1132 0.9545
9.0077 2.0247 -0.8864 0.9636
7.0985 3.0006 -0.7399 0.9695
6.5500 3.4882 -0.7124 0.9706
5.7119 3.7322 -0.6551 0.9730
5.1222 4.0429 -0.6265 0.9741
4.5651 4.3180 -0.6033 0.9751
2.2118 5.7686 -0.5931 0.9755
1.7125 6.0298 -0.6018 0.9751
0.6003 3.1675 -0.3095 0.9871
0.6283 6.3986 -0.6172 0.9745
0.0580 6.8438 -0.6571 0.9729
-2.2917 2.2424 -0.3078 0.9872
-18.6651 4.5289 -1.8439 0.9257
-18.2777 2.7367 -1.7743 0.9284
-17.8001 1.0552 -1.7119 0.9309
-16.6155 -1.9971 -1.6067 0.9350
-15.9254 -3.3783 -1.5629 0.9367
-13.5361 -7.0003 -1.4630 0.9406
-9.0731 -10.0198 -1.2977 0.9471
-8.0990 -10.7327 -1.2908 0.9474
-1.5150 -13.7229 -1.3255 0.9460
-0.2875 -13.9999 -1.3443 0.9453
0.9802 -14.2082 -1.3673 0.9444
2.2897 -14.3440 -1.3945 0.9433
3.6592 -14.4688 -1.4328 0.9418
6.9592 -15.3137 -1.6149 0.9346
10.2090 -14.7518 -1.7223 0.9304
18.4145 -2.9848 -1.7909 0.9278
14.9583 -1.0680 -1.4397 0.9415
11.7752 0.2136 -1.1307 0.9538
0.6778 3.1581 -0.3101 0.9871
0.7752 6.3219 -0.6115 0.9747
0.2157 6.6138 -0.6353 0.9738
-1.0729 7.2850 -0.7069 0.9708
-2.2611 2.3219 -0.3112 0.9871
11.8191 0.2984 -1.4044 0.9535
9.0240 1.8676 -1.0946 0.9636
8.1218 2.4545 -1.0078 0.9664
7.2395 2.9159 -0.9271 0.9691
5.8228 3.6647 -0.8173 0.9727
5.2239 3.9807 -0.7802 0.9739
4.6434 4.2446 -0.7473 0.9750
4.2279 4.6227 -0.7441 0.9751
3.1829 5.0545 -0.7095 0.9762
2.3028 5.7130 -0.7317 0.9755
1.8066 5.9724 -0.7412 0.9752
0.6471 3.1229 -0.3788 0.9872
0.1691 6.6294 -0.7877 0.9736
-0.4578 7.1528 -0.8514 0.9715
-1.1289 7.3045 -0.8780 0.9707
-14.7557 12.4827 -2.2958 0.9251
-15.1844 10.6744 -2.2048 0.9280
-15.4587 8.9191 -2.1200 0.9306
-15.5935 7.2252 -2.0415 0.9331
-15.2953 2.5571 -1.8421 0.9394
-14.1734 -1.4592 -1.6925 0.9442
-13.0798 -3.7813 -1.6173 0.9466
-12.4476 -4.8400 -1.5864 0.9476
-11.7646 -5.8325 -1.5598 0.9485
-9.7658 -7.2572 -1.4453 0.9522
-8.0034 -8.5416 -1.3904 0.9539
-7.1723 -9.1756 -1.3834 0.9542
-5.4101 -10.2753 -1.3794 0.9543
-2.5276 -11.4979 -1.3984 0.9537
-1.5048 -11.7873 -1.4115 0.9533
1.8713 -13.1581 -1.5787 0.9479
3.1002 -13.1998 -1.6106 0.9468
11.0424 -11.4524 -1.8898 0.9379
17.8780 -4.8927 -2.2017 0.9281
19.0272 -3.4175 -2.2963 0.9251
14.8292 -1.3128 -1.7684 0.9418
11.6775 0.0130 -1.3871 0.9541
9.2575 1.6841 -1.1177 0.9628
7.4619 2.7983 -0.9466 0.9684
6.8267 3.2824 -0.8998 0.9699
6.1707 3.6788 -0.8534 0.9715
5.3802 3.8983 -0.7892 0.9736
4.7450 4.1318 -0.7474 0.9750
3.8594 4.8165 -0.7331 0.9754
3.3112 4.9871 -0.7111 0.9762
2.8378 5.2355 -0.7074 0.9763
0.7360 3.1652 -0.3860 0.9870
0.3252 6.5481 -0.7788 0.9739
-0.2811 7.0608 -0.8394 0.9719
-0.9360 7.2043 -0.8630 0.9712
-15.3990 9.3871 -2.1423 0.9299
-15.6120 6.0304 -1.9880 0.9348
-15.0882 1.5194 -1.8013 0.9407
-13.8025 -2.3392 -1.6629 0.9452
-13.2412 -3.4841 -1.6264 0.9463
-12.6234 -4.5609 -1.5944 0.9474
-6.5442 -9.6031 -1.3804 0.9543
-5.6555 -10.1400 -1.3792 0.9543
-3.7820 -11.0440 -1.3867 0.9541
-2.7984 -11.4094 -1.3954 0.9538
-0.7387 -11.9597 -1.4233 0.9529
0.3433 -12.3782 -1.4709 0.9513
1.5278 -12.9831 -1.5528 0.9487
7.9352 -12.5392 -1.7627 0.9420
9.2921 -12.1315 -1.8152 0.9403
14.8537 -9.3023 -2.0819 0.9318
15.0700 -7.6567 -2.0079 0.9342
2.3158 -0.9268 -0.2963 0.9900
18.7243 -3.8316 -2.2703 0.9259
15.1316 -1.7085 -1.8088 0.9405
12.1878 -0.2806 -1.4481 0.9521
8.6433 2.1631 -1.0584 0.9647
7.7004 2.6776 -0.9684 0.9677
6.8801 3.1060 -0.8967 0.9701
4.5082 4.4752 -0.7546 0.9747
2.9651 5.1687 -0.7078 0.9763
1.5281 5.9207 -0.7263 0.9757
0.4780 6.4685 -0.7705 0.9742
-15.3288 9.8593 -2.1650 0.9292
-15.4175 3.3492 -1.8741 0.9384
-14.8365 0.5207 -1.7635 0.9420
-13.9435 -2.0183 -1.6736 0.9448
-13.3984 -3.1819 -1.6358 0.9460
-11.4343 -6.2675 -1.5489 0.9488
-6.7785 -9.4486 -1.3813 0.9542
-4.0422 -10.9354 -1.3849 0.9541
-3.0669 -11.3166 -1.3927 0.9539
-2.0607 -11.6386 -1.4040 0.9535
2.4342 -13.1955 -1.5939 0.9474
4.9462 -13.0909 -1.6623 0.9452
8.9239 -12.2522 -1.8005 0.9408
10.2953 -11.7641 -1.8570 0.9390
14.7248 -7.9340 -1.9868 0.9348
2.3190 -0.9936 -0.2997 0.9899
18.4159 -4.2338 -2.2446 0.9267
15.7284 -2.1613 -1.8859 0.9381
14.4032 -0.6795 -1.7128 0.9436
11.7048 0.4951 -1.3916 0.9539
8.8639 1.9924 -1.0792 0.9641
7.0879 2.9961 -0.9141 0.9695
6.5408 3.4833 -0.8803 0.9706
5.7044 3.7272 -0.8094 0.9729
5.1157 4.0378 -0.7742 0.9741
4.5645 4.3175 -0.7463 0.9750
1.7104 6.0227 -0.7437 0.9751
0.6275 6.3906 -0.7628 0.9745
0.0583 6.8842 -0.8178 0.9726
-14.8500 12.1348 -2.2780 0.9257
-15.2480 10.3358 -2.1881 0.9285
-15.4946 8.5917 -2.1046 0.9311
-15.6046 6.9101 -2.0272 0.9336
-15.4682 3.7532 -1.8907 0.9379
-14.9345 0.8853 -1.7771 0.9415
-14.0800 -1.6923 -1.6845 0.9445
-13.5515 -2.8747 -1.6455 0.9457
-12.3214 -5.0340 -1.5810 0.9478
-9.5070 -7.3194 -1.4252 0.9528
-8.6507 -7.9869 -1.3986 0.9537
-7.0103 -9.2900 -1.3825 0.9542
-6.1392 -9.8572 -1.3794 0.9543
-1.3066 -11.8355 -1.4144 0.9532
-0.2481 -12.0783 -1.4350 0.9525
0.8726 -12.6487 -1.5061 0.9502
2.1047 -13.1848 -1.5860 0.9476
3.3373 -13.1957 -1.6168 0.9466
4.6003 -13.1248 -1.6520 0.9455
5.8926 -12.9667 -1.6919 0.9442
7.2124 -12.7157 -1.7365 0.9428
11.3069 -11.3340 -1.9017 0.9375
14.1004 -9.8082 -2.0403 0.9332
15.4764 -8.8273 -2.1164 0.9307
15.6547 -7.1594 -2.0448 0.9330
16.9015 -5.9696 -2.1292 0.9303
18.1022 -4.6243 -2.2193 0.9275
10.3219 1.1145 -1.2332 0.9590
8.3780 2.4672 -1.0374 0.9654
6.7350 3.3807 -0.8952 0.9701
5.8729 3.6383 -0.8206 0.9726
5.2696 3.9567 -0.7828 0.9738
4.6855 4.2224 -0.7492 0.9749
4.2687 4.6013 -0.7455 0.9750
2.7480 5.2825 -0.7073 0.9763
2.3417 5.6926 -0.7312 0.9755
0.6707 3.1248 -0.3796 0.9872
0.7743 6.3141 -0.7556 0.9747
0.2154 6.6053 -0.7850 0.9737
-0.4053 7.1254 -0.8478 0.9717
-1.0714 7.2746 -0.8734 0.9708
-2.2636 2.3245 -0.3854 0.9870
-14.7146 12.6284 -2.3033 0.9249
-15.1562 10.8162 -2.2118 0.9277
-15.4421 9.0565 -2.1265 0.9304
11.8185 0.2984 -1.6751 0.9534
10.4547 1.2040 -1.4911 0.9584
8.9899 1.8605 -1.3008 0.9636
7.1196 2.8677 -1.0875 0.9695
6.6199 3.3820 -1.0533 0.9704
5.8150 3.6598 -0.9735 0.9726
4.2228 4.6172 -0.8866 0.9750
3.1792 5.0486 -0.8453 0.9762
2.3001 5.7063 -0.8717 0.9755
0.7304 6.3286 -0.9026 0.9746
0.1688 6.6209 -0.9384 0.9736
-0.4539 7.0919 -1.0069 0.9717
-6.3888 18.5212 -2.7760 0.9239
-7.7609 17.3052 -2.6872 0.9262
-12.9570 7.4758 -2.1195 0.9414
-13.1489 6.0925 -2.0533 0.9431
-13.2303 4.7469 -1.9916 0.9448
-13.2105 3.4446 -1.9344 0.9463
-12.9006 0.9854 -1.8332 0.9491
-11.8703 -2.3076 -1.7134 0.9523
-10.8762 -4.2290 -1.6534 0.9539
-9.6795 -5.9302 -1.6084 0.9552
-6.7690 -8.6596 -1.5573 0.9566
-5.8961 -9.1172 -1.5384 0.9571
-3.3040 -10.4653 -1.5550 0.9566
-2.3868 -10.8575 -1.5751 0.9561
-0.4253 -11.3167 -1.6046 0.9553
0.5943 -11.4502 -1.6246 0.9547
1.6378 -11.5161 -1.6481 0.9541
3.7897 -11.4321 -1.7065 0.9525
4.8938 -11.2747 -1.7415 0.9516
6.0130 -11.0347 -1.7806 0.9505
11.6792 -8.4226 -2.0402 0.9435
12.7809 -7.5811 -2.1055 0.9417
12.8536 -6.1451 -2.0186 0.9441
13.8049 -5.1418 -2.0873 0.9422
14.7014 -4.0233 -2.1596 0.9403
15.5279 -2.7890 -2.2353 0.9383
14.8285 -1.3128 -2.1093 0.9416
10.8643 0.9862 -1.5457 0.9569
9.3523 1.7013 -1.3469 0.9623
8.1363 2.2462 -1.1959 0.9665
6.6692 3.2067 -1.0485 0.9705
5.3733 3.8932 -0.9402 0.9735
4.3618 4.5440 -0.8925 0.9749
3.3073 4.9813 -0.8472 0.9761
2.8345 5.2294 -0.8428 0.9763
2.3626 5.4765 -0.8451 0.9762
1.9395 5.8948 -0.8793 0.9752
0.7347 3.1596 -0.4596 0.9870
0.8751 6.2533 -0.8947 0.9748
-0.2807 7.0514 -0.9999 0.9719
-0.9347 7.1941 -1.0279 0.9711
-5.9910 18.8300 -2.7998 0.9233
-7.4066 17.6436 -2.7112 0.9256
-10.6735 13.5921 -2.4487 0.9326
-11.4424 12.1574 -2.3655 0.9348
-12.0615 10.7134 -2.2858 0.9369
-12.8851 7.8546 -2.1381 0.9409
-12.9618 1.3053 -1.8458 0.9487
-12.3804 -0.9734 -1.7596 0.9511
-11.9871 -2.0315 -1.7227 0.9521
-11.5329 -3.0346 -1.6897 0.9530
-11.0229 -3.9826 -1.6606 0.9538
-10.4612 -4.8755 -1.6353 0.9544
-9.8517 -5.7134 -1.6136 0.9550
-9.1978 -6.4966 -1.5955 0.9555
-7.7675 -7.8989 -1.5697 0.9562
-6.9960 -8.5181 -1.5618 0.9564
-6.1298 -8.9949 -1.5423 0.9570
-4.4099 -9.8922 -1.5346 0.9572
-3.5418 -10.3423 -1.5489 0.9568
-1.6832 -11.0540 -1.5843 0.9558
3.4948 -11.4610 -1.6977 0.9527
4.5943 -11.3252 -1.7317 0.9518
9.1136 -9.9202 -1.9087 0.9470
10.2507 -9.3286 -1.9638 0.9455
12.4862 -7.8197 -2.0875 0.9422
12.5892 -6.3963 -2.0008 0.9445
15.3127 -3.1334 -2.2146 0.9388
12.1562 -0.2798 -1.7229 0.9521
11.3051 0.7518 -1.6054 0.9553
6.8329 3.0847 -1.0622 0.9702
6.2986 3.5520 -1.0246 0.9712
5.5330 3.8089 -0.9518 0.9732
4.9589 4.1120 -0.9128 0.9743
4.5027 4.4697 -0.8990 0.9747
3.9896 4.7399 -0.8778 0.9753
3.4361 4.9137 -0.8496 0.9761
2.9617 5.1627 -0.8433 0.9762
2.0736 5.8248 -0.8760 0.9753
1.5263 5.9137 -0.8654 0.9756
1.0173 6.1792 -0.8873 0.9750
-0.1090 6.9622 -0.9866 0.9723
-7.0405 17.9747 -2.7352 0.9250
-8.3374 16.7130 -2.6464 0.9273
-10.4393 13.9754 -2.4716 0.9320
-13.0596 6.8348 -2.0885 0.9422
-13.1995 5.4681 -2.0244 0.9439
-13.2332 4.1418 -1.9647 0.9455
-13.1697 2.8609 -1.9095 0.9470
-13.0172 1.6290 -1.8588 0.9484
-12.4754 -0.6785 -1.7702 0.9508
-12.0994 -1.7514 -1.7322 0.9518
-11.6612 -2.7694 -1.6982 0.9527
-10.6176 -4.6400 -1.6418 0.9543
-10.0207 -5.4927 -1.6191 0.9549
-9.3785 -6.2906 -1.6001 0.9554
-8.6939 -7.0338 -1.5845 0.9558
-4.6419 -9.7715 -1.5328 0.9572
-2.8936 -10.6772 -1.5674 0.9563
-0.9651 -11.2175 -1.5953 0.9555
0.0409 -11.3863 -1.6133 0.9550
2.1257 -11.5229 -1.6602 0.9538
3.2011 -11.4843 -1.6892 0.9530
5.4073 -11.1748 -1.7590 0.9511
9.9445 -9.4985 -1.9485 0.9460
11.0751 -8.8294 -2.0069 0.9444
12.3221 -6.6394 -1.9832 0.9450
2.3150 -0.9919 -0.3569 0.9899
14.2252 -4.6414 -2.1201 0.9413
15.0915 -3.4696 -2.1941 0.9394
15.6753 -2.1540 -2.2419 0.9381
14.3639 -0.6777 -2.0375 0.9436
10.1643 1.3463 -1.4528 0.9594
8.7491 1.9666 -1.2706 0.9644
7.7080 2.4735 -1.1470 0.9678
6.9998 2.9589 -1.0768 0.9698
5.6968 3.7223 -0.9642 0.9729
5.1092 4.0326 -0.9222 0.9740
4.1258 4.6682 -0.8827 0.9751
2.6176 5.3430 -0.8430 0.9762
0.6268 6.3826 -0.9087 0.9744
0.0583 6.8753 -0.9742 0.9726
-1.2574 7.3094 -1.0509 0.9705
-8.0036 17.0624 -2.6703 0.9267
-10.1936 14.3562 -2.4947 0.9313
-11.0465 12.9340 -2.4100 0.9336
-2.2908 2.2416 -0.4541 0.9871
-12.2985 10.0498 -2.2504 0.9379
-12.7143 8.6183 -2.1763 0.9398
-13.0025 7.2098 -2.1066 0.9417
-13.1726 5.8331 -2.0412 0.9435
-13.2341 4.4954 -1.9804 0.9451
-13.1959 3.2019 -1.9240 0.9466
-12.2072 -1.4672 -1.7421 0.9515
-11.7853 -2.5000 -1.7070 0.9525
-11.3048 -3.4778 -1.6759 0.9533
-10.7705 -4.4004 -1.6485 0.9541
-10.1864 -5.2680 -1.6249 0.9547
-8.8826 -6.8387 -1.5884 0.9557
-7.4168 -8.1907 -1.5656 0.9563
-5.7319 -9.2031 -1.5362 0.9571
-4.8734 -9.6510 -1.5319 0.9573
-4.0124 -10.0985 -1.5397 0.9570
-3.1350 -10.5526 -1.5598 0.9565
0.7912 -11.4680 -1.6288 0.9546
1.8390 -11.5207 -1.6530 0.9540
3.9987 -11.4083 -1.7129 0.9523
5.1059 -11.2355 -1.7486 0.9514
7.3598 -10.6348 -1.8325 0.9491
8.4984 -10.1971 -1.8808 0.9478
10.7712 -9.0207 -1.9907 0.9448
11.8909 -8.2713 -2.0523 0.9432
14.8647 -3.7972 -2.1738 0.9399
7.9548 2.3425 -1.1750 0.9671
5.8650 3.6334 -0.9776 0.9725
5.2628 3.9516 -0.9325 0.9738
4.6797 4.2172 -0.8926 0.9749
4.2635 4.5957 -0.8882 0.9750
3.6730 4.7473 -0.8505 0.9760
3.2169 5.0288 -0.8458 0.9762
2.7448 5.2764 -0.8427 0.9763
2.3390 5.6860 -0.8711 0.9755
0.7733 6.3063 -0.9002 0.9747
0.2151 6.5968 -0.9352 0.9737
-1.0672 7.2462 -1.0378 0.9708
-6.2729 18.6131 -2.7830 0.9237
-8.8791 16.1039 -2.6056 0.9284
-9.9361 14.7343 -2.5180 0.9307
-10.8318 13.3204 -2.4326 0.9330
-12.1631 10.4386 -2.2710 0.9373
11.8179 0.2984 -1.9475 0.9532
9.1384 1.8912 -1.5374 0.9629
8.0207 2.4240 -1.3803 0.9666
7.0525 2.8406 -1.2525 0.9696
6.2866 3.2117 -1.1630 0.9718
5.1613 3.9330 -1.0690 0.9740
4.2177 4.6116 -1.0295 0.9750
2.7042 5.2898 -0.9787 0.9762
1.7894 5.9155 -1.0181 0.9753
0.7269 6.2982 -1.0444 0.9746
0.1660 6.5114 -1.0730 0.9739
-1.0940 7.0788 -1.1800 0.9714
-3.6951 14.9215 -2.5324 0.9396
-5.2656 15.2651 -2.6602 0.9366
-6.4326 14.3434 -2.5897 0.9383
-8.3935 12.2580 -2.4474 0.9416
-9.1842 11.1317 -2.3774 0.9432
-10.3949 8.7936 -2.2430 0.9463
-10.8237 7.6089 -2.1796 0.9478
-11.4743 4.1168 -2.0083 0.9518
-11.4434 1.9131 -1.9113 0.9541
-10.8254 -1.1145 -1.7928 0.9568
-10.4893 -2.0392 -1.7603 0.9576
-10.0961 -2.9188 -1.7313 0.9583
-9.1552 -4.5389 -1.6834 0.9594
-6.7500 -7.2039 -1.6263 0.9608
-6.0556 -7.7470 -1.6199 0.9609
-4.5706 -8.6808 -1.6162 0.9610
-3.7836 -9.0696 -1.6189 0.9609
-2.9692 -9.4049 -1.6247 0.9608
-0.3786 -10.0745 -1.6608 0.9600
1.4537 -10.2216 -1.7008 0.9590
2.3952 -10.1983 -1.7258 0.9584
3.3504 -10.1068 -1.7541 0.9578
7.2403 -8.9946 -1.9022 0.9543
9.1625 -7.9427 -1.9976 0.9520
10.0963 -7.2811 -2.0507 0.9508
11.7706 -4.3841 -2.0692 0.9504
13.1027 -2.3534 -2.1931 0.9475
13.6517 -1.2086 -2.2578 0.9460
9.4588 1.7207 -1.5838 0.9618
6.4735 3.1126 -1.1833 0.9713
4.3565 4.5385 -1.0364 0.9748
3.3034 4.9755 -0.9839 0.9761
2.3599 5.4701 -0.9814 0.9761
0.8732 6.2399 -1.0380 0.9748
-0.7947 6.1161 -1.0160 0.9753
-3.3561 15.1057 -2.5492 0.9392
-4.5754 14.3807 -2.4861 0.9407
-8.9832 11.4396 -2.3962 0.9427
-9.6824 10.2875 -2.3273 0.9443
-10.2595 9.1128 -2.2606 0.9459
-11.0668 6.7462 -2.1352 0.9488
-11.3089 5.5752 -2.0771 0.9502
-11.4519 4.4235 -2.0224 0.9515
-11.5024 3.2975 -1.9712 0.9526
-11.3517 1.1432 -1.8795 0.9548
-11.1628 0.1222 -1.8391 0.9558
-10.5858 -1.7940 -1.7688 0.9574
-9.7755 -3.5319 -1.7123 0.9587
-8.7649 -5.0831 -1.6692 0.9598
-8.1933 -5.7871 -1.6525 0.9602
-7.5812 -6.4424 -1.6390 0.9605
-5.5279 -8.1117 -1.6171 0.9610
-4.7781 -8.5669 -1.6160 0.9610
-3.9987 -8.9699 -1.6179 0.9610
-2.3583 -9.6151 -1.6309 0.9607
0.2817 -10.1572 -1.6739 0.9596
1.2023 -10.2166 -1.6947 0.9592
3.0915 -10.1384 -1.7461 0.9579
4.0547 -9.9952 -1.7769 0.9572
5.0262 -9.7783 -1.8112 0.9564
6.0020 -9.4843 -1.8490 0.9555
6.9777 -9.1099 -1.8904 0.9545
8.9067 -8.1055 -1.9839 0.9524
9.8468 -7.4689 -2.0360 0.9511
10.7603 -6.7387 -2.0916 0.9498
12.2885 -3.6839 -2.1134 0.9493
12.9399 -2.6479 -2.1759 0.9479
11.2800 0.7501 -1.8624 0.9552
7.5540 2.6267 -1.3175 0.9681
6.6684 3.0105 -1.2053 0.9708
5.9818 3.3733 -1.1313 0.9725
3.9848 4.7342 -1.0194 0.9752
3.4320 4.9079 -0.9866 0.9760
2.9582 5.1567 -0.9794 0.9762
2.4874 5.4034 -0.9799 0.9762
2.0562 5.7761 -1.0101 0.9755
1.5245 5.9066 -1.0049 0.9756
1.0160 6.1716 -1.0304 0.9750
-0.6517 6.1798 -1.0237 0.9751
-5.8177 14.8530 -2.6279 0.9374
-6.9285 13.8887 -2.5569 0.9390
-8.7731 11.7448 -2.4150 0.9423
-9.5059 10.6012 -2.3457 0.9439
-2.3683 2.2081 -0.5334 0.9870
-10.9837 7.0646 -2.1514 0.9484
-11.2536 5.8896 -2.0925 0.9498
-11.4227 4.7320 -2.0368 0.9511
-11.4975 3.5985 -1.9847 0.9523
-11.4846 2.4948 -1.9361 0.9535
-9.8972 -3.3082 -1.7191 0.9586
-8.9119 -4.8849 -1.6742 0.9596
-7.7502 -6.2704 -1.6423 0.9604
-6.4346 -7.4601 -1.6230 0.9608
-4.9834 -8.4491 -1.6160 0.9610
-4.2119 -8.8664 -1.6171 0.9610
-3.4121 -9.2307 -1.6212 0.9609
-2.5856 -9.5409 -1.6285 0.9607
-1.7343 -9.7954 -1.6388 0.9605
0.0364 -10.1305 -1.6689 0.9598
0.9521 -10.2068 -1.6888 0.9593
1.8852 -10.2192 -1.7119 0.9587
3.7938 -10.0409 -1.7683 0.9574
4.7634 -9.8442 -1.8016 0.9566
5.7385 -9.5714 -1.8385 0.9558
6.7147 -9.2190 -1.8789 0.9548
10.5169 -6.9451 -2.0762 0.9502
2.3111 -0.9902 -0.4142 0.9899
12.1009 -3.9483 -2.0969 0.9497
12.7713 -2.9361 -2.1588 0.9483
13.3665 -1.8368 -2.2227 0.9468
13.8729 -0.6545 -2.2879 0.9453
10.1621 1.3460 -1.6887 0.9593
8.9233 2.0057 -1.5067 0.9636
7.8221 2.5101 -1.3533 0.9672
6.8898 2.9124 -1.2323 0.9701
6.1585 3.2797 -1.1494 0.9721
4.1208 4.6626 -1.0251 0.9751
3.5392 4.8097 -0.9837 0.9761
3.0608 5.0492 -0.9727 0.9763
1.6941 5.9653 -1.0216 0.9752
0.6225 6.3391 -1.0493 0.9745
0.0555 6.5517 -1.0794 0.9738
-0.5147 6.3448 -1.0487 0.9745
-5.4971 15.0972 -2.6468 0.9369
-8.5538 12.0469 -2.4340 0.9419
-11.1910 6.2053 -2.1080 0.9494
-11.4862 3.9017 -1.9984 0.9520
-11.4963 2.7895 -1.9488 0.9532
-11.2736 0.6683 -1.8605 0.9552
-11.0527 -0.3339 -1.8216 0.9562
-10.7660 -1.2940 -1.7864 0.9570
-10.4187 -2.2101 -1.7546 0.9577
-10.0151 -3.0810 -1.7262 0.9584
-9.5596 -3.9057 -1.7012 0.9590
-8.5070 -5.4131 -1.6611 0.9599
-7.9164 -6.0948 -1.6459 0.9603
-6.6204 -7.3112 -1.6249 0.9608
-4.4229 -8.7589 -1.6165 0.9610
-2.8112 -9.4626 -1.6262 0.9608
-1.9664 -9.7323 -1.6357 0.9605
-0.2074 -10.0992 -1.6641 0.9599
0.7032 -10.1924 -1.6831 0.9594
1.6318 -10.2223 -1.7053 0.9589
2.5762 -10.1863 -1.7309 0.9583
3.5336 -10.0814 -1.7599 0.9576
4.5011 -9.9047 -1.7923 0.9569
5.4750 -9.6527 -1.8282 0.9560
6.4514 -9.3222 -1.8676 0.9551
7.4253 -8.9095 -1.9106 0.9541
9.3422 -7.8239 -2.0074 0.9518
10.2711 -7.1446 -2.0612 0.9505
11.1610 -5.1043 -2.0218 0.9515
11.3144 -2.8903 -1.9238 0.9538
13.7457 -0.9814 -2.2702 0.9457
10.5503 1.1391 -1.7481 0.9579
8.1061 2.3871 -1.3921 0.9663
7.1221 2.8100 -1.2613 0.9694
5.7158 3.5409 -1.1077 0.9731
5.2013 3.9054 -1.0715 0.9740
4.2584 4.5902 -1.0315 0.9749
3.6687 4.7416 -0.9876 0.9760
3.2131 5.0229 -0.9823 0.9761
2.7416 5.2702 -0.9787 0.9762
2.3362 5.6793 -1.0117 0.9754
1.8290 5.8949 -1.0168 0.9753
0.7702 6.2810 -1.0425 0.9747
0.2118 6.4946 -1.0705 0.9740
-3.5960 14.9767 -2.5374 0.9395
-9.1259 11.2227 -2.3829 0.9430
-2.2687 2.3296 -0.5357 0.9869
11.8173 0.2984 -2.2219 0.9530
10.4116 1.1990 -1.9699 0.9582
9.1215 1.8877 -1.7508 0.9628
8.0814 2.4423 -1.5868 0.9662
5.6734 3.5707 -1.2600 0.9731
5.0576 3.8540 -1.1952 0.9745
4.5244 4.1359 -1.1522 0.9754
4.2126 4.6060 -1.1732 0.9749
3.5600 4.6693 -1.1036 0.9764
3.1040 4.9293 -1.0949 0.9766
2.6451 5.1743 -1.0923 0.9766
0.6156 2.9707 -0.5702 0.9877
0.7081 6.1354 -1.1609 0.9752
-0.4349 6.7951 -1.2798 0.9727
-3.1269 12.6273 -2.4451 0.9484
-4.1513 12.0346 -2.3928 0.9495
-5.0916 11.3533 -2.3388 0.9506
-5.9417 10.5977 -2.2837 0.9518
-7.2174 10.5404 -2.4011 0.9493
-7.9290 9.6105 -2.3418 0.9506
-9.0442 7.6510 -2.2266 0.9529
-9.7645 5.6338 -2.1189 0.9552
-9.9860 4.6269 -2.0687 0.9562
-10.0568 0.7682 -1.8958 0.9598
-9.8951 -0.1304 -1.8601 0.9605
-9.3888 -1.8252 -1.7978 0.9618
-9.0526 -2.6171 -1.7712 0.9624
-8.6660 -3.3696 -1.7477 0.9629
-6.6818 -5.9616 -1.6831 0.9642
-6.0905 -6.5000 -1.6743 0.9644
-5.4661 -6.9928 -1.6683 0.9645
-4.1265 -7.8374 -1.6648 0.9646
-3.4154 -8.1871 -1.6674 0.9645
-2.6794 -8.4868 -1.6728 0.9644
-1.1401 -8.9306 -1.6922 0.9640
0.4752 -9.1558 -1.7232 0.9634
2.1484 -9.1473 -1.7661 0.9625
3.0000 -9.0499 -1.7921 0.9619
3.8576 -8.8873 -1.8210 0.9613
5.5752 -8.3565 -1.8882 0.9599
8.0869 -7.0103 -2.0116 0.9574
10.2490 -3.8174 -2.0557 0.9565
10.8180 -2.9606 -2.1081 0.9554
11.3214 -2.0334 -2.1620 0.9543
11.6678 0.0130 -2.1931 0.9536
10.8178 0.9820 -2.0417 0.9568
7.4270 2.7852 -1.4909 0.9682
6.5876 3.1675 -1.3739 0.9707
5.8540 3.4900 -1.2810 0.9726
5.2145 3.7782 -1.2104 0.9741
4.6646 4.0618 -1.1626 0.9751
3.2272 4.8607 -1.0967 0.9765
2.7695 5.1095 -1.0924 0.9766
2.3059 5.3450 -1.0942 0.9766
1.8324 5.5692 -1.1020 0.9764
0.7155 3.0771 -0.5938 0.9872
0.3150 6.3423 -1.1936 0.9745
-0.2664 6.6923 -1.2589 0.9731
-0.8393 6.4594 -1.2243 0.9738
-2.8372 12.7702 -2.4588 0.9482
-3.8828 12.2039 -2.4072 0.9492
-5.7215 10.8081 -2.2986 0.9514
-7.0077 10.7833 -2.4172 0.9490
-8.3834 8.9072 -2.2991 0.9514
-9.3515 6.9170 -2.1863 0.9538
-9.6894 5.9065 -2.1329 0.9549
-9.9349 4.8978 -2.0820 0.9559
-10.1679 2.9150 -1.9881 0.9579
-10.1650 1.9526 -1.9456 0.9587
-10.0891 1.0160 -1.9060 0.9596
-9.9451 0.1089 -1.8694 0.9603
-9.7374 -0.7656 -1.8359 0.9610
-9.1484 -2.4072 -1.7781 0.9622
-8.7750 -3.1705 -1.7537 0.9627
-8.3539 -3.8934 -1.7324 0.9632
-6.8353 -5.8086 -1.6860 0.9642
-3.6099 -8.0976 -1.6664 0.9646
-2.1273 -8.6733 -1.6786 0.9643
-0.5583 -9.0389 -1.7022 0.9638
0.2534 -9.1387 -1.7184 0.9635
1.9200 -9.1627 -1.7596 0.9626
2.7695 -9.0825 -1.7848 0.9621
6.1976 -8.0914 -1.9157 0.9594
7.0407 -7.6638 -1.9561 0.9585
7.8675 -7.1597 -1.9994 0.9576
9.4450 -5.9150 -2.0947 0.9557
9.4473 -4.8000 -1.9918 0.9578
2.3162 -0.9269 -0.4689 0.9899
10.6705 -3.1989 -2.0938 0.9557
11.1926 -2.2904 -2.1474 0.9546
11.6414 -1.3144 -2.2020 0.9534
12.0063 -0.2764 -2.2573 0.9523
9.7800 1.5363 -1.8608 0.9605
8.6174 2.1567 -1.6697 0.9645
7.6636 2.6648 -1.5251 0.9675
4.4917 4.4588 -1.1896 0.9746
3.9801 4.7285 -1.1617 0.9752
2.8934 5.0437 -1.0929 0.9766
0.8290 3.2120 -0.6235 0.9866
-0.6392 6.0605 -1.1454 0.9755
-2.5421 12.9053 -2.4723 0.9479
-4.5950 11.7312 -2.3681 0.9500
-5.4944 11.0139 -2.3135 0.9511
-7.5578 10.1179 -2.3738 0.9499
-8.2218 9.1692 -2.3148 0.9511
-2.3653 2.2053 -0.6078 0.9869
-9.2440 7.1889 -2.2011 0.9535
-9.6074 6.1794 -2.1471 0.9546
-9.8775 5.1694 -2.0955 0.9556
-10.1555 3.1785 -2.0001 0.9576
-9.7995 -0.5330 -1.8446 0.9608
-9.5481 -1.3821 -1.8134 0.9615
-9.2405 -2.1945 -1.7852 0.9621
-8.8807 -2.9684 -1.7600 0.9626
-8.0181 -4.3950 -1.7186 0.9635
-6.9863 -5.6523 -1.6891 0.9641
-5.8071 -6.7326 -1.6712 0.9645
-4.4993 -7.6283 -1.6647 0.9646
-2.3327 -8.6076 -1.6763 0.9644
-1.5637 -8.8318 -1.6858 0.9642
-0.7745 -9.0023 -1.6983 0.9639
0.0328 -9.1174 -1.7137 0.9636
1.6923 -9.1736 -1.7534 0.9627
2.5394 -9.1104 -1.7777 0.9622
3.3942 -8.9833 -1.8050 0.9617
5.1127 -8.5276 -1.8689 0.9603
6.8145 -7.7867 -1.9449 0.9588
7.6463 -7.3034 -1.9875 0.9579
2.3071 -0.9885 -0.4718 0.9898
10.5184 -3.4320 -2.0796 0.9560
11.0585 -2.5423 -2.1328 0.9549
11.5281 -1.5841 -2.1872 0.9537
11.7271 0.4960 -2.2062 0.9534
8.9072 2.0021 -1.7160 0.9635
7.0355 2.9740 -1.4357 0.9694
5.5498 3.6262 -1.2461 0.9734
4.9530 3.9093 -1.1860 0.9746
4.1158 4.6570 -1.1682 0.9750
3.4732 4.7201 -1.1015 0.9764
1.6100 5.6691 -1.1077 0.9763
0.5677 2.9956 -0.5731 0.9877
0.6076 6.1877 -1.1686 0.9750
0.0551 6.4978 -1.2214 0.9739
-0.4967 6.1229 -1.1546 0.9753
-1.2564 7.3037 -1.3930 0.9703
-3.3281 12.5219 -2.4353 0.9486
-6.0930 10.4465 -2.2731 0.9520
-8.0528 9.4288 -2.3306 0.9508
-9.1294 7.4602 -2.2160 0.9531
-10.0182 4.4363 -2.0594 0.9564
-10.1373 3.4435 -2.0124 0.9574
-10.1388 1.5181 -1.9270 0.9591
-10.0310 0.5946 -1.8887 0.9599
-8.5869 -3.5083 -1.7435 0.9630
-8.1449 -4.2122 -1.7235 0.9634
-7.6598 -4.8741 -1.7065 0.9637
-7.1346 -5.4928 -1.6924 0.9640
-6.5718 -6.0676 -1.6812 0.9643
-5.9741 -6.5974 -1.6729 0.9644
-4.6826 -7.5185 -1.6649 0.9646
-2.5365 -8.5381 -1.6742 0.9644
-0.9893 -8.9616 -1.6947 0.9640
-0.1867 -9.0919 -1.7093 0.9637
0.6323 -9.1653 -1.7268 0.9633
1.4654 -9.1800 -1.7473 0.9629
3.1630 -9.0240 -1.7973 0.9618
4.8809 -8.6053 -1.8595 0.9605
5.7379 -8.2912 -1.8952 0.9598
8.2407 -6.9015 -2.0204 0.9572
11.4089 -1.8492 -2.1724 0.9540
11.8204 -0.8439 -2.2274 0.9529
11.7729 0.2136 -2.2132 0.9532
9.2136 1.8386 -1.7659 0.9625
6.4391 3.2322 -1.3542 0.9711
4.5654 4.1142 -1.1552 0.9753
4.2532 4.5846 -1.1754 0.9749
3.5962 4.6479 -1.1046 0.9764
3.1403 4.9092 -1.0954 0.9766
0.2089 6.4056 -1.2046 0.9743
-0.9198 6.2450 -1.1865 0.9746
-3.0422 12.6701 -2.4492 0.9483
-4.0729 12.0852 -2.3971 0.9494
-7.1565 10.6123 -2.4059 0.9492
-7.8763 9.6859 -2.3465 0.9505
-9.0076 7.7305 -2.2311 0.9528
-9.4232 6.7249 -2.1760 0.9540
10.3899 1.1965 -2.2107 0.9581
9.1046 1.8843 -1.9653 0.9627
7.1951 2.8981 -1.6396 0.9688
5.1457 3.9211 -1.3675 0.9739
4.5751 4.1822 -1.3102 0.9750
3.5597 4.6689 -1.2410 0.9763
2.6298 5.1443 -1.2213 0.9767
2.1724 5.3895 -1.2283 0.9765
1.7080 5.6463 -1.2469 0.9762
0.7178 6.2186 -1.3232 0.9747
0.1670 6.5501 -1.3850 0.9736
-0.4424 6.9109 -1.4638 0.9721
-0.9642 6.2386 -1.3344 0.9745
-4.4340 9.8869 -2.2904 0.9567
-5.1901 9.2570 -2.2433 0.9575
-5.8686 8.5706 -2.1957 0.9584
-8.6819 5.0092 -2.1187 0.9598
-8.9022 4.1248 -2.0739 0.9607
-9.0474 0.6911 -1.9180 0.9636
-8.9188 -0.1175 -1.8854 0.9642
-8.7320 -0.8990 -1.8555 0.9647
-7.8578 -3.0553 -1.7821 0.9661
-7.4729 -3.7048 -1.7631 0.9665
-7.0464 -4.3170 -1.7468 0.9668
-6.5811 -4.8906 -1.7332 0.9670
-5.5442 -5.9170 -1.7140 0.9674
-4.9774 -6.3676 -1.7084 0.9675
-4.3814 -6.7750 -1.7055 0.9676
-3.7583 -7.1381 -1.7052 0.9676
-3.1102 -7.4555 -1.7076 0.9675
-2.4392 -7.7262 -1.7126 0.9674
0.4314 -8.3127 -1.7595 0.9665
1.9461 -8.2860 -1.7992 0.9658
2.7138 -8.1865 -1.8231 0.9654
3.4842 -8.0270 -1.8497 0.9649
4.2534 -7.8057 -1.8790 0.9643
5.0176 -7.5208 -1.9111 0.9637
5.7720 -7.1705 -1.9458 0.9631
8.5385 -4.0821 -2.0005 0.9620
9.9563 -1.7882 -2.1382 0.9595
10.3004 -0.9119 -2.1858 0.9586
10.5664 0.0118 -2.2335 0.9577
9.4228 1.7141 -2.0245 0.9616
8.3282 2.2992 -1.8263 0.9653
7.4153 2.7808 -1.6740 0.9681
5.9619 3.5544 -1.4672 0.9720
5.3099 3.8474 -1.3861 0.9735
4.7238 4.1134 -1.3240 0.9747
3.8410 4.7935 -1.2984 0.9752
1.8345 5.5756 -1.2407 0.9763
0.7035 3.0257 -0.6566 0.9874
0.3207 6.4567 -1.3665 0.9739
-3.3686 10.5876 -2.3486 0.9556
-4.2171 10.0458 -2.3030 0.9564
-5.6933 8.7608 -2.2085 0.9582
-6.3135 8.0398 -2.1608 0.9591
-8.2854 6.1285 -2.1784 0.9587
-9.0140 3.4818 -2.0426 0.9613
-9.1028 2.6096 -2.0017 0.9620
-9.1207 1.7520 -1.9632 0.9627
-8.9594 0.0981 -1.8939 0.9640
-8.7879 -0.6910 -1.8633 0.9646
-8.5609 -1.4508 -1.8354 0.9651
-7.5810 -3.5332 -1.7680 0.9664
-7.1655 -4.1555 -1.7509 0.9667
-6.7104 -4.7397 -1.7366 0.9670
-6.2183 -5.2842 -1.7249 0.9672
-5.1333 -6.2502 -1.7097 0.9675
-4.5450 -6.6694 -1.7060 0.9675
-1.2303 -8.0800 -1.7276 0.9671
-0.5075 -8.2158 -1.7400 0.9669
0.2302 -8.2994 -1.7550 0.9666
0.9801 -8.3290 -1.7727 0.9663
4.0462 -7.8716 -1.8709 0.9645
5.5696 -7.2716 -1.9361 0.9632
6.3138 -6.8726 -1.9727 0.9626
7.0391 -6.4059 -2.0118 0.9618
7.7396 -5.8705 -2.0534 0.9611
8.4063 -5.2645 -2.0966 0.9603
9.4197 -2.8239 -2.0787 0.9606
10.5028 -0.2418 -2.2207 0.9580
10.7064 0.7120 -2.2681 0.9571
9.7607 1.5333 -2.0885 0.9604
8.6021 2.1528 -1.8744 0.9644
6.8393 3.0876 -1.5862 0.9698
3.3411 4.7779 -1.2324 0.9764
2.8769 5.0150 -1.2221 0.9766
2.4196 5.2561 -1.2231 0.9766
0.7909 3.0643 -0.6689 0.9871
0.4704 6.3664 -1.3494 0.9742
-0.1052 6.7169 -1.4200 0.9729
-2.1975 11.1561 -2.4035 0.9546
-3.1280 10.7203 -2.3605 0.9554
-3.9950 10.1995 -2.3154 0.9562
-4.7914 9.6047 -2.2689 0.9571
-7.2360 8.0698 -2.2911 0.9567
-8.7931 4.6019 -2.0978 0.9602
-8.9774 3.7190 -2.0540 0.9611
-9.0860 2.8438 -2.0125 0.9618
-9.0912 1.1377 -1.9367 0.9632
-8.3620 -1.9859 -1.8167 0.9655
-8.0472 -2.6898 -1.7935 0.9659
-7.6860 -3.3588 -1.7730 0.9663
-7.2816 -3.9913 -1.7552 0.9666
-6.8369 -4.5859 -1.7402 0.9669
-6.3546 -5.1412 -1.7278 0.9671
-5.8372 -5.6562 -1.7181 0.9673
-5.2871 -6.1297 -1.7111 0.9674
-3.4630 -7.2899 -1.7060 0.9675
-2.1233 -7.8347 -1.7158 0.9674
-1.4225 -8.0346 -1.7248 0.9672
0.0298 -8.2821 -1.7507 0.9667
0.7767 -8.3264 -1.7677 0.9664
3.8386 -7.9330 -1.8629 0.9646
6.1146 -6.9869 -1.9626 0.9628
6.8456 -6.5386 -2.0010 0.9620
8.2314 -5.4358 -2.0851 0.9605
8.2340 -4.4367 -1.9771 0.9625
2.3031 -0.9868 -0.5296 0.9898
9.2929 -3.0321 -2.0662 0.9608
9.7410 -2.2395 -2.1128 0.9600
10.1239 -1.3912 -2.1601 0.9591
10.4331 -0.4922 -2.2078 0.9582
10.6602 0.4509 -2.2554 0.9573
7.8915 2.5323 -1.7519 0.9667
7.0451 2.9780 -1.6168 0.9692
5.6544 3.6946 -1.4277 0.9728
5.0326 3.9722 -1.3552 0.9741
4.5620 4.3151 -1.3274 0.9747
3.4688 4.7141 -1.2372 0.9764
3.0011 4.9508 -1.2238 0.9766
2.0848 5.4374 -1.2309 0.9765
1.6179 5.6970 -1.2518 0.9761
-2.8829 10.8467 -2.3724 0.9552
-3.7677 10.3478 -2.3278 0.9560
-4.5838 9.7719 -2.2815 0.9568
-5.3254 9.1303 -2.2343 0.9577
-5.9887 8.4343 -2.1866 0.9586
-7.0815 8.2915 -2.3049 0.9564
-8.0761 6.5995 -2.2046 0.9583
-8.9353 3.9567 -2.0656 0.9608
-9.1196 2.2128 -1.9836 0.9624
-9.1062 1.3635 -1.9463 0.9631
-8.4387 -1.7901 -1.8235 0.9653
-6.9607 -4.4292 -1.7440 0.9668
-5.9801 -5.5213 -1.7205 0.9673
-4.2648 -6.8476 -1.7052 0.9676
-2.9842 -7.5107 -1.7083 0.9675
-2.3090 -7.7723 -1.7139 0.9674
-0.8996 -8.1489 -1.7330 0.9670
