ply
format ascii 1.0
element vertex 1597
property float32 x
property float32 y
property float32 z
property float32 I
end_header
-7.0679 8.2944 -2.3035 0.9564
-2.2933 2.2497 -0.6791 0.9870
-8.0643 6.6085 -2.2039 0.9583
-8.4341 5.7358 -2.1560 0.9592
-9.1175 2.2321 -1.9842 0.9624
-8.8931 -0.2468 -1.8806 0.9643
-8.4493 -1.7683 -1.8247 0.9653
-7.8034 -3.1610 -1.7797 0.9662
-6.9810 -4.4102 -1.7455 0.9668
-6.5108 -4.9775 -1.7324 0.9670
-6.0047 -5.5049 -1.7219 0.9672
-5.4652 -5.9912 -1.7142 0.9674
-4.8946 -6.4354 -1.7091 0.9675
-4.2951 -6.8363 -1.7066 0.9675
-3.0178 -7.5035 -1.7096 0.9675
-2.3442 -7.7674 -1.7150 0.9674
0.5337 -8.3252 -1.7634 0.9665
1.2875 -8.3324 -1.7822 0.9661
2.0497 -8.2831 -1.8037 0.9657
2.8174 -8.1756 -1.8279 0.9653
5.1177 -7.4852 -1.9167 0.9636
5.8697 -7.1265 -1.9516 0.9630
7.3212 -6.2073 -2.0289 0.9615
8.0089 -5.6449 -2.0712 0.9607
8.6404 -5.0010 -2.1103 0.9600
8.6059 -4.0032 -2.0063 0.9619
9.1271 -3.2915 -2.0509 0.9611
9.5941 -2.5197 -2.0968 0.9603
10.5881 0.1166 -2.2382 0.9576
10.7234 1.0791 -2.2782 0.9569
9.3583 1.7956 -2.0142 0.9618
8.2678 2.3672 -1.8179 0.9655
6.5850 3.2414 -1.5514 0.9704
5.9071 3.5949 -1.4617 0.9721
4.6690 4.1387 -1.3189 0.9748
1.7837 5.5713 -1.2365 0.9764
0.6727 3.0002 -0.6499 0.9875
0.2705 6.4365 -1.3618 0.9740
-0.8730 6.3524 -1.3554 0.9741
-6.3499 7.9780 -2.1553 0.9592
-7.4165 7.7792 -2.2719 0.9570
-8.3053 6.0644 -2.1738 0.9588
-8.6231 5.1856 -2.1270 0.9597
-8.8600 4.3032 -2.0820 0.9605
-9.1040 2.5546 -1.9987 0.9621
-9.0664 0.8640 -1.9251 0.9634
-8.9516 0.0513 -1.8922 0.9641
-8.5487 -1.4924 -1.8344 0.9651
-7.9387 -2.9105 -1.7873 0.9660
-7.1475 -4.1875 -1.7510 0.9667
-6.6914 -4.7694 -1.7370 0.9670
-5.1120 -6.2739 -1.7107 0.9675
-4.5231 -6.6911 -1.7072 0.9675
-3.9066 -7.0644 -1.7064 0.9675
-3.2646 -7.3924 -1.7082 0.9675
0.2539 -8.3083 -1.7570 0.9666
1.0037 -8.3362 -1.7748 0.9663
1.7631 -8.3083 -1.7953 0.9659
3.2986 -8.0781 -1.8444 0.9650
4.0678 -7.8720 -1.8730 0.9644
4.8329 -7.6028 -1.9043 0.9638
5.5893 -7.2687 -1.9382 0.9632
6.3322 -6.8684 -1.9747 0.9625
7.0560 -6.4004 -2.0137 0.9618
7.7547 -5.8638 -2.0551 0.9610
2.3194 -0.9253 -0.5278 0.9898
9.8550 -2.0082 -2.1259 0.9597
10.2165 -1.1464 -2.1731 0.9588
10.7037 0.7163 -2.2676 0.9571
8.6510 2.1665 -1.8851 0.9642
5.4897 3.7760 -1.4084 0.9731
4.8813 4.0434 -1.3398 0.9744
4.4876 4.4489 -1.3357 0.9745
2.8735 4.9969 -1.2184 0.9767
2.4163 5.2327 -1.2183 0.9767
1.9578 5.4767 -1.2294 0.9765
8.2254 -2.8632 -2.0469 0.9648
9.2166 -0.6196 -2.1710 0.9628
9.4115 0.2085 -2.2125 0.9621
9.5278 1.0661 -2.2532 0.9614
9.1921 1.8702 -2.2046 0.9622
7.2434 2.8871 -1.8326 0.9685
6.4864 3.2831 -1.7086 0.9706
5.8197 3.6312 -1.6122 0.9722
5.2192 3.9440 -1.5375 0.9735
4.6672 4.2309 -1.4805 0.9744
3.6372 4.7270 -1.4018 0.9758
2.6884 5.1986 -1.3755 0.9762
2.2243 5.4423 -1.3818 0.9761
1.7544 5.6978 -1.4011 0.9758
0.7535 6.2420 -1.4777 0.9745
0.2013 6.5226 -1.5337 0.9735
-2.3282 9.6393 -2.3306 0.9601
-3.1268 9.2409 -2.2928 0.9607
-3.8703 8.7712 -2.2532 0.9614
-4.5530 8.2394 -2.2124 0.9621
-5.1708 7.6544 -2.1710 0.9628
-6.6754 6.8474 -2.2475 0.9615
-7.1243 6.1092 -2.2057 0.9622
-8.0057 3.7786 -2.0806 0.9643
-8.1571 2.9934 -2.0421 0.9649
-8.2414 2.2138 -2.0056 0.9655
-8.2617 1.4450 -1.9712 0.9661
-8.1227 -0.0440 -1.9090 0.9672
-7.2141 -2.7364 -1.8134 0.9688
-6.8733 -3.3357 -1.7956 0.9691
-6.0749 -4.4329 -1.7674 0.9696
-5.6223 -4.9278 -1.7571 0.9697
-5.1374 -5.3853 -1.7492 0.9699
-4.6224 -5.8039 -1.7438 0.9700
-3.5113 -6.5199 -1.7404 0.9700
-2.9193 -6.8149 -1.7424 0.9700
-0.3594 -7.5446 -1.7752 0.9694
1.6972 -7.5807 -1.8257 0.9686
2.3946 -7.4875 -1.8475 0.9682
3.7880 -7.1344 -1.8984 0.9674
4.4765 -6.8718 -1.9275 0.9669
5.1539 -6.5501 -1.9588 0.9663
6.4561 -5.7264 -2.0282 0.9652
7.6042 -3.7460 -1.9922 0.9658
9.1245 -0.9211 -2.1554 0.9630
9.3473 -0.1058 -2.1970 0.9623
9.4938 0.7416 -2.2380 0.9616
9.5580 1.6136 -2.2781 0.9610
7.5635 2.7250 -1.8894 0.9675
6.7580 3.1411 -1.7515 0.9698
6.0608 3.5054 -1.6455 0.9716
5.4378 3.8302 -1.5632 0.9730
4.8694 4.1259 -1.5000 0.9741
4.4166 4.4772 -1.4781 0.9745
2.8629 5.1093 -1.3765 0.9762
1.7323 3.8640 -0.9952 0.9828
0.7449 3.0062 -0.7279 0.9874
0.4132 6.4150 -1.5108 0.9739
-0.1675 6.7095 -1.5774 0.9728
-0.6912 6.0246 -1.4252 0.9754
-4.9470 7.8794 -2.1866 0.9625
-5.5226 7.2658 -2.1449 0.9632
-6.0292 6.6136 -2.1033 0.9639
-2.3604 2.1653 -0.7528 0.9869
-7.3625 5.6323 -2.1786 0.9626
-7.6832 4.8572 -2.1363 0.9633
-8.1661 0.2292 -1.9200 0.9670
-8.0332 -0.4924 -1.8915 0.9675
-7.6126 -1.8612 -1.8418 0.9683
-7.3311 -2.5034 -1.8207 0.9687
-7.0059 -3.1148 -1.8019 0.9690
-5.7959 -4.7466 -1.7607 0.9697
-5.3228 -5.2183 -1.7519 0.9698
-4.2863 -6.0453 -1.7417 0.9700
-3.1439 -6.7094 -1.7414 0.9700
-2.5383 -6.9771 -1.7449 0.9700
-1.9126 -7.2004 -1.7509 0.9699
-1.2691 -7.3779 -1.7594 0.9697
2.1328 -7.5288 -1.8391 0.9684
2.8311 -7.4013 -1.8624 0.9680
4.9015 -6.6777 -1.9468 0.9665
6.8434 -5.4191 -2.0516 0.9648
9.0226 -1.2170 -2.1397 0.9633
6.3122 3.3741 -1.6822 0.9710
5.0771 4.0179 -1.5217 0.9737
3.0383 5.0207 -1.3792 0.9762
2.1076 5.5049 -1.3854 0.9761
0.6192 6.3104 -1.4902 0.9743
-1.2456 7.2548 -1.7300 0.9702
-3.3182 9.1297 -2.2830 0.9609
-4.7138 8.0977 -2.2021 0.9622
-5.3148 7.5009 -2.1606 0.9629
-5.8474 6.8621 -2.1189 0.9636
-2.2947 2.2511 -0.7555 0.9869
-7.2232 5.9192 -2.1948 0.9624
-8.0500 3.5820 -2.0708 0.9644
-8.1843 2.7976 -2.0328 0.9651
-8.2571 1.2548 -1.9629 0.9663
-8.0894 -0.2245 -1.9019 0.9673
-7.7064 -1.6129 -1.8504 0.9682
-6.7817 -3.4804 -1.7915 0.9692
-6.3916 -4.0379 -1.7768 0.9694
-5.9648 -4.5601 -1.7646 0.9696
-4.4892 -5.9024 -1.7428 0.9700
-3.3653 -6.5977 -1.7407 0.9700
-2.1494 -7.1220 -1.7484 0.9699
-0.1912 -7.5650 -1.7785 0.9694
1.8714 -7.5624 -1.8310 0.9685
2.5693 -7.4556 -1.8534 0.9681
3.2670 -7.2933 -1.8782 0.9677
4.6471 -6.7969 -1.9351 0.9667
5.3210 -6.4604 -1.9670 0.9662
5.9779 -6.0637 -2.0012 0.9656
6.6124 -5.6063 -2.0374 0.9650
7.2189 -5.0881 -2.0757 0.9644
7.7684 -4.4963 -2.1095 0.9638
8.1728 -2.9474 -2.0419 0.9649
8.5709 -2.2510 -2.0827 0.9642
8.9113 -1.5072 -2.1241 0.9635
9.1870 -0.7205 -2.1658 0.9628
9.3404 1.7922 -2.2352 0.9617
7.3458 2.8334 -1.8504 0.9682
4.7339 4.1963 -1.4868 0.9743
4.2869 4.5444 -1.4683 0.9747
0.6683 2.9809 -0.7180 0.9875
-0.3212 6.7874 -1.5970 0.9725
-3.0299 9.2946 -2.2976 0.9606
-3.7807 8.8334 -2.2582 0.9613
-4.4713 8.3089 -2.2176 0.9620
-5.0974 7.7300 -2.1762 0.9627
-5.6558 7.1060 -2.1345 0.9634
-6.1450 6.4455 -2.0930 0.9641
-7.0733 6.2035 -2.2111 0.9621
-7.7520 4.6617 -2.1259 0.9635
-7.9819 3.8767 -2.0855 0.9642
-8.1419 3.0912 -2.0468 0.9648
-8.2344 2.3106 -2.0100 0.9655
-8.2294 0.7842 -1.9429 0.9666
-7.7934 -1.3606 -1.8593 0.9680
-7.2537 -2.6593 -1.8157 0.9688
-6.5423 -3.8329 -1.7820 0.9693
-5.6806 -4.8681 -1.7582 0.9697
-5.1996 -5.3303 -1.7501 0.9699
-4.6883 -5.7538 -1.7443 0.9700
-4.1488 -6.1375 -1.7411 0.9700
-3.5835 -6.4801 -1.7403 0.9700
-2.9944 -6.7804 -1.7420 0.9700
-1.7533 -7.2492 -1.7528 0.9698
-0.4430 -7.5332 -1.7735 0.9695
1.6104 -7.5885 -1.8232 0.9686
4.3911 -6.9077 -1.9237 0.9669
5.0701 -6.5935 -1.9548 0.9664
6.3774 -5.7849 -2.0236 0.9652
6.9951 -5.2895 -2.0611 0.9646
7.5768 -4.7308 -2.0993 0.9640
2.3195 -0.9253 -0.5869 0.9898
8.4280 -2.5179 -2.0673 0.9645
9.5546 1.5037 -2.2732 0.9610
8.6355 2.1626 -2.0922 0.9641
6.8515 3.0922 -1.7667 0.9696
6.1433 3.4624 -1.6573 0.9714
5.5122 3.7915 -1.5724 0.9729
4.9379 4.0903 -1.5070 0.9740
4.4820 4.4433 -1.4833 0.9744
3.3943 4.8445 -1.3902 0.9760
2.4563 5.3194 -1.3770 0.9762
1.9905 5.5683 -1.3898 0.9760
6.6198 -3.7337 -1.9678 0.9691
7.4375 -2.5889 -2.0390 0.9680
7.7765 -1.9500 -2.0758 0.9674
8.5328 0.9548 -2.2231 0.9651
8.5457 1.7387 -2.2580 0.9646
7.2320 2.8825 -2.0157 0.9683
5.8116 3.6261 -1.7736 0.9721
3.6532 4.7479 -1.5511 0.9756
3.1766 4.9939 -1.5324 0.9758
2.7074 5.2353 -1.5260 0.9759
0.2011 6.5139 -1.6874 0.9734
-2.7951 8.2607 -2.2580 0.9646
-3.4661 7.8553 -2.2231 0.9651
-4.0853 7.3929 -2.1870 0.9657
-5.1529 6.3280 -2.1129 0.9668
-5.5964 5.7407 -2.0758 0.9674
-6.4407 5.5230 -2.1968 0.9656
-6.7865 4.8404 -2.1583 0.9661
-7.0650 4.1421 -2.1205 0.9667
-7.5173 2.0193 -2.0154 0.9683
-7.5207 0.6322 -1.9541 0.9693
-7.4405 -0.0403 -1.9265 0.9697
-7.3092 -0.6942 -1.9010 0.9701
-7.1296 -1.3267 -1.8777 0.9705
-6.9043 -1.9351 -1.8565 0.9708
-5.9813 -3.5944 -1.8068 0.9716
-5.1848 -4.5444 -1.7851 0.9719
-3.7649 -5.7055 -1.7699 0.9722
-2.6938 -6.2886 -1.7713 0.9721
-2.1274 -6.5192 -1.7755 0.9721
-0.9438 -6.8521 -1.7909 0.9718
-0.3311 -6.9519 -1.8020 0.9717
0.2922 -7.0056 -1.8155 0.9714
1.5604 -6.9695 -1.8492 0.9709
5.3076 -5.6298 -2.0033 0.9685
5.8830 -5.2181 -2.0361 0.9680
6.4320 -4.7519 -2.0705 0.9675
6.9362 -4.2241 -2.1027 0.9670
2.3593 -0.9109 -0.6548 0.9896
7.9611 -1.5301 -2.0990 0.9671
8.2089 -0.8286 -2.1362 0.9665
8.3930 -0.0950 -2.1732 0.9659
8.5083 0.6647 -2.2097 0.9654
7.5512 2.7205 -2.0781 0.9674
3.3540 4.9024 -1.5380 0.9758
0.7478 3.0181 -0.8051 0.9872
-0.1672 6.7004 -1.7354 0.9727
-1.7978 8.7117 -2.3031 0.9639
-2.5312 8.3965 -2.2706 0.9644
-3.2203 8.0143 -2.2363 0.9649
-3.8595 7.5725 -2.2006 0.9655
-5.4373 5.9644 -2.0897 0.9672
-2.3588 2.1639 -0.8288 0.9869
-6.6651 5.0988 -2.1728 0.9659
-7.2059 3.7009 -2.0974 0.9671
-7.3795 2.9919 -2.0618 0.9676
-7.4911 2.2837 -2.0277 0.9682
-7.5428 1.5811 -1.9954 0.9687
-6.7416 -2.3021 -1.8445 0.9710
-6.4479 -2.8667 -1.8270 0.9713
-5.3440 -4.3765 -1.7885 0.9719
-4.9098 -4.8133 -1.7802 0.9720
-3.9554 -5.5787 -1.7707 0.9721
-3.4397 -5.9048 -1.7694 0.9722
-2.9013 -6.1915 -1.7704 0.9721
-1.1702 -6.8030 -1.7873 0.9719
-0.5622 -6.9198 -1.7976 0.9717
0.6861 -7.0152 -1.8250 0.9713
3.8638 -6.3891 -1.9332 0.9696
4.4824 -6.1067 -1.9614 0.9692
6.2296 -4.9331 -2.0574 0.9677
6.7311 -3.6007 -1.9765 0.9690
2.2999 -0.9776 -0.6470 0.9897
7.5271 -2.4331 -2.0482 0.9678
7.8530 -1.7838 -2.0851 0.9673
8.1231 -1.0957 -2.1223 0.9667
8.3318 -0.3735 -2.1594 0.9661
8.5432 1.1497 -2.2319 0.9650
6.3031 3.3692 -1.8505 0.9709
5.6563 3.7072 -1.7510 0.9724
3.5329 4.8101 -1.5452 0.9756
3.0588 5.0545 -1.5297 0.9759
2.1198 5.5367 -1.5350 0.9758
0.5492 2.9013 -0.7645 0.9879
0.6184 6.3022 -1.6396 0.9742
-0.5583 6.8981 -1.7919 0.9718
-2.2611 8.5229 -2.2831 0.9642
-2.9675 8.1650 -2.2494 0.9647
-3.6260 7.7447 -2.2141 0.9653
-4.7803 6.7465 -2.1408 0.9664
-5.2696 6.1840 -2.1036 0.9670
-2.2974 2.2536 -0.8333 0.9868
-7.5458 1.1467 -1.9762 0.9690
-7.0774 -1.4812 -1.8722 0.9706
-6.8412 -2.0832 -1.8516 0.9709
-6.5627 -2.6584 -1.8333 0.9712
-6.2445 -3.2047 -1.8173 0.9714
-5.4988 -4.2039 -1.7921 0.9718
-4.6233 -5.0683 -1.7762 0.9721
-3.6359 -5.7871 -1.7696 0.9722
-3.1057 -6.0887 -1.7697 0.9722
-1.3947 -6.7478 -1.7840 0.9719
-0.1761 -6.9697 -1.8052 0.9716
2.3593 -6.8462 -1.8749 0.9705
2.9967 -6.6899 -1.8980 0.9702
4.2519 -6.2189 -1.9506 0.9694
4.8617 -5.9027 -1.9800 0.9689
6.0230 -5.1066 -2.0445 0.9679
7.0494 -4.0801 -2.1089 0.9669
6.9986 -3.2555 -1.9985 0.9686
7.7370 -2.0320 -2.0712 0.9675
8.0287 -1.3580 -2.1083 0.9669
8.5258 0.8580 -2.2186 0.9652
8.2391 2.3590 -2.2190 0.9652
5.8906 3.5849 -1.7854 0.9719
5.2841 3.9014 -1.7006 0.9732
4.7279 4.1909 -1.6358 0.9742
2.7658 5.2053 -1.5262 0.9759
1.6356 3.8781 -1.0898 0.9828
0.8187 6.2004 -1.6193 0.9745
-0.8318 6.0531 -1.5820 0.9751
-1.9851 8.6395 -2.2952 0.9640
-2.7080 8.3069 -2.2622 0.9645
-4.0110 7.4535 -2.1915 0.9656
-5.0932 6.3991 -2.1176 0.9668
-6.7472 4.9267 -2.1631 0.9661
-7.5270 0.7173 -1.9577 0.9692
-7.3283 -0.6138 -1.9041 0.9701
-6.9348 -1.8606 -1.8591 0.9708
-6.6719 -2.4460 -1.8399 0.9711
-6.0265 -3.5307 -1.8084 0.9716
-5.6490 -4.0265 -1.7962 0.9717
-4.3259 -5.3091 -1.7732 0.9721
-3.3071 -5.9803 -1.7694 0.9722
-2.7632 -6.2570 -1.7710 0.9721
0.2139 -7.0015 -1.8137 0.9715
1.4807 -6.9775 -1.8468 0.9710
2.1196 -6.8915 -1.8668 0.9706
2.7581 -6.7546 -1.8891 0.9703
3.3927 -6.5656 -1.9135 0.9699
6.8786 -4.2949 -2.0997 0.9670
8.1813 -0.9180 -2.1316 0.9666
8.5228 2.1343 -2.2748 0.9643
7.6596 2.6636 -2.0997 0.9670
6.8411 3.0875 -1.9433 0.9695
5.5048 3.7863 -1.7299 0.9728
4.9315 4.0850 -1.6580 0.9739
4.4763 4.4378 -1.6320 0.9743
3.9647 4.7029 -1.5926 0.9749
1.7978 3.8933 -1.1103 0.9824
2.0010 5.5975 -1.5391 0.9757
6.7804 -2.3602 -2.0325 0.9706
7.3255 -1.1552 -2.0994 0.9696
7.5174 -0.5054 -2.1329 0.9692
7.6495 0.1695 -2.1660 0.9687
7.7174 0.8636 -2.1984 0.9682
7.6470 2.2819 -2.2591 0.9674
7.2204 2.8779 -2.2004 0.9682
6.4672 3.2734 -2.0520 0.9703
5.2053 3.9335 -1.8470 0.9732
4.2123 4.5662 -1.7587 0.9745
3.1728 4.9878 -1.6735 0.9757
2.7041 5.2290 -1.6665 0.9758
1.7591 5.7131 -1.6923 0.9755
0.6167 2.9017 -0.8398 0.9877
-0.9050 6.0825 -1.7409 0.9748
-1.8735 7.7571 -2.2591 0.9674
-2.5242 7.4601 -2.2295 0.9678
-3.7006 6.6969 -2.1660 0.9687
-5.4509 4.6742 -2.0328 0.9706
-6.4607 3.7878 -2.1202 0.9693
-6.9037 1.8545 -2.0237 0.9707
-6.9400 1.2138 -1.9945 0.9711
-6.9240 0.5821 -1.9670 0.9715
-6.8578 -0.0371 -1.9414 0.9719
-6.3818 -1.7886 -1.8763 0.9728
-5.8572 -2.8425 -1.8431 0.9733
-5.5398 -3.3291 -1.8297 0.9735
-4.8064 -4.2127 -1.8093 0.9738
-1.4309 -6.2187 -1.8065 0.9738
-0.3067 -6.4401 -1.8252 0.9736
1.4427 -6.4440 -1.8694 0.9729
2.0319 -6.3534 -1.8883 0.9727
2.6191 -6.2152 -1.9093 0.9724
3.2009 -6.0286 -1.9323 0.9720
3.7737 -5.7930 -1.9572 0.9717
4.3337 -5.5078 -1.9840 0.9713
4.8767 -5.1728 -2.0125 0.9709
6.3438 -3.8634 -2.1027 0.9696
2.3640 -0.9127 -0.7174 0.9895
6.9722 -1.9986 -2.0533 0.9703
7.6073 -0.0861 -2.1537 0.9689
7.6997 0.6015 -2.1864 0.9684
7.6819 2.0150 -2.2482 0.9675
7.5387 2.7161 -2.2684 0.9672
6.7375 3.1316 -2.1033 0.9696
6.0435 3.4954 -1.9764 0.9714
4.4055 4.4659 -1.7759 0.9743
3.8976 4.7292 -1.7349 0.9748
2.8794 5.1388 -1.6676 0.9758
0.7525 3.0371 -0.8858 0.9871
0.4749 3.0671 -0.8786 0.9872
-0.1670 6.6912 -1.8948 0.9726
-1.6205 7.8522 -2.2697 0.9672
-2.2846 7.5787 -2.2408 0.9676
-2.9110 7.2444 -2.2102 0.9681
-4.0297 6.4183 -2.1454 0.9690
-2.3573 2.1624 -0.9056 0.9868
-6.5957 3.3876 -2.0991 0.9696
-6.8761 2.0962 -2.0350 0.9706
-6.8883 0.1933 -1.9508 0.9718
-6.7920 -0.4163 -1.9264 0.9721
-6.4626 -1.5800 -1.8834 0.9727
-5.9671 -2.6529 -1.8487 0.9732
-5.6629 -3.1500 -1.8345 0.9734
-5.3242 -3.6184 -1.8224 0.9736
-4.9533 -4.0565 -1.8125 0.9737
-4.5523 -4.4629 -1.8047 0.9738
-3.6689 -5.1746 -1.7957 0.9740
-2.6911 -5.7431 -1.7955 0.9740
-1.6359 -6.1586 -1.8039 0.9739
-0.5209 -6.4115 -1.8210 0.9736
0.6350 -6.4926 -1.8468 0.9732
1.2219 -6.4659 -1.8628 0.9730
1.8110 -6.3929 -1.8810 0.9728
3.5602 -5.8871 -1.9477 0.9718
4.6754 -5.3042 -2.0016 0.9710
5.7113 -4.5227 -2.0624 0.9702
6.1531 -3.2915 -1.9755 0.9714
7.1450 -1.6230 -2.0742 0.9700
7.6727 0.3416 -2.1742 0.9686
7.6180 2.4599 -2.2662 0.9673
7.0219 2.9822 -2.1597 0.9688
6.2938 3.3643 -2.0203 0.9708
5.0637 4.0073 -1.8281 0.9735
3.0551 5.0484 -1.6705 0.9758
2.5871 5.2891 -1.6668 0.9758
2.1172 5.5300 -1.6763 0.9757
1.6379 5.7749 -1.6993 0.9754
0.6176 6.2940 -1.7904 0.9741
0.0561 6.5784 -1.8624 0.9730
-2.0398 7.6886 -2.2519 0.9675
-2.6809 7.3764 -2.2219 0.9679
-5.5304 4.5321 -2.0242 0.9707
-6.2683 4.2629 -2.1460 0.9690
-6.5175 3.6280 -2.1117 0.9695
-6.7079 2.9848 -2.0785 0.9699
-6.8408 2.3384 -2.0466 0.9704
-6.9178 1.6936 -2.0162 0.9708
-6.8336 -0.1897 -1.9353 0.9720
-6.5376 -1.3682 -1.8908 0.9726
-6.3247 -1.9260 -1.8716 0.9729
-6.0717 -2.4595 -1.8545 0.9731
-5.7811 -2.9669 -1.8395 0.9733
-4.7060 -4.3143 -1.8074 0.9738
-3.8422 -5.0518 -1.7968 0.9740
-3.3727 -5.3681 -1.7947 0.9740
-1.8388 -6.0928 -1.8017 0.9739
-1.2930 -6.2555 -1.8083 0.9738
-0.1631 -6.4557 -1.8282 0.9735
0.4161 -6.4909 -1.8413 0.9733
2.1791 -6.3233 -1.8934 0.9726
2.7652 -6.1731 -1.9149 0.9723
3.9151 -5.7263 -1.9638 0.9716
5.5248 -4.6842 -2.0505 0.9703
6.0130 -4.2382 -2.0826 0.9699
6.4458 -3.7307 -2.1084 0.9695
7.0437 -1.8499 -2.0616 0.9702
7.6364 0.0841 -2.1620 0.9688
7.7126 0.7761 -2.1944 0.9683
7.6597 2.1931 -2.2555 0.9674
7.3222 2.8244 -2.2217 0.9679
4.7217 4.1854 -1.7862 0.9741
4.2762 4.5330 -1.7642 0.9744
1.8192 5.6824 -1.6891 0.9755
0.8176 6.1925 -1.7683 0.9744
-0.3203 6.7686 -1.9183 0.9722
-0.8307 6.0448 -1.7273 0.9750
-1.7898 7.7898 -2.2627 0.9673
-2.4451 7.5005 -2.2333 0.9677
-3.6326 6.7504 -2.1701 0.9686
-5.0456 5.2923 -2.0700 0.9701
-6.1595 4.4976 -2.1591 0.9688
-6.9384 1.2933 -1.9980 0.9711
-6.9288 0.6603 -1.9704 0.9715
-6.7605 -0.5662 -1.9206 0.9722
-6.4093 -1.7196 -1.8786 0.9728
-6.1711 -2.2624 -1.8607 0.9730
-5.8943 -2.7799 -1.8449 0.9733
-5.5813 -3.2699 -1.8312 0.9735
-5.2344 -3.7309 -1.8197 0.9736
-4.4476 -4.5594 -1.8031 0.9739
-3.0677 -5.5474 -1.7946 0.9740
-2.0395 -6.0213 -1.7997 0.9739
0.1981 -6.4829 -1.8361 0.9734
0.7814 -6.4902 -1.8506 0.9732
1.3692 -6.4520 -1.8672 0.9730
2.5460 -6.2351 -1.9066 0.9724
3.1287 -6.0546 -1.9293 0.9721
3.7028 -5.8251 -1.9540 0.9717
4.8100 -5.2173 -2.0089 0.9709
5.8335 -4.4111 -2.0704 0.9701
6.2920 -3.9286 -2.0999 0.9696
7.2085 -1.4689 -2.0826 0.9699
7.5913 -0.1705 -2.1496 0.9689
7.6917 0.5147 -2.1823 0.9685
7.7261 1.2159 -2.2141 0.9680
5.4972 3.7811 -1.8888 0.9726
4.9250 4.0796 -1.8104 0.9738
3.9598 4.6970 -1.7392 0.9748
2.9378 5.1088 -1.6683 0.9758
5.5711 -3.1422 -1.9673 0.9736
5.9164 -2.6723 -1.9968 0.9732
6.2235 -2.1664 -2.0269 0.9728
6.4881 -1.6269 -2.0574 0.9724
6.7057 -1.0575 -2.0880 0.9720
6.9835 0.1547 -2.1485 0.9712
7.0364 0.7874 -2.1777 0.9708
7.0277 1.4298 -2.2059 0.9704
6.4574 3.2685 -2.2261 0.9702
5.7952 3.6159 -2.1010 0.9718
5.1982 3.9282 -2.0040 0.9731
4.2070 4.5604 -1.9084 0.9744
2.7008 5.2226 -1.8084 0.9757
0.6370 2.9973 -0.9425 0.9873
0.7506 6.2179 -1.9264 0.9741
-0.9036 6.0731 -1.8885 0.9746
-1.7041 7.0554 -2.2325 0.9701
-4.6692 4.7896 -2.0574 0.9724
-5.0024 4.2896 -2.0269 0.9728
-5.6891 4.0577 -2.1493 0.9712
-5.9457 3.4859 -2.1199 0.9716
-6.1421 2.8990 -2.0890 0.9720
-6.3765 1.7129 -2.0308 0.9727
-6.4089 0.5388 -1.9782 0.9734
-6.3538 -0.0344 -1.9543 0.9738
-6.2538 -0.5940 -1.9322 0.9741
-6.1109 -1.1371 -1.9119 0.9743
-2.8005 -5.2001 -1.8166 0.9756
-2.3278 -5.4341 -1.8183 0.9756
-0.2855 -5.9931 -1.8455 0.9752
0.7945 -6.0314 -1.8712 0.9749
1.3403 -5.9867 -1.8870 0.9747
1.8864 -5.8983 -1.9047 0.9744
2.4295 -5.7655 -1.9243 0.9742
2.9667 -5.5875 -1.9458 0.9739
4.0087 -5.0948 -1.9940 0.9732
4.5061 -4.7798 -2.0205 0.9729
4.9824 -4.4193 -2.0485 0.9725
5.4332 -4.0141 -2.0778 0.9721
5.7912 -2.8529 -1.9856 0.9733
6.1131 -2.3601 -2.0155 0.9729
6.8160 -0.6880 -2.1071 0.9717
7.0236 0.5487 -2.1669 0.9709
7.0383 1.1882 -2.1955 0.9706
6.9900 1.8335 -2.2227 0.9702
6.8768 2.4776 -2.2482 0.9699
6.6977 3.1130 -2.2717 0.9696
6.0347 3.4903 -2.1442 0.9712
5.4156 3.8146 -2.0375 0.9727
4.8503 4.1097 -1.9554 0.9737
4.3930 4.4533 -1.9240 0.9742
3.8927 4.7233 -1.8826 0.9747
3.3458 4.8903 -1.8225 0.9755
2.8759 5.1325 -1.8096 0.9757
1.9367 5.6142 -1.8267 0.9755
0.7611 3.0714 -0.9733 0.9868
-0.1668 6.6819 -2.0558 0.9724
-0.6891 6.0064 -1.8595 0.9750
-1.4732 7.1388 -2.2420 0.9700
-3.1883 6.2555 -2.1596 0.9710
-4.1304 5.4342 -2.0995 0.9718
-4.5315 4.9707 -2.0688 0.9722
-2.3557 2.1610 -0.9832 0.9867
-6.0748 3.1200 -2.1005 0.9718
-6.4176 0.7565 -1.9876 0.9733
-6.3798 0.1791 -1.9631 0.9736
-6.1693 -0.9356 -1.9193 0.9742
-5.7930 -1.9782 -1.8828 0.9747
-5.5480 -2.4666 -1.8675 0.9749
-5.2681 -2.9304 -1.8542 0.9751
-4.6118 -3.7769 -1.8335 0.9754
-3.4181 -4.8209 -1.8177 0.9756
-2.5072 -5.3506 -1.8174 0.9756
-1.5236 -5.7358 -1.8254 0.9755
-0.4848 -5.9675 -1.8415 0.9753
0.0495 -6.0231 -1.8526 0.9751
0.5904 -6.0371 -1.8657 0.9749
1.1355 -6.0085 -1.8808 0.9747
1.6818 -5.9366 -1.8978 0.9745
2.2264 -5.8205 -1.9168 0.9743
2.7662 -5.6595 -1.9376 0.9740
3.2978 -5.4532 -1.9601 0.9737
3.8176 -5.2011 -1.9844 0.9734
4.8066 -4.5597 -2.0378 0.9727
5.2675 -4.1712 -2.0666 0.9723
5.6955 -3.7355 -2.0950 0.9719
6.5471 -1.4872 -2.0650 0.9723
6.7523 -0.9108 -2.0957 0.9719
6.9053 -0.3095 -2.1261 0.9715
7.0024 0.3117 -2.1559 0.9711
7.0401 0.9474 -2.1849 0.9707
6.2845 3.3593 -2.1918 0.9706
5.0569 4.0019 -1.9835 0.9734
4.5176 4.2830 -1.9147 0.9743
2.5840 5.2826 -1.8088 0.9757
-0.5567 6.8784 -2.1226 0.9715
-1.2386 7.2138 -2.2513 0.9698
-1.8558 6.9951 -2.2260 0.9702
-2.4421 6.7192 -2.1989 0.9705
-3.9677 5.5997 -2.1109 0.9717
-4.3868 5.1480 -2.0803 0.9721
-5.0779 4.1612 -2.0193 0.9729
-5.7628 3.9191 -2.1436 0.9713
-6.3913 1.5647 -2.0239 0.9728
-6.4196 0.9756 -1.9972 0.9732
-6.3994 0.3943 -1.9721 0.9735
-6.3329 -0.1758 -1.9486 0.9738
-6.0687 -1.2701 -1.9071 0.9744
-5.3770 -2.7595 -1.8589 0.9750
-5.0763 -3.2069 -1.8468 0.9752
-4.7440 -3.6268 -1.8367 0.9753
-3.9936 -4.3779 -1.8226 0.9755
-1.7127 -5.6750 -1.8233 0.9755
-0.1518 -6.0071 -1.8482 0.9752
1.4770 -5.9687 -1.8912 0.9746
2.0226 -5.8693 -1.9095 0.9744
3.6243 -5.3010 -1.9751 0.9735
4.1349 -5.0203 -2.0005 0.9731
5.8753 -2.7330 -1.9931 0.9732
6.1874 -2.2314 -2.0231 0.9728
6.4575 -1.6960 -2.0536 0.9724
6.8543 -0.5376 -2.1147 0.9716
6.9678 1.9950 -2.2293 0.9701
6.8381 2.6376 -2.2543 0.9698
6.5457 3.2221 -2.2440 0.9699
1.5680 3.7178 -1.2411 0.9833
1.8170 5.6753 -1.8329 0.9754
0.6737 3.0048 -0.9471 0.9872
0.2715 6.4605 -1.9889 0.9733
-0.8295 6.0363 -1.8741 0.9748
-3.7984 5.7602 -2.1223 0.9715
-4.6241 4.8503 -2.0612 0.9723
-4.9636 4.3532 -2.0307 0.9727
-5.9174 3.5585 -2.1238 0.9715
-6.1205 2.9727 -2.0928 0.9719
-6.2703 2.3806 -2.0629 0.9723
-6.4147 1.1957 -2.0070 0.9731
-6.4125 0.6111 -1.9813 0.9734
-6.2686 -0.5250 -1.9348 0.9740
-6.1310 -1.0703 -1.9143 0.9743
-5.9524 -1.5970 -1.8956 0.9745
-5.7351 -2.1026 -1.8788 0.9748
-4.8721 -3.4727 -1.8403 0.9753
-4.1424 -4.2465 -1.8247 0.9755
-3.7375 -4.5870 -1.8199 0.9755
-3.3088 -4.8947 -1.8172 0.9756
-2.3878 -5.4069 -1.8180 0.9756
-1.8998 -5.6089 -1.8215 0.9755
-0.8796 -5.8992 -1.8345 0.9753
0.1843 -6.0305 -1.8557 0.9751
0.7265 -6.0340 -1.8693 0.9749
1.2721 -5.9947 -1.8849 0.9747
2.3620 -5.7845 -1.9218 0.9742
2.9001 -5.6122 -1.9430 0.9739
3.4291 -5.3944 -1.9661 0.9736
3.9454 -5.1309 -1.9908 0.9733
5.3785 -4.0670 -2.0740 0.9722
6.6031 -1.3456 -2.0727 0.9722
6.7956 -0.7625 -2.1033 0.9718
6.9350 -0.1558 -2.1336 0.9714
6.9995 1.7529 -2.2194 0.9703
6.8945 2.3975 -2.2451 0.9699
6.7236 3.0345 -2.2689 0.9696
5.4896 3.7759 -2.0493 0.9725
4.9184 4.0742 -1.9644 0.9736
4.4398 4.4015 -1.9229 0.9742
3.9548 4.6911 -1.8872 0.9746
1.9961 5.5838 -1.8239 0.9755
5.4678 -2.4697 -1.9943 0.9750
5.7451 -1.9998 -2.0221 0.9747
6.1759 -0.9739 -2.0783 0.9740
6.4437 1.3110 -2.1858 0.9727
6.3708 1.9011 -2.2100 0.9724
6.2387 2.4866 -2.2324 0.9721
5.7868 3.6107 -2.2673 0.9717
5.1911 3.9228 -2.1628 0.9729
4.1032 4.4479 -2.0115 0.9748
3.1649 4.9754 -1.9601 0.9755
0.6380 3.0017 -1.0201 0.9871
0.7496 6.2097 -2.0791 0.9740
-1.5609 6.4626 -2.2100 0.9724
-2.1076 6.2288 -2.1858 0.9727
-2.6235 5.9457 -2.1602 0.9730
-3.9478 4.8481 -2.0782 0.9740
-4.3053 4.4162 -2.0501 0.9743
-4.6179 3.9598 -2.0221 0.9747
-5.5011 3.2252 -2.1197 0.9735
-5.6890 2.6852 -2.0911 0.9738
-5.9616 1.0427 -2.0118 0.9748
-5.9132 -0.0320 -1.9656 0.9754
-5.8246 -0.5532 -1.9449 0.9756
-5.6957 -1.0599 -1.9258 0.9759
-5.3244 -2.0196 -1.8929 0.9763
-4.8149 -2.8935 -1.8673 0.9766
-3.8271 -4.0118 -1.8430 0.9769
-3.0429 -4.6113 -1.8365 0.9770
-2.6191 -4.8633 -1.8361 0.9770
-2.1769 -5.0818 -1.8377 0.9770
-1.7184 -5.2657 -1.8412 0.9769
-1.2457 -5.4139 -1.8466 0.9769
-0.7610 -5.5254 -1.8540 0.9768
-0.2667 -5.5992 -1.8633 0.9766
0.2350 -5.6342 -1.8745 0.9765
0.7416 -5.6297 -1.8875 0.9763
1.2504 -5.5849 -1.9024 0.9762
2.2635 -5.3713 -1.9375 0.9757
3.7255 -4.7348 -2.0027 0.9749
4.6215 -4.0991 -2.0534 0.9743
5.4027 -3.2903 -2.1027 0.9737
6.1087 -1.1741 -2.0677 0.9741
6.2729 -0.6332 -2.0957 0.9738
6.4494 0.5038 -2.1504 0.9731
6.4560 1.0899 -2.1764 0.9728
6.2952 2.2681 -2.2242 0.9722
4.8438 4.1042 -2.1104 0.9736
4.2437 4.3019 -2.0086 0.9749
3.8210 4.6362 -1.9970 0.9750
1.7030 3.7985 -1.3837 0.9826
0.4111 6.3810 -2.1255 0.9734
-0.1665 6.6724 -2.2186 0.9723
-2.9284 5.7457 -2.1437 0.9732
-3.8024 5.0027 -2.0887 0.9739
-4.1765 4.5813 -2.0607 0.9742
-2.3541 2.1595 -1.0619 0.9866
-4.7900 3.6643 -2.0047 0.9749
-5.4156 3.4237 -2.1297 0.9734
-5.6243 2.8886 -2.1017 0.9737
-5.9356 0.1666 -1.9738 0.9753
-5.8627 -0.3594 -1.9524 0.9755
-5.7487 -0.8718 -1.9327 0.9758
-5.5954 -1.3680 -1.9147 0.9760
-4.9202 -2.7369 -1.8715 0.9765
-4.3104 -3.5301 -1.8520 0.9768
-3.9637 -3.8858 -1.8451 0.9769
-3.1966 -4.5084 -1.8371 0.9770
-2.3447 -5.0038 -1.8369 0.9770
-0.9440 -5.4880 -1.8510 0.9768
-0.4530 -5.5760 -1.8596 0.9767
0.5512 -5.6361 -1.8824 0.9764
1.5683 -5.5360 -1.9126 0.9760
2.0748 -5.4241 -1.9304 0.9758
3.0685 -5.0740 -1.9710 0.9753
4.4601 -4.2310 -2.0435 0.9744
5.2360 -2.8009 -1.9739 0.9753
2.2930 -0.9747 -0.8282 0.9896
5.8084 -1.8775 -2.0291 0.9746
6.3506 -0.2847 -2.1131 0.9736
6.3434 2.0483 -2.2158 0.9723
5.9899 3.2018 -2.2577 0.9718
4.3781 4.1507 -2.0054 0.9749
4.0049 4.5408 -2.0126 0.9748
3.5198 4.7922 -1.9764 0.9752
2.1120 5.5163 -1.9634 0.9754
1.6338 5.7604 -1.9903 0.9751
0.5466 2.8875 -0.9769 0.9877
0.6159 6.2774 -2.0967 0.9738
-1.1337 6.6030 -2.2270 0.9722
-2.2397 6.1624 -2.1795 0.9727
-2.7472 5.8677 -2.1537 0.9731
-3.2188 5.5295 -2.1268 0.9734
-4.0414 4.7427 -2.0712 0.9741
-2.3056 2.2617 -1.0736 0.9865
-4.6889 3.8424 -2.0151 0.9748
-5.3175 3.6163 -2.1376 0.9733
-5.7283 2.5489 -2.0841 0.9739
-5.8548 2.0014 -2.0567 0.9743
-5.9519 0.3667 -1.9822 0.9752
-5.8949 -0.1636 -1.9603 0.9754
-5.7961 -0.6814 -1.9399 0.9757
-5.6574 -1.1840 -1.9213 0.9759
-5.4806 -1.6689 -1.9044 0.9761
-5.2679 -2.1339 -1.8893 0.9763
-4.7423 -2.9959 -1.8646 0.9766
-4.4335 -3.3891 -1.8551 0.9768
-4.0968 -3.7558 -1.8475 0.9768
-3.3473 -4.4011 -1.8380 0.9770
-2.9387 -4.6774 -1.8362 0.9770
-2.5101 -4.9211 -1.8363 0.9770
-2.0636 -5.1311 -1.8384 0.9770
-1.6014 -5.3062 -1.8424 0.9769
-1.1255 -5.4453 -1.8483 0.9768
-0.6382 -5.5474 -1.8562 0.9767
-0.1418 -5.6116 -1.8659 0.9766
2.3888 -5.3329 -1.9424 0.9757
2.8850 -5.1525 -1.9629 0.9754
3.3705 -4.9297 -1.9851 0.9751
3.8419 -4.6645 -2.0087 0.9748
4.2954 -4.3570 -2.0338 0.9745
4.7272 -4.0080 -2.0601 0.9742
5.1334 -3.6181 -2.0876 0.9739
5.4306 -2.5261 -1.9909 0.9751
5.7126 -2.0601 -2.0186 0.9747
6.3063 -0.4946 -2.1027 0.9737
6.4081 0.0706 -2.1302 0.9733
6.0742 2.9900 -2.2505 0.9719
4.1506 4.3999 -2.0106 0.9748
3.6997 4.6990 -1.9880 0.9751
2.7556 5.1862 -1.9522 0.9755
1.5574 3.6927 -1.3322 0.9832
-0.3194 6.7494 -2.2461 0.9719
-0.8284 6.0280 -2.0226 0.9747
-1.4907 6.4881 -2.2129 0.9723
-2.5610 5.9836 -2.1635 0.9729
-3.0465 5.6611 -2.1370 0.9733
-3.9001 4.9000 -2.0817 0.9739
-4.5813 4.0180 -2.0256 0.9746
-5.8131 2.2070 -2.0669 0.9741
-5.9621 0.5682 -1.9908 0.9751
-5.3517 -1.9620 -1.8947 0.9763
-5.1175 -2.4135 -1.8808 0.9764
-4.8505 -2.8417 -1.8686 0.9766
-3.0943 -4.5775 -1.8366 0.9770
-2.6730 -4.8336 -1.8360 0.9770
-1.3054 -5.3974 -1.8459 0.9769
0.1721 -5.6320 -1.8730 0.9765
2.2008 -5.3896 -1.9351 0.9758
2.7000 -5.2251 -1.9550 0.9755
3.1899 -5.0182 -1.9766 0.9752
4.1277 -4.4772 -2.0242 0.9747
4.9844 -3.7690 -2.0772 0.9740
2.3235 -0.9269 -0.8315 0.9895
5.8690 -1.7534 -2.0361 0.9745
6.0849 -1.2400 -2.0642 0.9742
6.2550 -0.7019 -2.0923 0.9738
6.3760 -0.1432 -2.1200 0.9735
6.4146 1.6064 -2.1981 0.9725
5.4819 3.7706 -2.2116 0.9723
4.9118 4.0687 -2.1201 0.9735
3.8819 4.6046 -2.0020 0.9749
3.4007 4.8537 -1.9700 0.9753
1.7646 3.8213 -1.3991 0.9824
5.5438 -1.3901 -2.0439 0.9760
5.7173 -0.9016 -2.0698 0.9757
5.8466 -0.3931 -2.0955 0.9754
5.9289 0.1314 -2.1207 0.9751
5.9424 1.2090 -2.1686 0.9746
5.8702 1.7517 -2.1907 0.9743
5.7439 2.2894 -2.2112 0.9741
5.3294 3.3252 -2.2464 0.9737
5.0432 3.8111 -2.2605 0.9735
2.6941 5.2095 -2.0973 0.9754
1.5790 3.8635 -1.4925 0.9824
-0.3641 6.2248 -2.2298 0.9739
-0.9009 6.0546 -2.1890 0.9743
-1.4382 5.9547 -2.1907 0.9743
-3.6547 4.4881 -2.0698 0.9757
-3.9896 4.0925 -2.0439 0.9760
-4.2836 3.6732 -2.0179 0.9763
-4.5355 3.2349 -1.9922 0.9766
-5.1102 2.9960 -2.1184 0.9751
-5.2926 2.4981 -2.0929 0.9754
-5.5610 0.9726 -2.0188 0.9763
-3.9237 -3.4390 -1.8658 0.9781
-3.5901 -3.7634 -1.8600 0.9781
-2.0425 -4.7680 -1.8549 0.9782
-1.6121 -4.9400 -1.8583 0.9782
-1.1684 -5.0781 -1.8634 0.9781
-0.2500 -5.2489 -1.8792 0.9779
0.2202 -5.2798 -1.8897 0.9778
1.1706 -5.2286 -1.9161 0.9775
1.6455 -5.1453 -1.9318 0.9773
2.5808 -4.8608 -1.9681 0.9769
3.0351 -4.6592 -1.9885 0.9767
3.9006 -4.1375 -2.0334 0.9761
4.6853 -3.4615 -2.0832 0.9756
5.0220 -3.0584 -2.1027 0.9753
4.9735 -2.4501 -1.9827 0.9767
5.4680 -1.5674 -2.0341 0.9761
5.6572 -1.0873 -2.0601 0.9758
5.9552 0.4652 -2.1361 0.9749
5.7976 2.0888 -2.2037 0.9742
3.3374 4.8780 -2.1136 0.9752
2.8687 5.1197 -2.0987 0.9754
1.7015 3.7954 -1.4874 0.9825
1.9318 5.6000 -2.1184 0.9751
0.7569 3.0546 -1.1254 0.9867
0.4748 3.0665 -1.1097 0.9869
-0.1560 6.2515 -2.2363 0.9738
-1.7571 5.8287 -2.1770 0.9745
-2.2459 5.5893 -2.1541 0.9747
-2.7047 5.3067 -2.1300 0.9750
-4.4460 3.4012 -2.0018 0.9765
-5.0240 3.1761 -2.1255 0.9751
-5.4876 1.6729 -2.0516 0.9759
-5.5674 0.6563 -2.0047 0.9765
-5.5437 0.1556 -1.9832 0.9767
-4.8518 -2.1571 -1.8988 0.9777
-3.3697 -3.9520 -1.8572 0.9782
-2.2000 -4.6950 -1.8541 0.9782
-0.8853 -5.1468 -1.8676 0.9781
-0.4248 -5.2278 -1.8757 0.9780
0.0433 -5.2726 -1.8856 0.9779
0.9921 -5.2499 -1.9106 0.9776
3.7437 -4.2472 -2.0246 0.9762
4.1559 -3.9425 -2.0485 0.9760
4.5457 -3.5996 -2.0735 0.9757
4.9013 -3.2146 -2.0961 0.9754
4.8654 -2.6027 -1.9732 0.9768
5.7539 -0.7761 -2.0763 0.9756
5.8717 -0.2632 -2.1019 0.9753
5.8437 1.8869 -2.1960 0.9743
5.5098 2.9452 -2.2342 0.9738
3.7750 4.2801 -2.0408 0.9760
3.5153 4.7861 -2.1236 0.9751
0.5484 2.8969 -1.0544 0.9876
0.6151 6.2689 -2.2526 0.9736
-1.5670 5.9066 -2.1853 0.9744
-2.0660 5.6843 -2.1628 0.9746
-3.3775 4.7666 -2.0891 0.9755
-2.3084 2.2644 -1.1564 0.9864
-4.3506 3.5652 -2.0115 0.9764
-4.5918 3.1228 -1.9858 0.9767
-5.1622 2.8736 -2.1128 0.9752
-5.3304 2.3718 -2.0864 0.9755
-5.5574 0.3424 -1.9911 0.9766
-5.4196 -0.6372 -1.9514 0.9771
-5.2932 -1.1078 -1.9339 0.9773
-4.9340 -1.9987 -1.9037 0.9776
-3.8425 -3.5227 -1.8642 0.9781
-3.5030 -3.8402 -1.8588 0.9782
-3.1406 -4.1293 -1.8552 0.9782
-2.7574 -4.3888 -1.8535 0.9782
-2.3552 -4.6174 -1.8536 0.9782
-1.9362 -4.8141 -1.8556 0.9782
0.3386 -5.2817 -1.8927 0.9778
0.8136 -5.2657 -1.9054 0.9776
1.7638 -5.1184 -1.9360 0.9773
2.2335 -4.9860 -1.9537 0.9771
2.6955 -4.8141 -1.9730 0.9768
3.5840 -4.3514 -2.0160 0.9763
4.4024 -3.7326 -2.0640 0.9758
4.7758 -3.3661 -2.0895 0.9755
4.7528 -2.7509 -1.9638 0.9769
5.5192 -1.4495 -2.0406 0.9761
5.6980 -0.9637 -2.0666 0.9757
5.8330 -0.4575 -2.0923 0.9755
5.9602 0.5998 -2.1422 0.9749
5.9477 1.1412 -2.1657 0.9746
5.8821 1.6842 -2.1880 0.9743
5.5889 2.7511 -2.2276 0.9739
5.3614 3.2628 -2.2444 0.9737
3.9512 4.1885 -2.0591 0.9758
2.7522 5.1797 -2.0975 0.9754
0.6724 2.9989 -1.0990 0.9870
0.8144 6.1681 -2.2249 0.9739
-2.3636 5.5225 -2.1482 0.9748
-4.2492 3.7267 -2.0211 0.9763
-4.5064 3.2905 -1.9954 0.9766
-5.2727 2.5609 -2.0962 0.9754
-5.5071 1.5453 -2.0455 0.9760
-5.5577 1.0360 -2.0217 0.9763
-5.5653 0.5303 -1.9992 0.9765
-5.5314 0.0317 -1.9781 0.9768
-5.3449 -0.9331 -1.9403 0.9772
-5.0117 -1.8374 -1.9089 0.9776
-4.2686 -3.0425 -1.8746 0.9780
-3.9636 -3.3967 -1.8667 0.9781
-3.6331 -3.7244 -1.8606 0.9781
-3.2790 -4.0243 -1.8564 0.9782
-2.9034 -4.2950 -1.8539 0.9782
-2.5081 -4.5354 -1.8534 0.9782
-2.0951 -4.7442 -1.8546 0.9782
-1.6666 -4.9203 -1.8577 0.9782
-1.2245 -5.0627 -1.8627 0.9781
-0.7709 -5.1704 -1.8694 0.9780
-0.3083 -5.2425 -1.8780 0.9779
0.6353 -5.2762 -1.9004 0.9777
1.1112 -5.2363 -1.9142 0.9775
2.0581 -5.0403 -1.9469 0.9771
2.5234 -4.8832 -1.9656 0.9769
2.9791 -4.6865 -1.9859 0.9767
4.2556 -3.8602 -2.0547 0.9759
4.6392 -3.5080 -2.0799 0.9756
4.9380 -2.5013 -1.9795 0.9768
2.3253 -0.9276 -0.8953 0.9894
5.8938 -0.1324 -2.1082 0.9753
5.9515 0.3983 -2.1331 0.9750
5.8138 2.0217 -2.2012 0.9742
5.4529 3.0733 -2.2384 0.9738
4.1307 4.0951 -2.0800 0.9756
3.3964 4.8475 -2.1167 0.9752
1.7532 3.7968 -1.4955 0.9824
4.4702 -2.5213 -1.9668 0.9783
5.1594 -1.2937 -2.0384 0.9775
5.5291 0.6187 -2.1321 0.9764
5.5071 1.1204 -2.1536 0.9762
5.4361 1.6222 -2.1740 0.9760
5.3154 2.1186 -2.1928 0.9758
4.2959 3.8943 -2.2220 0.9755
3.5572 4.6231 -2.2354 0.9753
2.6906 5.2029 -2.2447 0.9752
1.7330 5.6281 -2.2567 0.9751
0.6357 2.9910 -1.1718 0.9870
0.6999 5.7979 -2.2380 0.9753
-2.2460 5.0901 -2.1321 0.9764
-3.3983 4.1733 -2.0624 0.9772
-2.4986 2.1426 -1.2614 0.9860
-4.7620 2.7919 -2.1154 0.9766
-5.0720 1.8613 -2.0704 0.9771
-5.1593 1.3859 -2.0472 0.9774
-5.2055 0.9104 -2.0251 0.9776
-5.1074 -0.4851 -1.9661 0.9783
-5.0004 -0.9305 -1.9491 0.9784
-4.8587 -1.3618 -1.9337 0.9786
-4.4782 -2.1733 -1.9076 0.9789
-3.9797 -2.9041 -1.8880 0.9791
-3.3776 -3.5406 -1.8752 0.9793
-3.0423 -3.8199 -1.8714 0.9793
-1.9219 -4.4865 -1.8704 0.9793
-1.5167 -4.6478 -1.8736 0.9793
-1.0991 -4.7770 -1.8784 0.9792
-0.2351 -4.9352 -1.8934 0.9791
0.2070 -4.9625 -1.9034 0.9789
0.6526 -4.9545 -1.9150 0.9788
1.9857 -4.7121 -1.9595 0.9783
3.2548 -4.1366 -2.0171 0.9777
4.8815 -1.8846 -2.0053 0.9778
5.0905 -1.4592 -2.0293 0.9776
5.2621 -1.0114 -2.0534 0.9773
5.3934 -0.5444 -2.0773 0.9770
5.5250 0.4316 -2.1237 0.9765
5.5210 0.9321 -2.1457 0.9763
5.4685 1.4344 -2.1665 0.9761
5.3665 1.9334 -2.1859 0.9759
5.0138 2.8999 -2.2196 0.9755
4.4694 3.7870 -2.2449 0.9752
4.0651 4.1209 -2.2182 0.9755
3.5969 4.3643 -2.1673 0.9761
3.3331 4.8718 -2.2621 0.9750
1.6943 3.7792 -1.5872 0.9824
1.4134 5.7039 -2.2519 0.9751
0.4513 2.9146 -1.1302 0.9874
-0.1442 5.7803 -2.2158 0.9755
-1.6279 5.4001 -2.1614 0.9761
-2.0824 5.1823 -2.1403 0.9764
-2.5098 4.9244 -2.1181 0.9766
-3.5993 3.9482 -2.0474 0.9774
-4.1436 3.1699 -1.9993 0.9779
-4.8832 2.5080 -2.1037 0.9768
-5.0284 2.0387 -2.0793 0.9770
-5.1929 1.0885 -2.0333 0.9775
-5.1951 0.1458 -1.9916 0.9780
-5.0446 -0.7650 -1.9553 0.9784
-4.5590 -2.0269 -1.9120 0.9789
-3.4977 -3.4290 -1.8771 0.9792
-2.8222 -3.9804 -1.8699 0.9793
-2.4548 -4.2140 -1.8689 0.9793
-1.6702 -4.5910 -1.8722 0.9793
-1.2570 -4.7323 -1.8764 0.9792
-0.3994 -4.9159 -1.8901 0.9791
0.9319 -4.9312 -1.9232 0.9787
1.3780 -4.8642 -1.9374 0.9786
1.8210 -4.7605 -1.9532 0.9784
2.6862 -4.4418 -1.9892 0.9780
3.1024 -4.2267 -2.0093 0.9778
3.5037 -3.9749 -2.0305 0.9776
3.8866 -3.6870 -2.0530 0.9773
4.5747 -3.0004 -2.0965 0.9768
5.3491 -0.7215 -2.0684 0.9771
5.4538 -0.2445 -2.0921 0.9769
5.5142 0.2455 -2.1152 0.9766
5.4939 1.2462 -2.1589 0.9762
5.2775 2.2413 -2.1973 0.9757
5.0949 2.7234 -2.2139 0.9756
4.5854 3.6288 -2.2409 0.9753
4.2121 3.9933 -2.2242 0.9754
3.7700 4.2744 -2.1841 0.9759
3.4545 4.7034 -2.2363 0.9753
3.0399 5.0231 -2.2500 0.9752
2.5742 5.2627 -2.2451 0.9752
2.1066 5.5022 -2.2578 0.9751
1.6056 5.6609 -2.2549 0.9751
0.5672 2.9963 -1.1686 0.9870
0.5695 5.8042 -2.2350 0.9753
0.0494 5.7966 -2.2214 0.9755
-0.9663 5.6278 -2.1882 0.9758
-1.4513 5.4707 -2.1690 0.9760
-1.9150 5.2689 -2.1484 0.9763
-2.3530 5.0255 -2.1265 0.9765
-3.4804 4.0844 -2.0564 0.9773
-4.0534 3.3216 -2.0083 0.9778
-4.9790 2.2155 -2.0884 0.9769
-5.0977 1.7426 -2.0645 0.9772
-5.1747 1.2669 -2.0416 0.9774
-5.2107 0.7919 -2.0197 0.9777
-5.2067 0.3208 -1.9991 0.9779
-4.9681 -1.0398 -1.9451 0.9785
-4.1796 -2.6404 -1.8945 0.9790
-3.6146 -3.3137 -1.8792 0.9792
-2.2162 -4.3450 -1.8692 0.9793
-1.8218 -4.5298 -1.8710 0.9793
-1.4134 -4.6831 -1.8746 0.9793
-0.5628 -4.8918 -1.8870 0.9791
-0.1250 -4.9453 -1.8957 0.9790
0.3182 -4.9639 -1.9062 0.9789
0.7644 -4.9468 -1.9182 0.9788
1.2110 -4.8936 -1.9319 0.9786
1.6554 -4.8037 -1.9471 0.9785
2.9480 -4.3117 -2.0016 0.9779
3.3552 -4.0736 -2.0224 0.9776
3.7454 -3.7991 -2.0444 0.9774
4.1151 -3.4890 -2.0675 0.9772
4.4585 -3.1425 -2.0903 0.9769
4.4353 -2.5671 -1.9639 0.9783
4.7022 -2.1873 -1.9874 0.9780
5.1370 -1.3492 -2.0354 0.9775
5.2988 -0.8962 -2.0594 0.9772
4.6951 3.4665 -2.2365 0.9753
4.3367 3.8441 -2.2208 0.9755
3.6076 4.5821 -2.2349 0.9753
3.2154 4.9326 -2.2564 0.9751
1.5824 3.7518 -1.5604 0.9827
0.2440 5.8056 -2.2268 0.9754
-0.2728 5.7654 -2.2119 0.9756
-0.7798 5.6746 -2.1950 0.9758
-1.2718 5.5351 -2.1764 0.9760
-1.7439 5.3496 -2.1563 0.9762
-2.1920 5.1214 -2.1348 0.9764
-3.0012 4.5512 -2.0892 0.9769
-3.6758 3.8555 -2.0414 0.9774
-2.4410 2.1409 -1.2443 0.9862
-4.2008 3.0674 -1.9933 0.9780
-4.7356 2.8477 -2.1176 0.9766
-5.0581 1.9204 -2.0734 0.9771
-5.2019 0.9697 -2.0278 0.9776
-5.2128 0.4967 -2.0067 0.9778
-5.1844 0.0297 -1.9868 0.9780
-5.1182 -0.4287 -1.9683 0.9782
-4.8782 -1.3088 -1.9355 0.9786
-3.7281 -3.1949 -1.8815 0.9792
-3.4179 -3.5038 -1.8758 0.9793
-3.0853 -3.7865 -1.8718 0.9793
-2.7320 -4.0416 -1.8695 0.9793
-1.5680 -4.6294 -1.8731 0.9793
-1.1519 -4.7626 -1.8777 0.9792
-0.7251 -4.8629 -1.8841 0.9792
0.5969 -4.9574 -1.9135 0.9788
1.4892 -4.8418 -1.9412 0.9785
2.7915 -4.3915 -1.9941 0.9780
3.2043 -4.1672 -2.0145 0.9777
4.3343 -3.2774 -2.0824 0.9770
4.6057 -2.3330 -1.9785 0.9781
5.2428 -1.0684 -2.0504 0.9773
5.3793 -0.6036 -2.0744 0.9771
5.4732 -0.1230 -2.0980 0.9768
5.5221 0.3695 -2.1209 0.9766
5.5242 0.8694 -2.1430 0.9763
5.2364 2.3633 -2.2016 0.9757
4.1251 4.0896 -2.2260 0.9754
3.6542 4.3346 -2.1726 0.9760
3.3899 4.8382 -2.2639 0.9750
1.9850 5.5527 -2.2598 0.9751
4.1854 -2.3606 -1.9666 0.9794
4.4283 -2.0002 -1.9887 0.9792
4.6406 -1.6153 -2.0110 0.9790
4.9620 -0.7825 -2.0559 0.9785
5.0659 -0.3406 -2.0780 0.9783
5.1491 0.5762 -2.1206 0.9779
5.1251 1.0427 -2.1405 0.9776
4.9405 1.9692 -2.1767 0.9773
4.7796 2.4192 -2.1925 0.9771
4.0334 3.6564 -2.2281 0.9767
3.7037 4.0148 -2.2355 0.9767
3.3384 4.3388 -2.2406 0.9766
2.5175 4.8682 -2.2431 0.9766
2.0711 5.0676 -2.2406 0.9766
0.6496 5.3811 -2.2183 0.9768
-0.3128 5.3478 -2.1925 0.9771
-1.2387 5.1285 -2.1593 0.9775
-1.6763 4.9541 -2.1405 0.9776
-2.0917 4.7403 -2.1206 0.9779
-2.8422 4.2073 -2.0780 0.9783
-3.1718 3.8952 -2.0559 0.9785
-2.2255 2.2829 -1.3048 0.9863
-4.4540 2.6113 -2.1131 0.9779
-4.6311 2.1858 -2.0959 0.9781
-4.7557 1.7452 -2.0733 0.9783
-1.9571 0.1645 -0.8038 0.9915
-2.1932 -0.4081 -0.9130 0.9904
-4.2197 -2.0478 -1.9197 0.9799
-3.7522 -2.7380 -1.9011 0.9801
-2.8698 -3.6033 -1.8853 0.9803
-2.1815 -4.0508 -1.8830 0.9803
-1.8129 -4.2322 -1.8844 0.9803
-1.4307 -4.3840 -1.8874 0.9803
-0.6329 -4.5948 -1.8983 0.9802
0.6148 -4.6674 -1.9267 0.9799
1.4539 -4.5460 -1.9534 0.9796
2.2752 -4.2852 -1.9857 0.9792
2.6724 -4.1024 -2.0038 0.9791
4.1019 -3.0305 -2.0873 0.9782
4.3406 -2.1383 -1.9804 0.9793
4.7564 -1.3634 -2.0251 0.9788
4.9890 1.7975 -2.1704 0.9773
4.8452 2.2520 -2.1868 0.9772
3.8317 3.8842 -2.2330 0.9767
3.0938 4.5220 -2.2424 0.9766
1.6984 3.7883 -1.6991 0.9822
0.4488 2.8986 -1.2005 0.9874
0.3473 5.3914 -2.2111 0.9769
-0.1340 5.3686 -2.1979 0.9771
-0.6079 5.2986 -2.1828 0.9772
-1.5146 5.0243 -2.1477 0.9776
-2.3384 4.5880 -2.1076 0.9780
-2.7104 4.3170 -2.0862 0.9782
-4.8136 1.4674 -2.0596 0.9785
-1.9247 0.0540 -0.7880 0.9917
-1.9717 -0.2990 -0.8162 0.9914
-4.0851 -2.2723 -1.9132 0.9800
-3.8478 -2.6150 -1.9041 0.9801
-3.2988 -3.2340 -1.8907 0.9802
-2.9906 -3.5074 -1.8865 0.9803
-2.3158 -3.9754 -1.8829 0.9803
-1.9528 -4.1676 -1.8837 0.9803
-1.1856 -4.4633 -1.8901 0.9802
-0.7853 -4.5649 -1.8958 0.9802
0.8777 -4.6443 -1.9344 0.9798
1.7135 -4.4795 -1.9629 0.9795
2.1236 -4.3448 -1.9792 0.9793
2.9144 -3.9705 -2.0158 0.9789
3.6461 -3.4589 -2.0569 0.9785
3.9821 -3.1534 -2.0789 0.9783
4.2488 -2.2728 -1.9721 0.9794
4.9917 -0.6733 -2.0615 0.9785
5.0856 -0.2280 -2.0835 0.9782
5.1473 0.6927 -2.1257 0.9778
5.1120 1.1595 -2.1454 0.9776
4.9045 2.0829 -2.1808 0.9772
4.7323 2.5296 -2.1961 0.9771
4.5154 2.9595 -2.2096 0.9769
3.9545 3.7490 -2.2302 0.9767
3.6155 4.0992 -2.2370 0.9767
1.9565 5.1102 -2.2395 0.9766
1.4893 5.2511 -2.2339 0.9767
0.5669 2.9946 -1.2474 0.9869
0.5286 5.3875 -2.2156 0.9769
0.0459 5.3827 -2.2031 0.9770
-0.8982 5.2316 -2.1725 0.9773
-2.1917 4.6810 -2.1154 0.9779
-2.5743 4.4224 -2.0943 0.9781
-2.2623 2.2192 -1.2970 0.9864
-4.0067 2.7248 -1.9831 0.9793
-4.6660 2.0762 -2.0902 0.9782
-1.9477 0.1200 -0.7986 0.9916
-1.9244 -0.0534 -0.7879 0.9917
-1.9550 -0.2298 -0.8056 0.9915
-4.6760 -0.9786 -1.9552 0.9796
-4.3667 -1.7688 -1.9282 0.9798
-4.1671 -2.1386 -1.9170 0.9800
-3.6865 -2.8183 -1.8992 0.9801
-3.1086 -3.4078 -1.8879 0.9803
-2.7876 -3.6652 -1.8847 0.9803
-2.4477 -3.8959 -1.8831 0.9803
-2.0907 -4.0989 -1.8832 0.9803
-1.7185 -4.2730 -1.8850 0.9803
-0.9364 -4.5306 -1.8934 0.9802
0.2999 -4.6775 -1.9183 0.9799
1.1402 -4.6077 -1.9427 0.9797
1.9707 -4.3994 -1.9730 0.9794
2.3756 -4.2428 -1.9901 0.9792
2.7699 -4.0512 -2.0086 0.9790
3.5146 -3.5650 -2.0489 0.9786
4.1530 -2.4037 -1.9639 0.9795
4.9462 -0.8366 -2.0531 0.9786
5.0551 -0.3965 -2.0753 0.9783
5.1234 0.0564 -2.0970 0.9781
5.1305 0.9844 -2.1381 0.9777
4.9573 1.9122 -2.1746 0.9773
4.8021 2.3638 -2.1906 0.9771
4.6018 2.8006 -2.2048 0.9770
4.3578 3.2174 -2.2170 0.9769
3.3858 4.3004 -2.2401 0.9766
2.9927 4.5909 -2.2429 0.9766
1.6660 5.2039 -2.2363 0.9767
0.2265 5.3902 -2.2080 0.9770
-2.0412 4.7690 -2.1231 0.9778
-3.1325 3.9356 -2.0587 0.9785
-3.4332 3.6011 -2.0363 0.9787
-2.3493 2.0604 -1.2789 0.9866
-3.9297 2.8694 -1.9914 0.9792
-4.1236 2.4798 -1.9693 0.9794
-4.7423 1.8005 -2.0761 0.9783
-1.9579 0.1866 -0.8050 0.9915
-1.9038 0.0109 -0.7792 0.9918
-2.1469 -0.3748 -0.8920 0.9906
-4.2453 -2.0021 -1.9210 0.9799
-4.0282 -2.3600 -1.9107 0.9800
-3.7844 -2.6974 -1.9020 0.9801
-3.5157 -3.0128 -1.8950 0.9802
-3.2237 -3.3047 -1.8895 0.9802
-2.2265 -4.0261 -1.8830 0.9803
-1.4790 -4.3667 -1.8869 0.9803
-1.0864 -4.4917 -1.8914 0.9802
0.9828 -4.6313 -1.9377 0.9797
1.8167 -4.4491 -1.9669 0.9794
2.6235 -4.1271 -2.0015 0.9791
3.3802 -3.6665 -2.0410 0.9787
3.7323 -3.3855 -2.0623 0.9785
4.3105 -2.1835 -1.9776 0.9793
2.3288 -0.9291 -1.0262 0.9892
4.8954 -0.9976 -2.0447 0.9786
5.0190 -0.5632 -2.0670 0.9784
5.1027 -0.1146 -2.0889 0.9782
5.1445 0.3443 -2.1102 0.9780
5.0960 1.2762 -2.1501 0.9776
5.0038 1.7400 -2.1682 0.9774
4.8657 2.1959 -2.1848 0.9772
4.4543 3.0638 -2.2126 0.9769
3.8731 3.8397 -2.2321 0.9767
3.9302 -2.2167 -1.9665 0.9805
2.3129 -1.0447 -1.1060 0.9890
4.3517 -1.5148 -2.0081 0.9801
4.7407 -0.3187 -2.0707 0.9795
4.7965 0.1063 -2.0909 0.9793
4.8123 0.5385 -2.1104 0.9791
4.6093 1.8372 -2.1625 0.9786
4.2632 2.6600 -2.1900 0.9783
3.7571 3.4059 -2.2100 0.9781
3.1085 4.0400 -2.2216 0.9780
2.7388 4.3056 -2.2239 0.9780
2.3440 4.5326 -2.2239 0.9780
1.4969 4.8616 -2.2169 0.9780
0.6694 3.1497 -1.4034 0.9860
0.6053 5.0139 -2.2010 0.9782
0.1550 5.0226 -2.1900 0.9783
-0.2917 4.9869 -2.1771 0.9784
-1.1562 4.7873 -2.1464 0.9787
-1.5657 4.6272 -2.1289 0.9789
-1.9548 4.4302 -2.1104 0.9791
-2.3204 4.1992 -2.0909 0.9793
-2.9703 3.6477 -2.0501 0.9797
-3.8925 2.2821 -1.9665 0.9805
-4.3493 2.0528 -2.0960 0.9792
-1.5568 0.4182 -0.7025 0.9930
-1.5027 0.2628 -0.6649 0.9934
-1.5284 0.1285 -0.6684 0.9933
-1.5234 -0.0082 -0.6639 0.9934
-1.4975 -0.2787 -0.6638 0.9934
-1.5635 -0.4382 -0.7077 0.9929
-4.1656 -1.5800 -1.9417 0.9807
-3.0115 -3.1568 -1.9014 0.9811
-1.7140 -4.0012 -1.8971 0.9812
-1.3524 -4.1444 -1.8999 0.9812
-0.9798 -4.2583 -1.9043 0.9811
-0.2094 -4.3956 -1.9178 0.9810
0.1843 -4.4174 -1.9269 0.9809
0.9772 -4.3647 -1.9493 0.9807
2.1447 -4.0395 -1.9932 0.9802
3.2234 -3.4192 -2.0479 0.9797
3.8539 -2.8472 -2.0882 0.9793
3.8388 -2.3378 -1.9588 0.9806
4.0743 -2.0071 -1.9794 0.9804
4.2817 -1.6531 -2.0003 0.9802
4.7098 -0.4754 -2.0631 0.9796
4.7802 -0.0541 -2.0834 0.9794
4.8111 0.3758 -2.1032 0.9792
4.8013 0.8105 -2.1221 0.9790
4.6555 1.6773 -2.1566 0.9786
4.3407 2.5105 -2.1854 0.9784
3.8635 3.2736 -2.2069 0.9781
3.2398 3.9311 -2.2201 0.9780
1.7301 3.8592 -1.8432 0.9817
1.6603 4.8131 -2.2189 0.9780
1.2212 4.9285 -2.2129 0.9781
-0.1249 5.0054 -2.1821 0.9784
-0.5671 4.9425 -2.1681 0.9785
-0.9983 4.8372 -2.1526 0.9787
-1.4144 4.6917 -2.1356 0.9788
-2.1863 4.2896 -2.0983 0.9792
-2.2859 2.0969 -1.3519 0.9866
-3.6358 2.7814 -1.9950 0.9802
-4.2897 2.2032 -2.1017 0.9792
-4.4311 1.7965 -2.0838 0.9794
-1.5226 0.1795 -0.6682 0.9933
-1.5296 -0.0938 -0.6679 0.9933
-1.5413 -0.3768 -0.6915 0.9931
-1.5904 -0.5431 -0.7324 0.9927
-4.0562 -1.8033 -1.9346 0.9808
-2.5171 -3.5500 -1.8966 0.9812
-2.1895 -3.7586 -1.8957 0.9812
-1.1207 -4.2191 -1.9025 0.9811
-0.7422 -4.3144 -1.9079 0.9811
-0.3558 -4.3792 -1.9148 0.9810
0.8286 -4.3845 -1.9446 0.9807
1.2242 -4.3214 -1.9575 0.9806
1.6163 -4.2254 -1.9716 0.9805
2.0022 -4.0964 -1.9871 0.9803
3.0961 -3.5125 -2.0406 0.9798
3.4300 -3.2539 -2.0605 0.9796
4.0240 -2.6392 -2.0973 0.9792
2.2892 -0.9730 -1.0840 0.9892
4.3959 -1.4209 -2.0134 0.9800
4.8043 0.2139 -2.0958 0.9792
4.8098 0.6473 -2.1151 0.9790
4.7739 1.0828 -2.1334 0.9789
4.6957 1.5163 -2.1505 0.9787
4.4124 2.3586 -2.1805 0.9784
4.2084 2.7583 -2.1929 0.9783
3.9647 3.1375 -2.2035 0.9782
3.3668 3.8173 -2.2183 0.9780
3.0186 4.1099 -2.2224 0.9780
2.6422 4.3661 -2.2241 0.9780
2.2418 4.5831 -2.2235 0.9780
0.4926 5.0203 -2.1984 0.9782
0.0428 5.0178 -2.1869 0.9783
-0.4023 4.9711 -2.1736 0.9785
-1.2604 4.7508 -2.1421 0.9788
-2.0486 4.3755 -2.1056 0.9791
-2.4079 4.1364 -2.0859 0.9793
-2.2355 2.1929 -1.3648 0.9864
-4.2250 2.3519 -2.1074 0.9791
-1.5122 0.2298 -0.6666 0.9933
-1.5275 -0.0424 -0.6659 0.9934
-1.5227 -0.1790 -0.6682 0.9933
-3.7223 -2.3516 -1.9189 0.9810
-3.2220 -2.9538 -1.9050 0.9811
-2.6355 -3.4651 -1.8973 0.9812
-2.3142 -3.6835 -1.8959 0.9812
0.6798 -4.3997 -1.9402 0.9808
1.4699 -4.2653 -1.9662 0.9805
1.8584 -4.1486 -1.9812 0.9804
3.3070 -3.3545 -2.0529 0.9797
4.1289 -1.9206 -1.9846 0.9803
4.3289 -1.5611 -2.0055 0.9801
4.4975 -1.1812 -2.0265 0.9799
4.7300 1.3543 -2.1443 0.9788
4.4783 2.2044 -2.1754 0.9785
4.2896 2.6106 -2.1885 0.9783
2.7864 4.2745 -2.2237 0.9780
1.6753 3.9723 -1.8789 0.9814
1.5515 4.8461 -2.2176 0.9780
0.2111 5.0240 -2.1915 0.9783
-0.2363 4.9937 -2.1788 0.9784
-0.6761 4.9200 -2.1644 0.9786
-1.1039 4.8045 -2.1484 0.9787
-1.5156 4.6492 -2.1312 0.9789
-1.9075 4.4567 -2.1127 0.9791
-2.2762 4.2298 -2.0934 0.9793
-2.6189 3.9715 -2.0733 0.9795
-2.9331 3.6852 -2.0527 0.9797
-3.2169 3.3743 -2.0318 0.9799
-3.6873 2.6924 -1.9898 0.9803
-3.8719 2.3284 -1.9691 0.9805
-4.3300 2.1030 -2.0979 0.9792
-1.4973 0.2791 -0.6638 0.9934
-1.5270 0.1455 -0.6685 0.9933
-1.5235 0.0087 -0.6640 0.9934
-1.5284 -0.1280 -0.6684 0.9933
-1.5029 -0.2624 -0.6649 0.9934
-1.5566 -0.4176 -0.7024 0.9930
-1.5971 -0.5855 -0.7413 0.9926
-4.0093 -1.8909 -1.9319 0.9808
-3.8054 -2.2295 -1.9221 0.9809
-3.0473 -3.1239 -1.9019 0.9811
-1.3982 -4.1281 -1.8995 0.9812
0.5310 -4.4103 -1.9360 0.9808
0.9277 -4.3718 -1.9477 0.9807
1.3227 -4.3005 -1.9609 0.9806
1.7135 -4.1962 -1.9754 0.9804
2.0975 -4.0589 -1.9912 0.9803
2.8342 -3.6858 -2.0263 0.9799
3.5105 -3.1843 -2.0656 0.9795
3.8186 -2.8875 -2.0864 0.9793
4.0464 -2.0497 -1.9768 0.9804
2.3310 -0.9299 -1.0937 0.9891
4.5859 -0.9345 -2.0397 0.9798
4.7735 -0.1072 -2.0809 0.9794
4.6696 1.6238 -2.1546 0.9787
4.5384 2.0482 -2.1700 0.9785
4.1511 2.8552 -2.1958 0.9783
3.2826 3.8937 -2.2195 0.9780
2.9269 4.1775 -2.2230 0.9780
1.7763 3.8468 -1.8466 0.9817
1.7143 4.7956 -2.2195 0.9780
2.2996 -1.0387 -1.1680 0.9889
4.0919 -1.4243 -2.0055 0.9811
4.2439 -1.0642 -2.0253 0.9809
4.3638 -0.6882 -2.0449 0.9807
4.4494 -0.2991 -2.0642 0.9805
4.4991 0.0997 -2.0831 0.9804
4.5113 0.5048 -2.1012 0.9802
4.4850 0.9125 -2.1186 0.9800
4.4194 1.3188 -2.1348 0.9799
3.7671 2.8467 -2.1856 0.9794
3.2232 3.4940 -2.2004 0.9793
2.9045 3.7748 -2.2047 0.9792
2.5589 4.0227 -2.2069 0.9792
2.1900 4.2349 -2.2069 0.9792
0.6680 3.1431 -1.4874 0.9859
0.5659 4.6877 -2.1856 0.9794
0.1450 4.6974 -2.1754 0.9795
-2.4963 3.6953 -2.0642 0.9805
-3.4928 2.4912 -1.9858 0.9813
-3.6647 2.1486 -1.9664 0.9814
-4.0937 1.9322 -2.0954 0.9802
-1.3329 0.4891 -0.6572 0.9938
-1.3164 0.3536 -0.6310 0.9940
-1.3369 -0.1270 -0.6216 0.9941
-1.3140 -0.2445 -0.6186 0.9941
-1.3202 -0.3700 -0.6347 0.9940
-3.7717 -1.8304 -1.9406 0.9817
-3.3573 -2.4498 -1.9238 0.9818
-2.8524 -2.9900 -1.9128 0.9820
-2.5700 -3.2269 -1.9095 0.9820
-1.2810 -3.9255 -1.9114 0.9820
-0.9280 -4.0330 -1.9156 0.9819
-0.5664 -4.1119 -1.9213 0.9819
0.5493 -4.1702 -1.9470 0.9816
0.9243 -4.1286 -1.9584 0.9815
1.2971 -4.0558 -1.9710 0.9814
2.0263 -3.8163 -2.0001 0.9811
3.0408 -3.2254 -2.0519 0.9807
3.3471 -2.9688 -2.0709 0.9805
3.6300 -2.6818 -2.0891 0.9803
3.8343 -1.8889 -1.9785 0.9813
4.0270 -1.5547 -1.9981 0.9812
4.1906 -1.2012 -2.0179 0.9810
4.3228 -0.8308 -2.0376 0.9808
4.4215 -0.4463 -2.0570 0.9806
4.5112 0.3524 -2.0945 0.9803
4.4994 0.7596 -2.1122 0.9801
4.3583 1.5702 -2.1443 0.9798
4.2287 1.9655 -2.1585 0.9797
4.0602 2.3483 -2.1711 0.9795
3.8539 2.7146 -2.1820 0.9794
3.6115 3.0601 -2.1911 0.9794
3.0273 3.6732 -2.2033 0.9792
1.6981 3.7877 -1.9214 0.9819
1.5515 4.4976 -2.2023 0.9792
1.1414 4.6062 -2.1966 0.9793
0.4709 3.0413 -1.4245 0.9865
0.3027 4.6987 -2.1794 0.9795
-0.5307 4.6254 -2.1551 0.9797
-0.9347 4.5290 -2.1406 0.9798
-1.6978 4.2253 -2.1078 0.9801
-2.0503 4.0227 -2.0900 0.9803
-2.6828 3.5296 -2.0522 0.9806
-2.9584 3.2452 -2.0327 0.9808
-4.0369 2.0734 -2.1007 0.9802
-1.3332 0.1572 -0.6214 0.9941
-1.3370 0.0375 -0.6191 0.9941
-1.3385 -0.0821 -0.6208 0.9941
-3.6527 -2.0318 -1.9347 0.9817
