ply
format ascii 1.0
element vertex 1565
property float32 x
property float32 y
property float32 z
property float32 I
end_header
7.5212 -17.7891 -1.8542 0.9253
9.0880 -17.0608 -1.8558 0.9253
9.3816 16.9534 -1.8602 0.9251
7.8238 17.7103 -1.8588 0.9251
3.5868 10.5911 -1.0735 0.9561
2.5490 10.5491 -1.0419 0.9573
1.5609 10.4952 -1.0187 0.9583
-1.1009 9.0773 -0.8779 0.9639
-2.2060 10.3429 -1.0153 0.9584
-3.1867 10.3169 -1.0366 0.9575
-5.3067 10.2311 -1.1065 0.9547
-6.4972 10.1829 -1.1597 0.9526
-7.8189 10.1294 -1.2285 0.9499
-9.4134 10.1692 -1.3304 0.9458
-15.7867 9.8018 -1.7840 0.9280
-18.7068 3.7503 -1.8317 0.9262
-12.6924 -15.2136 -1.9021 0.9235
-10.8952 -15.7273 -1.8368 0.9260
-9.4533 -16.6491 -1.8381 0.9260
-7.9341 -17.4399 -1.8394 0.9259
-6.3495 -18.0931 -1.8409 0.9258
-4.7118 -18.6032 -1.8424 0.9258
-3.0338 -18.9658 -1.8440 0.9257
2.1088 -19.1422 -1.8489 0.9255
9.7531 16.7464 -1.8605 0.9251
6.8071 14.5373 -1.5411 0.9375
3.8517 10.6018 -1.0829 0.9557
2.7981 10.5591 -1.0487 0.9571
1.7993 10.5080 -1.0235 0.9581
0.8400 10.4589 -1.0073 0.9587
-0.0969 10.4167 -1.0001 0.9590
-1.0284 10.3805 -1.0015 0.9589
-1.9711 10.3497 -1.0115 0.9585
-5.0304 10.2423 -1.0955 0.9552
-15.0907 9.8350 -1.7293 0.9302
-17.5971 7.4129 -1.8332 0.9261
-18.1814 5.8089 -1.8324 0.9262
-6.7437 -17.9459 -1.8405 0.9259
-0.0321 -19.2365 -1.8468 0.9256
1.6878 -19.1796 -1.8485 0.9255
3.3974 -18.9692 -1.8501 0.9255
6.7305 -18.0942 -1.8534 0.9254
10.1257 16.5407 -1.8619 0.9250
2.0402 10.5212 -1.0289 0.9578
-2.7004 10.3298 -1.0250 0.9580
-3.7018 10.2960 -1.0504 0.9570
-7.1513 10.1564 -1.1925 0.9513
-8.5574 10.0995 -1.2709 0.9482
-10.1750 10.0340 -1.3719 0.9442
-12.0888 9.9565 -1.5035 0.9390
-14.4294 9.8618 -1.6779 0.9322
-16.6742 9.3287 -1.8343 0.9261
-17.4321 7.7981 -1.8334 0.9261
-18.0513 6.2071 -1.8326 0.9262
-10.1712 -16.2127 -1.8374 0.9260
-8.6885 -17.0687 -1.8388 0.9259
-7.1345 -17.7902 -1.8402 0.9259
-3.8614 -18.8065 -1.8432 0.9258
-0.4541 -19.2270 -1.8464 0.9256
7.9409 -17.6106 -1.8546 0.9253
9.5209 -16.8995 -1.8622 0.9250
4.7958 11.5887 -1.2041 0.9509
3.3067 10.5797 -1.0642 0.9564
2.2838 10.5349 -1.0349 0.9576
1.3069 10.4820 -1.0141 0.9584
-0.2877 5.2389 -0.5037 0.9791
-4.1925 10.2762 -1.3183 0.9563
-5.2855 10.2319 -1.3680 0.9547
-9.0692 9.8302 -1.5887 0.9476
-12.3513 9.3264 -1.8384 0.9396
-13.8012 6.9734 -1.8368 0.9396
-16.7104 0.3447 -1.9854 0.9349
-16.6732 -1.1493 -1.9852 0.9349
-16.5037 -2.6340 -1.9852 0.9349
-16.2034 -4.0979 -1.9853 0.9349
-15.7744 -5.5296 -1.9856 0.9349
-13.7539 -9.5210 -1.9870 0.9348
-12.8531 -10.7154 -1.9877 0.9348
-11.8494 -11.8256 -1.9886 0.9348
-9.5655 -13.7589 -1.9905 0.9347
-6.8417 -14.9723 -1.9554 0.9358
-5.2679 -14.9315 -1.8808 0.9382
-2.4788 -15.3324 -1.8449 0.9394
-1.1001 -15.5035 -1.8462 0.9393
1.6786 -15.4741 -1.8489 0.9392
5.8618 -14.8310 -1.8943 0.9378
7.5814 -15.0801 -2.0049 0.9343
10.1667 -13.5208 -2.0095 0.9341
12.4252 -11.5098 -2.0119 0.9341
14.2897 -9.1246 -2.0139 0.9340
15.0543 -7.8151 -2.0148 0.9340
15.6983 -6.4416 -2.0156 0.9339
16.8581 -2.0506 -2.0173 0.9339
16.9578 0.9821 -2.0177 0.9339
16.5119 3.9837 -2.0177 0.9339
15.5350 6.8563 -2.0171 0.9339
14.0595 9.5060 -2.0160 0.9339
10.1841 11.8981 -1.8604 0.9389
9.0758 12.7537 -1.8594 0.9389
3.8720 10.6026 -1.3408 0.9556
1.8194 10.5195 -1.2681 0.9579
-1.0133 10.4048 -1.2418 0.9588
-3.9357 10.2866 -1.3083 0.9566
-10.5791 10.0176 -1.7307 0.9430
-12.1452 9.5963 -1.8387 0.9396
-12.9475 8.4689 -1.8378 0.9396
-13.6462 7.2753 -1.8370 0.9396
-14.7123 4.7275 -1.8356 0.9397
-15.8982 3.5796 -1.9358 0.9365
-16.5715 2.2005 -1.9857 0.9349
-16.6992 0.7113 -1.9854 0.9349
-16.6946 -0.7831 -1.9853 0.9349
-16.5575 -2.2712 -1.9852 0.9349
-16.2890 -3.7413 -1.9853 0.9349
-15.8914 -5.1820 -1.9855 0.9349
-14.7216 -7.9301 -1.9863 0.9349
-13.9584 -9.2161 -1.9869 0.9348
-12.1048 -11.5615 -1.9884 0.9348
-9.8638 -13.5439 -1.9903 0.9347
-8.6193 -14.3787 -1.9914 0.9347
-0.0518 -15.5508 -1.8472 0.9393
1.3384 -15.5045 -1.8486 0.9392
2.7200 -15.3341 -1.8499 0.9392
5.4573 -14.7462 -1.8677 0.9386
7.2314 -15.2065 -2.0002 0.9344
11.0607 -12.8103 -2.0104 0.9341
13.1786 -10.6498 -2.0127 0.9340
14.8776 -8.1427 -2.0146 0.9340
15.5518 -6.7839 -2.0154 0.9339
16.5212 -3.9108 -2.0167 0.9339
16.8083 -2.4199 -2.0172 0.9339
16.9600 -0.9090 -2.0175 0.9339
15.6825 6.5141 -2.0172 0.9339
13.3827 10.4299 -2.0154 0.9339
12.3926 11.5790 -2.0146 0.9340
11.3036 12.6339 -2.0137 0.9340
8.9873 12.0599 -1.7866 0.9412
8.1916 13.3312 -1.8586 0.9389
6.9638 14.0014 -1.8575 0.9390
4.1422 10.6135 -1.3533 0.9551
1.0923 10.4901 -1.2528 0.9584
0.1496 10.4519 -1.2417 0.9588
-4.7390 10.2540 -1.3418 0.9555
-5.8769 10.2080 -1.3992 0.9537
-8.5294 10.1006 -1.5704 0.9481
-11.9332 9.8618 -1.8389 0.9395
-12.7600 8.7520 -1.8380 0.9396
-13.4847 7.5738 -1.8371 0.9396
-14.6062 5.0496 -1.8358 0.9396
-14.9945 3.7237 -1.8352 0.9397
-16.5200 2.5638 -1.9858 0.9349
-16.6801 1.0776 -1.9855 0.9349
-16.7080 -0.4166 -1.9853 0.9349
-15.5076 -6.2428 -1.9857 0.9349
-14.1562 -8.9069 -1.9867 0.9348
-12.3543 -11.2919 -1.9881 0.9348
-11.3012 -12.3558 -1.9890 0.9348
-3.1481 -15.2038 -1.8443 0.9394
-1.7786 -15.4349 -1.8456 0.9393
5.0898 -14.7391 -1.8523 0.9391
6.7819 -15.1072 -1.9671 0.9355
10.7753 -13.0480 -2.0101 0.9341
12.9401 -10.9351 -2.0124 0.9340
14.6938 -8.4663 -2.0144 0.9340
15.3977 -7.1229 -2.0153 0.9339
15.9782 -5.7210 -2.0160 0.9339
16.4303 -4.2721 -2.0166 0.9339
16.7503 -2.7881 -2.0171 0.9339
16.9840 0.2371 -2.0177 0.9339
16.8958 1.7533 -2.0178 0.9339
16.6714 3.2555 -2.0177 0.9339
15.8224 6.1686 -2.0173 0.9339
15.2049 7.5558 -2.0168 0.9339
14.4653 8.8814 -2.0163 0.9339
13.6096 10.1346 -2.0156 0.9339
12.6450 11.3054 -2.0148 0.9340
11.5794 12.3843 -2.0140 0.9340
9.4021 12.0552 -1.8160 0.9403
8.4833 13.1501 -1.8589 0.9389
7.2705 13.8472 -1.8578 0.9389
3.3262 10.5805 -1.3175 0.9563
0.3794 10.4612 -1.2435 0.9587
-1.4915 10.3855 -1.2463 0.9586
-2.4454 10.3469 -1.2629 0.9581
-3.4331 10.3069 -1.2904 0.9572
-5.5887 10.2196 -1.3836 0.9542
-9.4175 9.7362 -1.6090 0.9469
-13.9605 6.6449 -1.8366 0.9396
-16.4606 2.9258 -1.9859 0.9349
-16.6531 1.4435 -1.9856 0.9349
-16.7135 -0.0499 -1.9853 0.9349
-16.6412 -1.5426 -1.9852 0.9349
-16.4371 -3.0229 -1.9852 0.9349
-16.1025 -4.4794 -1.9854 0.9349
-15.6401 -5.9007 -1.9857 0.9349
-14.3472 -8.5935 -1.9866 0.9349
-13.5265 -9.8439 -1.9872 0.9348
-10.4459 -13.0947 -1.9898 0.9348
-9.2393 -13.9829 -1.9908 0.9347
-7.9456 -14.7379 -1.9889 0.9348
-4.8711 -14.9205 -1.8644 0.9387
-2.1165 -15.3895 -1.8453 0.9393
-0.7339 -15.5281 -1.8466 0.9393
0.6566 -15.5427 -1.8479 0.9393
2.0439 -15.4332 -1.8492 0.9392
3.4168 -15.1999 -1.8506 0.9392
4.7643 -14.8447 -1.8519 0.9391
10.4848 -13.2792 -2.0098 0.9341
11.6362 -12.2971 -2.0110 0.9341
13.6536 -10.0413 -2.0132 0.9340
14.5029 -8.7857 -2.0142 0.9340
15.2363 -7.4583 -2.0151 0.9340
16.3315 -4.6313 -2.0164 0.9339
16.6842 -3.1548 -2.0170 0.9339
16.9026 -1.6521 -2.0174 0.9339
16.9848 -0.1357 -2.0176 0.9339
16.7390 2.8890 -2.0177 0.9339
16.4129 4.3724 -2.0176 0.9339
15.3680 7.2207 -2.0170 0.9339
14.6577 8.5624 -2.0164 0.9339
13.8299 9.8344 -2.0158 0.9339
12.8913 11.0263 -2.0150 0.9340
11.8497 12.1286 -2.0142 0.9340
6.3170 14.2995 -1.8569 0.9390
1.5630 10.5091 -1.2621 0.9581
0.6101 10.4706 -1.2459 0.9586
-1.1039 9.1020 -1.0891 0.9637
-4.2121 10.2754 -1.3191 0.9563
-5.3067 10.2311 -1.3691 0.9546
-9.0854 9.8150 -1.5887 0.9476
-11.0703 9.9977 -1.7719 0.9417
-16.6712 -1.1770 -1.9852 0.9349
-15.7652 -5.5559 -1.9856 0.9349
-13.7381 -9.5439 -1.9870 0.9348
-12.8353 -10.7368 -1.9878 0.9348
-9.5426 -13.7749 -1.9905 0.9347
-6.8112 -14.9716 -1.9538 0.9359
-2.4533 -15.3367 -1.8450 0.9394
-1.0743 -15.5055 -1.8463 0.9393
0.3154 -15.5507 -1.8476 0.9393
3.0819 -15.2685 -1.8503 0.9392
5.8935 -14.8388 -1.8966 0.9377
8.9365 -14.3509 -2.0082 0.9342
10.1893 -13.5040 -2.0095 0.9341
15.7091 -6.4155 -2.0156 0.9339
16.6100 -3.5199 -2.0168 0.9339
16.8616 -2.0226 -2.0173 0.9339
16.9562 1.0103 -2.0177 0.9339
16.7984 2.5209 -2.0178 0.9339
16.5053 4.0112 -2.0177 0.9339
16.0791 5.4689 -2.0174 0.9339
15.5235 6.8821 -2.0171 0.9339
14.0435 9.5294 -2.0160 0.9339
13.1314 10.7418 -2.0152 0.9339
12.1144 11.8670 -2.0144 0.9340
3.8517 10.6018 -1.3399 0.9556
2.7981 10.5591 -1.2976 0.9570
0.8417 10.4799 -1.2489 0.9585
-1.0308 10.4041 -1.2419 0.9588
-2.9431 10.3267 -1.2755 0.9577
-5.0304 10.2422 -1.3555 0.9551
-6.1944 10.1951 -1.4170 0.9531
-10.6130 10.0162 -1.7335 0.9429
-12.1611 9.5760 -1.8387 0.9396
-12.9614 8.4473 -1.8378 0.9396
-13.6582 7.2525 -1.8369 0.9396
-14.2459 6.0011 -1.8362 0.9396
-14.7201 4.7030 -1.8356 0.9397
-15.9930 3.5730 -1.9466 0.9361
-16.7004 0.6835 -1.9854 0.9349
-16.6932 -0.8109 -1.9853 0.9349
-16.5537 -2.2988 -1.9852 0.9349
-15.3566 -6.6074 -1.9858 0.9349
-13.0666 -10.4516 -1.9876 0.9348
-8.5955 -14.3932 -1.9914 0.9347
-5.6144 -14.9408 -1.8959 0.9377
-2.7888 -15.2766 -1.8446 0.9394
2.7456 -15.3297 -1.8499 0.9392
4.1070 -15.0341 -1.8513 0.9392
7.2581 -15.1972 -2.0005 0.9344
8.6180 -14.5412 -2.0079 0.9342
11.0821 -12.7920 -2.0104 0.9341
12.1877 -11.7579 -2.0116 0.9341
14.1002 -9.4115 -2.0137 0.9340
15.5632 -6.7581 -2.0155 0.9339
16.8123 -2.3920 -2.0172 0.9339
16.9615 -0.8807 -2.0175 0.9339
16.8497 2.1517 -2.0178 0.9339
16.1958 5.1149 -2.0175 0.9339
15.0213 7.9121 -2.0167 0.9339
14.2504 9.2197 -2.0161 0.9339
13.3652 10.4521 -2.0154 0.9339
12.3732 11.5995 -2.0146 0.9340
11.2824 12.6526 -2.0137 0.9340
6.9404 14.0128 -1.8575 0.9390
4.1215 10.6127 -1.3524 0.9552
2.0416 10.5285 -1.2739 0.9577
0.1321 10.4512 -1.2416 0.9588
-0.8014 10.4134 -1.2406 0.9588
-1.7410 10.3754 -1.2497 0.9585
-2.7022 10.3365 -1.2691 0.9579
-3.7018 10.2960 -1.2997 0.9569
-4.7594 10.2532 -1.3428 0.9555
-7.1512 10.1564 -1.4755 0.9512
-9.8483 9.7118 -1.6430 0.9458
-12.7745 8.7307 -1.8380 0.9396
-14.6145 5.0253 -1.8358 0.9396
-15.0006 3.6986 -1.8352 0.9397
-16.5242 2.5362 -1.9858 0.9349
-16.7072 -0.4444 -1.9853 0.9349
-15.4972 -6.2686 -1.9857 0.9349
-14.8785 -7.6295 -1.9862 0.9349
-13.2916 -10.1614 -1.9874 0.9348
-11.2807 -12.3747 -1.9890 0.9348
-7.5853 -14.9014 -1.9862 0.9349
-5.9958 -14.9508 -1.9134 0.9372
-4.4812 -14.9102 -1.8494 0.9392
-0.3671 -15.5440 -1.8469 0.9393
2.4081 -15.3836 -1.8496 0.9392
3.7754 -15.1179 -1.8509 0.9392
6.8180 -15.1203 -1.9702 0.9354
8.2955 -14.7244 -2.0075 0.9342
9.5840 -13.9337 -2.0089 0.9341
10.7971 -13.0302 -2.0101 0.9341
11.9251 -12.0208 -2.0113 0.9341
15.4097 -7.0973 -2.0153 0.9339
15.9878 -5.6944 -2.0160 0.9339
16.7550 -2.7602 -2.0171 0.9339
16.9376 -1.2527 -2.0174 0.9339
16.9836 0.2653 -2.0177 0.9339
16.6659 3.2833 -2.0177 0.9339
15.8121 6.1949 -2.0173 0.9339
15.1923 7.5810 -2.0168 0.9339
14.4504 8.9054 -2.0163 0.9339
9.3688 12.0538 -1.8135 0.9404
8.4613 13.1640 -1.8589 0.9389
7.2473 13.8592 -1.8578 0.9389
4.7960 11.5893 -1.4899 0.9507
2.5678 10.5498 -1.5384 0.9571
-1.0860 9.0804 -1.2958 0.9637
-2.1910 10.3572 -1.5000 0.9581
-3.1681 10.3176 -1.5293 0.9573
-5.2855 10.2319 -1.6318 0.9545
-9.6282 8.7245 -1.8410 0.9489
-10.3645 7.8261 -1.8402 0.9489
-11.0177 6.8663 -1.8394 0.9489
-11.5828 5.8525 -1.8388 0.9489
-13.7559 2.7816 -1.9885 0.9449
-13.9470 1.5414 -1.9882 0.9449
-14.0273 0.2894 -1.9879 0.9449
-13.9963 -0.9647 -1.9878 0.9449
-13.6018 -3.4400 -1.9879 0.9449
-13.2414 -4.6417 -1.9881 0.9449
-12.7758 -5.8069 -1.9884 0.9449
-8.0263 -11.5449 -1.9923 0.9448
-6.9662 -12.2215 -1.9932 0.9448
-5.8496 -12.8013 -1.9942 0.9447
-4.6852 -13.2797 -1.9953 0.9447
-3.4822 -13.6527 -1.9964 0.9447
-0.9984 -14.0708 -1.9987 0.9446
0.2627 -14.1123 -1.9999 0.9446
2.7730 -13.8572 -2.0023 0.9445
9.5005 -10.5272 -2.0092 0.9443
10.4079 -9.6411 -2.0102 0.9443
11.2326 -8.6768 -2.0111 0.9443
11.9677 -7.6419 -2.0119 0.9442
13.5787 -4.1995 -2.0139 0.9442
14.1149 -1.7170 -2.0147 0.9442
14.2136 -0.4493 -2.0149 0.9442
14.1979 0.8222 -2.0151 0.9442
14.0679 2.0872 -2.0151 0.9442
13.4702 4.5565 -2.0148 0.9442
13.0074 5.7407 -2.0145 0.9442
11.0115 8.9771 -2.0130 0.9442
8.5295 9.9651 -1.8585 0.9484
7.6020 10.6825 -1.8577 0.9484
2.8171 10.5599 -1.5485 0.9568
-1.0133 10.4048 -1.4812 0.9586
-1.9564 10.3667 -1.4948 0.9583
-3.9357 10.2865 -1.5605 0.9565
-6.1717 10.1960 -1.6887 0.9530
-7.4548 10.1441 -1.7837 0.9504
-9.4355 8.9347 -1.8412 0.9489
-10.8654 7.1070 -1.8396 0.9489
-12.3488 3.9680 -1.8378 0.9489
-13.6922 3.0829 -1.9886 0.9449
-13.8992 -1.9066 -1.9878 0.9449
-13.6738 -3.1406 -1.9879 0.9449
-13.3397 -4.3499 -1.9880 0.9449
-12.8996 -5.5249 -1.9883 0.9449
-10.9812 -8.7536 -1.9898 0.9448
-8.2768 -11.3648 -1.9920 0.9448
-7.2319 -12.0642 -1.9930 0.9448
-4.9748 -13.1719 -1.9950 0.9447
-0.0471 -14.1125 -1.9996 0.9446
1.2145 -14.0689 -2.0008 0.9445
6.0791 -12.7833 -2.0056 0.9444
7.2008 -12.1962 -2.0068 0.9444
8.2660 -11.5105 -2.0079 0.9444
11.0383 -8.9202 -2.0109 0.9443
13.4824 -4.4961 -2.0137 0.9442
13.8335 -3.2746 -2.0142 0.9442
14.2000 -0.7611 -2.0149 0.9442
14.1104 1.7780 -2.0151 0.9442
13.8947 3.0313 -2.0150 0.9442
13.5673 4.2600 -2.0149 0.9442
13.1308 5.4541 -2.0146 0.9442
12.5887 6.6040 -2.0142 0.9442
10.3782 9.6969 -2.0125 0.9442
8.7470 9.7765 -1.8587 0.9484
5.8339 11.7296 -1.8562 0.9485
4.1422 10.6135 -1.6143 0.9550
3.0698 10.5701 -1.5595 0.9565
2.0600 10.5292 -1.5202 0.9576
1.0923 10.4901 -1.4944 0.9583
-0.7840 10.4141 -1.4797 0.9587
-1.7233 10.3761 -1.4903 0.9584
-2.6840 10.3372 -1.5132 0.9578
-3.6827 10.2968 -1.5494 0.9568
-4.7390 10.2540 -1.6005 0.9554
-5.8768 10.2080 -1.6689 0.9535
-7.1267 10.1574 -1.7581 0.9511
-8.3890 9.9343 -1.8423 0.9488
-9.2383 9.1407 -1.8414 0.9489
-13.4316 -4.0560 -1.9880 0.9449
-13.0173 -5.2403 -1.9882 0.9449
-12.4994 -6.3832 -1.9886 0.9449
-11.8819 -7.4760 -1.9891 0.9449
-11.1698 -8.5099 -1.9896 0.9448
-10.3683 -9.4767 -1.9903 0.9448
-9.4839 -10.3689 -1.9910 0.9448
-7.4940 -11.9012 -1.9927 0.9448
-6.4040 -12.5292 -1.9937 0.9447
-4.0767 -13.4831 -1.9958 0.9447
-2.8576 -13.8011 -1.9969 0.9447
-1.6143 -14.0094 -1.9981 0.9446
-0.3567 -14.1060 -1.9993 0.9446
0.9053 -14.0900 -2.0005 0.9446
3.4022 -13.7208 -2.0030 0.9445
4.6170 -13.3701 -2.0042 0.9445
5.7963 -12.9118 -2.0054 0.9444
8.0104 -11.6876 -2.0076 0.9444
9.0272 -10.9311 -2.0087 0.9443
9.9725 -10.0861 -2.0097 0.9443
10.8387 -9.1593 -2.0106 0.9443
11.6186 -8.1580 -2.0115 0.9443
12.8943 -5.9648 -2.0130 0.9442
13.3796 -4.7906 -2.0136 0.9442
14.0249 -2.3344 -2.0145 0.9442
14.2199 0.1985 -2.0150 0.9442
13.9581 2.7257 -2.0151 0.9442
13.2478 5.1649 -2.0147 0.9442
12.7312 6.3265 -2.0143 0.9442
11.3965 8.4866 -2.0133 0.9442
4.8085 11.5650 -1.7746 0.9507
2.3031 10.5391 -1.5285 0.9574
-0.2786 5.2325 -0.7424 0.9791
-8.1683 10.1152 -1.8422 0.9488
-9.0366 9.3423 -1.8416 0.9488
-11.1756 6.6036 -1.8392 0.9489
-13.4954 3.6676 -1.9815 0.9451
-13.8170 2.4559 -1.9884 0.9449
-14.0300 -0.0419 -1.9879 0.9449
-13.9695 -1.2949 -1.9878 0.9449
-13.7981 -2.5376 -1.9878 0.9449
-13.1286 -4.9532 -1.9882 0.9449
-12.6358 -6.1071 -1.9885 0.9449
-12.0424 -7.2130 -1.9889 0.9449
-11.3530 -8.2621 -1.9895 0.9449
-10.5729 -9.2461 -1.9901 0.9448
-4.3710 -13.3885 -1.9955 0.9447
-3.1593 -13.7332 -1.9967 0.9447
-0.6660 -14.0927 -1.9990 0.9446
0.5959 -14.1044 -2.0002 0.9446
3.0998 -13.7901 -2.0027 0.9445
5.5108 -13.0340 -2.0051 0.9444
9.7476 -10.3013 -2.0095 0.9443
12.1460 -7.3579 -2.0121 0.9442
13.2703 -5.0827 -2.0135 0.9442
13.9697 -2.6415 -2.0144 0.9442
14.1521 -1.3833 -2.0148 0.9442
14.2206 -0.1136 -2.0150 0.9442
13.3584 4.8731 -2.0147 0.9442
12.8676 6.0459 -2.0144 0.9442
11.5809 8.2351 -2.0135 0.9442
9.1693 9.3851 -1.8591 0.9484
8.2910 10.1625 -1.8583 0.9484
7.3468 10.8577 -1.8575 0.9484
6.3445 11.4651 -1.8566 0.9484
5.2923 11.9799 -1.8557 0.9485
3.5868 10.5910 -1.5844 0.9558
2.5490 10.5490 -1.5377 0.9571
1.5630 10.5091 -1.5054 0.9580
-2.2089 10.3564 -1.5004 0.9581
-4.2121 10.2753 -1.5735 0.9561
-6.4971 10.1828 -1.7115 0.9524
-7.8189 10.1293 -1.8131 0.9496
-9.6427 8.7084 -1.8410 0.9489
-11.5925 5.8332 -1.8388 0.9489
-13.7604 2.7586 -1.9885 0.9449
-13.9495 1.5182 -1.9882 0.9449
-13.9946 -0.9880 -1.9878 0.9449
-13.5960 -3.4626 -1.9879 0.9449
-13.2337 -4.6638 -1.9881 0.9449
-12.1971 -6.9466 -1.9888 0.9449
-10.7724 -9.0112 -1.9899 0.9448
-9.9278 -9.9409 -1.9906 0.9448
-9.0037 -10.7922 -1.9914 0.9448
-8.0071 -11.5584 -1.9923 0.9448
-3.4595 -13.6586 -1.9964 0.9447
-0.9750 -14.0726 -1.9987 0.9446
1.5466 -14.0385 -2.0011 0.9445
2.7961 -13.8527 -2.0024 0.9445
6.3802 -12.6382 -2.0059 0.9444
8.5367 -11.3137 -2.0082 0.9443
9.5181 -10.5114 -2.0092 0.9443
10.4240 -9.6238 -2.0102 0.9443
11.9805 -7.6220 -2.0119 0.9442
12.6181 -6.5237 -2.0127 0.9442
13.1547 -5.3723 -2.0133 0.9442
13.5857 -4.1769 -2.0139 0.9442
14.1178 -1.6934 -2.0147 0.9442
14.2144 -0.4256 -2.0149 0.9442
14.1965 0.8459 -2.0151 0.9442
14.0644 2.1106 -2.0151 0.9442
13.8191 3.3584 -2.0150 0.9442
11.7596 7.9796 -2.0136 0.9442
10.1454 9.9383 -2.0123 0.9442
8.5129 9.9792 -1.8585 0.9484
2.7981 10.5591 -1.5477 0.9568
1.8012 10.5188 -1.5121 0.9578
0.8417 10.4799 -1.4897 0.9584
-0.0971 10.4419 -1.4796 0.9587
-1.0308 10.4041 -1.4814 0.9586
-1.9742 10.3659 -1.4951 0.9583
-2.9431 10.3267 -1.5214 0.9575
-3.9550 10.2858 -1.5614 0.9565
-5.0304 10.2422 -1.6168 0.9549
-6.1944 10.1951 -1.6903 0.9529
-7.4801 10.1431 -1.7857 0.9504
-9.4503 8.9190 -1.8412 0.9489
-10.2047 8.0355 -1.8403 0.9489
-10.8771 7.0889 -1.8396 0.9489
-11.4627 6.0866 -1.8389 0.9489
-11.9566 5.0368 -1.8383 0.9489
-13.9133 1.8240 -1.9882 0.9449
-14.0189 0.5738 -1.9880 0.9449
-13.6685 -3.1634 -1.9879 0.9449
-12.3459 -6.6769 -1.9887 0.9449
-10.9667 -8.7719 -1.9898 0.9448
-10.1427 -9.7198 -1.9905 0.9448
-9.2375 -10.5910 -1.9912 0.9448
-6.1073 -12.6786 -1.9940 0.9447
-4.9529 -13.1803 -1.9950 0.9447
-3.7578 -13.5775 -1.9961 0.9447
-2.5314 -13.8669 -1.9973 0.9446
-1.2834 -14.0458 -1.9984 0.9446
1.2379 -14.0670 -2.0008 0.9445
2.4910 -13.9086 -2.0021 0.9445
3.7258 -13.6388 -2.0033 0.9445
4.9321 -13.2594 -2.0045 0.9444
6.1004 -12.7733 -2.0057 0.9444
7.2212 -12.1843 -2.0068 0.9444
10.2092 -9.8491 -2.0099 0.9443
11.8092 -7.8823 -2.0117 0.9443
12.4708 -6.7984 -2.0125 0.9442
14.0767 -2.0028 -2.0146 0.9442
13.8897 3.0544 -2.0150 0.9442
13.5602 4.2826 -2.0149 0.9442
13.1216 5.4760 -2.0146 0.9442
12.5776 6.6249 -2.0142 0.9442
2.0416 10.5285 -1.5196 0.9576
1.0746 10.4893 -1.4940 0.9583
0.1321 10.4512 -1.4809 0.9587
-0.8014 10.4134 -1.4798 0.9587
-1.7410 10.3754 -1.4906 0.9584
-2.7022 10.3365 -1.5138 0.9578
-3.7017 10.2960 -1.5503 0.9568
-7.1512 10.1564 -1.7600 0.9511
-8.4055 9.9202 -1.8423 0.9488
-10.0270 8.2583 -1.8405 0.9489
-10.7200 7.3266 -1.8398 0.9489
-11.8441 5.2983 -1.8384 0.9489
-12.2665 4.2179 -1.8379 0.9489
-13.8705 2.1290 -1.9883 0.9449
-14.0248 -0.3731 -1.9879 0.9449
-13.9350 -1.6243 -1.9878 0.9449
-13.4248 -4.0784 -1.9880 0.9449
-13.0085 -5.2619 -1.9883 0.9449
-12.4888 -6.4041 -1.9886 0.9449
-11.8695 -7.4958 -1.9891 0.9449
-11.1557 -8.5285 -1.9896 0.9448
-9.4667 -10.3847 -1.9910 0.9448
-8.5047 -11.1935 -1.9919 0.9448
-7.4742 -11.9138 -1.9928 0.9448
-5.2402 -13.0668 -1.9948 0.9447
-4.0543 -13.4900 -1.9958 0.9447
-2.8347 -13.8060 -1.9970 0.9447
-1.5910 -14.0122 -1.9981 0.9446
0.9288 -14.0886 -2.0005 0.9446
2.1849 -13.9578 -2.0018 0.9445
3.4251 -13.7152 -2.0030 0.9445
4.6393 -13.3625 -2.0042 0.9445
5.8179 -12.9023 -2.0054 0.9444
9.9894 -10.0696 -2.0097 0.9443
10.8540 -9.1413 -2.0107 0.9443
11.6322 -8.1387 -2.0115 0.9443
12.3175 -7.0698 -2.0123 0.9442
13.3876 -4.7683 -2.0136 0.9442
13.7635 -3.5543 -2.0141 0.9442
13.9535 2.7489 -2.0151 0.9442
13.6512 3.9841 -2.0149 0.9442
13.2391 5.1869 -2.0147 0.9442
12.7206 6.3477 -2.0143 0.9442
10.5736 9.4852 -2.0126 0.9442
7.0875 11.0268 -1.8573 0.9484
6.0713 11.6102 -1.8564 0.9484
4.7963 11.5899 -1.7773 0.9506
2.2845 10.5383 -1.5278 0.9574
-0.2876 5.2373 -0.7432 0.9790
0.6276 10.4712 -1.7281 0.9584
-0.3087 10.4333 -1.7195 0.9586
-1.0904 9.1178 -1.5128 0.9635
-4.1925 10.2761 -1.8283 0.9560
-8.9204 6.7357 -1.8414 0.9557
-9.4831 5.9099 -1.8408 0.9557
-9.9700 5.0376 -1.8402 0.9557
-11.8418 2.3945 -1.9903 0.9522
-12.0066 1.3270 -1.9900 0.9522
-11.9269 -1.9035 -1.9897 0.9522
-11.7096 -2.9615 -1.9898 0.9522
-11.3993 -3.9960 -1.9899 0.9522
-10.5096 -5.9624 -1.9906 0.9522
-9.9371 -6.8789 -1.9910 0.9522
-8.5593 -8.5421 -1.9921 0.9522
-7.7647 -9.2757 -1.9928 0.9521
-6.9077 -9.9359 -1.9935 0.9521
-5.9949 -10.5175 -1.9943 0.9521
-5.0336 -11.0157 -1.9952 0.9521
-2.9960 -11.7465 -1.9971 0.9520
1.3100 -12.0765 -2.0012 0.9519
2.3848 -11.9175 -2.0022 0.9519
3.4416 -11.6629 -2.0032 0.9519
4.4720 -11.3147 -2.0043 0.9519
6.4203 -10.3486 -2.0063 0.9518
8.1667 -9.0492 -2.0081 0.9518
8.9461 -8.2870 -2.0089 0.9518
9.6544 -7.4577 -2.0097 0.9517
11.9466 -2.5525 -2.0125 0.9517
11.8790 2.8660 -2.0131 0.9517
11.5746 3.9153 -2.0129 0.9517
10.6900 5.9106 -2.0123 0.9517
10.1170 6.8404 -2.0119 0.9517
8.0693 7.8783 -1.8578 0.9553
7.3309 8.5647 -1.8572 0.9553
-0.0798 10.4426 -1.7204 0.9585
-7.4040 8.3874 -1.8431 0.9557
-9.3519 6.1171 -1.8409 0.9557
-11.4697 3.6856 -1.9847 0.9523
-11.9750 1.5902 -1.9901 0.9522
-12.0679 0.5141 -1.9899 0.9522
-11.4839 -3.7447 -1.9899 0.9522
-11.1049 -4.7562 -1.9901 0.9522
-9.4524 -7.5349 -1.9914 0.9522
-6.2236 -10.3823 -1.9941 0.9521
-5.2736 -10.9014 -1.9950 0.9521
-4.2806 -11.3340 -1.9959 0.9521
-0.0405 -12.1394 -1.9998 0.9520
2.1225 -11.9654 -2.0019 0.9519
3.1845 -11.7341 -2.0030 0.9519
4.2221 -11.4086 -2.0040 0.9519
5.2270 -10.9914 -2.0050 0.9519
6.1909 -10.4857 -2.0060 0.9518
7.1062 -9.8955 -2.0070 0.9518
8.7613 -8.4805 -2.0087 0.9518
10.1381 -6.7913 -2.0103 0.9517
10.7078 -5.8605 -2.0109 0.9517
12.0930 -1.7411 -2.0127 0.9517
12.2016 -0.6540 -2.0130 0.9517
12.2121 0.4386 -2.0131 0.9517
11.6580 3.6605 -2.0130 0.9517
10.8176 5.6749 -2.0124 0.9517
9.6308 7.5058 -2.0115 0.9517
8.8994 8.3151 -2.0064 0.9518
7.5177 8.4025 -1.8574 0.9553
5.8981 9.5988 -1.8560 0.9554
5.0150 10.0830 -1.8552 0.9554
1.0923 10.4900 -1.7375 0.9581
0.1496 10.4519 -1.7220 0.9585
-0.7840 10.4141 -1.7205 0.9585
-1.7233 10.3761 -1.7328 0.9583
-2.6840 10.3372 -1.7594 0.9576
-3.6827 10.2968 -1.8015 0.9566
-4.7007 10.1711 -1.8459 0.9556
-5.5877 9.7058 -1.8450 0.9556
-7.2190 8.5487 -1.8433 0.9557
-8.6178 7.1219 -1.8418 0.9557
-9.7408 5.4710 -1.8405 0.9557
-10.1876 4.5777 -1.8399 0.9557
-11.0014 3.8034 -1.9176 0.9539
-11.7264 2.9121 -1.9905 0.9522
-11.9376 1.8526 -1.9901 0.9522
-11.9989 -1.3784 -1.9897 0.9522
-11.8280 -2.4448 -1.9897 0.9522
-11.2062 -4.5112 -1.9901 0.9522
-10.7601 -5.4950 -1.9904 0.9522
-8.9246 -8.1571 -1.9918 0.9522
-8.1628 -8.9245 -1.9925 0.9522
-7.3356 -9.6214 -1.9932 0.9521
-6.4493 -10.2422 -1.9939 0.9521
-4.5278 -11.2361 -1.9957 0.9521
-3.5077 -11.6010 -1.9966 0.9521
-2.4586 -11.8738 -1.9976 0.9520
-0.3068 -12.1341 -1.9996 0.9520
0.7787 -12.1193 -2.0006 0.9520
1.8591 -12.0076 -2.0017 0.9519
2.9258 -11.7997 -2.0027 0.9519
6.8866 -10.0479 -2.0067 0.9518
7.7601 -9.3968 -2.0077 0.9518
10.5758 -6.0936 -2.0108 0.9517
11.0811 -5.1260 -2.0114 0.9517
11.4977 -4.1168 -2.0119 0.9517
11.8221 -3.0739 -2.0123 0.9517
12.1840 -0.9215 -2.0129 0.9517
12.2186 0.1705 -2.0131 0.9517
11.3836 4.4381 -2.0128 0.9517
10.9400 5.4364 -2.0125 0.9517
10.4086 6.3906 -2.0121 0.9517
9.7938 7.2931 -2.0116 0.9517
7.7009 8.2362 -1.8575 0.9553
6.9320 8.8880 -1.8569 0.9553
3.3262 10.5805 -1.8271 0.9560
2.3031 10.5390 -1.7772 0.9572
0.3794 10.4612 -1.7245 0.9585
-0.2786 5.2319 -0.8631 0.9790
-1.4915 10.3855 -1.7284 0.9584
-3.4331 10.3069 -1.7897 0.9569
-4.4733 10.2648 -1.8446 0.9556
-5.3741 9.8272 -1.8452 0.9556
-7.7766 8.0397 -1.8427 0.9557
-9.0761 6.5226 -1.8412 0.9557
-10.0854 4.8004 -1.8401 0.9557
-10.4712 3.8793 -1.8396 0.9557
-11.6602 3.1688 -1.9906 0.9522
-12.0343 1.0431 -1.9899 0.9522
-12.0783 -0.0361 -1.9898 0.9522
-11.3021 -4.2641 -1.9900 0.9522
-10.8776 -5.2574 -1.9903 0.9522
-10.3665 -6.2092 -1.9907 0.9522
-9.7726 -7.1120 -1.9911 0.9522
-9.1007 -7.9587 -1.9917 0.9522
-7.5443 -9.4573 -1.9930 0.9521
-6.6719 -10.0973 -1.9937 0.9521
-5.7456 -10.6572 -1.9946 0.9521
-1.6527 -12.0171 -1.9983 0.9520
-0.5729 -12.1229 -1.9993 0.9520
1.5950 -12.0439 -2.0014 0.9519
5.7235 -10.7447 -2.0055 0.9518
7.5512 -9.5638 -2.0074 0.9518
9.1403 -8.0744 -2.0091 0.9518
10.4387 -6.3237 -2.0106 0.9517
12.0041 -2.2698 -2.0126 0.9517
12.1606 -1.1886 -2.0129 0.9517
12.2193 -0.0976 -2.0131 0.9517
12.0422 2.0783 -2.0131 0.9517
11.8078 3.1456 -2.0131 0.9517
11.4786 4.1874 -2.0129 0.9517
11.0571 5.1952 -2.0126 0.9517
10.5469 6.1610 -2.0122 0.9517
9.2776 7.9354 -2.0112 0.9517
6.3148 9.3326 -1.8563 0.9553
4.5496 10.2986 -1.8548 0.9554
3.5868 10.5910 -1.8421 0.9557
2.5490 10.5490 -1.7878 0.9570
1.5630 10.5091 -1.7503 0.9578
-0.3261 10.4326 -1.7195 0.9586
-2.2089 10.3564 -1.7445 0.9580
-3.1867 10.3168 -1.7788 0.9572
-4.2121 10.2753 -1.8295 0.9560
-5.1578 9.9440 -1.8454 0.9556
-6.0225 9.4390 -1.8445 0.9556
-7.5991 8.2093 -1.8429 0.9557
-8.2986 7.4946 -1.8421 0.9557
-8.9315 6.7208 -1.8414 0.9557
-9.9783 5.0210 -1.8402 0.9557
-10.3841 4.1084 -1.8397 0.9557
-11.5784 3.4211 -1.9889 0.9522
-12.0088 1.3070 -1.9900 0.9522
-12.0479 -0.8506 -1.9897 0.9522
-11.9237 -1.9234 -1.9897 0.9522
-11.7047 -2.9810 -1.9898 0.9522
-10.4997 -5.9799 -1.9906 0.9522
-9.9257 -6.8954 -1.9910 0.9522
-7.7493 -9.2887 -1.9928 0.9521
-6.8912 -9.9475 -1.9935 0.9521
-5.0153 -11.0241 -1.9952 0.9521
-4.0124 -11.4333 -1.9961 0.9521
-2.9765 -11.7516 -1.9971 0.9520
-1.9158 -11.9764 -1.9981 0.9520
-0.8387 -12.1058 -1.9991 0.9520
1.3302 -12.0745 -2.0012 0.9519
3.4611 -11.6573 -2.0033 0.9519
4.4909 -11.3073 -2.0043 0.9519
5.4857 -10.8664 -2.0053 0.9519
8.1818 -9.0357 -2.0081 0.9518
9.6669 -7.4416 -2.0097 0.9517
10.8440 -5.6065 -2.0111 0.9517
11.6746 -3.5893 -2.0121 0.9517
11.9509 -2.5326 -2.0125 0.9517
12.1312 -1.4551 -2.0128 0.9517
12.0850 1.8136 -2.0132 0.9517
11.8742 2.8857 -2.0131 0.9517
11.5680 3.9346 -2.0129 0.9517
11.1689 4.9515 -2.0127 0.9517
10.1056 6.8572 -2.0119 0.9517
9.4502 7.7305 -2.0113 0.9517
8.0562 7.8916 -1.8578 0.9553
6.5187 9.1927 -1.8565 0.9553
4.7750 10.1974 -1.8550 0.9554
3.8432 10.5784 -1.8541 0.9554
0.8417 10.4799 -1.7320 0.9583
-1.0308 10.4041 -1.7224 0.9585
-3.9550 10.2857 -1.8154 0.9563
-4.9389 10.0560 -1.8456 0.9556
-5.8146 9.5700 -1.8447 0.9556
-7.4179 8.3750 -1.8431 0.9557
-8.7827 6.9158 -1.8416 0.9557
-9.3620 6.1015 -1.8409 0.9557
-9.8665 5.2391 -1.8403 0.9557
-10.2921 4.3356 -1.8398 0.9557
-11.4775 3.6670 -1.9850 0.9523
-11.7913 2.6343 -1.9904 0.9522
-11.9776 1.5702 -1.9901 0.9522
-11.7671 -2.7233 -1.9897 0.9522
-11.4777 -3.7639 -1.9899 0.9522
-11.0970 -4.7746 -1.9901 0.9522
-8.7302 -8.3662 -1.9920 0.9522
-7.1071 -9.7929 -1.9934 0.9521
-6.2064 -10.3927 -1.9942 0.9521
-4.2618 -11.3412 -1.9959 0.9521
-2.1778 -11.9301 -1.9978 0.9520
1.0647 -12.0992 -2.0009 0.9520
7.1227 -9.8837 -2.0070 0.9518
8.7754 -8.4660 -2.0087 0.9518
10.1495 -6.7745 -2.0103 0.9517
10.7176 -5.8427 -2.0109 0.9517
12.2027 -0.6336 -2.0130 0.9517
12.1219 1.5480 -2.0132 0.9517
11.6518 3.6799 -2.0130 0.9517
9.6182 7.5218 -2.0115 0.9517
5.8821 9.6086 -1.8560 0.9554
2.0416 10.5285 -1.7668 0.9575
1.0746 10.4893 -1.7370 0.9582
-1.7410 10.3754 -1.7331 0.9582
-3.7017 10.2960 -1.8024 0.9566
-4.7176 10.1632 -1.8459 0.9556
-6.4446 9.1527 -1.8441 0.9556
-7.2331 8.5366 -1.8433 0.9557
-8.6296 7.1075 -1.8417 0.9557
-9.2267 6.3059 -1.8411 0.9557
-9.7499 5.4547 -1.8405 0.9557
-11.0512 3.8000 -1.9252 0.9537
-11.7312 2.8925 -1.9905 0.9522
-12.0552 0.7587 -1.9899 0.9522
-11.9966 -1.3984 -1.9897 0.9522
-10.2175 -6.4526 -1.9908 0.9522
-9.6026 -7.3412 -1.9913 0.9522
-8.9110 -8.1720 -1.9918 0.9522
-4.5091 -11.2437 -1.9957 0.9521
-1.3687 -12.0544 -1.9986 0.9520
0.7989 -12.1181 -2.0007 0.9520
1.8792 -12.0046 -2.0017 0.9519
3.9894 -11.4906 -2.0038 0.9519
5.0024 -11.0939 -2.0048 0.9519
5.9764 -10.6080 -2.0058 0.9518
6.9034 -10.0365 -2.0068 0.9518
8.5867 -8.6556 -2.0085 0.9518
9.3293 -7.8571 -2.0093 0.9518
9.9975 -6.9950 -2.0101 0.9517
11.5046 -4.0976 -2.0119 0.9517
11.8272 -3.0543 -2.0123 0.9517
12.0548 -1.9859 -2.0127 0.9517
12.1856 -0.9012 -2.0129 0.9517
12.2184 0.1909 -2.0131 0.9517
9.7816 7.3094 -2.0116 0.9517
9.0858 8.1506 -2.0108 0.9517
7.6871 8.2490 -1.8575 0.9553
2.2845 10.5383 -1.7764 0.9572
1.3090 10.4988 -1.7430 0.9580
0.3619 10.4605 -1.7243 0.9585
2.3309 9.5765 -1.8525 0.9607
1.4655 9.7421 -1.8517 0.9607
-0.2911 9.8385 -1.8501 0.9607
-1.0946 9.1527 -1.7326 0.9632
-2.0353 9.6209 -1.8484 0.9608
-3.7114 9.0969 -1.8467 0.9608
-5.9829 7.7775 -1.8444 0.9608
-6.6511 7.2092 -1.8437 0.9609
-7.2659 6.5839 -1.8430 0.9609
-10.3859 2.1001 -1.9917 0.9578
-10.5916 0.2185 -1.9912 0.9578
-10.5683 -0.7285 -1.9911 0.9578
-10.4609 -1.6696 -1.9911 0.9578
-9.9980 -3.5047 -1.9913 0.9578
-9.6461 -4.3843 -1.9916 0.9578
-9.2173 -5.2293 -1.9919 0.9578
-7.5062 -7.4911 -1.9933 0.9578
-6.8090 -8.1340 -1.9938 0.9577
-6.0572 -8.7126 -1.9945 0.9577
-1.6969 -10.4960 -1.9985 0.9576
0.1980 -10.6401 -2.0003 0.9576
1.1482 -10.5847 -2.0012 0.9576
3.9188 -9.9150 -2.0039 0.9575
6.4155 -8.5321 -2.0065 0.9575
9.4904 -4.9267 -2.0099 0.9574
9.8949 -4.0602 -2.0103 0.9574
10.4635 -2.2356 -2.0111 0.9574
10.6967 -0.3381 -2.0116 0.9574
10.4039 2.5101 -2.0116 0.9574
8.8614 5.9914 -2.0106 0.9574
7.0683 6.9009 -1.8568 0.9606
6.4217 7.5025 -1.8562 0.9606
4.1983 8.9272 -1.8543 0.9606
3.3828 9.2628 -1.8535 0.9607
2.5408 9.5240 -1.8527 0.9607
1.6791 9.7087 -1.8519 0.9607
0.8048 9.8155 -1.8511 0.9607
-0.9537 9.7931 -1.8494 0.9607
-1.8239 9.6643 -1.8486 0.9608
-2.6787 9.4584 -1.8477 0.9608
-3.5113 9.1772 -1.8469 0.9608
-4.3151 8.8230 -1.8461 0.9608
-5.0838 8.3987 -1.8453 0.9608
-5.8113 7.9077 -1.8445 0.9608
-7.6915 6.0773 -1.8425 0.9609
-8.2010 5.3643 -1.8419 0.9609
-8.6450 4.6090 -1.8414 0.9609
-9.1744 3.8827 -1.8725 0.9603
-10.3377 2.3276 -1.9917 0.9578
-10.5029 1.3947 -1.9915 0.9578
-9.3295 -5.0255 -1.9918 0.9578
-8.8449 -5.8399 -1.9922 0.9578
-8.2897 -6.6081 -1.9926 0.9578
-6.9854 -7.9820 -1.9937 0.9577
-1.9266 -10.4551 -1.9982 0.9577
-0.9854 -10.5901 -1.9991 0.9576
-0.0355 -10.6406 -2.0000 0.9576
0.9156 -10.6061 -2.0010 0.9576
1.8602 -10.4868 -2.0019 0.9576
4.5802 -9.6313 -2.0046 0.9575
5.4245 -9.1876 -2.0054 0.9575
6.9784 -8.0823 -2.0071 0.9575
8.3112 -6.7164 -2.0085 0.9574
8.8808 -5.9490 -2.0091 0.9574
9.8029 -4.2762 -2.0102 0.9574
10.1479 -3.3842 -2.0107 0.9574
10.6865 -0.5728 -2.0115 0.9574
10.6188 1.3380 -2.0117 0.9574
10.2104 3.2059 -2.0115 0.9574
9.8822 4.1048 -2.0113 0.9574
8.9912 5.7958 -2.0107 0.9574
7.2792 6.8013 -1.8725 0.9603
6.5853 7.3604 -1.8564 0.9606
3.5855 9.1873 -1.8537 0.9607
1.8920 9.6705 -1.8521 0.9607
1.0201 9.7965 -1.8513 0.9607
-0.7387 9.8128 -1.8496 0.9607
-1.6116 9.7031 -1.8488 0.9608
-2.4707 9.5160 -1.8479 0.9608
-3.3094 9.2531 -1.8471 0.9608
-4.1209 8.9165 -1.8463 0.9608
-4.8988 8.5091 -1.8455 0.9608
-5.6369 8.0341 -1.8447 0.9608
-8.0819 5.5433 -1.8421 0.9609
-8.9345 4.0146 -1.8411 0.9609
-10.0103 3.4607 -1.9908 0.9578
-10.4700 1.6249 -1.9915 0.9578
-10.5722 0.6830 -1.9913 0.9578
-10.5241 -1.2090 -1.9911 0.9578
-10.3742 -2.1443 -1.9912 0.9578
-7.8266 -7.1535 -1.9930 0.9578
-7.1583 -7.8263 -1.9935 0.9578
-6.4326 -8.4370 -1.9942 0.9577
-5.6551 -8.9810 -1.9948 0.9577
-4.8321 -9.4537 -1.9956 0.9577
-3.9698 -9.8514 -1.9964 0.9577
-1.2174 -10.5648 -1.9989 0.9576
2.5642 -10.3410 -2.0026 0.9576
3.4792 -10.0752 -2.0035 0.9575
4.3672 -9.7284 -2.0044 0.9575
5.2211 -9.3035 -2.0052 0.9575
6.0338 -8.8036 -2.0061 0.9575
8.1611 -6.8966 -2.0083 0.9574
8.7474 -6.1420 -2.0090 0.9574
10.0707 -3.6058 -2.0106 0.9574
10.5552 -1.7569 -2.0113 0.9574
10.6456 1.1047 -2.0117 0.9574
10.5042 2.0512 -2.0117 0.9574
9.5818 4.7615 -2.0111 0.9574
9.1166 5.5974 -2.0108 0.9574
8.5784 6.3880 -2.0103 0.9574
6.7457 7.2146 -1.8565 0.9606
6.0724 7.7859 -1.8559 0.9606
4.5869 8.7360 -1.8546 0.9606
2.9568 9.4053 -1.8531 0.9607
2.1039 9.6277 -1.8523 0.9607
1.2350 9.7728 -1.8515 0.9607
0.3569 9.8397 -1.8507 0.9607
-0.2785 5.2313 -0.9847 0.9789
-1.3984 9.7372 -1.8490 0.9608
-2.2616 9.5690 -1.8481 0.9608
-3.1059 9.3245 -1.8473 0.9608
-3.9247 9.0057 -1.8465 0.9608
-6.1642 7.6333 -1.8442 0.9609
-7.4186 6.4100 -1.8428 0.9609
-7.9590 5.7198 -1.8422 0.9609
-8.4356 4.9845 -1.8417 0.9609
-8.8448 4.2099 -1.8412 0.9609
-10.2265 2.7792 -1.9919 0.9578
-10.4322 1.8543 -1.9916 0.9578
-10.5549 0.9149 -1.9914 0.9578
-10.2063 -2.8392 -1.9912 0.9578
-9.9127 -3.7399 -1.9914 0.9578
-9.5403 -4.6110 -1.9917 0.9578
-8.5707 -6.2373 -1.9924 0.9578
-7.3278 -7.6667 -1.9934 0.9578
-6.6156 -8.2932 -1.9940 0.9577
-5.0379 -9.3445 -1.9954 0.9577
-3.2973 -10.0998 -1.9970 0.9577
-2.3830 -10.3584 -1.9978 0.9577
-0.5022 -10.6265 -1.9996 0.9576
0.4492 -10.6337 -2.0005 0.9576
2.3364 -10.3936 -2.0023 0.9576
3.2569 -10.1480 -2.0033 0.9575
5.0151 -9.4148 -2.0050 0.9575
5.8385 -8.9330 -2.0059 0.9575
6.6158 -8.3791 -2.0067 0.9575
8.0072 -7.0734 -2.0082 0.9574
10.2925 -2.9188 -2.0109 0.9574
10.6506 -1.0410 -2.0114 0.9574
9.2377 5.3962 -2.0109 0.9574
8.1265 6.9508 -2.0100 0.9574
6.2423 7.6514 -1.8561 0.9606
5.5320 8.1757 -1.8554 0.9606
4.7779 8.6341 -1.8548 0.9606
3.9860 9.0229 -1.8541 0.9606
1.4493 9.7445 -1.8517 0.9607
-0.3075 9.8379 -1.8501 0.9607
-1.1110 9.1600 -1.7343 0.9631
-2.0513 9.6174 -1.8484 0.9608
-4.5217 8.7177 -1.8459 0.9608
-5.2801 8.2754 -1.8451 0.9608
-8.3248 5.1688 -1.8418 0.9609
-10.1635 3.0030 -1.9920 0.9578
-10.5919 0.2009 -1.9912 0.9578
-10.5671 -0.7460 -1.9911 0.9578
-10.2660 -2.6146 -1.9912 0.9578
-8.7050 -6.0474 -1.9923 0.9578
-1.6794 -10.4989 -1.9985 0.9576
-0.7352 -10.6117 -1.9994 0.9576
0.2158 -10.6398 -2.0003 0.9576
1.1659 -10.5828 -2.0012 0.9576
2.1075 -10.4412 -2.0021 0.9576
3.0331 -10.2159 -2.0030 0.9576
4.8068 -9.5216 -2.0048 0.9575
5.6405 -9.0580 -2.0057 0.9575
6.4298 -8.5214 -2.0065 0.9575
7.1680 -7.9161 -2.0073 0.9575
7.8494 -7.2468 -2.0080 0.9575
8.4682 -6.5189 -2.0087 0.9574
9.0194 -5.7382 -2.0093 0.9574
9.4986 -4.9109 -2.0099 0.9574
9.9017 -4.0438 -2.0104 0.9574
10.4672 -2.2182 -2.0111 0.9574
10.6249 -1.2745 -2.0114 0.9574
10.6973 -0.3203 -2.0116 0.9574
10.5842 1.5884 -2.0117 0.9574
10.3997 2.5274 -2.0116 0.9574
9.7822 4.3368 -2.0113 0.9574
9.3543 5.1925 -2.0109 0.9574
8.2776 6.7712 -2.0101 0.9574
6.4092 7.5132 -1.8562 0.9606
4.1834 8.9341 -1.8542 0.9606
0.7885 9.8167 -1.8511 0.9607
-0.9701 9.7914 -1.8494 0.9607
-1.8399 9.6612 -1.8486 0.9608
-3.5265 9.1713 -1.8469 0.9608
-4.3297 8.8157 -1.8461 0.9608
-5.8244 7.8980 -1.8445 0.9608
-6.5041 7.3433 -1.8438 0.9609
-8.6526 4.5945 -1.8414 0.9609
-10.4926 -1.4571 -1.9911 0.9578
-10.3208 -2.3886 -1.9912 0.9578
-9.3211 -5.0411 -1.9918 0.9578
-6.9721 -7.9937 -1.9937 0.9577
-6.2321 -8.5873 -1.9943 0.9577
-4.6080 -9.5661 -1.9958 0.9577
-0.0178 -10.6408 -2.0001 0.9576
0.9332 -10.6047 -2.0010 0.9576
5.4398 -9.1787 -2.0055 0.9575
6.2406 -8.6596 -2.0063 0.9575
6.9919 -8.0707 -2.0071 0.9575
9.8100 -4.2599 -2.0102 0.9574
10.4156 -2.4472 -2.0110 0.9574
10.6165 1.3557 -2.0117 0.9574
10.4528 2.2986 -2.0117 0.9574
10.2050 3.2229 -2.0115 0.9574
8.9815 5.8108 -2.0107 0.9574
7.2073 6.7566 -1.8569 0.9606
6.5730 7.3713 -1.8563 0.9606
2.7336 9.4714 -1.8529 0.9607
1.8758 9.6736 -1.8521 0.9607
-0.7551 9.8114 -1.8496 0.9607
-1.6277 9.7003 -1.8488 0.9608
-2.4866 9.5118 -1.8479 0.9608
-3.3248 9.2475 -1.8471 0.9608
-4.1357 8.9095 -1.8463 0.9608
-6.9827 6.8859 -1.8433 0.9609
-7.5672 6.2325 -1.8427 0.9609
-8.0911 5.5298 -1.8421 0.9609
-10.0174 3.4445 -1.9911 0.9578
-10.2888 2.5368 -1.9918 0.9578
-10.5733 0.6654 -1.9913 0.9578
-10.5898 -0.2817 -1.9912 0.9578
-10.5220 -1.2265 -1.9911 0.9578
-10.1366 -3.0795 -1.9913 0.9578
-8.9611 -5.6591 -1.9921 0.9578
-8.4215 -6.4383 -1.9925 0.9578
-7.8147 -7.1666 -1.9930 0.9578
-7.1453 -7.8382 -1.9936 0.9578
-6.4185 -8.4478 -1.9942 0.9577
-5.6402 -8.9904 -1.9949 0.9577
-4.8163 -9.4618 -1.9956 0.9577
-3.9534 -9.8580 -1.9964 0.9577
-2.1380 -10.4129 -1.9980 0.9577
-0.2512 -10.6367 -1.9998 0.9576
1.6470 -10.5212 -2.0017 0.9576
6.8125 -8.2214 -2.0069 0.9575
7.5225 -7.5829 -2.0076 0.9575
9.2728 -5.3222 -2.0096 0.9574
9.7136 -4.4738 -2.0101 0.9574
10.3590 -2.6751 -2.0110 0.9574
10.5581 -1.7393 -2.0113 0.9574
10.6725 -0.7893 -2.0115 0.9574
10.6437 1.1225 -2.0117 0.9574
10.5008 2.0687 -2.0117 0.9574
8.5677 6.4023 -2.0103 0.9574
5.3370 8.3032 -1.8553 0.9606
4.5723 8.7436 -1.8546 0.9606
1.2187 9.7748 -1.8515 0.9607
0.3405 9.8402 -1.8507 0.9607
2.0722 8.5137 -1.8522 0.9648
1.3029 8.6614 -1.8515 0.9648
0.5238 8.7397 -1.8507 0.9648
-0.2589 8.7480 -1.8500 0.9649
-2.5658 8.3561 -1.8477 0.9649
-3.3007 8.0903 -1.8470 0.9649
-4.0086 7.7601 -1.8463 0.9649
-5.3215 6.9178 -1.8449 0.9649
-5.9162 6.4126 -1.8443 0.9650
-6.9585 5.2543 -1.8431 0.9650
-7.3981 4.6105 -1.8426 0.9650
-7.7965 3.9394 -1.8465 0.9649
-8.7590 3.4823 -1.9924 0.9622
-9.3691 1.0355 -1.9925 0.9622
-9.3072 -1.4854 -1.9923 0.9622
-8.5820 -3.9007 -1.9927 0.9622
-7.7534 -5.3672 -1.9933 0.9622
-6.6775 -6.6641 -1.9942 0.9622
-5.3881 -7.7502 -1.9953 0.9621
-4.6758 -8.2031 -1.9959 0.9621
-3.9256 -8.5909 -1.9966 0.9621
-1.5091 -9.3347 -1.9988 0.9621
0.1761 -9.4618 -2.0004 0.9620
1.8585 -9.2870 -2.0020 0.9620
2.6817 -9.0876 -2.0028 0.9620
4.2593 -8.4721 -2.0044 0.9620
5.0010 -8.0608 -2.0052 0.9620
6.3600 -7.0473 -2.0066 0.9619
6.9664 -6.4531 -2.0073 0.9619
7.5172 -5.8068 -2.0079 0.9619
8.4349 -4.3788 -2.0089 0.9619
9.0832 -2.8091 -2.0097 0.9619
9.2992 -1.9869 -2.0100 0.9619
9.4406 -1.1484 -2.0103 0.9619
9.5062 -0.3005 -2.0104 0.9619
9.4955 0.5499 -2.0105 0.9619
9.4085 1.3959 -2.0105 0.9619
9.2460 2.2307 -2.0105 0.9619
7.8756 5.3249 -2.0095 0.9619
7.3670 6.0059 -2.0091 0.9619
5.7078 6.6685 -1.8554 0.9647
3.0072 8.2344 -1.8530 0.9648
1.4928 8.6316 -1.8516 0.9648
0.7156 8.7270 -1.8509 0.9648
-0.0669 8.7525 -1.8501 0.9648
-1.6219 8.5939 -1.8486 0.9649
-2.3821 8.4112 -1.8479 0.9649
-3.1226 8.1616 -1.8471 0.9649
-3.8377 7.8469 -1.8464 0.9649
-4.5216 7.4699 -1.8457 0.9649
-6.8421 5.4061 -1.8433 0.9650
-7.2956 4.7720 -1.8427 0.9650
-7.6908 4.1002 -1.8423 0.9650
-9.1973 2.0708 -1.9928 0.9622
-9.3444 1.2408 -1.9925 0.9622
-9.4170 0.4011 -1.9924 0.9622
-9.1860 -2.1099 -1.9923 0.9622
-8.9613 -2.9222 -1.9924 0.9622
-7.8689 -5.1955 -1.9932 0.9622
-6.8218 -6.5156 -1.9940 0.9622
-6.2141 -7.1007 -1.9945 0.9622
-5.5565 -7.6296 -1.9951 0.9621
-3.3381 -8.8385 -1.9971 0.9621
-2.5362 -9.1047 -1.9978 0.9621
-0.8763 -9.4180 -1.9994 0.9621
0.8142 -9.4313 -2.0010 0.9620
1.6540 -9.3247 -2.0018 0.9620
2.4814 -9.1433 -2.0026 0.9620
3.2895 -8.8887 -2.0034 0.9620
4.0720 -8.5627 -2.0042 0.9620
4.8224 -8.1679 -2.0050 0.9620
5.5348 -7.7073 -2.0057 0.9619
6.2033 -7.1846 -2.0064 0.9619
6.8226 -6.6039 -2.0071 0.9619
7.8935 -5.2876 -2.0083 0.9619
8.3363 -4.5626 -2.0088 0.9619
9.4972 -0.5090 -2.0104 0.9619
9.5052 0.3414 -2.0105 0.9619
9.4369 1.1891 -2.0105 0.9619
9.0740 2.8491 -2.0104 0.9619
8.4204 4.4174 -2.0100 0.9619
7.4974 5.8431 -2.0092 0.9619
5.2439 7.0368 -1.8550 0.9648
3.1874 8.1672 -1.8532 0.9648
1.6820 8.5976 -1.8518 0.9648
0.1253 8.7527 -1.8503 0.9648
-0.6568 8.7253 -1.8496 0.9649
-3.6649 7.9300 -1.8466 0.9649
-4.3570 7.5680 -1.8459 0.9649
-5.0138 7.1459 -1.8452 0.9649
-6.2011 6.1355 -1.8440 0.9650
-7.1896 4.9313 -1.8429 0.9650
-7.5994 4.2682 -1.8424 0.9650
-8.5722 3.8518 -1.9865 0.9623
-9.1499 2.2723 -1.9929 0.9622
-9.4061 0.6077 -1.9924 0.9622
-9.4223 -0.2350 -1.9923 0.9622
-9.3634 -1.0756 -1.9923 0.9622
-9.2300 -1.9078 -1.9923 0.9622
-9.0231 -2.7248 -1.9924 0.9622
-8.7444 -3.5202 -1.9925 0.9622
-6.9627 -6.3639 -1.9939 0.9622
-6.3680 -6.9622 -1.9944 0.9622
-5.7222 -7.5053 -1.9950 0.9621
-4.2981 -8.4090 -1.9962 0.9621
-2.7351 -9.0460 -1.9976 0.9621
-1.9169 -9.2577 -1.9984 0.9621
-0.2392 -9.4585 -2.0000 0.9621
2.2799 -9.1947 -2.0024 0.9620
3.8828 -8.6492 -2.0040 0.9620
4.6416 -8.2710 -2.0048 0.9620
5.3639 -7.8262 -2.0056 0.9620
6.6755 -6.7515 -2.0069 0.9619
7.2542 -6.1302 -2.0076 0.9619
7.7750 -5.4592 -2.0081 0.9619
9.4836 -0.7173 -2.0104 0.9619
9.5103 0.1327 -2.0105 0.9619
9.4607 0.9818 -2.0105 0.9619
9.3351 1.8229 -2.0105 0.9619
8.8606 3.4545 -2.0103 0.9619
8.5156 4.2316 -2.0100 0.9619
7.6242 5.6775 -2.0093 0.9619
7.0704 6.3214 -2.0048 0.9620
5.3975 6.9205 -1.8552 0.9648
2.6286 8.3613 -1.8527 0.9648
1.0980 8.6889 -1.8513 0.9648
0.3173 8.7487 -1.8505 0.9648
-0.2785 5.2307 -1.1072 0.9788
-2.0111 8.5093 -1.8483 0.9649
-3.4904 8.0093 -1.8468 0.9649
-4.8562 7.2548 -1.8454 0.9649
-6.0654 6.2706 -1.8441 0.9650
-7.0801 5.0882 -1.8430 0.9650
-7.5044 4.4342 -1.8425 0.9650
-8.2107 3.9081 -1.9221 0.9635
-8.8425 3.2760 -1.9933 0.9622
-9.0982 2.4726 -1.9929 0.9622
-9.2814 1.6497 -1.9927 0.9622
-9.4252 -0.0281 -1.9923 0.9622
-9.3848 -0.8699 -1.9923 0.9622
-9.0806 -2.5261 -1.9923 0.9622
-8.4878 -4.1023 -1.9927 0.9622
-8.0886 -4.8449 -1.9930 0.9622
-7.1002 -6.2093 -1.9938 0.9622
-6.5188 -6.8203 -1.9943 0.9622
-4.4812 -8.3120 -1.9961 0.9621
-2.9327 -8.9830 -1.9975 0.9621
-2.1194 -9.2125 -1.9982 0.9621
-0.4466 -9.4501 -1.9998 0.9621
2.8958 -9.0227 -2.0030 0.9620
4.4586 -8.3700 -2.0046 0.9620
5.1904 -7.9413 -2.0054 0.9620
5.8811 -7.4486 -2.0061 0.9619
6.5252 -6.8958 -2.0068 0.9619
7.6528 -5.6281 -2.0080 0.9619
8.5365 -4.1787 -2.0090 0.9619
9.3438 -1.7668 -2.0101 0.9619
9.4653 -0.9252 -2.0103 0.9619
9.5108 -0.0760 -2.0105 0.9619
9.1906 2.4483 -2.0105 0.9619
8.9345 3.2593 -2.0103 0.9619
8.6067 4.0439 -2.0101 0.9619
8.2099 4.7959 -2.0098 0.9619
7.7473 5.5091 -2.0094 0.9619
5.5484 6.8009 -1.8553 0.9648
4.9173 7.2672 -1.8547 0.9648
4.2471 7.6749 -1.8542 0.9648
3.5433 8.0209 -1.8535 0.9648
2.8117 8.3023 -1.8529 0.9648
2.0581 8.5171 -1.8522 0.9648
1.2885 8.6635 -1.8514 0.9648
-0.1677 5.3636 -1.1343 0.9783
-1.8241 8.5523 -1.8484 0.9649
-2.5797 8.3518 -1.8477 0.9649
-4.0215 7.7533 -1.8462 0.9649
-4.6962 7.3603 -1.8455 0.9649
-5.9268 6.4027 -1.8442 0.9650
-6.9672 5.2427 -1.8431 0.9650
-7.4057 4.5981 -1.8426 0.9650
-7.8203 3.9351 -1.8505 0.9648
-9.0421 2.6717 -1.9930 0.9622
-9.3708 1.0199 -1.9925 0.9622
-9.4237 0.1787 -1.9923 0.9622
-9.3047 -1.5009 -1.9923 0.9622
-9.1337 -2.3262 -1.9923 0.9622
-8.8900 -3.1330 -1.9925 0.9622
-7.7445 -5.3801 -1.9933 0.9622
-7.2344 -6.0516 -1.9937 0.9622
-5.3753 -7.7592 -1.9953 0.9621
-3.9114 -8.5975 -1.9966 0.9621
-3.1288 -8.9157 -1.9973 0.9621
-1.4936 -9.3372 -1.9988 0.9621
0.1919 -9.4616 -2.0004 0.9620
3.4988 -8.8095 -2.0036 0.9620
4.2734 -8.4651 -2.0044 0.9620
6.3718 -7.0368 -2.0066 0.9619
8.0166 -5.1002 -2.0084 0.9619
8.8003 -3.5940 -2.0094 0.9619
9.3025 -1.9714 -2.0100 0.9619
9.4946 0.5657 -2.0105 0.9619
8.6936 3.8542 -2.0102 0.9619
8.3135 4.6147 -2.0099 0.9619
7.8667 5.3380 -2.0095 0.9619
7.3569 6.0181 -2.0091 0.9619
3.7188 7.9419 -1.8537 0.9648
2.9935 8.2394 -1.8530 0.9648
2.2447 8.4707 -1.8523 0.9648
1.4784 8.6340 -1.8516 0.9648
-0.0814 8.7523 -1.8501 0.9648
-1.6362 8.5911 -1.8486 0.9649
-3.1362 8.1563 -1.8471 0.9649
-4.5340 7.4623 -1.8457 0.9649
-5.1806 7.0249 -1.8450 0.9649
-7.7127 4.0954 -1.8459 0.9649
-8.9817 2.8696 -1.9931 0.9622
-9.4177 0.3854 -1.9924 0.9622
-9.4140 -0.4573 -1.9923 0.9622
-8.6592 -3.7257 -1.9926 0.9622
-8.2928 -4.4849 -1.9929 0.9622
-7.8603 -5.2086 -1.9932 0.9622
-6.2023 -7.1111 -1.9946 0.9622
-4.8408 -8.1060 -1.9957 0.9621
-1.6980 -9.3013 -1.9986 0.9621
-0.8607 -9.4195 -1.9994 0.9621
-0.0158 -9.4626 -2.0002 0.9621
0.8298 -9.4300 -2.0010 0.9620
1.6696 -9.3220 -2.0018 0.9620
2.4966 -9.1393 -2.0026 0.9620
4.8360 -8.1599 -2.0050 0.9620
6.2153 -7.1743 -2.0064 0.9619
6.8336 -6.5926 -2.0071 0.9619
7.3975 -5.9576 -2.0077 0.9619
7.9023 -5.2745 -2.0083 0.9619
8.3440 -4.5487 -2.0088 0.9619
8.7189 -3.7860 -2.0093 0.9619
9.2567 -2.1749 -2.0100 0.9619
9.4152 -1.3395 -2.0102 0.9619
9.4980 -0.4932 -2.0104 0.9619
9.5046 0.3572 -2.0105 0.9619
9.0693 2.8642 -2.0104 0.9619
6.8115 6.3856 -1.9736 0.9625
5.8423 6.5518 -1.8555 0.9647
5.2322 7.0455 -1.8550 0.9648
3.1738 8.1724 -1.8532 0.9648
2.4302 8.4202 -1.8525 0.9648
1.6677 8.6003 -1.8518 0.9648
0.8925 8.7114 -1.8511 0.9648
-2.2112 8.4586 -1.8481 0.9649
-2.9568 8.2239 -1.8473 0.9649
-4.3696 7.5607 -1.8459 0.9649
-5.6411 6.6577 -1.8446 0.9650
-6.7315 5.5441 -1.8434 0.9650
-7.6065 4.2556 -1.8424 0.9650
-8.5796 3.8380 -1.9867 0.9623
-9.1537 2.2570 -1.9929 0.9622
-9.4071 0.5920 -1.9924 0.9622
-9.4218 -0.2506 -1.9923 0.9622
-9.2268 -1.9231 -1.9923 0.9622
-8.3889 -4.3017 -1.9928 0.9622
-7.9723 -5.0347 -1.9931 0.9622
-7.4922 -5.7278 -1.9935 0.9622
-5.0171 -7.9972 -1.9956 0.9621
-1.9015 -9.2609 -1.9984 0.9621
-0.2234 -9.4590 -2.0000 0.9621
3.1083 -8.9528 -2.0033 0.9620
4.6554 -8.2633 -2.0048 0.9620
5.3769 -7.8173 -2.0056 0.9620
6.6867 -6.7404 -2.0069 0.9619
7.2644 -6.1181 -2.0076 0.9619
7.7841 -5.4463 -2.0082 0.9619
8.6333 -3.9762 -2.0091 0.9619
9.2064 -2.3775 -2.0099 0.9619
9.4848 -0.7015 -2.0104 0.9619
9.5101 0.1486 -2.0105 0.9619
9.3320 1.8384 -2.0105 0.9619
9.1301 2.6646 -2.0104 0.9619
8.5085 4.2458 -2.0100 0.9619
8.0940 4.9881 -2.0097 0.9619
7.0589 6.3323 -2.0045 0.9620
5.9850 6.4224 -1.8557 0.9647
5.3859 6.9295 -1.8552 0.9648
4.7440 7.3806 -1.8546 0.9648
4.0644 7.7724 -1.8540 0.9648
3.3527 8.1015 -1.8533 0.9648
2.6146 8.3656 -1.8527 0.9648
1.8562 8.5625 -1.8520 0.9648
0.3027 8.7492 -1.8505 0.9648
-0.2875 5.2349 -1.1082 0.9788
1.1717 7.7891 -1.8512 0.9682
0.4711 7.8598 -1.8506 0.9682
-0.9343 7.8125 -1.8492 0.9682
-2.9690 7.2773 -1.8472 0.9682
-3.6059 6.9805 -1.8465 0.9682
-4.7873 6.2234 -1.8453 0.9683
-6.2606 4.7273 -1.8437 0.9683
-6.6562 4.1481 -1.8433 0.9683
-7.5524 3.8160 -1.9887 0.9658
-7.8847 3.1347 -1.9942 0.9657
-8.1319 2.4175 -1.9939 0.9657
-8.3143 1.6812 -1.9936 0.9657
-8.4303 0.9317 -1.9934 0.9657
-8.4793 0.1749 -1.9933 0.9658
-8.4607 -0.5832 -1.9932 0.9658
-8.3747 -1.3366 -1.9932 0.9658
-7.3786 -4.1861 -1.9938 0.9657
-6.9762 -4.8292 -1.9941 0.9657
-6.0080 -5.9959 -1.9949 0.9657
-5.4496 -6.5101 -1.9953 0.9657
-4.2066 -7.3799 -1.9964 0.9657
-3.5316 -7.7285 -1.9970 0.9657
-2.8280 -8.0157 -1.9977 0.9657
-2.1014 -8.2390 -1.9983 0.9657
-0.6022 -8.4874 -1.9998 0.9656
0.1584 -8.5104 -2.0005 0.9656
3.1333 -7.9275 -2.0034 0.9656
4.4970 -7.2485 -2.0048 0.9656
5.7187 -6.3367 -2.0061 0.9655
6.2637 -5.8022 -2.0067 0.9655
6.7588 -5.2209 -2.0072 0.9655
7.1999 -4.5974 -2.0077 0.9655
7.5835 -3.9368 -2.0081 0.9655
8.1660 -2.5255 -2.0089 0.9655
8.3601 -1.7862 -2.0092 0.9655
8.5460 -0.2701 -2.0095 0.9655
8.5363 0.4943 -2.0096 0.9655
8.3120 2.0054 -2.0096 0.9655
8.0992 2.7397 -2.0094 0.9655
7.8214 3.4519 -2.0093 0.9655
7.4809 4.1363 -2.0090 0.9655
6.6233 5.3996 -2.0084 0.9655
5.8587 5.7200 -1.9244 0.9669
4.5746 6.4284 -1.8543 0.9681
3.9810 6.8094 -1.8538 0.9681
3.3558 7.1356 -1.8532 0.9681
1.3425 7.7622 -1.8514 0.9681
0.6435 7.8483 -1.8507 0.9682
-0.0601 7.8716 -1.8500 0.9682
-0.7627 7.8318 -1.8494 0.9682
-2.1426 7.5656 -1.8480 0.9682
-5.1950 5.8849 -1.8449 0.9683
-5.6982 5.3957 -1.8443 0.9683
-7.3713 3.9299 -1.9633 0.9663
-8.0772 2.5955 -1.9939 0.9657
-8.4735 0.3609 -1.9933 0.9658
-8.4715 -0.3974 -1.9932 0.9658
-8.4020 -1.1525 -1.9932 0.9658
-7.7970 -3.3394 -1.9935 0.9657
-6.1377 -5.8623 -1.9948 0.9657
-5.5909 -6.3886 -1.9952 0.9657
-4.9991 -6.8642 -1.9957 0.9657
-3.7000 -7.6486 -1.9969 0.9657
-2.2815 -8.1902 -1.9982 0.9657
-1.5413 -8.3642 -1.9989 0.9657
0.7323 -8.4826 -2.0010 0.9656
2.2316 -8.2230 -2.0025 0.9656
4.3365 -7.3449 -2.0046 0.9656
4.9769 -6.9304 -2.0053 0.9655
7.4949 -4.1021 -2.0080 0.9655
8.4622 -1.2183 -2.0093 0.9655
8.5379 -0.4576 -2.0095 0.9655
8.5451 0.3069 -2.0096 0.9655
8.3541 1.8225 -2.0096 0.9655
7.1840 4.6309 -2.0088 0.9655
6.7405 5.2532 -2.0085 0.9655
6.2250 5.8164 -2.0023 0.9656
2.8662 7.3440 -1.8528 0.9681
2.1980 7.5681 -1.8522 0.9681
0.8156 7.8330 -1.8509 0.9682
0.1126 7.8717 -1.8502 0.9682
-0.3902 5.1834 -1.2217 0.9789
-1.9762 7.6115 -1.8482 0.9682
-3.9194 6.8079 -1.8462 0.9682
-5.5788 5.5199 -1.8445 0.9683
-6.0479 4.9981 -1.8440 0.9683
-7.0394 3.9537 -1.8975 0.9674
-7.7393 3.4776 -1.9941 0.9657
-8.2330 2.0445 -1.9937 0.9657
-8.4637 0.5468 -1.9933 0.9658
-8.1191 -2.4518 -1.9933 0.9658
-7.1808 -4.5181 -1.9939 0.9657
-6.7497 -5.1424 -1.9943 0.9657
-5.7294 -6.2640 -1.9951 0.9657
-4.5257 -7.1872 -1.9961 0.9657
-2.4604 -8.1375 -1.9980 0.9657
-0.9739 -8.4513 -1.9994 0.9656
-0.2151 -8.5076 -2.0001 0.9656
2.0504 -8.2693 -2.0023 0.9656
2.7819 -8.0560 -2.0030 0.9656
4.1740 -7.4376 -2.0045 0.9656
4.8233 -7.0374 -2.0051 0.9656
6.0022 -6.0706 -2.0064 0.9655
6.5224 -5.5117 -2.0069 0.9655
6.9905 -4.9083 -2.0075 0.9655
8.0467 -2.8811 -2.0087 0.9655
8.2731 -2.1511 -2.0090 0.9655
8.4332 -1.4037 -2.0093 0.9655
8.3921 1.6388 -2.0096 0.9655
8.2119 2.3818 -2.0095 0.9655
7.2842 4.4723 -2.0089 0.9655
6.8544 5.1043 -2.0085 0.9655
6.3614 5.6875 -2.0055 0.9655
4.2765 6.6291 -1.8541 0.9681
3.0268 7.2799 -1.8529 0.9681
-0.2754 5.1717 -1.2172 0.9789
-1.1184 7.7875 -1.8490 0.9682
-1.8089 7.6537 -1.8483 0.9682
-2.4845 7.4588 -1.8477 0.9682
-3.1397 7.2045 -1.8470 0.9682
-4.9325 6.1081 -1.8452 0.9683
-5.4567 5.6414 -1.8446 0.9683
-6.3700 4.5779 -1.8436 0.9683
-6.7519 3.9896 -1.8432 0.9683
-7.6511 3.6418 -1.9915 0.9658
-8.4445 -0.7828 -1.9932 0.9658
