ply
format ascii 1.0
element vertex 1577
property float32 x
property float32 y
property float32 z
property float32 I
end_header
3.1170 -13.7816 -2.0020 0.9445
4.3386 -13.4592 -2.0037 0.9445
5.5274 -13.0285 -2.0053 0.9444
6.6739 -12.4928 -2.0068 0.9444
8.8027 -11.1233 -2.0099 0.9443
9.7675 -10.3001 -2.0113 0.9443
11.4585 -8.4095 -2.0139 0.9442
12.7854 -6.2441 -2.0161 0.9441
13.2979 -5.0799 -2.0170 0.9441
13.7038 -3.8739 -2.0178 0.9441
14.1826 -1.3755 -2.0190 0.9441
14.2515 -0.1037 -2.0193 0.9440
13.3865 4.8917 -2.0194 0.9440
11.6029 8.2583 -2.0179 0.9441
10.8151 9.2577 -2.0171 0.9441
9.9409 10.1819 -2.0162 0.9441
8.3051 10.1862 -1.8622 0.9483
5.2983 11.9995 -1.8586 0.9484
1.5530 10.4467 -1.4964 0.9582
0.6080 10.4392 -1.4816 0.9586
-0.3259 10.4319 -1.4788 0.9587
-1.2637 10.4245 -1.4879 0.9585
-3.2137 10.4092 -1.5436 0.9569
-6.6207 10.3824 -1.7447 0.9515
-7.9378 10.2897 -1.8413 0.9489
-10.3603 7.8027 -1.8377 0.9490
-11.0093 6.8426 -1.8366 0.9490
-13.7307 2.7616 -1.9844 0.9450
-13.9965 0.2753 -1.9835 0.9450
-13.9634 -0.9754 -1.9833 0.9450
-13.8198 -2.2181 -1.9832 0.9450
-12.7413 -5.8028 -1.9837 0.9450
-10.7576 -8.9800 -1.9855 0.9450
-8.9971 -10.7601 -1.9873 0.9449
-5.8343 -12.7825 -1.9909 0.9448
0.2658 -14.1011 -1.9983 0.9446
1.5250 -14.0324 -1.9999 0.9446
2.7740 -13.8515 -2.0016 0.9445
5.2019 -13.1585 -2.0048 0.9444
6.3610 -12.6515 -2.0064 0.9444
7.4710 -12.0423 -2.0080 0.9444
8.5227 -11.3356 -2.0095 0.9443
11.2448 -8.6893 -2.0135 0.9442
12.6251 -6.5582 -2.0158 0.9441
13.6022 -4.2117 -2.0176 0.9441
14.1433 -1.7263 -2.0188 0.9441
14.2297 0.8170 -2.0195 0.9440
12.4731 6.8853 -2.0187 0.9441
9.2592 10.7988 -2.0155 0.9442
6.6364 11.3271 -1.8601 0.9483
5.5949 11.8667 -1.8589 0.9484
4.5100 12.3105 -1.8576 0.9484
1.8189 10.4487 -1.5027 0.9581
0.8681 10.4413 -1.4845 0.9586
-0.0674 10.4339 -1.4784 0.9587
-3.9644 10.4033 -1.5774 0.9560
-7.6009 10.3747 -1.8223 0.9494
-9.4114 8.9394 -1.8392 0.9489
-10.1655 8.0583 -1.8380 0.9489
-10.8381 7.1143 -1.8369 0.9490
-11.4239 6.1149 -1.8360 0.9490
-13.6592 3.1011 -1.9846 0.9450
-13.8776 1.8686 -1.9841 0.9450
-13.9837 -0.6292 -1.9833 0.9450
-13.8706 -1.8751 -1.9832 0.9450
-13.6478 -3.1061 -1.9832 0.9450
-12.8805 -5.4852 -1.9836 0.9450
-12.3419 -6.6147 -1.9840 0.9450
-11.7053 -7.6924 -1.9846 0.9450
-10.9756 -8.7099 -1.9853 0.9450
-9.2596 -10.5325 -1.9871 0.9449
-8.2866 -11.3232 -1.9881 0.9449
-7.2467 -12.0248 -1.9893 0.9449
-6.1480 -12.6318 -1.9905 0.9448
-3.8086 -13.5426 -1.9933 0.9448
-2.5861 -13.8389 -1.9948 0.9447
-0.0836 -14.1002 -1.9979 0.9446
2.4295 -13.9128 -2.0011 0.9445
4.8732 -13.2804 -2.0044 0.9445
6.0443 -12.8024 -2.0060 0.9444
7.1689 -12.2211 -2.0075 0.9444
11.0242 -8.9636 -2.0132 0.9442
11.7876 -7.9482 -2.0144 0.9442
13.0268 -5.7309 -2.0165 0.9441
13.8494 -3.3252 -2.0181 0.9441
14.2452 0.4643 -2.0195 0.9440
14.1480 1.7345 -2.0196 0.9440
13.6132 4.2230 -2.0195 0.9440
13.1800 5.4208 -2.0192 0.9441
12.6407 6.5746 -2.0188 0.9441
10.4356 9.6795 -2.0167 0.9441
9.5252 10.5676 -2.0158 0.9441
7.8896 10.5052 -1.8615 0.9483
4.8144 12.1973 -1.8580 0.9484
2.0873 10.4508 -1.5100 0.9579
1.1293 10.4433 -1.4883 0.9585
-2.6579 10.4136 -1.5228 0.9575
-3.6728 10.4056 -1.5635 0.9564
-4.7522 10.3971 -1.6197 0.9549
-5.9218 10.3879 -1.6942 0.9528
-10.6602 7.3818 -1.8372 0.9490
-11.7909 5.3624 -1.8353 0.9490
-13.5794 3.4388 -1.9848 0.9450
-13.8280 2.2120 -1.9842 0.9450
-13.9130 -1.5310 -1.9832 0.9450
-13.7204 -2.7671 -1.9832 0.9450
-13.4193 -3.9813 -1.9833 0.9450
-11.8912 -7.3995 -1.9844 0.9450
-10.3931 -9.4033 -1.9859 0.9450
-9.5164 -10.2985 -1.9868 0.9449
-7.5411 -11.8397 -1.9889 0.9449
-6.4578 -12.4734 -1.9902 0.9448
-4.1420 -13.4414 -1.9929 0.9448
-1.6878 -13.9848 -1.9959 0.9447
0.8278 -14.0844 -1.9990 0.9446
2.0837 -13.9655 -2.0007 0.9446
4.5418 -13.3940 -2.0039 0.9445
6.8625 -12.3923 -2.0071 0.9444
8.9706 -10.9906 -2.0101 0.9443
11.5852 -8.2364 -2.0141 0.9442
12.2813 -7.1732 -2.0152 0.9442
12.8792 -6.0510 -2.0162 0.9441
13.3740 -4.8791 -2.0171 0.9441
14.0384 -2.4243 -2.0185 0.9441
14.1864 1.3835 -2.0196 0.9440
13.3108 5.0929 -2.0193 0.9440
12.8005 6.2599 -2.0190 0.9441
12.1873 7.3759 -2.0184 0.9441
11.4763 8.4319 -2.0178 0.9441
9.7854 10.3299 -2.0161 0.9441
5.1161 12.0766 -1.8583 0.9484
2.3584 10.4530 -1.5183 0.9576
1.3921 10.4454 -1.4931 0.9583
0.4500 10.4380 -1.4803 0.9587
-1.4234 10.4233 -1.4906 0.9584
-1.7123 5.2631 -0.7842 0.9779
-4.4453 10.3995 -1.6025 0.9553
-5.5870 10.3905 -1.6716 0.9535
-6.8420 10.3807 -1.7616 0.9510
-8.0911 10.1676 -1.8411 0.9489
-9.7573 8.5548 -1.8386 0.9489
-10.4758 7.6448 -1.8375 0.9490
-11.1103 6.6752 -1.8365 0.9490
-11.6560 5.6536 -1.8355 0.9490
-13.9396 1.3140 -1.9838 0.9450
-13.9987 0.0641 -1.9835 0.9450
-13.5135 -3.6476 -1.9832 0.9450
-13.1352 -4.8401 -1.9834 0.9450
-11.3912 -8.1540 -1.9849 0.9450
-10.6216 -9.1419 -1.9856 0.9450
-8.8346 -10.8956 -1.9875 0.9449
-7.8308 -11.6473 -1.9886 0.9449
-6.7637 -12.3074 -1.9898 0.9448
-5.6414 -12.8705 -1.9911 0.9448
-3.2669 -13.6881 -1.9939 0.9447
5.4005 -13.0803 -2.0051 0.9444
7.6528 -11.9298 -2.0082 0.9443
9.6666 -10.3935 -2.0111 0.9443
11.3758 -8.5195 -2.0137 0.9442
13.6651 -4.0062 -2.0177 0.9441
13.9729 -2.7711 -2.0184 0.9441
14.1683 -1.5128 -2.0189 0.9441
14.2496 -0.2418 -2.0193 0.9441
13.4334 4.7619 -2.0194 0.9440
12.9524 5.9413 -2.0191 0.9441
11.6828 8.1458 -2.0180 0.9441
10.9047 9.1530 -2.0172 0.9441
10.0396 10.0856 -2.0163 0.9441
8.4028 10.1046 -1.8621 0.9483
6.4641 11.4247 -1.8599 0.9484
2.6326 10.4551 -1.5276 0.9574
0.7096 10.4400 -1.4827 0.9586
-3.1038 10.4101 -1.5392 0.9571
-4.1446 10.4019 -1.5865 0.9558
-6.4807 10.3835 -1.7343 0.9518
-10.2849 7.9032 -1.8378 0.9489
-10.9431 6.9494 -1.8368 0.9490
-11.9929 4.8874 -1.8349 0.9490
-13.3476 4.0934 -1.9782 0.9452
-13.9934 0.4109 -1.9836 0.9450
-13.9723 -0.8401 -1.9833 0.9450
-13.2506 -4.5131 -1.9834 0.9450
-11.5886 -7.8686 -1.9847 0.9450
-10.0121 -9.8119 -1.9863 0.9449
-7.0653 -12.1340 -1.9895 0.9449
-5.9574 -12.7245 -1.9907 0.9448
-4.8007 -13.2146 -1.9921 0.9448
-1.1296 -14.0458 -1.9966 0.9447
0.1291 -14.1018 -1.9982 0.9446
1.3888 -14.0453 -1.9998 0.9446
5.0737 -13.2072 -2.0046 0.9444
6.2376 -12.7115 -2.0062 0.9444
8.4119 -11.4168 -2.0093 0.9443
9.4044 -10.6277 -2.0107 0.9443
12.5603 -6.6796 -2.0157 0.9441
13.5602 -4.3431 -2.0175 0.9441
13.8987 -3.1161 -2.0182 0.9441
14.2385 -0.5947 -2.0192 0.9441
14.2368 0.6792 -2.0195 0.9440
13.8900 3.2007 -2.0196 0.9440
13.0963 5.6189 -2.0192 0.9441
10.2876 9.8351 -2.0166 0.9441
7.7295 10.6220 -1.8613 0.9483
6.7463 11.2630 -1.8602 0.9483
5.7100 11.8129 -1.8590 0.9484
1.9235 10.4496 -1.5055 0.9580
0.9701 10.4421 -1.4859 0.9585
-1.8486 10.4199 -1.4994 0.9581
-4.9424 10.3956 -1.6309 0.9546
-8.4872 9.8340 -1.8405 0.9489
-10.7693 7.2194 -1.8370 0.9490
-11.8696 5.1836 -1.8352 0.9490
-12.4388 4.1544 -1.8581 0.9484
-13.6290 3.2334 -1.9847 0.9450
-13.9796 0.7574 -1.9837 0.9450
-13.9893 -0.4938 -1.9834 0.9450
-13.8882 -1.7407 -1.9832 0.9450
-13.6772 -2.9738 -1.9832 0.9450
-13.3579 -4.1833 -1.9833 0.9450
-12.9328 -5.3600 -1.9836 0.9450
-12.4051 -6.4947 -1.9840 0.9450
-11.7789 -7.5784 -1.9845 0.9450
-11.0590 -8.6028 -1.9852 0.9450
-10.2508 -9.5598 -1.9860 0.9449
-9.3607 -10.4417 -1.9869 0.9449
-6.2696 -12.5708 -1.9904 0.9448
-5.1256 -13.0891 -1.9917 0.9448
-2.7198 -13.8121 -1.9946 0.9447
-1.4769 -14.0105 -1.9961 0.9447
1.0403 -14.0722 -1.9993 0.9446
2.2945 -13.9344 -2.0009 0.9445
-8.4691 7.2815 -1.8400 0.9557
-9.0807 6.4929 -1.8390 0.9558
-11.6475 3.1373 -1.9872 0.9523
-12.0001 -1.1376 -1.9857 0.9523
-11.8502 -2.2044 -1.9857 0.9523
-11.6065 -3.2538 -1.9858 0.9523
-11.2707 -4.2775 -1.9859 0.9523
-10.8454 -5.2675 -1.9863 0.9523
-10.3340 -6.2162 -1.9867 0.9523
-9.7404 -7.1160 -1.9872 0.9523
-7.5149 -9.4538 -1.9895 0.9522
-3.7383 -11.5112 -1.9938 0.9521
-2.6972 -11.8065 -1.9951 0.9521
-1.6334 -12.0080 -1.9964 0.9521
1.6106 -12.0362 -2.0005 0.9520
9.1571 -8.0725 -2.0110 0.9517
9.8466 -7.2265 -2.0121 0.9517
10.4576 -6.3215 -2.0131 0.9517
10.9851 -5.3649 -2.0140 0.9516
11.7728 -3.3280 -2.0154 0.9516
12.0263 -2.2642 -2.0160 0.9516
12.1831 -1.1816 -2.0165 0.9516
12.2420 -0.0891 -2.0168 0.9516
11.0761 5.2110 -2.0165 0.9516
7.1352 8.7513 -1.8601 0.9553
5.4594 9.8709 -1.8583 0.9553
4.5537 10.3131 -1.8572 0.9553
2.5250 10.4542 -1.7717 0.9573
0.6080 10.4392 -1.7227 0.9585
-2.2208 10.4170 -1.7546 0.9577
-5.1539 9.9418 -1.8448 0.9556
-6.0170 9.4357 -1.8436 0.9556
-7.5899 8.2049 -1.8413 0.9557
-8.2874 7.4902 -1.8403 0.9557
-8.9184 6.7168 -1.8393 0.9557
-9.4778 5.8907 -1.8384 0.9558
-10.5106 4.1651 -1.8625 0.9552
-11.5671 3.4251 -1.9873 0.9523
-11.8234 2.3780 -1.9868 0.9523
-12.0248 -0.8400 -1.9858 0.9523
-11.9012 -1.9102 -1.9857 0.9523
-11.6833 -2.9652 -1.9857 0.9523
-11.3728 -3.9969 -1.9859 0.9523
-10.9720 -4.9970 -1.9862 0.9523
-10.4841 -5.9579 -1.9866 0.9523
-9.9129 -6.8720 -1.9871 0.9523
-9.2626 -7.7321 -1.9877 0.9523
-4.0216 -11.4132 -1.9935 0.9521
-0.8548 -12.0943 -1.9974 0.9520
2.3858 -11.9131 -2.0015 0.9519
4.4729 -11.3146 -2.0043 0.9519
8.9530 -8.2955 -2.0107 0.9517
10.2965 -6.5778 -2.0128 0.9517
10.8476 -5.6347 -2.0137 0.9517
11.3120 -4.6455 -2.0145 0.9516
12.1495 -1.4829 -2.0163 0.9516
12.2355 -0.3923 -2.0167 0.9516
12.1123 1.7905 -2.0171 0.9516
11.5998 3.9159 -2.0169 0.9516
11.2023 4.9353 -2.0166 0.9516
10.7148 5.9147 -2.0162 0.9516
10.1414 6.8460 -2.0157 0.9516
9.4866 7.7217 -2.0151 0.9516
7.3507 8.5730 -1.8604 0.9553
6.5528 9.1907 -1.8595 0.9553
5.7031 9.7341 -1.8585 0.9553
3.8764 10.5812 -1.8564 0.9553
2.8014 10.4564 -1.7833 0.9571
0.8681 10.4412 -1.7260 0.9584
-4.9069 10.0683 -1.8451 0.9556
-8.1006 7.6944 -1.8405 0.9557
-8.7505 6.9366 -1.8395 0.9557
-9.3302 6.1245 -1.8386 0.9558
-9.8353 5.2646 -1.8378 0.9558
-10.2619 4.3636 -1.8370 0.9558
-11.4777 3.7103 -1.9872 0.9523
-11.9502 1.6091 -1.9864 0.9523
-12.0422 -0.5419 -1.9858 0.9523
-11.9450 -1.6148 -1.9857 0.9523
-11.7531 -2.6749 -1.9857 0.9523
-11.4680 -3.7138 -1.9858 0.9523
-10.6279 -5.6961 -1.9864 0.9523
-10.0793 -6.6238 -1.9869 0.9523
-8.7462 -8.3164 -1.9882 0.9523
-7.9719 -9.0678 -1.9890 0.9522
-7.1337 -9.7478 -1.9899 0.9522
-6.2380 -10.3510 -1.9909 0.9522
-4.3024 -11.3082 -1.9932 0.9521
-3.2775 -11.6543 -1.9944 0.9521
-1.1539 -12.0671 -1.9970 0.9520
1.0121 -12.0966 -1.9997 0.9520
2.0896 -11.9662 -2.0011 0.9519
4.1905 -11.4197 -2.0039 0.9519
6.1631 -10.5066 -2.0067 0.9518
7.9436 -9.2546 -2.0092 0.9518
9.4739 -7.7030 -2.0115 0.9517
10.1290 -6.8299 -2.0125 0.9517
10.7034 -5.9010 -2.0135 0.9517
11.8976 -2.8566 -2.0157 0.9516
12.2364 0.3988 -2.0169 0.9516
11.9714 2.5691 -2.0171 0.9516
10.8587 5.6478 -2.0164 0.9516
10.3086 6.5932 -2.0159 0.9516
9.6759 7.4851 -2.0153 0.9516
8.9658 8.3162 -2.0146 0.9516
8.1663 9.0601 -2.0094 0.9518
5.9433 9.5913 -1.8588 0.9553
5.0605 10.0781 -1.8578 0.9553
3.1835 10.8046 -1.8556 0.9554
0.1911 10.4359 -1.7195 0.9586
-2.6579 10.4135 -1.7705 0.9574
-4.6569 10.1887 -1.8455 0.9556
-7.9088 7.8939 -1.8408 0.9557
-8.5772 7.1523 -1.8398 0.9557
-9.1769 6.3546 -1.8389 0.9558
-9.7030 5.5072 -1.8380 0.9558
-11.3570 3.9845 -1.9827 0.9524
-11.9075 1.9047 -1.9866 0.9523
-12.0523 -0.2434 -1.9859 0.9523
-11.9814 -1.3185 -1.9857 0.9523
-11.8156 -2.3829 -1.9857 0.9523
-11.5562 -3.4285 -1.9858 0.9523
-11.2051 -4.4471 -1.9860 0.9523
-10.7651 -5.4308 -1.9863 0.9523
-10.2395 -6.3717 -1.9868 0.9523
-9.6324 -7.2626 -1.9873 0.9523
-8.1931 -8.8665 -1.9888 0.9522
-5.5586 -10.7365 -1.9917 0.9522
-4.5804 -11.1963 -1.9928 0.9521
-3.5646 -11.5675 -1.9940 0.9521
-2.5191 -11.8471 -1.9953 0.9521
-1.4522 -12.0326 -1.9966 0.9521
-0.3723 -12.1224 -1.9980 0.9520
3.9056 -11.5178 -2.0036 0.9519
4.9217 -11.1307 -2.0049 0.9519
5.8999 -10.6540 -2.0063 0.9518
6.8321 -10.0913 -2.0076 0.9518
8.5285 -8.7260 -2.0101 0.9517
9.2787 -7.9341 -2.0112 0.9517
9.9553 -7.0777 -2.0123 0.9517
11.7801 3.3368 -2.0170 0.9516
10.9959 5.3774 -2.0165 0.9516
9.8592 7.2437 -2.0155 0.9516
9.1700 8.0924 -2.0148 0.9516
7.0018 8.8573 -1.8600 0.9553
6.1800 9.4424 -1.8591 0.9553
5.3094 9.9512 -1.8581 0.9553
4.3971 10.3796 -1.8570 0.9553
3.4507 10.7243 -1.8559 0.9554
2.3583 10.4529 -1.7653 0.9575
-1.7120 5.2622 -0.9116 0.9778
-4.4039 10.3028 -1.8458 0.9556
-5.3027 9.8618 -1.8446 0.9556
-6.1580 9.3429 -1.8434 0.9557
-8.3987 7.3636 -1.8401 0.9557
-9.5648 5.7466 -1.8382 0.9558
-10.9548 4.1510 -1.9299 0.9536
-11.6169 3.2501 -1.9872 0.9523
-11.8574 2.1992 -1.9867 0.9523
-12.0038 1.1315 -1.9863 0.9523
-12.0106 -1.0213 -1.9858 0.9523
-11.8710 -2.0895 -1.9857 0.9523
-11.6374 -3.1412 -1.9857 0.9523
-9.8086 -7.0211 -1.9872 0.9523
-9.1455 -7.8714 -1.9878 0.9523
-8.4093 -8.6598 -1.9886 0.9522
-7.6058 -9.3801 -1.9894 0.9522
-5.8220 -10.5939 -1.9914 0.9522
-4.8555 -11.0776 -1.9925 0.9522
-2.8113 -11.7790 -1.9950 0.9521
-1.7495 -11.9907 -1.9963 0.9521
0.4116 -12.1272 -1.9990 0.9520
4.6436 -11.2471 -2.0046 0.9519
5.6331 -10.7949 -2.0059 0.9518
6.5788 -10.2556 -2.0072 0.9518
7.4730 -9.6334 -2.0085 0.9518
9.7756 -7.3211 -2.0120 0.9517
11.3815 -4.4747 -2.0147 0.9516
12.0035 -2.3805 -2.0160 0.9516
12.2403 -0.2077 -2.0168 0.9516
11.5392 4.0904 -2.0169 0.9516
10.0365 6.9979 -2.0156 0.9516
4.6537 10.2692 -1.8573 0.9553
3.7159 10.6373 -1.8562 0.9553
1.6567 10.4474 -1.7426 0.9580
-0.2248 10.4327 -1.7191 0.9586
-1.1615 10.4253 -1.7281 0.9584
-2.1024 10.3527 -1.7403 0.9581
-3.1038 10.4100 -1.7895 0.9569
-5.0577 9.9920 -1.8449 0.9556
-5.9257 9.4943 -1.8437 0.9556
-8.8534 6.8032 -1.8394 0.9557
-9.4208 5.9826 -1.8385 0.9558
-9.9129 5.1152 -1.8376 0.9558
-12.0504 0.3538 -1.9860 0.9523
-11.7114 -2.8519 -1.9857 0.9523
-11.4108 -3.8865 -1.9859 0.9523
-11.0197 -4.8905 -1.9861 0.9523
-10.5411 -5.8560 -1.9865 0.9523
-8.6203 -8.4479 -1.9883 0.9522
-6.9864 -9.8551 -1.9901 0.9522
-5.1276 -10.9522 -1.9922 0.9522
-4.1317 -11.3729 -1.9934 0.9521
-2.0456 -11.9415 -1.9959 0.9521
-0.9719 -12.0845 -1.9972 0.9520
0.1111 -12.1313 -1.9986 0.9520
1.1946 -12.0813 -2.0000 0.9520
2.2702 -11.9348 -2.0014 0.9519
3.3290 -11.6926 -2.0028 0.9519
6.3216 -10.4135 -2.0069 0.9518
8.0832 -9.1346 -2.0094 0.9518
9.5898 -7.5599 -2.0117 0.9517
10.2317 -6.6768 -2.0127 0.9517
10.7920 -5.7393 -2.0136 0.9517
11.2660 -4.7547 -2.0145 0.9516
11.6497 -3.7312 -2.0152 0.9516
11.9399 -2.6769 -2.0158 0.9516
12.1342 -1.6006 -2.0163 0.9516
12.2309 -0.5108 -2.0167 0.9516
12.1290 1.6731 -2.0170 0.9516
11.6373 3.8034 -2.0169 0.9516
11.2498 4.8267 -2.0167 0.9516
10.2075 6.7477 -2.0158 0.9516
8.8387 8.4500 -2.0144 0.9516
7.4337 8.5018 -1.8605 0.9552
5.7974 9.6790 -1.8587 0.9553
4.9074 10.1524 -1.8576 0.9553
3.9790 10.5438 -1.8565 0.9553
1.9235 10.4495 -1.7504 0.9578
0.0337 10.4347 -1.7190 0.9586
-0.9008 10.4273 -1.7242 0.9585
-2.4797 9.1375 -1.5597 0.9623
-3.8497 10.4042 -1.8275 0.9560
-4.8095 10.1161 -1.8453 0.9556
-5.6898 9.6399 -1.8441 0.9556
-6.5236 9.0875 -1.8429 0.9557
-7.3044 8.4635 -1.8417 0.9557
-8.0262 7.7730 -1.8407 0.9557
-8.6834 7.0214 -1.8396 0.9557
-10.2195 4.4630 -1.8371 0.9558
-11.7356 2.7842 -1.9870 0.9523
-11.9344 1.7248 -1.9865 0.9523
-12.0384 0.6522 -1.9861 0.9523
-12.0470 -0.4252 -1.9858 0.9523
-11.1370 -4.6158 -1.9860 0.9523
-10.6823 -5.5927 -1.9864 0.9523
-9.5223 -7.4074 -1.9874 0.9523
-8.8259 -8.2310 -1.9881 0.9523
-7.2274 -9.6778 -1.9898 0.9522
-2.3404 -11.8850 -1.9955 0.9521
-1.2707 -12.0545 -1.9969 0.9520
-0.1894 -12.1280 -1.9982 0.9520
-7.4273 6.3858 -1.8411 0.9609
-8.4373 4.9586 -1.8395 0.9610
-8.8430 4.1839 -1.8388 0.9610
-9.9337 3.6544 -1.9895 0.9578
-10.4198 1.8284 -1.9884 0.9579
-10.5395 0.8906 -1.9881 0.9579
-10.3962 -1.9339 -1.9876 0.9579
-9.8876 -3.7526 -1.9878 0.9579
-9.0655 -5.4531 -1.9885 0.9579
-8.5444 -6.2423 -1.9890 0.9578
-5.0158 -9.3402 -1.9927 0.9578
-1.4320 -10.5276 -1.9970 0.9577
-0.4866 -10.6197 -1.9982 0.9577
0.4638 -10.6271 -1.9994 0.9576
1.4117 -10.5497 -2.0006 0.9576
2.3495 -10.3879 -2.0018 0.9576
5.0275 -9.4109 -2.0055 0.9575
6.6286 -8.3761 -2.0077 0.9575
7.3539 -7.7549 -2.0088 0.9574
8.6243 -6.3294 -2.0107 0.9574
9.1589 -5.5365 -2.0116 0.9574
9.6204 -4.6984 -2.0124 0.9574
10.5309 -1.9827 -2.0142 0.9573
10.7192 -0.0780 -2.0149 0.9573
10.6843 0.8794 -2.0150 0.9573
10.5635 1.8300 -2.0151 0.9573
9.6986 4.5629 -2.0146 0.9573
9.2507 5.4097 -2.0143 0.9573
8.7287 6.2126 -2.0138 0.9573
8.1368 6.9651 -2.0132 0.9573
7.4765 7.6577 -2.0116 0.9574
6.2490 7.6645 -1.8588 0.9606
5.5374 8.1883 -1.8580 0.9606
4.7820 8.6461 -1.8571 0.9606
3.1647 9.3492 -1.8552 0.9606
1.4498 9.7520 -1.8531 0.9607
0.5729 9.8367 -1.8521 0.9607
-1.1844 9.7699 -1.8498 0.9607
-2.0507 9.6192 -1.8487 0.9608
-2.8996 9.3920 -1.8475 0.9608
-3.7243 9.0901 -1.8464 0.9608
-5.9898 7.7646 -1.8432 0.9609
-6.6556 7.1950 -1.8423 0.9609
-7.2678 6.5687 -1.8413 0.9609
-8.3128 5.1667 -1.8397 0.9609
-8.7375 4.4021 -1.8390 0.9610
-9.8245 3.8931 -1.9863 0.9579
-10.3719 2.0861 -1.9886 0.9579
-10.5147 1.1514 -1.9882 0.9579
-10.5493 -0.7369 -1.9877 0.9579
-10.2497 -2.6014 -1.9876 0.9579
-9.9772 -3.5064 -1.9878 0.9579
-9.1972 -5.2266 -1.9884 0.9579
-8.6958 -6.0283 -1.9888 0.9578
-7.4895 -7.4833 -1.9900 0.9578
-6.7939 -8.1251 -1.9907 0.9578
-5.2450 -9.2119 -1.9925 0.9578
-4.4036 -9.6481 -1.9934 0.9578
-3.5264 -10.0079 -1.9945 0.9577
-0.7494 -10.6026 -1.9978 0.9577
2.0910 -10.4411 -2.0015 0.9576
3.0168 -10.2190 -2.0027 0.9576
5.6272 -9.0703 -2.0063 0.9575
7.1585 -7.9336 -2.0085 0.9574
8.4638 -6.5403 -2.0105 0.9574
9.0179 -5.7610 -2.0114 0.9574
9.9063 -4.0683 -2.0129 0.9573
10.7026 0.6145 -2.0150 0.9573
10.6055 1.5677 -2.0151 0.9573
10.1569 3.4288 -2.0149 0.9573
9.8090 4.3215 -2.0147 0.9573
9.3824 5.1792 -2.0144 0.9573
8.8805 5.9949 -2.0139 0.9573
7.6681 7.4743 -2.0127 0.9574
4.9953 8.5261 -1.8574 0.9606
4.2121 8.9337 -1.8565 0.9606
1.6911 9.7147 -1.8534 0.9607
0.8165 9.8211 -1.8524 0.9607
-0.0636 9.8489 -1.8512 0.9607
-1.8121 9.6687 -1.8490 0.9608
-4.3018 8.8267 -1.8456 0.9608
-5.0698 8.4025 -1.8446 0.9608
-6.4763 7.3587 -1.8425 0.9609
-7.6743 6.0835 -1.8407 0.9609
-8.1832 5.3716 -1.8399 0.9609
-8.6267 4.6176 -1.8392 0.9610
-10.3177 2.3425 -1.9887 0.9579
-10.5659 0.4698 -1.9879 0.9579
-10.5645 -0.4754 -1.9877 0.9579
-10.3109 -2.3467 -1.9876 0.9579
-10.0607 -3.2581 -1.9877 0.9579
-9.7307 -4.1438 -1.9879 0.9579
-9.3234 -4.9969 -1.9883 0.9579
-7.6718 -7.2948 -1.9898 0.9578
-6.2568 -8.5495 -1.9913 0.9578
-4.6406 -9.5347 -1.9932 0.9578
-3.7727 -9.9160 -1.9942 0.9577
-1.9510 -10.4404 -1.9964 0.9577
-0.0631 -10.6335 -1.9987 0.9576
0.8872 -10.6031 -1.9999 0.9576
3.6721 -10.0072 -2.0036 0.9575
4.5537 -9.6452 -2.0048 0.9575
5.3999 -9.2055 -2.0060 0.9575
6.9588 -8.1073 -2.0082 0.9574
7.6589 -7.4574 -2.0093 0.9574
8.2981 -6.7471 -2.0102 0.9574
9.3739 -5.1680 -2.0120 0.9574
9.8015 -4.3120 -2.0127 0.9574
10.1507 -3.4207 -2.0134 0.9573
10.4184 -2.5014 -2.0139 0.9573
10.6410 1.3045 -2.0151 0.9573
10.2389 3.1762 -2.0150 0.9573
9.5083 4.9454 -2.0145 0.9573
9.0269 5.7734 -2.0141 0.9573
5.9376 7.9059 -1.8584 0.9606
4.4327 8.8279 -1.8567 0.9606
3.6249 9.1837 -1.8558 0.9606
1.9316 9.6714 -1.8537 0.9607
-0.6993 9.8199 -1.8504 0.9607
-3.2707 9.2664 -1.8470 0.9608
-5.5996 8.0542 -1.8438 0.9609
-6.9355 6.9225 -1.8418 0.9609
-7.5222 6.2725 -1.8409 0.9609
-9.1554 4.1638 -1.8905 0.9599
-9.9871 3.5040 -1.9894 0.9578
-10.2573 2.5975 -1.9888 0.9578
-10.4458 1.6709 -1.9884 0.9579
-10.5733 -0.2136 -1.9878 0.9579
-9.8300 -3.9014 -1.9879 0.9579
-9.4438 -4.7642 -1.9882 0.9579
-8.9825 -5.5895 -1.9885 0.9579
-7.8494 -7.1019 -1.9896 0.9578
-6.4659 -8.3909 -1.9911 0.9578
-4.0166 -9.8181 -1.9939 0.9577
-1.2732 -10.5490 -1.9972 0.9577
-0.3264 -10.6269 -1.9984 0.9577
0.6242 -10.6200 -1.9996 0.9576
1.5708 -10.5283 -2.0008 0.9576
2.5061 -10.3523 -2.0020 0.9576
4.3127 -9.7534 -2.0045 0.9575
5.9857 -8.8411 -2.0068 0.9575
7.4707 -7.6438 -2.0090 0.9574
8.1274 -6.9496 -2.0100 0.9574
8.7195 -6.1991 -2.0109 0.9574
9.2421 -5.3981 -2.0117 0.9574
9.6908 -4.5530 -2.0125 0.9574
10.0620 -3.6708 -2.0132 0.9573
10.3525 -2.7586 -2.0138 0.9573
10.6826 -0.8736 -2.0146 0.9573
10.7194 0.0837 -2.0149 0.9573
10.6700 1.0405 -2.0150 0.9573
10.3147 2.9217 -2.0150 0.9573
10.0117 3.8307 -2.0149 0.9573
8.0304 7.0867 -2.0131 0.9573
7.3495 7.7585 -2.0087 0.9574
2.1709 9.6221 -1.8540 0.9606
-0.4559 9.8359 -1.8507 0.9607
-1.3315 9.7499 -1.8496 0.9607
-2.1953 9.5862 -1.8485 0.9608
-1.7117 5.2612 -1.0399 0.9777
-6.1057 7.6727 -1.8431 0.9609
-7.3655 6.4578 -1.8412 0.9609
-8.3892 5.0403 -1.8396 0.9609
-9.8936 3.7489 -1.9886 0.9579
-10.5368 -0.8960 -1.9877 0.9579
-10.4144 -1.8331 -1.9876 0.9579
-10.2094 -2.7558 -1.9876 0.9579
-9.9233 -3.6566 -1.9878 0.9579
-9.5585 -4.5286 -1.9881 0.9579
-9.1176 -5.3649 -1.9884 0.9579
-8.0222 -6.9047 -1.9895 0.9578
-6.6710 -8.2273 -1.9909 0.9578
-5.9122 -8.7937 -1.9917 0.9578
-5.1058 -9.2907 -1.9926 0.9578
-4.2579 -9.7142 -1.9936 0.9577
-1.5338 -10.5126 -1.9969 0.9577
0.3608 -10.6304 -1.9993 0.9576
3.1710 -10.1734 -2.0029 0.9576
4.0691 -9.8556 -2.0041 0.9575
4.9358 -9.4585 -2.0053 0.9575
7.9517 -7.1479 -2.0097 0.9574
9.9671 -3.9186 -2.0130 0.9573
10.2803 -3.0139 -2.0136 0.9573
10.6572 -1.1379 -2.0145 0.9573
10.3840 2.6653 -2.0151 0.9573
10.1039 3.5816 -2.0149 0.9573
6.3233 7.6039 -1.8588 0.9605
4.8658 8.5998 -1.8572 0.9606
2.4089 9.5669 -1.8543 0.9606
1.5442 9.7382 -1.8533 0.9607
-0.2121 9.8458 -1.8511 0.9607
-1.0897 9.7816 -1.8499 0.9607
-1.9575 9.6393 -1.8488 0.9608
-4.4340 8.7600 -1.8454 0.9608
-5.1955 8.3243 -1.8444 0.9608
-5.9147 7.8227 -1.8433 0.9609
-6.5860 7.2595 -1.8424 0.9609
-7.7646 5.9666 -1.8406 0.9609
-8.2627 5.2472 -1.8398 0.9609
-8.6948 4.4867 -1.8390 0.9610
-9.7790 3.9852 -1.9848 0.9579
-10.1175 3.1028 -1.9891 0.9578
-10.3515 2.1865 -1.9886 0.9579
-10.5715 0.3104 -1.9879 0.9579
-9.6673 -4.2903 -1.9880 0.9579
-8.7536 -5.9436 -1.9888 0.9579
-8.1901 -6.7033 -1.9893 0.9578
-6.1275 -8.6435 -1.9915 0.9578
-4.4966 -9.6045 -1.9933 0.9578
-2.7196 -10.2619 -1.9954 0.9577
-1.7935 -10.4697 -1.9966 0.9577
-0.8520 -10.5942 -1.9977 0.9577
0.0974 -10.6343 -1.9989 0.9576
1.9897 -10.4602 -2.0014 0.9576
6.3348 -8.5977 -2.0073 0.9575
7.0810 -8.0021 -2.0084 0.9574
7.7711 -7.3416 -2.0094 0.9574
8.9613 -5.8478 -2.0113 0.9574
9.4515 -5.0264 -2.0121 0.9574
9.8661 -4.1639 -2.0128 0.9574
10.4554 -2.3441 -2.0140 0.9573
10.7097 -0.4473 -2.0148 0.9573
10.7080 0.5108 -2.0150 0.9573
10.6202 1.4649 -2.0151 0.9573
8.9384 5.9087 -2.0140 0.9573
8.3729 6.6814 -2.0134 0.9573
7.7404 7.4000 -2.0128 0.9574
6.5103 7.4458 -1.8590 0.9605
5.8172 7.9941 -1.8583 0.9606
4.2986 8.8930 -1.8566 0.9606
1.7853 9.6985 -1.8536 0.9607
0.0318 9.8497 -1.8514 0.9607
-1.7185 9.6865 -1.8491 0.9608
-2.4689 9.0977 -1.7719 0.9624
-4.2164 8.8685 -1.8457 0.9608
-5.7200 7.9681 -1.8436 0.9609
-8.5819 4.7012 -1.8392 0.9610
-10.5610 0.5722 -1.9880 0.9579
-10.4925 -1.3151 -1.9876 0.9579
-10.3331 -2.2467 -1.9876 0.9579
-10.0918 -3.1605 -1.9877 0.9579
-8.3530 -6.4978 -1.9891 0.9578
-7.7418 -7.2199 -1.9897 0.9578
-7.0687 -7.8851 -1.9904 0.9578
-5.5582 -9.0241 -1.9921 0.9578
-2.0519 -10.4204 -1.9962 0.9577
-1.1140 -10.5681 -1.9974 0.9577
2.6623 -10.3144 -2.0022 0.9576
-6.6076 5.6810 -1.8420 0.9650
-7.5068 4.4118 -1.8405 0.9650
-8.4927 4.0181 -1.9860 0.9623
-8.8388 3.2517 -1.9908 0.9622
-9.0916 2.4488 -1.9903 0.9622
-9.2719 1.6270 -1.9898 0.9622
-9.3786 0.7925 -1.9895 0.9623
-9.4108 -0.0481 -1.9893 0.9623
-9.2514 -1.7210 -1.9891 0.9623
-9.0610 -2.5402 -1.9892 0.9623
-8.4664 -4.1121 -1.9895 0.9623
-8.0668 -4.8524 -1.9899 0.9622
-7.6029 -5.5545 -1.9903 0.9622
-7.0785 -6.2127 -1.9908 0.9622
-6.4974 -6.8220 -1.9914 0.9622
-2.9158 -8.9786 -1.9955 0.9621
2.0891 -9.2367 -2.0018 0.9620
3.7026 -8.7273 -2.0039 0.9620
5.2012 -7.9379 -2.0060 0.9619
6.5364 -6.8929 -2.0080 0.9619
7.1290 -6.2845 -2.0089 0.9619
7.6648 -5.6252 -2.0097 0.9619
8.1395 -4.9203 -2.0105 0.9619
8.5493 -4.1753 -2.0111 0.9618
8.8906 -3.3963 -2.0118 0.9618
9.1608 -2.5896 -2.0123 0.9618
9.3575 -1.7617 -2.0127 0.9618
9.5245 -0.0693 -2.0133 0.9618
9.4934 0.7814 -2.0135 0.9618
9.3859 1.6260 -2.0136 0.9618
8.9463 3.2691 -2.0134 0.9618
7.2305 6.1893 -2.0119 0.9618
4.9213 7.2773 -1.8570 0.9647
4.2501 7.6845 -1.8562 0.9647
2.8130 8.3103 -1.8545 0.9648
-4.0187 7.7521 -1.8457 0.9649
-4.6924 7.3585 -1.8448 0.9649
-5.3280 6.9068 -1.8439 0.9650
-6.4656 5.8436 -1.8422 0.9650
-6.9587 5.2408 -1.8414 0.9650
-8.7563 3.4699 -1.9909 0.9622
-9.3565 1.0246 -1.9896 0.9622
-9.4094 0.1851 -1.9893 0.9623
-9.3875 -0.6558 -1.9892 0.9623
-9.1210 -2.3149 -1.9891 0.9623
-7.7377 -5.3641 -1.9902 0.9622
-7.2296 -6.0350 -1.9907 0.9622
-6.6639 -6.6584 -1.9912 0.9622
-6.0447 -7.2291 -1.9919 0.9622
-5.3771 -7.7428 -1.9926 0.9622
-4.6661 -8.1953 -1.9934 0.9622
-3.9174 -8.5829 -1.9943 0.9622
-2.3306 -9.1514 -1.9962 0.9621
-1.5050 -9.3277 -1.9972 0.9621
-0.6665 -9.4297 -1.9982 0.9621
0.1782 -9.4566 -1.9993 0.9621
1.0224 -9.4080 -2.0004 0.9620
1.8593 -9.2842 -2.0015 0.9620
4.2602 -8.4732 -2.0047 0.9620
5.0023 -8.0631 -2.0057 0.9619
5.7051 -7.5881 -2.0067 0.9619
6.3629 -7.0518 -2.0077 0.9619
7.5223 -5.8127 -2.0095 0.9619
8.8031 -3.6152 -2.0116 0.9618
9.4530 -1.1538 -2.0130 0.9618
9.5195 -0.3052 -2.0133 0.9618
9.0248 3.0466 -2.0134 0.9618
8.7158 3.8398 -2.0132 0.9618
5.7210 6.6723 -1.8579 0.9647
3.7437 7.9404 -1.8556 0.9647
2.2696 8.4717 -1.8539 0.9648
1.5034 8.6361 -1.8530 0.9648
-0.0565 8.7566 -1.8510 0.9648
-0.8377 8.7118 -1.8500 0.9649
-1.6113 8.5976 -1.8490 0.9649
-2.3713 8.4148 -1.8480 0.9649
-3.8260 7.8504 -1.8460 0.9649
-4.5093 7.4736 -1.8450 0.9649
-5.7610 6.5460 -1.8432 0.9650
-6.3196 6.0027 -1.8424 0.9650
-7.7928 4.1713 -1.8684 0.9645
-8.6683 3.6860 -1.9911 0.9622
-9.1810 2.0844 -1.9901 0.9622
-9.3287 1.2561 -1.9897 0.9622
-9.4022 0.4181 -1.9894 0.9623
-9.3253 -1.2607 -1.9891 0.9623
-9.1755 -2.0883 -1.9891 0.9623
-8.2964 -4.4465 -1.9897 0.9622
-7.8677 -5.1705 -1.9901 0.9622
-6.2213 -7.0765 -1.9917 0.9622
-5.5666 -7.6065 -1.9924 0.9622
-4.8671 -8.0763 -1.9932 0.9622
-3.3560 -8.8209 -1.9949 0.9621
-2.5563 -9.0897 -1.9959 0.9621
0.7889 -9.4290 -2.0001 0.9621
3.2649 -8.8973 -2.0033 0.9620
5.5146 -7.7260 -2.0065 0.9619
8.3304 -4.5927 -2.0108 0.9619
8.7101 -3.8319 -2.0114 0.9618
9.2577 -2.2227 -2.0125 0.9618
9.5087 -0.5409 -2.0132 0.9618
9.5201 0.3103 -2.0134 0.9618
8.8085 3.6229 -2.0133 0.9618
7.5293 5.8245 -2.0122 0.9618
6.9772 6.4717 -2.0116 0.9618
6.1791 6.8554 -1.9509 0.9630
4.6266 7.4662 -1.8567 0.9647
3.2220 8.1629 -1.8550 0.9648
0.9421 8.7119 -1.8523 0.9648
0.1604 8.7566 -1.8513 0.9648
-0.6218 8.7312 -1.8503 0.9648
-1.3981 8.6361 -1.8493 0.9649
-2.1624 8.4722 -1.8483 0.9649
-5.5979 6.6875 -1.8435 0.9650
-6.1698 6.1582 -1.8426 0.9650
-6.6921 5.5803 -1.8418 0.9650
-9.1271 2.3113 -1.9902 0.9622
-9.2951 1.4869 -1.9898 0.9622
-9.3893 0.6509 -1.9895 0.9623
-9.3537 -1.0293 -1.9891 0.9623
-9.0217 -2.6766 -1.9892 0.9623
-8.7474 -3.4717 -1.9893 0.9623
-7.9929 -4.9737 -1.9899 0.9622
-6.3941 -6.9196 -1.9915 0.9622
-5.7527 -7.4655 -1.9922 0.9622
-5.0651 -7.9523 -1.9930 0.9622
-3.5730 -8.7339 -1.9947 0.9622
-2.7803 -9.0223 -1.9956 0.9621
-1.9646 -9.2391 -1.9966 0.9621
-1.1324 -9.3824 -1.9976 0.9621
-0.2902 -9.4510 -1.9987 0.9621
0.5551 -9.4443 -1.9998 0.9621
1.3968 -9.3621 -2.0009 0.9620
2.2284 -9.2050 -2.0020 0.9620
3.8342 -8.6712 -2.0041 0.9620
4.5955 -8.2986 -2.0052 0.9620
6.0043 -7.3563 -2.0072 0.9619
6.6402 -6.7940 -2.0081 0.9619
7.7493 -5.5093 -2.0098 0.9619
8.6118 -4.0461 -2.0113 0.9618
8.9413 -3.2620 -2.0119 0.9618
9.1992 -2.4512 -2.0124 0.9618
9.3833 -1.6204 -2.0128 0.9618
9.4921 -0.7763 -2.0131 0.9618
9.5246 0.0744 -2.0134 0.9618
9.4806 0.9245 -2.0135 0.9618
9.3603 1.7674 -2.0136 0.9618
9.1649 2.5960 -2.0135 0.9618
8.5553 4.1838 -2.0131 0.9618
8.1462 4.9302 -2.0127 0.9618
7.6718 5.6366 -2.0123 0.9618
7.1360 6.2974 -2.0118 0.9618
6.5294 6.8927 -2.0069 0.9619
4.8106 7.3502 -1.8569 0.9647
2.6871 8.3511 -1.8544 0.9648
1.9298 8.5535 -1.8535 0.9648
1.1578 8.6872 -1.8525 0.9648
0.3773 8.7512 -1.8516 0.9648
-0.4054 8.7453 -1.8506 0.9648
-1.1839 8.6694 -1.8496 0.9649
-4.1348 7.6899 -1.8456 0.9649
-4.8025 7.2863 -1.8446 0.9650
-5.4312 6.8250 -1.8437 0.9650
-7.4640 4.4844 -1.8406 0.9650
-8.4480 4.0976 -1.9847 0.9623
-9.4109 0.0431 -1.9893 0.9623
-9.0851 -2.4523 -1.9891 0.9623
-8.8305 -3.2539 -1.9893 0.9623
-8.5057 -4.0298 -1.9895 0.9623
-7.6562 -5.4804 -1.9903 0.9622
-6.5630 -6.7585 -1.9914 0.9622
-4.5423 -8.2653 -1.9936 0.9622
-3.7878 -8.6417 -1.9944 0.9622
-2.1925 -9.1863 -1.9963 0.9621
0.3209 -9.4537 -1.9995 0.9621
1.1643 -9.3924 -2.0006 0.9620
2.8194 -9.0454 -2.0027 0.9620
4.3879 -8.4087 -2.0049 0.9620
5.8194 -7.5018 -2.0069 0.9619
6.4691 -6.9555 -2.0079 0.9619
7.6096 -5.6990 -2.0096 0.9619
8.8571 -3.4822 -2.0117 0.9618
9.3398 -1.8522 -2.0127 0.9618
9.4695 -1.0111 -2.0130 0.9618
9.5232 -0.1616 -2.0133 0.9618
9.5004 0.6894 -2.0135 0.9618
9.4012 1.5350 -2.0136 0.9618
9.2265 2.3682 -2.0135 0.9618
8.9776 3.1824 -2.0134 0.9618
8.6567 3.9708 -2.0132 0.9618
7.8095 5.4452 -2.0124 0.9618
5.6194 6.7575 -1.8578 0.9647
2.1414 8.5042 -1.8537 0.9648
1.3728 8.6571 -1.8528 0.9648
-0.9690 8.6974 -1.8498 0.9649
-1.7407 8.5715 -1.8488 0.9649
-2.4977 8.3773 -1.8478 0.9649
-3.2340 8.1164 -1.8468 0.9649
-3.9436 7.7911 -1.8458 0.9649
-6.4090 5.9063 -1.8423 0.9650
-6.9079 5.3082 -1.8415 0.9650
-8.0644 4.1614 -1.9182 0.9636
-9.2111 1.9456 -1.9900 0.9622
-9.3463 1.1152 -1.9896 0.9622
-9.4073 0.2762 -1.9894 0.9623
-9.3935 -0.5648 -1.9892 0.9623
-9.3052 -1.4012 -1.9891 0.9623
-8.6026 -3.8177 -1.9894 0.9623
-8.2286 -4.5713 -1.9897 0.9622
-7.2876 -5.9645 -1.9906 0.9622
-6.1142 -7.1700 -1.9918 0.9622
-5.4516 -7.6900 -1.9925 0.9622
-4.7451 -8.1493 -1.9933 0.9622
-4.0002 -8.5441 -1.9942 0.9622
-1.5952 -9.3121 -1.9971 0.9621
-0.7578 -9.4223 -1.9981 0.9621
0.0866 -9.4573 -1.9992 0.9621
0.9312 -9.4169 -2.0003 0.9621
1.7692 -9.3013 -2.0013 0.9620
2.5940 -9.1111 -2.0024 0.9620
6.9070 -6.5253 -2.0085 0.9619
7.9640 -5.1970 -2.0102 0.9619
8.3993 -4.4668 -2.0109 0.9619
8.7674 -3.7002 -2.0115 0.9618
9.2905 -2.0829 -2.0126 0.9618
9.4412 -1.2453 -2.0130 0.9618
9.5160 -0.3974 -2.0132 0.9618
9.5144 0.4539 -2.0134 0.9618
9.4363 1.3016 -2.0135 0.9618
9.2824 2.1390 -2.0135 0.9618
9.0539 2.9591 -2.0134 0.9618
7.9425 5.2504 -2.0126 0.9618
7.4402 5.9371 -2.0121 0.9618
6.8784 6.5759 -2.0115 0.9618
5.7856 6.6169 -1.8579 0.9647
5.1698 7.1044 -1.8573 0.9647
4.5131 7.5347 -1.8565 0.9647
3.0983 8.2100 -1.8549 0.9648
2.3517 8.4498 -1.8540 0.9648
1.5871 8.6216 -1.8531 0.9648
0.8105 8.7244 -1.8521 0.9648
-2.2898 8.4378 -1.8481 0.9649
-5.0879 7.0876 -1.8442 0.9650
-5.6977 6.6018 -1.8433 0.9650
-6.2615 6.0639 -1.8425 0.9650
-6.7750 5.4783 -1.8417 0.9650
-7.6360 4.1830 -1.8404 0.9650
-8.6274 3.7677 -1.9900 0.9622
-9.1606 2.1733 -1.9901 0.9622
-9.3162 1.3464 -1.9897 0.9622
-9.4048 -0.3320 -1.9892 0.9623
-9.3371 -1.1703 -1.9891 0.9623
-9.1953 -1.9993 -1.9891 0.9623
-6.2894 -7.0157 -1.9916 0.9622
-5.6398 -7.5519 -1.9923 0.9622
-4.2101 -8.4414 -1.9940 0.9622
-3.4411 -8.7875 -1.9948 0.9622
2.3672 -9.1712 -2.0021 0.9620
-5.4672 5.6241 -1.8434 0.9683
-6.3755 4.5586 -1.8420 0.9683
-8.4401 0.7132 -1.9907 0.9658
-6.8419 -4.9984 -1.9914 0.9658
-5.2768 -6.6383 -1.9930 0.9658
-4.6646 -7.0853 -1.9937 0.9657
-4.0149 -7.4763 -1.9944 0.9657
-2.6233 -8.0777 -1.9961 0.9657
0.3710 -8.5007 -1.9998 0.9656
1.1291 -8.4377 -2.0007 0.9656
1.8789 -8.3073 -2.0017 0.9656
2.6144 -8.1103 -2.0027 0.9656
3.3297 -7.8483 -2.0037 0.9656
4.6769 -7.1376 -2.0055 0.9655
5.2978 -6.6945 -2.0064 0.9655
5.8769 -6.1974 -2.0073 0.9655
6.4093 -5.6501 -2.0081 0.9655
8.2346 -2.3278 -2.0112 0.9654
8.5204 -0.8264 -2.0119 0.9654
8.5611 -0.0623 -2.0121 0.9654
8.4365 1.4615 -2.0123 0.9654
8.0414 2.9385 -2.0121 0.9654
7.3887 4.3208 -2.0116 0.9654
6.9721 4.9623 -2.0113 0.9654
4.9924 6.1232 -1.8568 0.9681
4.4243 6.5423 -1.8562 0.9681
3.1877 7.2194 -1.8548 0.9681
2.5293 7.4721 -1.8540 0.9681
1.8512 7.6647 -1.8532 0.9681
-0.2459 7.8701 -1.8506 0.9682
-0.9471 7.8129 -1.8497 0.9682
-1.6401 7.6933 -1.8487 0.9682
-2.9794 7.2719 -1.8469 0.9682
-4.2213 6.6198 -1.8452 0.9683
-4.7934 6.2137 -1.8444 0.9683
-5.3268 5.7585 -1.8436 0.9683
-5.8173 5.2577 -1.8429 0.9683
-6.7197 4.1765 -1.8595 0.9680
-7.5642 3.8110 -1.9907 0.9658
-8.1249 2.4058 -1.9915 0.9658
-8.3056 1.6705 -1.9911 0.9658
-8.4483 -0.5901 -1.9904 0.9658
-8.3616 -1.3421 -1.9903 0.9658
-8.2085 -2.0833 -1.9903 0.9658
-7.9901 -2.8080 -1.9905 0.9658
-7.7082 -3.5106 -1.9906 0.9658
-6.9632 -4.8272 -1.9913 0.9658
-5.4392 -6.5050 -1.9928 0.9658
-4.8382 -6.9669 -1.9935 0.9657
-3.5246 -7.7221 -1.9950 0.9657
-2.8222 -8.0093 -1.9958 0.9657
-1.3539 -8.3910 -1.9976 0.9657
-0.5995 -8.4824 -1.9985 0.9657
0.1603 -8.5061 -1.9995 0.9656
3.8310 -7.6195 -2.0044 0.9656
5.1298 -6.8228 -2.0062 0.9655
5.7209 -6.3403 -2.0071 0.9655
6.2667 -5.8065 -2.0079 0.9655
6.7627 -5.2258 -2.0086 0.9655
7.5894 -3.9423 -2.0100 0.9655
7.9134 -3.2498 -2.0106 0.9655
8.3690 -1.7914 -2.0115 0.9654
8.4970 -1.0371 -2.0118 0.9654
8.5567 -0.2744 -2.0121 0.9654
8.4701 1.2521 -2.0123 0.9654
8.3244 2.0033 -2.0123 0.9654
7.0932 4.7883 -2.0114 0.9654
4.5854 6.4314 -1.8564 0.9681
3.3659 7.1391 -1.8550 0.9681
0.6528 7.8517 -1.8517 0.9681
-0.7534 7.8350 -1.8499 0.9682
-1.4492 7.7327 -1.8490 0.9682
-4.0566 6.7232 -1.8455 0.9683
-5.1831 5.8893 -1.8438 0.9683
-5.6859 5.4008 -1.8431 0.9683
-6.1431 4.8697 -1.8424 0.9683
-7.4567 3.9914 -1.9878 0.9658
-7.8003 3.3169 -1.9921 0.9658
-8.4614 0.3763 -1.9906 0.9658
-7.7926 -3.3185 -1.9906 0.9658
-7.4661 -4.0015 -1.9908 0.9658
-7.0802 -4.6529 -1.9912 0.9658
-4.3793 -7.2667 -1.9940 0.9657
-3.7144 -7.6316 -1.9948 0.9657
-3.0194 -7.9360 -1.9956 0.9657
0.7096 -8.4810 -2.0002 0.9656
1.4647 -8.3879 -2.0012 0.9656
2.9361 -8.0014 -2.0031 0.9656
3.6406 -7.7110 -2.0041 0.9656
4.9586 -6.9470 -2.0059 0.9655
5.5615 -6.4793 -2.0068 0.9655
6.1203 -5.9593 -2.0076 0.9655
6.6305 -5.3912 -2.0084 0.9655
7.0879 -4.7793 -2.0092 0.9655
8.1082 -2.7324 -2.0109 0.9655
8.3715 1.7965 -2.0123 0.9654
8.1774 2.5367 -2.0122 0.9654
7.9176 3.2565 -2.0121 0.9654
7.5943 3.9499 -2.0118 0.9654
6.7681 5.2357 -2.0111 0.9655
6.2721 5.8176 -2.0106 0.9655
1.5440 7.7308 -1.8528 0.9681
0.8472 7.8342 -1.8519 0.9681
0.1442 7.8747 -1.8511 0.9682
-0.5592 7.8523 -1.8502 0.9682
-1.2574 7.7673 -1.8492 0.9682
-3.2661 7.1459 -1.8466 0.9682
-5.5510 5.5406 -1.8433 0.9683
-6.0212 5.0209 -1.8426 0.9683
-6.4431 4.4616 -1.8419 0.9683
-7.7163 3.5094 -1.9923 0.9658
-8.3649 1.3381 -1.9909 0.9658
-8.4179 -0.9263 -1.9903 0.9658
-8.3015 -1.6742 -1.9903 0.9658
-7.8722 -3.1243 -1.9905 0.9658
-7.5626 -3.8152 -1.9908 0.9658
-6.7659 -5.1013 -1.9915 0.9658
-5.7537 -6.2265 -1.9925 0.9658
-5.1764 -6.7175 -1.9931 0.9658
-4.5575 -7.1553 -1.9938 0.9657
-3.2147 -7.8579 -1.9954 0.9657
-1.0186 -8.4401 -1.9980 0.9657
-0.2611 -8.5014 -1.9990 0.9657
0.4993 -8.4948 -1.9999 0.9656
1.2563 -8.4204 -2.0009 0.9656
2.7367 -8.0706 -2.0029 0.9656
3.4480 -7.7978 -2.0038 0.9656
4.1324 -7.4623 -2.0048 0.9656
5.3986 -6.6143 -2.0066 0.9655
5.9701 -6.1084 -2.0074 0.9655
6.4943 -5.5532 -2.0082 0.9655
7.3836 -4.3126 -2.0096 0.9655
7.7415 -3.6372 -2.0102 0.9655
8.5321 -0.6977 -2.0119 0.9654
8.5612 0.0669 -2.0121 0.9654
7.9960 3.0594 -2.0121 0.9654
7.6901 3.7607 -2.0119 0.9654
4.8992 6.1975 -1.8567 0.9681
3.7162 6.9651 -1.8554 0.9681
3.0782 7.2662 -1.8546 0.9681
1.7353 7.6912 -1.8530 0.9681
1.0411 7.8118 -1.8522 0.9681
0.3393 7.8698 -1.8513 0.9682
-0.3646 7.8649 -1.8504 0.9682
-3.0885 7.2255 -1.8468 0.9682
-3.7196 6.9176 -1.8459 0.9682
-5.4127 5.6770 -1.8435 0.9683
-6.3313 4.6203 -1.8421 0.9683
-6.9368 4.1677 -1.9019 0.9673
-7.6276 3.6997 -1.9924 0.9658
-7.9254 3.0031 -1.9919 0.9658
-8.1599 2.2829 -1.9914 0.9658
-8.3296 1.5449 -1.9910 0.9658
-8.4693 0.0388 -1.9905 0.9658
-8.3404 -1.4681 -1.9903 0.9658
-7.9469 -2.9283 -1.9905 0.9658
-7.3013 -4.2962 -1.9910 0.9658
-6.8898 -4.9318 -1.9914 0.9658
-6.4234 -5.5286 -1.9918 0.9658
-5.9057 -6.0816 -1.9923 0.9658
-4.0869 -7.4367 -1.9943 0.9657
-0.4715 -8.4911 -1.9987 0.9657
1.0472 -8.4478 -2.0006 0.9656
2.5356 -8.1348 -2.0026 0.9656
5.2325 -6.7452 -2.0063 0.9655
5.8163 -6.2537 -2.0072 0.9655
6.3540 -5.7117 -2.0080 0.9655
7.9619 -3.1302 -2.0106 0.9655
8.2115 -2.4074 -2.0111 0.9654
8.3954 -1.6649 -2.0115 0.9654
8.5119 -0.9088 -2.0119 0.9654
8.5600 -0.1452 -2.0121 0.9654
8.4503 1.3797 -2.0123 0.9654
8.0696 2.8605 -2.0122 0.9654
3.8880 6.8717 -1.8556 0.9681
2.6017 7.4476 -1.8541 0.9681
1.9255 7.6468 -1.8533 0.9681
0.5342 7.8600 -1.8515 0.9681
-0.1696 7.8725 -1.8507 0.9682
-2.2466 7.5350 -1.8479 0.9682
-4.1572 6.6607 -1.8453 0.9683
-4.7332 6.2601 -1.8445 0.9683
-5.2710 5.8100 -1.8437 0.9683
-5.7664 5.3141 -1.8430 0.9683
-6.6148 4.2007 -1.8416 0.9683
-8.1014 2.4845 -1.9915 0.9658
-8.4537 -0.5083 -1.9904 0.9658
-8.2282 -2.0037 -1.9903 0.9658
-7.7418 -3.4357 -1.9906 0.9658
-6.5579 -5.3674 -1.9917 0.9658
-6.0541 -5.9330 -1.9922 0.9658
-4.2694 -7.3324 -1.9941 0.9657
-3.5991 -7.6873 -1.9949 0.9657
-2.8995 -7.9812 -1.9957 0.9657
-1.4350 -8.3771 -1.9975 0.9657
0.8375 -8.4700 -2.0004 0.9656
2.3329 -8.1940 -2.0023 0.9656
3.0567 -7.9569 -2.0033 0.9656
3.7568 -7.6558 -2.0043 0.9656
4.4274 -7.2932 -2.0052 0.9655
5.0632 -6.8719 -2.0061 0.9655
7.1596 -4.6721 -2.0093 0.9655
7.5507 -4.0155 -2.0099 0.9655
7.8813 -3.3263 -2.0105 0.9655
8.1489 -2.6099 -2.0110 0.9655
8.4864 -1.1194 -2.0118 0.9654
8.5536 -0.3573 -2.0120 0.9654
8.1381 2.6598 -2.0122 0.9654
7.8674 3.3755 -2.0120 0.9654
7.5336 4.0639 -2.0118 0.9654
7.1395 4.7195 -2.0114 0.9654
6.6881 5.3370 -2.0110 0.9655
5.4683 6.2539 -1.9524 0.9664
4.6477 6.3869 -1.8564 0.9681
2.7857 7.3817 -1.8543 0.9681
0.0254 7.8754 -1.8509 0.9682
-0.6775 7.8424 -1.8500 0.9682
-1.3743 7.7468 -1.8491 0.9682
-2.0595 7.5894 -1.8482 0.9682
-1.9081 5.1568 -1.2923 0.9777
-3.9915 6.7625 -1.8455 0.9682
-4.5773 6.3762 -1.8447 0.9683
-5.1261 5.9395 -1.8439 0.9683
-6.0959 4.9292 -1.8424 0.9683
-6.5093 4.3637 -1.8418 0.9683
-7.4136 4.0612 -1.9867 0.9659
-7.7680 3.3924 -1.9922 0.9658
-8.2437 1.9557 -1.9912 0.9658
-8.3839 1.2117 -1.9909 0.9658
-8.4575 0.4582 -1.9906 0.9658
-8.0819 -2.5310 -1.9904 0.9658
-7.5044 -3.9289 -1.9908 0.9658
-7.1248 -4.5840 -1.9911 0.9658
-6.6885 -5.2030 -1.9916 0.9658
-6.1987 -5.7808 -1.9920 0.9658
-5.6594 -6.3130 -1.9926 0.9658
-3.0960 -7.9061 -1.9955 0.9657
-2.3787 -8.1544 -1.9963 0.9657
-1.6419 -8.3379 -1.9972 0.9657
-0.1328 -8.5050 -1.9991 0.9657
0.6274 -8.4870 -2.0001 0.9656
1.3834 -8.4012 -2.0011 0.9656
2.1290 -8.2482 -2.0020 0.9656
-4.9640 5.1065 -1.8439 0.9710
-5.3982 4.6412 -1.8433 0.9710
-6.6278 3.8952 -1.9905 0.9687
-6.9585 3.2923 -1.9932 0.9687
-7.2230 2.6572 -1.9927 0.9687
-7.5775 1.3296 -1.9919 0.9687
-7.6914 -0.0393 -1.9915 0.9687
-7.6567 -0.7258 -1.9914 0.9687
-6.9194 -3.3607 -1.9917 0.9687
-6.5926 -3.9656 -1.9920 0.9687
-6.2133 -4.5392 -1.9923 0.9687
-3.6455 -6.7884 -1.9951 0.9687
-3.0259 -7.0894 -1.9958 0.9687
-1.0402 -7.6469 -1.9982 0.9686
-0.3534 -7.7126 -1.9990 0.9686
0.3368 -7.7167 -1.9999 0.9686
1.7054 -7.5405 -2.0017 0.9686
3.0221 -7.1232 -2.0034 0.9685
4.2444 -6.4776 -2.0051 0.9685
5.8160 -5.1271 -2.0075 0.9685
6.2527 -4.5889 -2.0081 0.9685
6.9733 -3.4056 -2.0093 0.9684
7.4713 -2.1120 -2.0103 0.9684
7.6314 -1.4368 -2.0106 0.9684
7.7303 -0.7498 -2.0109 0.9684
7.7671 -0.0565 -2.0111 0.9684
7.7417 0.6372 -2.0112 0.9684
7.6540 1.3259 -2.0113 0.9684
7.5049 2.0040 -2.0112 0.9684
7.0278 3.3064 -2.0109 0.9684
5.4216 5.5531 -2.0094 0.9684
4.0146 5.9365 -1.8555 0.9708
2.8927 6.5513 -1.8542 0.9708
2.2953 6.7808 -1.8535 0.9709
1.6800 6.9559 -1.8528 0.9709
-0.2232 7.1432 -1.8504 0.9709
-1.4888 6.9834 -1.8488 0.9709
-1.6285 5.2749 -1.4294 0.9774
-4.8365 5.2284 -1.8441 0.9710
-5.6853 4.2818 -1.8428 0.9710
-6.5211 4.0531 -1.9880 0.9688
-6.8754 3.4639 -1.9933 0.9687
-7.5426 1.5170 -1.9920 0.9687
-7.6468 0.8374 -1.9917 0.9687
-7.2563 -2.5502 -1.9914 0.9687
-7.0003 -3.1882 -1.9916 0.9687
-5.4454 -5.4409 -1.9931 0.9687
-4.9391 -5.9069 -1.9936 0.9687
-3.8122 -6.6954 -1.9949 0.9687
-1.2291 -7.6179 -1.9979 0.9686
0.8348 -7.6813 -2.0005 0.9686
2.1896 -7.4170 -2.0023 0.9686
3.4769 -6.9153 -2.0041 0.9685
5.1916 -5.7536 -2.0065 0.9685
5.6867 -5.2691 -2.0073 0.9685
7.1800 -2.9487 -2.0097 0.9684
7.4163 -2.2963 -2.0101 0.9684
7.7091 -0.9410 -2.0108 0.9684
7.7632 -0.2489 -2.0111 0.9684
7.6845 1.1359 -2.0113 0.9684
7.3596 2.4845 -2.0112 0.9684
7.1077 3.1314 -2.0110 0.9684
6.7989 3.7531 -2.0108 0.9684
6.4356 4.3444 -2.0104 0.9684
6.0208 4.9007 -2.0100 0.9684
5.5579 5.4174 -2.0096 0.9684
4.1607 5.8357 -1.8557 0.9708
3.6219 6.1819 -1.8551 0.9708
3.0544 6.4783 -1.8544 0.9708
1.8520 6.9129 -1.8530 0.9709
1.2269 7.0478 -1.8522 0.9709
-0.0462 7.1475 -1.8506 0.9709
-1.3155 7.0191 -1.8490 0.9709
-1.9361 6.8705 -1.8482 0.9709
-2.5407 6.6673 -1.8474 0.9709
-3.1245 6.4110 -1.8466 0.9710
-3.6829 6.1038 -1.8458 0.9710
-7.0834 3.0121 -1.9929 0.9687
-7.3224 2.3670 -1.9925 0.9687
-7.5031 1.7035 -1.9921 0.9687
-7.6240 1.0266 -1.9918 0.9687
-7.6216 -1.0303 -1.9913 0.9687
-7.4992 -1.7067 -1.9913 0.9687
-6.4298 -4.2255 -1.9921 0.9687
-6.0280 -4.7836 -1.9925 0.9687
-5.5781 -5.3040 -1.9929 0.9687
-3.9765 -6.5983 -1.9947 0.9687
-3.3726 -6.9294 -1.9954 0.9687
-2.7414 -7.2055 -1.9961 0.9686
-2.0879 -7.4244 -1.9969 0.9686
1.3296 -7.6138 -2.0012 0.9686
2.6649 -7.2624 -2.0030 0.9685
4.5000 -6.3045 -2.0055 0.9685
6.4315 -4.3367 -2.0084 0.9685
7.1043 -3.1254 -2.0096 0.9684
7.6831 -1.1316 -2.0108 0.9684
7.5951 1.6299 -2.0113 0.9684
7.4190 2.3015 -2.0112 0.9684
6.8901 3.5836 -2.0108 0.9684
3.7743 6.0908 -1.8553 0.9708
3.2142 6.4013 -1.8546 0.9708
1.4012 7.0160 -1.8525 0.9709
0.7689 7.1101 -1.8517 0.9709
0.1309 7.1473 -1.8509 0.9709
-1.1414 7.0504 -1.8492 0.9709
-1.7655 6.9172 -1.8484 0.9709
-1.8147 5.1415 -1.4117 0.9777
-4.5726 5.4627 -1.8445 0.9710
-5.0402 5.0307 -1.8438 0.9710
-6.0260 4.1727 -1.8978 0.9702
-6.6911 3.7977 -1.9920 0.9687
-7.0071 3.1868 -1.9931 0.9687
-7.2620 2.5478 -1.9926 0.9687
-7.4589 1.8889 -1.9922 0.9687
-7.5965 1.2152 -1.9919 0.9687
-7.6737 0.5320 -1.9916 0.9687
-7.6449 -0.8413 -1.9913 0.9687
-7.3735 -2.1876 -1.9914 0.9687
-7.1492 -2.8374 -1.9915 0.9687
-6.8680 -3.4648 -1.9917 0.9687
-6.5322 -4.0648 -1.9920 0.9687
-6.1443 -4.6326 -1.9924 0.9687
-4.1383 -6.4972 -1.9945 0.9687
-2.9188 -7.1347 -1.9959 0.9687
-2.2710 -7.3696 -1.9967 0.9686
-1.6045 -7.5460 -1.9975 0.9686
1.1404 -7.6435 -2.0009 0.9686
3.1294 -7.0773 -2.0036 0.9685
4.8992 -6.0024 -2.0061 0.9685
7.2926 -2.6605 -2.0099 0.9684
7.5025 -1.9992 -2.0103 0.9684
7.6524 -1.3215 -2.0107 0.9684
7.7409 -0.6330 -2.0109 0.9684
7.7672 0.0606 -2.0111 0.9684
7.6331 1.4413 -2.0113 0.9684
7.4738 2.1170 -2.0112 0.9684
7.2545 2.7757 -2.0111 0.9684
6.2569 4.5970 -2.0103 0.9684
5.8202 5.1362 -2.0098 0.9684
5.3352 5.6321 -2.0086 0.9685
4.4454 5.6234 -1.8560 0.9708
3.3721 6.3203 -1.8548 0.9708
2.7933 6.5938 -1.8541 0.9708
2.1926 6.8142 -1.8534 0.9709
1.5748 6.9800 -1.8527 0.9709
-0.3309 7.1385 -1.8503 0.9709
-1.5938 6.9597 -1.8486 0.9709
-1.6681 5.1272 -1.3960 0.9780
-3.9225 5.9511 -1.8454 0.9710
-4.4364 5.5749 -1.8447 0.9710
-4.9145 5.1546 -1.8440 0.9710
-5.7490 4.1953 -1.8427 0.9710
-6.5866 3.9573 -1.9895 0.9687
-6.9265 3.3596 -1.9932 0.9687
-7.1971 2.7271 -1.9927 0.9687
-7.4102 2.0732 -1.9923 0.9687
-7.5644 1.4030 -1.9920 0.9687
-7.6915 0.0352 -1.9915 0.9687
-7.6635 -0.6516 -1.9914 0.9687
-7.5745 -1.3332 -1.9913 0.9687
-7.4253 -2.0043 -1.9914 0.9687
-6.9515 -3.2935 -1.9917 0.9687
-6.6306 -3.9015 -1.9919 0.9687
-5.8331 -5.0205 -1.9927 0.9687
-4.8497 -5.9811 -1.9937 0.9687
-3.0943 -7.0594 -1.9957 0.9687
-1.7908 -7.5031 -1.9972 0.9686
0.2620 -7.7192 -1.9998 0.9686
1.6322 -7.5563 -2.0016 0.9686
2.3014 -7.3836 -2.0025 0.9685
6.2077 -4.6491 -2.0081 0.9685
6.9398 -3.4729 -2.0093 0.9684
7.6170 -1.5106 -2.0106 0.9684
7.7662 -0.1318 -2.0111 0.9684
7.6665 1.2517 -2.0113 0.9684
7.5240 1.9312 -2.0113 0.9684
7.3212 2.5952 -2.0112 0.9684
7.0596 3.2382 -2.0110 0.9684
6.3692 4.4409 -2.0104 0.9684
5.9460 4.9908 -2.0100 0.9684
5.4753 5.5005 -2.0095 0.9684
4.8174 5.7931 -1.9508 0.9693
4.0720 5.8975 -1.8556 0.9708
2.3610 6.7586 -1.8536 0.9709
1.1203 7.0650 -1.8521 0.9709
-0.7910 7.1000 -1.8497 0.9709
-1.6080 5.3931 -1.4571 0.9770
-3.2206 6.3627 -1.8464 0.9710
-4.2974 5.6837 -1.8449 0.9710
-4.7858 5.2753 -1.8442 0.9710
-5.2358 4.8251 -1.8435 0.9710
-5.6499 4.3415 -1.8449 0.9710
-6.8417 3.5304 -1.9934 0.9687
-7.3570 2.2562 -1.9924 0.9687
-7.6384 0.9114 -1.9918 0.9687
-7.6884 0.2258 -1.9915 0.9687
-7.6773 -0.4616 -1.9914 0.9687
-7.4726 -1.8197 -1.9913 0.9687
-7.2806 -2.4798 -1.9914 0.9687
-5.9554 -4.8742 -1.9926 0.9687
-5.4977 -5.3877 -1.9930 0.9687
-4.9960 -5.8586 -1.9935 0.9687
-4.4542 -6.2831 -1.9941 0.9687
-3.8767 -6.6579 -1.9948 0.9687
-3.2679 -6.9799 -1.9955 0.9687
0.7603 -7.6887 -2.0004 0.9686
2.1175 -7.4375 -2.0022 0.9686
3.4096 -6.9483 -2.0040 0.9685
5.1354 -5.8034 -2.0064 0.9685
5.6351 -5.3237 -2.0072 0.9685
6.0901 -4.8010 -2.0079 0.9685
6.4965 -4.2394 -2.0085 0.9685
7.1509 -3.0180 -2.0096 0.9684
7.3935 -2.3680 -2.0101 0.9684
7.5769 -1.6987 -2.0105 0.9684
7.6995 -1.0156 -2.0108 0.9684
7.7603 -0.3241 -2.0110 0.9684
7.6951 1.0615 -2.0113 0.9684
7.5696 1.7443 -2.0113 0.9684
7.1378 3.0624 -2.0110 0.9684
6.8351 3.6871 -2.0108 0.9684
3.6817 6.1467 -1.8551 0.9708
3.1171 6.4487 -1.8545 0.9708
2.5279 6.6987 -1.8538 0.9708
-1.2475 7.0318 -1.8491 0.9709
-1.8696 6.8893 -1.8483 0.9709
-3.0624 6.4413 -1.8466 0.9710
-3.6237 6.1395 -1.8459 0.9710
-4.1557 5.7890 -1.8451 0.9710
-4.6542 5.3928 -1.8444 0.9710
-5.5351 4.4757 -1.8431 0.9710
-6.2124 4.1646 -1.9365 0.9696
-6.7526 3.6991 -1.9935 0.9687
-7.0541 3.0806 -1.9930 0.9687
-7.2993 2.4379 -1.9925 0.9687
-7.4863 1.7761 -1.9922 0.9687
-7.6138 1.1004 -1.9918 0.9687
-7.6807 0.4161 -1.9916 0.9687
-7.6865 -0.2713 -1.9914 0.9687
-7.5154 -1.6340 -1.9913 0.9687
-7.3397 -2.2986 -1.9914 0.9687
-7.1057 -2.9450 -1.9915 0.9687
-6.8151 -3.5681 -1.9918 0.9687
-6.0739 -4.7249 -1.9924 0.9687
-5.6290 -5.2495 -1.9929 0.9687
-5.1391 -5.7326 -1.9934 0.9687
-4.6081 -6.1704 -1.9940 0.9687
-3.4394 -6.8961 -1.9953 0.9687
-2.1597 -7.4035 -1.9968 0.9686
0.5695 -7.7042 -2.0002 0.9686
1.2557 -7.6260 -2.0011 0.9686
-4.9385 4.2460 -1.8438 0.9733
-5.7140 4.0856 -1.9885 0.9712
-6.0736 3.5695 -1.9944 0.9711
-7.0375 -0.0359 -1.9923 0.9712
-6.5797 -2.4972 -1.9923 0.9712
-5.2923 -4.6451 -1.9935 0.9712
-3.3350 -6.2104 -1.9956 0.9711
-1.5716 -6.8793 -1.9977 0.9711
-0.9515 -6.9948 -1.9984 0.9711
0.9374 -7.0053 -2.0008 0.9710
1.5598 -6.8964 -2.0016 0.9710
2.7637 -6.5143 -2.0033 0.9710
3.8813 -5.9235 -2.0048 0.9710
4.3963 -5.5553 -2.0056 0.9710
4.8765 -5.1424 -2.0063 0.9710
5.3179 -4.6880 -2.0069 0.9710
6.0706 -3.6696 -2.0081 0.9709
6.6296 -2.5326 -2.0091 0.9709
6.8306 -1.9309 -2.0095 0.9709
7.0672 -0.6854 -2.0101 0.9709
7.1009 -0.0517 -2.0103 0.9709
7.0775 0.5826 -2.0104 0.9709
6.9974 1.2122 -2.0104 0.9709
6.8611 1.8321 -2.0104 0.9709
6.4250 3.0228 -2.0101 0.9709
6.1287 3.5839 -2.0099 0.9709
5.3916 4.6152 -2.0092 0.9709
4.4683 5.4804 -2.0018 0.9710
3.6706 5.4279 -1.8550 0.9731
3.1704 5.7322 -1.8544 0.9731
1.5363 6.3608 -1.8525 0.9732
-1.5967 5.1719 -1.5323 0.9777
-3.0021 5.7910 -1.8466 0.9732
-4.8323 4.3674 -1.8439 0.9733
-5.5288 4.1639 -1.9594 0.9716
-6.9012 1.3880 -1.9928 0.9712
-6.9966 0.7662 -1.9925 0.9712
-6.8210 -1.7312 -1.9922 0.9712
-6.1198 -3.4778 -1.9927 0.9712
-5.4055 -4.5123 -1.9933 0.9712
-4.0193 -5.7877 -1.9948 0.9711
-3.4876 -6.1253 -1.9954 0.9711
-2.9277 -6.4143 -1.9960 0.9711
-1.7414 -6.8376 -1.9975 0.9711
-0.4978 -7.0437 -1.9990 0.9711
0.1331 -7.0628 -1.9998 0.9711
2.0025 -6.7833 -2.0022 0.9710
2.6012 -6.5800 -2.0030 0.9710
3.1796 -6.3240 -2.0038 0.9710
3.7330 -6.0172 -2.0046 0.9710
5.1997 -4.8179 -2.0067 0.9710
5.6109 -4.3357 -2.0074 0.9710
6.7804 -2.0994 -2.0094 0.9709
7.0253 1.0385 -2.0104 0.9709
5.8837 3.9719 -2.0096 0.9709
5.5046 4.4805 -2.0093 0.9709
5.0815 4.9531 -2.0089 0.9709
3.8042 5.3357 -1.8551 0.9731
3.3117 5.6524 -1.8546 0.9731
2.2520 6.1472 -1.8533 0.9732
1.6936 6.3214 -1.8527 0.9732
1.1219 6.4450 -1.8520 0.9732
-0.6254 6.5041 -1.8498 0.9732
-2.3239 6.0984 -1.8475 0.9732
-2.8580 5.8642 -1.8468 0.9732
-5.8826 3.8615 -1.9921 0.9712
-6.2104 3.3242 -1.9941 0.9711
-6.9757 0.9393 -1.9926 0.9712
-7.0310 0.3127 -1.9924 0.9712
-6.9737 -0.9428 -1.9922 0.9712
-6.6951 -2.1682 -1.9922 0.9712
-6.2038 -3.3250 -1.9926 0.9712
-3.6379 -6.0365 -1.9952 0.9711
-3.0854 -6.3393 -1.9959 0.9711
-2.5079 -6.5916 -1.9965 0.9711
-1.2965 -6.9377 -1.9980 0.9711
-0.0419 -7.0632 -1.9996 0.9711
0.5892 -7.0415 -2.0004 0.9711
1.2160 -6.9636 -2.0012 0.9710
1.8337 -6.8300 -2.0020 0.9710
2.4372 -6.6417 -2.0028 0.9710
3.5824 -6.1071 -2.0044 0.9710
4.1150 -5.7651 -2.0051 0.9710
5.0783 -4.9447 -2.0066 0.9710
5.5013 -4.4730 -2.0072 0.9710
5.8804 -3.9651 -2.0078 0.9709
6.2127 -3.4252 -2.0084 0.9709
6.4953 -2.8575 -2.0088 0.9709
6.9027 -1.6573 -2.0096 0.9709
7.0975 0.2313 -2.0103 0.9709
5.9806 3.8251 -2.0097 0.9709
5.6142 4.3430 -2.0094 0.9709
5.2029 4.8260 -2.0090 0.9709
4.7482 5.2678 -2.0077 0.9709
