ply
format ascii 1.0
element vertex 1600
property float32 x
property float32 y
property float32 z
property float32 I
end_header
-5.2769 -5.5823 -1.9889 0.9688
-3.6072 -6.7810 -1.9887 0.9688
-2.3431 -7.3161 -1.9891 0.9688
-1.0039 -7.6193 -1.9898 0.9687
-0.3192 -7.6805 -1.9903 0.9687
1.0536 -7.6197 -1.9917 0.9687
1.7308 -7.4980 -1.9924 0.9687
2.3949 -7.3165 -1.9933 0.9687
3.0404 -7.0765 -1.9942 0.9687
4.2557 -6.4289 -1.9962 0.9686
4.8156 -6.0262 -1.9973 0.9686
5.3378 -5.5749 -1.9984 0.9686
6.2519 -4.5410 -2.0007 0.9686
6.9684 -3.3597 -2.0030 0.9685
7.2449 -2.7252 -2.0042 0.9685
7.1338 -0.6537 -1.8548 0.9708
7.1433 0.6271 -1.8566 0.9708
6.9236 1.8901 -1.8582 0.9708
6.7296 2.5021 -1.8589 0.9708
6.4812 3.0944 -1.8596 0.9708
6.1806 3.6621 -1.8601 0.9708
5.8302 4.2008 -1.8606 0.9707
4.5094 5.5989 -1.8614 0.9707
3.9912 5.9797 -1.8615 0.9707
2.2621 6.8228 -1.8611 0.9707
1.0113 7.1138 -1.8604 0.9707
0.3716 7.1738 -1.8599 0.9708
-1.5426 7.0082 -1.8580 0.9708
-2.1617 6.8394 -1.8572 0.9708
-2.9902 7.1603 -2.0091 0.9684
-3.6162 6.8612 -2.0081 0.9685
-5.2978 5.6474 -2.0049 0.9685
-5.7779 5.1485 -2.0037 0.9685
-6.2112 4.6090 -2.0026 0.9685
-6.9243 3.4260 -2.0003 0.9686
-7.1986 2.7920 -1.9991 0.9686
-7.4151 2.1364 -1.9980 0.9686
-7.5721 1.4646 -1.9969 0.9686
-7.6687 0.7817 -1.9958 0.9687
-6.9719 -3.2416 -1.9907 0.9687
-6.6524 -3.8505 -1.9901 0.9687
-6.2802 -4.4284 -1.9897 0.9687
-4.3290 -6.3445 -1.9887 0.9688
-3.1309 -7.0141 -1.9888 0.9688
-2.4919 -7.2665 -1.9890 0.9688
-1.8330 -7.4613 -1.9893 0.9688
0.2115 -7.6860 -1.9908 0.9687
0.8977 -7.6390 -1.9915 0.9687
1.5772 -7.5311 -1.9922 0.9687
2.2448 -7.3632 -1.9931 0.9687
2.8950 -7.1364 -1.9940 0.9687
3.5227 -6.8525 -1.9949 0.9687
4.1230 -6.5136 -1.9960 0.9686
5.2222 -5.6820 -1.9981 0.9686
5.7122 -5.1956 -1.9993 0.9686
6.1571 -4.6671 -2.0004 0.9686
6.5533 -4.1007 -2.0016 0.9686
7.0398 -1.4363 -1.8603 0.9707
7.1181 -0.7991 -1.8546 0.9708
5.7755 -0.1290 -1.4958 0.9764
7.1538 0.4810 -1.8564 0.9708
7.0855 1.1188 -1.8573 0.9708
6.5426 2.9612 -1.8594 0.9708
6.2537 3.5350 -1.8600 0.9708
5.9144 4.0806 -1.8605 0.9707
5.0955 5.0700 -1.8611 0.9707
4.6227 5.5056 -1.8613 0.9707
1.1564 7.0920 -1.8605 0.9707
0.5180 7.1652 -1.8600 0.9708
-2.0218 6.8828 -1.8574 0.9708
-2.8434 7.2199 -2.0091 0.9684
-3.4758 6.9344 -2.0083 0.9685
-4.0794 6.5927 -2.0073 0.9685
-4.6496 6.1985 -2.0063 0.9685
-5.1820 5.7551 -2.0051 0.9685
-5.6723 5.2661 -2.0040 0.9685
-6.5115 4.1677 -2.0017 0.9686
-6.8538 3.5671 -2.0005 0.9686
-7.3709 2.2877 -1.9983 0.9686
-7.5416 1.6191 -1.9971 0.9686
-7.6520 0.9383 -1.9961 0.9686
-7.6891 -0.4382 -1.9941 0.9687
-7.4818 -1.7982 -1.9923 0.9687
-7.2884 -2.4585 -1.9916 0.9687
-7.0371 -3.0988 -1.9909 0.9687
-6.3697 -4.2994 -1.9898 0.9687
-5.5007 -5.3625 -1.9890 0.9688
-3.8810 -6.6280 -1.9887 0.9688
-2.6397 -7.2139 -1.9889 0.9688
-1.9849 -7.4220 -1.9892 0.9688
-1.3140 -7.5711 -1.9896 0.9687
-0.6325 -7.6601 -1.9901 0.9687
0.7415 -7.6551 -1.9913 0.9687
2.7484 -7.1932 -1.9938 0.9687
3.9887 -6.5957 -1.9957 0.9687
4.5645 -6.2162 -1.9968 0.9686
5.6042 -5.3105 -1.9990 0.9686
6.0597 -4.7912 -2.0001 0.9686
7.1257 -3.0179 -2.0036 0.9685
7.3711 -2.3705 -2.0048 0.9685
7.4284 -1.6743 -1.9716 0.9690
5.6924 -0.2435 -1.4752 0.9767
7.1614 0.3348 -1.8562 0.9708
6.9937 1.6055 -1.8579 0.9708
6.8250 2.2248 -1.8586 0.9708
6.6012 2.8268 -1.8593 0.9708
5.9961 3.9588 -1.8604 0.9707
5.6197 4.4797 -1.8608 0.9707
4.2320 5.8117 -1.8614 0.9707
3.6959 6.1666 -1.8615 0.9707
3.1300 6.4720 -1.8614 0.9707
1.9277 6.9241 -1.8610 0.9707
0.6642 7.1536 -1.8602 0.9708
-1.2554 7.0666 -1.8583 0.9708
-1.8810 6.9233 -1.8576 0.9708
-2.6921 7.2674 -2.0066 0.9685
-3.3339 7.0047 -2.0086 0.9685
-3.9444 6.6754 -2.0076 0.9685
-4.5227 6.2929 -2.0065 0.9685
-5.5643 5.3815 -2.0043 0.9685
-6.0194 4.8601 -2.0031 0.9685
-6.7804 3.7068 -2.0008 0.9686
-7.0805 3.0844 -1.9996 0.9686
-7.3235 2.4380 -1.9985 0.9686
-7.5079 1.7729 -1.9974 0.9686
-7.6954 0.4079 -1.9953 0.9687
-7.6379 -0.9673 -1.9934 0.9687
-6.8050 -3.5761 -1.9904 0.9687
-6.4565 -4.1687 -1.9899 0.9687
-5.6092 -5.2492 -1.9891 0.9688
-5.1172 -5.7287 -1.9888 0.9688
-4.0155 -6.5474 -1.9887 0.9688
-2.1358 -7.3795 -1.9891 0.9688
-0.7887 -7.6452 -1.9900 0.9687
-0.1025 -7.6872 -1.9905 0.9687
0.5850 -7.6681 -1.9912 0.9687
2.6007 -7.2471 -1.9936 0.9687
5.4939 -5.4231 -1.9987 0.9686
6.3787 -4.3637 -2.0010 0.9686
7.0617 -3.1624 -2.0034 0.9685
7.3202 -2.5202 -2.0045 0.9685
7.4991 -1.8519 -2.0000 0.9686
7.0778 -1.0888 -1.8541 0.9708
7.1238 0.8284 -1.8569 0.9708
6.8684 2.0849 -1.8585 0.9708
6.3920 3.2763 -1.8597 0.9708
4.2110 3.8608 -1.4792 0.9767
4.3497 5.7240 -1.8614 0.9707
3.8210 6.0899 -1.8615 0.9707
1.2210 3.0444 -0.8493 0.9865
1.4451 7.0396 -1.8607 0.9707
-0.4731 7.1649 -1.8592 0.9708
-1.1110 7.0914 -1.8585 0.9708
-2.5400 7.3118 -2.0041 0.9685
-3.1905 7.0721 -2.0088 0.9685
-4.9440 5.9634 -2.0057 0.9685
-5.4540 5.4947 -2.0045 0.9685
-5.9197 4.9826 -2.0034 0.9685
-6.3376 4.4312 -2.0022 0.9686
-6.7042 3.8450 -2.0011 0.9686
-7.0169 3.2287 -1.9999 0.9686
-7.2732 2.5874 -1.9988 0.9686
6.1046 2.4127 -1.8583 0.9731
4.2585 3.8438 -1.6240 0.9764
4.4650 4.8211 -1.8602 0.9731
4.0167 5.2011 -1.8604 0.9731
3.5360 5.5394 -1.8604 0.9730
3.0269 5.8330 -1.8604 0.9731
1.3711 6.4247 -1.8597 0.9731
-0.3814 6.5534 -1.8584 0.9731
-1.5407 6.3765 -1.8571 0.9731
-3.4335 6.2040 -2.0073 0.9710
-3.9722 5.8696 -2.0064 0.9710
-5.3784 4.5990 -2.0033 0.9710
-5.7647 4.0979 -2.0023 0.9710
-6.1046 3.5645 -2.0012 0.9710
-6.8206 1.8152 -1.9981 0.9711
-7.0112 -0.6877 -1.9943 0.9711
-6.7716 -1.9231 -1.9928 0.9712
-6.5704 -2.5195 -1.9921 0.9712
-6.0138 -3.6467 -1.9910 0.9712
-5.6626 -4.1685 -1.9906 0.9712
-5.2666 -4.6570 -1.9902 0.9712
-4.8289 -5.1083 -1.9900 0.9712
-4.3528 -5.5189 -1.9898 0.9712
-3.8421 -5.8855 -1.9898 0.9712
-3.3010 -6.2054 -1.9898 0.9712
-2.7335 -6.4759 -1.9899 0.9712
-2.1442 -6.6949 -1.9901 0.9712
-1.5376 -6.8608 -1.9904 0.9712
-0.9187 -6.9721 -1.9908 0.9712
-0.2921 -7.0280 -1.9913 0.9712
2.1911 -6.6941 -1.9940 0.9711
2.7817 -6.4743 -1.9948 0.9711
3.8931 -5.8812 -1.9967 0.9711
4.8826 -5.0995 -1.9987 0.9711
5.7183 -4.1534 -2.0008 0.9710
6.0697 -3.6278 -2.0018 0.9710
6.6255 -2.4922 -2.0039 0.9710
6.8252 -1.8912 -2.0050 0.9710
6.6064 -1.2079 -1.9012 0.9725
5.8267 -0.0111 -1.6495 0.9761
6.5311 0.5733 -1.8560 0.9731
6.1522 2.2874 -1.8581 0.9731
5.9250 2.8288 -1.8587 0.9731
5.6500 3.3478 -1.8592 0.9731
5.3295 3.8400 -1.8596 0.9731
4.9660 4.3016 -1.8599 0.9731
4.5624 4.7288 -1.8602 0.9731
4.1220 5.1180 -1.8603 0.9731
3.6484 5.4660 -1.8604 0.9730
3.1454 5.7701 -1.8604 0.9731
2.0678 6.2368 -1.8601 0.9731
1.5021 6.3956 -1.8598 0.9731
0.3397 6.5580 -1.8590 0.9731
-1.4103 6.4072 -1.8572 0.9731
-2.7340 6.5468 -2.0085 0.9709
-4.8447 5.1644 -2.0046 0.9710
-5.2840 4.7084 -2.0036 0.9710
-6.0312 3.6889 -2.0014 0.9710
-6.3333 3.1336 -2.0004 0.9711
-6.9269 1.3398 -1.9973 0.9711
-7.0155 0.7151 -1.9963 0.9711
-7.0481 0.0854 -1.9954 0.9711
-5.7468 -4.0523 -1.9907 0.9712
-4.9323 -5.0088 -1.9900 0.9712
-4.4646 -5.4289 -1.9898 0.9712
-3.9615 -5.8059 -1.9898 0.9712
-3.4269 -6.1366 -1.9898 0.9712
-2.2803 -6.6496 -1.9901 0.9712
-1.6773 -6.8277 -1.9903 0.9712
0.1935 -7.0329 -1.9917 0.9712
0.8214 -6.9897 -1.9923 0.9712
2.0538 -6.7368 -1.9938 0.9711
4.2912 -5.6007 -1.9974 0.9711
4.7769 -5.1975 -1.9984 0.9711
5.6316 -4.2688 -2.0005 0.9710
5.9936 -3.7505 -2.0016 0.9710
6.3081 -3.2017 -2.0026 0.9710
6.5724 -2.6266 -2.0037 0.9710
6.9163 -1.4111 -1.9983 0.9711
6.5087 -0.7307 -1.8541 0.9731
5.7596 -0.1286 -1.6309 0.9763
6.4780 1.0229 -1.8566 0.9731
6.3632 1.5982 -1.8573 0.9731
6.1971 2.1611 -1.8580 0.9731
5.9811 2.7070 -1.8586 0.9731
5.4066 3.7303 -1.8595 0.9731
5.0526 4.1992 -1.8599 0.9731
4.6579 4.6345 -1.8601 0.9731
4.2256 5.0326 -1.8603 0.9731
3.7592 5.3903 -1.8604 0.9730
2.1948 6.1934 -1.8602 0.9731
0.4735 6.5501 -1.8591 0.9731
-0.6994 6.5260 -1.8580 0.9731
-1.2793 6.4352 -1.8574 0.9731
-1.8484 6.2927 -1.8567 0.9731
-3.1781 6.3403 -2.0078 0.9709
-4.7388 5.2629 -2.0048 0.9710
-5.5940 4.3309 -2.0027 0.9710
-5.9554 3.8117 -2.0017 0.9710
-6.2688 3.2626 -2.0006 0.9710
-6.5318 2.6881 -1.9996 0.9711
-6.8989 1.4811 -1.9975 0.9711
-7.0456 0.2293 -1.9956 0.9711
-6.8456 -1.6453 -1.9931 0.9712
-6.6688 -2.2495 -1.9924 0.9712
-5.8287 -3.9342 -1.9908 0.9712
-4.5746 -5.3367 -1.9899 0.9712
-2.9955 -6.3587 -1.9898 0.9712
-1.2024 -6.9281 -1.9906 0.9712
1.3020 -6.9182 -1.9929 0.9712
1.9157 -6.7767 -1.9936 0.9711
3.0938 -6.3329 -1.9953 0.9711
3.6490 -6.0339 -1.9962 0.9711
4.1755 -5.6865 -1.9972 0.9711
5.5426 -4.3823 -2.0003 0.9711
5.9151 -3.8716 -2.0013 0.9710
6.2407 -3.3294 -2.0024 0.9710
6.5166 -2.7600 -2.0035 0.9710
6.7407 -2.1678 -2.0045 0.9710
6.4917 -0.8633 -1.8539 0.9731
5.6756 -0.2428 -1.6082 0.9767
6.5477 0.3061 -1.8556 0.9731
6.4970 0.8903 -1.8564 0.9731
6.3939 1.4678 -1.8572 0.9731
6.2395 2.0340 -1.8578 0.9731
5.7813 3.1139 -1.8590 0.9731
5.1371 4.0950 -1.8598 0.9731
4.7514 4.5383 -1.8601 0.9731
3.8684 5.3124 -1.8604 0.9731
1.1625 3.0793 -0.9318 0.9864
1.7621 6.3294 -1.8600 0.9731
1.1893 6.4604 -1.8596 0.9731
0.6072 6.5394 -1.8592 0.9731
0.0205 6.5658 -1.8587 0.9731
-0.5661 6.5394 -1.8582 0.9731
-1.1477 6.4605 -1.8575 0.9731
-2.4598 6.6404 -2.0047 0.9710
-3.6066 6.1038 -2.0070 0.9710
-4.1356 5.7543 -2.0061 0.9710
-4.6308 5.3591 -2.0051 0.9710
-5.8770 3.9330 -2.0019 0.9710
-6.2016 3.3904 -2.0009 0.9710
-6.4763 2.8212 -1.9998 0.9711
-6.6990 2.2301 -1.9988 0.9711
-6.8680 1.6218 -1.9978 0.9711
-7.0402 0.3732 -1.9958 0.9711
-6.9881 -0.8850 -1.9941 0.9711
-6.8783 -1.5053 -1.9933 0.9712
-6.2268 -3.2723 -1.9913 0.9712
-5.5425 -4.3264 -1.9905 0.9712
-5.1329 -4.8035 -1.9901 0.9712
-3.1246 -6.2961 -1.9898 0.9712
-1.3436 -6.9018 -1.9905 0.9712
-0.7217 -6.9957 -1.9910 0.9712
0.5353 -7.0163 -1.9920 0.9712
1.1604 -6.9428 -1.9927 0.9712
2.9636 -6.3941 -1.9951 0.9711
3.5247 -6.1065 -1.9960 0.9711
4.0581 -5.7699 -1.9970 0.9711
4.5597 -5.3870 -1.9980 0.9711
5.0253 -4.9606 -1.9990 0.9711
6.4582 -2.8921 -2.0032 0.9710
6.6942 -2.3047 -2.0043 0.9710
6.8673 -1.6958 -2.0025 0.9710
6.5520 0.1724 -1.8555 0.9731
6.5132 0.7574 -1.8563 0.9731
6.2792 1.9060 -1.8577 0.9731
6.0858 2.4603 -1.8583 0.9731
5.8433 2.9951 -1.8589 0.9731
5.2194 3.9891 -1.8597 0.9731
4.2197 3.8689 -1.6207 0.9765
3.9761 5.2323 -1.8604 0.9731
1.2209 3.0443 -0.9285 0.9865
1.8910 6.2923 -1.8600 0.9731
1.3210 6.4351 -1.8597 0.9731
0.7406 6.5260 -1.8593 0.9731
0.1545 6.5644 -1.8589 0.9731
-0.4325 6.5501 -1.8583 0.9731
-1.0157 6.4831 -1.8577 0.9731
-1.5903 6.3641 -1.8570 0.9731
-2.3211 6.6817 -2.0024 0.9710
-4.0177 5.8382 -2.0063 0.9710
-4.9876 5.0249 -2.0043 0.9710
5.7906 1.7085 -1.8570 0.9751
5.3972 2.7135 -1.8581 0.9750
5.1344 3.1856 -1.8585 0.9750
4.8301 3.6323 -1.8589 0.9750
4.2773 3.8607 -1.7723 0.9762
3.6952 4.7848 -1.8595 0.9750
2.7846 5.3661 -1.8595 0.9750
1.7848 5.7751 -1.8592 0.9750
1.2614 5.9106 -1.8589 0.9750
0.1892 6.0382 -1.8581 0.9750
-0.3510 6.0294 -1.8576 0.9750
-0.8880 5.9721 -1.8571 0.9750
-2.0867 6.1615 -2.0009 0.9731
-3.1595 5.7088 -2.0069 0.9731
-4.1214 5.0508 -2.0051 0.9731
-4.5541 4.6602 -2.0041 0.9731
-6.1070 2.2263 -1.9993 0.9732
-6.2785 1.6709 -1.9983 0.9732
-6.3998 1.1027 -1.9974 0.9732
-6.4698 0.5263 -1.9965 0.9732
-6.3701 -1.2069 -1.9942 0.9732
-6.2347 -1.7706 -1.9935 0.9732
-5.2141 -3.8384 -1.9914 0.9733
-4.8496 -4.2882 -1.9911 0.9733
-4.4465 -4.7038 -1.9909 0.9733
-4.0081 -5.0819 -1.9908 0.9733
-3.5379 -5.4196 -1.9907 0.9733
-1.9744 -6.1648 -1.9910 0.9733
-0.8459 -6.4198 -1.9917 0.9733
-0.2689 -6.4712 -1.9921 0.9733
0.3104 -6.4710 -1.9926 0.9733
1.4581 -6.3164 -1.9939 0.9732
2.0173 -6.1630 -1.9946 0.9732
2.5609 -5.9605 -1.9954 0.9732
3.5839 -5.4141 -1.9971 0.9732
4.4944 -4.6941 -1.9989 0.9732
5.8653 -2.8278 -2.0028 0.9731
6.2810 -1.7404 -2.0047 0.9731
6.3927 -1.1689 -1.9988 0.9732
6.0024 -0.5500 -1.8539 0.9751
5.7837 -0.0110 -1.7789 0.9761
6.0094 0.5275 -1.8555 0.9751
5.8238 1.5898 -1.8568 0.9751
5.6603 2.1045 -1.8574 0.9750
5.1981 3.0799 -1.8584 0.9750
4.9031 3.5328 -1.8588 0.9750
4.5686 3.9574 -1.8591 0.9750
4.1972 4.3503 -1.8593 0.9750
3.7921 4.7083 -1.8595 0.9750
3.3563 5.0285 -1.8595 0.9750
2.4076 5.5452 -1.8594 0.9750
1.9024 5.7376 -1.8592 0.9750
1.3819 5.8838 -1.8590 0.9750
0.8505 5.9827 -1.8587 0.9750
-0.2278 6.0357 -1.8578 0.9750
-0.7659 5.9894 -1.8572 0.9750
-1.8185 5.7535 -1.8559 0.9751
-3.5446 5.4754 -2.0062 0.9731
-4.0179 5.1344 -2.0053 0.9731
-4.8629 4.3333 -2.0034 0.9731
-6.2437 1.7990 -1.9986 0.9732
-6.3765 1.2333 -1.9976 0.9732
-6.3940 -1.0766 -1.9943 0.9732
-5.6050 -3.2442 -1.9919 0.9733
-5.2917 -3.7313 -1.9915 0.9733
-4.9363 -4.1885 -1.9912 0.9733
-4.1111 -4.9991 -1.9908 0.9733
-3.6479 -5.3462 -1.9907 0.9733
-2.6382 -5.9104 -1.9908 0.9733
-2.0998 -6.1230 -1.9910 0.9733
-1.5445 -6.2870 -1.9912 0.9733
-0.9767 -6.4009 -1.9916 0.9733
-0.4010 -6.4640 -1.9920 0.9733
0.1782 -6.4756 -1.9925 0.9733
0.7563 -6.4356 -1.9931 0.9732
1.8909 -6.2024 -1.9944 0.9732
2.9670 -5.7714 -1.9960 0.9732
3.9503 -5.1557 -1.9977 0.9732
4.3972 -4.7844 -1.9987 0.9732
6.0487 -2.4173 -2.0035 0.9731
6.2435 -1.8681 -2.0045 0.9731
5.9893 -0.6724 -1.8538 0.9751
6.0184 0.4047 -1.8553 0.9751
5.9605 0.9412 -1.8560 0.9751
5.8546 1.4705 -1.8567 0.9751
5.5028 2.4906 -1.8578 0.9750
5.2596 2.9730 -1.8583 0.9750
4.6483 3.8632 -1.8590 0.9750
3.4583 4.9589 -1.8595 0.9750
2.5204 5.4950 -1.8594 0.9750
0.9725 5.9644 -1.8587 0.9750
0.4356 6.0261 -1.8583 0.9750
-0.1045 6.0394 -1.8579 0.9750
-0.6435 6.0042 -1.8573 0.9750
-1.7007 5.7899 -1.8561 0.9751
-2.3897 6.0678 -2.0058 0.9731
-4.7740 4.4321 -2.0036 0.9731
-6.3507 1.3634 -1.9978 0.9732
-6.4442 0.7902 -1.9969 0.9732
-6.4862 0.2111 -1.9961 0.9732
-6.3027 -1.5148 -1.9938 0.9732
-5.9288 -2.6108 -1.9926 0.9733
-5.3670 -3.6226 -1.9916 0.9733
-5.0209 -4.0869 -1.9913 0.9733
-3.7563 -5.2706 -1.9907 0.9733
-3.2703 -5.5851 -1.9907 0.9733
-2.2243 -6.0787 -1.9909 0.9733
-1.1072 -6.3794 -1.9915 0.9733
0.6247 -6.4493 -1.9929 0.9732
1.1988 -6.3697 -1.9936 0.9732
2.3150 -6.0589 -1.9950 0.9732
3.8438 -5.2347 -1.9975 0.9732
4.2981 -4.8726 -1.9985 0.9732
5.1016 -4.0337 -2.0004 0.9731
5.9974 -2.5401 -2.0033 0.9731
6.2034 -1.9950 -2.0043 0.9731
5.9737 -0.7945 -1.8536 0.9751
5.6587 -0.2420 -1.7421 0.9766
6.0249 0.2817 -1.8551 0.9751
5.7407 1.8714 -1.8572 0.9750
5.3189 2.8649 -1.8582 0.9750
5.0428 3.3294 -1.8586 0.9750
4.2573 4.0664 -1.8108 0.9757
3.9810 4.5494 -1.8594 0.9750
3.1079 5.1857 -1.8595 0.9750
2.6321 5.4425 -1.8595 0.9750
-0.5208 6.0165 -1.8575 0.9750
-1.0560 5.9441 -1.8569 0.9751
-1.5823 5.8239 -1.8563 0.9751
-3.3188 5.6167 -2.0066 0.9731
-3.8057 5.2953 -2.0057 0.9731
-4.2616 4.9318 -2.0048 0.9731
-4.6830 4.5292 -2.0038 0.9731
-5.0665 4.0907 -2.0029 0.9731
-5.9612 2.5968 -1.9999 0.9732
-6.4274 0.9217 -1.9971 0.9732
-6.4833 -0.2368 -1.9954 0.9732
-6.4337 -0.8148 -1.9947 0.9732
-6.3328 -1.3859 -1.9939 0.9732
-5.9813 -2.4893 -1.9927 0.9733
-5.7334 -3.0130 -1.9922 0.9733
-5.4401 -3.5124 -1.9917 0.9733
-5.1035 -3.9837 -1.9913 0.9733
-3.8631 -5.1929 -1.9907 0.9733
-3.3837 -5.5172 -1.9907 0.9733
-2.8772 -5.7976 -1.9907 0.9733
-2.3479 -6.0319 -1.9909 0.9733
0.4928 -6.4602 -1.9928 0.9733
1.0684 -6.3923 -1.9934 0.9732
3.2448 -5.6217 -1.9965 0.9732
6.1607 -2.1210 -2.0040 0.9731
6.3273 -1.5625 -2.0046 0.9731
5.7511 -0.3638 -1.7725 0.9762
6.0288 0.1586 -1.8550 0.9751
5.7772 1.7537 -1.8570 0.9750
5.5992 2.2635 -1.8576 0.9750
4.2304 3.8786 -1.7653 0.9763
3.6578 4.8135 -1.8595 0.9750
3.2132 5.1212 -1.8595 0.9750
1.2208 3.0442 -1.0088 0.9864
1.2153 5.9202 -1.8589 0.9750
0.6814 6.0039 -1.8585 0.9750
0.1422 6.0394 -1.8581 0.9750
-0.3979 6.0263 -1.8576 0.9750
-0.9345 5.9648 -1.8570 0.9750
-3.6972 5.3725 -2.0059 0.9731
-4.9825 4.1937 -2.0031 0.9731
-5.3347 3.7300 -2.0021 0.9731
-5.6438 3.2368 -2.0011 0.9731
-5.9076 2.7183 -2.0002 0.9732
-6.1239 2.1785 -1.9992 0.9732
5.3564 1.5805 -1.8564 0.9767
5.1953 2.0533 -1.8569 0.9767
4.9923 2.5099 -1.8574 0.9767
4.7491 2.9466 -1.8578 0.9767
4.1502 3.7460 -1.8584 0.9767
3.7993 4.1023 -1.8586 0.9767
3.0088 4.7134 -1.8588 0.9767
1.2482 3.0434 -1.0934 0.9862
1.6508 5.3417 -1.8585 0.9767
0.6735 5.5484 -1.8579 0.9767
-0.3246 5.5772 -1.8570 0.9767
-0.8214 5.5243 -1.8565 0.9767
-1.3113 5.4272 -1.8559 0.9767
-1.9308 5.7011 -2.0008 0.9749
-2.4403 5.5235 -2.0073 0.9749
-2.9229 5.2814 -2.0065 0.9749
-4.9093 3.4898 -2.0022 0.9749
-5.4471 2.5580 -2.0004 0.9750
-5.6513 2.0602 -1.9995 0.9750
-5.9743 -0.5860 -1.9954 0.9750
-5.8960 -1.1170 -1.9947 0.9750
-5.1256 -3.1082 -1.9926 0.9750
-4.1160 -4.3542 -1.9917 0.9751
-2.8137 -5.2894 -1.9915 0.9751
-0.2490 -5.9900 -1.9928 0.9750
0.2873 -5.9897 -1.9933 0.9750
1.8671 -5.7042 -1.9951 0.9750
2.3702 -5.5166 -1.9958 0.9750
3.3168 -5.0106 -1.9974 0.9750
4.1592 -4.3439 -1.9991 0.9750
4.8702 -3.5375 -2.0009 0.9749
5.4270 -2.6165 -2.0027 0.9749
5.6416 -2.1221 -2.0036 0.9749
5.5531 -0.5088 -1.8536 0.9768
5.5785 -0.0107 -1.8543 0.9768
5.4953 0.9831 -1.8557 0.9767
5.2358 1.9467 -1.8568 0.9767
4.8081 2.8489 -1.8577 0.9767
4.5352 3.2677 -1.8581 0.9767
3.5074 4.3549 -1.8587 0.9767
3.1044 4.6510 -1.8588 0.9767
0.7867 5.5338 -1.8580 0.9767
0.2891 5.5808 -1.8576 0.9767
-0.2107 5.5830 -1.8571 0.9767
-1.2003 5.4532 -1.8561 0.9767
-1.6822 5.3224 -1.8555 0.9767
-2.3270 5.5723 -2.0073 0.9749
-2.8147 5.3404 -2.0067 0.9749
-3.2793 5.0655 -2.0059 0.9749
-3.7172 4.7503 -2.0050 0.9749
-4.1250 4.3973 -2.0042 0.9749
-4.4994 4.0093 -2.0033 0.9749
-5.1365 3.1417 -2.0015 0.9749
-5.3943 2.6689 -2.0006 0.9750
-5.6087 2.1753 -1.9997 0.9750
-5.7780 1.6648 -1.9988 0.9750
-5.9012 1.1414 -1.9979 0.9750
-5.9771 0.6093 -1.9971 0.9750
-5.9180 -0.9965 -1.9949 0.9750
-5.6427 -2.0326 -1.9936 0.9750
-5.4371 -2.5280 -1.9931 0.9750
-5.1883 -3.0030 -1.9927 0.9750
-3.8056 -4.6276 -1.9916 0.9751
-3.3768 -4.9489 -1.9915 0.9751
-2.9211 -5.2308 -1.9915 0.9751
-1.9437 -5.6679 -1.9918 0.9751
-0.9041 -5.9251 -1.9923 0.9751
0.1649 -5.9939 -1.9932 0.9750
1.2298 -5.8722 -1.9943 0.9750
1.7501 -5.7407 -1.9950 0.9750
2.2569 -5.5633 -1.9957 0.9750
4.0692 -4.4275 -1.9989 0.9750
4.4505 -4.0480 -1.9998 0.9750
4.7965 -3.6358 -2.0007 0.9749
5.3719 -2.7265 -2.0025 0.9749
5.5965 -2.2366 -2.0034 0.9749
5.7765 -1.7284 -2.0043 0.9749
5.9038 -1.2045 -2.0029 0.9749
5.5676 0.3744 -1.8549 0.9768
5.5138 0.8706 -1.8555 0.9767
5.0901 2.3038 -1.8572 0.9767
4.8650 2.7500 -1.8576 0.9767
4.2994 3.5732 -1.8583 0.9767
3.5955 4.2823 -1.8587 0.9767
3.1987 4.5866 -1.8588 0.9767
2.3312 5.0825 -1.8587 0.9767
1.1126 3.1396 -1.1072 0.9861
1.3891 5.4152 -1.8583 0.9767
-0.5953 5.5540 -1.8568 0.9767
-1.0888 5.4770 -1.8562 0.9767
-1.5733 5.3560 -1.8556 0.9767
-2.2107 5.6133 -2.0054 0.9749
-2.7053 5.3973 -2.0068 0.9749
-4.0348 4.4810 -2.0044 0.9749
-4.7637 3.6881 -2.0026 0.9749
-5.3392 2.7788 -2.0008 0.9749
-5.5636 2.2896 -1.9999 0.9750
-5.7434 1.7826 -1.9990 0.9750
-5.9639 0.7313 -1.9973 0.9750
-5.9376 -0.8755 -1.9950 0.9750
-5.8337 -1.4021 -1.9944 0.9750
-5.2488 -2.8966 -1.9928 0.9750
-4.9680 -3.3533 -1.9924 0.9751
-4.6477 -3.7831 -1.9920 0.9751
-3.8993 -4.5490 -1.9916 0.9751
-2.0590 -5.6269 -1.9917 0.9751
-1.0249 -5.9051 -1.9922 0.9751
-0.4933 -5.9742 -1.9926 0.9750
1.6324 -5.7748 -1.9948 0.9750
2.6361 -5.3959 -1.9962 0.9750
3.1089 -5.1408 -1.9970 0.9750
3.9776 -4.5092 -1.9987 0.9750
5.5491 -2.3502 -2.0032 0.9749
5.7395 -1.8458 -2.0041 0.9749
5.8832 -1.3260 -2.0047 0.9749
5.5736 0.2606 -1.8547 0.9768
5.5300 0.7578 -1.8554 0.9767
5.4420 1.2493 -1.8560 0.9767
5.3102 1.7311 -1.8566 0.9767
5.1357 2.1992 -1.8571 0.9767
4.9199 2.6499 -1.8575 0.9767
4.6644 3.0796 -1.8579 0.9767
4.0431 3.8617 -1.8585 0.9767
3.6822 4.2079 -1.8586 0.9767
2.4345 5.0339 -1.8587 0.9767
1.1624 3.0789 -1.0940 0.9862
0.5167 5.5649 -1.8578 0.9767
0.0174 5.5876 -1.8573 0.9767
-0.4818 5.5653 -1.8569 0.9767
-2.0936 5.6518 -2.0035 0.9749
-2.5948 5.4519 -2.0070 0.9749
-3.0704 5.1962 -2.0062 0.9749
-3.5209 4.8990 -2.0054 0.9749
-3.9428 4.5629 -2.0046 0.9749
-4.6879 3.7850 -2.0028 0.9749
-5.0050 3.3494 -2.0019 0.9749
-5.5163 2.4030 -2.0001 0.9750
-5.8508 1.3816 -1.9983 0.9750
-5.9483 0.8530 -1.9975 0.9750
-5.9983 0.3179 -1.9967 0.9750
-5.8615 -1.2828 -1.9945 0.9750
-5.7217 -1.8008 -1.9939 0.9750
-5.3071 -2.7889 -1.9929 0.9750
-5.0356 -3.2513 -1.9924 0.9751
-4.7241 -3.6876 -1.9921 0.9751
-4.3752 -4.0944 -1.9918 0.9751
-3.5761 -4.8070 -1.9915 0.9751
-3.1322 -5.1072 -1.9915 0.9751
-2.6634 -5.3668 -1.9915 0.9751
-2.1734 -5.5836 -1.9917 0.9751
-0.6151 -5.9626 -1.9925 0.9750
1.5141 -5.8065 -1.9946 0.9750
2.5251 -5.4482 -1.9961 0.9750
3.0030 -5.2028 -1.9968 0.9750
4.2806 -4.2255 -1.9994 0.9750
4.6431 -3.8278 -2.0003 0.9750
4.9688 -3.3992 -2.0012 0.9749
5.2550 -2.9429 -2.0021 0.9749
5.9429 -0.9142 -1.9987 0.9750
5.5772 0.1467 -1.8546 0.9768
5.5439 0.6447 -1.8552 0.9767
5.4660 1.1378 -1.8559 0.9767
5.3441 1.6222 -1.8564 0.9767
5.1793 2.0938 -1.8570 0.9767
4.9727 2.5488 -1.8574 0.9767
4.1209 3.7783 -1.8584 0.9767
3.7672 4.1318 -1.8586 0.9767
3.3832 4.4521 -1.8587 0.9767
2.5368 4.9832 -1.8587 0.9767
1.2208 3.0440 -1.0902 0.9863
0.6303 5.5534 -1.8578 0.9767
0.1315 5.5863 -1.8574 0.9767
-0.8644 5.5176 -1.8565 0.9767
-1.3535 5.4166 -1.8559 0.9767
-1.9759 5.6880 -2.0015 0.9749
-2.9639 5.2583 -2.0064 0.9749
-3.4205 4.9704 -2.0056 0.9749
-3.8492 4.6429 -2.0047 0.9749
-4.6101 3.8803 -2.0030 0.9749
-4.9361 3.4513 -2.0021 0.9749
-5.2224 2.9951 -2.0012 0.9749
-5.4666 2.5154 -2.0003 0.9750
4.9776 1.4687 -1.8559 0.9782
4.8278 1.9081 -1.8564 0.9782
4.6391 2.3323 -1.8568 0.9782
3.1758 4.1123 -1.8581 0.9782
1.2272 2.9924 -1.1566 0.9864
1.5339 4.9635 -1.8578 0.9782
1.0842 5.0801 -1.8576 0.9782
-0.3017 5.1826 -1.8565 0.9782
-1.2186 5.0434 -1.8555 0.9782
-1.7949 5.3000 -2.0011 0.9765
-2.2679 5.1333 -2.0069 0.9764
-3.9163 4.0075 -2.0038 0.9765
-4.5632 3.2438 -2.0021 0.9765
-4.8327 2.8219 -2.0013 0.9765
-5.4014 1.4375 -1.9988 0.9765
-5.5060 0.9488 -1.9980 0.9765
-5.5666 0.4528 -1.9972 0.9766
-5.5544 -0.5448 -1.9958 0.9766
-5.3655 -1.5237 -1.9946 0.9766
-5.2065 -1.9965 -1.9941 0.9766
-5.0061 -2.4531 -1.9936 0.9766
-3.8273 -4.0488 -1.9924 0.9766
-2.1665 -5.1327 -1.9923 0.9766
-0.7281 -5.5255 -1.9930 0.9766
0.2671 -5.5692 -1.9939 0.9766
0.7639 -5.5245 -1.9944 0.9766
1.2548 -5.4356 -1.9949 0.9766
2.2036 -5.1288 -1.9962 0.9766
2.6540 -4.9132 -1.9969 0.9766
3.4887 -4.3657 -1.9985 0.9765
3.8664 -4.0381 -1.9993 0.9765
4.2135 -3.6781 -2.0001 0.9765
4.5271 -3.2882 -2.0009 0.9765
4.8048 -2.8718 -2.0018 0.9765
5.0443 -2.4320 -2.0026 0.9765
5.1844 -0.0099 -1.8540 0.9782
5.1663 0.4535 -1.8546 0.9782
5.1068 0.9136 -1.8552 0.9782
5.0062 1.3667 -1.8558 0.9782
3.9266 3.4013 -1.8577 0.9782
3.2591 4.0465 -1.8580 0.9782
1.2841 2.9575 -1.1530 0.9864
1.6350 4.9313 -1.8579 0.9782
0.7310 5.1421 -1.8573 0.9782
0.2686 5.1859 -1.8570 0.9782
-0.1958 5.1880 -1.8566 0.9782
-3.0478 4.7079 -2.0056 0.9765
-3.4549 4.4150 -2.0048 0.9765
-3.8340 4.0870 -2.0040 0.9765
-4.1821 3.7266 -2.0031 0.9765
-4.4965 3.3366 -2.0023 0.9765
-5.2137 2.0222 -1.9998 0.9765
-5.3714 1.5476 -1.9990 0.9765
-5.5831 0.0677 -1.9967 0.9766
-5.5648 -0.4313 -1.9960 0.9766
-5.5022 -0.9265 -1.9953 0.9766
-5.3958 -1.4140 -1.9947 0.9766
-5.0554 -2.3505 -1.9937 0.9766
-4.8241 -2.7922 -1.9933 0.9766
-3.5386 -4.3030 -1.9923 0.9766
-2.7162 -4.8639 -1.9922 0.9766
-2.2708 -5.0874 -1.9923 0.9766
-0.3452 -5.5634 -1.9933 0.9766
0.1534 -5.5732 -1.9938 0.9766
0.6509 -5.5386 -1.9943 0.9766
2.5529 -4.9659 -1.9968 0.9766
2.9875 -4.7197 -1.9975 0.9766
4.7448 -2.9690 -2.0016 0.9765
4.9931 -2.5343 -2.0024 0.9765
5.2018 -2.0789 -2.0032 0.9765
5.3689 -1.6064 -2.0041 0.9765
5.5007 -0.6175 -1.9794 0.9768
5.1827 -0.1157 -1.8538 0.9782
5.1741 0.3479 -1.8545 0.9782
5.1240 0.8091 -1.8551 0.9782
4.9011 1.7092 -1.8562 0.9782
4.5207 2.5554 -1.8570 0.9782
4.2751 2.9496 -1.8574 0.9782
3.6828 3.6644 -1.8579 0.9782
3.3410 3.9791 -1.8580 0.9782
2.9722 4.2619 -1.8581 0.9782
2.5795 4.5104 -1.8581 0.9782
2.1661 4.7227 -1.8580 0.9782
0.8359 5.1263 -1.8574 0.9782
-2.0548 5.2175 -2.0053 0.9765
-2.5142 5.0160 -2.0065 0.9764
-2.9512 4.7695 -2.0057 0.9765
-4.1055 3.8115 -2.0033 0.9765
-4.4278 3.4280 -2.0025 0.9765
-4.9631 2.5831 -2.0008 0.9765
-5.1719 2.1284 -2.0000 0.9765
-5.5810 0.1817 -1.9968 0.9766
-5.5729 -0.3176 -1.9961 0.9766
-5.5204 -0.8140 -1.9955 0.9766
-5.1026 -2.2469 -1.9938 0.9766
-3.2332 -4.5367 -1.9922 0.9766
-2.8150 -4.8074 -1.9922 0.9766
-2.3742 -5.0399 -1.9923 0.9766
-1.9145 -5.2322 -1.9924 0.9766
0.5376 -5.5504 -1.9941 0.9766
1.0317 -5.4816 -1.9947 0.9766
1.5178 -5.3691 -1.9953 0.9766
1.9921 -5.2137 -1.9959 0.9766
2.4508 -5.0166 -1.9966 0.9766
2.8902 -4.7793 -1.9973 0.9766
3.3070 -4.5037 -1.9981 0.9765
4.0590 -3.8463 -1.9997 0.9765
4.6827 -3.0650 -2.0014 0.9765
5.4687 -1.2326 -2.0047 0.9765
5.5418 -0.7370 -1.9992 0.9765
5.1797 0.2422 -1.8543 0.9782
4.9346 1.6086 -1.8561 0.9782
4.7724 2.0436 -1.8565 0.9782
4.5717 2.4624 -1.8570 0.9782
1.1436 3.0291 -1.1578 0.9863
1.3933 5.0046 -1.8577 0.9782
-0.4477 5.1717 -1.8563 0.9782
-0.9077 5.1096 -1.8558 0.9782
-1.9461 5.2537 -2.0035 0.9765
-4.0272 3.8949 -2.0035 0.9765
-4.3573 3.5181 -2.0027 0.9765
-4.6523 3.1134 -2.0019 0.9765
-5.1278 2.2338 -2.0002 0.9765
-5.4391 1.2844 -1.9985 0.9765
-5.5299 0.7930 -1.9978 0.9765
-5.5787 -0.2038 -1.9963 0.9766
-5.3199 -1.6743 -1.9944 0.9766
-5.1477 -2.1424 -1.9939 0.9766
-4.9346 -2.5932 -1.9935 0.9766
-3.7115 -4.1550 -1.9923 0.9766
-3.3252 -4.4698 -1.9922 0.9766
-2.9125 -4.7490 -1.9922 0.9766
-2.4766 -4.9903 -1.9922 0.9766
-2.0209 -5.1919 -1.9924 0.9766
-0.5720 -5.5442 -1.9932 0.9766
0.4242 -5.5599 -1.9940 0.9766
1.8850 -5.2529 -1.9958 0.9766
3.2141 -4.5699 -1.9979 0.9765
3.9793 -3.9280 -1.9995 0.9765
4.3161 -3.5582 -2.0004 0.9765
5.1832 0.1364 -1.8542 0.9782
5.1520 0.5991 -1.8548 0.9782
4.9661 1.5075 -1.8559 0.9782
4.6208 2.3684 -1.8569 0.9782
4.3916 2.7724 -1.8572 0.9782
4.1270 3.1542 -1.8575 0.9782
3.1437 4.1369 -1.8581 0.9782
2.3572 4.6304 -1.8581 0.9782
1.4952 4.9752 -1.8578 0.9782
0.5856 5.1604 -1.8572 0.9782
-0.8033 5.1274 -1.8560 0.9782
-1.2578 5.0337 -1.8554 0.9782
-2.3077 5.1153 -2.0068 0.9764
-2.7546 4.8869 -2.0061 0.9765
-3.5776 4.3152 -2.0045 0.9765
-3.9472 3.9767 -2.0037 0.9765
-4.2850 3.6066 -2.0029 0.9765
-4.5882 3.2080 -2.0020 0.9765
-4.8544 2.7841 -2.0012 0.9765
4.6439 1.3702 -1.8555 0.9795
4.5040 1.7801 -1.8559 0.9795
4.1169 2.5543 -1.8567 0.9795
3.5976 3.2472 -1.8572 0.9795
2.9626 3.8362 -1.8575 0.9795
2.6081 4.0857 -1.8575 0.9795
2.2326 4.3023 -1.8575 0.9795
1.2130 2.9576 -1.2250 0.9864
1.4310 4.6304 -1.8572 0.9795
0.5839 4.8098 -1.8567 0.9795
-0.7121 4.7894 -1.8556 0.9795
-1.1369 4.7053 -1.8551 0.9795
-2.1159 4.7894 -2.0065 0.9778
-2.5345 4.5796 -2.0058 0.9778
-3.3068 4.0525 -2.0044 0.9778
-3.6543 3.7394 -2.0036 0.9779
-3.9722 3.3966 -2.0029 0.9779
-4.2582 3.0270 -2.0021 0.9779
-4.5098 2.6333 -2.0013 0.9779
-4.7252 2.2190 -2.0005 0.9779
-4.9027 1.7872 -1.9997 0.9779
-5.0409 1.3415 -1.9990 0.9779
-5.1387 0.8855 -1.9982 0.9779
-5.1954 0.4226 -1.9975 0.9779
-5.0081 -1.4222 -1.9951 0.9779
-4.8598 -1.8635 -1.9946 0.9780
-4.4486 -2.6976 -1.9938 0.9780
-3.8964 -3.4454 -1.9932 0.9780
-3.5726 -3.7794 -1.9930 0.9780
-1.5863 -4.9531 -1.9931 0.9780
-1.1376 -5.0756 -1.9933 0.9780
-0.2161 -5.1987 -1.9940 0.9780
0.2493 -5.1983 -1.9944 0.9780
1.1712 -5.0735 -1.9954 0.9779
2.8778 -4.3474 -1.9979 0.9779
3.6083 -3.7686 -1.9994 0.9779
3.9321 -3.4324 -2.0002 0.9779
4.7071 -2.2694 -2.0025 0.9779
4.8929 -1.8405 -2.0033 0.9779
5.0397 -1.3965 -2.0041 0.9778
4.8201 0.4231 -1.8543 0.9795
4.6706 1.2750 -1.8554 0.9795
3.6630 3.1730 -1.8572 0.9795
2.3199 4.2559 -1.8575 0.9795
1.2716 2.9288 -1.2236 0.9864
1.1080 4.7176 -1.8571 0.9795
0.6820 4.7971 -1.8568 0.9795
0.2506 4.8380 -1.8565 0.9795
-0.1827 4.8400 -1.8561 0.9795
-1.0407 4.7279 -1.8552 0.9795
-1.5728 4.9761 -1.9999 0.9779
-2.0179 4.8319 -2.0067 0.9778
-2.4407 4.6308 -2.0060 0.9778
-3.2236 4.1195 -2.0046 0.9778
-4.1958 3.1135 -2.0023 0.9779
-4.4555 2.7251 -2.0015 0.9779
-4.8656 1.8871 -1.9999 0.9779
-5.1199 0.9903 -1.9984 0.9779
-5.1861 0.5287 -1.9977 0.9779
-5.2108 0.0632 -1.9970 0.9779
-5.1939 -0.4025 -1.9964 0.9779
-5.0364 -1.3198 -1.9952 0.9779
-4.5030 -2.6064 -1.9938 0.9780
-4.2514 -2.9978 -1.9935 0.9780
-3.9660 -3.3652 -1.9932 0.9780
-3.6491 -3.7057 -1.9930 0.9780
-3.3032 -4.0167 -1.9929 0.9780
-2.5355 -4.5403 -1.9928 0.9780
-0.3222 -5.1930 -1.9939 0.9780
0.1431 -5.2021 -1.9943 0.9780
1.5187 -4.9817 -1.9958 0.9779
1.9584 -4.8276 -1.9964 0.9779
2.3827 -4.6348 -1.9971 0.9779
3.1718 -4.1396 -1.9985 0.9779
4.1608 -3.1539 -2.0008 0.9779
4.4277 -2.7706 -2.0016 0.9779
4.6593 -2.3648 -2.0024 0.9779
5.0097 -1.4990 -2.0039 0.9778
5.1857 -0.5822 -1.9997 0.9779
4.8355 -0.1080 -1.8535 0.9795
4.6954 1.1793 -1.8552 0.9795
4.4127 1.9972 -1.8562 0.9795
4.2174 2.3839 -1.8565 0.9795
3.9882 2.7517 -1.8568 0.9795
2.7727 3.9758 -1.8575 0.9795
2.4064 4.2076 -1.8575 0.9795
0.3493 4.8321 -1.8566 0.9795
-0.5161 4.8150 -1.8558 0.9795
-0.9440 4.7484 -1.8553 0.9795
-1.3904 4.7333 -1.8905 0.9791
-1.9177 4.8693 -2.0055 0.9778
-2.7536 4.4501 -2.0055 0.9778
-3.4992 3.8861 -2.0040 0.9778
-3.8309 3.5566 -2.0032 0.9779
-4.1318 3.1988 -2.0024 0.9779
-4.6315 2.4105 -2.0009 0.9779
-4.9827 1.5465 -1.9993 0.9779
-5.1746 0.6345 -1.9979 0.9779
-5.2088 0.1695 -1.9972 0.9779
-5.2014 -0.2964 -1.9965 0.9779
-5.1525 -0.7597 -1.9959 0.9779
-4.9323 -1.6638 -1.9948 0.9779
-4.7628 -2.0973 -1.9943 0.9780
-4.3119 -2.9104 -1.9936 0.9780
-3.7241 -3.6305 -1.9931 0.9780
-3.3846 -3.9484 -1.9929 0.9780
-1.3437 -5.0247 -1.9932 0.9780
1.8593 -4.8662 -1.9963 0.9779
2.6975 -4.4605 -1.9976 0.9779
3.7880 -3.5895 -1.9998 0.9779
4.3698 -2.8602 -2.0014 0.9779
4.8128 -2.0383 -2.0030 0.9779
4.9776 -1.6008 -2.0037 0.9779
5.1766 -0.6884 -2.0012 0.9779
4.8320 -0.2067 -1.8534 0.9795
4.7182 1.0831 -1.8551 0.9795
4.4523 1.9066 -1.8561 0.9795
4.2650 2.2972 -1.8564 0.9795
4.0434 2.6696 -1.8568 0.9795
3.7893 3.0206 -1.8571 0.9795
3.5047 3.3475 -1.8573 0.9795
3.1918 3.6476 -1.8574 0.9795
2.8533 3.9183 -1.8575 0.9795
2.4918 4.1576 -1.8575 0.9795
2.1103 4.3635 -1.8575 0.9795
1.1330 3.0011 -1.2293 0.9864
1.2998 4.6687 -1.8572 0.9795
0.4479 4.8241 -1.8566 0.9795
-0.8469 4.7670 -1.8554 0.9795
-1.2691 4.6710 -1.8549 0.9795
-1.8163 4.9034 -2.0038 0.9778
-2.6624 4.5058 -2.0056 0.9778
-4.7853 2.0846 -2.0003 0.9779
-4.9506 1.6480 -1.9995 0.9779
-5.1610 0.7401 -1.9980 0.9779
-5.2047 0.2759 -1.9973 0.9779
-5.2068 -0.1902 -1.9967 0.9779
-5.0867 -1.1132 -1.9954 0.9779
-4.9656 -1.5628 -1.9949 0.9779
-4.8049 -1.9998 -1.9944 0.9780
-2.3118 -4.6582 -1.9929 0.9780
-0.5339 -5.1751 -1.9937 0.9780
0.8582 -5.1347 -1.9950 0.9779
1.3139 -5.0389 -1.9956 0.9779
2.1911 -4.7275 -1.9968 0.9779
2.6056 -4.5143 -1.9975 0.9779
2.9996 -4.2650 -1.9982 0.9779
3.3699 -3.9814 -1.9989 0.9779
3.7136 -3.6657 -1.9997 0.9779
4.0278 -3.3205 -2.0004 0.9779
4.7698 -2.1360 -2.0028 0.9779
5.1653 -0.7946 -2.0027 0.9779
4.8359 0.1272 -1.8539 0.9795
4.8068 0.5590 -1.8545 0.9795
4.6332 1.4064 -1.8555 0.9795
4.4901 1.8152 -1.8560 0.9795
4.0970 2.5864 -1.8567 0.9795
3.2656 3.5816 -1.8574 0.9795
2.9327 3.8592 -1.8575 0.9795
2.1990 4.3196 -1.8575 0.9795
1.1909 2.9696 -1.2261 0.9864
1.3948 4.6413 -1.8572 0.9795
0.9744 4.7468 -1.8570 0.9795
0.5464 4.8142 -1.8567 0.9795
0.1140 4.8428 -1.8564 0.9795
-0.3191 4.8326 -1.8560 0.9795
-1.1735 4.6962 -1.8550 0.9795
-1.7144 4.9354 -2.0022 0.9779
-2.1531 4.7726 -2.0064 0.9778
-2.5701 4.5596 -2.0058 0.9778
-3.6832 3.7107 -2.0036 0.9779
-3.9984 3.3655 -2.0028 0.9779
-4.2815 2.9936 -2.0020 0.9779
-4.5300 2.5980 -2.0012 0.9779
-4.7422 2.1820 -2.0004 0.9779
-4.9163 1.7489 -1.9997 0.9779
4.2163 1.6664 -1.8555 0.9806
3.8538 2.3911 -1.8562 0.9806
3.6253 2.7263 -1.8565 0.9806
3.3676 3.0397 -1.8567 0.9806
2.7732 3.5910 -1.8570 0.9806
1.3395 4.3344 -1.8567 0.9806
0.9468 4.4362 -1.8565 0.9806
-0.2635 4.5262 -1.8556 0.9806
-0.6667 4.4835 -1.8552 0.9806
-1.5693 4.6337 -2.0023 0.9791
-1.9809 4.4837 -2.0062 0.9790
-2.3728 4.2875 -2.0056 0.9790
-2.7455 4.0570 -2.0049 0.9791
-3.0960 3.7941 -2.0042 0.9791
-4.5908 1.6735 -1.9999 0.9791
-4.7203 1.2562 -1.9991 0.9791
-2.1378 0.3684 -0.8879 0.9907
-1.9563 0.1591 -0.8033 0.9916
-1.9064 -0.0158 -0.7803 0.9918
-3.9235 -2.8883 -1.9940 0.9792
-3.3461 -3.5397 -1.9935 0.9792
-3.0162 -3.8243 -1.9934 0.9792
-2.6624 -4.0784 -1.9934 0.9792
-2.2874 -4.3000 -1.9934 0.9792
-1.0654 -4.7537 -1.9938 0.9792
-0.6365 -4.8306 -1.9941 0.9792
-0.2024 -4.8689 -1.9945 0.9792
1.0968 -4.7514 -1.9958 0.9791
1.9261 -4.4829 -1.9969 0.9791
2.6949 -4.0711 -1.9982 0.9791
3.0489 -3.8153 -1.9989 0.9791
4.1982 -2.5092 -2.0017 0.9791
4.5811 -1.7232 -2.0032 0.9791
4.8181 -0.8810 -2.0046 0.9791
4.8668 -0.4460 -2.0002 0.9791
4.5285 -0.0086 -1.8534 0.9806
4.2492 1.5799 -1.8554 0.9806
4.0919 1.9536 -1.8558 0.9806
3.6801 2.6516 -1.8564 0.9806
3.4289 2.9702 -1.8567 0.9806
3.1501 3.2650 -1.8568 0.9806
2.5189 3.7738 -1.8570 0.9806
1.2668 2.9177 -1.3018 0.9863
1.0162 3.0648 -1.3215 0.9861
-0.1710 4.5308 -1.8557 0.9806
-0.5750 4.4964 -1.8553 0.9806
-1.4732 4.6613 -2.0008 0.9791
-1.8891 4.5235 -2.0063 0.9790
-2.2850 4.3353 -2.0057 0.9790
-2.6623 4.1125 -2.0051 0.9790
-3.3495 3.5705 -2.0037 0.9791
-4.1719 2.5516 -2.0015 0.9791
-4.3815 2.1679 -2.0007 0.9791
-4.5561 1.7671 -2.0000 0.9791
-4.7944 0.9273 -1.9986 0.9791
-4.4194 -2.0548 -1.9947 0.9792
-4.2173 -2.4410 -1.9943 0.9792
-3.7145 -3.1518 -1.9938 0.9792
-3.0937 -3.7620 -1.9934 0.9792
-2.7451 -4.0232 -1.9934 0.9792
-2.3747 -4.2524 -1.9934 0.9792
-1.9853 -4.4477 -1.9935 0.9792
-0.7350 -4.8164 -1.9941 0.9792
-0.3017 -4.8636 -1.9944 0.9792
0.1341 -4.8720 -1.9947 0.9792
2.6110 -4.1249 -1.9980 0.9791
3.3058 -3.5968 -1.9994 0.9791
4.1458 -2.5942 -2.0016 0.9791
4.3626 -2.2142 -2.0023 0.9791
4.5446 -1.8162 -2.0030 0.9791
4.6904 -1.4034 -2.0038 0.9791
4.7987 -0.9791 -2.0045 0.9791
4.8601 -0.5456 -2.0016 0.9791
4.6004 -0.1027 -1.8833 0.9803
4.5193 0.3039 -1.8538 0.9806
4.4754 0.7067 -1.8544 0.9806
4.3955 1.1040 -1.8549 0.9806
4.2804 1.4927 -1.8553 0.9806
3.9479 2.2316 -1.8561 0.9806
3.2160 3.1999 -1.8568 0.9806
2.9175 3.4747 -1.8569 0.9806
2.5954 3.7216 -1.8570 0.9806
1.3770 3.0022 -1.3518 0.9858
1.0712 3.0227 -1.3125 0.9862
1.1272 4.3941 -1.8566 0.9806
0.7300 4.4767 -1.8564 0.9806
-0.0784 4.5336 -1.8558 0.9806
-0.8837 4.4452 -1.8549 0.9806
-2.1962 4.3814 -2.0059 0.9790
-2.9390 3.9180 -2.0045 0.9791
-3.8686 2.9951 -2.0024 0.9791
-4.5194 1.8599 -2.0002 0.9791
-4.7749 1.0251 -1.9988 0.9791
-1.9430 -0.2865 -0.8038 0.9915
-4.6193 -1.5582 -1.9952 0.9792
-4.4606 -1.9642 -1.9948 0.9792
-4.2665 -2.3545 -1.9944 0.9792
-4.0384 -2.7258 -1.9941 0.9792
-3.7782 -3.0754 -1.9938 0.9792
-3.4879 -3.4003 -1.9936 0.9792
-3.1700 -3.6980 -1.9935 0.9792
-2.0757 -4.4062 -1.9934 0.9792
-1.6738 -4.5743 -1.9936 0.9792
-1.2585 -4.7060 -1.9937 0.9792
-0.8331 -4.8002 -1.9940 0.9792
-0.4010 -4.8562 -1.9943 0.9792
0.0345 -4.8735 -1.9947 0.9792
0.9018 -4.7917 -1.9955 0.9791
1.3267 -4.6932 -1.9961 0.9791
2.1421 -4.3847 -1.9972 0.9791
2.5260 -4.1771 -1.9979 0.9791
2.8901 -3.9360 -1.9985 0.9791
3.2314 -3.6633 -1.9992 0.9791
3.5470 -3.3611 -1.9999 0.9791
4.3161 -2.3026 -2.0021 0.9791
4.5062 -1.9085 -2.0029 0.9791
4.6604 -1.4988 -2.0036 0.9791
4.7774 -1.0768 -2.0043 0.9791
4.4169 1.0140 -1.8548 0.9806
4.3097 1.4049 -1.8552 0.9806
4.1679 1.7848 -1.8556 0.9806
3.9925 2.1504 -1.8560 0.9806
3.7850 2.4990 -1.8563 0.9806
2.9878 3.4144 -1.8569 0.9806
2.6709 3.6678 -1.8570 0.9806
2.3325 3.8918 -1.8570 0.9806
1.9754 4.0846 -1.8570 0.9806
-0.7928 4.4626 -1.8550 0.9806
-1.1998 4.4160 -1.8729 0.9804
-1.7012 4.5925 -2.0044 0.9791
-2.1064 4.4256 -2.0060 0.9790
-2.4926 4.2184 -2.0054 0.9790
-3.2014 3.7049 -2.0040 0.9791
-3.5184 3.4028 -2.0033 0.9791
-3.8070 3.0737 -2.0026 0.9791
-4.2901 2.3453 -2.0011 0.9791
-4.6357 1.5432 -1.9996 0.9791
-4.7533 1.1225 -1.9989 0.9791
-1.9314 -0.0705 -0.7910 0.9917
-1.9523 -0.2473 -0.8054 0.9915
-4.6504 -1.4636 -1.9953 0.9791
-4.5000 -1.8729 -1.9949 0.9792
-4.3138 -2.2670 -1.9945 0.9792
-2.9071 -3.9078 -1.9934 0.9792
-1.7668 -4.5391 -1.9935 0.9792
-1.3543 -4.6792 -1.9937 0.9792
-0.5000 -4.8468 -1.9942 0.9792
-0.0650 -4.8730 -1.9946 0.9792
1.6477 -4.5914 -1.9965 0.9791
2.0519 -4.4272 -1.9971 0.9791
2.8090 -3.9939 -1.9984 0.9791
4.4659 -1.9999 -2.0027 0.9791
4.7540 -1.1740 -2.0041 0.9791
4.8405 -0.7446 -2.0044 0.9791
4.8729 -0.3082 -1.9983 0.9791
4.4364 0.9235 -1.8546 0.9806
4.3373 1.3166 -1.8551 0.9806
4.2032 1.6992 -1.8555 0.9806
3.8352 2.4211 -1.8562 0.9806
3.6040 2.7545 -1.8565 0.9806
3.3439 3.0658 -1.8567 0.9806
2.4115 3.8434 -1.8570 0.9806
2.0584 4.0434 -1.8570 0.9806
1.3057 4.3447 -1.8567 0.9806
0.1067 4.5334 -1.8559 0.9806
-0.7016 4.4781 -1.8551 0.9806
-1.6058 4.6227 -2.0029 0.9791
-2.4061 4.2687 -2.0055 0.9790
-3.7437 3.1511 -2.0027 0.9791
4.0818 1.2043 -1.8547 0.9816
3.8038 1.9124 -1.8555 0.9816
3.6183 2.2450 -1.8558 0.9816
3.4037 2.5597 -1.8561 0.9816
3.1618 2.8539 -1.8563 0.9816
2.6037 3.3715 -1.8565 0.9816
2.2921 3.5907 -1.8565 0.9816
1.9621 3.7811 -1.8565 0.9816
1.2049 2.9379 -1.3839 0.9862
0.8889 4.1651 -1.8561 0.9816
0.1334 4.2556 -1.8556 0.9816
-0.2474 4.2497 -1.8552 0.9816
-0.6259 4.2097 -1.8548 0.9816
-1.4742 4.3530 -2.0029 0.9801
-2.2281 4.0259 -2.0053 0.9801
-2.5781 3.8095 -2.0047 0.9801
-2.9072 3.5628 -2.0041 0.9801
-3.7441 2.6615 -2.0020 0.9802
-3.9656 2.3156 -2.0013 0.9802
-1.5039 0.2591 -0.6651 0.9934
-1.5286 0.1244 -0.6684 0.9933
-1.5241 -0.0126 -0.6642 0.9934
-1.5266 -0.1497 -0.6685 0.9933
-1.4979 -0.2838 -0.6644 0.9934
-4.2750 -1.6393 -1.9954 0.9802
-4.1107 -2.0144 -1.9950 0.9802
-3.9136 -2.3732 -1.9947 0.9802
-3.6854 -2.7130 -1.9944 0.9802
-2.5009 -3.8310 -1.9939 0.9802
-1.3956 -4.3576 -1.9941 0.9802
-0.5979 -4.5374 -1.9946 0.9802
-0.1901 -4.5734 -1.9949 0.9802
0.2193 -4.5729 -1.9952 0.9802
2.5310 -3.8235 -1.9984 0.9802
2.8635 -3.5833 -1.9990 0.9802
3.7149 -2.6983 -2.0010 0.9802
3.9425 -2.3564 -2.0017 0.9802
4.3019 -1.6182 -2.0031 0.9801
4.5242 -0.8272 -2.0044 0.9801
4.4131 -0.0084 -1.9233 0.9809
4.2370 0.3719 -1.8537 0.9816
4.1880 0.7492 -1.8542 0.9816
4.1053 1.1207 -1.8546 0.9816
3.8419 1.8343 -1.8554 0.9816
3.6633 2.1706 -1.8557 0.9816
3.4552 2.4896 -1.8560 0.9816
3.2193 2.7886 -1.8562 0.9816
2.6720 3.3176 -1.8565 0.9816
2.3649 3.5431 -1.8565 0.9816
1.2621 2.9067 -1.3811 0.9863
1.0110 3.0491 -1.4000 0.9861
0.9738 4.1462 -1.8561 0.9816
0.5994 4.2161 -1.8559 0.9816
0.2202 4.2521 -1.8556 0.9816
-0.1605 4.2540 -1.8553 0.9816
-1.7738 4.2474 -2.0060 0.9801
-2.4999 3.8616 -2.0048 0.9801
-3.4311 3.0574 -2.0029 0.9801
-3.6893 2.7377 -2.0022 0.9802
-4.1148 2.0359 -2.0008 0.9802
-4.2788 1.6595 -2.0001 0.9802
-1.5013 0.2904 -0.6664 0.9933
-1.5528 -0.4069 -0.6996 0.9930
-2.9060 -3.5337 -1.9939 0.9802
-2.5786 -3.7791 -1.9939 0.9802
-1.4842 -4.3281 -1.9941 0.9802
-1.0917 -4.4438 -1.9943 0.9802
-0.6904 -4.5241 -1.9945 0.9802
0.5344 -4.5476 -1.9956 0.9802
1.7226 -4.2462 -1.9971 0.9802
2.0957 -4.0765 -1.9976 0.9802
2.4523 -3.8741 -1.9982 0.9802
2.7895 -3.6407 -1.9989 0.9802
3.6588 -2.7734 -2.0009 0.9802
4.0968 -2.0793 -2.0023 0.9802
4.5061 -0.9194 -2.0043 0.9801
4.5679 -0.5128 -2.0033 0.9801
4.2435 0.2853 -1.8536 0.9816
4.1271 1.0366 -1.8545 0.9816
4.0189 1.4015 -1.8550 0.9816
3.5052 2.4184 -1.8559 0.9816
3.2755 2.7223 -1.8562 0.9816
2.7391 3.2623 -1.8565 0.9816
2.4367 3.4941 -1.8565 0.9816
1.3415 2.9247 -1.4023 0.9861
1.0675 3.0124 -1.3929 0.9862
1.0583 4.1255 -1.8562 0.9816
0.3070 4.2469 -1.8557 0.9816
-0.0736 4.2566 -1.8554 0.9816
-1.6868 4.2831 -2.0062 0.9801
-2.7597 3.6790 -2.0043 0.9801
-3.0764 3.4166 -2.0037 0.9801
-3.3682 3.1270 -2.0030 0.9801
-3.8684 2.4759 -2.0016 0.9802
-1.5296 -0.0872 -0.6677 0.9933
-1.5139 -0.2232 -0.6669 0.9933
-4.0075 -2.2116 -1.9948 0.9802
-3.7933 -2.5604 -1.9945 0.9802
-3.5489 -2.8887 -1.9943 0.9802
-3.2763 -3.1940 -1.9941 0.9802
-1.1822 -4.4205 -1.9942 0.9802
-0.7826 -4.5089 -1.9944 0.9802
-0.3766 -4.5615 -1.9947 0.9802
0.4414 -4.5574 -1.9955 0.9802
0.8471 -4.5007 -1.9959 0.9802
2.0119 -4.1182 -1.9975 0.9802
2.7144 -3.6966 -1.9987 0.9802
3.8424 -2.5150 -2.0014 0.9802
4.0532 -2.1624 -2.0021 0.9802
4.2316 -1.7922 -2.0028 0.9801
4.4860 -1.0111 -2.0041 0.9801
4.5595 -0.6064 -2.0046 0.9801
4.5824 -0.1960 -1.9989 0.9802
4.2146 0.5776 -1.8540 0.9816
3.3303 2.6548 -1.8561 0.9816
3.0801 2.9420 -1.8563 0.9816
2.5076 3.4436 -1.8565 0.9816
2.1899 3.6539 -1.8565 0.9816
1.1254 2.9811 -1.3887 0.9862
0.3937 4.2399 -1.8558 0.9816
0.0133 4.2574 -1.8554 0.9816
-0.3671 4.2407 -1.8551 0.9816
-1.1850 4.3615 -1.9697 0.9805
-1.9778 4.1556 -2.0057 0.9801
-2.6842 3.7349 -2.0045 0.9801
-3.0062 3.4790 -2.0038 0.9801
-3.3040 3.1954 -2.0032 0.9801
-3.5750 2.8864 -2.0025 0.9802
-4.0289 2.2025 -2.0011 0.9802
-1.5355 0.3626 -0.6876 0.9931
-1.5153 0.2173 -0.6671 0.9933
-1.5295 0.0811 -0.6675 0.9933
-1.5224 -0.3332 -0.6792 0.9932
-1.5805 -0.4974 -0.7221 0.9928
-4.2268 -1.7592 -1.9953 0.9802
-4.0520 -2.1294 -1.9949 0.9802
-3.8449 -2.4825 -1.9946 0.9802
-3.6072 -2.8158 -1.9943 0.9802
-3.3409 -3.1265 -1.9941 0.9802
-2.0339 -4.0982 -1.9939 0.9802
-0.8744 -4.4919 -1.9944 0.9802
-0.4697 -4.5527 -1.9947 0.9802
0.3483 -4.5652 -1.9954 0.9802
1.5476 -4.3125 -1.9968 0.9802
1.9272 -4.1581 -1.9974 0.9802
2.2917 -3.9705 -1.9980 0.9802
2.9637 -3.5014 -1.9992 0.9802
3.5420 -2.9200 -2.0006 0.9802
4.0079 -2.2445 -2.0019 0.9802
4.1938 -1.8781 -2.0026 0.9801
4.3463 -1.4963 -2.0033 0.9801
4.5804 -0.2897 -2.0002 0.9802
4.2510 0.1118 -1.8533 0.9816
4.2252 0.4914 -1.8538 0.9816
3.9465 1.5954 -1.8552 0.9816
3.7888 1.9420 -1.8555 0.9816
3.6008 2.2731 -1.8558 0.9816
2.8699 3.1477 -1.8564 0.9816
2.5773 3.3917 -1.8565 0.9816
2.2640 3.6084 -1.8565 0.9816
1.9325 3.7962 -1.8565 0.9816
0.4802 4.2311 -1.8558 0.9816
0.1002 4.2564 -1.8555 0.9816
-0.6587 4.2046 -1.8548 0.9816
-1.0455 4.1840 -1.8795 0.9814
-1.5085 4.3426 -2.0035 0.9801
-2.6076 3.7892 -2.0046 0.9801
-3.2383 3.2624 -2.0033 0.9801
-3.7646 2.6322 -2.0020 0.9802
-3.9834 2.2845 -2.0013 0.9802
-4.1701 1.9188 -2.0006 0.9802
-1.5945 0.5672 -0.7376 0.9926
3.8424 1.1337 -1.8544 0.9825
3.7265 1.4728 -1.8548 0.9825
3.5807 1.8002 -1.8551 0.9825
2.9762 2.6864 -1.8559 0.9825
2.7245 2.9418 -1.8560 0.9825
2.4509 3.1736 -1.8561 0.9825
2.1576 3.3799 -1.8561 0.9825
1.2008 2.9279 -1.4648 0.9861
0.8368 3.9207 -1.8557 0.9825
0.4830 3.9793 -1.8555 0.9825
-0.5892 3.9628 -1.8545 0.9825
-0.9839 4.0723 -1.9392 0.9817
-1.3886 4.1002 -2.0038 0.9811
-3.0248 3.0953 -2.0033 0.9811
-3.2882 2.8117 -2.0026 0.9811
-3.5251 2.5059 -2.0020 0.9811
-3.9123 1.8373 -2.0007 0.9811
-1.3156 0.3501 -0.6302 0.9940
-1.3380 0.1088 -0.6214 0.9941
-1.3346 -0.0111 -0.6178 0.9941
-1.3127 -0.2487 -0.6184 0.9941
-1.3213 -0.3752 -0.6358 0.9940
-1.3313 -0.5105 -0.6600 0.9937
-3.8710 -1.8969 -1.9954 0.9812
-3.2281 -2.8544 -1.9946 0.9812
-2.9599 -3.1312 -1.9945 0.9812
-2.6682 -3.3830 -1.9944 0.9812
-2.0234 -3.8038 -1.9943 0.9812
-1.6755 -3.9695 -1.9944 0.9812
-1.3143 -4.1036 -1.9945 0.9812
-0.9424 -4.2050 -1.9947 0.9812
2.0514 -3.7977 -1.9980 0.9812
2.6962 -3.3740 -1.9992 0.9811
2.9878 -3.1205 -1.9998 0.9811
3.2557 -2.8420 -2.0004 0.9811
3.4978 -2.5406 -2.0011 0.9811
3.7120 -2.2186 -2.0017 0.9811
3.8966 -1.8787 -2.0024 0.9811
4.1714 -1.1559 -2.0036 0.9811
4.3104 -0.3950 -2.0036 0.9811
3.9425 0.7053 -1.8539 0.9825
3.8646 1.0550 -1.8543 0.9825
3.7557 1.3964 -1.8547 0.9825
3.6165 1.7267 -1.8551 0.9825
3.4484 2.0432 -1.8554 0.9825
3.2525 2.3435 -1.8556 0.9825
3.0304 2.6250 -1.8558 0.9825
2.7840 2.8855 -1.8560 0.9825
1.2577 2.8968 -1.4618 0.9862
1.0067 3.0362 -1.4806 0.9860
-1.3037 4.1250 -2.0025 0.9811
-1.6698 3.9985 -2.0058 0.9811
-2.3535 3.6355 -2.0046 0.9811
-2.6681 3.4096 -2.0040 0.9811
-2.9612 3.1566 -2.0034 0.9811
-3.2303 2.8785 -2.0028 0.9811
-3.6887 2.2561 -2.0015 0.9811
-1.3308 0.5161 -0.6607 0.9937
-1.3225 0.3810 -0.6371 0.9940
-1.3112 0.2536 -0.6182 0.9941
-1.3359 0.1362 -0.6216 0.9941
-1.3351 0.0162 -0.6181 0.9941
-1.3382 -0.1037 -0.6213 0.9941
-1.3141 -0.3444 -0.6288 0.9940
-1.3123 -0.6102 -0.6699 0.9936
-3.7305 -2.1592 -1.9952 0.9812
-3.5221 -2.4835 -1.9949 0.9812
-3.0233 -3.0702 -1.9945 0.9812
-0.6501 -4.2604 -1.9949 0.9812
0.8841 -4.2213 -1.9963 0.9812
1.2580 -4.1263 -1.9968 0.9812
1.6220 -3.9985 -1.9973 0.9812
2.9233 -3.1807 -1.9996 0.9811
3.1968 -2.9077 -2.0003 0.9811
3.6656 -2.2938 -2.0016 0.9811
3.8572 -1.9577 -2.0022 0.9811
4.1466 -1.2407 -2.0035 0.9811
4.2422 -0.8655 -2.0041 0.9811
3.9948 0.2686 -1.8533 0.9825
3.9558 0.6246 -1.8538 0.9825
3.8851 0.9758 -1.8542 0.9825
3.6509 1.6524 -1.8550 0.9825
3.2995 2.2765 -1.8556 0.9825
2.2938 3.2890 -1.8561 0.9825
1.3278 2.8948 -1.4742 0.9861
1.0639 3.0021 -1.4743 0.9861
0.9962 3.8835 -1.8558 0.9825
0.6451 3.9565 -1.8556 0.9825
0.2890 3.9977 -1.8553 0.9825
-0.0693 4.0069 -1.8550 0.9825
-0.4270 3.9839 -1.8547 0.9825
-0.7811 3.9290 -1.8543 0.9825
-1.2185 4.1480 -2.0012 0.9811
-1.5879 4.0321 -2.0059 0.9811
-2.2790 3.6830 -2.0048 0.9811
-2.5981 3.4636 -2.0042 0.9811
-2.8963 3.2166 -2.0036 0.9811
-3.4204 2.6481 -2.0023 0.9811
-1.3282 0.4122 -0.6437 0.9939
-1.3025 0.2796 -0.6166 0.9941
-1.3385 -0.0763 -0.6206 0.9941
-1.3263 -0.1956 -0.6206 0.9941
-1.3331 -0.4497 -0.6512 0.9938
-1.3199 -0.5812 -0.6676 0.9937
-3.3421 -2.7204 -1.9947 0.9812
-2.8041 -3.2713 -1.9944 0.9812
-2.5005 -3.5086 -1.9943 0.9812
-1.8362 -3.8977 -1.9944 0.9812
-1.4806 -4.0464 -1.9945 0.9812
1.5400 -4.0305 -1.9972 0.9812
2.8575 -3.2395 -1.9995 0.9811
3.1365 -2.9721 -2.0001 0.9811
3.6177 -2.3679 -2.0014 0.9811
4.1201 -1.3250 -2.0034 0.9811
4.2234 -0.9519 -2.0040 0.9811
4.3183 -0.1847 -2.0007 0.9811
4.0666 0.1901 -1.8844 0.9822
3.9675 0.5437 -1.8537 0.9825
3.9040 0.8962 -1.8541 0.9825
3.8092 1.2417 -1.8545 0.9825
3.6837 1.5774 -1.8549 0.9825
3.5287 1.9006 -1.8552 0.9825
3.3452 2.2086 -1.8555 0.9825
2.6405 3.0175 -1.8560 0.9825
2.3604 3.2415 -1.8561 0.9825
2.0614 3.4395 -1.8561 0.9825
1.5505 3.2061 -1.6485 0.9844
1.1216 2.9709 -1.4699 0.9861
1.0753 3.8624 -1.8558 0.9825
-0.3456 3.9920 -1.8547 0.9825
-1.1328 4.1693 -1.9999 0.9811
-1.5051 4.0631 -2.0056 0.9811
-2.2034 3.7290 -2.0049 0.9811
-2.5271 3.5162 -2.0043 0.9811
-3.1106 3.0084 -2.0031 0.9811
-3.5940 2.4052 -2.0018 0.9811
-3.7933 2.0738 -2.0011 0.9811
-1.3324 0.4436 -0.6500 0.9938
-1.3040 0.3079 -0.6202 0.9941
-1.3274 0.1903 -0.6207 0.9941
-1.3384 0.0709 -0.6204 0.9941
-3.6208 -2.3378 -1.9950 0.9812
-2.8704 -3.2134 -1.9944 0.9812
-2.5717 -3.4569 -1.9943 0.9812
-1.5629 -4.0153 -1.9945 0.9812
-1.1980 -4.1392 -1.9946 0.9812
-0.4423 -4.2874 -1.9951 0.9812
-0.0575 -4.3104 -1.9954 0.9812
0.3280 -4.2990 -1.9957 0.9812
0.7109 -4.2534 -1.9961 0.9812
1.0883 -4.1738 -1.9966 0.9812
2.4841 -3.5320 -1.9988 0.9811
2.7906 -3.2969 -1.9994 0.9811
3.0750 -3.0353 -2.0000 0.9811
3.7734 -2.1132 -2.0019 0.9811
4.2028 -1.0379 -2.0038 0.9811
4.3162 -0.2730 -2.0019 0.9811
4.1904 0.1102 -1.9403 0.9817
3.8336 1.1637 -1.8544 0.9825
3.3895 2.1398 -1.8554 0.9825
2.9552 2.7095 -1.8559 0.9825
2.7015 2.9629 -1.8560 0.9825
1.1539 3.8397 -1.8559 0.9825
0.4520 3.9829 -1.8554 0.9825
0.0943 4.0067 -1.8552 0.9825
-0.6201 3.9580 -1.8545 0.9825
-1.4209 4.0903 -2.0043 0.9811
-2.4549 3.5673 -2.0045 0.9811
-2.7630 3.3327 -2.0039 0.9811
-3.0487 3.0715 -2.0032 0.9811
-3.3099 2.7859 -2.0026 0.9811
-1.3139 0.6046 -0.6695 0.9936
3.2135 1.9938 -1.8551 0.9833
3.0229 2.2733 -1.8553 0.9833
2.8080 2.5345 -1.8555 0.9833
2.5705 2.7755 -1.8556 0.9833
2.3123 2.9942 -1.8557 0.9833
0.4557 3.7544 -1.8551 0.9833
-1.3109 3.8707 -2.0046 0.9820
-1.9792 3.5761 -2.0049 0.9820
-2.2902 3.3841 -2.0043 0.9820
-2.5826 3.1650 -2.0038 0.9820
-3.3265 2.3647 -2.0020 0.9820
-3.5234 2.0573 -2.0014 0.9820
-1.1371 0.5340 -0.6162 0.9944
-1.1584 0.3083 -0.5880 0.9947
-1.1958 -0.0099 -0.5866 0.9947
-1.1931 -0.1170 -0.5881 0.9947
-1.1769 -0.2230 -0.5876 0.9947
-1.1319 -0.5547 -0.6183 0.9944
-3.4784 -2.1093 -1.9955 0.9820
-3.2757 -2.4114 -1.9952 0.9820
-3.0468 -2.6941 -1.9950 0.9820
-2.5183 -3.1930 -1.9948 0.9820
-1.5815 -3.7466 -1.9948 0.9820
-0.5314 -4.0329 -1.9953 0.9820
0.1949 -4.0644 -1.9960 0.9820
0.5574 -4.0314 -1.9963 0.9820
0.9156 -3.9663 -1.9967 0.9820
1.2666 -3.8695 -1.9972 0.9820
2.8196 -2.9449 -1.9999 0.9820
3.0724 -2.6819 -2.0005 0.9820
3.3007 -2.3974 -2.0011 0.9820
3.6770 -1.7728 -2.0023 0.9820
4.0190 -0.7348 -2.0041 0.9820
4.0697 -0.3729 -2.0047 0.9820
4.0774 -0.0078 -2.0001 0.9820
3.7198 0.6655 -1.8536 0.9833
3.6463 0.9954 -1.8540 0.9833
3.4122 1.6291 -1.8547 0.9833
3.2535 1.9277 -1.8550 0.9833
3.0686 2.2110 -1.8553 0.9833
2.8591 2.4766 -1.8554 0.9833
2.3729 2.9463 -1.8557 0.9833
2.1003 3.1466 -1.8557 0.9833
1.8107 3.3217 -1.8557 0.9833
1.0023 3.0231 -1.5623 0.9859
0.5323 3.7444 -1.8552 0.9833
0.1956 3.7765 -1.8549 0.9833
-1.5756 3.7728 -2.0055 0.9819
-1.9059 3.6160 -2.0050 0.9820
-2.5176 3.2173 -2.0039 0.9820
-3.0482 2.7162 -2.0027 0.9820
-3.2777 2.4322 -2.0021 0.9820
-3.4809 2.1290 -2.0015 0.9820
-1.1307 0.5594 -0.6188 0.9944
