ply
format ascii 1.0
element vertex 1599
property float32 x
property float32 y
property float32 z
property float32 I
end_header
5.3702 3.8307 -1.8674 0.9729
4.8201 4.1336 -1.7976 0.9739
3.3399 4.9441 -1.6891 0.9755
2.8727 5.1984 -1.6814 0.9756
0.7388 3.0582 -0.8906 0.9870
0.9301 6.2476 -1.7882 0.9741
-1.6649 7.8385 -2.2685 0.9672
-2.3269 7.5609 -2.2395 0.9676
-2.9506 7.2229 -2.2088 0.9681
-3.5309 6.8306 -2.1768 0.9685
-6.3863 3.9870 -2.1313 0.9692
-6.7745 2.7024 -2.0648 0.9701
-6.8826 2.0561 -2.0335 0.9706
-6.8848 0.1549 -1.9495 0.9718
-6.4504 -1.6148 -1.8824 0.9727
-5.6435 -3.1798 -1.8338 0.9734
-5.3027 -3.6463 -1.8218 0.9736
-4.5272 -4.4866 -1.8044 0.9739
-3.6407 -5.1939 -1.7956 0.9740
-1.0514 -6.3131 -1.8118 0.9737
-0.4870 -6.4161 -1.8216 0.9736
0.0875 -6.4760 -1.8335 0.9734
0.6696 -6.4918 -1.8475 0.9732
1.2566 -6.4623 -1.8637 0.9730
1.8456 -6.3866 -1.8820 0.9727
3.5932 -5.8724 -1.9489 0.9718
4.7062 -5.2838 -2.0031 0.9710
5.2350 -4.9150 -2.0328 0.9706
6.2044 -4.0238 -2.0935 0.9697
6.8765 -2.1841 -2.0425 0.9705
7.1593 -1.5880 -2.0760 0.9700
7.3902 -0.9587 -2.1096 0.9695
7.5643 -0.3008 -2.1431 0.9690
7.6772 0.3805 -2.1760 0.9686
7.7248 1.0791 -2.2081 0.9681
6.2169 3.3630 -2.0010 0.9710
5.5949 3.7068 -1.9000 0.9725
4.0713 4.6619 -1.7522 0.9746
2.1162 5.6085 -1.6970 0.9754
0.8650 3.1068 -0.9130 0.9867
0.5796 3.1447 -0.9052 0.9868
0.5993 6.4251 -1.8268 0.9735
0.0251 6.7325 -1.9059 0.9724
-2.0754 7.6756 -2.2509 0.9675
-3.3122 6.9882 -2.1893 0.9684
-4.8141 5.5962 -2.0898 0.9698
-2.3258 2.2603 -0.9181 0.9866
-5.9771 4.8518 -2.1794 0.9685
-6.2841 4.2312 -2.1447 0.9690
-6.5302 3.5957 -2.1104 0.9695
-6.7176 2.9521 -2.0772 0.9700
-6.8474 2.3056 -2.0454 0.9704
-6.9215 1.6610 -2.0151 0.9708
-6.9103 0.3942 -1.9594 0.9716
-6.8294 -0.2205 -1.9344 0.9720
-6.7013 -0.8186 -1.9112 0.9723
-6.0586 -2.4858 -1.8539 0.9731
-5.4383 -3.4696 -1.8262 0.9735
-4.6861 -4.3343 -1.8071 0.9738
-4.2662 -4.7183 -1.8008 0.9739
-3.8197 -5.0682 -1.7966 0.9740
-2.8562 -5.6605 -1.7949 0.9740
-2.3434 -5.9005 -1.7973 0.9740
-1.8126 -6.1014 -1.8019 0.9739
-0.1355 -6.4580 -1.8286 0.9735
1.0294 -6.4791 -1.8572 0.9731
2.7925 -6.1643 -1.9158 0.9723
3.3719 -5.9632 -1.9393 0.9719
6.0343 -4.2160 -2.0839 0.9699
6.4079 -2.9489 -1.9969 0.9711
6.7544 -2.4047 -2.0297 0.9706
7.0559 -1.8225 -2.0630 0.9702
7.5040 -0.5581 -2.1302 0.9692
7.7202 1.5133 -2.2271 0.9678
6.4759 3.2196 -2.0474 0.9704
5.2414 3.9017 -1.8498 0.9732
4.7004 4.1994 -1.7844 0.9741
4.2646 4.5561 -1.7667 0.9744
6.9309 -0.1771 -2.1325 0.9714
7.0155 0.4476 -2.1622 0.9710
6.8995 2.3750 -2.2444 0.9699
6.1048 3.4152 -2.1515 0.9712
4.4538 4.3871 -1.9229 0.9742
3.9876 4.6991 -1.8956 0.9745
3.4426 4.8797 -1.8368 0.9753
2.0380 5.6424 -1.8452 0.9752
1.0478 6.1756 -1.9266 0.9741
-0.0709 6.7743 -2.0838 0.9720
-0.6086 6.0826 -1.8802 0.9747
-1.3723 7.1742 -2.2466 0.9699
-1.9834 6.9430 -2.2209 0.9702
-2.5625 6.6555 -2.1936 0.9706
-3.1045 6.3168 -2.1649 0.9710
-3.6053 5.9325 -2.1352 0.9714
-4.4703 5.0498 -2.0744 0.9722
-4.8303 4.5628 -2.0437 0.9726
-5.8187 3.7989 -2.1374 0.9713
-6.0441 3.2171 -2.1060 0.9718
-6.3348 2.0334 -2.0464 0.9725
-6.4025 1.4406 -2.0185 0.9729
-6.3902 0.2736 -1.9673 0.9736
-6.0322 -1.3807 -1.9033 0.9744
-5.8306 -1.8952 -1.8857 0.9747
-5.3172 -2.8554 -1.8564 0.9751
-4.6712 -3.7110 -1.8350 0.9753
-3.9094 -4.4491 -1.8217 0.9755
-3.4903 -4.7705 -1.8181 0.9756
-3.0486 -5.0585 -1.8166 0.9756
-1.6083 -5.7092 -1.8244 0.9755
0.4991 -6.0373 -1.8633 0.9750
1.0435 -6.0159 -1.8780 0.9748
3.2084 -5.4908 -1.9560 0.9737
3.7304 -5.2465 -1.9800 0.9734
4.2375 -4.9564 -2.0057 0.9731
5.6238 -3.8116 -2.0896 0.9720
2.3016 -1.0198 -0.7743 0.9895
6.5069 -1.5825 -2.0597 0.9724
6.8829 -0.4137 -2.1208 0.9716
6.9898 0.2044 -2.1508 0.9712
7.0380 0.8379 -2.1800 0.9708
7.0244 1.4808 -2.2081 0.9704
6.8040 2.7675 -2.2593 0.9697
6.3585 3.2745 -2.1998 0.9705
5.1458 3.9453 -1.9944 0.9732
4.6116 4.2394 -1.9267 0.9741
4.1794 4.5941 -1.9103 0.9743
3.1299 4.9965 -1.8134 0.9756
2.6894 5.2897 -1.8252 0.9755
2.2211 5.5434 -1.8368 0.9753
1.7428 5.8017 -1.8633 0.9750
-1.7508 7.0392 -2.2311 0.9701
-2.3429 6.7729 -2.2043 0.9705
-3.8906 5.6766 -2.1167 0.9716
-4.3180 5.2306 -2.0862 0.9720
-2.2592 2.2865 -0.9887 0.9866
-5.0265 4.2523 -2.0251 0.9728
-5.9635 3.4431 -2.1180 0.9716
-6.1558 2.8556 -2.0872 0.9720
-6.2950 2.2628 -2.0575 0.9724
-6.4192 1.0791 -2.0021 0.9731
-6.4074 0.4962 -1.9767 0.9735
-6.3488 -0.0761 -1.9529 0.9738
-6.2455 -0.6346 -1.9309 0.9741
-5.6882 -2.2001 -1.8759 0.9748
-5.1323 -3.1297 -1.8489 0.9752
-4.8055 -3.5545 -1.8385 0.9753
-3.2218 -4.9513 -1.8169 0.9756
-2.2933 -5.4494 -1.8185 0.9756
-1.8022 -5.6440 -1.8223 0.9755
-0.7770 -5.9190 -1.8362 0.9753
-0.2476 -5.9970 -1.8461 0.9752
0.2899 -6.0341 -1.8581 0.9750
0.8329 -6.0293 -1.8721 0.9748
2.4672 -5.7540 -1.9256 0.9741
4.0436 -5.0739 -1.9956 0.9732
4.5395 -4.7558 -2.0222 0.9729
5.4581 -3.2781 -1.9583 0.9737
5.8142 -2.8200 -1.9875 0.9733
6.4115 -1.7955 -2.0479 0.9725
6.9553 -0.0366 -2.1393 0.9713
7.0372 1.2317 -2.1974 0.9705
6.8671 2.5208 -2.2500 0.9699
5.9605 3.4951 -2.1253 0.9715
5.3629 3.8255 -2.0262 0.9728
4.8138 4.1282 -1.9505 0.9738
4.3684 4.4812 -1.9249 0.9742
3.8100 4.6790 -1.8559 0.9751
3.3358 4.9380 -1.8329 0.9754
1.7232 3.9049 -1.3128 0.9823
1.9293 5.7011 -1.8512 0.9751
0.9288 6.2395 -1.9403 0.9739
0.3826 6.5321 -2.0126 0.9730
-0.2107 6.8489 -2.1076 0.9717
-0.7404 6.1389 -1.9019 0.9745
-2.1181 6.8824 -2.2148 0.9703
-3.2221 6.2333 -2.1582 0.9711
-3.7129 5.8394 -2.1284 0.9715
-4.1585 5.4068 -2.0980 0.9719
-4.9052 4.4487 -2.0368 0.9727
-5.6024 4.2358 -2.1603 0.9710
-5.8747 3.6677 -2.1302 0.9714
-6.0878 3.0835 -2.0990 0.9718
-6.2475 2.4922 -2.0688 0.9722
-6.4108 1.3064 -2.0124 0.9730
-6.4176 0.7203 -1.9863 0.9733
-6.3769 0.1435 -1.9619 0.9737
-6.1608 -0.9692 -1.9182 0.9742
-5.9898 -1.4995 -1.8992 0.9745
-5.7795 -2.0092 -1.8820 0.9747
-5.5322 -2.4960 -1.8668 0.9749
-4.5901 -3.8010 -1.8330 0.9754
-3.8162 -4.5250 -1.8207 0.9755
-2.9452 -5.1191 -1.8165 0.9756
-0.4533 -5.9717 -1.8420 0.9752
0.0814 -6.0247 -1.8532 0.9751
0.6226 -6.0362 -1.8664 0.9749
1.7138 -5.9306 -1.8988 0.9745
2.7973 -5.6483 -1.9387 0.9740
3.3282 -5.4393 -1.9613 0.9737
3.8471 -5.1846 -1.9857 0.9733
4.3502 -4.8841 -2.0117 0.9730
4.8336 -4.5381 -2.0393 0.9726
5.2928 -4.1471 -2.0682 0.9723
5.7127 -3.7049 -2.0943 0.9719
5.6807 -3.0015 -1.9762 0.9735
2.2925 -0.9607 -0.7645 0.9897
6.3092 -2.0040 -2.0361 0.9727
6.5598 -1.4550 -2.0667 0.9723
6.7621 -0.8773 -2.0973 0.9719
6.7623 2.9118 -2.2646 0.9697
5.0211 4.0140 -1.9772 0.9735
4.5121 4.3201 -1.9214 0.9742
4.0662 4.6561 -1.9013 0.9745
2.1136 5.6016 -1.8415 0.9753
0.5845 3.1712 -0.9918 0.9866
0.0251 6.7231 -2.0679 0.9723
-0.5205 6.0704 -1.8740 0.9748
-1.2725 7.2054 -2.2505 0.9698
-3.5285 5.9965 -2.1400 0.9713
-3.9919 5.5782 -2.1098 0.9717
-4.4085 5.1248 -2.0792 0.9721
-2.3227 2.2573 -0.9962 0.9865
-5.0944 4.1353 -2.0182 0.9729
-5.7779 3.8903 -2.1425 0.9713
-6.3194 2.1278 -2.0509 0.9725
-6.0606 -1.2969 -1.9063 0.9744
-5.6320 -2.3108 -1.8724 0.9748
-4.7270 -3.6471 -1.8364 0.9753
-4.3640 -4.0364 -1.8284 0.9754
-3.9738 -4.3950 -1.8224 0.9755
-3.1203 -5.0150 -1.8167 0.9756
-2.6611 -5.2738 -1.8169 0.9756
-1.6883 -5.6830 -1.8235 0.9755
-0.6575 -5.9402 -1.8382 0.9753
0.4129 -6.0367 -1.8611 0.9750
1.5028 -5.9646 -1.8919 0.9746
2.0482 -5.8630 -1.9102 0.9743
2.5898 -5.7168 -1.9304 0.9741
3.6483 -5.2884 -1.9761 0.9735
4.1580 -5.0056 -2.0015 0.9731
4.6494 -4.6772 -2.0285 0.9728
5.5420 -3.1773 -1.9649 0.9736
5.8901 -2.7106 -1.9943 0.9732
6.2004 -2.2075 -2.0244 0.9728
6.4685 -1.6707 -2.0549 0.9724
6.8606 -0.5102 -2.1160 0.9716
6.9766 0.1049 -2.1461 0.9712
6.9636 2.0238 -2.2305 0.9701
6.8312 2.6661 -2.2555 0.9698
5.8195 3.5731 -2.1004 0.9718
5.2344 3.8964 -2.0071 0.9731
4.6943 4.1940 -1.9362 0.9740
3.7012 4.7386 -1.8494 0.9752
6.3171 2.1745 -2.2207 0.9722
5.9383 3.3221 -2.2618 0.9717
4.9285 4.0560 -2.1217 0.9735
2.9713 5.1281 -1.9701 0.9753
2.0354 5.6353 -1.9917 0.9751
0.8100 3.0779 -1.0579 0.9867
-0.0708 6.7647 -2.2488 0.9719
-0.6079 6.0751 -2.0295 0.9746
-1.2563 6.5679 -2.2228 0.9722
-1.8176 6.3624 -2.1995 0.9725
-2.3507 6.1053 -2.1747 0.9728
-2.8510 5.8009 -2.1485 0.9731
-3.3145 5.4541 -2.1215 0.9735
-4.7476 3.7433 -2.0097 0.9748
-5.9449 1.3377 -2.0255 0.9746
-5.8784 -0.2734 -1.9561 0.9755
-5.4395 -1.7681 -1.9013 0.9762
-4.9658 -2.6666 -1.8736 0.9765
-3.6555 -4.1602 -1.8409 0.9769
-2.8511 -4.7308 -1.8361 0.9770
-2.4187 -4.9675 -1.8366 0.9770
-1.9689 -5.1703 -1.8390 0.9769
-1.5037 -5.3379 -1.8434 0.9769
-1.0253 -5.4694 -1.8497 0.9768
0.4660 -5.6368 -1.8801 0.9764
0.9738 -5.6140 -1.8940 0.9763
1.4826 -5.5504 -1.9097 0.9761
2.9858 -5.1097 -1.9672 0.9754
3.4686 -4.8782 -1.9897 0.9751
4.3857 -4.2883 -2.0389 0.9745
5.2064 -3.5287 -2.0907 0.9738
5.1805 -2.8731 -1.9691 0.9753
5.9992 -1.4590 -2.0523 0.9743
6.1891 -0.9310 -2.0804 0.9740
6.3312 -0.3806 -2.1083 0.9736
6.4223 0.1878 -2.1357 0.9733
6.4402 1.3577 -2.1878 0.9726
5.7147 3.6215 -2.2489 0.9719
4.4384 4.0801 -2.0040 0.9749
2.6860 5.2831 -1.9701 0.9753
2.2183 5.5365 -1.9826 0.9752
1.7406 5.7943 -2.0111 0.9748
0.7215 6.3416 -2.1216 0.9735
0.1596 6.6419 -2.2084 0.9724
-0.4019 6.1504 -2.0488 0.9744
-1.0331 6.6327 -2.2313 0.9721
-1.6038 6.4482 -2.2087 0.9724
-2.1484 6.2105 -2.1844 0.9727
-2.6618 5.9238 -2.1588 0.9730
-2.2586 2.2860 -1.0682 0.9865
-4.6404 3.9257 -2.0204 0.9747
-5.5179 3.1859 -2.1179 0.9735
-5.9240 1.5494 -2.0354 0.9745
-5.9089 -0.0708 -1.9643 0.9754
-5.8172 -0.5911 -1.9436 0.9757
-5.6854 -1.0965 -1.9247 0.9759
-5.5151 -1.5846 -1.9074 0.9761
-5.0676 -2.5002 -1.8784 0.9765
-4.4907 -3.3217 -1.8567 0.9767
-4.1588 -3.6929 -1.8487 0.9768
-3.4180 -4.3486 -1.8386 0.9770
-2.1446 -5.0960 -1.8378 0.9770
-1.6851 -5.2773 -1.8415 0.9769
-0.2313 -5.6027 -1.8639 0.9766
0.7774 -5.6276 -1.8884 0.9763
1.7941 -5.4910 -1.9202 0.9759
3.2836 -4.9727 -1.9808 0.9752
3.7577 -4.7152 -2.0042 0.9749
4.2146 -4.4154 -2.0290 0.9746
4.6506 -4.0739 -2.0551 0.9743
5.6639 -2.1470 -2.0134 0.9748
6.3933 -0.0336 -2.1252 0.9734
6.4517 0.5433 -2.1522 0.9731
6.3997 1.7199 -2.2028 0.9725
5.8803 3.4481 -2.2659 0.9717
5.3555 3.8202 -2.1867 0.9727
3.8052 4.6731 -2.0032 0.9749
0.3821 6.5231 -2.1720 0.9728
-0.2090 6.7936 -2.2593 0.9718
-3.4144 5.3699 -2.1152 0.9735
-3.8285 4.9778 -2.0874 0.9739
-5.7907 2.3100 -2.0724 0.9741
-5.9658 0.6696 -1.9955 0.9750
-5.3926 -1.8746 -1.8977 0.9762
-5.1647 -2.3302 -1.8834 0.9764
-3.9419 -3.9067 -1.8448 0.9769
-3.5685 -4.2313 -1.8399 0.9769
-1.3960 -5.3710 -1.8447 0.9769
0.0760 -5.6271 -1.8707 0.9766
1.0895 -5.6031 -1.8974 0.9762
3.5764 -4.8197 -1.9950 0.9750
4.0403 -4.5362 -2.0192 0.9747
4.9060 -3.8440 -2.0717 0.9741
5.2878 -3.4293 -2.0950 0.9738
5.2541 -2.7761 -1.9753 0.9753
2.2917 -0.9603 -0.8260 0.9896
5.8222 -1.8493 -2.0306 0.9746
6.3565 -0.2528 -2.1146 0.9735
6.4356 0.3190 -2.1418 0.9732
6.4601 0.9024 -2.1682 0.9729
6.4278 1.4919 -2.1934 0.9726
6.3370 2.0812 -2.2171 0.9723
6.1867 2.6639 -2.2391 0.9720
5.0144 4.0086 -2.1340 0.9733
4.3593 4.1738 -2.0061 0.9749
3.9851 4.5633 -2.0139 0.9748
3.5133 4.8327 -1.9861 0.9751
1.8566 3.8427 -1.4186 0.9822
2.1109 5.5945 -1.9876 0.9751
0.5977 6.4079 -2.1393 0.9732
0.0251 6.7136 -2.2317 0.9721
-2.2680 6.1494 -2.1787 0.9728
-4.0615 4.7214 -2.0702 0.9741
-4.7043 3.8187 -2.0141 0.9748
-5.5641 3.0637 -2.1114 0.9736
-5.7371 2.5212 -2.0831 0.9739
-5.8611 1.9735 -2.0557 0.9743
-5.9372 1.4248 -2.0296 0.9746
-5.8917 -0.1902 -1.9594 0.9755
-5.6500 -1.2091 -1.9206 0.9759
-5.2567 -2.1568 -1.8887 0.9763
-5.0083 -2.5985 -1.8755 0.9765
-4.4177 -3.4085 -1.8547 0.9768
-4.0796 -3.7733 -1.8472 0.9768
-3.7156 -4.1094 -1.8416 0.9769
-3.3278 -4.4155 -1.8379 0.9770
-2.9182 -4.6901 -1.8362 0.9770
-2.4887 -4.9321 -1.8364 0.9770
-2.0415 -5.1403 -1.8385 0.9770
-1.1022 -5.4509 -1.8486 0.9768
-0.6145 -5.5512 -1.8565 0.9767
-0.1178 -5.6134 -1.8664 0.9766
0.3855 -5.6368 -1.8781 0.9765
0.8929 -5.6203 -1.8917 0.9763
1.4017 -5.5633 -1.9071 0.9761
1.9092 -5.4650 -1.9243 0.9759
2.4123 -5.3249 -1.9432 0.9757
2.9079 -5.1426 -1.9638 0.9754
3.3927 -4.9179 -1.9860 0.9751
3.8632 -4.6507 -2.0097 0.9748
4.7463 -3.9905 -2.0612 0.9742
5.1484 -3.5970 -2.0877 0.9739
5.9649 -1.5407 -2.0478 0.9744
6.3119 -0.4694 -2.1039 0.9737
6.4114 0.0964 -2.1314 0.9733
6.4471 1.2638 -2.1838 0.9727
6.3791 1.8539 -2.2082 0.9724
6.0651 3.0153 -2.2515 0.9719
5.8112 3.5680 -2.2667 0.9717
5.2272 3.8911 -2.1661 0.9729
4.6881 4.1885 -2.0897 0.9738
3.6965 4.7326 -1.9961 0.9750
5.9593 0.9189 -2.1563 0.9747
5.8185 2.0029 -2.2005 0.9742
5.4616 3.0554 -2.2380 0.9738
5.2032 3.5545 -2.2534 0.9736
4.1573 4.0951 -2.0868 0.9755
3.6919 4.3506 -2.0405 0.9761
3.4340 4.8675 -2.1302 0.9750
2.9675 5.1217 -2.1168 0.9752
1.7546 3.7673 -1.4862 0.9825
1.0451 6.1593 -2.2341 0.9738
-0.6071 6.0675 -2.1806 0.9744
-1.1571 6.0491 -2.2024 0.9742
-2.6327 5.3568 -2.1345 0.9750
-3.0637 5.0414 -2.1096 0.9753
-5.3610 2.2657 -2.0813 0.9756
-5.4742 1.7571 -2.0560 0.9759
-5.5429 1.2472 -2.0317 0.9762
-5.5681 0.7396 -2.0087 0.9764
-5.2626 -1.2045 -1.9306 0.9773
-5.0928 -1.6554 -1.9150 0.9775
-4.6535 -2.4990 -1.8889 0.9778
-4.3879 -2.8878 -1.8785 0.9779
-3.7739 -3.5913 -1.8630 0.9781
-2.6752 -4.4390 -1.8534 0.9782
-2.2694 -4.6610 -1.8539 0.9782
-0.9616 -5.1296 -1.8663 0.9781
0.9120 -5.2574 -1.9082 0.9776
1.3877 -5.1951 -1.9230 0.9774
1.8611 -5.0940 -1.9394 0.9772
2.3293 -4.9535 -1.9575 0.9770
4.0873 -3.9965 -2.0443 0.9760
4.8416 -3.2814 -2.0916 0.9755
4.8147 -2.6702 -1.9688 0.9769
5.3476 -1.8188 -2.0199 0.9763
5.7291 -0.8618 -2.0718 0.9757
5.8549 -0.3519 -2.0975 0.9754
5.9333 0.1735 -2.1227 0.9751
5.9620 0.7098 -2.1471 0.9748
5.9388 1.2520 -2.1704 0.9745
5.8624 1.7944 -2.1925 0.9743
5.5473 2.8568 -2.2314 0.9738
5.3092 3.3645 -2.2477 0.9737
5.0192 3.8482 -2.2617 0.9735
3.8693 4.2533 -2.0562 0.9759
1.9460 3.8276 -1.5355 0.9819
0.7145 6.2792 -2.2600 0.9735
0.1509 6.2778 -2.2456 0.9737
-0.4018 6.1504 -2.2041 0.9742
-2.9013 5.1676 -2.1193 0.9751
-2.2581 2.2855 -1.1489 0.9864
-4.3048 3.6417 -2.0164 0.9763
-4.8938 3.4414 -2.1394 0.9749
-5.1289 2.9613 -2.1179 0.9752
-5.4358 1.9540 -2.0656 0.9758
-5.5626 0.4307 -1.9952 0.9766
-5.5205 -0.0662 -1.9743 0.9768
-5.4387 -0.5526 -1.9549 0.9770
-5.3188 -1.0258 -1.9371 0.9773
-4.7482 -2.3426 -1.8934 0.9778
-3.5653 -3.7858 -1.8597 0.9782
-2.8272 -4.3448 -1.8537 0.9782
-2.4283 -4.5790 -1.8535 0.9782
-1.5808 -4.9509 -1.8585 0.9782
-0.6810 -5.1872 -1.8709 0.9780
-0.2169 -5.2521 -1.8798 0.9779
0.2537 -5.2803 -1.8905 0.9778
1.2040 -5.2238 -1.9170 0.9775
2.6128 -4.8477 -1.9693 0.9769
3.0661 -4.6433 -1.9898 0.9766
4.3318 -3.7946 -2.0594 0.9758
4.7103 -3.4352 -2.0848 0.9755
4.9926 -2.4215 -1.9843 0.9767
5.2556 -1.9922 -2.0099 0.9764
5.6685 -1.0537 -2.0618 0.9758
5.8117 -0.5510 -2.0876 0.9755
5.9569 0.5016 -2.1378 0.9749
5.8983 1.5852 -2.1841 0.9744
5.6250 2.6556 -2.2245 0.9739
5.4075 3.1708 -2.2417 0.9737
5.1373 3.6646 -2.2566 0.9735
4.7596 4.0817 -2.2422 0.9737
3.8003 4.6671 -2.1523 0.9748
1.7194 3.8965 -1.5230 0.9821
1.9244 5.6866 -2.1469 0.9748
0.3682 6.2852 -2.2515 0.9736
-0.7381 6.1204 -2.2046 0.9742
-1.2768 6.0115 -2.1977 0.9742
-1.7899 5.8160 -2.1761 0.9745
-3.1567 4.9646 -2.1039 0.9753
-3.5431 4.6067 -2.0783 0.9756
-3.8906 4.2193 -2.0524 0.9759
-4.4625 3.3739 -2.0006 0.9765
-5.2424 2.6553 -2.1015 0.9753
-5.5524 1.1315 -2.0264 0.9762
-5.5416 0.1247 -1.9822 0.9767
-5.4749 -0.3661 -1.9622 0.9770
-5.3695 -0.8447 -1.9438 0.9772
-4.5957 -2.5894 -1.8864 0.9778
-3.6976 -3.6646 -1.8617 0.9781
-2.5846 -4.4922 -1.8533 0.9782
-2.1748 -4.7070 -1.8542 0.9782
-1.3095 -5.0382 -1.8615 0.9781
-0.8581 -5.1525 -1.8679 0.9781
1.0202 -5.2466 -1.9114 0.9776
1.9681 -5.0655 -1.9434 0.9772
2.4347 -4.9160 -1.9618 0.9770
2.8924 -4.7270 -1.9817 0.9767
3.3379 -4.4983 -2.0031 0.9765
4.1789 -3.9234 -2.0498 0.9759
4.5671 -3.5785 -2.0749 0.9757
4.9166 -3.1886 -2.0956 0.9754
4.8820 -2.5795 -1.9745 0.9768
5.7617 -0.7475 -2.0777 0.9756
5.8769 -0.2337 -2.1033 0.9753
5.9443 0.2946 -2.1283 0.9750
5.9613 0.8327 -2.1525 0.9748
5.9262 1.3754 -2.1756 0.9745
5.8375 1.9172 -2.1972 0.9742
5.4978 2.9740 -2.2353 0.9738
4.9463 3.9542 -2.2646 0.9735
3.5088 4.8266 -2.1339 0.9750
3.0414 5.0815 -2.1178 0.9752
0.8644 3.1046 -1.1524 0.9864
0.5861 6.2840 -2.2569 0.9735
0.0234 6.2696 -2.2421 0.9737
-0.5195 6.0587 -2.1746 0.9745
-1.0727 6.0738 -2.2056 0.9741
-3.3983 4.7488 -2.0882 0.9755
-4.9525 3.3346 -2.1351 0.9750
-5.3388 2.3462 -2.0854 0.9755
-5.4592 1.8382 -2.0599 0.9758
-5.1221 -1.5849 -1.9174 0.9775
-4.6931 -2.4350 -1.8907 0.9778
-4.4320 -2.8276 -1.8800 0.9779
-4.1425 -3.1962 -1.8711 0.9780
-1.9154 -4.8228 -1.8557 0.9782
-1.4809 -4.9847 -1.8596 0.9782
-1.0337 -5.1125 -1.8653 0.9781
-0.1104 -5.2618 -1.8821 0.9779
0.3612 -5.2816 -1.8931 0.9778
0.8363 -5.2637 -1.9060 0.9776
1.3121 -5.2076 -1.9205 0.9774
2.2553 -4.9785 -1.9545 0.9770
2.7168 -4.8047 -1.9739 0.9768
3.6038 -4.3385 -2.0169 0.9763
4.4201 -3.7162 -2.0651 0.9758
4.7882 -3.3454 -2.0888 0.9755
4.7666 -2.7328 -1.9649 0.9769
5.0554 -2.3265 -1.9901 0.9766
5.3104 -1.8906 -2.0158 0.9763
5.5281 -1.4278 -2.0417 0.9760
5.7050 -0.9412 -2.0677 0.9757
5.8380 -0.4342 -2.0935 0.9754
5.9241 0.0891 -2.1187 0.9751
5.8782 1.7084 -2.1891 0.9743
3.9432 4.2128 -2.0635 0.9758
3.6918 4.7266 -2.1447 0.9748
5.5250 0.8519 -2.1423 0.9763
5.4804 1.3542 -2.1633 0.9761
5.3864 1.8541 -2.1830 0.9759
5.2427 2.3462 -2.2011 0.9757
5.0497 2.8249 -2.2173 0.9755
4.8083 3.2847 -2.2315 0.9754
4.5203 3.7201 -2.2435 0.9752
4.1388 4.0768 -2.2263 0.9754
0.8128 3.0887 -1.2239 0.9864
0.5081 2.9945 -1.1640 0.9871
-1.0711 5.5995 -2.1847 0.9759
-1.5520 5.4327 -2.1652 0.9761
-2.0105 5.2218 -2.1443 0.9763
-3.2144 4.3596 -2.0757 0.9771
-2.3725 2.2412 -1.2507 0.9861
-4.1056 3.2371 -2.0036 0.9779
-4.6501 3.0359 -2.1282 0.9765
-5.0083 2.1167 -2.0837 0.9770
-5.1182 1.6429 -2.0600 0.9772
-5.2016 0.2227 -1.9952 0.9779
-5.1509 -0.2396 -1.9760 0.9782
-5.0632 -0.6915 -1.9583 0.9783
-4.7829 -1.5547 -1.9273 0.9787
-4.1257 -2.7153 -1.8927 0.9791
-2.1355 -4.3859 -1.8694 0.9793
-1.7381 -4.5642 -1.8716 0.9793
-1.3270 -4.7109 -1.8756 0.9793
-0.9045 -4.8250 -1.8812 0.9792
-0.4726 -4.9056 -1.8886 0.9791
0.8567 -4.9386 -1.9208 0.9788
1.3030 -4.8778 -1.9348 0.9786
2.6144 -4.4742 -1.9859 0.9780
3.8229 -3.7380 -2.0490 0.9774
4.1879 -3.4207 -2.0722 0.9771
4.5198 -3.0633 -2.0924 0.9769
2.2890 -1.0143 -0.9595 0.9893
5.3268 -0.8013 -2.0643 0.9772
5.5072 0.1610 -2.1114 0.9767
5.5292 0.6583 -2.1339 0.9764
5.4286 1.6616 -2.1756 0.9760
5.1301 2.6419 -2.2113 0.9756
4.2705 3.9258 -2.2230 0.9755
3.8642 4.2477 -2.2006 0.9757
3.5470 4.6766 -2.2493 0.9752
3.1181 4.9776 -2.2509 0.9752
2.6789 5.2690 -2.2652 0.9750
0.6270 3.0528 -1.1943 0.9867
0.6601 5.8013 -2.2375 0.9753
0.1394 5.8028 -2.2244 0.9754
-0.3758 5.7524 -2.2091 0.9756
-1.8363 5.3083 -2.1525 0.9762
-2.6932 4.7971 -2.1082 0.9767
-3.0757 4.4876 -2.0849 0.9770
-3.4239 4.1476 -2.0610 0.9772
-2.2576 2.2850 -1.2310 0.9863
-4.9546 2.2984 -2.0930 0.9769
-5.0807 1.8263 -2.0690 0.9771
-5.1650 1.3509 -2.0459 0.9774
-5.2109 0.4035 -2.0029 0.9779
-5.1749 -0.0620 -1.9833 0.9781
-5.1013 -0.5183 -1.9650 0.9783
-4.9917 -0.9627 -1.9482 0.9785
-4.8475 -1.3928 -1.9328 0.9786
-4.6705 -1.8065 -1.9190 0.9788
-4.4624 -2.2016 -1.9069 0.9789
-4.2249 -2.5763 -1.8964 0.9790
-3.6690 -3.2580 -1.8803 0.9792
-3.0174 -3.8390 -1.8712 0.9793
-2.6604 -4.0884 -1.8692 0.9793
-1.8933 -4.4990 -1.8706 0.9793
-1.4873 -4.6580 -1.8738 0.9793
-1.0690 -4.7848 -1.8788 0.9792
-0.6404 -4.8784 -1.8856 0.9791
1.1307 -4.9056 -1.9292 0.9787
1.5756 -4.8224 -1.9442 0.9785
2.0162 -4.7022 -1.9606 0.9783
2.8728 -4.3505 -1.9979 0.9779
4.3982 -3.2076 -2.0861 0.9770
4.3836 -2.6328 -1.9596 0.9783
4.8968 -1.8562 -2.0069 0.9778
5.2723 -0.9800 -2.0550 0.9773
5.4008 -0.5120 -2.0789 0.9770
5.5263 0.4654 -2.1253 0.9765
5.5191 0.9660 -2.1472 0.9763
5.4634 1.4683 -2.1679 0.9761
4.9990 2.9313 -2.2208 0.9755
4.7468 3.3860 -2.2344 0.9753
4.4209 3.7913 -2.2318 0.9754
3.6814 4.5211 -2.2343 0.9753
2.8583 5.1724 -2.2647 0.9750
1.8897 5.5839 -2.2591 0.9751
0.7395 3.0611 -1.2068 0.9866
0.8614 5.7866 -2.2420 0.9753
0.3403 5.8085 -2.2297 0.9754
-0.1777 5.7779 -2.2153 0.9755
-0.6870 5.6963 -2.1988 0.9757
-1.1821 5.5657 -2.1804 0.9759
-1.6583 5.3885 -2.1606 0.9761
-2.1112 5.1680 -2.1393 0.9764
-2.5368 4.9076 -2.1171 0.9766
-3.2936 4.2823 -2.0703 0.9771
-2.5028 2.2699 -1.2949 0.9856
-4.1592 3.1446 -1.9981 0.9779
-4.7018 2.9354 -2.1241 0.9765
-4.8945 2.4791 -2.1025 0.9768
-5.0370 2.0093 -2.0782 0.9770
-5.1962 1.0589 -2.0322 0.9775
-5.1934 0.1169 -1.9907 0.9780
-5.1341 -0.3433 -1.9719 0.9782
-5.0382 -0.7926 -1.9545 0.9784
-4.9072 -1.2285 -1.9386 0.9786
-4.0654 -2.7955 -1.8907 0.9791
-3.1500 -3.7351 -1.8724 0.9793
-2.4321 -4.2272 -1.8689 0.9793
-2.0465 -4.4292 -1.8698 0.9793
-1.6458 -4.6004 -1.8724 0.9793
-1.2319 -4.7397 -1.8767 0.9792
-0.8071 -4.8463 -1.8828 0.9792
0.0670 -4.9575 -1.9000 0.9790
0.5117 -4.9607 -1.9111 0.9789
1.8467 -4.7530 -1.9541 0.9784
2.7107 -4.4300 -1.9902 0.9780
3.5262 -3.9590 -2.0317 0.9775
4.2676 -3.3438 -2.0776 0.9770
4.5892 -2.9763 -2.0961 0.9768
4.5542 -2.4063 -1.9739 0.9782
2.2900 -0.9596 -0.9515 0.9894
5.3561 -0.6949 -2.0697 0.9771
5.4585 -0.2171 -2.0934 0.9769
5.4047 1.7750 -2.1800 0.9759
4.5691 3.6527 -2.2417 0.9753
4.1937 4.0152 -2.2250 0.9754
3.0362 5.0727 -2.2656 0.9750
1.8404 3.8093 -1.6212 0.9820
2.0830 5.5206 -2.2612 0.9750
1.5782 5.6686 -2.2549 0.9751
0.5470 2.9676 -1.1564 0.9872
0.5416 5.8063 -2.2347 0.9753
0.0216 5.7959 -2.2211 0.9755
-1.4769 5.4623 -2.1684 0.9761
-2.3758 5.0127 -2.1258 0.9765
-2.7830 4.7296 -2.1030 0.9768
-4.2935 2.8909 -1.9835 0.9781
-4.8281 2.6585 -2.1121 0.9767
-4.9870 2.1916 -2.0875 0.9769
-5.1783 1.2427 -2.0408 0.9774
-5.2122 0.7678 -2.0190 0.9777
-5.2061 0.2970 -1.9983 0.9779
-5.1614 -0.1667 -1.9790 0.9781
-4.9619 -1.0618 -1.9445 0.9785
-4.4109 -2.2886 -1.9043 0.9789
-4.1670 -2.6585 -1.8942 0.9790
-1.8022 -4.5379 -1.8711 0.9793
-0.9724 -4.8090 -1.8802 0.9792
-0.5418 -4.8950 -1.8873 0.9791
0.3395 -4.9637 -1.9066 0.9789
0.7856 -4.9449 -1.9187 0.9788
1.2321 -4.8900 -1.9325 0.9786
1.6763 -4.7983 -1.9478 0.9785
2.5468 -4.5040 -1.9828 0.9781
2.9672 -4.3011 -2.0024 0.9779
4.4703 -3.1233 -2.0898 0.9769
4.4481 -2.5501 -1.9648 0.9783
4.9469 -1.7612 -2.0123 0.9778
5.1451 -1.3289 -2.0364 0.9775
5.3051 -0.8752 -2.0605 0.9772
5.5289 0.5788 -2.1303 0.9765
5.5108 1.0802 -2.1520 0.9762
5.4438 1.5821 -2.1725 0.9760
5.3272 2.0791 -2.1915 0.9758
4.9458 3.0366 -2.2241 0.9754
4.6830 3.4860 -2.2372 0.9753
4.3229 3.8622 -2.2215 0.9755
5.1005 -0.1303 -2.0882 0.9782
5.1436 0.7931 -2.1300 0.9778
5.0986 1.2599 -2.1495 0.9776
4.8716 2.1801 -2.1844 0.9772
4.4636 3.0492 -2.2124 0.9769
4.1946 3.4520 -2.2234 0.9768
3.8854 3.8272 -2.2321 0.9767
3.5388 4.1702 -2.2385 0.9766
3.1584 4.4768 -2.2423 0.9766
1.7777 3.8170 -1.7233 0.9820
1.8583 5.1451 -2.2389 0.9766
1.3884 5.2758 -2.2328 0.9767
0.4258 5.3915 -2.2135 0.9769
-0.5318 5.3142 -2.1858 0.9772
-0.9958 5.2059 -2.1693 0.9774
-2.2755 4.6300 -2.1114 0.9779
-2.9990 4.0674 -2.0683 0.9784
-3.3135 3.7431 -2.0460 0.9786
-4.5479 2.4207 -2.1086 0.9780
-4.8679 1.0953 -2.0421 0.9787
-1.9386 -0.0902 -0.7943 0.9916
-4.6500 -1.0643 -1.9523 0.9796
-4.3277 -1.8478 -1.9259 0.9799
-3.8893 -2.5597 -1.9056 0.9801
-3.6307 -2.8844 -1.8978 0.9802
-3.0435 -3.4637 -1.8871 0.9803
-2.0146 -4.1375 -1.8834 0.9803
-1.6395 -4.3054 -1.8855 0.9803
-1.2516 -4.4432 -1.8893 0.9802
-0.0317 -4.6674 -1.9103 0.9800
0.8069 -4.6516 -1.9322 0.9798
2.0548 -4.3697 -1.9763 0.9793
2.4577 -4.2059 -1.9937 0.9792
3.2267 -3.7742 -2.0323 0.9788
4.2335 -2.8693 -2.0931 0.9781
4.2058 -2.3325 -1.9683 0.9794
4.8320 -1.1751 -2.0353 0.9787
4.9717 -0.7478 -2.0577 0.9785
5.0725 -0.3049 -2.0798 0.9783
5.1322 0.1501 -2.1014 0.9781
5.1490 0.6130 -2.1222 0.9778
5.1214 1.0796 -2.1421 0.9776
4.9297 2.0051 -2.1781 0.9773
4.7654 2.4541 -2.1938 0.9771
4.3035 3.2994 -2.2194 0.9768
2.9100 4.6454 -2.2435 0.9766
2.4841 4.8860 -2.2433 0.9766
2.0362 5.0819 -2.2406 0.9766
1.5714 5.2310 -2.2354 0.9767
0.6276 3.0560 -1.2768 0.9866
0.6126 5.3844 -2.2179 0.9769
-0.8182 5.2531 -2.1759 0.9773
-1.2729 5.1177 -2.1584 0.9775
-2.1225 4.7236 -2.1194 0.9779
-2.5101 4.4709 -2.0985 0.9781
-2.8687 4.1856 -2.0768 0.9783
-3.7489 3.1715 -2.0097 0.9790
-3.9721 2.7932 -1.9874 0.9792
-4.4752 2.5838 -2.1149 0.9779
-4.6425 2.1536 -2.0946 0.9781
-4.7642 1.7125 -2.0720 0.9784
-2.1040 0.3537 -0.8732 0.9908
-1.9549 0.1514 -0.8025 0.9916
-1.9101 -0.0229 -0.7818 0.9918
-4.5642 -1.3114 -1.9436 0.9797
-3.9824 -2.4284 -1.9090 0.9800
-3.4601 -3.0724 -1.8938 0.9802
-3.1637 -3.3595 -1.8887 0.9803
-2.5097 -3.8569 -1.8833 0.9803
-1.7860 -4.2441 -1.8845 0.9803
-1.0081 -4.5125 -1.8924 0.9802
-0.1922 -4.6549 -1.9068 0.9801
0.6444 -4.6653 -1.9275 0.9799
1.0647 -4.6194 -1.9402 0.9797
1.8968 -4.4237 -1.9699 0.9794
2.6996 -4.0882 -2.0051 0.9790
3.0828 -3.8683 -2.0245 0.9788
3.7980 -3.3270 -2.0665 0.9784
4.5788 -1.7356 -2.0041 0.9791
5.1477 0.4335 -2.1143 0.9779
5.1374 0.8992 -2.1346 0.9777
5.0821 1.3658 -2.1538 0.9775
4.1278 3.5399 -2.2256 0.9768
3.4551 4.2432 -2.2396 0.9766
3.0676 4.5411 -2.2429 0.9766
2.6516 4.7982 -2.2437 0.9766
1.7526 5.1790 -2.2377 0.9766
0.7750 3.2078 -1.3506 0.9858
0.7994 5.3699 -2.2220 0.9768
-0.6384 5.2935 -2.1822 0.9772
-1.9657 4.8117 -2.1273 0.9778
-3.0734 3.9960 -2.0632 0.9784
-2.1794 2.3635 -1.3158 0.9862
-2.4176 2.1926 -1.3358 0.9860
-4.5849 2.3223 -2.1035 0.9780
-4.8778 0.9940 -2.0374 0.9787
-2.0159 -0.3171 -0.8352 0.9912
-4.6196 -1.1565 -1.9490 0.9796
-3.8327 -2.6354 -1.9037 0.9801
-3.5685 -2.9551 -1.8963 0.9802
-3.2808 -3.2515 -1.8905 0.9802
-1.5524 -4.3394 -1.8862 0.9803
-0.7611 -4.5699 -1.8961 0.9802
-0.3520 -4.6375 -1.9035 0.9801
0.4821 -4.6738 -1.9230 0.9799
2.1472 -4.3356 -1.9801 0.9793
4.2980 -2.7874 -2.0966 0.9781
4.6991 -1.4925 -2.0179 0.9789
4.8670 -1.0796 -2.0404 0.9787
5.0897 -0.2024 -2.0847 0.9782
5.1088 1.1857 -2.1465 0.9776
5.0255 1.6505 -2.1649 0.9774
3.5962 4.1180 -2.2376 0.9766
3.2210 4.4307 -2.2419 0.9766
1.4639 5.2582 -2.2339 0.9767
0.5446 2.9549 -1.2297 0.9871
0.0201 5.3822 -2.2028 0.9770
-0.4568 5.3272 -2.1883 0.9772
-0.9230 5.2261 -2.1720 0.9773
-1.3738 5.0810 -2.1542 0.9775
-2.5942 4.4088 -2.0936 0.9781
-3.2658 3.7964 -2.0496 0.9786
-3.8028 3.0869 -2.0046 0.9791
-4.0177 2.7052 -1.9823 0.9793
-4.5187 2.4881 -2.1112 0.9780
-1.9451 0.1110 -0.7974 0.9916
-1.9281 -0.0623 -0.7895 0.9917
-4.5294 -1.4015 -1.9405 0.9797
-4.3577 -1.7879 -1.9278 0.9798
-2.7714 -3.6773 -1.8846 0.9803
-2.4307 -3.9066 -1.8831 0.9803
-1.7001 -4.2807 -1.8851 0.9803
-0.0978 -4.6629 -1.9088 0.9800
0.3199 -4.6773 -1.9188 0.9799
0.7400 -4.6579 -1.9303 0.9798
1.1601 -4.6042 -1.9433 0.9797
1.5776 -4.5158 -1.9578 0.9795
2.3943 -4.2343 -1.9909 0.9792
3.1678 -3.8136 -2.0290 0.9788
3.5309 -3.5519 -2.0498 0.9786
3.8741 -3.2571 -2.0715 0.9784
4.1875 -2.9257 -2.0907 0.9782
4.1649 -2.3878 -1.9648 0.9795
5.1492 0.5390 -2.1190 0.9779
5.0631 1.4715 -2.1579 0.9775
4.9517 1.9326 -2.1755 0.9773
4.5923 2.8196 -2.2055 0.9770
4.3465 3.2355 -2.2177 0.9769
4.0589 3.6263 -2.2276 0.9768
3.7322 3.9874 -2.2353 0.9767
4.7716 -0.1219 -2.0802 0.9794
4.8090 0.3068 -2.1001 0.9792
4.8058 0.7410 -2.1192 0.9790
4.7608 1.1764 -2.1373 0.9788
4.5440 2.0335 -2.1696 0.9785
4.3724 2.4460 -2.1835 0.9784
4.1598 2.8417 -2.1955 0.9783
3.9078 3.2160 -2.2057 0.9782
3.6188 3.5646 -2.2137 0.9781
3.2953 3.8833 -2.2196 0.9780
2.5589 4.4164 -2.2245 0.9780
0.3968 5.0244 -2.1966 0.9782
-0.4960 4.9566 -2.1709 0.9785
-1.3481 4.7189 -2.1389 0.9788
-1.7486 4.5415 -2.1209 0.9790
-2.4810 4.0826 -2.0821 0.9794
-3.6016 2.8396 -1.9988 0.9802
-3.8003 2.4811 -1.9780 0.9804
-4.2680 2.2717 -2.1071 0.9791
-4.4123 1.8648 -2.0876 0.9793
-1.5272 0.3436 -0.6822 0.9932
-1.5186 0.2017 -0.6677 0.9933
-1.5175 -0.2073 -0.6675 0.9933
-3.4312 -2.7259 -1.9099 0.9811
-3.1648 -3.0117 -1.9040 0.9811
-2.8772 -3.2744 -1.8997 0.9812
-1.5500 -4.0703 -1.8982 0.9812
-1.1832 -4.2002 -1.9017 0.9811
-0.0299 -4.4094 -1.9217 0.9809
0.3652 -4.4166 -1.9314 0.9808
0.7618 -4.3917 -1.9426 0.9807
1.9375 -4.1203 -1.9843 0.9803
2.3162 -3.9639 -2.0008 0.9802
2.6839 -3.7746 -2.0185 0.9800
3.9769 -2.6954 -2.0938 0.9793
3.9492 -2.1902 -1.9681 0.9805
4.3659 -1.4849 -2.0098 0.9801
4.5278 -1.1012 -2.0308 0.9799
4.6555 -0.7003 -2.0518 0.9797
4.7993 0.1403 -2.0925 0.9793
4.7832 1.0083 -2.1304 0.9789
4.7124 1.4424 -2.1478 0.9787
4.4436 2.2884 -2.1783 0.9784
4.2467 2.6911 -2.1911 0.9783
4.0097 3.0742 -2.2020 0.9782
3.7347 3.4332 -2.2109 0.9781
2.7094 4.3252 -2.2243 0.9780
1.9626 3.8602 -1.8873 0.9813
1.8960 4.7319 -2.2216 0.9780
0.6287 3.0611 -1.3619 0.9865
0.1207 5.0224 -2.1895 0.9783
-0.3256 4.9833 -2.1764 0.9784
-0.7634 4.9011 -2.1617 0.9786
-1.1883 4.7774 -2.1455 0.9787
-1.5963 4.6144 -2.1280 0.9789
-1.9838 4.4147 -2.1093 0.9791
-2.3475 4.1812 -2.0898 0.9793
-2.6847 3.9171 -2.0696 0.9795
-2.2030 2.2297 -1.3660 0.9864
-4.1988 2.4243 -2.1130 0.9791
-1.5057 0.2531 -0.6654 0.9934
-1.5008 -0.2895 -0.6662 0.9934
-1.5674 -0.4504 -0.7107 0.9929
-3.5281 -2.6097 -1.9125 0.9810
-2.6910 -3.4237 -1.8978 0.9812
-2.3728 -3.6465 -1.8960 0.9812
-1.6886 -4.0124 -1.8972 0.9812
-0.9529 -4.2653 -1.9047 0.9811
-0.1816 -4.3981 -1.9184 0.9810
0.2122 -4.4176 -1.9275 0.9809
1.0050 -4.3603 -1.9501 0.9807
1.7888 -4.1719 -1.9783 0.9804
2.5433 -3.8516 -2.0115 0.9801
2.9028 -3.6424 -2.0299 0.9799
3.2466 -3.4013 -2.0492 0.9797
3.5719 -3.1290 -2.0695 0.9795
3.8713 -2.8234 -2.0882 0.9793
3.8558 -2.3158 -1.9602 0.9806
4.0894 -1.9834 -1.9808 0.9804
4.4692 -1.2516 -2.0227 0.9800
4.7158 -0.4471 -2.0645 0.9795
4.7836 -0.0251 -2.0848 0.9793
4.8119 0.4052 -2.1045 0.9792
4.7992 0.8400 -2.1234 0.9790
4.7447 1.2751 -2.1412 0.9788
4.6479 1.7062 -2.1578 0.9786
4.5086 2.1285 -2.1729 0.9785
4.3276 2.5376 -2.1864 0.9783
3.8453 3.2977 -2.2077 0.9781
3.2173 3.9511 -2.2206 0.9780
2.8562 4.2281 -2.2237 0.9780
1.6321 4.8228 -2.2190 0.9780
0.7726 3.1980 -1.4338 0.9857
-1.0259 4.8299 -2.1519 0.9787
-1.8367 4.4960 -2.1166 0.9790
-2.5577 4.0226 -2.0775 0.9794
-2.1476 2.3291 -1.3807 0.9863
-1.5732 0.4700 -0.7156 0.9929
-1.5102 0.3078 -0.6717 0.9933
-1.5239 0.1710 -0.6683 0.9933
-1.5267 0.0344 -0.6655 0.9934
-1.5295 -0.1023 -0.6681 0.9933
-1.5453 -0.3868 -0.6942 0.9931
-1.5923 -0.5535 -0.7347 0.9927
-3.3726 -2.7928 -1.9084 0.9811
-3.1012 -3.0735 -1.9029 0.9811
-2.8090 -3.3308 -1.8989 0.9812
-2.4978 -3.5635 -1.8965 0.9812
-2.1692 -3.7703 -1.8957 0.9812
-1.8252 -3.9503 -1.8965 0.9812
-1.0983 -4.2256 -1.9028 0.9811
0.0596 -4.4138 -1.9238 0.9809
0.4553 -4.4138 -1.9338 0.9808
0.8520 -4.3815 -1.9453 0.9807
1.2474 -4.3165 -1.9582 0.9806
1.6391 -4.2186 -1.9724 0.9804
2.0244 -4.0876 -1.9880 0.9803
3.4486 -3.2378 -2.0616 0.9796
3.7610 -2.9469 -2.0823 0.9794
4.0371 -2.6182 -2.0971 0.9792
4.0023 -2.1147 -1.9728 0.9804
2.2897 -0.9595 -1.0819 0.9892
4.4056 -1.3993 -2.0146 0.9800
4.8057 0.2382 -2.0970 0.9792
4.8090 0.6718 -2.1162 0.9790
4.6903 1.5404 -2.1515 0.9787
4.5674 1.9667 -2.1672 0.9785
4.4024 2.3814 -2.1814 0.9784
3.9505 3.1581 -2.2042 0.9782
3.6671 3.5110 -2.2126 0.9781
3.3489 3.8347 -2.2188 0.9780
0.0187 5.0174 -2.1867 0.9783
-0.4260 4.9683 -2.1732 0.9785
-1.6863 4.5721 -2.1238 0.9790
-2.0686 4.3645 -2.1050 0.9791
-3.0588 3.5558 -2.0442 0.9797
-2.2349 2.1720 -1.3582 0.9865
-3.7709 2.5390 -1.9813 0.9804
-1.5296 0.0873 -0.6677 0.9933
-1.5280 -0.0493 -0.6663 0.9934
-1.5186 -0.3250 -0.6768 0.9932
-1.5782 -0.4883 -0.7200 0.9928
-4.1147 -1.6882 -1.9383 0.9808
-3.9262 -2.0371 -1.9277 0.9809
-3.7113 -2.3677 -1.9186 0.9810
-3.4715 -2.6785 -1.9109 0.9810
-2.9243 -3.2342 -1.9003 0.9812
-2.6202 -3.4766 -1.8973 0.9812
-2.2981 -3.6935 -1.8959 0.9812
-1.9598 -3.8840 -1.8960 0.9812
-0.8667 -4.2865 -1.9059 0.9811
-0.0924 -4.4053 -1.9203 0.9810
0.3021 -4.4176 -1.9298 0.9809
0.6987 -4.3978 -1.9407 0.9808
1.0949 -4.3455 -1.9530 0.9806
2.9824 -3.5904 -2.0342 0.9798
3.9339 -2.7485 -2.0915 0.9793
4.3372 -1.5442 -2.0064 0.9801
4.6375 -0.7651 -2.0484 0.9797
4.7936 0.0721 -2.0893 0.9793
4.8126 0.5038 -2.1089 0.9791
4.7906 0.9391 -2.1275 0.9789
4.6199 1.8031 -2.1614 0.9786
4.2807 2.6283 -2.1892 0.9783
3.7809 3.3779 -2.2096 0.9781
3.4758 3.7134 -2.2167 0.9781
4.4772 -0.1144 -2.0731 0.9805
4.5096 0.2877 -2.0917 0.9803
4.5040 0.6945 -2.1095 0.9801
4.0901 2.2881 -2.1693 0.9796
3.8898 2.6573 -2.1806 0.9795
2.7477 3.8946 -2.2062 0.9792
2.3908 4.1263 -2.2074 0.9792
1.6170 4.4769 -2.2033 0.9792
1.2085 4.5922 -2.1980 0.9793
0.3710 4.6982 -2.1815 0.9794
-0.0491 4.6887 -2.1704 0.9795
-1.9947 4.0587 -2.0933 0.9803
-2.6356 3.5745 -2.0557 0.9806
-2.1140 2.3880 -1.4763 0.9860
-3.3875 2.6709 -1.9968 0.9812
-3.5766 2.3351 -1.9772 0.9813
-4.0159 2.1376 -2.1058 0.9801
-1.3244 0.5598 -0.6656 0.9937
-1.3304 0.4270 -0.6467 0.9939
-1.3300 0.1767 -0.6210 0.9941
-1.3380 0.0573 -0.6199 0.9941
-1.3382 -0.0622 -0.6201 0.9941
-1.3291 -0.1815 -0.6209 0.9941
-1.3311 -0.4327 -0.6479 0.9938
-1.3234 -0.5651 -0.6661 0.9937
-3.6855 -1.9791 -1.9364 0.9817
-2.9974 -2.8524 -1.9153 0.9819
-2.4346 -3.3276 -1.9085 0.9820
-2.1270 -3.5294 -1.9074 0.9820
-1.4682 -3.8556 -1.9097 0.9820
-1.1206 -3.9782 -1.9131 0.9819
-0.7635 -4.0726 -1.9180 0.9819
1.0949 -4.0991 -1.9639 0.9815
1.8310 -3.8937 -1.9916 0.9812
2.5338 -3.5636 -2.0240 0.9809
2.8663 -3.3527 -2.0417 0.9807
3.1826 -3.1119 -2.0604 0.9806
4.3719 -0.6576 -2.0465 0.9807
4.4814 0.9447 -2.1200 0.9800
4.3046 1.7509 -2.1511 0.9797
4.1573 2.1410 -2.1646 0.9796
3.9716 2.5168 -2.1764 0.9795
3.4907 3.2090 -2.1948 0.9793
2.8789 3.7958 -2.2052 0.9792
2.5314 4.0410 -2.2072 0.9792
1.7716 4.4214 -2.2048 0.9792
1.3676 4.5525 -2.2003 0.9793
0.6299 3.0670 -1.4493 0.9863
0.1129 4.6973 -2.1749 0.9795
-1.1128 4.4739 -2.1340 0.9799
-1.8597 4.1388 -2.1003 0.9802
-2.2020 3.9221 -2.0821 0.9804
-3.5073 2.4664 -1.9847 0.9813
-1.3333 0.4793 -0.6558 0.9938
-1.3140 0.3437 -0.6287 0.9940
-1.3202 0.2219 -0.6197 0.9941
-1.3114 -0.2529 -0.6182 0.9941
-1.3309 -0.5148 -0.6605 0.9937
-3.7586 -1.8544 -1.9400 0.9817
-3.3407 -2.4710 -1.9234 0.9819
-3.0972 -2.7502 -1.9173 0.9819
-2.5490 -3.2431 -1.9094 0.9820
-2.2478 -3.4544 -1.9077 0.9820
-1.9307 -3.6406 -1.9075 0.9820
-1.5995 -3.8009 -1.9088 0.9820
-1.2562 -3.9341 -1.9116 0.9820
-0.9025 -4.0396 -1.9159 0.9819
0.9506 -4.1243 -1.9591 0.9815
1.3231 -4.0494 -1.9719 0.9814
1.6907 -3.9431 -1.9859 0.9813
2.0511 -3.8056 -2.0011 0.9811
2.7397 -3.4377 -2.0348 0.9808
3.3674 -2.9499 -2.0722 0.9805
3.6465 -2.6594 -2.0891 0.9803
3.6308 -2.1806 -1.9605 0.9815
3.8484 -1.8665 -1.9798 0.9813
4.0391 -1.5311 -1.9995 0.9811
4.3306 -0.8050 -2.0389 0.9808
4.5117 0.3799 -2.0958 0.9802
4.4974 0.7872 -2.1134 0.9801
4.3511 1.5972 -2.1455 0.9798
4.2188 1.9917 -2.1595 0.9796
4.0478 2.3736 -2.1720 0.9795
3.8391 2.7386 -2.1829 0.9794
3.5944 3.0825 -2.1919 0.9793
3.3159 3.4016 -2.1989 0.9793
2.6686 3.9504 -2.2067 0.9792
2.3065 4.1739 -2.2074 0.9792
1.7507 3.9672 -2.0072 0.9811
0.7703 3.1885 -1.5184 0.9856
0.6962 4.6771 -2.1888 0.9794
0.2753 4.6997 -2.1791 0.9795
-0.1440 4.6808 -2.1677 0.9796
-0.5573 4.6212 -2.1546 0.9797
-0.9605 4.5223 -2.1400 0.9798
-1.3498 4.3859 -2.1241 0.9800
-1.7215 4.2141 -2.1071 0.9801
-2.0725 4.0094 -2.0892 0.9803
-2.7017 3.5128 -2.0513 0.9807
-2.1401 2.3209 -1.4613 0.9862
-4.0522 2.0525 -2.1026 0.9802
-1.3254 0.3960 -0.6403 0.9939
-1.3071 0.2664 -0.6175 0.9941
-1.3364 0.0301 -0.6188 0.9941
-1.3385 -0.0895 -0.6210 0.9941
-1.3168 -0.5941 -0.6687 0.9937
-3.6407 -2.0513 -1.9343 0.9817
-3.4288 -2.3577 -1.9262 0.9818
-3.1938 -2.6448 -1.9195 0.9819
-2.9373 -2.9110 -1.9142 0.9819
-2.6608 -3.1550 -1.9104 0.9820
-2.3661 -3.3756 -1.9082 0.9820
-2.0550 -3.5717 -1.9074 0.9820
-0.6811 -4.0901 -1.9193 0.9819
0.0565 -4.1780 -1.9341 0.9818
0.4308 -4.1769 -1.9437 0.9817
1.1796 -4.0820 -1.9668 0.9814
2.2675 -3.7058 -2.0110 0.9810
3.2519 -3.0531 -2.0647 0.9805
3.5438 -2.7766 -2.0839 0.9804
3.7674 -1.9905 -1.9723 0.9814
4.1419 -1.3155 -2.0116 0.9810
4.2843 -0.9503 -2.0313 0.9808
4.3938 -0.5700 -2.0509 0.9807
4.5070 0.2234 -2.0888 0.9803
4.4693 1.0373 -2.1237 0.9800
4.3916 1.4423 -2.1396 0.9798
4.2746 1.8406 -2.1543 0.9797
4.1184 2.2278 -2.1674 0.9796
3.9241 2.5998 -2.1789 0.9795
3.6931 2.9524 -2.1886 0.9794
2.8022 3.8545 -2.2059 0.9792
2.4491 4.0918 -2.2074 0.9792
1.6809 4.4548 -2.2039 0.9792
1.2742 4.5766 -2.1990 0.9793
0.4380 4.6959 -2.1831 0.9794
-0.3986 4.6490 -2.1598 0.9796
-0.8062 4.5651 -2.1458 0.9798
-1.2013 4.4429 -2.1304 0.9799
-1.5802 4.2845 -2.1138 0.9801
-1.9396 4.0922 -2.0962 0.9802
-2.2765 3.8687 -2.0778 0.9804
-2.5884 3.6170 -2.0588 0.9806
-2.8732 3.3400 -2.0394 0.9808
-2.2272 2.1646 -1.4376 0.9864
-3.3545 2.7230 -1.9999 0.9811
-3.5487 2.3894 -1.9803 0.9813
-3.9895 2.1967 -2.1081 0.9801
-1.3202 0.5802 -0.6675 0.9937
-1.3330 0.4488 -0.6511 0.9938
-1.3263 0.1954 -0.6206 0.9941
-1.3373 -0.0432 -0.6194 0.9941
-1.3280 -0.4109 -0.6434 0.9939
-1.3271 -0.5445 -0.6640 0.9937
-3.0388 -2.8107 -1.9161 0.9819
-2.7699 -3.0634 -1.9117 0.9820
-2.4820 -3.2933 -1.9089 0.9820
-2.1770 -3.4989 -1.9075 0.9820
-1.1766 -3.9606 -1.9125 0.9820
-0.8208 -4.0595 -1.9171 0.9819
2.1317 -3.7700 -2.0047 0.9811
3.1335 -3.1522 -2.0574 0.9806
3.6825 -2.1112 -1.9648 0.9815
3.8942 -1.7921 -1.9843 0.9813
4.3555 -0.7185 -2.0434 0.9807
4.5119 0.4723 -2.0999 0.9802
4.3245 1.6878 -2.1488 0.9797
4.1833 2.0798 -2.1625 0.9796
3.7866 2.8187 -2.1851 0.9794
3.5340 3.1574 -2.1936 0.9793
3.2482 3.4702 -2.2002 0.9793
2.9318 3.7536 -2.2047 0.9792
4.2118 -0.1076 -2.0667 0.9814
4.1889 1.0351 -2.1165 0.9810
4.1082 1.4142 -2.1312 0.9808
3.9908 1.7860 -2.1447 0.9807
3.8371 2.1466 -2.1567 0.9806
3.6481 2.4921 -2.1671 0.9805
2.8860 3.4010 -2.1880 0.9803
2.5750 3.6499 -2.1911 0.9803
1.1329 4.3047 -2.1834 0.9804
0.3479 4.4061 -2.1680 0.9805
-0.0460 4.3985 -2.1577 0.9806
-0.4356 4.3528 -2.1458 0.9807
-1.8754 3.8159 -2.0856 0.9812
-2.1033 2.3759 -1.5565 0.9860
-3.3739 2.2027 -1.9765 0.9822
-1.1174 0.5948 -0.6209 0.9944
-1.1469 0.4847 -0.6108 0.9945
-1.1673 0.2627 -0.5869 0.9947
-1.1885 0.1579 -0.5881 0.9947
-1.1964 0.0512 -0.5874 0.9947
-1.1661 -0.2669 -0.5868 0.9947
-3.2997 -2.1717 -1.9377 0.9826
-2.8438 -2.7062 -1.9256 0.9827
-2.3103 -3.1576 -1.9192 0.9827
-1.7122 -3.5165 -1.9185 0.9827
-1.3932 -3.6586 -1.9203 0.9827
-0.7243 -3.8636 -1.9282 0.9826
-0.3782 -3.9251 -1.9343 0.9826
0.3276 -3.9628 -1.9505 0.9824
0.6831 -3.9381 -1.9606 0.9823
1.3884 -3.8001 -1.9846 0.9821
1.7336 -3.6866 -1.9983 0.9820
2.3970 -3.3712 -2.0290 0.9817
2.7103 -3.1701 -2.0459 0.9816
3.0078 -2.9410 -2.0635 0.9814
3.2871 -2.6849 -2.0819 0.9813
3.5081 -1.9456 -1.9677 0.9823
2.2764 -1.0087 -1.2213 0.9890
4.0078 -0.9747 -2.0232 0.9818
4.1916 -0.2519 -2.0598 0.9815
4.2333 0.1238 -2.0774 0.9813
4.2101 0.8875 -2.1106 0.9810
3.7252 2.3607 -2.1633 0.9805
2.9992 3.2968 -2.1862 0.9803
2.6981 3.5574 -2.1901 0.9803
2.3723 3.7870 -2.1920 0.9803
2.0251 3.9831 -2.1918 0.9803
1.2819 4.2672 -2.1856 0.9803
0.6314 3.0742 -1.5394 0.9861
-0.2858 4.3750 -2.1506 0.9807
-0.6707 4.3063 -2.1378 0.9808
-1.4052 4.0621 -2.1084 0.9810
-2.0710 3.6887 -2.0751 0.9813
-2.3711 3.4596 -2.0574 0.9815
-2.6465 3.2059 -2.0392 0.9816
-2.1876 2.2141 -1.5268 0.9862
-3.4696 2.0033 -1.9652 0.9823
-1.1819 0.1987 -0.5879 0.9947
-1.1928 -0.1212 -0.5881 0.9947
-1.1761 -0.2268 -0.5875 0.9947
-1.1590 -0.3330 -0.5915 0.9946
-1.1311 -0.5580 -0.6187 0.9944
-3.3777 -2.0597 -1.9406 0.9825
-1.8321 -3.4548 -1.9182 0.9827
-1.5178 -3.6067 -1.9195 0.9827
-0.5126 -3.9047 -1.9318 0.9826
-0.1631 -3.9489 -1.9387 0.9825
0.5458 -3.9512 -1.9565 0.9824
2.2723 -3.4412 -2.0228 0.9818
3.4424 -2.5106 -2.0899 0.9812
3.4266 -2.0580 -1.9607 0.9823
4.2416 0.3572 -2.0879 0.9812
4.1738 1.1217 -2.1200 0.9809
4.0848 1.4994 -2.1344 0.9808
3.9590 1.8691 -2.1475 0.9807
3.6003 2.5682 -2.1693 0.9805
3.1082 3.1885 -2.1842 0.9804
2.8176 3.4602 -2.1888 0.9803
2.1615 3.9115 -2.1921 0.9803
0.7766 3.2147 -1.6222 0.9854
0.2582 4.4078 -2.1658 0.9805
-0.5231 4.3372 -2.1429 0.9807
-0.9019 4.2461 -2.1293 0.9808
-1.2679 4.1199 -2.1145 0.9810
-1.6179 3.9605 -2.0985 0.9811
-2.2580 3.5512 -2.0643 0.9814
-2.1325 2.3127 -1.5431 0.9861
-3.2373 2.4476 -1.9907 0.9821
-3.4107 2.1293 -1.9723 0.9822
-1.1509 0.4591 -0.6078 0.9945
-1.1590 0.3462 -0.5933 0.9946
-1.1733 0.2391 -0.5873 0.9947
-1.1956 -0.0799 -0.5878 0.9947
-1.1841 -0.1863 -0.5880 0.9947
-1.1591 -0.2902 -0.5861 0.9947
-1.1412 -0.5149 -0.6141 0.9944
-3.4524 -1.9452 -1.9438 0.9825
-3.2522 -2.2363 -1.9360 0.9826
-2.5248 -2.9937 -1.9210 0.9827
-1.9501 -3.3894 -1.9181 0.9827
-0.9870 -3.7972 -1.9245 0.9827
-0.6462 -3.8801 -1.9295 0.9826
-0.2987 -3.9352 -1.9358 0.9826
0.4084 -3.9598 -1.9527 0.9824
1.1176 -3.8675 -1.9747 0.9822
1.8110 -3.6566 -2.0016 0.9820
2.4695 -3.3280 -2.0328 0.9817
2.7794 -3.1205 -2.0498 0.9816
3.0730 -2.8851 -2.0676 0.9814
3.5882 -2.3271 -2.0978 0.9811
3.5543 -1.8780 -1.9719 0.9822
3.9032 -1.2398 -2.0089 0.9819
4.0351 -0.8950 -2.0274 0.9818
4.1360 -0.5366 -2.0458 0.9816
4.1983 0.9744 -2.1141 0.9810
3.8639 2.0901 -2.1549 0.9806
2.9331 3.3586 -2.1873 0.9803
2.6261 3.6124 -2.1907 0.9803
1.8350 3.7980 -2.0690 0.9814
1.5753 4.1751 -2.1889 0.9803
0.4107 4.4037 -2.1695 0.9805
0.0164 4.4023 -2.1595 0.9806
-0.3741 4.3626 -2.1478 0.9807
-0.7569 4.2856 -2.1347 0.9808
-1.1282 4.1727 -2.1203 0.9809
-2.1413 3.6390 -2.0711 0.9814
-2.4360 3.4040 -2.0533 0.9815
-2.7055 3.1451 -2.0350 0.9817
-3.1623 2.5670 -1.9979 0.9820
-1.1092 0.6108 -0.6211 0.9944
-1.1437 0.5026 -0.6128 0.9944
-1.1576 0.3898 -0.5992 0.9946
-1.1626 0.2790 -0.5865 0.9947
-1.1960 0.0682 -0.5876 0.9947
-1.1965 -0.0386 -0.5872 0.9947
-1.1705 -0.2505 -0.5871 0.9947
-1.1588 -0.3586 -0.5950 0.9946
-3.3322 -2.1259 -1.9389 0.9825
-2.6282 -2.9067 -1.9222 0.9827
-2.3552 -3.1250 -1.9195 0.9827
-1.4447 -3.6377 -1.9199 0.9827
-0.4336 -3.9172 -1.9332 0.9826
0.6266 -3.9440 -1.9589 0.9824
0.9813 -3.8945 -1.9701 0.9823
1.3329 -3.8154 -1.9825 0.9822
1.6792 -3.7066 -1.9960 0.9820
2.0176 -3.5682 -2.0107 0.9819
2.6614 -3.2040 -2.0431 0.9816
3.2440 -2.7274 -2.0789 0.9813
3.4975 -2.4436 -2.0928 0.9812
2.3621 -1.0870 -1.2755 0.9885
4.1008 -0.6765 -2.0388 0.9817
4.2412 0.4440 -2.0918 0.9812
4.0594 1.5843 -2.1375 0.9808
3.9254 1.9515 -2.1503 0.9807
3.7554 2.3058 -2.1616 0.9806
3.5508 2.6432 -2.1714 0.9805
3.7547 1.6803 -2.1340 0.9816
3.4301 2.3433 -2.1551 0.9815
3.2198 2.6498 -2.1633 0.9814
2.7120 3.1960 -2.1745 0.9813
2.4196 3.4296 -2.1774 0.9813
2.1052 3.6333 -2.1784 0.9813
1.7722 3.8050 -2.1776 0.9813
1.4241 3.9429 -2.1748 0.9813
1.0647 4.0457 -2.1703 0.9813
0.6978 4.1124 -2.1639 0.9814
0.3271 4.1428 -2.1559 0.9814
-0.0433 4.1368 -2.1462 0.9815
-0.4098 4.0952 -2.1351 0.9816
-0.7687 4.0187 -2.1226 0.9817
-1.4505 3.7673 -2.0943 0.9820
-1.7673 3.5960 -2.0787 0.9821
-2.3399 3.1736 -2.0455 0.9824
-2.0942 2.3656 -1.6390 0.9859
-3.0172 2.3789 -1.9933 0.9828
-1.0499 0.4437 -0.5913 0.9949
-1.0625 0.3410 -0.5789 0.9950
-1.0794 0.2429 -0.5740 0.9950
-1.1065 -0.0515 -0.5746 0.9950
-1.0986 -0.1500 -0.5752 0.9950
-1.0783 -0.2468 -0.5739 0.9950
-1.0491 -0.4479 -0.5918 0.9949
-1.0155 -0.5453 -0.5980 0.9948
-1.6272 -3.3420 -1.9284 0.9834
-1.3240 -3.4769 -1.9301 0.9834
-0.6882 -3.6710 -1.9376 0.9833
-0.0255 -3.7597 -1.9505 0.9832
0.3111 -3.7631 -1.9589 0.9831
0.9846 -3.6862 -1.9794 0.9830
1.3173 -3.6054 -1.9913 0.9829
2.2716 -3.1948 -2.0336 0.9825
2.5674 -3.0030 -2.0496 0.9824
2.8479 -2.7847 -2.0664 0.9822
3.3167 -1.8395 -1.9676 0.9831
3.6543 -1.2429 -2.0024 0.9828
3.7834 -0.9201 -2.0200 0.9826
3.8835 -0.5842 -2.0373 0.9825
3.9529 -0.2376 -2.0544 0.9823
3.9006 1.1939 -2.1162 0.9818
3.8020 1.5464 -2.1293 0.9817
3.5030 2.2199 -2.1515 0.9815
3.3047 2.5337 -2.1603 0.9814
3.0758 2.8275 -2.1675 0.9813
2.5353 3.3427 -2.1765 0.9813
2.2290 3.5583 -2.1783 0.9813
1.5601 3.8938 -2.1761 0.9813
1.2047 4.0102 -2.1723 0.9813
0.6308 3.0713 -1.6266 0.9860
0.4705 4.1354 -2.1592 0.9814
0.0996 4.1434 -2.1501 0.9815
-1.9522 3.4772 -2.0687 0.9822
-2.1798 2.2062 -1.6089 0.9861
-2.6186 2.2152 -1.7794 0.9847
-3.1260 2.1983 -1.9826 0.9829
-0.9986 0.5766 -0.5982 0.9948
-1.0592 0.3808 -0.5839 0.9949
-1.0930 0.1837 -0.5750 0.9950
-1.1063 -0.0133 -0.5739 0.9950
-1.1031 -0.1121 -0.5752 0.9950
-1.0637 -0.3056 -0.5742 0.9950
-2.2987 -2.9246 -1.9298 0.9834
-2.0272 -3.1154 -1.9282 0.9834
-1.4425 -3.4277 -1.9293 0.9834
-0.8136 -3.6416 -1.9358 0.9833
0.8551 -3.7098 -1.9750 0.9830
2.1538 -3.2617 -2.0277 0.9825
2.7415 -2.8721 -2.0598 0.9823
3.0115 -2.6381 -2.0770 0.9821
3.2403 -1.9461 -1.9609 0.9831
2.2734 -1.1026 -1.3108 0.9887
3.7369 -1.0465 -2.0132 0.9827
3.8484 -0.7154 -2.0306 0.9825
3.9298 -0.3726 -2.0478 0.9824
3.9969 0.3366 -2.0808 0.9821
3.9295 1.0561 -2.1109 0.9818
3.8442 1.4111 -2.1244 0.9817
3.7245 1.7583 -2.1367 0.9816
3.5711 2.0940 -2.1476 0.9815
2.9211 2.9966 -2.1710 0.9813
2.6476 3.2516 -2.1753 0.9813
2.0310 3.6753 -2.1784 0.9813
0.7724 3.1972 -1.7064 0.9853
0.6137 4.1225 -2.1622 0.9814
0.2428 4.1446 -2.1538 0.9815
-0.1271 4.1305 -2.1438 0.9816
-1.1939 3.8794 -2.1057 0.9819
-1.5241 3.7309 -2.0908 0.9820
-1.8367 3.5532 -2.0750 0.9821
-2.1292 3.3485 -2.0586 0.9823
-2.3993 3.1195 -2.0416 0.9824
-2.1248 2.3043 -1.6260 0.9860
-2.2879 2.0750 -1.6024 0.9862
-1.0275 0.5204 -0.5975 0.9948
-1.0539 0.4204 -0.5887 0.9949
-1.0635 0.3177 -0.5758 0.9950
-1.1019 0.1237 -0.5752 0.9950
-1.1057 -0.0739 -0.5749 0.9950
-1.0604 -0.3686 -0.5824 0.9950
-1.0046 -0.5660 -0.5982 0.9948
-2.8787 -2.3838 -1.9390 0.9833
-2.6481 -2.6244 -1.9342 0.9833
-2.3994 -2.8450 -1.9307 0.9834
-1.8533 -3.2213 -1.9280 0.9834
-1.5593 -3.3748 -1.9286 0.9834
-1.2536 -3.5041 -1.9307 0.9834
0.3878 -3.7600 -1.9610 0.9831
0.7251 -3.7292 -1.9709 0.9830
1.7174 -3.4678 -2.0076 0.9827
2.0342 -3.3245 -2.0219 0.9826
2.3400 -3.1535 -2.0372 0.9825
2.6326 -2.9556 -2.0533 0.9823
2.9093 -2.7315 -2.0703 0.9822
3.1652 -2.4800 -2.0860 0.9820
3.1822 -2.0638 -1.9677 0.9831
3.3601 -1.7753 -1.9715 0.9830
3.6861 -1.1708 -2.0064 0.9827
3.8087 -0.8448 -2.0239 0.9826
3.8812 1.2747 -2.1193 0.9818
3.6343 1.9659 -2.1436 0.9816
2.7563 3.1562 -2.1739 0.9813
2.1565 3.6030 -2.1784 0.9813
1.8262 3.7800 -2.1778 0.9813
0.3862 4.1404 -2.1573 0.9814
0.0155 4.1402 -2.1479 0.9815
-1.7182 3.6252 -2.0812 0.9821
-2.0187 3.4306 -2.0650 0.9822
-2.2977 3.2107 -2.0482 0.9824
-2.5532 2.9680 -2.0310 0.9825
-2.9873 2.4249 -1.9961 0.9828
-3.1636 2.1301 -1.9786 0.9830
-1.0099 0.5561 -0.5981 0.9948
-1.0467 0.4600 -0.5931 0.9949
-1.0614 0.3574 -0.5810 0.9950
-1.0750 0.2580 -0.5735 0.9950
-1.0968 0.1616 -0.5752 0.9950
-1.1066 -0.0357 -0.5744 0.9950
-1.1006 -0.1344 -0.5752 0.9950
-1.0824 -0.2316 -0.5742 0.9950
-1.0227 -0.5306 -0.5977 0.9948
-0.9717 -0.6199 -0.5979 0.9948
-2.9625 -2.2857 -1.9412 0.9833
-2.4976 -2.7623 -1.9319 0.9834
-1.6744 -3.3183 -1.9282 0.9834
-1.3730 -3.4571 -1.9297 0.9834
-1.0609 -3.5710 -1.9326 0.9834
-0.4119 -3.7215 -1.9424 0.9833
-0.0788 -3.7566 -1.9493 0.9832
1.2647 -3.6202 -1.9894 0.9829
2.5213 -3.0352 -2.0470 0.9824
3.2857 -1.8837 -1.9648 0.9831
2.2163 -1.0199 -1.2657 0.9891
3.6313 -1.2928 -1.9997 0.9828
3.9865 0.0599 -2.0684 0.9822
3.9718 0.7786 -2.0997 0.9819
3.8200 1.4909 -2.1273 0.9817
3.3383 2.4850 -2.1590 0.9814
2.8613 3.0569 -2.1721 0.9813
2.5820 3.3057 -2.1761 0.9813
3.7735 0.2408 -2.0710 0.9829
3.7636 0.5803 -2.0857 0.9828
3.5403 1.5844 -2.1243 0.9825
3.4018 1.9031 -2.1349 0.9824
3.2324 2.2082 -2.1441 0.9823
2.2787 3.2300 -2.1650 0.9821
1.9826 3.4218 -2.1660 0.9821
1.6690 3.5836 -2.1652 0.9821
1.3413 3.7137 -2.1626 0.9822
0.3083 3.9039 -2.1449 0.9823
-0.0408 3.8994 -2.1358 0.9824
-0.3864 3.8612 -2.1254 0.9825
-0.7250 3.7904 -2.1137 0.9826
-1.0536 3.6881 -2.1008 0.9827
-1.3691 3.5560 -2.0870 0.9828
-2.2116 2.9995 -2.0411 0.9831
-2.0849 2.3552 -1.7228 0.9858
-2.2254 2.1022 -1.6767 0.9861
-0.9320 0.4961 -0.5783 0.9952
-0.9794 0.3144 -0.5634 0.9953
-1.0021 0.2255 -0.5625 0.9953
-1.0275 0.0440 -0.5633 0.9953
-1.0275 -0.0478 -0.5634 0.9953
-1.0010 -0.2291 -0.5625 0.9953
-0.9302 -0.4995 -0.5783 0.9952
-0.8816 -0.5802 -0.5781 0.9952
-2.7860 -2.2133 -1.9488 0.9839
-2.0895 -2.8559 -1.9381 0.9840
-1.8256 -3.0293 -1.9371 0.9840
-1.5486 -3.1805 -1.9375 0.9840
-0.9614 -3.4131 -1.9421 0.9840
-0.3418 -3.5473 -1.9519 0.9839
0.6166 -3.5544 -1.9758 0.9837
0.9358 -3.5035 -1.9862 0.9836
2.1561 -3.0324 -2.0379 0.9832
2.4359 -2.8492 -2.0531 0.9830
2.7009 -2.6410 -2.0690 0.9829
2.9474 -2.4075 -2.0844 0.9828
2.2130 -0.9806 -1.3257 0.9890
3.6712 -0.5522 -2.0334 0.9832
3.7712 0.4490 -2.0801 0.9828
3.7416 0.7888 -2.0943 0.9827
3.5854 1.4583 -2.1199 0.9825
3.4590 1.7814 -2.1310 0.9824
3.1138 2.3873 -2.1490 0.9823
2.6548 2.9183 -2.1608 0.9822
2.0993 3.3512 -2.1658 0.9821
1.7921 3.5248 -2.1657 0.9821
1.4694 3.6673 -2.1638 0.9821
1.1347 3.7774 -2.1602 0.9822
0.6301 3.0682 -1.7156 0.9858
0.4434 3.8966 -2.1479 0.9823
0.0938 3.9051 -2.1395 0.9823
-0.2535 3.8799 -2.1296 0.9824
-0.5952 3.8216 -2.1183 0.9825
-1.2490 3.6105 -2.0924 0.9827
-2.1718 2.1981 -1.6924 0.9860
