ply
format ascii 1.0
element vertex 1583
property float32 x
property float32 y
property float32 z
property float32 I
end_header
-3.9951 13.1504 -1.9474 0.9460
-5.5644 13.7624 -2.1033 0.9418
-6.7742 13.2212 -2.1049 0.9417
-7.9161 12.5488 -2.1023 0.9418
-8.9887 11.7737 -2.0988 0.9419
-9.9824 10.9033 -2.0946 0.9420
-10.8888 9.9461 -2.0896 0.9422
-12.4104 7.8088 -2.0775 0.9425
-12.9087 6.5953 -2.0539 0.9431
-14.1470 2.9342 -2.0471 0.9433
-14.2924 1.6543 -2.0386 0.9435
-14.2348 -0.9026 -2.0210 0.9440
-13.7254 -3.3862 -2.0030 0.9445
-12.7922 -5.7194 -1.9854 0.9450
-11.4751 -7.8336 -1.9686 0.9454
-10.6878 -8.7900 -1.9607 0.9456
-8.8897 -10.4697 -1.9461 0.9460
-7.8939 -11.1825 -1.9394 0.9462
-5.7477 -12.3324 -1.9278 0.9465
-3.4493 -13.0943 -1.9186 0.9468
-2.2638 -13.3243 -1.9150 0.9469
-1.0652 -13.4523 -1.9120 0.9469
0.1383 -13.4777 -1.9097 0.9470
1.3383 -13.4008 -1.9082 0.9470
3.5974 -7.3224 -1.1560 0.9676
7.0035 -11.5280 -1.9112 0.9470
8.0149 -10.8731 -1.9139 0.9469
8.9684 -10.1333 -1.9173 0.9468
9.1454 -8.6406 -1.7827 0.9504
11.1983 -5.9614 -1.7975 0.9500
13.7546 -1.8273 -1.9660 0.9455
13.9245 1.9021 -1.9913 0.9448
13.7603 3.1500 -2.0001 0.9446
11.0889 7.2993 -1.8810 0.9478
9.6962 9.2289 -1.8967 0.9474
8.8691 10.0958 -1.9041 0.9472
7.9629 10.8862 -1.9111 0.9470
6.7792 11.2519 -1.8613 0.9483
5.3844 11.0624 -1.7432 0.9515
1.9852 10.5999 -1.5280 0.9574
0.0903 13.7211 -1.9442 0.9461
-1.1345 13.6879 -1.9461 0.9460
-4.7186 12.9053 -1.9469 0.9460
-8.5927 12.0778 -2.1002 0.9419
-9.6172 11.2424 -2.0962 0.9420
-11.4056 9.3102 -2.0861 0.9423
-12.7989 7.0927 -2.0733 0.9426
-13.3337 5.9027 -2.0661 0.9428
-13.7554 4.6728 -2.0584 0.9430
-14.3241 0.8553 -2.0332 0.9437
-13.8550 -2.9269 -2.0064 0.9444
-13.4786 -4.1321 -1.9975 0.9446
-12.9990 -5.2940 -1.9887 0.9449
-12.4211 -6.4040 -1.9801 0.9451
-10.9943 -8.4377 -1.9637 0.9455
-10.1582 -9.3476 -1.9560 0.9458
-9.2498 -10.1781 -1.9487 0.9460
-5.0454 -12.6122 -1.9247 0.9466
-3.8916 -12.9811 -1.9202 0.9467
-1.5185 -13.4160 -1.9130 0.9469
4.4094 -12.7201 -1.9075 0.9471
8.6159 -10.4222 -1.9160 0.9468
9.5018 -9.6035 -1.9142 0.9469
10.3397 -7.2599 -1.7901 0.9502
11.5357 -5.3409 -1.8012 0.9499
13.8703 -1.0630 -1.9710 0.9454
13.9687 0.1787 -1.9794 0.9451
13.8354 2.6802 -1.9968 0.9447
13.6018 3.9205 -2.0057 0.9444
-0.4559 11.7149 -1.9314 0.9536
-4.5245 10.8217 -1.9323 0.9536
-10.0921 7.5001 -2.0714 0.9503
-10.6924 6.5532 -2.0660 0.9504
-11.2017 5.5577 -2.0600 0.9506
-11.6166 4.5228 -2.0536 0.9507
-11.9342 3.4576 -2.0469 0.9509
-12.1528 2.3716 -2.0398 0.9510
-12.2717 1.2740 -2.0325 0.9512
-12.2908 0.1741 -2.0250 0.9514
-12.2112 -0.9189 -2.0173 0.9516
-11.4009 -4.0708 -1.9943 0.9521
-10.4186 -5.9861 -1.9795 0.9525
-9.8080 -6.8664 -1.9724 0.9526
-9.1251 -7.6869 -1.9656 0.9528
-7.5660 -9.1266 -1.9530 0.9531
-5.7922 -10.2677 -1.9421 0.9533
-3.8586 -11.0819 -1.9331 0.9535
-1.8227 -11.5505 -1.9264 0.9537
-0.7845 -11.6519 -1.9239 0.9538
1.2953 -11.5869 -1.9207 0.9538
2.3224 -11.4214 -1.9201 0.9538
5.2672 -10.4094 -1.9219 0.9538
7.2964 -8.0509 -1.7899 0.9569
8.6452 -6.6538 -1.7972 0.9567
10.9710 -4.4857 -1.9526 0.9531
11.3626 -3.5005 -1.9587 0.9529
12.0072 -0.3725 -1.9790 0.9525
11.9714 1.7793 -1.9938 0.9521
11.2016 4.9404 -2.0168 0.9516
5.8615 9.9933 -1.9086 0.9541
4.9603 10.5039 -1.9136 0.9540
1.8527 10.5801 -1.7695 0.9574
-0.0610 11.7197 -1.9307 0.9536
-2.1442 11.5366 -1.9331 0.9535
-3.1645 11.3004 -1.9332 0.9535
-4.1583 10.9702 -1.9327 0.9536
-6.5269 10.8669 -2.0883 0.9499
-8.3284 9.5066 -2.0821 0.9501
-9.8428 7.8431 -2.0733 0.9503
-10.4763 6.9167 -2.0681 0.9504
-11.0205 5.9384 -2.0623 0.9505
-11.4713 4.9173 -2.0561 0.9507
-11.8259 3.8625 -2.0495 0.9508
-12.2386 1.6889 -2.0353 0.9511
-12.2952 0.5889 -2.0278 0.9513
-12.1124 -1.5922 -2.0126 0.9517
-11.8766 -2.6556 -2.0048 0.9519
-10.0472 -6.5410 -1.9750 0.9526
-9.3910 -7.3847 -1.9681 0.9527
-6.1408 -10.0767 -1.9440 0.9533
-4.2331 -10.9543 -1.9346 0.9535
-3.2330 -11.2655 -1.9308 0.9536
-2.2119 -11.4891 -1.9275 0.9537
-0.1358 -11.6699 -1.9226 0.9538
1.9366 -11.4942 -1.9202 0.9538
3.9475 -10.9681 -1.9203 0.9538
3.4020 -7.3259 -1.3306 0.9678
5.8408 -10.1064 -1.9230 0.9538
6.2407 -8.8665 -1.7862 0.9570
8.4090 -6.9354 -1.7957 0.9568
11.2248 -3.8766 -1.9563 0.9530
11.9715 -0.7756 -1.9763 0.9525
12.0369 0.2959 -1.9835 0.9524
12.0074 1.3731 -1.9910 0.9522
11.8823 2.4475 -1.9986 0.9520
11.6614 3.5106 -2.0062 0.9518
11.3453 4.5537 -2.0139 0.9516
9.1909 5.7655 -1.7874 0.9570
7.0146 9.1617 -1.9009 0.9543
3.5903 5.6741 -1.1061 0.9731
5.3061 10.3209 -1.9118 0.9540
3.2899 10.7757 -1.8561 0.9554
0.3336 11.7105 -1.9300 0.9536
-1.7542 11.6008 -1.9328 0.9535
-5.1431 11.5817 -2.0876 0.9499
-7.1151 10.4793 -2.0867 0.9499
-8.0088 9.7882 -2.0835 0.9500
-10.2475 7.2728 -2.0701 0.9503
-10.8259 6.3131 -2.0645 0.9505
-11.3124 5.3071 -2.0585 0.9506
-11.7036 4.2639 -2.0520 0.9508
-11.9970 3.1928 -2.0452 0.9509
-12.1912 2.1030 -2.0380 0.9511
-12.2856 1.0040 -2.0307 0.9513
-12.1767 -1.1850 -2.0155 0.9516
-11.9766 -2.2573 -2.0078 0.9518
-11.6828 -3.3035 -2.0001 0.9520
-10.2758 -6.2073 -1.9777 0.9525
-9.6470 -7.0735 -1.9707 0.9527
-8.9472 -7.8784 -1.9639 0.9528
-7.3589 -9.2833 -1.9515 0.9531
-6.4834 -9.8742 -1.9460 0.9532
-5.5625 -10.3856 -1.9409 0.9534
-2.5992 -11.4151 -1.9286 0.9536
-0.5290 -11.6631 -1.9234 0.9538
1.5486 -11.5544 -1.9205 0.9538
2.5719 -11.3674 -1.9200 0.9539
5.4951 -10.2937 -1.9223 0.9538
5.9357 -9.0673 -1.7853 0.9570
7.4742 -7.8926 -1.7907 0.9569
11.0749 -4.2475 -1.9541 0.9531
11.9225 -1.1768 -1.9736 0.9526
11.9408 2.0429 -1.9957 0.9521
9.8258 5.7118 -1.8723 0.9550
8.7182 7.4199 -1.8860 0.9547
5.5455 8.1435 -1.6231 0.9608
5.6450 10.1261 -1.9099 0.9541
4.7320 10.6165 -1.9148 0.9540
3.7106 10.8329 -1.8864 0.9546
1.6097 10.5470 -1.7576 0.9577
0.7275 11.6875 -1.9291 0.9536
-1.3622 11.6513 -1.9325 0.9536
-2.3965 11.4875 -1.9332 0.9535
-3.4111 11.2280 -1.9332 0.9535
-4.3970 10.8751 -1.9325 0.9536
-5.7850 11.2904 -2.0899 0.9499
-7.6793 10.0586 -2.0848 0.9500
-8.5308 9.3177 -2.0812 0.9501
-9.3086 8.5027 -2.0769 0.9502
-10.0062 7.6211 -2.0721 0.9503
-10.6182 6.6811 -2.0667 0.9504
-11.1398 5.6916 -2.0608 0.9506
-11.8979 3.5996 -2.0478 0.9509
-12.1297 2.5158 -2.0408 0.9510
-12.2939 0.3192 -2.0260 0.9514
-12.2273 -0.7753 -2.0184 0.9515
-12.0633 -1.8553 -2.0107 0.9517
-11.8045 -2.9123 -2.0030 0.9519
-10.4935 -5.8657 -1.9804 0.9524
-9.8929 -6.7535 -1.9733 0.9526
-8.4782 -8.3462 -1.9599 0.9529
-7.6761 -9.0404 -1.9538 0.9531
-5.9148 -10.2022 -1.9427 0.9533
-3.9901 -11.0386 -1.9336 0.9535
-1.9591 -11.5305 -1.9267 0.9537
0.1197 -11.6675 -1.9222 0.9538
2.1877 -11.4483 -1.9201 0.9538
5.6245 -9.2581 -1.7846 0.9570
6.4355 -8.7305 -1.7868 0.9570
7.1994 -8.1345 -1.7895 0.9569
7.9106 -7.4740 -1.7928 0.9568
9.1534 -5.9771 -1.8009 0.9566
9.7823 -5.2076 -1.8257 0.9561
10.9131 -4.6129 -1.9518 0.9531
11.3158 -3.6327 -1.9579 0.9530
11.9962 -0.5137 -1.9781 0.9525
12.0385 0.5599 -1.9854 0.9523
11.9856 1.6372 -1.9928 0.9521
11.8369 2.7096 -2.0004 0.9520
11.2534 4.8056 -2.0158 0.9516
9.5152 6.2634 -1.8767 0.9549
8.9512 7.1125 -1.8835 0.9547
5.9767 9.9199 -1.9079 0.9541
5.0820 10.4412 -1.9130 0.9540
2.7636 9.8168 -1.6801 0.9595
0.0771 11.7180 -1.9305 0.9536
-2.0080 11.5606 -1.9330 0.9535
-4.0289 11.0190 -1.9328 0.9536
-7.3403 10.3174 -2.0859 0.9500
-8.2177 9.6064 -2.0826 0.9500
-9.7528 7.9610 -2.0740 0.9502
-10.9539 6.0702 -2.0631 0.9505
-12.0539 2.9268 -2.0434 0.9510
-12.2236 1.8339 -2.0362 0.9511
-12.2935 0.7341 -2.0288 0.9513
-12.1365 -1.4500 -2.0136 0.9517
-11.5967 -3.5552 -1.9982 0.9520
-10.6999 -5.5166 -1.9832 0.9524
-10.1284 -6.4251 -1.9760 0.9525
-9.4817 -7.2768 -1.9690 0.9527
-7.1487 -9.4354 -1.9501 0.9531
-6.2614 -10.0071 -1.9447 0.9533
-5.3305 -10.4985 -1.9397 0.9534
-2.3477 -11.4647 -1.9279 0.9537
-1.3143 -11.6114 -1.9251 0.9537
-0.2734 -11.6690 -1.9229 0.9538
0.7674 -11.6373 -1.9213 0.9538
1.8010 -11.5167 -1.9203 0.9538
2.8202 -11.3082 -1.9200 0.9539
6.1347 -8.9379 -1.7859 0.9570
6.9171 -8.3672 -1.7884 0.9569
7.6487 -7.7305 -1.7915 0.9569
8.3243 -7.0320 -1.7951 0.9568
8.9386 -6.2761 -1.7993 0.9567
11.1737 -4.0070 -1.9555 0.9530
11.9558 -0.9163 -1.9754 0.9526
12.0336 0.1539 -1.9826 0.9524
12.0168 1.2308 -1.9900 0.9522
11.6960 3.3712 -2.0052 0.9519
-0.3974 10.2123 -1.9210 0.9593
-1.3071 10.1420 -1.9221 0.9592
-2.2067 9.9876 -1.9226 0.9592
-3.0883 9.7506 -1.9225 0.9592
-5.1582 9.7813 -2.0785 0.9560
-6.0039 9.2734 -2.0765 0.9560
-6.7982 8.6902 -2.0738 0.9561
-8.8078 6.5457 -2.0626 0.9563
-9.3348 5.7211 -2.0579 0.9564
-9.7831 4.8538 -2.0527 0.9565
-10.1493 3.9515 -2.0472 0.9566
-10.6269 2.0738 -2.0351 0.9569
-10.7574 0.1524 -2.0222 0.9572
-10.6927 -0.8047 -2.0155 0.9573
-10.3103 -2.6730 -2.0020 0.9576
-9.6075 -4.4321 -1.9887 0.9579
-8.0160 -6.7526 -1.9700 0.9582
-4.2608 -9.4308 -1.9451 0.9588
-3.3965 -9.7545 -1.9414 0.9588
-2.5090 -10.0018 -1.9382 0.9589
0.2266 -10.2739 -1.9316 0.9590
1.1410 -10.2069 -1.9304 0.9591
2.9348 -9.8389 -1.9298 0.9591
3.5269 -8.8518 -1.7910 0.9620
5.0502 -8.0961 -1.7935 0.9619
5.7584 -7.6222 -1.7956 0.9619
7.6078 -5.8554 -1.8045 0.9617
9.2317 -4.7757 -1.9536 0.9586
9.6453 -3.9436 -1.9586 0.9585
10.2498 -2.1801 -1.9697 0.9582
10.4350 -1.2613 -1.9756 0.9581
10.3517 2.4984 -2.0016 0.9576
7.1852 7.0021 -1.8858 0.9600
6.5511 7.6369 -1.8912 0.9599
3.4310 5.8495 -1.2747 0.9728
3.5018 9.5367 -1.9095 0.9595
2.6328 9.7933 -1.9061 0.9596
1.7583 10.0410 -1.9160 0.9594
0.8571 10.1708 -1.9185 0.9593
-0.9646 10.1784 -1.9217 0.9592
-3.6246 9.5622 -1.9221 0.9592
-4.8272 9.9523 -2.0791 0.9560
-5.6904 9.4742 -2.0773 0.9560
-6.5050 8.9188 -2.0749 0.9561
-7.2638 8.2914 -2.0719 0.9561
-8.5892 6.8441 -2.0643 0.9563
-10.5632 2.4334 -2.0375 0.9568
-10.7594 0.5153 -2.0247 0.9571
-10.6093 -1.3946 -2.0113 0.9574
-10.4077 -2.3271 -2.0045 0.9575
-10.1247 -3.2350 -1.9978 0.9577
-8.2482 -6.4861 -1.9723 0.9582
-7.6145 -7.1745 -1.9664 0.9583
-6.1855 -8.3672 -1.9558 0.9585
-4.5796 -9.2893 -1.9467 0.9587
-3.7257 -9.6412 -1.9428 0.9588
-2.8462 -9.9175 -1.9394 0.9589
-1.9477 -10.1165 -1.9364 0.9589
-0.1197 -10.2788 -1.9321 0.9590
2.6017 -9.9319 -1.9298 0.9591
3.2263 -8.9643 -1.7908 0.9620
3.3920 -7.3043 -1.5137 0.9678
4.7729 -8.2587 -1.7929 0.9619
5.4959 -7.8082 -1.7947 0.9619
6.1782 -7.2966 -1.7971 0.9618
6.8147 -6.7271 -1.7999 0.9618
7.4007 -6.1038 -1.8031 0.9617
7.9761 -5.4611 -1.8169 0.9614
9.0573 -5.0793 -1.9519 0.9586
9.4976 -4.2621 -1.9567 0.9585
9.8661 -3.4073 -1.9619 0.9584
10.5094 -0.6809 -1.9795 0.9580
10.5621 0.2596 -1.9859 0.9579
10.4168 2.1456 -1.9990 0.9576
10.2182 3.0761 -2.0058 0.9575
9.9366 3.9883 -2.0125 0.9574
9.5732 4.8746 -2.0192 0.9572
7.9562 6.0424 -1.8778 0.9602
7.4086 6.7485 -1.8836 0.9600
6.7974 7.4040 -1.8892 0.9599
6.1272 8.0028 -1.8945 0.9598
3.5336 5.5845 -1.2421 0.9735
4.6315 9.0087 -1.9040 0.9596
3.8181 9.4062 -1.9081 0.9595
2.9700 9.7279 -1.9118 0.9594
1.1986 10.1316 -1.9176 0.9593
-1.5290 10.1118 -1.9222 0.9592
-2.4250 9.9371 -1.9226 0.9592
-4.4802 10.0889 -2.0749 0.9561
-5.3700 9.6640 -2.0780 0.9560
-6.2038 9.1372 -2.0759 0.9560
-6.9844 8.5362 -2.0731 0.9561
-9.8806 4.6354 -2.0514 0.9566
-10.2264 3.7257 -2.0457 0.9567
-10.4872 2.7910 -2.0398 0.9568
-10.7490 0.8785 -2.0271 0.9571
-10.7494 -0.0831 -2.0205 0.9572
-10.2409 -2.8957 -2.0004 0.9576
-9.9088 -3.7846 -1.9937 0.9577
-7.8605 -6.9215 -1.9686 0.9583
-7.1914 -7.5731 -1.9630 0.9584
-5.7022 -8.6845 -1.9528 0.9586
-4.8939 -9.1372 -1.9483 0.9587
-3.1806 -9.8223 -1.9406 0.9588
0.4514 -10.2648 -1.9312 0.9590
1.3641 -10.1784 -1.9302 0.9591
2.2657 -10.0140 -1.9298 0.9591
2.9223 -9.0670 -1.7906 0.9620
6.5802 -6.9486 -1.7988 0.9618
7.7381 -5.6902 -1.8054 0.9617
8.7909 -5.3268 -1.9320 0.9590
9.3397 -4.5752 -1.9548 0.9586
9.7357 -3.7339 -1.9599 0.9584
10.0577 -2.8589 -1.9653 0.9583
10.3027 -1.9565 -1.9711 0.9582
10.4681 -1.0333 -1.9772 0.9581
10.5519 -0.0961 -1.9834 0.9580
10.4699 1.7913 -1.9965 0.9577
10.3030 2.7268 -2.0032 0.9576
9.7198 4.5437 -2.0167 0.9573
9.0737 5.2746 -1.9727 0.9582
6.3867 7.7838 -1.8925 0.9598
0.6343 10.1899 -1.9190 0.9593
-0.2770 10.2152 -1.9208 0.9593
-1.1874 10.1561 -1.9219 0.9592
-5.8950 9.3449 -2.0768 0.9560
-6.6965 8.7714 -2.0742 0.9561
-7.4407 8.1271 -2.0711 0.9561
-8.1212 7.4181 -2.0674 0.9562
-8.7325 6.6509 -2.0632 0.9563
-9.7285 4.9705 -2.0534 0.9565
-10.1058 4.0724 -2.0479 0.9566
-10.3989 3.1461 -2.0421 0.9567
-10.6060 2.1998 -2.0359 0.9569
-10.7595 0.2793 -2.0230 0.9571
-10.5676 -1.6253 -2.0096 0.9574
-10.3457 -2.5524 -2.0029 0.9576
-10.0432 -3.4531 -1.9962 0.9577
-9.6633 -4.3204 -1.9896 0.9578
-9.2095 -5.1480 -1.9831 0.9580
-8.0982 -6.6603 -1.9708 0.9582
-7.4503 -7.3343 -1.9651 0.9583
-6.7481 -7.9474 -1.9596 0.9585
-5.2033 -8.9748 -1.9499 0.9587
-1.7251 -10.1534 -1.9358 0.9589
-0.8120 -10.2546 -1.9335 0.9590
0.1055 -10.2769 -1.9318 0.9590
3.5756 -7.2779 -1.5241 0.9675
9.1718 -4.8826 -1.9530 0.9586
10.5623 0.4913 -1.9874 0.9579
10.5110 1.4358 -1.9940 0.9577
10.3758 2.3752 -2.0007 0.9576
9.8549 4.2084 -2.0142 0.9573
9.4550 5.0781 -2.0173 0.9573
8.3250 5.4799 -1.8733 0.9602
7.2643 6.9142 -1.8850 0.9600
5.9544 8.1404 -1.8957 0.9598
4.4356 9.1131 -1.9050 0.9596
1.8761 10.0177 -1.9157 0.9594
0.0672 10.2156 -1.9202 0.9593
-3.5118 9.6047 -1.9222 0.9592
-6.4005 8.9964 -2.0753 0.9561
-7.1671 8.3781 -2.0723 0.9561
-7.8723 7.6928 -2.0689 0.9562
-8.5103 6.9468 -2.0649 0.9563
-9.0759 6.1469 -2.0604 0.9564
-9.5648 5.3005 -2.0554 0.9565
-10.6911 1.6040 -2.0320 0.9570
-10.7364 -0.3183 -2.0189 0.9572
-10.6297 -1.2700 -2.0122 0.9574
-10.4391 -2.2053 -2.0054 0.9575
-10.1667 -3.1168 -1.9987 0.9576
-8.8916 -5.6405 -1.9792 0.9580
-7.7015 -7.0869 -1.9672 0.9583
-7.0191 -7.7235 -1.9616 0.9584
-5.5075 -8.8021 -1.9516 0.9586
-1.1574 -10.2257 -1.9343 0.9590
-0.2408 -10.2778 -1.9324 0.9590
0.6760 -10.2509 -1.9309 0.9590
1.5866 -10.1452 -1.9301 0.9591
2.4844 -9.9618 -1.9298 0.9591
3.1203 -9.0014 -1.7907 0.9620
4.6747 -8.3134 -1.7927 0.9619
6.0906 -7.3675 -1.7967 0.9618
7.3264 -6.1890 -1.8027 0.9617
7.8649 -5.5223 -1.8063 0.9616
9.8217 -3.5221 -1.9612 0.9584
10.1250 -2.6398 -1.9667 0.9583
10.4963 -0.8044 -1.9787 0.9581
10.5402 1.0796 -1.9915 0.9578
10.4367 2.0218 -1.9982 0.9577
-0.3519 9.0425 -1.9129 0.9637
-3.7678 9.0117 -2.0647 0.9609
-4.5675 8.6612 -2.0698 0.9608
-5.3169 8.2124 -2.0680 0.9608
-7.2709 6.4859 -2.0595 0.9609
-8.2752 5.0717 -2.0516 0.9611
-9.0026 3.5050 -2.0421 0.9613
-9.5324 0.9896 -2.0258 0.9616
-9.5551 0.1354 -2.0200 0.9617
-9.5012 -0.7150 -2.0140 0.9618
-9.3717 -1.5546 -2.0080 0.9619
-9.1683 -2.3769 -2.0021 0.9620
-8.5496 -3.9441 -1.9902 0.9622
-7.6693 -5.3692 -1.9789 0.9624
-7.1407 -6.0153 -1.9736 0.9625
-6.5590 -6.6109 -1.9685 0.9626
-5.2556 -7.6345 -1.9592 0.9628
-3.8008 -8.4127 -1.9513 0.9630
-3.0304 -8.7031 -1.9480 0.9630
-2.2390 -8.9254 -1.9451 0.9631
-1.4325 -9.0780 -1.9427 0.9631
2.4310 -8.1498 -1.7977 0.9658
3.1487 -7.9026 -1.7982 0.9658
3.6464 -7.2063 -1.7072 0.9675
4.5079 -7.2269 -1.8004 0.9658
5.7327 -6.3255 -1.8045 0.9657
6.2831 -5.7977 -1.8072 0.9657
8.5975 -3.5152 -1.9634 0.9627
8.8983 -2.7413 -1.9682 0.9626
9.1308 -1.9420 -1.9732 0.9626
9.3388 1.3880 -1.9957 0.9621
9.2052 2.2217 -2.0017 0.9620
8.9973 3.0427 -2.0077 0.9619
6.3755 6.2131 -1.8818 0.9643
5.1965 7.2828 -1.8911 0.9641
3.4147 5.8218 -1.4267 0.9728
3.1028 8.4501 -1.9028 0.9639
0.7590 9.0072 -1.9107 0.9637
-0.8541 9.0121 -1.9135 0.9637
-3.2092 8.4663 -1.9139 0.9637
-5.7612 7.8990 -2.0666 0.9608
-6.4343 7.3445 -2.0640 0.9609
-7.0528 6.7314 -2.0609 0.9609
-8.1061 5.3518 -2.0532 0.9611
-8.5325 4.5978 -2.0488 0.9611
-8.8877 3.8098 -2.0440 0.9612
-9.1690 2.9947 -2.0389 0.9613
-9.5037 1.3115 -2.0279 0.9615
-9.4293 -1.2395 -2.0103 0.9619
-9.2535 -2.0691 -2.0043 0.9620
-9.0053 -2.8773 -1.9983 0.9621
-7.3467 -5.7772 -1.9756 0.9625
-6.7844 -6.3923 -1.9704 0.9626
-6.1720 -6.9543 -1.9655 0.9627
-4.8169 -7.9042 -1.9566 0.9629
-3.3239 -8.6015 -1.9492 0.9630
-1.7382 -9.0287 -1.9435 0.9631
-0.9253 -9.1375 -1.9414 0.9631
1.5231 -9.0399 -1.9378 0.9632
2.8804 -8.0032 -1.7979 0.9658
4.9054 -6.9694 -1.8015 0.9658
5.5137 -6.5118 -1.8036 0.9657
6.0807 -6.0026 -1.8061 0.9657
6.8084 -5.6152 -1.8655 0.9646
7.6250 -5.2207 -1.9534 0.9629
8.0765 -4.5292 -1.9573 0.9629
8.4668 -3.7995 -1.9617 0.9628
9.2400 -1.4341 -1.9765 0.9625
9.3569 -0.6062 -1.9820 0.9624
9.4005 0.2311 -1.9877 0.9623
9.3698 1.0715 -1.9935 0.9622
9.0845 2.7348 -2.0054 0.9620
8.8308 3.5445 -2.0114 0.9618
8.0814 5.0694 -2.0165 0.9617
6.5746 5.9888 -1.8799 0.9643
6.0302 6.5683 -1.8848 0.9642
5.4340 7.0973 -1.8895 0.9641
4.1052 7.9850 -1.8979 0.9640
3.3834 8.3352 -1.9015 0.9639
1.8551 8.8317 -1.9076 0.9638
0.2576 9.0406 -1.9118 0.9637
-0.5499 9.0340 -1.9131 0.9637
-4.7552 8.5575 -2.0694 0.9608
-5.4941 8.0919 -2.0675 0.9608
-6.1864 7.5609 -2.0650 0.9608
-6.8262 6.9693 -2.0621 0.9609
-7.4080 6.3224 -2.0587 0.9610
-8.3798 4.8867 -2.0505 0.9611
-9.0716 3.3050 -2.0409 0.9613
-9.3061 2.4766 -2.0356 0.9614
-9.5489 -0.0738 -2.0185 0.9617
-9.3285 -1.7582 -2.0066 0.9619
-8.8152 -3.3670 -1.9947 0.9622
-7.0027 -6.1662 -1.9723 0.9626
-6.4087 -6.7488 -1.9673 0.9627
-5.0845 -7.7436 -1.9581 0.9628
-4.3648 -8.1493 -1.9541 0.9629
-3.6140 -8.4901 -1.9505 0.9630
-2.8380 -8.7640 -1.9472 0.9630
-2.0423 -8.9693 -1.9445 0.9631
-0.4159 -9.1696 -1.9403 0.9632
3.2319 -7.6216 -1.7499 0.9667
5.2887 -6.6907 -1.8028 0.9657
5.8719 -6.2006 -1.8051 0.9657
7.4395 -5.4707 -1.9520 0.9629
7.9131 -4.7949 -1.9558 0.9629
8.3269 -4.0790 -1.9600 0.9628
8.6775 -3.3281 -1.9645 0.9627
8.9618 -2.5474 -1.9694 0.9626
9.1771 -1.7428 -1.9745 0.9625
9.3213 -0.9201 -1.9799 0.9624
8.9351 3.2414 -2.0091 0.9619
8.6361 4.0371 -2.0151 0.9618
7.2320 5.1177 -1.8728 0.9644
2.1504 8.7595 -1.9066 0.9638
1.3626 8.9282 -1.9091 0.9637
0.5617 9.0238 -1.9111 0.9637
-3.6277 8.9723 -2.0457 0.9612
-4.4655 8.7152 -2.0700 0.9608
-5.2205 8.2755 -2.0683 0.9608
-5.9311 7.7687 -2.0660 0.9608
-6.5913 7.1993 -2.0633 0.9609
-7.1956 6.5726 -2.0600 0.9609
-7.7390 5.8942 -2.0563 0.9610
-8.6263 4.4074 -2.0476 0.9612
-8.9636 3.6121 -2.0428 0.9613
-9.2265 2.7914 -2.0376 0.9614
-9.5236 1.1023 -2.0265 0.9616
-9.5126 -0.6032 -2.0148 0.9618
-9.3930 -1.4446 -2.0088 0.9619
-8.9336 -3.0716 -1.9969 0.9621
-8.5988 -3.8445 -1.9910 0.9622
-7.2136 -5.9328 -1.9743 0.9625
-5.3468 -7.5742 -1.9598 0.9628
-4.6403 -8.0037 -1.9556 0.9629
-3.9006 -8.3693 -1.9518 0.9630
-2.3445 -8.9000 -1.9455 0.9631
-0.7248 -9.1534 -1.9409 0.9632
0.9112 -9.1242 -1.9383 0.9632
1.7206 -9.0039 -1.9377 0.9632
3.0552 -7.9388 -1.7981 0.9658
3.5470 -7.2198 -1.7004 0.9676
4.4219 -7.2787 -1.8002 0.9658
5.0582 -6.8621 -1.8020 0.9657
5.6568 -6.3915 -1.8042 0.9657
7.7412 -5.0549 -1.9543 0.9629
9.1041 -2.0488 -1.9726 0.9626
9.3744 -0.4015 -1.9834 0.9624
9.3999 0.4372 -1.9891 0.9623
9.2271 2.1122 -2.0009 0.9620
9.0290 2.9353 -2.0069 0.9619
8.7574 3.7397 -2.0129 0.9618
8.4138 4.5189 -2.0188 0.9617
5.8885 6.7030 -1.8860 0.9642
3.9312 8.0769 -1.8988 0.9639
3.2014 8.4110 -1.9024 0.9639
2.4428 8.6773 -1.9055 0.9638
1.6618 8.8731 -1.9082 0.9638
0.8650 8.9964 -1.9104 0.9637
0.0595 9.0459 -1.9122 0.9637
-1.5496 8.9217 -1.9141 0.9637
-2.3392 8.7489 -1.9143 0.9637
-3.1093 8.5040 -1.9140 0.9637
-4.1704 8.8628 -2.0705 0.9607
-4.9404 8.4496 -2.0690 0.9608
-6.3484 7.4212 -2.0644 0.9609
-7.5414 6.1559 -2.0578 0.9610
-9.1361 3.1036 -2.0396 0.9613
-9.4911 1.4240 -2.0287 0.9615
-9.5382 -0.2828 -2.0171 0.9617
-9.2810 -1.9606 -2.0051 0.9620
-8.7330 -3.5566 -1.9932 0.9622
-7.9167 -5.0221 -1.9817 0.9624
-7.4169 -5.6922 -1.9763 0.9625
-5.6036 -7.3961 -1.9614 0.9628
-4.9111 -7.8490 -1.9571 0.9629
-3.4258 -8.5636 -1.9496 0.9630
-2.6444 -8.8208 -1.9465 0.9631
-1.8448 -9.0090 -1.9438 0.9631
0.6035 -9.1513 -1.9386 0.9632
1.4165 -9.0575 -1.9378 0.9632
2.7858 -8.0363 -1.7979 0.9658
4.1730 -7.4212 -1.7997 0.9658
4.8223 -7.0258 -1.8013 0.9658
5.4356 -6.5752 -1.8033 0.9657
8.0203 -4.6228 -1.9568 0.9629
9.2192 -1.5424 -1.9758 0.9625
9.3457 -0.7162 -1.9813 0.9624
9.3990 0.1202 -1.9869 0.9623
9.2826 1.7982 -1.9986 0.9621
-0.3154 8.1053 -1.9064 0.9672
-2.4507 7.7376 -1.9076 0.9672
-4.0941 7.7636 -2.0628 0.9646
-4.7664 7.3620 -2.0612 0.9646
-5.9848 6.3841 -2.0566 0.9647
-8.4712 1.6531 -2.0285 0.9652
-8.5634 0.8890 -2.0234 0.9652
-8.5863 0.1217 -2.0182 0.9653
-8.5404 -0.6427 -2.0129 0.9654
-8.0012 -2.8569 -1.9967 0.9657
-7.3280 -4.2104 -1.9863 0.9659
-5.9092 -5.9560 -1.9718 0.9661
-3.4272 -7.5858 -1.9564 0.9664
-2.0196 -8.0507 -1.9507 0.9665
-0.5565 -8.2643 -1.9467 0.9665
0.1825 -8.2753 -1.9454 0.9666
0.9192 -8.2222 -1.9444 0.9666
1.6482 -8.1055 -1.9440 0.9666
2.2670 -7.5999 -1.8639 0.9679
3.4672 -6.8521 -1.8048 0.9689
4.6364 -6.1371 -1.8077 0.9689
5.2843 -5.8307 -1.8494 0.9682
6.1076 -5.6358 -1.9532 0.9664
7.0342 -4.4759 -1.9595 0.9663
8.3678 -1.0115 -1.9810 0.9660
8.4460 -0.2620 -1.9860 0.9659
8.4022 1.2488 -1.9964 0.9657
8.0901 2.7359 -2.0071 0.9655
7.8349 3.4555 -2.0125 0.9654
7.5154 4.1513 -2.0178 0.9653
7.1178 4.8065 -2.0186 0.9653
5.7243 5.5785 -1.8785 0.9677
4.6633 6.5356 -1.8869 0.9675
1.3962 7.9736 -1.9025 0.9673
-3.1023 8.1844 -2.0571 0.9647
-3.8312 7.8989 -2.0633 0.9646
-4.5171 7.5207 -2.0619 0.9646
-6.3247 6.0365 -2.0548 0.9647
-7.9769 3.4194 -2.0397 0.9650
-8.5367 1.1781 -2.0253 0.9652
-8.5858 0.4112 -2.0202 0.9653
-8.3219 -1.8607 -2.0041 0.9656
-7.8171 -3.2916 -1.9934 0.9657
-7.4729 -3.9650 -1.9882 0.9658
-7.0715 -4.6037 -1.9831 0.9659
-6.6165 -5.2030 -1.9782 0.9660
-4.9701 -6.7231 -1.9650 0.9662
-3.6831 -7.4708 -1.9576 0.9664
-2.9975 -7.7569 -1.9544 0.9664
-1.5680 -8.1445 -1.9493 0.9665
-0.8348 -8.2436 -1.9473 0.9665
-0.0964 -8.2787 -1.9458 0.9666
0.6418 -8.2497 -1.9447 0.9666
1.3743 -8.1570 -1.9441 0.9666
2.0959 -8.0012 -1.9439 0.9666
3.8441 -6.6515 -1.8055 0.9689
5.8181 -5.7433 -1.9214 0.9670
6.4172 -5.2926 -1.9550 0.9664
6.8749 -4.7071 -1.9582 0.9663
7.6307 -3.4243 -1.9657 0.9662
7.9225 -2.7361 -1.9699 0.9661
8.3337 1.7165 -1.9997 0.9656
7.9388 3.1865 -2.0105 0.9655
6.4860 4.9258 -1.9141 0.9671
5.4134 5.8965 -1.8813 0.9676
3.5047 5.5389 -1.5405 0.9734
3.0346 7.4758 -1.8962 0.9674
0.9517 8.0441 -1.9037 0.9673
-0.4929 8.0975 -1.9066 0.9672
-1.2134 8.0244 -1.9074 0.9672
-1.9243 7.8855 -1.9077 0.9672
-3.5637 8.0250 -2.0637 0.9646
-4.2624 7.6708 -2.0624 0.9646
-4.9253 7.2542 -2.0607 0.9646
-5.5466 6.7790 -2.0586 0.9646
-6.6440 5.6703 -2.0529 0.9647
-8.1433 2.9668 -2.0369 0.9650
-8.3560 2.2238 -2.0322 0.9651
-8.5002 1.4663 -2.0273 0.9652
-8.5814 -0.0664 -2.0169 0.9654
-8.5187 -0.8290 -2.0115 0.9654
-8.3883 -1.5810 -2.0062 0.9655
-8.1919 -2.3164 -2.0008 0.9656
-7.6097 -3.7147 -1.9902 0.9658
-7.2295 -4.3671 -1.9850 0.9659
-6.7943 -4.9818 -1.9801 0.9660
-5.1977 -6.5570 -1.9665 0.9662
-4.5832 -6.9801 -1.9625 0.9663
-2.5596 -7.9043 -1.9527 0.9664
-1.8422 -8.0906 -1.9501 0.9665
-1.1124 -8.2137 -1.9480 0.9665
0.3636 -8.2682 -1.9451 0.9666
1.0989 -8.1994 -1.9443 0.9666
1.8252 -8.0673 -1.9439 0.9666
2.9969 -7.0674 -1.8042 0.9689
3.6169 -6.7755 -1.8051 0.9689
4.2098 -6.4308 -1.8064 0.9689
6.2318 -5.5026 -1.9539 0.9664
7.1338 -4.3227 -1.9604 0.9663
7.5052 -3.6765 -1.9642 0.9662
7.8194 -2.9990 -1.9683 0.9662
8.2655 -1.5696 -1.9773 0.9660
8.3931 -0.8285 -1.9822 0.9659
8.4502 0.6789 -1.9924 0.9658
8.3783 1.4334 -1.9977 0.9657
7.4275 4.3176 -2.0191 0.9653
7.0054 4.9574 -2.0170 0.9654
5.6040 5.7058 -1.8796 0.9677
5.0845 6.1968 -1.8839 0.9676
1.2216 8.0044 -1.9030 0.9673
-0.9423 8.0598 -1.9071 0.9672
-2.3594 7.7661 -1.9076 0.9672
-4.0027 7.8120 -2.0630 0.9646
-4.6798 7.4185 -2.0614 0.9646
-5.9102 6.4554 -2.0570 0.9647
-6.4531 5.8944 -2.0541 0.9647
-6.9417 5.2870 -2.0508 0.9648
-7.7409 3.9550 -2.0430 0.9649
-8.4539 1.7534 -2.0291 0.9651
-8.5552 0.9902 -2.0241 0.9652
-7.7382 -3.4597 -1.9921 0.9658
-5.9808 -5.8877 -1.9724 0.9661
-3.5172 -7.5465 -1.9568 0.9664
-2.8259 -7.8178 -1.9537 0.9664
-2.1147 -8.0276 -1.9510 0.9665
-1.3889 -8.1747 -1.9488 0.9665
-0.6539 -8.2581 -1.9469 0.9665
0.0849 -8.2775 -1.9455 0.9666
0.8222 -8.2328 -1.9445 0.9666
1.5526 -8.1245 -1.9440 0.9666
2.2707 -7.9534 -1.9439 0.9666
3.9895 -6.5669 -1.8059 0.9689
6.0396 -5.7063 -1.9528 0.9664
6.5342 -5.1528 -1.9557 0.9664
7.3716 -3.9243 -1.9627 0.9663
7.7078 -3.2580 -1.9667 0.9662
7.9849 -2.5634 -1.9710 0.9661
8.2006 -1.8455 -1.9755 0.9661
8.4599 0.3935 -1.9904 0.9658
8.4133 1.1493 -1.9957 0.9657
8.1189 2.6394 -2.0064 0.9655
7.5612 4.0610 -2.0171 0.9653
7.1770 4.7243 -2.0194 0.9653
5.2859 6.0170 -1.8823 0.9676
4.7387 6.4784 -1.8864 0.9676
3.4178 5.6728 -1.5565 0.9732
3.5265 7.2453 -1.8938 0.9674
0.7755 8.0650 -1.9042 0.9673
0.0534 8.1086 -1.9057 0.9672
-0.6702 8.0857 -1.9068 0.9672
-2.0965 7.8414 -1.9076 0.9672
-3.7381 7.9441 -2.0634 0.9646
-4.4286 7.5742 -2.0621 0.9646
-5.0818 7.1429 -2.0602 0.9646
-5.6921 6.6539 -2.0580 0.9647
-7.2167 4.8877 -2.0485 0.9648
-7.6092 4.2167 -2.0446 0.9649
-8.5251 1.2790 -2.0260 0.9652
-8.5833 0.5125 -2.0209 0.9653
-8.5723 -0.2541 -2.0156 0.9654
-8.4929 -1.0147 -2.0102 0.9655
-8.3462 -1.7632 -2.0048 0.9656
-8.1339 -2.4936 -1.9995 0.9656
-7.1277 -4.5216 -1.9838 0.9659
-3.7718 -7.4285 -1.9580 0.9663
-1.6641 -8.1266 -1.9496 0.9665
-0.1940 -8.2777 -1.9460 0.9665
3.7651 -6.6957 -1.8054 0.9689
4.3505 -6.3384 -1.8068 0.9689
5.7015 -5.7625 -1.9052 0.9672
6.8174 -4.7867 -1.9578 0.9664
7.2300 -4.1673 -1.9613 0.9663
7.8874 -2.8285 -1.9693 0.9662
8.1266 -2.1188 -1.9738 0.9661
8.3028 -1.3891 -1.9785 0.9660
8.4388 0.8644 -1.9937 0.9657
8.1949 2.3620 -2.0044 0.9656
-1.5850 7.1736 -1.9022 0.9701
-3.7060 7.0276 -2.0571 0.9677
-4.3148 6.6645 -2.0556 0.9677
-5.4189 5.7805 -2.0515 0.9678
-5.9050 5.2675 -2.0488 0.9678
-7.0535 3.4995 -2.0387 0.9680
-7.5324 2.1823 -2.0305 0.9681
-7.6802 1.4988 -2.0261 0.9682
-7.7485 -0.5831 -2.0119 0.9684
-7.2647 -2.5939 -1.9973 0.9686
-6.9876 -3.2235 -1.9925 0.9687
-6.6567 -3.8247 -1.9878 0.9688
-5.3714 -5.4139 -1.9746 0.9690
-4.3078 -6.2576 -1.9670 0.9691
-3.7262 -6.6053 -1.9636 0.9692
-3.1175 -6.9004 -1.9605 0.9692
-1.8376 -7.3252 -1.9554 0.9693
-1.1759 -7.4521 -1.9534 0.9693
-0.5064 -7.5210 -1.9517 0.9693
1.5001 -7.3774 -1.9492 0.9694
2.6347 -6.6126 -1.8430 0.9710
4.4796 -5.9295 -1.9241 0.9698
5.5566 -5.1273 -1.9576 0.9692
5.9999 -4.6179 -1.9603 0.9692
6.3977 -4.0709 -1.9634 0.9692
6.7468 -3.4902 -1.9668 0.9691
7.0442 -2.8801 -1.9704 0.9690
7.2875 -2.2451 -1.9744 0.9690
7.6031 -0.9190 -1.9829 0.9689
7.6723 -0.2380 -1.9875 0.9688
7.6811 0.4481 -1.9922 0.9687
7.6289 1.1338 -1.9969 0.9686
7.1085 3.1352 -2.0116 0.9684
6.8170 3.7655 -2.0164 0.9683
5.1887 5.0566 -1.8759 0.9705
3.3541 5.7185 -1.7165 0.9730
3.1171 6.6009 -1.8901 0.9703
2.5200 6.8628 -1.8929 0.9702
1.9005 7.0695 -1.8954 0.9702
1.2641 7.2189 -1.8975 0.9702
-0.0382 7.3406 -1.9006 0.9701
-1.9932 7.1176 -1.9138 0.9699
-2.8148 7.4259 -2.0562 0.9677
-4.6759 6.4110 -2.0545 0.9677
-5.2235 5.9624 -2.0524 0.9678
-5.7272 5.4662 -2.0499 0.9678
-6.5871 4.3489 -2.0437 0.9679
-7.2283 3.0985 -2.0362 0.9680
-7.4606 2.4367 -2.0321 0.9681
-7.6318 1.7581 -2.0277 0.9682
-7.7870 0.3729 -2.0185 0.9683
-7.7708 -0.3221 -2.0137 0.9684
-7.6925 -1.0112 -2.0089 0.9685
-7.0987 -2.9890 -1.9943 0.9687
-6.7877 -3.6015 -1.9895 0.9687
-6.4246 -4.1826 -1.9849 0.9688
-5.0560 -5.6968 -1.9721 0.9690
-3.3501 -6.7954 -1.9616 0.9692
-2.0842 -7.2623 -1.9562 0.9693
-0.7597 -7.5018 -1.9523 0.9693
0.5841 -7.5083 -1.9499 0.9694
1.2508 -7.4241 -1.9493 0.9694
2.4609 -6.8376 -1.8815 0.9704
4.2046 -5.9737 -1.8914 0.9703
5.8378 -4.8147 -1.9593 0.9692
6.2532 -4.2814 -1.9622 0.9692
6.6210 -3.7130 -1.9655 0.9691
6.9382 -3.1135 -1.9690 0.9691
7.2022 -2.4873 -1.9729 0.9690
7.4106 -1.8391 -1.9769 0.9689
7.5655 1.5583 -2.0000 0.9686
7.2035 2.8913 -2.0097 0.9684
4.9062 5.3440 -1.8784 0.9705
3.3357 6.4882 -1.8889 0.9703
2.7482 6.7704 -1.8919 0.9703
2.1366 6.9981 -1.8945 0.9702
1.5059 7.1693 -1.8968 0.9702
0.2090 7.3359 -1.9002 0.9701
-1.0983 7.2632 -1.9019 0.9701
-1.7417 7.1373 -1.9022 0.9701
-2.5582 7.5020 -2.0522 0.9678
-3.8584 6.9437 -2.0568 0.9677
-5.0217 6.1375 -2.0532 0.9678
-6.4409 4.5712 -2.0450 0.9679
-6.8112 3.9720 -2.0415 0.9679
-7.1251 3.3427 -2.0377 0.9680
-7.3801 2.6887 -2.0337 0.9681
-7.5744 2.0158 -2.0294 0.9681
-7.7070 1.3295 -2.0249 0.9682
-7.7769 0.6356 -2.0203 0.9683
-7.6129 -1.4348 -2.0058 0.9685
-7.4365 -2.1028 -2.0009 0.9686
-6.9113 -3.3738 -1.9913 0.9687
-6.5676 -3.9672 -1.9866 0.9688
-5.7329 -5.0480 -1.9778 0.9689
-4.1679 -6.3476 -1.9661 0.9691
-3.5792 -6.6827 -1.9628 0.9692
-2.3287 -7.1913 -1.9571 0.9692
-1.0122 -7.4744 -1.9529 0.9693
-0.3415 -7.5289 -1.9514 0.9693
2.7561 -6.4995 -1.8279 0.9713
3.9397 -6.0182 -1.8624 0.9707
5.1939 -5.4847 -1.9558 0.9693
6.1018 -4.4870 -1.9611 0.9692
6.8246 -3.3431 -1.9676 0.9691
7.1090 -2.7265 -1.9714 0.9690
7.3386 -2.0860 -1.9754 0.9690
7.5114 -1.4264 -1.9796 0.9689
7.6257 -0.7527 -1.9840 0.9688
7.6801 -0.0700 -1.9886 0.9688
7.2901 2.6446 -2.0079 0.9685
7.0423 3.2920 -2.0128 0.9684
6.7368 3.9161 -2.0176 0.9683
6.3718 4.5090 -2.0211 0.9683
5.6495 4.8081 -1.9208 0.9698
2.3699 6.9187 -1.8936 0.9702
1.1060 7.2466 -1.8980 0.9702
-0.1990 7.3390 -1.9009 0.9701
-1.5003 7.1917 -1.9022 0.9701
-4.2364 6.7156 -2.0558 0.9677
-4.8140 6.3056 -2.0540 0.9678
-5.8436 5.3377 -2.0492 0.9678
-6.2870 4.7884 -2.0462 0.9679
-7.0135 3.5833 -2.0392 0.9680
-7.5083 2.2716 -2.0311 0.9681
-7.6643 1.5897 -2.0266 0.9682
-7.7573 -0.4919 -2.0125 0.9684
-7.5100 -1.8528 -2.0028 0.9685
-7.2971 -2.5089 -1.9979 0.9686
-7.0274 -3.1419 -1.9931 0.9687
-6.7034 -3.7471 -1.9884 0.9688
-6.3280 -4.3199 -1.9838 0.9688
-5.9044 -4.8560 -1.9794 0.9689
-5.4364 -5.3517 -1.9752 0.9690
-4.3823 -6.2079 -1.9675 0.9691
-3.1993 -6.8645 -1.9609 0.9692
0.0773 -7.5334 -1.9506 0.9694
0.7483 -7.4930 -1.9497 0.9694
1.4131 -7.3946 -1.9493 0.9694
2.0667 -7.2390 -1.9492 0.9694
2.5720 -6.6832 -1.8541 0.9708
3.0888 -6.2872 -1.8137 0.9715
3.6881 -6.0707 -1.8392 0.9711
4.3824 -5.9452 -1.9123 0.9699
5.0041 -5.6541 -1.9550 0.9693
7.0080 -2.9622 -1.9699 0.9691
7.4530 -1.6772 -1.9780 0.9689
7.6667 -0.3283 -1.9869 0.9688
7.6834 0.3574 -1.9915 0.9687
7.3683 2.3954 -2.0061 0.9685
6.8587 3.6837 -2.0158 0.9683
6.5183 4.2907 -2.0205 0.9683
5.2465 4.9936 -1.8754 0.9705
3.3975 5.6390 -1.7046 0.9732
2.6002 6.8314 -1.8926 0.9702
0.0483 7.3399 -1.9005 0.9701
-1.2572 7.2378 -1.9021 0.9701
-2.7253 7.4535 -2.0548 0.9677
-3.3836 7.1907 -2.0576 0.9677
-6.5368 4.4273 -2.0442 0.9679
-6.8936 3.8202 -2.0406 0.9680
-7.1932 3.1843 -2.0368 0.9680
-7.4334 2.5252 -2.0327 0.9681
-7.6127 1.8484 -2.0283 0.9681
-7.7765 -0.2305 -2.0144 0.9684
-7.7064 -0.9207 -2.0095 0.9684
-7.5751 -1.6003 -2.0046 0.9685
-7.1357 -2.9061 -1.9949 0.9687
-6.8318 -3.5223 -1.9901 0.9687
-6.4755 -4.1078 -1.9855 0.9688
-6.0697 -4.6583 -1.9810 0.9689
-5.1241 -5.6383 -1.9727 0.9690
-4.5921 -6.0610 -1.9688 0.9691
-4.0261 -6.4346 -1.9653 0.9691
-2.1700 -7.2384 -1.9566 0.9693
-1.5142 -7.3947 -1.9543 0.9693
0.4956 -7.5151 -1.9500 0.9694
1.8217 -7.3044 -1.9492 0.9694
2.4043 -6.9360 -1.9007 0.9701
5.3143 -5.3712 -1.9564 0.9693
5.7796 -4.8823 -1.9589 0.9692
6.8993 -3.1943 -1.9685 0.9691
7.3863 -1.9258 -1.9764 0.9690
7.5449 -1.2623 -1.9807 0.9689
7.6446 -0.5859 -1.9851 0.9688
7.6842 0.0983 -1.9898 0.9687
7.5809 1.4686 -1.9993 0.9686
-0.2605 6.6945 -1.8966 0.9725
-2.7977 6.6914 -2.0532 0.9703
-5.7895 4.3026 -2.0420 0.9705
-6.1407 3.7635 -2.0389 0.9705
-6.4412 3.1958 -2.0355 0.9706
-7.1188 0.1009 -2.0155 0.9708
-7.0839 -0.5331 -2.0111 0.9709
-6.0920 -3.5002 -1.9890 0.9712
-5.7436 -4.0210 -1.9848 0.9713
-5.3513 -4.5079 -1.9808 0.9713
-4.9186 -4.9575 -1.9770 0.9714
-4.4488 -5.3664 -1.9733 0.9714
-3.4137 -6.0513 -1.9669 0.9715
-2.8564 -6.3224 -1.9640 0.9716
-1.6840 -6.7131 -1.9593 0.9716
0.1522 -6.9035 -1.9548 0.9717
1.3751 -6.7627 -1.9537 0.9717
1.9726 -6.6131 -1.9536 0.9717
6.6731 -2.0558 -1.9767 0.9714
6.9596 -0.8412 -1.9846 0.9713
6.9790 1.0373 -1.9974 0.9711
6.7137 2.2704 -2.0063 0.9710
6.4989 2.8663 -2.0108 0.9709
5.9121 3.9923 -2.0195 0.9708
5.5355 4.5059 -2.0206 0.9708
4.8492 4.7256 -1.9168 0.9722
1.7346 6.4523 -1.8915 0.9726
-0.0349 6.6981 -1.8962 0.9725
-1.2248 6.5901 -1.8976 0.9725
-1.9499 6.9631 -2.0470 0.9704
-2.5710 6.7826 -2.0534 0.9703
-3.1643 6.5240 -2.0527 0.9703
-4.2671 5.8505 -2.0500 0.9703
-5.2275 4.9893 -2.0457 0.9704
-5.6442 4.4975 -2.0431 0.9704
-6.0140 3.9706 -2.0401 0.9705
-6.6015 2.8298 -2.0333 0.9706
-6.8149 2.2258 -2.0295 0.9706
-6.9725 1.6062 -2.0256 0.9707
-7.0734 0.9761 -2.0214 0.9708
-7.1172 0.3409 -2.0171 0.9708
-7.1038 -0.2944 -2.0128 0.9709
-7.0337 -0.9246 -2.0083 0.9709
-6.9078 -1.5446 -2.0038 0.9710
-6.7276 -2.1495 -1.9994 0.9711
-6.4947 -2.7347 -1.9950 0.9711
-5.8804 -3.8283 -1.9864 0.9713
-4.6302 -5.2171 -1.9747 0.9714
-1.9100 -6.6552 -1.9601 0.9716
-0.6963 -6.8759 -1.9565 0.9717
-0.0804 -6.9061 -1.9552 0.9717
1.1466 -6.8055 -1.9538 0.9717
2.9078 -6.2616 -1.9544 0.9717
6.0651 -3.4013 -1.9686 0.9715
6.7851 -1.6839 -1.9791 0.9714
7.0047 -0.4538 -1.9871 0.9712
7.0323 0.1729 -1.9914 0.9712
6.7806 2.0413 -2.0046 0.9710
6.5863 2.6436 -2.0091 0.9709
6.3383 3.2274 -2.0136 0.9709
5.6886 4.3203 -2.0222 0.9707
4.4814 4.8813 -1.8759 0.9728
3.4529 5.4569 -1.8281 0.9735
3.0454 5.9236 -1.8856 0.9727
2.5087 6.1803 -1.8883 0.9727
-1.0021 6.6271 -1.8974 0.9725
-2.9433 6.6279 -2.0530 0.9703
-4.0689 5.9928 -2.0506 0.9703
-5.0588 5.1648 -2.0466 0.9704
-5.4923 4.6874 -2.0441 0.9704
-5.8802 4.1733 -2.0413 0.9705
-6.2192 3.6267 -2.0381 0.9705
-6.5068 3.0526 -2.0347 0.9706
-7.0421 1.2148 -2.0230 0.9707
-7.1074 0.5809 -2.0188 0.9708
-7.0667 -0.6877 -2.0100 0.9709
-6.9618 -1.3121 -2.0055 0.9710
-6.5886 -2.5165 -1.9966 0.9711
-6.3242 -3.0872 -1.9922 0.9712
-6.0108 -3.6309 -1.9880 0.9712
-4.3283 -5.4602 -1.9725 0.9714
-2.7164 -6.3814 -1.9634 0.9716
-2.1339 -6.5899 -1.9609 0.9716
2.1170 -6.5685 -1.9537 0.9717
3.7847 -5.7815 -1.9562 0.9717
4.7598 -5.0263 -1.9597 0.9716
5.5906 -4.1111 -1.9645 0.9716
5.9436 -3.6015 -1.9674 0.9715
6.2511 -3.0622 -1.9706 0.9715
6.5105 -2.4970 -1.9740 0.9714
6.9799 -0.6890 -1.9856 0.9713
6.8398 1.8102 -2.0030 0.9710
6.6660 2.4182 -2.0074 0.9710
6.1575 3.5794 -2.0163 0.9708
5.8263 4.1230 -2.0206 0.9708
4.6431 4.7274 -1.8758 0.9728
4.2081 5.1287 -1.8781 0.9728
3.7407 5.4932 -1.8814 0.9727
2.7140 6.0891 -1.8873 0.9727
1.5933 6.4905 -1.8920 0.9726
1.0093 6.6132 -1.8938 0.9726
0.4160 6.6821 -1.8953 0.9726
-0.1816 6.6966 -1.8965 0.9725
-0.7782 6.6565 -1.8972 0.9725
-1.3770 6.6008 -1.9089 0.9724
-2.1042 6.9261 -2.0492 0.9704
-4.3933 5.7544 -2.0495 0.9704
-4.8840 5.3345 -2.0475 0.9704
-5.3340 4.8721 -2.0451 0.9704
-6.0972 3.8364 -2.0393 0.9705
-6.8587 2.0751 -2.0286 0.9706
-7.0918 -0.4497 -2.0117 0.9709
-7.0079 -1.0778 -2.0072 0.9710
-6.8686 -1.6945 -2.0027 0.9710
-6.6752 -2.2951 -1.9983 0.9711
-6.4298 -2.8748 -1.9939 0.9711
-2.9313 -6.2895 -1.9644 0.9716
-2.3558 -6.5173 -1.9618 0.9716
-1.7633 -6.6937 -1.9596 0.9716
0.0709 -6.9053 -1.9549 0.9717
1.2953 -6.7785 -1.9537 0.9717
3.0445 -6.1971 -1.9546 0.9717
5.0353 -4.7574 -1.9610 0.9716
5.4462 -4.2949 -1.9635 0.9716
6.6468 -2.1338 -1.9762 0.9714
6.9473 -0.9230 -1.9840 0.9713
7.0166 -0.3004 -1.9882 0.9712
6.9887 0.9547 -1.9968 0.9711
6.8911 1.5775 -2.0013 0.9710
6.2695 3.3672 -2.0146 0.9708
4.9668 4.7274 -1.9412 0.9719
4.3754 4.9806 -1.8768 0.9728
0.6406 6.6625 -1.8948 0.9726
0.0440 6.6976 -1.8961 0.9725
-0.5535 6.6780 -1.8970 0.9725
-1.1471 6.6039 -1.8975 0.9725
-1.8644 6.9732 -2.0434 0.9704
-3.0874 6.5612 -2.0528 0.9703
-3.6581 6.2565 -2.0517 0.9703
-4.1983 5.9011 -2.0502 0.9703
-4.7034 5.4982 -2.0483 0.9704
-5.1692 5.0514 -2.0461 0.9704
-5.9680 4.0420 -2.0405 0.9705
-6.5693 2.9081 -2.0338 0.9706
-6.7899 2.3066 -2.0300 0.9706
-6.9549 1.6887 -2.0261 0.9707
-7.0634 1.0597 -2.0220 0.9707
-7.1147 0.4248 -2.0177 0.9708
-7.0461 -0.8419 -2.0089 0.9709
-6.9276 -1.4635 -2.0044 0.9710
-6.5284 -2.6588 -1.9955 0.9711
-6.2517 -3.2232 -1.9912 0.9712
-5.9268 -3.7597 -1.9869 0.9712
-5.5564 -4.2644 -1.9828 0.9713
-3.6881 -5.8945 -1.9684 0.9715
-3.1431 -6.1905 -1.9654 0.9716
-2.5752 -6.4373 -1.9627 0.9716
-1.9886 -6.6332 -1.9604 0.9716
-1.3878 -6.7771 -1.9584 0.9717
-0.1618 -6.9052 -1.9553 0.9717
1.6699 -6.6958 -1.9536 0.9717
3.3852 -6.0203 -1.9553 0.9717
4.4073 -5.3313 -1.9582 0.9717
5.2958 -4.4736 -1.9625 0.9716
6.3193 -2.9257 -1.9714 0.9715
6.5666 -2.3548 -1.9749 0.9714
6.9070 -1.1556 -1.9825 0.9713
6.9969 -0.5362 -1.9866 0.9712
7.0111 0.7181 -1.9952 0.9711
6.9344 1.3433 -1.9996 0.9711
6.8022 1.9606 -2.0041 0.9710
-0.7979 6.1911 -1.9200 0.9742
-1.4333 6.4873 -2.0435 0.9726
-2.0120 6.3523 -2.0495 0.9725
-2.5698 6.1463 -2.0490 0.9725
-3.1063 5.8903 -2.0482 0.9725
-3.6170 5.5867 -2.0470 0.9725
-5.6437 3.4589 -2.0360 0.9727
-6.3267 1.8330 -2.0260 0.9728
-6.5487 0.0928 -2.0144 0.9730
-6.5178 -0.4905 -2.0104 0.9730
-6.4349 -1.0675 -2.0063 0.9731
-6.3012 -1.6336 -2.0022 0.9731
-5.6100 -3.2233 -1.9901 0.9733
-4.9296 -4.1526 -1.9825 0.9734
-2.1005 -6.0324 -1.9647 0.9736
0.7072 -6.3258 -1.9578 0.9737
1.2681 -6.2364 -1.9574 0.9737
1.8191 -6.0985 -1.9574 0.9737
3.8429 -5.0867 -1.9609 0.9737
4.2848 -4.7279 -1.9626 0.9737
4.6941 -4.3315 -1.9646 0.9736
5.4022 -3.4374 -1.9695 0.9736
5.9448 -2.4306 -1.9754 0.9735
6.4102 -0.7748 -1.9860 0.9733
6.3269 1.5270 -2.0019 0.9731
3.5467 4.9707 -1.8782 0.9748
3.0941 5.2751 -1.8810 0.9747
2.6151 5.5377 -1.8837 0.9747
2.1136 5.7561 -1.8860 0.9747
1.5937 5.9282 -1.8881 0.9746
1.0598 6.0523 -1.8899 0.9746
0.5164 6.1275 -1.8914 0.9746
-0.0320 6.1528 -1.8925 0.9746
-0.5807 6.1279 -1.8933 0.9746
-1.1972 6.4412 -2.0151 0.9730
-2.3615 6.2300 -2.0493 0.9725
-2.9066 5.9927 -2.0486 0.9725
-3.9200 5.3746 -2.0461 0.9725
-4.3798 4.9994 -2.0443 0.9726
-4.8031 4.5842 -2.0422 0.9726
-5.1866 4.1328 -2.0398 0.9726
-5.8217 3.1371 -2.0341 0.9727
-6.2656 2.0464 -2.0273 0.9728
-6.4115 1.4770 -2.0237 0.9728
-6.5468 0.3135 -2.0160 0.9729
-6.3575 -1.4215 -2.0037 0.9731
-6.1927 -1.9786 -1.9996 0.9732
-5.9795 -2.5178 -1.9955 0.9732
-5.4157 -3.5258 -1.9877 0.9733
-4.6860 -4.4152 -1.9803 0.9734
-3.8145 -5.1599 -1.9737 0.9735
-3.3342 -5.4712 -1.9707 0.9735
-2.8292 -5.7388 -1.9680 0.9736
-1.7609 -6.1357 -1.9634 0.9736
-1.2057 -6.2625 -1.9616 0.9737
-0.6420 -6.3401 -1.9601 0.9737
1.0574 -6.2759 -1.9575 0.9737
2.6814 -5.7741 -1.9582 0.9737
3.1870 -5.5146 -1.9591 0.9737
3.6683 -5.2118 -1.9603 0.9737
4.1217 -4.8679 -1.9619 0.9737
4.5437 -4.4853 -1.9638 0.9736
5.5898 -3.1347 -1.9712 0.9735
5.8560 -2.6279 -1.9742 0.9735
6.3759 -0.9896 -1.9846 0.9734
6.4753 0.1592 -1.9923 0.9733
6.3699 1.3120 -2.0004 0.9732
6.2403 1.8786 -2.0045 0.9731
6.0603 2.4325 -2.0086 0.9730
5.8312 2.9692 -2.0127 0.9730
5.5542 3.4842 -2.0167 0.9729
5.2316 3.9732 -2.0206 0.9729
4.8587 4.4258 -2.0215 0.9729
3.7098 4.8454 -1.8770 0.9748
2.7987 5.4437 -1.8827 0.9747
2.3052 5.6790 -1.8852 0.9747
0.1752 6.1491 -1.8921 0.9746
-0.3740 6.1432 -1.8930 0.9746
-2.1505 6.3065 -2.0494 0.9725
-3.2341 5.8202 -2.0480 0.9725
-4.2104 5.1458 -2.0450 0.9726
-4.6479 4.7453 -2.0431 0.9726
-5.9812 2.8060 -2.0321 0.9727
-6.1972 2.2578 -2.0287 0.9728
-6.3625 1.6933 -2.0251 0.9728
-6.4762 1.1172 -2.0213 0.9729
-6.5374 0.5343 -2.0175 0.9729
-6.5460 -0.0506 -2.0135 0.9730
-6.5022 -0.6328 -2.0094 0.9730
-6.4068 -1.2075 -2.0053 0.9731
-6.2607 -1.7703 -2.0012 0.9731
-5.8230 -2.8425 -1.9930 0.9732
-5.5355 -3.3438 -1.9891 0.9733
-5.2053 -3.8167 -1.9853 0.9733
-4.8353 -4.2577 -1.9816 0.9734
-1.9673 -6.0753 -1.9642 0.9736
-0.2887 -6.3635 -1.9593 0.9737
0.2797 -6.3607 -1.9583 0.9737
1.4044 -6.2071 -1.9574 0.9737
1.9523 -6.0574 -1.9575 0.9737
3.4898 -5.3310 -1.9598 0.9737
3.9542 -5.0023 -1.9612 0.9737
4.3884 -4.6340 -1.9630 0.9736
4.7892 -4.2288 -1.9651 0.9736
5.1533 -3.7895 -1.9675 0.9736
5.7608 -2.8220 -1.9731 0.9735
5.9990 -2.3008 -1.9762 0.9735
6.4286 -0.6346 -1.9869 0.9733
6.4721 -0.0590 -1.9908 0.9733
6.4645 0.5194 -1.9948 0.9732
6.4055 1.0959 -1.9988 0.9732
5.0086 4.2628 -2.0230 0.9729
4.5998 4.6834 -2.0191 0.9729
3.8754 4.7232 -1.8792 0.9748
3.4383 5.0491 -1.8789 0.9748
0.9272 6.0753 -1.8903 0.9746
-0.1668 6.1513 -1.8927 0.9746
-2.4972 6.1764 -2.0491 0.9725
-3.0368 5.9269 -2.0484 0.9725
-3.5512 5.6294 -2.0472 0.9725
-4.4872 4.9011 -2.0438 0.9726
-5.2741 4.0170 -2.0391 0.9726
-5.8868 3.0077 -2.0333 0.9727
-6.1216 2.4668 -2.0300 0.9728
-6.3062 1.9079 -2.0265 0.9728
-6.4394 1.3356 -2.0228 0.9729
-6.5204 0.7547 -2.0189 0.9729
-6.5489 0.1700 -2.0150 0.9730
-6.5248 -0.4137 -2.0109 0.9730
-6.4488 -0.9918 -2.0068 0.9731
-6.3217 -1.5596 -2.0027 0.9731
-6.1448 -2.1127 -1.9986 0.9732
-5.6491 -3.1578 -1.9906 0.9733
-5.3347 -3.6418 -1.9867 0.9733
-4.1583 -4.8973 -1.9761 0.9735
-3.6992 -5.2402 -1.9729 0.9735
-3.2125 -5.5410 -1.9700 0.9736
-2.7020 -5.7975 -1.9674 0.9736
-2.1717 -6.0081 -1.9650 0.9736
-1.0680 -6.2861 -1.9612 0.9737
-0.5029 -6.3516 -1.9597 0.9737
0.0653 -6.3676 -1.9586 0.9737
0.6326 -6.3340 -1.9579 0.9737
1.1945 -6.2510 -1.9575 0.9737
1.7471 -6.1195 -1.9574 0.9737
2.8075 -5.7146 -1.9584 0.9737
4.2283 -4.7775 -1.9623 0.9737
5.3604 -3.5002 -1.9691 0.9736
5.6592 -3.0127 -1.9719 0.9735
5.9145 -2.5000 -1.9750 0.9735
6.1240 -1.9660 -1.9783 0.9734
6.2860 -1.4146 -1.9818 0.9734
6.3990 -0.8501 -1.9855 0.9733
6.4617 -0.2767 -1.9893 0.9733
6.4734 0.3011 -1.9932 0.9732
6.4338 0.8789 -1.9973 0.9732
6.0086 2.5659 -2.0096 0.9730
5.7676 3.0977 -2.0137 0.9730
5.4792 3.6067 -2.0176 0.9729
5.1457 4.0887 -2.0215 0.9729
4.1330 4.7047 -1.9261 0.9741
3.6043 4.9275 -1.8778 0.9748
3.1554 5.2373 -1.8807 0.9747
2.6797 5.5056 -1.8833 0.9747
1.6632 5.9082 -1.8879 0.9746
1.1309 6.0387 -1.8897 0.9746
0.0405 6.1523 -1.8924 0.9746
-1.1091 6.3852 -1.9933 0.9732
-2.8359 6.0268 -2.0487 0.9725
-3.8568 5.4210 -2.0463 0.9725
-4.7495 4.6412 -2.0425 0.9726
-5.7855 3.2061 -2.0345 0.9727
-6.2425 2.1206 -2.0278 0.9728
-6.5400 -0.1939 -2.0125 0.9730
-6.4835 -0.7746 -2.0084 0.9730
-5.7566 -2.9679 -1.9921 0.9733
-5.4583 -3.4626 -1.9882 0.9733
-4.7388 -4.3606 -1.9808 0.9734
-4.3236 -4.7575 -1.9773 0.9735
-3.8759 -5.1157 -1.9741 0.9735
-3.3991 -5.4326 -1.9711 0.9735
-2.3739 -5.9342 -1.9659 0.9736
-1.2796 -6.2485 -1.9618 0.9737
0.4189 -6.3525 -1.9581 0.9737
0.9834 -6.2881 -1.9576 0.9737
1.5399 -6.1748 -1.9574 0.9737
3.6063 -5.2542 -1.9601 0.9737
4.0636 -4.9155 -1.9617 0.9737
4.4899 -4.5379 -1.9635 0.9736
4.8820 -4.1241 -1.9657 0.9736
5.8234 -2.6962 -1.9738 0.9735
6.4750 0.0828 -1.9917 0.9733
6.4548 0.6611 -1.9957 0.9732
6.3831 1.2365 -1.9998 0.9732
6.2603 1.8044 -2.0039 0.9731
-0.2275 5.8461 -1.9447 0.9756
-0.7841 6.0836 -2.0389 0.9745
-1.3276 6.0088 -2.0455 0.9744
-1.8584 5.8676 -2.0459 0.9744
-2.8694 5.4411 -2.0447 0.9744
-3.7854 4.8389 -2.0422 0.9744
-4.9162 3.6536 -2.0360 0.9745
-5.4722 2.7150 -2.0306 0.9746
-5.8491 1.6946 -2.0242 0.9747
-5.9667 1.1644 -2.0208 0.9747
-6.0569 0.0858 -2.0135 0.9748
-6.0292 -0.4537 -2.0098 0.9748
-5.9534 -0.9876 -2.0060 0.9749
-5.8306 -1.5116 -2.0022 0.9749
-5.6618 -2.0216 -1.9984 0.9750
-5.4488 -2.5136 -1.9947 0.9750
-4.8979 -3.4289 -1.9874 0.9751
-4.5648 -3.8453 -1.9840 0.9752
-3.3686 -4.8933 -1.9747 0.9753
-0.3967 -5.8912 -1.9627 0.9754
0.1301 -5.9002 -1.9617 0.9754
1.1754 -5.7803 -1.9607 0.9754
2.1837 -5.4805 -1.9610 0.9754
3.9707 -4.3813 -1.9655 0.9754
4.6953 -3.6138 -1.9695 0.9753
5.0049 -3.1846 -1.9719 0.9753
5.2760 -2.7294 -1.9745 0.9753
5.5063 -2.2514 -1.9774 0.9752
5.6940 -1.7542 -1.9805 0.9752
5.8373 -1.2416 -1.9838 0.9752
5.9898 0.3494 -1.9944 0.9750
5.9459 0.8837 -1.9982 0.9750
5.3017 2.9285 -2.0133 0.9748
5.0287 3.3957 -2.0170 0.9747
4.7142 3.8374 -2.0206 0.9747
3.3828 4.7410 -1.9360 0.9757
0.4770 5.6604 -1.8882 0.9763
-0.0299 5.7475 -1.9105 0.9761
-1.6598 5.9270 -2.0460 0.9744
-4.4378 4.2355 -2.0392 0.9745
-4.7925 3.8188 -2.0369 0.9745
-5.3806 2.8993 -2.0317 0.9746
-5.7922 1.8918 -2.0255 0.9746
-6.0156 0.8302 -2.0186 0.9747
-6.0548 0.2900 -2.0149 0.9748
-5.8824 -1.3153 -2.0036 0.9749
-5.5343 -2.3303 -1.9961 0.9750
-4.3396 -4.0888 -1.9819 0.9752
-3.0889 -5.0686 -1.9730 0.9753
-2.6213 -5.3170 -1.9705 0.9753
-1.6317 -5.6858 -1.9663 0.9754
-1.1173 -5.8036 -1.9646 0.9754
-0.0687 -5.9022 -1.9621 0.9754
0.9801 -5.8169 -1.9608 0.9754
1.4947 -5.7060 -1.9607 0.9754
3.3997 -4.8301 -1.9634 0.9754
3.8197 -4.5111 -1.9649 0.9754
4.2104 -4.1563 -1.9666 0.9754
5.6283 -1.9438 -1.9793 0.9752
5.7886 -1.4366 -1.9825 0.9752
5.9036 -0.9163 -1.9859 0.9751
5.9723 -0.3870 -1.9894 0.9751
5.7738 1.7382 -2.0043 0.9749
5.3936 2.7463 -2.0119 0.9748
4.8376 3.6740 -2.0192 0.9747
4.4985 4.0977 -2.0227 0.9747
4.1136 4.4807 -2.0219 0.9747
3.6109 4.7162 -1.9744 0.9753
3.0315 4.7910 -1.8846 0.9764
2.1300 5.2475 -1.8825 0.9764
0.6672 5.6397 -1.8877 0.9763
0.1618 5.6802 -1.8889 0.9763
-0.9178 6.0695 -2.0405 0.9745
-1.9864 5.8253 -2.0458 0.9744
-2.9875 5.3763 -2.0445 0.9744
-3.4529 5.0856 -2.0433 0.9744
-4.6632 3.9798 -2.0378 0.9745
-5.7287 2.0871 -2.0267 0.9746
-6.0457 0.4941 -2.0163 0.9748
-5.9276 -1.1172 -2.0051 0.9749
-4.8196 -3.5339 -1.9866 0.9751
-3.2595 -4.9642 -1.9740 0.9753
-1.8230 -5.6296 -1.9670 0.9754
-1.3126 -5.7644 -1.9652 0.9754
-0.7928 -5.8540 -1.9637 0.9754
-0.2675 -5.8977 -1.9624 0.9754
0.2593 -5.8953 -1.9615 0.9754
0.7836 -5.8470 -1.9610 0.9754
1.3017 -5.7531 -1.9607 0.9754
2.3033 -5.4317 -1.9612 0.9754
3.2343 -4.9407 -1.9629 0.9754
4.0666 -4.2942 -1.9659 0.9754
5.3363 -2.6141 -1.9752 0.9753
5.7333 -1.6297 -1.9813 0.9752
5.9519 -0.5875 -1.9881 0.9751
5.9834 0.4807 -1.9953 0.9750
5.6750 2.0587 -2.0067 0.9749
5.4791 2.5613 -2.0105 0.9748
5.2387 3.0453 -2.0142 0.9748
4.9553 3.5066 -2.0179 0.9747
4.6310 3.9413 -2.0214 0.9747
3.8517 4.6942 -2.0184 0.9747
2.7529 4.9382 -1.8793 0.9765
2.3046 5.1705 -1.8817 0.9764
1.8364 5.3614 -1.8838 0.9764
-0.1575 5.8096 -1.9319 0.9758
-2.3067 5.7052 -2.0456 0.9744
-2.8052 5.4749 -2.0449 0.9744
-4.1456 4.5280 -2.0407 0.9745
-4.5283 4.1363 -2.0387 0.9745
-5.4408 2.7798 -2.0309 0.9746
-5.6585 2.2802 -2.0279 0.9746
-5.8300 1.7638 -2.0247 0.9747
-6.0297 0.6979 -2.0177 0.9747
-5.9662 -0.9176 -2.0065 0.9749
-5.6867 -1.9552 -1.9989 0.9750
-5.4794 -2.4498 -1.9951 0.9750
-3.8515 -4.5360 -1.9780 0.9752
-3.4267 -4.8542 -1.9751 0.9753
-0.9898 -5.8255 -1.9642 0.9754
0.0606 -5.9017 -1.9618 0.9754
0.5863 -5.8706 -1.9611 0.9754
1.6193 -5.6719 -1.9607 0.9754
2.1189 -5.5057 -1.9610 0.9754
3.0654 -5.0457 -1.9625 0.9754
3.5053 -4.7553 -1.9637 0.9754
3.9183 -4.4273 -1.9653 0.9754
5.2425 -2.7908 -1.9742 0.9753
5.4783 -2.3156 -1.9770 0.9752
5.8210 -1.3100 -1.9833 0.9752
5.9248 -0.7871 -1.9867 0.9751
5.9544 0.8134 -1.9977 0.9750
5.8693 1.3436 -2.0014 0.9749
5.5584 2.3736 -2.0091 0.9748
4.4095 4.1970 -2.0236 0.9747
3.4599 4.7301 -1.9480 0.9756
2.9162 4.8402 -1.8784 0.9765
2.0152 5.2943 -1.8830 0.9764
1.0448 5.5788 -1.8867 0.9764
0.0376 5.7159 -1.9001 0.9762
-0.4961 5.9856 -1.9965 0.9750
-1.0513 6.0527 -2.0421 0.9744
-1.5898 5.9462 -2.0460 0.9744
-2.6196 5.5671 -2.0452 0.9744
-3.1041 5.3089 -2.0442 0.9744
-4.3881 4.2881 -2.0395 0.9745
-4.7479 3.8756 -2.0373 0.9745
-5.0683 3.4327 -2.0348 0.9745
-5.9128 1.4357 -2.0225 0.9747
-6.0524 0.3614 -2.0154 0.9748
-5.9980 -0.7166 -2.0079 0.9749
-5.5627 -2.2655 -1.9966 0.9750
-5.0533 -3.2056 -1.9892 0.9751
-4.7390 -3.6370 -1.9857 0.9751
-3.1489 -5.0327 -1.9734 0.9753
-2.6842 -5.2866 -1.9708 0.9753
-1.6989 -5.6668 -1.9665 0.9754
-1.1858 -5.7906 -1.9648 0.9754
-0.1383 -5.9014 -1.9622 0.9754
0.3883 -5.8877 -1.9614 0.9754
1.4273 -5.7232 -1.9607 0.9754
3.3422 -4.8694 -1.9632 0.9754
4.1606 -4.2051 -1.9664 0.9754
4.5236 -3.8213 -1.9684 0.9753
5.3942 -2.4975 -1.9759 0.9753
5.6038 -2.0096 -1.9789 0.9752
5.9742 0.6119 -1.9962 0.9750
-0.7297 5.6620 -2.0415 0.9760
-1.7248 5.4457 -2.0428 0.9760
-2.2031 5.2693 -2.0424 0.9760
-3.1013 4.7902 -2.0407 0.9761
-3.8971 4.1571 -2.0377 0.9761
-4.2483 3.7896 -2.0358 0.9761
-5.0815 2.5212 -2.0285 0.9762
-5.6278 0.0797 -2.0128 0.9764
-5.6028 -0.4216 -2.0093 0.9764
-5.4197 -1.4051 -2.0022 0.9765
-5.0662 -2.3371 -1.9952 0.9766
-4.8294 -2.7748 -1.9918 0.9766
-4.2459 -3.5767 -1.9853 0.9767
-3.5325 -4.2611 -1.9793 0.9768
-2.7124 -4.8082 -1.9742 0.9768
2.4803 -4.9017 -1.9645 0.9769
2.9087 -4.6631 -1.9654 0.9769
3.3149 -4.3878 -1.9666 0.9769
3.6957 -4.0778 -1.9680 0.9769
4.6572 -2.9634 -1.9740 0.9768
4.9090 -2.5395 -1.9765 0.9768
5.1228 -2.0945 -1.9792 0.9768
5.4295 -1.1548 -1.9851 0.9767
5.5665 -0.1727 -1.9916 0.9766
5.4420 1.3135 -2.0020 0.9765
5.1403 2.2671 -2.0090 0.9764
4.6719 3.1548 -2.0159 0.9763
4.0503 3.9471 -2.0225 0.9763
3.6864 4.2974 -2.0247 0.9762
2.8163 4.8016 -1.9907 0.9766
2.3156 4.9035 -1.9392 0.9772
1.8438 5.0213 -1.9129 0.9775
1.3863 5.1567 -1.9095 0.9776
-0.0296 5.6888 -2.0344 0.9761
-0.5381 5.6776 -2.0395 0.9761
-1.0438 5.6161 -2.0428 0.9760
-2.9388 4.8929 -2.0411 0.9760
-3.3614 4.6087 -2.0399 0.9761
-3.7561 4.2874 -2.0384 0.9761
-4.1197 3.9320 -2.0366 0.9761
-4.7423 3.1309 -2.0321 0.9761
-5.2092 2.2330 -2.0268 0.9762
-5.5064 1.2685 -2.0207 0.9763
-5.6256 0.2694 -2.0140 0.9764
-5.6175 -0.2328 -2.0106 0.9764
-5.4676 -1.2225 -2.0035 0.9765
