ply
format ascii 1.0
element vertex 1597
property float32 x
property float32 y
property float32 z
property float32 I
end_header
9.0124 -2.3649 -1.9695 0.9626
9.3153 0.9393 -1.9791 0.9624
9.2080 1.7687 -1.9820 0.9624
9.0276 2.5866 -1.9850 0.9623
7.8102 3.8462 -1.8402 0.9650
7.4490 4.5351 -1.8434 0.9650
6.5483 5.8065 -1.8500 0.9649
6.0152 6.3786 -1.8533 0.9648
4.8036 7.3715 -1.8598 0.9647
3.4296 8.1349 -1.8661 0.9646
2.6950 8.4217 -1.8691 0.9645
0.3717 8.8724 -1.8771 0.9643
-0.4213 8.8810 -1.8794 0.9643
-1.2128 8.8176 -1.8814 0.9643
-4.5791 8.5071 -2.0422 0.9613
-6.6710 6.9960 -2.0434 0.9612
-7.2672 6.3725 -2.0431 0.9613
-9.0173 3.4229 -2.0388 0.9613
-9.4635 1.7635 -2.0348 0.9614
-9.5719 0.9117 -2.0325 0.9615
-9.6028 0.0546 -2.0299 0.9615
-8.2071 -4.8085 -2.0106 0.9619
-7.1970 -6.1677 -2.0035 0.9620
-6.6066 -6.7727 -1.9999 0.9621
-5.2801 -7.8109 -1.9929 0.9622
-3.7962 -8.5956 -1.9862 0.9623
-2.2023 -9.1051 -1.9801 0.9624
-1.3798 -9.2521 -1.9773 0.9625
-0.5487 -9.3261 -1.9748 0.9625
0.2641 -8.6533 -1.8300 0.9652
0.9374 -7.7880 -1.6581 0.9684
2.5375 -8.2515 -1.8248 0.9653
3.2609 -7.9871 -1.8236 0.9653
5.2547 -6.8346 -1.8223 0.9654
6.8793 -6.2411 -1.9634 0.9627
7.4102 -5.6043 -1.9639 0.9627
7.8836 -4.9233 -1.9647 0.9627
9.1354 -1.8626 -1.9708 0.9626
9.2753 -1.0418 -1.9729 0.9626
9.3427 -0.2110 -1.9754 0.9625
9.1044 2.2788 -1.9839 0.9624
7.5930 4.2780 -1.8422 0.9650
7.1939 4.9466 -1.8454 0.9649
6.7362 5.5782 -1.8487 0.9649
5.6585 6.7098 -1.8553 0.9648
4.3921 7.6347 -1.8618 0.9646
3.7002 8.0094 -1.8650 0.9646
2.9761 8.3209 -1.8680 0.9645
1.4554 8.7435 -1.8736 0.9644
0.6709 8.8505 -1.8762 0.9644
-0.9138 8.8501 -1.8807 0.9643
-2.4839 8.5912 -1.8904 0.9641
-3.4975 8.9981 -2.0407 0.9613
-4.2883 8.6554 -2.0418 0.9613
-5.0450 8.2420 -2.0427 0.9613
-5.7613 7.7614 -2.0432 0.9613
-7.0483 6.6149 -2.0432 0.9613
-8.1060 5.2546 -2.0420 0.9613
-8.5375 4.5085 -2.0408 0.9613
-9.1883 2.9160 -2.0377 0.9614
-9.4024 2.0831 -2.0357 0.9614
-9.5828 -0.4777 -2.0281 0.9615
-9.4883 -1.3282 -2.0252 0.9616
-9.3178 -2.1656 -2.0221 0.9616
-9.0729 -2.9829 -2.0188 0.9617
-7.9191 -5.2504 -2.0084 0.9619
-7.4062 -5.9250 -2.0049 0.9620
-6.8363 -6.5501 -2.0013 0.9620
-5.5446 -7.6331 -1.9942 0.9622
-4.8337 -8.0831 -1.9908 0.9622
-4.0869 -8.4677 -1.9875 0.9623
-3.3103 -8.7842 -1.9843 0.9623
-1.6925 -9.2050 -1.9784 0.9625
-0.8639 -9.3067 -1.9757 0.9625
0.7431 -8.6194 -1.8287 0.9652
1.3824 -7.8060 -1.6757 0.9681
2.2579 -8.3349 -1.8253 0.9653
3.6976 -7.7913 -1.8230 0.9654
4.3756 -7.4274 -1.8222 0.9654
6.6642 -6.4696 -1.9633 0.9627
7.2159 -5.8508 -1.9637 0.9627
8.5197 -3.7382 -1.9666 0.9627
9.2308 -1.3540 -1.9721 0.9626
9.3258 -0.5262 -1.9744 0.9625
9.3477 0.3078 -1.9770 0.9625
9.1708 1.9687 -1.9827 0.9624
6.9161 5.3438 -1.8475 0.9649
6.4236 5.9498 -1.8508 0.9648
3.6084 4.7951 -1.2685 0.9758
4.6445 7.4771 -1.8606 0.9647
3.2536 8.2106 -1.8669 0.9645
0.9690 8.8183 -1.8752 0.9644
-2.1844 8.6391 -1.8836 0.9642
-3.1887 9.1030 -2.0388 0.9613
-3.9927 8.7936 -2.0414 0.9613
-5.4953 7.9509 -2.0430 0.9613
-6.1833 7.4305 -2.0433 0.9612
-6.8211 6.8495 -2.0433 0.9613
-7.9252 5.5264 -2.0423 0.9613
-8.3822 4.7954 -2.0413 0.9613
-8.7707 4.0264 -2.0400 0.9613
-9.4970 1.5574 -2.0343 0.9614
-9.5866 0.7036 -2.0319 0.9615
-9.5331 -1.0075 -2.0263 0.9616
-9.3912 -1.8506 -2.0233 0.9616
-9.1742 -2.6763 -2.0201 0.9617
-8.8843 -3.4779 -2.0167 0.9617
-8.0974 -4.9832 -2.0098 0.9619
-7.6073 -5.6753 -2.0062 0.9619
-5.8031 -7.4463 -1.9955 0.9621
-2.0036 -9.1475 -1.9794 0.9624
-1.1784 -9.2768 -1.9767 0.9625
0.4516 -8.6432 -1.8295 0.9652
1.9757 -8.4091 -1.8259 0.9653
2.7154 -8.1931 -1.8245 0.9653
4.1228 -7.5721 -1.8225 0.9654
4.7799 -7.1719 -1.8218 0.9654
6.4416 -6.6908 -1.9632 0.9627
7.0134 -6.0907 -1.9635 0.9627
7.5307 -5.4427 -1.9641 0.9627
8.9820 -2.4734 -1.9693 0.9626
9.1760 -1.6644 -1.9713 0.9626
9.3480 -0.0082 -1.9760 0.9625
9.3242 0.8264 -1.9787 0.9625
7.8543 3.7506 -1.8398 0.9650
7.5015 4.4436 -1.8430 0.9650
7.0879 5.1037 -1.8462 0.9649
6.6164 5.7255 -1.8495 0.9649
4.8913 7.3112 -1.8594 0.9647
4.2272 7.7314 -1.8626 0.9646
3.5269 8.0910 -1.8657 0.9646
2.0402 8.6158 -1.8716 0.9644
1.2657 8.7760 -1.8743 0.9644
-0.3138 8.8840 -1.8791 0.9643
-1.1059 8.8304 -1.8812 0.9643
-1.8907 8.7051 -1.8830 0.9642
-7.1898 6.4601 -2.0431 0.9613
-7.7351 5.7918 -2.0426 0.9613
-8.9763 3.5321 -2.0390 0.9613
-9.4429 1.8781 -2.0351 0.9614
-9.4538 -1.5332 -2.0245 0.9616
-8.2666 -4.7100 -2.0111 0.9618
-7.2728 -6.0817 -2.0040 0.9620
-6.6896 -6.6939 -2.0004 0.9620
-6.0554 -7.2508 -1.9969 0.9621
-5.3754 -7.7483 -1.9934 0.9622
-4.6552 -8.1827 -1.9900 0.9622
-0.6615 -9.3204 -1.9751 0.9625
0.1595 -8.6572 -1.8303 0.9652
0.8575 -7.9318 -1.6864 0.9679
3.1643 -8.0266 -1.8237 0.9653
3.8653 -7.7083 -1.8228 0.9654
5.1696 -6.8949 -1.8216 0.9654
7.3416 -5.6933 -1.9638 0.9627
7.8230 -5.0180 -1.9646 0.9627
8.2436 -4.3028 -1.9656 0.9627
9.2606 -1.1537 -1.9726 0.9626
9.3378 -0.3239 -1.9750 0.9625
9.1294 2.1681 -1.9834 0.9624
8.9139 2.9781 -1.9866 0.9623
8.1402 3.5546 -1.8776 0.9643
7.6423 4.1849 -1.8418 0.9650
6.2957 6.0904 -1.8516 0.9648
3.7959 7.9623 -1.8645 0.9646
3.0759 8.2825 -1.8676 0.9645
2.3288 8.5371 -1.8705 0.9645
-0.8066 8.8592 -1.8804 0.9643
-1.5949 8.7609 -1.8823 0.9642
-4.1830 8.7060 -2.0417 0.9613
-6.9679 6.6997 -2.0433 0.9613
-7.5359 6.0505 -2.0428 0.9613
3.7972 -6.7777 -1.8259 0.9686
5.8776 -5.9590 -1.9671 0.9662
6.8454 -4.8224 -1.9680 0.9662
7.2511 -4.1947 -1.9688 0.9662
7.8905 -2.8436 -1.9712 0.9661
8.1192 -2.1305 -1.9728 0.9661
8.3850 -0.6559 -1.9767 0.9660
8.3881 0.8458 -1.9814 0.9660
8.2902 1.5924 -1.9840 0.9659
8.1266 2.3284 -1.9868 0.9659
6.7022 4.0804 -1.8441 0.9683
5.8896 5.2225 -1.8500 0.9682
5.4092 5.7360 -1.8530 0.9681
3.7524 4.7675 -1.4259 0.9754
4.3182 6.6265 -1.8589 0.9680
3.7159 6.9959 -1.8617 0.9680
3.0819 7.3102 -1.8645 0.9679
1.0417 7.8974 -1.8721 0.9678
-1.0889 7.9172 -1.8782 0.9677
-1.7920 7.7952 -1.8798 0.9677
-3.4115 7.9684 -2.0372 0.9650
-4.7762 7.2415 -2.0388 0.9650
-5.9876 6.2793 -2.0392 0.9650
-6.5228 5.7198 -2.0389 0.9650
-7.0050 5.1141 -2.0384 0.9650
-7.4300 4.4674 -2.0376 0.9650
-7.7945 3.7851 -2.0365 0.9650
-8.0954 3.0730 -2.0351 0.9650
-8.3304 2.3371 -2.0334 0.9651
-8.4977 1.5835 -2.0315 0.9651
-8.5960 0.8187 -2.0294 0.9651
-8.6249 0.0490 -2.0271 0.9652
-8.4745 -1.4798 -2.0218 0.9653
-8.2972 -2.2263 -2.0190 0.9653
-8.0537 -2.9529 -2.0160 0.9654
-7.3784 -4.3230 -2.0098 0.9655
-6.9526 -4.9557 -2.0066 0.9655
-5.3674 -6.5872 -1.9970 0.9657
-4.0994 -7.4128 -1.9908 0.9658
-3.4170 -7.7372 -1.9879 0.9658
-1.2426 -8.3319 -1.9798 0.9660
0.2379 -7.7946 -1.8328 0.9685
2.2863 -7.4347 -1.8281 0.9685
3.5724 -6.9143 -1.8291 0.9685
5.1018 -6.6357 -1.9672 0.9662
6.6777 -5.0503 -1.9677 0.9662
7.9921 2.7780 -1.9886 0.9658
6.8321 3.8493 -1.8430 0.9683
6.0590 5.0175 -1.8489 0.9682
5.5965 5.5466 -1.8519 0.9681
5.0879 6.0331 -1.8548 0.9681
3.4321 4.8967 -1.4054 0.9757
2.6742 7.4766 -1.8662 0.9679
1.9997 7.6960 -1.8688 0.9679
1.3073 7.8539 -1.8713 0.9678
-0.8205 7.9466 -1.8776 0.9677
-1.5272 7.8489 -1.8793 0.9677
-3.1397 8.0774 -2.0368 0.9650
-3.8493 7.7693 -2.0378 0.9650
-4.5284 7.3979 -2.0386 0.9650
-5.7721 6.4781 -2.0392 0.9650
-6.8290 5.3485 -2.0386 0.9650
-7.6639 4.0471 -2.0369 0.9650
-8.2494 2.6180 -2.0341 0.9651
-8.5670 1.1091 -2.0302 0.9651
-8.6221 0.3405 -2.0280 0.9652
-8.6077 -0.4291 -2.0255 0.9652
-7.8702 -3.3918 -2.0141 0.9654
-7.1203 -4.7208 -2.0078 0.9655
-6.6604 -5.3283 -2.0046 0.9656
-5.5902 -6.4060 -1.9982 0.9657
-4.9889 -6.8680 -1.9951 0.9657
-3.6785 -7.6216 -1.9890 0.9658
-2.9800 -7.9078 -1.9861 0.9659
-0.0256 -7.8012 -1.8335 0.9685
2.0344 -7.5097 -1.8286 0.9685
3.3319 -7.0207 -1.8264 0.9686
4.8625 -6.7873 -1.9623 0.9663
5.4617 -6.3422 -1.9671 0.9662
6.0056 -5.8302 -1.9672 0.9662
7.3413 -4.0368 -1.9690 0.9662
7.6765 -3.3682 -1.9702 0.9661
7.9518 -2.6723 -1.9716 0.9661
8.1653 -1.9543 -1.9732 0.9661
8.3995 -0.4740 -1.9772 0.9660
8.4181 0.2771 -1.9795 0.9660
8.3704 1.0279 -1.9820 0.9659
8.0770 2.5051 -1.9875 0.9658
7.8251 3.2167 -1.9884 0.9658
6.2213 4.8070 -1.8478 0.9682
5.7772 5.3511 -1.8507 0.9682
5.2856 5.8543 -1.8537 0.9681
3.5951 4.7774 -1.4052 0.9757
4.1750 6.7212 -1.8596 0.9680
2.2574 7.6201 -1.8678 0.9679
1.5711 7.8015 -1.8703 0.9678
0.8704 7.9205 -1.8727 0.9678
-3.5840 7.8935 -2.0374 0.9650
-4.2753 7.5458 -2.0383 0.9650
-4.9324 7.1365 -2.0389 0.9650
-5.5499 6.6693 -2.0392 0.9650
-6.1223 6.1478 -2.0391 0.9650
-7.1137 4.9605 -2.0382 0.9650
-7.5243 4.3046 -2.0373 0.9650
-8.3774 2.1553 -2.0330 0.9651
-8.5280 1.3985 -2.0310 0.9651
-8.6094 0.6319 -2.0289 0.9652
-8.5638 -0.9051 -2.0239 0.9652
-8.2440 -2.4050 -2.0183 0.9653
-7.9849 -3.1258 -2.0153 0.9654
-6.3483 -5.6838 -2.0026 0.9656
-5.8069 -6.2172 -1.9994 0.9656
-4.5959 -7.1272 -1.9931 0.9658
-3.9361 -7.4972 -1.9901 0.9658
-3.2472 -7.8068 -1.9872 0.9659
-1.8041 -8.2368 -1.9817 0.9659
-1.0612 -8.3544 -1.9793 0.9660
-0.3117 -8.4061 -1.9770 0.9660
0.4068 -7.7857 -1.8323 0.9685
1.0983 -7.7111 -1.8306 0.9685
3.0933 -7.1306 -1.8268 0.9686
3.7152 -6.8234 -1.8260 0.9686
5.2444 -6.5233 -1.9671 0.9662
5.8050 -6.0296 -1.9671 0.9662
6.3203 -5.4887 -1.9674 0.9662
6.7862 -4.9046 -1.9679 0.9662
8.2659 -1.4993 -1.9744 0.9661
8.4188 -0.0074 -1.9786 0.9660
8.3962 0.7442 -1.9810 0.9660
8.3073 1.4917 -1.9836 0.9659
6.7496 3.9982 -1.8437 0.9683
4.9577 6.1445 -1.8555 0.9681
4.3971 6.5724 -1.8585 0.9680
3.1695 7.2710 -1.8641 0.9679
1.8329 7.7401 -1.8694 0.9678
1.1369 7.8829 -1.8718 0.9678
-0.2818 7.9778 -1.8761 0.9677
-0.9930 7.9288 -1.8780 0.9677
-1.6974 7.8155 -1.8796 0.9677
-2.5808 8.2512 -2.0319 0.9651
-4.0174 7.6848 -2.0380 0.9650
-5.9113 6.3513 -2.0392 0.9650
-6.9429 5.1987 -2.0385 0.9650
-7.7488 3.8793 -2.0366 0.9650
-8.0585 3.1709 -2.0353 0.9650
-8.4790 1.6864 -2.0318 0.9651
-8.5868 0.9227 -2.0297 0.9651
-8.6250 0.1533 -2.0274 0.9652
-8.4934 -1.3775 -2.0222 0.9653
-8.3251 -2.1263 -2.0194 0.9653
-7.4318 -4.2343 -2.0102 0.9655
-4.8369 -6.9720 -1.9943 0.9657
-3.5110 -7.6969 -1.9883 0.9658
-2.0824 -8.1752 -1.9827 0.9659
-1.3435 -8.3177 -1.9802 0.9660
0.1436 -7.7980 -1.8330 0.9685
0.8375 -7.7465 -1.8312 0.9685
1.5235 -7.6343 -1.8296 0.9685
3.4831 -6.9461 -1.8262 0.9686
6.1309 -5.6987 -1.9672 0.9662
6.6159 -5.1305 -1.9676 0.9662
7.4281 -3.8771 -1.9693 0.9662
7.7490 -3.2014 -1.9705 0.9661
8.2076 -1.7771 -1.9737 0.9661
8.3488 1.2096 -1.9826 0.9659
8.2188 1.9518 -1.9853 0.9659
8.0235 2.6807 -1.9882 0.9658
7.7457 3.3823 -1.9864 0.9659
6.8862 3.7709 -1.8452 0.9683
6.5238 4.3706 -1.8455 0.9682
6.1179 4.9428 -1.8485 0.9682
5.1593 5.9699 -1.8544 0.9681
4.0297 6.8127 -1.8603 0.9680
3.4114 7.1557 -1.8631 0.9680
2.7638 7.4423 -1.8658 0.9679
2.0922 7.6698 -1.8684 0.9679
-0.0122 7.9796 -1.8754 0.9677
-1.4320 7.8659 -1.8790 0.9677
-2.2459 8.1354 -1.9835 0.9659
-3.0415 8.1142 -2.0366 0.9650
-3.7549 7.8148 -2.0377 0.9650
-4.4384 7.4518 -2.0385 0.9650
-5.6933 6.5474 -2.0392 0.9650
3.0126 -6.7206 -1.9069 0.9700
4.2972 -6.2817 -1.9706 0.9690
5.3438 -5.4179 -1.9703 0.9690
5.8064 -4.9205 -1.9706 0.9690
6.5921 -3.8135 -1.9718 0.9690
7.1727 -2.5849 -1.9741 0.9690
7.5296 -1.2719 -1.9772 0.9689
7.6202 -0.5961 -1.9790 0.9689
7.6509 0.0858 -1.9811 0.9689
7.6214 0.7685 -1.9833 0.9688
7.5316 1.4466 -1.9857 0.9688
7.1735 2.7685 -1.9909 0.9687
6.0855 3.7049 -1.8447 0.9710
5.3462 4.7406 -1.8500 0.9709
4.9094 5.2059 -1.8527 0.9709
3.9180 6.0124 -1.8581 0.9708
2.7955 6.6309 -1.8632 0.9707
0.3027 7.2242 -1.8721 0.9706
-1.6882 7.3435 -1.9510 0.9693
-2.4342 7.4644 -2.0328 0.9681
-3.0917 7.2215 -2.0339 0.9681
-3.7248 6.9200 -2.0348 0.9680
-4.3282 6.5622 -2.0354 0.9680
-4.8968 6.1512 -2.0357 0.9680
-5.4258 5.6902 -2.0357 0.9680
-5.9109 5.1832 -2.0355 0.9680
-6.3480 4.6345 -2.0350 0.9680
-7.5509 2.1184 -2.0305 0.9681
-7.7031 1.4355 -2.0288 0.9681
-7.7931 0.7423 -2.0269 0.9682
-7.8200 0.0444 -2.0248 0.9682
-7.7841 -0.6522 -2.0225 0.9682
-7.5257 -2.0193 -2.0175 0.9683
-7.3059 -2.6787 -2.0148 0.9684
-7.0283 -3.3148 -2.0120 0.9684
-6.6953 -3.9227 -2.0091 0.9684
-5.8751 -5.0348 -2.0033 0.9685
-4.3145 -6.3824 -1.9947 0.9687
-3.7231 -6.7323 -1.9919 0.9687
-3.1038 -7.0279 -1.9892 0.9688
-2.4616 -7.2673 -1.9866 0.9688
-1.1291 -7.5709 -1.9819 0.9689
-0.4491 -7.6332 -1.9798 0.9689
0.2210 -7.2405 -1.8756 0.9705
2.0784 -6.7586 -1.8308 0.9712
3.4772 -6.7300 -1.9614 0.9692
4.0828 -6.4238 -1.9708 0.9690
4.6385 -6.0331 -1.9704 0.9690
5.1577 -5.5953 -1.9703 0.9690
7.3082 -2.1841 -1.9749 0.9690
7.6464 -0.1727 -1.9803 0.9689
7.2592 2.5233 -1.9899 0.9687
7.0130 3.1639 -1.9920 0.9687
6.4275 3.6214 -1.9102 0.9700
5.5002 4.5547 -1.8490 0.9709
5.0797 5.0343 -1.8517 0.9709
3.4136 4.8703 -1.5399 0.9757
3.0164 6.5293 -1.8623 0.9707
2.4255 6.7812 -1.8647 0.9707
1.8135 6.9793 -1.8671 0.9706
-2.1769 7.5292 -2.0293 0.9681
-2.8454 7.3204 -2.0335 0.9681
-4.6860 6.3128 -2.0356 0.9680
-5.2306 5.8703 -2.0357 0.9680
-6.9456 3.6678 -2.0337 0.9681
-7.7664 1.0055 -2.0276 0.9682
-7.8051 -0.3891 -2.0234 0.9682
-7.7301 -1.0821 -2.0210 0.9683
-7.3960 -2.4316 -2.0158 0.9683
-6.8276 -3.6962 -2.0102 0.9684
-6.0451 -4.8361 -2.0044 0.9685
-5.5817 -5.3480 -2.0015 0.9686
-5.0753 -5.8160 -1.9986 0.9686
-3.9504 -6.6061 -1.9929 0.9687
-2.0532 -7.3869 -1.9851 0.9688
-1.3848 -7.5316 -1.9828 0.9689
-0.7070 -7.6167 -1.9806 0.9689
3.1912 -6.7244 -1.9272 0.9697
3.8639 -6.5587 -1.9709 0.9690
4.4322 -6.1867 -1.9705 0.9690
5.4602 -5.3008 -1.9704 0.9690
6.3177 -4.2486 -1.9713 0.9690
7.4217 -1.7763 -1.9759 0.9690
7.5571 -1.1085 -1.9776 0.9689
7.6493 0.2518 -1.9816 0.9689
7.6051 0.9339 -1.9839 0.9688
7.5007 1.6102 -1.9863 0.9688
7.3366 2.2755 -1.9889 0.9688
6.0058 3.8374 -1.8453 0.9710
5.6479 4.3639 -1.8480 0.9709
5.2439 4.8572 -1.8507 0.9709
1.4247 7.0744 -1.8685 0.9706
0.7892 7.1815 -1.8706 0.9706
-3.2480 7.1535 -2.0342 0.9681
-4.4698 6.4671 -2.0355 0.9680
-5.5479 5.5711 -2.0357 0.9680
-6.4466 4.4953 -2.0349 0.9680
-6.8190 3.9011 -2.0341 0.9681
-7.3948 2.6249 -2.0317 0.9681
-7.7308 1.2677 -2.0284 0.9681
-7.8054 0.5729 -2.0264 0.9682
-7.8171 -0.1252 -2.0242 0.9682
-7.7658 -0.8207 -2.0219 0.9682
-7.6523 -1.5080 -2.0194 0.9683
-7.4777 -2.1814 -2.0168 0.9683
-5.7624 -5.1593 -2.0026 0.9685
-4.7407 -6.0830 -1.9968 0.9686
-4.1735 -6.4723 -1.9940 0.9687
-3.5749 -6.8092 -1.9912 0.9687
-0.9643 -7.5916 -1.9814 0.9689
-0.2833 -7.6393 -1.9793 0.9689
0.9983 -7.0090 -1.8331 0.9712
1.6181 -6.8869 -1.8317 0.9712
2.2242 -6.7110 -1.8305 0.9712
2.9146 -6.7185 -1.8962 0.9702
3.6405 -6.6863 -1.9712 0.9690
4.2210 -6.3334 -1.9706 0.9690
5.2779 -5.4821 -1.9703 0.9690
6.8695 -3.2952 -1.9727 0.9690
7.1402 -2.6712 -1.9739 0.9690
7.3553 -2.0254 -1.9753 0.9690
7.5128 -1.3627 -1.9769 0.9689
7.6503 -0.0067 -1.9808 0.9689
7.5472 1.3553 -1.9854 0.9688
7.4057 2.0253 -1.9879 0.9688
5.7889 4.1683 -1.8470 0.9710
3.4177 5.1086 -1.5914 0.9749
3.4469 6.3042 -1.8603 0.9707
2.2785 6.8344 -1.8653 0.9707
0.3899 7.2190 -1.8719 0.9706
-0.2555 7.2322 -1.8737 0.9705
-0.9001 7.1871 -1.8754 0.9705
-1.5640 7.2012 -1.9080 0.9700
-2.3432 7.4915 -2.0323 0.9681
-3.0039 7.2579 -2.0338 0.9681
-4.8220 6.2098 -2.0357 0.9680
-5.3567 5.7554 -2.0357 0.9680
-6.2918 4.7111 -2.0351 0.9680
-6.6844 4.1299 -2.0344 0.9681
-7.7846 0.8365 -2.0272 0.9682
-7.5509 -1.9285 -2.0178 0.9683
-7.3391 -2.5906 -2.0151 0.9684
-6.3649 -4.4217 -2.0066 0.9685
-5.9367 -4.9644 -2.0037 0.9685
-5.4624 -5.4660 -2.0008 0.9686
-4.3922 -6.3310 -1.9950 0.9687
-3.8049 -6.6880 -1.9923 0.9687
-0.5415 -7.6283 -1.9801 0.9689
2.6463 -6.7125 -1.8682 0.9706
3.3737 -6.7280 -1.9487 0.9694
6.0150 -4.6645 -1.9708 0.9690
6.4089 -4.1109 -1.9714 0.9690
7.2806 -2.2721 -1.9747 0.9690
7.4600 -1.6152 -1.9763 0.9690
7.5852 1.0990 -1.9845 0.9688
7.4662 1.7731 -1.9869 0.9688
7.0513 3.0791 -1.9922 0.9687
5.9232 3.9682 -1.8460 0.9710
3.4382 4.7815 -1.5248 0.9760
2.5068 6.7502 -1.8644 0.9707
1.8974 6.9557 -1.8668 0.9706
-2.0839 7.5487 -2.0276 0.9682
-2.7565 7.3538 -2.0334 0.9681
-3.4028 7.0821 -2.0344 0.9681
-4.6092 6.3689 -2.0355 0.9680
-5.1592 5.9331 -2.0357 0.9680
-5.6674 5.4493 -2.0357 0.9680
1.6515 -6.6661 -1.9442 0.9719
2.8529 -6.3643 -1.9744 0.9714
3.4077 -6.0825 -1.9737 0.9714
3.9356 -5.7531 -1.9733 0.9714
4.4323 -5.3787 -1.9730 0.9714
5.6997 -4.0153 -1.9737 0.9714
6.0371 -3.4924 -1.9744 0.9714
6.5681 -2.3671 -1.9765 0.9714
6.9764 -0.5457 -1.9810 0.9713
7.0040 0.0785 -1.9829 0.9713
6.9762 0.7034 -1.9849 0.9713
6.7556 1.9356 -1.9894 0.9712
6.5641 2.5333 -1.9919 0.9712
6.3201 3.1124 -1.9944 0.9711
5.9607 3.6289 -1.9756 0.9714
3.0817 5.8019 -1.8598 0.9731
2.5553 6.0610 -1.8621 0.9730
1.4415 6.4334 -1.8664 0.9730
-0.3133 6.6050 -1.8719 0.9729
-1.6017 6.9675 -2.0239 0.9707
-6.1501 3.6978 -2.0315 0.9706
-6.4524 3.1333 -2.0306 0.9706
-6.7023 2.5441 -2.0295 0.9706
-7.0374 1.3114 -2.0265 0.9707
-7.1202 0.6782 -2.0248 0.9707
-7.1454 0.0406 -2.0229 0.9707
-7.1133 -0.5960 -2.0208 0.9708
-7.0240 -1.2265 -2.0185 0.9708
-6.8786 -1.8457 -2.0162 0.9708
-6.6785 -2.4486 -2.0137 0.9709
-6.4255 -3.0305 -2.0112 0.9709
-6.1218 -3.5867 -2.0086 0.9709
-5.7700 -4.1128 -2.0059 0.9710
-3.9473 -5.8393 -1.9953 0.9711
-3.4066 -6.1601 -1.9928 0.9712
-2.8404 -6.4314 -1.9903 0.9712
-1.0336 -6.9304 -1.9837 0.9713
0.2133 -6.9907 -1.9799 0.9713
0.8197 -6.8100 -1.9418 0.9719
1.4175 -6.6814 -1.9336 0.9720
2.0506 -6.6683 -1.9750 0.9714
3.2007 -6.1949 -1.9740 0.9714
3.7392 -5.8832 -1.9734 0.9714
4.7237 -5.1245 -1.9730 0.9714
5.1622 -4.6833 -1.9732 0.9714
5.5602 -4.2052 -1.9735 0.9714
5.9148 -3.6938 -1.9741 0.9714
6.4829 -2.5870 -1.9760 0.9714
6.8487 -1.3964 -1.9787 0.9714
6.9312 1.0900 -1.9863 0.9713
5.0308 4.1660 -1.8491 0.9732
4.2222 5.0066 -1.8541 0.9731
3.2744 5.6917 -1.8589 0.9731
2.7573 5.9685 -1.8612 0.9730
1.0832 6.5078 -1.8677 0.9729
-0.0900 6.6096 -1.8713 0.9729
-1.3426 6.9004 -1.9901 0.9712
-1.9914 6.8879 -2.0298 0.9706
-2.5990 6.6865 -2.0309 0.9706
-5.2358 4.9139 -2.0328 0.9706
-5.6521 4.4267 -2.0324 0.9706
-7.0956 0.9186 -2.0255 0.9707
-7.1427 0.2821 -2.0236 0.9707
-7.0645 -0.9889 -2.0194 0.9708
-6.9402 -1.6130 -2.0171 0.9708
-6.5274 -2.8131 -2.0121 0.9709
-6.2425 -3.3795 -2.0096 0.9709
-5.5284 -4.4228 -2.0043 0.9710
-5.1053 -4.8915 -2.0016 0.9710
-4.6427 -5.3202 -1.9989 0.9711
-3.6145 -6.0444 -1.9937 0.9711
-3.0574 -6.3347 -1.9913 0.9712
-2.4775 -6.5742 -1.9889 0.9712
-1.8793 -6.7611 -1.9866 0.9712
-1.2676 -6.8942 -1.9844 0.9713
-0.0230 -6.9962 -1.9806 0.9713
0.5957 -6.9097 -1.9633 0.9716
2.4174 -6.5446 -1.9751 0.9714
2.9900 -6.3003 -1.9742 0.9714
3.5387 -6.0067 -1.9736 0.9714
4.0593 -5.6661 -1.9732 0.9714
5.0008 -4.8548 -1.9731 0.9714
5.4145 -4.3902 -1.9734 0.9714
5.7859 -3.8910 -1.9739 0.9714
6.6189 -2.2243 -1.9768 0.9714
6.7956 -1.6265 -1.9781 0.9714
7.0023 0.2305 -1.9834 0.9713
6.5096 2.6760 -1.9925 0.9712
4.3867 4.8587 -1.8531 0.9732
3.5646 4.7368 -1.6782 0.9757
2.9560 5.8692 -1.8603 0.9731
0.7211 6.5620 -1.8689 0.9729
-0.4567 6.5980 -1.8723 0.9729
-1.0546 6.6026 -1.8928 0.9726
-1.7548 6.9403 -2.0266 0.9707
-3.5386 6.2455 -2.0321 0.9706
-4.0823 5.9065 -2.0326 0.9706
-4.5932 5.5196 -2.0328 0.9706
-5.0670 5.0881 -2.0328 0.9706
-5.4998 4.6155 -2.0326 0.9706
-5.8879 4.1058 -2.0321 0.9706
-6.2283 3.5631 -2.0313 0.9706
-6.9369 1.7847 -2.0277 0.9707
-7.0628 1.1582 -2.0261 0.9707
-6.9938 -1.3782 -2.0180 0.9708
-6.6218 -2.5922 -2.0131 0.9709
-6.0406 -3.7175 -2.0079 0.9709
-5.6776 -4.2356 -2.0053 0.9710
-5.2703 -4.7187 -2.0026 0.9710
-4.3369 -5.5649 -1.9973 0.9711
-3.8185 -5.9217 -1.9947 0.9711
-3.2712 -6.2307 -1.9922 0.9712
-2.6994 -6.4896 -1.9898 0.9712
-2.1075 -6.6966 -1.9874 0.9712
-1.5004 -6.8502 -1.9852 0.9713
-0.8828 -6.9495 -1.9832 0.9713
-0.2594 -6.9938 -1.9813 0.9713
0.9635 -6.7647 -1.9344 0.9720
1.5673 -6.6710 -1.9399 0.9719
2.1953 -6.6238 -1.9755 0.9714
3.3341 -6.1235 -1.9738 0.9714
3.8658 -5.8004 -1.9733 0.9714
6.9685 -0.6300 -1.9808 0.9713
7.0035 -0.0062 -1.9826 0.9713
6.7775 1.8535 -1.9891 0.9712
6.3562 3.0352 -1.9940 0.9711
3.7795 4.6844 -1.7039 0.9753
3.1510 5.7632 -1.8595 0.9731
2.6279 6.0287 -1.8618 0.9730
1.5190 6.4145 -1.8661 0.9730
0.9420 6.5314 -1.8681 0.9729
-2.1407 6.8440 -2.0300 0.9706
-2.7438 6.6292 -2.0311 0.9706
-3.3252 6.3607 -2.0319 0.9706
-3.8802 6.0406 -2.0325 0.9706
-4.4040 5.6715 -2.0328 0.9706
-5.3410 4.7990 -2.0327 0.9706
-5.7465 4.3028 -2.0323 0.9706
-6.1053 3.7721 -2.0316 0.9706
-6.8746 2.0186 -2.0283 0.9707
-7.0218 1.3966 -2.0268 0.9707
-7.1210 -0.5100 -2.0211 0.9708
-7.0394 -1.1417 -2.0188 0.9708
-6.7088 -2.3681 -2.0141 0.9709
-6.1658 -3.5130 -2.0089 0.9709
-5.8203 -4.0434 -2.0063 0.9710
-5.4294 -4.5402 -2.0036 0.9710
-4.5247 -5.4179 -1.9983 0.9711
-3.4815 -6.1196 -1.9931 0.9712
-2.3336 -6.6245 -1.9883 0.9712
-1.1175 -6.9184 -1.9839 0.9713
-0.4957 -6.9835 -1.9820 0.9713
0.7396 -6.8415 -1.9481 0.9718
1.9620 -6.6661 -1.9672 0.9715
2.5585 -6.4899 -1.9749 0.9714
3.1257 -6.2334 -1.9741 0.9714
3.6679 -5.9282 -1.9735 0.9714
4.6614 -5.1812 -1.9730 0.9714
5.1051 -4.7453 -1.9731 0.9714
5.5088 -4.2719 -1.9735 0.9714
5.8694 -3.7649 -1.9740 0.9714
6.1842 -3.2279 -1.9748 0.9714
6.4507 -2.6650 -1.9758 0.9714
6.9428 1.0059 -1.9860 0.9713
6.8332 1.6228 -1.9882 0.9712
6.4520 2.8174 -1.9931 0.9712
6.1719 3.3797 -1.9920 0.9712
3.4022 4.7313 -1.6497 0.9761
3.3424 5.6507 -1.8586 0.9731
2.2913 6.1698 -1.8632 0.9730
0.5787 6.5778 -1.8693 0.9729
-0.0101 6.6094 -1.8711 0.9729
-0.5998 6.5878 -1.8727 0.9729
-2.5178 6.7169 -2.0307 0.9706
-4.2097 5.8168 -2.0327 0.9706
-5.5983 4.4949 -2.0325 0.9706
3.1401 -5.6047 -1.9760 0.9735
3.6265 -5.3013 -1.9756 0.9735
4.5099 -4.5724 -1.9754 0.9735
4.9001 -4.1525 -1.9756 0.9735
5.8299 -2.7103 -1.9775 0.9735
6.2257 -1.6337 -1.9797 0.9734
6.3511 -1.0728 -1.9811 0.9734
6.4265 -0.5027 -1.9827 0.9734
6.4514 0.0723 -1.9844 0.9734
6.4254 0.6479 -1.9863 0.9733
6.2211 1.7825 -1.9905 0.9733
6.0442 2.3326 -1.9927 0.9733
4.9979 3.6914 -1.9111 0.9743
4.1318 4.3814 -1.8523 0.9751
3.6878 4.6855 -1.8340 0.9754
3.2959 5.0578 -1.8568 0.9751
2.8352 5.3378 -1.8590 0.9750
2.3507 5.5757 -1.8611 0.9750
1.8462 5.7694 -1.8632 0.9750
0.7938 6.0177 -1.8669 0.9749
0.2543 6.0700 -1.8686 0.9749
-0.8801 6.3986 -1.9866 0.9733
-1.4759 6.4201 -2.0262 0.9728
-3.1275 5.8104 -2.0296 0.9728
-4.1113 5.1645 -2.0304 0.9728
-5.3300 3.8913 -2.0298 0.9728
-6.1621 2.3391 -2.0273 0.9728
-6.3422 1.7793 -2.0260 0.9728
-6.5475 0.6236 -2.0230 0.9729
-6.5713 0.0373 -2.0212 0.9729
-5.6331 -3.3004 -2.0081 0.9730
-4.9453 -4.2380 -2.0032 0.9731
-4.1039 -5.0366 -1.9983 0.9732
-3.6341 -5.3760 -1.9959 0.9732
-2.6155 -5.9223 -1.9913 0.9733
-2.0748 -6.1252 -1.9891 0.9733
-0.9520 -6.3835 -1.9851 0.9734
1.3353 -6.2939 -1.9789 0.9734
1.8901 -6.1463 -1.9778 0.9734
2.4294 -5.9505 -1.9769 0.9735
3.4455 -5.4211 -1.9757 0.9735
4.3528 -4.7221 -1.9753 0.9735
5.4501 -3.4036 -1.9764 0.9735
5.9731 -2.3836 -1.9781 0.9734
6.1655 -1.8426 -1.9792 0.9734
6.4039 -0.7193 -1.9821 0.9734
6.4412 0.4303 -1.9856 0.9733
6.1169 2.1262 -1.9918 0.9733
5.9097 2.6662 -1.9941 0.9732
3.0126 5.2367 -1.8582 0.9750
2.5366 5.4908 -1.8603 0.9750
0.4591 6.0559 -1.8680 0.9749
-1.8309 6.3327 -2.0276 0.9728
-2.3894 6.1472 -2.0286 0.9728
-2.9291 5.9120 -2.0294 0.9728
-3.4455 5.6289 -2.0299 0.9728
-5.1960 4.0695 -2.0300 0.9728
-6.0809 2.5465 -2.0277 0.9728
-6.2800 1.9930 -2.0265 0.9728
-6.5248 0.8447 -2.0236 0.9728
-6.4977 -0.9096 -2.0180 0.9729
-6.3840 -1.4837 -2.0159 0.9729
-5.4373 -3.6050 -2.0066 0.9731
-3.8154 -5.2525 -1.9968 0.9732
-3.3280 -5.5652 -1.9944 0.9732
-2.8153 -5.8330 -1.9921 0.9733
-2.2815 -6.0541 -1.9899 0.9733
-1.1675 -6.3500 -1.9859 0.9733
0.5531 -6.4161 -1.9808 0.9734
1.1222 -6.3369 -1.9794 0.9734
2.2274 -6.0302 -1.9772 0.9735
4.6081 -4.4735 -1.9754 0.9735
5.6317 -3.0968 -1.9768 0.9735
6.2607 -1.4984 -1.9801 0.9734
6.3741 -0.9350 -1.9815 0.9734
6.4373 -0.3632 -1.9831 0.9734
6.4113 0.7873 -1.9868 0.9733
6.3221 1.3572 -1.9888 0.9733
5.7570 2.9920 -1.9956 0.9732
4.8063 3.7136 -1.8682 0.9749
3.5313 4.6926 -1.8064 0.9757
2.7195 5.3996 -1.8595 0.9750
1.1974 5.9460 -1.8656 0.9749
0.1226 6.0753 -1.8690 0.9749
-0.4199 6.0670 -1.8705 0.9749
-1.6156 6.3895 -2.0271 0.9728
-2.1800 6.2234 -2.0282 0.9728
-2.7273 6.0068 -2.0291 0.9728
-4.6580 4.6774 -2.0304 0.9728
-5.0559 4.2430 -2.0301 0.9728
-5.4128 3.7745 -2.0297 0.9728
-5.9925 2.7510 -2.0281 0.9728
-6.2105 2.2045 -2.0270 0.9728
-6.5272 -0.6898 -2.0188 0.9729
-5.8484 -2.9151 -2.0099 0.9730
-5.5585 -3.4208 -2.0075 0.9731
-1.3819 -6.3092 -1.9866 0.9733
-0.2389 -6.4425 -1.9829 0.9734
1.4713 -6.2625 -1.9787 0.9734
2.0227 -6.1031 -1.9776 0.9735
2.5577 -5.8959 -1.9767 0.9735
3.5622 -5.3448 -1.9756 0.9735
4.0241 -5.0053 -1.9754 0.9735
5.2067 -3.7630 -1.9759 0.9735
6.2050 -1.7087 -1.9795 0.9734
6.3370 -1.1494 -1.9809 0.9734
6.4193 -0.5803 -1.9825 0.9734
6.4319 0.5701 -1.9861 0.9733
6.0710 2.2590 -1.9924 0.9733
5.8521 2.7945 -1.9947 0.9732
5.5809 3.3059 -1.9951 0.9732
4.5477 3.9353 -1.8498 0.9751
3.3520 5.0103 -1.8541 0.9751
2.8991 5.3023 -1.8587 0.9750
2.4176 5.5460 -1.8609 0.9750
1.9155 5.7458 -1.8629 0.9750
1.3971 5.8999 -1.8649 0.9749
-0.2147 6.0759 -1.8700 0.9749
-0.7911 6.3169 -1.9581 0.9737
-1.3972 6.4332 -2.0249 0.9728
-1.9681 6.2923 -2.0278 0.9728
-3.0569 5.8475 -2.0295 0.9728
-3.5670 5.5531 -2.0300 0.9728
-4.0485 5.2137 -2.0303 0.9728
-4.9100 4.4116 -2.0303 0.9728
-5.2828 3.9556 -2.0299 0.9728
-5.6127 3.4678 -2.0293 0.9728
-5.8972 2.9524 -2.0285 0.9728
-6.5493 -0.4691 -2.0196 0.9729
-6.4748 -1.0501 -2.0175 0.9729
-6.1719 -2.1786 -2.0131 0.9730
-5.3562 -3.7210 -2.0060 0.9731
-4.1652 -4.9874 -1.9986 0.9732
-3.2055 -5.6345 -1.9939 0.9732
-2.1490 -6.1006 -1.9894 0.9733
-1.5949 -6.2613 -1.9873 0.9733
-0.4566 -6.4328 -1.9836 0.9734
0.1187 -6.4425 -1.9819 0.9734
1.8158 -6.1691 -1.9780 0.9734
2.8801 -5.7437 -1.9763 0.9735
3.3798 -5.4625 -1.9758 0.9735
3.8528 -5.1386 -1.9754 0.9735
4.7042 -4.3726 -1.9754 0.9735
5.0761 -3.9364 -1.9758 0.9735
5.4083 -3.4691 -1.9763 0.9735
5.9435 -2.4554 -1.9779 0.9734
6.4451 0.3523 -1.9853 0.9733
6.3943 0.9265 -1.9873 0.9733
6.2928 1.4944 -1.9894 0.9733
5.9406 2.5941 -1.9938 0.9732
4.6758 3.7777 -1.8489 0.9752
3.0752 5.1990 -1.8579 0.9750
2.6024 5.4588 -1.8601 0.9750
2.1077 5.6755 -1.8621 0.9750
1.5950 5.8470 -1.8641 0.9750
1.0684 5.9720 -1.8660 0.9749
0.5322 6.0492 -1.8678 0.9749
-2.8573 5.9467 -2.0293 0.9728
-3.3771 5.6700 -2.0299 0.9728
-4.3316 4.9814 -2.0304 0.9728
-4.7583 4.5752 -2.0303 0.9728
1.4326 -5.7826 -1.9803 0.9752
1.9415 -5.6291 -1.9793 0.9752
2.4347 -5.4314 -1.9785 0.9752
3.7830 -4.5907 -1.9774 0.9752
4.5387 -3.8462 -1.9776 0.9752
4.8645 -3.4270 -1.9779 0.9752
5.8814 -0.9935 -1.9827 0.9752
5.9510 -0.4655 -1.9842 0.9752
5.8774 1.1289 -1.9894 0.9751
5.7590 1.6501 -1.9914 0.9751
5.3857 2.6523 -1.9956 0.9750
3.8229 4.0538 -1.8522 0.9768
3.0490 4.6788 -1.8563 0.9767
2.6225 4.9374 -1.8584 0.9767
2.1741 5.1570 -1.8603 0.9767
0.7340 5.5645 -1.8657 0.9766
0.2351 5.6125 -1.8672 0.9766
-0.2776 5.8520 -1.9474 0.9756
-3.8003 4.7738 -2.0282 0.9746
-4.2109 4.4160 -2.0283 0.9746
-5.2265 3.1425 -2.0272 0.9746
-5.8634 1.6449 -2.0243 0.9747
-5.9828 1.1149 -2.0229 0.9747
-6.0763 0.0345 -2.0198 0.9747
-6.0498 -0.5069 -2.0180 0.9747
-5.4688 -2.5793 -2.0099 0.9748
-4.2032 -4.3088 -2.0009 0.9749
-3.7980 -4.6612 -1.9986 0.9750
-2.9034 -5.2501 -1.9942 0.9750
-0.8815 -5.9105 -1.9864 0.9751
-0.3507 -5.9606 -1.9848 0.9751
0.7125 -5.9195 -1.9819 0.9752
1.2367 -5.8289 -1.9807 0.9752
1.7505 -5.6925 -1.9797 0.9752
2.2501 -5.5114 -1.9788 0.9752
3.6259 -4.7160 -1.9774 0.9752
4.7455 -3.5890 -1.9778 0.9752
5.0479 -3.1524 -1.9783 0.9752
5.3108 -2.6908 -1.9790 0.9752
5.5321 -2.2076 -1.9799 0.9752
5.7099 -1.7065 -1.9810 0.9752
5.8430 -1.1913 -1.9822 0.9752
5.9639 0.3984 -1.9868 0.9751
5.8093 1.4540 -1.9906 0.9751
5.6623 1.9682 -1.9926 0.9750
5.2339 2.9489 -1.9969 0.9750
3.2040 4.5712 -1.8556 0.9767
2.3462 5.0786 -1.8596 0.9767
1.4097 5.4254 -1.8633 0.9766
0.4245 5.5996 -1.8667 0.9766
-1.6926 5.8542 -2.0257 0.9746
-2.7076 5.4650 -2.0273 0.9746
-3.1849 5.2032 -2.0279 0.9746
-3.6367 4.8993 -2.0282 0.9746
-4.0593 4.5558 -2.0283 0.9746
-4.4491 4.1755 -2.0282 0.9746
-4.8030 3.7617 -2.0279 0.9746
-5.1180 3.3176 -2.0274 0.9746
-5.3915 2.8471 -2.0267 0.9746
-5.6214 2.3541 -2.0258 0.9746
-5.8058 1.8425 -2.0247 0.9747
-5.9432 1.3167 -2.0235 0.9747
-6.0735 0.2399 -2.0204 0.9747
-6.0655 -0.3023 -2.0187 0.9747
-6.0089 -0.8412 -2.0169 0.9747
-5.7525 -1.8912 -2.0128 0.9748
-5.0304 -3.3352 -2.0063 0.9749
-4.3482 -4.1662 -2.0017 0.9749
-3.9550 -4.5321 -1.9995 0.9750
-3.5312 -4.8612 -1.9972 0.9750
-1.6024 -5.7649 -1.9889 0.9751
-0.0196 -5.9680 -1.9838 0.9752
1.0393 -5.8686 -1.9811 0.9752
2.0630 -5.5851 -1.9791 0.9752
3.4646 -4.8360 -1.9775 0.9752
4.6212 -3.7470 -1.9776 0.9752
4.9380 -3.3208 -1.9781 0.9752
5.4533 -2.3927 -1.9795 0.9752
5.9026 -0.8658 -1.9831 0.9752
5.9608 -0.3363 -1.9846 0.9751
5.8529 1.2565 -1.9899 0.9751
5.7233 1.7751 -1.9919 0.9751
5.5480 2.2807 -1.9939 0.9750
4.7455 3.6667 -1.9935 0.9750
4.1159 3.8124 -1.8649 0.9766
2.5154 4.9944 -1.8588 0.9767
1.5916 5.3728 -1.8627 0.9767
0.6132 5.5803 -1.8661 0.9766
0.1133 5.6173 -1.8676 0.9766
-0.4123 5.9571 -1.9849 0.9751
-0.9594 6.0068 -2.0220 0.9747
-2.0152 5.7530 -2.0263 0.9746
-2.5211 5.5526 -2.0271 0.9746
-3.0071 5.3073 -2.0277 0.9746
-3.4690 5.0191 -2.0281 0.9746
-4.3056 4.3236 -2.0283 0.9746
-4.6735 3.9221 -2.0280 0.9746
-5.0035 3.4890 -2.0276 0.9746
-5.2930 3.0281 -2.0270 0.9746
-5.5396 2.5431 -2.0262 0.9746
-5.8968 1.5171 -2.0240 0.9747
-6.0743 -0.0973 -2.0194 0.9747
-6.0360 -0.6379 -2.0176 0.9747
-5.9495 -1.1724 -2.0157 0.9748
-5.8154 -1.6965 -2.0136 0.9748
-5.1424 -3.1647 -2.0071 0.9749
-4.8343 -3.6065 -2.0049 0.9749
-4.4884 -4.0186 -2.0026 0.9749
-4.1076 -4.3978 -2.0003 0.9750
-3.6950 -4.7412 -1.9981 0.9750
-2.7880 -5.3104 -1.9937 0.9750
-2.3011 -5.5321 -1.9916 0.9751
-1.2795 -5.8415 -1.9878 0.9751
-0.7529 -5.9270 -1.9860 0.9751
-0.2213 -5.9657 -1.9844 0.9752
0.3113 -5.9572 -1.9829 0.9752
1.8734 -5.6525 -1.9794 0.9752
2.3690 -5.4608 -1.9786 0.9752
3.2994 -4.9506 -1.9776 0.9752
4.4918 -3.9008 -1.9775 0.9752
4.8225 -3.4854 -1.9779 0.9752
5.3685 -2.5752 -1.9792 0.9752
5.5793 -2.0873 -1.9801 0.9752
5.7464 -1.5824 -1.9812 0.9752
5.9443 -0.5374 -1.9840 0.9752
5.9733 -0.0053 -1.9856 0.9751
5.9551 0.5278 -1.9873 0.9751
5.7778 1.5801 -1.9911 0.9751
5.6197 2.0911 -1.9931 0.9750
5.4166 2.5866 -1.9953 0.9750
4.3488 3.7632 -1.9117 0.9760
2.6816 4.9046 -1.8581 0.9767
1.7716 5.3139 -1.8620 0.9767
1.2920 5.4560 -1.8638 0.9766
0.3029 5.6086 -1.8670 0.9766
-0.2048 5.7964 -1.9279 0.9758
-0.7548 6.0265 -2.0189 0.9747
-1.8194 5.8168 -2.0259 0.9746
-3.2972 5.1331 -2.0280 0.9746
-4.5386 4.0779 -2.0282 0.9746
-4.8832 3.6564 -2.0278 0.9746
-5.9694 1.1873 -2.0231 0.9747
-6.0562 -0.4338 -2.0183 0.9747
-5.9879 -0.9711 -2.0164 0.9748
-5.7086 -2.0151 -2.0123 0.9748
-4.6236 -3.8663 -2.0034 0.9749
-4.2556 -4.2583 -2.0012 0.9749
-3.8546 -4.6156 -1.9989 0.9750
-1.9895 -5.6477 -1.9904 0.9751
-0.9530 -5.9001 -1.9867 0.9751
-0.4228 -5.9566 -1.9850 0.9751
0.1099 -5.9659 -1.9834 0.9752
0.6409 -5.9282 -1.9821 0.9752
1.1662 -5.8439 -1.9808 0.9752
1.6817 -5.7136 -1.9798 0.9752
2.1834 -5.5385 -1.9789 0.9752
2.6676 -5.3199 -1.9782 0.9752
3.9786 -4.4223 -1.9773 0.9752
4.3572 -4.0501 -1.9774 0.9752
4.7017 -3.6460 -1.9777 0.9752
5.5046 -2.2741 -1.9798 0.9752
5.6884 -1.7752 -1.9808 0.9752
5.9210 -0.7377 -1.9834 0.9752
5.9678 -0.2070 -1.9849 0.9751
5.9201 0.8577 -1.9884 0.9751
5.4987 2.4011 -1.9945 0.9750
5.2684 2.8850 -1.9966 0.9750
4.6047 3.7202 -1.9678 0.9754
4.0025 3.8720 -1.8511 0.9768
3.2585 4.5315 -1.8553 0.9767
2.8446 4.8093 -1.8573 0.9767
1.9493 5.2491 -1.8613 0.9767
-0.0086 5.6478 -1.8774 0.9765
-1.0906 5.9908 -2.0241 0.9747
-1.6216 5.8738 -2.0255 0.9746
-2.1398 5.7085 -2.0265 0.9746
-4.0039 4.6045 -2.0283 0.9746
-4.3983 4.2291 -2.0282 0.9746
-4.7573 3.8196 -2.0280 0.9746
1.3327 -5.3793 -1.9818 0.9767
1.8061 -5.2367 -1.9809 0.9767
2.7058 -4.8295 -1.9797 0.9768
3.5195 -4.2710 -1.9791 0.9768
3.8863 -3.9402 -1.9791 0.9768
4.5256 -3.1882 -1.9797 0.9768
5.2137 -1.8789 -1.9818 0.9767
5.3633 -1.4074 -1.9829 0.9767
5.5351 -0.4330 -1.9855 0.9767
5.5559 0.0623 -1.9869 0.9767
5.5327 0.5579 -1.9886 0.9767
5.3553 1.5344 -1.9921 0.9766
5.2021 2.0077 -1.9941 0.9766
5.0074 2.4660 -1.9961 0.9766
4.4974 3.3217 -1.9994 0.9765
1.1391 5.0837 -1.8630 0.9781
0.6820 5.1699 -1.8648 0.9781
0.2284 5.4524 -1.9515 0.9771
-0.7705 5.6023 -2.0223 0.9763
-2.2288 5.2060 -2.0252 0.9762
-2.6849 4.9881 -2.0258 0.9762
-3.5293 4.4333 -2.0264 0.9762
-3.9106 4.1011 -2.0264 0.9762
-4.2603 3.7358 -2.0263 0.9762
-4.8540 2.9185 -2.0254 0.9762
-5.2909 2.0084 -2.0238 0.9762
-5.5571 1.0356 -2.0215 0.9763
-5.6235 0.5356 -2.0201 0.9763
-5.6446 0.0321 -2.0186 0.9763
-5.6204 -0.4709 -2.0169 0.9763
-5.5512 -0.9693 -2.0152 0.9763
-5.0820 -2.3969 -2.0094 0.9764
-4.8431 -2.8375 -2.0073 0.9764
-3.9072 -4.0054 -2.0010 0.9765
-3.5308 -4.3333 -1.9989 0.9765
-2.6996 -4.8815 -1.9948 0.9766
-2.2513 -5.0978 -1.9929 0.9766
-1.7862 -5.2732 -1.9910 0.9766
-1.3078 -5.4067 -1.9892 0.9766
-0.8198 -5.4971 -1.9875 0.9767
-0.3262 -5.5440 -1.9860 0.9767
0.6628 -5.5063 -1.9833 0.9767
2.9691 -4.6715 -1.9794 0.9768
3.3733 -4.3876 -1.9792 0.9768
3.7509 -4.0692 -1.9791 0.9768
4.0990 -3.7188 -1.9792 0.9768
4.4149 -3.3390 -1.9795 0.9768
5.1463 -2.0536 -1.9815 0.9767
5.5159 -0.6196 -1.9849 0.9767
5.5532 -0.1254 -1.9864 0.9767
5.5467 0.3705 -1.9879 0.9767
5.4962 0.8643 -1.9896 0.9766
5.2651 1.8301 -1.9933 0.9766
5.0859 2.2945 -1.9953 0.9766
4.6070 3.1678 -1.9994 0.9765
3.8747 3.8402 -1.9509 0.9771
3.3550 3.9783 -1.8610 0.9781
2.5896 4.5014 -1.8571 0.9782
0.4045 5.3363 -1.9138 0.9775
-0.5803 5.6195 -2.0203 0.9763
-1.0804 5.5529 -2.0230 0.9763
-1.5720 5.4372 -2.0240 0.9762
-2.0514 5.2776 -2.0249 0.9762
-2.5146 5.0754 -2.0256 0.9762
-4.1318 3.8778 -2.0264 0.9762
-4.7531 3.0811 -2.0256 0.9762
-5.2210 2.1864 -2.0241 0.9762
-5.3924 1.7113 -2.0231 0.9763
-5.5203 1.2230 -2.0220 0.9763
-5.6419 0.2228 -2.0192 0.9763
-5.5826 -0.7815 -2.0158 0.9763
-5.4857 -1.2750 -2.0140 0.9764
-4.6753 -3.0998 -2.0060 0.9765
-4.3757 -3.5006 -2.0039 0.9765
-4.0419 -3.8727 -2.0018 0.9765
-3.2829 -4.5195 -1.9976 0.9765
-2.8640 -4.7893 -1.9956 0.9766
-2.4232 -5.0206 -1.9936 0.9766
-1.9640 -5.2117 -1.9917 0.9766
-1.4902 -5.3612 -1.9899 0.9766
-0.5134 -5.5314 -1.9866 0.9767
-0.0182 -5.5511 -1.9851 0.9767
2.3739 -5.0022 -1.9801 0.9768
3.2233 -4.4992 -1.9792 0.9768
3.6113 -4.1936 -1.9791 0.9768
3.9709 -3.8550 -1.9791 0.9768
4.2993 -3.4860 -1.9794 0.9768
5.2538 -1.7656 -1.9821 0.9767
5.3933 -1.2908 -1.9832 0.9767
5.5543 0.1829 -1.9873 0.9767
5.4428 1.1684 -1.9907 0.9766
5.1586 2.1206 -1.9945 0.9766
4.4222 3.4169 -1.9985 0.9765
3.5451 3.9266 -1.8918 0.9778
2.7391 4.4096 -1.8564 0.9782
1.4788 4.9918 -1.8618 0.9781
1.0287 5.1082 -1.8634 0.9781
0.5747 5.2302 -1.8816 0.9779
0.1116 5.5337 -1.9793 0.9768
-1.3872 5.4862 -2.0236 0.9762
-1.8717 5.3431 -2.0246 0.9762
-2.3414 5.1569 -2.0253 0.9762
-2.7927 4.9289 -2.0259 0.9762
-3.9986 4.0152 -2.0264 0.9762
-4.6468 3.2403 -2.0258 0.9762
-4.9157 2.8123 -2.0252 0.9762
-5.4771 1.4091 -2.0224 0.9763
-5.5774 0.9146 -2.0212 0.9763
-5.6328 0.4134 -2.0197 0.9763
-5.6429 -0.0904 -2.0182 0.9763
-5.6077 -0.5926 -2.0165 0.9763
-5.4034 -1.5763 -2.0128 0.9764
-5.0276 -2.5060 -2.0089 0.9764
-4.4932 -3.3521 -2.0047 0.9765
-1.6710 -5.3096 -1.9905 0.9766
-1.1899 -5.4326 -1.9888 0.9767
-0.2058 -5.5488 -1.9856 0.9767
0.2895 -5.5412 -1.9843 0.9767
2.2039 -5.0802 -1.9803 0.9768
2.6473 -4.8620 -1.9797 0.9768
3.4677 -4.3133 -1.9791 0.9768
4.1789 -3.6291 -1.9793 0.9768
5.1902 -1.9417 -1.9817 0.9767
5.5290 -0.4998 -1.9853 0.9767
5.5384 0.4909 -1.9883 0.9767
5.4773 0.9836 -1.9901 0.9766
5.0362 2.4049 -1.9958 0.9766
4.8066 2.8473 -1.9978 0.9765
4.2213 3.6529 -1.9963 0.9766
3.2551 4.0343 -1.8537 0.9782
2.4919 4.5576 -1.8575 0.9782
1.6460 4.9373 -1.8611 0.9781
1.2003 5.0689 -1.8628 0.9781
0.7442 5.1601 -1.8644 0.9781
-1.2008 5.5289 -2.0233 0.9763
-1.6898 5.4024 -2.0242 0.9762
-2.6243 5.0200 -2.0257 0.9762
-3.4754 4.4756 -2.0264 0.9762
-3.8607 4.1481 -2.0265 0.9762
-4.2149 3.7871 -2.0263 0.9762
-4.5350 3.3957 -2.0260 0.9762
-4.8185 2.9771 -2.0255 0.9762
-5.4275 1.5937 -2.0229 0.9763
-5.6172 0.6036 -2.0203 0.9763
-5.6444 0.1003 -2.0188 0.9763
-5.4555 -1.3934 -2.0136 0.9764
-5.3045 -1.8724 -2.0116 0.9764
-5.1113 -2.3356 -2.0096 0.9764
-4.6057 -3.1996 -2.0055 0.9765
-3.9559 -3.9584 -2.0013 0.9765
-3.5834 -4.2909 -1.9992 0.9765
-3.1833 -4.5885 -1.9971 0.9766
-2.3131 -5.0708 -1.9931 0.9766
-1.8501 -5.2519 -1.9912 0.9766
0.5962 -5.5144 -1.9835 0.9767
1.0848 -5.4362 -1.9823 0.9767
3.3201 -4.4281 -1.9792 0.9768
4.0537 -3.7680 -1.9792 0.9768
5.1208 -2.1156 -1.9813 0.9767
5.2916 -1.6514 -1.9823 0.9767
5.4208 -1.1737 -1.9835 0.9767
5.5075 -0.6861 -1.9847 0.9767
5.5501 0.3034 -1.9877 0.9767
5.4174 1.2865 -1.9912 0.9766
5.2861 1.7661 -1.9931 0.9766
5.1126 2.2325 -1.9950 0.9766
4.8981 2.6822 -1.9970 0.9766
4.3451 3.5105 -1.9976 0.9765
3.0283 4.2113 -1.8549 0.9782
2.6434 4.4691 -1.8568 0.9782
1.8112 4.8771 -1.8605 0.9781
0.4661 5.2980 -1.9019 0.9777
-0.5120 5.6234 -2.0193 0.9763
-1.0131 5.5651 -2.0228 0.9763
-1.5061 5.4555 -2.0239 0.9762
-1.9873 5.3018 -2.0248 0.9762
-2.4529 5.1052 -2.0255 0.9762
-2.8991 4.8674 -2.0260 0.9762
-3.7184 4.2761 -2.0265 0.9762
-4.0847 3.9275 -2.0264 0.9762
1.6867 -4.8902 -1.9824 0.9781
2.1152 -4.7188 -1.9817 0.9781
3.2869 -3.9887 -1.9807 0.9781
3.9434 -3.3418 -1.9808 0.9781
4.4761 -2.5894 -1.9817 0.9781
4.8686 -1.7546 -1.9832 0.9781
5.1083 -0.8629 -1.9853 0.9781
5.1654 0.5208 -1.9895 0.9780
5.1025 0.9801 -1.9911 0.9780
4.9991 1.4323 -1.9928 0.9780
4.8558 1.8740 -1.9946 0.9780
4.6738 2.3017 -1.9965 0.9779
4.4542 2.7118 -1.9984 0.9779
3.9063 3.4638 -2.0007 0.9779
3.5777 3.7938 -1.9984 0.9779
3.1599 4.0147 -1.9579 0.9784
2.7139 4.1647 -1.9050 0.9789
2.2963 4.3233 -1.8760 0.9792
1.0973 4.8974 -1.9233 0.9787
0.6778 5.1383 -1.9861 0.9780
-2.0783 4.8544 -2.0236 0.9776
-2.9088 4.4102 -2.0246 0.9776
-3.2908 4.1337 -2.0248 0.9776
-3.6463 3.8239 -2.0248 0.9776
-3.9724 3.4834 -2.0247 0.9776
-4.2665 3.1148 -2.0244 0.9776
-4.7491 2.3062 -2.0232 0.9776
-5.2446 0.4995 -2.0189 0.9777
-5.2645 0.0299 -2.0175 0.9777
-5.0724 -1.3610 -2.0126 0.9778
-4.5187 -2.6475 -2.0070 0.9778
-3.9689 -3.4013 -2.0031 0.9779
-3.2952 -4.0442 -1.9991 0.9779
-2.9187 -4.3177 -1.9972 0.9779
-2.5198 -4.5564 -1.9953 0.9779
-1.2209 -5.0476 -1.9901 0.9780
-0.3046 -5.1763 -1.9871 0.9780
0.6189 -5.1416 -1.9846 0.9781
1.0742 -5.0633 -1.9835 0.9781
3.5030 -3.8002 -1.9806 0.9781
3.8281 -3.4729 -1.9807 0.9781
4.1230 -3.1182 -1.9810 0.9781
4.8057 -1.9177 -1.9829 0.9781
4.9599 -1.4823 -1.9838 0.9781
5.0751 -1.0347 -1.9849 0.9781
5.1848 -0.1171 -1.9874 0.9780
5.1311 0.8069 -1.9905 0.9780
4.7472 2.1417 -1.9958 0.9779
4.5416 2.5588 -1.9977 0.9779
4.0228 3.3313 -2.0016 0.9779
3.7052 3.6722 -1.9991 0.9779
2.8782 4.1065 -1.9218 0.9787
2.0469 4.4308 -1.8704 0.9793
1.2507 4.8133 -1.9058 0.9789
0.8386 5.0382 -1.9573 0.9784
-0.0717 5.2629 -2.0170 0.9777
-0.5415 5.2446 -2.0205 0.9777
-1.0075 5.1782 -2.0216 0.9777
-1.4659 5.0702 -2.0226 0.9776
-1.9129 4.9212 -2.0234 0.9776
-2.3448 4.7326 -2.0240 0.9776
-3.5150 3.9450 -2.0248 0.9776
-3.8526 3.6157 -2.0248 0.9776
-4.4320 2.8730 -2.0241 0.9776
-4.6691 2.4657 -2.0235 0.9776
-4.8685 2.0388 -2.0227 0.9776
-5.1480 1.1405 -2.0207 0.9777
-5.2620 0.2078 -2.0180 0.9777
-5.1171 -1.1893 -2.0133 0.9777
-3.7718 -3.6139 -2.0018 0.9779
-1.3912 -5.0050 -1.9907 0.9780
-0.9386 -5.1050 -1.9891 0.9780
-0.4794 -5.1645 -1.9876 0.9780
-0.0170 -5.1831 -1.9863 0.9780
0.4449 -5.1607 -1.9850 0.9781
0.9027 -5.0977 -1.9839 0.9781
1.3530 -4.9945 -1.9830 0.9781
1.7922 -4.8520 -1.9822 0.9781
2.2170 -4.6714 -1.9815 0.9781
4.5316 -2.4918 -1.9818 0.9781
4.7374 -2.0786 -1.9825 0.9781
5.1766 -0.2921 -1.9869 0.9780
5.1857 0.1707 -1.9883 0.9780
5.1538 0.6329 -1.9899 0.9780
5.0811 1.0908 -1.9915 0.9780
4.8151 1.9794 -1.9951 0.9779
4.6238 2.4031 -1.9969 0.9779
4.1315 3.1923 -2.0008 0.9779
3.4938 3.8697 -1.9979 0.9779
2.1987 4.3655 -1.8732 0.9793
1.4017 4.7316 -1.8911 0.9791
0.1061 5.2565 -2.0148 0.9777
-0.3640 5.2587 -2.0200 0.9777
-0.8319 5.2083 -2.0212 0.9777
-2.6040 4.5959 -2.0243 0.9776
-3.0039 4.3462 -2.0246 0.9776
-3.7284 3.7439 -2.0248 0.9776
-4.3328 3.0214 -2.0243 0.9776
-4.7976 2.2024 -2.0230 0.9776
-4.9727 1.7651 -2.0221 0.9777
-5.2533 0.3856 -2.0186 0.9777
-5.2630 -0.0843 -2.0171 0.9777
-5.2305 -0.5528 -2.0156 0.9777
-5.1561 -1.0161 -2.0139 0.9777
-5.0406 -1.4704 -2.0122 0.9778
-4.6906 -2.3380 -2.0084 0.9778
-4.4592 -2.7442 -2.0065 0.9778
-3.8932 -3.4857 -2.0026 0.9779
-3.2060 -4.1137 -1.9987 0.9779
-2.4198 -4.6090 -1.9949 0.9779
-1.9974 -4.8020 -1.9931 0.9780
-0.6538 -5.1468 -1.9882 0.9780
-0.1921 -5.1809 -1.9868 0.9780
2.8667 -4.3013 -1.9809 0.9781
3.5846 -3.7233 -1.9806 0.9781
4.1899 -3.0282 -1.9811 0.9781
4.6638 -2.2372 -1.9823 0.9781
4.9915 -1.3745 -1.9840 0.9781
5.1871 -0.0046 -1.9878 0.9780
5.1707 0.4583 -1.9893 0.9780
4.4861 2.6574 -1.9981 0.9779
3.9487 3.4170 -2.0011 0.9779
2.7716 4.1428 -1.9101 0.9789
2.3517 4.3012 -1.8786 0.9792
1.9496 4.4725 -1.8697 0.9793
1.5531 4.6587 -1.8819 0.9792
1.1526 4.8671 -1.9168 0.9788
-0.1860 5.2640 -2.0185 0.9777
-1.1198 5.1558 -2.0219 0.9777
-1.5757 5.0377 -2.0228 0.9776
-2.0194 4.8790 -2.0235 0.9776
-2.8552 4.4450 -2.0245 0.9776
-3.9301 3.5312 -2.0247 0.9776
-4.2286 3.1663 -2.0244 0.9776
-4.4930 2.7760 -2.0239 0.9776
-4.9111 1.9325 -2.0225 0.9776
-5.0614 1.4862 -2.0215 0.9777
-5.1708 1.0284 -2.0204 0.9777
-5.2477 -0.3759 -2.0162 0.9777
-5.1891 -0.8416 -2.0145 0.9777
-4.9485 -1.7467 -2.0110 0.9778
-4.7686 -2.1790 -2.0092 0.9778
-4.5510 -2.5930 -2.0072 0.9778
-4.2975 -2.9855 -2.0053 0.9778
-4.0103 -3.3535 -2.0033 0.9779
-2.9711 -4.2826 -1.9975 0.9779
-1.7271 -4.9027 -1.9920 0.9780
-0.3672 -5.1728 -1.9873 0.9780
0.5567 -5.1491 -1.9847 0.9781
1.8969 -4.8116 -1.9820 0.9781
3.1006 -4.1354 -1.9807 0.9781
3.7857 -3.5189 -1.9807 0.9781
4.0849 -3.1678 -1.9810 0.9781
4.3520 -2.7916 -1.9814 0.9781
4.7819 -1.9756 -1.9827 0.9781
5.0618 -1.0959 -1.9847 0.9781
5.1424 -0.6407 -1.9859 0.9780
5.1399 0.7447 -1.9903 0.9780
5.0573 1.2010 -1.9919 0.9780
1.7032 4.5861 -1.8748 0.9793
1.3049 4.7835 -1.9001 0.9790
0.8958 5.0072 -1.9493 0.9784
-0.0080 5.2613 -2.0162 0.9777
-0.9448 5.1897 -2.0215 0.9777
-1.4044 5.0872 -2.0224 0.9776
-1.8532 4.9438 -2.0233 0.9776
-2.2873 4.7604 -2.0239 0.9776
-2.7032 4.5386 -2.0244 0.9776
-3.4671 3.9872 -2.0248 0.9776
-4.1195 3.3075 -2.0245 0.9776
1.5803 -4.5818 -1.9836 0.9793
1.9819 -4.4213 -1.9830 0.9793
2.7345 -3.9974 -1.9822 0.9793
3.4007 -3.4479 -1.9820 0.9793
3.6949 -3.1312 -1.9822 0.9793
3.9600 -2.7897 -1.9825 0.9793
4.1939 -2.4261 -1.9830 0.9793
4.3950 -2.0432 -1.9836 0.9793
4.6920 -1.2312 -1.9853 0.9793
4.8593 0.0545 -1.9889 0.9792
4.8385 0.4879 -1.9903 0.9792
4.7794 0.9180 -1.9918 0.9792
4.5478 1.7552 -1.9951 0.9792
4.3770 2.1555 -1.9969 0.9791
4.1712 2.5395 -1.9987 0.9791
3.6605 3.2459 -2.0023 0.9791
1.4923 4.6634 -2.0040 0.9791
0.2063 4.9242 -2.0171 0.9789
-0.6724 4.8889 -2.0197 0.9789
-1.1062 4.8118 -2.0207 0.9789
-2.3425 4.3520 -2.0228 0.9789
-3.7169 3.2593 -2.0233 0.9789
-4.2351 2.5464 -2.0225 0.9789
-4.4438 2.1580 -2.0219 0.9789
-4.6168 1.7525 -2.0211 0.9789
-4.7524 1.3333 -2.0201 0.9789
-1.9037 0.0108 -0.7792 0.9918
-1.9571 -0.1640 -0.8038 0.9915
-2.1470 -0.3749 -0.8920 0.9906
-4.7479 -1.2740 -2.0119 0.9790
-4.4385 -2.0934 -2.0085 0.9790
-4.2304 -2.4786 -2.0067 0.9790
-3.7161 -3.1847 -2.0030 0.9791
-3.4143 -3.5001 -2.0012 0.9791
-3.0858 -3.7871 -1.9993 0.9791
-2.3599 -4.2673 -1.9958 0.9791
-1.5619 -4.6109 -1.9924 0.9792
-0.2853 -4.8492 -1.9881 0.9792
0.1481 -4.8523 -1.9868 0.9792
0.5798 -4.8170 -1.9857 0.9792
1.8316 -4.4862 -1.9832 0.9793
2.2237 -4.3039 -1.9827 0.9793
2.9518 -3.8393 -1.9821 0.9793
3.2823 -3.5607 -1.9820 0.9793
4.1092 -2.5662 -1.9828 0.9793
4.6469 -1.3888 -1.9850 0.9793
4.7546 -0.9694 -1.9860 0.9792
4.8249 -0.5419 -1.9871 0.9792
4.8571 -0.1097 -1.9884 0.9792
4.8509 0.3240 -1.9898 0.9792
4.6030 1.6000 -1.9945 0.9792
3.4769 3.4458 -2.0035 0.9791
2.8065 4.0042 -2.0013 0.9791
2.4385 4.2387 -2.0014 0.9791
1.6421 4.5911 -1.9956 0.9791
0.8067 4.8463 -2.0107 0.9790
-0.0671 4.9306 -2.0182 0.9789
-0.5068 4.9078 -2.0193 0.9789
-1.3717 4.7444 -2.0213 0.9789
-1.7899 4.6049 -2.0220 0.9789
-2.5806 4.2159 -2.0230 0.9789
-2.9466 3.9695 -2.0233 0.9789
-3.2889 3.6912 -2.0234 0.9789
-3.6048 3.3831 -2.0233 0.9789
-4.3690 2.3071 -2.0221 0.9789
-4.7055 1.4933 -2.0205 0.9789
-1.9513 0.2526 -0.8053 0.9915
-1.9337 0.0764 -0.7920 0.9917
-1.9408 -0.0967 -0.7953 0.9916
-4.0842 -2.7078 -2.0056 0.9790
-3.8229 -3.0584 -2.0037 0.9791
-2.5035 -4.1865 -1.9964 0.9791
-1.7173 -4.5569 -1.9930 0.9792
-0.4491 -4.8380 -1.9886 0.9792
-0.0159 -4.8556 -1.9873 0.9792
0.8458 -4.7760 -1.9851 0.9793
2.4586 -4.1734 -1.9824 0.9793
3.1601 -3.6696 -1.9820 0.9793
3.4747 -3.3733 -1.9821 0.9793
4.0198 -2.7033 -1.9826 0.9793
4.2459 -2.3347 -1.9831 0.9793
4.4386 -1.9475 -1.9838 0.9793
4.5965 -1.5447 -1.9846 0.9793
4.7182 -1.1293 -1.9856 0.9793
4.8027 -0.7045 -1.9867 0.9792
4.8494 -0.2736 -1.9879 0.9792
4.8577 0.1599 -1.9892 0.9792
4.8276 0.5928 -1.9907 0.9792
4.5096 1.8538 -1.9955 0.9791
4.1160 2.6299 -1.9991 0.9791
2.9405 3.9075 -2.0015 0.9791
2.1887 4.3458 -1.9915 0.9792
0.0994 4.9289 -2.0177 0.9789
-0.3406 4.9211 -2.0189 0.9789
-0.7784 4.8738 -2.0200 0.9789
-3.1623 3.8002 -2.0234 0.9789
-3.4885 3.5031 -2.0234 0.9789
-3.7866 3.1778 -2.0232 0.9789
-4.2890 2.4537 -2.0223 0.9789
-4.4892 2.0609 -2.0217 0.9789
-2.0698 0.3394 -0.8584 0.9910
-1.9572 -0.2068 -0.8055 0.9915
-4.8261 -0.9510 -2.0132 0.9790
-4.3911 -2.1887 -2.0081 0.9790
-4.1747 -2.5692 -2.0062 0.9790
-3.9255 -2.9285 -2.0044 0.9791
-3.6454 -3.2638 -2.0026 0.9791
-3.3368 -3.5725 -2.0007 0.9791
-3.0022 -3.8523 -1.9989 0.9791
-2.6444 -4.1009 -1.9971 0.9791
-1.8708 -4.4977 -1.9937 0.9792
-1.4612 -4.6428 -1.9920 0.9792
-0.1800 -4.8534 -1.9878 0.9792
0.6841 -4.8027 -1.9855 0.9793
1.1090 -4.7203 -1.9845 0.9793
1.5248 -4.6008 -1.9837 0.9793
1.9283 -4.4451 -1.9831 0.9793
2.3164 -4.2544 -1.9826 0.9793
2.6860 -4.0302 -1.9822 0.9793
3.0344 -3.7743 -1.9820 0.9793
3.6567 -3.1756 -1.9822 0.9793
3.9258 -2.8373 -1.9825 0.9793
4.1641 -2.4766 -1.9829 0.9793
4.3697 -2.0961 -1.9835 0.9793
4.7752 -0.8661 -1.9862 0.9792
4.8362 -0.4372 -1.9874 0.9792
4.7896 0.8601 -1.9916 0.9792
4.6976 1.2847 -1.9932 0.9792
4.4023 2.1022 -1.9966 0.9791
3.9660 2.8558 -2.0002 0.9791
3.6990 3.2010 -2.0021 0.9791
2.3410 4.2815 -1.9971 0.9791
1.9408 4.4523 -1.9878 0.9792
1.5461 4.6375 -2.0007 0.9791
0.7017 4.8650 -2.0117 0.9790
-0.1741 4.9287 -2.0185 0.9789
-0.6132 4.8963 -2.0196 0.9789
-1.8895 4.5653 -2.0222 0.9789
-2.6716 4.1591 -2.0231 0.9789
-3.0321 3.9047 -2.0233 0.9789
-3.6773 3.3040 -2.0233 0.9789
-3.9567 2.9626 -2.0230 0.9789
-4.4176 2.2116 -2.0219 0.9789
-4.7363 1.3907 -2.0203 0.9789
-1.9569 0.2103 -0.8055 0.9915
-1.9156 0.0340 -0.7841 0.9918
-4.7635 -1.2166 -2.0122 0.9790
-4.6322 -1.6351 -2.0105 0.9790
-4.4641 -2.0398 -2.0087 0.9790
-4.2606 -2.4275 -2.0069 0.9790
-4.0235 -2.7952 -2.0051 0.9790
-3.7548 -3.1399 -2.0033 0.9791
-2.4116 -4.2390 -1.9960 0.9791
-2.0223 -4.4333 -1.9943 0.9792
-1.6177 -4.5921 -1.9927 0.9792
-1.2008 -4.7144 -1.9911 0.9792
-0.7752 -4.7991 -1.9896 0.9792
-0.3439 -4.8458 -1.9882 0.9792
1.7773 -4.5082 -1.9833 0.9793
2.9052 -3.8748 -1.9821 0.9793
3.8275 -2.9681 -1.9823 0.9793
4.0777 -2.6156 -1.9827 0.9793
4.4803 -1.8509 -1.9840 0.9793
4.6294 -1.4447 -1.9848 0.9793
4.7422 -1.0268 -1.9858 0.9792
4.8176 -0.6002 -1.9870 0.9792
4.8550 -0.1684 -1.9882 0.9792
4.4693 1.9516 -1.9960 0.9791
4.2813 2.3444 -1.9977 0.9791
4.0589 2.7192 -1.9995 0.9791
2.4895 4.2088 -2.0013 0.9791
2.0917 4.3876 -1.9893 0.9792
1.2903 4.7301 -2.0066 0.9790
0.4314 4.9034 -2.0146 0.9789
-0.4474 4.9133 -2.0192 0.9789
-0.8841 4.8563 -2.0202 0.9789
-1.3142 4.7603 -2.0212 0.9789
-1.7340 4.6260 -2.0219 0.9789
-2.5294 4.2467 -2.0230 0.9789
-2.8983 4.0048 -2.0233 0.9789
-3.8546 3.0948 -2.0231 0.9789
1.0955 -4.4221 -1.9855 0.9803
2.5696 -3.7562 -1.9834 0.9803
3.4720 -2.9423 -1.9834 0.9803
3.7211 -2.6214 -1.9837 0.9803
3.9409 -2.2797 -1.9842 0.9803
4.4085 -1.1568 -1.9864 0.9803
4.4964 -0.7595 -1.9874 0.9803
4.5652 0.0512 -1.9897 0.9803
4.5455 0.4583 -1.9911 0.9803
4.2718 1.6486 -1.9956 0.9802
3.9176 2.3851 -1.9989 0.9802
3.6925 2.7272 -2.0006 0.9802
2.8465 3.6165 -2.0058 0.9801
2.1592 4.0651 -2.0061 0.9801
1.0096 4.5058 -2.0124 0.9801
0.6047 4.5842 -2.0152 0.9800
0.1937 4.6228 -2.0165 0.9800
-0.2194 4.6244 -2.0176 0.9800
-1.0382 4.5163 -2.0196 0.9800
-1.8251 4.2631 -2.0210 0.9800
-2.1985 4.0844 -2.0215 0.9800
-2.5544 3.8728 -2.0219 0.9800
-2.8897 3.6300 -2.0221 0.9800
-3.9747 2.3898 -2.0213 0.9800
-4.3331 1.6448 -2.0199 0.9800
-1.4974 0.2790 -0.6638 0.9934
-1.5971 -0.5856 -0.7414 0.9926
-3.4898 -2.9907 -2.0030 0.9801
-2.5673 -3.7978 -1.9978 0.9802
