ply
format ascii 1.0
element vertex 1586
property float32 x
property float32 y
property float32 z
property float32 I
end_header
-4.8880 -10.7556 -1.4034 0.9535
-3.9236 -11.1953 -1.4092 0.9533
-2.9264 -11.5752 -1.4182 0.9530
-0.8359 -12.1488 -1.4465 0.9521
0.2605 -12.5400 -1.4899 0.9507
1.4636 -13.2238 -1.5804 0.9478
2.7169 -13.4237 -1.6269 0.9463
5.2807 -13.2741 -1.6970 0.9441
6.6041 -13.0628 -1.7387 0.9427
7.9518 -12.7523 -1.7852 0.9413
9.3200 -12.3359 -1.8365 0.9396
10.7042 -11.8061 -1.8930 0.9378
12.0984 -11.1549 -1.9548 0.9359
13.4952 -10.3741 -2.0220 0.9337
15.0860 -7.7860 -2.0166 0.9339
7.5683 2.5816 -0.9499 0.9683
7.0063 3.1137 -0.9107 0.9696
4.5558 4.4715 -0.7583 0.9746
3.5113 4.9622 -0.7221 0.9758
2.6472 5.6689 -0.7432 0.9751
2.1563 5.9549 -0.7523 0.9748
0.8405 3.1857 -0.3914 0.9868
1.0846 6.3760 -0.7683 0.9743
-0.0757 7.2515 -0.8614 0.9712
-0.7455 7.4374 -0.8879 0.9703
-2.1627 2.4354 -0.3869 0.9870
-14.7608 11.5915 -2.2294 0.9272
-15.1574 9.8494 -2.1472 0.9298
-15.1899 1.9691 -1.8194 0.9402
-14.8864 0.5876 -1.7697 0.9418
-14.5017 -0.7259 -1.7248 0.9432
-11.5893 -6.2912 -1.5664 0.9483
-9.3646 -7.5152 -1.4263 0.9528
-7.7707 -8.9388 -1.4069 0.9534
-6.9176 -9.5651 -1.4022 0.9536
-5.1059 -10.6458 -1.4025 0.9536
-4.1491 -11.0991 -1.4075 0.9534
-3.1594 -11.4929 -1.4158 0.9531
-2.1374 -11.8257 -1.4275 0.9527
-1.0836 -12.0957 -1.4425 0.9523
1.1730 -13.0588 -1.5574 0.9486
2.4287 -13.4191 -1.6199 0.9465
6.2964 -13.1201 -1.7287 0.9431
7.6387 -12.8331 -1.7740 0.9416
10.3836 -11.9389 -1.8795 0.9383
13.1730 -10.5663 -2.0059 0.9342
14.7944 -8.0266 -1.9993 0.9344
2.3012 -0.9937 -0.2978 0.9900
18.4038 -4.2841 -2.2446 0.9267
15.0478 -2.1090 -1.8049 0.9406
11.0407 0.4384 -1.3125 0.9565
9.5289 1.2375 -1.1414 0.9620
8.6270 1.9166 -1.0498 0.9650
5.6792 3.6923 -0.8046 0.9731
4.6743 4.4020 -0.7627 0.9745
3.1503 5.1731 -0.7195 0.9759
2.2708 5.8883 -0.7497 0.9749
1.2069 6.3049 -0.7625 0.9745
0.6622 6.6213 -0.7904 0.9736
-2.1240 2.4936 -0.3891 0.9869
-14.6469 11.9992 -2.2491 0.9266
-15.5076 6.8874 -2.0156 0.9339
-8.9029 15.5593 -2.5400 0.9301
-9.9321 14.2353 -2.4594 0.9323
-2.1252 2.5301 -0.4682 0.9867
-12.1168 10.0661 -2.2320 0.9383
-12.5652 8.6657 -2.1627 0.9402
-12.8869 7.2811 -2.0972 0.9420
-13.1848 4.5952 -1.9784 0.9452
-13.0781 2.0626 -1.8759 0.9479
-12.8926 0.8646 -1.8308 0.9491
-12.2918 -1.3820 -1.7526 0.9513
-10.9025 -4.3592 -1.6637 0.9537
-10.3284 -5.2442 -1.6413 0.9543
-9.7052 -6.0751 -1.6223 0.9548
-8.3044 -7.5556 -1.5908 0.9557
-6.5668 -8.5731 -1.5301 0.9573
-4.9028 -9.5401 -1.5198 0.9576
-4.0649 -10.0241 -1.5326 0.9572
-2.3091 -11.0326 -1.5971 0.9555
-1.3279 -11.3116 -1.6137 0.9550
1.7852 -11.6903 -1.6756 0.9533
3.9726 -11.5802 -1.7347 0.9517
5.0925 -11.4055 -1.7698 0.9508
7.3673 -10.7951 -1.8518 0.9486
9.6569 -9.8050 -1.9499 0.9459
12.0625 -6.9806 -1.9747 0.9453
13.9646 -5.0293 -2.1030 0.9418
14.8294 -3.8849 -2.1721 0.9399
15.3150 -2.5778 -2.2005 0.9392
11.6897 0.1423 -1.6564 0.9539
7.7982 2.2472 -1.1499 0.9677
6.5326 3.2325 -1.0327 0.9710
5.8541 3.5808 -0.9723 0.9727
4.8289 4.3032 -0.9165 0.9742
3.7072 4.7377 -0.8524 0.9760
2.8230 5.3563 -0.8579 0.9758
2.4194 5.7937 -0.8896 0.9750
1.9089 6.0400 -0.8975 0.9747
1.3656 6.2045 -0.9002 0.9747
0.8330 6.5137 -0.9304 0.9738
0.2658 7.0444 -0.9988 0.9719
-0.3735 7.2127 -1.0233 0.9712
-6.0462 18.2365 -2.7222 0.9253
-7.4219 17.0948 -2.6406 0.9275
-8.6432 15.8563 -2.5588 0.9296
-9.7083 14.5456 -2.4778 0.9318
-10.6187 13.1851 -2.3987 0.9339
-11.3787 11.7944 -2.3221 0.9359
-11.9944 10.3905 -2.2485 0.9379
-12.8234 7.5988 -2.1120 0.9416
-13.1090 2.3459 -1.8869 0.9476
-12.9426 1.1369 -1.8409 0.9489
-12.6960 -0.0235 -1.7989 0.9500
-11.5364 -3.1959 -1.6962 0.9528
-10.4654 -5.0447 -1.6461 0.9541
-8.4921 -7.4117 -1.5971 0.9555
-7.6202 -7.9572 -1.5611 0.9565
-6.7615 -8.4595 -1.5344 0.9572
-5.9241 -8.9475 -1.5205 0.9576
-5.0946 -9.4290 -1.5185 0.9576
-4.2598 -9.9117 -1.5286 0.9574
-2.5201 -10.9118 -1.5868 0.9558
-0.5514 -11.4671 -1.6266 0.9547
1.5380 -11.6835 -1.6697 0.9535
2.6172 -11.6843 -1.6966 0.9528
5.9629 -11.2132 -1.7995 0.9500
7.1032 -10.8842 -1.8415 0.9488
8.2486 -10.4615 -1.8876 0.9476
9.3935 -9.9399 -1.9378 0.9462
11.6529 -8.5810 -2.0505 0.9432
12.7069 -7.7081 -2.1058 0.9417
11.2154 -3.1871 -1.6520 0.9540
15.4426 -2.9284 -2.2270 0.9385
14.7179 -1.4461 -2.0954 0.9420
11.8782 -0.1007 -1.6831 0.9531
10.4905 0.8515 -1.4913 0.9584
7.2130 2.6279 -1.0877 0.9695
4.8375 4.1348 -0.9017 0.9746
4.4335 4.5350 -0.8986 0.9747
2.9310 5.2933 -0.8573 0.9759
0.7773 3.2140 -0.4685 0.9867
-0.8995 7.4249 -1.0597 0.9702
-12.7536 7.9177 -2.1270 0.9412
-13.1353 2.6316 -1.8981 0.9473
-12.4558 -0.8816 -1.7693 0.9508
-12.0827 -1.9515 -1.7342 0.9518
-11.6458 -2.9686 -1.7029 0.9526
-9.9988 -5.6982 -1.6306 0.9546
-8.6580 -7.2470 -1.5998 0.9554
-6.9573 -8.3452 -1.5394 0.9571
-6.1163 -8.8357 -1.5226 0.9575
-5.2860 -9.3180 -1.5179 0.9576
-4.4536 -9.7998 -1.5252 0.9574
-3.6058 -10.2886 -1.5447 0.9569
-1.7863 -11.1999 -1.6070 0.9552
-0.7861 -11.4245 -1.6226 0.9548
2.3662 -11.6908 -1.6900 0.9530
3.4609 -11.6333 -1.7197 0.9521
4.5736 -11.4966 -1.7531 0.9512
9.1295 -10.0694 -1.9258 0.9466
10.2694 -9.4685 -1.9792 0.9451
11.3958 -8.7603 -2.0366 0.9436
2.3002 -0.9374 -0.3519 0.9900
15.2638 -3.2224 -2.2104 0.9389
11.7374 -0.3420 -1.6638 0.9537
9.4035 1.4193 -1.3475 0.9623
7.3547 2.5087 -1.1010 0.9691
6.7576 3.0032 -1.0478 0.9706
6.1374 3.4142 -0.9951 0.9720
5.5389 3.7661 -0.9490 0.9733
4.5506 4.4664 -0.9034 0.9746
3.5074 4.9567 -0.8604 0.9758
3.0389 5.2303 -0.8571 0.9759
2.6443 5.6626 -0.8855 0.9751
2.1539 5.9482 -0.8964 0.9748
0.8419 3.1909 -0.4676 0.9868
0.5297 6.6896 -0.9508 0.9733
-0.0751 7.1911 -1.0190 0.9714
-0.7380 7.3622 -1.0484 0.9706
-5.3605 18.7237 -2.7595 0.9243
-6.8057 17.6354 -2.6784 0.9265
-9.2359 15.1582 -2.5150 0.9308
-10.2174 13.8181 -2.4350 0.9329
-2.1613 2.4339 -0.4612 0.9869
-12.2687 9.6344 -2.2103 0.9389
-12.6772 8.2377 -2.1421 0.9407
-13.0298 1.6891 -1.8616 0.9483
-12.8194 0.5060 -1.8178 0.9495
-12.5323 -0.6273 -1.7779 0.9506
-12.1747 -1.7092 -1.7419 0.9515
-11.7521 -2.7386 -1.7098 0.9524
-10.7314 -4.6371 -1.6564 0.9539
-8.0278 -7.7181 -1.5779 0.9560
-7.1544 -8.2299 -1.5451 0.9569
-6.3089 -8.7235 -1.5254 0.9574
-5.4774 -9.2070 -1.5179 0.9576
-4.6466 -9.6883 -1.5224 0.9575
-3.8036 -10.1747 -1.5391 0.9571
1.0472 -11.6585 -1.6585 0.9538
2.1163 -11.6932 -1.6837 0.9531
3.2065 -11.6534 -1.7125 0.9523
5.4396 -11.3348 -1.7814 0.9505
8.8654 -10.1933 -1.9141 0.9469
10.0072 -9.6166 -1.9665 0.9455
11.1374 -8.9335 -2.0230 0.9440
12.3668 -6.7095 -1.9935 0.9447
15.0804 -3.5104 -2.1939 0.9394
15.0416 -2.1081 -2.1521 0.9405
11.1797 0.4439 -1.5853 0.9558
8.4703 1.8818 -1.2294 0.9656
6.8918 2.8939 -1.0591 0.9703
6.4200 3.3997 -1.0293 0.9711
5.1123 4.0166 -0.9212 0.9741
4.6690 4.3970 -0.9087 0.9744
4.1649 4.6923 -0.8890 0.9750
3.6163 4.8931 -0.8621 0.9757
3.1468 5.1674 -0.8572 0.9759
2.2682 5.8817 -0.8932 0.9749
0.6614 6.6133 -0.9417 0.9735
0.0725 7.1056 -1.0068 0.9717
-0.5798 7.3000 -1.0376 0.9708
-10.0045 14.1316 -2.4533 0.9324
-11.5831 11.3633 -2.2991 0.9365
-12.9066 7.1759 -2.0924 0.9421
-13.1016 5.8188 -2.0312 0.9437
-13.1878 4.4950 -1.9741 0.9453
-2.1279 2.5333 -0.5450 0.9867
-9.7975 9.7444 -2.2764 0.9455
-11.4443 3.9886 -1.9966 0.9521
-11.4298 1.8027 -1.9062 0.9542
-11.1010 -0.2498 -1.8292 0.9560
-10.8324 -1.2180 -1.7958 0.9568
-10.5008 -2.1443 -1.7656 0.9575
-10.1107 -3.0270 -1.7387 0.9581
-8.6290 -5.4014 -1.6771 0.9596
-8.0427 -6.0983 -1.6628 0.9599
-7.4151 -6.7465 -1.6515 0.9602
-6.7489 -7.3452 -1.6433 0.9604
-5.3095 -8.3905 -1.6358 0.9605
-3.7414 -9.2263 -1.6401 0.9604
-2.9139 -9.5624 -1.6468 0.9603
-0.2802 -10.2242 -1.6850 0.9594
2.5370 -10.3223 -1.7511 0.9578
4.4826 -10.0396 -1.8113 0.9564
7.4287 -9.0317 -1.9265 0.9537
8.3981 -8.5268 -1.9716 0.9526
10.3667 -5.9992 -1.9732 0.9526
11.1552 -5.1857 -2.0266 0.9514
11.8927 -4.2831 -2.0824 0.9500
13.1687 -2.2165 -2.1999 0.9473
13.6820 -1.0596 -2.2607 0.9459
10.1563 1.0359 -1.6818 0.9595
8.9735 1.7361 -1.5057 0.9636
7.9344 2.2865 -1.3603 0.9671
6.2981 3.1165 -1.1576 0.9719
5.6917 3.4815 -1.0991 0.9733
5.1990 3.8582 -1.0665 0.9741
2.8199 5.3504 -0.9963 0.9758
1.0491 3.3193 -0.5735 0.9860
0.8198 6.4109 -1.0647 0.9741
-0.3236 6.2478 -1.0306 0.9750
-3.4527 14.7014 -2.4878 0.9406
-4.9999 15.0806 -2.6173 0.9376
-6.1695 14.2102 -2.5521 0.9391
-7.2225 13.2500 -2.4860 0.9407
-8.1549 12.2183 -2.4200 0.9422
-8.9655 11.1323 -2.3547 0.9437
-9.6552 10.0079 -2.2909 0.9452
-10.2267 8.8592 -2.2290 0.9466
-10.6841 7.6987 -2.1694 0.9480
-11.4237 4.2479 -2.0078 0.9518
-11.4788 3.1342 -1.9602 0.9529
-11.4484 2.0487 -1.9160 0.9539
-11.3381 0.9959 -1.8750 0.9549
-11.1536 -0.0206 -1.8374 0.9558
-8.1818 -5.9418 -1.6658 0.9598
-7.5635 -6.6013 -1.6538 0.9601
-6.2115 -7.7715 -1.6390 0.9605
-5.4825 -8.2804 -1.6360 0.9605
-4.7208 -8.7373 -1.6360 0.9605
-3.1073 -9.4897 -1.6450 0.9603
-2.2593 -9.7825 -1.6540 0.9601
0.4271 -10.3057 -1.6992 0.9590
5.2383 -9.8506 -1.8380 0.9558
6.2223 -9.5345 -1.8756 0.9549
7.2033 -9.1358 -1.9166 0.9539
9.1324 -8.0778 -2.0085 0.9518
10.3821 -6.2978 -2.0004 0.9520
11.7276 -4.4993 -2.0693 0.9504
11.2276 -3.1905 -1.9229 0.9538
13.0373 -2.4723 -2.1860 0.9476
11.8780 -0.1007 -1.9568 0.9530
9.2242 1.5877 -1.5419 0.9628
7.2220 2.6312 -1.2662 0.9693
4.4285 4.5298 -1.0436 0.9746
3.3951 5.0146 -0.9976 0.9757
2.5115 5.6813 -1.0233 0.9751
0.9464 6.3547 -1.0584 0.9743
-0.1988 6.3924 -1.0536 0.9744
-0.8886 7.3348 -1.2172 0.9705
-2.9854 14.0048 -2.3590 0.9436
-4.7140 15.2667 -2.6322 0.9373
-5.9097 14.4198 -2.5673 0.9388
-6.9901 13.4787 -2.5013 0.9403
-7.9505 12.4619 -2.4352 0.9418
-10.1051 9.1258 -2.2431 0.9463
-10.9613 6.8050 -2.1254 0.9490
-11.3981 4.5085 -2.0193 0.9515
-11.4739 3.3889 -1.9709 0.9527
-11.3704 1.2359 -1.8842 0.9547
-10.9645 -0.7761 -1.8108 0.9564
-9.8780 -3.4837 -1.7255 0.9584
-9.4059 -4.2969 -1.7035 0.9589
-8.8850 -5.0635 -1.6847 0.9594
-7.0611 -7.0750 -1.6467 0.9603
-5.6537 -8.1675 -1.6364 0.9605
-4.8994 -8.6365 -1.6358 0.9605
-4.1140 -9.0525 -1.6381 0.9605
-3.2993 -9.4141 -1.6434 0.9604
-2.4574 -9.7200 -1.6516 0.9602
-1.5899 -9.9684 -1.6629 0.9599
0.2136 -10.2852 -1.6947 0.9592
2.0941 -10.3466 -1.7390 0.9581
5.9952 -9.6147 -1.8666 0.9551
6.9774 -9.2353 -1.9068 0.9542
7.9522 -8.7709 -1.9504 0.9531
9.8531 -7.5744 -2.0474 0.9509
10.7969 -5.5723 -2.0016 0.9519
2.3003 -0.9374 -0.4092 0.9900
12.2647 -3.7606 -2.1133 0.9493
13.4568 -1.6034 -2.2325 0.9465
10.8032 0.6526 -1.7829 0.9571
9.4874 1.4319 -1.5806 0.9619
7.4227 2.5320 -1.2920 0.9687
5.4244 3.6882 -1.0806 0.9738
3.9117 4.5947 -0.9941 0.9758
2.6227 5.6164 -1.0212 0.9752
2.1363 5.8996 -1.0337 0.9749
0.8083 3.0637 -0.5220 0.9872
1.0714 6.2983 -1.0525 0.9744
0.5180 6.5415 -1.0810 0.9737
-0.0714 6.8358 -1.1262 0.9727
-2.8728 14.9885 -2.5141 0.9400
-5.6437 14.6244 -2.5824 0.9384
-6.7512 13.7033 -2.5166 0.9400
-8.6064 11.6394 -2.3847 0.9430
-2.1606 2.4331 -0.5361 0.9869
-10.4868 8.2352 -2.1966 0.9474
-11.3676 4.7702 -2.0309 0.9513
-11.3986 1.4777 -1.8935 0.9545
-11.2477 0.4440 -1.8544 0.9554
-11.0254 -0.5519 -1.8186 0.9562
-10.3869 -2.4204 -1.7570 0.9577
-9.9797 -3.2895 -1.7311 0.9583
-8.4533 -5.6209 -1.6723 0.9597
-7.8540 -6.3029 -1.6590 0.9600
-6.5366 -7.5192 -1.6413 0.9604
-5.8232 -8.0519 -1.6370 0.9605
-5.0763 -8.5329 -1.6357 0.9605
-3.4899 -9.3355 -1.6419 0.9604
-0.9065 -10.1193 -1.6737 0.9596
0.9288 -10.3401 -1.7103 0.9588
1.8738 -10.3532 -1.7333 0.9582
2.8335 -10.2978 -1.7595 0.9576
3.8049 -10.1709 -1.7890 0.9569
4.7844 -9.9696 -1.8217 0.9562
6.7511 -9.3303 -1.8972 0.9544
7.7282 -8.8858 -1.9400 0.9534
8.6930 -8.3537 -1.9861 0.9523
10.6140 -5.7585 -1.9893 0.9522
2.2942 -0.9907 -0.4117 0.9899
12.1076 -3.9878 -2.1000 0.9496
12.7613 -2.9706 -2.1585 0.9483
11.1569 0.4430 -1.8394 0.9557
9.7641 1.2681 -1.6220 0.9609
7.6396 2.4310 -1.3207 0.9680
6.7846 2.8489 -1.2122 0.9706
5.5384 3.6007 -1.0883 0.9736
5.0504 3.9680 -1.0581 0.9743
4.6636 4.3919 -1.0553 0.9744
4.1602 4.6870 -1.0324 0.9749
3.6123 4.8876 -1.0012 0.9757
2.6758 5.4344 -0.9979 0.9757
2.2497 5.8336 -1.0300 0.9750
0.6486 6.4855 -1.0737 0.9739
-0.4966 6.2528 -1.0333 0.9749
-2.5759 15.1221 -2.5271 0.9397
-5.3716 14.8237 -2.5974 0.9381
-6.5060 13.9236 -2.5318 0.9396
-7.5222 12.9395 -2.4657 0.9411
-8.4171 11.8894 -2.3998 0.9427
-11.1182 6.1816 -2.0957 0.9497
-11.3321 5.0329 -2.0427 0.9510
-11.4783 2.7972 -1.9463 0.9532
-11.4227 1.7213 -1.9030 0.9543
-2.1364 2.5433 -0.6243 0.9866
-8.5074 8.4614 -2.2553 0.9523
-9.0125 7.4872 -2.2023 0.9534
-9.6751 -1.0878 -1.8300 0.9611
-9.3958 -1.9186 -1.8025 0.9617
-9.0613 -2.7128 -1.7779 0.9622
-8.2411 -4.1844 -1.7372 0.9631
-6.6803 -6.0779 -1.6976 0.9639
-6.0830 -6.6205 -1.6899 0.9641
-4.7878 -7.5662 -1.6830 0.9642
-3.3729 -8.3176 -1.6870 0.9641
-2.6259 -8.6171 -1.6932 0.9640
2.2720 -9.2440 -1.7892 0.9620
4.0000 -8.9587 -1.8441 0.9609
6.5839 -8.0045 -1.9481 0.9587
7.4232 -7.5370 -1.9884 0.9579
9.0806 -5.2550 -1.9720 0.9582
10.3463 -3.7261 -2.0670 0.9562
10.8943 -2.8540 -2.1168 0.9552
11.3729 -1.9142 -2.1677 0.9541
11.7718 -0.9117 -2.2193 0.9531
11.6396 0.1417 -2.1880 0.9537
8.9584 1.7331 -1.7150 0.9635
6.3975 3.1656 -1.3416 0.9714
5.7254 3.5021 -1.2615 0.9731
4.3078 4.5924 -1.1835 0.9747
3.6500 4.6645 -1.1133 0.9762
2.7389 5.1968 -1.1042 0.9764
-2.9295 12.4739 -2.4084 0.9492
-4.8934 11.2710 -2.3096 0.9512
-5.7502 10.5490 -2.2582 0.9523
-7.0228 10.5222 -2.3778 0.9498
-8.9046 7.7139 -2.2144 0.9532
-9.6713 5.7309 -2.1130 0.9553
-9.9169 4.7352 -2.0656 0.9563
-10.0761 3.7468 -2.0206 0.9572
-10.1527 1.8169 -1.9386 0.9589
-10.0792 0.8854 -1.9018 0.9597
-9.9373 -0.0184 -1.8678 0.9604
-9.7313 -0.8911 -1.8368 0.9610
-9.4653 -1.7300 -1.8086 0.9616
-8.3454 -4.0228 -1.7413 0.9630
-7.3646 -5.3483 -1.7108 0.9636
-6.8130 -5.9462 -1.6997 0.9639
-6.2240 -6.4993 -1.6914 0.9640
-5.6002 -7.0066 -1.6859 0.9642
-4.9437 -7.4667 -1.6832 0.9642
-4.2569 -7.8787 -1.6832 0.9642
-3.5418 -8.2411 -1.6860 0.9642
-2.8005 -8.5526 -1.6915 0.9640
-2.0351 -8.8117 -1.6999 0.9639
-0.4407 -9.1662 -1.7249 0.9633
0.3837 -9.2578 -1.7416 0.9630
1.2229 -9.2898 -1.7612 0.9626
2.0741 -9.2599 -1.7836 0.9621
3.7998 -9.0055 -1.8372 0.9610
4.6669 -8.7762 -1.8683 0.9604
5.5313 -8.4756 -1.9023 0.9596
8.0548 -7.1246 -2.0212 0.9572
8.8519 -6.5184 -2.0663 0.9562
8.9225 -5.4125 -1.9615 0.9584
10.7736 -3.0615 -2.1052 0.9554
11.6873 -1.1483 -2.2073 0.9533
10.4501 0.8482 -1.9707 0.9582
9.2083 1.5850 -1.7563 0.9627
7.3521 2.6786 -1.4708 0.9687
6.5665 3.0822 -1.3634 0.9709
5.8728 3.4277 -1.2781 0.9727
5.2621 3.7391 -1.2133 0.9741
4.7218 4.0359 -1.1675 0.9750
2.3878 5.4014 -1.1100 0.9763
1.9224 5.6722 -1.1257 0.9759
0.3862 6.6092 -1.2444 0.9734
-0.1935 6.2217 -1.1700 0.9750
-2.6833 12.5883 -2.4193 0.9490
-4.6833 11.4273 -2.3213 0.9510
-5.5603 10.7217 -2.2701 0.9520
-8.7915 7.9395 -2.2266 0.9529
-9.2442 6.9556 -2.1745 0.9540
-9.6019 5.9611 -2.1243 0.9550
-9.8681 4.9646 -2.0763 0.9560
-10.1424 2.9957 -1.9878 0.9579
-10.1024 1.0981 -1.9100 0.9595
-9.9760 0.1876 -1.8754 0.9602
-9.5318 -1.5395 -1.8148 0.9615
-8.8596 -3.1246 -1.7658 0.9625
-8.4473 -3.8590 -1.7456 0.9629
-7.4864 -5.2041 -1.7137 0.9636
-6.3631 -6.3757 -1.6931 0.9640
-5.7471 -6.8936 -1.6870 0.9641
-3.7092 -8.1619 -1.6851 0.9642
-0.6287 -9.1367 -1.7214 0.9634
4.4669 -8.8353 -1.8609 0.9605
5.3323 -8.5514 -1.8942 0.9598
6.1911 -8.1945 -1.9304 0.9591
7.0379 -7.7624 -1.9694 0.9583
7.8667 -7.2532 -2.0112 0.9574
8.6707 -6.6654 -2.0556 0.9565
10.6493 -3.2653 -2.0936 0.9557
10.7817 0.6513 -2.0302 0.9570
9.4706 1.4294 -1.8003 0.9618
6.7417 2.9961 -1.3867 0.9704
6.0246 3.3514 -1.2958 0.9723
4.8396 3.9667 -1.1762 0.9749
3.8643 4.5390 -1.1205 0.9760
3.4029 4.8091 -1.1073 0.9763
2.4936 5.3398 -1.1077 0.9763
2.0310 5.6090 -1.1213 0.9760
0.8023 3.0408 -0.5911 0.9873
0.5165 6.5229 -1.2299 0.9737
-2.4336 12.6972 -2.4300 0.9487
-3.4888 12.1860 -2.3825 0.9497
-5.3656 10.8909 -2.2820 0.9518
-6.6535 10.9200 -2.4035 0.9493
-8.6732 8.1641 -2.2388 0.9527
-9.8146 5.1944 -2.0872 0.9558
-10.1275 3.2201 -1.9975 0.9577
-10.0111 0.3952 -1.8832 0.9600
-7.0725 -5.6757 -1.7045 0.9638
-6.5004 -6.2496 -1.6949 0.9640
-5.8924 -6.7782 -1.6881 0.9641
-5.2507 -7.2602 -1.6841 0.9642
-4.5776 -7.6946 -1.6829 0.9642
-3.8753 -8.0800 -1.6844 0.9642
-1.6138 -8.9289 -1.7055 0.9637
-0.8156 -9.1043 -1.7181 0.9635
1.6798 -9.2816 -1.7729 0.9623
6.8438 -7.8689 -1.9602 0.9584
7.6773 -7.3777 -2.0013 0.9576
9.2648 -6.1573 -2.0909 0.9557
2.2907 -0.9892 -0.4690 0.9899
11.5045 -1.6123 -2.1835 0.9538
8.6429 1.9202 -1.6641 0.9646
7.7311 2.4601 -1.5249 0.9675
6.9235 2.9072 -1.4114 0.9699
5.5354 3.5988 -1.2410 0.9735
4.9594 3.8964 -1.1855 0.9747
4.6582 4.3868 -1.2027 0.9743
3.5085 4.7473 -1.1096 0.9763
3.0531 5.0135 -1.1033 0.9764
2.5990 5.2784 -1.1059 0.9763
2.1389 5.5463 -1.1173 0.9761
0.0696 6.8205 -1.2821 0.9726
-0.5227 6.5811 -1.2409 0.9735
-3.2516 12.3129 -2.3937 0.9495
-5.1662 11.0564 -2.2939 0.9515
-6.4610 11.1142 -2.4164 0.9490
-7.2571 10.2508 -2.3607 0.9502
-2.1273 2.4976 -0.6167 0.9867
-9.4484 6.4210 -2.1472 0.9546
-10.1083 3.4454 -2.0073 0.9575
-5.1950 9.0791 -2.2111 0.9581
-7.5102 7.4695 -2.2390 0.9576
-7.9780 6.6278 -2.1924 0.9585
-9.0318 3.1478 -2.0218 0.9617
-9.1043 2.2849 -1.9842 0.9624
-8.9184 -0.2007 -1.8857 0.9642
-8.7340 -0.9820 -1.8578 0.9647
-8.4943 -1.7345 -1.8326 0.9652
-8.2027 -2.4558 -1.8099 0.9656
-7.8623 -3.1436 -1.7899 0.9660
-5.5325 -6.0214 -1.7285 0.9671
-4.3561 -6.8840 -1.7220 0.9672
-2.3878 -7.8359 -1.7316 0.9671
-1.6862 -8.0565 -1.7399 0.9669
2.0554 -8.3630 -1.8204 0.9654
3.6082 -8.0813 -1.8708 0.9645
5.1505 -7.5469 -1.9314 0.9633
6.6452 -6.7471 -2.0018 0.9620
8.6330 -4.0132 -2.0124 0.9618
9.1468 -3.2941 -2.0550 0.9610
10.3189 -0.7991 -2.1877 0.9586
10.5594 0.1286 -2.2322 0.9577
7.9826 2.3004 -1.7560 0.9666
7.1648 2.7792 -1.6244 0.9691
5.8319 3.5673 -1.4451 0.9724
5.2221 3.8754 -1.3746 0.9738
4.3029 4.5871 -1.3294 0.9746
3.6767 4.6987 -1.2611 0.9759
2.7556 5.2285 -1.2493 0.9761
2.2983 5.5036 -1.2607 0.9759
0.7024 3.1911 -0.6907 0.9867
0.8240 6.4436 -1.3731 0.9738
0.2574 6.8209 -1.4428 0.9725
-4.2680 9.8305 -2.2654 0.9571
-5.7168 8.5653 -2.1768 0.9588
-7.3902 7.6601 -2.2499 0.9574
-8.2807 5.9669 -2.1575 0.9591
-9.1125 1.6307 -1.9568 0.9629
-8.7816 -0.8041 -1.8640 0.9646
-8.5544 -1.5635 -1.8382 0.9651
-7.9450 -2.9879 -1.7943 0.9659
-7.5694 -3.6487 -1.7762 0.9662
-7.1503 -4.2729 -1.7607 0.9665
-6.1932 -5.4053 -1.7376 0.9670
-5.0945 -6.3739 -1.7248 0.9672
-3.2219 -7.4969 -1.7248 0.9672
-2.5468 -7.7779 -1.7300 0.9671
-0.4001 -8.3211 -1.7609 0.9665
2.6518 -8.2837 -1.8385 0.9651
3.4289 -8.1264 -1.8644 0.9646
4.2044 -7.9064 -1.8929 0.9641
7.8918 -5.8114 -2.0717 0.9607
8.5072 -4.1705 -2.0027 0.9620
9.0329 -3.4655 -2.0451 0.9612
9.9132 -1.8798 -2.1328 0.9596
10.5115 -0.0891 -2.2220 0.9579
8.1892 2.1778 -1.7912 0.9659
5.9712 3.4851 -1.4614 0.9721
5.3572 3.8066 -1.3892 0.9735
4.7930 4.0968 -1.3328 0.9746
4.4183 4.5194 -1.3360 0.9745
3.3183 4.9011 -1.2511 0.9761
0.9475 6.3620 -1.3596 0.9740
0.3934 6.7317 -1.4254 0.9728
-0.1935 6.2217 -1.3158 0.9749
-0.9077 7.4924 -1.5953 0.9696
-2.3263 10.9132 -2.3587 0.9554
-3.2352 10.4777 -2.3179 0.9562
-4.0821 9.9604 -2.2754 0.9569
-5.5649 8.7227 -2.1871 0.9586
-6.6735 8.6459 -2.3087 0.9563
-2.2275 2.4064 -0.6931 0.9867
-7.7726 7.0193 -2.2138 0.9581
-9.0797 2.6818 -2.0012 0.9620
-9.0812 0.9871 -1.9309 0.9633
-8.9839 0.1689 -1.8994 0.9639
-8.6116 -1.3909 -1.8439 0.9650
-8.3435 -2.1268 -1.8201 0.9654
-8.0253 -2.8303 -1.7988 0.9658
-7.6600 -3.4994 -1.7801 0.9662
-6.8003 -4.7271 -1.7506 0.9667
-6.3113 -5.2827 -1.7397 0.9669
-5.2279 -6.2708 -1.7257 0.9672
-4.6382 -6.7006 -1.7226 0.9672
-4.0197 -7.0858 -1.7220 0.9672
-0.5708 -8.2959 -1.7577 0.9666
1.6989 -8.3937 -1.8102 0.9656
3.2495 -8.1683 -1.8582 0.9647
4.0258 -7.9629 -1.8861 0.9642
6.3066 -6.9558 -1.9847 0.9623
7.0338 -6.4853 -2.0223 0.9616
7.7345 -5.9458 -2.0622 0.9609
8.3810 -5.3238 -2.0988 0.9602
9.4006 -2.8824 -2.0784 0.9606
10.1802 -1.2130 -2.1671 0.9590
9.4538 1.4269 -2.0210 0.9617
8.4044 2.0502 -1.8286 0.9653
6.7741 3.0105 -1.5669 0.9701
6.1136 3.4010 -1.4788 0.9718
5.4957 3.7367 -1.4048 0.9732
4.9186 4.0314 -1.3443 0.9743
3.4250 4.8403 -1.2534 0.9760
0.7963 3.0182 -0.6598 0.9873
0.5260 6.6424 -1.4085 0.9731
-0.0732 7.0117 -1.4822 0.9717
-3.0307 10.5858 -2.3275 0.9560
-3.8925 10.0865 -2.2853 0.9568
-4.6870 9.5135 -2.2418 0.9576
-5.4090 8.8774 -2.1974 0.9584
-6.5247 8.8241 -2.3198 0.9561
-7.6631 7.2133 -2.2246 0.9579
-8.4634 5.4996 -2.1335 0.9596
-8.9389 3.7510 -2.0491 0.9611
-9.0617 2.8812 -2.0100 0.9619
-9.1125 2.0222 -1.9731 0.9626
-9.0946 1.1790 -1.9385 0.9632
-9.0119 0.3557 -1.9064 0.9638
-8.8678 -0.4439 -1.8768 0.9644
-8.1030 -2.6709 -1.8035 0.9657
-7.7484 -3.3481 -1.7842 0.9661
-7.3490 -3.9894 -1.7676 0.9664
-5.9106 -5.6825 -1.7331 0.9670
-5.3597 -6.1654 -1.7268 0.9672
-3.5257 -7.3510 -1.7233 0.9672
-2.8613 -7.6542 -1.7273 0.9671
-2.1742 -7.9091 -1.7338 0.9670
3.0701 -8.2067 -1.8521 0.9648
3.8469 -8.0159 -1.8794 0.9643
6.1357 -7.0547 -1.9763 0.9625
7.5755 -6.0764 -2.0528 0.9611
8.2441 -5.4790 -2.0924 0.9603
8.2484 -4.4751 -1.9836 0.9624
2.2885 -0.9882 -0.5269 0.9899
9.2938 -3.0610 -2.0683 0.9608
10.4018 -0.5182 -2.2015 0.9583
9.7287 1.2635 -2.0737 0.9607
8.6287 1.9170 -1.8684 0.9645
6.9382 2.9134 -1.5906 0.9697
6.2595 3.3148 -1.4972 0.9715
4.6527 4.3817 -1.3510 0.9742
4.1507 4.6763 -1.3217 0.9748
3.5324 4.7796 -1.2563 0.9760
3.0713 5.0433 -1.2482 0.9761
2.1561 5.5909 -1.2666 0.9758
0.8753 3.0602 -0.6728 0.9871
0.6556 6.5556 -1.3926 0.9734
-0.4954 6.2379 -1.3227 0.9747
-1.8880 11.0839 -2.3767 0.9551
-2.8229 10.6895 -2.3370 0.9558
-8.3880 5.7003 -2.1437 0.9594
-8.6836 4.8280 -2.1002 0.9602
-8.8999 3.9527 -2.0585 0.9610
-9.1070 2.2193 -1.9814 0.9624
-4.6139 8.0636 -2.1834 0.9625
-5.7603 6.8576 -2.1048 0.9639
-6.7155 6.6791 -2.2260 0.9618
-7.1495 5.9395 -2.1845 0.9625
-7.5097 5.1791 -2.1440 0.9632
-7.7969 4.4053 -2.1047 0.9639
-8.1598 2.8439 -2.0309 0.9651
-8.2402 2.0680 -1.9967 0.9657
-7.9531 -0.8942 -1.8809 0.9676
-7.1828 -2.8719 -1.8181 0.9687
-6.8360 -3.4709 -1.8018 0.9690
-6.0235 -4.5673 -1.7766 0.9694
-4.5452 -5.9339 -1.7567 0.9698
-1.5442 -7.3780 -1.7716 0.9695
-0.8839 -7.5294 -1.7817 0.9693
-0.2091 -7.6317 -1.7943 0.9691
0.4775 -7.6834 -1.8093 0.9689
1.1733 -7.6830 -1.8266 0.9686
2.5796 -7.5198 -1.8684 0.9679
3.2835 -7.3541 -1.8928 0.9674
4.6734 -6.8478 -1.9485 0.9665
5.3506 -6.5051 -1.9796 0.9660
6.0094 -6.1015 -2.0127 0.9654
7.2498 -5.1111 -2.0847 0.9642
7.2562 -4.1992 -1.9703 0.9661
8.5789 -2.2475 -2.0843 0.9642
8.9102 -1.4998 -2.1236 0.9636
9.4826 0.9672 -2.2402 0.9616
6.4510 3.1921 -1.6916 0.9709
5.8244 3.5627 -1.6047 0.9723
5.2543 3.8992 -1.5378 0.9735
4.8063 4.2830 -1.5130 0.9739
4.2979 4.5818 -1.4764 0.9745
3.7386 4.7778 -1.4258 0.9754
3.2502 5.0208 -1.4057 0.9757
2.8016 5.3157 -1.4122 0.9756
0.9864 3.1210 -0.7693 0.9866
0.6996 3.1783 -0.7648 0.9867
-0.3195 6.1689 -1.4518 0.9749
-1.3998 9.8468 -2.3375 0.9600
-3.0372 9.1608 -2.2682 0.9611
-3.7803 8.7070 -2.2309 0.9617
-4.4647 8.1907 -2.1924 0.9624
-6.6047 6.8460 -2.2357 0.9617
-7.0559 6.1124 -2.1940 0.9624
-7.4331 5.3561 -2.1532 0.9631
-7.7370 4.5847 -2.1137 0.9637
-8.1319 3.0239 -2.0390 0.9650
-8.2584 1.4779 -1.9717 0.9661
-8.2278 0.7227 -1.9412 0.9666
-7.7969 -1.4251 -1.8628 0.9680
-6.5415 -3.9091 -1.7910 0.9692
-5.6722 -4.9506 -1.7694 0.9695
-5.1861 -5.4155 -1.7623 0.9697
-3.5499 -6.5702 -1.7551 0.9698
-2.9527 -6.8705 -1.7575 0.9697
-1.6943 -7.3362 -1.7696 0.9695
-1.0377 -7.4988 -1.7792 0.9694
-0.3660 -7.6126 -1.7912 0.9692
1.0120 -7.6878 -1.8224 0.9686
1.7127 -7.6463 -1.8416 0.9683
3.1213 -7.3975 -1.8870 0.9675
4.5150 -6.9184 -1.9416 0.9666
5.8592 -6.2001 -2.0049 0.9656
6.5002 -5.7496 -2.0396 0.9650
7.1130 -5.2379 -2.0761 0.9644
7.6362 -3.7435 -1.9987 0.9657
8.4938 -2.4137 -2.0753 0.9644
9.1205 -0.8961 -2.1539 0.9630
9.1763 1.5795 -2.1884 0.9625
8.1762 2.1743 -1.9884 0.9658
6.6057 3.1005 -1.7150 0.9705
5.9634 3.4806 -1.6228 0.9720
5.3817 3.8240 -1.5516 0.9732
2.9084 5.2525 -1.4111 0.9756
2.4448 5.5304 -1.4211 0.9755
0.3935 6.7335 -1.5852 0.9727
-0.9064 7.4818 -1.7712 0.9695
-2.0508 9.6208 -2.3119 0.9604
-2.8579 9.2557 -2.2766 0.9610
-3.6137 8.8176 -2.2396 0.9616
-5.5194 7.1508 -2.1230 0.9636
-7.3526 5.5323 -2.1625 0.9629
-7.6733 4.7638 -2.1227 0.9636
-7.9219 3.9855 -2.0842 0.9642
-8.2112 2.4253 -2.0122 0.9654
-8.2402 0.8956 -1.9480 0.9665
-8.0322 -0.5685 -1.8925 0.9675
-7.8469 -1.2674 -1.8681 0.9679
-7.6113 -1.9402 -1.8460 0.9682
-7.0013 -3.1984 -1.8090 0.9689
-6.6323 -3.7797 -1.7941 0.9691
-6.2243 -4.3267 -1.7816 0.9693
-5.7798 -4.8379 -1.7714 0.9695
-3.6844 -6.4947 -1.7549 0.9698
-3.0926 -6.8051 -1.7568 0.9698
2.2542 -7.5772 -1.8579 0.9680
2.9589 -7.4377 -1.8813 0.9676
4.3560 -6.9858 -1.9348 0.9667
6.3546 -5.8590 -2.0314 0.9651
6.9744 -5.3614 -2.0675 0.9645
2.3009 -0.9377 -0.5839 0.9898
8.7651 -1.8504 -2.1054 0.9639
9.0617 -1.0797 -2.1448 0.9632
9.4400 0.5703 -2.2227 0.9619
5.5115 3.7474 -1.5664 0.9730
4.5296 4.4457 -1.4916 0.9743
3.0153 5.1897 -1.4106 0.9756
2.5521 5.4652 -1.4176 0.9755
1.0781 6.3381 -1.5110 0.9739
-0.0731 7.0025 -1.6458 0.9716
-1.8580 9.6938 -2.3197 0.9603
-4.1563 8.4363 -2.2103 0.9621
-4.8073 7.8899 -2.1714 0.9627
-2.1592 2.4315 -0.7643 0.9867
-6.8569 6.4544 -2.2132 0.9620
-7.2681 5.7076 -2.1719 0.9627
-7.6057 4.9423 -2.1318 0.9634
-8.0653 3.3844 -2.0557 0.9647
-8.2519 1.8313 -1.9866 0.9659
-8.2494 1.0694 -1.9550 0.9664
-8.1869 0.3232 -1.9256 0.9669
-8.0675 -0.4038 -1.8984 0.9674
-7.6700 -1.7873 -1.8509 0.9682
-6.7211 -3.6485 -1.7973 0.9691
-4.3783 -6.0539 -1.7559 0.9698
-3.8175 -6.4169 -1.7548 0.9698
-3.2313 -6.7373 -1.7561 0.9698
-1.9917 -7.2451 -1.7659 0.9696
-1.3429 -7.4297 -1.7744 0.9695
-0.6778 -7.5662 -1.7853 0.9693
0.6906 -7.6889 -1.8144 0.9688
1.3886 -7.6722 -1.8324 0.9685
2.7963 -7.4750 -1.8757 0.9677
3.4993 -7.2916 -1.9008 0.9673
4.1964 -7.0499 -1.9282 0.9669
5.5554 -6.3875 -1.9896 0.9658
6.2075 -5.9652 -2.0233 0.9652
6.8340 -5.4817 -2.0590 0.9646
8.6874 -2.0223 -2.0963 0.9640
8.9992 -1.2612 -2.1357 0.9633
9.4121 0.3737 -2.2138 0.9620
9.5010 1.2339 -2.2517 0.9614
6.9284 2.9093 -1.7661 0.9696
6.2512 3.3104 -1.6625 0.9714
5.6439 3.6693 -1.5821 0.9727
5.0878 3.9973 -1.5207 0.9738
4.6473 4.3765 -1.5003 0.9741
4.1460 4.6709 -1.4678 0.9747
3.5917 4.8598 -1.4202 0.9755
1.9273 3.9141 -1.0254 0.9822
0.8690 3.0379 -0.7426 0.9871
1.1998 6.2677 -1.4998 0.9741
0.6581 6.5808 -1.5544 0.9732
0.0707 6.9197 -1.6264 0.9720
-2.4913 9.4338 -2.2932 0.9607
-3.9972 8.5545 -2.2192 0.9619
-4.6627 8.0207 -2.1804 0.9626
-5.2642 7.4357 -2.1412 0.9633
-7.1798 5.8819 -2.1814 0.9626
-7.8160 4.3456 -2.1018 0.9639
-6.4704 5.3754 -2.1780 0.9658
-7.0809 4.0007 -2.1058 0.9670
-7.4344 2.5911 -2.0385 0.9680
-7.5446 1.1899 -1.9776 0.9689
-7.5140 0.5039 -1.9499 0.9694
-7.2939 -0.8201 -1.9004 0.9701
-7.1097 -1.4518 -1.8788 0.9705
-6.8794 -2.0596 -1.8593 0.9708
-6.2913 -3.1944 -1.8269 0.9713
-4.6740 -5.0870 -1.7887 0.9719
-2.5926 -6.3934 -1.7863 0.9719
-2.0167 -6.6181 -1.7913 0.9718
-0.1925 -7.0261 -1.8199 0.9714
0.4393 -7.0690 -1.8338 0.9712
1.0786 -7.0632 -1.8500 0.9709
1.7223 -7.0074 -1.8683 0.9706
3.6466 -6.5285 -1.9361 0.9696
4.2734 -6.2617 -1.9628 0.9692
4.8859 -5.9401 -1.9914 0.9687
5.4795 -5.5636 -2.0218 0.9682
6.5845 -3.8105 -1.9697 0.9691
7.4043 -2.6666 -2.0376 0.9680
8.0277 -1.3512 -2.1077 0.9669
8.4971 0.8666 -2.2115 0.9653
7.1441 2.7712 -1.9840 0.9688
6.4422 3.1878 -1.8610 0.9707
5.2477 3.8944 -1.6920 0.9734
4.8005 4.2779 -1.6648 0.9738
3.2465 5.0151 -1.5468 0.9756
0.6976 3.1692 -0.8402 0.9867
0.8279 6.4741 -1.6899 0.9734
0.2568 6.8034 -1.7628 0.9723
-2.0025 8.5264 -2.2677 0.9645
-3.3889 7.8055 -2.2032 0.9655
-4.5761 6.8562 -2.1343 0.9665
-7.4064 2.7541 -2.0459 0.9679
-7.5047 2.0491 -2.0142 0.9684
-7.5438 1.3500 -1.9842 0.9688
-7.5260 0.6611 -1.9561 0.9693
-7.4537 -0.0138 -1.9299 0.9697
-7.1564 -1.3080 -1.8836 0.9704
-6.9365 -1.9216 -1.8636 0.9707
-6.3674 -3.0693 -1.8302 0.9712
-5.6426 -4.0977 -1.8056 0.9716
-5.2278 -4.5627 -1.7966 0.9717
-4.3053 -5.3865 -1.7854 0.9719
-3.8021 -5.7425 -1.7832 0.9719
-3.2738 -6.0592 -1.7832 0.9719
-2.7228 -6.3355 -1.7855 0.9719
-2.1513 -6.5700 -1.7900 0.9718
-1.5616 -6.7614 -1.7967 0.9717
0.2927 -7.0633 -1.8304 0.9712
0.9305 -7.0689 -1.8461 0.9710
1.5735 -7.0248 -1.8639 0.9707
3.5003 -6.5823 -1.9303 0.9697
4.1298 -6.3281 -1.9565 0.9693
4.7460 -6.0192 -1.9847 0.9688
5.3444 -5.6554 -2.0147 0.9684
6.9201 -3.3924 -1.9955 0.9687
7.3188 -2.8079 -2.0296 0.9681
8.2055 -0.8062 -2.1348 0.9665
8.5135 1.4654 -2.2367 0.9649
4.8385 4.1357 -1.6481 0.9740
4.4079 4.5088 -1.6326 0.9743
3.8503 4.7165 -1.5764 0.9752
3.3798 4.9919 -1.5609 0.9754
2.4472 5.5359 -1.5671 0.9753
1.9702 5.8131 -1.5892 0.9750
0.7281 3.0102 -0.8019 0.9873
0.9534 6.4017 -1.6758 0.9736
0.3930 6.7249 -1.7442 0.9725
-0.9051 7.4711 -1.9485 0.9694
-2.5566 8.2798 -2.2437 0.9648
-3.8710 7.4643 -2.1771 0.9659
-4.4503 6.9756 -2.1424 0.9664
-2.2221 2.4006 -0.8470 0.9866
-6.2922 5.6824 -2.1952 0.9656
-7.5399 1.5106 -1.9910 0.9687
-7.5350 0.8190 -1.9624 0.9692
-7.3627 -0.5211 -1.9111 0.9700
-6.9913 -1.7821 -1.8681 0.9706
-6.4414 -2.9427 -1.8336 0.9712
-5.3265 -4.4584 -1.7985 0.9717
-4.8871 -4.8967 -1.7912 0.9718
-4.4177 -5.2989 -1.7862 0.9719
-3.9205 -5.6637 -1.7835 0.9719
-2.8519 -6.2754 -1.7847 0.9719
-2.2849 -6.5197 -1.7887 0.9719
-1.0971 -6.8784 -1.8034 0.9716
2.7136 -6.8212 -1.9008 0.9701
3.3536 -6.6333 -1.9245 0.9698
3.9855 -6.3916 -1.9503 0.9694
4.6052 -6.0954 -1.9780 0.9689
5.7895 -5.3380 -2.0389 0.9680
6.3442 -4.8770 -2.0719 0.9675
8.1560 -0.9718 -2.1267 0.9666
8.3452 -0.2431 -2.1616 0.9661
8.4658 0.5114 -2.1959 0.9656
6.7552 3.0021 -1.9140 0.9699
5.5046 3.7427 -1.7235 0.9729
4.9591 4.0646 -1.6602 0.9739
4.5242 4.4404 -1.6413 0.9741
3.0219 5.2010 -1.5574 0.9755
0.7844 2.9732 -0.7961 0.9874
1.0768 6.3304 -1.6626 0.9738
0.5264 6.6480 -1.7267 0.9728
-0.0730 6.9932 -1.8108 0.9715
-0.6356 6.3412 -1.6501 0.9740
-2.3929 8.3580 -2.2510 0.9647
-3.7295 7.5701 -2.1850 0.9657
-4.8574 6.5692 -2.1154 0.9668
-2.1588 2.4310 -0.8418 0.9867
-6.1978 5.8340 -2.2038 0.9654
-6.5814 5.1683 -2.1667 0.9660
-7.1517 3.7851 -2.0951 0.9671
-7.3404 3.0802 -2.0611 0.9676
-7.4668 2.3741 -2.0287 0.9681
-7.5411 0.9776 -1.9689 0.9691
-7.3932 -0.3701 -1.9166 0.9699
-7.0436 -1.6414 -1.8726 0.9706
-6.7998 -2.2414 -1.8538 0.9709
-6.1868 -3.3585 -1.8227 0.9713
-4.0376 -5.5829 -1.7839 0.9719
-2.9799 -6.2131 -1.7841 0.9719
-2.4176 -6.4671 -1.7876 0.9719
-1.8359 -6.6785 -1.7933 0.9718
0.0008 -7.0444 -1.8239 0.9713
1.2762 -7.0514 -1.8554 0.9708
1.9206 -6.9800 -1.8744 0.9705
3.2064 -6.6814 -1.9188 0.9698
3.8406 -6.4522 -1.9441 0.9695
4.4635 -6.1687 -1.9714 0.9690
5.6575 -5.4367 -2.0315 0.9681
6.7373 -4.4776 -2.0945 0.9671
2.2845 -0.9865 -0.6443 0.9898
8.1032 -1.1357 -2.1186 0.9668
8.3074 -0.4139 -2.1536 0.9662
8.4443 0.3353 -2.1881 0.9657
7.6959 2.4489 -2.0911 0.9672
6.2428 3.3059 -1.8290 0.9712
5.6367 3.6646 -1.7408 0.9726
5.0816 3.9924 -1.6732 0.9737
4.6417 4.3713 -1.6509 0.9740
1.9172 3.8938 -1.1238 0.9822
-0.4941 6.2211 -1.6158 0.9745
-1.4841 8.7126 -2.2883 0.9641
-2.2269 8.4327 -2.2582 0.9646
-3.5853 7.6730 -2.1929 0.9656
-2.1342 2.5057 -0.8522 0.9865
-7.4430 2.5369 -2.0360 0.9680
-7.5229 1.8333 -2.0048 0.9685
-7.5442 1.1369 -1.9754 0.9690
-3.7591 6.5696 -2.1427 0.9690
-4.7245 5.6246 -2.0795 0.9699
-5.1285 5.1007 -2.0477 0.9704
-5.9032 4.9041 -2.1726 0.9686
-6.2206 4.2901 -2.1392 0.9691
-6.6787 3.0212 -2.0751 0.9700
-6.8210 2.3773 -2.0449 0.9704
-6.9072 1.7335 -2.0160 0.9708
-6.9391 1.0944 -1.9887 0.9712
-6.9188 0.4640 -1.9631 0.9716
-6.7296 -0.7567 -1.9171 0.9722
-6.5654 -1.3407 -1.8970 0.9725
-5.4984 -3.4418 -1.8364 0.9734
-5.1408 -3.8979 -1.8264 0.9735
-4.7512 -4.3228 -1.8184 0.9736
-3.8855 -5.0726 -1.8089 0.9738
-3.4137 -5.3947 -1.8073 0.9738
-2.9189 -5.6797 -1.8078 0.9738
-0.7540 -6.4233 -1.8309 0.9735
-0.1782 -6.5038 -1.8419 0.9733
0.4065 -6.5398 -1.8550 0.9731
1.5911 -6.4737 -1.8872 0.9727
2.1851 -6.3696 -1.9063 0.9724
3.3596 -6.0147 -1.9503 0.9718
3.9328 -5.7626 -1.9751 0.9714
5.0307 -5.1079 -2.0296 0.9706
5.5466 -4.7055 -2.0591 0.9702
6.0310 -4.2519 -2.0890 0.9698
6.0207 -3.4842 -1.9692 0.9715
6.4059 -2.9779 -1.9998 0.9711
6.7503 -2.4311 -2.0311 0.9706
7.0488 -1.8466 -2.0628 0.9702
7.4886 -0.5799 -2.1263 0.9693
7.6207 0.0928 -2.1575 0.9688
7.6887 0.7842 -2.1879 0.9684
7.6891 1.4876 -2.2171 0.9680
5.2412 3.8895 -1.8477 0.9732
4.7947 4.2727 -1.8181 0.9737
2.3355 5.5928 -1.7158 0.9751
1.0010 3.1672 -0.9403 0.9863
0.8268 6.4660 -1.8454 0.9733
0.2564 6.7945 -1.9249 0.9721
-1.1257 7.9189 -2.2643 0.9673
-3.6347 6.6681 -2.1499 0.9689
-5.8215 5.0430 -2.1804 0.9685
-6.1526 4.4334 -2.1468 0.9690
-6.8922 1.8818 -2.0225 0.9707
-6.9280 0.6086 -1.9688 0.9715
-6.8688 -0.0127 -1.9445 0.9718
-6.7611 -0.6191 -1.9220 0.9722
-6.6073 -1.2076 -1.9015 0.9725
-6.1702 -2.3204 -1.8662 0.9730
-3.9909 -4.9932 -1.8096 0.9738
-1.9938 -6.0891 -1.8138 0.9737
-1.4469 -6.2647 -1.8202 0.9736
-0.8854 -6.3985 -1.8286 0.9735
3.8016 -5.8252 -1.9692 0.9715
5.4298 -4.8028 -2.0522 0.9703
5.9265 -3.5950 -1.9623 0.9716
6.3204 -3.0985 -1.9927 0.9712
4.8326 4.1306 -1.7997 0.9739
3.8458 4.7110 -1.7216 0.9750
1.9678 5.8063 -1.7355 0.9748
0.9522 6.3938 -1.8300 0.9735
-0.1935 6.2214 -1.7621 0.9745
-1.6528 7.7537 -2.2443 0.9676
-2.3102 7.4817 -2.2167 0.9680
-2.9302 7.1499 -2.1875 0.9684
-4.0389 6.3307 -2.1259 0.9693
-5.7311 5.1757 -2.1861 0.9684
-6.0814 4.5759 -2.1545 0.9689
-6.3670 3.9528 -2.1216 0.9693
-6.8742 2.0304 -2.0292 0.9706
-6.9310 1.3886 -2.0011 0.9710
-6.9345 0.7537 -1.9747 0.9714
-6.8869 0.1295 -1.9500 0.9718
-6.7902 -0.4806 -1.9271 0.9721
-6.6468 -1.0735 -1.9060 0.9724
-5.9593 -2.7224 -1.8547 0.9731
-5.3100 -3.6912 -1.8307 0.9735
-4.0950 -4.9119 -1.8103 0.9738
-3.6345 -5.2506 -1.8078 0.9738
-2.6437 -5.8173 -1.8089 0.9738
-1.5745 -6.2279 -1.8185 0.9736
0.7239 -6.5404 -1.8628 0.9730
1.3167 -6.5056 -1.8790 0.9728
2.5037 -6.2934 -1.9174 0.9722
5.3117 -4.8974 -2.0453 0.9704
5.8128 -4.4685 -2.0756 0.9700
6.2619 -3.9777 -2.1001 0.9696
2.3013 -0.9378 -0.7035 0.9897
6.9170 -2.1209 -2.0481 0.9704
7.6975 1.1618 -2.2038 0.9682
7.6604 1.8687 -2.2322 0.9678
6.7456 2.9978 -2.0897 0.9698
6.0894 3.3875 -1.9726 0.9714
5.4976 3.7379 -1.8820 0.9727
4.9530 4.0596 -1.8130 0.9737
3.9558 4.6465 -1.7275 0.9750
3.0184 5.1950 -1.7009 0.9753
1.8477 3.9566 -1.2362 0.9820
2.0791 5.7417 -1.7287 0.9749
0.7832 2.9687 -0.8692 0.9873
1.0755 6.3226 -1.8156 0.9737
-0.6344 6.3290 -1.8007 0.9739
-2.7907 7.2315 -2.1943 0.9683
-3.3786 6.8576 -2.1642 0.9687
-3.9206 6.4347 -2.1331 0.9692
-4.4135 5.9689 -2.1015 0.9696
-6.9227 1.5363 -2.0075 0.9710
-6.5061 -1.5161 -1.8912 0.9726
-6.2857 -2.0719 -1.8736 0.9729
-6.0250 -2.6034 -1.8580 0.9731
-5.0243 -4.0320 -1.8237 0.9736
-4.6254 -4.4470 -1.8164 0.9737
-3.2639 -5.4864 -1.8072 0.9738
-2.7624 -5.7597 -1.8084 0.9738
-1.7013 -6.1888 -1.8170 0.9737
-1.1463 -6.3420 -1.8245 0.9736
-0.5781 -6.4527 -1.8340 0.9734
4.1063 -5.6750 -1.9830 0.9713
5.1921 -4.9894 -2.0385 0.9705
2.2825 -0.9856 -0.7038 0.9897
6.8472 -2.2552 -2.0408 0.9705
7.3617 -1.0317 -2.1044 0.9696
7.6486 0.3037 -2.1670 0.9687
7.6752 1.7052 -2.2258 0.9678
7.5833 2.4131 -2.2529 0.9675
6.9086 2.9009 -2.1212 0.9693
6.2344 3.3014 -1.9971 0.9711
5.6294 3.6599 -1.9008 0.9725
5.0753 3.9875 -1.8272 0.9735
4.6361 4.3660 -1.8028 0.9739
4.1362 4.6600 -1.7639 0.9744
1.8998 3.8583 -1.2175 0.9823
0.0705 6.9014 -1.9538 0.9717
-1.3385 7.8577 -2.2565 0.9674
-2.0110 7.6151 -2.2297 0.9678
-3.2468 6.9485 -2.1712 0.9686
-3.7998 6.5364 -2.1403 0.9691
-4.3043 6.0799 -2.1088 0.9695
-2.1366 2.5084 -0.9328 0.9864
-5.1573 5.0594 -2.0452 0.9704
-5.9296 4.8577 -2.1700 0.9686
-6.6916 2.9720 -2.0728 0.9700
-6.9115 1.6843 -2.0139 0.9709
-4.3281 5.1526 -2.0698 0.9722
-4.7042 4.6788 -2.0407 0.9726
-5.4152 4.4987 -2.1654 0.9710
-6.1565 2.7850 -2.0784 0.9721
-6.4049 0.4295 -1.9744 0.9735
-6.3453 -0.1428 -1.9522 0.9738
-6.2406 -0.7017 -1.9316 0.9741
-5.9044 -1.7677 -1.8957 0.9745
-4.7837 -3.6272 -1.8465 0.9752
-4.4225 -4.0238 -1.8390 0.9753
-4.0333 -4.3897 -1.8336 0.9754
-1.7399 -5.7097 -1.8359 0.9753
-1.2271 -5.8628 -1.8423 0.9752
-0.1657 -6.0485 -1.8611 0.9750
0.3778 -6.0789 -1.8734 0.9748
1.4772 -6.0101 -1.9036 0.9744
3.6390 -5.3322 -1.9856 0.9733
4.1516 -5.0475 -2.0102 0.9730
4.6454 -4.7166 -2.0362 0.9727
5.5541 -3.9157 -2.0902 0.9720
5.5402 -3.2061 -1.9688 0.9736
6.4617 -1.6928 -2.0546 0.9724
6.6802 -1.1244 -2.0836 0.9720
6.8473 -0.5303 -2.1124 0.9717
6.9338 1.9981 -2.2195 0.9703
6.7975 2.6368 -2.2426 0.9699
6.4243 3.1789 -2.2047 0.9704
5.8016 3.5487 -2.0918 0.9719
4.7081 4.1955 -1.9396 0.9740
2.0166 3.8263 -1.3304 0.9821
0.6997 3.1787 -1.0011 0.9865
0.8258 6.4578 -2.0025 0.9731
0.2561 6.7855 -2.0886 0.9720
-0.3186 6.1512 -1.8945 0.9746
-1.6454 7.0059 -2.2135 0.9703
-2.7987 6.4463 -2.1615 0.9710
-3.7999 5.6933 -2.1054 0.9718
-4.6217 4.7906 -2.0474 0.9725
-5.6563 4.0758 -2.1444 0.9712
-5.9136 3.5042 -2.1142 0.9716
-6.3659 1.7382 -2.0297 0.9728
-6.4136 1.1477 -2.0040 0.9731
-6.4120 0.5632 -1.9798 0.9734
-6.3631 -0.0118 -1.9572 0.9737
-6.2687 -0.5740 -1.9362 0.9740
-6.1308 -1.1206 -1.9169 0.9743
-5.7329 -2.1560 -1.8839 0.9747
-4.8628 -3.5315 -1.8485 0.9752
-4.1255 -4.3080 -1.8346 0.9753
-3.2823 -4.9574 -1.8287 0.9754
-2.8263 -5.2309 -1.8287 0.9754
-0.2902 -6.0355 -1.8585 0.9750
0.2518 -6.0757 -1.8704 0.9749
1.3500 -6.0271 -1.8997 0.9745
1.9004 -5.9365 -1.9172 0.9743
2.4475 -5.8007 -1.9365 0.9740
2.9881 -5.6191 -1.9575 0.9737
6.4044 -1.8199 -2.0478 0.9725
6.8135 -0.6695 -2.1058 0.9718
7.0059 0.5686 -2.1619 0.9710
7.0125 1.2070 -2.1886 0.9707
6.8348 2.4901 -2.2374 0.9700
5.9398 3.4668 -2.1154 0.9716
4.8266 4.1255 -1.9530 0.9738
2.9078 5.2514 -1.8463 0.9752
0.7221 2.9855 -0.9448 0.9872
0.3920 6.7075 -2.0666 0.9723
-0.1935 6.2213 -1.9145 0.9743
-4.1383 5.3614 -2.0832 0.9721
-2.2166 2.3946 -1.0036 0.9864
-5.5893 4.2055 -2.1514 0.9712
-6.0749 3.0563 -2.0916 0.9719
-6.4070 1.2836 -2.0098 0.9730
-6.4167 0.6974 -1.9853 0.9734
-6.1664 -0.9959 -1.9212 0.9742
-5.7867 -2.0409 -1.8873 0.9746
-5.5394 -2.5306 -1.8732 0.9748
-4.9403 -3.4342 -1.8506 0.9751
-4.5929 -3.8444 -1.8422 0.9752
-3.8128 -4.5734 -1.8314 0.9754
-3.3845 -4.8893 -1.8290 0.9754
-0.9456 -5.9288 -1.8466 0.9752
0.6727 -6.0776 -1.8808 0.9747
1.2228 -6.0417 -1.8960 0.9745
2.8641 -5.6651 -1.9525 0.9738
4.4201 -4.8751 -2.0240 0.9728
5.3583 -4.1190 -2.0788 0.9721
5.7316 -2.9581 -1.9839 0.9734
6.6972 2.9763 -2.2542 0.9698
6.0811 3.3829 -2.1403 0.9713
4.9469 4.0546 -1.9673 0.9736
4.4373 4.3551 -1.9123 0.9743
3.0149 5.1890 -1.8459 0.9752
1.8381 3.9362 -1.3362 0.9820
2.0766 5.7349 -1.8760 0.9748
-0.6332 6.3169 -1.9527 0.9738
-1.9688 6.8766 -2.2001 0.9705
-2.5448 6.5942 -2.1740 0.9709
-3.0845 6.2609 -2.1467 0.9712
-4.0396 5.4632 -2.0898 0.9720
-4.8101 4.5278 -2.0318 0.9727
-5.8015 3.7699 -2.1281 0.9715
-6.4187 0.8321 -1.9908 0.9733
-6.3915 0.2523 -1.9674 0.9736
-6.1997 -0.8704 -1.9256 0.9741
-5.3249 -2.8906 -1.8636 0.9750
-5.0161 -3.3354 -1.8528 0.9751
-3.4854 -4.8194 -1.8294 0.9754
-3.0394 -5.1090 -1.8285 0.9754
-2.5723 -5.3633 -1.8296 0.9754
-2.0863 -5.5810 -1.8326 0.9754
-1.0667 -5.9019 -1.8447 0.9752
-0.5378 -6.0028 -1.8537 0.9751
0.5461 -6.0797 -1.8775 0.9748
1.0957 -6.0539 -1.8923 0.9746
2.1956 -5.8690 -1.9274 0.9741
3.2751 -5.5022 -1.9695 0.9736
3.7984 -5.2496 -1.9930 0.9732
4.3057 -4.9506 -2.0180 0.9729
5.2554 -4.2155 -2.0722 0.9722
5.6508 -3.0658 -1.9774 0.9735
2.2805 -0.9848 -0.7640 0.9897
6.5341 -1.5210 -2.0635 0.9723
6.7372 -0.9442 -2.0925 0.9719
7.0171 0.9113 -2.1764 0.9708
6.9900 1.5529 -2.2024 0.9705
6.8988 2.1953 -2.2268 0.9702
6.7425 2.8312 -2.2493 0.9699
6.2258 3.2969 -2.1669 0.9709
5.0689 3.9825 -1.9827 0.9734
4.5524 4.2872 -1.9234 0.9742
3.5875 4.8542 -1.8565 0.9751
3.1219 5.1265 -1.8462 0.9752
2.1869 5.6709 -1.8694 0.9749
0.8887 3.1069 -0.9939 0.9866
1.1954 6.2447 -1.9556 0.9737
0.6556 6.5558 -2.0265 0.9728
-1.8312 6.9341 -2.2059 0.9704
-2.4148 6.6641 -2.1801 0.9708
-2.1389 2.5112 -1.0146 0.9863
-5.7412 3.9016 -2.1350 0.9714
-6.1690 2.7398 -2.0762 0.9721
-6.3033 2.1485 -2.0483 0.9725
-3.5943 5.1516 -2.0880 0.9739
-4.6470 3.8606 -2.0082 0.9749
-5.7043 2.5804 -2.0811 0.9740
-5.8382 2.0348 -2.0552 0.9743
-5.9630 0.9405 -2.0066 0.9749
-5.9563 0.3995 -1.9844 0.9752
-5.6787 -1.1596 -1.9266 0.9759
-5.5063 -1.6485 -1.9106 0.9761
-5.2971 -2.1180 -1.8963 0.9762
-5.0532 -2.5657 -1.8838 0.9764
-4.1326 -3.7600 -1.8572 0.9767
-3.3819 -4.4152 -1.8487 0.9768
-2.0915 -5.1577 -1.8501 0.9768
-1.6260 -5.3361 -1.8543 0.9768
-1.1465 -5.4779 -1.8603 0.9767
-0.1547 -5.6476 -1.8780 0.9765
0.3526 -5.6735 -1.8896 0.9763
1.3772 -5.6033 -1.9180 0.9760
3.3828 -4.9568 -1.9948 0.9750
3.8560 -4.6880 -2.0177 0.9747
5.1418 -3.6250 -2.0912 0.9738
5.1254 -2.9661 -1.9684 0.9753
5.9585 -1.5610 -2.0475 0.9744
6.3965 0.0779 -2.1264 0.9734
6.4391 0.6567 -2.1515 0.9731
6.4255 1.2431 -2.1755 0.9728
6.0345 2.9860 -2.2380 0.9720
5.7867 3.5396 -2.2548 0.9718
3.7276 4.7638 -2.0107 0.9748
2.0375 3.8659 -1.4526 0.9817
0.6967 3.1652 -1.0773 0.9864
0.2554 6.7669 -2.2509 0.9719
-2.0541 6.1956 -2.1697 0.9729
-2.5704 5.9203 -2.1454 0.9732
-3.0526 5.6001 -2.1201 0.9735
-4.2630 4.4187 -2.0409 0.9745
-4.5802 3.9677 -2.0143 0.9748
-5.2286 3.7676 -2.1422 0.9732
-5.4723 3.2427 -2.1144 0.9735
-5.9085 1.6133 -2.0359 0.9745
-5.9581 1.0662 -2.0120 0.9748
-5.9618 0.5237 -1.9894 0.9751
-5.9211 -0.0110 -1.9682 0.9754
-5.7131 -1.0442 -1.9305 0.9758
-5.3486 -2.0115 -1.8995 0.9762
-5.1125 -2.4644 -1.8866 0.9764
-4.5425 -3.2989 -1.8661 0.9766
1.2588 -5.6199 -1.9144 0.9760
1.7709 -5.5319 -1.9308 0.9758
2.2792 -5.4017 -1.9488 0.9756
2.7805 -5.2287 -1.9685 0.9753
3.2714 -5.0127 -1.9897 0.9751
3.7483 -4.7538 -2.0123 0.9748
4.2075 -4.4523 -2.0363 0.9745
4.6452 -4.1087 -2.0614 0.9742
5.0560 -3.7232 -2.0872 0.9739
5.0478 -3.0621 -1.9625 0.9754
5.3711 -2.6330 -1.9884 0.9751
5.6588 -2.1710 -2.0147 0.9748
5.9072 -1.6786 -2.0413 0.9744
6.1124 -1.1591 -2.0680 0.9741
6.4341 0.5222 -2.1458 0.9732
6.4337 1.1074 -2.1700 0.9729
6.3758 1.6955 -2.1930 0.9726
5.8490 3.4138 -2.2512 0.9719
4.1911 4.2870 -1.9929 0.9750
3.8366 4.6998 -2.0167 0.9748
3.3680 4.9744 -1.9969 0.9750
2.9044 5.2452 -1.9930 0.9750
1.9631 5.7923 -2.0330 0.9745
0.9498 6.3776 -2.1433 0.9732
-1.3784 6.4664 -2.1978 0.9725
-1.9306 6.2523 -2.1751 0.9728
-2.4541 5.9880 -2.1511 0.9731
-4.5110 4.0738 -2.0204 0.9747
-5.4204 3.3651 -2.1208 0.9735
-5.9508 1.1922 -2.0174 0.9747
-5.9650 0.6483 -1.9945 0.9750
-5.8605 -0.4148 -1.9530 0.9755
-5.7453 -0.9279 -1.9345 0.9758
-5.5906 -1.4251 -1.9178 0.9760
-5.1700 -2.3618 -1.8894 0.9763
-4.9081 -2.7971 -1.8778 0.9765
-4.2913 -3.5920 -1.8602 0.9767
-3.9404 -3.9482 -1.8542 0.9768
-3.1638 -4.5704 -1.8477 0.9768
-2.7421 -4.8337 -1.8473 0.9768
-2.3011 -5.0634 -1.8488 0.9768
-0.8834 -5.5387 -1.8644 0.9766
-0.3868 -5.6222 -1.8733 0.9765
0.1177 -5.6665 -1.8840 0.9764
2.1624 -5.4355 -1.9445 0.9756
3.6396 -4.8174 -2.0070 0.9749
4.1033 -4.5257 -2.0306 0.9746
4.5463 -4.1917 -2.0555 0.9743
4.9646 -3.8164 -2.0815 0.9739
5.8536 -1.7948 -2.0352 0.9745
6.3586 -0.1853 -2.1145 0.9735
6.4263 0.3882 -2.1400 0.9732
6.4388 0.9718 -2.1645 0.9729
6.3943 1.5598 -2.1878 0.9726
6.2913 2.1460 -2.2096 0.9724
5.9083 3.2867 -2.2474 0.9719
4.9406 4.0494 -2.1234 0.9734
4.2752 4.1960 -1.9912 0.9751
3.9463 4.6354 -2.0236 0.9747
3.0113 5.1828 -1.9925 0.9750
1.8292 3.9172 -1.4371 0.9819
1.0728 6.3067 -2.1265 0.9734
-1.8055 6.3064 -2.1805 0.9727
-2.3360 6.0533 -2.1568 0.9730
-2.8344 5.7532 -2.1319 0.9733
-3.7201 5.0311 -2.0799 0.9740
-2.1573 2.4293 -1.0800 0.9864
-4.4394 4.1788 -2.0266 0.9746
-5.3659 3.4868 -2.1272 0.9734
-5.5829 2.9548 -2.0997 0.9737
-5.7507 2.4131 -2.0730 0.9741
-5.7755 -0.8108 -1.9386 0.9757
-5.2257 -2.2580 -1.8923 0.9763
-4.3685 -3.5057 -1.8619 0.9767
-2.4045 -5.0134 -1.8483 0.9768
-1.9500 -5.2164 -1.8512 0.9768
0.0007 -5.6598 -1.8814 0.9764
1.0219 -5.6463 -1.9074 0.9761
1.5348 -5.5778 -1.9230 0.9759
3.0463 -5.1178 -1.9797 0.9752
3.5301 -4.8787 -2.0017 0.9749
3.9979 -4.5968 -2.0251 0.9746
5.2531 -3.4912 -2.0966 0.9738
6.0233 -1.4021 -2.0557 0.9743
6.2037 -0.8694 -2.0823 0.9739
6.3355 -0.3156 -2.1086 0.9736
6.4098 1.4240 -2.1826 0.9727
6.1719 2.5916 -2.2251 0.9722
5.6146 3.6503 -2.2261 0.9722
4.3569 4.1031 -1.9894 0.9751
3.9866 4.4914 -1.9963 0.9750
3.5832 4.8484 -2.0040 0.9749
0.8836 3.0889 -1.0679 0.9865
0.6548 6.5473 -2.1872 0.9726
-1.1152 6.5472 -2.2077 0.9724
-2.7225 5.8264 -2.1377 0.9733
-3.1935 5.4934 -2.1122 0.9736
-2.1463 2.5198 -1.1003 0.9861
-4.3653 4.2825 -2.0327 0.9746
-4.6687 3.8247 -2.0062 0.9749
-5.5372 3.0786 -2.1060 0.9736
-5.7163 2.5388 -2.0791 0.9740
-5.9287 1.4448 -2.0284 0.9746
-5.9641 0.8988 -2.0049 0.9749
-2.9203 5.1038 -2.1028 0.9753
-4.0241 4.0023 -2.0296 0.9762
-4.9110 3.3869 -2.1334 0.9750
-5.1337 2.9006 -2.1086 0.9753
-5.3085 2.4014 -2.0836 0.9756
-5.4378 1.8952 -2.0593 0.9758
-5.5224 1.3860 -2.0361 0.9761
-5.5174 -0.1242 -1.9736 0.9768
-5.3120 -1.0847 -1.9388 0.9772
-5.1535 -1.5429 -1.9238 0.9774
-4.1891 -3.1764 -1.8800 0.9779
-3.5351 -3.8475 -1.8685 0.9780
-1.9615 -4.8371 -1.8666 0.9781
-1.5247 -5.0037 -1.8706 0.9780
-0.6142 -5.2319 -1.8838 0.9779
0.3303 -5.3138 -1.9039 0.9776
1.2886 -5.2430 -1.9307 0.9773
1.7663 -5.1487 -1.9465 0.9771
2.2390 -5.0146 -1.9639 0.9769
2.7037 -4.8404 -1.9827 0.9767
3.5960 -4.3720 -2.0244 0.9762
4.4156 -3.7461 -2.0708 0.9757
4.7815 -3.3710 -2.0921 0.9755
4.7634 -2.7566 -1.9681 0.9769
5.3059 -1.9109 -2.0167 0.9763
5.6970 -0.9589 -2.0660 0.9758
5.8277 -0.4513 -2.0903 0.9755
5.9452 0.6064 -2.1371 0.9749
5.8571 1.6878 -2.1798 0.9744
5.7327 2.2237 -2.1989 0.9742
5.0404 3.7405 -2.2446 0.9737
3.9688 4.2309 -2.0745 0.9757
3.2313 4.9915 -2.1264 0.9751
2.0103 3.8143 -1.5419 0.9819
2.3272 5.5728 -2.1596 0.9747
0.6617 3.0062 -1.1008 0.9870
0.7951 6.2177 -2.2416 0.9737
0.2349 6.2258 -2.2280 0.9739
-0.3179 6.1390 -2.1983 0.9742
-1.3905 5.9205 -2.1748 0.9745
-2.3738 5.4674 -2.1315 0.9750
-3.2357 4.8479 -2.0843 0.9755
-3.6131 4.4863 -2.0599 0.9758
-3.9516 4.0960 -2.0353 0.9761
-4.2497 3.6815 -2.0107 0.9764
-4.8494 3.4944 -2.1375 0.9749
-5.0869 3.0144 -2.1145 0.9752
-5.2722 2.5174 -2.0893 0.9755
-5.4120 2.0125 -2.0648 0.9758
-5.5068 1.5036 -2.0414 0.9760
-5.5652 0.4888 -1.9978 0.9765
-5.4566 -0.4997 -1.9595 0.9770
-5.3435 -0.9767 -1.9425 0.9772
-5.1933 -1.4387 -1.9271 0.9774
-4.7888 -2.3084 -1.9011 0.9777
-4.5382 -2.7119 -1.8906 0.9778
-4.2579 -3.0921 -1.8818 0.9779
-3.2577 -4.0758 -1.8659 0.9781
-2.8778 -4.3465 -1.8641 0.9781
-2.0603 -4.7939 -1.8659 0.9781
-1.6268 -4.9682 -1.8695 0.9780
0.6983 -5.3050 -1.9135 0.9775
1.1780 -5.2592 -1.9273 0.9774
3.0537 -4.6792 -1.9981 0.9765
3.4962 -4.4342 -2.0193 0.9763
4.3257 -3.8262 -2.0652 0.9758
4.6923 -2.8464 -1.9626 0.9770
5.2504 -2.0143 -2.0110 0.9764
5.4757 -1.5560 -2.0357 0.9761
5.6604 -1.0734 -2.0603 0.9758
5.8963 -0.0500 -2.1086 0.9753
5.9364 1.0218 -2.1541 0.9747
5.8781 1.5632 -2.1751 0.9745
5.6005 2.6287 -2.2124 0.9741
5.3813 3.1408 -2.2282 0.9739
4.5492 3.8884 -2.1401 0.9749
4.0751 4.1683 -2.0846 0.9755
3.8320 4.6941 -2.1669 0.9746
2.9009 5.2389 -2.1415 0.9749
2.4356 5.5098 -2.1543 0.9747
1.9607 5.7853 -2.1844 0.9744
0.9245 6.2077 -2.2444 0.9737
0.3640 6.2290 -2.2313 0.9738
-0.1926 6.1937 -2.2160 0.9740
-0.7394 6.1036 -2.1986 0.9742
-1.7810 5.7680 -2.1588 0.9747
-2.2659 5.5288 -2.1368 0.9749
-2.7212 5.2471 -2.1137 0.9752
-2.2112 2.3887 -1.1640 0.9863
-4.1846 3.7791 -2.0164 0.9763
-5.2335 2.6330 -2.0950 0.9754
-5.5672 0.6051 -2.0026 0.9765
-5.5426 0.1042 -1.9824 0.9767
-5.4773 -0.3877 -1.9636 0.9769
-5.2312 -1.3335 -1.9305 0.9773
-5.0536 -1.7823 -1.9163 0.9775
-4.8422 -2.2121 -1.9038 0.9776
-4.0232 -3.3676 -1.8762 0.9780
-3.6950 -3.7022 -1.8705 0.9780
-3.3423 -4.0091 -1.8666 0.9781
-2.9673 -4.2867 -1.8644 0.9781
-1.2840 -5.0790 -1.8734 0.9780
0.1103 -5.3082 -1.8987 0.9777
0.5877 -5.3100 -1.9105 0.9776
1.5462 -5.1972 -1.9391 0.9772
2.0215 -5.0815 -1.9557 0.9770
2.9494 -4.7301 -1.9934 0.9766
3.3955 -4.4942 -2.0143 0.9764
4.6196 -2.9345 -1.9571 0.9770
4.9227 -2.5406 -1.9810 0.9767
5.4272 -1.6641 -2.0300 0.9762
5.6216 -1.1868 -2.0546 0.9759
5.7731 -0.6879 -2.0791 0.9756
5.9423 0.8969 -2.1491 0.9748
5.6435 2.5080 -2.2085 0.9741
5.4366 3.0243 -2.2247 0.9739
3.9415 4.6297 -2.1744 0.9745
1.8591 3.9811 -1.5712 0.9815
1.0537 6.1947 -2.2471 0.9737
0.4933 6.2291 -2.2346 0.9738
-0.0648 6.2068 -2.2197 0.9740
-0.6144 6.1291 -2.2028 0.9742
-1.1496 5.9982 -2.1840 0.9744
-3.0489 5.0040 -2.0955 0.9754
-3.4436 4.6571 -2.0712 0.9757
-2.1568 2.4288 -1.1616 0.9863
-4.1172 3.8756 -2.0220 0.9763
-4.9860 3.2399 -2.1264 0.9751
-5.3531 2.2463 -2.0760 0.9756
-5.5395 1.2293 -2.0292 0.9762
-5.5669 0.7217 -2.0074 0.9764
-5.4959 -0.2751 -1.9678 0.9769
-5.4004 -0.7582 -1.9502 0.9771
