ply
format ascii 1.0
element vertex 1595
property float32 x
property float32 y
property float32 z
property float32 I
end_header
-1.7587 -8.2920 -1.9922 0.9658
-1.0127 -8.4182 -1.9927 0.9658
-0.2581 -8.4778 -1.9934 0.9657
0.4989 -8.4700 -1.9941 0.9657
1.9970 -8.2533 -1.9957 0.9657
2.7261 -8.0459 -1.9966 0.9657
4.7650 -7.0476 -1.9994 0.9656
5.3770 -6.5979 -2.0004 0.9656
5.9469 -6.0953 -2.0014 0.9656
6.4699 -5.5435 -2.0024 0.9656
7.3589 -4.3105 -2.0044 0.9656
7.7176 -3.6390 -2.0053 0.9655
8.0151 -2.9378 -2.0063 0.9655
8.5176 -0.7128 -2.0088 0.9655
8.5148 0.8120 -2.0103 0.9655
6.9162 5.0507 -2.0128 0.9654
6.4387 5.6475 -2.0129 0.9654
3.7489 6.9670 -1.8594 0.9680
3.1122 7.2723 -1.8591 0.9680
1.7703 7.7060 -1.8583 0.9680
1.0759 7.8309 -1.8577 0.9680
0.3733 7.8931 -1.8571 0.9681
-0.3319 7.8922 -1.8565 0.9681
-1.0338 7.8282 -1.8558 0.9681
-1.7270 7.7016 -1.8550 0.9681
-2.4057 7.5137 -1.8542 0.9681
-3.6986 6.9605 -1.8525 0.9681
-3.5402 5.4306 -1.5236 0.9737
-4.8713 6.1869 -1.8507 0.9682
-5.4008 5.7250 -1.8497 0.9682
-5.8868 5.2181 -1.8488 0.9682
-6.3254 4.6701 -1.8479 0.9682
-8.1655 2.3379 -1.9962 0.9657
-8.3379 1.5999 -1.9953 0.9657
-8.4439 0.8497 -1.9945 0.9657
-8.4829 0.0935 -1.9938 0.9657
-8.4545 -0.6630 -1.9931 0.9658
-7.9711 -2.8745 -1.9915 0.9658
-6.9230 -4.8793 -1.9906 0.9658
-6.4600 -5.4768 -1.9904 0.9658
-5.3845 -6.5371 -1.9904 0.9658
-3.4637 -7.7316 -1.9911 0.9658
-2.7611 -8.0112 -1.9915 0.9658
0.2139 -8.4808 -1.9938 0.9657
0.9696 -8.4311 -1.9946 0.9657
1.7181 -8.3145 -1.9954 0.9657
2.4537 -8.1316 -1.9962 0.9657
3.1704 -7.8840 -1.9971 0.9657
4.5245 -7.2024 -1.9990 0.9657
7.5896 -3.8957 -2.0050 0.9656
8.3613 -1.7506 -2.0077 0.9655
8.5461 -0.2379 -2.0093 0.9655
8.5363 0.5252 -2.0100 0.9655
8.4581 1.2847 -2.0106 0.9655
7.8223 3.4798 -2.0121 0.9654
6.6248 5.4278 -2.0128 0.9654
5.5555 6.5183 -2.0129 0.9654
4.9358 6.9645 -2.0062 0.9655
3.9811 6.8374 -1.8595 0.9680
3.3551 7.1641 -1.8592 0.9680
1.3386 7.7912 -1.8579 0.9680
0.6384 7.8771 -1.8574 0.9680
-0.0664 7.9000 -1.8567 0.9681
-0.7702 7.8597 -1.8560 0.9681
-1.4674 7.7566 -1.8553 0.9681
-2.1522 7.5916 -1.8545 0.9681
-2.8192 7.3662 -1.8537 0.9681
-3.4631 7.0822 -1.8528 0.9681
-4.0788 6.7419 -1.8519 0.9681
-5.7091 5.4140 -1.8492 0.9682
-6.7777 4.4436 -1.9047 0.9672
-7.4983 4.0095 -1.9984 0.9657
-7.8222 3.3234 -1.9974 0.9657
-8.2807 1.8795 -1.9957 0.9657
-8.4118 1.1333 -1.9948 0.9657
-8.4761 0.3786 -1.9941 0.9657
-8.4029 -1.1321 -1.9927 0.9658
-8.2661 -1.8763 -1.9921 0.9658
-8.0639 -2.6052 -1.9916 0.9658
-7.0834 -4.6440 -1.9906 0.9658
-6.1452 -5.8276 -1.9904 0.9658
-5.6011 -6.3523 -1.9904 0.9658
-5.0127 -6.8268 -1.9905 0.9658
-2.3115 -8.1535 -1.9918 0.9658
-1.5757 -8.3293 -1.9923 0.9658
0.6855 -8.4577 -1.9943 0.9657
2.9030 -7.9848 -1.9968 0.9657
3.6051 -7.6977 -1.9977 0.9657
4.2791 -7.3491 -1.9987 0.9657
6.0805 -5.9635 -2.0016 0.9656
7.0500 -4.7935 -2.0036 0.9656
7.7968 -3.4685 -2.0056 0.9655
8.2964 -2.0303 -2.0074 0.9655
7.9343 3.2147 -2.0120 0.9654
7.6174 3.9100 -2.0123 0.9654
7.2394 4.5742 -2.0126 0.9654
6.3127 5.7881 -2.0129 0.9654
3.5943 7.0477 -1.8593 0.9680
2.9511 7.3388 -1.8590 0.9680
2.2845 7.5711 -1.8586 0.9680
1.5999 7.7426 -1.8581 0.9680
0.9030 7.8521 -1.8576 0.9680
-0.5057 7.8822 -1.8563 0.9681
-1.2060 7.8027 -1.8556 0.9681
-2.5704 7.4581 -1.8540 0.9681
-5.0058 6.0773 -1.8504 0.9682
-5.5250 5.6039 -1.8495 0.9682
-5.9996 5.0865 -1.8486 0.9682
-7.9927 2.8822 -1.9969 0.9657
-7.6007 -3.7413 -1.9910 0.9658
-7.2358 -4.4035 -1.9907 0.9658
-6.8137 -5.0306 -1.9905 0.9658
-5.8115 -6.1604 -1.9904 0.9658
-4.6254 -7.0954 -1.9906 0.9658
-3.9748 -7.4805 -1.9909 0.9658
-3.2926 -7.8064 -1.9912 0.9658
-1.1101 -8.4056 -1.9927 0.9658
1.1553 -8.4085 -1.9948 0.9657
1.9011 -8.2755 -1.9956 0.9657
4.0289 -7.4874 -1.9983 0.9657
6.4048 -5.6177 -2.0023 0.9656
7.3080 -4.3952 -2.0043 0.9656
7.9800 -3.0302 -2.0062 0.9655
8.2221 -2.3077 -2.0071 0.9655
8.3987 -1.5661 -2.0079 0.9655
8.5233 0.7133 -2.0102 0.9655
6.9742 4.9702 -2.0127 0.9654
6.5037 5.5726 -2.0129 0.9654
5.9810 6.1304 -2.0129 0.9654
5.4105 6.6390 -2.0128 0.9654
0.4647 7.8886 -1.8572 0.9681
-1.6378 7.7215 -1.8551 0.9681
-3.6179 7.0033 -1.8526 0.9681
-4.2259 6.6496 -1.8517 0.9681
-5.3345 5.7876 -1.8499 0.9682
-5.8263 5.2862 -1.8489 0.9682
-7.1213 4.4476 -1.9733 0.9661
-7.5839 3.8428 -1.9981 0.9657
-8.4620 -0.5651 -1.9932 0.9658
-8.3753 -1.3169 -1.9926 0.9658
-8.0041 -2.7821 -1.9915 0.9658
-7.7226 -3.4840 -1.9911 0.9658
-7.3801 -4.1580 -1.9908 0.9658
-6.0152 -5.9616 -1.9904 0.9658
-4.8611 -6.9357 -1.9906 0.9658
-3.5529 -7.6908 -1.9911 0.9658
-2.8536 -7.9785 -1.9914 0.9658
-0.6409 -8.4560 -1.9931 0.9658
0.8718 -8.4414 -1.9945 0.9657
2.3592 -8.1591 -1.9961 0.9657
3.7743 -7.6173 -1.9979 0.9657
4.4405 -7.2539 -1.9989 0.9657
6.2112 -5.8288 -2.0019 0.9656
6.7095 -5.2544 -2.0029 0.9656
7.5435 -3.9831 -2.0049 0.9656
7.8723 -3.2962 -2.0058 0.9655
8.1385 -2.5823 -2.0067 0.9655
8.3400 -1.8472 -2.0076 0.9655
8.4750 -1.0967 -2.0084 0.9655
8.4721 1.1866 -2.0106 0.9655
8.3350 1.9378 -2.0111 0.9654
7.5297 4.0771 -2.0124 0.9654
6.6872 5.3507 -2.0128 0.9654
5.0203 6.9126 -2.0079 0.9655
4.0601 6.7910 -1.8595 0.9680
3.4380 7.1249 -1.8593 0.9680
2.7885 7.4017 -1.8589 0.9680
0.7297 7.8695 -1.8574 0.9680
-2.7338 7.3988 -1.8538 0.9681
-3.3811 7.1222 -1.8529 0.9681
-3.7512 5.2346 -1.5135 0.9739
-5.6464 5.4801 -1.8493 0.9682
-6.1095 4.9524 -1.8484 0.9682
-6.6064 4.4415 -1.8709 0.9678
-7.4465 4.0934 -1.9971 0.9657
-8.0533 2.7051 -1.9966 0.9657
-8.2588 1.9754 -1.9958 0.9657
-7.8359 -3.2226 -1.9913 0.9658
-7.5161 -3.9078 -1.9909 0.9658
-6.7010 -5.1794 -1.9905 0.9658
-5.6743 -6.2870 -1.9904 0.9658
-5.0914 -6.7682 -1.9905 0.9658
-4.4681 -7.1958 -1.9907 0.9658
-2.4056 -8.1260 -1.9917 0.9658
-1.6720 -8.3102 -1.9922 0.9658
0.5875 -8.4647 -1.9942 0.9657
1.3404 -8.3819 -1.9950 0.9657
2.8102 -8.0174 -1.9967 0.9657
3.5155 -7.7385 -1.9976 0.9657
4.8387 -6.9978 -1.9995 0.9656
6.5279 -5.4759 -2.0025 0.9656
7.4040 -4.2336 -2.0045 0.9656
8.0458 -2.8539 -2.0064 0.9655
8.4321 -1.3807 -2.0081 0.9655
8.5498 0.1390 -2.0097 0.9655
8.2156 2.3988 -2.0115 0.9654
7.2918 4.4900 -2.0126 0.9654
6.3793 5.7146 -2.0129 0.9654
4.2863 6.6509 -1.8596 0.9680
3.6757 7.0057 -1.8594 0.9680
2.3721 7.5443 -1.8587 0.9680
1.6896 7.7238 -1.8582 0.9680
0.2907 7.8963 -1.8571 0.9681
-1.8073 7.6828 -1.8549 0.9681
-3.7709 6.9211 -1.8524 0.9681
-3.5427 5.3121 -1.5007 0.9741
-4.9354 6.1352 -1.8506 0.9682
-7.6658 3.6743 -1.9979 0.9657
-7.9592 2.9748 -1.9970 0.9657
-8.1891 2.2523 -1.9961 0.9657
-8.3538 1.5125 -1.9952 0.9657
-8.4520 0.7614 -1.9944 0.9657
-8.4830 0.0048 -1.9937 0.9657
-8.1744 -2.2384 -1.9919 0.9658
-7.9404 -2.9576 -1.9914 0.9658
-7.6436 -3.6531 -1.9911 0.9658
-7.2864 -4.3195 -1.9908 0.9658
-6.8716 -4.9514 -1.9906 0.9658
-6.4023 -5.5440 -1.9904 0.9658
-5.8824 -6.0927 -1.9904 0.9658
-5.3159 -6.5931 -1.9905 0.9658
-4.7072 -7.0413 -1.9906 0.9658
-4.0611 -7.4338 -1.9908 0.9658
-3.3827 -7.7676 -1.9912 0.9658
7.5802 1.6789 -2.0102 0.9684
7.1645 2.9998 -2.0111 0.9684
6.8696 3.6273 -2.0114 0.9684
6.5195 4.2258 -2.0116 0.9684
5.6660 5.3172 -2.0118 0.9684
5.1693 5.8012 -2.0118 0.9684
4.6295 6.2363 -2.0110 0.9684
3.7478 6.1224 -1.8586 0.9708
2.6001 6.6887 -1.8581 0.9708
1.9930 6.8925 -1.8577 0.9708
1.3701 7.0411 -1.8573 0.9708
0.7367 7.1333 -1.8568 0.9708
0.0977 7.1684 -1.8562 0.9708
-0.5416 7.1462 -1.8556 0.9708
-1.1762 7.0669 -1.8549 0.9708
-2.4108 6.7404 -1.8535 0.9709
-3.6561 5.2164 -1.6493 0.9740
-5.0733 5.0280 -1.8494 0.9709
-5.4989 4.5536 -1.8486 0.9709
-6.7261 3.7895 -1.9989 0.9686
-7.0342 3.1733 -1.9980 0.9686
-7.2861 2.5325 -1.9972 0.9686
-7.7004 -0.1741 -1.9943 0.9687
-7.3738 -2.2040 -1.9927 0.9687
-7.1465 -2.8521 -1.9923 0.9687
-6.5244 -4.0749 -1.9917 0.9687
-5.6962 -5.1682 -1.9914 0.9687
-5.2127 -5.6555 -1.9914 0.9687
-4.1258 -6.4922 -1.9917 0.9687
-3.5309 -6.8350 -1.9919 0.9687
-2.9079 -7.1237 -1.9922 0.9687
-1.5971 -7.5300 -1.9930 0.9687
-0.2344 -7.6983 -1.9941 0.9687
0.4530 -7.6910 -1.9948 0.9687
2.4751 -7.3051 -1.9970 0.9686
3.1178 -7.0582 -1.9979 0.9686
4.3257 -6.3978 -1.9996 0.9686
4.8811 -5.9893 -2.0005 0.9686
5.3981 -5.5328 -2.0014 0.9686
5.8726 -5.0318 -2.0023 0.9686
6.3007 -4.4902 -2.0032 0.9685
6.6789 -3.9122 -2.0041 0.9685
7.2738 -2.6661 -2.0058 0.9685
7.6377 -1.3328 -2.0074 0.9685
7.7290 -0.6468 -2.0082 0.9685
7.7585 0.0449 -2.0088 0.9685
7.4761 2.0983 -2.0105 0.9684
7.2608 2.7571 -2.0109 0.9684
5.8415 5.1237 -2.0118 0.9684
4.8385 6.0796 -2.0118 0.9684
3.4012 6.3209 -1.8585 0.9708
2.8236 6.5980 -1.8582 0.9708
1.6062 6.9917 -1.8574 0.9708
0.3387 7.1619 -1.8564 0.9708
-0.3012 7.1613 -1.8558 0.9708
-0.9381 7.1035 -1.8552 0.9708
-1.5672 6.9889 -1.8545 0.9708
-2.1832 6.8187 -1.8538 0.9709
-4.4214 5.6155 -1.8505 0.9709
-5.9612 4.4012 -1.9185 0.9698
-6.5936 4.0126 -1.9985 0.9686
-7.4138 2.1227 -1.9967 0.9686
-7.6671 0.7716 -1.9952 0.9687
-7.7028 0.0849 -1.9945 0.9687
-7.6773 -0.6021 -1.9939 0.9687
-7.5909 -1.2838 -1.9933 0.9687
-7.4444 -1.9550 -1.9928 0.9687
-7.2388 -2.6104 -1.9924 0.9687
-6.9760 -3.2449 -1.9921 0.9687
-4.8901 -5.9369 -1.9915 0.9687
-4.3416 -6.3496 -1.9916 0.9687
-3.7585 -6.7121 -1.9918 0.9687
-2.5074 -7.2752 -1.9924 0.9687
-1.8492 -7.4714 -1.9929 0.9687
-1.1759 -7.6085 -1.9934 0.9687
-0.4930 -7.6852 -1.9939 0.9687
0.1942 -7.7009 -1.9945 0.9687
0.8804 -7.6555 -1.9952 0.9687
1.5600 -7.5493 -1.9960 0.9686
2.2278 -7.3830 -1.9967 0.9686
2.8784 -7.1579 -1.9975 0.9686
4.1075 -6.5385 -1.9993 0.9686
5.6991 -5.2254 -2.0020 0.9686
6.1451 -4.6986 -2.0029 0.9685
6.5425 -4.1338 -2.0038 0.9685
6.8881 -3.5356 -2.0047 0.9685
7.7018 -0.9061 -2.0079 0.9685
7.6743 1.1656 -2.0098 0.9684
7.5418 1.8457 -2.0103 0.9684
6.4250 4.3685 -2.0117 0.9684
6.0103 4.9243 -2.0118 0.9684
5.0402 5.9136 -2.0118 0.9684
4.4847 6.3280 -2.0082 0.9685
3.6119 6.2033 -1.8586 0.9708
3.0440 6.4998 -1.8583 0.9708
1.8405 6.9344 -1.8576 0.9708
-0.0603 7.1683 -1.8561 0.9708
-1.3315 7.0386 -1.8548 0.9708
-3.1430 6.4275 -1.8525 0.9709
-3.7019 6.1190 -1.8517 0.9709
-5.5973 4.4308 -1.8483 0.9709
-6.4440 4.2248 -1.9951 0.9687
-6.8073 3.6400 -1.9987 0.9686
-7.1017 3.0173 -1.9978 0.9686
-7.5185 1.7066 -1.9962 0.9686
-7.6965 0.3438 -1.9948 0.9687
-7.6305 -1.0280 -1.9935 0.9687
-7.5065 -1.7039 -1.9930 0.9687
-7.3231 -2.3658 -1.9926 0.9687
-7.0816 -3.0087 -1.9922 0.9687
-6.7841 -3.6276 -1.9919 0.9687
-6.4329 -4.2176 -1.9917 0.9687
-5.5809 -5.2925 -1.9914 0.9687
-4.5524 -6.1999 -1.9915 0.9687
-3.9818 -6.5817 -1.9917 0.9687
-3.3796 -6.9114 -1.9920 0.9687
-2.7504 -7.1863 -1.9923 0.9687
-2.0991 -7.4044 -1.9927 0.9687
-0.7510 -7.6634 -1.9937 0.9687
-0.0647 -7.7022 -1.9943 0.9687
0.6225 -7.6798 -1.9950 0.9687
1.9781 -7.4526 -1.9964 0.9686
2.6357 -7.2495 -1.9972 0.9686
3.2730 -6.9885 -1.9981 0.9686
3.8847 -6.6718 -1.9989 0.9686
5.0124 -5.8810 -2.0007 0.9686
5.5193 -5.4131 -2.0016 0.9686
6.3988 -4.3507 -2.0034 0.9685
7.3315 -2.5054 -2.0060 0.9685
7.6660 -1.1643 -2.0076 0.9685
7.7420 -0.4763 -2.0083 0.9685
7.7562 0.2159 -2.0090 0.9684
7.5988 1.5910 -2.0101 0.9684
7.4285 2.2627 -2.0106 0.9684
7.1986 2.9166 -2.0110 0.9684
6.9110 3.5474 -2.0113 0.9684
5.7272 5.2512 -2.0118 0.9684
5.2362 5.7409 -2.0118 0.9684
4.7033 6.1847 -2.0118 0.9684
3.2610 6.3941 -1.8584 0.9708
2.6774 6.6583 -1.8581 0.9708
1.4517 7.0250 -1.8573 0.9708
0.1807 7.1671 -1.8563 0.9708
-0.4589 7.1523 -1.8557 0.9708
-1.7206 6.9520 -1.8543 0.9708
-2.9256 6.5305 -1.8528 0.9709
-3.5560 5.2006 -1.6312 0.9743
-5.0150 5.0867 -1.8495 0.9709
-5.4461 4.6172 -1.8487 0.9709
-6.6822 3.8674 -1.9990 0.9686
-7.4580 1.9586 -1.9965 0.9686
-7.6001 1.2853 -1.9957 0.9687
-7.6816 0.6024 -1.9950 0.9687
-7.7022 -0.0849 -1.9944 0.9687
-7.5603 -1.4507 -1.9932 0.9687
-7.3990 -2.1185 -1.9927 0.9687
-7.1792 -2.7692 -1.9923 0.9687
-3.6098 -6.7935 -1.9919 0.9687
-2.9902 -7.0894 -1.9922 0.9687
-1.6842 -7.5108 -1.9930 0.9687
0.3639 -7.6954 -1.9947 0.9687
1.0490 -7.6350 -1.9954 0.9687
2.3902 -7.3329 -1.9969 0.9686
3.0357 -7.0935 -1.9977 0.9686
4.2510 -6.4471 -1.9995 0.9686
5.8136 -5.0991 -2.0022 0.9686
6.2479 -4.5626 -2.0031 0.9685
6.6328 -3.9891 -2.0040 0.9685
6.9651 -3.3833 -2.0049 0.9685
7.2421 -2.7500 -2.0057 0.9685
7.6214 -1.4211 -2.0073 0.9685
7.7206 -0.7362 -2.0081 0.9685
7.7581 -0.0449 -2.0088 0.9685
7.7336 0.6472 -2.0094 0.9684
7.6473 1.3345 -2.0099 0.9684
6.7035 3.9267 -2.0115 0.9684
6.3273 4.5092 -2.0117 0.9684
5.9004 5.0556 -2.0118 0.9684
4.3382 6.4164 -2.0054 0.9685
1.0584 7.0937 -1.8570 0.9708
0.4216 7.1578 -1.8565 0.9708
-0.2182 7.1646 -1.8559 0.9708
-0.8558 7.1142 -1.8553 0.9708
-2.1042 6.8438 -1.8539 0.9708
-2.7049 6.6262 -1.8531 0.9709
-3.2835 6.3560 -1.8523 0.9709
-4.8421 5.2533 -1.8498 0.9709
-5.2887 4.7985 -1.8490 0.9709
-5.8170 4.3997 -1.8884 0.9703
-6.8851 3.4887 -1.9985 0.9686
-7.1657 2.8597 -1.9976 0.9686
-7.5536 1.5403 -1.9960 0.9686
-7.6580 0.8604 -1.9953 0.9687
-7.7016 0.1741 -1.9946 0.9687
-7.6840 -0.5131 -1.9940 0.9687
-7.4667 -1.8687 -1.9929 0.9687
-7.2688 -2.5265 -1.9925 0.9687
-7.0133 -3.1639 -1.9921 0.9687
-6.7023 -3.7761 -1.9918 0.9687
-6.3383 -4.3582 -1.9916 0.9687
-5.9240 -4.9057 -1.9915 0.9687
-4.9585 -5.8798 -1.9915 0.9687
-3.8359 -6.6680 -1.9918 0.9687
-1.9355 -7.4493 -1.9928 0.9687
-1.2639 -7.5941 -1.9933 0.9687
-0.5820 -7.6786 -1.9938 0.9687
2.7951 -7.1904 -1.9974 0.9686
3.4265 -6.9154 -1.9983 0.9686
4.0312 -6.5853 -1.9992 0.9686
5.6379 -5.2908 -2.0019 0.9686
6.4938 -4.2091 -2.0037 0.9685
7.3857 -2.3435 -2.0062 0.9685
7.5682 -1.6763 -2.0070 0.9685
7.6905 -0.9952 -2.0078 0.9685
7.7501 0.3868 -2.0091 0.9684
7.5624 1.7582 -2.0103 0.9684
7.1329 3.0747 -2.0111 0.9684
6.8314 3.6990 -2.0114 0.9684
3.6835 6.1611 -1.8586 0.9708
3.1191 6.4642 -1.8584 0.9708
2.5300 6.7154 -1.8580 0.9708
1.9208 6.9128 -1.8577 0.9708
0.6621 7.1404 -1.8567 0.9708
0.0228 7.1688 -1.8561 0.9708
-1.8732 6.9117 -1.8541 0.9708
-2.4810 6.7145 -1.8534 0.9709
-4.6635 5.4141 -1.8501 0.9709
-5.5459 4.4956 -1.8485 0.9709
-6.3910 4.2967 -1.9940 0.9687
-7.0666 3.0995 -1.9979 0.9686
-7.4987 1.7936 -1.9963 0.9686
-7.6924 0.4329 -1.9948 0.9687
-7.6978 -0.2546 -1.9942 0.9687
-7.6422 -0.9396 -1.9936 0.9687
-7.5260 -1.6168 -1.9931 0.9687
-7.1161 -2.9266 -1.9922 0.9687
-6.4814 -4.1428 -1.9917 0.9687
-6.0857 -4.7038 -1.9915 0.9687
-5.6419 -5.2275 -1.9914 0.9687
-5.1533 -5.7097 -1.9914 0.9687
-4.6239 -6.1467 -1.9915 0.9687
-3.4593 -6.8716 -1.9919 0.9687
-2.8333 -7.1538 -1.9922 0.9687
-1.5183 -7.5466 -1.9931 0.9687
-0.8397 -7.6539 -1.9936 0.9687
-0.1539 -7.7006 -1.9942 0.9687
1.2171 -7.6107 -1.9956 0.9687
1.8915 -7.4747 -1.9963 0.9686
2.5515 -7.2791 -1.9971 0.9686
3.8070 -6.7160 -1.9988 0.9686
4.3926 -6.3526 -1.9997 0.9686
5.4559 -5.4763 -2.0015 0.9686
5.9252 -4.9704 -2.0024 0.9685
6.7198 -3.8424 -2.0042 0.9685
7.5065 -1.9294 -2.0067 0.9685
7.6516 -1.2529 -2.0075 0.9685
6.9515 3.4671 -2.0113 0.9684
5.7876 5.1845 -2.0118 0.9684
5.3023 5.6799 -2.0118 0.9684
4.7746 6.1298 -2.0118 0.9684
4.0742 6.3218 -1.9473 0.9694
3.3348 6.3560 -1.8584 0.9708
2.7544 6.6270 -1.8582 0.9708
1.5330 7.0080 -1.8574 0.9708
0.2637 7.1648 -1.8564 0.9708
-2.8500 6.5643 -1.8529 0.9709
-6.6373 3.9447 -1.9991 0.9686
-6.9596 3.3358 -1.9983 0.9686
-7.4352 2.0450 -1.9966 0.9686
-7.5850 1.3733 -1.9958 0.9687
-7.6745 0.6913 -1.9951 0.9687
-6.9416 -3.3176 -1.9920 0.9687
-6.6173 -3.9228 -1.9918 0.9687
-5.3423 -5.5332 -1.9914 0.9687
-4.2750 -6.3947 -1.9916 0.9687
7.0217 -0.9834 -2.0072 0.9710
7.0837 -0.3535 -2.0078 0.9709
7.0891 0.2796 -2.0084 0.9709
6.9303 1.5350 -2.0095 0.9709
6.7673 2.1473 -2.0099 0.9709
5.5925 4.3796 -2.0109 0.9709
5.1799 4.8610 -2.0110 0.9709
4.7258 5.3034 -2.0110 0.9709
4.2340 5.7035 -2.0109 0.9709
3.6834 6.0172 -1.9972 0.9711
2.3771 6.1151 -1.8573 0.9731
1.8221 6.3015 -1.8570 0.9731
1.2527 6.4375 -1.8566 0.9731
0.6736 6.5219 -1.8561 0.9731
0.0894 6.5542 -1.8556 0.9731
-1.0755 6.4618 -1.8545 0.9731
-1.6468 6.3380 -1.8538 0.9731
-3.2616 5.6696 -1.8517 0.9732
-3.6451 5.2007 -1.7979 0.9739
-4.2133 4.9961 -1.8502 0.9732
-5.2700 4.3640 -1.9370 0.9720
-5.8178 4.0003 -1.9987 0.9711
-6.6651 2.3166 -1.9976 0.9711
-6.8426 1.7125 -1.9968 0.9711
-6.9656 1.0952 -1.9961 0.9711
-7.0332 0.4697 -1.9955 0.9711
-7.0450 -0.1593 -1.9949 0.9711
-7.0008 -0.7866 -1.9943 0.9711
-6.9011 -1.4073 -1.9939 0.9711
-6.7467 -2.0165 -1.9934 0.9712
-6.2792 -3.1817 -1.9928 0.9712
-5.9698 -3.7285 -1.9925 0.9712
-5.2120 -4.7289 -1.9923 0.9712
-4.2894 -5.5796 -1.9924 0.9712
-3.7751 -5.9403 -1.9925 0.9712
-2.6607 -6.5179 -1.9930 0.9712
-2.0693 -6.7304 -1.9933 0.9712
-1.4613 -6.8895 -1.9938 0.9711
-0.8414 -6.9940 -1.9942 0.9711
2.8520 -6.4565 -1.9982 0.9711
3.4177 -6.1789 -1.9990 0.9711
3.9566 -5.8520 -1.9998 0.9711
4.4644 -5.4781 -2.0006 0.9710
4.9371 -5.0604 -2.0014 0.9710
5.3709 -4.6019 -2.0023 0.9710
6.1079 -3.5778 -2.0039 0.9710
7.0670 -0.5914 -2.0076 0.9709
7.0937 0.0411 -2.0082 0.9709
7.0638 0.6736 -2.0088 0.9709
6.8351 1.9184 -2.0097 0.9709
6.0865 3.6606 -2.0107 0.9709
5.7364 4.1891 -2.0108 0.9709
3.9018 5.9175 -2.0066 0.9710
3.1094 5.7787 -1.8577 0.9731
1.4685 6.3923 -1.8567 0.9731
0.8925 6.4963 -1.8563 0.9731
0.3096 6.5482 -1.8558 0.9731
-1.4330 6.3906 -1.8541 0.9731
-1.9964 6.2351 -1.8534 0.9732
-3.5122 5.3877 -1.8207 0.9736
-4.4836 4.7527 -1.8497 0.9732
-4.9199 4.3610 -1.8612 0.9730
-6.0334 3.6717 -1.9994 0.9711
-6.3342 3.1179 -1.9986 0.9711
-6.5844 2.5397 -1.9979 0.9711
-6.9258 1.3289 -1.9964 0.9711
-7.0471 0.0776 -1.9951 0.9711
-7.0240 -0.5508 -1.9945 0.9711
-6.9451 -1.1746 -1.9940 0.9711
-6.8112 -1.7888 -1.9936 0.9711
-6.6233 -2.3885 -1.9932 0.9712
-5.3681 -4.5511 -1.9923 0.9712
-4.9409 -5.0115 -1.9923 0.9712
-4.4744 -5.4322 -1.9923 0.9712
-3.4390 -6.1415 -1.9926 0.9712
-2.8781 -6.4245 -1.9929 0.9712
-1.6919 -6.8359 -1.9936 0.9711
2.0380 -6.7539 -1.9971 0.9711
2.6330 -6.5478 -1.9979 0.9711
4.2771 -5.6242 -2.0003 0.9711
4.7635 -5.2226 -2.0011 0.9710
5.2124 -4.7791 -2.0019 0.9710
5.9833 -3.7805 -2.0036 0.9710
6.2990 -3.2332 -2.0044 0.9710
6.5648 -2.6598 -2.0052 0.9710
6.7784 -2.0646 -2.0059 0.9710
6.9379 -1.4526 -2.0067 0.9710
7.0165 1.0657 -2.0091 0.9709
6.8952 1.6875 -2.0096 0.9709
6.7186 2.2960 -2.0100 0.9709
6.2059 3.4538 -2.0106 0.9709
5.8738 3.9938 -2.0108 0.9709
5.4947 4.5019 -2.0109 0.9709
4.1062 5.7939 -2.0104 0.9709
2.7829 5.9423 -1.8575 0.9731
1.1105 6.4632 -1.8565 0.9731
0.5296 6.5348 -1.8560 0.9731
-1.7859 6.2996 -1.8536 0.9731
-2.3396 6.1130 -1.8529 0.9732
-2.8742 5.8777 -1.8522 0.9732
-3.3854 5.5958 -1.8515 0.9732
-3.8114 5.1907 -1.8230 0.9736
-4.3220 4.9015 -1.8500 0.9732
-5.5152 4.3658 -1.9913 0.9712
-6.2267 3.3296 -1.9989 0.9711
-6.4962 2.7600 -1.9981 0.9711
-6.7139 2.1690 -1.9974 0.9711
-6.8781 1.5612 -1.9967 0.9711
-6.9875 0.9414 -1.9960 0.9711
-7.0413 0.3145 -1.9953 0.9711
-6.9813 -0.9406 -1.9942 0.9711
-6.8680 -1.5589 -1.9937 0.9711
-6.4795 -2.7529 -1.9930 0.9712
-6.2073 -3.3192 -1.9927 0.9712
-5.5182 -4.3682 -1.9924 0.9712
-5.1066 -4.8426 -1.9923 0.9712
-4.1654 -5.6729 -1.9924 0.9712
-3.6433 -6.0222 -1.9925 0.9712
-2.5165 -6.5753 -1.9931 0.9712
-1.9206 -6.7747 -1.9934 0.9712
-1.3092 -6.9204 -1.9939 0.9711
-0.6871 -7.0113 -1.9944 0.9711
2.4111 -6.6317 -1.9976 0.9711
2.9939 -6.3927 -1.9984 0.9711
4.0850 -5.7639 -2.0000 0.9711
4.5846 -5.3790 -2.0008 0.9710
5.0480 -4.9508 -2.0016 0.9710
5.4716 -4.4829 -2.0025 0.9710
6.8843 -1.6847 -2.0064 0.9710
7.0095 -1.0646 -2.0071 0.9710
7.0916 0.1974 -2.0084 0.9709
6.9474 1.4546 -2.0094 0.9709
6.7915 2.0687 -2.0098 0.9709
6.3182 3.2431 -2.0105 0.9709
5.6428 4.3145 -2.0109 0.9709
4.7869 5.2484 -2.0110 0.9709
2.9812 5.8456 -1.8576 0.9731
2.4478 6.0873 -1.8574 0.9731
1.8950 6.2802 -1.8570 0.9731
0.7491 6.5139 -1.8562 0.9731
-0.4196 6.5396 -1.8551 0.9731
-2.1331 6.1890 -1.8532 0.9732
-4.5867 4.6523 -1.8495 0.9732
-5.1462 4.3630 -1.9100 0.9723
-5.7681 4.0653 -1.9977 0.9711
-6.1122 3.5375 -1.9992 0.9711
-6.6381 2.3938 -1.9977 0.9711
-6.9528 1.1759 -1.9962 0.9711
-7.0466 -0.0777 -1.9950 0.9711
-7.0097 -0.7054 -1.9944 0.9711
-6.9171 -1.3273 -1.9939 0.9711
-6.7698 -1.9383 -1.9935 0.9712
-6.3157 -3.1088 -1.9928 0.9712
-6.0127 -3.6591 -1.9926 0.9712
-5.6620 -4.1803 -1.9924 0.9712
-3.3029 -6.2159 -1.9927 0.9712
-2.1470 -6.7058 -1.9933 0.9712
-1.5409 -6.8719 -1.9937 0.9711
-0.9223 -6.9836 -1.9942 0.9711
0.3330 -7.0403 -1.9953 0.9711
1.5791 -6.8737 -1.9966 0.9711
2.1865 -6.7080 -1.9973 0.9711
3.3457 -6.2178 -1.9989 0.9711
4.4005 -5.5292 -2.0005 0.9711
4.8779 -5.1169 -2.0013 0.9710
5.3170 -4.6636 -2.0021 0.9710
6.3694 -3.0939 -2.0046 0.9710
6.6224 -2.5147 -2.0054 0.9710
6.8228 -1.9150 -2.0061 0.9710
7.0709 0.5917 -2.0087 0.9709
6.8567 1.8391 -2.0097 0.9709
6.1284 3.5898 -2.0106 0.9709
5.7845 4.1223 -2.0108 0.9709
5.3942 4.6219 -2.0109 0.9709
3.9726 5.8757 -2.0079 0.9709
2.1052 6.2134 -1.8572 0.9731
1.5425 6.3750 -1.8568 0.9731
-0.1995 6.5508 -1.8553 0.9731
-0.7825 6.5049 -1.8548 0.9731
-1.9241 6.2581 -1.8535 0.9731
-2.4735 6.0594 -1.8528 0.9732
-3.9841 5.1825 -1.8505 0.9732
-6.5549 2.6160 -1.9980 0.9711
-6.9585 -1.0941 -1.9941 0.9711
-6.6506 -2.3116 -1.9932 0.9712
-5.4205 -4.4887 -1.9923 0.9712
-4.5370 -5.3800 -1.9923 0.9712
-4.0395 -5.7634 -1.9924 0.9712
-2.9522 -6.3906 -1.9928 0.9712
-0.5324 -7.0252 -1.9945 0.9711
0.0961 -7.0467 -1.9951 0.9711
0.7242 -7.0122 -1.9957 0.9711
1.3470 -6.9220 -1.9963 0.9711
2.5569 -6.5775 -1.9978 0.9711
3.6874 -6.0235 -1.9994 0.9711
4.7025 -5.2772 -2.0010 0.9710
5.1564 -4.8389 -2.0018 0.9710
5.5696 -4.3617 -2.0027 0.9710
5.9387 -3.8493 -2.0035 0.9710
7.0319 -0.9099 -2.0073 0.9710
7.0872 -0.2794 -2.0079 0.9709
7.0860 0.3537 -2.0085 0.9709
7.0282 0.9843 -2.0090 0.9709
6.9140 1.6074 -2.0095 0.9709
6.5211 2.8110 -2.0103 0.9709
6.2454 3.3817 -2.0106 0.9709
5.9196 3.9254 -2.0108 0.9709
4.1741 5.7474 -2.0109 0.9709
3.5490 5.9362 -1.9579 0.9717
2.3130 6.1395 -1.8573 0.9731
0.0208 6.5546 -1.8556 0.9731
-0.5635 6.5283 -1.8550 0.9731
-1.1430 6.4499 -1.8544 0.9731
-1.7129 6.3201 -1.8537 0.9731
-3.3206 5.6350 -1.8516 0.9732
-3.7286 5.2031 -1.8121 0.9737
-4.2651 4.9515 -1.8501 0.9732
-4.6877 4.5496 -1.8493 0.9732
-6.1881 3.4016 -1.9990 0.9711
-6.4642 2.8352 -1.9982 0.9711
-6.6887 2.2467 -1.9975 0.9711
-6.8598 1.6408 -1.9968 0.9711
-7.0375 0.3961 -1.9954 0.9711
-7.0427 -0.2329 -1.9948 0.9711
-6.9920 -0.8597 -1.9943 0.9711
-6.7251 -2.0869 -1.9934 0.9712
-6.5110 -2.6777 -1.9930 0.9712
-6.2455 -3.2472 -1.9927 0.9712
-5.5684 -4.3040 -1.9924 0.9712
-4.2308 -5.6242 -1.9924 0.9712
-3.7128 -5.9795 -1.9925 0.9712
-2.5924 -6.5455 -1.9930 0.9712
1.7304 -6.8379 -1.9968 0.9711
2.3340 -6.6588 -1.9975 0.9711
2.9195 -6.4266 -1.9983 0.9711
3.4823 -6.1432 -1.9991 0.9711
4.5217 -5.4314 -2.0007 0.9710
5.8051 -4.0461 -2.0032 0.9710
6.1453 -3.5139 -2.0040 0.9710
6.4366 -2.9531 -2.0048 0.9710
6.8640 -1.7643 -2.0063 0.9710
7.0730 -0.5175 -2.0077 0.9709
7.0931 0.1153 -2.0083 0.9709
6.8148 1.9898 -2.0098 0.9709
5.2910 4.7397 -2.0109 0.9709
4.8474 5.1926 -2.0110 0.9709
3.8375 5.9546 -2.0054 0.9710
2.5182 6.0586 -1.8574 0.9731
1.9676 6.2579 -1.8571 0.9731
0.2411 6.5509 -1.8558 0.9731
-0.9256 6.4855 -1.8546 0.9731
-2.0613 6.2136 -1.8533 0.9732
-3.1298 5.7443 -1.8519 0.9732
-4.5328 4.7054 -1.8496 0.9732
-6.0712 3.6082 -1.9993 0.9711
-6.3661 3.0514 -1.9985 0.9711
-6.9390 1.2564 -1.9963 0.9711
-7.0210 0.6325 -1.9957 0.9711
-6.9323 -1.2471 -1.9940 0.9711
-6.3514 -3.0355 -1.9928 0.9712
-6.0547 -3.5893 -1.9926 0.9712
-5.3202 -4.6070 -1.9923 0.9712
-4.4174 -5.4787 -1.9923 0.9712
-3.3746 -6.1772 -1.9927 0.9712
6.4613 -0.9049 -2.0067 0.9731
6.5181 -0.3253 -2.0073 0.9731
6.3766 1.4124 -2.0088 0.9730
6.0265 2.5234 -2.0096 0.9730
5.7783 3.0511 -2.0098 0.9730
5.4838 3.5544 -2.0100 0.9730
5.1454 4.0295 -2.0101 0.9730
4.3480 4.8794 -2.0102 0.9730
2.1871 5.6264 -1.8567 0.9751
0.0822 6.0308 -1.8551 0.9751
-0.9897 5.9461 -1.8540 0.9751
-2.0287 5.6720 -1.8528 0.9751
-2.5254 5.4666 -1.8522 0.9751
-4.9997 4.1401 -1.9966 0.9732
-5.3582 3.6843 -2.0001 0.9732
-5.6632 3.1907 -1.9993 0.9732
-6.2991 1.5765 -1.9972 0.9732
-6.4125 1.0083 -1.9966 0.9732
-6.4749 0.4324 -1.9960 0.9732
-6.4859 -0.1466 -1.9954 0.9732
-6.4453 -0.7242 -1.9949 0.9732
-6.2116 -1.8566 -1.9941 0.9732
-4.7989 -4.3541 -1.9930 0.9732
-4.3916 -4.7646 -1.9930 0.9732
-2.4497 -6.0011 -1.9937 0.9732
-0.7746 -6.4392 -1.9948 0.9732
1.5270 -6.3108 -1.9971 0.9732
2.0843 -6.1516 -1.9977 0.9732
2.6254 -5.9433 -1.9984 0.9732
3.6419 -5.3865 -1.9999 0.9732
4.1092 -5.0422 -2.0007 0.9731
4.5441 -4.6576 -2.0014 0.9731
4.9432 -4.2355 -2.0022 0.9731
5.3032 -3.7793 -2.0030 0.9731
5.6211 -3.2926 -2.0037 0.9731
5.8945 -2.7794 -2.0045 0.9731
6.1210 -2.2435 -2.0052 0.9731
6.5028 -0.5442 -2.0071 0.9731
6.4996 0.6198 -2.0082 0.9730
6.4199 1.1971 -2.0087 0.9730
6.1076 2.3192 -2.0094 0.9730
5.6000 3.3680 -2.0099 0.9730
4.5096 4.7305 -2.0102 0.9730
3.5964 5.4544 -2.0095 0.9730
1.8705 5.7387 -1.8565 0.9751
0.8212 5.9773 -1.8558 0.9751
-0.2534 6.0250 -1.8548 0.9751
-0.7893 5.9767 -1.8543 0.9751
-1.3187 5.8807 -1.8537 0.9751
-1.8371 5.7378 -1.8531 0.9751
-4.8515 4.3004 -1.9940 0.9732
-5.5536 3.3797 -1.9996 0.9732
-5.8306 2.8700 -1.9989 0.9732
-6.0611 2.3379 -1.9981 0.9732
-6.2433 1.7876 -1.9975 0.9732
-6.3757 1.2234 -1.9968 0.9732
-6.4574 0.6498 -1.9962 0.9732
-6.3941 -1.0814 -1.9946 0.9732
-6.2710 -1.6469 -1.9942 0.9732
-6.0980 -2.1990 -1.9939 0.9732
-5.6090 -3.2463 -1.9933 0.9732
-4.9426 -4.1904 -1.9931 0.9732
-4.5492 -4.6143 -1.9930 0.9732
-4.1198 -5.0016 -1.9931 0.9732
-3.6576 -5.3493 -1.9932 0.9732
-2.6499 -5.9151 -1.9936 0.9732
-2.1123 -6.1287 -1.9939 0.9732
-1.5577 -6.2938 -1.9942 0.9732
-0.4153 -6.4733 -1.9951 0.9732
0.1636 -6.4862 -1.9957 0.9732
2.4238 -6.0274 -1.9982 0.9732
3.4583 -5.5051 -1.9996 0.9732
4.3844 -4.8070 -2.0011 0.9731
5.1724 -3.9548 -2.0027 0.9731
5.5065 -3.4792 -2.0034 0.9731
5.7969 -2.9755 -2.0042 0.9731
6.2377 -1.9000 -2.0056 0.9731
6.4801 -0.7623 -2.0069 0.9731
6.5242 -0.1816 -2.0075 0.9731
6.4560 0.9806 -2.0085 0.9730
6.1817 2.1125 -2.0093 0.9730
5.9697 2.6556 -2.0096 0.9730
5.7098 3.1777 -2.0099 0.9730
5.4042 3.6745 -2.0101 0.9730
4.2394 4.9740 -2.0102 0.9730
3.2783 5.6303 -2.0039 0.9731
2.5605 5.4673 -1.8569 0.9751
2.0625 5.6730 -1.8566 0.9751
1.0217 5.9468 -1.8559 0.9751
-0.5880 6.0005 -1.8545 0.9751
-1.6434 5.7970 -1.8533 0.9751
-2.1530 5.6255 -1.8527 0.9751
-3.5611 4.8498 -1.8506 0.9751
-3.9778 4.5112 -1.8499 0.9751
-5.4376 3.5650 -1.9999 0.9732
-6.1805 1.9967 -1.9977 0.9732
-6.3318 1.4372 -1.9971 0.9732
-6.4327 0.8666 -1.9964 0.9732
-6.4824 0.2896 -1.9958 0.9732
-6.4806 -0.2895 -1.9953 0.9732
-6.1689 -1.9929 -1.9940 0.9732
-5.7152 -3.0561 -1.9934 0.9732
-5.4194 -3.5531 -1.9932 0.9732
-4.7018 -4.4588 -1.9930 0.9732
-4.2855 -4.8602 -1.9930 0.9732
-3.8353 -5.2232 -1.9931 0.9732
-2.3169 -6.0539 -1.9938 0.9732
-1.2053 -6.3715 -1.9945 0.9732
-0.6326 -6.4550 -1.9949 0.9732
-0.0545 -6.4874 -1.9954 0.9732
1.6658 -6.2761 -1.9972 0.9732
2.7559 -5.8846 -1.9986 0.9732
3.2708 -5.6174 -1.9994 0.9732
5.0358 -4.1259 -2.0024 0.9731
5.9548 -2.6490 -2.0046 0.9731
6.4501 -0.9796 -2.0067 0.9731
6.5137 -0.4007 -2.0073 0.9731
6.4848 0.7629 -2.0083 0.9730
5.5245 3.4906 -2.0100 0.9730
5.1916 3.9696 -2.0101 0.9730
4.4042 4.8288 -2.0102 0.9730
2.7981 5.4866 -1.8943 0.9746
1.2212 5.9096 -1.8561 0.9751
-0.3861 6.0176 -1.8547 0.9751
-0.9208 5.9574 -1.8541 0.9751
-2.9412 5.2525 -1.8516 0.9751
-3.8245 4.6431 -1.8502 0.9751
-5.8919 2.7406 -1.9987 0.9732
-6.4697 0.5074 -1.9961 0.9732
-6.4874 -0.0715 -1.9955 0.9732
-6.3684 -1.2220 -1.9945 0.9732
-6.2328 -1.7846 -1.9941 0.9732
-5.5360 -3.3690 -1.9933 0.9732
-4.8490 -4.2982 -1.9930 0.9732
-4.0086 -5.0912 -1.9931 0.9732
-0.2725 -6.4812 -1.9953 0.9732
0.8834 -6.4302 -1.9964 0.9732
2.0128 -6.1750 -1.9977 0.9732
5.2588 -3.8403 -2.0029 0.9731
5.5824 -3.3574 -2.0036 0.9731
6.5271 -0.0378 -2.0076 0.9731
6.5061 0.5445 -2.0081 0.9730
5.3220 3.7928 -2.0101 0.9730
4.9629 4.2524 -2.0102 0.9730
4.5641 4.6780 -2.0102 0.9730
3.1233 5.6467 -1.9848 0.9734
1.9369 5.7168 -1.8566 0.9751
1.4192 5.8657 -1.8562 0.9751
0.8904 5.9676 -1.8558 0.9751
0.3547 6.0217 -1.8554 0.9751
-1.2505 5.8958 -1.8538 0.9751
-1.7706 5.7589 -1.8531 0.9751
-2.7634 5.3491 -1.8518 0.9751
-3.6667 4.7697 -1.8505 0.9751
-4.0759 4.4221 -1.8497 0.9751
-5.5143 3.4440 -1.9997 0.9732
-5.7973 2.9375 -1.9990 0.9732
-6.0339 2.4081 -1.9982 0.9732
-6.2224 1.8598 -1.9976 0.9732
-6.4723 -0.4322 -1.9952 0.9732
-6.4064 -1.0073 -1.9947 0.9732
-6.2898 -1.5742 -1.9943 0.9732
-6.1232 -2.1283 -1.9939 0.9732
-5.9082 -2.6654 -1.9936 0.9732
-5.3397 -3.6716 -1.9932 0.9732
-4.9908 -4.1329 -1.9931 0.9732
-4.6024 -4.5613 -1.9930 0.9732
-3.7193 -5.3065 -1.9932 0.9732
-2.7182 -5.8839 -1.9935 0.9732
-2.1830 -6.1037 -1.9938 0.9732
-1.6304 -6.2751 -1.9942 0.9732
-0.4902 -6.4678 -1.9951 0.9732
0.0885 -6.4874 -1.9956 0.9732
1.8039 -6.2384 -1.9974 0.9732
2.8852 -5.8229 -1.9988 0.9732
3.3941 -5.5445 -1.9995 0.9732
4.7459 -4.4536 -2.0018 0.9731
5.4656 -3.5426 -2.0033 0.9731
6.2150 -1.9720 -2.0055 0.9731
6.3682 -1.4105 -2.0062 0.9731
6.4706 -0.8373 -2.0068 0.9731
6.5201 0.3254 -2.0079 0.9730
6.3616 1.4790 -2.0089 0.9730
6.2056 2.0407 -2.0093 0.9730
5.9999 2.5863 -2.0096 0.9730
5.7461 3.1113 -2.0098 0.9730
5.4464 3.6116 -2.0100 0.9730
5.1030 4.0831 -2.0102 0.9730
4.2967 4.9246 -2.0102 0.9730
3.8404 5.2879 -2.0101 0.9730
2.6237 5.4373 -1.8569 0.9751
1.6157 5.8151 -1.8563 0.9751
1.0906 5.9348 -1.8560 0.9751
0.0191 6.0312 -1.8551 0.9751
-0.5185 6.0072 -1.8545 0.9751
-1.0517 5.9352 -1.8540 0.9751
-1.5762 5.8159 -1.8534 0.9751
-2.0878 5.6503 -1.8527 0.9751
-3.0559 5.1859 -1.8514 0.9751
-3.9255 4.5572 -1.8500 0.9751
-5.0447 4.0893 -1.9974 0.9732
-5.3962 3.6279 -2.0000 0.9732
-5.9504 2.6099 -1.9985 0.9732
-6.1572 2.0682 -1.9978 0.9732
-6.3150 1.5105 -1.9971 0.9732
-6.4225 0.9411 -1.9965 0.9732
-6.4372 -0.7915 -1.9949 0.9732
-6.3396 -1.3620 -1.9944 0.9732
-5.9948 -2.4654 -1.9937 0.9732
-5.7503 -2.9897 -1.9934 0.9732
-5.4603 -3.4901 -1.9932 0.9732
-5.1270 -3.9628 -1.9931 0.9732
-4.7531 -4.4040 -1.9930 0.9732
-4.3415 -4.8103 -1.9930 0.9732
-3.8955 -5.1784 -1.9931 0.9732
-1.8403 -6.2163 -1.9940 0.9732
-1.2790 -6.3569 -1.9944 0.9732
0.4493 -6.4736 -1.9959 0.9732
1.5929 -6.2947 -1.9972 0.9732
2.1486 -6.1297 -1.9978 0.9732
3.6982 -5.3483 -2.0000 0.9732
5.3427 -3.7238 -2.0031 0.9731
5.6555 -3.2338 -2.0038 0.9731
5.9235 -2.7177 -2.0045 0.9731
6.1444 -2.1795 -2.0052 0.9731
6.5267 0.1061 -2.0077 0.9731
6.4929 0.6877 -2.0083 0.9730
6.4072 1.2642 -2.0087 0.9730
6.2703 1.8308 -2.0091 0.9730
5.5645 3.4264 -2.0100 0.9730
4.8680 4.3607 -2.0102 0.9730
4.4599 4.7774 -2.0102 0.9730
4.0160 5.1559 -2.0102 0.9730
2.9068 5.5402 -1.9243 0.9742
1.8104 5.7579 -1.8565 0.9751
1.2896 5.8952 -1.8561 0.9751
0.7586 5.9854 -1.8557 0.9751
0.2219 6.0277 -1.8552 0.9751
-1.3800 5.8663 -1.8536 0.9751
-3.7706 4.6873 -1.8503 0.9751
-4.1734 4.3323 -1.8502 0.9751
-4.8981 4.2511 -1.9948 0.9732
-5.5883 3.3213 -1.9995 0.9732
-6.0850 2.2743 -1.9981 0.9732
-6.3879 1.1566 -1.9967 0.9732
-6.4880 0.0037 -1.9956 0.9732
-6.4608 -0.5747 -1.9950 0.9732
-6.2532 -1.7123 -1.9942 0.9732
-6.0746 -2.2626 -1.9938 0.9732
-5.5747 -3.3047 -1.9933 0.9732
-4.8985 -4.2418 -1.9931 0.9732
-3.6015 -5.3873 -1.9932 0.9732
-2.5879 -5.9426 -1.9936 0.9732
6.0344 0.2380 -2.0074 0.9749
5.9905 0.7752 -2.0079 0.9749
5.8987 1.3065 -2.0083 0.9749
5.3451 2.8223 -2.0092 0.9748
5.0726 3.2879 -2.0094 0.9748
4.7595 3.7273 -2.0095 0.9748
4.0219 4.5136 -2.0096 0.9748
2.6731 5.3950 -2.0014 0.9749
1.0662 5.4793 -1.8555 0.9767
0.5733 5.5514 -1.8551 0.9767
-0.4216 5.5622 -1.8542 0.9768
-0.9156 5.5009 -1.8537 0.9768
-1.4020 5.3958 -1.8531 0.9768
-1.8769 5.2477 -1.8526 0.9768
-2.3365 5.0578 -1.8520 0.9768
-2.7773 4.8277 -1.8513 0.9768
-3.1955 4.5592 -1.8507 0.9768
-3.6233 4.2964 -1.8682 0.9766
-4.9583 3.4093 -2.0002 0.9750
-5.2407 2.9526 -1.9995 0.9750
-5.4812 2.4728 -1.9988 0.9750
-5.8295 1.4590 -1.9975 0.9750
-5.9926 0.4002 -1.9964 0.9750
-6.0028 -0.1357 -1.9959 0.9750
-5.9654 -0.6702 -1.9954 0.9750
-5.8807 -1.1992 -1.9950 0.9750
-5.7493 -1.7184 -1.9946 0.9750
-5.5723 -2.2238 -1.9943 0.9750
-4.7837 -3.6182 -1.9937 0.9750
-4.4419 -4.0302 -1.9937 0.9750
-4.0649 -4.4102 -1.9937 0.9750
-3.6556 -4.7551 -1.9937 0.9750
-3.2172 -5.0624 -1.9938 0.9750
-2.7533 -5.3296 -1.9940 0.9750
-2.2674 -5.5545 -1.9943 0.9750
-0.1827 -6.0013 -1.9958 0.9750
0.3531 -5.9952 -1.9963 0.9750
0.8865 -5.9415 -1.9968 0.9750
1.9289 -5.6929 -1.9980 0.9750
2.4296 -5.5001 -1.9987 0.9750
2.9112 -5.2633 -1.9994 0.9750
3.3701 -4.9845 -2.0000 0.9750
3.8024 -4.6658 -2.0007 0.9749
4.2048 -4.3097 -2.0014 0.9749
4.9068 -3.4968 -2.0029 0.9749
5.4537 -2.5715 -2.0042 0.9749
5.8274 -1.5630 -2.0055 0.9749
5.9454 -1.0375 -2.0061 0.9749
6.0127 0.5734 -2.0077 0.9749
5.4367 2.6409 -2.0091 0.9748
4.5449 3.9864 -2.0095 0.9748
3.7646 4.7302 -2.0095 0.9748
2.2209 5.1895 -1.8764 0.9765
1.7303 5.3086 -1.8560 0.9767
1.2499 5.4408 -1.8557 0.9767
0.7597 5.5294 -1.8553 0.9767
0.2636 5.5739 -1.8549 0.9768
-0.2344 5.5738 -1.8544 0.9768
-1.6996 5.3084 -1.8528 0.9768
-2.1655 5.1341 -1.8522 0.9768
-2.6138 4.9189 -1.8516 0.9768
-3.4435 4.3734 -1.8503 0.9768
-4.8415 3.5745 -2.0004 0.9750
-5.1391 3.1275 -1.9997 0.9750
-5.6092 2.1636 -1.9984 0.9750
-5.7779 1.6543 -1.9978 0.9750
-5.9006 1.1322 -1.9972 0.9750
-5.9763 0.6014 -1.9966 0.9750
-6.0046 0.0662 -1.9961 0.9750
-5.9851 -0.4694 -1.9956 0.9750
-5.9181 -1.0009 -1.9951 0.9750
-5.4395 -2.5302 -1.9942 0.9750
-5.1917 -3.0048 -1.9939 0.9750
-4.9027 -3.4554 -1.9938 0.9750
-3.8133 -4.6295 -1.9937 0.9750
-2.9308 -5.2339 -1.9940 0.9750
-1.9551 -5.6726 -1.9944 0.9750
-1.4417 -5.8253 -1.9948 0.9750
-0.9168 -5.9318 -1.9952 0.9750
-0.3843 -5.9912 -1.9956 0.9750
0.1514 -6.0031 -1.9961 0.9750
0.6862 -5.9673 -1.9966 0.9750
1.7362 -5.7539 -1.9978 0.9750
2.2430 -5.5779 -1.9984 0.9750
2.7323 -5.3575 -1.9991 0.9750
3.2002 -5.0943 -1.9998 0.9750
3.6430 -4.7903 -2.0005 0.9750
4.4390 -4.0700 -2.0019 0.9749
4.7859 -3.6593 -2.0026 0.9749
5.5894 -2.2646 -2.0047 0.9749
5.9949 -0.7053 -2.0065 0.9749
5.9723 0.9071 -2.0080 0.9749
5.5221 2.4566 -2.0090 0.9748
5.2817 2.9395 -2.0093 0.9748
4.9990 3.3990 -2.0094 0.9748
4.6763 3.8314 -2.0095 0.9748
4.3161 4.2331 -2.0096 0.9748
3.0385 5.2185 -2.0073 0.9749
1.9079 5.2477 -1.8561 0.9767
0.9452 5.5012 -1.8554 0.9767
0.4508 5.5624 -1.8550 0.9768
-1.0365 5.4790 -1.8536 0.9768
-1.5204 5.3632 -1.8530 0.9768
-1.9919 5.2046 -1.8524 0.9768
-2.4472 5.0046 -1.8518 0.9768
-2.8827 4.7649 -1.8512 0.9768
-3.2949 4.4873 -1.8505 0.9768
-3.7896 4.2977 -1.9046 0.9761
-4.3588 4.1335 -1.9968 0.9750
-4.7192 3.7357 -2.0007 0.9749
-5.0318 3.2989 -2.0000 0.9750
-5.7197 1.8478 -1.9980 0.9750
-5.8598 1.3301 -1.9974 0.9750
-5.9534 0.8021 -1.9968 0.9750
-5.9995 0.2680 -1.9963 0.9750
-5.7098 -1.8446 -1.9946 0.9750
-4.7028 -3.7227 -1.9937 0.9750
-4.3520 -4.1271 -1.9937 0.9750
-3.1049 -5.1322 -1.9939 0.9750
-0.5855 -5.9744 -1.9954 0.9750
0.4852 -5.9863 -1.9964 0.9750
1.0173 -5.9209 -1.9970 0.9750
2.5504 -5.4456 -1.9988 0.9750
3.0268 -5.1983 -1.9995 0.9750
3.4794 -4.9094 -2.0002 0.9750
4.9831 -3.3882 -2.0030 0.9749
5.5094 -2.4509 -2.0044 0.9749
5.7079 -1.9505 -2.0051 0.9749
5.8609 -1.4343 -2.0057 0.9749
6.0365 0.1681 -2.0074 0.9749
5.9133 1.2381 -2.0082 0.9749
5.7804 1.7607 -2.0086 0.9749
5.6013 2.2695 -2.0089 0.9748
5.3773 2.7602 -2.0092 0.9748
4.8024 3.6719 -2.0095 0.9748
4.0740 4.4667 -2.0096 0.9748
3.6594 4.8120 -2.0095 0.9748
3.2156 5.1188 -2.0094 0.9748
2.7369 5.3666 -2.0025 0.9749
2.0833 5.1809 -1.8562 0.9767
1.1297 5.4667 -1.8556 0.9767
0.1407 5.5780 -1.8548 0.9768
-1.3394 5.4119 -1.8532 0.9768
-1.8161 5.2693 -1.8526 0.9768
-2.2779 5.0847 -1.8520 0.9768
-2.7213 4.8597 -1.8514 0.9768
-3.1427 4.5961 -1.8508 0.9768
-4.5908 3.8920 -2.0006 0.9749
-4.9187 3.4667 -2.0003 0.9750
-5.8125 1.5265 -1.9976 0.9750
-5.9730 -0.6011 -1.9955 0.9750
-5.7689 -1.6518 -1.9947 0.9750
-5.5978 -2.1592 -1.9944 0.9750
-5.1241 -3.1184 -1.9939 0.9750
-4.8253 -3.5626 -1.9938 0.9750
-4.1156 -4.3628 -1.9937 0.9750
-3.2756 -5.0248 -1.9938 0.9750
-2.3315 -5.5278 -1.9942 0.9750
0.2837 -5.9987 -1.9962 0.9750
1.3454 -5.8562 -1.9973 0.9750
2.8500 -5.2964 -1.9993 0.9750
3.7480 -4.7093 -2.0006 0.9749
4.1544 -4.3579 -2.0014 0.9749
4.8658 -3.5533 -2.0028 0.9749
5.4233 -2.6344 -2.0042 0.9749
5.8087 -1.6303 -2.0055 0.9749
5.9327 -1.1062 -2.0061 0.9749
6.0094 -0.5730 -2.0066 0.9749
6.0382 -0.0350 -2.0072 0.9749
6.0187 0.5037 -2.0077 0.9749
5.9511 1.0385 -2.0081 0.9749
5.6741 2.0798 -2.0088 0.9748
5.4668 2.5777 -2.0091 0.9748
4.9230 3.5084 -2.0095 0.9748
4.2218 4.3272 -2.0096 0.9748
1.7917 5.2883 -1.8560 0.9767
0.3281 5.5706 -1.8549 0.9768
-0.1698 5.5763 -1.8545 0.9768
-0.6662 5.5375 -1.8540 0.9768
-1.1569 5.4545 -1.8534 0.9768
-1.6381 5.3280 -1.8529 0.9768
-2.1060 5.1590 -1.8523 0.9768
-2.5567 4.9491 -1.8517 0.9768
-3.3927 4.4132 -1.8504 0.9768
-3.9624 4.2989 -1.9434 0.9757
-4.8000 3.6305 -2.0005 0.9750
-5.1028 3.1870 -1.9998 0.9750
-5.7586 1.7212 -1.9979 0.9750
-5.8873 1.2005 -1.9972 0.9750
-6.0036 0.1357 -1.9961 0.9750
-5.9903 -0.4000 -1.9956 0.9750
-5.9295 -0.9323 -1.9952 0.9750
-5.6675 -1.9699 -1.9945 0.9750
-4.6195 -3.8254 -1.9937 0.9750
-3.8666 -4.5850 -1.9937 0.9750
-2.9911 -5.1995 -1.9939 0.9750
-2.0206 -5.6494 -1.9944 0.9750
-0.9854 -5.9206 -1.9951 0.9750
-0.4537 -5.9862 -1.9955 0.9750
0.6171 -5.9746 -1.9966 0.9750
1.1476 -5.8974 -1.9971 0.9750
2.1782 -5.6033 -1.9984 0.9750
3.1409 -5.1308 -1.9997 0.9750
3.5871 -4.8320 -2.0004 0.9750
4.7430 -3.7143 -2.0025 0.9749
5.0570 -3.2778 -2.0032 0.9749
5.3310 -2.8148 -2.0039 0.9749
5.7499 -1.8244 -2.0052 0.9749
5.8915 -1.3049 -2.0058 0.9749
6.0330 -0.2379 -2.0070 0.9749
6.0317 0.3010 -2.0075 0.9749
5.8849 1.3682 -2.0083 0.9749
5.7405 1.8878 -2.0087 0.9748
5.5501 2.3924 -2.0090 0.9748
5.3153 2.8781 -2.0092 0.9748
4.7203 3.7769 -2.0095 0.9748
3.9745 4.5553 -2.0096 0.9748
3.1003 5.1856 -2.0083 0.9749
2.5816 5.3502 -1.9746 0.9753
1.0089 5.4900 -1.8555 0.9767
0.5152 5.5569 -1.8551 0.9768
-1.4583 5.3806 -1.8531 0.9768
-1.9316 5.2276 -1.8525 0.9768
-2.3892 5.0329 -1.8519 0.9768
-2.8275 4.7982 -1.8513 0.9768
-3.7014 4.2971 -1.8852 0.9764
-4.3089 4.1820 -1.9960 0.9750
-4.6759 3.7903 -2.0008 0.9749
-4.9934 3.3571 -2.0001 0.9750
-5.2711 2.8975 -1.9994 0.9750
-5.6981 1.9140 -1.9981 0.9750
-5.9439 0.8710 -1.9969 0.9750
-5.9962 0.3375 -1.9963 0.9750
-6.0009 -0.1984 -1.9958 0.9750
-5.7309 -1.7784 -1.9946 0.9750
-5.5487 -2.2819 -1.9943 0.9750
-5.3224 -2.7672 -1.9940 0.9750
-4.3995 -4.0764 -1.9937 0.9750
-4.0185 -4.4524 -1.9937 0.9750
-2.2092 -5.5780 -1.9943 0.9750
-1.7033 -5.7537 -1.9946 0.9750
-1.1838 -5.8837 -1.9950 0.9750
-0.1200 -6.0030 -1.9958 0.9750
0.4158 -5.9913 -1.9963 0.9750
1.9884 -5.6727 -1.9981 0.9750
2.4870 -5.4746 -1.9988 0.9750
3.4222 -4.9492 -2.0001 0.9750
3.8512 -4.6260 -2.0008 0.9749
4.2498 -4.2657 -2.0015 0.9749
4.9433 -3.4455 -2.0029 0.9749
5.8437 -1.5020 -2.0056 0.9749
5.9561 -0.9753 -2.0062 0.9749
6.0210 -0.4405 -2.0068 0.9749
5.8003 1.6936 -2.0086 0.9749
5.1473 3.1695 -2.0093 0.9748
4.1254 4.4192 -2.0096 0.9748
3.7149 4.7693 -2.0095 0.9748
3.2747 5.0812 -2.0094 0.9748
2.8003 5.3372 -2.0035 0.9749
2.1465 5.1642 -1.8590 0.9767
1.6747 5.3263 -1.8559 0.9767
0.7018 5.5369 -1.8552 0.9767
0.2053 5.5762 -1.8548 0.9768
-0.2926 5.5709 -1.8543 0.9768
-0.7880 5.5211 -1.8538 0.9768
-1.2767 5.4273 -1.8533 0.9768
-1.7550 5.2902 -1.8527 0.9768
-2.2190 5.1110 -1.8521 0.9768
-3.0894 4.6324 -1.8509 0.9768
-4.5435 3.9433 -1.9998 0.9750
-5.1714 3.0735 -1.9997 0.9750
-5.9119 1.0704 -1.9971 0.9750
-5.9821 0.5389 -1.9965 0.9750
-5.1599 -3.0589 -1.9939 0.9750
-4.5341 -3.9262 -1.9937 0.9750
-4.1659 -4.3148 -1.9937 0.9750
-2.3954 -5.5003 -1.9942 0.9750
5.6080 0.2211 -2.0070 0.9764
5.5671 0.7204 -2.0074 0.9764
5.4817 1.2142 -2.0078 0.9764
4.4229 3.4637 -2.0089 0.9764
3.3485 4.5107 -2.0089 0.9764
2.4893 5.0239 -2.0050 0.9765
1.9684 5.0636 -1.9428 0.9772
0.9909 5.0920 -1.8551 0.9782
0.5328 5.1590 -1.8547 0.9782
-0.8509 5.1124 -1.8534 0.9782
-1.3030 5.0148 -1.8529 0.9782
-1.7444 4.8773 -1.8523 0.9782
-2.1717 4.7009 -1.8518 0.9782
-2.9903 4.2665 -1.8632 0.9781
-3.5961 4.2642 -1.9948 0.9766
-3.9723 3.9368 -1.9999 0.9765
-4.3096 3.5687 -2.0009 0.9765
-4.6091 3.1692 -2.0003 0.9765
-4.8717 2.7447 -1.9996 0.9765
-5.0954 2.2987 -1.9990 0.9765
-5.4195 1.3564 -1.9978 0.9765
-5.5173 0.8675 -1.9973 0.9766
-5.4675 -1.1149 -1.9955 0.9766
-5.3454 -1.5977 -1.9951 0.9766
-5.1809 -2.0677 -1.9948 0.9766
-4.4478 -3.3642 -1.9943 0.9766
-4.1300 -3.7472 -1.9942 0.9766
-2.1081 -5.1644 -1.9948 0.9766
-1.6395 -5.3326 -1.9951 0.9766
-1.1577 -5.4584 -1.9954 0.9766
-0.6666 -5.5409 -1.9958 0.9766
0.8242 -5.5237 -1.9972 0.9766
1.3138 -5.4296 -1.9977 0.9765
1.7932 -5.2924 -1.9983 0.9765
2.2586 -5.1130 -1.9989 0.9765
3.1328 -4.6335 -2.0001 0.9765
3.5346 -4.3371 -2.0008 0.9765
3.9085 -4.0060 -2.0015 0.9765
4.2515 -3.6428 -2.0021 0.9765
4.8340 -2.8316 -2.0034 0.9765
5.0688 -2.3900 -2.0041 0.9765
5.4160 -1.4526 -2.0053 0.9765
5.5255 -0.9642 -2.0058 0.9765
5.6117 0.0325 -2.0068 0.9764
5.5191 1.0291 -2.0077 0.9764
5.4063 1.5174 -2.0080 0.9764
5.2502 1.9937 -2.0083 0.9764
5.0522 2.4542 -2.0086 0.9764
4.5367 3.3130 -2.0089 0.9764
3.4983 4.3956 -2.0090 0.9764
3.0923 4.6898 -2.0089 0.9764
2.6602 4.9439 -2.0077 0.9764
1.6080 4.9332 -1.8555 0.9782
1.1615 5.0561 -1.8552 0.9782
-0.6786 5.1387 -1.8536 0.9782
-1.1338 5.0563 -1.8531 0.9782
-1.5797 4.9337 -1.8525 0.9782
-2.8264 4.3357 -1.8508 0.9783
-4.1877 3.7120 -2.0012 0.9765
-4.7773 2.9073 -1.9999 0.9765
-5.2144 2.0113 -1.9986 0.9765
-5.3714 1.5379 -1.9980 0.9765
-5.5023 -0.9306 -1.9956 0.9766
-5.2478 -1.8924 -1.9949 0.9766
-5.0575 -2.3525 -1.9947 0.9766
-4.8271 -2.7938 -1.9945 0.9766
-4.5585 -3.2128 -1.9943 0.9766
-4.2537 -3.6063 -1.9943 0.9766
-2.7250 -4.8663 -1.9945 0.9766
-2.2804 -5.0904 -1.9947 0.9766
-1.8177 -5.2742 -1.9949 0.9766
-1.3404 -5.4161 -1.9953 0.9766
-0.3573 -5.5702 -1.9960 0.9766
1.1304 -5.4702 -1.9975 0.9766
1.6141 -5.3491 -1.9981 0.9765
2.0852 -5.1854 -1.9987 0.9765
2.9749 -4.7356 -1.9999 0.9765
3.7711 -4.1346 -2.0012 0.9765
4.1261 -3.7831 -2.0019 0.9765
4.4485 -3.4013 -2.0025 0.9765
4.7355 -2.9921 -2.0032 0.9765
4.9851 -2.5588 -2.0038 0.9765
5.1950 -2.1048 -2.0044 0.9765
5.5715 -0.6555 -2.0061 0.9765
5.6092 -0.1561 -2.0067 0.9764
5.5501 0.8430 -2.0075 0.9764
5.3140 1.8160 -2.0082 0.9764
4.9082 2.7316 -2.0087 0.9764
4.6454 3.1586 -2.0089 0.9764
4.0108 3.9337 -2.0090 0.9764
2.8265 4.8543 -2.0088 0.9764
2.3760 5.0735 -2.0034 0.9765
0.4190 5.1693 -1.8546 0.9782
-0.0436 5.1849 -1.8542 0.9782
-0.5056 5.1591 -1.8538 0.9782
-2.2746 4.6515 -1.8516 0.9782
-2.6794 4.4288 -1.8511 0.9783
-3.1338 4.2678 -1.8934 0.9778
-3.6914 4.1865 -1.9960 0.9766
-4.0608 3.8509 -2.0013 0.9765
-4.3868 3.4726 -2.0008 0.9765
-4.6774 3.0666 -2.0001 0.9765
-4.9306 2.6365 -1.9995 0.9765
-5.5347 0.7457 -1.9971 0.9766
-5.5309 -0.7452 -1.9957 0.9766
-5.4414 -1.2351 -1.9954 0.9766
-5.3087 -1.7150 -1.9950 0.9766
-5.1339 -2.1812 -1.9948 0.9766
-4.9185 -2.6300 -1.9945 0.9766
-4.6640 -3.0578 -1.9944 0.9766
-3.6882 -4.1828 -1.9942 0.9766
-3.3007 -4.4951 -1.9943 0.9766
-1.5217 -5.3676 -1.9951 0.9766
-0.5443 -5.5546 -1.9959 0.9766
1.9095 -5.2520 -1.9984 0.9765
2.3709 -5.0624 -1.9990 0.9765
3.2344 -4.5637 -2.0003 0.9765
3.6296 -4.2585 -2.0010 0.9765
4.3311 -3.5485 -2.0023 0.9765
4.8956 -2.7246 -2.0036 0.9765
5.1207 -2.2779 -2.0042 0.9765
5.5458 -0.8423 -2.0059 0.9765
5.6002 -0.3446 -2.0065 0.9764
5.6100 0.1562 -2.0069 0.9764
4.9970 2.5650 -2.0086 0.9764
4.4627 3.4122 -2.0089 0.9764
4.1408 3.7966 -2.0090 0.9764
3.7858 4.1507 -2.0090 0.9764
3.4005 4.4716 -2.0089 0.9764
2.9881 4.7567 -2.0088 0.9764
2.5484 4.9970 -2.0059 0.9765
2.0489 5.0952 -1.9639 0.9769
0.1307 5.1839 -1.8544 0.9782
-0.7917 5.1221 -1.8535 0.9782
-2.1172 4.7259 -1.8519 0.9782
-3.5177 4.2707 -1.9786 0.9768
-4.2681 3.6185 -2.0010 0.9765
-5.2571 1.8958 -1.9985 0.9765
-5.5532 -0.5589 -1.9959 0.9766
-5.2046 -2.0075 -1.9949 0.9766
-5.0043 -2.4633 -1.9946 0.9766
-3.8267 -4.0564 -1.9942 0.9766
-3.4498 -4.3816 -1.9943 0.9766
-1.7011 -5.3131 -1.9950 0.9766
-1.2208 -5.4445 -1.9953 0.9766
-0.2345 -5.5770 -1.9961 0.9766
0.7601 -5.5326 -1.9971 0.9766
1.2507 -5.4443 -1.9976 0.9765
2.1991 -5.1386 -1.9988 0.9765
2.6493 -4.9236 -1.9994 0.9765
3.0788 -4.6692 -2.0001 0.9765
4.5227 -3.3027 -2.0027 0.9765
5.5849 -0.5326 -2.0063 0.9764
5.5305 0.9651 -2.0076 0.9764
5.4234 1.4546 -2.0080 0.9764
4.8469 2.8391 -2.0088 0.9764
4.2660 3.6553 -2.0090 0.9764
2.7186 4.9150 -2.0086 0.9764
0.7655 5.1302 -1.8549 0.9782
0.3049 5.1770 -1.8545 0.9782
-0.6191 5.1464 -1.8536 0.9782
-1.0752 5.0693 -1.8531 0.9782
-1.5225 4.9518 -1.8526 0.9782
-2.7761 4.3683 -1.8509 0.9783
-3.2819 4.2690 -1.9256 0.9774
-4.4619 3.3748 -2.0006 0.9765
-4.7435 2.9625 -2.0000 0.9765
-4.9872 2.5270 -1.9993 0.9765
-5.5495 0.6235 -1.9970 0.9766
-5.5693 -0.3719 -1.9961 0.9766
-5.5128 -0.8668 -1.9957 0.9766
-5.2694 -1.8315 -1.9950 0.9766
-5.0845 -2.2938 -1.9947 0.9766
-4.5954 -3.1598 -1.9944 0.9766
-4.2952 -3.5568 -1.9943 0.9766
-3.9609 -3.9255 -1.9942 0.9766
-3.2008 -4.5668 -1.9943 0.9766
-2.3392 -5.0636 -1.9947 0.9766
-1.8787 -5.2526 -1.9949 0.9766
-1.4031 -5.4000 -1.9952 0.9766
-0.4218 -5.5655 -1.9960 0.9766
0.5737 -5.5545 -1.9969 0.9766
1.5519 -5.3672 -1.9980 0.9765
2.4820 -5.0093 -1.9992 0.9765
2.9197 -4.7695 -1.9998 0.9765
4.0819 -3.8305 -2.0018 0.9765
4.4086 -3.4525 -2.0024 0.9765
4.7004 -3.0466 -2.0031 0.9765
5.1700 -2.1647 -2.0044 0.9765
5.5633 -0.7199 -2.0061 0.9765
5.6068 -0.2211 -2.0066 0.9764
5.4689 1.2714 -2.0079 0.9764
5.3346 1.7543 -2.0082 0.9764
5.1576 2.2232 -2.0085 0.9764
4.6817 3.1045 -2.0088 0.9764
4.3864 3.5098 -2.0090 0.9764
4.0561 3.8870 -2.0090 0.9764
3.6934 4.2331 -2.0090 0.9764
3.3011 4.5454 -2.0089 0.9764
1.8971 5.0356 -1.9243 0.9774
0.4788 5.1642 -1.8547 0.9782
0.0165 5.1852 -1.8543 0.9782
-0.9043 5.1031 -1.8533 0.9782
-1.3553 5.0008 -1.8528 0.9782
-2.2206 4.6777 -1.8517 0.9782
-2.6280 4.4597 -1.8511 0.9783
-3.0578 4.2671 -1.8773 0.9779
-3.6415 4.2276 -1.9953 0.9766
-4.3465 3.5233 -2.0009 0.9765
-4.9000 2.6935 -1.9996 0.9765
-5.1190 2.2452 -1.9989 0.9765
-5.5747 0.3137 -1.9967 0.9766
-5.5791 -0.1845 -1.9962 0.9766
-5.5393 -0.6811 -1.9958 0.9766
-5.3283 -1.6535 -1.9951 0.9766
-4.6991 -3.0036 -1.9944 0.9766
-1.1006 -5.4703 -1.9954 0.9766
-0.6086 -5.5477 -1.9958 0.9766
-0.1115 -5.5811 -1.9962 0.9766
0.8819 -5.5149 -1.9972 0.9766
1.3705 -5.4158 -1.9978 0.9765
1.8485 -5.2735 -1.9984 0.9765
3.5798 -4.3001 -2.0009 0.9765
3.9503 -3.9651 -2.0015 0.9765
4.2895 -3.5983 -2.0022 0.9765
5.0937 -2.3370 -2.0041 0.9765
5.4311 -1.3960 -2.0053 0.9765
5.5957 -0.4094 -2.0064 0.9764
5.5820 0.5913 -2.0073 0.9764
5.2292 2.0485 -2.0084 0.9764
4.7832 2.9453 -2.0088 0.9764
2.6073 4.9694 -2.0068 0.9764
2.1311 5.1274 -1.9857 0.9767
1.5563 4.9497 -1.8555 0.9782
1.1086 5.0679 -1.8552 0.9782
0.6522 5.1456 -1.8548 0.9782
-0.7323 5.1311 -1.8535 0.9782
-1.1866 5.0440 -1.8530 0.9782
-2.0624 4.7503 -1.8519 0.9782
-2.4769 4.5461 -1.8514 0.9782
-4.2261 3.6679 -2.0011 0.9765
-4.5348 3.2754 -2.0004 0.9765
-5.3870 1.4816 -1.9980 0.9765
-5.4961 0.9951 -1.9974 0.9766
-5.5827 0.0031 -1.9964 0.9766
-5.2276 -1.9472 -1.9949 0.9766
-5.0325 -2.4052 -1.9947 0.9766
-4.7976 -2.8441 -1.9945 0.9766
-4.5246 -3.2603 -1.9943 0.9766
-4.2157 -3.6506 -1.9942 0.9766
-3.8734 -4.0118 -1.9942 0.9766
-3.5003 -4.3413 -1.9943 0.9766
-3.0995 -4.6363 -1.9944 0.9766
-2.6739 -4.8946 -1.9945 0.9766
5.2286 -0.2609 -2.0062 0.9778
5.1143 1.1328 -2.0074 0.9778
4.8332 2.0237 -2.0080 0.9778
4.6340 2.4468 -2.0082 0.9778
3.1239 4.2082 -2.0084 0.9778
2.3265 4.6955 -2.0082 0.9778
1.8934 4.8707 -2.0026 0.9779
1.3979 4.8344 -1.9285 0.9787
0.9244 4.7507 -1.8547 0.9795
-2.0309 4.3961 -1.8558 0.9795
-2.4392 4.2399 -1.8745 0.9793
-4.0216 3.3302 -2.0010 0.9779
-4.7553 2.1453 -1.9992 0.9779
-5.0579 1.2659 -1.9981 0.9779
-5.1493 0.8096 -1.9976 0.9779
-5.2088 -0.1178 -1.9966 0.9779
-5.1032 -1.0406 -1.9959 0.9779
-4.9893 -1.4913 -1.9956 0.9779
-4.1516 -3.1401 -1.9948 0.9779
-3.8549 -3.4976 -1.9947 0.9779
-3.5277 -3.8274 -1.9947 0.9779
-3.1725 -4.1268 -1.9948 0.9779
-2.7921 -4.3934 -1.9949 0.9779
-2.3894 -4.6253 -1.9950 0.9779
-1.9677 -4.8204 -1.9952 0.9779
-1.5303 -4.9773 -1.9955 0.9779
-1.0806 -5.0947 -1.9958 0.9779
-0.6221 -5.1716 -1.9962 0.9779
0.7692 -5.1553 -1.9975 0.9779
1.2261 -5.0674 -1.9980 0.9779
3.2984 -4.0474 -2.0009 0.9779
4.2559 -3.0329 -2.0027 0.9779
4.5107 -2.6422 -2.0033 0.9779
4.9111 -1.8001 -2.0045 0.9778
5.0534 -1.3554 -2.0050 0.9778
5.1555 -0.8997 -2.0055 0.9778
5.2164 -0.4365 -2.0060 0.9778
5.2133 0.4971 -2.0069 0.9778
5.1492 0.9602 -2.0073 0.9778
5.0439 1.4157 -2.0076 0.9778
4.7135 2.2896 -2.0081 0.9778
4.2325 3.0908 -2.0084 0.9778
3.9402 3.4560 -2.0085 0.9778
3.6164 3.7936 -2.0085 0.9778
2.8849 4.3753 -2.0084 0.9778
2.0582 4.8095 -2.0048 0.9778
1.5953 4.8942 -1.9727 0.9782
0.6587 4.7942 -1.8545 0.9795
