ply
format ascii 1.0
element vertex 1583
property float32 x
property float32 y
property float32 z
property float32 I
end_header
9.8895 1.2506 0.1684 0.9609
7.8366 2.4646 0.1388 0.9677
7.0418 2.9289 0.1288 0.9699
6.5357 3.4327 0.1247 0.9709
3.6668 4.9262 0.1037 0.9757
2.7238 5.4846 0.1034 0.9758
1.7554 6.0583 0.1065 0.9751
1.2408 6.3632 0.1095 0.9744
0.0989 7.2444 0.1224 0.9714
15.3709 -2.5372 0.2632 0.9396
13.2119 -0.9812 0.2238 0.9484
10.1916 1.0719 0.1731 0.9598
9.0887 1.7880 0.1565 0.9636
8.0401 2.3443 0.1415 0.9671
6.6626 3.3228 0.1258 0.9707
5.8753 3.6191 0.1166 0.9728
5.3005 3.9592 0.1118 0.9739
4.8487 4.3480 0.1100 0.9743
4.3361 4.6514 0.1074 0.9749
3.7787 4.8600 0.1040 0.9757
0.2469 7.1241 0.1204 0.9719
-0.4026 7.3372 0.1241 0.9710
-2.0901 2.5792 0.0561 0.9868
-10.5098 -7.6798 0.2199 0.9493
17.7503 -3.4148 -0.1018 0.9302
14.8552 -1.4995 -0.0841 0.9420
9.3163 1.5779 -0.0532 0.9629
8.2960 2.1824 -0.0483 0.9663
6.8923 3.2125 -0.0428 0.9700
6.0482 3.5082 -0.0394 0.9724
5.4593 3.8570 -0.0376 0.9736
4.8858 4.1533 -0.0361 0.9747
4.4804 4.5582 -0.0360 0.9748
2.5705 5.7722 -0.0356 0.9750
2.0743 6.0659 -0.0361 0.9747
1.5157 6.1925 -0.0359 0.9748
0.9871 6.5055 -0.0370 0.9740
0.4308 7.0390 -0.0397 0.9722
-0.2069 7.2977 -0.0411 0.9712
-0.9023 7.6240 -0.0432 0.9698
18.7647 -4.0202 -0.1080 0.9261
11.2361 0.6448 -0.0634 0.9560
9.5872 1.4174 -0.0546 0.9620
8.5951 2.0692 -0.0498 0.9653
7.6238 2.5748 -0.0453 0.9683
7.0495 3.1073 -0.0434 0.9697
5.0092 4.0802 -0.0364 0.9745
4.6000 4.4873 -0.0362 0.9746
2.6852 5.7043 -0.0355 0.9751
2.1921 5.9962 -0.0359 0.9748
-0.7305 7.5223 -0.0426 0.9702
15.0606 -2.1622 -0.0857 0.9410
11.3050 0.4109 -0.0637 0.9558
7.0325 2.9251 -0.0429 0.9700
5.7291 3.6972 -0.0384 0.9731
4.2145 4.7157 -0.0356 0.9750
3.6629 4.9210 -0.0345 0.9758
3.1913 5.2003 -0.0344 0.9759
2.7210 5.4788 -0.0344 0.9758
2.3090 5.9270 -0.0358 0.9749
0.6913 6.6806 -0.0378 0.9735
0.0988 7.2355 -0.0407 0.9715
-0.5638 7.4236 -0.0419 0.9707
15.3701 -2.5370 -0.0877 0.9396
13.1806 -0.9789 -0.0744 0.9485
11.6774 0.1790 -0.0658 0.9544
9.0744 1.7852 -0.0521 0.9637
6.6620 3.3225 -0.0419 0.9707
5.2944 3.9547 -0.0372 0.9739
4.8433 4.3432 -0.0366 0.9743
4.3314 4.6464 -0.0358 0.9749
3.3016 5.1350 -0.0344 0.9759
2.8316 5.4133 -0.0344 0.9759
2.4251 5.8583 -0.0357 0.9750
1.8705 5.9824 -0.0353 0.9752
1.3627 6.2831 -0.0362 0.9746
-2.0963 2.5869 -0.0187 0.9868
-10.5252 -7.6910 -0.0734 0.9492
17.7495 -3.4146 -0.5090 0.9302
14.8180 -1.4957 -0.4194 0.9421
10.8629 0.8525 -0.3068 0.9573
7.4253 2.6827 -0.2223 0.9689
5.4530 3.8526 -0.1880 0.9736
4.8804 4.1487 -0.1804 0.9747
4.4756 4.5532 -0.1798 0.9748
3.8882 4.7366 -0.1726 0.9758
2.5678 5.7661 -0.1777 0.9751
0.9859 6.4981 -0.1851 0.9740
-0.2069 7.2984 -0.2056 0.9712
2.3026 -0.9464 -0.0701 0.9901
18.7026 -4.0069 -0.5386 0.9263
11.2149 0.6436 -0.3163 0.9560
9.5712 1.4151 -0.2724 0.9620
8.7503 2.1065 -0.2534 0.9646
7.0489 3.1071 -0.2169 0.9696
5.5864 3.7735 -0.1898 0.9734
5.0036 4.0756 -0.1817 0.9745
3.9910 4.6589 -0.1727 0.9758
3.0778 5.2600 -0.1716 0.9759
2.6823 5.6983 -0.1773 0.9751
2.1898 5.9898 -0.1796 0.9748
1.6335 6.1150 -0.1782 0.9750
1.1130 6.4229 -0.1836 0.9743
-2.1684 2.4573 -0.0923 0.9870
9.8555 1.2463 -0.2797 0.9610
8.9885 1.9652 -0.2591 0.9639
7.8144 2.4577 -0.2307 0.9678
7.0233 2.9212 -0.2142 0.9700
5.7224 3.6928 -0.1918 0.9731
5.1604 4.0261 -0.1843 0.9741
4.2099 4.7106 -0.1779 0.9750
3.6590 4.9158 -0.1726 0.9758
3.1879 5.1948 -0.1716 0.9759
2.7181 5.4730 -0.1721 0.9758
1.7516 6.0451 -0.1772 0.9751
0.6905 6.6728 -0.1889 0.9735
0.0987 7.2268 -0.2035 0.9715
13.1494 -0.9766 -0.3713 0.9486
11.6539 0.1787 -0.3282 0.9544
8.0169 2.3375 -0.2351 0.9671
4.8380 4.3384 -0.1830 0.9743
4.3268 4.6414 -0.1787 0.9749
2.4226 5.8520 -0.1783 0.9750
1.8684 5.9760 -0.1763 0.9753
0.2470 7.1254 -0.2008 0.9719
-2.1044 2.5969 -0.0941 0.9867
-10.5415 -7.7030 -0.3676 0.9491
2.3418 -0.9055 -0.1273 0.9900
11.2030 -3.2156 -0.5911 0.9544
11.9001 -0.1325 -0.6035 0.9535
8.2715 2.1760 -0.4338 0.9663
6.8747 3.2043 -0.3847 0.9701
4.8226 4.0996 -0.3210 0.9750
4.4707 4.5483 -0.3234 0.9748
3.3890 4.9763 -0.3053 0.9762
2.0699 6.0529 -0.3244 0.9747
1.5123 6.1789 -0.3226 0.9748
0.9848 6.4907 -0.3329 0.9740
0.4297 7.0224 -0.3568 0.9722
-0.2069 7.2990 -0.3703 0.9712
-0.8999 7.6038 -0.3883 0.9698
14.8737 -1.8175 -0.7599 0.9418
11.7579 -0.3780 -0.5966 0.9540
8.7371 2.1033 -0.4558 0.9646
4.9980 4.0710 -0.3269 0.9745
3.5442 4.9763 -0.3098 0.9758
2.6795 5.6922 -0.3191 0.9751
2.1875 5.9833 -0.3231 0.9748
-2.1660 2.4546 -0.1660 0.9870
2.3273 -1.0142 -0.1287 0.9899
11.3038 0.4108 -0.5736 0.9557
7.8034 2.4542 -0.4149 0.9678
7.0141 2.9174 -0.3853 0.9700
4.7106 4.4060 -0.3271 0.9745
4.2054 4.7055 -0.3201 0.9750
3.6552 4.9106 -0.3105 0.9758
1.2366 6.3419 -0.3277 0.9745
0.0985 7.2180 -0.3661 0.9715
-0.5624 7.4046 -0.3766 0.9707
-2.1100 2.4948 -0.1657 0.9870
9.1842 1.8068 -0.4747 0.9632
4.8327 4.3336 -0.3292 0.9743
4.3221 4.6364 -0.3215 0.9749
3.7666 4.8445 -0.3112 0.9757
2.4200 5.8458 -0.3209 0.9750
1.8664 5.9695 -0.3172 0.9753
1.3596 6.2691 -0.3253 0.9746
0.8217 6.5871 -0.3366 0.9738
-0.4010 7.3093 -0.3712 0.9711
-0.9392 -18.5395 -1.3611 0.9283
0.7355 -18.9255 -1.3887 0.9269
17.2453 -3.3176 -1.2876 0.9320
14.7441 -1.4882 -1.0866 0.9423
11.8751 -0.1323 -0.8708 0.9535
10.8232 0.8494 -0.7960 0.9574
8.2592 2.1727 -0.6262 0.9663
6.8659 3.2002 -0.5554 0.9701
5.4404 3.8437 -0.4884 0.9736
3.8799 4.7265 -0.4484 0.9758
3.3854 4.9710 -0.4410 0.9762
2.9614 5.3140 -0.4461 0.9759
2.5623 5.7538 -0.4618 0.9751
2.0677 6.0464 -0.4685 0.9747
1.5107 6.1721 -0.4659 0.9748
0.9837 6.4833 -0.4808 0.9740
0.4292 7.0141 -0.5152 0.9722
-0.2069 7.2996 -0.5354 0.9711
-18.0726 -6.3158 -1.4037 0.9261
-17.0631 -7.7361 -1.3737 0.9276
-16.0063 -9.0612 -1.3486 0.9289
-13.7572 -11.4481 -1.3123 0.9307
-10.0526 -14.4329 -1.2896 0.9319
-8.7268 -15.2802 -1.2902 0.9319
-5.9287 -16.7605 -1.3035 0.9312
-4.4512 -17.3934 -1.3164 0.9305
0.3363 -18.8423 -1.3818 0.9272
2.0643 -19.1641 -1.4133 0.9256
3.8666 -19.3966 -1.4502 0.9237
14.8730 -1.8175 -1.0986 0.9417
11.7573 -0.3779 -0.8625 0.9539
11.1727 0.6412 -0.8206 0.9561
7.0337 3.1003 -0.5636 0.9696
6.1720 3.4089 -0.5170 0.9721
4.9923 4.0664 -0.4721 0.9745
4.5850 4.4727 -0.4696 0.9746
3.5404 4.9711 -0.4475 0.9758
3.0713 5.2489 -0.4459 0.9759
1.6299 6.1016 -0.4631 0.9750
-0.0536 7.2989 -0.5352 0.9711
-0.7276 7.4928 -0.5520 0.9703
-2.1646 2.4530 -0.2399 0.9870
-17.3044 -7.4116 -1.3803 0.9273
-14.0303 -11.1853 -1.3156 0.9306
-11.6258 -13.2867 -1.2945 0.9316
-10.3570 -14.2236 -1.2901 0.9319
-7.6799 -15.8803 -1.2934 0.9317
-4.8029 -17.2513 -1.3130 0.9307
1.6523 -19.0964 -1.4054 0.9260
3.4366 -19.3504 -1.4410 0.9242
2.3186 -1.0104 -0.1854 0.9899
15.0584 -2.1619 -1.1154 0.9408
9.8218 1.2420 -0.7259 0.9611
7.7923 2.4507 -0.5989 0.9678
7.0048 2.9135 -0.5563 0.9700
5.7089 3.6842 -0.4982 0.9731
5.1487 4.0170 -0.4788 0.9741
4.7054 4.4012 -0.4724 0.9745
4.2009 4.7005 -0.4622 0.9750
3.6513 4.9054 -0.4484 0.9758
2.3017 5.9080 -0.4649 0.9749
1.7478 6.0319 -0.4605 0.9751
0.6889 6.6573 -0.4907 0.9735
0.0984 7.2092 -0.5286 0.9715
-2.1097 2.4944 -0.2395 0.9870
-15.4269 -9.7276 -1.3372 0.9295
-11.9172 -13.0560 -1.2961 0.9316
-9.3550 -14.8914 -1.2895 0.9319
-8.0040 -15.7007 -1.2922 0.9318
-5.1516 -17.1053 -1.3098 0.9309
-2.0789 -18.2195 -1.3446 0.9291
1.2442 -19.0238 -1.3978 0.9264
17.2485 -9.9085 -1.4585 0.9233
15.3680 -2.5367 -1.1421 0.9394
13.0873 -0.9719 -0.9622 0.9487
11.6070 0.1780 -0.8512 0.9545
10.1199 1.0644 -0.7461 0.9600
7.9938 2.3308 -0.6105 0.9672
6.6604 3.3217 -0.5457 0.9706
5.8474 3.6019 -0.5036 0.9728
4.8273 4.3288 -0.4754 0.9743
4.3174 4.6314 -0.4642 0.9749
3.2912 5.1188 -0.4462 0.9759
1.8644 5.9630 -0.4581 0.9753
0.8208 6.5795 -0.4862 0.9738
0.2469 7.1217 -0.5225 0.9718
-0.4005 7.3000 -0.5361 0.9711
-17.7790 -6.7464 -1.3943 0.9266
-15.6848 -9.4359 -1.3421 0.9292
-10.4655 -7.6474 -0.9504 0.9493
-13.4096 -11.7732 -1.3084 0.9309
-10.9582 -13.7930 -1.2917 0.9318
-8.3254 -15.5171 -1.2912 0.9318
-6.9370 -16.2718 -1.2970 0.9315
-4.0033 -17.5666 -1.3210 0.9303
-0.8387 -18.5654 -1.3626 0.9282
2.5896 -19.2425 -1.4236 0.9251
4.4149 -19.4473 -1.4622 0.9231
-0.7296 -14.4009 -1.3843 0.9437
0.5694 -14.6514 -1.4077 0.9428
6.6728 -15.9298 -1.6581 0.9330
8.3115 -15.7283 -1.7079 0.9310
11.7733 -0.1311 -1.1304 0.9538
10.7275 0.8419 -1.0331 0.9577
9.2557 1.5677 -0.9012 0.9630
7.3949 2.6717 -0.7549 0.9689
6.0190 3.4913 -0.6680 0.9724
5.4341 3.8392 -0.6388 0.9736
3.8757 4.7215 -0.5864 0.9758
3.3818 4.9658 -0.5768 0.9761
2.9583 5.3084 -0.5834 0.9759
2.5596 5.7477 -0.6041 0.9750
2.0654 6.0398 -0.6128 0.9747
0.9826 6.4759 -0.6288 0.9740
0.4287 7.0057 -0.6738 0.9722
-0.8975 7.5836 -0.7331 0.9698
-2.9979 14.2568 -1.3987 0.9431
-18.2948 3.7192 -1.7923 0.9277
-17.9474 2.0021 -1.7337 0.9300
-17.5074 0.3789 -1.6812 0.9321
-16.9843 -1.1537 -1.6343 0.9339
-15.7204 -3.9596 -1.5564 0.9369
-14.9922 -5.2394 -1.5247 0.9382
-13.3675 -7.5674 -1.4747 0.9401
-9.8340 -9.7968 -1.3327 0.9457
-7.8772 -11.3097 -1.3232 0.9461
-6.8379 -11.9727 -1.3237 0.9461
-4.6378 -13.1112 -1.3352 0.9456
-3.4765 -13.5847 -1.3462 0.9452
0.2606 -14.5993 -1.4018 0.9430
1.5934 -14.7919 -1.4283 0.9420
4.7177 -16.0299 -1.6042 0.9351
11.3223 -15.0787 -1.8103 0.9270
2.3003 -0.9455 -0.2388 0.9901
18.5184 -3.9675 -1.8182 0.9267
7.5815 2.5605 -0.7683 0.9684
4.9867 4.0619 -0.6175 0.9745
4.5799 4.4678 -0.6143 0.9746
3.9877 4.6551 -0.5885 0.9757
3.5367 4.9658 -0.5853 0.9758
3.0681 5.2434 -0.5832 0.9759
2.6738 5.6802 -0.6027 0.9751
2.1828 5.9705 -0.6103 0.9748
0.8563 3.2055 -0.3185 0.9868
1.1092 6.4012 -0.6237 0.9742
0.5538 6.7288 -0.6482 0.9732
-0.0535 7.2899 -0.6999 0.9711
-2.1633 2.4516 -0.3139 0.9869
-18.5792 5.9722 -1.8736 0.9246
-18.3618 4.1360 -1.8070 0.9272
-18.0377 2.3966 -1.7469 0.9295
-17.1141 -0.8020 -1.6448 0.9335
-16.5330 -2.2673 -1.6021 0.9351
-15.1685 -4.9461 -1.5317 0.9379
-14.3960 -6.1659 -1.5035 0.9390
-13.5691 -7.3097 -1.4797 0.9399
-11.8221 -7.8062 -1.3601 0.9447
-10.9591 -8.7369 -1.3456 0.9452
-6.0152 -12.4381 -1.3264 0.9460
-4.9044 -12.9907 -1.3331 0.9457
2.6437 -14.8856 -1.4515 0.9411
4.3546 -16.0315 -1.5949 0.9354
7.5361 -15.8370 -1.6838 0.9319
9.2009 -15.5743 -1.7366 0.9299
10.9136 -15.1884 -1.7956 0.9276
12.6720 -14.6679 -1.8609 0.9251
2.3099 -1.0066 -0.2419 0.9899
9.8049 1.2399 -0.9488 0.9611
8.9468 1.9561 -0.8792 0.9639
7.7813 2.4472 -0.7831 0.9678
5.7022 3.6798 -0.6515 0.9731
4.7002 4.3963 -0.6179 0.9745
3.6474 4.9002 -0.5865 0.9758
0.9383 3.2383 -0.3237 0.9865
1.2338 6.3277 -0.6189 0.9744
0.6881 6.6496 -0.6418 0.9735
0.0983 7.2004 -0.6913 0.9715
-2.1096 2.4943 -0.3136 0.9870
-18.4229 4.5582 -1.8220 0.9266
-17.7249 1.1294 -1.7051 0.9311
-17.2396 -0.4454 -1.6556 0.9330
-16.0411 -3.3311 -1.5729 0.9363
-15.3415 -4.6485 -1.5390 0.9376
-14.5823 -5.8865 -1.5097 0.9388
-13.7679 -7.0479 -1.4849 0.9397
-10.2310 -7.8108 -1.2358 0.9496
-8.3512 -10.9770 -1.3242 0.9461
-7.3308 -11.6692 -1.3230 0.9461
-4.0268 -13.3705 -1.3406 0.9454
-2.8434 -13.8093 -1.3536 0.9449
-1.6181 -14.1809 -1.3703 0.9443
-0.3498 -14.4827 -1.3908 0.9434
0.9622 -14.7111 -1.4154 0.9425
2.3187 -14.8620 -1.4441 0.9413
3.9942 -16.0278 -1.5858 0.9358
5.5486 -16.0061 -1.6264 0.9342
8.8058 -15.6466 -1.7237 0.9304
10.5074 -15.2906 -1.7812 0.9282
17.2160 -9.8899 -1.9061 0.9233
10.1020 1.0625 -0.9752 0.9600
9.1831 1.8066 -0.8985 0.9631
7.1686 2.8066 -0.7391 0.9695
6.6527 3.3179 -0.7137 0.9706
5.2703 3.9367 -0.6315 0.9739
4.8220 4.3240 -0.6218 0.9743
4.3128 4.6264 -0.6072 0.9749
3.7586 4.8342 -0.5879 0.9757
2.8197 5.3904 -0.5840 0.9759
1.8624 5.9565 -0.5992 0.9752
1.3566 6.2552 -0.6145 0.9746
-0.4000 7.2907 -0.7010 0.9711
-18.6407 6.8680 -1.9072 0.9233
-18.4779 4.9858 -1.8374 0.9260
-18.2023 3.2012 -1.7743 0.9284
-17.3609 -0.0839 -1.6668 0.9326
-16.8149 -1.5902 -1.6215 0.9344
-16.1961 -3.0100 -1.5815 0.9359
-14.7656 -5.6029 -1.5162 0.9385
-13.9638 -6.7820 -1.4903 0.9395
-13.1095 -7.8866 -1.4688 0.9404
-10.4083 -7.6056 -1.2376 0.9495
-9.5549 -10.0364 -1.3304 0.9458
-7.5739 -11.5123 -1.3230 0.9461
-5.4309 -12.7391 -1.3295 0.9459
-4.2985 -13.2580 -1.3381 0.9455
-1.9095 -14.0999 -1.3660 0.9444
0.6503 -14.6643 -1.4092 0.9427
1.9963 -14.8338 -1.4370 0.9416
3.6366 -16.0189 -1.5770 0.9361
6.7716 -15.9206 -1.6610 0.9328
8.4133 -15.7123 -1.7111 0.9309
0.4939 -12.7097 -1.5109 0.9501
3.0114 -13.6095 -1.6557 0.9454
5.6255 -13.4297 -1.7296 0.9430
6.9742 -13.1977 -1.7731 0.9416
9.7378 -12.4168 -1.8744 0.9384
11.1429 -11.8532 -1.9325 0.9366
12.5546 -11.1636 -1.9956 0.9346
13.9644 -10.3399 -2.0640 0.9324
2.3530 -0.9099 -0.2997 0.9899
17.9406 -5.1495 -2.2171 0.9276
17.4656 -3.3600 -2.1127 0.9309
11.8873 -0.1324 -1.4121 0.9532
10.2257 0.8025 -1.2184 0.9595
7.3848 2.6681 -0.9327 0.9689
6.8483 3.1920 -0.8975 0.9700
6.0117 3.4871 -0.8255 0.9724
3.3782 4.9605 -0.7129 0.9761
2.0632 6.0333 -0.7574 0.9746
0.4282 6.9974 -0.8327 0.9722
-0.8963 7.5735 -0.9059 0.9697
-13.3554 14.5090 -2.3425 0.9236
-14.5984 11.0485 -2.1747 0.9289
-14.9833 9.3603 -2.0986 0.9313
-15.2273 7.7146 -2.0277 0.9336
-15.2301 3.0961 -1.8461 0.9393
-15.0232 1.6759 -1.7956 0.9409
-14.7276 0.3187 -1.7498 0.9424
-14.3510 -0.9748 -1.7086 0.9437
-13.9005 -2.2045 -1.6718 0.9449
-13.3821 -3.3706 -1.6393 0.9459
-12.8010 -4.4736 -1.6108 0.9468
-11.4687 -6.4925 -1.5655 0.9483
-9.9903 -6.9022 -1.4424 0.9523
-9.2529 -7.6998 -1.4299 0.9527
-7.6528 -9.1258 -1.4147 0.9532
-6.7937 -9.7541 -1.4120 0.9532
-4.9638 -10.8390 -1.4161 0.9531
-3.9949 -11.2937 -1.4230 0.9529
-2.9911 -11.6882 -1.4331 0.9526
-1.9531 -12.0206 -1.4466 0.9521
-0.8815 -12.2885 -1.4634 0.9516
0.2240 -12.5538 -1.4915 0.9507
1.4270 -13.2478 -1.5828 0.9477
2.7126 -13.6074 -1.6482 0.9456
3.9977 -13.5834 -1.6819 0.9446
5.3128 -13.4699 -1.7200 0.9433
8.0225 -12.9508 -1.8096 0.9405
9.4098 -12.5317 -1.8615 0.9388
12.2231 -11.3372 -1.9803 0.9351
15.0307 -9.6108 -2.1192 0.9307
2.2995 -0.9451 -0.2953 0.9900
17.6698 -5.4759 -2.1974 0.9282
11.7561 -0.3779 -1.3972 0.9537
9.2454 1.3669 -1.1102 0.9631
8.4455 2.0332 -1.0319 0.9656
7.5709 2.5570 -0.9492 0.9683
7.0154 3.0923 -0.9107 0.9696
6.1568 3.4005 -0.8355 0.9721
4.9811 4.0573 -0.7631 0.9745
3.9834 4.6501 -0.7273 0.9756
3.5329 4.9605 -0.7234 0.9758
3.0648 5.2378 -0.7209 0.9759
2.1804 5.9641 -0.7543 0.9747
0.5531 6.7209 -0.8010 0.9732
-13.9100 13.1761 -2.2759 0.9257
-14.9061 9.7531 -2.1160 0.9308
-15.1820 8.0966 -2.0438 0.9330
-15.3503 4.9343 -1.9153 0.9371
-15.0800 2.0036 -1.8070 0.9406
-14.8045 0.6315 -1.7602 0.9421
-14.4463 -0.6770 -1.7179 0.9434
-14.0126 -1.9216 -1.6801 0.9446
-13.5096 -3.1026 -1.6465 0.9457
-12.9428 -4.2203 -1.6171 0.9466
-12.3169 -5.2754 -1.5916 0.9475
-11.6360 -6.2683 -1.5700 0.9482
-9.4298 -7.5177 -1.4325 0.9526
-8.6598 -8.2721 -1.4226 0.9529
-7.8489 -8.9702 -1.4158 0.9531
-6.1108 -10.1965 -1.4121 0.9532
-4.2255 -11.1924 -1.4211 0.9530
1.1315 -13.0775 -1.5592 0.9485
2.4155 -13.6007 -1.6409 0.9459
6.3380 -13.3191 -1.7521 0.9423
7.6996 -13.0331 -1.7981 0.9408
10.4820 -12.1329 -1.9046 0.9375
14.7080 -9.8455 -2.1024 0.9312
18.5371 -4.3805 -2.2626 0.9261
15.0073 -2.1545 -1.8009 0.9408
12.0077 -0.6386 -1.4284 0.9527
8.6213 1.8849 -1.0483 0.9651
7.7702 2.4437 -0.9676 0.9677
5.1370 4.0078 -0.7739 0.9741
3.1745 5.1729 -0.7209 0.9758
2.7066 5.4499 -0.7228 0.9758
2.2967 5.8953 -0.7515 0.9748
-14.8210 10.1480 -2.1337 0.9302
-15.2942 3.7841 -1.8715 0.9385
-15.1319 2.3348 -1.8187 0.9402
-14.8769 0.9479 -1.7707 0.9417
-14.5374 -0.3756 -1.7274 0.9431
-14.1208 -1.6352 -1.6886 0.9443
-13.6335 -2.8311 -1.6540 0.9455
-12.4688 -5.0333 -1.5972 0.9473
-10.4437 -6.5854 -1.4666 0.9515
-9.6044 -7.3324 -1.4353 0.9525
-7.2018 -9.4663 -1.4129 0.9532
-6.3226 -10.0644 -1.4118 0.9533
-4.4541 -11.0877 -1.4194 0.9530
-3.4666 -11.5107 -1.4280 0.9527
2.1202 -13.5894 -1.6338 0.9461
3.3906 -13.6055 -1.6656 0.9451
4.6919 -13.5347 -1.7016 0.9439
7.3780 -13.1096 -1.7869 0.9412
10.1524 -12.2627 -1.8911 0.9379
11.5602 -11.6626 -1.9506 0.9360
12.9724 -10.9342 -2.0153 0.9339
14.6338 -8.4065 -2.0047 0.9343
17.1169 -6.1032 -2.1586 0.9294
18.2760 -4.7260 -2.2423 0.9268
9.8064 1.0314 -1.1713 0.9611
7.9706 2.3240 -0.9862 0.9671
7.1590 2.8028 -0.9132 0.9695
6.6443 3.3137 -0.8820 0.9705
5.8334 3.5933 -0.8138 0.9728
4.7724 4.2796 -0.7614 0.9745
4.3081 4.6213 -0.7505 0.9749
3.7546 4.8291 -0.7266 0.9757
2.4122 5.8271 -0.7491 0.9749
1.3551 6.2482 -0.7595 0.9746
0.8189 6.5643 -0.7858 0.9737
0.2463 7.1045 -0.8444 0.9718
-0.3995 7.2814 -0.8662 0.9711
-14.7277 10.5451 -2.1516 0.9296
-15.2742 7.2369 -2.0077 0.9342
-15.3532 5.6567 -1.9436 0.9362
-15.1786 2.6694 -1.8307 0.9398
-14.9446 1.2678 -1.7816 0.9414
-14.6243 -0.0707 -1.7372 0.9428
-12.6177 -4.7879 -1.6031 0.9471
-11.9623 -5.8099 -1.5797 0.9478
-8.2345 -8.6495 -1.4186 0.9530
-7.4026 -9.3176 -1.4136 0.9532
-5.6247 -10.4834 -1.4132 0.9532
-4.6809 -10.9797 -1.4178 0.9531
-3.7015 -11.4168 -1.4257 0.9528
-0.5582 -12.3550 -1.4691 0.9514
5.7073 -13.4184 -1.7321 0.9430
0.4561 -11.7357 -1.6641 0.9537
1.5245 -11.8168 -1.6882 0.9530
2.6162 -11.8236 -1.7158 0.9523
3.7287 -11.7526 -1.7470 0.9514
4.8589 -11.5995 -1.7819 0.9505
6.0032 -11.3602 -1.8205 0.9494
7.1572 -11.0298 -1.8630 0.9483
8.3158 -10.6036 -1.9093 0.9470
12.3315 -7.5248 -2.0468 0.9433
12.9153 -6.3737 -2.0407 0.9435
15.5278 -2.9872 -2.2405 0.9381
9.0892 1.5395 -1.3062 0.9634
7.9960 2.1035 -1.1715 0.9671
6.6219 3.0864 -1.0352 0.9709
4.8010 4.0812 -0.8928 0.9749
3.8674 4.7113 -0.8636 0.9757
2.5541 5.7354 -0.8896 0.9750
2.0609 6.0267 -0.9025 0.9746
0.7933 3.2413 -0.4728 0.9866
0.4247 6.9398 -0.9851 0.9723
-0.2026 7.1469 -1.0130 0.9715
-0.8779 7.4178 -1.0584 0.9703
-2.9605 14.0789 -2.0385 0.9435
-8.1701 15.8618 -2.5281 0.9305
-9.2630 14.6085 -2.4509 0.9325
-11.0039 11.9544 -2.3021 0.9365
-11.6601 10.5895 -2.2318 0.9383
-12.5757 7.8563 -2.1010 0.9419
-12.8502 6.5103 -2.0411 0.9435
-13.0348 2.6498 -1.8847 0.9477
-12.0610 -1.9128 -1.7303 0.9519
-11.6412 -2.9321 -1.7010 0.9527
-11.1610 -3.9004 -1.6752 0.9534
-10.6245 -4.8169 -1.6529 0.9540
-10.0355 -5.6811 -1.6340 0.9545
-9.3973 -6.4925 -1.6184 0.9549
-8.7130 -7.2506 -1.6061 0.9552
-6.9690 -8.3103 -1.5367 0.9571
-6.1329 -8.8053 -1.5204 0.9576
-5.3071 -9.2924 -1.5162 0.9577
-4.4784 -9.7791 -1.5240 0.9575
-2.7595 -10.7831 -1.5771 0.9560
-1.8365 -11.3030 -1.6225 0.9548
4.5922 -11.6430 -1.7734 0.9507
8.0438 -10.7125 -1.8981 0.9473
9.2018 -10.2097 -1.9474 0.9460
10.3528 -9.6024 -2.0007 0.9446
11.4884 -8.8859 -2.0579 0.9430
12.5841 -8.0464 -2.1164 0.9414
12.6874 -6.5961 -2.0261 0.9439
14.5306 -4.5030 -2.1554 0.9404
15.3484 -3.2883 -2.2241 0.9386
14.8708 -1.8172 -2.1227 0.9413
10.7985 0.6197 -1.5325 0.9572
9.3897 1.3883 -1.3449 0.9624
8.2206 1.9790 -1.1980 0.9664
3.9791 4.6450 -0.8666 0.9756
3.5291 4.9552 -0.8620 0.9757
1.1067 6.3867 -0.9184 0.9742
0.5525 6.7129 -0.9544 0.9732
-0.7141 7.3536 -1.0468 0.9706
-6.6145 17.3003 -2.6243 0.9279
-9.0200 14.9085 -2.4689 0.9320
-2.1608 2.4487 -0.4627 0.9869
-11.5184 10.9108 -2.2480 0.9379
-12.0710 9.5408 -2.1801 0.9397
-12.4943 8.1750 -2.1156 0.9415
-12.9844 5.4970 -1.9978 0.9446
-13.0671 4.2003 -1.9448 0.9461
-12.4890 -0.5852 -1.7715 0.9507
-11.7453 -2.6974 -1.7075 0.9525
-11.2789 -3.6778 -1.6809 0.9532
-9.5514 -6.3068 -1.6217 0.9548
-8.8776 -7.0774 -1.6087 0.9552
-8.0358 -7.6760 -1.5746 0.9561
-7.1681 -8.1921 -1.5424 0.9570
-6.3277 -8.6901 -1.5231 0.9575
-4.6739 -9.6645 -1.5211 0.9576
-0.0368 -11.6730 -1.6539 0.9539
1.0199 -11.7877 -1.6764 0.9533
2.1010 -11.8299 -1.7024 0.9526
5.4645 -11.4836 -1.8019 0.9499
6.6146 -11.1965 -1.8426 0.9488
10.0837 -9.7546 -1.9879 0.9449
12.3411 -8.2611 -2.1042 0.9418
12.4571 -6.8123 -2.0117 0.9443
2.3006 -1.0025 -0.3556 0.9899
14.9659 -2.1486 -2.1422 0.9407
12.0071 -0.6386 -1.7037 0.9526
8.4707 1.8520 -1.2286 0.9656
6.8917 2.8665 -1.0576 0.9703
6.4335 3.3791 -1.0296 0.9711
5.6887 3.6711 -0.9593 0.9730
5.1311 4.0033 -0.9221 0.9741
4.1873 4.6853 -0.8903 0.9749
3.1711 5.1674 -0.8590 0.9758
2.2942 5.8890 -0.8955 0.9748
0.9400 3.2439 -0.4785 0.9864
1.2310 6.3134 -0.9114 0.9743
0.6865 6.6341 -0.9450 0.9734
0.0974 7.1323 -1.0107 0.9716
-0.5537 7.2898 -1.0359 0.9709
-3.2455 19.4589 -2.7952 0.9234
-4.8371 18.5767 -2.7199 0.9254
-7.6054 16.4249 -2.5646 0.9295
-12.4061 8.4946 -2.1304 0.9411
-12.7358 7.1394 -2.0687 0.9427
-13.0638 3.2323 -1.9068 0.9471
-12.9785 2.0026 -1.8607 0.9483
-12.8079 0.8161 -1.8184 0.9495
-12.2360 -1.4169 -1.7453 0.9515
-11.8461 -2.4599 -1.7143 0.9523
-9.7028 -6.1182 -1.6253 0.9547
-9.0398 -6.9014 -1.6114 0.9551
-8.2450 -7.5512 -1.5841 0.9558
-6.5233 -8.5744 -1.5265 0.9574
-4.0332 -10.0399 -1.5330 0.9572
-1.3049 -11.4360 -1.6309 0.9546
-0.2810 -11.6359 -1.6492 0.9541
0.7696 -11.7672 -1.6708 0.9535
1.8452 -11.8267 -1.6960 0.9528
6.3438 -11.2721 -1.8327 0.9491
8.6587 -10.4584 -1.9238 0.9466
10.9578 -9.2361 -2.0306 0.9437
12.0814 -8.4599 -2.0898 0.9422
13.1986 -6.0846 -2.0593 0.9430
14.1202 -5.0347 -2.1241 0.9412
15.2706 -2.5206 -2.1930 0.9394
12.6353 -0.9384 -1.7952 0.9501
11.5368 0.1769 -1.6348 0.9545
7.7399 2.2567 -1.1423 0.9680
6.4784 3.2309 -1.0257 0.9712
5.8264 3.5890 -0.9696 0.9727
5.2582 3.9276 -0.9299 0.9738
4.8112 4.3144 -0.9156 0.9742
3.2807 5.1025 -0.8595 0.9758
2.8137 5.3790 -0.8601 0.9758
2.4096 5.8208 -0.8926 0.9749
1.8583 5.9435 -0.8823 0.9752
0.8179 6.5567 -0.9362 0.9737
-1.0895 7.4994 -1.0737 0.9698
-4.4753 18.7970 -2.7378 0.9249
-9.5576 14.2261 -2.4284 0.9331
-10.4575 12.9046 -2.3534 0.9351
-11.2125 11.5519 -2.2810 0.9370
-11.8281 10.1841 -2.2115 0.9389
-12.3112 8.8149 -2.1454 0.9407
-12.6691 7.4558 -2.0829 0.9423
-12.9097 6.1166 -2.0241 0.9439
-12.3179 -1.1649 -1.7531 0.9512
-11.0079 -4.1770 -1.6682 0.9535
-10.4555 -5.0781 -1.6469 0.9541
-9.8517 -5.9267 -1.6290 0.9546
-9.1996 -6.7224 -1.6144 0.9550
-8.4568 -7.4248 -1.5945 0.9556
-5.8881 -8.9499 -1.5179 0.9576
-5.0628 -9.4361 -1.5173 0.9577
-4.2309 -9.9242 -1.5286 0.9574
-3.3790 -10.4221 -1.5524 0.9567
-1.5410 -11.3794 -1.6271 0.9547
-0.5238 -11.5950 -1.6446 0.9542
1.5906 -11.8193 -1.6898 0.9530
4.9285 -11.5874 -1.7842 0.9504
-0.5209 -10.2830 -1.6962 0.9591
1.3492 -10.4579 -1.7371 0.9582
3.2867 -10.3595 -1.7905 0.9569
6.2596 -9.6465 -1.8944 0.9545
7.2503 -9.2450 -1.9355 0.9535
10.1354 -7.5047 -2.0776 0.9502
10.2454 -6.2519 -1.9772 0.9525
13.6196 -1.3747 -2.2551 0.9460
11.8425 -0.1319 -1.9510 0.9531
10.4432 0.8196 -1.7257 0.9584
8.1651 2.1480 -1.3909 0.9664
7.2273 2.6112 -1.2659 0.9693
5.8317 3.3826 -1.1106 0.9730
5.3126 3.7534 -1.0716 0.9740
3.8218 4.6558 -0.9923 0.9759
3.4154 5.0151 -0.9996 0.9757
2.5184 5.6552 -1.0198 0.9752
0.7645 3.1234 -0.5297 0.9870
-0.8753 7.3959 -1.2269 0.9703
-4.2611 13.9366 -2.4008 0.9426
-8.6289 11.2439 -2.3349 0.9442
-10.4419 7.9027 -2.1573 0.9483
-10.8252 6.7627 -2.1027 0.9496
-11.1055 5.6264 -2.0509 0.9508
-11.3835 2.3141 -1.9137 0.9540
-11.3070 1.2614 -1.8743 0.9549
-10.9321 -0.7426 -1.8051 0.9566
-7.1109 -7.0840 -1.6535 0.9601
-5.7092 -8.1970 -1.6456 0.9603
-4.1688 -9.1029 -1.6494 0.9602
-3.3515 -9.4748 -1.6556 0.9601
-2.5055 -9.7905 -1.6649 0.9599
-1.6326 -10.0481 -1.6770 0.9596
-0.7350 -10.2456 -1.6922 0.9592
0.1853 -10.3808 -1.7104 0.9588
2.0839 -10.4538 -1.7560 0.9577
6.0264 -9.7285 -1.8852 0.9547
8.9712 -8.3210 -2.0158 0.9516
10.8128 -6.9138 -2.1143 0.9493
10.8619 -5.6470 -2.0168 0.9516
2.2979 -0.9445 -0.4093 0.9900
12.3267 -3.8200 -2.1260 0.9490
13.5048 -1.6503 -2.2413 0.9463
11.7549 -0.3779 -1.9375 0.9534
6.6217 2.9187 -1.1921 0.9711
5.9723 3.2986 -1.1240 0.9727
3.9321 4.5902 -0.9957 0.9758
3.5254 4.9499 -1.0011 0.9757
2.6398 5.6079 -1.0211 0.9752
2.1147 5.7844 -1.0146 0.9753
0.8198 3.0688 -0.5233 0.9872
-5.5029 14.3930 -2.5385 0.9394
-8.4432 11.4938 -2.3495 0.9438
-9.8194 9.3014 -2.2282 0.9466
-10.3365 8.1698 -2.1705 0.9480
-10.7446 7.0302 -2.1153 0.9493
-11.0487 5.8923 -2.0628 0.9505
-11.2539 4.7643 -2.0133 0.9517
-11.3658 3.6535 -1.9667 0.9528
-11.3899 2.5656 -1.9234 0.9538
-10.7169 -1.4697 -1.7820 0.9571
-9.9868 -3.2565 -1.7305 0.9583
-9.5382 -4.0852 -1.7094 0.9588
-8.4914 -5.6069 -1.6763 0.9596
-5.8812 -8.0769 -1.6459 0.9603
-5.1352 -8.5686 -1.6457 0.9603
-1.8398 -9.9930 -1.6739 0.9596
1.8576 -10.4593 -1.7500 0.9578
3.8089 -10.2846 -1.8067 0.9565
6.7861 -9.4441 -1.9158 0.9539
7.7725 -8.9966 -1.9586 0.9529
9.6979 -7.8319 -2.0535 0.9507
10.6209 -7.1096 -2.1055 0.9495
10.6756 -5.8381 -2.0045 0.9519
12.1678 -4.0527 -2.1128 0.9493
12.8168 -3.0287 -2.1696 0.9480
13.3847 -1.9216 -2.2276 0.9467
11.1338 0.4046 -1.8354 0.9558
9.7541 1.2334 -1.6197 0.9609
7.6485 2.4054 -1.3208 0.9680
5.5427 3.5769 -1.0867 0.9736
4.1827 4.6801 -1.0340 0.9749
3.6357 4.8844 -1.0031 0.9756
3.1677 5.1619 -0.9977 0.9757
2.2396 5.7488 -1.0164 0.9753
0.6698 6.4730 -1.0721 0.9740
-3.7114 14.2535 -2.4264 0.9420
-6.3516 13.7172 -2.4903 0.9406
-2.1114 2.4965 -0.5386 0.9868
-10.6584 7.2979 -2.1280 0.9490
-10.9864 6.1588 -2.0749 0.9502
-11.2143 5.0278 -2.0246 0.9514
-11.3526 1.7517 -1.8924 0.9545
-11.2353 0.7159 -1.8547 0.9554
-10.4652 -2.1732 -1.7608 0.9576
-10.0843 -3.0556 -1.7359 0.9582
-9.6481 -3.8947 -1.7140 0.9587
-9.1603 -4.6892 -1.6953 0.9591
-8.6240 -5.4380 -1.6796 0.9595
-8.0423 -6.1398 -1.6669 0.9598
-6.7535 -7.3989 -1.6503 0.9602
-4.5419 -8.9094 -1.6474 0.9603
-3.7388 -9.3071 -1.6523 0.9602
-2.9061 -9.6494 -1.6602 0.9600
0.6819 -10.4263 -1.7213 0.9585
1.6321 -10.4611 -1.7442 0.9580
2.5984 -10.4268 -1.7702 0.9574
3.5776 -10.3204 -1.7994 0.9567
6.5534 -9.5366 -1.9062 0.9542
10.4074 -7.2877 -2.0931 0.9498
10.4869 -6.0243 -1.9924 0.9522
12.0051 -4.2805 -2.0997 0.9496
12.6713 -3.2767 -2.1561 0.9483
13.2594 -2.1886 -2.2139 0.9470
11.5134 0.1765 -1.8969 0.9544
8.8939 1.7497 -1.4933 0.9639
7.8701 2.2947 -1.3505 0.9673
6.2642 3.1241 -1.1532 0.9720
5.6592 3.4859 -1.0950 0.9734
4.8058 4.3096 -1.0634 0.9742
4.2986 4.6112 -1.0385 0.9748
3.2772 5.0970 -0.9983 0.9757
2.3636 5.7097 -1.0180 0.9753
1.0301 3.2948 -0.5687 0.9861
-0.3411 6.2169 -1.0257 0.9751
-1.0966 7.5482 -1.2565 0.9696
-3.4299 14.4062 -2.4396 0.9417
-4.9504 14.7802 -2.5678 0.9388
-7.1336 12.9928 -2.4418 0.9417
-8.0525 11.9859 -2.3788 0.9431
-9.5379 9.8266 -2.2560 0.9460
-10.9186 6.4257 -2.0871 0.9499
-11.3892 3.0731 -1.9433 0.9533
-11.3690 1.9994 -1.9017 0.9543
-10.8534 -1.0264 -1.7960 0.9568
-10.5462 -1.9600 -1.7671 0.9574
-10.1788 -2.8523 -1.7414 0.9581
-9.7553 -3.7017 -1.7189 0.9586
-9.2792 -4.5068 -1.6994 0.9590
-8.1828 -5.9794 -1.6696 0.9597
-7.5682 -6.6447 -1.6591 0.9600
-6.9130 -7.2613 -1.6516 0.9602
-5.4897 -8.3443 -1.6454 0.9603
-4.7259 -8.8082 -1.6467 0.9603
-3.9301 -9.2187 -1.6509 0.9602
-1.3695 -10.1129 -1.6812 0.9595
1.4075 -10.4590 -1.7385 0.9581
3.3468 -10.3520 -1.7923 0.9569
4.3334 -10.1883 -1.8239 0.9561
-0.4680 -9.2380 -1.7386 0.9631
2.0680 -9.3459 -1.7992 0.9618
2.9361 -9.2544 -1.8249 0.9613
3.8099 -9.0953 -1.8535 0.9607
7.2713 -7.7348 -1.9954 0.9577
8.1005 -7.2030 -2.0375 0.9568
8.9706 -5.4740 -1.9752 0.9581
10.8183 -3.1052 -2.1155 0.9552
11.7199 -1.1830 -2.2141 0.9532
10.4237 0.8181 -1.9653 0.9583
9.1948 1.5574 -1.7529 0.9628
8.1977 2.1566 -1.5933 0.9661
7.3541 2.6570 -1.4697 0.9687
6.5781 3.0660 -1.3641 0.9709
5.2813 3.7313 -1.2154 0.9740
4.7376 4.0273 -1.1688 0.9750
4.4414 4.5184 -1.1909 0.9745
3.3177 4.8715 -1.1078 0.9763
0.7586 3.0993 -0.5997 0.9871
-0.1760 6.2090 -1.1675 0.9750
-0.8927 7.5430 -1.4277 0.9696
-2.6076 12.4006 -2.3818 0.9497
-5.4516 10.5840 -2.2378 0.9527
-6.7186 10.5959 -2.3582 0.9502
-2.2613 2.4567 -0.6276 0.9865
-8.6703 7.8742 -2.2014 0.9534
-9.1285 6.9087 -2.1518 0.9545
-9.4938 5.9309 -2.1041 0.9555
-10.0658 3.0039 -1.9744 0.9581
-10.0951 2.0522 -1.9363 0.9589
-10.0506 1.1212 -1.9008 0.9597
-9.2184 -2.3219 -1.7868 0.9620
-8.8661 -3.0984 -1.7653 0.9625
-8.0126 -4.5359 -1.7306 0.9632
-7.5175 -5.1937 -1.7174 0.9635
-6.9806 -5.8090 -1.7070 0.9637
-6.4046 -6.3804 -1.6992 0.9639
-5.7918 -6.9066 -1.6942 0.9640
-4.4651 -7.8182 -1.6923 0.9640
-3.7556 -8.2008 -1.6954 0.9640
-2.2551 -8.8120 -1.7097 0.9637
-1.4684 -9.0373 -1.7209 0.9634
-0.6605 -9.2066 -1.7349 0.9631
0.1663 -9.3179 -1.7517 0.9628
1.0092 -9.3690 -1.7712 0.9624
2.7317 -9.2819 -1.8186 0.9614
4.4799 -8.9264 -1.8772 0.9602
8.7167 -6.7421 -2.0713 0.9561
10.6928 -3.3137 -2.1041 0.9555
11.6311 -1.4213 -2.2024 0.9534
11.7543 -0.3778 -2.2105 0.9533
10.7572 0.6173 -2.0253 0.9571
8.4153 2.0259 -1.6269 0.9654
7.5390 2.5461 -1.4957 0.9681
6.0422 3.3372 -1.2974 0.9723
5.4179 3.6597 -1.2289 0.9737
4.8573 3.9564 -1.1775 0.9748
4.5597 4.4480 -1.1973 0.9744
3.8848 4.5349 -1.1224 0.9760
3.4245 4.8082 -1.1095 0.9763
2.5164 5.3459 -1.1106 0.9762
0.5401 6.5629 -1.2377 0.9736
-0.7214 7.4286 -1.4029 0.9701
-2.3572 12.5082 -2.3924 0.9495
-3.3984 12.0115 -2.3463 0.9505
-4.3669 11.4217 -2.2984 0.9514
-5.2553 10.7516 -2.2494 0.9525
-7.2994 9.9368 -2.3175 0.9511
-2.1583 2.4458 -0.6131 0.9868
-8.5490 8.0980 -2.2133 0.9532
-9.0294 7.1367 -2.1633 0.9542
-9.7125 5.1797 -2.0689 0.9562
-9.9695 0.4253 -1.8756 0.9602
-9.2934 -2.1343 -1.7923 0.9619
-8.5620 -3.6672 -1.7507 0.9628
-8.1224 -4.3755 -1.7341 0.9631
-6.5432 -6.2503 -1.7008 0.9638
-5.9388 -6.7872 -1.6951 0.9640
-3.1937 -8.4594 -1.6996 0.9639
-2.4364 -8.7512 -1.7074 0.9637
-1.6550 -8.9894 -1.7181 0.9635
-0.0293 -9.2971 -1.7475 0.9629
5.1487 -8.7152 -1.9026 0.9596
7.7143 -7.4625 -2.0174 0.9573
8.5297 -6.8885 -2.0608 0.9564
9.3094 -6.2317 -2.1057 0.9554
9.3313 -5.1029 -1.9990 0.9576
2.2936 -0.9995 -0.4703 0.9899
11.0878 -2.6201 -2.1415 0.9547
11.5374 -1.6564 -2.1908 0.9537
7.7368 2.4332 -1.5244 0.9675
6.2005 3.2567 -1.3164 0.9719
5.5579 3.5867 -1.2433 0.9734
4.9842 3.8886 -1.1882 0.9746
4.6793 4.3768 -1.2043 0.9743
4.1781 4.6750 -1.1785 0.9748
3.0770 5.0141 -1.1058 0.9763
2.1638 5.5542 -1.1204 0.9760
0.8908 3.0743 -0.6016 0.9871
0.6701 6.4758 -1.2237 0.9739
0.0937 6.8653 -1.2905 0.9724
-0.4978 6.5546 -1.2356 0.9736
-2.1032 12.6099 -2.4029 0.9493
-4.1466 11.5678 -2.3098 0.9512
-6.3345 10.9841 -2.3833 0.9497
-9.3337 6.3909 -2.1262 0.9550
-9.8802 4.4296 -2.0352 0.9569
-10.0255 3.4565 -1.9932 0.9578
-9.9986 0.6371 -1.8832 0.9600
-9.0380 -2.7385 -1.7751 0.9623
-8.6583 -3.4951 -1.7550 0.9627
-8.2298 -4.2129 -1.7378 0.9631
-7.2377 -5.5256 -1.7115 0.9636
-5.4525 -7.1670 -1.6926 0.9640
-3.3677 -8.3833 -1.6981 0.9639
0.6117 -9.3526 -1.7617 0.9626
4.9439 -8.7845 -1.8947 0.9598
9.1325 -6.3950 -2.0956 0.9556
9.1732 -5.2696 -1.9885 0.9579
11.4391 -1.8882 -2.1792 0.9539
11.4898 0.1762 -2.1599 0.9543
10.0302 1.0549 -1.8957 0.9598
8.8796 1.7469 -1.7010 0.9638
7.9357 2.3138 -1.5537 0.9669
3.6393 4.6807 -1.1144 0.9762
3.1834 4.9511 -1.1064 0.9763
2.2726 5.4899 -1.1168 0.9761
1.3133 6.0554 -1.1646 0.9751
0.7973 6.3910 -1.2106 0.9741
0.2346 6.7693 -1.2731 0.9728
-1.8459 12.7057 -2.4132 0.9491
-2.9182 12.2570 -2.3682 0.9500
-3.9219 11.7093 -2.3211 0.9510
-6.9499 10.3447 -2.3425 0.9505
-7.6688 9.4634 -2.2895 0.9516
-8.2905 8.5415 -2.2374 0.9527
-9.2461 6.6203 -2.1375 0.9548
-10.0824 2.7205 -1.9629 0.9584
-10.0240 0.8503 -1.8909 0.9599
-9.6924 -0.9166 -1.8299 0.9612
-9.4343 -1.7534 -1.8036 0.9617
-9.1196 -2.5555 -1.7802 0.9622
-7.8706 -4.7349 -1.7264 0.9633
-7.3629 -5.3803 -1.7141 0.9636
-6.2270 -6.5408 -1.6975 0.9639
-4.9468 -7.5191 -1.6917 0.9640
-2.7950 -8.6208 -1.7034 0.9638
-2.0247 -8.8844 -1.7127 0.9636
-0.4177 -9.2456 -1.7396 0.9630
1.2613 -9.3723 -1.7775 0.9622
2.1208 -9.3422 -1.8006 0.9618
2.9894 -9.2467 -1.8266 0.9612
3.8635 -9.0834 -1.8553 0.9606
4.7387 -8.8498 -1.8869 0.9600
-0.4245 -8.3792 -1.7735 0.9663
0.3288 -8.4596 -1.7895 0.9660
1.8697 -8.4497 -1.8293 0.9652
4.2167 -7.9795 -1.9077 0.9638
4.9927 -7.6940 -1.9388 0.9632
5.7576 -7.3415 -1.9722 0.9626
7.9288 -5.8708 -2.0854 0.9605
7.9704 -4.8636 -1.9737 0.9625
8.5430 -4.2160 -2.0138 0.9618
9.5366 -2.7373 -2.0972 0.9602
10.2747 -1.0371 -2.1829 0.9587
10.5278 -0.1173 -2.2255 0.9579
8.1852 2.1533 -1.7891 0.9660
7.3438 2.6533 -1.6505 0.9686
5.9821 3.4699 -1.4618 0.9721
5.3769 3.7988 -1.3916 0.9734
3.8111 4.6428 -1.2697 0.9757
3.3441 4.9103 -1.2558 0.9760
2.4306 5.4579 -1.2629 0.9759
1.9659 5.7489 -1.2843 0.9755
0.9709 6.3990 -1.3681 0.9739
-0.1759 6.2053 -1.3122 0.9749
-0.8915 7.5327 -1.6034 0.9695
-2.2649 10.7708 -2.3265 0.9560
-3.1633 10.3460 -2.2869 0.9567
-4.0015 9.8413 -2.2456 0.9575
-8.4461 5.2765 -2.1051 0.9601
-8.9012 3.5498 -2.0256 0.9616
-9.0163 2.6907 -1.9889 0.9623
-9.0379 1.0082 -1.9223 0.9635
-8.9509 0.1937 -1.8925 0.9641
-8.5986 -1.3637 -1.8403 0.9650
-8.3399 -2.1006 -1.8180 0.9654
-8.0304 -2.8064 -1.7981 0.9658
-7.6730 -3.4788 -1.7808 0.9661
-7.2708 -4.1160 -1.7661 0.9664
-6.8263 -4.7163 -1.7538 0.9666
-5.8215 -5.7994 -1.7370 0.9670
-5.2659 -6.2794 -1.7323 0.9671
-4.6780 -6.7164 -1.7301 0.9671
-4.0601 -7.1090 -1.7305 0.9671
-2.0486 -8.0052 -1.7467 0.9668
-1.3331 -8.2049 -1.7571 0.9666
0.1507 -8.4457 -1.7855 0.9661
3.2507 -8.2417 -1.8727 0.9644
4.0335 -8.0369 -1.9008 0.9639
4.8113 -7.7670 -1.9313 0.9633
7.0639 -6.5519 -2.0366 0.9614
9.4320 -2.9230 -2.0873 0.9604
9.8527 -2.1109 -2.1299 0.9596
10.6628 0.6119 -2.2576 0.9573
9.4428 1.3961 -2.0177 0.9617
7.5282 2.5425 -1.6796 0.9680
6.1262 3.3836 -1.4794 0.9718
5.5171 3.7267 -1.4073 0.9731
4.9424 4.0257 -1.3474 0.9743
3.4525 4.8475 -1.2580 0.9760
0.8084 3.0262 -0.6621 0.9873
-2.0461 10.8578 -2.3355 0.9558
-2.9576 10.4533 -2.2963 0.9566
-3.8105 9.9664 -2.2554 0.9573
-4.5982 9.4072 -2.2133 0.9581
-5.3156 8.7858 -2.1706 0.9589
-6.4221 8.7424 -2.2930 0.9566
-2.1570 2.4444 -0.6891 0.9868
-8.0081 6.3295 -2.1577 0.9591
-8.8635 3.7524 -2.0346 0.9614
-8.6517 -1.1865 -1.8459 0.9649
-7.7610 -3.3241 -1.7847 0.9661
-7.3691 -3.9697 -1.7693 0.9664
-6.9343 -4.5788 -1.7565 0.9666
-5.3993 -6.1706 -1.7332 0.9670
-4.2077 -7.0209 -1.7302 0.9671
-2.2136 -7.9509 -1.7446 0.9668
-0.7730 -8.3225 -1.7668 0.9664
2.2837 -8.4073 -1.8415 0.9650
3.8501 -8.0908 -1.8940 0.9640
5.4002 -7.5154 -1.9562 0.9629
6.1571 -7.1268 -1.9908 0.9622
7.6057 -6.1423 -2.0665 0.9608
8.2763 -5.5401 -2.1052 0.9601
8.2797 -4.5279 -1.9948 0.9622
2.2901 -0.9980 -0.5281 0.9898
9.3239 -3.1055 -2.0773 0.9606
10.1278 -1.4540 -2.1628 0.9590
10.4194 -0.5541 -2.2056 0.9582
10.6270 0.3862 -2.2478 0.9575
9.7199 1.2291 -2.0710 0.9607
6.2739 3.2952 -1.4980 0.9714
4.6740 4.3718 -1.3528 0.9742
4.1735 4.6698 -1.3239 0.9747
2.1857 5.6103 -1.2727 0.9757
0.8849 3.0537 -0.6721 0.9871
1.2159 6.2358 -1.3429 0.9744
0.0950 6.9557 -1.4704 0.9720
-3.6159 10.0876 -2.2652 0.9571
-5.1537 8.9367 -2.1807 0.9587
-7.4456 7.3555 -2.2123 0.9581
-7.9109 6.5271 -2.1679 0.9589
-8.2941 5.6790 -2.1248 0.9597
-8.5970 4.8193 -2.0833 0.9605
-8.8218 3.9551 -2.0436 0.9612
-8.8800 -0.2294 -1.8777 0.9643
-8.4679 -1.7584 -1.8281 0.9653
-7.8465 -3.1674 -1.7886 0.9660
-7.4650 -3.8214 -1.7727 0.9663
-7.0401 -4.4392 -1.7593 0.9665
-5.5308 -6.0594 -1.7342 0.9670
-4.3537 -6.9303 -1.7300 0.9671
-3.0613 -7.6204 -1.7359 0.9670
-1.6714 -8.1176 -1.7519 0.9667
-0.9459 -8.2898 -1.7637 0.9665
-0.2031 -8.4087 -1.7780 0.9662
0.5542 -8.4727 -1.7948 0.9659
2.1003 -8.4282 -1.8360 0.9651
3.6664 -8.1411 -1.8873 0.9642
9.2126 -3.2848 -2.0674 0.9608
10.0480 -1.6586 -2.1527 0.9592
10.3582 -0.7693 -2.1956 0.9584
10.5862 0.1623 -2.2380 0.9576
10.0120 1.0530 -2.1280 0.9597
8.8652 1.7441 -1.9098 0.9637
6.4253 3.2045 -1.5177 0.9711
5.2051 3.8880 -1.3733 0.9738
4.7949 4.2998 -1.3614 0.9740
3.6713 4.7220 -1.2643 0.9758
3.2082 4.9897 -1.2539 0.9760
2.7522 5.2614 -1.2551 0.9760
2.2944 5.5424 -1.2680 0.9758
0.9719 3.1086 -0.6885 0.9868
0.7042 3.2470 -0.7023 0.9865
0.8117 6.5062 -1.3859 0.9736
-0.3404 6.2039 -1.3134 0.9749
-1.6004 11.0166 -2.3532 0.9555
-5.6664 8.4342 -2.1478 0.9593
-6.7568 8.3380 -2.2685 0.9571
-7.3245 7.5462 -2.2229 0.9579
-7.8091 6.7237 -2.1782 0.9587
-8.5330 5.0217 -2.0929 0.9603
-9.0367 2.4383 -1.9785 0.9625
-9.0187 0.7651 -1.9132 0.9637
-8.2535 -2.3128 -1.8118 0.9656
-7.1436 -4.2975 -1.7622 0.9665
-6.6872 -4.8865 -1.7507 0.9667
-6.1920 -5.4364 -1.7418 0.9669
-5.0952 -6.4133 -1.7314 0.9671
-4.4982 -6.8373 -1.7300 0.9671
-3.8718 -7.2164 -1.7311 0.9671
-3.2183 -7.5492 -1.7347 0.9670
3.4826 -8.1878 -1.8808 0.9643
4.2644 -7.9639 -1.9096 0.9637
-0.3881 -7.6602 -1.8026 0.9690
0.3003 -7.7278 -1.8176 0.9687
0.9989 -7.7428 -1.8348 0.9684
1.7047 -7.7039 -1.8544 0.9681
3.1240 -7.4578 -1.9003 0.9673
4.5281 -6.9781 -1.9550 0.9664
5.8811 -6.2560 -2.0180 0.9653
7.1407 -5.2873 -2.0882 0.9641
7.6629 -3.7817 -2.0083 0.9655
8.1164 -3.1385 -2.0452 0.9649
9.1371 -0.9223 -2.1583 0.9630
8.1727 2.1500 -1.9861 0.9659
4.8607 4.1320 -1.4994 0.9741
3.8742 4.7197 -1.4351 0.9752
2.9352 5.2670 -1.4171 0.9755
2.4715 5.5500 -1.4279 0.9753
0.4137 6.7604 -1.5918 0.9726
-0.1758 6.2012 -1.4580 0.9748
-3.5472 8.7240 -2.2133 0.9620
-4.2402 8.2321 -2.1763 0.9627
-2.2432 2.4370 -0.7785 0.9865
-6.8768 6.2454 -2.1833 0.9625
-7.2742 5.5053 -2.1440 0.9632
-7.5995 4.7475 -2.1059 0.9639
-7.8540 3.9791 -2.0692 0.9645
-8.1577 2.4345 -2.0008 0.9656
-8.2115 1.6693 -1.9694 0.9662
-8.1361 0.1761 -1.9126 0.9671
-7.8355 -1.2427 -1.8646 0.9679
-7.3326 -2.5625 -1.8255 0.9686
-7.0122 -3.1792 -1.8095 0.9689
-6.2466 -4.3157 -1.7844 0.9693
-5.8065 -4.8319 -1.7754 0.9694
-4.8237 -5.7521 -1.7643 0.9696
-3.1275 -6.8292 -1.7653 0.9696
-0.5479 -7.6370 -1.7995 0.9690
1.5385 -7.7180 -1.8496 0.9682
3.6649 -7.3024 -1.9202 0.9670
4.3652 -7.0468 -1.9482 0.9665
5.7262 -6.3534 -2.0102 0.9655
6.9993 -5.4137 -2.0796 0.9643
7.5497 -3.9250 -1.9998 0.9656
8.4286 -2.6120 -2.0739 0.9644
8.7855 -1.8822 -2.1116 0.9638
9.3008 -0.2990 -2.1870 0.9625
9.4465 0.5421 -2.2238 0.9619
9.4265 1.3937 -2.2395 0.9616
6.7740 2.9858 -1.7398 0.9700
6.1185 3.3794 -1.6427 0.9717
5.5272 3.7336 -1.5676 0.9730
4.5494 4.4380 -1.4937 0.9742
3.0439 5.2020 -1.4165 0.9755
2.5808 5.4825 -1.4241 0.9754
1.1016 6.3572 -1.5163 0.9738
0.5498 6.6807 -1.5754 0.9728
-0.0517 7.0326 -1.6529 0.9715
-0.6253 6.4397 -1.5206 0.9738
-1.8056 9.5815 -2.2915 0.9607
-3.3762 8.8305 -2.2219 0.9619
-2.1557 2.4429 -0.7657 0.9867
-6.7730 6.4157 -2.1926 0.9624
-7.8006 4.1601 -2.0777 0.9643
-8.0019 3.3876 -2.0422 0.9649
-8.2045 1.8481 -1.9766 0.9660
-8.1570 0.3480 -1.9188 0.9670
-7.8817 -1.0809 -1.8697 0.9678
-7.6658 -1.7605 -1.8485 0.9682
-7.4014 -2.4134 -1.8296 0.9685
-7.0913 -3.0372 -1.8131 0.9688
-6.7381 -3.6298 -1.7988 0.9690
-5.9130 -4.7140 -1.7773 0.9694
-4.9456 -5.6521 -1.7651 0.9696
-4.4145 -6.0626 -1.7626 0.9697
-3.8547 -6.4320 -1.7623 0.9697
-3.2686 -6.7588 -1.7645 0.9696
-1.3751 -7.4692 -1.7849 0.9693
-0.7069 -7.6109 -1.7964 0.9691
-0.0243 -7.7025 -1.8103 0.9688
2.7910 -7.5361 -1.8887 0.9675
3.4993 -7.3537 -1.9140 0.9671
4.2017 -7.1122 -1.9414 0.9666
4.8936 -6.8104 -1.9710 0.9661
6.2262 -6.0230 -2.0359 0.9650
6.8559 -5.5368 -2.0711 0.9644
2.2866 -0.9965 -0.5862 0.9898
8.3363 -2.7765 -2.0650 0.9645
8.7072 -2.0576 -2.1028 0.9639
9.0157 -1.2944 -2.1406 0.9633
9.5027 1.2017 -2.2511 0.9614
8.6148 1.8835 -2.0725 0.9644
7.7142 2.4261 -1.9006 0.9673
6.2658 3.2910 -1.6634 0.9713
5.6612 3.6533 -1.5835 0.9727
3.6215 4.8653 -1.4255 0.9754
3.1527 5.1375 -1.4167 0.9755
1.9466 3.9197 -1.0286 0.9822
1.2254 6.2845 -1.5048 0.9740
-0.4756 6.2618 -1.4759 0.9745
-1.6094 9.6496 -2.2992 0.9606
-3.2022 8.9334 -2.2304 0.9618
-2.1133 2.4987 -0.7691 0.9866
-6.6653 6.5846 -2.2020 0.9622
-8.1941 2.0274 -1.9839 0.9659
-6.8248 -3.4936 -1.8019 0.9690
-6.4404 -4.0611 -1.7894 0.9692
-6.0176 -4.5941 -1.7793 0.9694
-5.5586 -5.0909 -1.7715 0.9695
-5.0659 -5.5500 -1.7661 0.9696
-3.9885 -6.3490 -1.7622 0.9697
-2.8037 -6.9792 -1.7677 0.9696
-2.1766 -7.2274 -1.7740 0.9695
-1.5296 -7.4288 -1.7826 0.9693
-0.8651 -7.5821 -1.7935 0.9691
1.2071 -7.7370 -1.8404 0.9683
3.3334 -7.4018 -1.9079 0.9672
4.0376 -7.1742 -1.9348 0.9667
5.4131 -6.5382 -1.9949 0.9657
6.0744 -6.1282 -2.0279 0.9652
7.3160 -4.2027 -1.9829 0.9659
7.8022 -3.5968 -2.0192 0.9653
8.2409 -2.9384 -2.0562 0.9647
8.9493 -1.4772 -2.1317 0.9634
9.2055 -0.6837 -2.1695 0.9628
9.3880 0.1439 -2.2066 0.9622
8.8507 1.7412 -2.1200 0.9636
7.9121 2.3070 -1.9370 0.9667
7.1102 2.7838 -1.7946 0.9691
5.7979 3.5715 -1.6004 0.9724
4.7894 4.2948 -1.5119 0.9739
2.0326 3.8858 -1.0306 0.9821
2.3319 5.6331 -1.4329 0.9753
0.8141 6.5258 -1.5456 0.9733
-0.3400 6.1973 -1.4587 0.9748
-2.2407 9.4114 -2.2737 0.9610
-3.0253 9.0327 -2.2388 0.9616
-4.4339 8.0756 -2.1652 0.9629
-6.5535 6.7519 -2.2114 0.9621
-7.3779 5.2826 -2.1326 0.9634
-8.2154 1.4448 -1.9604 0.9663
-8.1053 -0.0392 -1.9049 0.9672
-7.5314 -2.1104 -1.8382 0.9684
-7.2424 -2.7482 -1.8205 0.9687
-6.9091 -3.3557 -1.8052 0.9689
-6.5342 -3.9309 -1.7922 0.9692
-5.1845 -5.4457 -1.7671 0.9696
-4.1209 -6.2638 -1.7622 0.9697
-2.9477 -6.9144 -1.7666 0.9696
-1.6832 -7.3858 -1.7803 0.9694
1.7480 -7.6997 -1.8557 0.9681
2.4577 -7.6018 -1.8776 0.9677
3.8730 -7.2330 -1.9283 0.9668
-0.3571 -7.0490 -1.8274 0.9713
1.5650 -7.0730 -1.8756 0.9705
4.1388 -6.3782 -1.9687 0.9691
5.9391 -5.2811 -2.0578 0.9677
7.3384 -2.8376 -2.0371 0.9680
7.9827 -1.5357 -2.1048 0.9670
8.2176 -0.8295 -2.1385 0.9664
8.4868 0.6661 -2.2041 0.9654
8.5119 1.4417 -2.2353 0.9650
7.3230 2.6457 -2.0160 0.9683
6.6044 3.0783 -1.8866 0.9703
5.9671 3.4612 -1.7861 0.9719
4.4264 4.5032 -1.6349 0.9742
3.8699 4.7144 -1.5792 0.9751
2.9360 5.2684 -1.5616 0.9754
0.9746 6.4233 -1.6821 0.9735
0.4132 6.7520 -1.7515 0.9724
-0.1757 6.1976 -1.6053 0.9747
-1.7879 8.5024 -2.2496 0.9647
-3.1820 7.8260 -2.1874 0.9657
-3.8103 7.3975 -2.1545 0.9662
-4.3866 6.9180 -2.1209 0.9667
-4.9074 6.3947 -2.0871 0.9672
-2.2381 2.4315 -0.8557 0.9864
-6.9005 4.3108 -2.1066 0.9669
-7.3228 2.9204 -2.0412 0.9680
-7.5009 1.5248 -1.9818 0.9689
-7.5032 0.8370 -1.9548 0.9693
-7.4506 0.1612 -1.9295 0.9697
-7.3456 -0.4990 -1.9063 0.9700
-7.1906 -1.1404 -1.8850 0.9704
-6.7407 -2.3557 -1.8488 0.9709
-6.1206 -3.4649 -1.8210 0.9714
-5.3496 -4.4517 -1.8020 0.9717
-4.4463 -5.3021 -1.7916 0.9718
-2.8827 -6.2946 -1.7926 0.9718
-2.3149 -6.5441 -1.7973 0.9717
-1.1232 -6.9125 -1.8132 0.9715
-0.5042 -7.0286 -1.8245 0.9713
0.1267 -7.0973 -1.8379 0.9711
0.7667 -7.1174 -1.8535 0.9709
1.4128 -7.0874 -1.8712 0.9706
3.3550 -6.6849 -1.9366 0.9696
5.2214 -5.7932 -2.0193 0.9683
5.8058 -5.3849 -2.0503 0.9678
6.8648 -4.3894 -2.1097 0.9669
6.8405 -3.5563 -1.9962 0.9686
2.2977 -0.9444 -0.6432 0.9898
7.9186 -1.6965 -2.0968 0.9671
7.5064 2.5352 -2.0514 0.9678
6.7648 2.9818 -1.9141 0.9699
6.1106 3.3750 -1.8074 0.9716
5.5205 3.7290 -1.7249 0.9728
4.5442 4.4329 -1.6437 0.9741
3.0450 5.2039 -1.5611 0.9754
1.8885 4.0118 -1.1481 0.9818
0.7971 2.9839 -0.7997 0.9873
-0.0516 7.0236 -1.8186 0.9714
-0.6232 6.4175 -1.6694 0.9737
-3.0275 7.9184 -2.1950 0.9656
-3.6674 7.5029 -2.1623 0.9661
-4.7903 6.5211 -2.0950 0.9671
-2.1544 2.4414 -0.8431 0.9866
-6.8343 4.4717 -2.1147 0.9668
-7.2861 3.0846 -2.0486 0.9678
-7.4190 2.3848 -2.0177 0.9683
-7.5076 0.9975 -1.9609 0.9692
-7.4677 0.3186 -1.9353 0.9696
-7.2313 -0.9917 -1.8898 0.9703
-6.8027 -2.2182 -1.8526 0.9709
-6.5224 -2.7936 -1.8372 0.9711
-6.2015 -3.3408 -1.8239 0.9713
-5.4473 -4.3427 -1.8038 0.9716
-5.0186 -4.7939 -1.7970 0.9717
-4.5586 -5.2098 -1.7924 0.9718
-3.0129 -6.2300 -1.7918 0.9718
-2.4500 -6.4894 -1.7960 0.9717
-1.2664 -6.8786 -1.8109 0.9715
1.2608 -7.0990 -1.8668 0.9706
1.9095 -7.0298 -1.8861 0.9703
3.8428 -6.5047 -1.9561 0.9693
4.4698 -6.2206 -1.9833 0.9688
6.7547 -4.5216 -2.1046 0.9670
7.5302 -2.5080 -2.0550 0.9677
7.8513 -1.8553 -2.0888 0.9672
8.1152 -1.1651 -2.1227 0.9667
8.3161 -0.4423 -2.1562 0.9662
8.4491 0.3071 -2.1891 0.9657
6.2577 3.2867 -1.8301 0.9712
5.6542 3.6488 -1.7423 0.9726
5.1013 3.9800 -1.6752 0.9736
4.1641 4.6594 -1.6180 0.9745
3.1539 5.1394 -1.5613 0.9754
0.8730 3.0130 -0.8122 0.9871
0.6824 6.5945 -1.7165 0.9730
0.0947 6.9381 -1.7966 0.9717
-0.4750 6.2532 -1.6237 0.9744
-1.4380 8.6219 -2.2632 0.9645
-2.1738 8.3486 -2.2337 0.9650
-4.1228 7.1490 -2.1367 0.9665
-4.6700 6.6454 -2.1030 0.9670
-6.0256 5.9527 -2.1931 0.9656
-6.4281 5.3037 -2.1577 0.9662
-6.7647 4.6318 -2.1227 0.9667
-7.0370 3.9448 -2.0888 0.9672
-7.2461 3.2487 -2.0561 0.9677
-7.4802 1.8508 -1.9952 0.9687
-7.5091 1.1586 -1.9672 0.9691
-7.4012 -0.1912 -1.9170 0.9699
-7.2694 -0.8418 -1.8948 0.9702
-7.0889 -1.4721 -1.8746 0.9705
-6.8623 -2.0793 -1.8565 0.9708
-6.5919 -2.6610 -1.8406 0.9711
-6.2804 -3.2150 -1.8268 0.9713
-5.1221 -4.6911 -1.7984 0.9717
-4.6692 -5.1154 -1.7933 0.9718
-3.1419 -6.1631 -1.7911 0.9718
-2.5840 -6.4323 -1.7948 0.9718
-1.4088 -6.8421 -1.8087 0.9715
-0.1708 -7.0710 -1.8313 0.9712
1.1090 -7.1078 -1.8626 0.9707
3.0532 -6.7796 -1.9252 0.9697
5.5345 -5.5835 -2.0355 0.9680
6.1050 -5.1458 -2.0673 0.9675
6.6421 -4.6511 -2.0995 0.9671
6.6340 -3.8110 -1.9809 0.9689
7.0628 -3.2560 -2.0137 0.9684
8.0587 -1.3302 -2.1148 0.9668
8.5022 0.8942 -2.2135 0.9653
8.5045 1.6731 -2.2442 0.9648
7.9002 2.3035 -2.1307 0.9666
5.7907 3.5670 -1.7609 0.9723
5.2273 3.9045 -1.6893 0.9734
3.7300 4.7975 -1.5734 0.9752
0.9760 3.1216 -0.8468 0.9866
0.2376 6.8547 -1.7759 0.9721
-1.2604 8.6756 -2.2699 0.9644
-2.0044 8.4190 -2.2408 0.9649
-2.7107 8.0933 -2.2099 0.9653
-3.3731 7.7049 -2.1777 0.9658
-3.9864 7.2606 -2.1446 0.9664
-4.5466 6.7674 -2.1109 0.9669
-5.9154 6.0945 -2.1991 0.9655
-6.3397 5.4585 -2.1661 0.9660
-6.6915 4.7911 -2.1309 0.9666
-6.9789 4.1071 -2.0966 0.9671
-7.4651 2.0143 -2.0020 0.9686
-7.5074 1.3203 -1.9736 0.9690
-7.4932 0.6357 -1.9471 0.9694
-7.3048 -0.6908 -1.8998 0.9701
-7.1355 -1.3261 -1.8792 0.9705
-6.9195 -1.9390 -1.8606 0.9707
-6.0156 -3.6190 -1.8177 0.9714
-5.6371 -4.1192 -1.8077 0.9716
-4.7783 -5.0191 -1.7943 0.9718
-2.7169 -6.3729 -1.7937 0.9718
-1.5504 -6.8032 -1.8066 0.9716
-0.3187 -7.0539 -1.8282 0.9712
0.3152 -7.1084 -1.8423 0.9710
2.2541 -6.9720 -1.8972 0.9702
2.9018 -6.8225 -1.9196 0.9698
0.2554 -6.5718 -1.8618 0.9730
0.8483 -6.5753 -1.8769 0.9728
1.4453 -6.5318 -1.8938 0.9726
2.0432 -6.4401 -1.9127 0.9723
3.2282 -6.1088 -1.9560 0.9717
5.4442 -4.8410 -2.0624 0.9702
6.3359 -3.1268 -2.0002 0.9711
7.2556 -1.3958 -2.0917 0.9698
7.4583 -0.7528 -2.1221 0.9693
7.6014 -0.0847 -2.1520 0.9689
7.6808 0.6028 -2.1811 0.9685
7.6932 1.3030 -2.2089 0.9681
5.3827 3.8029 -1.8657 0.9730
4.8493 4.1223 -1.8018 0.9739
3.3967 4.9876 -1.7083 0.9752
2.9327 5.2625 -1.7055 0.9753
2.4663 5.5381 -1.7162 0.9751
0.9734 6.4156 -1.8370 0.9734
0.4127 6.7435 -1.9126 0.9723
-0.1756 6.1945 -1.7543 0.9746
-0.8878 7.5014 -2.1384 0.9691
-1.6149 7.6799 -2.2217 0.9679
-2.2666 7.4133 -2.1946 0.9683
-4.4639 5.8167 -2.0757 0.9700
-6.0243 4.5593 -2.1388 0.9691
-6.5436 3.3152 -2.0766 0.9700
-6.8344 2.0396 -2.0191 0.9708
-6.8654 0.1486 -1.9440 0.9719
-6.7750 -0.4602 -1.9224 0.9722
-6.6378 -1.0527 -1.9026 0.9724
-5.9673 -2.7054 -1.8548 0.9731
-5.6649 -3.2069 -1.8428 0.9733
-5.3268 -3.6802 -1.8329 0.9734
-4.5522 -4.5350 -1.8191 0.9736
-4.1202 -4.9132 -1.8152 0.9737
-3.6612 -5.2566 -1.8135 0.9737
-3.1774 -5.5635 -1.8138 0.9737
-2.6712 -5.8327 -1.8161 0.9737
-1.6000 -6.2522 -1.8270 0.9735
-1.0399 -6.3999 -1.8355 0.9734
-0.4666 -6.5043 -1.8461 0.9733
0.7086 -6.5787 -1.8732 0.9729
1.3050 -6.5463 -1.8897 0.9726
3.6728 -5.9290 -1.9744 0.9714
4.2419 -5.6493 -1.9999 0.9711
5.3236 -4.9377 -2.0555 0.9703
6.2468 -3.2477 -1.9931 0.9712
6.9298 -2.1475 -2.0538 0.9703
7.1999 -1.5425 -2.0845 0.9699
7.5734 -0.2435 -2.1451 0.9690
7.6681 0.4400 -2.1743 0.9686
7.6964 1.1379 -2.2025 0.9682
7.6556 1.8430 -2.2292 0.9678
7.4954 2.5314 -2.2396 0.9676
6.7555 2.9777 -2.0900 0.9698
6.1027 3.3707 -1.9736 0.9714
5.5137 3.7244 -1.8836 0.9727
4.9713 4.0493 -1.8151 0.9737
4.5389 4.4278 -1.7951 0.9740
3.9771 4.6427 -1.7306 0.9749
3.5060 4.9227 -1.7109 0.9752
1.8819 3.9978 -1.2509 0.9818
2.1030 5.7523 -1.7338 0.9749
-0.6210 6.3947 -1.8188 0.9736
-2.1167 7.4813 -2.2011 0.9682
-3.3251 6.8026 -2.1435 0.9690
-3.8645 6.3874 -2.1134 0.9694
-4.3559 5.9297 -2.0829 0.9699
-2.1531 2.4399 -0.9212 0.9866
-6.2504 4.0897 -2.1146 0.9694
-6.4947 3.4636 -2.0837 0.9699
-6.8118 2.1896 -2.0256 0.9707
-6.9091 0.9180 -1.9731 0.9714
-6.8796 0.2935 -1.9493 0.9718
-6.8005 -0.3187 -1.9273 0.9721
-6.6741 -0.9153 -1.9071 0.9724
-6.5025 -1.4934 -1.8888 0.9726
-6.2880 -2.0504 -1.8723 0.9729
-5.7391 -3.0917 -1.8455 0.9733
-5.4092 -3.5717 -1.8350 0.9734
-5.0452 -4.0222 -1.8266 0.9735
-4.2241 -4.8275 -1.8160 0.9737
-3.7712 -5.1792 -1.8137 0.9737
-2.7919 -5.7730 -1.8154 0.9737
-1.1726 -6.3690 -1.8333 0.9734
1.1647 -6.5581 -1.8856 0.9727
3.5371 -5.9873 -1.9686 0.9715
4.1098 -5.7195 -1.9938 0.9711
6.1771 -4.1350 -2.1043 0.9696
6.1556 -3.3663 -1.9862 0.9713
2.2826 -0.9947 -0.7049 0.9897
6.8591 -2.2845 -2.0466 0.9704
7.1412 -1.6875 -2.0773 0.9700
7.3703 -1.0581 -2.1079 0.9695
7.6959 0.9732 -2.1960 0.9683
7.6715 1.6773 -2.2230 0.9679
7.5762 2.3827 -2.2483 0.9675
6.9204 2.8784 -2.1218 0.9693
6.2495 3.2824 -1.9984 0.9711
5.0951 3.9752 -1.8295 0.9735
4.6579 4.3568 -1.8055 0.9738
4.1594 4.6541 -1.7670 0.9744
3.6157 4.8576 -1.7143 0.9751
3.1504 5.1336 -1.7051 0.9753
1.9224 3.8709 -1.2235 0.9822
2.2152 5.6862 -1.7276 0.9750
