ply
format ascii 1.0
element vertex 1594
property float32 x
property float32 y
property float32 z
property float32 I
end_header
2.9565 -10.1143 -1.9807 0.9580
3.8491 -9.8170 -1.9820 0.9580
7.0618 -7.8787 -1.9887 0.9579
7.7439 -7.2249 -1.9907 0.9578
8.9228 -5.7468 -1.9949 0.9577
9.4101 -4.9338 -1.9971 0.9577
9.8235 -4.0797 -1.9993 0.9576
10.1597 -3.1912 -2.0016 0.9576
10.0555 -2.1966 -1.9346 0.9590
9.7837 -1.2372 -1.8536 0.9607
9.8660 -0.3604 -1.8557 0.9606
9.8696 0.5213 -1.8577 0.9606
9.4081 3.1240 -1.8633 0.9605
8.7187 4.7536 -1.8665 0.9604
6.6631 6.4223 -1.7395 0.9630
5.8993 6.8009 -1.6922 0.9640
5.1702 7.1624 -1.6603 0.9647
4.4625 7.5131 -1.6425 0.9651
3.3889 7.0753 -1.4746 0.9686
1.7729 9.8065 -1.8731 0.9603
0.0029 9.9606 -1.8722 0.9603
-0.8849 9.9174 -1.8715 0.9603
-4.6379 9.6976 -2.0205 0.9572
-6.2759 8.7049 -2.0171 0.9573
-7.7072 7.4373 -2.0132 0.9573
-9.7781 4.2553 -2.0044 0.9575
-10.1071 3.3627 -2.0021 0.9576
-10.3549 2.4454 -1.9999 0.9576
-10.5199 1.5107 -1.9976 0.9577
-10.6009 0.5662 -1.9954 0.9577
-10.5977 -0.3809 -1.9932 0.9578
-10.5105 -1.3229 -1.9911 0.9578
-9.7577 -4.0457 -1.9855 0.9579
-8.3202 -6.4690 -1.9809 0.9580
-7.7057 -7.1807 -1.9798 0.9580
-6.5233 -7.2692 -1.8358 0.9610
-5.5732 -7.4529 -1.7492 0.9628
-5.1246 -8.3060 -1.8344 0.9611
-3.5667 -9.0809 -1.8338 0.9611
-2.7427 -9.3625 -1.8337 0.9611
-1.0365 -9.7030 -1.8342 0.9611
0.7038 -9.7390 -1.8353 0.9610
1.5815 -9.7124 -1.8496 0.9607
4.3906 -9.5923 -1.9829 0.9580
5.2325 -9.1699 -1.9844 0.9579
6.0344 -8.6743 -1.9861 0.9579
6.7900 -8.1091 -1.9880 0.9579
7.4933 -7.4788 -1.9899 0.9578
8.1386 -6.7878 -1.9919 0.9578
10.0421 -3.5301 -2.0007 0.9576
10.3115 -2.6193 -1.9997 0.9576
9.7324 -1.5654 -1.8528 0.9607
9.8442 -0.6922 -1.8549 0.9606
6.4514 0.1231 -1.2128 0.9741
-5.5066 -6.7281 -1.8378 0.9651
-4.2216 -7.5947 -1.8367 0.9651
-3.5271 -7.9396 -1.8364 0.9651
-2.8049 -8.2219 -1.8363 0.9651
-2.0608 -8.4394 -1.8363 0.9651
0.2565 -9.0474 -1.9132 0.9637
1.0998 -9.3078 -1.9812 0.9624
1.9262 -9.1768 -1.9821 0.9624
2.7382 -8.9732 -1.9831 0.9624
3.5294 -8.6986 -1.9843 0.9623
4.2938 -8.3549 -1.9856 0.9623
5.7182 -7.4708 -1.9887 0.9623
8.4219 -4.2899 -1.9979 0.9621
9.2560 -1.9079 -1.9977 0.9621
8.7111 -0.9974 -1.8534 0.9648
8.7668 0.5667 -1.8570 0.9647
8.6895 1.3474 -1.8587 0.9647
8.3264 2.8743 -1.8620 0.9646
7.2848 4.9862 -1.8660 0.9646
5.7144 6.7468 -1.8689 0.9645
5.0755 7.2087 -1.8636 0.9646
1.8416 3.1855 -0.7778 0.9851
3.2991 7.1015 -1.6552 0.9685
2.2437 8.5603 -1.8706 0.9645
1.4714 8.7255 -1.8704 0.9645
-0.1016 8.8441 -1.8696 0.9645
-0.8895 8.7966 -1.8689 0.9645
-1.6695 8.6785 -1.8681 0.9645
-3.4425 8.9124 -2.0196 0.9617
-4.9638 8.1479 -2.0167 0.9617
-5.6660 7.6668 -2.0151 0.9618
-6.3216 7.1250 -2.0134 0.9618
-6.9255 6.5272 -2.0116 0.9618
-7.4729 5.8782 -2.0098 0.9619
-8.7363 3.6801 -2.0038 0.9620
-9.2324 2.0657 -1.9998 0.9621
-9.3704 1.2331 -1.9978 0.9621
-8.9433 -2.9196 -1.9886 0.9623
-8.6405 -3.7024 -1.9870 0.9623
-7.8346 -5.1709 -1.9843 0.9623
-7.3379 -5.8454 -1.9831 0.9624
-6.7840 -6.4729 -1.9820 0.9624
-5.7309 -6.5397 -1.8380 0.9651
-3.7927 -7.8167 -1.8365 0.9651
-3.0803 -8.1229 -1.8363 0.9651
-1.5888 -8.5413 -1.8364 0.9651
-0.8210 -8.6503 -1.8367 0.9651
-0.0476 -8.9041 -1.8822 0.9643
0.7819 -9.2941 -1.9715 0.9626
1.6157 -9.2348 -1.9817 0.9624
4.7535 -8.1070 -1.9865 0.9623
5.4616 -7.6568 -1.9881 0.9623
6.1276 -7.1453 -1.9897 0.9622
7.8215 -5.2833 -1.9952 0.9621
8.6526 -3.8177 -1.9991 0.9621
8.9675 -3.0341 -2.0011 0.9620
9.2068 -2.2235 -2.0021 0.9620
8.7585 -0.5122 -1.8545 0.9648
8.7269 1.0536 -1.8581 0.9647
8.6060 1.8291 -1.8598 0.9647
7.8341 4.0513 -1.8643 0.9646
7.4468 4.7369 -1.8656 0.9646
6.4947 5.9912 -1.8678 0.9645
5.9375 6.5495 -1.8686 0.9645
4.6345 7.4273 -1.8506 0.9648
3.9351 7.7740 -1.8418 0.9650
2.5308 8.4800 -1.8706 0.9645
1.7646 8.6714 -1.8705 0.9645
0.9842 8.7929 -1.8702 0.9645
0.1963 8.8435 -1.8698 0.9645
-1.3765 8.7313 -1.8684 0.9645
-2.1484 8.5696 -1.8675 0.9645
-3.1411 9.0254 -2.0200 0.9617
-3.9308 8.7038 -2.0187 0.9617
-5.4062 7.8556 -2.0157 0.9618
-6.0800 7.3363 -2.0141 0.9618
-6.7040 6.7590 -2.0123 0.9618
-7.7833 5.4507 -2.0086 0.9619
-8.6107 3.9738 -2.0046 0.9620
-9.4186 0.7101 -1.9966 0.9621
-9.4353 -0.1323 -1.9946 0.9622
-9.3771 -0.9721 -1.9927 0.9622
-9.0394 -2.6175 -1.9892 0.9623
-8.7629 -3.4103 -1.9876 0.9623
-8.4175 -4.1748 -1.9861 0.9623
-8.0062 -4.9053 -1.9847 0.9623
-5.3574 -6.8464 -1.8376 0.9651
-4.7242 -7.2945 -1.8370 0.9651
-4.0541 -7.6850 -1.8366 0.9651
-2.6242 -8.2813 -1.8363 0.9651
-1.8755 -8.4826 -1.8364 0.9651
-0.3424 -8.7648 -1.8541 0.9648
0.4597 -9.1430 -1.9351 0.9633
2.1270 -9.1335 -1.9823 0.9624
2.9344 -8.9124 -1.9834 0.9624
3.7197 -8.6206 -1.9846 0.9623
5.1991 -7.8341 -1.9875 0.9623
5.8816 -7.3453 -1.9891 0.9623
6.5187 -6.7974 -1.9908 0.9622
7.1052 -6.1947 -1.9926 0.9622
7.6364 -5.5418 -1.9944 0.9622
8.1079 -4.8435 -1.9964 0.9621
8.8569 -3.3331 -2.0004 0.9620
9.1280 -2.5327 -2.0024 0.9620
8.9254 -1.6369 -1.9181 0.9636
6.4820 -0.0183 -1.3702 0.9738
8.7543 0.7588 -1.8574 0.9647
8.4957 2.3057 -1.8608 0.9646
8.2631 3.0565 -1.8623 0.9646
7.6002 4.4822 -1.8651 0.9646
5.5658 6.8710 -1.8691 0.9645
1.7386 3.1653 -0.7634 0.9853
2.7975 8.3377 -1.8590 0.9647
2.0557 8.6073 -1.8706 0.9645
0.4941 8.8327 -1.8700 0.9645
-0.2953 8.8390 -1.8694 0.9645
-3.6363 8.8335 -2.0192 0.9617
-6.4747 6.9834 -2.0130 0.9618
-7.5981 5.7118 -2.0093 0.9619
-8.0693 5.0068 -2.0073 0.9619
-9.2731 1.8626 -1.9993 0.9621
-9.3929 1.0274 -1.9973 0.9621
-9.4078 -0.6560 -1.9934 0.9622
-9.3033 -1.4908 -1.9916 0.9622
-9.1253 -2.3123 -1.9899 0.9622
-8.5558 -3.8900 -1.9867 0.9623
-8.1690 -4.6340 -1.9852 0.9623
-7.2072 -6.0038 -1.9828 0.9624
-2.9017 -8.1883 -1.8363 0.9651
-0.6314 -8.6667 -1.8368 0.9651
0.1489 -8.9968 -1.9020 0.9639
1.8178 -9.1983 -1.9819 0.9624
2.6320 -9.0042 -1.9830 0.9624
4.9308 -8.0025 -1.9869 0.9623
5.6291 -7.5369 -1.9884 0.9623
7.4427 -5.7938 -1.9937 0.9622
7.9372 -5.1120 -1.9956 0.9621
8.3696 -4.3883 -1.9976 0.9621
9.2400 -2.0184 -1.9992 0.9621
8.6976 -1.0999 -1.8531 0.9648
8.7697 -0.3203 -1.8550 0.9648
8.7718 0.4633 -1.8568 0.9647
8.7037 1.2447 -1.8585 0.9647
8.5657 2.0176 -1.8602 0.9647
8.3588 2.7756 -1.8618 0.9646
7.7449 4.2226 -1.8646 0.9646
6.8806 5.5381 -1.8670 0.9645
6.3627 6.1328 -1.8680 0.9645
5.7932 6.6787 -1.8688 0.9645
4.4622 7.5127 -1.8470 0.9649
3.3890 7.0755 -1.6583 0.9684
1.5742 8.7077 -1.8705 0.9645
0.0026 8.8450 -1.8697 0.9645
-1.5672 8.6981 -1.8682 0.9645
-2.5204 9.1947 -2.0153 0.9618
-3.3375 8.9531 -2.0197 0.9617
-5.5758 7.7338 -2.0153 0.9618
-7.8990 5.2777 -2.0081 0.9619
-8.6935 3.7833 -2.0041 0.9620
-8.9871 2.9901 -2.0021 0.9620
-9.2086 2.1747 -2.0001 0.9621
-9.3565 1.3437 -1.9981 0.9621
-9.4297 0.5036 -1.9961 0.9621
-9.3514 -1.1770 -1.9923 0.9622
-9.2010 -2.0043 -1.9905 0.9622
-8.6844 -3.6006 -1.9872 0.9623
-7.8956 -5.0786 -1.9844 0.9623
-7.4069 -5.7589 -1.9832 0.9624
-6.8603 -6.3929 -1.9822 0.9624
-5.8079 -6.4721 -1.8381 0.9651
-3.8847 -7.7716 -1.8366 0.9651
-3.1759 -8.0860 -1.8363 0.9651
-2.4422 -8.3368 -1.8363 0.9651
-1.6893 -8.5219 -1.8364 0.9651
-0.1518 -8.8550 -1.8720 0.9644
0.6678 -9.2406 -1.9584 0.9628
2.3268 -9.0859 -1.9826 0.9624
4.6572 -8.1617 -1.9863 0.9623
6.0423 -7.2162 -1.9895 0.9623
6.6674 -6.6545 -1.9912 0.9622
7.7577 -5.3745 -1.9949 0.9622
8.6059 -3.9189 -1.9988 0.9621
8.9300 -3.1391 -2.0008 0.9620
9.1836 -2.3328 -2.0029 0.9620
8.7507 -0.6153 -1.8543 0.9648
8.7376 0.9505 -1.8579 0.9647
-5.2618 -6.4290 -1.9525 0.9664
-3.8965 -7.0098 -1.8849 0.9676
-2.6070 -7.6417 -1.8976 0.9674
-1.9442 -7.9620 -1.9262 0.9669
-1.2551 -8.2920 -1.9710 0.9661
-0.5136 -8.4178 -1.9821 0.9659
0.2390 -8.4322 -1.9826 0.9659
0.9902 -8.3801 -1.9832 0.9659
1.7341 -8.2618 -1.9840 0.9659
2.4650 -8.0781 -1.9850 0.9659
3.1772 -7.8303 -1.9860 0.9659
4.5231 -7.1506 -1.9885 0.9658
5.1463 -6.7236 -1.9900 0.9658
5.7296 -6.2428 -1.9915 0.9658
6.7584 -5.1343 -1.9947 0.9657
7.5761 -3.8590 -1.9982 0.9657
7.8971 -3.1710 -2.0000 0.9656
8.1558 -2.4565 -2.0019 0.9656
7.8889 -0.1951 -1.8546 0.9681
7.8816 0.5095 -1.8562 0.9681
7.6784 1.9044 -1.8593 0.9680
7.4837 2.5834 -1.8607 0.9680
6.9154 3.8768 -1.8632 0.9679
6.1238 5.0491 -1.8654 0.9679
4.5746 6.4974 -1.8676 0.9679
3.2990 7.1014 -1.8403 0.9683
2.6933 7.4800 -1.8685 0.9679
1.3219 7.8388 -1.8683 0.9679
0.6176 7.9241 -1.8680 0.9679
-1.5000 7.7975 -1.8662 0.9679
-2.3609 8.2310 -2.0125 0.9654
-3.0934 8.0086 -2.0177 0.9653
-3.7929 7.6963 -2.0165 0.9654
-4.4610 7.3226 -2.0152 0.9654
-6.2257 5.8676 -2.0106 0.9655
-6.7184 5.2847 -2.0089 0.9655
-7.1567 4.6606 -2.0072 0.9655
-7.8566 3.3095 -2.0036 0.9656
-8.1130 2.5935 -2.0018 0.9656
-8.4294 1.1093 -1.9982 0.9657
-8.4775 -0.4048 -1.9947 0.9657
-8.2573 -1.9009 -1.9914 0.9658
-7.7770 -3.3324 -1.9885 0.9658
-7.4440 -4.0099 -1.9872 0.9659
-7.0526 -4.6548 -1.9860 0.9659
-6.6059 -5.2622 -1.9849 0.9659
-5.5614 -6.3463 -1.9832 0.9659
-4.1393 -6.8895 -1.8890 0.9675
-2.8526 -7.5223 -1.8908 0.9675
-1.5189 -8.1660 -1.9521 0.9664
-0.7968 -8.3951 -1.9819 0.9659
0.7073 -8.4076 -1.9830 0.9659
1.4546 -8.3141 -1.9837 0.9659
4.2786 -7.2970 -1.9880 0.9658
4.9156 -6.8913 -1.9894 0.9658
5.5145 -6.4303 -1.9909 0.9658
7.0370 -4.7534 -1.9958 0.9657
7.4393 -4.1106 -1.9976 0.9657
7.7832 -3.4341 -1.9994 0.9656
8.0315 -1.1949 -1.9084 0.9672
7.8752 -0.4605 -1.8540 0.9681
6.4538 0.1993 -1.5175 0.9738
7.7359 1.6442 -1.8587 0.9680
7.5643 2.3292 -1.8602 0.9680
7.0403 3.6408 -1.8628 0.9680
6.6918 4.2566 -1.8639 0.9679
6.2892 4.8390 -1.8650 0.9679
5.3346 5.8845 -1.8667 0.9679
3.5900 7.0922 -1.8682 0.9679
2.2736 7.6181 -1.8685 0.9679
1.5852 7.7901 -1.8684 0.9679
0.8842 7.8994 -1.8681 0.9679
-2.8225 8.1100 -2.0182 0.9653
-4.8589 7.0604 -2.0143 0.9654
-6.0264 6.0758 -2.0112 0.9654
-6.5387 5.5098 -2.0096 0.9655
-6.9979 4.9006 -2.0079 0.9655
-7.4005 4.2534 -2.0061 0.9655
-8.0238 2.8663 -2.0025 0.9656
-8.2399 2.1375 -2.0007 0.9656
-8.3901 1.3930 -1.9989 0.9657
-8.4733 0.6389 -1.9971 0.9657
-8.3192 -1.6222 -1.9920 0.9658
-7.8869 -3.0693 -1.9890 0.9658
-7.5767 -3.7578 -1.9877 0.9658
-7.2069 -4.4156 -1.9864 0.9659
-5.7728 -6.1562 -1.9835 0.9659
-5.0705 -6.4797 -1.9337 0.9668
-4.3833 -6.7682 -1.8951 0.9674
-3.7390 -7.0876 -1.8833 0.9676
-3.0965 -7.4032 -1.8860 0.9676
-2.4462 -7.7197 -1.9032 0.9673
-1.7780 -8.0418 -1.9357 0.9667
-1.0790 -8.3630 -1.9818 0.9659
-0.3292 -8.4275 -1.9822 0.9659
0.4236 -8.4256 -1.9827 0.9659
1.1736 -8.3572 -1.9834 0.9659
1.9149 -8.2227 -1.9842 0.9659
3.3484 -7.7600 -1.9863 0.9659
5.2933 -6.6105 -1.9903 0.9658
5.8661 -6.1170 -1.9919 0.9658
7.2942 -4.3574 -1.9969 0.9657
7.6605 -3.6930 -1.9987 0.9657
7.9664 -2.9980 -2.0005 0.9656
7.8526 -0.7253 -1.8534 0.9681
6.4166 -0.0181 -1.5081 0.9740
7.7845 1.3823 -1.8582 0.9680
7.6363 2.0725 -1.8596 0.9680
7.4267 2.7471 -1.8610 0.9680
5.0005 6.1732 -1.8671 0.9679
2.5289 7.5372 -1.8685 0.9679
1.8468 7.7325 -1.8684 0.9679
0.4439 7.9353 -1.8679 0.9679
-0.2653 7.9412 -1.8674 0.9679
-1.6703 7.7620 -1.8660 0.9679
-2.5443 8.1893 -2.0154 0.9654
-3.9599 7.6102 -2.0162 0.9654
-5.2412 6.7764 -2.0134 0.9654
-5.8201 6.2773 -2.0118 0.9654
-6.3514 5.7287 -2.0102 0.9655
-7.6211 3.8336 -2.0050 0.9656
-7.9254 3.1360 -2.0032 0.9656
-8.1660 2.4146 -2.0013 0.9656
-8.4498 0.9242 -1.9977 0.9657
-8.4911 0.1670 -1.9960 0.9657
-8.4649 -0.5902 -1.9943 0.9657
-7.9880 -2.8027 -1.9896 0.9658
-7.7009 -3.5013 -1.9882 0.9658
-7.3533 -4.1713 -1.9869 0.9659
-6.9480 -4.8075 -1.9857 0.9659
-5.9778 -5.9592 -1.9838 0.9659
-4.6313 -6.6490 -1.9044 0.9673
-3.9814 -6.9678 -1.8861 0.9676
-3.3393 -7.2843 -1.8833 0.9676
-2.0330 -7.9193 -1.9216 0.9670
-1.3480 -8.2476 -1.9641 0.9662
-0.6128 -8.4109 -1.9820 0.9659
3.0844 -7.8667 -1.9859 0.9659
3.7757 -7.5648 -1.9871 0.9659
4.4381 -7.2028 -1.9884 0.9658
5.0662 -6.7832 -1.9898 0.9658
5.6551 -6.3092 -1.9913 0.9658
6.6966 -5.2130 -1.9945 0.9657
7.1409 -4.5991 -1.9962 0.9657
7.5292 -3.9476 -1.9980 0.9657
7.6995 1.8135 -1.8591 0.9680
7.2658 3.1569 -1.8618 0.9680
6.5979 4.4028 -1.8642 0.9679
5.2049 6.0005 -1.8669 0.9679
4.6507 6.4428 -1.8675 0.9679
4.0588 6.8335 -1.8680 0.9679
2.1062 7.6661 -1.8685 0.9679
0.0023 7.9465 -1.8676 0.9679
-2.9990 8.0451 -2.0179 0.9653
-3.7022 7.7411 -2.0167 0.9654
-4.3748 7.3754 -2.0154 0.9654
-5.0114 6.9510 -2.0140 0.9654
-7.1021 4.7452 -2.0074 0.9655
-7.4902 4.0895 -2.0057 0.9655
-8.0828 2.6892 -2.0020 0.9656
-7.8164 -3.2408 -1.9887 0.9658
-7.4914 -3.9222 -1.9874 0.9659
-6.6679 -5.1843 -1.9851 0.9659
-6.1762 -5.7554 -1.9841 0.9659
-4.8907 -6.5402 -1.9193 0.9670
-2.2844 -7.7980 -1.9097 0.9672
-0.1446 -8.4332 -1.9823 0.9659
0.6081 -8.4149 -1.9829 0.9659
1.3565 -8.3303 -1.9836 0.9659
2.0947 -8.1797 -1.9845 0.9659
2.8171 -7.9644 -1.9855 0.9659
3.5180 -7.6859 -1.9866 0.9659
4.8335 -6.9481 -1.9892 0.9658
5.9998 -5.9882 -1.9922 0.9658
6.5152 -5.4339 -1.9939 0.9657
6.9797 -4.8355 -1.9956 0.9657
7.3895 -4.1976 -1.9973 0.9657
8.0319 -2.8234 -2.0009 0.9656
7.8683 -0.5533 -1.8538 0.9681
6.4168 0.1224 -1.5084 0.9740
-3.7223 -6.6965 -1.9837 0.9688
-2.4733 -7.2498 -1.9833 0.9688
-1.8171 -7.4415 -1.9834 0.9688
-1.1465 -7.5746 -1.9835 0.9688
-0.4667 -7.6479 -1.9838 0.9688
0.2172 -7.6608 -1.9843 0.9688
0.8996 -7.6132 -1.9849 0.9688
2.2393 -7.3382 -1.9865 0.9688
5.6922 -5.1866 -1.9939 0.9687
6.5330 -4.0994 -1.9969 0.9686
6.8780 -3.5034 -1.9986 0.9686
7.1519 0.4623 -1.8556 0.9708
7.0875 1.0990 -1.8570 0.9708
6.7892 2.3436 -1.8596 0.9708
6.5575 2.9415 -1.8608 0.9707
6.2728 3.5166 -1.8620 0.9707
5.5542 4.5795 -1.8639 0.9707
5.1260 5.0586 -1.8647 0.9707
4.6562 5.4975 -1.8653 0.9707
4.1487 5.8924 -1.8659 0.9707
2.4425 6.7832 -1.8667 0.9707
0.5601 7.1862 -1.8663 0.9707
-0.0828 7.2059 -1.8659 0.9707
-2.1403 7.4618 -2.0099 0.9684
-2.8059 7.2642 -2.0162 0.9683
-5.1554 5.8106 -2.0113 0.9684
-5.6488 5.3239 -2.0098 0.9684
-6.0964 4.7954 -2.0083 0.9685
-6.4945 4.2294 -2.0067 0.9685
-6.8402 3.6306 -2.0051 0.9685
-7.1309 3.0038 -2.0034 0.9685
-7.5386 1.6868 -2.0001 0.9686
-7.6527 1.0071 -1.9985 0.9686
-7.7058 0.3205 -1.9969 0.9686
-7.6976 -0.3675 -1.9953 0.9687
-7.0635 -3.0267 -1.9897 0.9687
-6.4063 -4.2283 -1.9874 0.9688
-5.5484 -5.2940 -1.9856 0.9688
-5.0525 -5.7655 -1.9849 0.9688
-3.9460 -6.5678 -1.9838 0.9688
-3.3442 -6.8923 -1.9835 0.9688
-2.7161 -7.1625 -1.9834 0.9688
-1.4009 -7.5314 -1.9834 0.9688
-0.7239 -7.6273 -1.9837 0.9688
0.6426 -7.6382 -1.9847 0.9688
1.9905 -7.4082 -1.9861 0.9688
2.6443 -7.2046 -1.9871 0.9688
3.8862 -6.6278 -1.9893 0.9688
5.0081 -5.8398 -1.9919 0.9687
5.9744 -4.8646 -1.9948 0.9687
6.7540 -3.7320 -1.9979 0.9686
7.3215 -2.4771 -2.0012 0.9686
7.5193 -1.8160 -2.0029 0.9685
7.6353 -1.1359 -1.9987 0.9686
7.1468 -0.4179 -1.8536 0.9709
6.4362 0.1987 -1.6672 0.9737
6.0699 3.8610 -1.8626 0.9707
5.7043 4.3890 -1.8635 0.9707
5.2927 4.8823 -1.8644 0.9707
4.8381 5.3368 -1.8651 0.9707
3.2557 6.4317 -1.8665 0.9707
2.6695 6.6970 -1.8667 0.9707
1.4376 7.0645 -1.8666 0.9707
0.8019 7.1637 -1.8664 0.9707
0.1599 7.2052 -1.8660 0.9707
-0.4830 7.1889 -1.8655 0.9707
-1.1217 7.1148 -1.8649 0.9707
-1.7509 6.9837 -1.8642 0.9707
-3.2041 7.0947 -2.0156 0.9683
-4.4079 6.4050 -2.0131 0.9684
-5.4678 5.5127 -2.0103 0.9684
-5.9331 4.9995 -2.0088 0.9685
-6.3503 4.4471 -2.0073 0.9685
-6.7161 3.8601 -2.0057 0.9685
-7.0278 3.2433 -2.0041 0.9685
-7.2830 2.6016 -2.0024 0.9686
-7.4798 1.9403 -2.0008 0.9686
-7.6929 0.5800 -1.9975 0.9686
-7.7079 -0.1081 -1.9959 0.9687
-7.6617 -0.7943 -1.9944 0.9687
-7.5548 -1.4731 -1.9929 0.9687
-7.3881 -2.1394 -1.9915 0.9687
-7.1632 -2.7877 -1.9902 0.9687
-6.8819 -3.4132 -1.9890 0.9688
-5.2445 -5.5928 -1.9851 0.9688
-4.7234 -6.0362 -1.9845 0.9688
-2.9559 -7.0671 -1.9834 0.9688
-2.3140 -7.3022 -1.9833 0.9688
-0.9804 -7.5981 -1.9836 0.9688
0.3849 -7.6547 -1.9844 0.9688
1.7395 -7.4699 -1.9858 0.9688
2.3997 -7.2883 -1.9867 0.9688
3.0415 -7.0488 -1.9877 0.9688
4.2501 -6.4041 -1.9901 0.9687
4.8073 -6.0036 -1.9914 0.9687
5.3271 -5.5550 -1.9928 0.9687
5.8055 -5.0616 -1.9942 0.9687
6.6225 -3.9562 -1.9973 0.9686
6.9545 -3.3527 -1.9990 0.9686
7.4516 -2.0676 -2.0022 0.9686
7.1265 -0.6582 -1.8530 0.9709
6.3721 -0.0180 -1.6499 0.9740
6.9281 1.8803 -1.8587 0.9708
6.7374 2.4922 -1.8599 0.9708
6.4925 3.0849 -1.8611 0.9707
6.1952 3.6536 -1.8622 0.9707
5.8478 4.1936 -1.8632 0.9707
4.7513 4.0955 -1.6241 0.9744
5.0144 5.1701 -1.8648 0.9707
2.8935 6.6031 -1.8666 0.9707
-0.2406 7.2019 -1.8657 0.9707
-1.5149 7.0398 -1.8645 0.9707
-2.3062 7.4231 -2.0126 0.9684
-2.9639 7.2000 -2.0160 0.9683
-4.1907 6.5515 -2.0136 0.9684
-4.7550 6.1477 -2.0123 0.9684
-5.7630 5.1980 -2.0094 0.9684
-6.5843 4.0854 -2.0063 0.9685
-6.9167 3.4792 -2.0047 0.9685
-7.1935 2.8464 -2.0030 0.9685
-7.6714 0.8391 -1.9981 0.9686
-7.6863 -0.5359 -1.9950 0.9687
-7.4579 -1.8898 -1.9920 0.9687
-6.6792 -3.7889 -1.9882 0.9688
-5.8941 -4.9100 -1.9862 0.9688
-4.9246 -5.8743 -1.9847 0.9688
-4.3800 -6.2882 -1.9842 0.9688
-3.8011 -6.6523 -1.9837 0.9688
-1.9047 -7.4196 -1.9833 0.9688
-1.2357 -7.5604 -1.9835 0.9688
-0.5567 -7.6416 -1.9838 0.9688
0.1268 -7.6625 -1.9842 0.9688
2.1525 -7.3636 -1.9864 0.9688
3.4296 -6.8713 -1.9884 0.9688
4.0310 -6.5421 -1.9896 0.9687
7.1336 -2.9626 -2.0000 0.9686
7.3754 -2.3167 -2.0016 0.9686
7.5588 -1.6512 -2.0033 0.9685
7.1556 -0.2614 -1.8540 0.9708
7.0993 1.0153 -1.8568 0.9708
6.9856 1.6454 -1.8582 0.9708
6.3134 3.4421 -1.8618 0.9707
5.1850 4.9976 -1.8646 0.9707
4.7205 5.4420 -1.8652 0.9707
3.6808 6.1971 -1.8662 0.9707
3.1141 6.5016 -1.8665 0.9707
2.5222 6.7540 -1.8667 0.9707
1.2825 7.0941 -1.8666 0.9707
0.6448 7.1792 -1.8663 0.9707
-1.9031 6.9429 -1.8640 0.9707
-2.7202 7.2972 -2.0164 0.9683
-3.9685 6.6905 -2.0141 0.9684
-7.3368 2.4410 -2.0020 0.9686
-7.5190 1.7757 -2.0004 0.9686
-7.6411 1.0973 -1.9987 0.9686
-7.6410 -0.9617 -1.9940 0.9687
-7.5194 -1.6379 -1.9926 0.9687
-6.0572 -4.7095 -1.9866 0.9688
-5.1203 -5.7058 -1.9850 0.9688
-4.5898 -6.1377 -1.9844 0.9688
-3.4253 -6.8526 -1.9836 0.9688
-2.8004 -7.1300 -1.9834 0.9688
-1.4896 -7.5142 -1.9834 0.9688
-0.1313 -7.6618 -1.9841 0.9688
1.2323 -7.5678 -1.9852 0.9688
3.8075 -6.6726 -1.9891 0.9688
4.9384 -5.8979 -1.9917 0.9687
5.4485 -5.4379 -1.9931 0.9687
7.0276 -3.2002 -1.9994 0.9686
7.2909 -2.5630 -2.0010 0.9686
7.4966 -1.9043 -2.0026 0.9685
6.3994 0.1221 -1.6572 0.9739
7.1274 0.7754 -1.8563 0.9708
7.0351 1.4088 -1.8577 0.9708
-4.4435 -5.4291 -1.9861 0.9713
-2.8467 -6.4079 -1.9850 0.9713
-2.2639 -6.6359 -1.9849 0.9713
-1.6632 -6.8114 -1.9849 0.9713
-1.0494 -6.9331 -1.9851 0.9713
-0.4271 -7.0001 -1.9854 0.9713
0.8234 -6.9680 -1.9863 0.9713
1.4418 -6.8692 -1.9870 0.9712
3.2126 -6.2511 -1.9897 0.9712
3.7592 -5.9430 -1.9908 0.9712
4.2767 -5.5875 -1.9919 0.9712
5.2078 -4.7452 -1.9945 0.9711
5.6141 -4.2650 -1.9959 0.9711
5.9763 -3.7501 -1.9973 0.9711
6.2915 -3.2047 -1.9988 0.9711
6.5570 -2.6329 -2.0003 0.9711
7.0139 -0.8031 -1.9986 0.9711
6.5393 0.4227 -1.8551 0.9731
6.4800 1.0048 -1.8564 0.9731
6.2066 2.1425 -1.8588 0.9731
5.4271 3.7147 -1.8618 0.9730
4.2555 5.0243 -1.8640 0.9730
3.7915 5.3852 -1.8645 0.9730
2.2321 6.1990 -1.8652 0.9730
1.6705 6.3734 -1.8652 0.9730
1.0955 6.4965 -1.8651 0.9730
0.5119 6.5674 -1.8648 0.9730
-0.0757 6.5855 -1.8644 0.9730
-0.6624 6.5508 -1.8639 0.9730
-2.5647 6.6397 -2.0150 0.9708
-3.1449 6.3814 -2.0140 0.9709
-3.6993 6.0723 -2.0129 0.9709
-5.1646 4.8676 -2.0091 0.9709
-6.7353 2.1531 -2.0018 0.9710
-7.0492 0.2932 -1.9973 0.9711
-6.6888 -2.1836 -1.9919 0.9712
-6.4636 -2.7696 -1.9907 0.9712
-5.8628 -3.8695 -1.9886 0.9712
-4.1343 -5.6667 -1.9858 0.9713
-3.6118 -6.0115 -1.9853 0.9713
-1.8917 -6.7514 -1.9849 0.9713
-1.2823 -6.8936 -1.9850 0.9713
-0.6626 -6.9813 -1.9852 0.9713
0.5881 -6.9910 -1.9861 0.9713
1.8217 -6.7801 -1.9875 0.9712
2.9997 -6.3545 -1.9893 0.9712
4.0851 -5.7271 -1.9915 0.9712
4.5823 -5.3433 -1.9927 0.9712
5.0438 -4.9167 -1.9940 0.9711
5.8450 -3.9482 -1.9968 0.9711
6.1782 -3.4138 -1.9983 0.9711
6.4628 -2.8515 -1.9997 0.9711
6.9941 -1.0405 -2.0018 0.9710
6.4184 0.1982 -1.8179 0.9737
6.5085 0.7858 -1.8559 0.9731
6.2737 1.9318 -1.8583 0.9731
6.0802 2.4849 -1.8595 0.9731
5.5482 3.5291 -1.8615 0.9730
4.7162 4.3506 -1.8164 0.9737
3.9704 5.2539 -1.8643 0.9730
3.4870 5.5882 -1.8647 0.9730
2.9753 5.8778 -1.8650 0.9730
2.4396 6.1202 -1.8652 0.9730
1.8842 6.3135 -1.8652 0.9730
1.3138 6.4561 -1.8651 0.9730
-0.4414 6.5701 -1.8641 0.9730
-3.4934 6.1947 -2.0133 0.9709
-5.8066 4.0664 -2.0068 0.9710
-6.6609 2.3794 -2.0023 0.9710
-6.8413 1.7747 -2.0008 0.9710
-6.7601 -1.9575 -1.9924 0.9712
-6.5547 -2.5509 -1.9912 0.9712
-6.2976 -3.1234 -1.9900 0.9712
-5.6372 -4.1881 -1.9881 0.9712
-5.2391 -4.6721 -1.9872 0.9712
-2.7056 -6.4686 -1.9849 0.9713
-0.8973 -6.9546 -1.9851 0.9713
0.3523 -7.0062 -1.9859 0.9713
0.9758 -6.9489 -1.9865 0.9713
1.5920 -6.8366 -1.9872 0.9712
2.7834 -6.4507 -1.9889 0.9712
3.3492 -6.1800 -1.9899 0.9712
3.8890 -5.8601 -1.9910 0.9712
4.8741 -5.0825 -1.9935 0.9711
5.3114 -4.6308 -1.9949 0.9711
5.7071 -4.1417 -1.9963 0.9711
6.0581 -3.6190 -1.9977 0.9711
6.3613 -3.0667 -1.9992 0.9711
6.3416 -0.0179 -1.7952 0.9740
6.5296 0.5659 -1.8554 0.9731
6.4575 1.1466 -1.8567 0.9731
6.3337 1.7190 -1.8579 0.9731
6.1591 2.2782 -1.8590 0.9731
5.9348 2.8199 -1.8601 0.9731
5.6628 3.3396 -1.8611 0.9730
3.6729 5.4672 -1.8646 0.9730
1.7383 3.1647 -1.0222 0.9851
2.6443 6.0344 -1.8651 0.9730
2.0958 6.2465 -1.8652 0.9730
1.5305 6.4084 -1.8652 0.9730
-0.8056 6.5342 -1.8638 0.9730
-2.1075 6.7835 -2.0109 0.9709
-2.7091 6.5812 -2.0148 0.9708
-3.2835 6.3102 -2.0137 0.9709
-4.3469 5.6202 -2.0114 0.9709
-5.6679 4.2608 -2.0073 0.9710
-6.3253 3.1817 -2.0044 0.9710
-6.5788 2.6031 -2.0029 0.9710
-6.7796 2.0047 -2.0014 0.9710
-7.0173 0.7675 -1.9984 0.9711
-7.0319 -0.4903 -1.9955 0.9711
-6.9554 -1.1145 -1.9941 0.9711
-6.6384 -2.3292 -1.9916 0.9712
-4.9703 -4.9549 -1.9868 0.9712
-4.5073 -5.3766 -1.9862 0.9713
-4.0089 -5.7555 -1.9856 0.9713
-2.9221 -6.3740 -1.9850 0.9713
-1.7434 -6.7913 -1.9849 0.9713
-0.5096 -6.9944 -1.9853 0.9713
0.1161 -7.0134 -1.9857 0.9713
0.7411 -6.9770 -1.9862 0.9713
1.3607 -6.8854 -1.9869 0.9712
3.6887 -5.9865 -1.9906 0.9712
4.2102 -5.6371 -1.9918 0.9712
4.6990 -5.2425 -1.9930 0.9712
5.1511 -4.8058 -1.9943 0.9711
5.5629 -4.3304 -1.9957 0.9711
5.9311 -3.8199 -1.9972 0.9711
6.7456 -2.1188 -2.0016 0.9710
6.9129 -1.5101 -2.0031 0.9710
7.0079 -0.8862 -1.9997 0.9711
6.3865 1.5043 -1.8574 0.9731
5.4702 3.6502 -1.8617 0.9730
5.1253 4.1253 -1.8625 0.9730
4.7389 4.5676 -1.8633 0.9730
1.1721 6.4832 -1.8651 0.9730
0.0019 6.5862 -1.8645 0.9730
-0.5851 6.5584 -1.8640 0.9730
-1.1672 6.4781 -1.8634 0.9730
-1.7432 6.3595 -1.8667 0.9730
-3.6277 6.1159 -2.0130 0.9709
-4.1561 5.7647 -2.0119 0.9709
-5.5226 4.4505 -2.0079 0.9709
-5.8932 3.9375 -2.0064 0.9710
-6.2162 3.3939 -2.0050 0.9710
-6.4892 2.8241 -2.0035 0.9710
-6.7101 2.2325 -2.0020 0.9710
-6.8773 1.6241 -2.0005 0.9711
-6.9895 1.0037 -1.9990 0.9711
-7.0463 -0.2532 -1.9961 0.9711
-6.9908 -0.8799 -1.9947 0.9711
-6.8799 -1.4987 -1.9933 0.9712
-6.7146 -2.1048 -1.9921 0.9712
-5.9084 -3.8004 -1.9888 0.9712
-5.5435 -4.3101 -1.9879 0.9712
-4.6864 -5.2223 -1.9864 0.9713
-3.6825 -5.9686 -1.9854 0.9713
-0.7448 -6.9729 -1.9852 0.9713
0.5056 -6.9972 -1.9860 0.9713
1.7415 -6.8007 -1.9874 0.9712
2.3420 -6.6211 -1.9882 0.9712
2.9244 -6.3890 -1.9891 0.9712
4.5186 -5.3965 -1.9925 0.9712
4.9850 -4.9754 -1.9938 0.9711
5.4125 -4.5142 -1.9952 0.9711
5.7975 -4.0164 -1.9966 0.9711
6.1370 -3.4861 -1.9981 0.9711
6.4281 -2.9272 -1.9995 0.9711
6.9853 -1.1235 -2.0029 0.9710
6.5609 -0.4613 -1.8619 0.9730
6.3818 0.1218 -1.8070 0.9738
6.5167 0.7089 -1.8557 0.9731
-4.0922 -5.0000 -1.9873 0.9733
-3.6293 -5.3437 -1.9869 0.9733
-3.1379 -5.6451 -1.9865 0.9733
-2.0850 -6.1117 -1.9862 0.9733
-1.5319 -6.2733 -1.9862 0.9733
0.1830 -6.4577 -1.9870 0.9733
0.7583 -6.4172 -1.9875 0.9733
1.3278 -6.3260 -1.9881 0.9733
2.4322 -5.9943 -1.9897 0.9733
2.9583 -5.7562 -1.9906 0.9733
3.9378 -5.1447 -1.9927 0.9733
5.1683 -3.9263 -1.9964 0.9732
5.5015 -3.4522 -1.9977 0.9732
6.0354 -2.4235 -2.0004 0.9731
6.2317 -1.8770 -2.0018 0.9731
6.3787 -1.3148 -2.0032 0.9731
6.0240 -0.1490 -1.8534 0.9751
5.8598 1.4533 -1.8569 0.9751
5.5147 2.4738 -1.8590 0.9750
4.9924 3.4172 -1.8608 0.9750
4.6698 3.8502 -1.8616 0.9750
3.4875 4.9533 -1.8633 0.9750
1.8097 3.1303 -1.1121 0.9850
-0.6093 6.0256 -1.8628 0.9750
-1.1437 5.9454 -1.8622 0.9750
-2.3592 6.1079 -2.0139 0.9730
-2.8931 5.8705 -2.0130 0.9730
-4.3365 4.8876 -2.0097 0.9730
-5.4649 3.5589 -2.0059 0.9731
-5.7565 3.0554 -2.0045 0.9731
-6.1991 1.9817 -2.0018 0.9731
-6.3467 1.4201 -2.0004 0.9731
-6.4436 0.8480 -1.9990 0.9732
-6.4891 0.2699 -1.9976 0.9732
-6.4831 -0.3095 -1.9963 0.9732
-6.4256 -0.8858 -1.9950 0.9732
-6.1587 -2.0105 -1.9927 0.9733
-5.9517 -2.5503 -1.9916 0.9733
-5.3989 -3.5633 -1.9897 0.9733
-5.0576 -4.0289 -1.9888 0.9733
-4.6766 -4.4621 -1.9881 0.9733
-3.8076 -5.2189 -1.9870 0.9733
-3.3264 -5.5365 -1.9866 0.9733
-1.7423 -6.2181 -1.9862 0.9733
-1.1810 -6.3490 -1.9863 0.9733
-0.6103 -6.4297 -1.9865 0.9733
-0.0346 -6.4596 -1.9869 0.9733
0.5416 -6.4385 -1.9873 0.9733
1.1139 -6.3664 -1.9879 0.9733
3.2746 -5.5847 -1.9912 0.9733
4.2190 -4.9197 -1.9934 0.9732
5.0319 -4.0972 -1.9959 0.9732
5.3807 -3.6346 -1.9972 0.9732
6.3291 -1.5285 -2.0027 0.9731
6.3381 -0.3706 -1.9528 0.9738
6.0254 0.1860 -1.8542 0.9751
5.9887 0.7230 -1.8554 0.9751
5.5938 2.2861 -1.8587 0.9750
5.1038 3.2465 -1.8605 0.9750
4.0673 4.4865 -1.8626 0.9750
3.6520 4.8326 -1.8631 0.9750
0.1344 6.0568 -1.8634 0.9750
-0.4060 6.0433 -1.8630 0.9750
-0.9429 5.9813 -1.8624 0.9750
-1.4720 5.8714 -1.8618 0.9750
-3.2138 5.6989 -2.0124 0.9730
-3.7072 5.3868 -2.0113 0.9730
-5.6518 3.2484 -2.0050 0.9731
-5.9149 2.7297 -2.0037 0.9731
-6.1304 2.1899 -2.0023 0.9731
-6.4130 1.0648 -1.9995 0.9732
-6.4780 0.4884 -1.9982 0.9732
-6.4533 -0.6690 -1.9955 0.9732
-6.0354 -2.3488 -1.9920 0.9733
-5.7989 -2.8761 -1.9909 0.9733
-5.1912 -3.8568 -1.9891 0.9733
-4.8248 -4.3026 -1.9884 0.9733
-4.4205 -4.7141 -1.9877 0.9733
-3.5113 -5.4217 -1.9868 0.9733
-3.0134 -5.7123 -1.9865 0.9733
-2.4919 -5.9576 -1.9863 0.9733
-0.2521 -6.4543 -1.9867 0.9733
0.8987 -6.3995 -1.9877 0.9733
1.4662 -6.2960 -1.9883 0.9733
2.0224 -6.1425 -1.9891 0.9733
2.5631 -5.9402 -1.9899 0.9733
3.5810 -5.3959 -1.9919 0.9733
4.4875 -4.6794 -1.9942 0.9732
4.8899 -4.2633 -1.9954 0.9732
5.5767 -3.3314 -1.9980 0.9732
5.8555 -2.8228 -1.9994 0.9732
6.0880 -2.2911 -2.0008 0.9731
6.0082 0.5208 -1.8549 0.9751
5.8274 1.5815 -1.8572 0.9750
5.6664 2.0960 -1.8583 0.9750
4.5848 3.9520 -1.8617 0.9750
3.3783 5.0287 -1.8633 0.9750
1.7312 3.1518 -1.1060 0.9851
1.4077 5.8942 -1.8639 0.9750
-0.2023 6.0541 -1.8631 0.9750
-0.7410 6.0104 -1.8627 0.9750
-1.2735 5.9185 -1.8621 0.9750
-2.4922 6.0541 -2.0137 0.9730
-3.5243 5.5098 -2.0117 0.9730
-4.4418 4.7907 -2.0094 0.9730
-4.8483 4.3729 -2.0082 0.9730
-5.2155 3.9207 -2.0069 0.9731
-5.5406 3.4378 -2.0056 0.9731
-5.8211 2.9281 -2.0042 0.9731
-6.4595 0.7065 -1.9987 0.9732
-6.4737 -0.4514 -1.9960 0.9732
-6.4036 -1.0261 -1.9947 0.9732
-5.8937 -2.6796 -1.9913 0.9733
-3.6922 -5.3007 -1.9869 0.9733
-2.1569 -6.0867 -1.9862 0.9733
0.1069 -6.4592 -1.9870 0.9733
1.8141 -6.2062 -1.9888 0.9733
2.8901 -5.7903 -1.9905 0.9733
4.3264 -4.8268 -1.9937 0.9732
4.7424 -4.4246 -1.9949 0.9732
5.1213 -3.9866 -1.9962 0.9732
5.4599 -3.5165 -1.9975 0.9732
5.7556 -3.0177 -1.9989 0.9732
6.0058 -2.4942 -2.0002 0.9732
5.9724 0.8541 -1.8557 0.9751
5.8760 1.3840 -1.8568 0.9751
5.5431 2.4084 -1.8589 0.9750
5.3090 2.8945 -1.8598 0.9750
5.0321 3.3579 -1.8607 0.9750
4.7146 3.7947 -1.8615 0.9750
3.9683 4.5748 -1.8627 0.9750
2.1201 5.6771 -1.8639 0.9750
1.0780 5.9631 -1.8638 0.9750
0.5420 6.0347 -1.8636 0.9750
0.0018 6.0579 -1.8633 0.9750
-0.5382 6.0325 -1.8629 0.9750
-1.6883 6.1591 -1.9643 0.9736
-2.2872 6.1356 -2.0140 0.9730
-3.3374 5.6265 -2.0121 0.9730
-3.8237 5.3036 -2.0110 0.9730
-4.2789 4.9388 -2.0099 0.9730
-4.6994 4.5348 -2.0087 0.9730
-5.0817 4.0952 -2.0074 0.9731
-5.4231 3.6234 -2.0061 0.9731
-5.7206 3.1233 -2.0047 0.9731
-6.3301 1.4949 -2.0006 0.9731
-6.4337 0.9239 -1.9992 0.9732
-6.4361 -0.8101 -1.9952 0.9732
-5.9817 -2.4801 -1.9917 0.9733
-5.4408 -3.4997 -1.9898 0.9733
-4.7290 -4.4069 -1.9882 0.9733
-4.3159 -4.8095 -1.9876 0.9733
-3.8689 -5.1738 -1.9871 0.9733
-3.3915 -5.4970 -1.9867 0.9733
-2.8875 -5.7767 -1.9864 0.9733
-0.1107 -6.4586 -1.9868 0.9733
0.4657 -6.4442 -1.9873 0.9733
1.0387 -6.3788 -1.9878 0.9733
2.1567 -6.0973 -1.9893 0.9733
2.6929 -5.8833 -1.9901 0.9733
3.6988 -5.3169 -1.9921 0.9733
4.1604 -4.9687 -1.9933 0.9732
4.5896 -4.5807 -1.9945 0.9732
5.6492 -3.2090 -1.9983 0.9732
5.9169 -2.6944 -1.9997 0.9732
6.1378 -2.1576 -2.0011 0.9731
6.3101 -1.6029 -2.0025 0.9731
6.0267 0.1150 -1.8540 0.9751
5.9180 1.1851 -1.8564 0.9751
-3.7886 -4.6290 -1.9884 0.9751
-3.3601 -4.9473 -1.9880 0.9751
-2.9052 -5.2264 -1.9876 0.9751
-2.4274 -5.4641 -1.9874 0.9751
-1.9304 -5.6585 -1.9874 0.9751
-1.4182 -5.8081 -1.9874 0.9751
-0.8948 -5.9118 -1.9875 0.9751
-0.3642 -5.9688 -1.9878 0.9751
0.1695 -5.9786 -1.9881 0.9751
0.7020 -5.9411 -1.9886 0.9751
2.2515 -5.5490 -1.9906 0.9751
3.6449 -4.7620 -1.9934 0.9750
4.0571 -4.4204 -1.9944 0.9750
4.4376 -4.0434 -1.9956 0.9750
4.7833 -3.6338 -1.9968 0.9750
5.3593 -2.7299 -1.9992 0.9750
5.7663 -1.7368 -2.0018 0.9749
5.9896 -0.6858 -2.0040 0.9749
5.5666 0.3599 -1.8542 0.9768
5.5156 0.8553 -1.8553 0.9767
4.3189 3.5609 -1.8607 0.9767
3.9855 3.9331 -1.8613 0.9767
3.2252 4.5807 -1.8622 0.9767
1.7784 3.0761 -1.1811 0.9851
1.8986 5.2728 -1.8629 0.9767
1.4209 5.4210 -1.8628 0.9767
0.9318 5.5258 -1.8627 0.9767
0.4354 5.5862 -1.8625 0.9767
-0.5635 5.5725 -1.8618 0.9767
-1.0578 5.4986 -1.8613 0.9767
-1.6655 5.8068 -2.0080 0.9749
-2.1820 5.6491 -2.0130 0.9748
-2.6759 5.4297 -2.0122 0.9748
-3.5942 4.8634 -2.0102 0.9748
-4.0114 4.5212 -2.0091 0.9748
-4.3960 4.1432 -2.0080 0.9749
-4.7451 3.7325 -2.0068 0.9749
-5.0559 3.2926 -2.0056 0.9749
-5.3260 2.8269 -2.0043 0.9749
-5.5533 2.3393 -2.0030 0.9749
-5.9629 0.7847 -1.9992 0.9750
-6.0000 -0.2865 -1.9967 0.9750
-5.9471 -0.8198 -1.9955 0.9750
-5.8470 -1.3460 -1.9944 0.9750
-5.2743 -2.8411 -1.9914 0.9751
-4.9979 -3.2987 -1.9906 0.9751
-4.6821 -3.7297 -1.9898 0.9751
-4.3294 -4.1309 -1.9891 0.9751
-3.9428 -4.4992 -1.9886 0.9751
-3.5251 -4.8317 -1.9881 0.9751
-2.1199 -5.5903 -1.9874 0.9751
-1.6131 -5.7570 -1.9874 0.9751
-0.5650 -5.9529 -1.9877 0.9751
1.0312 -5.8939 -1.9889 0.9751
1.5531 -5.7803 -1.9896 0.9751
2.5570 -5.4168 -1.9911 0.9751
3.0312 -5.1696 -1.9920 0.9751
3.4817 -4.8811 -1.9930 0.9750
3.9051 -4.5536 -1.9940 0.9750
4.2980 -4.1897 -1.9951 0.9750
5.2630 -2.9081 -1.9988 0.9750
5.9628 -0.8871 -2.0039 0.9749
5.5401 0.6688 -1.8549 0.9768
5.4615 1.1608 -1.8560 0.9767
5.1740 2.1146 -1.8580 0.9767
4.9673 2.5687 -1.8589 0.9767
4.4358 3.4130 -1.8604 0.9767
4.1152 3.7962 -1.8611 0.9767
3.7615 4.1492 -1.8616 0.9767
3.3774 4.4692 -1.8621 0.9767
2.9660 4.7534 -1.8624 0.9767
1.6022 3.1652 -1.1792 0.9852
1.6027 5.3701 -1.8629 0.9767
1.1175 5.4914 -1.8628 0.9767
0.6233 5.5687 -1.8626 0.9767
-0.8721 5.5317 -1.8615 0.9767
-1.3892 5.5411 -1.8989 0.9762
-1.9908 5.7201 -2.0132 0.9748
-2.4919 5.5177 -2.0125 0.9748
-2.9726 5.2712 -2.0116 0.9748
-3.8576 4.6547 -2.0095 0.9748
-4.9433 3.4618 -2.0060 0.9749
-5.2290 3.0054 -2.0048 0.9749
-5.6724 2.0263 -2.0022 0.9749
-5.8268 1.5115 -2.0010 0.9749
-5.9345 0.9853 -1.9997 0.9750
-5.3680 -2.6623 -1.9917 0.9751
-5.1070 -3.1289 -1.9909 0.9751
-4.0925 -4.3643 -1.9888 0.9751
-3.2508 -5.0195 -1.9879 0.9751
-2.7899 -5.2886 -1.9876 0.9751
-2.3071 -5.5158 -1.9874 0.9751
-0.7651 -5.9302 -1.9876 0.9751
-0.2334 -5.9756 -1.9878 0.9751
1.3573 -5.8286 -1.9893 0.9751
1.8723 -5.6864 -1.9900 0.9751
3.3147 -4.9947 -1.9926 0.9750
3.7488 -4.6816 -1.9936 0.9750
4.1535 -4.3311 -1.9947 0.9750
5.4186 -2.6122 -1.9995 0.9750
5.8038 -1.6104 -2.0021 0.9749
5.9281 -1.0872 -2.0034 0.9749
5.9979 -0.5540 -2.0022 0.9749
5.6493 -0.0159 -1.8779 0.9765
5.5582 0.4817 -1.8545 0.9768
5.4964 0.9760 -1.8556 0.9767
5.0501 2.3995 -1.8585 0.9767
4.5476 3.2612 -1.8601 0.9767
3.5257 4.3525 -1.8619 0.9767
1.7086 3.1107 -1.1797 0.9852
1.3018 5.4508 -1.8628 0.9767
0.3130 5.5942 -1.8625 0.9767
-2.7939 5.3693 -2.0119 0.9748
-3.2599 5.0963 -2.0110 0.9748
-4.8250 3.6272 -2.0065 0.9749
-5.6023 2.2168 -2.0027 0.9749
-5.7740 1.7073 -2.0014 0.9749
-5.8994 1.1850 -2.0002 0.9750
-5.9915 -0.4178 -1.9964 0.9750
-5.9269 -0.9497 -1.9953 0.9750
-5.8153 -1.4736 -1.9941 0.9750
-5.6578 -1.9851 -1.9931 0.9750
-5.4556 -2.4804 -1.9921 0.9751
-3.8431 -4.5842 -1.9884 0.9751
-2.4916 -5.4351 -1.9875 0.9751
-1.4866 -5.7910 -1.9874 0.9751
-0.4345 -5.9640 -1.9877 0.9751
0.0990 -5.9800 -1.9881 0.9751
0.6319 -5.9487 -1.9885 0.9751
1.6794 -5.7454 -1.9897 0.9751
2.6753 -5.3601 -1.9913 0.9751
3.1440 -5.1025 -1.9922 0.9751
3.5882 -4.8043 -1.9932 0.9750
5.0529 -3.2543 -1.9978 0.9750
5.3263 -2.7926 -1.9991 0.9750
5.5576 -2.3080 -2.0003 0.9750
5.8867 -1.2859 -2.0029 0.9749
6.0063 -0.2194 -1.9979 0.9750
5.5700 0.2942 -1.8541 0.9768
5.5249 0.7901 -1.8552 0.9767
5.1271 2.2277 -1.8582 0.9767
4.9104 2.6772 -1.8591 0.9767
4.6541 3.1057 -1.8599 0.9767
4.3603 3.5096 -1.8606 0.9767
4.0314 3.8857 -1.8612 0.9767
3.6700 4.2309 -1.8617 0.9767
3.2789 4.5423 -1.8622 0.9767
2.4207 5.0539 -1.8627 0.9767
1.9606 5.2500 -1.8628 0.9767
0.9969 5.5145 -1.8628 0.9767
-0.4978 5.5790 -1.8618 0.9767
-0.9929 5.5109 -1.8613 0.9767
-1.5961 5.8228 -2.0069 0.9749
-2.1154 5.6747 -2.0131 0.9748
-2.6119 5.4612 -2.0123 0.9748
-3.5369 4.9058 -2.0103 0.9748
-3.9581 4.5685 -2.0093 0.9748
-4.7012 3.7885 -2.0070 0.9749
-5.2928 2.8897 -2.0045 0.9749
-5.5258 2.4048 -2.0032 0.9749
-5.8575 1.3833 -2.0006 0.9749
-5.9537 0.8550 -1.9994 0.9750
-6.0035 -0.2158 -1.9969 0.9750
-5.8629 -1.2771 -1.9946 0.9750
-5.7226 -1.7938 -1.9935 0.9750
-5.5370 -2.2957 -1.9925 0.9751
-4.7260 -3.6745 -1.9899 0.9751
-2.6734 -5.3483 -1.9875 0.9751
-0.6351 -5.9457 -1.9876 0.9751
0.4311 -5.9661 -1.9883 0.9751
1.4848 -5.7980 -1.9895 0.9751
2.4928 -5.4462 -1.9910 0.9751
2.9698 -5.2046 -1.9919 0.9751
3.8509 -4.5990 -1.9939 0.9750
5.2279 -2.9697 -1.9986 0.9750
5.9514 -0.9573 -2.0037 0.9749
5.5755 0.1064 -1.8537 0.9768
5.4744 1.0963 -1.8559 0.9767
-3.5233 -4.3048 -1.9893 0.9766
-3.1248 -4.6009 -1.9889 0.9767
-2.2574 -5.0815 -1.9884 0.9767
-1.7953 -5.2623 -1.9884 0.9767
-1.3190 -5.4015 -1.9884 0.9767
-0.8322 -5.4980 -1.9885 0.9767
0.1576 -5.5599 -1.9891 0.9766
0.6528 -5.5249 -1.9895 0.9766
1.1431 -5.4462 -1.9900 0.9766
2.0937 -5.1600 -1.9914 0.9766
2.9793 -4.7100 -1.9930 0.9766
3.3890 -4.4277 -1.9940 0.9766
4.1258 -3.7593 -1.9960 0.9766
4.7331 -2.9700 -1.9982 0.9765
5.1915 -2.0846 -2.0006 0.9765
5.4857 -1.1308 -2.0030 0.9765
5.5680 -0.6375 -2.0042 0.9765
5.1734 0.3344 -1.8539 0.9782
5.1258 0.7948 -1.8549 0.9782
4.7397 2.1261 -1.8577 0.9782
4.5333 2.5414 -1.8585 0.9782
4.0128 3.3086 -1.8599 0.9781
3.3633 3.9709 -1.8609 0.9781
1.7691 3.0601 -1.2640 0.9851
1.3201 5.0364 -1.8619 0.9781
0.8657 5.1338 -1.8618 0.9781
0.4045 5.1900 -1.8616 0.9781
-0.0598 5.2045 -1.8613 0.9781
-0.5235 5.1774 -1.8609 0.9781
-0.9866 5.1286 -1.8677 0.9781
-1.5485 5.3986 -2.0084 0.9764
-2.0274 5.2489 -2.0122 0.9764
-2.4864 5.0452 -2.0114 0.9764
-3.7277 4.2014 -2.0086 0.9764
-4.6990 3.0601 -2.0053 0.9765
-5.3318 1.7044 -2.0017 0.9765
-5.4593 1.2215 -2.0006 0.9765
-5.5432 0.7295 -1.9994 0.9765
-5.4363 -1.2515 -1.9949 0.9766
-5.3005 -1.7303 -1.9939 0.9766
-5.1227 -2.1950 -1.9930 0.9766
-4.6475 -3.0674 -1.9913 0.9766
-4.3539 -3.4683 -1.9906 0.9766
-3.6666 -4.1841 -1.9895 0.9766
-3.2782 -4.4934 -1.9891 0.9766
-2.8641 -4.7670 -1.9887 0.9767
-1.9715 -5.1989 -1.9884 0.9767
-1.0169 -5.4666 -1.9884 0.9767
-0.5254 -5.5361 -1.9886 0.9767
-0.0298 -5.5617 -1.9889 0.9767
0.4663 -5.5433 -1.9893 0.9766
0.9590 -5.4810 -1.9898 0.9766
1.9184 -5.2269 -1.9911 0.9766
3.2373 -4.5385 -1.9936 0.9766
3.6309 -4.2339 -1.9946 0.9766
4.3297 -3.5254 -1.9967 0.9766
4.6294 -3.1271 -1.9978 0.9765
5.1172 -2.2578 -2.0001 0.9765
5.3013 -1.7936 -2.0013 0.9765
5.4433 -1.3146 -2.0025 0.9765
5.5421 -0.8245 -2.0037 0.9765
5.5890 -0.3268 -2.0021 0.9765
5.2807 0.1631 -1.8893 0.9778
5.1486 0.6216 -1.8545 0.9782
4.6156 2.3869 -1.8582 0.9782
4.3862 2.7900 -1.8590 0.9782
4.1214 3.1711 -1.8596 0.9782
3.8235 3.5271 -1.8602 0.9781
3.4948 3.8550 -1.8608 0.9781
1.9279 4.8364 -1.8619 0.9781
1.4890 4.9891 -1.8619 0.9781
1.0382 5.1019 -1.8618 0.9781
0.1155 5.2039 -1.8614 0.9781
-0.3489 5.1925 -1.8611 0.9781
-1.3638 5.4399 -2.0055 0.9765
-1.8498 5.3149 -2.0125 0.9764
-2.3154 5.1269 -2.0117 0.9764
-2.7621 4.8980 -2.0109 0.9764
-3.9541 3.9866 -2.0079 0.9764
-4.8600 2.7933 -2.0046 0.9765
-5.5731 0.4202 -1.9986 0.9765
-5.5852 -0.0783 -1.9975 0.9766
-5.5528 -0.5757 -1.9964 0.9766
-5.3567 -1.5511 -1.9943 0.9766
-5.1946 -2.0216 -1.9933 0.9766
-3.0232 -4.6680 -1.9888 0.9767
-2.5946 -4.9183 -1.9886 0.9767
-2.1456 -5.1297 -1.9884 0.9767
-1.6796 -5.3004 -1.9883 0.9767
-0.2170 -5.5572 -1.9888 0.9767
0.2793 -5.5554 -1.9892 0.9766
0.7737 -5.5096 -1.9896 0.9766
1.2622 -5.4202 -1.9902 0.9766
1.7410 -5.2878 -1.9908 0.9766
3.0821 -4.6442 -1.9932 0.9766
3.4856 -4.3529 -1.9942 0.9766
3.8617 -4.0269 -1.9952 0.9766
4.2077 -3.6685 -1.9963 0.9766
4.7977 -2.8661 -1.9985 0.9765
5.0371 -2.4283 -1.9997 0.9765
5.5814 -0.5155 -2.0045 0.9765
5.0092 1.3595 -1.8561 0.9782
4.8705 1.8016 -1.8570 0.9782
4.6926 2.2297 -1.8579 0.9782
4.4770 2.6403 -1.8587 0.9782
3.9397 3.3959 -1.8600 0.9781
3.6223 3.7348 -1.8606 0.9781
1.6562 4.9361 -1.8619 0.9781
1.2095 5.0641 -1.8619 0.9781
0.2907 5.1974 -1.8615 0.9781
-1.6679 5.3684 -2.0103 0.9764
-2.1417 5.2027 -2.0120 0.9764
-3.4377 4.4446 -2.0094 0.9764
-3.8183 4.1183 -2.0083 0.9764
-4.1681 3.7594 -2.0073 0.9764
-4.7642 2.9560 -2.0050 0.9765
-5.0058 2.5180 -2.0038 0.9765
-5.2073 2.0605 -2.0026 0.9765
-5.4839 1.1015 -2.0003 0.9765
-5.5570 0.6078 -1.9991 0.9765
-5.5858 0.1099 -1.9979 0.9765
-5.5104 -0.8830 -1.9957 0.9766
-5.4069 -1.3701 -1.9947 0.9766
-5.2607 -1.8458 -1.9937 0.9766
-4.8449 -2.7484 -1.9919 0.9766
-4.5788 -3.1682 -1.9912 0.9766
-3.5739 -4.2631 -1.9894 0.9766
-2.7589 -4.8284 -1.9887 0.9767
-1.8572 -5.2408 -1.9884 0.9767
-1.3825 -5.3856 -1.9884 0.9767
-0.4041 -5.5464 -1.9887 0.9767
0.5877 -5.5321 -1.9894 0.9766
1.0788 -5.4591 -1.9900 0.9766
1.5617 -5.3428 -1.9906 0.9766
2.0326 -5.1841 -1.9913 0.9766
3.7232 -4.1539 -1.9948 0.9766
4.4065 -3.4302 -1.9970 0.9766
4.6974 -3.0254 -1.9981 0.9765
4.9514 -2.5960 -1.9993 0.9765
5.1662 -2.1455 -2.0004 0.9765
5.3400 -1.6773 -2.0016 0.9765
5.5903 -0.2042 -2.0005 0.9765
5.1766 0.2734 -1.8538 0.9782
5.1344 0.7343 -1.8548 0.9782
5.0512 1.1898 -1.8558 0.9782
4.9275 1.6362 -1.8567 0.9782
4.7642 2.0700 -1.8576 0.9782
4.0513 3.2609 -1.8598 0.9781
3.7456 3.6103 -1.8604 0.9781
3.4097 3.9309 -1.8609 0.9781
3.0463 4.2201 -1.8613 0.9781
2.2490 4.6954 -1.8618 0.9781
1.8215 4.8775 -1.8619 0.9781
1.3794 5.0205 -1.8619 0.9781
-1.4840 5.4137 -2.0074 0.9764
-1.9655 5.2727 -2.0123 0.9764
-3.2866 4.5587 -2.0097 0.9764
-4.0399 3.8985 -2.0077 0.9764
-4.3690 3.5208 -2.0066 0.9764
-4.6629 3.1155 -2.0054 0.9765
-4.9193 2.6858 -2.0043 0.9765
-5.1361 2.2352 -2.0031 0.9765
-5.5346 0.7948 -1.9995 0.9765
-5.5813 -0.2006 -1.9972 0.9766
-5.5382 -0.6970 -1.9961 0.9766
-5.4511 -1.1874 -1.9951 0.9766
-5.3208 -1.6679 -1.9941 0.9766
-4.6836 -3.0126 -1.9914 0.9766
-4.3947 -3.4169 -1.9907 0.9766
-3.7158 -4.1407 -1.9895 0.9766
-2.9201 -4.7330 -1.9888 0.9767
-2.4862 -4.9739 -1.9885 0.9767
-2.0327 -5.1754 -1.9884 0.9767
-1.0812 -5.4542 -1.9884 0.9767
-0.5906 -5.5294 -1.9886 0.9767
-0.0953 -5.5608 -1.9889 0.9767
0.8943 -5.4917 -1.9897 0.9766
1.3807 -5.3917 -1.9903 0.9766
2.3180 -5.0643 -1.9917 0.9766
2.7615 -4.8395 -1.9926 0.9766
3.1834 -4.5761 -1.9935 0.9766
3.9495 -3.9419 -1.9955 0.9766
4.5919 -3.1812 -1.9977 0.9765
4.8600 -2.7607 -1.9988 0.9765
5.0898 -2.3178 -2.0000 0.9765
5.4270 -1.3786 -2.0024 0.9765
5.5316 -0.8897 -2.0036 0.9765
5.3872 0.1028 -1.9269 0.9774
5.0874 1.0188 -1.8554 0.9782
-2.9172 -4.2952 -1.9898 0.9780
-2.1075 -4.7440 -1.9893 0.9780
-0.7769 -5.1328 -1.9894 0.9780
0.1471 -5.1905 -1.9899 0.9780
1.0672 -5.0842 -1.9908 0.9780
1.5167 -4.9702 -1.9914 0.9780
2.7810 -4.3965 -1.9936 0.9780
3.8507 -3.5087 -1.9964 0.9779
4.6494 -2.3683 -1.9996 0.9779
4.8447 -1.9454 -2.0007 0.9779
5.0016 -1.5065 -2.0018 0.9779
5.1189 -1.0551 -2.0029 0.9779
5.1954 -0.5949 -2.0040 0.9778
5.2226 -0.1291 -2.0020 0.9779
4.9554 0.3203 -1.9030 0.9790
4.7823 0.7415 -1.8546 0.9795
4.4217 1.9835 -1.8571 0.9795
4.2289 2.3707 -1.8579 0.9794
3.4541 3.4087 -1.8597 0.9794
2.7950 3.9697 -1.8605 0.9794
2.0460 4.4041 -1.8610 0.9794
1.6453 4.5692 -1.8611 0.9794
1.2313 4.6977 -1.8611 0.9794
0.3773 4.8410 -1.8608 0.9794
-0.0558 4.8546 -1.8605 0.9794
-0.9167 4.7654 -1.8597 0.9794
-3.1159 4.2162 -2.0091 0.9778
-3.4778 3.9198 -2.0081 0.9778
-4.6190 2.4516 -2.0040 0.9778
-5.1731 0.6808 -1.9995 0.9779
-5.2104 0.2167 -1.9984 0.9779
-5.2062 -0.2486 -1.9974 0.9779
-5.0742 -1.1681 -1.9954 0.9779
-4.9475 -1.6151 -1.9944 0.9780
-4.7817 -2.0489 -1.9936 0.9780
-4.5781 -2.4661 -1.9928 0.9780
-3.4230 -3.9060 -1.9903 0.9780
-3.0604 -4.1948 -1.9899 0.9780
-2.6738 -4.4503 -1.9896 0.9780
-1.4005 -4.9984 -1.9892 0.9780
-0.9493 -5.1035 -1.9893 0.9780
0.4353 -5.1750 -1.9901 0.9780
0.8952 -5.1167 -1.9906 0.9780
2.6309 -4.4870 -1.9933 0.9780
3.3890 -3.9519 -1.9950 0.9779
3.7297 -3.6357 -1.9960 0.9779
4.0410 -3.2904 -1.9970 0.9779
4.5660 -2.5230 -1.9991 0.9779
4.9470 -1.6738 -2.0014 0.9779
5.2212 -0.3053 -2.0043 0.9778
5.2121 0.1609 -1.9983 0.9779
4.8036 0.5799 -1.8542 0.9795
4.7352 1.0064 -1.8551 0.9795
4.6288 1.4253 -1.8560 0.9795
4.4853 1.8331 -1.8568 0.9795
3.8446 2.9581 -1.8590 0.9794
1.5881 3.1374 -1.3476 0.9850
1.3889 4.6536 -1.8611 0.9794
0.9684 4.7588 -1.8610 0.9794
0.5402 4.8257 -1.8609 0.9794
0.1078 4.8541 -1.8606 0.9794
-0.3254 4.8435 -1.8603 0.9794
-0.7558 4.7941 -1.8599 0.9794
-1.2732 5.0784 -2.0064 0.9778
-3.3444 4.0354 -2.0085 0.9778
-3.6891 3.7194 -2.0075 0.9778
-4.0040 3.3739 -2.0065 0.9778
-4.5347 2.6063 -2.0044 0.9778
-4.9201 1.7576 -2.0022 0.9779
-5.0544 1.3111 -2.0010 0.9779
-5.1483 0.8548 -1.9999 0.9779
-5.2012 0.3922 -1.9988 0.9779
-5.2126 -0.0731 -1.9978 0.9779
-5.1827 -0.5373 -1.9967 0.9779
-5.1115 -0.9967 -1.9957 0.9779
-4.8488 -1.8870 -1.9939 0.9780
-4.6593 -2.3108 -1.9931 0.9780
-4.1717 -3.0994 -1.9916 0.9780
-3.8776 -3.4579 -1.9910 0.9780
-3.5529 -3.7889 -1.9905 0.9780
-2.4223 -4.5917 -1.9894 0.9780
-2.0031 -4.7890 -1.9893 0.9780
-0.6643 -5.1487 -1.9894 0.9780
0.2608 -5.1863 -1.9900 0.9780
0.7223 -5.1435 -1.9904 0.9780
1.1783 -5.0599 -1.9909 0.9780
2.8769 -4.3350 -1.9938 0.9780
3.6044 -3.7586 -1.9956 0.9779
3.9271 -3.4239 -1.9966 0.9779
4.2190 -3.0617 -1.9977 0.9779
4.4775 -2.6748 -1.9987 0.9779
4.6733 1.2683 -1.8557 0.9795
4.5437 1.6807 -1.8565 0.9795
4.3776 2.0800 -1.8573 0.9795
4.1764 2.4630 -1.8581 0.9794
2.7075 4.0302 -1.8606 0.9794
1.6943 3.0846 -1.3486 0.9850
1.9491 4.4479 -1.8610 0.9794
1.5448 4.6042 -1.8611 0.9794
1.1281 4.7235 -1.8610 0.9794
-0.1621 4.8520 -1.8604 0.9794
-1.0609 4.9304 -1.9327 0.9786
-1.5568 5.0108 -2.0108 0.9778
-1.9979 4.8534 -2.0113 0.9778
-2.8259 4.4179 -2.0097 0.9778
-3.2071 4.1465 -2.0088 0.9778
-3.8888 3.5075 -2.0069 0.9778
-4.4453 2.7582 -2.0048 0.9778
-5.1861 0.5672 -1.9993 0.9779
-5.2132 0.1025 -1.9982 0.9779
-5.1988 -0.3625 -1.9971 0.9779
-5.0468 -1.2788 -1.9951 0.9779
-4.2743 -2.9575 -1.9919 0.9780
-3.9923 -3.3257 -1.9912 0.9780
-3.6788 -3.6674 -1.9907 0.9780
-3.3364 -3.9798 -1.9902 0.9780
-2.9677 -4.2607 -1.9898 0.9780
-2.1633 -4.7189 -1.9893 0.9780
-0.8373 -5.1232 -1.9894 0.9780
0.0859 -5.1918 -1.9899 0.9780
1.4579 -4.9875 -1.9913 0.9780
1.8974 -4.8393 -1.9920 0.9780
2.7288 -4.4287 -1.9935 0.9780
3.1142 -4.1696 -1.9943 0.9780
4.1126 -3.2015 -1.9973 0.9779
4.8211 -2.0022 -2.0005 0.9779
5.2227 -0.1908 -2.0028 0.9779
4.5970 1.5265 -1.8562 0.9795
4.4445 1.9311 -1.8570 0.9795
4.2563 2.3206 -1.8578 0.9794
4.0340 2.6919 -1.8585 0.9794
3.7792 3.0418 -1.8591 0.9794
1.6000 3.3404 -1.4194 0.9843
1.6990 4.5495 -1.8611 0.9794
1.2866 4.6829 -1.8611 0.9794
0.8639 4.7787 -1.8610 0.9794
-0.4314 4.8349 -1.8602 0.9794
-0.8605 4.7761 -1.8598 0.9794
-1.3853 5.0536 -2.0081 0.9778
-3.4316 3.9607 -2.0083 0.9778
-3.7692 3.6372 -2.0073 0.9778
-4.0764 3.2850 -2.0063 0.9778
-4.3507 2.9069 -2.0052 0.9778
-5.0812 1.2000 -2.0008 0.9779
-5.1651 0.7417 -1.9997 0.9779
-5.2078 0.2781 -1.9986 0.9779
-5.1690 -0.6506 -1.9965 0.9779
-4.8058 -1.9925 -1.9937 0.9780
-4.3721 -2.8122 -1.9921 0.9780
-3.8007 -3.5417 -1.9909 0.9780
-3.4689 -3.8655 -1.9904 0.9780
-3.1097 -4.1586 -1.9899 0.9780
-1.0094 -5.0920 -1.9893 0.9780
-0.5514 -5.1621 -1.9895 0.9780
-0.0890 -5.1914 -1.9897 0.9780
0.3743 -5.1796 -1.9901 0.9780
1.7331 -4.8998 -1.9917 0.9780
2.1638 -4.7274 -1.9924 0.9780
2.5777 -4.5174 -1.9932 0.9780
2.9715 -4.2714 -1.9940 0.9780
3.6863 -3.6792 -1.9959 0.9779
4.0017 -3.3375 -1.9969 0.9779
4.2856 -2.9690 -1.9979 0.9779
4.5356 -2.5765 -1.9990 0.9779
5.1616 -0.8302 -2.0034 0.9779
5.2179 -0.3669 -2.0045 0.9778
5.2156 0.0995 -1.9991 0.9779
4.8098 0.5232 -1.8541 0.9795
-3.0809 -3.7643 -1.9909 0.9792
-2.7325 -4.0233 -1.9905 0.9792
-2.3626 -4.2504 -1.9903 0.9792
-1.5700 -4.6019 -1.9900 0.9792
-0.7277 -4.8079 -1.9902 0.9792
0.5709 -4.8312 -1.9910 0.9792
0.9996 -4.7621 -1.9915 0.9792
1.4205 -4.6553 -1.9920 0.9792
1.8305 -4.5115 -1.9927 0.9792
2.2263 -4.3318 -1.9933 0.9792
2.6046 -4.1177 -1.9941 0.9792
3.6062 -3.2858 -1.9967 0.9791
4.3537 -2.2176 -1.9997 0.9791
4.6832 -1.4106 -2.0018 0.9791
4.7928 -0.9879 -2.0028 0.9791
4.8643 -0.5570 -2.0038 0.9791
4.8952 -0.1210 -2.0041 0.9791
4.8731 0.3150 -1.9986 0.9791
4.3993 1.0911 -1.8551 0.9806
3.7462 2.5642 -1.8580 0.9806
3.5037 2.8888 -1.8585 0.9806
2.9364 3.4669 -1.8595 0.9806
2.6160 3.7156 -1.8598 0.9806
1.9150 4.1221 -1.8602 0.9805
1.1525 4.3969 -1.8603 0.9805
0.7558 4.4819 -1.8602 0.9805
-0.0522 4.5438 -1.8598 0.9806
-0.4571 4.5202 -1.8595 0.9806
-0.8987 4.6716 -1.9470 0.9796
-1.7703 4.5832 -2.0109 0.9790
-2.9168 3.9468 -2.0086 0.9790
-3.8520 3.0300 -2.0058 0.9790
-4.3246 2.2954 -2.0038 0.9791
-4.5097 1.8997 -2.0028 0.9791
-1.9394 -0.0926 -0.7947 0.9916
-1.9478 -0.2685 -0.8047 0.9915
-4.7521 -1.0940 -1.9958 0.9791
-4.0634 -2.6819 -1.9926 0.9792
-3.8069 -3.0326 -1.9920 0.9792
-2.5046 -4.1686 -1.9903 0.9792
-1.7241 -4.5464 -1.9900 0.9792
-1.3119 -4.6820 -1.9900 0.9792
-0.4595 -4.8412 -1.9903 0.9792
-0.0260 -4.8635 -1.9905 0.9792
0.8385 -4.7926 -1.9913 0.9792
1.2628 -4.7000 -1.9918 0.9792
2.4641 -4.2024 -1.9938 0.9792
2.8301 -3.9676 -1.9946 0.9792
3.1739 -3.7010 -1.9955 0.9791
4.0460 -2.7330 -1.9983 0.9791
4.2757 -2.3626 -1.9993 0.9791
4.7559 -1.1486 -2.0024 0.9791
4.8419 -0.7203 -2.0035 0.9791
4.8860 0.1509 -2.0007 0.9791
4.4328 0.9421 -1.8548 0.9806
4.3331 1.3342 -1.8556 0.9806
4.1986 1.7160 -1.8564 0.9806
3.3384 3.0796 -1.8589 0.9806
2.4058 3.8555 -1.8600 0.9805
1.5829 3.1270 -1.4344 0.9850
1.6830 4.2223 -1.8603 0.9805
1.2999 4.3556 -1.8603 0.9805
0.9064 4.4540 -1.8603 0.9805
0.5056 4.5167 -1.8601 0.9805
-0.7074 4.4872 -1.8592 0.9806
-1.1927 4.7573 -2.0073 0.9790
-3.1308 3.7777 -2.0081 0.9790
-3.7485 3.1586 -2.0062 0.9790
-4.0132 2.8104 -2.0052 0.9790
-4.2457 2.4402 -2.0042 0.9791
-4.4440 2.0509 -2.0032 0.9791
-1.9541 0.1473 -0.8020 0.9916
-1.9120 -0.0268 -0.7826 0.9918
-4.7870 -0.9335 -1.9961 0.9791
-4.6826 -1.3559 -1.9952 0.9792
-4.5412 -1.7673 -1.9944 0.9792
-4.3638 -2.1643 -1.9936 0.9792
-4.1520 -2.5438 -1.9929 0.9792
-2.9976 -3.8307 -1.9908 0.9792
-2.6437 -4.0820 -1.9904 0.9792
-2.2689 -4.3010 -1.9902 0.9792
-0.6223 -4.8228 -1.9902 0.9792
-0.1898 -4.8596 -1.9904 0.9792
0.2443 -4.8579 -1.9907 0.9792
0.6766 -4.8177 -1.9911 0.9792
1.1037 -4.7394 -1.9916 0.9792
2.6944 -4.0600 -1.9943 0.9792
3.0470 -3.8052 -1.9951 0.9792
3.3756 -3.5200 -1.9960 0.9791
3.6777 -3.2065 -1.9969 0.9791
4.1929 -2.5048 -1.9989 0.9791
4.5758 -1.7220 -2.0010 0.9791
4.7135 -1.3079 -2.0020 0.9791
4.8139 -0.8828 -2.0031 0.9791
4.8760 -0.4504 -2.0041 0.9791
4.8933 -0.0138 -2.0027 0.9791
4.7494 0.4117 -1.9511 0.9796
4.3749 1.1873 -1.8553 0.9806
4.0978 1.9471 -1.8568 0.9806
2.8599 3.5306 -1.8596 0.9806
1.8243 4.1631 -1.8603 0.9805
1.4459 4.3093 -1.8603 0.9805
0.2538 4.5375 -1.8600 0.9805
-1.8701 4.5430 -2.0107 0.9790
-2.6453 4.1355 -2.0092 0.9790
-3.0022 3.8816 -2.0084 0.9790
-3.3349 3.5969 -2.0075 0.9790
-3.9170 2.9446 -2.0056 0.9790
-1.9173 0.0377 -0.7849 0.9917
-4.7264 -1.1976 -1.9955 0.9791
-4.5989 -1.6136 -1.9947 0.9792
-4.4349 -2.0164 -1.9939 0.9792
-4.2359 -2.4029 -1.9931 0.9792
-4.0034 -2.7700 -1.9925 0.9792
-3.4458 -3.4351 -1.9914 0.9792
-2.7798 -3.9909 -1.9906 0.9792
-2.4126 -4.2223 -1.9903 0.9792
-1.6241 -4.5831 -1.9900 0.9792
0.5139 -4.8374 -1.9910 0.9792
0.9433 -4.7734 -1.9914 0.9792
2.1749 -4.3576 -1.9932 0.9792
2.9166 -3.9051 -1.9948 0.9792
3.8513 -2.9981 -1.9975 0.9791
4.3269 -2.2686 -1.9996 0.9791
