ply
format ascii 1.0
element vertex 1578
property float32 x
property float32 y
property float32 z
property float32 I
end_header
-1.8580 6.8088 -0.1987 0.9722
19.4488 -1.3448 -0.9887 0.9249
14.8642 0.3037 -0.7540 0.9422
10.7641 2.1748 -0.5569 0.9570
4.7353 4.2904 -0.3241 0.9747
3.6927 4.8003 -0.3071 0.9760
3.0637 4.8194 -0.2896 0.9774
2.1524 5.2762 -0.2890 0.9774
1.6755 5.4579 -0.2895 0.9774
1.2297 5.8152 -0.3014 0.9765
0.6967 5.8303 -0.2978 0.9768
0.1777 6.0276 -0.3058 0.9761
-1.0034 6.6637 -0.3418 0.9734
11.0048 1.9877 -0.5671 0.9562
9.2888 2.5524 -0.4885 0.9622
7.0846 3.3969 -0.3985 0.9690
6.3335 3.7669 -0.3737 0.9709
5.6892 4.1135 -0.3560 0.9723
4.8751 4.2370 -0.3276 0.9745
4.2896 4.4607 -0.3139 0.9755
3.8155 4.7534 -0.3091 0.9759
2.2625 5.2343 -0.2892 0.9774
0.8317 5.9194 -0.3031 0.9763
-0.2435 6.1876 -0.3140 0.9755
-0.8558 6.6076 -0.3379 0.9737
-1.5102 6.8087 -0.3537 0.9725
-2.2028 6.9310 -0.3688 0.9713
2.3447 -0.9331 -0.1280 0.9899
15.4730 -0.3234 -0.7849 0.9399
11.2641 1.7951 -0.5785 0.9553
9.6116 2.4286 -0.5028 0.9611
8.5884 3.0087 -0.4615 0.9642
7.2975 3.3153 -0.4065 0.9684
6.4253 3.6439 -0.3746 0.9708
5.8533 4.0507 -0.3610 0.9719
5.0180 4.1824 -0.3313 0.9742
4.4206 4.4107 -0.3167 0.9753
3.9400 4.7058 -0.3113 0.9757
2.3398 5.1201 -0.2855 0.9777
0.9568 5.9190 -0.3041 0.9763
0.4209 5.9351 -0.3018 0.9765
-0.6901 6.3571 -0.3243 0.9747
-1.3613 6.7995 -0.3517 0.9726
-2.6214 1.6729 -0.1577 0.9876
14.6087 0.7004 -0.7417 0.9431
11.6205 1.6064 -0.5949 0.9541
9.9538 2.2974 -0.5181 0.9599
8.6521 2.8317 -0.4617 0.9642
7.5193 3.2304 -0.4150 0.9678
6.6132 3.5720 -0.3812 0.9703
4.5539 4.3598 -0.3197 0.9751
3.9457 4.5196 -0.3043 0.9763
3.5317 4.8617 -0.3047 0.9762
2.9487 4.9328 -0.2914 0.9772
2.4834 5.1501 -0.2900 0.9774
2.0060 5.3320 -0.2889 0.9774
0.5402 5.8898 -0.3000 0.9766
0.0121 6.0905 -0.3089 0.9759
-1.2052 6.7402 -0.3472 0.9729
-1.8555 6.7993 -0.3574 0.9722
-13.9448 -10.7561 -1.2913 0.9318
-10.2936 -13.6709 -1.2548 0.9337
-6.3053 -15.9251 -1.2559 0.9336
-3.4281 -17.0810 -1.2774 0.9325
-0.3436 -17.9537 -1.3166 0.9305
1.2875 -18.2776 -1.3435 0.9291
4.7545 -18.6780 -1.4132 0.9256
18.9706 -1.3117 -1.3943 0.9266
11.5801 1.2777 -0.8542 0.9543
6.8633 3.4669 -0.5638 0.9696
4.7293 4.2850 -0.4679 0.9747
3.6883 4.7946 -0.4435 0.9760
3.0602 4.8139 -0.4182 0.9774
1.2283 5.8085 -0.4353 0.9765
0.6959 5.8235 -0.4300 0.9768
-0.3742 6.2296 -0.4576 0.9753
-1.0021 6.6550 -0.4935 0.9734
-1.6336 6.7068 -0.5061 0.9727
-18.5591 -5.3065 -1.4153 0.9255
-17.5275 -6.7571 -1.3774 0.9274
-16.4581 -8.1014 -1.3450 0.9291
-13.0388 -11.5708 -1.2782 0.9325
-9.1217 -9.6839 -0.9754 0.9480
-10.5861 -13.4709 -1.2562 0.9336
-9.3053 -14.3092 -1.2515 0.9338
-7.9859 -15.0764 -1.2509 0.9339
-2.2684 -17.4510 -1.2903 0.9319
0.9052 -18.2097 -1.3368 0.9295
2.5867 -18.4721 -1.3676 0.9279
4.3391 -18.6497 -1.4040 0.9261
6.1684 -18.7357 -1.4463 0.9239
11.7390 1.0503 -0.8642 0.9538
11.0025 1.9873 -0.8198 0.9561
9.2711 2.5475 -0.7050 0.9622
8.2467 3.0818 -0.6455 0.9653
7.0736 3.3916 -0.5752 0.9690
4.8688 4.2316 -0.4730 0.9745
4.2844 4.4553 -0.4532 0.9755
2.7397 5.0454 -0.4210 0.9772
1.7839 5.4097 -0.4177 0.9774
-0.2432 6.1800 -0.4535 0.9755
-16.7084 -7.7999 -1.3520 0.9287
-14.4793 -10.2429 -1.3004 0.9313
-13.3130 -11.3312 -1.2818 0.9323
-12.1123 -12.3378 -1.2677 0.9330
-10.8766 -13.2669 -1.2579 0.9335
-8.2942 -14.9054 -1.2507 0.9339
-6.9435 -15.6189 -1.2533 0.9337
-5.5498 -16.2633 -1.2600 0.9334
0.5262 -18.1377 -1.3305 0.9298
2.1923 -18.4188 -1.3600 0.9283
15.4701 -0.3233 -1.1345 0.9398
12.7198 0.8735 -0.9348 0.9501
11.2386 1.7910 -0.8344 0.9554
7.2859 3.3100 -0.5868 0.9684
6.4159 3.6386 -0.5408 0.9709
3.4082 4.9016 -0.4377 0.9763
2.8177 4.9428 -0.4172 0.9774
1.4591 5.7208 -0.4329 0.9766
-0.1145 6.1311 -0.4496 0.9757
-0.6893 6.3491 -0.4683 0.9747
-1.3595 6.7904 -0.5078 0.9726
-2.0235 6.8544 -0.5240 0.9717
-2.6200 1.6720 -0.2279 0.9876
-19.0221 -4.5980 -1.4349 0.9245
-18.0089 -6.1008 -1.3942 0.9266
-16.9566 -7.4931 -1.3593 0.9283
-13.5854 -11.0873 -1.2857 0.9321
-12.3928 -12.1123 -1.2706 0.9329
-8.6003 -14.7307 -1.2507 0.9339
-7.2592 -15.4603 -1.2523 0.9338
1.8015 -18.3611 -1.3527 0.9287
5.3134 -18.7079 -1.4260 0.9250
14.5677 0.6984 -1.0694 0.9432
11.6181 1.6061 -0.8600 0.9540
6.0138 3.9805 -0.5288 0.9715
5.1574 4.1210 -0.4840 0.9739
3.9437 4.5173 -0.4397 0.9762
2.4806 5.1442 -0.4187 0.9774
2.0038 5.3260 -0.4172 0.9774
1.5736 5.6772 -0.4320 0.9766
1.0733 5.8675 -0.4374 0.9764
0.5395 5.8829 -0.4332 0.9766
-0.5522 6.2971 -0.4635 0.9750
-1.2036 6.7313 -0.5014 0.9729
-1.8529 6.7898 -0.5160 0.9722
-2.5836 1.7250 -0.2278 0.9876
-19.2502 -4.2341 -1.4452 0.9240
-18.2465 -5.7639 -1.4030 0.9261
-16.1224 -8.4942 -1.3362 0.9295
-15.0064 -9.7113 -1.3106 0.9308
-12.6713 -11.8827 -1.2737 0.9327
-18.6855 4.5258 -1.8458 0.9257
-18.3000 2.7315 -1.7763 0.9283
-13.5552 -7.0240 -1.4657 0.9405
-11.7313 -9.0487 -1.4224 0.9422
-10.0436 -9.2908 -1.3135 0.9465
-8.1039 -10.7628 -1.2934 0.9473
-7.0920 -11.4149 -1.2902 0.9474
-6.0452 -12.0059 -1.2905 0.9474
-4.9633 -12.5357 -1.2944 0.9473
-2.6913 -13.4100 -1.3131 0.9465
-1.4994 -13.7518 -1.3281 0.9459
2.3154 -14.3668 -1.3971 0.9432
6.9955 -15.3267 -1.6175 0.9345
8.5971 -15.0973 -1.6679 0.9326
10.2489 -14.7544 -1.7247 0.9304
11.5778 1.2775 -1.1183 0.9543
8.9503 2.6594 -0.8964 0.9632
6.8528 3.4616 -0.7371 0.9696
4.1237 4.4694 -0.5838 0.9759
3.0566 4.8083 -0.5470 0.9774
2.6252 5.0822 -0.5492 0.9773
2.1475 5.2643 -0.5458 0.9774
1.6717 5.4455 -0.5469 0.9774
1.2269 5.8019 -0.5693 0.9765
-0.3738 6.2219 -0.5984 0.9753
-18.7602 4.9564 -1.8629 0.9250
-18.3975 3.1359 -1.7917 0.9277
-17.4020 -0.1757 -1.6708 0.9325
-16.7902 -1.6772 -1.6200 0.9344
-16.1136 -3.0827 -1.5750 0.9362
-15.3787 -4.3971 -1.5356 0.9377
-12.8737 -7.8379 -1.4470 0.9412
-11.9503 -8.8299 -1.4265 0.9420
-10.9868 -9.7498 -1.4102 0.9427
-8.3326 -10.6034 -1.2947 0.9473
-7.3287 -11.2698 -1.2906 0.9474
-6.2900 -11.8748 -1.2901 0.9474
-5.2163 -12.4188 -1.2932 0.9473
-4.1070 -12.9014 -1.2998 0.9470
-1.7781 -13.6786 -1.3243 0.9461
2.0085 -14.3427 -1.3904 0.9435
3.3543 -14.4168 -1.4211 0.9423
4.7441 -14.4093 -1.4564 0.9409
6.6327 -15.3646 -1.6067 0.9350
8.2228 -15.1600 -1.6557 0.9330
9.8630 -14.8442 -1.7110 0.9309
13.2922 -13.8352 -1.8419 0.9258
2.3733 -0.8882 -0.2433 0.9899
15.0999 -0.0035 -1.4497 0.9411
11.0002 1.9869 -1.0732 0.9561
8.2326 3.0765 -0.8438 0.9653
6.3299 3.7648 -0.7071 0.9708
4.8626 4.2261 -0.6185 0.9744
4.2791 4.4498 -0.5927 0.9755
3.8064 4.7421 -0.5838 0.9759
3.2862 4.9410 -0.5697 0.9764
1.7818 5.4036 -0.5462 0.9774
1.3425 5.7579 -0.5676 0.9765
0.8298 5.9056 -0.5725 0.9763
-0.2429 6.1723 -0.5930 0.9755
-0.8472 6.5412 -0.6332 0.9738
-2.1965 6.9110 -0.6962 0.9713
-18.8293 5.3932 -1.8804 0.9243
-18.4901 3.5463 -1.8075 0.9271
-18.0541 1.8120 -1.7420 0.9297
-17.5333 0.1852 -1.6834 0.9320
-16.9375 -1.3392 -1.6312 0.9340
-16.2752 -2.7664 -1.5849 0.9358
-13.0810 -7.5982 -1.4523 0.9410
-11.2128 -9.5436 -1.4136 0.9425
-9.5205 -9.6977 -1.3047 0.9469
-7.5637 -11.1213 -1.2912 0.9474
-6.5331 -11.7405 -1.2899 0.9474
-5.4675 -12.2986 -1.2921 0.9474
-3.2291 -13.2303 -1.3075 0.9467
-2.0547 -13.6020 -1.3207 0.9462
-0.8419 -13.9084 -1.3377 0.9455
0.4104 -14.1471 -1.3588 0.9447
1.7038 -14.3146 -1.3840 0.9437
4.4191 -14.4186 -1.4478 0.9412
7.8511 -15.2168 -1.6439 0.9335
9.4797 -14.9275 -1.6977 0.9314
11.1583 -14.5191 -1.7580 0.9291
12.8863 -13.9797 -1.8253 0.9264
14.6614 -13.2964 -1.9002 0.9235
2.3424 -0.9322 -0.2420 0.9899
15.4672 -0.3233 -1.4853 0.9397
11.2132 1.7870 -1.0901 0.9554
8.5584 2.9982 -0.8706 0.9642
7.2743 3.3048 -0.7671 0.9684
6.4065 3.6332 -0.7071 0.9708
5.0050 4.1715 -0.6255 0.9742
3.9305 4.6946 -0.5878 0.9757
2.8144 4.9371 -0.5456 0.9774
2.3345 5.1085 -0.5392 0.9777
0.9546 5.9053 -0.5743 0.9762
0.2086 2.9420 -0.2832 0.9882
-0.1143 6.1236 -0.5880 0.9757
-0.6884 6.3410 -0.6123 0.9747
-1.3577 6.7813 -0.6640 0.9726
-2.0207 6.8446 -0.6852 0.9717
-2.6186 1.6711 -0.2982 0.9876
-18.8925 5.8363 -1.8983 0.9236
-18.1627 2.2028 -1.7565 0.9291
-16.4337 -2.4451 -1.5951 0.9354
-14.9611 -5.0683 -1.5165 0.9385
-13.2860 -7.3544 -1.4579 0.9408
-11.4367 -9.3337 -1.4172 0.9424
-9.7375 -9.5171 -1.3072 0.9468
-7.7968 -10.9696 -1.2920 0.9474
-6.7742 -11.6029 -1.2899 0.9474
-5.7167 -12.1751 -1.2913 0.9474
-4.6239 -12.6862 -1.2963 0.9472
-2.3293 -13.5219 -1.3173 0.9464
-1.1255 -13.8436 -1.3334 0.9457
0.1176 -14.0981 -1.3535 0.9449
1.4013 -14.2824 -1.3778 0.9440
2.7272 -14.3924 -1.4063 0.9428
4.0965 -14.4233 -1.4395 0.9415
5.9151 -15.4241 -1.5859 0.9358
9.0991 -15.0045 -1.6847 0.9319
17.7556 -0.7383 -1.7061 0.9311
11.5688 1.5993 -1.1212 0.9542
9.9136 2.2882 -0.9768 0.9599
8.6482 2.8304 -0.8736 0.9641
7.4950 3.2199 -0.7831 0.9678
5.9603 3.9451 -0.6862 0.9717
5.1507 4.1156 -0.6330 0.9739
4.5425 4.3489 -0.6037 0.9750
3.9416 4.5150 -0.5754 0.9762
3.5234 4.8503 -0.5755 0.9762
2.9419 4.9214 -0.5505 0.9772
2.4778 5.1384 -0.5477 0.9773
0.2718 2.9631 -0.2857 0.9881
-2.5848 1.7257 -0.2984 0.9876
-18.2667 2.5994 -1.7714 0.9285
-17.7838 0.9236 -1.7096 0.9309
-17.2215 -0.6474 -1.6545 0.9331
-16.5890 -2.1189 -1.6056 0.9350
-15.1421 -4.7832 -1.5245 0.9382
-13.4888 -7.1066 -1.4637 0.9406
-12.5945 -8.1504 -1.4402 0.9415
-15.5020 8.5905 -2.1053 0.9311
-15.6147 6.9088 -2.0283 0.9335
-15.6040 5.2942 -1.9573 0.9358
-15.4824 3.7500 -1.8923 0.9378
-15.2614 2.2779 -1.8329 0.9397
-14.5603 -0.4480 -1.7304 0.9430
-13.5681 -2.8876 -1.6478 0.9457
-12.3362 -5.0510 -1.5834 0.9477
-11.6425 -6.0329 -1.5576 0.9486
-10.9022 -6.9503 -1.5358 0.9493
-10.1182 -7.8045 -1.5179 0.9498
-7.9914 -8.8430 -1.4158 0.9531
-7.0126 -9.3135 -1.3849 0.9541
-6.1390 -9.8812 -1.3818 0.9542
-5.2328 -10.3924 -1.3821 0.9542
-4.2945 -10.8466 -1.3857 0.9541
-3.3249 -11.2431 -1.3927 0.9539
-2.3242 -11.5805 -1.4030 0.9535
-1.2928 -11.8572 -1.4168 0.9531
-0.2310 -12.0712 -1.4341 0.9525
0.8608 -12.2196 -1.4551 0.9519
3.3383 -13.1144 -1.6075 0.9469
11.3382 -11.3235 -1.9035 0.9375
12.7317 -10.6216 -1.9695 0.9354
15.5178 -8.8100 -2.1196 0.9306
18.1084 -4.5846 -2.2189 0.9275
19.2353 -3.0745 -2.3139 0.9245
14.8557 0.3035 -1.7650 0.9419
8.8614 2.6330 -1.0981 0.9634
8.0297 3.1913 -1.0264 0.9658
6.8423 3.4563 -0.9106 0.9696
6.2280 3.8805 -0.8717 0.9709
4.7173 4.2741 -0.7561 0.9747
2.6221 5.0764 -0.6787 0.9772
0.1770 6.0059 -0.7137 0.9761
-0.3733 6.2141 -0.7395 0.9752
-0.9995 6.6377 -0.7974 0.9733
-15.4570 8.9879 -2.1239 0.9305
-15.6001 7.2914 -2.0455 0.9330
-15.6168 5.6610 -1.9732 0.9353
-15.5198 4.1003 -1.9068 0.9374
-14.6572 -0.1480 -1.7412 0.9427
-14.2101 -1.4195 -1.6964 0.9441
-13.6958 -2.6202 -1.6564 0.9454
-11.0771 -6.7441 -1.5405 0.9491
-9.4872 -8.4190 -1.5067 0.9502
-8.2455 -8.7537 -1.4285 0.9527
-6.3437 -9.7551 -1.3822 0.9542
-4.5140 -10.7468 -1.3846 0.9541
-3.5516 -11.1567 -1.3908 0.9539
-2.5580 -11.5079 -1.4003 0.9536
-1.5337 -11.7988 -1.4133 0.9532
-0.4789 -12.0275 -1.4298 0.9527
0.6060 -12.1913 -1.4499 0.9520
5.6206 -13.0200 -1.6845 0.9445
6.9356 -12.7870 -1.7280 0.9431
11.0176 -11.4677 -1.8890 0.9380
13.8058 -9.9919 -2.0244 0.9337
15.1980 -9.0487 -2.1011 0.9312
16.5745 -7.9565 -2.1839 0.9286
2.3745 -0.8886 -0.3012 0.9898
17.8379 -4.9104 -2.1977 0.9282
18.9821 -3.4377 -2.2915 0.9252
15.0970 -0.0035 -1.7933 0.9410
9.0875 2.4971 -1.1195 0.9627
5.6661 4.0968 -0.8306 0.9722
4.8563 4.2207 -0.7643 0.9744
4.2738 4.4443 -0.7324 0.9755
3.8019 4.7364 -0.7215 0.9758
3.2824 4.9352 -0.7041 0.9764
2.7334 5.0339 -0.6804 0.9772
2.2548 5.2165 -0.6751 0.9774
1.7798 5.3974 -0.6751 0.9774
1.3409 5.7513 -0.7015 0.9765
-0.2426 6.1647 -0.7329 0.9755
-0.8525 6.5822 -0.7884 0.9736
-2.1933 6.9010 -0.8601 0.9713
-15.0866 11.1581 -2.2290 0.9272
-15.5788 7.6775 -2.0631 0.9324
-15.5516 4.4544 -1.9216 0.9369
-15.3752 2.9489 -1.8596 0.9389
-12.6398 -4.5752 -1.5968 0.9473
-11.9689 -5.5874 -1.5690 0.9482
-8.5211 -8.6797 -1.4448 0.9522
-6.5467 -9.6259 -1.3828 0.9542
-5.6554 -10.1633 -1.3816 0.9542
-3.7766 -11.0672 -1.3891 0.9540
-2.7902 -11.4321 -1.3978 0.9537
-1.7730 -11.7371 -1.4100 0.9533
0.3531 -12.1714 -1.4464 0.9521
2.7186 -12.8855 -1.5643 0.9483
4.0398 -13.1810 -1.6376 0.9460
5.3207 -13.0604 -1.6752 0.9448
6.6296 -12.8493 -1.7175 0.9434
7.9643 -12.5412 -1.7647 0.9419
9.3216 -12.1291 -1.8171 0.9402
10.6977 -11.6054 -1.8749 0.9384
12.0871 -10.9618 -1.9383 0.9364
13.4833 -10.1895 -2.0075 0.9342
14.8774 -9.2794 -2.0828 0.9318
17.5639 -5.2277 -2.1768 0.9288
15.4743 -3.1340 -1.8754 0.9384
15.4643 -0.3232 -1.8373 0.9396
8.4793 2.9705 -1.0672 0.9645
7.2627 3.2995 -0.9476 0.9684
3.4002 4.8902 -0.7075 0.9763
0.9535 5.8985 -0.7098 0.9762
0.2064 2.9102 -0.3466 0.9883
-0.1142 6.1162 -0.7266 0.9757
-0.6875 6.3329 -0.7567 0.9747
-1.3559 6.7722 -0.8204 0.9726
-2.0178 6.8348 -0.8465 0.9717
-14.9911 11.5742 -2.2497 0.9265
-15.5506 8.0671 -2.0810 0.9319
-15.6240 6.4056 -2.0058 0.9342
-15.5779 4.8123 -1.9367 0.9364
-15.4247 3.2902 -1.8735 0.9384
-15.1752 1.8404 -1.8158 0.9403
-14.8392 0.4635 -1.7635 0.9419
-14.4254 -0.8410 -1.7164 0.9435
-13.3934 -3.2374 -1.6368 0.9460
-12.1283 -5.3595 -1.5751 0.9480
-9.8691 -8.0543 -1.5132 0.9500
-8.8274 -8.6277 -1.4662 0.9515
-7.6674 -8.9680 -1.4015 0.9536
-5.8641 -10.0442 -1.3816 0.9542
-4.9480 -10.5380 -1.3829 0.9542
-2.0107 -11.6720 -1.4069 0.9534
-0.9699 -11.9297 -1.4218 0.9529
1.2094 -12.3262 -1.4712 0.9513
2.4208 -12.7753 -1.5445 0.9490
5.0223 -13.0961 -1.6661 0.9451
6.3249 -12.9065 -1.7073 0.9437
11.7653 -11.1215 -1.9231 0.9369
14.5561 -9.5023 -2.0649 0.9324
15.9415 -8.4801 -2.1449 0.9298
17.2502 -7.2814 -2.2241 0.9274
17.2870 -5.5366 -2.1562 0.9295
18.4626 -4.1380 -2.2475 0.9266
9.6023 2.2163 -1.1706 0.9611
6.5836 3.5560 -0.8888 0.9703
5.1439 4.1102 -0.7821 0.9738
4.5368 4.3434 -0.7461 0.9750
3.5193 4.8446 -0.7113 0.9762
1.9992 5.3139 -0.6744 0.9774
-0.5508 6.2813 -0.7490 0.9749
-1.2004 6.7135 -0.8101 0.9729
-1.8477 6.7707 -0.8337 0.9721
-15.5152 8.4602 -2.0992 0.9313
-15.6181 6.7834 -2.0226 0.9337
-14.9240 0.7751 -1.7752 0.9416
-14.5275 -0.5462 -1.7269 0.9431
-13.5253 -2.9749 -1.6450 0.9457
-12.9323 -4.0852 -1.6110 0.9468
-12.2850 -5.1280 -1.5813 0.9478
-11.5877 -6.1050 -1.5558 0.9486
-10.0568 -7.8670 -1.5167 0.9499
-9.1953 -8.6230 -1.4974 0.9505
-13.0080 7.2084 -2.1072 0.9417
-13.1801 5.8316 -2.0421 0.9434
-13.0783 1.9521 -1.8736 0.9480
-12.5781 -0.3870 -1.7830 0.9504
-8.8893 -6.8566 -1.5907 0.9557
-8.1737 -7.5610 -1.5776 0.9560
-7.4198 -8.2105 -1.5680 0.9563
-6.6298 -8.8050 -1.5617 0.9564
-4.9483 -9.8273 -1.5590 0.9565
-2.1939 -10.9312 -1.5797 0.9560
0.8089 -11.4831 -1.6311 0.9546
2.9305 -11.5126 -1.6832 0.9531
6.2529 -10.9807 -1.7904 0.9502
7.3857 -10.6326 -1.8343 0.9490
9.6631 -9.6506 -1.9350 0.9463
10.7953 -9.0061 -1.9920 0.9448
14.0556 -6.3934 -2.1879 0.9395
14.8703 -3.7648 -2.1734 0.9399
15.6756 -2.5056 -2.2493 0.9379
8.7101 2.5880 -1.2874 0.9640
7.5482 2.9999 -1.1509 0.9677
6.1724 3.8459 -1.0304 0.9710
5.3356 4.0283 -0.9473 0.9734
4.7112 4.2686 -0.9008 0.9746
4.1136 4.4585 -0.8595 0.9758
2.6191 5.0705 -0.8086 0.9772
1.2241 5.7885 -0.8383 0.9764
0.1768 5.9986 -0.8503 0.9760
-1.6269 6.6791 -0.9740 0.9726
-2.3321 6.8444 -1.0245 0.9712
-7.6975 17.3368 -2.6877 0.9262
-9.9668 14.6694 -2.5129 0.9309
-10.8586 13.2575 -2.4281 0.9331
-11.5950 11.8218 -2.3462 0.9353
-12.1835 10.3796 -2.2678 0.9374
-12.6326 8.9454 -2.1932 0.9394
-12.9517 7.5311 -2.1228 0.9413
-13.2379 4.7986 -1.9951 0.9447
-13.1156 2.2356 -1.8851 0.9477
-12.3085 -1.2295 -1.7527 0.9513
-9.0490 -6.6861 -1.5942 0.9556
-7.5972 -8.0654 -1.5699 0.9562
-6.8154 -8.6726 -1.5629 0.9564
-1.4464 -11.1274 -1.5899 0.9557
-0.4510 -11.3270 -1.6062 0.9552
0.5697 -11.4615 -1.6260 0.9547
5.9926 -11.0483 -1.7809 0.9505
8.2611 -10.3015 -1.8710 0.9481
9.4004 -9.7844 -1.9225 0.9467
11.6567 -8.4365 -2.0388 0.9435
12.7569 -7.5953 -2.1036 0.9418
2.3773 -0.8896 -0.3596 0.9898
14.6731 -4.0392 -2.1564 0.9404
15.4971 -2.8066 -2.2315 0.9384
16.2338 -1.4600 -2.3094 0.9363
9.0450 2.4854 -1.3291 0.9628
7.7837 2.9087 -1.1774 0.9670
6.9485 3.3316 -1.0918 0.9693
6.3263 3.7626 -1.0429 0.9707
2.7303 5.0281 -0.8107 0.9772
2.2522 5.2105 -0.8043 0.9773
1.7778 5.3913 -0.8043 0.9773
1.3394 5.7447 -0.8358 0.9765
0.8279 5.8919 -0.8430 0.9762
0.1468 2.9268 -0.4152 0.9882
-0.2423 6.1571 -0.8731 0.9754
-0.8514 6.5737 -0.9392 0.9736
-5.4649 13.0275 -2.0017 0.9445
-8.6477 16.3441 -2.6200 0.9280
-9.7381 14.9900 -2.5328 0.9303
-10.6666 13.5865 -2.4475 0.9326
-12.0603 10.7124 -2.2856 0.9369
-12.5408 9.2752 -2.2101 0.9389
-13.1147 6.4632 -2.0716 0.9426
-13.2270 5.1063 -2.0089 0.9443
-13.2354 3.7910 -1.9507 0.9459
-12.9742 1.3021 -1.8475 0.9487
-11.5458 -3.0446 -1.6918 0.9529
-10.4724 -4.8888 -1.6376 0.9544
-9.8618 -5.7283 -1.6159 0.9550
-9.2064 -6.5128 -1.5978 0.9555
-7.7726 -7.9173 -1.5720 0.9562
-6.9991 -8.5373 -1.5642 0.9564
-6.1904 -9.1021 -1.5597 0.9565
-4.4740 -10.0639 -1.5605 0.9565
-2.6350 -10.7959 -1.5746 0.9561
-0.6832 -11.2866 -1.6021 0.9553
0.3318 -11.4364 -1.6211 0.9548
1.3710 -11.5190 -1.6436 0.9542
4.6164 -11.3316 -1.7337 0.9518
5.7329 -11.1113 -1.7715 0.9507
6.8615 -10.8047 -1.8135 0.9496
7.9980 -10.4069 -1.8597 0.9484
9.1374 -9.9128 -1.9102 0.9470
10.2736 -9.3171 -1.9651 0.9455
11.3991 -8.6145 -2.0245 0.9439
15.3139 -3.1015 -2.2139 0.9388
15.4613 -0.3231 -2.1912 0.9394
12.1785 0.8364 -1.7296 0.9519
11.1624 1.7789 -1.6016 0.9554
8.0303 2.8132 -1.2056 0.9662
7.1199 3.2346 -1.1080 0.9689
6.3876 3.6225 -1.0405 0.9708
5.8212 4.0284 -1.0030 0.9718
3.9211 4.6833 -0.8654 0.9756
1.8874 5.3495 -0.8038 0.9773
1.4541 5.7012 -0.8337 0.9765
-0.6866 6.3248 -0.9014 0.9746
-1.3439 6.7124 -0.9699 0.9727
-7.0804 17.9071 -2.7284 0.9252
-10.4663 13.9139 -2.4669 0.9321
-11.2737 12.4868 -2.3837 0.9343
-11.9295 11.0456 -2.3036 0.9364
-12.4419 9.6060 -2.2272 0.9385
-13.2106 5.4162 -2.0230 0.9440
-13.2422 4.0908 -1.9638 0.9455
-13.1765 2.8106 -1.9090 0.9470
-11.6559 -2.8174 -1.6991 0.9527
-10.0069 -5.5393 -1.6206 0.9548
-9.3615 -6.3365 -1.6017 0.9554
-8.6737 -7.0788 -1.5863 0.9558
-7.9461 -7.7663 -1.5743 0.9561
-5.5456 -9.4986 -1.5584 0.9565
-3.7808 -10.3731 -1.5643 0.9564
0.0951 -11.4076 -1.6164 0.9550
2.1858 -11.5350 -1.6635 0.9537
3.2637 -11.4911 -1.6926 0.9529
4.3607 -11.3707 -1.7255 0.9520
10.0118 -9.4640 -1.9520 0.9459
11.1406 -8.7865 -2.0104 0.9443
12.2520 -7.9982 -2.0731 0.9426
14.2679 -4.5696 -2.1228 0.9413
15.9055 -2.0960 -2.2731 0.9372
16.0489 -0.6673 -2.2759 0.9372
9.7873 2.2590 -1.4232 0.9602
7.2903 3.1320 -1.1242 0.9685
6.5737 3.5506 -1.0586 0.9703
5.9887 3.9639 -1.0176 0.9714
5.1371 4.1048 -0.9317 0.9738
3.9376 4.5103 -0.8483 0.9761
3.5151 4.8389 -0.8474 0.9761
0.0121 6.0610 -0.8588 0.9758
-1.1988 6.7046 -0.9650 0.9729
-1.8425 6.7519 -0.9917 0.9721
-6.7589 18.1840 -2.7487 0.9246
-8.0886 16.9463 -2.6606 0.9269
-11.7911 11.3788 -2.3218 0.9359
-12.3358 9.9376 -2.2445 0.9380
-13.0251 7.1023 -2.1021 0.9418
-13.1886 5.7282 -2.0373 0.9436
-13.2439 4.3930 -1.9771 0.9452
-12.8470 0.6672 -1.8227 0.9494
-12.5532 -0.4719 -1.7799 0.9505
-10.7385 -4.4825 -1.6488 0.9541
-9.5145 -6.1572 -1.6058 0.9552
-8.8362 -6.9122 -1.5896 0.9557
-8.1176 -7.6124 -1.5768 0.9560
-11.4933 3.8995 -1.9994 0.9520
-11.5045 2.7865 -1.9500 0.9531
-11.4324 1.7064 -1.9042 0.9542
-11.2831 0.6631 -1.8620 0.9552
-10.4282 -2.2193 -1.7564 0.9577
-10.0241 -3.0915 -1.7281 0.9584
-9.0630 -4.6962 -1.6816 0.9595
-8.5131 -5.4272 -1.6632 0.9599
-7.9212 -6.1098 -1.6480 0.9603
-7.2899 -6.7435 -1.6360 0.9605
-5.1845 -8.3447 -1.6184 0.9610
-4.4189 -8.7759 -1.6187 0.9610
-3.6246 -9.1545 -1.6220 0.9609
-2.8032 -9.4790 -1.6284 0.9607
-1.9564 -9.7479 -1.6379 0.9605
0.7188 -10.2042 -1.6852 0.9594
3.5536 -10.0869 -1.7618 0.9576
5.4967 -9.6527 -1.8299 0.9560
8.4123 -8.4014 -1.9586 0.9529
11.1854 -6.3504 -2.1189 0.9492
12.0173 -5.4663 -2.1749 0.9479
11.9178 -4.1813 -2.0807 0.9501
13.2145 -2.1122 -2.2046 0.9472
13.7411 -0.9501 -2.2691 0.9457
14.1682 0.2895 -2.3345 0.9442
11.5708 1.2767 -1.9177 0.9539
8.9001 2.6445 -1.5296 0.9631
7.6531 3.0416 -1.3567 0.9672
6.6262 3.3472 -1.2230 0.9704
5.2502 3.9638 -1.0837 0.9737
3.6708 4.7718 -0.9918 0.9759
3.0459 4.7915 -0.9353 0.9772
1.6660 5.4268 -0.9352 0.9772
1.2227 5.7818 -0.9735 0.9763
0.6926 5.7962 -0.9617 0.9766
-2.3083 6.7747 -1.1791 0.9714
-9.1512 11.1729 -2.3792 0.9431
-11.4561 1.9527 -1.9145 0.9540
-11.3241 0.9006 -1.8714 0.9550
-11.1194 -0.1123 -1.8319 0.9559
-10.5136 -2.0114 -1.7634 0.9575
-9.1837 -4.5206 -1.6863 0.9594
-8.6439 -5.2627 -1.6672 0.9598
-8.0615 -5.9565 -1.6512 0.9602
-7.4391 -6.6015 -1.6385 0.9605
-6.7794 -7.1972 -1.6288 0.9607
-5.3570 -8.2377 -1.6188 0.9609
-2.9952 -9.4089 -1.6267 0.9608
-2.1541 -9.6908 -1.6354 0.9606
-1.2890 -9.9160 -1.6473 0.9603
-0.4015 -10.0826 -1.6623 0.9599
0.5064 -10.1885 -1.6805 0.9595
3.3312 -10.1179 -1.7548 0.9577
5.2712 -9.7184 -1.8213 0.9562
6.2478 -9.4033 -1.8599 0.9553
8.1904 -8.5250 -1.9475 0.9532
9.1446 -7.9551 -1.9967 0.9521
10.0778 -7.2938 -2.0494 0.9508
11.8468 -5.6870 -2.1649 0.9481
13.0803 -2.3689 -2.1899 0.9475
13.6278 -1.2257 -2.2541 0.9460
14.0791 -0.0033 -2.3194 0.9445
10.7213 1.9365 -1.7948 0.9568
9.2001 2.5280 -1.5718 0.9621
7.9231 2.9608 -1.3934 0.9663
6.8429 3.2810 -1.2502 0.9697
6.0159 3.5780 -1.1531 0.9720
5.3810 3.8907 -1.0939 0.9734
3.7928 4.7250 -0.9981 0.9757
2.2496 5.2045 -0.9341 0.9773
0.8269 5.8849 -0.9790 0.9762
0.2983 5.9454 -0.9807 0.9762
-1.4229 6.4155 -1.0826 0.9737
-2.1261 6.6896 -1.1564 0.9719
-5.4288 12.9416 -2.3120 0.9447
-6.6803 12.6257 -2.3532 0.9437
-8.1516 12.5479 -2.4650 0.9411
-10.7202 7.9287 -2.1966 0.9474
-2.6929 1.6412 -0.5195 0.9873
-11.3137 5.5756 -2.0779 0.9502
-11.4582 4.4234 -2.0234 0.9514
-11.3613 1.1402 -1.8810 0.9548
-11.1729 0.1180 -1.8407 0.9557
-10.9161 -0.8631 -1.8039 0.9566
-10.2175 -2.6944 -1.7408 0.9581
-9.3020 -4.3424 -1.6912 0.9592
-8.7725 -5.0955 -1.6713 0.9597
-8.1996 -5.8006 -1.6546 0.9601
-6.9349 -7.0640 -1.6308 0.9607
-3.9950 -8.9863 -1.6201 0.9609
-3.1859 -9.3359 -1.6251 0.9608
-1.4908 -9.8691 -1.6443 0.9603
0.2950 -10.1696 -1.6760 0.9596
11.6510 -5.8922 -2.1509 0.9484
2.3389 -0.9308 -0.4147 0.9898
12.9416 -2.6210 -2.1753 0.9479
13.5094 -1.4970 -2.2392 0.9464
12.1455 0.8341 -2.0056 0.9518
11.1369 1.7748 -1.8578 0.9553
7.0771 3.2152 -1.2806 0.9690
5.5137 3.8156 -1.1046 0.9732
4.3931 4.3833 -1.0223 0.9752
3.9163 4.6776 -1.0050 0.9756
1.4524 5.6946 -0.9682 0.9765
0.1979 2.7912 -0.4610 0.9887
-0.1138 6.0967 -1.0045 0.9756
-1.7054 5.7769 -0.9923 0.9759
-5.2234 13.2105 -2.3402 0.9440
-7.9427 12.7976 -2.4813 0.9408
-11.4333 4.6875 -2.0357 0.9511
-10.9812 -0.6402 -1.8121 0.9564
-10.3099 -2.4921 -1.7474 0.9579
-9.4178 -4.1617 -1.6962 0.9591
-7.7314 -6.3097 -1.6440 0.9604
-6.4098 -7.4970 -1.6249 0.9608
-5.6971 -8.0155 -1.6200 0.9609
-4.9525 -8.4827 -1.6182 0.9610
-0.8141 -10.0130 -1.6550 0.9601
1.0027 -10.2197 -1.6917 0.9592
1.9380 -10.2277 -1.7149 0.9587
2.8881 -10.1686 -1.7414 0.9581
3.8502 -10.0396 -1.7714 0.9573
6.7730 -9.2002 -1.8820 0.9547
7.7447 -8.7583 -1.9260 0.9537
8.7060 -8.2296 -1.9736 0.9526
9.6499 -7.6108 -2.0246 0.9514
11.4527 -6.0923 -2.1371 0.9488
2.3538 -0.9936 -0.4209 0.9897
12.1349 -3.8865 -2.0991 0.9497
12.7987 -2.8686 -2.1607 0.9482
13.3860 -1.7640 -2.2243 0.9467
13.8835 -0.5773 -2.2891 0.9452
9.8531 2.2742 -1.6659 0.9598
7.3159 3.1430 -1.3117 0.9682
3.9355 4.5080 -0.9858 0.9760
3.5109 4.8331 -0.9841 0.9761
2.4693 5.1207 -0.9365 0.9772
1.0683 5.8403 -0.9781 0.9762
0.0120 6.0535 -0.9973 0.9758
-1.1310 6.3253 -1.0585 0.9743
-5.1786 13.9324 -2.4486 0.9415
-6.2322 13.0570 -2.3835 0.9430
-10.5213 8.4758 -2.2257 0.9467
-11.2138 6.1147 -2.1041 0.9495
-11.5018 2.7030 -1.9464 0.9532
-11.0429 -0.4151 -1.8205 0.9562
-10.3993 -2.2874 -1.7541 0.9578
-7.2403 -6.7897 -1.6352 0.9606
-10.0228 4.4347 -2.0601 0.9564
-10.1430 3.4414 -2.0132 0.9573
-10.1824 2.4663 -1.9692 0.9583
-10.1460 1.5144 -1.9282 0.9591
-10.0386 0.5900 -1.8901 0.9599
-9.8649 -0.3036 -1.8551 0.9606
-9.6294 -1.1633 -1.8231 0.9613
-9.3363 -1.9870 -1.7942 0.9619
-8.9897 -2.7725 -1.7683 0.9624
-8.5933 -3.5185 -1.7453 0.9629
-8.1504 -4.2234 -1.7254 0.9633
2.3265 -9.1395 -1.7727 0.9623
6.6060 -7.8976 -1.9353 0.9590
7.4418 -7.4322 -1.9769 0.9581
8.2579 -6.8893 -2.0214 0.9572
9.0474 -6.2673 -2.0687 0.9562
9.8025 -5.5652 -2.1187 0.9552
10.3698 -3.6382 -2.0656 0.9563
10.9239 -2.7656 -2.1180 0.9552
11.4098 -1.8237 -2.1718 0.9541
11.8173 -0.8171 -2.2265 0.9529
12.1355 0.2480 -2.2815 0.9518
11.5684 1.2765 -2.1876 0.9537
10.3106 2.0832 -1.9771 0.9581
8.8833 2.6395 -1.7419 0.9630
7.7507 3.0803 -1.5677 0.9666
5.9068 3.6804 -1.3081 0.9721
5.1738 3.9061 -1.2185 0.9740
4.5607 4.1322 -1.1568 0.9753
3.6664 4.7661 -1.1302 0.9758
3.0488 4.7959 -1.0682 0.9771
2.1119 5.1771 -1.0509 0.9775
0.3590 3.0043 -0.5687 0.9878
0.1712 5.8078 -1.0921 0.9766
-0.3609 6.0083 -1.1314 0.9758
-0.9415 6.2520 -1.1884 0.9746
-4.1055 12.0491 -2.3926 0.9495
-6.6656 9.8107 -2.2294 0.9529
-7.3311 8.9507 -2.1747 0.9540
-9.4392 6.6841 -2.1740 0.9540
-9.7568 5.6734 -2.1214 0.9551
-10.0694 0.8009 -1.8986 0.9597
-9.6890 -0.9679 -1.8302 0.9611
-9.4089 -1.8000 -1.8006 0.9618
-8.6891 -3.3498 -1.7504 0.9628
-7.7803 -4.7369 -1.7121 0.9636
-7.2629 -5.3665 -1.6974 0.9639
-6.7074 -5.9522 -1.6855 0.9642
-5.4915 -6.9880 -1.6705 0.9645
-4.8358 -7.4362 -1.6673 0.9645
-3.4393 -8.1881 -1.6693 0.9645
-2.7025 -8.4894 -1.6746 0.9644
-1.9426 -8.7392 -1.6827 0.9642
-1.1616 -8.9359 -1.6937 0.9640
-0.3615 -9.0779 -1.7076 0.9637
0.4555 -9.1632 -1.7245 0.9633
1.2869 -9.1901 -1.7442 0.9629
3.8409 -8.8973 -1.8215 0.9613
5.5594 -8.3672 -1.8882 0.9599
8.0715 -7.0216 -2.0109 0.9574
8.8678 -6.4180 -2.0575 0.9564
9.6315 -5.7345 -2.1069 0.9554
2.3840 -0.8922 -0.4785 0.9897
10.8015 -2.9734 -2.1058 0.9554
11.7307 -1.0550 -2.2138 0.9532
11.5880 1.0368 -2.1868 0.9538
9.1822 2.5231 -1.7899 0.9620
7.9919 2.9865 -1.6036 0.9659
5.3335 3.8563 -1.2371 0.9736
4.6949 4.0804 -1.1692 0.9750
2.6878 4.9500 -1.0587 0.9773
1.7504 5.3082 -1.0506 0.9775
0.7890 5.6154 -1.0658 0.9772
-0.2346 5.9608 -1.1213 0.9760
-0.8014 6.1878 -1.1728 0.9749
-1.2790 5.7667 -1.1103 0.9762
-5.7154 10.8020 -2.2970 0.9515
-8.9166 7.9201 -2.2417 0.9526
-10.1740 2.9141 -1.9892 0.9578
-10.1719 1.9509 -1.9468 0.9587
-9.9530 0.1051 -1.8709 0.9603
-9.7456 -0.7705 -1.8375 0.9610
-9.1563 -2.4145 -1.7798 0.9622
-8.3606 -3.9029 -1.7343 0.9631
-7.8941 -4.5853 -1.7159 0.9635
-6.8389 -5.8209 -1.6880 0.9641
-5.6386 -6.8778 -1.6717 0.9644
-1.3437 -8.8953 -1.6909 0.9640
1.0937 -9.1892 -1.7394 0.9630
2.7852 -9.0875 -1.7865 0.9621
3.6423 -8.9406 -1.8146 0.9615
4.5025 -8.7266 -1.8457 0.9608
5.3616 -8.4428 -1.8799 0.9601
6.2151 -8.0870 -1.9171 0.9593
8.6865 -6.5645 -2.0465 0.9567
10.1915 -5.1541 -2.1466 0.9546
10.6758 -3.1775 -2.0936 0.9557
11.1945 -2.2672 -2.1468 0.9546
11.6395 -1.2898 -2.2012 0.9535
12.0003 -0.2508 -2.2561 0.9523
5.4987 3.8052 -1.2569 0.9732
4.2582 4.2488 -1.1307 0.9758
3.9115 4.6719 -1.1453 0.9755
2.7960 4.9048 -1.0612 0.9773
2.3281 5.0945 -1.0528 0.9775
1.8593 5.2697 -1.0503 0.9775
0.9023 5.5822 -1.0629 0.9772
-0.1104 5.9140 -1.1118 0.9762
-0.6650 6.1256 -1.1581 0.9752
-1.7118 5.7984 -1.1364 0.9757
-8.2429 9.1298 -2.3120 0.9512
-8.8019 8.1497 -2.2547 0.9524
-9.2605 7.1498 -2.1990 0.9535
-9.8897 5.1304 -2.0941 0.9557
-10.1635 3.1397 -1.9994 0.9576
-10.1791 2.1712 -1.9563 0.9585
-10.1203 1.2274 -1.9162 0.9594
-9.5453 -1.4202 -1.8139 0.9615
-9.2354 -2.2324 -1.7859 0.9621
-8.4621 -3.7394 -1.7389 0.9630
-8.0056 -4.4315 -1.7199 0.9634
-7.5068 -5.0811 -1.7038 0.9638
-6.9686 -5.6872 -1.6907 0.9641
-5.1424 -7.2351 -1.6684 0.9645
-4.4708 -7.6577 -1.6667 0.9646
-3.0458 -8.3566 -1.6718 0.9644
-2.2963 -8.6303 -1.6786 0.9643
-1.5248 -8.8517 -1.6883 0.9641
0.9012 -9.1851 -1.7347 0.9631
3.4440 -8.9804 -1.8078 0.9616
5.1635 -8.5147 -1.8717 0.9603
6.8644 -7.7628 -1.9477 0.9587
7.6948 -7.2738 -1.9902 0.9578
8.5035 -6.7067 -2.0356 0.9569
9.2833 -6.0602 -2.0838 0.9559
10.0261 -5.3334 -2.1346 0.9548
2.3488 -0.9915 -0.4792 0.9897
11.0808 -2.4835 -2.1344 0.9548
12.2137 0.5856 -2.2983 0.9515
11.5554 1.5974 -2.1926 0.9536
8.5095 2.7851 -1.6829 0.9642
4.9724 3.9732 -1.1963 0.9744
4.3864 4.1994 -1.1414 0.9756
3.5067 4.8274 -1.1215 0.9760
2.9044 4.8587 -1.0640 0.9772
1.9678 5.2304 -1.0504 0.9775
1.4955 5.3954 -1.0524 0.9775
0.2542 2.7720 -0.5232 0.9887
-4.4047 11.8505 -2.3763 0.9498
-5.3221 11.1502 -2.3223 0.9510
-6.1484 10.3792 -2.2675 0.9521
-6.8802 9.5511 -2.2125 0.9532
-8.6818 8.3782 -2.2678 0.9521
-9.1633 7.3819 -2.2117 0.9532
-9.8358 5.3633 -2.1057 0.9554
-10.1488 3.3664 -2.0098 0.9574
-10.1823 2.3929 -1.9660 0.9583
-10.1402 1.4430 -1.9252 0.9592
-8.9613 -2.8308 -1.7664 0.9625
-8.5612 -3.5736 -1.7437 0.9629
-8.1149 -4.2754 -1.7240 0.9634
-7.6256 -4.9349 -1.7073 0.9637
-7.0962 -5.5511 -1.6934 0.9640
-8.7328 4.8393 -2.1104 0.9600
-9.1120 1.3601 -1.9474 0.9630
-7.3991 -3.8340 -1.7615 0.9665
-6.9641 -4.4398 -1.7458 0.9668
-5.9814 -5.5330 -1.7223 0.9672
-5.4386 -6.0182 -1.7146 0.9674
-4.8648 -6.4609 -1.7096 0.9675
-3.6326 -7.2144 -1.7074 0.9675
-2.9785 -7.5228 -1.7103 0.9675
-1.6049 -7.9964 -1.7240 0.9672
-0.8896 -8.1589 -1.7349 0.9670
0.5866 -8.3275 -1.7646 0.9664
1.3425 -8.3302 -1.7836 0.9661
2.1067 -8.2761 -1.8052 0.9657
3.6470 -7.9904 -1.8566 0.9647
6.6662 -6.6576 -1.9915 0.9622
8.0654 -5.5871 -2.0740 0.9607
9.2911 -4.2262 -2.1576 0.9591
9.1687 -3.2168 -2.0539 0.9611
9.6303 -2.4381 -2.0999 0.9602
10.0286 -1.6030 -2.1468 0.9593
10.3552 -0.7160 -2.1941 0.9585
10.2883 2.0787 -2.2187 0.9580
8.8664 2.6345 -1.9552 0.9629
7.7374 3.0751 -1.7600 0.9665
5.2748 3.9824 -1.3971 0.9733
4.0339 4.3722 -1.2575 0.9760
3.6619 4.7603 -1.2695 0.9757
2.5331 4.9040 -1.1667 0.9777
2.0723 5.0799 -1.1597 0.9778
1.6132 5.2547 -1.1619 0.9778
0.3410 2.8534 -0.6074 0.9883
-0.3662 6.0956 -1.2908 0.9753
-1.3810 5.6696 -1.2335 0.9764
-3.5646 10.4617 -2.3362 0.9558
-5.1574 9.2785 -2.2439 0.9575
-6.4426 7.8659 -2.1492 0.9593
-8.3685 5.9259 -2.1675 0.9589
-8.6739 5.0437 -2.1209 0.9598
-8.8984 4.1591 -2.0763 0.9606
-9.1182 2.4090 -1.9935 0.9622
-9.0574 0.7204 -1.9206 0.9635
-8.9314 -0.0902 -1.8880 0.9641
-7.8776 -3.0369 -1.7846 0.9661
-7.4938 -3.6888 -1.7655 0.9664
-6.1020 -5.4150 -1.7245 0.9672
-2.4601 -7.7278 -1.7143 0.9674
-1.7675 -7.9517 -1.7219 0.9672
-1.0563 -8.1259 -1.7321 0.9671
0.4135 -8.3190 -1.7606 0.9665
1.1671 -8.3345 -1.7789 0.9662
4.2388 -7.8149 -1.8793 0.9643
5.0034 -7.5303 -1.9111 0.9637
5.7582 -7.1804 -1.9455 0.9631
6.4981 -6.7635 -1.9826 0.9624
2.3875 -0.8934 -0.5388 0.9896
9.9427 -1.8006 -2.1359 0.9595
10.5523 -0.0024 -2.2305 0.9578
10.7316 0.9601 -2.2775 0.9569
10.6737 1.9279 -2.2927 0.9566
9.1643 2.5182 -2.0089 0.9619
4.7629 4.1395 -1.3339 0.9745
4.1638 4.3299 -1.2698 0.9757
2.6406 4.8629 -1.1697 0.9776
1.7194 5.2143 -1.1606 0.9778
1.2567 5.3901 -1.1699 0.9776
0.4264 3.0348 -0.6478 0.9875
0.1385 2.7599 -0.5841 0.9888
-0.2376 6.0370 -1.2771 0.9756
-2.1805 6.8606 -1.5217 0.9710
-4.2115 10.0396 -2.3013 0.9565
-4.9887 9.4285 -2.2548 0.9573
-5.6893 8.7577 -2.2075 0.9582
-6.3106 8.0380 -2.1601 0.9591
-6.8510 7.2799 -2.1131 0.9600
-7.8774 6.9970 -2.2271 0.9578
-9.1263 1.7504 -1.9643 0.9627
-9.0777 0.9111 -1.9285 0.9634
-8.5674 -1.4563 -1.8369 0.9651
-7.1700 -4.1647 -1.7527 0.9667
-6.7140 -4.7496 -1.7384 0.9669
-5.1335 -6.2618 -1.7116 0.9674
-4.5439 -6.6811 -1.7079 0.9675
-1.9292 -7.9044 -1.7199 0.9673
-1.2221 -8.0902 -1.7295 0.9671
-0.4979 -8.2251 -1.7418 0.9669
1.7529 -8.3083 -1.7949 0.9659
2.5202 -8.2229 -1.8180 0.9654
3.2909 -8.0780 -1.8438 0.9650
4.8275 -7.6018 -1.9035 0.9639
5.5850 -7.2671 -1.9374 0.9632
6.3288 -6.8658 -1.9738 0.9625
7.0534 -6.3967 -2.0128 0.9618
7.7527 -5.8589 -2.0541 0.9610
9.0472 -4.5754 -2.1430 0.9594
9.8530 -1.9955 -2.1250 0.9597
10.2137 -1.1318 -2.1722 0.9589
10.4983 -0.2194 -2.2196 0.9580
10.6983 0.7347 -2.2667 0.9571
9.4790 2.3952 -2.0666 0.9608
8.2297 2.8831 -1.8432 0.9650
7.2159 3.2783 -1.6753 0.9681
4.9114 4.0935 -1.3515 0.9742
4.2966 4.2871 -1.2830 0.9755
3.9067 4.6661 -1.2864 0.9754
3.3841 4.8670 -1.2530 0.9761
2.7486 4.8216 -1.1732 0.9776
2.2845 4.9990 -1.1618 0.9778
1.8255 5.1739 -1.1597 0.9778
0.8955 5.5401 -1.1863 0.9773
-1.3083 6.5344 -1.4086 0.9731
-4.8158 9.5754 -2.2656 0.9571
-5.5345 8.9174 -2.2185 0.9580
-6.1743 8.2080 -2.1711 0.9589
-6.7334 7.4579 -2.1239 0.9598
-7.2114 6.6771 -2.0774 0.9606
-2.6134 1.6678 -0.6553 0.9874
-8.8392 -0.5154 -1.8716 0.9644
-8.6246 -1.2832 -1.8431 0.9650
-8.0399 -2.7236 -1.7943 0.9659
-7.2698 -4.0242 -1.7564 0.9666
-6.8227 -4.6180 -1.7415 0.9669
-6.3380 -5.1725 -1.7292 0.9671
-5.8181 -5.6865 -1.7197 0.9673
-5.2656 -6.1587 -1.7128 0.9674
-4.0715 -6.9736 -1.7069 0.9675
-3.4342 -7.3140 -1.7080 0.9675
-2.7730 -7.6080 -1.7117 0.9674
-2.0899 -7.8544 -1.7180 0.9673
-1.3870 -8.0517 -1.7270 0.9671
-0.6666 -8.1985 -1.7387 0.9669
0.0692 -8.2933 -1.7531 0.9667
1.5765 -8.3197 -1.7899 0.9660
2.3426 -8.2479 -1.8124 0.9656
3.1128 -8.1168 -1.8376 0.9651
3.8836 -7.9248 -1.8655 0.9646
6.1585 -6.9645 -1.9652 0.9627
6.8880 -6.5111 -2.0035 0.9620
9.3167 -2.9839 -2.0679 0.9608
9.7598 -2.1875 -2.1142 0.9599
10.1369 -1.3358 -2.1613 0.9591
10.6600 0.5111 -2.2559 0.9573
9.8124 2.2648 -2.1287 0.9597
4.4325 4.2436 -1.2971 0.9752
3.9314 4.5032 -1.2636 0.9759
1.4714 5.3086 -1.1644 0.9777
-1.1558 6.4638 -1.3880 0.9735
-3.8279 10.2985 -2.3224 0.9561
-6.6115 7.6342 -2.1348 0.9596
-8.1080 6.5317 -2.2008 0.9583
-8.7513 4.7719 -2.1070 0.9601
-8.9516 3.8880 -2.0630 0.9609
-9.0754 3.0103 -2.0211 0.9617
-9.1263 2.1447 -1.9817 0.9624
-9.1083 1.2961 -1.9447 0.9631
-8.8808 -0.3339 -1.8786 0.9643
-8.6790 -1.1086 -1.8495 0.9649
-8.4234 -1.8527 -1.8231 0.9654
-8.1174 -2.5642 -1.7994 0.9658
-7.7644 -3.2410 -1.7785 0.9662
-5.9412 -5.5714 -1.7217 0.9672
-8.1924 2.7796 -2.0332 0.9651
-8.2589 2.0004 -1.9972 0.9657
-8.2620 1.2332 -1.9633 0.9663
-8.2045 0.4822 -1.9316 0.9668
-7.4349 -2.2930 -1.8286 0.9685
-6.3760 -4.0648 -1.7771 0.9694
-5.9463 -4.5866 -1.7650 0.9696
-5.4825 -5.0715 -1.7553 0.9698
-4.9869 -5.5183 -1.7480 0.9699
-4.4618 -5.9257 -1.7433 0.9700
-2.1106 -7.1369 -1.7492 0.9699
-1.4709 -7.3289 -1.7568 0.9698
-0.8149 -7.4739 -1.7669 0.9696
-0.1449 -7.5705 -1.7796 0.9694
0.5366 -7.6173 -1.7947 0.9691
3.3212 -7.2766 -1.8799 0.9677
4.0158 -7.0521 -1.9073 0.9672
4.7021 -6.7692 -1.9371 0.9667
5.3757 -6.4267 -1.9691 0.9662
6.0316 -6.0238 -2.0034 0.9656
6.6646 -5.5600 -2.0399 0.9650
7.2689 -5.0353 -2.0782 0.9643
8.2089 -2.8800 -2.0446 0.9649
8.6020 -2.1778 -2.0854 0.9642
9.5198 1.0504 -2.2509 0.9614
9.5532 1.9302 -2.2906 0.9607
7.7240 3.0698 -1.9534 0.9664
5.9984 3.7375 -1.6610 0.9714
5.3065 4.0063 -1.5627 0.9730
4.6868 4.2465 -1.4864 0.9743
3.6575 4.7545 -1.4098 0.9757
2.5704 4.9763 -1.3163 0.9772
1.6375 5.3339 -1.3113 0.9773
0.3367 2.8174 -0.6669 0.9884
-0.3709 6.1749 -1.4539 0.9749
-1.3799 5.6650 -1.3703 0.9763
-3.1461 9.2336 -2.2926 0.9607
-4.5732 8.2275 -2.2123 0.9621
-5.1908 7.6400 -2.1708 0.9628
-5.7402 7.0084 -2.1291 0.9635
-7.7999 4.5355 -2.1205 0.9636
-8.0188 3.7479 -2.0803 0.9643
-8.2667 1.4091 -1.9709 0.9661
-8.2230 0.6540 -1.9387 0.9667
-8.1213 -0.0820 -1.9088 0.9672
-7.9650 -0.7957 -1.8813 0.9676
-7.1989 -2.7753 -1.8133 0.9688
-6.4702 -3.9392 -1.7803 0.9694
-4.5855 -5.8352 -1.7442 0.9700
-4.0393 -6.2114 -1.7414 0.9700
-3.4675 -6.5462 -1.7410 0.9700
-2.8722 -6.8381 -1.7431 0.9700
-1.6202 -7.2887 -1.7548 0.9698
1.0669 -7.6185 -1.8080 0.9689
1.7621 -7.5735 -1.8275 0.9686
2.4609 -7.4746 -1.8495 0.9682
3.8560 -7.1091 -1.9008 0.9673
5.2215 -6.5111 -1.9615 0.9663
7.1322 -5.1619 -2.0692 0.9645
7.7103 -4.5906 -2.1090 0.9638
8.2277 -3.9497 -2.1450 0.9632
2.3911 -0.8948 -0.6000 0.9896
8.5161 -2.3443 -2.0759 0.9644
8.8647 -1.6054 -2.1173 0.9637
9.1494 -0.8229 -2.1590 0.9630
9.3632 -0.0022 -2.2006 0.9623
9.5532 1.7255 -2.2816 0.9609
9.1462 2.5132 -2.2292 0.9618
5.4591 3.9471 -1.5832 0.9727
4.8246 4.1931 -1.5023 0.9741
4.2397 4.4088 -1.4375 0.9752
3.7789 4.7077 -1.4188 0.9755
2.2092 5.1110 -1.3086 0.9774
1.7448 5.2911 -1.3094 0.9774
0.1369 2.7294 -0.6423 0.9888
-0.2411 6.1261 -1.4409 0.9751
-1.2798 5.7700 -1.3890 0.9760
-3.7236 8.8766 -2.2623 0.9612
-4.4211 8.3559 -2.2218 0.9619
-6.1153 6.4982 -2.0972 0.9640
-7.4276 5.4935 -2.1712 0.9628
-2.6769 1.6315 -0.7368 0.9872
-7.9745 3.9300 -2.0894 0.9641
-8.1394 3.1422 -2.0505 0.9648
-8.2363 2.3591 -2.0136 0.9654
-8.2384 0.8268 -1.9459 0.9666
-8.1498 0.0861 -1.9155 0.9671
-8.0058 -0.6330 -1.8874 0.9675
-7.5640 -1.9946 -1.8385 0.9684
-4.1678 -6.1282 -1.7418 0.9700
-3.0117 -6.7746 -1.7424 0.9700
-1.7685 -7.2460 -1.7530 0.9698
-1.1198 -7.4128 -1.7620 0.9697
-0.4559 -7.5320 -1.7734 0.9695
0.9072 -7.6214 -1.8038 0.9690
1.6010 -7.5887 -1.8228 0.9686
2.2994 -7.5023 -1.8442 0.9683
2.9988 -7.3609 -1.8680 0.9679
3.6958 -7.1630 -1.8943 0.9674
5.0664 -6.5923 -1.9540 0.9664
6.3754 -5.7819 -2.0228 0.9653
6.9938 -5.2853 -2.0603 0.9646
8.1197 -4.1063 -2.1385 0.9633
9.3205 -0.1948 -2.1910 0.9624
4.9655 4.1386 -1.5192 0.9738
3.3801 4.8611 -1.3915 0.9760
2.7911 4.8962 -1.3246 0.9771
2.3171 5.0703 -1.3102 0.9774
1.8519 5.2489 -1.3081 0.9774
-0.1135 6.0782 -1.4288 0.9753
-3.5538 8.9880 -2.2715 0.9611
-4.2656 8.4814 -2.2312 0.9617
-6.8201 5.2656 -2.0250 0.9652
-2.6133 1.6677 -0.7286 0.9873
-7.9265 4.1120 -2.0987 0.9640
-8.2198 2.5393 -2.0219 0.9653
-8.2665 1.7633 -1.9865 0.9659
-8.2506 1.0006 -1.9533 0.9664
-8.1753 0.2554 -1.9223 0.9669
-8.0438 -0.4690 -1.8937 0.9674
-7.8593 -1.1694 -1.8674 0.9679
-6.6524 -3.6824 -1.7870 0.9692
-6.2479 -4.2289 -1.7731 0.9695
-5.8074 -4.7395 -1.7617 0.9697
-4.8286 -5.6477 -1.7463 0.9699
-4.2949 -6.0427 -1.7424 0.9700
-2.5430 -6.9771 -1.7453 0.9699
-1.2710 -7.3785 -1.7597 0.9697
0.0633 -7.5903 -1.7839 0.9693
1.4403 -7.6009 -1.8182 0.9687
2.1379 -7.5271 -1.8390 0.9684
2.8373 -7.3986 -1.8623 0.9680
4.2277 -6.9715 -1.9162 0.9671
4.9105 -6.6704 -1.9467 0.9665
5.5792 -6.3094 -1.9794 0.9660
7.4478 -4.8620 -2.0904 0.9641
8.0052 -4.2584 -2.1310 0.9634
2.3388 -0.9872 -0.5966 0.9896
9.0263 -1.1894 -2.1397 0.9633
9.4468 0.4529 -2.2228 0.9619
9.5393 1.3187 -2.2633 0.9612
9.5457 2.2032 -2.3024 0.9605
8.4782 2.7748 -2.0966 0.9640
7.4211 3.1881 -1.8983 0.9674
6.5337 3.5290 -1.7452 0.9699
5.1095 4.0827 -1.5371 0.9735
4.5079 4.3157 -1.4667 0.9747
3.9343 4.5066 -1.4060 0.9757
1.9590 5.2070 -1.3075 0.9774
1.4944 5.3915 -1.3149 0.9773
1.0220 5.5872 -1.3349 0.9769
0.2523 2.7509 -0.6492 0.9887
0.0120 6.0310 -1.4174 0.9755
-1.1568 6.4694 -1.5446 0.9734
-3.3809 9.0959 -2.2806 0.9609
-4.1067 8.6039 -2.2406 0.9616
-5.8950 6.8069 -2.1163 0.9637
-6.7406 5.4301 -2.0343 0.9651
-2.5921 1.7306 -0.7325 0.9873
-7.8747 4.2939 -2.1080 0.9638
-8.0718 3.5059 -2.0683 0.9645
-8.2614 1.9415 -1.9945 0.9657
-8.2597 1.1754 -1.9608 0.9663
-8.1978 0.4258 -1.9293 0.9668
-7.9064 -1.0099 -1.8733 0.9678
-7.6833 -1.6900 -1.8489 0.9682
-7.0975 -2.9626 -1.8076 0.9689
-6.3446 -4.1058 -1.7761 0.9694
-5.9122 -4.6248 -1.7641 0.9696
-5.4458 -5.1069 -1.7546 0.9698
-7.1336 3.9531 -2.1116 0.9669
-7.4636 2.5323 -2.0407 0.9680
-7.5081 0.4413 -1.9473 0.9694
-7.0734 -1.5053 -1.8724 0.9706
-6.8347 -2.1079 -1.8519 0.9709
-6.2328 -3.2297 -1.8176 0.9714
-5.4817 -4.2282 -1.7925 0.9718
-5.0563 -4.6772 -1.7834 0.9719
-4.6006 -5.0909 -1.7766 0.9720
-3.6078 -5.8069 -1.7701 0.9721
-1.3564 -6.7587 -1.7848 0.9719
0.4940 -7.0129 -1.8203 0.9714
1.7677 -6.9445 -1.8554 0.9708
2.4080 -6.8351 -1.8763 0.9705
3.0462 -6.6741 -1.8995 0.9701
3.6788 -6.4604 -1.9249 0.9697
4.3019 -6.1931 -1.9524 0.9693
4.9112 -5.8714 -1.9819 0.9689
6.0700 -5.0640 -2.0467 0.9679
7.1146 -4.0392 -2.1183 0.9668
7.0343 -3.1997 -2.0009 0.9686
7.4234 -2.6045 -2.0369 0.9680
8.2765 -0.5723 -2.1480 0.9663
8.4370 0.1724 -2.1849 0.9657
3.6529 4.7486 -1.5512 0.9755
2.6038 5.0409 -1.4690 0.9768
1.1603 3.7794 -1.0236 0.9838
1.1805 5.5826 -1.4774 0.9767
-0.3704 6.1669 -1.5996 0.9748
-0.9620 6.3883 -1.6727 0.9737
-2.8125 8.2543 -2.2578 0.9646
-3.4840 7.8469 -2.2230 0.9651
-4.1034 7.3823 -2.1869 0.9657
-5.1706 6.3129 -2.1128 0.9668
-5.6134 5.7232 -2.0756 0.9674
-6.3126 4.4701 -2.0027 0.9685
-7.0790 4.1163 -2.1202 0.9667
-7.5226 0.5983 -1.9539 0.9693
-7.4394 -0.0751 -1.9263 0.9697
-7.1222 -1.3626 -1.8775 0.9705
-6.6222 -2.5530 -1.8376 0.9711
-5.5754 -4.1196 -1.7949 0.9718
-4.7084 -4.9986 -1.7780 0.9720
-4.2311 -5.3842 -1.7730 0.9721
-3.1999 -6.0411 -1.7700 0.9721
-2.6504 -6.3099 -1.7720 0.9721
-2.0811 -6.5374 -1.7763 0.9721
-0.8921 -6.8631 -1.7919 0.9718
-0.2771 -6.9589 -1.8032 0.9716
0.9816 -7.0099 -1.8327 0.9712
1.6199 -6.9625 -1.8509 0.9709
2.2602 -6.8649 -1.8713 0.9706
2.8992 -6.7159 -1.8940 0.9702
4.1591 -6.2596 -1.9459 0.9694
5.3676 -5.5869 -2.0060 0.9685
6.4876 -4.6953 -2.0735 0.9675
7.0012 -4.1684 -2.1097 0.9669
7.4532 -3.5778 -2.1406 0.9664
2.4040 -0.8996 -0.6646 0.9895
7.9894 -1.4469 -2.1022 0.9670
8.2299 -0.7402 -2.1395 0.9664
8.4060 -0.0020 -2.1765 0.9659
8.5124 0.7616 -2.2128 0.9653
6.9782 3.3458 -2.0037 0.9685
5.4514 3.9415 -1.7417 0.9726
2.7142 4.9986 -1.4727 0.9768
2.2391 5.1802 -1.4612 0.9770
1.2464 3.7797 -1.0305 0.9837
1.2918 5.5405 -1.4730 0.9768
0.4081 2.9047 -0.7595 0.9880
-0.2408 6.1182 -1.5854 0.9750
-0.8205 6.3354 -1.6541 0.9739
-3.9652 7.4943 -2.1953 0.9656
-5.0595 6.4445 -2.1214 0.9667
-5.9117 5.2510 -2.0473 0.9679
-2.6736 1.6294 -0.8107 0.9871
-7.4097 2.8605 -2.0565 0.9677
-7.5101 2.1511 -2.0227 0.9682
-7.4633 0.0788 -1.9325 0.9696
-7.3404 -0.5804 -1.9065 0.9700
-7.1686 -1.2185 -1.8827 0.9704
-6.0446 -3.5110 -1.8099 0.9715
-3.3238 -5.9732 -1.7699 0.9722
-2.7792 -6.2515 -1.7714 0.9721
-2.2142 -6.4886 -1.7751 0.9721
-1.6312 -6.6833 -1.7812 0.9720
-1.0324 -6.8345 -1.7897 0.9718
0.8348 -7.0138 -1.8288 0.9712
1.4722 -6.9778 -1.8465 0.9710
2.7519 -6.7549 -1.8885 0.9703
3.3876 -6.5657 -1.9129 0.9699
5.2318 -5.6758 -1.9986 0.9686
6.8858 -4.2949 -2.1012 0.9670
7.3574 -3.7208 -2.1347 0.9665
2.3369 -0.9300 -0.6512 0.9897
7.6131 -2.2659 -2.0566 0.9677
8.1799 -0.9064 -2.1309 0.9666
6.3396 3.5953 -1.8870 0.9703
4.9587 4.1330 -1.6714 0.9737
3.3759 4.8552 -1.5311 0.9759
1.8765 5.3184 -1.4602 0.9770
0.9184 5.6818 -1.4902 0.9765
-0.6822 6.2836 -1.6365 0.9742
-1.3046 6.5162 -1.7207 0.9729
-3.1800 8.0426 -2.2392 0.9649
-4.9453 6.5742 -2.1300 0.9666
-5.4165 5.9993 -2.0928 0.9672
-5.8260 5.3943 -2.0558 0.9677
-6.1732 4.7662 -2.0193 0.9683
-2.6131 1.6676 -0.8026 0.9873
-7.2008 3.7355 -2.1004 0.9670
-7.3778 3.0248 -2.0646 0.9676
-7.5465 1.6097 -1.9979 0.9686
-7.5430 0.9148 -1.9673 0.9691
-7.4844 0.2338 -1.9388 0.9695
-7.2125 -1.0731 -1.8880 0.9703
-7.0047 -1.6932 -1.8659 0.9707
-6.4592 -2.8543 -1.8284 0.9712
-6.1267 -3.3914 -1.8131 0.9715
-5.7576 -3.8971 -1.8001 0.9717
-5.3544 -4.3698 -1.7894 0.9718
-4.9194 -4.8081 -1.7811 0.9720
-4.4550 -5.2107 -1.7750 0.9721
-3.9633 -5.5761 -1.7713 0.9721
-3.4465 -5.9033 -1.7699 0.9722
-2.9068 -6.1908 -1.7708 0.9721
-1.7673 -6.6422 -1.7796 0.9720
-0.5626 -6.9204 -1.7977 0.9717
0.6883 -7.0151 -1.8251 0.9713
1.9644 -6.9163 -1.8616 0.9707
2.6044 -6.7912 -1.8832 0.9704
3.2413 -6.6141 -1.9071 0.9700
4.4907 -6.1001 -1.9612 0.9692
5.0949 -5.7617 -1.9914 0.9687
5.6793 -5.3685 -2.0235 0.9682
6.2389 -4.9206 -2.0573 0.9677
6.7684 -4.4184 -2.0928 0.9672
7.2590 -3.8614 -2.1289 0.9666
2.3338 -0.9851 -0.6559 0.9896
7.8581 -1.7612 -2.0851 0.9673
8.1265 -1.0709 -2.1223 0.9667
8.3330 -0.3465 -2.1594 0.9661
8.5392 1.1805 -2.2320 0.9650
8.5294 1.9687 -2.2665 0.9645
8.4393 2.7623 -2.2992 0.9640
5.7684 3.8181 -1.7911 0.9718
5.1025 4.0771 -1.6911 0.9734
2.9370 4.9133 -1.4821 0.9766
2.4577 5.0968 -1.4651 0.9769
1.9854 5.2770 -1.4598 0.9770
1.5125 5.4568 -1.4661 0.9769
1.0315 5.6390 -1.4843 0.9766
0.2553 2.7834 -0.7237 0.9885
-0.5466 6.2329 -1.6200 0.9745
-3.0240 8.1357 -2.2473 0.9648
-2.5952 1.7327 -0.8079 0.9872
-7.1508 3.8992 -2.1088 0.9669
-6.8148 -2.1527 -1.8504 0.9709
-6.5306 -2.7260 -1.8323 0.9712
-6.2068 -3.2701 -1.8164 0.9714
-5.4504 -4.2636 -1.7917 0.9718
-6.8474 2.3232 -2.0470 0.9704
-6.9447 1.0366 -1.9878 0.9712
-6.9143 0.4064 -1.9608 0.9716
-6.5338 -1.3905 -1.8911 0.9726
-6.3187 -1.9487 -1.8719 0.9729
-5.4418 -3.4692 -1.8269 0.9735
-5.0801 -3.9184 -1.8163 0.9737
-4.6876 -4.3362 -1.8077 0.9738
-4.2664 -4.7210 -1.8014 0.9739
-3.8186 -5.0715 -1.7972 0.9740
-2.8522 -5.6645 -1.7954 0.9740
-1.2575 -6.2655 -1.8091 0.9738
-0.1236 -6.4599 -1.8291 0.9735
0.4573 -6.4917 -1.8423 0.9733
1.0441 -6.4785 -1.8577 0.9731
1.6340 -6.4192 -1.8752 0.9728
2.2240 -6.3127 -1.8947 0.9726
2.8108 -6.1582 -1.9163 0.9723
3.9609 -5.7021 -1.9654 0.9716
4.5164 -5.3995 -1.9928 0.9712
5.0535 -5.0470 -2.0219 0.9707
6.7683 -2.3746 -2.0306 0.9706
7.6433 0.1562 -2.1642 0.9687
7.6442 2.2713 -2.2575 0.9674
7.5017 2.9814 -2.2852 0.9670
5.9805 3.7264 -1.9948 0.9711
5.2917 3.9951 -1.8770 0.9728
4.6743 4.2352 -1.7856 0.9741
4.1095 4.4541 -1.7156 0.9751
3.1394 4.9385 -1.6566 0.9760
2.1276 5.2156 -1.5946 0.9769
1.1791 5.5759 -1.6134 0.9766
0.0838 2.8438 -0.8054 0.9882
-1.3780 5.6572 -1.6483 0.9761
-4.2340 6.2317 -2.1328 0.9692
-5.1094 5.2093 -2.0657 0.9701
-5.4646 4.6555 -2.0323 0.9706
-5.7640 4.0816 -1.9994 0.9711
-6.4625 3.7578 -2.1163 0.9694
-6.8220 2.4729 -2.0542 0.9703
-6.9258 0.5508 -1.9668 0.9715
-6.8569 -0.0692 -1.9412 0.9719
-6.7400 -0.6733 -1.9175 0.9722
-6.5775 -1.2584 -1.8958 0.9725
-6.1257 -2.3616 -1.8586 0.9731
-5.8412 -2.8753 -1.8431 0.9733
-5.5206 -3.3611 -1.8297 0.9735
-4.3661 -4.6351 -1.8026 0.9739
-2.9682 -5.6036 -1.7952 0.9740
-2.4583 -5.8525 -1.7970 0.9740
-1.3853 -6.2321 -1.8073 0.9738
-0.8268 -6.3605 -1.8157 0.9737
1.4977 -6.4370 -1.8710 0.9729
2.0879 -6.3415 -1.8900 0.9726
2.6757 -6.1982 -1.9112 0.9723
3.2577 -6.0062 -1.9343 0.9720
3.8303 -5.7649 -1.9594 0.9716
4.3896 -5.4738 -1.9863 0.9713
6.4052 -3.8136 -2.1103 0.9695
6.3379 -3.0425 -1.9903 0.9712
6.6925 -2.5045 -2.0229 0.9707
7.0027 -1.9277 -2.0562 0.9703
7.2637 -1.3155 -2.0897 0.9698
7.6180 -0.0018 -2.1566 0.9688
7.7024 0.6891 -2.1892 0.9684
5.4436 3.9359 -1.9017 0.9725
4.2361 4.4051 -1.7301 0.9749
3.7694 4.6960 -1.7047 0.9753
2.7110 4.9926 -1.6083 0.9767
1.2902 5.5338 -1.6086 0.9767
0.4267 3.0367 -0.8681 0.9873
0.1343 2.6759 -0.7585 0.9889
-3.0138 7.1845 -2.2056 0.9681
-5.0194 5.3337 -2.0734 0.9700
-5.3876 4.7854 -2.0400 0.9705
-6.8950 1.9749 -2.0304 0.9706
-6.9347 0.6960 -1.9730 0.9714
-6.8771 0.0726 -1.9470 0.9718
-6.1861 -2.2392 -1.8624 0.9730
-5.9102 -2.7590 -1.8465 0.9732
-5.2511 -3.7148 -1.8209 0.9736
-4.0286 -4.9140 -1.7988 0.9739
-3.5675 -5.2455 -1.7958 0.9740
-2.0534 -6.0175 -1.8000 0.9739
-0.3892 -6.4303 -1.8237 0.9736
1.3613 -6.4524 -1.8668 0.9730
1.9516 -6.3678 -1.8854 0.9727
2.5403 -6.2356 -1.9061 0.9724
3.1240 -6.0549 -1.9288 0.9721
3.6991 -5.8250 -1.9534 0.9717
4.2618 -5.5455 -1.9799 0.9713
5.3332 -4.8367 -2.0382 0.9705
5.8328 -4.4079 -2.0697 0.9701
6.7192 -3.3981 -2.1316 0.9692
2.3367 -0.9299 -0.7120 0.9896
6.9353 -2.0642 -2.0485 0.9704
7.4277 -0.8231 -2.1156 0.9694
7.5894 -0.1586 -2.1490 0.9689
7.6888 0.5280 -2.1818 0.9685
7.7218 1.2306 -2.2136 0.9680
6.3298 3.5898 -2.0600 0.9702
5.5996 3.8751 -1.9278 0.9721
3.3718 4.8492 -1.6720 0.9757
2.3258 5.0894 -1.5841 0.9770
0.1897 2.6747 -0.7591 0.9889
-0.1132 6.0626 -1.7166 0.9751
-0.6812 6.2752 -1.7869 0.9741
-1.3028 6.5071 -1.8787 0.9728
-1.6900 5.7246 -1.6898 0.9755
-3.4616 6.8827 -2.1810 0.9685
-4.0015 6.4475 -2.1482 0.9689
-4.4907 5.9699 -2.1148 0.9694
-4.9266 5.4566 -2.0812 0.9699
-5.3075 4.9142 -2.0477 0.9704
-6.5903 3.4188 -2.1018 0.9696
-6.8765 2.1243 -2.0375 0.9705
-6.9354 1.4794 -2.0075 0.9709
-6.4721 -1.5644 -1.8850 0.9727
-5.9772 -2.6413 -1.8500 0.9732
-5.6730 -3.1403 -1.8356 0.9734
-5.3341 -3.6104 -1.8234 0.9736
-4.5612 -4.4580 -1.8055 0.9738
-4.1316 -4.8324 -1.7999 0.9739
-3.6761 -5.1721 -1.7963 0.9740
-3.1970 -5.4758 -1.7950 0.9740
-2.1761 -5.9704 -1.7989 0.9739
-0.5213 -6.4120 -1.8212 0.9736
0.6370 -6.4925 -1.8468 0.9732
1.8153 -6.3915 -1.8810 0.9728
4.1332 -5.6144 -1.9737 0.9714
5.7199 -4.5113 -2.0623 0.9702
2.3311 -0.9840 -0.7163 0.9895
7.1496 -1.6024 -2.0742 0.9700
7.3819 -0.9728 -2.1078 0.9695
7.5574 -0.3143 -2.1413 0.9690
7.7000 1.7772 -2.2371 0.9677
7.3959 3.1773 -2.2787 0.9671
6.5133 3.5180 -2.0956 0.9697
4.4960 4.3044 -1.7621 0.9745
3.9443 4.5180 -1.6978 0.9754
2.4548 5.0907 -1.5999 0.9768
1.5107 5.4502 -1.6011 0.9768
1.0302 5.6322 -1.6209 0.9765
0.2556 2.7871 -0.7923 0.9884
0.0120 6.0157 -1.7030 0.9753
-0.5459 6.2246 -1.7689 0.9744
-1.1536 6.4515 -1.8553 0.9731
-1.5455 5.6634 -1.6619 0.9759
-2.7322 7.3507 -2.2200 0.9679
-3.3300 6.9765 -2.1885 0.9684
-3.8813 6.5520 -2.1558 0.9688
-4.3824 6.0836 -2.1225 0.9693
-4.8307 5.5780 -2.0890 0.9698
-5.2244 5.0418 -2.0554 0.9703
-5.5625 4.4811 -2.0221 0.9707
-2.5984 1.7348 -0.8845 0.9871
-6.5398 3.5660 -2.1087 0.9695
-6.7276 2.9220 -2.0764 0.9700
-6.8551 2.2739 -2.0446 0.9704
-6.9267 1.6278 -2.0143 0.9709
-6.8260 -0.2566 -1.9337 0.9720
-6.6948 -0.8551 -1.9107 0.9723
-5.4153 -3.5045 -1.8261 0.9735
-5.0513 -3.9514 -1.8155 0.9737
-4.6565 -4.3667 -1.8072 0.9738
-6.1898 2.7387 -2.0819 0.9721
