ply
format ascii 1.0
element vertex 1593
property float32 x
property float32 y
property float32 z
property float32 I
end_header
-4.3508 -6.7945 -1.7054 0.9676
-3.7269 -7.1549 -1.7053 0.9676
0.4645 -8.3140 -1.7602 0.9665
1.2171 -8.3262 -1.7787 0.9662
1.9785 -8.2822 -1.7999 0.9658
2.7456 -8.1802 -1.8239 0.9653
3.5152 -8.0182 -1.8506 0.9648
4.2835 -7.7945 -1.8800 0.9643
5.7996 -7.1546 -1.9468 0.9630
7.9459 -5.6918 -2.0661 0.9608
9.5541 -2.5850 -2.0922 0.9603
-7.3759 -2.4050 -1.8233 0.9686
-5.8624 -4.6688 -1.7613 0.9697
-5.3939 -5.1460 -1.7521 0.9698
-2.0050 -7.1644 -1.7485 0.9699
-1.3641 -7.3486 -1.7566 0.9698
0.6447 -7.6136 -1.7958 0.9691
1.3347 -7.6013 -1.8138 0.9688
2.7283 -7.4168 -1.8573 0.9680
3.4254 -7.2417 -1.8828 0.9676
4.1179 -7.0094 -1.9106 0.9671
6.1244 -5.9578 -2.0081 0.9655
7.8306 -3.4432 -2.0104 0.9655
8.9813 -1.3229 -2.1336 0.9634
9.4287 0.3059 -2.2171 0.9620
9.5366 1.1670 -2.2580 0.9613
7.7059 3.1656 -1.9579 0.9663
5.2494 4.0556 -1.5590 0.9731
4.0349 4.4697 -1.4152 0.9756
3.5861 4.7667 -1.4019 0.9758
2.4949 4.9568 -1.3042 0.9775
1.5646 5.2889 -1.2963 0.9776
0.0532 2.7109 -0.6372 0.9889
-1.0083 6.2856 -1.4961 0.9742
-1.4348 5.6567 -1.3716 0.9763
-2.3747 6.7617 -1.6843 0.9710
-5.2512 7.5816 -2.1675 0.9628
-5.7925 6.9459 -2.1256 0.9635
-6.2639 6.2760 -2.0840 0.9642
-6.6650 5.5801 -2.0429 0.9649
-2.6910 1.5349 -0.7281 0.9874
-8.1750 2.8888 -2.0377 0.9650
-8.2611 1.3416 -1.9670 0.9662
-8.1048 -0.1433 -1.9051 0.9672
-7.9438 -0.8534 -1.8777 0.9677
-7.4718 -2.1947 -1.8302 0.9685
-6.8197 -3.4160 -1.7926 0.9691
-5.0625 -5.4444 -1.7472 0.9699
-4.5432 -5.8571 -1.7421 0.9700
-0.2596 -7.5507 -1.7756 0.9694
0.4186 -7.6063 -1.7904 0.9692
1.1061 -7.6111 -1.8076 0.9689
1.8001 -7.5636 -1.8273 0.9686
3.8900 -7.0925 -1.9011 0.9673
4.5771 -6.8212 -1.9306 0.9668
5.2524 -6.4907 -1.9624 0.9663
7.1583 -5.1368 -2.0707 0.9644
8.2579 -3.9256 -2.1489 0.9631
8.1297 -3.0084 -2.0373 0.9650
8.8805 -1.5770 -2.1198 0.9636
9.1633 -0.7937 -2.1617 0.9629
9.3754 0.0275 -2.2034 0.9622
9.2977 2.5827 -2.2679 0.9611
8.0595 3.0362 -2.0241 0.9652
7.0535 3.4040 -1.8407 0.9683
6.2023 3.7091 -1.6985 0.9707
5.4714 3.9750 -1.5894 0.9726
4.8232 4.2102 -1.5047 0.9740
3.7610 4.7037 -1.4154 0.9756
2.6522 4.9037 -1.3102 0.9774
2.1804 5.0656 -1.2961 0.9776
1.2534 5.4069 -1.3045 0.9775
0.7794 5.5934 -1.3273 0.9771
-0.8099 6.2162 -1.4733 0.9746
-5.0573 7.7825 -2.1813 0.9626
-6.5403 5.8122 -2.0564 0.9647
-6.8946 5.1032 -2.0160 0.9654
-8.1358 3.1478 -2.0502 0.9648
-8.2345 0.8358 -1.9452 0.9666
-8.0028 -0.6216 -1.8865 0.9676
-6.9388 -3.2233 -1.7981 0.9691
-6.5650 -3.7957 -1.7822 0.9693
-6.1535 -4.3334 -1.7688 0.9695
-5.2276 -5.2994 -1.7495 0.9699
-4.7178 -5.7252 -1.7435 0.9700
-2.4185 -7.0177 -1.7445 0.9700
-1.7893 -7.2322 -1.7510 0.9699
-0.4810 -7.5214 -1.7713 0.9695
0.1935 -7.5935 -1.7852 0.9693
2.9653 -7.3637 -1.8657 0.9679
3.6613 -7.1692 -1.8919 0.9675
4.3513 -6.9172 -1.9206 0.9670
5.6959 -6.2358 -1.9849 0.9659
6.3408 -5.8046 -2.0204 0.9653
6.9603 -5.3126 -2.0579 0.9647
8.0987 -4.1471 -2.1384 0.9633
8.4062 -2.5505 -2.0646 0.9645
8.7727 -1.8263 -2.1060 0.9638
9.5542 1.4646 -2.2717 0.9611
9.5470 2.3510 -2.3108 0.9604
8.4381 2.8977 -2.0968 0.9640
4.4241 4.3546 -1.4590 0.9748
1.4072 5.3482 -1.2997 0.9775
0.9376 5.5302 -1.3183 0.9772
-0.6173 6.1488 -1.4524 0.9749
-4.2026 8.5377 -2.2365 0.9617
-4.8560 7.9784 -2.1951 0.9623
-5.4428 7.3701 -2.1533 0.9631
-5.9604 6.7218 -2.1114 0.9638
-6.4080 6.0422 -2.0699 0.9645
-6.7853 5.3392 -2.0292 0.9651
-7.9019 4.1946 -2.1026 0.9639
-8.0891 3.4074 -2.0629 0.9646
-8.2607 1.8472 -1.9894 0.9658
-8.2509 1.0842 -1.9558 0.9664
-8.1816 0.3382 -1.9245 0.9669
-7.8774 -1.0889 -1.8690 0.9679
-7.6487 -1.7643 -1.8448 0.9683
-7.0535 -3.0270 -1.8039 0.9690
-6.6927 -3.6104 -1.7872 0.9692
-6.2934 -4.1598 -1.7730 0.9695
-5.3893 -5.1503 -1.7520 0.9698
-4.8893 -5.5890 -1.7452 0.9699
-3.8049 -6.3467 -1.7391 0.9701
-3.2247 -6.6634 -1.7398 0.9700
-2.6221 -6.9371 -1.7429 0.9700
-1.3580 -7.3501 -1.7567 0.9698
0.6511 -7.6137 -1.7959 0.9691
1.3412 -7.6009 -1.8140 0.9688
2.7348 -7.4154 -1.8575 0.9680
4.8080 -6.7156 -1.9411 0.9666
5.4783 -6.3648 -1.9737 0.9661
6.7589 -5.4818 -2.0453 0.9649
7.3581 -4.9490 -2.0841 0.9642
8.2728 -2.7791 -2.0511 0.9648
9.4301 0.3139 -2.2175 0.9620
8.8451 2.7486 -2.1769 0.9627
7.6962 3.1692 -1.9561 0.9664
6.7451 3.5113 -1.7872 0.9692
5.2432 4.0579 -1.5582 0.9731
4.6178 4.2846 -1.4805 0.9744
4.0295 4.4713 -1.4146 0.9756
3.0691 4.9524 -1.3693 0.9763
1.5603 5.2905 -1.2963 0.9776
1.0941 5.4687 -1.3107 0.9773
-1.0141 6.2876 -1.4968 0.9742
-5.2566 7.5758 -2.1671 0.9628
-6.6685 5.5734 -2.0426 0.9649
-7.5384 5.2334 -2.1568 0.9630
-2.6933 1.5332 -0.7284 0.9873
-8.0350 3.6673 -2.0758 0.9644
-8.1760 2.8814 -2.0374 0.9650
-8.2503 2.1022 -2.0010 0.9656
-8.2109 0.5824 -1.9346 0.9667
-7.4691 -2.2007 -1.8300 0.9685
-7.1637 -2.8271 -1.8100 0.9689
-6.4293 -3.9822 -1.7774 0.9694
-4.5382 -5.8608 -1.7421 0.9700
-3.4188 -6.5635 -1.7393 0.9700
-2.8234 -6.8515 -1.7416 0.9700
-2.2069 -7.0956 -1.7464 0.9699
-1.5716 -7.2946 -1.7537 0.9698
1.1126 -7.6109 -1.8078 0.9689
2.5043 -7.4611 -1.8497 0.9682
3.2021 -7.3040 -1.8743 0.9678
3.8965 -7.0902 -1.9014 0.9673
5.2587 -6.4873 -1.9627 0.9663
8.1337 -3.0021 -2.0377 0.9650
8.5372 -2.3099 -2.0786 0.9643
-7.0283 -1.6149 -1.8672 0.9706
-6.7820 -2.2114 -1.8470 0.9710
-6.1669 -3.3201 -1.8134 0.9715
-5.8031 -3.8287 -1.8001 0.9717
-4.9752 -4.7466 -1.7804 0.9720
-2.9811 -6.1470 -1.7689 0.9722
-1.2580 -6.7769 -1.7846 0.9719
-0.6519 -6.9001 -1.7945 0.9718
2.5049 -6.8094 -1.8786 0.9705
3.1414 -6.6411 -1.9022 0.9701
4.3922 -6.1458 -1.9558 0.9693
6.1492 -4.9958 -2.0514 0.9678
6.6837 -4.5036 -2.0867 0.9672
7.1836 -3.9580 -2.1236 0.9667
7.0927 -3.1187 -2.0061 0.9685
8.0882 -1.1914 -2.1168 0.9668
8.3063 -0.4732 -2.1541 0.9662
8.5388 1.0449 -2.2273 0.9651
8.5435 1.8309 -2.2623 0.9645
7.6923 3.1600 -2.1532 0.9662
6.7424 3.5026 -1.9672 0.9691
5.9412 3.7953 -1.8254 0.9713
5.2420 4.0499 -1.7151 0.9730
4.0471 4.4832 -1.5638 0.9754
2.5309 5.0283 -1.4575 0.9770
1.1077 3.7442 -1.0110 0.9840
0.0527 2.6861 -0.6956 0.9890
-0.4242 6.0734 -1.5764 0.9752
-2.3711 6.7514 -1.8527 0.9709
-3.5524 7.8058 -2.2205 0.9652
-4.1652 7.3356 -2.1841 0.9657
-6.0277 5.0465 -2.0354 0.9680
-6.3393 4.4088 -1.9993 0.9686
-2.6895 1.5340 -0.8017 0.9873
-7.5480 1.2258 -1.9799 0.9689
-7.4254 -0.1313 -1.9229 0.9698
-6.8681 -2.0174 -1.8534 0.9709
-6.5936 -2.5957 -1.8347 0.9711
-5.9271 -3.6643 -1.8042 0.9716
-5.5402 -4.1512 -1.7925 0.9718
-5.1206 -4.6045 -1.7830 0.9719
-4.6706 -5.0229 -1.7759 0.9721
-3.6883 -5.7492 -1.7686 0.9722
-3.1603 -6.0548 -1.7684 0.9722
-2.0416 -6.5446 -1.7751 0.9721
-1.4551 -6.7264 -1.7819 0.9720
0.3854 -7.0041 -1.8162 0.9714
1.6549 -6.9534 -1.8506 0.9709
2.2940 -6.8536 -1.8713 0.9706
2.9317 -6.7025 -1.8941 0.9702
3.5645 -6.4991 -1.9192 0.9698
4.1887 -6.2424 -1.9464 0.9694
4.8001 -5.9316 -1.9757 0.9690
6.5108 -4.6721 -2.0749 0.9674
7.4788 -3.5553 -2.1441 0.9664
7.3543 -2.7214 -2.0303 0.9681
8.0026 -1.4211 -2.1044 0.9670
8.2414 -0.7139 -2.1418 0.9664
8.5204 0.7884 -2.2155 0.9653
8.5506 1.5702 -2.2509 0.9647
8.0448 3.0307 -2.2259 0.9651
7.0418 3.3983 -2.0245 0.9682
6.1928 3.7034 -1.8683 0.9706
5.4635 3.9693 -1.7485 0.9725
4.8167 4.2045 -1.6554 0.9739
4.2303 4.4169 -1.5835 0.9750
3.7563 4.6978 -1.5574 0.9755
1.7426 5.3094 -1.4468 0.9772
0.7870 5.6478 -1.4765 0.9767
-0.2419 6.0096 -1.5573 0.9755
-1.4292 6.4242 -1.7040 0.9732
-3.3382 7.9492 -2.2323 0.9650
-6.2432 4.6211 -2.0111 0.9684
-2.6462 1.6146 -0.8026 0.9873
-7.2445 3.5758 -2.0918 0.9672
-7.4065 2.8656 -2.0562 0.9677
-7.5066 2.1572 -2.0223 0.9682
-7.5309 0.7644 -1.9599 0.9692
-6.9495 -1.8204 -1.8601 0.9708
-6.6887 -2.4078 -1.8406 0.9711
-6.3872 -2.9671 -1.8235 0.9713
-6.0473 -3.4964 -1.8086 0.9715
-5.6717 -3.9941 -1.7961 0.9717
-5.2626 -4.4587 -1.7859 0.9719
-4.8224 -4.8887 -1.7780 0.9720
-4.3533 -5.2828 -1.7724 0.9721
-3.8575 -5.6398 -1.7691 0.9722
-1.6505 -6.6712 -1.7794 0.9720
-1.0537 -6.8237 -1.7877 0.9719
0.1782 -6.9938 -1.8114 0.9715
0.8083 -7.0088 -1.8267 0.9713
1.4441 -6.9753 -1.8443 0.9710
2.0829 -6.8922 -1.8642 0.9707
3.3563 -6.5721 -1.9107 0.9700
7.5947 -2.3043 -2.0549 0.9677
8.4938 0.5339 -2.2035 0.9654
8.5272 2.0998 -2.2738 0.9644
8.4222 2.8922 -2.3056 0.9639
7.3526 3.2845 -2.0850 0.9673
6.4567 3.6071 -1.9149 0.9699
5.0226 4.1297 -1.6836 0.9735
3.8631 4.5496 -1.5454 0.9756
2.3694 5.0861 -1.4528 0.9771
1.8979 5.2542 -1.4464 0.9772
0.9479 5.5910 -1.4683 0.9768
-0.0309 2.8759 -0.7447 0.9882
-1.2174 6.3505 -1.6742 0.9736
-3.1185 8.0861 -2.2439 0.9648
-3.7666 7.6520 -2.2083 0.9654
-5.3733 6.0597 -2.0969 0.9671
-5.7879 5.4575 -2.0597 0.9677
-6.1405 4.8318 -2.0231 0.9682
-6.4310 4.1891 -1.9872 0.9688
-7.5403 1.6861 -2.0005 0.9686
-7.0262 -1.6207 -1.8670 0.9706
-5.7995 -3.8333 -1.8000 0.9717
-5.4012 -4.3090 -1.7890 0.9719
-4.9710 -4.7506 -1.7803 0.9720
-4.5112 -5.1567 -1.7740 0.9721
-4.0240 -5.5261 -1.7700 0.9721
-2.9760 -6.1496 -1.7689 0.9722
-2.4195 -6.4012 -1.7718 0.9721
-1.2524 -6.7782 -1.7847 0.9719
-0.6462 -6.9011 -1.7946 0.9718
0.5994 -7.0091 -1.8214 0.9714
1.8719 -6.9252 -1.8574 0.9708
2.5108 -6.8081 -1.8788 0.9705
3.7777 -6.4179 -1.9282 0.9697
5.0040 -5.8137 -1.9861 0.9688
5.5911 -5.4299 -2.0180 0.9683
6.1544 -4.9915 -2.0517 0.9678
7.1881 -3.9527 -2.1239 0.9667
7.0965 -3.1132 -2.0064 0.9685
7.8122 -1.8683 -2.0798 0.9674
8.0905 -1.1848 -2.1171 0.9668
8.4593 0.2815 -2.1915 0.9656
8.5432 1.8383 -2.2626 0.9645
8.4677 2.6313 -2.2959 0.9640
7.6826 3.1636 -2.1512 0.9663
5.2359 4.0522 -1.7142 0.9730
4.6117 4.2788 -1.6288 0.9743
4.0419 4.4851 -1.5632 0.9754
3.5767 4.7626 -1.5421 0.9757
3.0654 4.9464 -1.5067 0.9762
2.0532 5.1989 -1.4473 0.9772
1.1072 5.5347 -1.4614 0.9769
0.0505 2.6881 -0.6961 0.9890
-0.4294 6.0753 -1.5769 0.9751
-2.3783 6.7540 -1.8540 0.9708
-3.5584 7.8017 -2.2202 0.9652
-4.1707 7.3309 -2.1838 0.9658
-4.7265 6.8118 -2.1467 0.9663
-5.2228 6.2521 -2.1093 0.9669
-5.6579 5.6593 -2.0720 0.9675
-6.3419 4.4028 -1.9989 0.9686
-2.6918 1.5324 -0.8020 0.9873
-7.3066 3.3348 -2.0795 0.9674
-7.4473 2.6246 -2.0445 0.9679
-7.5480 1.2193 -1.9796 0.9689
-7.4243 -0.1375 -1.9226 0.9698
-7.0980 -1.4181 -1.8741 0.9705
-6.8657 -2.0229 -1.8532 0.9709
-6.2760 -3.1503 -1.8182 0.9714
-5.5364 -4.1557 -1.7924 0.9718
-4.6662 -5.0266 -1.7758 0.9721
-4.1878 -5.4083 -1.7710 0.9721
-3.1553 -6.0575 -1.7684 0.9722
-2.0361 -6.5466 -1.7751 0.9721
-1.4495 -6.7279 -1.7819 0.9720
0.3913 -7.0043 -1.8164 0.9714
2.9377 -6.7008 -1.8944 0.9702
3.5704 -6.4969 -1.9194 0.9698
4.1945 -6.2397 -1.9467 0.9694
4.8057 -5.9285 -1.9760 0.9690
5.3996 -5.5627 -2.0072 0.9685
5.9713 -5.1423 -2.0404 0.9680
6.5158 -4.6674 -2.0752 0.9674
7.0273 -4.1388 -2.1116 0.9669
7.3578 -2.7157 -2.0307 0.9681
7.7080 -2.0856 -2.0675 0.9675
-6.0092 -2.5728 -1.8505 0.9732
-4.6130 -4.4010 -1.8049 0.9738
-4.1880 -4.7791 -1.7989 0.9739
-3.2621 -5.4309 -1.7935 0.9740
-2.2491 -5.9352 -1.7968 0.9740
-0.0314 -6.4630 -1.8296 0.9735
1.1357 -6.4678 -1.8590 0.9731
1.7246 -6.4017 -1.8769 0.9728
2.3132 -6.2884 -1.8968 0.9725
4.0434 -5.6577 -1.9686 0.9715
4.5958 -5.3486 -1.9963 0.9711
5.1292 -4.9898 -2.0258 0.9707
6.1204 -4.1241 -2.0893 0.9698
6.4753 -2.8472 -2.0025 0.9710
6.8141 -2.2954 -2.0355 0.9706
7.1070 -1.7060 -2.0691 0.9701
7.5349 -0.4293 -2.1365 0.9691
7.7141 1.6531 -2.2334 0.9677
5.2346 4.0442 -1.8726 0.9729
4.6110 4.2710 -1.7793 0.9742
3.5771 4.7548 -1.6844 0.9756
2.5278 5.0223 -1.5917 0.9769
0.3134 2.8653 -0.8160 0.9881
0.0522 2.6632 -0.7541 0.9890
-1.4357 5.6605 -1.6532 0.9760
-2.3674 6.7411 -2.0226 0.9707
-4.7428 5.6873 -2.0964 0.9697
-6.9418 1.1274 -1.9909 0.9712
-6.9183 0.4966 -1.9636 0.9716
-6.5579 -1.3045 -1.8929 0.9726
-6.3491 -1.8649 -1.8733 0.9729
-6.1000 -2.4013 -1.8558 0.9731
-5.8129 -2.9117 -1.8405 0.9733
-5.4902 -3.3942 -1.8273 0.9735
-4.7472 -4.2688 -1.8073 0.9738
-4.3313 -4.6580 -1.8006 0.9739
-1.3490 -6.2363 -1.8063 0.9738
-0.7910 -6.3619 -1.8149 0.9737
1.5300 -6.4287 -1.8707 0.9729
2.7056 -6.1857 -1.9113 0.9723
3.2863 -5.9919 -1.9346 0.9720
4.4153 -5.4562 -1.9870 0.9712
4.9555 -5.1137 -2.0159 0.9708
5.4736 -4.7216 -2.0464 0.9704
5.9649 -4.2804 -2.0784 0.9699
6.4245 -3.7910 -2.1118 0.9695
6.8272 -3.2455 -2.1400 0.9691
7.4799 -0.6479 -2.1254 0.9693
7.7242 1.4184 -2.2232 0.9679
7.0300 3.3926 -2.2098 0.9681
4.8101 4.1987 -1.8075 0.9738
3.7515 4.6919 -1.7006 0.9753
3.2325 4.8789 -1.6568 0.9760
1.2681 5.4706 -1.5898 0.9769
-0.2416 6.0019 -1.7005 0.9753
-0.8078 6.1996 -1.7699 0.9743
-3.0180 7.1867 -2.2066 0.9681
-3.5938 6.7880 -2.1743 0.9686
-5.0197 5.3353 -2.0738 0.9700
-5.6985 4.2179 -2.0071 0.9710
-6.6326 3.2738 -2.0939 0.9697
-6.7906 2.6274 -2.0613 0.9702
-6.8745 0.0812 -1.9463 0.9718
-6.6175 -1.1146 -1.8998 0.9725
-6.4226 -1.6824 -1.8795 0.9728
-6.1865 -2.2270 -1.8614 0.9730
-5.9117 -2.7462 -1.8453 0.9733
-5.6006 -3.2381 -1.8314 0.9735
-4.8783 -4.1331 -1.8100 0.9738
-4.4717 -4.5332 -1.8026 0.9739
-2.5922 -5.7856 -1.7947 0.9740
-2.0697 -6.0055 -1.7982 0.9739
1.3355 -6.4506 -1.8648 0.9730
1.9247 -6.3685 -1.8834 0.9727
2.5124 -6.2390 -1.9041 0.9724
3.0955 -6.0613 -1.9267 0.9721
3.6702 -5.8346 -1.9513 0.9718
4.2329 -5.5583 -1.9778 0.9714
5.3052 -4.8566 -2.0361 0.9705
6.9190 -2.0993 -2.0469 0.9704
7.1951 -1.4978 -2.0805 0.9699
7.5845 -0.2016 -2.1479 0.9690
7.6886 0.4832 -2.1809 0.9685
7.7267 1.1845 -2.2129 0.9680
7.3399 3.2789 -2.2758 0.9671
6.4465 3.6013 -2.0904 0.9698
5.6855 3.8797 -1.9486 0.9718
5.0156 4.1239 -1.8382 0.9734
4.4124 4.3431 -1.7527 0.9746
3.4010 4.8183 -1.6696 0.9758
2.3665 5.0799 -1.5865 0.9770
1.8956 5.2479 -1.5796 0.9771
-0.6157 6.1326 -1.7448 0.9747
-1.5932 5.5667 -1.6392 0.9762
-3.9527 6.4942 -2.1522 0.9689
-4.4460 6.0204 -2.1187 0.9694
-5.6018 4.4079 -2.0179 0.9708
-5.8760 3.8276 -1.9852 0.9713
-6.7448 2.8411 -2.0719 0.9700
-6.8090 -0.3272 -1.9298 0.9721
-6.4916 -1.4974 -1.8860 0.9727
-6.0066 -2.5777 -1.8504 0.9732
-5.7072 -3.0788 -1.8358 0.9734
-5.3730 -3.5514 -1.8233 0.9736
-5.0062 -3.9939 -1.8130 0.9737
-4.6091 -4.4047 -1.8048 0.9738
-4.1839 -4.7825 -1.7989 0.9739
-3.7326 -5.1259 -1.7951 0.9740
-3.2575 -5.4337 -1.7935 0.9740
-2.2441 -5.9372 -1.7968 0.9740
-0.0260 -6.4634 -1.8298 0.9735
2.3187 -6.2871 -1.8970 0.9725
2.9037 -6.1254 -1.9190 0.9722
3.4816 -5.9149 -1.9430 0.9719
4.0487 -5.6550 -1.9689 0.9715
5.6437 -4.5773 -2.0571 0.9702
6.5724 -3.6141 -2.1233 0.9693
6.4786 -2.8422 -2.0028 0.9710
6.8171 -2.2900 -2.0358 0.9705
7.1095 -1.7003 -2.0694 0.9701
7.5364 -0.4230 -2.1369 0.9691
7.6613 0.2550 -2.1701 0.9686
7.7217 0.9515 -2.2025 0.9682
7.6347 2.3724 -2.2633 0.9673
6.7233 3.4999 -2.1458 0.9690
5.9253 3.7921 -1.9915 0.9712
4.6054 4.2731 -1.7785 0.9742
4.0367 4.4792 -1.7070 0.9752
3.5722 4.7566 -1.6840 0.9756
2.0507 5.1926 -1.5805 0.9771
1.1018 3.7361 -1.1027 0.9839
1.1059 5.5280 -1.5959 0.9768
0.3102 2.8577 -0.8137 0.9881
-0.4289 6.0674 -1.7219 0.9750
-1.0113 6.2705 -1.7981 0.9739
-1.4388 5.6526 -1.6512 0.9760
-3.2187 7.0570 -2.1958 0.9683
-3.7785 6.6416 -2.1632 0.9687
-4.2889 6.1812 -2.1298 0.9692
-6.8440 -0.1268 -1.9378 0.9719
-6.7226 -0.7279 -1.9142 0.9723
-6.3469 -1.8701 -1.8731 0.9729
-6.0974 -2.4063 -1.8557 0.9731
-5.8100 -2.9164 -1.8404 0.9733
-5.4871 -3.3986 -1.8272 0.9735
-4.7435 -4.2727 -1.8073 0.9738
-3.8844 -5.0164 -1.7961 0.9740
-2.9270 -5.6192 -1.7936 0.9740
-2.4167 -5.8647 -1.7957 0.9740
-1.8883 -6.0712 -1.7999 0.9739
-1.3439 -6.2377 -1.8064 0.9738
-0.7857 -6.3628 -1.8150 0.9737
-0.2162 -6.4456 -1.8257 0.9735
1.5355 -6.4280 -1.8709 0.9729
2.7111 -6.1841 -1.9115 0.9723
4.9605 -5.1103 -2.0162 0.9708
6.4286 -3.7862 -2.1121 0.9695
6.7102 -2.4767 -2.0249 0.9707
7.2771 -1.2859 -2.0920 0.9697
-6.0289 -1.3853 -1.9027 0.9744
-5.8266 -1.8999 -1.8850 0.9747
-5.0035 -3.3012 -1.8437 0.9752
-3.9013 -4.4519 -1.8207 0.9755
-3.4816 -4.7728 -1.8171 0.9756
-2.5765 -5.3127 -1.8161 0.9756
-2.0953 -5.5293 -1.8187 0.9756
-1.5977 -5.7088 -1.8234 0.9755
-1.0859 -5.8500 -1.8301 0.9754
-0.0292 -6.0134 -1.8496 0.9751
0.5109 -6.0335 -1.8624 0.9750
3.2206 -5.4819 -1.9556 0.9737
4.2492 -4.9453 -2.0054 0.9731
5.2019 -4.2262 -2.0615 0.9723
5.9506 -2.6165 -1.9994 0.9732
6.2537 -2.1066 -2.0297 0.9728
7.0389 0.8614 -2.1812 0.9708
6.9439 2.1514 -2.2360 0.9700
5.9232 3.7837 -2.1618 0.9710
5.2271 4.0384 -2.0317 0.9727
4.0365 4.4715 -1.8528 0.9751
3.0626 4.9325 -1.7858 0.9760
2.5248 5.0161 -1.7273 0.9768
2.0526 5.1848 -1.7151 0.9769
1.0931 3.6949 -1.1852 0.9840
1.1091 5.5196 -1.7316 0.9767
0.0519 2.6451 -0.8137 0.9890
-0.4230 6.0575 -1.8677 0.9749
-1.0042 6.2599 -1.9500 0.9738
-2.3638 6.7306 -2.1942 0.9706
-2.9300 6.4382 -2.1757 0.9708
-4.3421 5.2067 -2.0853 0.9720
-4.7186 4.7277 -2.0545 0.9724
-5.0453 4.2240 -2.0239 0.9728
-5.3215 3.7010 -1.9937 0.9732
-2.6866 1.5324 -0.9513 0.9871
-6.4196 1.0426 -2.0004 0.9731
-6.3427 -0.1122 -1.9512 0.9738
-6.2361 -0.6699 -1.9291 0.9741
-5.8977 -1.7323 -1.8906 0.9746
-5.4064 -2.7081 -1.8598 0.9750
-4.7796 -3.5813 -1.8370 0.9753
-4.0345 -4.3388 -1.8223 0.9755
-3.1878 -4.9691 -1.8158 0.9756
-2.7315 -5.2332 -1.8157 0.9756
-2.2561 -5.4618 -1.8176 0.9756
-1.2563 -5.8077 -1.8276 0.9754
-0.7364 -5.9227 -1.8357 0.9753
1.9672 -5.8772 -1.9063 0.9744
3.5715 -5.3226 -1.9715 0.9735
4.5784 -4.7246 -2.0236 0.9728
5.4980 -3.9454 -2.0814 0.9721
5.9142 -3.4899 -2.1122 0.9717
6.1581 -2.2788 -2.0196 0.9729
6.4328 -1.7463 -2.0502 0.9725
6.6615 -1.1829 -2.0810 0.9721
6.9640 0.0204 -2.1420 0.9713
7.0303 0.6505 -2.1716 0.9709
6.9774 1.9382 -2.2273 0.9701
5.4476 3.9578 -2.0711 0.9722
4.8034 4.1929 -1.9611 0.9737
4.2192 4.4053 -1.8762 0.9748
2.6825 4.9596 -1.7343 0.9767
2.1892 5.0860 -1.7031 0.9771
1.7384 5.2966 -1.7146 0.9769
-1.4251 6.4060 -2.0185 0.9729
-2.7508 6.5503 -2.1852 0.9707
-4.5997 4.8889 -2.0647 0.9723
-4.9430 4.3927 -2.0340 0.9727
-5.2359 3.8755 -2.0036 0.9731
-6.3641 1.8289 -2.0367 0.9727
-6.4148 0.6511 -1.9832 0.9734
-6.3681 0.0753 -1.9588 0.9737
-6.1409 -1.0343 -1.9154 0.9743
-5.4973 -2.5537 -1.8644 0.9750
-5.2107 -3.0127 -1.8513 0.9751
-4.8917 -3.4448 -1.8402 0.9753
-4.5424 -3.8485 -1.8312 0.9754
-3.3339 -4.8742 -1.8163 0.9756
-2.8844 -5.1499 -1.8155 0.9756
-2.4151 -5.3904 -1.8168 0.9756
-1.9280 -5.5945 -1.8201 0.9755
-1.4254 -5.7611 -1.8254 0.9755
-0.9093 -5.8891 -1.8328 0.9754
0.6955 -6.0308 -1.8672 0.9749
2.3311 -5.7887 -1.9194 0.9742
2.8696 -5.6189 -1.9406 0.9739
3.3992 -5.4037 -1.9636 0.9736
4.4173 -4.8359 -2.0145 0.9730
4.8978 -4.4836 -2.0423 0.9726
5.3537 -4.0863 -2.0715 0.9722
6.3470 -1.9257 -2.0401 0.9726
6.5913 -1.3721 -2.0708 0.9722
7.0150 0.4409 -2.1619 0.9710
7.0408 1.0793 -2.1909 0.9706
7.0037 1.7247 -2.2186 0.9703
6.7344 3.0084 -2.2686 0.9696
5.0086 4.1181 -1.9944 0.9732
3.3967 4.8122 -1.8117 0.9757
2.8417 4.9025 -1.7429 0.9766
-0.0305 2.8458 -0.8753 0.9882
-1.2140 6.3328 -1.9833 0.9734
-1.5915 5.5610 -1.7791 0.9761
-2.5673 6.6571 -2.1946 0.9706
-3.6106 5.9321 -2.1360 0.9714
-4.8352 4.5592 -2.0441 0.9726
-5.1448 4.0483 -2.0136 0.9730
-5.4037 3.5199 -1.9836 0.9734
-5.6122 2.9792 -1.9543 0.9738
-6.2184 2.6194 -2.0754 0.9722
-6.3365 2.0251 -2.0461 0.9725
-6.4031 1.4318 -2.0181 0.9729
-6.4198 0.8436 -1.9916 0.9733
-6.3886 0.2641 -1.9667 0.9736
-6.3114 -0.3033 -1.9435 0.9739
-5.8245 -1.9046 -1.8848 0.9747
-4.6610 -3.7184 -1.8339 0.9754
-3.8974 -4.4551 -1.8206 0.9755
-3.4776 -4.7757 -1.8171 0.9756
-3.0351 -5.0627 -1.8156 0.9756
-2.5721 -5.3149 -1.8161 0.9756
-2.0906 -5.5312 -1.8187 0.9756
-1.5929 -5.7103 -1.8234 0.9755
-1.0811 -5.8512 -1.8301 0.9754
0.5160 -6.0335 -1.8626 0.9750
1.0606 -6.0108 -1.8774 0.9748
1.6069 -5.9449 -1.8941 0.9746
2.1519 -5.8348 -1.9128 0.9743
3.7472 -5.2340 -1.9799 0.9734
6.0464 -3.3249 -2.1224 0.9715
5.9537 -2.6119 -1.9997 0.9732
6.5158 -1.5583 -2.0607 0.9724
6.9932 0.2328 -2.1521 0.9711
7.0391 0.8674 -2.1814 0.9708
6.5851 3.4280 -2.2834 0.9694
5.9162 3.7863 -2.1605 0.9710
5.2209 4.0406 -2.0306 0.9727
4.5992 4.2672 -1.9297 0.9741
4.0314 4.4734 -1.8522 0.9751
2.0482 5.1863 -1.7151 0.9769
1.0899 3.6956 -1.1851 0.9840
0.3314 3.0533 -0.9446 0.9872
0.0497 2.6465 -0.8141 0.9890
-1.0099 6.2619 -1.9509 0.9738
-1.4393 5.6545 -1.7947 0.9759
-3.4500 6.0640 -2.1459 0.9712
-3.9212 5.6513 -2.1157 0.9716
-4.3459 5.2024 -2.0850 0.9720
-4.7219 4.7231 -2.0542 0.9724
-5.3238 3.6960 -1.9934 0.9732
-6.1621 2.8124 -2.0834 0.9721
-6.3867 1.6273 -2.0272 0.9728
-6.4197 1.0370 -2.0002 0.9732
-6.4041 0.4543 -1.9747 0.9735
-6.3419 -0.1175 -1.9510 0.9738
-6.0855 -1.2158 -1.9088 0.9744
-5.6677 -2.2367 -1.8741 0.9748
-4.7764 -3.5852 -1.8369 0.9753
-4.4173 -3.9789 -1.8286 0.9754
-4.0307 -4.3421 -1.8223 0.9755
-1.7589 -5.6553 -1.8216 0.9755
-1.2515 -5.8089 -1.8277 0.9754
-0.7315 -5.9236 -1.8358 0.9753
-0.2012 -5.9982 -1.8459 0.9752
1.4265 -5.9715 -1.8884 0.9746
1.9723 -5.8761 -1.9065 0.9744
3.0506 -5.5510 -1.9482 0.9738
5.0556 -4.3537 -2.0521 0.9725
5.5021 -3.9413 -2.0817 0.9721
5.9179 -3.4854 -2.1125 0.9717
6.4352 -1.7412 -2.0505 0.9725
6.6634 -1.1775 -2.0813 0.9721
-5.4359 -1.7725 -1.9006 0.9762
-4.9608 -2.6707 -1.8728 0.9765
-4.3594 -3.4719 -1.8525 0.9768
-3.2560 -4.4636 -1.8365 0.9770
-2.4097 -4.9686 -1.8356 0.9770
-1.9594 -5.1707 -1.8380 0.9770
-1.4938 -5.3377 -1.8424 0.9769
-1.0151 -5.4684 -1.8488 0.9768
-0.0273 -5.6173 -1.8672 0.9766
2.0009 -5.4394 -1.9265 0.9759
2.9971 -5.1015 -1.9668 0.9754
3.4797 -4.8690 -1.9893 0.9751
4.8228 -3.9182 -2.0655 0.9741
5.2226 -3.5191 -2.0933 0.9738
5.5868 -3.0782 -2.1203 0.9735
6.1940 -0.9123 -2.0811 0.9740
4.5984 4.2593 -2.0835 0.9739
4.0312 4.4656 -1.9997 0.9750
2.0501 5.1784 -1.8513 0.9768
1.1077 5.5128 -1.8691 0.9766
-0.4225 6.0494 -2.0158 0.9748
-1.4367 5.6644 -1.9425 0.9757
-2.1773 6.1996 -2.1842 0.9727
-2.6895 5.9099 -2.1583 0.9730
-3.1662 5.5760 -2.1315 0.9733
-3.9994 4.7958 -2.0757 0.9740
-4.3513 4.3597 -2.0475 0.9744
-4.6580 3.8997 -2.0193 0.9747
-2.6851 1.5315 -1.0275 0.9871
-5.9279 1.5157 -2.0338 0.9745
-5.9560 0.4275 -1.9849 0.9751
-5.6741 -1.1287 -1.9231 0.9759
-5.5011 -1.6158 -1.9058 0.9761
-5.2918 -2.0832 -1.8904 0.9763
-5.0484 -2.5288 -1.8769 0.9765
-4.1327 -3.7162 -1.8474 0.9768
-3.7724 -4.0569 -1.8415 0.9769
-2.9814 -4.6473 -1.8353 0.9770
-2.5546 -4.8944 -1.8352 0.9770
-1.1745 -5.4293 -1.8465 0.9769
0.3100 -5.6325 -1.8751 0.9765
1.3259 -5.5711 -1.9036 0.9761
1.8339 -5.4790 -1.9205 0.9759
3.3218 -4.9505 -1.9817 0.9752
3.7948 -4.6895 -2.0053 0.9749
4.2504 -4.3862 -2.0303 0.9746
5.0938 -3.6553 -2.0840 0.9739
5.4734 -3.2298 -2.1125 0.9736
5.9330 -1.6106 -2.0436 0.9744
6.1368 -1.0897 -2.0718 0.9741
6.2938 -0.5452 -2.0999 0.9737
6.4523 1.1848 -2.1806 0.9727
6.3924 1.7757 -2.2053 0.9724
6.2733 2.3633 -2.2283 0.9721
6.0946 2.9412 -2.2494 0.9719
5.8565 3.5023 -2.2683 0.9716
5.4396 3.9519 -2.2350 0.9721
4.7967 4.1870 -2.1164 0.9735
3.6741 4.5950 -1.9556 0.9755
3.1716 4.7871 -1.9088 0.9761
2.6792 4.9535 -1.8720 0.9765
2.1865 5.0797 -1.8383 0.9770
1.7362 5.2901 -1.8507 0.9768
0.7841 5.6269 -1.8885 0.9763
-0.2409 5.9861 -1.9914 0.9751
-1.4231 6.3968 -2.1783 0.9728
-3.8735 4.9337 -2.0851 0.9739
-4.2401 4.5066 -2.0568 0.9743
-5.2505 2.5916 -1.9463 0.9756
-5.8040 2.2456 -2.0686 0.9741
-5.8446 -0.4540 -1.9486 0.9756
-5.7229 -0.9639 -1.9291 0.9758
-5.5623 -1.4571 -1.9113 0.9761
-5.3648 -1.9312 -1.8953 0.9763
-4.5710 -3.2190 -1.8584 0.9767
-4.2460 -3.5973 -1.8498 0.9768
-3.8941 -3.9476 -1.8432 0.9769
-3.5174 -4.2685 -1.8385 0.9770
-1.3326 -5.3862 -1.8444 0.9769
-0.3572 -5.5851 -1.8603 0.9767
1.6664 -5.5140 -1.9148 0.9760
2.6719 -5.2318 -1.9527 0.9755
3.1624 -5.0273 -1.9743 0.9753
4.1022 -4.4910 -2.0219 0.9747
4.5439 -4.1596 -2.0477 0.9744
4.9617 -3.7871 -2.0748 0.9740
5.3515 -3.3746 -2.1030 0.9737
5.6956 -2.9166 -2.1270 0.9734
5.8561 -1.7768 -2.0342 0.9745
6.3711 -0.1693 -2.1186 0.9735
6.4427 0.4049 -2.1458 0.9732
6.4186 1.5806 -2.1973 0.9725
6.3192 2.1700 -2.2209 0.9722
5.9416 3.3193 -2.2623 0.9717
5.6644 3.8653 -2.2795 0.9715
4.4005 4.3314 -2.0525 0.9743
3.8482 4.5320 -1.9763 0.9753
3.3309 4.7190 -1.9200 0.9759
2.8381 4.8964 -1.8812 0.9764
2.3608 5.0675 -1.8583 0.9767
0.9898 3.7618 -1.2930 0.9837
0.9444 5.5704 -1.8781 0.9765
0.2195 2.7868 -0.9292 0.9883
-1.2123 6.3238 -2.1403 0.9732
-3.7429 5.0683 -2.0943 0.9738
-4.1239 4.6507 -2.0662 0.9741
-4.9965 3.2547 -1.9821 0.9752
-5.1950 2.7577 -1.9551 0.9755
-5.9430 0.2457 -1.9772 0.9752
-5.7675 -0.7972 -1.9354 0.9758
-5.6195 -1.2962 -1.9170 0.9760
-5.4340 -1.7769 -1.9004 0.9762
-5.2129 -2.2371 -1.8856 0.9764
-4.9582 -2.6748 -1.8727 0.9765
-4.0131 -3.8352 -1.8452 0.9769
-3.2523 -4.4662 -1.8365 0.9770
-1.9551 -5.1725 -1.8381 0.9770
-1.4894 -5.3391 -1.8425 0.9769
-1.0106 -5.4695 -1.8489 0.9768
-0.5209 -5.5626 -1.8571 0.9767
-0.0226 -5.6176 -1.8673 0.9766
0.4818 -5.6334 -1.8794 0.9764
1.4987 -5.5445 -1.9091 0.9761
2.0056 -5.4382 -1.9267 0.9759
2.5077 -5.2900 -1.9460 0.9756
3.0017 -5.0996 -1.9670 0.9754
3.4842 -4.8666 -1.9895 0.9751
3.9517 -4.5912 -2.0136 0.9748
4.4005 -4.2737 -2.0390 0.9745
5.2262 -3.5151 -2.0936 0.9738
5.5899 -3.0738 -2.1205 0.9735
5.5017 -2.4136 -1.9970 0.9750
5.7747 -1.9399 -2.0249 0.9746
6.0072 -1.4366 -2.0531 0.9743
6.4251 0.2138 -2.1369 0.9733
6.4385 1.3854 -2.1892 0.9726
6.2193 2.5610 -2.2357 0.9720
5.2133 4.0347 -2.1913 0.9726
3.0258 4.8824 -1.9093 0.9761
2.0457 5.1800 -1.8513 0.9768
1.1032 5.5144 -1.8693 0.9766
0.0496 2.6429 -0.8787 0.9889
-0.4277 6.0512 -2.0165 0.9748
-1.0085 6.2531 -2.1054 0.9737
-3.1704 5.5727 -2.1312 0.9733
-4.0029 4.7919 -2.0755 0.9740
-4.3544 4.3555 -2.0472 0.9744
-4.6606 3.8953 -2.0191 0.9747
-2.6874 1.5298 -1.0279 0.9870
-5.3023 2.4200 -1.9374 0.9757
-5.8451 2.0600 -2.0601 0.9742
-5.9557 0.4225 -1.9847 0.9751
-5.9028 -0.1093 -1.9624 0.9754
-5.8078 -0.6289 -1.9418 0.9757
-5.4993 -1.6203 -1.9057 0.9761
-4.4637 -3.3505 -1.8552 0.9767
-4.1294 -3.7195 -1.8474 0.9768
-3.3842 -4.3705 -1.8374 0.9770
-2.1056 -5.1097 -1.8370 0.9770
-1.6447 -5.2880 -1.8408 0.9769
3.3264 -4.9482 -1.9819 0.9752
3.7992 -4.6868 -2.0055 0.9749
4.2546 -4.3831 -2.0305 0.9746
4.6887 -4.0377 -2.0568 0.9743
5.4033 -2.5631 -1.9879 0.9751
5.9352 -1.6059 -2.0438 0.9744
6.1385 -1.0847 -2.0721 0.9741
-5.2600 -1.2086 -1.9300 0.9773
-5.0895 -1.6595 -1.9143 0.9775
-4.8852 -2.0916 -1.9004 0.9777
-4.3827 -2.8915 -1.8776 0.9779
-2.2610 -4.6622 -1.8529 0.9782
-1.8384 -4.8514 -1.8553 0.9782
-1.4013 -5.0073 -1.8594 0.9782
-0.4927 -5.2151 -1.8733 0.9780
-0.0256 -5.2652 -1.8829 0.9779
0.4469 -5.2782 -1.8943 0.9777
0.9224 -5.2535 -1.9074 0.9776
2.3399 -4.9469 -1.9570 0.9770
3.2483 -4.5452 -1.9978 0.9765
3.6819 -4.2850 -2.0203 0.9763
4.4906 -3.6483 -2.0691 0.9757
5.1055 -2.2449 -1.9945 0.9766
5.3539 -1.8035 -2.0203 0.9763
5.5644 -1.3357 -2.0464 0.9760
5.7335 -0.8445 -2.0725 0.9757
5.9351 0.1925 -2.1235 0.9751
5.5401 2.8781 -2.2326 0.9738
5.2999 3.3856 -2.2490 0.9736
4.0258 4.4596 -2.1485 0.9748
3.3518 4.4553 -1.9938 0.9766
2.0476 5.1719 -1.9892 0.9766
1.0553 3.5673 -1.3303 0.9843
-0.9790 6.1026 -2.2103 0.9741
-2.0080 5.7176 -2.1671 0.9746
-4.0327 4.0405 -2.0414 0.9760
-2.6836 1.5307 -1.1048 0.9870
-5.4385 1.9218 -2.0627 0.9758
-5.5607 0.3991 -1.9937 0.9766
-5.4311 -0.5835 -1.9534 0.9771
-5.3085 -1.0560 -1.9355 0.9773
-5.1496 -1.5126 -1.9193 0.9775
-4.7304 -2.3695 -1.8920 0.9778
-4.1884 -3.1384 -1.8716 0.9780
-3.8762 -3.4856 -1.8642 0.9781
-3.5390 -3.8059 -1.8585 0.9782
-2.7975 -4.3607 -1.8527 0.9782
-1.5471 -4.9595 -1.8579 0.9782
-0.1806 -5.2527 -1.8795 0.9779
0.2904 -5.2780 -1.8903 0.9778
1.2413 -5.2155 -1.9172 0.9775
1.7158 -5.1264 -1.9332 0.9773
2.1861 -4.9980 -1.9508 0.9771
3.1017 -4.6224 -1.9907 0.9766
3.5406 -4.3753 -2.0127 0.9764
5.0879 -3.0023 -2.1126 0.9752
5.2759 -1.9523 -2.0117 0.9764
5.9514 1.0929 -2.1639 0.9746
5.7765 2.1762 -2.2075 0.9741
5.6077 2.7062 -2.2267 0.9739
5.1098 3.7124 -2.2587 0.9735
4.7842 4.1761 -2.2710 0.9734
4.2078 4.3934 -2.1754 0.9745
2.6758 4.9472 -2.0114 0.9764
1.7341 5.2835 -1.9886 0.9767
0.7831 5.6197 -2.0291 0.9762
0.1359 2.7642 -0.9897 0.9883
-0.2406 5.9781 -2.1395 0.9749
-2.3293 5.5468 -2.1514 0.9748
-3.5850 4.5663 -2.0761 0.9756
-4.2306 3.7596 -2.0240 0.9762
-4.4909 3.3241 -1.9980 0.9765
-2.6579 1.6217 -1.1134 0.9869
-5.3950 2.0874 -2.0687 0.9757
-5.5029 1.5814 -2.0475 0.9760
-5.5563 1.0714 -2.0236 0.9762
-5.5666 0.5650 -2.0009 0.9765
-5.5351 0.0654 -1.9795 0.9768
-5.2060 -1.3637 -1.9245 0.9774
-4.5618 -2.6375 -1.8844 0.9779
-3.3001 -4.0048 -1.8557 0.9782
-2.1192 -4.7301 -1.8535 0.9782
-1.2500 -5.0525 -1.8613 0.9781
-0.3349 -5.2362 -1.8763 0.9780
0.1344 -5.2738 -1.8866 0.9778
2.0315 -5.0447 -1.9448 0.9772
2.4972 -4.8898 -1.9635 0.9769
3.8252 -4.1877 -2.0283 0.9762
4.2335 -3.8754 -2.0525 0.9759
4.6185 -3.5252 -2.0778 0.9756
4.9767 -3.1382 -2.1040 0.9753
2.3331 -0.9425 -0.8998 0.9894
5.4299 -1.6475 -2.0292 0.9762
5.7809 -0.6731 -2.0813 0.9756
5.8896 -0.1565 -2.1069 0.9753
5.9500 0.3740 -2.1320 0.9750
5.9169 1.4570 -2.1791 0.9744
5.4645 3.0528 -2.2384 0.9738
5.2064 3.5527 -2.2540 0.9736
4.8971 4.0265 -2.2672 0.9734
3.6264 4.2708 -2.0036 0.9765
3.2169 4.5574 -1.9949 0.9766
2.8345 4.8902 -2.0213 0.9763
1.8886 5.2286 -1.9880 0.9767
0.9815 3.7304 -1.3794 0.9837
0.9432 5.5633 -2.0179 0.9763
0.2197 2.7893 -1.0006 0.9882
-1.5881 5.5492 -2.0641 0.9758
-3.0680 5.0407 -2.1102 0.9752
-3.4630 4.6893 -2.0846 0.9755
-4.1354 3.8993 -2.0326 0.9761
-4.4096 3.4698 -2.0066 0.9764
-4.6415 3.0234 -1.9809 0.9767
-4.9771 2.0965 -1.9313 0.9773
-5.4756 1.7500 -2.0557 0.9759
-5.5435 1.2396 -2.0314 0.9762
-5.4914 -0.2639 -1.9660 0.9769
-5.2585 -1.2129 -1.9299 0.9773
-4.8831 -2.0956 -1.9002 0.9777
-4.3800 -2.8951 -1.8776 0.9779
-3.4191 -3.9084 -1.8570 0.9782
-1.3972 -5.0086 -1.8595 0.9782
-0.4884 -5.2157 -1.8733 0.9780
-0.0212 -5.2655 -1.8830 0.9779
1.8762 -5.0872 -1.9390 0.9772
2.3443 -4.9454 -1.9571 0.9770
2.8041 -4.7640 -1.9768 0.9768
3.2524 -4.5429 -1.9980 0.9765
3.6859 -4.2824 -2.0205 0.9763
4.1010 -3.9828 -2.0443 0.9760
4.4942 -3.6450 -2.0693 0.9757
4.8617 -3.2699 -2.0952 0.9754
5.1919 -2.8550 -2.1189 0.9751
5.9622 0.7347 -2.1483 0.9748
5.9369 1.2775 -2.1717 0.9745
5.7253 2.3576 -2.2142 0.9740
5.5381 2.8829 -2.2327 0.9738
3.3481 4.4582 -1.9938 0.9766
2.9404 4.7447 -1.9962 0.9766
1.0508 3.5630 -1.3284 0.9843
1.1018 5.5074 -2.0085 0.9764
0.6163 5.6784 -2.0426 0.9760
0.0495 2.6385 -0.9437 0.9889
-0.4271 6.0430 -2.1664 0.9746
-0.9840 6.1013 -2.2101 0.9741
-1.4403 5.6585 -2.0880 0.9755
-2.0126 5.7154 -2.1669 0.9746
-2.9295 5.1492 -2.1185 0.9751
-3.3367 4.8089 -2.0931 0.9754
-3.7061 4.4365 -2.0673 0.9757
-4.0356 4.0366 -2.0412 0.9760
-4.3237 3.6137 -2.0151 0.9763
-4.5696 3.1724 -1.9893 0.9766
-2.6859 1.5290 -1.1052 0.9870
-5.5260 1.4080 -2.0393 0.9761
-5.3072 -1.0603 -1.9354 0.9773
-5.1479 -1.5168 -1.9192 0.9775
-4.4713 -2.7694 -1.8808 0.9779
-2.3933 -4.5946 -1.8526 0.9782
-1.5430 -4.9610 -1.8579 0.9782
-1.0974 -5.0936 -1.8633 0.9781
-0.6410 -5.1913 -1.8706 0.9780
1.2458 -5.2149 -1.9173 0.9775
2.6534 -4.8282 -1.9702 0.9769
3.1059 -4.6203 -1.9909 0.9766
3.9662 -4.0860 -2.0364 0.9761
5.0183 -2.3804 -1.9862 0.9767
5.2782 -1.9482 -2.0120 0.9764
5.5012 -1.4885 -2.0380 0.9761
5.6839 -1.0044 -2.0641 0.9758
-4.5901 -1.9652 -1.9135 0.9788
-3.8451 -3.0623 -1.8837 0.9792
-3.5442 -3.3814 -1.8772 0.9792
-3.2202 -3.6747 -1.8724 0.9793
-2.8748 -3.9409 -1.8694 0.9793
-2.5100 -4.1788 -1.8681 0.9793
-2.1277 -4.3871 -1.8685 0.9793
-1.3184 -4.7109 -1.8747 0.9793
-0.4634 -4.9043 -1.8878 0.9791
0.4200 -4.9603 -1.9077 0.9789
0.8665 -4.9351 -1.9201 0.9788
3.0427 -4.2574 -2.0053 0.9778
3.8322 -3.7280 -2.0488 0.9774
4.1968 -3.4096 -2.0722 0.9771
4.5368 -3.0570 -2.0964 0.9768
4.8390 -2.6662 -2.1172 0.9766
4.7594 -2.0927 -1.9924 0.9780
4.9867 -1.6798 -2.0165 0.9777
5.1781 -1.2430 -2.0407 0.9774
5.4417 -0.3100 -2.0888 0.9769
5.5086 0.1787 -2.1121 0.9767
5.5292 0.6766 -2.1347 0.9764
5.5019 1.1791 -2.1563 0.9762
5.2991 2.1769 -2.1954 0.9758
4.6261 3.5741 -2.2403 0.9753
4.3088 3.9911 -2.2507 0.9752
3.9026 4.3231 -2.2319 0.9754
3.2870 4.3691 -2.0952 0.9769
2.8626 4.6105 -2.0797 0.9770
2.5152 4.9973 -2.1439 0.9763
1.1049 5.4988 -2.1494 0.9763
0.6201 5.6694 -2.1856 0.9759
0.0519 2.6470 -1.0146 0.9887
-0.9060 5.6476 -2.1919 0.9758
-1.3940 5.4959 -2.1728 0.9760
-1.8610 5.2990 -2.1523 0.9762
-2.3028 5.0601 -2.1305 0.9765
-2.7157 4.7828 -2.1077 0.9767
-3.0968 4.4711 -2.0842 0.9770
-4.0255 3.3702 -2.0119 0.9778
-4.2586 2.9618 -1.9879 0.9780
-4.6064 2.1071 -1.9412 0.9785
-5.0765 1.7939 -2.0633 0.9772
-5.1688 1.3216 -2.0445 0.9774
-5.2091 0.8460 -2.0224 0.9776
-5.1707 -0.0914 -1.9818 0.9781
-5.0945 -0.5473 -1.9635 0.9783
-4.2062 -2.6003 -1.8950 0.9790
-3.9390 -2.9515 -1.8862 0.9791
-3.3296 -3.5808 -1.8738 0.9793
-2.9911 -3.8561 -1.8702 0.9793
-2.6325 -4.1035 -1.8683 0.9793
-2.2557 -4.3217 -1.8682 0.9793
-1.8628 -4.5096 -1.8698 0.9793
-1.4556 -4.6663 -1.8732 0.9793
-0.1698 -4.9387 -1.8937 0.9791
0.2730 -4.9608 -1.9039 0.9789
0.7190 -4.9474 -1.9158 0.9788
2.4836 -4.5282 -1.9792 0.9781
2.9060 -4.3308 -1.9986 0.9779
3.7070 -3.8254 -2.0413 0.9774
4.0790 -3.5186 -2.0644 0.9772
5.2848 -0.9385 -2.0569 0.9773
5.4099 -0.4686 -2.0809 0.9770
5.4916 0.0161 -2.1045 0.9768
5.5277 0.5115 -2.1274 0.9765
5.5163 1.0130 -2.1493 0.9763
5.3463 2.0141 -2.1894 0.9758
4.7211 3.4300 -2.2363 0.9753
4.4184 3.8568 -2.2475 0.9752
3.4470 4.3111 -2.1153 0.9766
2.6724 4.9409 -2.1527 0.9762
0.7821 5.6125 -2.1716 0.9760
-0.7410 5.6872 -2.1979 0.9757
-1.7094 5.3688 -2.1592 0.9762
-2.1599 5.1434 -2.1378 0.9764
-2.5828 4.8784 -2.1153 0.9766
-2.9746 4.5776 -2.0921 0.9769
-3.6551 3.8849 -2.0441 0.9774
-3.9399 3.5013 -2.0199 0.9777
-2.6614 1.6238 -1.1947 0.9867
-4.6875 1.8136 -1.9261 0.9787
-5.2003 1.0028 -2.0296 0.9776
-5.2136 0.5292 -2.0082 0.9778
-5.1877 0.0613 -1.9881 0.9780
-5.1237 -0.3980 -1.9694 0.9782
-5.0232 -0.8460 -1.9521 0.9784
-4.8877 -1.2804 -1.9363 0.9786
-4.7190 -1.6987 -1.9220 0.9787
-4.5186 -2.0990 -1.9093 0.9789
-4.0302 -2.8381 -1.8890 0.9791
-3.4367 -3.4839 -1.8754 0.9793
-2.7530 -4.0249 -1.8687 0.9793
-1.5915 -4.6181 -1.8719 0.9793
-1.1760 -4.7532 -1.8764 0.9792
1.0183 -4.9182 -1.9247 0.9787
2.3417 -4.5853 -1.9730 0.9782
2.7679 -4.4001 -1.9921 0.9780
4.3152 -3.2937 -2.0803 0.9770
4.6460 -2.9297 -2.1049 0.9767
5.0558 -1.5340 -2.0247 0.9776
5.3732 -0.6256 -2.0730 0.9771
5.5209 0.3470 -2.1199 0.9766
5.4814 1.3498 -2.1633 0.9761
5.3881 1.8503 -2.1832 0.9759
5.2449 2.3430 -2.2014 0.9757
4.8111 3.2830 -2.2320 0.9754
4.5233 3.7191 -2.2441 0.9752
4.1912 4.1254 -2.2537 0.9751
2.8309 4.8840 -2.1633 0.9761
2.3548 5.0547 -2.1370 0.9764
0.9835 3.7377 -1.4811 0.9836
0.2187 2.7759 -1.0671 0.9881
-0.0286 2.6675 -1.0223 0.9886
-1.5552 5.4340 -2.1660 0.9761
-2.0140 5.2224 -2.1450 0.9763
-2.4464 4.9700 -2.1228 0.9765
-2.8489 4.6806 -2.0998 0.9768
-3.2184 4.3581 -2.0761 0.9771
-4.1090 3.2333 -2.0037 0.9779
-4.3289 2.8197 -1.9798 0.9781
-2.7812 1.4763 -1.2066 0.9866
-5.1871 1.1599 -2.0369 0.9775
-5.2136 0.6851 -2.0151 0.9777
-5.2005 0.2150 -1.9946 0.9780
-5.1489 -0.2474 -1.9754 0.9782
-5.0603 -0.6995 -1.9576 0.9784
-4.3676 -2.3561 -1.9018 0.9790
-4.1184 -2.7222 -1.8919 0.9791
-3.2170 -3.6773 -1.8724 0.9793
-2.8715 -3.9433 -1.8693 0.9793
-2.1240 -4.3890 -1.8685 0.9793
-1.3145 -4.7121 -1.8747 0.9793
0.8707 -4.9347 -1.9203 0.9788
1.3171 -4.8727 -1.9343 0.9786
3.0465 -4.2553 -2.0055 0.9778
3.8357 -3.7252 -2.0490 0.9774
4.2002 -3.4065 -2.0724 0.9771
4.9886 -1.6758 -2.0167 0.9777
5.1797 -1.2387 -2.0409 0.9774
5.3320 -0.7808 -2.0651 0.9772
5.5090 0.1834 -2.1123 0.9767
5.5014 1.1838 -2.1565 0.9762
5.4244 1.6856 -2.1768 0.9760
5.2977 2.1815 -2.1956 0.9758
4.8960 3.1333 -2.2276 0.9754
3.8990 4.3265 -2.2319 0.9754
3.2824 4.3707 -2.0947 0.9769
2.8697 4.6306 -2.0877 0.9769
2.5108 4.9989 -2.1437 0.9763
2.0406 5.1670 -2.1289 0.9765
1.1004 5.5004 -2.1496 0.9763
0.6155 5.6710 -2.1860 0.9759
-0.4065 5.7504 -2.2092 0.9756
-0.9107 5.6464 -2.1918 0.9758
-1.3985 5.4943 -2.1726 0.9760
-2.3068 5.0576 -2.1303 0.9765
-3.1002 4.4680 -2.0840 0.9770
-3.7561 3.7570 -2.0359 0.9775
-4.0278 3.3664 -2.0117 0.9778
-4.2606 2.9579 -1.9876 0.9780
-2.6843 1.5281 -1.1837 0.9869
-5.2092 0.3695 -2.0013 0.9779
-5.1701 -0.0958 -1.9816 0.9781
-4.6544 -1.8368 -1.9175 0.9788
-4.2038 -2.6038 -1.8949 0.9790
-2.6290 -4.1056 -1.8683 0.9793
-2.2521 -4.3236 -1.8682 0.9793
-1.0323 -4.7916 -1.8784 0.9792
-0.6029 -4.8824 -1.8852 0.9791
-0.1656 -4.9390 -1.8938 0.9791
0.2772 -4.9608 -1.9041 0.9789
0.7232 -4.9471 -1.9160 0.9788
1.1699 -4.8972 -1.9295 0.9787
1.6147 -4.8107 -1.9446 0.9785
2.0549 -4.6872 -1.9612 0.9783
2.4876 -4.5265 -1.9793 0.9781
3.3186 -4.0939 -2.0196 0.9777
4.0824 -3.5156 -2.0646 0.9772
4.4306 -3.1738 -2.0886 0.9769
4.7483 -2.7965 -2.1118 0.9767
4.9175 -1.8150 -2.0087 0.9778
5.2862 -0.9341 -2.0571 0.9773
-4.6477 -1.0679 -1.9518 0.9796
-4.5014 -1.4677 -1.9378 0.9797
-4.3243 -1.8515 -1.9252 0.9799
-4.1183 -2.2172 -1.9142 0.9800
-3.8848 -2.5631 -1.9048 0.9801
-3.6257 -2.8876 -1.8970 0.9802
-3.3427 -3.1891 -1.8908 0.9802
-2.3679 -3.9423 -1.8821 0.9803
-1.6317 -4.3061 -1.8847 0.9803
-1.2435 -4.4434 -1.8884 0.9803
-0.8445 -4.5496 -1.8938 0.9802
-0.4369 -4.6239 -1.9009 0.9801
-0.0227 -4.6656 -1.9095 0.9800
0.3958 -4.6739 -1.9198 0.9799
0.8162 -4.6484 -1.9316 0.9798
1.2361 -4.5884 -1.9449 0.9797
1.6530 -4.4937 -1.9596 0.9795
2.8585 -3.9998 -2.0121 0.9790
3.2357 -3.7657 -2.0320 0.9788
3.5956 -3.4978 -2.0530 0.9786
3.9349 -3.1969 -2.0750 0.9783
4.5282 -2.4950 -2.1160 0.9779
4.4524 -1.9577 -1.9906 0.9792
5.1334 0.1665 -2.1021 0.9780
5.0453 1.5632 -2.1617 0.9774
4.9249 2.0232 -2.1791 0.9773
4.7588 2.4722 -2.1948 0.9771
3.9974 3.7026 -2.2300 0.9767
3.2544 4.3259 -2.2156 0.9769
2.0159 5.0919 -2.2414 0.9766
0.0541 2.7572 -1.1287 0.9882
-0.3731 5.3426 -2.1919 0.9771
-1.7320 4.9316 -2.1393 0.9777
-2.5311 4.4576 -2.0980 0.9781
-2.8884 4.1702 -2.0762 0.9783
-3.5062 3.5130 -2.0314 0.9788
-3.7634 3.1508 -2.0088 0.9790
-4.8498 1.2401 -2.0488 0.9786
-1.9526 0.1402 -0.8012 0.9916
-1.9155 -0.0339 -0.7841 0.9918
-4.5532 -1.3374 -1.9422 0.9797
-3.9648 -2.4511 -1.9078 0.9801
-3.4387 -3.0921 -1.8927 0.9802
-3.1406 -3.3775 -1.8876 0.9803
-1.7572 -4.2541 -1.8838 0.9803
-0.9774 -4.5180 -1.8919 0.9802
-0.5723 -4.6030 -1.8984 0.9802
0.6773 -4.6606 -1.9275 0.9799
1.0977 -4.6120 -1.9403 0.9797
2.7307 -4.0695 -2.0058 0.9790
3.8253 -3.2998 -2.0676 0.9784
4.1492 -2.9774 -2.0901 0.9782
4.4415 -2.6209 -2.1107 0.9780
4.3765 -2.0805 -1.9833 0.9793
4.5959 -1.7007 -2.0057 0.9790
4.7826 -1.2983 -2.0282 0.9788
4.9336 -0.8761 -2.0508 0.9786
5.1187 0.0150 -2.0950 0.9781
5.1486 0.4764 -2.1162 0.9779
5.0749 1.4097 -2.1557 0.9775
4.6223 2.7642 -2.2043 0.9770
4.3819 3.1835 -2.2168 0.9769
3.3786 4.2255 -2.2143 0.9769
2.9666 4.4776 -2.1983 0.9771
2.6090 4.8238 -2.2445 0.9766
2.1664 5.0329 -2.2426 0.9766
1.2141 3.6991 -1.5934 0.9833
1.2311 5.3107 -2.2312 0.9767
0.1352 2.7504 -1.1270 0.9882
-0.2159 5.3633 -2.1968 0.9771
-0.6886 5.2852 -2.1814 0.9772
-1.1483 5.1618 -2.1643 0.9774
-1.5905 4.9955 -2.1457 0.9776
-2.4066 4.5456 -2.1050 0.9780
-2.7738 4.2685 -2.0834 0.9782
-3.1102 3.9614 -2.0613 0.9785
-3.9155 2.8982 -1.9938 0.9792
-4.2718 2.1085 -1.9497 0.9796
-4.3945 1.7003 -1.9285 0.9798
-1.9549 -0.1519 -0.8025 0.9916
-2.1067 -0.3548 -0.8743 0.9908
-4.4446 -1.6000 -1.9333 0.9798
-4.0420 -2.3369 -1.9109 0.9800
-3.5322 -2.9926 -1.8947 0.9802
-2.2472 -4.0122 -1.8821 0.9803
-1.8813 -4.1989 -1.8831 0.9803
-1.5012 -4.3562 -1.8858 0.9803
-0.7070 -4.5785 -1.8961 0.9802
0.5384 -4.6691 -1.9236 0.9799
0.9590 -4.6319 -1.9359 0.9798
1.3782 -4.5602 -1.9497 0.9796
1.7934 -4.4536 -1.9650 0.9795
2.2021 -4.3120 -1.9816 0.9793
2.9884 -3.9241 -2.0187 0.9789
3.3600 -3.6785 -2.0391 0.9787
3.7133 -3.3993 -2.0604 0.9785
4.2972 -2.2005 -1.9759 0.9793
2.3325 -0.9423 -1.0296 0.9892
4.7247 -1.4335 -2.0208 0.9789
4.8878 -1.0175 -2.0433 0.9787
5.0995 -0.1355 -2.0878 0.9782
5.0095 1.7203 -2.1678 0.9774
4.8736 2.1771 -2.1846 0.9772
4.4661 3.0475 -2.2129 0.9769
3.8880 3.8269 -2.2328 0.9767
1.8592 5.1472 -2.2399 0.9766
1.3888 5.2781 -2.2337 0.9767
0.2183 2.7711 -1.1377 0.9881
-0.0284 2.6488 -1.0842 0.9886
-0.5337 5.3161 -2.1867 0.9772
-0.9983 5.2074 -2.1701 0.9773
-1.4467 5.0550 -2.1520 0.9775
-1.8749 4.8615 -2.1325 0.9777
-2.2790 4.6299 -2.1120 0.9779
-3.0026 4.0659 -2.0687 0.9784
-3.3171 3.7409 -2.0463 0.9786
-2.6838 1.4247 -1.2436 0.9870
-4.7916 1.5314 -2.0588 0.9785
-4.8685 1.0887 -2.0418 0.9787
-1.9350 0.0800 -0.7926 0.9917
-1.9476 -0.2692 -0.8047 0.9915
-4.6465 -1.0718 -1.9516 0.9796
-4.4998 -1.4714 -1.9376 0.9797
-4.3225 -1.8550 -1.9251 0.9799
-3.6232 -2.8905 -1.8969 0.9802
-3.3399 -3.1918 -1.8908 0.9802
-2.3646 -3.9442 -1.8821 0.9803
-2.0037 -4.1405 -1.8826 0.9803
-1.2398 -4.4445 -1.8885 0.9803
-0.8407 -4.5504 -1.8939 0.9802
0.3997 -4.6739 -1.9199 0.9799
1.2400 -4.5877 -1.9450 0.9797
1.6569 -4.4926 -1.9598 0.9795
2.0681 -4.3626 -1.9760 0.9793
2.8621 -3.9977 -2.0123 0.9790
3.2392 -3.7634 -2.0322 0.9788
4.2534 -2.8608 -2.0979 0.9781
4.4545 -1.9542 -1.9908 0.9792
4.6631 -1.5665 -2.0133 0.9790
5.0756 -0.2849 -2.0806 0.9783
5.1193 1.1016 -2.1432 0.9776
3.6596 4.0608 -2.2373 0.9767
3.2508 4.3287 -2.2156 0.9769
2.8546 4.6062 -2.2179 0.9769
2.4611 4.8999 -2.2441 0.9766
1.0680 5.3387 -2.2283 0.9767
0.5848 5.3883 -2.2182 0.9768
-0.3776 5.3419 -2.1918 0.9771
-0.8464 5.2483 -2.1757 0.9773
-1.7360 4.9298 -2.1391 0.9777
-2.5346 4.4551 -2.0978 0.9781
-2.8916 4.1674 -2.0760 0.9783
-3.2170 3.8510 -2.0537 0.9785
-3.9864 2.7675 -1.9862 0.9792
-4.3176 1.9706 -1.9424 0.9797
-4.4279 1.5605 -1.9215 0.9799
-4.8506 1.2359 -2.0486 0.9786
-2.0498 0.3311 -0.8498 0.9911
-4.3844 -1.7302 -1.9291 0.9798
-4.1874 -2.1019 -1.9176 0.9800
-1.7537 -4.2557 -1.8838 0.9803
-1.3693 -4.4027 -1.8871 0.9803
-0.5685 -4.6036 -1.8984 0.9802
-0.1561 -4.6558 -1.9066 0.9801
0.2612 -4.6749 -1.9163 0.9800
0.6812 -4.6603 -1.9276 0.9798
1.1016 -4.6114 -1.9404 0.9797
1.5198 -4.5279 -1.9547 0.9796
2.3389 -4.2560 -1.9876 0.9792
2.7343 -4.0676 -2.0059 0.9790
3.4822 -3.5874 -2.0462 0.9786
4.3787 -2.0770 -1.9835 0.9793
4.5979 -1.6970 -2.0059 0.9790
4.9348 -0.8720 -2.0510 0.9786
-1.5308 -0.3517 -0.6845 0.9932
-4.0835 -1.7483 -1.9359 0.9808
-3.1597 -3.0145 -1.9032 0.9811
-2.8716 -3.2769 -1.8989 0.9812
-1.5427 -4.0711 -1.8974 0.9812
-1.1755 -4.2004 -1.9009 0.9811
-0.4128 -4.3695 -1.9128 0.9810
-0.0215 -4.4078 -1.9210 0.9810
0.7706 -4.3887 -1.9419 0.9807
1.1666 -4.3304 -1.9545 0.9806
1.5594 -4.2392 -1.9685 0.9805
1.9464 -4.1149 -1.9839 0.9803
3.3828 -3.2908 -2.0568 0.9796
3.6998 -3.0058 -2.0775 0.9794
4.2501 -2.3418 -2.1148 0.9790
4.3709 -1.4724 -2.0101 0.9801
4.5320 -1.0879 -2.0312 0.9799
4.8003 0.1557 -2.0931 0.9793
4.7815 1.0247 -2.1312 0.9789
4.7092 1.4590 -2.1486 0.9787
4.5944 1.8874 -2.1647 0.9786
4.4373 2.3052 -2.1792 0.9784
4.2387 2.7077 -2.1920 0.9783
3.4110 3.7786 -2.2185 0.9780
2.2952 4.5600 -2.2249 0.9780
0.9991 4.9722 -2.2103 0.9781
0.5491 5.0204 -2.2010 0.9782
-0.7857 4.8976 -2.1617 0.9786
-1.6177 4.6063 -2.1277 0.9789
-2.0044 4.4045 -2.1090 0.9791
-2.3672 4.1689 -2.0893 0.9793
-2.7031 3.9027 -2.0690 0.9795
-3.0100 3.6094 -2.0482 0.9797
-3.2859 3.2923 -2.0272 0.9799
-3.7393 2.6006 -1.9850 0.9803
-4.0563 1.8554 -1.9440 0.9807
-1.5939 0.5632 -0.7367 0.9927
-1.5081 0.2449 -0.6659 0.9934
-1.5259 -0.0270 -0.6651 0.9934
-1.5060 -0.2996 -0.6692 0.9933
-4.1413 -1.6303 -1.9397 0.9808
-3.9570 -1.9821 -1.9288 0.9809
-2.6676 -3.4391 -1.8969 0.9812
-2.0120 -3.8548 -1.8950 0.9812
-1.2980 -4.1609 -1.8996 0.9812
-0.5409 -4.3500 -1.9104 0.9811
0.2430 -4.4157 -1.9274 0.9809
1.0361 -4.3533 -1.9502 0.9807
2.2011 -4.0132 -1.9948 0.9802
2.5726 -3.8339 -2.0122 0.9801
2.9311 -3.6221 -2.0307 0.9799
3.2737 -3.3782 -2.0502 0.9797
3.5975 -3.1033 -2.0706 0.9795
4.1694 -2.4603 -2.1099 0.9791
4.6208 -0.8205 -2.0453 0.9797
4.7876 0.0140 -2.0865 0.9793
4.7961 0.8807 -2.1252 0.9789
4.7378 1.3161 -2.1430 0.9788
4.0831 2.9665 -2.1996 0.9782
3.5179 3.6731 -2.2166 0.9781
3.1836 3.9816 -2.2218 0.9780
2.8193 4.2553 -2.2247 0.9780
2.0170 4.6860 -2.2234 0.9780
1.5880 4.8383 -2.2193 0.9780
1.1466 4.9464 -2.2129 0.9781
-0.6424 4.9302 -2.1668 0.9785
-1.4853 4.6651 -2.1337 0.9789
-1.8793 4.4750 -2.1153 0.9790
-3.1983 3.3994 -2.0342 0.9798
-3.4526 3.0683 -2.0130 0.9800
-3.6737 2.7192 -1.9919 0.9803
-2.5827 1.5758 -1.3185 0.9869
-4.0135 1.9810 -1.9506 0.9807
-4.1315 1.5985 -1.9307 0.9809
-1.5674 0.4504 -0.7108 0.9929
-1.5008 0.2894 -0.6661 0.9934
-1.5056 -0.2536 -0.6654 0.9934
-1.5956 -0.5744 -0.7391 0.9926
-4.0209 -1.8678 -1.9322 0.9808
-3.0641 -3.1062 -1.9016 0.9811
-2.7692 -3.3605 -1.8978 0.9812
-2.4555 -3.5900 -1.8955 0.9812
-2.1247 -3.7935 -1.8949 0.9812
-1.7786 -3.9699 -1.8959 0.9812
-1.4193 -4.1183 -1.8984 0.9812
0.9053 -4.3726 -1.9461 0.9807
1.3005 -4.3031 -1.9591 0.9806
1.6916 -4.2007 -1.9736 0.9804
2.0761 -4.0652 -1.9894 0.9803
2.4513 -3.8968 -2.0063 0.9801
2.8143 -3.6956 -2.0245 0.9799
3.1625 -3.4622 -2.0436 0.9797
3.4928 -3.1974 -2.0637 0.9795
4.0341 -2.0658 -1.9752 0.9804
2.3323 -0.9422 -1.0962 0.9891
4.6934 -0.5464 -2.0593 0.9796
4.7707 -0.1268 -2.0799 0.9794
4.8087 0.3022 -2.0998 0.9792
4.8061 0.7367 -2.1190 0.9790
4.5457 2.0307 -2.1698 0.9785
3.6211 3.5642 -2.2143 0.9781
2.5606 4.4176 -2.2253 0.9780
-0.0284 2.6507 -1.1553 0.9885
-2.8107 3.8060 -2.0620 0.9796
-3.1073 3.5042 -2.0411 0.9798
-3.3723 3.1798 -2.0200 0.9800
-2.5558 1.6648 -1.3293 0.9868
-2.6492 1.4063 -1.3072 0.9870
-4.0964 1.7255 -1.9372 0.9808
-1.5825 0.5058 -0.7240 0.9928
-1.5261 0.3413 -0.6815 0.9932
-1.5190 0.1996 -0.6677 0.9933
-1.5289 0.0632 -0.6669 0.9933
-1.5293 -0.0735 -0.6673 0.9933
-1.5315 -0.3532 -0.6850 0.9932
-3.8882 -2.0975 -1.9254 0.9809
-3.4242 -2.7318 -1.9090 0.9811
-3.1570 -3.0171 -1.9032 0.9811
-2.5611 -3.5170 -1.8961 0.9812
-1.8945 -3.9147 -1.8954 0.9812
-1.1720 -4.2015 -1.9010 0.9811
-0.7947 -4.3009 -1.9061 0.9811
-0.0178 -4.4080 -1.9211 0.9810
0.3775 -4.4142 -1.9308 0.9809
0.7743 -4.3883 -1.9420 0.9807
1.1703 -4.3297 -1.9547 0.9806
1.5631 -4.2382 -1.9687 0.9805
1.9500 -4.1136 -1.9840 0.9803
2.3286 -3.9560 -2.0006 0.9802
2.6960 -3.7656 -2.0184 0.9800
3.0494 -3.5428 -2.0372 0.9798
3.3859 -3.2883 -2.0570 0.9796
4.2524 -2.3384 -2.1150 0.9790
2.3520 -1.0318 -1.1193 0.9889
4.8115 0.5929 -2.1128 0.9791
4.7810 1.0288 -2.1314 0.9789
4.4356 2.3090 -2.1794 0.9784
4.2366 2.7114 -2.1921 0.9783
3.9976 3.0939 -2.2030 0.9782
3.4080 3.7816 -2.2186 0.9780
2.2913 4.5619 -2.2249 0.9780
1.8730 4.7426 -2.2223 0.9780
1.0831 3.6725 -1.6687 0.9834
-0.3521 4.9815 -2.1764 0.9784
-0.7897 4.8966 -2.1616 0.9786
-1.2142 4.7702 -2.1452 0.9788
-1.6215 4.6046 -2.1276 0.9789
-2.0080 4.4024 -2.1088 0.9791
-2.7062 3.9001 -2.0688 0.9795
-3.0127 3.6065 -2.0480 0.9797
-1.5936 0.5616 -0.7364 0.9927
-1.5482 0.3945 -0.6963 0.9931
-1.5247 -0.1651 -0.6684 0.9933
-1.5068 -0.3011 -0.6697 0.9933
-4.1397 -1.6337 -1.9396 0.9808
-3.7438 -2.3189 -1.9192 0.9810
-3.2477 -2.9253 -1.9049 0.9811
-0.5372 -4.3506 -1.9105 0.9811
-0.1475 -4.3989 -1.9182 0.9810
0.2467 -4.4157 -1.9274 0.9809
1.4339 -4.2721 -1.9639 0.9805
2.2047 -4.0117 -1.9950 0.9802
3.2768 -3.3758 -2.0504 0.9797
3.9022 -2.7952 -2.0920 0.9793
4.1718 -2.4570 -2.1100 0.9791
4.3123 -1.5916 -2.0033 0.9801
4.4839 -1.2132 -2.0244 0.9799
4.6219 -0.8167 -2.0455 0.9797
-1.3012 -0.2990 -0.6180 0.9941
-1.3231 -0.5665 -0.6662 0.9937
-2.9926 -2.8551 -1.9145 0.9819
-2.7200 -3.1040 -1.9104 0.9820
-2.4289 -3.3297 -1.9078 0.9820
-1.4613 -3.8564 -1.9089 0.9820
-1.1134 -3.9785 -1.9123 0.9820
0.7291 -4.1521 -1.9514 0.9816
1.1033 -4.0955 -1.9634 0.9815
1.8394 -3.8886 -1.9912 0.9812
2.1962 -3.7383 -2.0069 0.9811
2.5420 -3.5569 -2.0237 0.9809
3.4872 -2.8331 -2.0798 0.9804
2.3398 -1.0288 -1.1831 0.9888
4.1097 -1.3844 -2.0074 0.9811
4.5023 0.1461 -2.0852 0.9803
4.5104 0.5520 -2.1034 0.9802
4.4097 1.3662 -2.1369 0.9799
4.3001 1.7665 -2.1519 0.9797
4.1513 2.1566 -2.1654 0.9796
3.1875 3.5309 -2.2019 0.9793
2.5161 4.0524 -2.2080 0.9792
2.1444 4.2604 -2.2078 0.9792
1.7538 4.4299 -2.2054 0.9792
1.0941 3.6984 -1.7853 0.9831
-0.3256 4.6614 -2.1629 0.9796
-1.8791 4.1292 -2.0999 0.9802
-2.2205 3.9106 -2.0816 0.9804
-2.5372 3.6631 -2.0626 0.9806
-2.8270 3.3899 -2.0431 0.9807
-3.0880 3.0940 -2.0234 0.9809
-3.5185 2.4471 -1.9838 0.9813
-2.6051 1.4859 -1.3882 0.9869
-1.3118 0.3354 -0.6268 0.9940
-1.3359 -0.0236 -0.6184 0.9941
-1.3241 -0.3889 -0.6388 0.9939
-3.7450 -1.8759 -1.9388 0.9817
-3.5462 -2.1924 -1.9298 0.9818
-3.3234 -2.4902 -1.9223 0.9819
-2.8122 -3.0243 -1.9116 0.9820
-2.5270 -3.2578 -1.9085 0.9820
-2.2244 -3.4673 -1.9068 0.9820
-1.5738 -3.8100 -1.9081 0.9820
-1.2295 -3.9413 -1.9111 0.9820
-0.8749 -4.0445 -1.9155 0.9819
-0.1432 -4.1643 -1.9287 0.9818
0.2300 -4.1794 -1.9375 0.9817
0.6051 -4.1640 -1.9477 0.9816
0.9800 -4.1177 -1.9592 0.9815
1.7196 -3.9314 -1.9863 0.9813
2.0794 -3.7913 -2.0016 0.9811
2.4292 -3.6202 -2.0180 0.9810
3.0879 -3.1866 -2.0540 0.9806
3.3915 -2.9255 -2.0732 0.9805
3.6740 -2.6365 -2.0932 0.9803
3.8653 -1.8375 -1.9811 0.9813
4.2128 -1.1437 -2.0206 0.9809
4.3401 -0.7707 -2.0404 0.9808
