ply
format ascii 1.0
element vertex 1608
property float32 x
property float32 y
property float32 z
property float32 I
end_header
8.0082 3.2591 1.1259 0.9657
6.9941 3.6050 1.0246 0.9688
6.1361 3.8928 0.9463 0.9711
5.4058 4.1502 0.8875 0.9729
3.6697 4.8495 0.7919 0.9758
3.1428 5.0310 0.7725 0.9764
2.5894 5.1108 0.7461 0.9772
2.1054 5.2782 0.7400 0.9773
1.6254 5.4444 0.7399 0.9773
1.1774 5.7872 0.7691 0.9765
0.6615 5.9195 0.7756 0.9763
0.1305 5.9642 0.7769 0.9762
-1.0382 6.5598 0.8649 0.9736
-1.6958 6.7430 0.9054 0.9723
-2.6884 1.5381 0.4033 0.9876
2.3794 -0.8762 0.3302 0.9898
8.3035 3.1493 1.1564 0.9648
7.2479 3.5184 1.0492 0.9680
6.3517 3.8191 0.9651 0.9705
3.8161 4.7991 0.7984 0.9756
3.2817 4.9831 0.7770 0.9762
2.2031 5.1599 0.7306 0.9776
1.7542 5.3998 0.7393 0.9774
0.2715 5.9151 0.7711 0.9764
-0.2660 6.1026 0.7954 0.9757
-1.5216 6.7290 0.8984 0.9726
-2.1833 6.7737 0.9268 0.9717
2.3744 -0.9396 0.3325 0.9898
13.0718 0.9201 1.7064 0.9485
11.6497 1.8763 1.5366 0.9535
10.0620 2.5596 1.3520 0.9590
8.4099 2.9609 1.1610 0.9647
7.5144 3.4275 1.0755 0.9672
5.7824 4.0137 0.9166 0.9720
5.0871 4.2518 0.8634 0.9736
4.4637 4.4656 0.8222 0.9749
2.3641 5.1887 0.7425 0.9773
1.4460 5.6940 0.7650 0.9766
-0.1184 6.0510 0.7881 0.9759
-0.6837 6.2485 0.8185 0.9750
-1.9846 6.7040 0.9105 0.9722
11.5454 1.5763 1.5174 0.9541
7.7947 3.3319 1.1039 0.9664
6.8108 3.6623 1.0070 0.9693
5.9844 3.9446 0.9334 0.9715
5.2657 4.1906 0.8763 0.9732
4.6251 4.4102 0.8322 0.9746
3.5648 4.8856 0.7876 0.9759
2.9332 4.8830 0.7418 0.9773
2.4943 5.1437 0.7444 0.9772
1.5316 5.4769 0.7406 0.9773
1.0707 5.7771 0.7651 0.9766
0.5477 5.8189 0.7611 0.9767
-0.5277 6.1940 0.8095 0.9752
-1.1635 6.6037 0.8732 0.9733
-1.7927 6.6368 0.8952 0.9727
12.0253 1.3489 1.5758 0.9524
9.1078 2.7232 1.2379 0.9624
8.0905 3.2310 1.1345 0.9655
7.0622 3.5818 1.0312 0.9686
4.7906 4.3534 0.8429 0.9742
3.7094 4.8358 0.7937 0.9757
2.6252 5.0984 0.7468 0.9771
1.2142 5.7745 0.7684 0.9765
0.1692 5.9508 0.7752 0.9763
14.6839 0.4235 1.5774 0.9426
11.8546 1.4084 1.2819 0.9531
9.2383 2.8283 1.0375 0.9619
6.9830 3.5993 0.8436 0.9689
6.1869 3.9250 0.7868 0.9710
4.7388 4.3633 0.6917 0.9744
4.0713 4.4839 0.6504 0.9759
3.6653 4.8436 0.6523 0.9759
2.5864 5.1048 0.6145 0.9772
1.6235 5.4381 0.6094 0.9774
0.6607 5.9125 0.6388 0.9764
0.1303 5.9570 0.6398 0.9763
-1.6935 6.7337 0.7456 0.9725
-2.3859 6.8360 0.7775 0.9713
-2.6870 1.5373 0.3324 0.9876
15.5783 0.0754 1.6728 0.9393
12.8964 1.2192 1.3910 0.9492
9.6255 2.6960 1.0734 0.9606
7.2361 3.5126 0.8637 0.9682
5.6341 4.1145 0.7492 0.9723
4.3006 4.5139 0.6695 0.9752
3.8114 4.7933 0.6576 0.9757
3.2778 4.9772 0.6399 0.9763
2.6684 4.9675 0.6055 0.9776
2.2005 5.1539 0.6018 0.9777
1.7522 5.3935 0.6090 0.9774
1.3105 5.7338 0.6316 0.9766
0.8044 5.9096 0.6404 0.9763
-0.8422 6.2961 0.6821 0.9748
-2.1801 6.7639 0.7631 0.9718
-2.6406 1.5960 0.3313 0.9877
11.6468 1.8758 1.2668 0.9536
8.6267 3.0372 0.9821 0.9639
7.5018 3.4218 0.8854 0.9674
6.5663 3.7366 0.8113 0.9701
5.8305 4.0471 0.7621 0.9719
2.8314 4.9804 0.6152 0.9772
2.3613 5.1826 0.6116 0.9773
1.8807 5.3490 0.6089 0.9774
1.4443 5.6874 0.6301 0.9767
0.9416 5.8619 0.6375 0.9764
0.4100 5.8597 0.6308 0.9766
-0.1183 6.0436 0.6491 0.9760
-0.6828 6.2405 0.6741 0.9751
12.9176 -1.7224 1.3994 0.9489
14.5747 0.6750 1.5667 0.9430
8.9726 2.9190 1.0132 0.9628
6.8001 3.6565 0.8291 0.9694
6.0340 3.9773 0.7760 0.9713
4.0099 4.5742 0.6532 0.9758
1.5298 5.4706 0.6100 0.9774
1.0695 5.7704 0.6302 0.9767
-1.7902 6.6275 0.7372 0.9728
12.7670 -2.0151 1.3879 0.9493
12.0575 1.3525 1.3029 0.9524
10.7366 2.1890 1.1766 0.9569
9.3414 2.7931 1.0470 0.9615
8.0762 3.2253 0.9338 0.9656
5.4953 4.1621 0.7402 0.9726
3.7049 4.8300 0.6537 0.9758
2.6222 5.0925 0.6151 0.9772
1.6587 5.4259 0.6093 0.9774
0.7037 5.9446 0.6428 0.9762
0.1690 5.9436 0.6385 0.9764
12.1923 -0.7396 1.0340 0.9521
11.8518 1.4080 1.0103 0.9532
9.2203 2.8227 0.8163 0.9620
6.9719 3.5935 0.6640 0.9690
6.1778 3.9192 0.6193 0.9711
5.4367 4.1739 0.5802 0.9729
4.7326 4.3576 0.5446 0.9745
4.0662 4.4783 0.5121 0.9760
3.6609 4.8378 0.5136 0.9759
2.5834 5.0989 0.4839 0.9773
0.6600 5.9055 0.5030 0.9764
0.1301 5.9498 0.5038 0.9764
-0.4153 6.1397 0.5209 0.9756
-1.0276 6.4930 0.5565 0.9740
11.9952 -1.0169 1.0191 0.9528
11.3217 2.1032 0.9748 0.9548
9.6061 2.6906 0.8445 0.9607
4.2952 4.5082 0.5271 0.9753
3.8068 4.7875 0.5178 0.9757
3.2739 4.9713 0.5039 0.9764
0.8034 5.9027 0.5043 0.9764
-0.2653 6.0875 0.5158 0.9758
-0.8411 6.2881 0.5370 0.9749
-1.5060 6.6599 0.5780 0.9730
-2.1770 6.7542 0.6007 0.9719
11.8062 -1.2868 1.0053 0.9534
12.5539 -0.2404 1.0629 0.9508
13.3564 0.9401 1.1335 0.9477
8.6107 3.0316 0.7728 0.9640
6.5563 3.7309 0.6386 0.9702
5.8222 4.0414 0.6000 0.9719
5.0735 4.2404 0.5597 0.9738
3.8127 4.5657 0.5035 0.9764
1.4426 5.6809 0.4962 0.9767
0.4095 5.8527 0.4967 0.9767
-0.6819 6.2326 0.5308 0.9751
12.3411 -0.5327 1.0457 0.9516
11.5399 1.5756 0.9859 0.9543
7.8438 3.3528 0.7221 0.9663
4.6131 4.3988 0.5396 0.9747
4.0050 4.5685 0.5143 0.9759
-0.5264 6.1784 0.5249 0.9754
-1.1517 6.5363 0.5618 0.9737
12.5374 -1.9789 1.0745 0.9503
12.9460 0.2886 1.0962 0.9493
8.1406 3.2511 0.7420 0.9654
7.0396 3.5703 0.6682 0.9688
5.4877 4.1563 0.5828 0.9727
4.7780 4.3420 0.5465 0.9744
3.1730 5.0061 0.5017 0.9765
2.6191 5.0866 0.4843 0.9773
1.2114 5.7611 0.4984 0.9766
0.1687 5.9364 0.5027 0.9764
10.9518 2.3076 0.6940 0.9561
9.2024 2.8173 0.5968 0.9622
8.0441 3.2737 0.5385 0.9658
6.9609 3.5879 0.4856 0.9691
5.4292 4.1682 0.4244 0.9729
3.1317 5.0133 0.3665 0.9766
2.5804 5.0931 0.3540 0.9774
2.0981 5.2600 0.3512 0.9776
1.6198 5.4257 0.3511 0.9776
0.6592 5.8986 0.3680 0.9765
0.1300 5.9427 0.3686 0.9765
-1.0341 6.5342 0.4102 0.9738
-1.6888 6.7153 0.4294 0.9726
13.7905 -2.4239 0.8683 0.9454
11.8498 0.0574 0.7348 0.9536
12.2778 1.1607 0.7647 0.9518
11.2955 2.0984 0.7124 0.9550
9.5869 2.6852 0.6174 0.9609
6.3233 3.8019 0.4575 0.9709
4.8943 4.2942 0.4038 0.9742
3.8022 4.7817 0.3788 0.9758
3.2700 4.9655 0.3687 0.9765
1.7482 5.3812 0.3509 0.9776
-0.8400 6.2800 0.3929 0.9749
-2.1739 6.7446 0.4394 0.9720
2.3648 -0.9358 0.1577 0.9899
11.5771 1.8646 0.7272 0.9541
9.9990 2.5436 0.6398 0.9595
6.5463 3.7252 0.4671 0.9703
4.4466 4.4485 0.3900 0.9751
3.8081 4.5601 0.3684 0.9765
2.8248 4.9689 0.3544 0.9774
2.3559 5.1708 0.3524 0.9775
1.8764 5.3368 0.3508 0.9776
0.4090 5.8458 0.3634 0.9768
-0.1180 6.0289 0.3739 0.9761
11.3066 -1.5076 0.7073 0.9553
11.6552 -0.5031 0.7234 0.9543
11.5371 1.5752 0.7221 0.9544
10.7678 2.4658 0.6850 0.9567
8.9385 2.9080 0.5829 0.9630
7.8304 3.3471 0.5281 0.9664
4.6072 4.3931 0.3948 0.9748
4.0001 4.5629 0.3763 0.9760
3.5520 4.8681 0.3737 0.9761
2.9229 4.8659 0.3520 0.9775
1.5263 5.4581 0.3514 0.9775
0.5457 5.7983 0.3611 0.9769
0.0265 5.9787 0.3707 0.9763
-0.5257 6.1707 0.3840 0.9755
-1.1590 6.5777 0.4142 0.9736
-1.7853 6.6092 0.4245 0.9729
11.5601 -0.7772 0.7185 0.9546
11.9221 0.2658 0.7395 0.9533
12.0518 1.3519 0.7520 0.9526
10.9239 2.2271 0.6913 0.9563
7.0284 3.5647 0.4887 0.9689
4.7718 4.3364 0.3998 0.9745
3.1693 5.0003 0.3671 0.9766
2.1332 5.2479 0.3513 0.9776
0.7021 5.9307 0.3703 0.9763
11.5834 -0.7026 0.4576 0.9546
11.8462 1.4074 0.4704 0.9534
10.9491 2.3070 0.4412 0.9562
9.1847 2.8118 0.3788 0.9623
8.0302 3.2681 0.3419 0.9659
6.1598 3.9078 0.2876 0.9712
5.4218 4.1625 0.2695 0.9730
4.7204 4.3464 0.2530 0.9746
3.1281 5.0074 0.2328 0.9766
2.5775 5.0872 0.2249 0.9774
0.6584 5.8918 0.2338 0.9765
-1.0328 6.5258 0.2605 0.9739
-1.6872 6.7089 0.2728 0.9727
11.5024 -0.9751 0.4552 0.9548
12.2285 1.1561 0.4843 0.9520
9.5677 2.6798 0.3918 0.9610
6.3139 3.7963 0.2905 0.9709
5.6106 4.0973 0.2739 0.9726
4.8879 4.2885 0.2564 0.9743
3.7976 4.7759 0.2406 0.9759
2.1930 5.1362 0.2202 0.9779
0.8016 5.8890 0.2344 0.9765
-0.8390 6.2720 0.2495 0.9750
2.3621 -0.9347 0.1002 0.9899
11.4255 -1.2453 0.4532 0.9550
11.5493 1.8601 0.4613 0.9543
9.9783 2.5384 0.4060 0.9596
8.5792 3.0205 0.3586 0.9642
7.4646 3.4048 0.3235 0.9677
6.5364 3.7196 0.2966 0.9703
5.8058 4.0300 0.2787 0.9721
2.8216 4.9631 0.2251 0.9774
2.3532 5.1649 0.2238 0.9775
1.4393 5.6679 0.2306 0.9769
0.4085 5.8389 0.2308 0.9768
-0.1178 6.0216 0.2375 0.9762
-0.6802 6.2169 0.2466 0.9753
-1.9735 6.6664 0.2741 0.9726
7.8172 3.3415 0.3352 0.9665
4.6013 4.3875 0.2507 0.9749
3.9952 4.5573 0.2390 0.9760
3.5477 4.8623 0.2373 0.9762
2.4828 5.1200 0.2244 0.9775
2.0024 5.2863 0.2229 0.9776
1.0658 5.7504 0.2306 0.9769
0.5451 5.7915 0.2294 0.9770
-0.5251 6.1630 0.2439 0.9755
-1.7828 6.6001 0.2696 0.9730
11.5586 -0.7771 0.4568 0.9547
9.2867 2.7767 0.3822 0.9619
7.0173 3.5590 0.3103 0.9690
6.1994 3.8763 0.2883 0.9712
2.6131 5.0749 0.2251 0.9774
2.1308 5.2419 0.2231 0.9776
0.1683 5.9223 0.2336 0.9766
15.1096 0.4358 0.2553 0.9413
11.6966 1.3896 0.1990 0.9540
10.9464 2.3065 0.1890 0.9562
5.5293 4.2450 0.1178 0.9725
4.7143 4.3408 0.1083 0.9747
4.0512 4.4618 0.1018 0.9762
3.6478 4.8205 0.1021 0.9761
2.0933 5.2481 0.0954 0.9776
0.6576 5.8849 0.1000 0.9766
-0.4138 6.1170 0.1036 0.9758
-1.0315 6.5175 0.1115 0.9739
-2.3720 6.7963 0.1216 0.9716
-2.6817 1.5342 0.0522 0.9877
2.3828 -0.8774 0.0429 0.9899
15.5009 0.0751 0.2618 0.9399
13.0212 1.2310 0.2209 0.9490
11.2436 2.0887 0.1932 0.9553
9.5487 2.6745 0.1675 0.9611
7.1895 3.4900 0.1350 0.9685
4.8815 4.2830 0.1097 0.9744
4.2791 4.4914 0.1048 0.9755
3.2624 4.9539 0.1002 0.9765
2.6562 4.9446 0.0948 0.9778
2.1905 5.1304 0.0942 0.9779
0.8006 5.8822 0.1003 0.9765
0.2699 5.8800 0.0994 0.9767
-0.2643 6.0652 0.1026 0.9760
18.3028 -0.3505 0.3092 0.9294
14.8100 1.0424 0.2508 0.9423
8.5636 3.0150 0.1534 0.9643
7.4523 3.3992 0.1384 0.9678
6.5266 3.7140 0.1268 0.9704
5.9207 4.1097 0.1217 0.9716
3.7989 4.5491 0.1001 0.9766
3.4020 4.9055 0.1008 0.9764
1.8722 5.3247 0.0953 0.9777
1.4377 5.6615 0.0987 0.9769
0.9373 5.8349 0.0998 0.9766
0.4080 5.8321 0.0988 0.9769
-0.6794 6.2091 0.1055 0.9753
14.8390 0.6872 0.2509 0.9423
11.5317 1.5745 0.1966 0.9545
6.7581 3.6339 0.1296 0.9698
6.1267 4.0384 0.1240 0.9711
3.9903 4.5517 0.1022 0.9761
2.4800 5.1142 0.0960 0.9775
2.0002 5.2803 0.0954 0.9777
1.5229 5.4457 0.0955 0.9776
0.5445 5.7848 0.0981 0.9770
-1.1560 6.5606 0.1125 0.9737
-2.7615 1.5165 0.0532 0.9875
10.9185 2.2260 0.1882 0.9564
6.1974 3.8750 0.1235 0.9712
4.7595 4.3252 0.1086 0.9746
4.1676 4.5300 0.1040 0.9757
3.1619 4.9886 0.0998 0.9766
1.2072 5.7413 0.0991 0.9768
11.6663 1.3860 -0.0661 0.9541
9.1495 2.8011 -0.0539 0.9624
4.7083 4.3352 -0.0360 0.9747
3.1208 4.9958 -0.0332 0.9767
1.6143 5.4072 -0.0318 0.9777
1.1693 5.7474 -0.0330 0.9768
-0.4133 6.1095 -0.0345 0.9758
-2.3686 6.7865 -0.0405 0.9717
-2.6803 1.5335 -0.0174 0.9877
2.3839 -0.8778 -0.0143 0.9899
15.4796 0.0750 -0.0872 0.9400
11.2179 2.0840 -0.0642 0.9554
8.3080 3.1510 -0.0500 0.9651
7.1780 3.4845 -0.0449 0.9686
6.2953 3.7851 -0.0414 0.9710
5.7138 4.1727 -0.0398 0.9721
2.1880 5.1246 -0.0314 0.9780
1.3030 5.7011 -0.0329 0.9769
0.7997 5.8754 -0.0334 0.9766
-0.8368 6.2562 -0.0355 0.9751
-1.5094 6.6750 -0.0385 0.9730
-2.6466 1.5997 -0.0174 0.9877
18.2359 -0.3492 -0.1027 0.9296
7.4401 3.3936 -0.0460 0.9678
6.5168 3.7084 -0.0422 0.9705
5.9124 4.1039 -0.0405 0.9716
5.0466 4.2180 -0.0370 0.9740
4.4299 4.4317 -0.0353 0.9752
3.3980 4.8998 -0.0336 0.9764
2.3479 5.1531 -0.0319 0.9776
1.4361 5.6550 -0.0328 0.9769
0.4076 5.8252 -0.0329 0.9769
-0.6785 6.2013 -0.0351 0.9754
-1.3294 6.6127 -0.0380 0.9734
19.8704 -0.8577 -0.1120 0.9235
8.8882 2.8916 -0.0526 0.9633
7.7909 3.3302 -0.0477 0.9667
6.1180 4.0327 -0.0413 0.9711
5.2232 4.1568 -0.0376 0.9737
3.9854 4.5462 -0.0340 0.9761
2.9128 4.8490 -0.0318 0.9776
2.4771 5.1083 -0.0320 0.9775
1.5211 5.4395 -0.0318 0.9777
1.0634 5.7373 -0.0329 0.9769
-2.5218 6.8396 -0.0410 0.9713
-2.7532 1.5120 -0.0177 0.9875
11.8349 1.3275 -0.0670 0.9535
6.1953 3.8737 -0.0411 0.9712
3.1582 4.9828 -0.0332 0.9767
1.6492 5.3951 -0.0318 0.9777
0.1679 5.9082 -0.0333 0.9766
10.9410 2.3053 -0.3148 0.9562
6.9113 3.5623 -0.2189 0.9694
4.7022 4.3297 -0.1800 0.9747
2.5686 5.0698 -0.1600 0.9775
2.0886 5.2362 -0.1587 0.9777
1.1679 5.7409 -0.1650 0.9768
0.6561 5.8713 -0.1664 0.9766
0.1294 5.9145 -0.1666 0.9766
-0.4128 6.1020 -0.1722 0.9758
-1.6892 6.7167 -0.1950 0.9727
2.3850 -0.8782 -0.0716 0.9899
15.4633 0.0749 -0.4354 0.9400
11.1923 2.0792 -0.3205 0.9555
8.4692 3.2121 -0.2551 0.9644
7.1666 3.4789 -0.2243 0.9686
6.2861 3.7796 -0.2065 0.9711
5.7060 4.1670 -0.1990 0.9721
2.6501 4.9333 -0.1577 0.9778
1.7403 5.3569 -0.1586 0.9777
1.3015 5.6946 -0.1645 0.9769
0.7988 5.8686 -0.1668 0.9766
0.2692 5.8661 -0.1654 0.9768
-0.2637 6.0504 -0.1705 0.9761
-0.8358 6.2483 -0.1775 0.9751
-2.1616 6.7064 -0.1984 0.9722
-2.6479 1.6004 -0.0871 0.9877
2.3544 -0.9317 -0.0713 0.9899
14.7251 1.0364 -0.4157 0.9426
8.5387 3.0063 -0.2549 0.9644
6.5070 3.7028 -0.2108 0.9705
5.9041 4.0982 -0.2024 0.9717
5.0400 4.2124 -0.1850 0.9741
2.3452 5.1473 -0.1593 0.9776
1.4344 5.6486 -0.1641 0.9769
0.9351 5.8215 -0.1660 0.9767
-0.6777 6.1936 -0.1754 0.9754
-1.3176 6.5538 -0.1882 0.9736
10.6761 2.4448 -0.3084 0.9571
6.1093 4.0269 -0.2060 0.9711
5.2162 4.1512 -0.1877 0.9737
2.9094 4.8434 -0.1591 0.9776
1.0621 5.7307 -0.1641 0.9769
0.0263 5.9501 -0.1675 0.9765
-1.7760 6.5749 -0.1918 0.9731
-2.7449 1.5075 -0.0882 0.9875
11.8095 1.3247 -0.3346 0.9536
10.9131 2.2250 -0.3136 0.9564
8.2414 3.2913 -0.2499 0.9651
6.1932 3.8724 -0.2057 0.9712
5.5660 4.2156 -0.1966 0.9724
4.1573 4.5188 -0.1729 0.9757
3.6784 4.7954 -0.1702 0.9761
2.6042 5.0575 -0.1602 0.9775
2.1197 5.2146 -0.1585 0.9777
0.6988 5.9032 -0.1674 0.9765
0.1677 5.9012 -0.1662 0.9767
15.0962 0.4354 -0.7659 0.9413
11.6061 1.3789 -0.5927 0.9543
10.9181 2.3005 -0.5659 0.9563
9.1145 2.7903 -0.4834 0.9625
8.1360 3.3111 -0.4455 0.9654
6.9006 3.5568 -0.3937 0.9694
6.2066 3.9375 -0.3728 0.9710
4.6962 4.3241 -0.3237 0.9748
4.0363 4.4453 -0.3045 0.9762
3.6348 4.8033 -0.3055 0.9762
3.1136 4.9842 -0.2980 0.9767
2.0863 5.2303 -0.2856 0.9777
0.6553 5.8645 -0.2993 0.9766
0.1292 5.9075 -0.2997 0.9766
-0.4123 6.0945 -0.3098 0.9758
-1.0275 6.4924 -0.3334 0.9740
-1.6898 6.7192 -0.3514 0.9726
-2.3618 6.7670 -0.3635 0.9717
-5.8595 12.9395 -0.7204 0.9447
-2.6777 1.5319 -0.1565 0.9877
2.3860 -0.8786 -0.1289 0.9899
12.9153 1.2210 -0.6579 0.9494
11.1668 2.0745 -0.5760 0.9555
9.4921 2.6587 -0.4999 0.9613
8.4543 3.2065 -0.4586 0.9644
6.2768 3.7740 -0.3714 0.9711
5.6982 4.1613 -0.3578 0.9721
4.8625 4.2663 -0.3281 0.9744
3.7794 4.7531 -0.3080 0.9760
3.2510 4.9366 -0.2998 0.9766
2.1830 5.1130 -0.2819 0.9780
1.7383 5.3508 -0.2853 0.9777
1.3001 5.6882 -0.2959 0.9769
0.7979 5.8619 -0.3000 0.9766
-0.2634 6.0431 -0.3068 0.9761
-0.8347 6.2404 -0.3193 0.9751
-1.5054 6.6573 -0.3461 0.9730
-2.1586 6.6970 -0.3568 0.9722
-2.6491 1.6011 -0.1570 0.9877
14.6829 1.0335 -0.7465 0.9428
9.8966 2.5176 -0.5179 0.9599
8.5364 3.0054 -0.4590 0.9644
7.4158 3.3825 -0.4134 0.9679
6.4972 3.6973 -0.3791 0.9705
5.8958 4.0925 -0.3640 0.9717
5.0333 4.2068 -0.3327 0.9741
2.8086 4.9403 -0.2882 0.9775
2.3426 5.1414 -0.2865 0.9776
1.8658 5.3066 -0.2853 0.9777
0.4066 5.8116 -0.2955 0.9769
-0.1172 5.9926 -0.3040 0.9763
14.8288 0.6867 -0.7528 0.9423
10.6534 2.4396 -0.5543 0.9572
8.8551 2.8808 -0.4722 0.9634
7.9294 3.3894 -0.4373 0.9661
6.1006 4.0212 -0.3706 0.9712
5.2092 4.1457 -0.3376 0.9737
2.9060 4.8378 -0.2862 0.9777
2.4715 5.0967 -0.2873 0.9776
1.9934 5.2625 -0.2854 0.9777
1.0609 5.7242 -0.2952 0.9770
0.5426 5.7646 -0.2936 0.9771
-1.1515 6.5352 -0.3365 0.9738
-1.7767 6.5774 -0.3455 0.9731
-2.5144 6.8196 -0.3686 0.9713
11.8068 1.3244 -0.6025 0.9535
9.2150 2.7553 -0.4878 0.9622
8.2272 3.2856 -0.4493 0.9651
6.1911 3.8711 -0.3703 0.9712
3.6740 4.7897 -0.3061 0.9761
2.6012 5.0518 -0.2882 0.9775
2.1111 5.1936 -0.2843 0.9778
1.2031 5.7217 -0.2965 0.9769
0.6980 5.8964 -0.3011 0.9765
11.5762 1.3753 -0.8548 0.9543
6.1977 3.9319 -0.5382 0.9710
5.4995 4.2221 -0.5084 0.9726
4.0313 4.4399 -0.4397 0.9762
3.6304 4.7976 -0.4411 0.9762
3.1100 4.9785 -0.4304 0.9767
2.5628 5.0583 -0.4158 0.9775
2.0839 5.2244 -0.4124 0.9777
1.6088 5.3889 -0.4124 0.9777
0.6546 5.8577 -0.4322 0.9766
-1.0262 6.4841 -0.4813 0.9740
-1.6880 6.7120 -0.5075 0.9726
-2.3584 6.7573 -0.5248 0.9717
-2.6763 1.5312 -0.2261 0.9877
-16.3467 -8.1790 -1.3402 0.9293
-12.9255 -11.6179 -1.2743 0.9327
-11.7170 -12.5974 -1.2614 0.9333
-9.1934 -14.3313 -1.2484 0.9340
-5.1125 -16.4038 -1.2598 0.9334
-0.6049 -17.8522 -1.3097 0.9309
1.0114 -18.1889 -1.3357 0.9295
2.6930 -18.4464 -1.3669 0.9280
4.4457 -18.6193 -1.4036 0.9261
15.4516 0.0748 -1.1330 0.9399
12.6541 1.1963 -0.9320 0.9503
11.1414 2.0697 -0.8309 0.9556
8.4394 3.2008 -0.6618 0.9644
7.1437 3.4678 -0.5822 0.9687
5.6903 4.1555 -0.5166 0.9721
3.2472 4.9308 -0.4329 0.9766
1.2986 5.6817 -0.4273 0.9769
0.7969 5.8551 -0.4333 0.9766
0.2686 5.8523 -0.4296 0.9768
-0.2630 6.0357 -0.4430 0.9761
-0.8337 6.2325 -0.4610 0.9751
-2.1555 6.6875 -0.5152 0.9722
-2.6503 1.6019 -0.2271 0.9877
-17.6991 -6.4710 -1.3818 0.9272
-14.4091 -10.2600 -1.2970 0.9315
-12.0447 -12.3423 -1.2645 0.9332
-9.5406 -14.1155 -1.2492 0.9340
-8.2326 -14.8941 -1.2478 0.9340
-6.8844 -15.6032 -1.2505 0.9339
-5.4934 -16.2437 -1.2573 0.9335
-4.0562 -16.8155 -1.2683 0.9330
-2.5691 -17.3179 -1.2837 0.9322
2.3520 -0.9307 -0.1855 0.9899
14.6409 1.0305 -1.0762 0.9428
9.8763 2.5124 -0.7472 0.9600
8.5341 3.0046 -0.6634 0.9644
5.8876 4.0867 -0.5255 0.9717
5.0267 4.2013 -0.4804 0.9741
3.7805 4.5271 -0.4325 0.9766
2.8054 4.9346 -0.4162 0.9775
2.3399 5.1356 -0.4138 0.9776
1.4312 5.6358 -0.4263 0.9769
0.9330 5.8081 -0.4313 0.9767
0.4061 5.8048 -0.4267 0.9769
-0.1171 5.9854 -0.4389 0.9763
-1.9598 6.6202 -0.5062 0.9727
-18.9909 -4.5892 -1.4325 0.9246
-17.9776 -6.0881 -1.3917 0.9267
-16.9260 -7.4764 -1.3567 0.9285
-15.8383 -8.7630 -1.3272 0.9300
-14.7160 -9.9553 -1.3027 0.9312
-12.3698 -12.0815 -1.2678 0.9330
-8.6460 -10.1045 -0.9751 0.9481
-9.8850 -13.8946 -1.2503 0.9339
-8.5874 -14.6921 -1.2478 0.9340
0.1363 -18.0178 -1.3211 0.9303
1.7821 -18.3183 -1.3495 0.9288
11.5207 1.5730 -0.8526 0.9544
10.6307 2.4344 -0.7996 0.9572
7.9160 3.3837 -0.6312 0.9661
6.0919 4.0155 -0.5350 0.9712
3.9708 4.5295 -0.4417 0.9761
1.9911 5.2565 -0.4121 0.9777
1.5160 5.4211 -0.4127 0.9777
-0.5218 6.1250 -0.4507 0.9756
-2.5107 6.8096 -0.5322 0.9713
-2.7347 1.5018 -0.2288 0.9876
-19.2557 -4.1670 -1.4446 0.9240
-18.2534 -5.6971 -1.4021 0.9262
-15.0205 -9.6443 -1.3088 0.9309
-12.6924 -11.8152 -1.2715 0.9328
-8.9670 -9.9845 -0.9840 0.9476
-3.3735 -17.0570 -1.2749 0.9326
-1.8620 -17.5267 -1.2923 0.9318
-0.2944 -17.9239 -1.3144 0.9306
1.3342 -18.2455 -1.3414 0.9293
3.0291 -18.4869 -1.3736 0.9276
4.7965 -18.6426 -1.4114 0.9257
6.6428 -18.7050 -1.4554 0.9235
10.9078 2.2239 -0.8162 0.9563
9.1972 2.7500 -0.7039 0.9622
8.1506 3.2551 -0.6435 0.9654
6.1890 3.8698 -0.5352 0.9711
4.7350 4.3029 -0.4691 0.9747
4.1471 4.5077 -0.4491 0.9757
1.2017 5.7152 -0.4282 0.9768
0.6972 5.8896 -0.4349 0.9765
0.1673 5.8872 -0.4318 0.9767
10.8923 2.2951 -1.0687 0.9563
8.1164 3.3032 -0.8413 0.9654
6.8790 3.5457 -0.7430 0.9694
4.6842 4.3130 -0.6113 0.9747
4.0264 4.4344 -0.5750 0.9762
2.5599 5.0525 -0.5438 0.9775
1.6070 5.3828 -0.5393 0.9777
-5.8422 12.9012 -1.3597 0.9447
-2.6755 1.5307 -0.2959 0.9877
-17.8871 1.3005 -1.7218 0.9305
-16.0395 -3.1792 -1.5698 0.9364
-14.5087 -5.7027 -1.4966 0.9393
-13.6696 -6.8395 -1.4674 0.9404
-11.8612 -8.8821 -1.4226 0.9422
-8.2474 -10.6313 -1.2918 0.9474
-7.2434 -11.2914 -1.2879 0.9475
-6.2048 -11.8905 -1.2876 0.9475
-4.0224 -12.9061 -1.2978 0.9471
-2.8770 -13.3215 -1.3084 0.9467
-1.6943 -13.6734 -1.3227 0.9461
4.8268 -14.3821 -1.4564 0.9409
8.3129 -15.1218 -1.6567 0.9330
11.6462 -14.3587 -1.7749 0.9284
13.3876 -13.7819 -1.8446 0.9257
2.3915 -0.8806 -0.2447 0.9898
15.5492 -2.7331 -1.5157 0.9385
12.1748 1.1510 -1.1741 0.9520
7.1323 3.4623 -0.7611 0.9686
6.2583 3.7629 -0.7011 0.9711
5.6393 4.1182 -0.6704 0.9723
4.2526 4.4635 -0.5919 0.9755
3.7704 4.7417 -0.5816 0.9760
3.2434 4.9250 -0.5661 0.9766
2.1781 5.1014 -0.5325 0.9780
1.7344 5.3387 -0.5389 0.9777
0.7960 5.8484 -0.5666 0.9766
-0.8326 6.2246 -0.6029 0.9751
-2.6531 1.6036 -0.2976 0.9876
-18.4628 3.4740 -1.8036 0.9273
-18.0204 1.7456 -1.7381 0.9298
-17.4943 0.1251 -1.6796 0.9321
-16.8942 -1.3929 -1.6274 0.9342
-15.5037 -4.1426 -1.5407 0.9375
-13.8992 -6.5423 -1.4748 0.9401
-13.0274 -7.6216 -1.4490 0.9412
-11.1591 -9.5564 -1.4105 0.9427
-9.4710 -9.7050 -1.3019 0.9470
-7.5161 -11.1203 -1.2886 0.9475
-6.4868 -11.7358 -1.2873 0.9475
-4.3234 -12.7841 -1.2956 0.9472
-2.0154 -13.5853 -1.3185 0.9463
-0.8045 -13.8895 -1.3357 0.9456
3.0715 -14.3828 -1.4120 0.9426
4.4495 -14.3936 -1.4464 0.9413
6.3037 -15.3693 -1.5948 0.9354
7.8811 -15.1884 -1.6428 0.9336
9.5089 -14.8988 -1.6969 0.9314
11.1873 -14.4900 -1.7575 0.9291
14.5990 1.0275 -1.4050 0.9429
6.4777 3.6861 -0.7155 0.9705
2.8021 4.9290 -0.5443 0.9775
2.3372 5.1297 -0.5412 0.9776
1.8616 5.2946 -0.5388 0.9777
1.4296 5.6294 -0.5576 0.9769
0.9319 5.8014 -0.5641 0.9767
0.4057 5.7980 -0.5580 0.9769
-0.1170 5.9782 -0.5740 0.9763
-0.6751 6.1704 -0.5959 0.9754
-1.9571 6.6109 -0.6619 0.9727
-17.6431 0.5497 -1.6946 0.9315
-15.7036 -3.7948 -1.5510 0.9371
-14.1255 -6.2394 -1.4825 0.9398
-12.3626 -8.3632 -1.4329 0.9418
-11.4190 -9.3135 -1.4147 0.9425
-8.6003 -10.0511 -1.2700 0.9482
-7.7864 -10.9448 -1.2895 0.9475
-4.6219 -12.6577 -1.2937 0.9473
10.7321 -14.6120 -1.7405 0.9297
19.3718 -0.8362 -1.8615 0.9250
10.6081 2.4292 -1.0448 0.9572
8.8220 2.8700 -0.8906 0.9634
6.7063 3.6061 -0.7310 0.9699
5.1953 4.1346 -0.6374 0.9737
4.5663 4.3541 -0.6057 0.9750
3.9660 4.5240 -0.5776 0.9761
3.5226 4.8279 -0.5738 0.9763
1.9889 5.2505 -0.5390 0.9777
1.5143 5.4149 -0.5398 0.9777
0.5413 5.7512 -0.5546 0.9771
0.0262 5.9288 -0.5692 0.9765
-0.5212 6.1174 -0.5894 0.9756
-1.7780 6.5823 -0.6546 0.9730
-2.7314 1.5000 -0.2992 0.9876
-18.2689 2.6594 -1.7724 0.9285
-17.7864 0.9816 -1.7102 0.9309
-17.2248 -0.5907 -1.6546 0.9331
-14.3486 -5.9308 -1.4906 0.9395
-13.5006 -7.0521 -1.4623 0.9406
-10.7037 -9.9639 -1.4039 0.9429
-8.9260 -9.9389 -1.2825 0.9477
-5.9981 -12.0003 -1.2880 0.9475
-1.4591 -13.7345 -1.3260 0.9460
-0.2301 -14.0078 -1.3450 0.9453
1.0392 -14.2121 -1.3681 0.9443
2.3503 -14.3437 -1.3954 0.9433
7.0284 -15.2984 -1.6163 0.9346
8.6291 -15.0683 -1.6671 0.9326
13.7329 -13.6526 -1.8591 0.9251
18.7914 -6.5497 -1.9105 0.9231
11.8012 1.3237 -1.1401 0.9534
10.9051 2.2233 -1.0685 0.9563
9.1795 2.7446 -0.9198 0.9622
8.1366 3.2494 -0.8411 0.9654
4.1419 4.5021 -0.5873 0.9757
2.5952 5.0402 -0.5443 0.9775
2.0942 5.1520 -0.5339 0.9779
0.6964 5.8828 -0.5687 0.9765
0.0825 2.9013 -0.2787 0.9884
11.5165 1.3682 -1.3776 0.9544
10.2834 2.1668 -1.2483 0.9586
8.1025 3.2975 -1.0391 0.9654
6.8682 3.5401 -0.9178 0.9694
6.1797 3.9205 -0.8693 0.9710
5.4845 4.2106 -0.8213 0.9725
4.6781 4.3074 -0.7554 0.9747
3.6218 4.7861 -0.7130 0.9761
3.1027 4.9669 -0.6957 0.9767
2.5569 5.0467 -0.6720 0.9775
2.0791 5.2125 -0.6666 0.9776
1.6052 5.3767 -0.6665 0.9777
0.6550 5.8610 -0.7005 0.9765
0.0629 2.8754 -0.3416 0.9885
-1.0236 6.4675 -0.7778 0.9740
-1.6834 6.6938 -0.8199 0.9726
-2.3516 6.7377 -0.8477 0.9717
-14.7857 12.4159 -2.2934 0.9252
-15.2078 10.6083 -2.2026 0.9280
-2.6755 1.5307 -0.3661 0.9877
-15.6096 5.5363 -1.9674 0.9355
-15.2927 2.4993 -1.8407 0.9395
-14.9935 1.0901 -1.7857 0.9412
-14.1594 -1.5102 -1.6915 0.9443
-12.4244 -4.8835 -1.5858 0.9476
-11.7388 -5.8733 -1.5592 0.9485
-11.0062 -6.7987 -1.5367 0.9492
-9.4125 -8.4603 -1.5033 0.9503
-6.2716 -9.7765 -1.3797 0.9543
-5.3725 -10.2956 -1.3795 0.9543
-4.4415 -10.7580 -1.3825 0.9542
-3.4791 -11.1631 -1.3889 0.9540
-1.4617 -11.7961 -1.4119 0.9532
-0.4073 -12.0204 -1.4287 0.9527
3.0705 -12.8596 -1.5705 0.9481
4.4086 -13.1360 -1.6459 0.9457
7.0110 -12.7536 -1.7288 0.9431
8.3513 -12.4177 -1.7776 0.9415
11.0938 -11.4206 -1.8913 0.9379
15.2768 -8.9850 -2.1053 0.9311
2.3947 -0.8818 -0.3031 0.9898
15.5308 -2.7298 -1.8731 0.9385
15.4447 0.0748 -1.8346 0.9397
12.1417 1.1479 -1.4487 0.9521
10.8170 2.0095 -1.3069 0.9567
9.2437 2.5891 -1.1403 0.9621
8.3458 3.1653 -1.0603 0.9647
4.8435 4.2496 -0.7654 0.9744
4.2473 4.4580 -0.7314 0.9755
1.2956 5.6687 -0.6907 0.9768
0.1314 2.8627 -0.3404 0.9885
-0.8316 6.2166 -0.7450 0.9751
-1.4994 6.6307 -0.8075 0.9730
-14.6443 12.9087 -2.3189 0.9244
-15.1103 11.0884 -2.2263 0.9273
-2.6562 1.6054 -0.3687 0.9876
-15.5835 7.6093 -2.0600 0.9325
-15.6200 5.9655 -1.9861 0.9349
-14.2879 -1.1780 -1.7030 0.9439
-13.2207 -3.5325 -1.6255 0.9464
-9.6357 -8.2518 -1.5069 0.9502
-8.7374 -8.9533 -1.4860 0.9509
-7.5184 -9.2259 -1.4137 0.9532
-6.5073 -9.6277 -1.3804 0.9543
-5.6169 -10.1618 -1.3792 0.9543
-3.7404 -11.0601 -1.3869 0.9541
-1.7394 -11.7252 -1.4080 0.9534
0.3834 -12.1437 -1.4432 0.9522
1.4990 -12.3305 -1.4755 0.9512
2.7211 -12.7422 -1.5477 0.9489
5.3478 -13.0386 -1.6740 0.9448
6.6556 -12.8266 -1.7165 0.9435
17.5953 -5.2009 -2.1795 0.9288
18.7591 -3.7633 -2.2727 0.9258
17.9071 -0.3429 -2.1275 0.9304
14.5571 1.0246 -1.7335 0.9429
11.4200 1.8393 -1.3740 0.9545
9.5427 2.4275 -1.1696 0.9611
8.5295 3.0030 -1.0741 0.9642
5.8711 4.0753 -0.8489 0.9716
5.0134 4.1902 -0.7761 0.9740
3.7714 4.5161 -0.6989 0.9766
2.7989 4.9233 -0.6727 0.9774
2.3346 5.1239 -0.6688 0.9776
1.4279 5.6230 -0.6891 0.9769
0.9308 5.7947 -0.6972 0.9766
-0.6743 6.1626 -0.7364 0.9753
-1.3107 6.5195 -0.7899 0.9736
-15.0014 11.5722 -2.2505 0.9265
-15.5524 8.0618 -2.0809 0.9319
-15.6221 6.3999 -2.0054 0.9343
-15.4166 3.2856 -1.8724 0.9385
-13.9263 -2.0719 -1.6725 0.9449
-13.3779 -3.2328 -1.6348 0.9461
-9.8562 -8.0388 -1.5108 0.9501
-9.0203 -8.8101 -1.4978 0.9505
-7.8085 -9.1257 -1.4267 0.9528
-4.9450 -10.5169 -1.3805 0.9543
-3.9994 -10.9529 -1.3851 0.9541
-3.0226 -11.3310 -1.3930 0.9539
-0.9769 -11.9079 -1.4192 0.9530
5.0016 -13.0798 -1.6634 0.9452
14.5303 -9.5124 -2.0630 0.9324
17.2725 -5.5593 -2.1554 0.9295
18.4536 -4.1648 -2.2472 0.9266
19.5623 -2.6084 -2.3443 0.9236
19.2960 -0.8329 -2.2942 0.9252
14.8186 0.6863 -1.7621 0.9420
11.5152 1.5722 -1.3805 0.9543
8.7713 2.8536 -1.0957 0.9635
7.6511 3.2705 -0.9884 0.9670
6.0745 4.0040 -0.8642 0.9711
4.5605 4.3486 -0.7485 0.9749
3.9611 4.5184 -0.7138 0.9761
2.8960 4.8210 -0.6680 0.9776
2.4631 5.0793 -0.6705 0.9775
1.9866 5.2446 -0.6662 0.9777
1.5125 5.4087 -0.6671 0.9776
1.0573 5.7045 -0.6892 0.9769
0.0130 2.9328 -0.3484 0.9883
-0.5205 6.1098 -0.7284 0.9756
-1.7787 6.5849 -0.8102 0.9729
-2.5034 6.7897 -0.8596 0.9713
-15.2718 10.2615 -2.1856 0.9286
-15.6156 6.8391 -2.0250 0.9336
-15.5969 5.2273 -1.9540 0.9359
-12.2945 -5.0817 -1.5803 0.9478
-10.8581 -6.9718 -1.5328 0.9494
-8.1153 -9.0361 -1.4427 0.9523
-4.2562 -10.8416 -1.3835 0.9542
-3.2877 -11.2353 -1.3906 0.9539
-2.2883 -11.5703 -1.4010 0.9536
-1.2584 -11.8448 -1.4149 0.9532
-0.1980 -12.0567 -1.4324 0.9526
0.8923 -12.2034 -1.4535 0.9519
2.0509 -12.5166 -1.5066 0.9502
3.3312 -12.9472 -1.5880 0.9476
4.6575 -13.1146 -1.6532 0.9455
7.2706 -12.6960 -1.7379 0.9428
11.3647 -11.2983 -1.9036 0.9375
12.7587 -10.5958 -1.9700 0.9354
15.5472 -8.7827 -2.1211 0.9306
16.9203 -7.6537 -2.2060 0.9279
11.7984 1.3234 -1.4103 0.9533
10.4146 2.1233 -1.2626 0.9581
9.0408 2.7032 -1.1209 0.9627
8.1225 3.2438 -1.0389 0.9654
6.1848 3.8672 -0.8665 0.9710
4.7228 4.2918 -0.7580 0.9746
3.6609 4.7725 -0.7145 0.9761
3.1399 4.9539 -0.6967 0.9767
2.0858 5.1313 -0.6580 0.9779
1.1990 5.7021 -0.6921 0.9768
0.0815 2.8673 -0.3407 0.9885
16.4655 -0.9988 -2.3373 0.9355
14.9692 0.4317 -2.1219 0.9413
11.4866 1.3647 -1.6390 0.9543
6.8055 3.5078 -1.0848 0.9695
4.6721 4.3019 -0.8999 0.9747
4.0164 4.4234 -0.8466 0.9762
3.6174 4.7804 -0.8494 0.9761
1.1613 5.7081 -0.8253 0.9767
0.6556 5.8667 -0.8364 0.9764
0.0627 2.8651 -0.4060 0.9885
-0.4103 6.0645 -0.8612 0.9757
-1.0222 6.4591 -0.9266 0.9739
-2.3250 6.6616 -0.9997 0.9719
-5.7742 12.7511 -1.9833 0.9450
-9.0191 15.9503 -2.5963 0.9286
-10.9344 13.1553 -2.4238 0.9332
-12.2309 10.2706 -2.2630 0.9375
-12.6669 8.8358 -2.1883 0.9395
-13.1607 6.0397 -2.0517 0.9432
-13.2136 3.3939 -1.9330 0.9464
-13.0971 2.1404 -1.8803 0.9478
-12.8961 0.9376 -1.8321 0.9491
-11.3835 -3.3362 -1.6808 0.9532
-10.8565 -4.2672 -1.6528 0.9540
-10.2791 -5.1431 -1.6286 0.9546
-9.6550 -5.9640 -1.6080 0.9552
-8.9873 -6.7300 -1.5909 0.9557
-6.7492 -8.7001 -1.5601 0.9565
-5.9318 -9.2469 -1.5566 0.9566
-5.0815 -9.7380 -1.5563 0.9566
-3.2880 -10.5500 -1.5657 0.9563
-2.3472 -10.8683 -1.5754 0.9561
0.6368 -11.4518 -1.6251 0.9547
1.6810 -11.5145 -1.6488 0.9541
2.7473 -11.5062 -1.6761 0.9533
3.8339 -11.4236 -1.7073 0.9525
4.9382 -11.2625 -1.7424 0.9515
6.0573 -11.0187 -1.7816 0.9505
7.1876 -10.6875 -1.8249 0.9493
9.4637 -9.7425 -1.9245 0.9466
10.5977 -9.1181 -1.9809 0.9451
12.8189 -7.5394 -2.1072 0.9417
2.3978 -0.8830 -0.3620 0.9897
14.7283 -3.9718 -2.1614 0.9402
15.5508 -2.7334 -2.2372 0.9382
15.4412 0.0748 -2.1879 0.9395
11.0651 2.0556 -1.5946 0.9556
9.2626 2.5944 -1.3629 0.9619
6.2398 3.7517 -1.0316 0.9710
4.8372 4.2440 -0.9118 0.9743
3.7613 4.7302 -0.8563 0.9759
1.2941 5.6622 -0.8230 0.9768
-0.2621 6.0136 -0.8529 0.9760
-1.4863 6.5729 -0.9548 0.9731
-9.7947 14.9481 -2.5322 0.9303
-11.4775 12.1027 -2.3633 0.9348
-12.0908 10.6578 -2.2837 0.9370
-2.6593 1.6073 -0.4403 0.9875
-13.1217 6.4072 -2.0690 0.9427
-13.2273 5.0517 -2.0062 0.9444
-13.2295 3.7384 -1.9479 0.9460
-12.9579 1.2552 -1.8446 0.9488
-12.3694 -1.0198 -1.7586 0.9511
-11.9729 -2.0760 -1.7217 0.9521
-9.8268 -5.7491 -1.6131 0.9550
-9.1706 -6.5299 -1.5951 0.9555
-8.4729 -7.2559 -1.5806 0.9559
-7.7362 -7.9273 -1.5694 0.9562
-6.9627 -8.5440 -1.5617 0.9564
-6.1544 -9.1056 -1.5572 0.9566
-4.4394 -10.0617 -1.5582 0.9565
-2.6024 -10.7888 -1.5725 0.9562
0.3606 -11.4234 -1.6194 0.9549
2.4592 -11.5156 -1.6684 0.9535
4.6403 -11.3136 -1.7326 0.9518
5.7557 -11.0925 -1.7707 0.9508
12.5266 -7.7778 -2.0892 0.9422
15.3380 -3.0770 -2.2165 0.9388
16.0981 -1.7546 -2.2944 0.9367
16.7571 -0.3209 -2.3747 0.9345
14.5152 1.0217 -2.0617 0.9429
7.2092 3.2883 -1.1227 0.9685
6.4581 3.6750 -1.0528 0.9704
5.8628 4.0695 -1.0112 0.9716
5.0067 4.1846 -0.9246 0.9740
4.3965 4.3983 -0.8811 0.9752
3.7668 4.5106 -0.8327 0.9765
3.3741 4.8653 -0.8389 0.9764
2.3319 5.1180 -0.7969 0.9775
1.8574 5.2826 -0.7934 0.9776
1.4263 5.6165 -0.8211 0.9769
0.2019 2.8861 -0.4099 0.9884
-0.6734 6.1548 -0.8773 0.9753
-8.3945 16.6637 -2.6437 0.9274
-10.4834 13.9203 -2.4691 0.9320
-11.2878 12.4896 -2.3853 0.9343
-13.0746 6.7774 -2.0866 0.9422
-13.0140 1.5766 -1.8574 0.9484
-10.5950 -4.6799 -1.6411 0.9543
-9.3508 -6.3258 -1.5996 0.9554
-8.6640 -7.0665 -1.5841 0.9558
-7.9376 -7.7526 -1.5721 0.9562
-7.1738 -8.3839 -1.5634 0.9564
-6.3746 -8.9603 -1.5581 0.9565
-5.5418 -9.4814 -1.5561 0.9566
-4.6768 -9.9465 -1.5573 0.9566
-3.7810 -10.3548 -1.5619 0.9564
1.1178 -11.4894 -1.6356 0.9544
3.2485 -11.4774 -1.6901 0.9530
4.3435 -11.3589 -1.7231 0.9521
6.5799 -10.8764 -1.8011 0.9499
7.7141 -10.5030 -1.8464 0.9487
8.8528 -10.0347 -1.8960 0.9474
9.9903 -9.4663 -1.9500 0.9459
11.1195 -8.7924 -2.0085 0.9443
14.2567 -4.5887 -2.1221 0.9413
15.1192 -3.4123 -2.1961 0.9393
14.8152 0.6861 -2.1014 0.9418
11.5125 1.5718 -1.6463 0.9541
8.5633 2.7859 -1.2759 0.9643
7.4171 3.1705 -1.1429 0.9679
6.6657 3.5843 -1.0723 0.9699
4.5546 4.3430 -0.8917 0.9749
3.9562 4.5129 -0.8503 0.9760
2.4602 5.0734 -0.7989 0.9775
1.0561 5.6979 -0.8211 0.9769
0.0130 2.9492 -0.4179 0.9882
-2.4639 6.6825 -1.0091 0.9716
-9.2345 15.6861 -2.5791 0.9291
-11.0872 12.8755 -2.4075 0.9337
-11.7798 11.4333 -2.3260 0.9358
-12.3266 9.9895 -2.2481 0.9379
-13.2406 4.4376 -1.9786 0.9451
-13.1979 3.1455 -1.9224 0.9467
-13.0643 1.9017 -1.8706 0.9481
-12.5553 -0.4306 -1.7800 0.9505
-11.7683 -2.5467 -1.7060 0.9525
-10.7477 -4.4424 -1.6478 0.9541
-8.1362 -7.5739 -1.5750 0.9561
-7.3822 -8.2199 -1.5654 0.9563
-6.5924 -8.8111 -1.5592 0.9565
-4.0243 -10.2509 -1.5604 0.9565
-3.1067 -10.6167 -1.5674 0.9563
-2.1604 -10.9234 -1.5777 0.9560
0.8387 -11.4694 -1.6294 0.9546
1.8873 -11.5185 -1.6538 0.9539
2.9578 -11.4961 -1.6819 0.9532
6.2770 -10.9611 -1.7897 0.9503
7.4091 -10.6122 -1.8338 0.9491
8.5471 -10.1699 -1.8823 0.9477
13.0300 -7.3608 -2.1204 0.9413
14.8948 -3.7393 -2.1759 0.9398
15.7016 -2.4783 -2.2523 0.9378
11.6502 1.3068 -1.6611 0.9537
7.6874 3.0701 -1.1729 0.9671
5.5282 4.1869 -0.9826 0.9724
4.7167 4.2862 -0.9030 0.9746
4.1317 4.4909 -0.8646 0.9756
3.6565 4.7668 -0.8512 0.9760
3.1362 4.9481 -0.8301 0.9766
2.5893 5.0286 -0.8014 0.9774
2.0818 5.1214 -0.7833 0.9779
0.6948 5.8690 -0.8374 0.9764
0.0812 2.8558 -0.4048 0.9885
14.2153 0.4100 -2.3428 0.9440
11.4628 1.3618 -1.9017 0.9543
10.5525 2.2235 -1.7766 0.9572
7.7262 3.1443 -1.3742 0.9667
6.6517 3.4285 -1.2328 0.9701
5.2277 4.0135 -1.0857 0.9736
4.6660 4.2963 -1.0449 0.9746
4.0114 4.4179 -0.9831 0.9761
3.0955 4.9552 -0.9625 0.9766
2.5510 5.0350 -0.9299 0.9774
2.0744 5.2005 -0.9224 0.9776
0.0635 2.9039 -0.4785 0.9883
-2.2763 6.5221 -1.1380 0.9724
-5.7521 12.7024 -2.2971 0.9450
-6.9778 12.3401 -2.3354 0.9442
-8.4317 12.2181 -2.4456 0.9416
-9.8788 9.9287 -2.3074 0.9448
-10.4191 8.7492 -2.2413 0.9463
-10.8435 7.5639 -2.1780 0.9478
-11.3683 5.2172 -2.0606 0.9506
-11.4818 4.0723 -2.0069 0.9518
-11.5047 2.9550 -1.9568 0.9530
-11.3046 0.8219 -1.8672 0.9551
-11.0937 -0.1868 -1.8278 0.9560
-9.1358 -4.5710 -1.6829 0.9594
-6.7227 -7.2278 -1.6261 0.9608
-6.0267 -7.7687 -1.6198 0.9609
-3.7504 -9.0842 -1.6190 0.9609
-2.0938 -9.6947 -1.6339 0.9606
-0.3415 -10.0784 -1.6613 0.9599
0.5661 -10.1805 -1.6797 0.9595
3.3892 -10.0987 -1.7548 0.9577
4.3550 -9.9326 -1.7867 0.9570
6.3037 -9.3731 -1.8608 0.9552
7.2777 -8.9727 -1.9033 0.9542
9.1977 -7.9136 -1.9989 0.9520
2.4010 -0.8841 -0.4215 0.9897
12.4925 -3.3689 -2.1315 0.9489
14.1134 0.0683 -2.3251 0.9444
11.0396 2.0508 -1.8498 0.9555
9.3981 2.6323 -1.6078 0.9612
8.0580 3.0562 -1.4197 0.9657
6.9223 3.3603 -1.2676 0.9693
6.0446 3.6344 -1.1619 0.9718
5.3838 3.9317 -1.0982 0.9733
4.2366 4.4468 -1.0118 0.9754
3.2319 4.9076 -0.9681 0.9765
2.6318 4.8993 -0.9162 0.9777
1.7285 5.3204 -0.9216 0.9776
0.7932 5.8279 -0.9689 0.9764
0.1260 2.7453 -0.4527 0.9889
-0.2618 6.0062 -0.9904 0.9759
-1.8054 5.6012 -0.9695 0.9764
-5.7350 13.5185 -2.4191 0.9422
-6.7305 12.5990 -2.3531 0.9437
-8.1993 12.5133 -2.4645 0.9412
-9.7135 10.2426 -2.3255 0.9444
-10.2858 9.0667 -2.2588 0.9459
-10.7407 7.8819 -2.1947 0.9474
-11.3217 5.5283 -2.0756 0.9502
-11.4605 4.3770 -2.0210 0.9515
-10.1930 -2.7235 -1.7381 0.9581
-8.7430 -5.1150 -1.6687 0.9598
-7.5552 -6.4701 -1.6387 0.9605
-4.7454 -8.5852 -1.6160 0.9610
-3.9647 -8.9857 -1.6180 0.9610
-3.1563 -9.3330 -1.6231 0.9608
-2.3219 -9.6256 -1.6312 0.9607
-1.4631 -9.8621 -1.6425 0.9604
-0.5816 -10.0406 -1.6569 0.9600
3.1317 -10.1309 -1.7469 0.9579
4.0951 -9.9843 -1.7778 0.9572
5.0664 -9.7640 -1.8122 0.9564
7.0168 -9.0884 -1.8915 0.9545
7.9862 -8.6261 -1.9366 0.9535
8.9437 -8.0764 -1.9852 0.9523
10.7937 -6.7019 -2.0930 0.9498
12.3116 -3.6391 -2.1150 0.9493
12.9595 -2.5998 -2.1775 0.9478
13.5280 -1.4745 -2.2418 0.9463
9.7951 2.4918 -1.6650 0.9599
7.2016 3.2849 -1.3040 0.9684
5.5425 3.8472 -1.1115 0.9730
4.9638 4.1487 -1.0657 0.9741
4.3909 4.3927 -1.0232 0.9751
3.7622 4.5051 -0.9669 0.9765
2.7924 4.9118 -0.9308 0.9774
1.8552 5.2765 -0.9214 0.9776
1.4246 5.6101 -0.9535 0.9768
-0.1165 5.9564 -0.9814 0.9761
-0.6674 6.0998 -1.0109 0.9754
-6.4748 12.8530 -2.3709 0.9433
-10.1440 9.3836 -2.2765 0.9455
-11.4326 4.6836 -2.0353 0.9511
-11.5033 3.5507 -1.9833 0.9524
-11.2155 0.3494 -1.8485 0.9555
-10.6665 -1.5869 -1.7765 0.9572
-10.3006 -2.4892 -1.7458 0.9579
-9.8799 -3.3458 -1.7184 0.9586
-8.8898 -4.9186 -1.6737 0.9596
-6.4044 -7.4847 -1.6228 0.9609
-4.9499 -8.4688 -1.6160 0.9610
-3.3758 -9.2451 -1.6214 0.9609
-2.5482 -9.5526 -1.6287 0.9607
-0.8202 -9.9985 -1.6527 0.9601
1.9266 -10.2158 -1.7126 0.9587
2.8751 -10.1581 -1.7392 0.9581
3.8357 -10.0308 -1.7692 0.9574
4.8052 -9.8305 -1.8026 0.9566
6.7556 -9.1979 -1.8800 0.9548
7.7270 -8.7586 -1.9241 0.9538
9.6327 -7.6168 -2.0230 0.9514
12.1260 -3.9029 -2.0986 0.9497
12.7929 -2.8873 -2.1605 0.9482
13.8858 -0.5994 -2.2897 0.9452
14.2843 0.6615 -2.3557 0.9437
10.2217 2.3407 -1.7275 0.9584
8.7722 2.8539 -1.5197 0.9633
5.7042 3.7599 -1.1255 0.9727
5.1157 4.0713 -1.0771 0.9738
3.5100 4.8106 -0.9810 0.9761
2.8892 4.8097 -0.9243 0.9775
2.4574 5.0676 -0.9278 0.9774
1.9821 5.2326 -0.9218 0.9776
1.0548 5.6913 -0.9536 0.9768
0.0262 5.9074 -0.9732 0.9763
-0.5171 6.0699 -1.0036 0.9756
-1.5691 5.8087 -0.9912 0.9759
-6.0514 12.7658 -2.3273 0.9443
-9.3563 10.8654 -2.3621 0.9435
-11.3979 4.9919 -2.0499 0.9508
-11.4932 3.8519 -1.9969 0.9520
-10.4044 -2.2515 -1.7537 0.9578
-9.5397 -3.9431 -1.7005 0.9590
-5.1523 -8.3487 -1.6162 0.9610
-4.3872 -8.7774 -1.6165 0.9610
-3.5934 -9.1534 -1.6200 0.9609
-2.7728 -9.4755 -1.6264 0.9608
-1.9268 -9.7423 -1.6360 0.9605
2.6193 -10.1803 -1.7317 0.9583
3.5769 -10.0720 -1.7608 0.9576
4.5444 -9.8916 -1.7933 0.9568
5.5181 -9.6359 -1.8293 0.9560
7.4671 -8.8848 -1.9120 0.9540
8.4317 -8.3825 -1.9587 0.9529
9.3814 -7.7911 -2.0090 0.9518
11.2044 -6.3294 -2.1200 0.9492
12.6208 -3.1684 -2.1437 0.9486
13.7607 -0.9251 -2.2721 0.9456
14.1883 0.3163 -2.3380 0.9441
11.6195 1.3034 -1.9262 0.9537
10.6816 2.1777 -1.7959 0.9568
9.1260 2.7287 -1.5692 0.9621
5.8961 3.6867 -1.1456 0.9722
2.1091 5.1885 -0.9227 0.9776
1.6362 5.3524 -0.9220 0.9776
1.1962 5.6890 -0.9577 0.9767
0.6940 5.8621 -0.9725 0.9764
0.0785 2.7625 -0.4553 0.9889
10.5291 2.2185 -2.0225 0.9572
9.0096 2.7582 -1.7710 0.9624
6.8029 3.5065 -1.4386 0.9693
5.1472 3.9517 -1.2197 0.9739
3.9628 4.3644 -1.1080 0.9763
3.6087 4.7688 -1.1241 0.9760
3.0918 4.9493 -1.0969 0.9765
2.5219 4.9775 -1.0488 0.9775
2.0530 5.1468 -1.0415 0.9777
1.5829 5.3020 -1.0400 0.9777
-0.9603 6.0679 -1.1547 0.9753
-2.3240 6.6588 -1.3256 0.9717
-5.1296 11.3276 -2.3373 0.9506
-5.9764 10.5692 -2.2822 0.9518
-6.7290 9.7508 -2.2268 0.9529
-7.3858 8.8860 -2.1718 0.9541
-9.4701 6.6059 -2.1703 0.9541
-2.6753 1.5306 -0.5793 0.9875
-10.1283 3.5922 -2.0199 0.9572
-9.3785 -1.8589 -1.7971 0.9618
-9.0398 -2.6493 -1.7706 0.9624
-8.6509 -3.4003 -1.7471 0.9629
-8.2153 -4.1104 -1.7266 0.9633
-4.0978 -7.8527 -1.6649 0.9646
-2.6484 -8.4976 -1.6730 0.9644
-1.1073 -8.9364 -1.6925 0.9640
-0.3075 -9.0747 -1.7067 0.9637
1.3401 -9.1797 -1.7437 0.9629
5.6087 -8.3398 -1.8891 0.9599
6.4592 -7.9636 -1.9273 0.9591
7.2974 -7.5123 -1.9685 0.9583
8.1173 -6.9841 -2.0127 0.9574
9.6743 -5.6899 -2.1096 0.9553
10.3953 -4.9224 -2.1619 0.9543
10.8354 -2.9220 -2.1094 0.9554
11.7591 -0.9969 -2.2182 0.9531
12.0956 0.0586 -2.2735 0.9520
9.3792 2.6270 -1.8308 0.9611
8.1120 3.0767 -1.6307 0.9653
7.0840 3.4388 -1.4801 0.9685
6.1280 3.6845 -1.3440 0.9713
4.6804 4.1065 -1.1703 0.9750
4.1050 4.3086 -1.1186 0.9761
2.6480 4.9295 -1.0518 0.9775
1.7094 5.2616 -1.0399 0.9777
1.2359 5.4073 -1.0426 0.9777
0.7542 5.5409 -1.0511 0.9775
0.1242 2.7070 -0.5093 0.9890
-1.4160 6.2621 -1.2067 0.9742
-5.7583 10.7791 -2.2970 0.9515
-6.5364 9.9755 -2.2417 0.9526
-7.2190 9.1219 -2.1865 0.9538
-8.9411 7.8814 -2.2403 0.9526
-9.3712 6.8769 -2.1848 0.9538
-2.6656 1.6111 -0.5854 0.9874
-10.1012 3.8578 -2.0324 0.9569
-9.9405 0.0711 -1.8685 0.9603
-9.7299 -0.8022 -1.8351 0.9610
-9.1357 -2.4410 -1.7774 0.9622
-8.7599 -3.2027 -1.7531 0.9628
-7.8688 -4.6036 -1.7135 0.9636
-7.3597 -5.2404 -1.6982 0.9639
-6.2283 -6.3822 -1.6762 0.9644
-4.9624 -7.3420 -1.6656 0.9646
-3.5791 -8.1118 -1.6665 0.9646
-2.8485 -8.4228 -1.6712 0.9645
-1.3188 -8.8899 -1.6892 0.9641
0.2885 -9.1401 -1.7188 0.9635
1.9558 -9.1585 -1.7602 0.9626
3.6616 -8.9276 -1.8137 0.9615
7.8995 -7.1335 -2.0006 0.9576
8.7018 -6.5477 -2.0469 0.9566
9.4735 -5.8822 -2.0960 0.9556
10.2064 -5.1362 -2.1476 0.9546
11.2083 -2.2485 -2.1487 0.9545
12.2804 0.8644 -2.3140 0.9511
11.5409 1.8587 -2.1972 0.9535
9.7747 2.4866 -1.8958 0.9598
8.4242 2.9659 -1.6787 0.9643
7.3427 3.3492 -1.5169 0.9677
4.8443 4.0489 -1.1867 0.9746
4.2544 4.2562 -1.1311 0.9758
3.3660 4.8536 -1.1102 0.9762
2.7744 4.8802 -1.0552 0.9774
2.3045 5.0579 -1.0447 0.9776
1.8355 5.2204 -1.0401 0.9777
0.8845 5.5062 -1.0482 0.9776
-0.6517 5.9560 -1.1262 0.9759
-1.2442 6.1884 -1.1865 0.9746
-1.6452 5.5574 -1.0894 0.9767
-4.6376 11.7050 -2.3665 0.9500
-6.3370 10.1966 -2.2565 0.9523
-7.0453 9.3551 -2.2013 0.9535
-8.8088 8.1485 -2.2555 0.9523
-9.2654 7.1474 -2.1995 0.9535
-9.8909 5.1271 -2.0940 0.9557
-10.0681 4.1246 -2.0451 0.9567
-10.1756 2.1686 -1.9556 0.9585
-10.1156 1.2255 -1.9152 0.9594
-9.5382 -1.4190 -1.8125 0.9615
-9.2280 -2.2300 -1.7844 0.9621
-8.4546 -3.7345 -1.7373 0.9631
-7.9984 -4.4254 -1.7182 0.9635
-7.5002 -5.0738 -1.7020 0.9638
-6.9626 -5.6788 -1.6888 0.9641
-6.3883 -6.2394 -1.6785 0.9643
-5.1394 -7.2241 -1.6664 0.9646
-3.7709 -8.0199 -1.6657 0.9646
-2.2989 -8.6180 -1.6765 0.9643
-0.7389 -9.0073 -1.6987 0.9639
0.0690 -9.1197 -1.7142 0.9636
2.5767 -9.1039 -1.7784 0.9622
3.4315 -8.9737 -1.8058 0.9617
5.1492 -8.5115 -1.8698 0.9603
6.8494 -7.7639 -1.9460 0.9587
7.6800 -7.2772 -1.9887 0.9579
8.4892 -6.7126 -2.0342 0.9569
9.2699 -6.0686 -2.0825 0.9559
10.6819 -4.5264 -2.1806 0.9539
10.5391 -3.3921 -2.0810 0.9559
12.2190 0.5659 -2.2992 0.9514
11.5069 1.5711 -2.1829 0.9538
7.6121 3.2538 -1.5560 0.9669
5.7457 3.7873 -1.2935 0.9724
4.4073 4.2025 -1.1446 0.9755
2.9012 4.8298 -1.0590 0.9773
2.4303 5.0118 -1.0469 0.9776
1.9615 5.1782 -1.0408 0.9777
0.2794 2.9690 -0.5605 0.9879
0.0253 5.7241 -1.0759 0.9770
-1.0779 6.1176 -1.1676 0.9750
-1.5100 5.5901 -1.0884 0.9767
-5.3020 11.1850 -2.3266 0.9509
-6.1307 10.4138 -2.2714 0.9520
-6.8647 9.5853 -2.2160 0.9531
-7.5027 8.7129 -2.1612 0.9543
-8.6693 8.4142 -2.2708 0.9520
-10.0290 4.3924 -2.0579 0.9564
-10.1444 3.3999 -2.0110 0.9574
-10.1793 2.4261 -1.9669 0.9583
-10.1387 1.4759 -1.9258 0.9592
-9.8505 -0.3378 -1.8526 0.9607
-9.3165 -2.0161 -1.7917 0.9619
-8.9677 -2.7989 -1.7658 0.9625
-8.1251 -4.2441 -1.7230 0.9634
-7.1105 -5.5208 -1.6920 0.9640
-6.5458 -6.0934 -1.6809 0.9643
-5.9463 -6.6211 -1.6727 0.9644
-4.6517 -7.5375 -1.6648 0.9646
-3.9608 -7.9244 -1.6652 0.9646
-2.5018 -8.5496 -1.6744 0.9644
-0.9527 -8.9677 -1.6951 0.9640
0.6702 -9.1656 -1.7274 0.9633
4.0597 -8.8365 -1.8278 0.9612
4.9190 -8.5897 -1.8605 0.9605
5.7753 -8.2722 -1.8963 0.9598
6.6238 -7.8815 -1.9351 0.9590
7.4590 -7.4154 -1.9769 0.9581
9.8185 -5.5465 -2.1196 0.9551
10.5229 -4.7599 -2.1708 0.9541
11.4245 -1.8032 -2.1739 0.9540
11.8319 -0.7955 -2.2290 0.9529
12.1502 0.2708 -2.2843 0.9517
11.5888 1.2999 -2.1919 0.9536
10.6576 2.1728 -2.0444 0.9567
9.1081 2.7233 -1.7868 0.9620
5.9632 3.7286 -1.3219 0.9718
4.5640 4.1475 -1.1591 0.9752
3.1288 4.9364 -1.0985 0.9765
2.5563 4.9645 -1.0496 0.9775
2.0873 5.1349 -1.0419 0.9777
0.6589 5.5656 -1.0534 0.9774
10.5055 2.2136 -2.2694 0.9571
6.8248 3.5177 -1.6230 0.9691
6.0034 3.8086 -1.5028 0.9714
5.2493 4.0300 -1.3989 0.9733
4.5767 4.2141 -1.3151 0.9749
2.0078 5.0337 -1.1455 0.9781
1.0887 5.3516 -1.1544 0.9779
0.6172 5.5234 -1.1748 0.9775
-0.9783 6.1817 -1.3229 0.9747
-4.4674 9.8653 -2.2892 0.9567
-5.2207 9.2328 -2.2420 0.9576
-7.0059 7.0412 -2.0996 0.9602
-8.3975 5.8577 -2.1643 0.9590
-2.6753 1.5305 -0.6515 0.9875
-9.1185 2.3421 -1.9900 0.9622
-9.1151 1.4897 -1.9523 0.9629
-9.0458 0.6577 -1.9171 0.9636
-8.4814 -1.6811 -1.8277 0.9653
-7.8443 -3.0832 -1.7816 0.9661
-7.4574 -3.7313 -1.7627 0.9665
-6.5620 -4.9138 -1.7329 0.9670
-6.0587 -5.4458 -1.7220 0.9672
-4.3564 -6.7909 -1.7054 0.9676
-3.7321 -7.1520 -1.7052 0.9676
-2.4110 -7.7359 -1.7128 0.9674
-1.7183 -7.9562 -1.7205 0.9673
-1.0070 -8.1268 -1.7310 0.9671
1.2154 -8.3253 -1.7785 0.9662
3.5151 -8.0170 -1.8504 0.9648
4.2840 -7.7930 -1.8798 0.9643
6.5397 -6.7324 -1.9840 0.9624
8.6058 -5.0615 -2.1104 0.9600
2.4211 -0.8916 -0.5454 0.9895
9.9679 -1.7521 -2.1393 0.9595
10.5714 0.0512 -2.2346 0.9577
7.0747 3.4343 -1.6623 0.9684
5.4464 3.9774 -1.4256 0.9728
4.7486 4.1663 -1.3353 0.9745
2.5944 4.8298 -1.1589 0.9778
1.6730 5.1497 -1.1446 0.9781
1.2133 5.3086 -1.1511 0.9780
-0.8176 6.1125 -1.3036 0.9751
-1.4438 6.3849 -1.3837 0.9736
-5.0261 9.4085 -2.2548 0.9573
-5.7229 8.7339 -2.2072 0.9582
-6.3399 8.0110 -2.1595 0.9591
-6.8759 7.2504 -2.1122 0.9600
-8.3035 6.0934 -2.1771 0.9588
-2.6688 1.6131 -0.6592 0.9873
-8.8618 4.3272 -2.0846 0.9605
-9.1077 2.5737 -2.0006 0.9620
-9.1226 1.7165 -1.9622 0.9628
-9.0706 0.8787 -1.9263 0.9634
-8.9557 0.0641 -1.8931 0.9640
-7.9406 -2.9032 -1.7872 0.9660
-4.5194 -6.6865 -1.7059 0.9675
-3.9021 -7.0595 -1.7050 0.9676
-1.1996 -8.0860 -1.7279 0.9671
1.0123 -8.3275 -1.7732 0.9663
2.5387 -8.2124 -1.8170 0.9655
4.0781 -7.8593 -1.8716 0.9644
4.8435 -7.5889 -1.9030 0.9639
5.6002 -7.2535 -1.9370 0.9632
7.0674 -6.3820 -2.0129 0.9618
2.3451 -0.9280 -0.5331 0.9897
9.4358 -2.7891 -2.0798 0.9606
10.2248 -1.1144 -2.1741 0.9588
10.5091 -0.2013 -2.2218 0.9579
10.7089 0.7537 -2.2693 0.9571
7.3304 3.3436 -1.7031 0.9676
5.6519 3.9232 -1.4543 0.9723
4.9264 4.1175 -1.3572 0.9741
4.2926 4.2943 -1.2835 0.9755
3.3620 4.8478 -1.2470 0.9762
2.7207 4.7858 -1.1637 0.9777
1.7957 5.1072 -1.1444 0.9781
1.3372 5.2658 -1.1484 0.9780
0.1950 2.7865 -0.5904 0.9886
-0.1138 5.8168 -1.2298 0.9765
-0.6615 6.0459 -1.2856 0.9754
-4.0324 10.1776 -2.3140 0.9562
-5.5437 8.9200 -2.2200 0.9580
-6.7400 7.4576 -2.1248 0.9597
-8.9866 3.6815 -2.0528 0.9611
-9.1253 1.9448 -1.9722 0.9626
-8.8338 -0.5153 -1.8705 0.9645
-8.6188 -1.2822 -1.8419 0.9650
-8.3510 -2.0180 -1.8160 0.9655
-7.6704 -3.3881 -1.7725 0.9663
-6.8173 -4.6118 -1.7398 0.9669
-5.2623 -6.1500 -1.7109 0.9674
-4.0703 -6.9638 -1.7050 0.9676
-3.4342 -7.3039 -1.7060 0.9675
-1.3909 -8.0415 -1.7251 0.9672
3.1018 -8.1116 -1.8357 0.9651
3.8718 -7.9210 -1.8637 0.9646
4.6388 -7.6677 -1.8943 0.9640
6.1456 -6.9661 -1.9636 0.9627
2.3805 -1.0087 -0.5465 0.9895
10.1352 -1.3514 -2.1613 0.9591
10.6641 0.4939 -2.2566 0.9573
10.1774 2.3306 -2.2070 0.9582
6.6543 3.5781 -1.5970 0.9696
5.1108 4.0673 -1.3807 0.9736
4.4552 4.2482 -1.3013 0.9751
3.8715 4.4162 -1.2414 0.9763
3.5015 4.7990 -1.2557 0.9760
2.8481 4.7413 -1.1691 0.9776
2.3785 4.9049 -1.1523 0.9780
1.9185 5.0647 -1.1448 0.9781
1.4606 5.2232 -1.1464 0.9781
0.9977 5.3830 -1.1572 0.9779
0.0125 2.8363 -0.5996 0.9885
-0.5096 5.9816 -1.2690 0.9758
-1.5093 5.5874 -1.2234 0.9766
-2.4885 6.7494 -1.5206 0.9710
-4.6203 9.7468 -2.2800 0.9569
-6.0188 8.4042 -2.1851 0.9586
-7.0967 6.8880 -2.0905 0.9604
-8.0974 6.5621 -2.2031 0.9583
-8.4621 5.6859 -2.1550 0.9592
-2.7149 1.4910 -0.6547 0.9874
-9.1232 2.1744 -1.9825 0.9624
-9.1066 1.3256 -1.9452 0.9631
-8.4278 -1.8238 -1.8227 0.9654
-6.4666 -5.0208 -1.7305 0.9671
-5.9566 -5.5449 -1.7202 0.9673
-4.8394 -6.4680 -1.7075 0.9675
-3.6073 -7.2171 -1.7055 0.9676
-2.9535 -7.5235 -1.7085 0.9675
-2.2774 -7.7827 -1.7141 0.9674
-0.8663 -8.1542 -1.7333 0.9670
-0.1357 -8.2636 -1.7470 0.9668
0.6084 -8.3198 -1.7633 0.9665
3.6654 -7.9782 -1.8559 0.9647
4.4335 -7.7419 -1.8858 0.9642
5.9466 -7.0756 -1.9537 0.9629
8.0797 -5.5708 -2.0745 0.9607
8.7295 -4.9314 -2.1193 0.9598
9.3208 -4.2162 -2.1624 0.9590
9.1809 -3.2000 -2.0552 0.9610
10.0402 -1.5847 -2.1486 0.9593
10.3665 -0.6969 -2.1962 0.9584
10.7706 1.2081 -2.2910 0.9567
10.6335 2.1679 -2.2939 0.9566
9.0901 2.7179 -2.0055 0.9620
7.8818 3.1477 -1.7940 0.9659
6.8962 3.4976 -1.6345 0.9689
4.6231 4.2012 -1.3205 0.9748
4.0223 4.3721 -1.2558 0.9760
3.6431 4.7494 -1.2653 0.9758
2.5032 4.8615 -1.1559 0.9779
2.0414 5.0220 -1.1459 0.9781
1.5837 5.1806 -1.1451 0.9781
1.1228 5.3398 -1.1534 0.9779
0.6523 5.5097 -1.1728 0.9776
9.5332 1.1326 -2.2563 0.9613
7.7894 3.1700 -1.9765 0.9660
5.9944 3.8029 -1.6684 0.9713
5.2821 4.0552 -1.5651 0.9730
4.6475 4.2793 -1.4848 0.9744
4.0534 4.4642 -1.4172 0.9755
3.0844 4.9375 -1.3682 0.9764
1.1053 5.4328 -1.3030 0.9775
-0.4082 6.0340 -1.4214 0.9755
-1.6213 6.4468 -1.5623 0.9731
-4.6298 8.1877 -2.2106 0.9621
-5.7847 6.9596 -2.1269 0.9635
-6.2579 6.2894 -2.0852 0.9642
-2.6752 1.5305 -0.7244 0.9874
-8.0327 3.6863 -2.0772 0.9643
-8.1753 2.8995 -2.0386 0.9650
-8.2628 1.3504 -1.9677 0.9662
-7.9465 -0.8475 -1.8782 0.9677
-7.4745 -2.1906 -1.8306 0.9685
-7.1694 -2.8180 -1.8105 0.9688
-6.4353 -3.9751 -1.7777 0.9694
-6.0116 -4.5017 -1.7651 0.9696
-5.5535 -4.9917 -1.7549 0.9698
-3.9963 -6.2296 -1.7395 0.9700
-2.8278 -6.8494 -1.7416 0.9700
-0.9227 -7.4459 -1.7633 0.9696
-0.2558 -7.5506 -1.7756 0.9694
1.8056 -7.5622 -1.8273 0.9686
5.2601 -6.4853 -1.9625 0.9663
5.9192 -6.0936 -1.9966 0.9657
6.5565 -5.6412 -2.0328 0.9651
7.1663 -5.1278 -2.0710 0.9644
8.2683 -3.9153 -2.1501 0.9631
9.3783 0.0454 -2.2041 0.9622
9.5115 0.8992 -2.2454 0.9615
9.3411 2.6164 -2.2799 0.9609
6.2023 3.7292 -1.7009 0.9707
4.8114 4.2215 -1.5043 0.9740
4.2109 4.4198 -1.4347 0.9752
3.2203 4.8900 -1.3761 0.9762
2.6301 4.8962 -1.3062 0.9774
1.2309 5.3855 -1.2984 0.9776
0.7577 5.5667 -1.3204 0.9772
0.1226 2.6709 -0.6284 0.9891
-0.2607 5.9820 -1.4072 0.9757
-0.8262 6.1765 -1.4646 0.9747
-1.4442 6.3867 -1.5389 0.9735
