ply
format ascii 1.0
element vertex 1589
property float32 x
property float32 y
property float32 z
property float32 I
end_header
-8.3272 -7.4107 -1.5794 0.9560
-7.5818 -8.0721 -1.5691 0.9562
-5.1266 -9.7133 -1.5562 0.9566
-4.2291 -10.1109 -1.5529 0.9567
3.7886 -11.4437 -1.7080 0.9525
4.8942 -11.2856 -1.7429 0.9515
6.0147 -11.0447 -1.7819 0.9505
8.2852 -10.2952 -1.8724 0.9480
11.6836 -8.4244 -2.0409 0.9435
16.0134 -1.4098 -2.2777 0.9371
14.5101 0.0242 -2.0559 0.9431
11.7498 1.0740 -1.6718 0.9535
10.0220 1.8303 -1.4435 0.9597
7.4946 2.8176 -1.1345 0.9682
6.2166 3.7143 -1.0261 0.9712
4.8135 4.2008 -0.9052 0.9745
4.2115 4.3976 -0.8627 0.9757
3.2246 4.8705 -0.8276 0.9767
0.2978 6.2096 -0.8809 0.9752
-0.2686 6.4595 -0.9160 0.9742
-0.9073 6.8837 -0.9838 0.9723
-6.0137 18.7730 -2.7931 0.9235
-8.6753 16.3047 -2.6169 0.9281
-9.7608 14.9483 -2.5296 0.9304
-12.0689 10.6686 -2.2824 0.9370
-12.8897 7.8129 -2.1356 0.9409
-13.2209 5.0665 -2.0061 0.9444
-13.2263 3.7529 -1.9480 0.9460
-13.1368 2.4855 -1.8944 0.9474
-12.7045 0.1020 -1.8001 0.9500
-12.3760 -1.0103 -1.7594 0.9511
-11.9811 -2.0682 -1.7227 0.9521
-11.0133 -4.0190 -1.6611 0.9537
-6.9722 -8.5518 -1.5634 0.9564
-6.1628 -9.1151 -1.5590 0.9565
-5.3199 -9.6227 -1.5579 0.9566
-3.5240 -10.4219 -1.5588 0.9565
-2.6046 -10.8031 -1.5745 0.9561
0.3646 -11.4390 -1.6216 0.9548
2.4677 -11.5306 -1.6708 0.9535
4.6533 -11.3268 -1.7350 0.9517
8.0381 -10.3945 -1.8618 0.9483
13.6012 -6.8259 -2.1562 0.9404
2.3336 -0.9203 -0.3554 0.9899
14.5117 -4.2700 -2.1433 0.9407
11.4134 -2.2743 -1.6490 0.9541
16.1088 -1.7336 -2.2956 0.9366
14.9439 -0.2648 -2.1177 0.9414
10.3976 1.6912 -1.4926 0.9583
8.8355 2.2629 -1.2923 0.9638
7.6992 2.7253 -1.1572 0.9675
4.9391 4.1445 -0.9136 0.9743
4.3488 4.3682 -0.8734 0.9754
1.9746 5.6584 -0.8491 0.9761
0.4748 3.0034 -0.4308 0.9878
0.4151 6.1578 -0.8745 0.9754
-0.1420 6.4037 -0.9076 0.9745
-1.4204 6.9665 -1.0074 0.9717
-7.1335 17.8545 -2.7242 0.9253
-8.4185 16.5899 -2.6359 0.9276
-9.5394 15.2471 -2.5483 0.9299
-11.2983 12.4226 -2.3793 0.9344
-11.9474 10.9811 -2.2992 0.9365
-2.5023 1.9173 -0.4466 0.9873
-12.8257 8.1184 -2.1507 0.9405
-13.0735 6.7205 -2.0828 0.9423
-13.2063 5.3569 -2.0193 0.9441
-13.2335 4.0337 -1.9602 0.9456
-13.0055 1.5273 -1.8554 0.9485
-12.4530 -0.7739 -1.7679 0.9508
-10.5760 -4.7229 -1.6411 0.9543
-9.3276 -6.3671 -1.6002 0.9554
-8.6384 -7.1070 -1.5850 0.9558
-7.9095 -7.7922 -1.5732 0.9561
-7.1431 -8.4225 -1.5648 0.9564
-5.5053 -9.5175 -1.5579 0.9566
-4.6177 -9.9389 -1.5528 0.9567
-3.7197 -10.3357 -1.5564 0.9566
-2.8096 -10.7355 -1.5723 0.9562
0.1424 -11.4125 -1.6171 0.9549
4.4131 -11.3641 -1.7273 0.9519
5.5275 -11.1596 -1.7645 0.9509
6.6548 -10.8696 -1.8058 0.9498
8.9314 -10.0136 -1.9012 0.9472
10.0698 -9.4371 -1.9554 0.9458
11.1991 -8.7545 -2.0141 0.9442
14.3202 -4.5172 -2.1276 0.9411
15.9528 -2.0304 -2.2786 0.9371
14.8320 -0.5507 -2.1030 0.9418
9.1375 2.1524 -1.3301 0.9628
7.9123 2.6293 -1.1814 0.9669
5.8648 3.9206 -0.9996 0.9719
3.5198 4.8930 -0.8540 0.9759
2.9715 5.0240 -0.8270 0.9767
2.4948 5.2362 -0.8218 0.9768
1.5748 5.7876 -0.8499 0.9761
0.5427 3.0485 -0.4387 0.9876
-0.0177 6.3488 -0.8996 0.9747
-1.2679 6.8995 -0.9940 0.9721
-6.8335 18.1156 -2.7433 0.9248
-8.1539 16.8715 -2.6551 0.9271
-9.3104 15.5435 -2.5672 0.9294
-12.7560 8.4250 -2.1660 0.9401
-13.0299 7.0208 -2.0971 0.9420
-13.2361 4.3167 -1.9726 0.9453
-13.1867 3.0288 -1.9171 0.9468
-13.0470 1.7893 -1.8659 0.9482
-12.5269 -0.5349 -1.7765 0.9506
-12.1601 -1.6165 -1.7381 0.9516
-11.7300 -2.6433 -1.7037 0.9526
-11.2418 -3.6150 -1.6732 0.9534
-10.7000 -4.5316 -1.6464 0.9541
-10.1087 -5.3931 -1.6234 0.9548
-8.7912 -6.9514 -1.5880 0.9557
-7.3122 -8.2906 -1.5663 0.9563
-5.6892 -9.4096 -1.5580 0.9565
-3.0086 -10.6486 -1.5679 0.9563
-2.0622 -10.9664 -1.5811 0.9559
-1.0836 -11.2064 -1.5952 0.9555
-0.0787 -11.3828 -1.6129 0.9551
0.9512 -11.4933 -1.6340 0.9545
2.0044 -11.5348 -1.6589 0.9538
2.5987 -10.1939 -1.7330 0.9582
5.5019 -9.6527 -1.8304 0.9560
6.4792 -9.3190 -1.8698 0.9550
8.4196 -8.4009 -1.9594 0.9529
11.1951 -6.3482 -2.1201 0.9492
11.1830 -5.0795 -2.0234 0.9514
13.2258 -2.1060 -2.2063 0.9472
13.7527 -0.9425 -2.2709 0.9456
9.7414 1.9749 -1.6374 0.9605
6.4596 3.2689 -1.1927 0.9711
5.2084 3.9384 -1.0757 0.9739
4.2143 4.5749 -1.0247 0.9751
2.6361 5.1140 -0.9478 0.9769
2.1840 5.3670 -0.9546 0.9768
1.7586 5.7466 -0.9900 0.9759
0.7136 6.0183 -0.9984 0.9757
-0.3904 6.3979 -1.0560 0.9743
-0.9989 6.5899 -1.0980 0.9733
-5.9312 13.3215 -2.4023 0.9426
-9.8274 9.9976 -2.3095 0.9448
-10.3771 8.8206 -2.2436 0.9463
-11.4733 4.1435 -2.0096 0.9518
-11.5033 3.0242 -1.9594 0.9529
-11.3158 0.8858 -1.8699 0.9550
-10.8376 -1.0967 -1.7945 0.9568
-10.1110 -2.9054 -1.7331 0.9582
-9.6659 -3.7412 -1.7075 0.9589
-8.6314 -5.2713 -1.6661 0.9598
-7.4259 -6.6086 -1.6376 0.9605
1.4496 -10.2313 -1.7023 0.9590
3.3490 -10.1160 -1.7555 0.9577
4.3161 -9.9526 -1.7871 0.9570
5.2903 -9.7145 -1.8223 0.9561
7.2430 -9.0002 -1.9032 0.9542
8.2113 -8.5171 -1.9490 0.9532
10.0997 -7.2823 -2.0512 0.9508
11.0040 -6.5249 -2.1075 0.9495
11.7713 -4.3806 -2.0691 0.9504
13.0999 -2.3472 -2.1924 0.9475
13.6465 -1.2014 -2.2568 0.9460
14.0964 0.0235 -2.3222 0.9445
8.7511 2.4230 -1.4959 0.9639
7.5856 2.8518 -1.3350 0.9677
5.8961 3.5228 -1.1315 0.9725
4.7965 4.1860 -1.0488 0.9745
4.2100 4.3961 -1.0027 0.9756
2.7610 5.1104 -0.9569 0.9767
2.2867 5.3214 -0.9542 0.9768
1.8657 5.6991 -0.9879 0.9760
0.4019 2.9064 -0.4834 0.9882
-1.3393 5.9743 -1.0086 0.9755
-5.7053 13.5133 -2.4164 0.9423
-7.2229 13.5749 -2.5332 0.9396
-8.1723 12.5155 -2.4624 0.9412
-8.9950 11.4018 -2.3925 0.9428
-9.6925 10.2506 -2.3240 0.9444
-10.2680 9.0767 -2.2577 0.9460
-10.7262 7.8932 -2.1939 0.9474
-11.3133 5.5411 -2.0753 0.9502
-11.4550 4.3898 -2.0209 0.9515
-11.5042 3.2642 -1.9700 0.9527
-11.4674 2.1697 -1.9227 0.9538
-10.9021 -0.8900 -1.8020 0.9566
-8.7522 -5.1148 -1.6700 0.9597
-8.1784 -5.8183 -1.6535 0.9601
-7.5641 -6.4732 -1.6401 0.9604
-6.9120 -7.0788 -1.6299 0.9607
-6.2244 -7.6346 -1.6228 0.9609
-4.7511 -8.5939 -1.6177 0.9610
-3.1594 -9.3437 -1.6249 0.9608
-2.3235 -9.6371 -1.6331 0.9606
-0.5798 -10.0529 -1.6589 0.9600
2.1869 -10.2186 -1.7215 0.9585
3.1408 -10.1419 -1.7490 0.9579
5.0788 -9.7726 -1.8144 0.9563
6.0557 -9.4735 -1.8523 0.9554
9.8996 -7.4340 -2.0395 0.9511
10.8110 -6.6972 -2.0950 0.9498
12.3244 -3.6264 -2.1164 0.9493
11.3988 -2.2713 -1.9147 0.9540
14.0078 -0.2483 -2.3080 0.9448
11.6994 0.8410 -1.9323 0.9536
10.3758 1.6877 -1.7318 0.9583
9.0076 2.3070 -1.5318 0.9630
6.8191 3.1248 -1.2357 0.9700
6.0462 3.4552 -1.1472 0.9722
1.9723 5.6518 -0.9861 0.9760
0.4570 2.8910 -0.4822 0.9882
-0.7277 6.4907 -1.0760 0.9739
-4.3397 14.5098 -2.4949 0.9405
-7.0005 13.7956 -2.5485 0.9392
-9.5519 10.5024 -2.3387 0.9441
-10.1535 9.3323 -2.2719 0.9456
-2.5008 1.9161 -0.5190 0.9873
-11.2698 5.7933 -2.0875 0.9499
-11.4324 4.6373 -2.0324 0.9512
-11.5011 3.5057 -1.9807 0.9524
-11.3826 1.3367 -1.8881 0.9546
-11.2078 0.3074 -1.8471 0.9556
-10.9636 -0.6813 -1.8096 0.9564
-7.7005 -6.3354 -1.6427 0.9604
-7.0564 -6.9518 -1.6318 0.9606
-5.6624 -8.0348 -1.6193 0.9609
-4.9167 -8.4999 -1.6177 0.9610
-4.1411 -8.9130 -1.6191 0.9609
-2.5067 -9.5782 -1.6311 0.9607
0.1267 -10.1510 -1.6724 0.9597
1.9820 -10.2262 -1.7160 0.9587
2.9330 -10.1644 -1.7428 0.9580
3.8959 -10.0324 -1.7730 0.9573
4.8675 -9.8271 -1.8066 0.9565
5.8439 -9.5451 -1.8438 0.9556
6.8208 -9.1829 -1.8844 0.9547
7.7929 -8.7371 -1.9287 0.9536
8.7544 -8.2043 -1.9765 0.9525
13.9142 -0.5166 -2.2938 0.9451
11.5958 0.6078 -1.9129 0.9540
10.7214 1.5312 -1.7841 0.9570
8.0644 2.6798 -1.4000 0.9661
5.5614 3.7178 -1.1020 0.9732
4.4108 4.2619 -1.0104 0.9754
3.5157 4.8872 -0.9918 0.9759
2.9680 5.0182 -0.9605 0.9766
2.4919 5.2302 -0.9544 0.9768
1.5730 5.7809 -0.9870 0.9760
1.0453 5.8717 -0.9825 0.9761
0.5301 6.0993 -1.0086 0.9755
-0.0175 6.2894 -1.0361 0.9748
-1.0977 5.9732 -1.0005 0.9757
-6.7722 14.0126 -2.5639 0.9389
-7.7764 12.9824 -2.4930 0.9405
-8.6540 11.8901 -2.4226 0.9421
-9.4054 10.7531 -2.3535 0.9437
-2.4572 1.9595 -0.5178 0.9873
-11.2215 6.0464 -2.0999 0.9496
-11.4053 4.8859 -2.0441 0.9509
-11.4938 3.7485 -1.9916 0.9522
-11.4935 2.6399 -1.9427 0.9533
-11.2518 0.5270 -1.8556 0.9554
-11.0222 -0.4707 -1.8174 0.9563
-10.3721 -2.3373 -1.7515 0.9578
-8.9876 -4.7949 -1.6781 0.9595
-6.5267 -7.3999 -1.6255 0.9608
-5.8199 -7.9272 -1.6201 0.9609
-4.3116 -8.8280 -1.6185 0.9610
-0.9653 -9.9827 -1.6522 0.9602
1.7778 -10.2307 -1.7107 0.9588
0.6492 -9.1742 -1.7287 0.9633
2.3299 -9.1393 -1.7728 0.9623
3.1842 -9.0276 -1.7993 0.9618
5.7619 -8.2872 -1.8972 0.9598
9.0546 -6.2656 -2.0696 0.9562
9.8102 -5.5629 -2.1198 0.9551
10.3778 -3.6345 -2.0668 0.9562
11.8258 -0.8104 -2.2280 0.9529
6.5818 3.3307 -1.3865 0.9704
5.7944 3.6163 -1.2838 0.9726
5.1164 3.8689 -1.2057 0.9742
4.5434 4.1230 -1.1532 0.9753
2.6116 5.0665 -1.0714 0.9771
2.1451 5.2715 -1.0697 0.9771
-1.7222 7.0401 -1.3623 0.9709
-5.0592 11.3630 -2.3379 0.9506
-5.9126 10.6109 -2.2832 0.9518
-7.9053 9.6305 -2.3419 0.9506
-10.1193 3.6545 -2.0223 0.9572
-10.1757 2.6752 -1.9776 0.9581
-10.0629 0.7877 -1.8972 0.9598
-9.4001 -1.8110 -1.7993 0.9618
-8.6792 -3.3593 -1.7493 0.9628
-8.2463 -4.0731 -1.7287 0.9633
-7.2517 -5.3739 -1.6965 0.9639
-6.6958 -5.9589 -1.6848 0.9642
-6.1042 -6.4990 -1.6759 0.9644
-2.6892 -8.4923 -1.6743 0.9644
-1.9290 -8.7415 -1.6826 0.9642
-1.1476 -8.9375 -1.6937 0.9640
4.7179 -8.6633 -1.8542 0.9606
5.5765 -8.3620 -1.8892 0.9599
7.2681 -7.5388 -1.9683 0.9583
8.0896 -7.0124 -2.0123 0.9574
9.6498 -5.7220 -2.1087 0.9554
10.2497 -3.8143 -2.0556 0.9565
10.8175 -2.9564 -2.1078 0.9554
11.3193 -2.0282 -2.1615 0.9543
11.7448 -1.0340 -2.2161 0.9531
12.0831 0.0202 -2.2712 0.9520
10.0292 1.8316 -1.9163 0.9594
5.9544 3.5576 -1.3037 0.9722
5.2558 3.8164 -1.2209 0.9739
3.7989 4.7529 -1.1437 0.9755
3.1762 4.7974 -1.0814 0.9769
2.7123 5.0203 -1.0725 0.9770
-0.2605 6.2629 -1.1782 0.9748
-1.3527 6.0341 -1.1623 0.9751
-3.9003 12.1756 -2.4031 0.9493
-4.8623 11.5166 -2.3497 0.9504
-5.7355 10.7795 -2.2951 0.9515
-6.5157 9.9785 -2.2400 0.9527
-7.7590 9.8351 -2.3546 0.9503
-8.3937 8.8769 -2.2963 0.9515
-9.9398 4.8683 -2.0804 0.9560
-10.0964 3.8691 -2.0323 0.9569
-10.1660 1.9234 -1.9447 0.9588
-10.0888 0.9869 -1.9053 0.9596
-9.4656 -1.6340 -1.8055 0.9617
-8.7669 -3.1992 -1.7541 0.9627
-7.8764 -4.6030 -1.7147 0.9636
-4.9680 -7.3480 -1.6672 0.9645
-4.2891 -7.7582 -1.6663 0.9646
-2.8510 -8.4315 -1.6729 0.9644
-1.3186 -8.8996 -1.6910 0.9640
-0.5222 -9.0529 -1.7044 0.9638
0.2917 -9.1501 -1.7207 0.9634
1.1206 -9.1891 -1.7400 0.9630
1.9620 -9.1678 -1.7622 0.9626
3.6708 -8.9353 -1.8157 0.9614
4.5314 -8.7192 -1.8470 0.9608
6.2446 -8.0753 -1.9187 0.9593
10.1865 -5.1122 -2.1422 0.9547
2.3335 -0.9203 -0.4715 0.9898
10.6997 -3.1483 -2.0964 0.9556
11.6596 -1.2548 -2.2042 0.9534
12.0177 -0.2130 -2.2592 0.9523
11.6978 0.8409 -2.2044 0.9534
10.3539 1.6841 -1.9717 0.9582
8.9908 2.3027 -1.7445 0.9629
7.9008 2.7967 -1.5753 0.9665
6.1199 3.4973 -1.3249 0.9717
5.3991 3.7627 -1.2369 0.9736
4.2402 4.2591 -1.1296 0.9758
3.2769 4.7469 -1.0842 0.9768
2.8128 4.9733 -1.0739 0.9770
2.3478 5.1843 -1.0697 0.9771
1.8781 5.3819 -1.0714 0.9771
0.4022 5.9657 -1.1239 0.9760
-0.7297 6.5082 -1.2310 0.9737
-1.2797 6.2765 -1.2040 0.9743
-4.6611 11.6665 -2.3614 0.9502
-5.5541 10.9451 -2.3070 0.9513
-6.3547 10.1568 -2.2519 0.9524
-7.6079 10.0378 -2.3674 0.9500
-8.2649 9.0873 -2.3088 0.9512
-8.8194 8.1061 -2.2515 0.9524
-2.4993 1.9150 -0.5918 0.9873
-10.1733 2.1299 -1.9536 0.9586
-10.1115 1.1874 -1.9136 0.9594
-9.9804 0.2737 -1.8766 0.9602
-9.7846 -0.6081 -1.8427 0.9609
-9.2166 -2.2655 -1.7839 0.9621
-8.8523 -3.0372 -1.7591 0.9626
-8.4394 -3.7688 -1.7373 0.9631
-7.9813 -4.4590 -1.7184 0.9635
-7.4810 -5.1066 -1.7025 0.9638
-5.7541 -6.7848 -1.6721 0.9644
-5.1113 -7.2528 -1.6678 0.9645
-4.4387 -7.6734 -1.6662 0.9646
-3.7381 -8.0456 -1.6675 0.9645
-3.0116 -8.3683 -1.6717 0.9644
-2.2611 -8.6399 -1.6787 0.9643
-1.4887 -8.8592 -1.6885 0.9641
-0.6963 -9.0244 -1.7013 0.9638
0.1140 -9.1339 -1.7169 0.9635
0.9398 -9.1857 -1.7356 0.9631
1.7788 -9.1776 -1.7571 0.9627
2.6280 -9.1075 -1.7817 0.9622
6.9061 -7.7428 -1.9501 0.9587
7.7362 -7.2501 -1.9929 0.9578
2.3212 -0.9678 -0.4727 0.9898
11.1106 -2.4388 -2.1381 0.9548
11.9478 -0.4436 -2.2473 0.9525
11.5942 0.6078 -2.1822 0.9538
10.6981 1.5278 -2.0312 0.9570
9.2591 2.1810 -1.7880 0.9620
8.1189 2.6979 -1.6081 0.9658
6.2913 3.4352 -1.3473 0.9712
5.5465 3.7078 -1.2540 0.9732
4.9083 3.9590 -1.1853 0.9747
4.0237 4.6523 -1.1561 0.9753
3.5115 4.8814 -1.1303 0.9758
2.4489 5.1398 -1.0701 0.9771
1.5043 5.5283 -1.0769 0.9770
0.5338 2.9983 -0.5724 0.9877
0.5142 5.9163 -1.1162 0.9761
-0.5957 6.4377 -1.2152 0.9740
-1.0773 5.8620 -1.1203 0.9760
-5.3683 11.1076 -2.3188 0.9510
-6.9155 9.5014 -2.2088 0.9533
-8.1313 9.2963 -2.3214 0.9510
-9.5613 6.3150 -2.1537 0.9544
-9.8450 5.3047 -2.1020 0.9555
-10.1481 3.3096 -2.0063 0.9575
-10.1771 2.3376 -1.9627 0.9584
-10.1309 1.3894 -1.9220 0.9592
-8.9355 -2.8734 -1.7642 0.9625
-8.5329 -3.6137 -1.7417 0.9630
-8.0843 -4.3130 -1.7222 0.9634
-7.5928 -4.9699 -1.7057 0.9637
-5.8892 -6.6772 -1.6735 0.9644
-4.5869 -7.5863 -1.6663 0.9646
-3.8922 -7.9692 -1.6670 0.9645
-1.6579 -8.8162 -1.6861 0.9641
-0.0630 -9.1150 -1.7133 0.9636
0.7597 -9.1794 -1.7313 0.9632
1.5960 -9.1845 -1.7522 0.9628
0.5893 -8.3270 -1.7646 0.9664
2.1098 -8.2758 -1.8053 0.9657
2.8793 -8.1632 -1.8297 0.9652
3.6507 -7.9900 -1.8569 0.9647
4.4200 -7.7545 -1.8867 0.9642
5.1831 -7.4548 -1.9192 0.9636
5.9353 -7.0893 -1.9544 0.9629
8.0714 -5.5852 -2.0748 0.9607
8.6583 -3.9327 -2.0101 0.9619
10.0352 -1.5979 -2.1480 0.9593
10.7658 1.1950 -2.2897 0.9567
6.6313 3.3558 -1.5710 0.9701
5.9039 3.6847 -1.4711 0.9719
4.5975 4.1720 -1.3123 0.9749
1.6572 5.4151 -1.1970 0.9771
0.3513 2.9626 -0.6306 0.9879
0.1755 6.1477 -1.3000 0.9752
-0.3934 6.4457 -1.3650 0.9739
-0.9069 5.9829 -1.2791 0.9756
-4.4059 9.8957 -2.2897 0.9567
-5.1647 9.2688 -2.2429 0.9575
-5.8461 8.5848 -2.1955 0.9584
-6.4475 7.8546 -2.1480 0.9593
-7.5084 7.6384 -2.2641 0.9572
-7.9821 6.7848 -2.2144 0.9581
-8.6740 5.0303 -2.1195 0.9598
-8.8972 4.1458 -2.0748 0.9607
-9.1166 1.5424 -1.9544 0.9629
-8.9254 -0.1014 -1.8868 0.9642
-8.5000 -1.6376 -1.8298 0.9652
-8.2085 -2.3587 -1.8053 0.9657
-7.8690 -3.0457 -1.7836 0.9661
-6.0918 -5.4213 -1.7238 0.9672
-5.5562 -5.9155 -1.7155 0.9674
-3.7687 -7.1404 -1.7067 0.9675
1.9436 -8.2924 -1.8004 0.9658
2.7123 -8.1926 -1.8242 0.9653
4.2537 -7.8109 -1.8800 0.9643
5.7735 -7.1742 -1.9466 0.9631
7.2330 -6.2699 -2.0234 0.9616
7.9256 -5.7147 -2.0654 0.9608
9.0676 -3.3744 -2.0451 0.9612
9.5419 -2.6077 -2.0909 0.9604
9.9547 -1.7837 -2.1377 0.9595
10.5618 0.0176 -2.2326 0.9577
8.7191 2.4142 -1.9124 0.9637
7.6785 2.8867 -1.7340 0.9670
4.7250 4.1236 -1.3256 0.9747
4.2070 4.3930 -1.2857 0.9754
3.1463 4.7521 -1.2047 0.9770
2.6761 4.9534 -1.1901 0.9772
1.7573 5.3681 -1.1940 0.9772
0.3944 2.8519 -0.6086 0.9883
0.2920 6.0877 -1.2883 0.9754
-0.2652 6.3779 -1.3493 0.9742
-1.3346 5.9535 -1.2897 0.9754
-4.2317 10.0230 -2.2997 0.9565
-5.7052 8.7373 -2.2058 0.9582
-6.8620 7.2571 -2.1112 0.9600
-7.8868 6.9717 -2.2251 0.9579
-8.6150 5.2219 -2.1295 0.9596
-8.8555 4.3373 -2.0844 0.9605
-9.1220 1.7259 -1.9624 0.9628
-8.9579 0.0719 -1.8936 0.9640
-8.2758 -2.2053 -1.8104 0.9656
-7.9465 -2.8998 -1.7881 0.9660
-7.5717 -3.5589 -1.7685 0.9664
-6.2034 -5.3087 -1.7259 0.9672
-4.5241 -6.6914 -1.7074 0.9675
-3.9061 -7.0653 -1.7065 0.9675
-3.2625 -7.3939 -1.7083 0.9675
-1.9070 -7.9096 -1.7198 0.9673
-1.1993 -8.0941 -1.7296 0.9671
1.0165 -8.3355 -1.7750 0.9663
4.0871 -7.8644 -1.8735 0.9644
5.6110 -7.2559 -1.9388 0.9632
6.3547 -6.8525 -1.9755 0.9625
7.0791 -6.3811 -2.0146 0.9618
7.7781 -5.8409 -2.0561 0.9610
8.4449 -5.2314 -2.0998 0.9602
2.3335 -0.9203 -0.5302 0.9898
10.2296 -1.1009 -2.1748 0.9588
10.7088 0.7698 -2.2695 0.9571
10.3319 1.6806 -2.2127 0.9581
8.9740 2.2984 -1.9581 0.9628
7.8874 2.7919 -1.7686 0.9664
6.2076 3.5474 -1.5113 0.9712
4.2765 4.2955 -1.2812 0.9755
3.2504 4.7085 -1.2094 0.9769
2.7768 4.9097 -1.1923 0.9772
2.3154 5.1128 -1.1864 0.9773
1.8571 5.3217 -1.1914 0.9772
0.4493 2.8423 -0.6083 0.9883
-0.1400 6.3120 -1.3346 0.9745
-0.7437 6.6332 -1.4109 0.9731
-4.0540 10.1469 -2.3097 0.9563
-4.8452 9.5482 -2.2633 0.9572
-5.5605 8.8875 -2.2160 0.9580
-6.1968 8.1760 -2.1686 0.9589
-6.7524 7.4243 -2.1213 0.9598
-7.7874 7.1576 -2.2358 0.9577
-9.0925 2.7715 -2.0093 0.9619
-8.9877 0.2465 -1.9005 0.9639
-8.3409 -2.0503 -1.8156 0.9655
-8.0218 -2.7523 -1.7927 0.9659
-6.7996 -4.6415 -1.7402 0.9669
-6.3135 -5.1943 -1.7282 0.9671
-5.7923 -5.7064 -1.7188 0.9673
-5.2386 -6.1769 -1.7120 0.9674
-4.0422 -6.9881 -1.7065 0.9675
-2.7418 -7.6187 -1.7116 0.9674
-2.0578 -7.8631 -1.7181 0.9673
-0.6329 -8.2031 -1.7391 0.9669
0.1035 -8.2956 -1.7537 0.9667
0.8527 -8.3343 -1.7709 0.9663
1.6121 -8.3175 -1.7909 0.9660
2.3786 -8.2432 -1.8135 0.9655
3.1492 -8.1096 -1.8389 0.9651
5.4478 -7.3345 -1.9313 0.9633
6.9241 -6.4890 -2.0059 0.9619
7.6291 -5.9638 -2.0469 0.9612
8.9202 -4.6954 -2.1308 0.9596
9.3434 -2.9473 -2.0709 0.9607
9.7839 -2.1476 -2.1174 0.9599
10.1581 -1.2929 -2.1645 0.9590
10.4574 -0.3883 -2.2120 0.9581
10.6736 0.5595 -2.2593 0.9572
8.1048 2.6932 -1.8053 0.9657
7.1620 3.1154 -1.6509 0.9686
6.3658 3.4759 -1.5331 0.9708
4.9893 4.0244 -1.3550 0.9741
4.0188 4.6466 -1.2986 0.9752
3.5073 4.8756 -1.2696 0.9757
2.8781 4.8660 -1.1950 0.9772
2.4148 5.0684 -1.1867 0.9773
1.9566 5.2757 -1.1894 0.9773
0.5220 2.9321 -0.6295 0.9879
0.5191 5.9718 -1.2671 0.9758
-0.0174 6.2478 -1.3207 0.9748
-1.0763 5.8565 -1.2587 0.9759
-2.9965 10.7757 -2.3642 0.9553
-3.8730 10.2674 -2.3196 0.9561
-4.6800 9.6836 -2.2734 0.9570
-6.0657 8.3340 -2.1788 0.9587
-6.6388 7.5901 -2.1315 0.9596
-8.7611 4.7207 -2.1037 0.9601
-8.9569 3.8370 -2.0597 0.9609
-9.0763 2.9601 -2.0180 0.9617
-9.0147 0.4222 -1.9076 0.9638
-8.8670 -0.3786 -1.8760 0.9644
-8.6621 -1.1515 -1.8471 0.9649
-7.7395 -3.2777 -1.7766 0.9662
-7.3402 -3.9160 -1.7586 0.9666
-6.9001 -4.5165 -1.7432 0.9668
-6.4219 -5.0779 -1.7306 0.9671
-4.7835 -6.5155 -1.7086 0.9675
-3.5444 -7.2572 -1.7072 0.9675
-2.2078 -7.8142 -1.7164 0.9673
-1.5082 -8.0203 -1.7250 0.9672
1.4468 -8.3259 -1.7863 0.9660
0.5390 -7.6169 -1.7946 0.9691
1.2295 -7.6125 -1.8123 0.9688
1.9260 -7.5552 -1.8324 0.9685
2.6255 -7.4436 -1.8550 0.9681
4.0194 -7.0516 -1.9076 0.9672
5.3798 -6.4258 -1.9696 0.9662
6.6694 -5.5586 -2.0405 0.9650
7.2740 -5.0335 -2.0790 0.9643
7.8394 -4.4453 -2.1180 0.9636
9.5243 1.0571 -2.2522 0.9614
8.4605 2.5202 -2.0748 0.9644
7.4652 2.9730 -1.8885 0.9675
6.6212 3.3507 -1.7441 0.9700
4.6662 4.2344 -1.4809 0.9744
4.1986 4.5579 -1.4564 0.9749
2.6186 5.0801 -1.3432 0.9768
0.6318 3.0012 -0.7208 0.9875
0.3481 2.9356 -0.6948 0.9879
0.1778 6.2306 -1.4649 0.9747
-1.7282 7.0645 -1.7093 0.9706
-3.1545 9.2275 -2.2919 0.9607
-3.8978 8.7545 -2.2522 0.9614
-4.5799 8.2193 -2.2114 0.9621
-5.7450 6.9987 -2.1280 0.9635
-6.2235 6.3312 -2.0865 0.9642
-7.5103 5.3054 -2.1611 0.9629
-7.8004 4.5237 -2.1193 0.9636
-8.2633 1.3981 -1.9697 0.9661
-8.1163 -0.0922 -1.9076 0.9672
-7.9592 -0.8054 -1.8802 0.9677
-7.4937 -2.1533 -1.8325 0.9685
-6.4617 -3.9463 -1.7795 0.9694
-5.5833 -4.9688 -1.7566 0.9698
-4.5756 -5.8399 -1.7436 0.9700
-4.0291 -6.2157 -1.7409 0.9700
-2.8615 -6.8412 -1.7428 0.9700
-1.6088 -7.2906 -1.7547 0.9698
0.3905 -7.6110 -1.7911 0.9692
1.0793 -7.6178 -1.8082 0.9689
1.7748 -7.5721 -1.8279 0.9685
3.1733 -7.3173 -1.8745 0.9678
4.5581 -6.8349 -1.9308 0.9668
5.8956 -6.1152 -1.9964 0.9657
6.5344 -5.6643 -2.0324 0.9651
7.1458 -5.1524 -2.0705 0.9644
7.6666 -3.6632 -1.9969 0.9657
8.1219 -3.0225 -2.0367 0.9650
8.5269 -2.3303 -2.0775 0.9643
8.8746 -1.5901 -2.1190 0.9636
9.3708 0.0156 -2.2023 0.9622
9.5058 0.8689 -2.2434 0.9615
9.5575 1.7454 -2.2834 0.9609
8.7030 2.4097 -2.1224 0.9636
6.0450 3.6118 -1.6550 0.9715
5.3850 3.9102 -1.5641 0.9730
4.7888 4.1792 -1.4938 0.9742
3.1992 4.8321 -1.3620 0.9765
2.7206 5.0357 -1.3452 0.9768
1.7867 5.4576 -1.3496 0.9767
-0.2672 6.4259 -1.5115 0.9739
-0.8824 6.6952 -1.5871 0.9726
-5.0687 7.7625 -2.1788 0.9626
-2.5831 1.9009 -0.7538 0.9869
-7.7438 4.6938 -2.1282 0.9635
-8.2349 2.3366 -2.0118 0.9654
-8.2650 1.5638 -1.9769 0.9660
-8.2334 0.8054 -1.9443 0.9666
-8.1432 0.0654 -1.9139 0.9671
-7.9977 -0.6529 -1.8859 0.9676
-7.5533 -2.0128 -1.8372 0.9684
-7.2606 -2.6495 -1.8165 0.9687
-6.9246 -3.2548 -1.7983 0.9690
-6.1343 -4.3641 -1.7693 0.9695
-5.6850 -4.8651 -1.7586 0.9697
-5.2030 -5.3286 -1.7503 0.9699
-3.5830 -6.4810 -1.7405 0.9700
-2.9924 -6.7818 -1.7421 0.9700
-2.3800 -7.0388 -1.7463 0.9699
-1.7481 -7.2508 -1.7529 0.9698
-1.0989 -7.4163 -1.7620 0.9697
-0.4346 -7.5342 -1.7736 0.9695
0.9294 -7.6208 -1.8043 0.9689
2.3222 -7.4987 -1.8449 0.9683
3.0219 -7.3557 -1.8690 0.9679
3.7190 -7.1560 -1.8954 0.9674
5.0896 -6.5817 -1.9554 0.9664
5.7542 -6.2048 -1.9888 0.9658
7.0159 -5.2685 -2.0621 0.9646
7.6015 -4.7090 -2.1016 0.9639
2.3334 -0.9203 -0.5895 0.9897
9.1025 -0.9796 -2.1517 0.9631
9.4835 0.6817 -2.2346 0.9617
9.5536 1.5540 -2.2748 0.9610
8.9570 2.2940 -2.1730 0.9627
7.8739 2.7871 -1.9631 0.9663
6.9683 3.1932 -1.8015 0.9690
6.1985 3.5423 -1.6779 0.9711
2.8230 4.9914 -1.3477 0.9767
2.3538 5.1975 -1.3409 0.9768
1.8880 5.4102 -1.3467 0.9767
-0.7439 6.6346 -1.5691 0.9729
-1.1978 5.8746 -1.4091 0.9757
-6.0247 6.6243 -2.1045 0.9639
-8.1105 3.2898 -2.0570 0.9647
-8.2199 2.5055 -2.0196 0.9653
-8.2638 1.7301 -1.9843 0.9659
-8.1676 0.2240 -1.9203 0.9670
-8.0338 -0.4993 -1.8918 0.9675
-7.8471 -1.1984 -1.8656 0.9679
-7.0009 -3.1264 -1.8020 0.9690
-6.6332 -3.7058 -1.7857 0.9693
-6.2271 -4.2507 -1.7720 0.9695
-5.7852 -4.7597 -1.7607 0.9697
-4.2692 -6.0579 -1.7418 0.9700
-3.1223 -6.7203 -1.7416 0.9700
-2.5145 -6.9869 -1.7452 0.9699
-0.5797 -7.5128 -1.7709 0.9695
0.0948 -7.5922 -1.7845 0.9693
0.7798 -7.6213 -1.8005 0.9690
2.1706 -7.5224 -1.8401 0.9683
2.8704 -7.3914 -1.8635 0.9679
4.9434 -6.6554 -1.9485 0.9665
6.2606 -5.8672 -2.0165 0.9654
6.8846 -5.3818 -2.0537 0.9647
8.3580 -2.6364 -2.0597 0.9646
9.0436 -1.1510 -2.1426 0.9632
9.2878 -0.3448 -2.1843 0.9625
9.4572 0.4957 -2.2257 0.9618
7.1506 3.1105 -1.8327 0.9685
6.3564 3.4707 -1.7021 0.9707
5.0406 4.0657 -1.5220 0.9737
4.4725 4.3216 -1.4617 0.9748
4.0139 4.6408 -1.4421 0.9751
2.9261 4.9473 -1.3509 0.9767
2.4549 5.1524 -1.3413 0.9768
1.4327 3.8630 -0.9683 0.9832
0.2683 3.0864 -0.7281 0.9874
-0.6084 6.5754 -1.5520 0.9732
-1.0752 5.8505 -1.3980 0.9759
-5.3963 7.4143 -2.1552 0.9630
-5.9204 6.7687 -2.1135 0.9637
-6.3743 6.0909 -2.0721 0.9644
-7.8848 4.2485 -2.1050 0.9639
-8.0778 3.4604 -2.0653 0.9645
-8.2597 1.8972 -1.9918 0.9658
-8.2545 1.1320 -1.9582 0.9663
-8.0674 -0.3445 -1.8977 0.9674
-7.8919 -1.0491 -1.8711 0.9678
-7.6661 -1.7275 -1.8469 0.9682
-7.0753 -2.9965 -1.8058 0.9689
-6.7162 -3.5831 -1.7891 0.9692
-5.8839 -4.6525 -1.7629 0.9696
-4.9162 -5.5740 -1.7468 0.9699
-4.3874 -5.9761 -1.7424 0.9700
-3.2512 -6.6567 -1.7411 0.9700
-2.0242 -7.1645 -1.7497 0.9699
-1.3822 -7.3504 -1.7578 0.9697
-0.7242 -7.4891 -1.7683 0.9696
-0.0524 -7.5792 -1.7813 0.9693
0.6306 -7.6193 -1.7968 0.9691
1.1311 -7.0029 -1.8367 0.9711
3.6820 -6.4598 -1.9252 0.9697
4.9149 -5.8705 -1.9824 0.9689
6.0742 -5.0625 -2.0473 0.9679
7.1105 -4.0320 -2.1164 0.9668
8.0547 -1.2826 -2.1118 0.9669
8.2807 -0.5675 -2.1490 0.9663
8.5301 0.9468 -2.2222 0.9652
8.4451 2.5156 -2.2815 0.9642
6.6111 3.3455 -1.9184 0.9698
5.8871 3.6741 -1.7968 0.9717
4.6601 4.2289 -1.6293 0.9743
3.6748 4.7849 -1.5621 0.9754
3.1216 4.9195 -1.5085 0.9762
2.1737 5.3418 -1.4932 0.9765
1.6991 5.5522 -1.5034 0.9763
0.3472 2.9285 -0.7635 0.9879
0.1776 6.2226 -1.6118 0.9746
-0.9072 5.9850 -1.5673 0.9753
-4.6720 6.8606 -2.1491 0.9663
-5.6170 5.7142 -2.0746 0.9674
-7.4373 2.6859 -2.0474 0.9679
-7.5228 1.9777 -2.0140 0.9684
-7.4351 -0.0845 -1.9252 0.9697
-7.1166 -1.3711 -1.8765 0.9705
-6.3032 -3.1133 -1.8202 0.9714
-5.5674 -4.1257 -1.7942 0.9718
-5.1489 -4.5822 -1.7846 0.9719
-4.2221 -5.3887 -1.7725 0.9721
-3.7182 -5.7361 -1.7699 0.9722
-2.0709 -6.5397 -1.7761 0.9721
-1.4838 -6.7240 -1.7828 0.9719
-0.8814 -6.8643 -1.7919 0.9718
0.3595 -7.0082 -1.8169 0.9714
3.5456 -6.5106 -1.9195 0.9698
5.3798 -5.5802 -2.0069 0.9685
5.9533 -5.1606 -2.0399 0.9680
7.0128 -4.1583 -2.1110 0.9669
7.3475 -2.7343 -2.0298 0.9681
7.6991 -2.1041 -2.0665 0.9676
7.9976 -1.4330 -2.1037 0.9670
7.6527 2.8770 -2.1168 0.9668
6.7814 3.2681 -1.9491 0.9694
5.3776 3.9048 -1.7207 0.9729
3.2262 4.8728 -1.5131 0.9761
2.7479 5.0863 -1.4968 0.9764
0.3882 2.8078 -0.7339 0.9884
0.2959 6.1707 -1.5995 0.9748
-3.3498 7.9342 -2.2299 0.9650
-3.9802 7.4805 -2.1939 0.9656
-5.5265 5.8446 -2.0827 0.9673
-2.5758 1.8955 -0.8281 0.9869
-7.2502 3.5510 -2.0903 0.9672
-7.4107 2.8399 -2.0548 0.9677
-7.5094 2.1307 -2.0211 0.9683
-7.4577 0.0599 -1.9310 0.9697
-7.3335 -0.5987 -1.9051 0.9701
-6.3741 -2.9961 -1.8236 0.9713
-6.0320 -3.5251 -1.8089 0.9715
-4.7996 -4.9154 -1.7788 0.9720
-3.8295 -5.6641 -1.7703 0.9721
-3.3066 -5.9811 -1.7695 0.9722
-2.7614 -6.2582 -1.7711 0.9721
-1.0131 -6.8377 -1.7897 0.9718
-0.4004 -6.9428 -1.8006 0.9717
0.2232 -7.0017 -1.8138 0.9715
0.8552 -7.0131 -1.8293 0.9712
1.4929 -6.9757 -1.8470 0.9710
2.1332 -6.8884 -1.8671 0.9706
2.7730 -6.7498 -1.8894 0.9703
4.0366 -6.3149 -1.9405 0.9695
4.6527 -6.0167 -1.9693 0.9691
5.8312 -5.2562 -2.0326 0.9681
6.3837 -4.7938 -2.0670 0.9676
6.9047 -4.2773 -2.1030 0.9670
7.6273 -2.2443 -2.0585 0.9677
8.1905 -0.8814 -2.1329 0.9665
8.3799 -0.1485 -2.1700 0.9660
8.5474 1.3903 -2.2422 0.9649
8.5166 2.1812 -2.2763 0.9643
6.1894 3.5370 -1.8458 0.9710
5.5143 3.8430 -1.7403 0.9726
4.9070 4.1175 -1.6585 0.9739
3.8963 4.6856 -1.5778 0.9751
3.3314 4.8257 -1.5183 0.9761
1.4261 5.6730 -1.5145 0.9761
0.4432 2.8033 -0.7348 0.9883
-1.1962 5.8666 -1.5502 0.9756
-3.2063 8.0251 -2.2375 0.9649
-4.4354 7.0892 -2.1652 0.9660
-4.9644 6.5501 -2.1280 0.9666
-5.4330 5.9737 -2.0907 0.9672
-5.8398 5.3675 -2.0537 0.9678
-6.9685 4.4109 -2.1353 0.9665
-7.5389 0.8853 -1.9654 0.9691
-6.4433 -2.8774 -1.8271 0.9713
-6.1092 -3.4131 -1.8119 0.9715
-4.8980 -4.8254 -1.7802 0.9720
-4.4324 -5.2264 -1.7743 0.9721
-2.8813 -6.2016 -1.7705 0.9721
-1.7402 -6.6495 -1.7796 0.9720
0.7177 -7.0147 -1.8257 0.9713
1.3544 -6.9880 -1.8430 0.9710
1.9944 -6.9116 -1.8626 0.9707
2.6346 -6.7843 -1.8844 0.9704
3.2715 -6.6048 -1.9084 0.9700
3.9014 -6.3723 -1.9346 0.9696
5.1241 -5.7450 -1.9932 0.9687
5.7078 -5.3492 -2.0254 0.9682
6.7948 -4.3937 -2.0951 0.9671
8.1409 -1.0361 -2.1248 0.9667
8.3445 -0.3098 -2.1620 0.9661
8.4804 0.4445 -2.1987 0.9655
5.0338 4.0603 -1.6745 0.9736
4.4668 4.3160 -1.6082 0.9747
4.0089 4.6351 -1.5867 0.9750
3.4988 4.8638 -1.5513 0.9755
2.9540 4.9944 -1.5024 0.9763
2.4802 5.2055 -1.4930 0.9765
1.4191 3.8264 -1.0567 0.9833
1.5310 5.6266 -1.5098 0.9762
0.5174 2.9060 -0.7642 0.9879
-0.0175 6.3082 -1.6333 0.9743
-1.0740 5.8443 -1.5385 0.9757
-3.0604 8.1131 -2.2451 0.9648
-5.3367 6.1014 -2.0988 0.9671
-5.7569 5.5010 -2.0617 0.9676
-6.9081 4.5626 -2.1436 0.9664
-7.3489 3.1482 -2.0700 0.9675
-7.4741 2.4375 -2.0355 0.9680
-7.5449 1.0347 -1.9718 0.9690
-6.7971 -2.1857 -1.8487 0.9709
-6.1848 -3.2996 -1.8150 0.9715
-4.5357 -5.1426 -1.7754 0.9721
-4.0486 -5.5146 -1.7713 0.9721
-3.0003 -6.1431 -1.7701 0.9721
-2.4433 -6.3970 -1.7730 0.9721
-1.8673 -6.6091 -1.7782 0.9720
-1.2746 -6.7782 -1.7857 0.9719
-0.0483 -6.9819 -1.8078 0.9716
0.5805 -7.0140 -1.8223 0.9713
0.4594 -6.4914 -1.8423 0.9733
1.0463 -6.4782 -1.8577 0.9731
2.2265 -6.3123 -1.8949 0.9726
2.8135 -6.1577 -1.9165 0.9722
4.5198 -5.3985 -1.9932 0.9712
5.0570 -5.0458 -2.0223 0.9707
6.4991 -3.6853 -2.1151 0.9694
6.4273 -2.9194 -1.9984 0.9711
6.7720 -2.3717 -2.0313 0.9706
7.0713 -1.7859 -2.0647 0.9701
7.3200 -1.1656 -2.0984 0.9697
7.5133 -0.5149 -2.1320 0.9692
7.7161 1.5643 -2.2288 0.9678
7.4403 2.9631 -2.2672 0.9673
5.8785 3.6688 -1.9617 0.9716
4.1880 4.5464 -1.7499 0.9746
3.1178 4.9135 -1.6474 0.9761
1.5629 3.8407 -1.1738 0.9829
1.6971 5.5455 -1.6417 0.9762
0.3466 2.9231 -0.8333 0.9878
-0.9074 5.9861 -1.7140 0.9751
-1.7229 7.0431 -2.0527 0.9703
-2.5468 7.4499 -2.2289 0.9678
-3.1575 7.0917 -2.1976 0.9682
-4.2390 6.2248 -2.1320 0.9692
-4.7030 5.7294 -2.0984 0.9697
-5.1128 5.2014 -2.0647 0.9701
-5.4673 4.6472 -2.0313 0.9706
-6.4747 3.7549 -2.1189 0.9694
-6.6771 3.1113 -2.0854 0.9698
-6.8213 2.4635 -2.0531 0.9703
-6.9091 1.8164 -2.0224 0.9707
-6.9422 1.1745 -1.9932 0.9712
-6.9228 0.5419 -1.9658 0.9715
-6.8532 -0.0779 -1.9402 0.9719
-6.1198 -2.3687 -1.8577 0.9731
-5.8347 -2.8819 -1.8423 0.9733
-4.3581 -4.6399 -1.8021 0.9739
-3.9160 -4.9980 -1.7975 0.9739
-3.4490 -5.3207 -1.7950 0.9740
-2.9593 -5.6069 -1.7948 0.9740
-1.3756 -6.2338 -1.8072 0.9738
-0.2466 -6.4468 -1.8264 0.9735
0.3329 -6.4883 -1.8392 0.9734
0.9188 -6.4849 -1.8542 0.9731
2.6867 -6.1953 -1.9117 0.9723
3.2688 -6.0025 -1.9349 0.9720
4.4007 -5.4684 -1.9871 0.9712
5.4619 -4.7346 -2.0463 0.9704
5.9546 -4.2936 -2.0782 0.9699
6.4114 -3.8017 -2.1101 0.9695
6.7010 -2.4937 -2.0241 0.9707
7.0106 -1.9159 -2.0574 0.9702
7.2707 -1.3027 -2.0911 0.9698
7.6229 0.0127 -2.1580 0.9688
7.6673 2.1229 -2.2522 0.9675
7.5401 2.8347 -2.2804 0.9671
6.7707 3.2630 -2.1277 0.9692
6.0273 3.6012 -1.9877 0.9712
5.3702 3.8994 -1.8788 0.9728
4.2284 4.4152 -1.7306 0.9749
1.8004 5.4997 -1.6382 0.9762
1.3188 5.7126 -1.6597 0.9759
-0.2665 6.4088 -1.8158 0.9737
-3.0288 7.1740 -2.2045 0.9681
-4.1315 6.3272 -2.1392 0.9691
-4.6070 5.8397 -2.1057 0.9696
-5.0287 5.3182 -2.0720 0.9700
-6.4231 3.8933 -2.1263 0.9693
-6.9314 0.6780 -1.9716 0.9715
-6.4147 -1.7094 -1.8793 0.9728
-6.1766 -2.2540 -1.8613 0.9730
-5.8996 -2.7730 -1.8454 0.9733
-5.5863 -3.2646 -1.8317 0.9735
-5.2388 -3.7270 -1.8201 0.9736
-4.4504 -4.5578 -1.8034 0.9739
-4.0139 -4.9233 -1.7983 0.9739
-3.5522 -5.2539 -1.7954 0.9740
-2.0365 -6.0227 -1.7998 0.9739
-1.4949 -6.2006 -1.8057 0.9738
-0.9390 -6.3375 -1.8137 0.9737
2.5597 -6.2306 -1.9069 0.9724
3.1434 -6.0484 -1.9297 0.9721
3.7184 -5.8170 -1.9545 0.9717
4.2809 -5.5359 -1.9811 0.9713
4.8267 -5.2048 -2.0095 0.9709
5.8504 -4.3933 -2.0712 0.9700
6.3186 -3.9142 -2.1042 0.9696
6.2650 -3.1441 -1.9844 0.9713
2.3345 -0.9207 -0.7104 0.9896
6.9475 -2.0443 -2.0502 0.9703
7.6936 0.5531 -2.1836 0.9684
7.5739 2.6810 -2.2745 0.9672
6.9461 3.1831 -2.1630 0.9687
6.1802 3.5318 -2.0151 0.9708
4.9004 4.1120 -1.8110 0.9738
4.3438 4.3632 -1.7430 0.9747
3.8915 4.6797 -1.7230 0.9750
3.3273 4.8198 -1.6580 0.9759
2.8473 5.0343 -1.6373 0.9762
2.3752 5.2447 -1.6299 0.9763
1.3474 3.8611 -1.1577 0.9831
0.4401 2.7841 -0.7979 0.9884
0.4120 6.1116 -1.7341 0.9749
-0.1409 6.3538 -1.7992 0.9739
-0.7418 6.6162 -1.8847 0.9727
-2.8981 7.2537 -2.2113 0.9680
-3.4836 6.8651 -2.1794 0.9685
-4.0215 6.4278 -2.1465 0.9690
-4.5085 5.9485 -2.1130 0.9694
-5.3205 4.8902 -2.0458 0.9704
-2.4933 1.9104 -0.8892 0.9870
-6.3687 4.0312 -2.1338 0.9692
-6.7658 2.7444 -2.0669 0.9701
-6.9375 0.8147 -1.9775 0.9714
-6.8894 0.1889 -1.9511 0.9718
-6.4610 -1.5882 -1.8835 0.9727
-6.2316 -2.1381 -1.8651 0.9730
-5.9628 -2.6628 -1.8487 0.9732
-5.6571 -3.1605 -1.8345 0.9734
-4.9442 -4.0677 -1.8125 0.9737
-4.1108 -4.8471 -1.7992 0.9739
-3.6543 -5.1853 -1.7958 0.9740
-2.6726 -5.7524 -1.7956 0.9740
1.2526 -6.4627 -1.8636 0.9730
3.0175 -6.0921 -1.9246 0.9721
3.5947 -5.8714 -1.9489 0.9718
4.7101 -5.2808 -2.0032 0.9710
5.2398 -4.9105 -2.0329 0.9706
5.7447 -4.4907 -2.0642 0.9701
6.2200 -4.0221 -2.0969 0.9697
6.8822 -2.1709 -2.0429 0.9704
7.3942 -0.9411 -2.1101 0.9695
7.6781 0.4025 -2.1766 0.9685
7.7235 1.1030 -2.2086 0.9681
7.6997 1.8137 -2.2394 0.9676
7.6042 2.5269 -2.2684 0.9672
7.1275 3.1004 -2.2004 0.9682
6.3373 3.4603 -2.0441 0.9704
5.0270 4.0548 -1.8283 0.9735
4.4610 4.3104 -1.7561 0.9745
4.0038 4.6292 -1.7327 0.9749
2.9504 4.9883 -1.6407 0.9762
2.4772 5.1993 -1.6304 0.9763
1.5291 5.6197 -1.6487 0.9761
0.5189 2.9147 -0.8381 0.9878
0.2616 3.0100 -0.8553 0.9875
-2.7653 7.3309 -2.2181 0.9680
-4.8527 5.5480 -2.0866 0.9698
-6.5522 3.5305 -2.1070 0.9695
-6.7341 2.8848 -2.0739 0.9700
-6.8584 2.2367 -2.0422 0.9705
-6.9413 0.9519 -1.9834 0.9713
-6.9041 0.3234 -1.9566 0.9717
-6.6837 -0.8885 -1.9088 0.9724
-6.5053 -1.4659 -1.8878 0.9727
-6.2847 -2.0210 -1.8689 0.9729
-5.7264 -3.0551 -1.8374 0.9734
-5.3934 -3.5303 -1.8248 0.9736
-2.7830 -5.6982 -1.7952 0.9740
-0.0447 -6.4663 -1.8306 0.9735
0.4272 -6.0370 -1.8615 0.9750
1.5199 -5.9620 -1.8924 0.9746
2.0665 -5.8587 -1.9108 0.9743
3.6693 -5.2774 -1.9770 0.9735
4.1794 -4.9920 -2.0025 0.9731
5.5818 -3.8625 -2.0878 0.9720
5.9075 -2.6833 -1.9957 0.9732
6.2161 -2.1770 -2.0258 0.9728
6.4821 -1.6371 -2.0564 0.9724
6.9810 0.1470 -2.1477 0.9712
7.0347 0.7808 -2.1770 0.9708
7.0266 1.4245 -2.2052 0.9704
6.9544 2.0716 -2.2319 0.9701
5.8699 3.6634 -2.1282 0.9715
4.1826 4.5405 -1.8988 0.9745
3.6656 4.7730 -1.8511 0.9751
3.1140 4.9075 -1.7877 0.9760
2.6173 5.0776 -1.7570 0.9764
1.6950 5.5386 -1.7816 0.9761
1.2110 5.7523 -1.8081 0.9757
0.3462 2.9197 -0.9043 0.9878
-0.9077 5.9886 -1.8629 0.9750
-1.7203 7.0323 -2.2268 0.9702
-2.3192 6.7842 -2.2052 0.9704
-3.8753 5.6907 -2.1176 0.9716
-4.6868 4.7680 -2.0564 0.9724
-5.0185 4.2657 -2.0259 0.9728
-6.1529 2.8670 -2.0879 0.9720
-6.2934 2.2728 -2.0581 0.9724
-6.3818 1.6778 -2.0296 0.9728
-6.4082 0.5016 -1.9770 0.9735
-6.3499 -0.0722 -1.9532 0.9738
-6.2466 -0.6321 -1.9311 0.9741
-6.1004 -1.1753 -1.9109 0.9743
-5.9135 -1.6992 -1.8925 0.9746
-5.6881 -2.2016 -1.8760 0.9748
-4.8025 -3.5589 -1.8385 0.9753
-3.6481 -4.6561 -1.8193 0.9755
-3.2133 -4.9572 -1.8170 0.9756
-2.7571 -5.2239 -1.8168 0.9756
-0.7605 -5.9223 -1.8365 0.9753
-0.2294 -5.9991 -1.8466 0.9752
1.9483 -5.8849 -1.9067 0.9744
3.0294 -5.5627 -1.9482 0.9738
3.5567 -5.3332 -1.9717 0.9735
4.5663 -4.7363 -2.0236 0.9728
5.0405 -4.3694 -2.0518 0.9725
5.4886 -3.9575 -2.0813 0.9721
6.1527 -2.2897 -2.0192 0.9729
6.6578 -1.1929 -2.0804 0.9721
6.8369 -0.6019 -2.1110 0.9717
6.9615 0.0116 -2.1412 0.9713
7.0337 1.2845 -2.1992 0.9705
6.9756 1.9314 -2.2263 0.9702
6.8521 2.5760 -2.2516 0.9698
6.6625 3.2108 -2.2748 0.9695
4.2229 4.4095 -1.8779 0.9748
3.7755 4.7237 -1.8600 0.9750
3.2182 4.8608 -1.7931 0.9759
1.7982 5.4930 -1.7777 0.9761
1.3172 5.7055 -1.8011 0.9758
0.3846 2.7815 -0.8637 0.9883
0.2952 6.1547 -1.8952 0.9745
-1.3255 5.9128 -1.8638 0.9750
-2.1931 6.8463 -2.2112 0.9704
-2.7609 6.5393 -2.1833 0.9707
-3.2898 6.1829 -2.1542 0.9711
-4.6083 4.8736 -2.0631 0.9723
-4.9509 4.3764 -2.0325 0.9727
-2.5611 1.8847 -0.9781 0.9868
-6.4147 0.6275 -1.9824 0.9734
-6.2726 -0.5121 -1.9358 0.9740
-6.1356 -1.0592 -1.9151 0.9743
-5.7401 -2.0947 -1.8794 0.9748
-5.4860 -2.5786 -1.8645 0.9750
-5.1973 -3.0373 -1.8516 0.9751
-4.8762 -3.4690 -1.8406 0.9753
-4.5247 -3.8721 -1.8317 0.9754
-4.1450 -4.2450 -1.8249 0.9755
-3.3094 -4.8948 -1.8174 0.9756
-2.3862 -5.4079 -1.8181 0.9756
-1.8970 -5.6101 -1.8215 0.9755
-0.3452 -5.9859 -1.8442 0.9752
0.7358 -6.0333 -1.8695 0.9749
1.8299 -5.9090 -1.9026 0.9744
2.3747 -5.7803 -1.9221 0.9742
3.9604 -5.1213 -1.9913 0.9733
4.4605 -4.8099 -2.0177 0.9729
4.9398 -4.4527 -2.0455 0.9726
5.7616 -2.8915 -1.9828 0.9734
2.3360 -0.9212 -0.7723 0.9895
6.3724 -1.8750 -2.0431 0.9726
6.6122 -1.3176 -2.0737 0.9722
6.8025 -0.7321 -2.1044 0.9718
6.9937 1.7912 -2.2205 0.9702
6.1709 3.5264 -2.1861 0.9707
5.4987 3.8322 -2.0615 0.9723
4.8938 4.1064 -1.9649 0.9736
1.3404 3.8409 -1.2512 0.9831
1.4226 5.6590 -1.7947 0.9759
0.4411 2.7900 -0.8688 0.9882
0.4115 6.1037 -1.8816 0.9747
-0.1407 6.3453 -1.9522 0.9738
-0.7408 6.6069 -2.0449 0.9726
-1.1930 5.8511 -1.8367 0.9753
-3.1787 6.2640 -2.1606 0.9710
-3.6743 5.8728 -2.1308 0.9714
-4.1248 5.4422 -2.1004 0.9718
-5.8452 3.6999 -2.1278 0.9715
-6.2390 2.5307 -2.0708 0.9722
-6.4189 0.7538 -1.9879 0.9733
-6.2967 -0.3913 -1.9405 0.9739
-6.1689 -0.9421 -1.9194 0.9742
-5.7903 -1.9867 -1.8829 0.9747
-5.2627 -2.9402 -1.8542 0.9751
-4.9484 -3.3779 -1.8428 0.9752
-4.2296 -4.1669 -1.8262 0.9755
-3.4045 -4.8308 -1.8178 0.9756
-2.0044 -5.5695 -1.8206 0.9755
-1.5028 -5.7422 -1.8257 0.9755
-0.9875 -5.8764 -1.8328 0.9754
-0.4607 -5.9708 -1.8420 0.9752
0.0752 -6.0245 -1.8531 0.9751
0.6176 -6.0363 -1.8663 0.9749
1.1640 -6.0054 -1.8815 0.9747
2.2570 -5.8120 -1.9177 0.9742
2.7975 -5.6480 -1.9386 0.9740
3.3296 -5.4383 -1.9613 0.9737
5.2979 -4.1415 -2.0683 0.9723
5.6861 -2.9930 -1.9764 0.9735
6.3143 -1.9918 -2.0365 0.9727
6.5643 -1.4409 -2.0671 0.9723
6.9144 -0.2567 -2.1282 0.9715
7.0390 1.0053 -2.1870 0.9707
7.0087 1.6509 -2.2147 0.9703
6.9138 2.2974 -2.2409 0.9700
6.7528 2.9374 -2.2650 0.9697
6.3276 3.4550 -2.2175 0.9703
4.4551 4.3047 -1.9055 0.9744
3.4901 4.8517 -1.8383 0.9753
2.9468 4.9822 -1.7804 0.9761
1.5272 5.6128 -1.7891 0.9760
0.5208 2.9255 -0.9140 0.9876
-0.6059 6.5482 -2.0227 0.9729
-1.9362 6.9626 -2.2228 0.9702
-2.5193 6.6787 -2.1955 0.9706
-2.4620 1.9633 -0.9686 0.9869
-6.0329 3.2507 -2.1078 0.9717
-6.3302 2.0645 -2.0480 0.9725
-6.4006 1.4702 -2.0200 0.9729
-6.0395 -1.3610 -1.9042 0.9744
-5.6005 -2.3719 -1.8707 0.9749
-5.3265 -2.8417 -1.8569 0.9751
-4.6806 -3.7010 -1.8353 0.9753
-3.4985 -4.7653 -1.8183 0.9756
-3.0560 -5.0545 -1.8167 0.9756
-2.5928 -5.3088 -1.8172 0.9756
-2.1110 -5.5271 -1.8198 0.9755
-1.1002 -5.8507 -1.8311 0.9754
-0.5757 -5.9538 -1.8398 0.9753
0.4996 -6.0374 -1.8633 0.9750
0.3989 -5.6369 -1.8784 0.9765
0.9076 -5.6192 -1.8921 0.9763
2.4302 -5.3189 -1.9438 0.9757
2.9266 -5.1345 -1.9645 0.9754
3.8829 -4.6379 -2.0106 0.9748
4.3355 -4.3259 -2.0358 0.9745
4.7660 -3.9722 -2.0623 0.9742
5.1702 -3.5777 -2.0900 0.9738
5.5293 -3.1354 -2.1129 0.9736
5.4598 -2.4799 -1.9933 0.9750
5.7385 -2.0097 -2.0211 0.9747
6.1718 -0.9827 -2.0774 0.9740
6.3189 -0.4330 -2.1054 0.9737
6.4429 1.3062 -2.1852 0.9727
6.2383 2.4843 -2.2320 0.9721
5.7953 3.6169 -2.2708 0.9716
4.6415 4.2120 -2.0834 0.9739
4.0998 4.4506 -2.0114 0.9748
3.5966 4.6832 -1.9628 0.9754
3.1101 4.9014 -1.9296 0.9758
1.5452 3.7973 -1.3627 0.9829
-0.3934 6.4468 -2.1470 0.9731
-1.0063 6.6390 -2.2320 0.9721
-1.5795 6.4566 -2.2095 0.9724
-2.1265 6.2206 -2.1852 0.9727
-2.6425 5.9352 -2.1596 0.9730
-3.9652 4.8306 -2.0774 0.9740
-5.6992 2.6556 -2.0900 0.9738
-5.8355 2.1075 -2.0624 0.9742
-5.9234 1.5573 -2.0359 0.9745
-5.9641 1.0091 -2.0107 0.9748
-5.9590 0.4665 -1.9869 0.9751
-5.8182 -0.5887 -1.9439 0.9757
-5.6861 -1.0955 -1.9249 0.9759
-5.0667 -2.5026 -1.8784 0.9765
-4.7925 -2.9269 -1.8667 0.9766
-4.1548 -3.6975 -1.8488 0.9768
-3.4114 -4.3540 -1.8386 0.9770
-1.1975 -5.4268 -1.8473 0.9768
-0.7107 -5.5347 -1.8549 0.9768
-0.2143 -5.6045 -1.8643 0.9766
1.8162 -5.4861 -1.9209 0.9759
2.8199 -5.1781 -1.9599 0.9755
3.3080 -4.9603 -1.9819 0.9752
3.7823 -4.6999 -2.0053 0.9749
4.2392 -4.3971 -2.0303 0.9746
4.6748 -4.0523 -2.0565 0.9743
5.3945 -2.5776 -1.9874 0.9751
5.9290 -1.6204 -2.0431 0.9744
6.3910 1.7696 -2.2043 0.9724
6.0930 2.9364 -2.2483 0.9719
5.8547 3.4981 -2.2670 0.9717
5.3550 3.8884 -2.1998 0.9725
4.7632 4.1569 -2.1015 0.9737
4.1819 4.3667 -2.0098 0.9748
3.7045 4.6348 -1.9723 0.9753
2.2676 5.2770 -1.9092 0.9761
1.7960 5.4861 -1.9189 0.9760
1.3155 5.6983 -1.9440 0.9756
0.3835 2.7734 -0.9307 0.9883
0.2948 6.1465 -2.0455 0.9744
-0.8774 6.6573 -2.2321 0.9721
-2.0105 6.2761 -2.1906 0.9726
-3.0223 5.6802 -2.1388 0.9732
-3.4728 5.3185 -2.1114 0.9736
-4.2482 4.4928 -2.0554 0.9743
-2.5564 1.8812 -1.0550 0.9867
-5.6631 2.7737 -2.0961 0.9738
-5.9592 1.1275 -2.0160 0.9748
-5.9241 0.0475 -1.9693 0.9753
-5.7181 -0.9871 -1.9288 0.9758
-5.1219 -2.4075 -1.8812 0.9764
-4.2293 -3.6193 -1.8504 0.9768
-3.8754 -3.9689 -1.8439 0.9769
-3.0950 -4.5776 -1.8368 0.9770
-0.8171 -5.5145 -1.8531 0.9768
0.1795 -5.6321 -1.8731 0.9765
0.6868 -5.6319 -1.8859 0.9764
1.1966 -5.5912 -1.9006 0.9762
1.7061 -5.5093 -1.9171 0.9760
2.2125 -5.3856 -1.9354 0.9758
2.7127 -5.2197 -1.9554 0.9755
4.1419 -4.4663 -2.0248 0.9747
4.5824 -4.1306 -2.0507 0.9743
4.9985 -3.7536 -2.0779 0.9740
6.0931 -1.2141 -2.0652 0.9742
6.2612 -0.6738 -2.0933 0.9738
6.3028 2.2310 -2.2225 0.9722
5.9113 3.3781 -2.2632 0.9717
4.3324 4.3518 -2.0412 0.9744
3.8133 4.5858 -1.9825 0.9752
2.8403 5.0219 -1.9178 0.9760
1.4208 5.6519 -1.9372 0.9757
0.4109 6.0957 -2.0308 0.9746
-0.1405 6.3366 -2.1068 0.9736
-0.7397 6.5975 -2.2068 0.9724
-1.8930 6.3292 -2.1959 0.9725
-3.3785 5.4001 -2.1174 0.9735
-3.7971 5.0099 -2.0896 0.9739
-4.1727 4.5879 -2.0615 0.9742
-4.5036 4.1394 -2.0333 0.9745
-2.4903 1.9081 -1.0428 0.9869
-5.0275 3.1823 -1.9778 0.9752
-5.6245 2.8913 -2.1022 0.9737
-5.9364 0.1628 -1.9740 0.9753
-5.5940 -1.3751 -1.9148 0.9760
-4.9152 -2.7460 -1.8715 0.9765
-4.6236 -3.1561 -1.8608 0.9767
-4.3025 -3.5398 -1.8520 0.9768
-3.9542 -3.8956 -1.8451 0.9769
-3.1838 -4.5177 -1.8372 0.9770
-2.7658 -4.7814 -1.8361 0.9770
-2.3286 -5.0119 -1.8370 0.9770
-1.4050 -5.3685 -1.8446 0.9769
-0.9230 -5.4926 -1.8514 0.9768
0.0702 -5.6269 -1.8706 0.9766
1.0861 -5.6035 -1.8973 0.9762
1.5959 -5.5306 -1.9134 0.9760
3.5787 -4.8180 -1.9950 0.9750
4.0436 -4.5335 -2.0193 0.9747
4.9106 -3.8387 -2.0719 0.9741
5.2590 -2.7682 -1.9755 0.9753
2.3103 -0.9633 -0.8320 0.9895
6.0504 -1.3281 -2.0591 0.9742
6.2288 -0.7928 -2.0872 0.9739
6.4360 0.3374 -2.1423 0.9732
6.4242 1.5132 -2.1939 0.9726
5.9652 3.2571 -2.2592 0.9718
3.9234 4.5362 -1.9936 0.9750
2.9431 4.9760 -1.9217 0.9759
2.4711 5.1865 -1.9097 0.9761
1.3473 3.6328 -1.2879 0.9838
1.5253 5.6058 -1.9311 0.9758
-0.0175 6.2829 -2.0885 0.9739
-0.6050 6.5389 -2.1829 0.9727
-2.8150 5.8245 -2.1504 0.9731
-3.2824 5.4799 -2.1233 0.9734
-3.7100 5.0973 -2.0956 0.9738
-4.0950 4.6818 -2.0676 0.9741
-4.4358 4.2386 -2.0394 0.9745
-2.4630 1.9641 -1.0472 0.9868
-5.7524 2.4643 -2.0802 0.9740
-5.8717 1.9149 -2.0530 0.9743
-5.9429 1.3650 -2.0269 0.9746
-5.9674 0.8184 -2.0022 0.9749
-5.9467 0.2785 -1.9789 0.9752
-5.8824 -0.2512 -1.9571 0.9755
-5.7765 -0.7679 -1.9370 0.9757
-5.6307 -1.2688 -1.9186 0.9760
-4.3745 -3.4590 -1.8538 0.9768
-4.0319 -3.8210 -1.8465 0.9769
-3.6637 -4.1539 -1.8411 0.9769
-2.8581 -4.7271 -1.8362 0.9770
-1.0284 -5.4688 -1.8497 0.9768
-0.0388 -5.6198 -1.8681 0.9766
0.4665 -5.6369 -1.8801 0.9764
1.3270 -5.2052 -1.9209 0.9774
3.1854 -4.5815 -1.9955 0.9766
4.0409 -4.0319 -2.0414 0.9760
4.4382 -3.6990 -2.0661 0.9758
5.3233 -1.8643 -2.0170 0.9763
5.9271 0.1248 -2.1201 0.9751
5.5628 2.8150 -2.2295 0.9739
5.3284 3.3255 -2.2461 0.9737
5.0416 3.8123 -2.2603 0.9735
4.6352 4.2062 -2.2383 0.9738
3.8629 4.1934 -2.0389 0.9761
3.1062 4.8951 -2.0732 0.9757
2.6108 5.0649 -2.0377 0.9761
1.6907 5.5248 -2.0661 0.9758
1.2079 5.7377 -2.0968 0.9754
0.3295 2.7789 -1.0007 0.9882
-0.3798 6.2230 -2.2295 0.9739
-0.9265 6.1125 -2.2108 0.9741
-3.2972 4.8418 -2.0948 0.9754
-4.0050 4.0743 -2.0430 0.9760
-4.2976 3.6530 -2.0171 0.9763
-4.5481 3.2128 -1.9913 0.9766
-4.7557 2.7580 -1.9660 0.9769
-5.3021 2.4706 -2.0918 0.9755
-5.5209 1.4515 -2.0414 0.9760
-5.4395 -0.5504 -1.9551 0.9770
-4.2081 -3.1184 -1.8730 0.9780
-3.5604 -3.7906 -1.8597 0.9782
-3.2007 -4.0850 -1.8558 0.9782
-2.8197 -4.3499 -1.8538 0.9782
-2.4194 -4.5840 -1.8536 0.9782
-2.0019 -4.7861 -1.8552 0.9782
-0.6664 -5.1899 -1.8712 0.9780
0.2709 -5.2807 -1.8909 0.9778
0.7466 -5.2700 -1.9034 0.9776
1.6994 -5.1329 -1.9336 0.9773
2.6350 -4.8385 -1.9702 0.9769
3.0888 -4.6316 -1.9908 0.9766
3.5289 -4.3850 -2.0128 0.9764
4.3541 -3.7744 -2.0606 0.9758
4.7319 -3.4119 -2.0862 0.9755
5.0706 -3.0067 -2.1081 0.9753
5.0103 -2.3940 -1.9857 0.9767
5.2715 -1.9617 -2.0114 0.9764
5.8197 -0.5124 -2.0892 0.9755
5.9575 0.5445 -2.1393 0.9749
5.9503 1.0867 -2.1631 0.9746
5.8900 1.6308 -2.1856 0.9744
5.6066 2.7019 -2.2256 0.9739
2.7344 5.0613 -2.0572 0.9759
1.3138 5.6911 -2.0887 0.9755
0.3840 2.7772 -1.0026 0.9882
0.2944 6.1383 -2.1976 0.9742
-0.2595 6.2398 -2.2333 0.9738
-1.3209 5.8922 -2.1594 0.9747
-1.8538 5.7869 -2.1730 0.9745
-2.3382 5.5382 -2.1498 0.9748
-3.2111 4.9178 -2.1003 0.9754
-3.5933 4.5547 -2.0747 0.9757
-3.9360 4.1626 -2.0487 0.9760
-4.2378 3.7461 -2.0227 0.9763
-2.5529 1.8787 -1.1335 0.9866
-5.4094 2.0730 -2.0716 0.9757
-5.5058 1.5622 -2.0467 0.9760
-5.4605 -0.4458 -1.9592 0.9770
-5.3486 -0.9233 -1.9410 0.9772
-5.1998 -1.3856 -1.9244 0.9774
-5.0158 -1.8304 -1.9094 0.9776
-4.7986 -2.2555 -1.8961 0.9777
-3.9665 -3.3944 -1.8669 0.9781
-3.6353 -3.7230 -1.8608 0.9781
-2.5077 -4.5359 -1.8535 0.9782
-2.0937 -4.7451 -1.8547 0.9782
-1.6641 -4.9214 -1.8578 0.9782
-1.2208 -5.0638 -1.8627 0.9781
-0.3024 -5.2430 -1.8781 0.9779
1.5965 -5.1553 -1.9300 0.9773
2.0691 -5.0365 -1.9472 0.9771
2.5351 -4.8781 -1.9659 0.9769
2.9915 -4.6798 -1.9862 0.9767
4.2689 -3.8480 -2.0552 0.9759
2.3389 -0.9224 -0.8991 0.9894
5.9563 0.9688 -2.1580 0.9747
5.6478 2.5881 -2.2217 0.9740
5.4365 3.1068 -2.2392 0.9738
4.8568 4.0754 -2.2673 0.9734
3.5957 4.3241 -2.0111 0.9764
3.3148 4.8017 -2.0865 0.9755
2.8367 5.0156 -2.0606 0.9758
2.3664 5.2252 -2.0513 0.9759
1.3306 3.8129 -1.4442 0.9830
0.4592 2.9048 -1.0517 0.9876
-0.1387 6.2539 -2.2370 0.9738
-1.7451 5.8348 -2.1779 0.9745
-2.2357 5.5959 -2.1549 0.9747
-2.6964 5.3136 -2.1308 0.9750
-3.5137 4.6360 -2.0803 0.9756
-3.8652 4.2499 -2.0543 0.9759
-5.3826 2.1833 -2.0772 0.9756
-5.4888 1.6730 -2.0520 0.9759
-5.5503 1.1620 -2.0279 0.9762
-5.5444 0.1520 -1.9835 0.9767
-5.2350 -1.2868 -1.9278 0.9774
-4.3347 -2.9589 -1.8768 0.9780
-3.7091 -3.6541 -1.8620 0.9781
-2.5951 -4.4864 -1.8534 0.9782
-2.1848 -4.7025 -1.8543 0.9782
-1.7584 -4.8860 -1.8570 0.9782
-0.8656 -5.1510 -1.8679 0.9781
0.0658 -5.2736 -1.8860 0.9778
1.0169 -5.2470 -1.9113 0.9776
1.4935 -5.1759 -1.9265 0.9774
2.4349 -4.9158 -1.9617 0.9770
3.3400 -4.4967 -2.0031 0.9765
3.7709 -4.2278 -2.0259 0.9762
4.1826 -3.9198 -2.0499 0.9759
2.3092 -0.9628 -0.8947 0.9894
5.4033 -1.7044 -2.0261 0.9762
5.6050 -1.2303 -2.0521 0.9759
5.7645 -0.7337 -2.0781 0.9756
5.8786 -0.2183 -2.1037 0.9753
5.9446 0.3116 -2.1287 0.9750
5.9599 0.8512 -2.1529 0.9747
5.6865 2.4736 -2.2176 0.9740
5.2339 3.4988 -2.2514 0.9736
4.4432 4.2932 -2.2095 0.9741
3.6940 4.2711 -2.0194 0.9763
2.9394 4.9697 -2.0648 0.9758
2.4680 5.1800 -2.0519 0.9759
1.5234 5.5987 -2.0749 0.9757
0.2610 3.0023 -1.0777 0.9873
-0.0174 6.2655 -2.2406 0.9737
-0.5728 6.1905 -2.2232 0.9739
-1.0697 5.8209 -2.1165 0.9752
-1.6352 5.8804 -2.1827 0.9744
-2.5993 5.3782 -2.1361 0.9749
-4.1121 3.9293 -2.0339 0.9761
-5.4696 1.7838 -2.0574 0.9759
-5.5407 1.2726 -2.0330 0.9761
-5.5531 0.2601 -1.9880 0.9767
-5.4971 -0.2347 -1.9676 0.9769
-5.2687 -1.1873 -1.9314 0.9773
-5.0997 -1.6399 -1.9157 0.9775
-4.8967 -2.0738 -1.9017 0.9777
-4.3960 -2.8775 -1.8789 0.9779
-4.1021 -3.2437 -1.8702 0.9780
-3.4370 -3.8969 -1.8582 0.9782
-2.6817 -4.4354 -1.8535 0.9782
-2.2752 -4.6584 -1.8540 0.9782
-1.4145 -5.0063 -1.8604 0.9781
-0.9645 -5.1291 -1.8663 0.9781
-0.0364 -5.2674 -1.8837 0.9779
0.4371 -5.2813 -1.8951 0.9777
1.2460 -4.8876 -1.9329 0.9786
1.6911 -4.7945 -1.9483 0.9785
3.7799 -3.7715 -2.0462 0.9774
4.1483 -3.4573 -2.0694 0.9771
4.7267 -2.1470 -1.9895 0.9780
4.9587 -1.7366 -2.0134 0.9777
5.3130 -0.8460 -2.0617 0.9772
5.5019 0.1159 -2.1089 0.9767
5.5282 0.6136 -2.1315 0.9765
5.5066 1.1164 -2.1532 0.9762
5.4358 1.6192 -2.1735 0.9760
5.3152 2.1167 -2.1924 0.9758
5.1447 2.6035 -2.2096 0.9756
4.6578 3.5221 -2.2378 0.9753
3.8577 4.1878 -2.1820 0.9759
3.3812 4.4026 -2.1273 0.9765
2.6075 5.0585 -2.1809 0.9759
1.5274 3.7535 -1.5529 0.9828
1.6886 5.5177 -2.2113 0.9756
1.2064 5.7303 -2.2441 0.9752
0.3284 2.7699 -1.0689 0.9881
0.1656 5.8033 -2.2248 0.9754
-0.8574 5.6566 -2.1925 0.9758
-2.2624 5.0814 -2.1316 0.9765
-2.6787 4.8073 -2.1089 0.9767
-3.0633 4.4983 -2.0856 0.9770
-4.9449 2.3042 -2.0906 0.9769
-5.0791 1.8343 -2.0695 0.9771
-5.1642 1.3577 -2.0463 0.9774
-5.2079 0.8811 -2.0241 0.9776
-5.2113 0.4079 -2.0032 0.9779
-5.1756 -0.0588 -1.9835 0.9781
-4.9922 -0.9618 -1.9483 0.9785
-4.6703 -1.8077 -1.9191 0.9788
-4.4616 -2.2037 -1.9069 0.9789
-4.2233 -2.5792 -1.8964 0.9790
-3.9573 -2.9326 -1.8875 0.9791
-3.3496 -3.5662 -1.8750 0.9793
-2.6533 -4.0932 -1.8693 0.9793
-2.2767 -4.3135 -1.8691 0.9793
-1.8837 -4.5035 -1.8707 0.9793
-1.0566 -4.7882 -1.8791 0.9792
-0.1889 -4.9396 -1.8943 0.9790
0.7015 -4.9512 -1.9163 0.9788
1.1491 -4.9029 -1.9298 0.9787
1.5950 -4.8178 -1.9448 0.9785
2.8939 -4.3394 -1.9988 0.9779
3.6972 -3.8349 -2.0414 0.9774
4.6721 -2.2324 -1.9843 0.9781
5.1158 -1.3981 -2.0323 0.9775
5.4901 0.0092 -2.1039 0.9768
5.5266 0.5052 -2.1267 0.9765
5.3456 2.0096 -2.1885 0.9758
5.1858 2.4992 -2.2060 0.9756
4.7197 3.4271 -2.2352 0.9753
3.4825 4.3570 -2.1375 0.9764
2.7309 5.0548 -2.2017 0.9757
2.2619 5.2637 -2.1955 0.9758
0.2785 5.8068 -2.2278 0.9754
-0.7489 5.6822 -2.1963 0.9757
-1.2431 5.5453 -2.1778 0.9760
-3.6625 3.8734 -2.0428 0.9774
-3.9468 3.4888 -2.0187 0.9777
-2.5494 1.8761 -1.2130 0.9865
-4.3983 2.6660 -1.9710 0.9782
-4.9080 2.4039 -2.0943 0.9769
-5.1866 0.0416 -1.9877 0.9780
-5.1211 -0.4181 -1.9690 0.9782
-5.0190 -0.8664 -1.9518 0.9784
-4.8819 -1.3009 -1.9361 0.9786
