ply
format ascii 1.0
element vertex 1597
property float32 x
property float32 y
property float32 z
property float32 I
end_header
2.6072 5.0301 -1.7426 0.9766
2.1357 5.2119 -1.7324 0.9767
1.1566 3.7441 -1.2053 0.9837
1.1901 5.5741 -1.7531 0.9764
0.3450 2.8362 -0.8788 0.9881
0.0905 2.8468 -0.8761 0.9882
-0.3547 6.1599 -1.8978 0.9745
-0.9436 6.3815 -1.9842 0.9734
-2.8537 6.4828 -2.1786 0.9708
-3.3746 6.1195 -2.1494 0.9712
-3.8524 5.7135 -2.1195 0.9716
-4.2841 5.2705 -2.0891 0.9720
-4.6676 4.7962 -2.0585 0.9724
-5.0016 4.2964 -2.0280 0.9728
-5.2852 3.7764 -1.9980 0.9732
-6.1434 2.9060 -2.0903 0.9720
-6.2873 2.3133 -2.0606 0.9724
-6.3790 1.7193 -2.0321 0.9727
-6.4201 1.1284 -2.0050 0.9731
-6.3576 -0.0292 -1.9555 0.9737
-6.2579 -0.5892 -1.9333 0.9740
-6.1153 -1.1328 -1.9129 0.9743
-5.4518 -2.6404 -1.8632 0.9750
-5.1594 -3.0948 -1.8505 0.9751
-4.4804 -3.9207 -1.8312 0.9754
-4.0981 -4.2891 -1.8246 0.9755
-3.2584 -4.9296 -1.8175 0.9756
-1.8423 -5.6310 -1.8223 0.9755
-1.3370 -5.7908 -1.8280 0.9754
0.2472 -6.0332 -1.8573 0.9750
0.7900 -6.0315 -1.8710 0.9749
2.4249 -5.7660 -1.9239 0.9742
3.4894 -5.3649 -1.9685 0.9736
4.0038 -5.0959 -1.9933 0.9732
4.5011 -4.7811 -2.0197 0.9729
6.2132 -3.0660 -2.1311 0.9714
2.3557 -0.9113 -0.7769 0.9895
6.3894 -1.8362 -2.0448 0.9726
6.8116 -0.6922 -2.1059 0.9718
6.9443 -0.0832 -2.1361 0.9714
7.0199 0.5437 -2.1656 0.9710
6.9872 1.8279 -2.2214 0.9702
6.8746 2.4718 -2.2470 0.9699
6.6961 3.1071 -2.2705 0.9696
6.2451 3.6068 -2.2182 0.9703
5.5291 3.8893 -2.0792 0.9721
3.8454 4.6600 -1.8583 0.9750
6.3313 -0.3675 -2.1081 0.9736
6.4210 0.2011 -2.1354 0.9733
6.4568 0.7824 -2.1620 0.9730
6.4361 1.3710 -2.1874 0.9726
6.3573 1.9607 -2.2114 0.9723
6.0216 3.1176 -2.2540 0.9718
5.7651 3.6711 -2.2719 0.9716
5.2044 4.0085 -2.1836 0.9727
4.0431 4.4645 -2.0021 0.9749
3.5233 4.6673 -1.9439 0.9757
3.0287 4.8596 -1.9034 0.9762
2.5502 5.0447 -1.8790 0.9765
2.0798 5.2260 -1.8697 0.9766
1.0843 3.6404 -1.2626 0.9841
1.1339 5.5881 -1.8954 0.9763
0.3151 2.8298 -0.9464 0.9881
0.0633 2.9251 -0.9726 0.9877
-0.4185 6.1758 -2.0576 0.9742
-1.4196 5.6484 -1.9359 0.9757
-2.1630 6.2030 -2.1837 0.9727
-2.6757 5.9152 -2.1581 0.9730
-3.9884 4.8062 -2.0761 0.9740
-4.3415 4.3715 -2.0480 0.9744
-4.9117 3.4349 -1.9923 0.9751
-5.9594 0.4451 -1.9864 0.9751
-5.8157 -0.6071 -1.9437 0.9757
-5.3032 -2.0684 -1.8922 0.9763
-5.0611 -2.5148 -1.8786 0.9765
-4.7866 -2.9377 -1.8668 0.9766
-4.4818 -3.3351 -1.8570 0.9767
-4.1488 -3.7055 -1.8491 0.9768
-3.7895 -4.0475 -1.8430 0.9769
-3.4059 -4.3596 -1.8390 0.9770
-2.5740 -4.8889 -1.8366 0.9770
-1.6696 -5.2838 -1.8420 0.9769
-0.7095 -5.5355 -1.8551 0.9768
0.2882 -5.6358 -1.8758 0.9765
0.7951 -5.6269 -1.8890 0.9763
1.3040 -5.5775 -1.9040 0.9761
2.3161 -5.3548 -1.9393 0.9757
2.8134 -5.1804 -1.9596 0.9755
3.7740 -4.7044 -2.0048 0.9749
4.2301 -4.4029 -2.0296 0.9746
4.6651 -4.0597 -2.0557 0.9743
5.0749 -3.6757 -2.0829 0.9739
5.4555 -3.2521 -2.1112 0.9736
5.9204 -1.6366 -2.0418 0.9744
6.1258 -1.1173 -2.0698 0.9741
6.2848 -0.5743 -2.0978 0.9737
6.3939 -0.0117 -2.1254 0.9734
6.3934 1.7421 -2.2027 0.9725
6.2774 2.3293 -2.2257 0.9722
6.1018 2.9070 -2.2467 0.9719
5.8671 3.4683 -2.2655 0.9717
5.4453 3.9135 -2.2290 0.9721
4.2446 4.3856 -2.0288 0.9746
2.7265 4.9766 -1.8862 0.9764
2.2540 5.1590 -1.8714 0.9765
1.3120 5.5201 -1.8860 0.9764
0.4468 3.0800 -1.0345 0.9870
0.1459 2.6617 -0.8861 0.9888
-0.2106 6.0975 -2.0281 0.9746
-0.7857 6.3138 -2.1149 0.9735
-2.4893 6.0274 -2.1677 0.9729
-2.9802 5.7113 -2.1414 0.9732
-3.4335 5.3539 -2.1142 0.9735
-4.2156 4.5360 -2.0584 0.9742
-4.5406 4.0856 -2.0304 0.9746
-4.8198 3.6142 -2.0025 0.9749
-5.7981 2.2860 -2.0717 0.9741
-5.9573 1.1889 -2.0193 0.9747
-5.7365 -0.9267 -1.9316 0.9758
-5.5790 -1.4213 -1.9137 0.9760
-5.3845 -1.8970 -1.8977 0.9762
-5.1548 -2.3518 -1.8834 0.9764
-4.8921 -2.7836 -1.8710 0.9766
-4.5984 -3.1906 -1.8604 0.9767
-4.2756 -3.5713 -1.8518 0.9768
-3.1532 -4.5399 -1.8374 0.9770
-2.7344 -4.8005 -1.8364 0.9770
-1.3729 -5.3788 -1.8453 0.9769
0.1010 -5.6290 -1.8714 0.9765
0.6066 -5.6349 -1.8839 0.9764
1.1150 -5.6006 -1.8982 0.9762
4.5063 -4.1919 -2.0458 0.9744
5.3179 -3.4139 -2.1006 0.9737
2.3234 -0.9608 -0.8357 0.9895
6.2314 -0.7784 -2.0875 0.9739
6.3594 -0.2225 -2.1152 0.9735
6.4569 0.9336 -2.1686 0.9729
5.9611 3.2623 -2.2588 0.9718
5.0428 4.0722 -2.1546 0.9730
4.4516 4.3045 -2.0584 0.9742
3.3939 4.7177 -1.9318 0.9758
2.4286 5.0917 -1.8752 0.9765
1.9591 5.2724 -1.8696 0.9766
1.4884 5.4527 -1.8788 0.9765
0.2469 2.8018 -0.9349 0.9882
-1.5649 5.6713 -1.9556 0.9755
-2.8022 5.8337 -2.1513 0.9731
-4.4252 4.2555 -2.0408 0.9745
-2.5930 1.7259 -1.0354 0.9870
-5.7449 2.4880 -2.0810 0.9740
-5.8687 1.9410 -2.0547 0.9743
-5.9688 0.8462 -2.0039 0.9749
-5.9504 0.3070 -1.9806 0.9752
-5.2440 -2.1856 -1.8885 0.9763
-4.0587 -3.7964 -1.8473 0.9768
-3.6929 -4.1308 -1.8418 0.9769
-3.3034 -4.4350 -1.8382 0.9770
-2.8922 -4.7076 -1.8366 0.9770
-1.5487 -5.3245 -1.8432 0.9769
0.4184 -5.6373 -1.8790 0.9765
0.9261 -5.6181 -1.8927 0.9763
1.4350 -5.5582 -1.9082 0.9761
2.4450 -5.3139 -1.9444 0.9756
2.9400 -5.1286 -1.9650 0.9754
4.3443 -4.3185 -2.0362 0.9745
4.7732 -3.9647 -2.0626 0.9742
5.1759 -3.5703 -2.0901 0.9738
5.5422 -3.1333 -2.1163 0.9735
5.4625 -2.4740 -1.9933 0.9750
5.7400 -2.0045 -2.0210 0.9747
5.9775 -1.5053 -2.0490 0.9744
6.3178 -0.4311 -2.1050 0.9737
6.4555 0.7159 -2.1590 0.9730
6.3692 1.8939 -2.2088 0.9724
5.7972 3.6094 -2.2700 0.9716
3.0840 4.8381 -1.9072 0.9761
2.6040 5.0239 -1.8810 0.9764
1.1142 3.6067 -1.2548 0.9842
-0.9423 6.3726 -2.1413 0.9732
-1.3611 5.6576 -1.9343 0.9758
-2.1027 6.2327 -2.1865 0.9727
-2.6192 5.9502 -2.1610 0.9730
-4.8843 3.4900 -1.9954 0.9750
-5.6796 2.6866 -2.0885 0.9739
-5.8293 2.1448 -2.0647 0.9742
-5.9203 1.5957 -2.0382 0.9745
-5.9624 0.5062 -1.9891 0.9751
-5.9165 -0.0272 -1.9667 0.9754
-5.5324 -1.5457 -1.9094 0.9761
-5.0902 -2.4653 -1.8800 0.9764
-4.8194 -2.8909 -1.8681 0.9766
-4.1880 -3.6649 -1.8499 0.9768
-3.8315 -4.0101 -1.8436 0.9769
-3.0472 -4.6101 -1.8369 0.9770
-2.6234 -4.8624 -1.8365 0.9770
-2.1812 -5.0811 -1.8380 0.9770
-1.7226 -5.2652 -1.8415 0.9769
-1.2499 -5.4135 -1.8468 0.9769
-0.7652 -5.5252 -1.8541 0.9768
-0.2709 -5.5991 -1.8633 0.9766
0.7374 -5.6299 -1.8874 0.9764
3.2458 -4.9904 -1.9788 0.9752
3.7210 -4.7360 -2.0020 0.9749
4.1793 -4.4393 -2.0267 0.9746
5.0297 -3.7214 -2.0798 0.9740
5.3501 -2.6401 -1.9831 0.9752
6.2692 -0.6370 -2.0946 0.9738
6.3841 -0.0765 -2.1223 0.9734
6.4463 0.4993 -2.1492 0.9731
6.4533 1.0851 -2.1752 0.9728
5.8967 3.4056 -2.2635 0.9717
5.5210 3.8836 -2.2438 0.9719
5.9596 0.7222 -2.1468 0.9748
5.9351 1.2643 -2.1701 0.9746
5.8574 1.8066 -2.1920 0.9743
5.3004 3.3752 -2.2471 0.9737
4.5926 4.2408 -2.2354 0.9738
3.0249 4.8534 -2.0451 0.9760
2.5470 5.0384 -2.0189 0.9763
-0.4179 6.1674 -2.2106 0.9741
-1.4182 5.6428 -2.0807 0.9756
-1.9949 5.7209 -2.1667 0.9746
-2.9134 5.1588 -2.1187 0.9751
-3.6925 4.4498 -2.0678 0.9757
-4.0235 4.0514 -2.0419 0.9760
-4.3134 3.6298 -2.0160 0.9763
-4.7661 2.7351 -1.9651 0.9769
-4.9286 2.2705 -1.9405 0.9772
-5.4404 1.9392 -2.0654 0.9758
-5.5250 1.4292 -2.0408 0.9760
-5.5636 0.4155 -1.9951 0.9766
-5.5203 -0.0813 -1.9743 0.9768
-5.4372 -0.5676 -1.9550 0.9770
-4.7421 -2.3563 -1.8936 0.9778
-4.4867 -2.7536 -1.8825 0.9779
-4.2024 -3.1271 -1.8732 0.9780
-3.5548 -3.7969 -1.8600 0.9781
-2.8149 -4.3540 -1.8541 0.9782
-1.5663 -4.9569 -1.8590 0.9782
1.2207 -5.2215 -1.9176 0.9775
3.5212 -4.3893 -2.0123 0.9764
3.9435 -4.1046 -2.0355 0.9761
4.7226 -3.4206 -2.0853 0.9755
5.2631 -1.9749 -2.0103 0.9764
5.4880 -1.5170 -2.0361 0.9761
5.9092 -0.0109 -2.1132 0.9752
5.9553 0.5221 -2.1378 0.9749
5.8925 1.6056 -2.1840 0.9744
5.7809 2.1450 -2.2050 0.9741
5.6150 2.6750 -2.2242 0.9739
4.8007 4.1469 -2.2686 0.9734
4.2389 4.3797 -2.1796 0.9744
2.7231 4.9704 -2.0267 0.9762
2.2512 5.1525 -2.0108 0.9764
1.2536 3.7500 -1.4140 0.9833
0.4496 3.0994 -1.1200 0.9868
0.1462 2.6669 -0.9551 0.9887
-0.2103 6.0893 -2.1789 0.9744
-1.2564 5.8065 -2.1243 0.9751
-1.8112 5.8063 -2.1750 0.9745
-2.2972 5.5622 -2.1520 0.9748
-2.7528 5.2753 -2.1279 0.9750
-3.5595 4.5908 -2.0774 0.9756
-3.9054 4.2022 -2.0515 0.9759
-4.4741 3.3549 -1.9998 0.9765
-2.6475 1.6383 -1.1134 0.9869
-5.4987 1.6186 -2.0498 0.9759
-5.5556 1.1087 -2.0259 0.9762
-5.5693 0.6021 -2.0032 0.9765
-5.5411 0.1020 -1.9819 0.9767
-5.3654 -0.8668 -1.9436 0.9772
-5.2212 -1.3301 -1.9268 0.9774
-5.0418 -1.7763 -1.9116 0.9775
-4.8291 -2.2032 -1.8982 0.9777
-4.5849 -2.6088 -1.8864 0.9778
-4.0097 -3.3492 -1.8683 0.9781
-3.3314 -3.9847 -1.8574 0.9782
-2.9585 -4.2596 -1.8546 0.9782
-2.5657 -4.5043 -1.8538 0.9782
-1.7283 -4.8983 -1.8575 0.9782
-1.2878 -5.0454 -1.8621 0.9781
0.0947 -5.2754 -1.8868 0.9778
0.5682 -5.2787 -1.8986 0.9777
1.5195 -5.1710 -1.9274 0.9774
1.9918 -5.0587 -1.9442 0.9772
2.4580 -4.9071 -1.9627 0.9770
3.3599 -4.4850 -2.0040 0.9765
3.7889 -4.2148 -2.0267 0.9762
4.1987 -3.9058 -2.0507 0.9759
4.9459 -3.1750 -2.1018 0.9753
5.4090 -1.6900 -2.0265 0.9762
5.7669 -0.7203 -2.0783 0.9756
5.9441 0.3231 -2.1288 0.9750
5.9583 0.8615 -2.1529 0.9747
5.9202 1.4042 -2.1759 0.9745
5.4831 3.0007 -2.2352 0.9738
5.2303 3.5022 -2.2510 0.9736
4.9262 3.9780 -2.2643 0.9735
3.6779 4.2538 -2.0109 0.9764
1.0540 3.8610 -1.4313 0.9831
-0.0083 6.0132 -2.1504 0.9748
-1.1032 6.0644 -2.2043 0.9742
-2.1201 5.6580 -2.1607 0.9747
-2.5875 5.3865 -2.1370 0.9749
-3.0221 5.0750 -2.1123 0.9752
-3.4210 4.7279 -2.0869 0.9755
-4.1022 3.9448 -2.0352 0.9761
-4.3812 3.5181 -2.0093 0.9764
-2.5944 1.7269 -1.1145 0.9868
-4.8121 2.6163 -1.9587 0.9770
-5.5396 1.2978 -2.0346 0.9761
-5.2789 -1.1600 -1.9328 0.9773
-5.1124 -1.6128 -1.9171 0.9775
-4.9119 -2.0471 -1.9030 0.9776
-4.6791 -2.4608 -1.8906 0.9778
-1.8884 -4.8351 -1.8562 0.9782
-1.0047 -5.1202 -1.8660 0.9781
-0.0800 -5.2647 -1.8829 0.9779
0.8673 -5.2614 -1.9069 0.9776
2.2859 -4.9680 -1.9556 0.9770
3.1964 -4.5753 -1.9959 0.9766
4.0490 -4.0250 -2.0417 0.9760
4.4449 -3.6920 -2.0663 0.9758
5.3247 -1.8595 -2.0169 0.9763
5.7134 -0.9068 -2.0687 0.9757
5.8431 -0.3987 -2.0944 0.9754
5.9590 0.6609 -2.1441 0.9749
5.9405 1.2026 -2.1675 0.9746
5.8690 1.7451 -2.1896 0.9743
5.7433 2.2827 -2.2101 0.9741
5.5636 2.8093 -2.2288 0.9739
4.0988 4.4346 -2.1595 0.9747
3.0800 4.8320 -2.0492 0.9760
2.6008 5.0177 -2.0211 0.9763
1.1102 3.5936 -1.3450 0.9841
1.1871 5.5602 -2.0332 0.9761
-0.3537 6.1433 -2.2005 0.9742
-0.9047 6.1181 -2.2117 0.9741
-1.3600 5.6529 -2.0792 0.9756
-1.9391 5.7477 -2.1692 0.9746
-2.4176 5.4922 -2.1459 0.9748
-3.9880 4.0979 -2.0448 0.9760
-4.5351 3.2404 -1.9932 0.9766
-4.7450 2.7874 -1.9680 0.9769
-5.5176 1.4871 -2.0435 0.9760
-5.5272 -0.0254 -1.9766 0.9768
-5.4486 -0.5130 -1.9571 0.9770
-4.9902 -1.8882 -1.9080 0.9776
-4.5171 -2.7096 -1.8837 0.9779
-4.2361 -3.0859 -1.8742 0.9780
-3.9278 -3.4372 -1.8665 0.9781
-2.0465 -4.7673 -1.8553 0.9782
-1.6161 -4.9394 -1.8585 0.9782
-0.7176 -5.1811 -1.8705 0.9780
1.1667 -5.2290 -1.9159 0.9775
1.6416 -5.1458 -1.9315 0.9773
2.1126 -5.0234 -1.9488 0.9771
3.8965 -4.1389 -2.0328 0.9761
4.6811 -3.4634 -2.0824 0.9756
4.9697 -2.4524 -1.9818 0.9767
5.4644 -1.5704 -2.0332 0.9761
5.8003 -0.5894 -2.0849 0.9755
5.9008 -0.0707 -2.1103 0.9752
5.9535 1.0011 -2.1589 0.9747
5.9018 1.5440 -2.1816 0.9744
5.6366 2.6155 -2.2221 0.9739
5.1568 3.6274 -2.2546 0.9736
4.8398 4.0957 -2.2673 0.9734
3.5584 4.3123 -1.9993 0.9765
5.3281 -0.7904 -2.0642 0.9772
5.5062 0.1724 -2.1111 0.9767
3.3079 4.3820 -2.1040 0.9768
3.0210 4.8472 -2.1888 0.9758
1.1310 5.5739 -2.1795 0.9759
0.3135 2.8153 -1.0855 0.9879
0.0579 2.6754 -1.0255 0.9886
-0.3896 5.7496 -2.2084 0.9756
-1.8489 5.3021 -2.1519 0.9762
-2.7046 4.7890 -2.1077 0.9767
-3.4337 4.1379 -2.0606 0.9772
-3.7448 3.7707 -2.0365 0.9775
-4.0181 3.3813 -2.0125 0.9778
-4.2525 2.9739 -1.9886 0.9780
-4.6030 2.1205 -1.9421 0.9785
-5.1682 1.3369 -2.0457 0.9774
-5.2101 0.8613 -2.0237 0.9776
-5.1000 -0.5324 -1.9650 0.9783
-4.9891 -0.9766 -1.9482 0.9785
-4.8439 -1.4065 -1.9329 0.9786
-4.2180 -2.5887 -1.8966 0.9790
-3.9519 -2.9408 -1.8878 0.9791
-3.6601 -3.2691 -1.8806 0.9792
-3.3444 -3.5721 -1.8752 0.9793
-3.0067 -3.8485 -1.8716 0.9793
-2.6488 -4.0971 -1.8696 0.9793
-2.2727 -4.3165 -1.8694 0.9793
-1.8803 -4.5057 -1.8710 0.9793
-1.0547 -4.7892 -1.8793 0.9792
-0.6257 -4.8816 -1.8860 0.9791
0.2538 -4.9635 -1.9046 0.9789
0.6997 -4.9515 -1.9164 0.9788
1.1464 -4.9034 -1.9297 0.9787
1.5913 -4.8187 -1.9447 0.9785
2.0317 -4.6971 -1.9612 0.9783
2.4647 -4.5383 -1.9791 0.9781
3.2967 -4.1095 -2.0190 0.9777
3.6894 -3.8402 -2.0407 0.9774
4.0621 -3.5350 -2.0636 0.9772
4.7285 -2.8187 -2.1096 0.9767
4.6642 -2.2431 -1.9834 0.9781
5.1088 -1.4122 -2.0312 0.9776
5.2761 -0.9623 -2.0553 0.9773
5.5157 0.9851 -2.1472 0.9763
5.4580 1.4872 -2.1679 0.9761
4.0909 4.2268 -2.2542 0.9751
3.4857 4.3125 -2.1250 0.9765
3.0139 4.4966 -2.0744 0.9771
1.2401 3.7096 -1.4989 0.9834
1.3086 5.5062 -2.1689 0.9760
0.1538 2.8049 -1.0765 0.9880
-1.2028 5.5586 -2.1795 0.9759
-1.6782 5.3797 -2.1596 0.9761
-2.5546 4.8956 -2.1161 0.9766
-2.9485 4.5976 -2.0931 0.9769
-3.3089 4.2677 -2.0694 0.9771
-3.6337 3.9098 -2.0455 0.9774
-3.9211 3.5282 -2.0214 0.9777
-5.1422 1.5136 -2.0542 0.9773
-5.1993 1.0376 -2.0317 0.9775
-5.2158 0.5639 -2.0104 0.9778
-5.1929 0.0956 -1.9904 0.9780
-5.0344 -0.8133 -1.9543 0.9784
-4.9017 -1.2487 -1.9384 0.9786
-4.7356 -1.6684 -1.9241 0.9787
-4.5377 -2.0702 -1.9114 0.9789
-4.3099 -2.4523 -1.9003 0.9790
-3.7713 -3.1501 -1.8831 0.9792
-3.4643 -3.4627 -1.8770 0.9792
-3.1345 -3.7491 -1.8727 0.9793
-2.7839 -4.0082 -1.8701 0.9793
-2.4143 -4.2385 -1.8693 0.9793
-1.6261 -4.6087 -1.8728 0.9793
-1.2115 -4.7464 -1.8772 0.9792
-0.3517 -4.9223 -1.8911 0.9791
1.8689 -4.7466 -1.9549 0.9784
2.3050 -4.6016 -1.9723 0.9782
2.7319 -4.4194 -1.9911 0.9780
3.5458 -3.9444 -2.0325 0.9775
2.3208 -0.9598 -0.9624 0.9893
5.0369 -1.5738 -2.0223 0.9776
5.2186 -1.1317 -2.0463 0.9774
5.3608 -0.6696 -2.0703 0.9771
5.5160 0.2998 -2.1170 0.9766
5.5247 0.7988 -2.1392 0.9764
5.4852 1.3010 -2.1603 0.9761
5.3964 1.8013 -2.1802 0.9759
4.5506 3.6747 -2.2414 0.9753
4.2231 4.0835 -2.2512 0.9751
3.6672 4.2415 -2.1487 0.9763
2.4225 5.0789 -2.1564 0.9762
1.9542 5.2592 -2.1500 0.9763
1.4847 5.4390 -2.1606 0.9761
1.0066 5.6212 -2.1884 0.9758
0.2461 2.7928 -1.0744 0.9881
-0.5207 5.7280 -2.2041 0.9757
-1.0212 5.6134 -2.1865 0.9759
-1.5042 5.4514 -2.1671 0.9761
-2.4005 4.9972 -2.1245 0.9765
-2.8061 4.7122 -2.1017 0.9768
-3.1792 4.3936 -2.0783 0.9770
-3.5174 4.0456 -2.0544 0.9773
-3.8189 3.6724 -2.0303 0.9776
-2.5978 1.7291 -1.1959 0.9867
-4.4914 2.4419 -1.9591 0.9783
-4.6366 2.0081 -1.9363 0.9786
-5.2143 0.7393 -2.0182 0.9777
-5.2059 0.2686 -1.9977 0.9779
-5.0748 -0.6481 -1.9605 0.9783
-3.8792 -3.0277 -1.8858 0.9791
-3.5810 -3.3496 -1.8791 0.9792
-3.2594 -3.6459 -1.8741 0.9793
-2.9163 -3.9153 -1.8709 0.9793
-2.1731 -4.3682 -1.8697 0.9793
-1.7768 -4.5494 -1.8717 0.9793
-0.0752 -4.9494 -1.8969 0.9790
0.8148 -4.9426 -1.9197 0.9788
1.2612 -4.8851 -1.9334 0.9786
1.7052 -4.7909 -1.9488 0.9785
2.1440 -4.6597 -1.9656 0.9783
2.9943 -4.2859 -2.0036 0.9779
3.3996 -4.0436 -2.0245 0.9776
3.7875 -3.7649 -2.0465 0.9774
4.4972 -3.1022 -2.0937 0.9769
4.9600 -1.7322 -2.0133 0.9777
5.4287 -0.3704 -2.0852 0.9770
5.5056 1.1145 -2.1526 0.9762
5.3151 2.1125 -2.1918 0.9758
4.6610 3.5152 -2.2372 0.9753
4.3496 3.9355 -2.2479 0.9752
3.0761 4.8258 -2.1931 0.9758
2.5975 5.0113 -2.1631 0.9761
2.1278 5.1924 -2.1504 0.9762
0.0846 2.6635 -1.0212 0.9886
-0.3316 5.7580 -2.2102 0.9756
-1.3272 5.5169 -2.1745 0.9760
-2.2422 5.0937 -2.1328 0.9764
-2.6591 4.8221 -2.1103 0.9767
-3.0446 4.5155 -2.0870 0.9769
-3.9890 3.4266 -2.0152 0.9777
-4.2279 3.0209 -1.9913 0.9780
-5.1608 1.3910 -2.0483 0.9774
-5.2074 0.9152 -2.0261 0.9776
-5.1103 -0.4811 -1.9670 0.9783
-4.8621 -1.3584 -1.9346 0.9786
-4.4819 -2.1706 -1.9084 0.9789
-3.9835 -2.9019 -1.8887 0.9791
-2.3163 -4.2931 -1.8694 0.9793
-1.9256 -4.4857 -1.8707 0.9793
-1.5205 -4.6472 -1.8738 0.9793
-1.1029 -4.7766 -1.8786 0.9792
-0.2388 -4.9351 -1.8934 0.9791
0.2033 -4.9626 -1.9034 0.9789
1.9819 -4.7128 -1.9592 0.9783
2.4160 -4.5582 -1.9770 0.9781
2.8400 -4.3665 -1.9961 0.9779
3.2510 -4.1378 -2.0166 0.9777
4.0209 -3.5715 -2.0610 0.9772
4.6954 -2.8640 -2.1077 0.9767
2.3621 -0.9138 -0.9706 0.9892
5.2591 -1.0144 -2.0525 0.9773
5.4793 -0.0657 -2.0999 0.9768
5.5228 0.4278 -2.1228 0.9766
5.5192 0.9280 -2.1447 0.9763
5.4670 1.4303 -2.1656 0.9761
5.2142 2.4195 -2.2028 0.9757
4.7651 3.3519 -2.2326 0.9754
4.4703 3.7830 -2.2442 0.9752
4.1320 4.1835 -2.2533 0.9751
3.5409 4.2910 -2.1320 0.9765
4.9728 -0.7377 -2.0575 0.9785
5.0726 -0.2944 -2.0796 0.9783
5.1470 0.6237 -2.1219 0.9778
5.1183 1.0903 -2.1418 0.9776
5.0443 1.5558 -2.1605 0.9774
4.9244 2.0153 -2.1777 0.9773
4.2951 3.3081 -2.2188 0.9768
3.6668 4.0489 -2.2357 0.9767
2.4721 4.8902 -2.2426 0.9766
0.3139 2.8182 -1.1606 0.9878
0.0576 2.6640 -1.0906 0.9885
-0.8307 5.2495 -2.1752 0.9773
-1.2851 5.1131 -2.1577 0.9775
-1.7207 4.9346 -2.1389 0.9777
-2.5207 4.4634 -2.0979 0.9781
-2.8786 4.1773 -2.0763 0.9783
-3.2051 3.8624 -2.0542 0.9785
-3.7564 3.1612 -2.0094 0.9790
-2.7170 1.5592 -1.2821 0.9866
-4.3131 1.9869 -1.9435 0.9797
-4.7590 1.6964 -2.0678 0.9784
-4.8495 1.2544 -2.0501 0.9786
-2.0808 0.3440 -0.8632 0.9909
-1.9573 -0.2043 -0.8054 0.9915
-4.6953 -0.9191 -1.9582 0.9795
-4.3949 -1.7141 -1.9307 0.9798
-3.9758 -2.4401 -1.9092 0.9800
-2.4987 -3.8650 -1.8836 0.9803
-2.1439 -4.0720 -1.8835 0.9803
-1.7737 -4.2503 -1.8849 0.9803
-1.3899 -4.3988 -1.8881 0.9803
-0.9947 -4.5166 -1.8928 0.9802
-0.1780 -4.6566 -1.9072 0.9801
0.6591 -4.6644 -1.9280 0.9798
1.0795 -4.6172 -1.9407 0.9797
1.9113 -4.4187 -1.9704 0.9794
4.1343 -2.9944 -2.0893 0.9782
4.3646 -2.0990 -1.9822 0.9793
5.1144 -0.0094 -2.0932 0.9781
5.1342 0.9170 -2.1346 0.9777
4.9743 1.8457 -2.1715 0.9773
4.8257 2.2990 -2.1877 0.9772
4.1143 3.5540 -2.2251 0.9768
3.3982 4.2043 -2.2125 0.9769
3.0099 4.4907 -2.2126 0.9769
2.6332 4.8064 -2.2430 0.9766
1.2370 3.7001 -1.5967 0.9833
1.2600 5.3015 -2.2302 0.9767
0.1529 2.7883 -1.1429 0.9880
-0.1852 5.3637 -2.1965 0.9771
-0.6582 5.2889 -2.1813 0.9772
-1.1184 5.1688 -2.1644 0.9774
-1.5615 5.0056 -2.1460 0.9776
-3.6648 3.2975 -2.0177 0.9789
-3.9004 2.9248 -1.9953 0.9791
-2.6053 1.6122 -1.2539 0.9868
-4.2622 2.1375 -1.9515 0.9796
-4.3878 1.7300 -1.9303 0.9798
-1.9569 0.2116 -0.8056 0.9915
-1.9522 -0.1386 -0.8010 0.9916
-4.4600 -1.5713 -1.9353 0.9798
-4.2753 -1.9505 -1.9233 0.9799
-3.8217 -2.6517 -1.9038 0.9801
-3.5563 -2.9704 -1.8964 0.9802
-3.2673 -3.2658 -1.8907 0.9802
-2.9567 -3.5364 -1.8866 0.9803
-1.9128 -4.1875 -1.8842 0.9803
-0.3316 -4.6405 -1.9041 0.9801
0.5031 -4.6732 -1.9237 0.9799
0.9235 -4.6388 -1.9358 0.9798
2.1677 -4.3274 -1.9809 0.9793
3.3285 -3.7027 -2.0377 0.9787
3.6832 -3.4263 -2.0588 0.9785
4.0166 -3.1172 -2.0809 0.9783
4.2749 -2.2332 -1.9740 0.9794
5.0023 -0.6248 -2.0632 0.9784
5.1395 0.2794 -2.1066 0.9780
5.1439 0.7437 -2.1272 0.9778
5.0178 1.6749 -2.1650 0.9774
4.7091 2.5771 -2.1970 0.9771
4.4875 3.0048 -2.2103 0.9769
4.2230 3.4101 -2.2215 0.9768
3.9179 3.7884 -2.2305 0.9767
3.5713 4.1305 -2.2348 0.9767
3.1603 4.3929 -2.2148 0.9769
2.7911 4.7165 -2.2430 0.9766
0.9582 5.3508 -2.2248 0.9768
0.2460 2.7913 -1.1468 0.9880
-0.0074 5.3795 -2.2017 0.9770
-0.9493 5.2185 -2.1709 0.9773
-1.3993 5.0710 -2.1530 0.9775
-2.2360 4.6550 -2.1136 0.9779
-2.6158 4.3927 -2.0924 0.9781
-3.2839 3.7771 -2.0484 0.9786
-3.5681 3.4313 -2.0260 0.9788
-2.5581 1.7027 -1.2577 0.9868
-4.2062 2.2869 -1.9595 0.9795
-4.3454 1.8819 -1.9381 0.9797
-1.9519 -0.2493 -0.8053 0.9915
-4.6638 -1.0248 -1.9543 0.9796
-3.3772 -3.1590 -1.8926 0.9802
-2.7510 -3.6934 -1.8848 0.9803
-2.4089 -3.9210 -1.8834 0.9803
-2.0500 -4.1207 -1.8837 0.9803
-0.4845 -4.6198 -1.9011 0.9801
-0.0709 -4.6652 -1.9096 0.9800
0.3472 -4.6773 -1.9196 0.9799
1.1875 -4.5995 -1.9442 0.9797
1.6048 -4.5087 -1.9587 0.9795
2.0167 -4.3830 -1.9746 0.9794
2.4205 -4.2223 -1.9919 0.9792
3.5539 -3.5327 -2.0509 0.9786
3.8955 -3.2357 -2.0726 0.9784
4.2139 -2.9067 -2.0951 0.9781
4.4244 -2.0038 -1.9879 0.9792
4.8160 -1.2128 -2.0326 0.9788
4.9590 -0.7871 -2.0550 0.9785
5.1474 0.5708 -2.1196 0.9779
4.9404 1.9636 -2.1758 0.9773
4.7801 2.4137 -2.1916 0.9771
4.5748 2.8484 -2.2056 0.9770
4.3260 3.2626 -2.2176 0.9769
4.0357 3.6514 -2.2274 0.9768
3.7065 4.0102 -2.2350 0.9767
2.9105 4.5661 -2.2162 0.9769
2.0756 5.0652 -2.2404 0.9766
0.0846 2.6637 -1.0907 0.9885
-0.7781 5.2622 -2.1771 0.9773
-1.6723 4.9569 -2.1411 0.9776
-2.0881 4.7436 -2.1212 0.9778
-2.8395 4.2113 -2.0788 0.9783
-3.1697 3.8995 -2.0567 0.9785
-2.5322 1.8094 -1.2737 0.9866
-2.1516 0.3782 -0.8941 0.9906
-1.9574 0.1662 -0.8040 0.9915
-1.9026 -0.0087 -0.7787 0.9918
-1.9579 -0.1843 -0.8049 0.9915
-4.4152 -1.6707 -1.9321 0.9798
-4.2230 -2.0453 -1.9204 0.9799
-4.0026 -2.4009 -1.9103 0.9800
-3.7557 -2.7360 -1.9017 0.9801
-3.4840 -3.0488 -1.8948 0.9802
-3.1893 -3.3379 -1.8895 0.9802
-2.8733 -3.6020 -1.8858 0.9803
-1.8165 -4.2315 -1.8847 0.9803
-0.2251 -4.6522 -1.9062 0.9801
0.6113 -4.6676 -1.9267 0.9799
1.0318 -4.6243 -1.9392 0.9797
1.4504 -4.5465 -1.9532 0.9796
1.8646 -4.4338 -1.9686 0.9794
2.2717 -4.2861 -1.9853 0.9793
3.0533 -3.8861 -2.0227 0.9789
3.4218 -3.6346 -2.0431 0.9787
4.0986 -3.0324 -2.0867 0.9782
4.3953 -2.6809 -2.1071 0.9780
4.3375 -2.1405 -1.9796 0.9793
4.7536 -1.3661 -2.0243 0.9788
4.9103 -0.9472 -2.0467 0.9786
5.1448 0.3985 -2.1120 0.9779
5.1378 0.8639 -2.1323 0.9777
5.0859 1.3305 -2.1516 0.9775
4.9883 1.7936 -2.1695 0.9773
4.4234 3.1115 -2.2134 0.9769
4.1481 3.5104 -2.2241 0.9768
3.4483 4.1788 -2.2174 0.9769
4.6566 -0.6908 -2.0516 0.9797
4.7468 -0.2755 -2.0722 0.9795
4.7985 0.1503 -2.0923 0.9793
4.8101 0.5829 -2.1116 0.9791
4.7085 1.4522 -2.1474 0.9787
4.5942 1.8802 -2.1634 0.9786
4.2398 2.6998 -2.1906 0.9783
4.0020 3.0824 -2.2015 0.9782
2.3017 4.5532 -2.2235 0.9780
1.0080 4.9678 -2.2091 0.9781
0.5587 5.0170 -2.2000 0.9782
0.0576 2.6634 -1.1610 0.9884
-0.3376 4.9811 -2.1758 0.9785
-2.6940 3.9094 -2.0691 0.9795
-3.5228 2.9645 -2.0066 0.9801
-2.5028 1.7503 -1.3310 0.9868
-2.6370 1.5133 -1.3250 0.9868
-4.0531 1.8672 -1.9448 0.9807
-1.5069 0.2491 -0.6657 0.9934
-1.5254 -0.0225 -0.6649 0.9934
-1.5690 -0.4556 -0.7120 0.9929
-3.9662 -1.9708 -1.9302 0.9809
-3.5210 -2.6201 -1.9128 0.9810
-2.9819 -3.1849 -1.9014 0.9811
-2.6813 -3.4321 -1.8981 0.9812
-2.3624 -3.6541 -1.8964 0.9812
-2.0270 -3.8499 -1.8962 0.9812
-1.6769 -4.0183 -1.8976 0.9812
-0.1681 -4.3996 -1.9188 0.9810
1.4131 -4.2792 -1.9640 0.9805
1.8025 -4.1672 -1.9788 0.9804
2.1844 -4.0222 -1.9948 0.9802
3.2583 -3.3914 -2.0497 0.9797
3.8856 -2.8143 -2.0909 0.9793
4.0965 -1.9701 -1.9811 0.9804
4.3007 -1.6138 -2.0019 0.9802
4.4739 -1.2367 -2.0229 0.9800
4.7177 -0.4311 -2.0646 0.9795
4.8105 0.4218 -2.1046 0.9791
4.3181 2.5526 -2.1861 0.9784
3.8328 3.3108 -2.2073 0.9781
3.2022 3.9618 -2.2201 0.9780
2.8401 4.2373 -2.2231 0.9780
2.4517 4.4751 -2.2238 0.9780
1.1736 4.9380 -2.2120 0.9781
0.7259 5.0040 -2.2036 0.9782
-0.1727 5.0011 -2.1809 0.9784
-0.6140 4.9337 -2.1668 0.9785
-1.4582 4.6745 -2.1340 0.9789
-2.5723 4.0111 -2.0767 0.9794
-2.8909 3.7286 -2.0562 0.9796
-3.4359 3.0916 -2.0144 0.9800
-2.5661 1.5879 -1.3152 0.9869
-4.1249 1.6263 -1.9324 0.9808
-1.5066 0.3007 -0.6696 0.9933
-1.5085 -0.2437 -0.6659 0.9934
-1.5936 -0.5614 -0.7364 0.9927
-4.0374 -1.8420 -1.9341 0.9808
-3.8371 -2.1833 -1.9240 0.9809
-3.6111 -2.5056 -1.9155 0.9810
-3.3610 -2.8073 -1.9085 0.9811
-3.0884 -3.0870 -1.9031 0.9811
-2.7951 -3.3432 -1.8992 0.9812
-1.4500 -4.1097 -1.8993 0.9812
-1.0801 -4.2314 -1.9032 0.9811
-0.3133 -4.3847 -1.9158 0.9810
2.0437 -4.0799 -1.9887 0.9803
2.4196 -3.9142 -2.0055 0.9801
2.7836 -3.7157 -2.0234 0.9799
4.5658 -0.9901 -2.0361 0.9798
4.6834 -0.5850 -2.0570 0.9796
4.7638 -0.1667 -2.0774 0.9794
4.8053 0.2612 -2.0973 0.9792
4.7659 1.1304 -2.1347 0.9789
4.5579 1.9889 -2.1673 0.9785
3.9345 3.1772 -2.2040 0.9782
3.6492 3.5286 -2.2123 0.9781
2.5987 4.3914 -2.2238 0.9780
1.7742 4.7748 -2.2200 0.9780
1.3381 4.9021 -2.2146 0.9781
0.8926 4.9847 -2.2070 0.9781
0.2509 2.8467 -1.2455 0.9876
-0.0069 5.0151 -2.1856 0.9784
-0.4513 4.9637 -2.1722 0.9785
-1.3064 4.7346 -2.1405 0.9788
-1.7091 4.5610 -2.1227 0.9790
-2.4468 4.1089 -2.0842 0.9793
-3.0759 3.5379 -2.0431 0.9798
-3.3445 3.2162 -2.0222 0.9800
-3.5804 2.8750 -2.0012 0.9802
-4.0842 1.7688 -1.9397 0.9808
-1.5868 0.5248 -0.7284 0.9927
-1.5341 0.3594 -0.6867 0.9931
-1.5158 0.2149 -0.6672 0.9933
-1.5295 0.0789 -0.6675 0.9933
-1.5201 -0.1941 -0.6679 0.9933
-1.5808 -0.4987 -0.7224 0.9928
-4.1049 -1.7108 -1.9381 0.9808
-3.6979 -2.3883 -1.9185 0.9810
-3.4566 -2.6978 -1.9110 0.9810
-3.1921 -2.9859 -1.9049 0.9811
-2.9063 -3.2509 -1.9004 0.9812
-2.6009 -3.4918 -1.8975 0.9812
-1.5845 -4.0571 -1.8982 0.9812
-0.0670 -4.4074 -1.9210 0.9810
1.1207 -4.3410 -1.9539 0.9806
2.2813 -3.9795 -1.9991 0.9802
2.6500 -3.7932 -2.0166 0.9800
3.0052 -3.5744 -2.0352 0.9798
3.3438 -3.3239 -2.0548 0.9796
4.2187 -2.3851 -2.1121 0.9791
4.6440 -0.7371 -2.0493 0.9797
4.7946 0.1015 -2.0900 0.9793
4.7188 1.4031 -2.1455 0.9787
4.6093 1.8320 -2.1617 0.9786
4.4576 2.2508 -2.1763 0.9784
4.2644 2.6550 -2.1893 0.9783
4.0310 3.0400 -2.2004 0.9782
3.7593 3.4014 -2.2094 0.9781
2.7424 4.3023 -2.2235 0.9780
2.3479 4.5299 -2.2236 0.9780
1.9327 4.7164 -2.2214 0.9780
-1.1522 4.7893 -2.1468 0.9787
-1.9515 4.4332 -2.1110 0.9791
-2.3175 4.2026 -2.0916 0.9793
-2.9682 3.6516 -2.0509 0.9797
-3.2485 3.3380 -2.0300 0.9799
-3.4967 3.0037 -2.0090 0.9801
-2.5969 1.5255 -1.3126 0.9869
-1.5573 0.4197 -0.7029 0.9930
-1.5283 0.1297 -0.6685 0.9933
-1.5233 -0.0070 -0.6639 0.9934
-1.5631 -0.4367 -0.7073 0.9929
-4.1685 -1.5773 -1.9424 0.9807
-3.7813 -2.2682 -1.9217 0.9809
-3.0148 -3.1553 -1.9019 0.9811
-2.7164 -3.4053 -1.8984 0.9812
-2.3995 -3.6302 -1.8965 0.9812
-2.0659 -3.8290 -1.8961 0.9812
-1.7173 -4.0005 -1.8974 0.9812
-1.3558 -4.1438 -1.9002 0.9812
-0.9831 -4.2580 -1.9045 0.9811
0.5773 -4.4075 -1.9373 0.9808
0.9739 -4.3650 -1.9491 0.9807
1.7585 -4.1816 -1.9770 0.9804
2.1415 -4.0403 -1.9929 0.9802
2.8751 -3.6594 -2.0282 0.9799
3.5470 -3.1505 -2.0676 0.9795
4.1266 -2.5170 -2.1066 0.9791
4.0715 -2.0092 -1.9787 0.9804
4.5995 -0.8872 -2.0415 0.9798
4.7783 -0.0573 -2.0826 0.9794
4.8095 0.3725 -2.1024 0.9792
4.7486 1.2423 -2.1392 0.9788
4.6549 1.6737 -2.1558 0.9786
4.3409 2.5070 -2.1847 0.9784
4.1222 2.8997 -2.1965 0.9782
3.8645 3.2703 -2.2063 0.9782
3.5700 3.6145 -2.2141 0.9781
3.2416 3.9282 -2.2196 0.9780
4.5008 0.1409 -2.0844 0.9803
4.5091 0.5464 -2.1025 0.9802
4.4092 1.3599 -2.1358 0.9799
4.1519 2.1496 -2.1641 0.9796
3.9652 2.5250 -2.1760 0.9795
3.7416 2.8818 -2.1861 0.9794
3.1911 3.5237 -2.2005 0.9793
2.8696 3.8013 -2.2046 0.9792
0.5224 4.6907 -2.1847 0.9794
0.0571 2.6402 -1.2224 0.9884
-0.3158 4.6605 -2.1622 0.9796
-1.1235 4.4700 -2.1335 0.9799
-1.8696 4.1331 -2.0998 0.9802
-2.5286 3.6694 -2.0627 0.9805
-3.0809 3.1022 -2.0238 0.9809
-3.3127 2.7877 -2.0041 0.9811
-2.6133 1.4997 -1.3947 0.9868
-1.3138 0.6052 -0.6695 0.9936
-1.3334 0.4753 -0.6553 0.9938
-1.3129 0.3396 -0.6277 0.9940
-1.3211 0.2184 -0.6198 0.9941
-1.3355 -0.0197 -0.6182 0.9941
-1.3356 -0.1394 -0.6216 0.9941
-1.3103 -0.2565 -0.6180 0.9941
-1.3232 -0.3842 -0.6378 0.9939
-3.7536 -1.8652 -1.9402 0.9817
-3.5558 -2.1823 -1.9312 0.9818
-3.3339 -2.4809 -1.9236 0.9818
-3.0896 -2.7595 -1.9175 0.9819
-2.8243 -3.0166 -1.9128 0.9820
-2.2379 -3.4616 -1.9080 0.9820
-1.9202 -3.6470 -1.9078 0.9820
-1.2446 -3.9387 -1.9120 0.9820
-0.8904 -4.0431 -1.9163 0.9819
-0.5279 -4.1188 -1.9221 0.9819
1.3361 -4.0461 -1.9723 0.9814
2.0636 -3.7998 -2.0015 0.9811
2.4138 -3.6300 -2.0179 0.9810
2.7513 -3.4296 -2.0352 0.9808
3.3777 -2.9394 -2.0726 0.9805
3.6610 -2.6516 -2.0924 0.9803
3.9112 -2.3315 -2.1077 0.9801
4.0447 -1.5178 -1.9997 0.9811
4.2050 -1.1624 -2.0194 0.9810
4.4286 -0.4047 -2.0585 0.9806
4.4881 -0.0082 -2.0775 0.9804
4.5104 0.3954 -2.0958 0.9802
4.4946 0.8027 -2.1134 0.9801
4.4396 1.2097 -2.1299 0.9799
4.2114 2.0063 -2.1593 0.9796
3.8288 2.7518 -2.1826 0.9794
3.5828 3.0948 -2.1915 0.9793
2.9922 3.7020 -2.2034 0.9792
2.6536 3.9591 -2.2062 0.9792
2.2907 4.1811 -2.2068 0.9792
0.1530 2.7916 -1.2942 0.9878
-0.5746 4.6174 -2.1538 0.9797
-0.9774 4.5170 -2.1392 0.9798
-1.3660 4.3791 -2.1233 0.9800
-2.0873 3.9999 -2.0884 0.9803
-2.4139 3.7640 -2.0698 0.9805
-2.7145 3.5010 -2.0506 0.9807
-2.9871 3.2141 -2.0311 0.9808
-3.2302 2.9065 -2.0114 0.9810
-3.4425 2.5814 -1.9917 0.9812
-2.5579 1.5828 -1.3924 0.9868
-1.3298 0.5243 -0.6617 0.9937
-1.3243 0.3898 -0.6390 0.9939
-1.3350 0.1443 -0.6215 0.9941
-1.3359 0.0246 -0.6185 0.9941
-1.3222 -0.2136 -0.6200 0.9941
-3.4190 -2.3723 -1.9263 0.9818
-3.1828 -2.6585 -1.9196 0.9819
-2.0399 -3.5812 -1.9077 0.9820
-1.7131 -3.7503 -1.9085 0.9820
-1.3735 -3.8928 -1.9108 0.9820
-1.0229 -4.0076 -1.9146 0.9819
-0.2967 -4.1514 -1.9265 0.9818
0.0750 -4.1789 -1.9347 0.9817
0.4496 -4.1762 -1.9442 0.9817
1.1983 -4.0780 -1.9675 0.9814
1.5679 -3.9821 -1.9810 0.9813
2.2851 -3.6967 -2.0117 0.9810
2.6276 -3.5075 -2.0286 0.9809
2.9559 -3.2881 -2.0466 0.9807
3.2671 -3.0391 -2.0654 0.9805
3.7777 -1.9735 -1.9729 0.9814
2.3171 -0.9582 -1.1607 0.9890
4.1491 -1.2964 -2.0121 0.9810
4.2897 -0.9303 -2.0318 0.9808
4.5065 0.2450 -2.0891 0.9803
4.5050 0.6514 -2.1070 0.9801
4.4646 1.0589 -2.1239 0.9800
4.2656 1.8614 -2.1543 0.9797
3.6782 2.9702 -2.1884 0.9794
3.4106 3.2979 -2.1961 0.9793
2.7823 3.8676 -2.2054 0.9792
2.4280 4.1030 -2.2068 0.9792
0.8344 4.6596 -2.1912 0.9794
0.2604 2.9546 -1.3729 0.9870
-0.0037 2.6571 -1.2299 0.9884
-0.4223 4.6447 -2.1588 0.9797
-1.6016 4.2741 -2.1128 0.9801
-2.2955 3.8549 -2.0768 0.9804
-2.6061 3.6016 -2.0578 0.9806
-2.8893 3.3232 -2.0384 0.9808
-3.3673 2.7039 -1.9990 0.9811
-2.8806 1.5662 -1.5177 0.9857
-1.3219 0.5725 -0.6668 0.9937
-1.3321 0.4406 -0.6495 0.9938
-1.3032 0.3053 -0.6195 0.9941
-1.3293 -0.4193 -0.6452 0.9939
-3.5009 -2.2610 -1.9291 0.9818
-3.2731 -2.5546 -1.9219 0.9819
-2.7528 -3.0792 -1.9119 0.9820
-2.4637 -3.3076 -1.9091 0.9820
-2.1575 -3.5118 -1.9078 0.9820
-1.8360 -3.6906 -1.9080 0.9820
-0.7978 -4.0654 -1.9177 0.9819
-0.0634 -4.1722 -1.9315 0.9818
0.6855 -4.1587 -1.9510 0.9816
1.0600 -4.1056 -1.9627 0.9815
1.4313 -4.0214 -1.9758 0.9814
1.7971 -3.9058 -1.9901 0.9812
2.5020 -3.5813 -2.0222 0.9809
3.1537 -3.1349 -2.0583 0.9806
3.7298 -2.5728 -2.0974 0.9802
3.9705 -2.2447 -2.1113 0.9801
3.9066 -1.7693 -1.9851 0.9813
4.0889 -1.4279 -2.0048 0.9811
4.2412 -1.0681 -2.0245 0.9809
4.3614 -0.6923 -2.0441 0.9807
4.5101 0.5002 -2.1004 0.9802
4.4191 1.3140 -2.1340 0.9799
4.3145 1.7148 -2.1491 0.9797
3.9883 2.4832 -2.1747 0.9795
3.5139 3.1793 -2.1935 0.9793
3.2258 3.4902 -2.1999 0.9793
2.5623 4.0197 -2.2065 0.9792
2.1937 4.2323 -2.2066 0.9792
1.8059 4.4069 -2.2045 0.9792
-0.2687 4.6666 -2.1637 0.9796
-0.6795 4.5952 -2.1502 0.9797
-1.4634 4.3377 -2.1191 0.9800
-2.1738 3.9419 -2.0837 0.9804
-2.4939 3.6987 -2.0649 0.9805
-1.3328 0.4904 -0.6574 0.9938
-1.3341 -0.0061 -0.6175 0.9941
-1.3370 -0.1259 -0.6216 0.9941
-1.3199 -0.3688 -0.6344 0.9940
-3.7745 -1.8281 -1.9413 0.9817
-3.5795 -2.1472 -1.9321 0.9818
-3.3603 -2.4479 -1.9244 0.9818
-2.8555 -2.9885 -1.9133 0.9819
-2.5731 -3.2256 -1.9100 0.9820
-2.2730 -3.4389 -1.9081 0.9820
-1.6268 -3.7896 -1.9089 0.9820
-1.2842 -3.9250 -1.9116 0.9820
-0.5695 -4.1117 -1.9214 0.9819
-0.2013 -4.1614 -1.9285 0.9818
0.1713 -4.1811 -1.9370 0.9817
0.5462 -4.1705 -1.9469 0.9816
1.6622 -3.9524 -1.9847 0.9813
2.0232 -3.8172 -1.9998 0.9811
2.3746 -3.6509 -2.0159 0.9810
2.7137 -3.4539 -2.0332 0.9808
3.6300 -2.6857 -2.0902 0.9803
3.8318 -1.8909 -1.9779 0.9813
2.3737 -0.9183 -1.1781 0.9888
4.3207 -0.8334 -2.0369 0.9808
4.3579 1.5669 -2.1436 0.9798
4.2286 1.9621 -2.1578 0.9797
3.6125 3.0571 -2.1906 0.9794
4.1918 -0.2433 -2.0596 0.9815
4.2326 0.1326 -2.0772 0.9813
4.2077 0.8963 -2.1103 0.9810
4.1404 1.2770 -2.1254 0.9809
2.9911 3.3028 -2.1857 0.9803
2.6894 3.5626 -2.1896 0.9803
2.3630 3.7915 -2.1914 0.9803
2.0154 3.9868 -2.1913 0.9803
1.6503 4.1465 -2.1891 0.9803
1.1402 3.8282 -1.9594 0.9824
0.8833 4.3533 -2.1789 0.9804
-0.2964 4.3731 -2.1500 0.9807
-0.6811 4.3036 -2.1373 0.9808
-1.0551 4.1978 -2.1232 0.9809
-2.0798 3.6827 -2.0746 0.9813
-2.6542 3.1985 -2.0388 0.9817
-2.9024 2.9224 -2.0204 0.9818
-2.4864 1.7388 -1.4883 0.9866
-1.1561 0.4121 -0.6020 0.9945
-1.1580 0.2995 -0.5867 0.9947
-1.1961 -0.0176 -0.5868 0.9947
-1.1522 -0.4494 -0.6066 0.9945
-3.3721 -2.0696 -1.9408 0.9825
-3.1624 -2.3532 -1.9336 0.9826
-2.9311 -2.6179 -1.9277 0.9826
-2.6798 -2.8622 -1.9233 0.9827
-0.8448 -3.8358 -1.9266 0.9827
-0.5008 -3.9070 -1.9322 0.9826
0.2027 -3.9648 -1.9473 0.9825
1.2657 -3.8329 -1.9800 0.9822
1.6132 -3.7296 -1.9933 0.9821
1.9534 -3.5968 -2.0077 0.9819
3.1911 -2.7771 -2.0751 0.9813
3.4570 -2.5039 -2.0938 0.9812
3.6899 -2.1996 -2.1072 0.9810
2.4524 -0.9202 -1.2849 0.9884
4.0808 -0.7443 -2.0347 0.9817
4.1679 -0.3808 -2.0530 0.9815
4.2215 -0.0078 -2.0708 0.9814
4.2404 0.3718 -2.0880 0.9812
4.2233 0.7543 -2.1044 0.9811
4.0792 1.5136 -2.1343 0.9808
3.9521 1.8828 -2.1473 0.9807
3.7888 2.2397 -2.1590 0.9806
1.7876 4.0915 -2.1902 0.9803
-0.1516 4.3895 -2.1544 0.9806
-0.5393 4.3337 -2.1422 0.9807
-1.2832 4.1136 -2.1137 0.9810
-1.6325 3.9528 -2.0978 0.9811
-2.2710 3.5412 -2.0636 0.9814
-2.5553 3.2956 -2.0456 0.9816
-3.0441 2.7391 -2.0087 0.9819
-2.5495 1.5776 -1.4707 0.9867
-1.1289 0.5661 -0.6195 0.9944
-1.1590 0.3411 -0.5926 0.9946
-3.4442 -1.9597 -1.9438 0.9825
-3.0193 -2.5220 -1.9297 0.9826
-2.7753 -2.7740 -1.9248 0.9827
-2.5122 -3.0049 -1.9212 0.9827
-0.2814 -3.9375 -1.9363 0.9826
0.0711 -3.9627 -1.9441 0.9825
0.7817 -3.9261 -1.9636 0.9823
1.1353 -3.8636 -1.9753 0.9822
1.4849 -3.7714 -1.9882 0.9821
2.1624 -3.4982 -2.0173 0.9818
3.0872 -2.8718 -2.0683 0.9814
3.6066 -2.3153 -2.1023 0.9811
3.5640 -1.8619 -1.9724 0.9822
2.3169 -0.9582 -1.2299 0.9889
3.9100 -1.2217 -2.0094 0.9819
4.1394 -0.5170 -2.0462 0.9816
4.2339 0.6122 -2.0984 0.9811
3.4488 2.7850 -2.1744 0.9804
3.1973 3.0916 -2.1816 0.9804
1.5538 4.1817 -2.1882 0.9803
0.7823 4.3687 -2.1770 0.9804
0.2599 2.9485 -1.4519 0.9869
-0.0061 4.4005 -2.1586 0.9806
-1.5050 4.0163 -2.1038 0.9811
-2.4527 3.3896 -2.0523 0.9815
-2.7208 3.1294 -2.0341 0.9817
-2.9618 2.8482 -2.0156 0.9819
-3.1745 2.5491 -1.9970 0.9820
-2.5125 1.6724 -1.4805 0.9866
-1.1450 0.4959 -0.6120 0.9945
-1.1965 -0.0452 -0.5873 0.9947
-1.1688 -0.2568 -0.5870 0.9947
-1.1586 -0.3655 -0.5959 0.9946
-1.1480 -0.4784 -0.6101 0.9945
-3.1048 -2.4233 -1.9319 0.9826
-2.8682 -2.6828 -1.9265 0.9827
-2.6120 -2.9217 -1.9224 0.9827
-2.3378 -3.1386 -1.9197 0.9827
-2.0473 -3.3325 -1.9185 0.9827
-1.7422 -3.5021 -1.9187 0.9827
-1.4242 -3.6466 -1.9204 0.9827
-1.0952 -3.7651 -1.9234 0.9827
-0.7568 -3.8568 -1.9279 0.9826
-0.4112 -3.9208 -1.9338 0.9826
0.2942 -3.9638 -1.9497 0.9824
1.0044 -3.8903 -1.9708 0.9823
1.3558 -3.8091 -1.9833 0.9821
2.0395 -3.5578 -2.0116 0.9819
2.3670 -3.3881 -2.0273 0.9818
2.6816 -3.1896 -2.0440 0.9816
3.5198 -2.4279 -2.0975 0.9811
3.4884 -1.9722 -1.9657 0.9823
4.1063 -0.6518 -2.0395 0.9816
4.2297 0.0895 -2.0753 0.9813
4.2394 0.4702 -2.0923 0.9812
3.9134 1.9761 -2.1505 0.9807
3.5341 2.6653 -2.1713 0.9805
3.2942 2.9806 -2.1792 0.9804
2.7250 3.5346 -2.1892 0.9803
2.4013 3.7671 -2.1913 0.9803
0.0897 2.8221 -1.3850 0.9875
-0.6378 4.3133 -2.1388 0.9808
-1.0132 4.2116 -2.1248 0.9809
-2.0443 3.7072 -2.0766 0.9813
-2.3466 3.4803 -2.0590 0.9815
-2.6243 3.2286 -2.0409 0.9816
-2.8756 2.9548 -2.0225 0.9818
-3.0989 2.6620 -2.0039 0.9820
-1.1362 0.5375 -0.6166 0.9944
-1.1549 0.4249 -0.6036 0.9945
-1.1802 0.2074 -0.5878 0.9947
-1.1944 0.1014 -0.5880 0.9947
-1.1957 -0.0055 -0.5865 0.9947
-1.1935 -0.1124 -0.5880 0.9947
-1.1780 -0.2182 -0.5877 0.9947
-1.1588 -0.3238 -0.5902 0.9947
-1.1537 -0.4365 -0.6051 0.9945
-1.1334 -0.5489 -0.6177 0.9944
-2.9584 -2.5888 -1.9283 0.9826
-2.7093 -2.8355 -1.9237 0.9827
-2.1570 -3.2633 -1.9188 0.9827
-1.8571 -3.4420 -1.9185 0.9827
-1.2185 -3.7242 -1.9221 0.9827
-0.8834 -3.8259 -1.9261 0.9827
-0.1909 -3.9467 -1.9382 0.9825
0.5178 -3.9534 -1.9558 0.9824
2.2468 -3.4545 -2.0214 0.9818
3.1596 -2.8065 -2.0730 0.9813
3.4279 -2.5362 -2.0917 0.9812
3.6145 -1.7837 -1.9771 0.9822
4.2172 -0.0505 -2.0688 0.9814
3.9684 1.8414 -2.1459 0.9807
3.8092 2.1999 -2.1577 0.9806
3.3870 2.8662 -2.1765 0.9804
3.8844 -0.5762 -2.0372 0.9825
3.9897 0.1249 -2.0708 0.9822
3.9625 0.8441 -2.1018 0.9819
3.8975 1.2021 -2.1159 0.9818
3.7981 1.5543 -2.1290 0.9817
3.2984 2.5405 -2.1599 0.9814
3.0689 2.8338 -2.1670 0.9814
2.8109 3.1039 -2.1724 0.9813
2.5272 3.3477 -2.1760 0.9813
1.1329 3.8035 -2.0588 0.9823
0.4606 4.1354 -2.1586 0.9814
0.0618 2.8591 -1.4836 0.9872
-0.6409 4.0498 -2.1271 0.9817
-0.9932 3.9518 -2.1139 0.9818
-1.6559 3.6607 -2.0843 0.9821
-2.5045 3.0181 -2.0346 0.9825
-2.7401 2.7590 -2.0173 0.9826
-2.4780 1.7329 -1.5687 0.9865
-1.0936 0.1808 -0.5750 0.9950
-1.1064 -0.0163 -0.5740 0.9950
-1.1028 -0.1151 -0.5752 0.9950
-1.0637 -0.3089 -0.5746 0.9950
-3.0043 -2.2356 -1.9427 0.9833
-2.7850 -2.4874 -1.9372 0.9833
-2.0183 -3.1218 -1.9285 0.9834
-1.7317 -3.2891 -1.9284 0.9834
-1.1222 -3.5514 -1.9322 0.9834
-0.8027 -3.6447 -1.9361 0.9833
0.5300 -3.7506 -1.9650 0.9831
1.2010 -3.6369 -1.9870 0.9829
1.8522 -3.4105 -2.0134 0.9827
2.1646 -3.2554 -2.0281 0.9825
2.4651 -3.0729 -2.0437 0.9824
2.7513 -2.8637 -2.0602 0.9823
3.0206 -2.6286 -2.0773 0.9821
3.2696 -2.3681 -2.0944 0.9820
3.4881 -2.0793 -2.1067 0.9819
3.4368 -1.6528 -1.9784 0.9830
2.3074 -0.8658 -1.2786 0.9890
3.7407 -1.0340 -2.0134 0.9827
3.8510 -0.7024 -2.0308 0.9825
3.9957 0.3503 -2.0809 0.9821
3.9779 0.7104 -2.0963 0.9820
3.8390 1.4245 -2.1243 0.9817
3.7180 1.7713 -2.1365 0.9816
3.3760 2.4263 -2.1568 0.9814
3.1575 2.7275 -2.1646 0.9814
2.6354 3.2604 -2.1749 0.9813
2.3367 3.4863 -2.1773 0.9813
2.0171 3.6818 -2.1779 0.9813
1.6797 3.8446 -2.1766 0.9813
1.2382 3.7037 -2.0259 0.9826
0.5981 4.1235 -2.1616 0.9814
-0.1426 4.1287 -2.1431 0.9816
-0.8638 3.9921 -2.1189 0.9818
-1.2083 3.8735 -2.1050 0.9819
-1.5380 3.7238 -2.0901 0.9820
-1.8498 3.5449 -2.0744 0.9821
-2.1415 3.3392 -2.0579 0.9823
-2.4107 3.1092 -2.0410 0.9824
-2.6556 2.8574 -2.0237 0.9826
-2.8748 2.5867 -2.0063 0.9827
-0.9804 0.6067 -0.5981 0.9948
-1.0294 0.5162 -0.5974 0.9948
-1.0861 0.2168 -0.5745 0.9950
-1.1065 0.0204 -0.5741 0.9950
-1.1055 -0.0785 -0.5750 0.9950
-1.0943 -0.1768 -0.5751 0.9950
-1.0705 -0.2727 -0.5731 0.9950
-1.0600 -0.3734 -0.5830 0.9949
-1.0431 -0.4759 -0.5948 0.9948
-3.0805 -2.1375 -1.9451 0.9832
-2.8687 -2.3961 -1.9391 0.9833
-1.5449 -3.3822 -1.9290 0.9834
-0.2673 -3.7404 -1.9454 0.9832
0.0676 -3.7636 -1.9528 0.9832
1.4087 -3.5779 -1.9948 0.9828
1.7337 -3.4610 -2.0082 0.9827
2.0499 -3.3162 -2.0225 0.9826
2.9227 -2.7188 -2.0709 0.9822
3.1802 -2.4681 -2.0884 0.9820
3.4099 -2.1890 -2.1021 0.9819
3.3692 -1.7601 -1.9720 0.9830
2.2824 -0.9439 -1.2813 0.9889
3.9051 -0.4878 -2.0416 0.9824
3.9885 0.5767 -2.0907 0.9820
3.7669 1.6437 -2.1321 0.9817
3.0050 2.9057 -2.1686 0.9813
2.7402 3.1693 -2.1735 0.9813
2.4502 3.4059 -2.1766 0.9813
-0.7327 4.0278 -2.1238 0.9817
-1.4175 3.7829 -2.0957 0.9820
-1.7363 3.6146 -2.0803 0.9821
-2.9989 2.4081 -1.9953 0.9828
-2.5041 1.6667 -1.5605 0.9865
-1.0479 0.4538 -0.5924 0.9949
-1.0618 0.3512 -0.5802 0.9950
-1.0767 0.2523 -0.5737 0.9950
-1.0999 -0.1405 -0.5752 0.9950
-1.0808 -0.2375 -0.5741 0.9950
-1.0628 -0.3353 -0.5781 0.9950
-1.0510 -0.4380 -0.5907 0.9949
-2.9497 -2.3023 -1.9412 0.9833
-2.7253 -2.5492 -1.9359 0.9833
-2.2218 -2.9828 -1.9295 0.9834
-1.9458 -3.1671 -1.9284 0.9834
-0.7191 -3.6645 -1.9373 0.9833
-0.3906 -3.7248 -1.9430 0.9833
-0.0571 -3.7582 -1.9499 0.9832
0.6169 -3.7422 -1.9676 0.9831
1.2864 -3.6141 -1.9901 0.9829
2.5403 -3.0215 -2.0479 0.9824
3.0869 -2.5641 -2.0818 0.9821
3.3282 -2.2958 -2.0975 0.9819
3.2983 -1.8647 -1.9656 0.9831
3.6404 -1.2713 -2.0004 0.9828
3.9469 -0.2693 -2.0523 0.9823
3.8111 1.5147 -2.1276 0.9817
3.5181 2.1904 -2.1500 0.9815
2.5606 3.3214 -2.1757 0.9813
1.9317 3.7269 -2.1777 0.9813
1.1653 3.7723 -2.0482 0.9824
0.5027 4.1323 -2.1596 0.9814
0.0898 2.8270 -1.4673 0.9873
-0.2372 4.1189 -2.1403 0.9816
-0.6002 4.0588 -2.1285 0.9817
-0.9538 3.9646 -2.1155 0.9818
-1.6201 3.6804 -2.0861 0.9820
-1.9270 3.4944 -2.0702 0.9822
-2.7146 2.7894 -2.0192 0.9826
-0.9943 0.5841 -0.5982 0.9948
-1.0582 0.3894 -0.5850 0.9949
-1.0658 0.2873 -0.5726 0.9950
-1.1038 -0.1039 -0.5752 0.9950
-1.0569 -0.3999 -0.5863 0.9949
-2.8109 -2.4598 -1.9377 0.9833
-2.0500 -3.1014 -1.9286 0.9834
-1.7650 -3.2713 -1.9283 0.9834
-0.5132 -3.7056 -1.9407 0.9833
0.8287 -3.7141 -1.9742 0.9830
1.8161 -3.4264 -2.0118 0.9827
2.1297 -3.2744 -2.0264 0.9826
2.7196 -2.8888 -2.0582 0.9823
2.9909 -2.6566 -2.0753 0.9821
3.4646 -2.1132 -2.1053 0.9819
3.4165 -1.6859 -1.9765 0.9830
2.2995 -0.8896 -1.2791 0.9890
3.7263 -1.0709 -2.0114 0.9827
3.8400 -0.7407 -2.0288 0.9825
3.9760 -0.0476 -2.0628 0.9822
3.9956 0.3095 -2.0791 0.9821
3.9816 0.6695 -2.0946 0.9820
3.9334 1.0290 -2.1092 0.9818
3.7334 1.7324 -2.1352 0.9816
3.3988 2.3908 -2.1558 0.9814
3.1838 2.6943 -2.1638 0.9814
2.9394 2.9761 -2.1700 0.9813
2.6678 3.2330 -2.1745 0.9813
3.6721 -0.5447 -2.0332 0.9832
3.7353 -0.2168 -2.0493 0.9831
3.7682 0.1180 -2.0649 0.9830
3.6768 1.1340 -2.1074 0.9826
3.5817 1.4658 -2.1196 0.9825
3.2963 2.0990 -2.1403 0.9823
2.8911 2.6696 -2.1553 0.9822
2.6477 2.9236 -2.1604 0.9822
2.3802 3.1530 -2.1637 0.9821
1.7835 3.5281 -2.1652 0.9821
1.1110 3.7302 -2.1318 0.9824
-0.6044 3.8193 -2.1179 0.9825
-0.9370 3.7282 -2.1054 0.9826
-1.5634 3.4562 -2.0777 0.9828
-2.3678 2.8534 -2.0308 0.9832
-2.5917 2.6096 -2.0144 0.9834
-0.8640 0.6042 -0.5774 0.9952
-0.9162 0.5257 -0.5785 0.9952
-1.0153 0.1679 -0.5636 0.9953
-1.0263 0.0767 -0.5637 0.9953
-0.9717 -0.3790 -0.5712 0.9953
-0.9001 -0.5524 -0.5785 0.9952
-2.8581 -2.1268 -1.9512 0.9839
-2.6498 -2.3667 -1.9459 0.9839
-2.1796 -2.7899 -1.9391 0.9840
-1.9207 -2.9709 -1.9376 0.9840
-1.6480 -3.1301 -1.9375 0.9840
-1.3632 -3.2666 -1.9387 0.9840
-1.0678 -3.3794 -1.9411 0.9840
-0.7637 -3.4679 -1.9449 0.9839
0.1831 -3.5808 -1.9638 0.9838
1.1413 -3.4561 -1.9934 0.9835
1.4537 -3.3608 -2.0055 0.9834
1.7589 -3.2387 -2.0186 0.9833
2.0549 -3.0903 -2.0326 0.9832
2.8639 -2.4923 -2.0794 0.9828
3.0972 -2.2433 -2.0946 0.9827
2.2185 -1.0669 -1.3483 0.9888
3.5385 -0.9782 -2.0108 0.9834
3.6412 -0.6641 -2.0272 0.9833
3.7153 -0.3395 -2.0434 0.9831
3.7038 1.0092 -2.1026 0.9826
3.6207 1.3435 -2.1152 0.9825
3.3586 1.9854 -2.1369 0.9824
2.7410 2.8321 -2.1587 0.9822
2.4822 3.0709 -2.1627 0.9822
1.8997 3.4675 -2.1655 0.9821
1.5820 3.6210 -2.1642 0.9821
0.5636 3.8852 -2.1502 0.9823
0.1549 2.8264 -1.5504 0.9872
-0.1344 3.8920 -2.1329 0.9824
-0.4785 3.8450 -2.1222 0.9825
-0.8148 3.7656 -2.1102 0.9826
-1.7470 3.3478 -2.0683 0.9829
-2.0233 3.1550 -2.0528 0.9831
-2.2787 2.9389 -2.0368 0.9832
-2.9032 2.1770 -1.9875 0.9836
-0.8981 0.5557 -0.5784 0.9952
-0.9431 0.4729 -0.5778 0.9952
-0.9818 0.2890 -0.5605 0.9953
-1.0082 0.2012 -0.5631 0.9953
-0.9766 -0.3441 -0.5671 0.9953
-0.9581 -0.4371 -0.5768 0.9952
-0.8663 -0.6011 -0.5775 0.9952
-2.5093 -2.5082 -1.9432 0.9839
-1.7508 -3.0736 -1.9374 0.9840
-1.4702 -3.2186 -1.9381 0.9840
-0.8775 -3.4379 -1.9433 0.9839
0.0642 -3.5795 -1.9608 0.9838
0.7054 -3.5430 -1.9786 0.9837
1.9462 -3.1485 -2.0273 0.9833
2.7716 -2.5782 -2.0733 0.9829
3.2295 -2.0732 -2.1019 0.9826
2.2630 -0.9358 -1.3412 0.9889
3.4935 -1.0915 -2.0046 0.9834
3.6063 -0.7821 -2.0211 0.9833
3.6912 -0.4611 -2.0374 0.9832
3.7264 0.8838 -2.0976 0.9827
3.6553 1.2201 -2.1106 0.9826
3.5520 1.5499 -2.1226 0.9825
3.2506 2.1765 -2.1426 0.9823
2.5810 2.9852 -2.1614 0.9822
2.3077 3.2078 -2.1643 0.9821
2.0135 3.4026 -2.1655 0.9821
1.7017 3.5676 -2.1649 0.9821
0.6928 3.8690 -2.1527 0.9822
-0.0054 3.9009 -2.1366 0.9824
-0.6911 3.7988 -2.1148 0.9825
-1.0209 3.6997 -2.1021 0.9826
-1.6395 3.4131 -2.0738 0.9829
-2.4278 2.7924 -2.0266 0.9833
-2.6454 2.5440 -2.0102 0.9834
-0.8784 0.5847 -0.5780 0.9952
-0.9643 0.4176 -0.5755 0.9952
-0.9996 0.2342 -0.5623 0.9953
-1.0273 0.0530 -0.5634 0.9953
-0.9798 -0.3091 -0.5627 0.9953
-0.9673 -0.4031 -0.5740 0.9952
-0.8868 -0.5727 -0.5782 0.9952
-2.1143 -2.8386 -1.9386 0.9840
-0.0543 -3.5746 -1.9581 0.9838
0.5865 -3.5579 -1.9750 0.9837
0.9061 -3.5094 -1.9852 0.9836
1.2223 -3.4341 -1.9965 0.9835
1.5331 -3.3319 -2.0088 0.9834
1.8361 -3.2030 -2.0221 0.9833
2.4103 -2.8669 -2.0514 0.9831
2.6768 -2.6609 -2.0672 0.9829
2.2212 -1.0060 -1.3355 0.9889
3.7660 0.0797 -2.0631 0.9830
3.7713 0.4182 -2.0782 0.9828
3.6855 1.0959 -2.1059 0.9826
3.3158 2.0645 -2.1393 0.9823
3.1308 2.3611 -2.1477 0.9823
2.9171 2.6393 -2.1546 0.9822
2.6766 2.8960 -2.1599 0.9822
2.4117 3.1283 -2.1634 0.9821
2.1250 3.3337 -2.1653 0.9821
1.8193 3.5100 -2.1653 0.9821
1.4979 3.6554 -2.1636 0.9821
1.1491 3.7196 -2.1322 0.9824
0.8215 3.8480 -2.1551 0.9822
0.4736 3.8937 -2.1483 0.9823
-0.2236 3.8830 -2.1303 0.9824
-0.5660 3.8276 -2.1192 0.9825
-1.2219 3.6219 -2.0936 0.9827
-1.8200 3.3005 -2.0643 0.9830
-2.0911 3.1014 -2.0487 0.9831
-2.3409 2.8798 -2.0326 0.9832
-2.7696 2.3791 -1.9998 0.9835
-0.8573 0.6126 -0.5771 0.9952
-0.9108 0.5350 -0.5785 0.9952
-1.0271 -0.0047 -0.5626 0.9953
-1.0249 -0.0965 -0.5638 0.9953
-1.0114 -0.1873 -0.5633 0.9953
-0.9865 -0.2756 -0.5610 0.9953
-0.9734 -0.3683 -0.5700 0.9953
-0.9490 -0.4596 -0.5775 0.9952
-0.8512 -0.6201 -0.5768 0.9952
-2.6744 -2.3403 -1.9464 0.9839
-2.4498 -2.5639 -1.9422 0.9840
-1.9509 -2.9514 -1.9377 0.9840
-1.6797 -3.1132 -1.9374 0.9840
-1.3961 -3.2523 -1.9385 0.9840
-0.4883 -3.5254 -1.9493 0.9839
0.4674 -3.5690 -1.9715 0.9837
1.1054 -3.4652 -1.9921 0.9835
2.3076 -2.9370 -2.0457 0.9831
2.5797 -2.7402 -2.0613 0.9830
2.8359 -2.5189 -2.0775 0.9828
3.0724 -2.2732 -2.0933 0.9827
3.2350 -1.5964 -1.9758 0.9837
2.2717 -0.8788 -1.3341 0.9890
3.5251 -1.0131 -2.0089 0.9834
3.7084 -0.3768 -2.0416 0.9831
3.7582 0.6319 -2.0873 0.9828
3.7112 0.9709 -2.1011 0.9827
3.6318 1.3058 -2.1138 0.9826
3.5202 1.6334 -2.1255 0.9825
2.9996 2.5384 -2.1522 0.9822
2.7689 2.8034 -2.1581 0.9822
2.5127 3.0451 -2.1623 0.9822
2.0355 -0.1181 -1.1772 0.9906
2.0350 0.2466 -1.1835 0.9906
1.9237 0.5933 -1.1623 0.9907
3.2630 1.6894 -2.1214 0.9832
2.9342 2.2600 -2.1383 0.9830
2.4990 2.7594 -2.1494 0.9830
1.6831 3.3295 -2.1539 0.9829
1.3784 3.4634 -2.1522 0.9829
1.0624 3.5669 -2.1487 0.9830
0.4097 3.6791 -2.1372 0.9830
-0.2483 3.6635 -2.1200 0.9832
-1.1891 3.4101 -2.0851 0.9835
-1.4788 3.2691 -2.0715 0.9836
-1.7523 3.1028 -2.0573 0.9837
-2.4554 2.4724 -2.0118 0.9840
-2.6454 2.2262 -1.9961 0.9842
-0.7993 0.5590 -0.5631 0.9955
-0.8436 0.4841 -0.5615 0.9955
-0.9032 0.3220 -0.5536 0.9956
-0.9250 0.2393 -0.5516 0.9956
-0.9457 0.1564 -0.5534 0.9956
-0.9574 -0.0141 -0.5528 0.9956
-0.9400 -0.1840 -0.5530 0.9956
-0.9160 -0.2660 -0.5507 0.9956
-0.7859 -0.5848 -0.5656 0.9955
-1.8301 -2.8307 -1.9461 0.9846
-1.5702 -2.9824 -1.9460 0.9846
-1.0174 -3.2196 -1.9494 0.9845
-0.7275 -3.3036 -1.9530 0.9845
-0.1299 -3.3991 -1.9639 0.9844
0.1743 -3.4096 -1.9711 0.9844
0.7842 -3.3545 -1.9889 0.9842
1.0859 -3.2885 -1.9994 0.9841
1.6726 -3.0798 -2.0234 0.9839
2.2229 -2.7709 -2.0509 0.9837
2.7193 -2.3665 -2.0813 0.9835
2.9183 -1.7396 -1.9615 0.9844
2.2010 -1.0585 -1.4100 0.9888
1.9476 -0.5384 -1.1666 0.9907
2.0371 -0.1861 -1.1811 0.9906
2.0205 -0.0037 -1.1666 0.9907
2.0371 0.1786 -1.1806 0.9906
2.0164 0.3601 -1.1826 0.9906
3.3114 1.5776 -2.1177 0.9832
2.8082 2.4257 -2.1424 0.9830
2.0769 3.0986 -2.1537 0.9829
0.8594 3.6159 -2.1458 0.9830
-0.1269 3.6759 -2.1236 0.9832
-1.0779 3.4555 -2.0899 0.9834
-1.6528 3.1674 -2.0627 0.9836
-2.3790 2.5597 -2.0176 0.9840
-2.5777 2.3193 -2.0020 0.9841
-0.7842 0.5880 -0.5659 0.9955
-0.8269 0.5117 -0.5614 0.9955
-0.8980 0.3541 -0.5573 0.9956
-0.9392 0.1874 -0.5529 0.9956
-0.9537 0.1031 -0.5538 0.9956
-0.9464 -0.1529 -0.5535 0.9956
-0.9261 -0.2359 -0.5517 0.9956
-0.9037 -0.3184 -0.5532 0.9956
-0.8009 -0.5557 -0.5628 0.9955
-2.5999 -2.1716 -1.9558 0.9845
-2.3906 -2.3895 -1.9514 0.9845
-1.9232 -2.7690 -1.9465 0.9845
-1.4008 -3.0667 -1.9465 0.9845
-0.8360 -3.2752 -1.9516 0.9845
0.0612 -3.4086 -1.9683 0.9844
0.6714 -3.3724 -1.9853 0.9842
0.9744 -3.3160 -1.9954 0.9842
1.2733 -3.2338 -2.0066 0.9841
1.5659 -3.1262 -2.0187 0.9840
1.8503 -2.9933 -2.0317 0.9839
2.1243 -2.8356 -2.0456 0.9838
2.6321 -2.4484 -2.0755 0.9835
2.8607 -2.2202 -2.0907 0.9834
3.0634 -1.9666 -2.1017 0.9833
1.9888 -0.4313 -1.1750 0.9906
2.0344 -0.2541 -1.1837 0.9906
2.0351 0.1106 -1.1767 0.9906
2.0298 0.2935 -1.1841 0.9906
1.9025 0.6350 -1.1580 0.9908
3.2271 1.7661 -2.1239 0.9832
2.8838 2.3288 -2.1401 0.9830
1.9002 3.2110 -2.1542 0.9829
1.6059 3.3668 -2.1536 0.9829
0.9796 3.5885 -2.1476 0.9830
0.6540 3.6523 -2.1422 0.9830
0.2604 2.9551 -1.7127 0.9864
-0.0051 3.6841 -2.1270 0.9831
-0.6530 3.5897 -2.1065 0.9833
-1.5509 3.2286 -2.0679 0.9836
