ply
format ascii 1.0
element vertex 1590
property float32 x
property float32 y
property float32 z
property float32 I
end_header
4.2245 -11.3758 -1.7194 0.9522
8.7221 -10.0945 -1.8902 0.9475
10.9870 -8.8793 -2.0016 0.9445
13.1888 -7.2255 -2.1308 0.9411
13.2155 -5.7744 -2.0434 0.9434
15.0157 -3.5702 -2.1869 0.9396
15.8099 -2.2954 -2.2636 0.9375
15.0788 -0.8290 -2.1397 0.9408
11.9238 0.4095 -1.6905 0.9529
11.0451 1.3720 -1.5770 0.9560
8.1074 2.5265 -1.2032 0.9663
6.0089 3.8502 -1.0112 0.9716
5.1973 4.0262 -0.9315 0.9738
4.6182 4.2881 -0.8929 0.9749
4.1537 4.6117 -0.8794 0.9752
3.6369 4.8448 -0.8583 0.9758
3.0851 4.9795 -0.8300 0.9766
2.1353 5.4060 -0.8236 0.9768
0.6602 6.0655 -0.8645 0.9757
0.1208 6.3058 -0.8936 0.9748
-0.4747 6.7620 -0.9605 0.9730
-1.1142 6.9331 -0.9949 0.9720
-4.7373 13.4843 -2.0250 0.9439
-9.0408 15.9243 -2.5946 0.9287
-10.0738 14.5490 -2.5074 0.9310
-12.6697 8.8207 -2.1874 0.9395
-12.9746 7.4101 -2.1170 0.9414
-13.2364 4.6883 -1.9896 0.9448
-13.0955 2.1389 -1.8801 0.9478
-12.8948 0.9385 -1.8319 0.9491
-12.6173 -0.2095 -1.7880 0.9503
-12.2695 -1.3037 -1.7482 0.9514
-11.8574 -2.3433 -1.7126 0.9523
-11.3862 -3.3280 -1.6808 0.9532
-10.8607 -4.2577 -1.6529 0.9540
-8.2907 -7.4289 -1.5773 0.9560
-6.7653 -8.6872 -1.5601 0.9565
-5.9503 -9.2343 -1.5565 0.9566
-2.3758 -10.8590 -1.5750 0.9561
-0.4176 -11.3156 -1.6044 0.9553
0.6000 -11.4481 -1.6243 0.9547
4.8906 -11.2714 -1.7409 0.9516
7.1353 -10.7055 -1.8229 0.9494
9.4074 -9.7719 -1.9219 0.9467
11.6606 -8.4289 -2.0386 0.9435
12.7602 -7.5907 -2.1037 0.9418
12.8326 -6.1576 -2.0167 0.9441
2.3841 -0.8923 -0.3607 0.9898
15.5046 -2.8154 -2.2328 0.9383
15.9945 -1.4494 -2.2755 0.9372
11.7546 1.0386 -1.6720 0.9534
10.0415 1.8001 -1.4455 0.9596
8.5733 2.3417 -1.2592 0.9647
7.5180 2.7946 -1.1364 0.9681
6.8182 3.2529 -1.0704 0.9699
4.8424 4.1867 -0.9070 0.9745
3.8392 4.7536 -0.8658 0.9756
2.7969 5.1090 -0.8253 0.9767
1.9042 5.7008 -0.8516 0.9760
1.4064 5.9235 -0.8626 0.9757
0.4368 3.0155 -0.4317 0.9878
0.3394 6.2085 -0.8810 0.9752
-0.8594 6.9012 -0.9854 0.9723
-1.5187 7.0167 -1.0172 0.9714
-7.3234 17.7325 -2.7183 0.9254
-8.5852 16.4541 -2.6296 0.9278
-10.6188 13.6987 -2.4558 0.9324
-11.3975 12.2671 -2.3726 0.9346
-12.5135 9.3875 -2.2165 0.9388
-12.8682 7.9671 -2.1445 0.9407
-13.2188 5.2164 -2.0135 0.9442
-12.9841 1.4091 -1.8505 0.9486
-12.0284 -1.9369 -1.7263 0.9520
-11.5801 -2.9435 -1.6930 0.9529
-11.0757 -3.8950 -1.6635 0.9537
-9.9152 -5.6333 -1.6158 0.9550
-9.2664 -6.4204 -1.5973 0.9555
-8.5759 -7.1530 -1.5823 0.9559
-7.8463 -7.8311 -1.5707 0.9562
-7.0797 -8.4547 -1.5625 0.9564
-2.7518 -10.7392 -1.5708 0.9562
-1.7968 -11.0227 -1.5824 0.9559
0.1929 -11.4034 -1.6160 0.9550
1.2251 -11.4956 -1.6380 0.9544
2.2801 -11.5187 -1.6637 0.9537
4.4511 -11.3435 -1.7266 0.9520
5.5621 -11.1372 -1.7639 0.9510
6.6861 -10.8459 -1.8053 0.9498
7.8190 -10.4647 -1.8509 0.9486
10.0912 -9.4122 -1.9552 0.9458
11.2175 -8.7302 -2.0140 0.9442
12.3266 -7.9374 -2.0773 0.9425
14.3300 -4.5009 -2.1282 0.9411
14.8401 -0.5430 -2.1041 0.9418
7.8987 2.6214 -1.1792 0.9669
7.0827 3.0758 -1.0941 0.9693
6.5372 3.5624 -1.0548 0.9704
5.6971 3.7997 -0.9703 0.9727
5.0741 4.0819 -0.9227 0.9740
4.4528 4.2894 -0.8760 0.9753
4.0453 4.6606 -0.8744 0.9754
3.5334 4.8914 -0.8550 0.9759
2.9864 5.0238 -0.8281 0.9767
2.0377 5.4497 -0.8244 0.9768
1.5939 5.7915 -0.8511 0.9760
0.5521 6.1137 -0.8698 0.9755
0.0051 6.3574 -0.9008 0.9746
-8.1036 16.9722 -2.6648 0.9268
-2.4484 1.9762 -0.4458 0.9874
-12.7426 8.5285 -2.1726 0.9399
-13.0222 7.1236 -2.1031 0.9418
-13.1846 5.7510 -2.0381 0.9435
-13.2394 4.4176 -1.9775 0.9452
-13.1953 3.1287 -1.9215 0.9467
-13.0608 1.8879 -1.8698 0.9481
-12.5513 -0.4389 -1.7795 0.9505
-11.7652 -2.5503 -1.7057 0.9525
-10.7463 -4.4421 -1.6476 0.9541
-9.5292 -6.1143 -1.6042 0.9553
-8.1406 -7.5683 -1.5749 0.9561
-5.7786 -9.3399 -1.5562 0.9566
-4.0199 -10.1960 -1.5529 0.9567
-2.1794 -10.9174 -1.5774 0.9560
-0.2103 -11.3482 -1.6082 0.9552
1.8585 -11.5180 -1.6531 0.9540
2.9264 -11.4978 -1.6811 0.9532
7.3682 -10.6272 -1.8323 0.9491
8.5042 -10.1894 -1.8805 0.9478
12.9827 -7.4039 -2.1176 0.9414
15.6644 -2.5484 -2.2487 0.9379
15.4516 -1.1148 -2.1950 0.9393
9.7039 1.9241 -1.4017 0.9608
8.3178 2.4368 -1.2281 0.9656
4.2558 4.5656 -0.8844 0.9751
2.6626 5.0830 -0.8130 0.9771
0.3854 3.0542 -0.4362 0.9876
0.2270 6.2586 -0.8874 0.9750
-0.3559 6.7092 -0.9520 0.9732
-7.5962 17.4770 -2.7001 0.9259
-8.8243 16.1812 -2.6115 0.9282
-12.1377 10.5286 -2.2766 0.9371
-12.9257 7.6782 -2.1302 0.9411
-13.1335 6.2918 -2.0634 0.9429
-13.2241 3.6350 -1.9432 0.9461
-13.1245 2.3747 -1.8898 0.9475
-12.9394 1.1644 -1.8408 0.9489
-3.4515 -9.2131 -1.6208 0.9609
-2.6279 -9.5252 -1.6278 0.9607
-0.9077 -9.9816 -1.6512 0.9602
-0.0145 -10.1223 -1.6675 0.9598
0.8982 -10.2019 -1.6872 0.9593
1.8284 -10.2179 -1.7100 0.9588
2.7738 -10.1676 -1.7362 0.9582
3.7315 -10.0482 -1.7658 0.9575
4.6986 -9.8565 -1.7988 0.9567
7.6159 -8.8143 -1.9190 0.9539
8.5772 -8.2996 -1.9662 0.9528
9.5225 -7.6957 -2.0170 0.9516
12.7136 -3.0229 -2.1528 0.9484
11.9081 0.4089 -1.9629 0.9528
9.5160 2.0565 -1.6039 0.9613
8.2892 2.5831 -1.4303 0.9654
7.2108 2.9753 -1.2850 0.9689
4.6124 4.2827 -1.0369 0.9748
4.1486 4.6061 -1.0212 0.9752
3.0815 4.9736 -0.9639 0.9766
2.1328 5.3997 -0.9564 0.9767
1.1942 5.9625 -1.0018 0.9756
0.1201 6.2648 -1.0323 0.9749
-0.4517 6.4340 -1.0625 0.9742
-1.7685 6.9669 -1.1841 0.9713
-4.7154 13.4217 -2.3436 0.9440
-6.5034 14.2893 -2.5863 0.9383
-7.5380 13.2772 -2.5152 0.9400
-2.4437 2.0476 -0.5252 0.9872
-10.8466 7.5514 -2.1773 0.9478
-11.3685 5.2092 -2.0601 0.9506
-10.8165 -1.1493 -1.7919 0.9569
-10.4785 -2.0708 -1.7596 0.9576
-9.6368 -3.7779 -1.7052 0.9589
-8.0169 -5.9861 -1.6483 0.9603
-6.7351 -7.2164 -1.6262 0.9608
-6.0411 -7.7573 -1.6197 0.9609
-4.5575 -8.6871 -1.6161 0.9610
-3.7714 -9.0741 -1.6188 0.9609
-2.9581 -9.4078 -1.6246 0.9608
-1.2566 -9.9093 -1.6455 0.9603
-0.3718 -10.0737 -1.6607 0.9600
0.5335 -10.1778 -1.6790 0.9595
1.4570 -10.2193 -1.7005 0.9590
2.3967 -10.1957 -1.7254 0.9584
3.3498 -10.1041 -1.7536 0.9578
5.2845 -9.7047 -1.8204 0.9562
10.0814 -7.2873 -2.0493 0.9508
12.4538 -3.4317 -2.1281 0.9490
13.0855 -2.3761 -2.1909 0.9475
14.0897 -0.0158 -2.3211 0.9445
8.7723 2.3961 -1.4981 0.9638
6.6551 3.1750 -1.2147 0.9705
5.9224 3.5051 -1.1337 0.9725
5.3512 3.8498 -1.0860 0.9736
4.2124 4.3560 -0.9983 0.9757
3.8346 4.7479 -1.0054 0.9756
1.3994 5.8938 -0.9979 0.9757
-7.1421 13.6882 -2.5435 0.9393
-8.1008 12.6339 -2.4724 0.9410
-8.9331 11.5240 -2.4020 0.9426
-11.0478 6.8400 -2.1406 0.9487
-11.2974 5.6694 -2.0823 0.9500
-11.4476 4.5175 -2.0274 0.9513
-11.5051 3.3908 -1.9759 0.9525
-10.2471 -2.6046 -1.7418 0.9580
-9.8204 -3.4536 -1.7149 0.9587
-8.8201 -5.0112 -1.6712 0.9597
-8.2534 -5.7185 -1.6541 0.9601
-7.6462 -6.3776 -1.6403 0.9604
-7.0012 -6.9877 -1.6296 0.9607
-6.3208 -7.5485 -1.6219 0.9609
-5.6070 -8.0591 -1.6174 0.9610
-4.8618 -8.5188 -1.6158 0.9610
-4.0870 -8.9267 -1.6174 0.9610
-3.2843 -9.2817 -1.6220 0.9609
-0.7258 -10.0155 -1.6543 0.9601
0.1716 -10.1438 -1.6713 0.9597
1.0881 -10.2105 -1.6916 0.9592
2.0217 -10.2131 -1.7151 0.9587
2.9698 -10.1488 -1.7420 0.9580
4.8983 -9.8079 -1.8060 0.9565
5.8716 -9.5246 -1.8433 0.9557
6.8454 -9.1617 -1.8841 0.9547
7.8145 -8.7156 -1.9284 0.9537
8.7731 -8.1828 -1.9764 0.9525
9.7142 -7.5602 -2.0278 0.9513
11.4986 -6.0278 -2.1388 0.9487
12.1831 -3.8266 -2.1037 0.9495
12.8436 -2.8058 -2.1657 0.9481
13.4276 -1.6985 -2.2297 0.9466
10.6775 1.5258 -1.7769 0.9572
8.0470 2.6706 -1.3967 0.9662
7.0093 3.0439 -1.2589 0.9695
6.2003 3.3788 -1.1632 0.9718
5.0311 4.0473 -1.0637 0.9742
4.4203 4.2580 -1.0111 0.9754
2.9829 5.0180 -0.9617 0.9766
1.0653 5.8771 -0.9840 0.9761
0.5514 6.1062 -1.0100 0.9755
-0.5736 6.4682 -1.0697 0.9740
-1.0758 5.9903 -1.0026 0.9756
-1.9288 7.0529 -1.2046 0.9708
-5.1908 13.9509 -2.4522 0.9414
-6.7263 14.0875 -2.5717 0.9387
-7.7351 13.0603 -2.5006 0.9403
-8.6176 11.9703 -2.4298 0.9420
-2.4481 1.9759 -0.5183 0.9873
-10.9196 7.3084 -2.1646 0.9481
-11.4929 3.8349 -1.9960 0.9521
-11.4977 2.7262 -1.9466 0.9532
-11.4200 1.6507 -1.9009 0.9543
-10.4018 -2.2547 -1.7534 0.9578
-9.0334 -4.7169 -1.6788 0.9595
-8.4835 -5.4433 -1.6605 0.9600
-7.8921 -6.1216 -1.6454 0.9603
-4.3981 -8.7710 -1.6164 0.9610
-2.7877 -9.4697 -1.6262 0.9608
-1.9438 -9.7371 -1.6357 0.9605
-1.0764 -9.9479 -1.6484 0.9602
-0.1872 -10.1001 -1.6642 0.9599
1.6490 -10.2199 -1.7054 0.9589
2.5916 -10.1825 -1.7309 0.9583
3.5472 -10.0766 -1.7599 0.9576
4.5128 -9.8990 -1.7922 0.9569
5.4847 -9.6465 -1.8281 0.9560
6.4589 -9.3156 -1.8674 0.9551
7.4305 -8.9029 -1.9104 0.9541
8.3941 -8.4050 -1.9569 0.9530
9.3429 -7.8184 -2.0070 0.9518
11.1658 -6.3678 -2.1175 0.9492
12.5897 -3.2218 -2.1408 0.9487
13.2057 -2.1484 -2.2041 0.9472
13.7371 -0.9911 -2.2689 0.9457
12.5983 0.2171 -2.0757 0.9502
9.7750 1.9382 -1.6417 0.9604
8.5262 2.4979 -1.4636 0.9646
5.2410 3.9185 -1.0780 0.9738
4.7189 4.2337 -1.0444 0.9746
3.1181 4.8457 -0.9493 0.9769
1.8007 5.7395 -0.9910 0.9759
1.2911 5.9192 -0.9980 0.9757
0.7588 6.0138 -0.9986 0.9757
0.2260 6.2318 -1.0273 0.9750
-0.9434 6.5876 -1.0963 0.9734
-1.6241 6.8897 -1.1661 0.9717
-4.4847 13.4989 -2.3433 0.9440
-7.3495 13.4768 -2.5288 0.9397
-8.2823 12.4096 -2.4578 0.9413
-9.0886 11.2905 -2.3877 0.9429
-10.3305 8.9609 -2.2529 0.9461
-11.1075 6.5982 -2.1283 0.9490
-11.4668 4.2835 -2.0165 0.9516
-11.3360 1.0201 -1.8750 0.9549
-11.1388 0.0055 -1.8350 0.9558
-2.3710 -8.5938 -1.6756 0.9644
-1.6044 -8.8201 -1.6850 0.9642
-0.0131 -9.1108 -1.7125 0.9636
3.3390 -8.9911 -1.8027 0.9617
4.1960 -8.8023 -1.8329 0.9611
5.0537 -8.5451 -1.8660 0.9604
5.9077 -8.2170 -1.9022 0.9596
7.5843 -7.3388 -1.9837 0.9580
8.3951 -6.7846 -2.0288 0.9570
9.8649 -4.3103 -2.0235 0.9571
11.8830 -0.6533 -2.2369 0.9527
11.8615 0.4073 -2.2308 0.9528
6.4568 3.3664 -1.3687 0.9708
5.6927 3.6476 -1.2708 0.9729
5.0344 3.9000 -1.1970 0.9744
4.4740 4.1542 -1.1475 0.9755
3.6282 4.8332 -1.1359 0.9757
0.6396 5.8765 -1.1111 0.9762
-0.4480 6.3814 -1.2024 0.9743
-1.8055 7.1124 -1.3793 0.9706
-5.1486 11.3126 -2.3362 0.9507
-5.9919 10.5540 -2.2812 0.9518
-7.9689 9.5602 -2.3393 0.9506
-9.4733 6.5953 -2.1696 0.9541
-9.9973 4.5809 -2.0670 0.9562
-10.1281 3.5873 -2.0196 0.9572
-9.8897 -0.1642 -1.8591 0.9605
-9.6635 -1.0268 -1.8266 0.9612
-8.2199 -4.1020 -1.7267 0.9633
-7.7422 -4.7695 -1.7092 0.9637
-7.2241 -5.3942 -1.6946 0.9640
-6.6682 -5.9751 -1.6829 0.9642
-6.0771 -6.5114 -1.6741 0.9644
-4.7982 -7.4464 -1.6650 0.9646
-4.1147 -7.8431 -1.6648 0.9646
-3.4044 -8.1912 -1.6673 0.9645
-1.9114 -8.7365 -1.6810 0.9643
-0.3347 -9.0707 -1.7061 0.9637
2.1497 -9.1451 -1.7658 0.9625
2.9996 -9.0477 -1.7916 0.9619
4.7132 -8.6556 -1.8525 0.9607
6.4187 -7.9840 -1.9255 0.9592
9.6339 -5.7310 -2.1070 0.9554
9.6109 -4.6117 -2.0037 0.9575
10.2352 -3.8308 -2.0541 0.9565
10.8041 -2.9771 -2.1064 0.9554
11.7362 -1.0636 -2.2150 0.9532
7.7149 2.8678 -1.5470 0.9671
5.2838 3.8014 -1.2235 0.9739
4.6910 4.0558 -1.1656 0.9751
3.8300 4.7421 -1.1457 0.9755
2.2803 5.2234 -1.0713 0.9771
1.3310 5.6056 -1.0829 0.9768
0.4177 2.8831 -0.5476 0.9882
0.3288 6.0148 -1.1322 0.9758
-0.8192 6.5781 -1.2460 0.9734
-3.8206 12.2466 -2.4113 0.9491
-4.7884 11.5944 -2.3578 0.9502
-5.6680 10.8632 -2.3031 0.9514
-6.4550 10.0672 -2.2478 0.9525
-8.3439 8.9805 -2.3041 0.9513
-8.8844 7.9969 -2.2468 0.9525
-9.6696 5.9868 -2.1377 0.9548
-9.9217 4.9791 -2.0866 0.9558
-10.1008 1.0962 -1.9097 0.9595
-9.4990 -1.5296 -1.8084 0.9616
-9.1822 -2.3340 -1.7808 0.9622
-8.8140 -3.0996 -1.7561 0.9627
-8.3978 -3.8252 -1.7345 0.9631
-7.4346 -5.1512 -1.7001 0.9639
-6.3160 -6.3038 -1.6773 0.9643
-5.7047 -6.8127 -1.6702 0.9645
-4.3895 -7.6913 -1.6645 0.9646
-3.6896 -8.0589 -1.6660 0.9646
-2.2151 -8.6446 -1.6773 0.9643
3.5149 -8.9578 -1.8087 0.9616
7.7529 -7.2313 -1.9927 0.9578
9.3353 -6.0112 -2.0870 0.9558
10.0555 -5.2713 -2.1340 0.9548
2.3195 -0.9632 -0.4721 0.9898
11.6152 0.6125 -2.1862 0.9538
9.2331 2.1734 -1.7829 0.9621
6.2894 3.4273 -1.3463 0.9713
5.5494 3.7012 -1.2538 0.9732
2.9284 4.9262 -1.0772 0.9769
0.5290 2.9184 -0.5575 0.9880
-0.5717 6.4466 -1.2165 0.9740
-1.0548 5.8735 -1.1216 0.9760
-6.1537 10.3902 -2.2698 0.9520
-8.1010 9.3638 -2.3273 0.9509
-8.6818 8.3903 -2.2694 0.9520
-2.4481 1.9759 -0.5913 0.9873
-9.5441 6.3878 -2.1586 0.9543
-10.0310 4.3754 -2.0570 0.9564
-10.1448 3.3850 -2.0102 0.9574
-9.8481 -0.3444 -1.8522 0.9607
-9.3144 -2.0190 -1.7914 0.9620
-8.9662 -2.8003 -1.7656 0.9625
-8.1251 -4.2427 -1.7229 0.9634
-5.9514 -6.6161 -1.6727 0.9644
-4.6600 -7.5319 -1.6648 0.9646
-3.9708 -7.9187 -1.6651 0.9646
-3.2553 -8.2567 -1.6682 0.9645
-0.1685 -9.0926 -1.7093 0.9637
0.6492 -9.1645 -1.7269 0.9633
1.4808 -9.1777 -1.7474 0.9629
2.3238 -9.1303 -1.7708 0.9624
3.1752 -9.0197 -1.7973 0.9618
5.7446 -8.2854 -1.8950 0.9598
7.4264 -7.4361 -1.9754 0.9581
8.2417 -6.8968 -2.0200 0.9572
9.0308 -6.2788 -2.0674 0.9562
9.7861 -5.5809 -2.1175 0.9552
9.7433 -4.4571 -2.0139 0.9573
10.3570 -3.6611 -2.0648 0.9563
10.9134 -2.7928 -2.1174 0.9552
11.4025 -1.8551 -2.1714 0.9541
11.8139 -0.8523 -2.2263 0.9529
8.5249 2.4975 -1.6697 0.9645
7.5238 2.9550 -1.5193 0.9676
5.1516 3.8517 -1.2090 0.9742
4.2453 4.5544 -1.1703 0.9750
3.1121 4.8363 -1.0810 0.9769
2.6494 5.0579 -1.0732 0.9770
1.2308 5.6424 -1.0855 0.9768
0.3829 3.0349 -0.5750 0.9876
0.2199 6.0632 -1.1404 0.9756
-0.3353 6.3222 -1.1900 0.9746
-0.9523 6.6493 -1.2626 0.9730
-1.6575 7.0313 -1.3578 0.9710
-4.0265 12.1196 -2.4004 0.9493
-4.9766 11.4500 -2.3466 0.9505
-6.6051 9.8967 -2.2364 0.9527
-8.9831 7.7921 -2.2352 0.9528
-9.7289 5.7792 -2.1269 0.9550
-10.1743 2.7967 -1.9833 0.9580
-10.0778 0.9069 -1.9019 0.9597
-2.1581 -7.8224 -1.7153 0.9674
-0.0119 -8.2766 -1.7495 0.9667
1.4881 -8.3161 -1.7858 0.9661
2.2511 -8.2517 -1.8080 0.9656
4.5536 -7.6995 -1.8909 0.9641
5.3129 -7.3897 -1.9238 0.9635
6.0606 -7.0142 -1.9595 0.9628
6.7914 -6.5716 -1.9976 0.9621
7.4996 -6.0609 -2.0382 0.9613
8.1787 -5.4814 -2.0812 0.9605
8.7429 -3.8201 -2.0168 0.9617
9.2511 -3.0933 -2.0619 0.9609
10.0914 -1.4651 -2.1555 0.9592
10.4067 -0.5722 -2.2031 0.9583
10.7864 1.3398 -2.2976 0.9565
9.4786 2.0484 -2.0498 0.9611
7.3400 3.0286 -1.6784 0.9681
6.5186 3.3986 -1.5539 0.9704
5.1250 3.9702 -1.3704 0.9738
4.5226 4.1994 -1.3046 0.9751
4.1384 4.5948 -1.3071 0.9750
3.6238 4.8274 -1.2759 0.9756
2.9889 4.8242 -1.1996 0.9771
2.0676 5.2346 -1.1897 0.9773
1.6081 5.4501 -1.2011 0.9770
0.5954 2.9728 -0.6409 0.9877
0.1187 6.1959 -1.3099 0.9750
-0.4564 6.5007 -1.3775 0.9737
-0.9466 5.8900 -1.2610 0.9759
-3.6603 10.4186 -2.3342 0.9559
-4.4842 9.8529 -2.2883 0.9567
-5.9074 8.5317 -2.1936 0.9585
-6.5003 7.7984 -2.1460 0.9593
-7.5563 7.5756 -2.2617 0.9572
-8.4007 5.8485 -2.1637 0.9590
-8.6970 4.9671 -2.1171 0.9599
-8.9130 4.0841 -2.0724 0.9607
-9.0522 3.2063 -2.0299 0.9615
-9.1180 2.3394 -1.9898 0.9622
-9.0452 0.6583 -1.9170 0.9636
-8.9143 -0.1480 -1.8846 0.9642
-8.7255 -0.9271 -1.8548 0.9648
-8.4825 -1.6763 -1.8277 0.9653
-8.1886 -2.3934 -1.8033 0.9657
-7.8473 -3.0764 -1.7817 0.9661
-6.5690 -4.9050 -1.7329 0.9670
-6.0673 -5.4366 -1.7221 0.9672
-5.5321 -5.9274 -1.7138 0.9674
-4.9656 -6.3762 -1.7083 0.9675
-4.3700 -6.7818 -1.7054 0.9676
-3.7475 -7.1433 -1.7051 0.9676
-1.7394 -7.9500 -1.7202 0.9673
-1.0300 -8.1220 -1.7306 0.9671
-0.3042 -8.2430 -1.7436 0.9668
1.1871 -8.3259 -1.7777 0.9662
3.4822 -8.0255 -1.8492 0.9649
5.0125 -7.5205 -1.9104 0.9637
7.2215 -6.2720 -2.0218 0.9616
7.9129 -5.7198 -2.0639 0.9609
8.5273 -4.0917 -1.9993 0.9621
9.9455 -1.8059 -2.1366 0.9595
10.2907 -0.9326 -2.1842 0.9586
10.7399 0.9490 -2.2790 0.9569
10.0256 1.7973 -2.1530 0.9592
8.7401 2.3873 -1.9152 0.9636
7.7020 2.8630 -1.7369 0.9670
6.8277 3.2574 -1.5991 0.9695
5.3844 3.8738 -1.4021 0.9732
3.8253 4.7364 -1.2869 0.9754
3.1772 4.7438 -1.2069 0.9769
2.7078 4.9464 -1.1920 0.9772
1.7914 5.3632 -1.1952 0.9771
0.4144 2.8605 -0.6110 0.9883
0.3326 6.0847 -1.2881 0.9754
-0.8350 6.7049 -1.4282 0.9728
-1.2903 5.9618 -1.2894 0.9754
-3.3138 10.6223 -2.3521 0.9555
-5.6497 8.8112 -2.2125 0.9581
-6.2745 8.0944 -2.1648 0.9590
-6.8186 7.3389 -2.1175 0.9599
-8.8366 4.4345 -2.0899 0.9604
-9.1239 1.8244 -1.9668 0.9627
-9.0803 0.9854 -1.9307 0.9633
-8.9735 0.1691 -1.8971 0.9640
-8.8072 -0.6211 -1.8663 0.9645
-8.5853 -1.3825 -1.8381 0.9651
-8.3112 -2.1126 -1.8127 0.9655
-6.2707 -5.2303 -1.7261 0.9672
-5.7485 -5.7374 -1.7168 0.9673
-4.6099 -6.6259 -1.7062 0.9675
-3.3602 -7.3393 -1.7062 0.9675
-2.6989 -7.6273 -1.7102 0.9675
-2.0161 -7.8679 -1.7169 0.9673
-1.3138 -8.0597 -1.7261 0.9672
0.1403 -8.2908 -1.7527 0.9667
0.8874 -8.3268 -1.7701 0.9663
1.6445 -8.3076 -1.7901 0.9660
2.4087 -8.2313 -1.8129 0.9655
5.4678 -7.3179 -1.9310 0.9633
6.2124 -6.9287 -1.9671 0.9627
6.9391 -6.4722 -2.0058 0.9619
2.3171 -0.9622 -0.5303 0.9898
10.1624 -1.2855 -2.1652 0.9590
10.4618 -0.3828 -2.2129 0.9581
10.6785 0.5631 -2.2604 0.9572
8.0904 2.6850 -1.8019 0.9657
6.3652 3.4686 -1.5323 0.9708
4.9956 4.0188 -1.3553 0.9741
3.5207 4.8739 -1.2709 0.9757
1.5125 5.4958 -1.2049 0.9770
0.5399 5.9781 -1.2688 0.9758
-1.0538 5.8679 -1.2602 0.9759
-2.9571 10.8129 -2.3696 0.9552
-3.8355 10.3083 -2.3249 0.9560
-4.6447 9.7279 -2.2786 0.9569
-5.3794 9.0828 -2.2314 0.9578
-6.0359 8.3843 -2.1838 0.9586
-7.6589 7.4017 -2.2514 0.9574
-2.4490 1.9767 -0.6653 0.9872
-8.4683 5.6678 -2.1540 0.9592
-8.9478 3.9030 -2.0635 0.9609
-9.0716 3.0270 -2.0215 0.9617
-9.1228 2.1631 -1.9818 0.9624
-9.0232 0.4904 -1.9101 0.9637
-8.6799 -1.0837 -1.8490 0.9649
-8.4261 -1.8265 -1.8225 0.9654
-7.3771 -3.8521 -1.7592 0.9665
-6.9419 -4.4542 -1.7435 0.9668
-5.9599 -5.5409 -1.7202 0.9673
-4.8454 -6.4631 -1.7075 0.9675
-4.2441 -6.8598 -1.7051 0.9676
-3.6164 -7.2120 -1.7054 0.9676
-2.9642 -7.5185 -1.7083 0.9675
-2.2897 -7.7781 -1.7139 0.9674
-1.5949 -7.9895 -1.7221 0.9672
0.5893 -8.3190 -1.7629 0.9665
1.3428 -8.3220 -1.7818 0.9661
2.8714 -8.1569 -1.8279 0.9653
3.6403 -7.9852 -1.8550 0.9648
4.4073 -7.7515 -1.8848 0.9642
7.3660 -6.1641 -2.0303 0.9615
8.0512 -5.5977 -2.0728 0.9607
9.6214 -2.4622 -2.0993 0.9602
10.0224 -1.6305 -2.1464 0.9593
10.3523 -0.7469 -2.1940 0.9585
10.7658 1.1507 -2.2886 0.9567
9.7357 1.9304 -2.0980 0.9602
8.5095 2.4930 -1.8743 0.9644
7.5115 2.9502 -1.7058 0.9675
6.6655 3.3315 -1.5751 0.9700
5.9384 3.6633 -1.4749 0.9719
5.2485 3.9241 -1.3852 0.9736
3.7206 4.7837 -1.2810 0.9755
2.6129 4.9882 -1.1903 0.9772
1.6967 5.4080 -1.1981 0.9771
1.2288 5.6334 -1.2188 0.9767
0.2228 6.1416 -1.2991 0.9752
-0.9687 6.7640 -1.4444 0.9725
-3.4945 10.5184 -2.3429 0.9557
-4.3319 9.9668 -2.2972 0.9565
-5.0968 9.3460 -2.2502 0.9574
-5.7847 8.6674 -2.2027 0.9583
-6.3930 7.9418 -2.1551 0.9592
-8.6465 5.1363 -2.1259 0.9597
-9.0313 3.3737 -2.0379 0.9614
-9.1203 1.6502 -1.9591 0.9628
-8.9440 0.0044 -1.8906 0.9641
-2.6018 -6.9448 -1.7430 0.9700
-1.9788 -7.1724 -1.7487 0.9699
-1.3379 -7.3545 -1.7568 0.9698
4.1400 -7.0002 -1.9114 0.9671
5.4920 -6.3562 -1.9742 0.9661
6.7705 -5.4717 -2.0459 0.9649
7.3685 -4.9384 -2.0847 0.9642
7.9167 -4.3372 -2.1215 0.9636
7.8425 -3.4267 -2.0114 0.9654
8.2793 -2.7683 -2.0517 0.9648
8.6635 -2.0599 -2.0929 0.9641
9.2469 -0.5084 -2.1765 0.9627
9.5388 1.1849 -2.2591 0.9613
9.4598 2.0443 -2.2746 0.9610
5.1697 4.0048 -1.5369 0.9735
4.5947 4.2663 -1.4736 0.9746
3.6194 4.8215 -1.4169 0.9755
3.0389 4.9048 -1.3561 0.9766
2.1019 5.3214 -1.3447 0.9768
0.5893 2.9424 -0.7053 0.9877
-0.9460 5.8867 -1.4013 0.9758
-1.8087 7.1250 -1.7277 0.9702
-5.2516 7.5846 -2.1681 0.9628
-5.7926 6.9493 -2.1262 0.9635
-6.2638 6.2799 -2.0846 0.9642
-7.8221 4.4674 -2.1171 0.9637
-8.0334 3.6810 -2.0768 0.9643
-8.1754 2.8957 -2.0384 0.9650
-8.2507 2.1169 -2.0019 0.9656
-8.2623 1.3495 -1.9676 0.9662
-8.1071 -0.1346 -1.9056 0.9672
-7.4763 -2.1852 -1.8306 0.9685
-7.1722 -2.8117 -1.8105 0.9688
-6.4404 -3.9675 -1.7778 0.9694
-6.0180 -4.4936 -1.7652 0.9696
-5.0727 -5.4353 -1.7473 0.9699
-4.5545 -5.8483 -1.7421 0.9700
-3.4378 -6.5530 -1.7392 0.9701
-2.8437 -6.8421 -1.7414 0.9700
-1.5944 -7.2877 -1.7533 0.9698
-0.9437 -7.4416 -1.7630 0.9696
-0.2785 -7.5478 -1.7751 0.9694
1.7783 -7.5652 -1.8265 0.9686
2.4751 -7.4658 -1.8485 0.9682
4.5529 -6.8311 -1.9294 0.9668
5.2281 -6.5031 -1.9610 0.9663
7.1349 -5.1574 -2.0691 0.9645
7.7122 -4.5878 -2.1090 0.9638
7.6559 -3.6736 -1.9957 0.9657
8.1117 -3.0360 -2.0356 0.9650
8.5176 -2.3471 -2.0764 0.9643
9.5064 0.8400 -2.2429 0.9615
8.7238 2.3828 -2.1254 0.9635
6.0715 3.5934 -1.6581 0.9714
4.8174 4.1651 -1.4967 0.9742
4.2620 4.4073 -1.4409 0.9751
3.8206 4.7305 -1.4291 0.9753
2.2862 5.2368 -1.3429 0.9768
1.3487 5.6803 -1.3721 0.9763
0.4112 2.8382 -0.6740 0.9883
0.3377 6.1773 -1.4540 0.9749
-0.2227 6.4255 -1.5111 0.9739
-1.2854 5.9391 -1.4281 0.9753
-2.9225 9.3679 -2.3063 0.9605
-5.0177 7.8255 -2.1848 0.9625
-5.5860 7.2062 -2.1429 0.9632
-6.0851 6.5493 -2.1011 0.9639
-6.5140 5.8633 -2.0598 0.9646
-2.5488 1.9121 -0.7488 0.9870
-7.7183 4.7786 -2.1335 0.9634
-7.9580 3.9936 -2.0926 0.9641
-8.1271 3.2071 -2.0534 0.9647
-8.2651 1.6527 -1.9809 0.9660
-7.8253 -1.2601 -1.8628 0.9680
-7.2982 -2.5666 -1.8182 0.9687
-6.9683 -3.1741 -1.7996 0.9690
-5.2705 -5.2603 -1.7501 0.9699
-4.7637 -5.6890 -1.7439 0.9700
-4.2287 -6.0781 -1.7402 0.9700
-3.6675 -6.4262 -1.7390 0.9701
-3.0823 -6.7324 -1.7402 0.9700
-2.4752 -6.9953 -1.7439 0.9700
-1.8484 -7.2136 -1.7501 0.9699
-0.5443 -7.5114 -1.7700 0.9695
3.5912 -7.1908 -1.8890 0.9675
8.0166 -4.2025 -2.1273 0.9635
9.2913 -0.3400 -2.1851 0.9625
9.4610 0.4989 -2.2266 0.9618
9.5503 1.3647 -2.2673 0.9611
8.0763 2.6804 -1.9999 0.9656
7.1442 3.1025 -1.8305 0.9685
5.0474 4.0604 -1.5225 0.9737
4.0255 4.6378 -1.4433 0.9751
3.5165 4.8680 -1.4114 0.9756
1.4462 3.8676 -0.9704 0.9832
1.5379 5.5881 -1.3622 0.9765
0.5283 2.9145 -0.6961 0.9879
-0.5840 6.5853 -1.5538 0.9732
-1.0527 5.8618 -1.3997 0.9758
-2.6056 9.5276 -2.3214 0.9602
-3.3871 9.1034 -2.2828 0.9609
-4.7731 8.0590 -2.2013 0.9622
-5.8952 6.8142 -2.1176 0.9637
-6.3520 6.1387 -2.0761 0.9644
-7.6031 5.0887 -2.1502 0.9631
-7.8713 4.3059 -2.1087 0.9638
-8.0682 3.5193 -2.0688 0.9645
-8.1962 2.7349 -2.0307 0.9651
-8.2581 1.9580 -1.9947 0.9657
-8.2570 1.1935 -1.9608 0.9663
-8.1961 0.4455 -1.9291 0.9668
-8.0785 -0.2825 -1.8998 0.9673
-7.9074 -0.9873 -1.8729 0.9678
-7.4173 -2.3165 -1.8263 0.9686
-7.1043 -2.9367 -1.8067 0.9689
-5.9268 -4.5973 -1.7629 0.9696
-5.4634 -5.0793 -1.7532 0.9698
-3.8934 -6.2929 -1.7392 0.9701
-2.7189 -6.8961 -1.7422 0.9700
-0.8080 -7.4674 -1.7653 0.9696
-0.1402 -7.5635 -1.7779 0.9694
0.5391 -7.6102 -1.7931 0.9691
3.3154 -7.2724 -1.8784 0.9677
4.6928 -6.7685 -1.9357 0.9667
6.0200 -6.0279 -2.0022 0.9656
6.6524 -5.5669 -2.0387 0.9650
7.2565 -5.0452 -2.0771 0.9643
7.8218 -4.4607 -2.1162 0.9637
7.7534 -3.5468 -2.0038 0.9656
8.1994 -2.8984 -2.0439 0.9649
8.5943 -2.1993 -2.0849 0.9642
8.9311 -1.4530 -2.1266 0.9635
9.4029 0.1620 -2.2102 0.9621
9.5248 1.0181 -2.2513 0.9614
9.5628 1.8961 -2.2912 0.9607
8.4940 2.4885 -2.0802 0.9643
6.6553 3.3264 -1.7486 0.9699
5.9299 3.6581 -1.6375 0.9718
4.2347 4.5430 -1.4596 0.9748
2.6563 5.0709 -1.3454 0.9768
2.1908 5.2804 -1.3436 0.9768
1.2497 5.7291 -1.3781 0.9762
0.2259 6.2269 -1.4644 0.9747
-0.9674 6.7545 -1.6037 0.9724
-4.5180 8.2847 -2.2178 0.9620
-5.6944 7.0739 -2.1343 0.9634
-6.1790 6.4104 -2.0925 0.9641
-7.9984 3.8318 -2.0844 0.9642
-8.1535 3.0458 -2.0456 0.9649
-8.2648 1.4954 -1.9740 0.9661
-8.2273 0.7404 -1.9414 0.9666
-8.1318 0.0040 -1.9112 0.9671
-2.4008 -6.4084 -1.7719 0.9721
-1.8255 -6.6168 -1.7772 0.9720
-1.2338 -6.7822 -1.7849 0.9719
-0.6278 -6.9036 -1.7948 0.9718
-0.0100 -6.9795 -1.8071 0.9716
1.8884 -6.9222 -1.8578 0.9708
3.1625 -6.6341 -1.9029 0.9701
4.4114 -6.1358 -1.9566 0.9693
5.0165 -5.8058 -1.9866 0.9688
6.6979 -4.4890 -2.0877 0.9672
7.4846 -2.5026 -2.0434 0.9679
7.8169 -1.8586 -2.0804 0.9673
8.5404 1.0608 -2.2282 0.9651
8.5437 1.8464 -2.2632 0.9645
6.4989 3.3883 -1.8976 0.9702
5.7926 3.7117 -1.7813 0.9720
5.1627 3.9993 -1.6909 0.9734
4.5887 4.2607 -1.6213 0.9745
3.6149 4.8156 -1.5590 0.9754
3.0668 4.9499 -1.5077 0.9762
1.6483 5.5863 -1.5080 0.9762
0.3236 2.9734 -0.7744 0.9877
0.1201 6.2656 -1.6226 0.9744
-0.9454 5.8826 -1.5427 0.9757
-3.5535 7.8078 -2.2211 0.9652
-4.7218 6.8195 -2.1476 0.9663
-5.2184 6.2605 -2.1102 0.9669
-6.0274 5.0504 -2.0360 0.9680
-6.8307 4.7555 -2.1550 0.9662
-7.1002 4.0551 -2.1171 0.9668
-7.3049 3.3472 -2.0805 0.9673
-7.4465 2.6375 -2.0454 0.9679
-7.5270 1.9312 -2.0120 0.9684
-7.5490 1.2330 -1.9805 0.9689
-7.5149 0.5469 -1.9509 0.9693
-7.2893 -0.7745 -1.8980 0.9702
-7.1033 -1.4038 -1.8748 0.9705
-6.5985 -2.5868 -1.8351 0.9711
-5.9338 -3.6554 -1.8045 0.9716
-5.5477 -4.1424 -1.7927 0.9718
-5.1291 -4.5959 -1.7831 0.9719
-4.6800 -5.0145 -1.7760 0.9721
-3.6998 -5.7417 -1.7685 0.9722
-3.1728 -6.0478 -1.7683 0.9722
-2.6242 -6.3140 -1.7704 0.9721
-2.0561 -6.5391 -1.7748 0.9721
-1.4706 -6.7217 -1.7815 0.9720
-0.8700 -6.8608 -1.7906 0.9718
0.3671 -7.0028 -1.8156 0.9714
2.2733 -6.8570 -1.8704 0.9706
3.5429 -6.5064 -1.9182 0.9699
4.1668 -6.2518 -1.9453 0.9694
5.3723 -5.5805 -2.0056 0.9685
5.9447 -5.1631 -2.0387 0.9680
6.9393 -3.3297 -1.9928 0.9687
7.6912 -2.1193 -2.0656 0.9676
8.2325 -0.7460 -2.1403 0.9664
8.4098 -0.0094 -2.1774 0.9658
8.5517 1.5331 -2.2495 0.9647
8.5076 2.3238 -2.2835 0.9642
7.6759 2.8533 -2.1203 0.9667
6.8065 3.2472 -1.9526 0.9693
6.0626 3.5881 -1.8240 0.9713
5.4052 3.8887 -1.7240 0.9729
4.2633 4.4086 -1.5879 0.9750
3.8158 4.7247 -1.5724 0.9752
3.2575 4.8639 -1.5157 0.9761
2.7804 5.0789 -1.4992 0.9764
1.8377 5.5017 -1.5018 0.9763
1.3572 5.7162 -1.5212 0.9760
0.4080 2.8162 -0.7368 0.9883
0.3373 6.1694 -1.5997 0.9748
-0.8327 6.6862 -1.7445 0.9725
-2.6109 8.3690 -2.2699 0.9644
-3.2954 7.9793 -2.2353 0.9650
-5.8865 5.2985 -2.0506 0.9678
-2.5431 1.9078 -0.8232 0.9869
-7.3977 2.9193 -2.0591 0.9677
-7.5471 1.5091 -1.9928 0.9687
-7.5350 0.8177 -1.9624 0.9692
-7.4684 0.1408 -1.9340 0.9696
-7.3501 -0.5183 -1.9078 0.9700
-7.1828 -1.1566 -1.8837 0.9704
-6.9692 -1.7715 -1.8618 0.9707
-6.4140 -2.9216 -1.8249 0.9713
-6.0775 -3.4530 -1.8098 0.9715
-5.7051 -3.9529 -1.7971 0.9717
-4.3956 -5.2494 -1.7727 0.9721
-3.9026 -5.6093 -1.7693 0.9722
-2.8446 -6.2132 -1.7693 0.9722
-1.7051 -6.6543 -1.7786 0.9720
-1.1102 -6.8108 -1.7867 0.9719
2.0197 -6.9021 -1.8620 0.9707
2.6578 -6.7733 -1.8839 0.9704
3.9203 -6.3593 -1.9343 0.9696
5.1387 -5.7312 -1.9930 0.9687
5.7203 -5.3354 -2.0253 0.9682
6.2770 -4.8852 -2.0594 0.9677
7.8786 -1.7211 -2.0880 0.9672
8.1439 -1.0302 -2.1254 0.9667
8.5474 1.2214 -2.2355 0.9650
8.5347 2.0090 -2.2702 0.9644
8.0621 2.6756 -2.1994 0.9655
7.1327 3.0975 -2.0134 0.9684
6.3462 3.4583 -1.8713 0.9706
5.6576 3.7734 -1.7608 0.9723
5.0406 4.0550 -1.6750 0.9736
3.5122 4.8620 -1.5530 0.9755
1.4325 3.8310 -1.0590 0.9832
1.5496 5.6304 -1.5120 0.9762
0.0051 6.3164 -1.6354 0.9742
-0.5832 6.5762 -1.7094 0.9731
-1.0516 5.8556 -1.5404 0.9757
-2.3261 8.5058 -2.2832 0.9642
-4.2850 7.2349 -2.1771 0.9659
-5.7358 5.5432 -2.0653 0.9676
-6.8915 4.6124 -2.1471 0.9663
-7.3391 3.2012 -2.0731 0.9675
-7.5362 1.7869 -2.0054 0.9685
-7.5465 1.0908 -1.9742 0.9690
-7.5012 0.4077 -1.9451 0.9694
-7.0594 -1.5302 -1.8703 0.9706
-6.8193 -2.1298 -1.8497 0.9709
-5.0391 -4.6849 -1.7815 0.9720
-4.1015 -5.4708 -1.7704 0.9721
-2.5089 -6.3637 -1.7711 0.9721
-1.3483 -6.7539 -1.7832 0.9719
-0.7449 -6.8838 -1.7927 0.9718
-0.1292 -6.9685 -1.8046 0.9716
1.1291 -6.9975 -1.8352 0.9711
1.7661 -6.9391 -1.8539 0.9708
3.0410 -6.6707 -1.8982 0.9702
3.6720 -6.4584 -1.9236 0.9698
4.2937 -6.1928 -1.9511 0.9693
4.9019 -5.8732 -1.9807 0.9689
5.4920 -5.4991 -2.0123 0.9684
6.0592 -5.0705 -2.0457 0.9679
6.5983 -4.5876 -2.0808 0.9673
7.4152 -2.6212 -2.0363 0.9680
7.7573 -1.9851 -2.0732 0.9675
8.0456 -1.3089 -2.1105 0.9669
6.6450 3.3213 -1.9235 0.9698
5.2785 3.9465 -1.7064 0.9731
4.2293 4.5373 -1.6060 0.9747
3.7114 4.7719 -1.5652 0.9753
3.1585 4.9085 -1.5113 0.9762
1.2567 5.7610 -1.5267 0.9759
-2.7555 8.2941 -2.2629 0.9645
-4.0529 7.4318 -2.1918 0.9656
-4.6199 6.9221 -2.1548 0.9662
-5.1280 6.3704 -2.1174 0.9668
-5.5753 5.7840 -2.0800 0.9674
-5.9607 5.1704 -2.0430 0.9679
-6.7715 4.8883 -2.1624 0.9661
-7.0536 4.1901 -2.1242 0.9667
-2.2268 -5.9439 -1.7969 0.9740
-1.1437 -6.2873 -1.8091 0.9738
-0.5817 -6.3972 -1.8185 0.9736
1.1570 -6.4658 -1.8595 0.9731
2.3333 -6.2832 -1.8974 0.9725
3.4947 -5.9090 -1.9435 0.9719
4.0609 -5.6484 -1.9694 0.9715
5.6531 -4.5687 -2.0577 0.9702
6.1332 -4.1105 -2.0902 0.9698
2.3440 -1.0242 -0.7241 0.9894
6.8221 -2.2811 -2.0364 0.9705
7.7140 1.6671 -2.2342 0.9677
7.6345 2.3791 -2.2638 0.9673
7.3038 3.0137 -2.2368 0.9677
6.4889 3.3831 -2.0716 0.9700
5.7843 3.7063 -1.9448 0.9718
5.1556 3.9939 -1.8462 0.9733
4.1228 4.5774 -1.7439 0.9747
3.6104 4.8096 -1.7025 0.9753
3.0630 4.9438 -1.6464 0.9761
1.6463 5.5795 -1.6468 0.9761
0.5949 2.9701 -0.8575 0.9875
0.3225 2.9631 -0.8438 0.9877
0.1199 6.2573 -1.7717 0.9743
-1.8031 7.1032 -2.0747 0.9700
-2.6088 7.4256 -2.2281 0.9678
-3.2142 7.0623 -2.1966 0.9683
-4.7428 5.6899 -2.0970 0.9697
-6.2270 4.3352 -2.1480 0.9689
-6.4939 3.7088 -2.1171 0.9694
-6.6910 3.0659 -2.0835 0.9699
-6.8303 2.4193 -2.0513 0.9703
-6.9426 1.1340 -1.9914 0.9712
-6.8467 -0.1137 -1.9385 0.9719
-6.7263 -0.7147 -1.9149 0.9723
-6.5609 -1.2966 -1.8933 0.9726
-6.3528 -1.8568 -1.8737 0.9729
-6.1044 -2.3931 -1.8562 0.9731
-5.1412 -3.8389 -1.8164 0.9737
-4.7551 -4.2608 -1.8075 0.9738
-4.3401 -4.6503 -1.8007 0.9739
-3.8984 -5.0058 -1.7961 0.9740
-3.4321 -5.3263 -1.7938 0.9740
-2.4342 -5.8567 -1.7955 0.9740
-0.2378 -6.4429 -1.8252 0.9736
0.3398 -6.4837 -1.8380 0.9734
0.9239 -6.4799 -1.8530 0.9732
2.1001 -6.3345 -1.8892 0.9726
3.2666 -5.9989 -1.9337 0.9720
3.8376 -5.7578 -1.9589 0.9716
4.9358 -5.1270 -2.0147 0.9708
6.4023 -3.8085 -2.1089 0.9695
6.6933 -2.5051 -2.0232 0.9707
7.0037 -1.9299 -2.0566 0.9703
7.2650 -1.3192 -2.0903 0.9698
7.4724 -0.6772 -2.1241 0.9693
7.6211 -0.0085 -2.1575 0.9688
7.7069 0.6810 -2.1903 0.9683
7.7258 1.3850 -2.2220 0.9679
6.7957 3.2421 -2.1315 0.9692
4.8046 4.1540 -1.7980 0.9739
3.2535 4.8579 -1.6552 0.9760
0.4048 2.7945 -0.7993 0.9883
0.3368 6.1614 -1.7468 0.9747
-0.8315 6.6767 -1.9047 0.9724
-1.2813 5.9200 -1.7147 0.9751
-2.9790 7.2131 -2.2093 0.9681
-3.5574 6.8180 -2.1771 0.9685
-4.9929 5.3739 -2.0766 0.9700
-5.3638 4.8280 -2.0430 0.9704
-2.5398 1.9053 -0.8988 0.9869
-6.8871 2.0298 -2.0326 0.9706
-6.9374 1.3872 -2.0028 0.9710
-6.9348 0.7526 -1.9747 0.9714
-6.8814 0.1297 -1.9484 0.9718
-6.7796 -0.4781 -1.9240 0.9721
-6.6318 -1.0679 -1.9016 0.9725
-6.4404 -1.6370 -1.8812 0.9728
-5.6283 -3.1977 -1.8325 0.9734
-4.9121 -4.0971 -1.8108 0.9738
-4.5082 -4.4996 -1.8032 0.9739
-4.0769 -4.8687 -1.7977 0.9739
-3.6201 -5.2033 -1.7944 0.9740
-3.1400 -5.5019 -1.7934 0.9740
-2.6387 -5.7634 -1.7945 0.9740
-1.5811 -6.1703 -1.8032 0.9739
-1.0292 -6.3133 -1.8109 0.9738
0.6913 -6.4868 -1.8468 0.9732
1.8664 -6.3783 -1.8814 0.9728
2.4539 -6.2537 -1.9018 0.9725
3.0370 -6.0810 -1.9242 0.9721
5.2512 -4.8979 -2.0329 0.9706
2.3125 -0.9603 -0.7089 0.9896
7.1674 -1.5658 -2.0769 0.9700
7.3968 -0.9356 -2.1107 0.9695
7.5694 -0.2769 -2.1443 0.9690
7.6806 0.4050 -2.1774 0.9685
7.7265 1.1041 -2.2095 0.9681
7.7036 1.8134 -2.2404 0.9676
7.6092 2.5253 -2.2696 0.9672
5.0338 4.0495 -1.8289 0.9735
4.4703 4.3063 -1.7572 0.9745
3.5078 4.8560 -1.6959 0.9754
1.4243 3.8092 -1.1513 0.9832
1.5477 5.6235 -1.6512 0.9760
0.2736 3.0298 -0.8612 0.9874
0.0051 6.3080 -1.7858 0.9741
-0.5823 6.5671 -1.8664 0.9730
-3.3332 6.9810 -2.1900 0.9684
-3.8832 6.5565 -2.1572 0.9688
-4.3831 6.0884 -2.1238 0.9693
-4.8304 5.5833 -2.0900 0.9698
-5.2231 5.0478 -2.0563 0.9703
-6.2901 4.2099 -2.1427 0.9690
-6.7243 2.9331 -2.0768 0.9700
-6.8519 2.2863 -2.0449 0.9704
-6.9239 1.6417 -2.0144 0.9709
-6.9420 1.0034 -1.9857 0.9713
-6.9085 0.3755 -1.9586 0.9716
-6.3049 -1.9691 -1.8699 0.9729
-6.0486 -2.5002 -1.8528 0.9732
-5.4260 -3.4815 -1.8251 0.9736
-4.2514 -4.7262 -1.7996 0.9739
-3.8044 -5.0746 -1.7955 0.9740
-2.3272 -5.9026 -1.7962 0.9740
-1.7964 -6.1022 -1.8008 0.9739
-1.2500 -6.2615 -1.8076 0.9738
-0.1196 -6.4548 -1.8276 0.9735
0.4595 -6.4866 -1.8409 0.9733
2.2209 -6.3089 -1.8934 0.9726
2.8061 -6.1554 -1.9151 0.9723
3.3849 -5.9533 -1.9387 0.9719
4.5081 -5.4014 -1.9917 0.9712
6.4855 -3.6986 -2.1136 0.9694
6.7609 -2.3899 -2.0300 0.9706
7.3122 -1.1896 -2.0973 0.9697
7.6441 0.1317 -2.1643 0.9687
7.7164 0.8248 -2.1969 0.9683
4.2239 4.5315 -1.7537 0.9746
3.1547 4.9025 -1.6504 0.9761
2.2102 5.3272 -1.6327 0.9763
1.2551 5.7538 -1.6672 0.9758
0.2253 6.2107 -1.7594 0.9745
-3.6705 6.7307 -2.1703 0.9686
-4.1907 6.2791 -2.1371 0.9691
-5.7369 4.1415 -2.0031 0.9710
-6.4494 3.8311 -2.1236 0.9693
-6.6577 3.1895 -2.0899 0.9698
-6.8080 2.5432 -2.0574 0.9702
-6.9019 1.8972 -2.0263 0.9707
-6.8644 0.0034 -1.9433 0.9719
-1.5768 -5.7151 -1.8235 0.9755
-1.0650 -5.8546 -1.8303 0.9754
-0.5415 -5.9548 -1.8391 0.9753
-0.0086 -6.0146 -1.8500 0.9751
0.5312 -6.0331 -1.8628 0.9750
1.0753 -6.0093 -1.8777 0.9748
1.6211 -5.9423 -1.8945 0.9746
2.7054 -5.6754 -1.9338 0.9740
3.7585 -5.2277 -1.9804 0.9734
4.2644 -4.9354 -2.0062 0.9731
5.2148 -4.2144 -2.0623 0.9723
2.3290 -1.0176 -0.7817 0.9894
6.2608 -2.0934 -2.0305 0.9728
6.5195 -1.5501 -2.0612 0.9723
6.7308 -0.9772 -2.0919 0.9719
6.8904 -0.3788 -2.1225 0.9715
6.9946 0.2402 -2.1527 0.9711
7.0398 0.8745 -2.1819 0.9707
6.4788 3.3778 -2.2473 0.9699
5.1484 3.9883 -2.0031 0.9731
4.1175 4.5715 -1.8923 0.9746
2.5867 5.1505 -1.7727 0.9762
1.6442 5.5725 -1.7871 0.9760
0.6017 3.0044 -0.9424 0.9873
0.1198 6.2490 -1.9224 0.9742
-0.4565 6.5029 -2.0051 0.9731
-0.9443 5.8757 -1.8304 0.9754
-1.7851 7.0320 -2.2315 0.9701
-2.9308 6.4396 -2.1762 0.9708
-3.4458 6.0694 -2.1467 0.9712
-3.9171 5.6572 -2.1164 0.9716
-4.7183 4.7304 -2.0550 0.9724
-5.3210 3.7045 -1.9942 0.9732
-5.9769 3.4136 -2.1171 0.9716
-6.1661 2.8254 -2.0862 0.9720
-6.3022 2.2322 -2.0564 0.9724
-6.3864 1.6386 -2.0279 0.9728
-6.2383 -0.6628 -1.9296 0.9741
-6.0898 -1.2035 -1.9093 0.9744
-5.4112 -2.7004 -1.8601 0.9750
-5.1145 -3.1507 -1.8476 0.9752
-4.7861 -3.5737 -1.8372 0.9753
-4.4281 -3.9678 -1.8288 0.9754
-3.1977 -4.9626 -1.8158 0.9756
-2.7423 -5.2273 -1.8156 0.9756
-2.2678 -5.4565 -1.8175 0.9756
-1.7762 -5.6491 -1.8214 0.9755
-1.2698 -5.8038 -1.8274 0.9754
-0.7507 -5.9198 -1.8354 0.9753
-0.2213 -5.9958 -1.8454 0.9752
1.4043 -5.9741 -1.8876 0.9746
1.9496 -5.8806 -1.9056 0.9744
2.4917 -5.7427 -1.9254 0.9741
3.0274 -5.5597 -1.9471 0.9739
3.5532 -5.3312 -1.9706 0.9735
5.4812 -3.9620 -2.0802 0.9721
5.8908 -3.5043 -2.1082 0.9717
6.1459 -2.3002 -2.0184 0.9729
6.6528 -1.2080 -2.0797 0.9721
6.9601 -0.0078 -2.1408 0.9713
7.0374 1.2616 -2.1991 0.9705
6.8624 2.5509 -2.2518 0.9698
6.0446 3.5775 -2.1604 0.9710
5.3900 3.8778 -2.0423 0.9726
4.7981 4.1484 -1.9509 0.9738
4.2522 4.3972 -1.8814 0.9747
2.7736 5.0664 -1.7766 0.9761
2.3039 5.2775 -1.7712 0.9762
0.4041 2.7898 -0.8670 0.9883
-0.2218 6.3996 -1.9696 0.9736
-0.8303 6.6672 -2.0665 0.9723
-2.1451 6.8760 -2.2154 0.9703
-2.7149 6.5737 -2.1876 0.9707
-3.7353 5.8256 -2.1285 0.9715
-4.9212 4.4296 -2.0365 0.9727
-2.5365 1.9028 -0.9753 0.9868
-6.0974 3.0599 -2.0983 0.9719
-6.2544 2.4681 -2.0681 0.9723
-6.3590 1.8741 -2.0391 0.9726
-6.4127 1.2823 -2.0115 0.9730
-6.3740 0.1201 -1.9609 0.9737
-6.2856 -0.4433 -1.9381 0.9740
-5.9807 -1.5202 -1.8980 0.9745
-5.5198 -2.5143 -1.8656 0.9749
-4.9202 -3.4091 -1.8411 0.9753
-4.5737 -3.8148 -1.8319 0.9754
-4.1989 -4.1908 -1.8247 0.9755
-3.7979 -4.5356 -1.8196 0.9755
-2.9256 -5.1263 -1.8155 0.9756
-2.4585 -5.3698 -1.8165 0.9756
-0.9583 -5.8785 -1.8320 0.9754
-0.4326 -5.9704 -1.8412 0.9753
0.1019 -6.0219 -1.8525 0.9751
1.7332 -5.9230 -1.8982 0.9745
2.2770 -5.8028 -1.9173 0.9743
2.8156 -5.6378 -1.9383 0.9740
3.8639 -5.1714 -1.9856 0.9733
4.8486 -4.5223 -2.0393 0.9726
5.3068 -4.1301 -2.0683 0.9723
5.6916 -2.9837 -1.9766 0.9735
2.3115 -0.9598 -0.7698 0.9896
6.3177 -1.9843 -2.0368 0.9727
6.5670 -1.4346 -2.0675 0.9723
6.7679 -0.8561 -2.0983 0.9719
6.9165 -0.2531 -2.1288 0.9715
7.0416 1.0062 -2.1878 0.9707
7.0120 1.6506 -2.2157 0.9703
6.9179 2.2959 -2.2419 0.9700
6.7582 2.9349 -2.2662 0.9696
5.6414 3.7625 -2.0857 0.9720
5.0269 4.0439 -1.9844 0.9734
3.5034 4.8499 -1.8402 0.9753
2.9615 4.9818 -1.7826 0.9760
2.4902 5.1939 -1.7716 0.9762
1.3947 3.7300 -1.2249 0.9835
1.5458 5.6165 -1.7917 0.9759
0.0051 6.2996 -1.9376 0.9740
-1.0495 5.8437 -1.8261 0.9755
-1.9092 6.9811 -2.2261 0.9702
-3.5464 5.9879 -2.1405 0.9713
-4.0084 5.5678 -2.1102 0.9717
-4.7896 4.6287 -2.0487 0.9725
-2.4528 1.9798 -0.9695 0.9869
-5.3715 3.5951 -1.9881 0.9733
-6.3974 1.5168 -2.0222 0.9729
-6.4211 0.9281 -1.9955 0.9732
-6.3967 0.3477 -1.9704 0.9735
-6.2111 -0.7755 -1.9252 0.9741
-5.8574 -1.8294 -1.8874 0.9746
-5.6229 -2.3243 -1.8714 0.9749
-5.3529 -2.7951 -1.8574 0.9750
-5.0495 -3.2400 -1.8453 0.9752
-3.9602 -4.4025 -1.8214 0.9755
-3.5444 -4.7278 -1.8175 0.9756
-1.1640 -5.8309 -1.8288 0.9754
-0.1113 -6.0064 -1.8477 0.9752
0.4274 -6.0328 -1.8602 0.9750
0.9709 -6.0172 -1.8747 0.9748
2.6025 -5.7087 -1.9297 0.9741
3.1365 -5.5164 -1.9518 0.9738
3.6598 -5.2785 -1.9756 0.9735
5.5696 -3.8723 -2.0864 0.9720
5.9663 -3.4025 -2.1126 0.9717
5.8967 -2.6975 -1.9945 0.9732
6.2062 -2.1939 -2.0247 0.9728
6.4735 -1.6566 -2.0553 0.9724
7.0359 0.7521 -2.1764 0.9708
6.9631 2.0399 -2.2317 0.9701
6.8296 2.6823 -2.2568 0.9698
5.9039 3.6421 -2.1336 0.9714
5.2638 3.9355 -2.0215 0.9729
4.6826 4.2011 -1.9350 0.9740
4.2185 4.5256 -1.9029 0.9744
3.7021 4.7600 -1.8547 0.9751
3.1508 4.8964 -1.7909 0.9759
2.6548 5.0682 -1.7598 0.9763
1.7356 5.5318 -1.7832 0.9760
0.3694 2.9278 -0.9077 0.9877
-0.9632 6.7255 -2.0897 0.9720
-1.6570 7.0295 -2.2214 0.9702
-5.2720 3.8059 -2.0000 0.9732
-5.9308 3.5231 -2.1218 0.9715
-6.2802 2.3460 -2.0620 0.9723
-6.4176 1.1612 -2.0060 0.9731
-6.4120 0.5770 -1.9802 0.9734
-6.3595 0.0031 -1.9560 0.9737
-1.4742 -5.3436 -1.8426 0.9769
-0.5060 -5.5646 -1.8573 0.9767
0.4960 -5.6331 -1.8797 0.9764
1.0035 -5.6078 -1.8937 0.9763
1.5119 -5.5419 -1.9095 0.9761
2.0183 -5.4347 -1.9271 0.9759
3.0129 -5.0944 -1.9674 0.9754
3.9614 -4.5847 -2.0141 0.9748
4.8346 -3.9072 -2.0663 0.9741
5.2332 -3.5073 -2.0941 0.9738
5.7788 -1.9323 -2.0254 0.9746
6.1981 -0.8999 -2.0819 0.9739
6.3377 -0.3484 -2.1099 0.9736
6.4387 1.3914 -2.1896 0.9726
3.0554 4.9315 -1.9284 0.9758
2.5835 5.1441 -1.9135 0.9760
1.4838 3.7565 -1.3426 0.9831
1.6422 5.5656 -1.9289 0.9758
0.3229 2.9668 -0.9920 0.9875
-0.4559 6.4938 -2.1639 0.9729
-0.9441 5.8746 -1.9778 0.9752
-2.6903 5.9111 -2.1588 0.9730
-3.1665 5.5775 -2.1319 0.9733
-3.6038 5.2047 -2.1043 0.9737
-4.3510 4.3621 -2.0480 0.9744
-4.6575 3.9025 -2.0198 0.9747
-4.9181 3.4240 -1.9920 0.9751
-5.5210 3.1532 -2.1134 0.9736
-5.9280 1.5210 -2.0343 0.9745
-5.9569 0.4335 -1.9853 0.9751
-5.9048 -0.0980 -1.9631 0.9754
-5.8108 -0.6174 -1.9424 0.9757
-5.6766 -1.1218 -1.9234 0.9759
-5.2956 -2.0761 -1.8907 0.9763
-4.4728 -3.3398 -1.8555 0.9767
-4.1395 -3.7092 -1.8476 0.9768
-3.7800 -4.0502 -1.8416 0.9769
-2.9907 -4.6413 -1.8353 0.9770
-2.5648 -4.8889 -1.8351 0.9770
-0.7016 -5.5326 -1.8538 0.9768
-0.2067 -5.6016 -1.8633 0.9766
0.8017 -5.6227 -1.8879 0.9763
2.3213 -5.3499 -1.9385 0.9757
2.8182 -5.1755 -1.9589 0.9755
3.7781 -4.6994 -2.0043 0.9749
4.6687 -4.0548 -2.0555 0.9743
5.0784 -3.6709 -2.0829 0.9739
5.3881 -2.5854 -1.9865 0.9751
5.6753 -2.1241 -2.0143 0.9748
6.1291 -1.1130 -2.0707 0.9741
6.3974 -0.0072 -2.1265 0.9734
6.4537 0.5702 -2.1536 0.9731
6.4543 1.1571 -2.1796 0.9727
6.1057 2.9129 -2.2487 0.9719
4.2466 4.3914 -2.0306 0.9746
3.7347 4.6241 -1.9758 0.9753
2.3011 5.2709 -1.9118 0.9760
1.8309 5.4813 -1.9210 0.9759
0.4032 2.7831 -0.9348 0.9882
0.3359 6.1451 -2.0457 0.9744
-0.8291 6.6575 -2.2301 0.9721
-1.2772 5.9010 -2.0069 0.9749
-2.4910 6.0317 -2.1692 0.9729
-3.8473 4.9632 -2.0874 0.9739
-4.2166 4.5383 -2.0592 0.9742
-4.5412 4.0876 -2.0310 0.9746
-2.5331 1.9003 -1.0526 0.9867
-5.0528 3.1284 -1.9754 0.9753
-5.6457 2.8332 -2.0997 0.9737
-5.7973 2.2877 -2.0717 0.9741
-5.9003 1.7390 -2.0447 0.9744
-5.9655 0.6474 -1.9946 0.9750
-5.9306 0.1118 -1.9717 0.9753
-5.8531 -0.4128 -1.9504 0.9756
-5.7346 -0.9234 -1.9308 0.9758
-5.5771 -1.4176 -1.9128 0.9760
-4.5975 -3.1855 -1.8592 0.9767
-4.2751 -3.5658 -1.8505 0.9768
-3.9258 -3.9182 -1.8437 0.9769
-2.7362 -4.7945 -1.8350 0.9770
-2.2992 -5.0220 -1.8360 0.9770
-1.8454 -5.2152 -1.8389 0.9770
-0.4043 -5.5788 -1.8593 0.9767
1.1081 -5.5976 -1.8968 0.9762
3.1130 -5.0498 -1.9719 0.9753
3.5920 -4.8074 -1.9948 0.9750
4.9189 -3.8282 -2.0719 0.9741
5.2641 -2.7596 -1.9757 0.9753
6.2308 -0.7882 -2.0877 0.9739
6.3602 -0.2327 -2.1156 0.9735
6.4378 0.3395 -2.1429 0.9732
6.4608 0.9232 -2.1694 0.9729
6.3345 2.1023 -2.2185 0.9723
5.0199 4.0383 -2.1415 0.9732
3.4376 4.7588 -1.9514 0.9756
2.9577 4.9756 -1.9241 0.9759
2.4871 5.1874 -1.9123 0.9760
0.2738 3.0321 -1.0120 0.9872
-0.5807 6.5486 -2.1853 0.9727
-2.2864 6.1450 -2.1794 0.9727
-3.2597 5.5038 -2.1263 0.9734
-4.4177 4.2694 -2.0422 0.9744
-2.4538 1.9806 -1.0482 0.9868
-4.9659 3.3237 -1.9863 0.9751
-5.5666 3.0452 -2.1092 0.9736
-5.8651 1.9570 -2.0553 0.9743
-5.9394 1.4083 -2.0290 0.9746
-5.9671 0.8625 -2.0041 0.9749
-5.9497 0.3234 -1.9806 0.9752
-5.8889 -0.2059 -1.9587 0.9755
-5.6442 -1.2235 -1.9197 0.9759
-4.9989 -2.6103 -1.8746 0.9765
-3.7031 -4.1166 -1.8406 0.9769
-3.3147 -4.4214 -1.8369 0.9770
-2.9047 -4.6949 -1.8351 0.9770
-2.4749 -4.9356 -1.8353 0.9770
-1.0881 -5.4508 -1.8476 0.9768
0.3991 -5.6333 -1.8772 0.9765
1.9215 -5.4585 -1.9236 0.9759
2.4242 -5.3175 -1.9426 0.9757
2.9192 -5.1343 -1.9633 0.9754
5.7296 -2.0254 -2.0201 0.9747
5.9694 -1.5276 -2.0482 0.9744
6.1657 -1.0031 -2.0765 0.9740
6.3149 -0.4556 -2.1045 0.9737
6.4584 0.6903 -2.1590 0.9730
6.4473 1.2784 -2.1848 0.9727
5.2563 3.9300 -2.1816 0.9727
4.1284 4.4290 -2.0126 0.9748
3.6325 4.6705 -1.9668 0.9754
3.1468 4.8903 -1.9330 0.9758
2.6515 5.0619 -1.8995 0.9762
1.7334 5.5249 -1.9248 0.9759
0.3538 2.8040 -0.9394 0.9882
0.2247 6.1942 -2.0603 0.9742
-0.3418 6.4437 -2.1449 0.9732
-0.9537 6.6588 -2.2360 0.9720
-1.4246 6.0434 -2.0639 0.9742
-2.0766 6.2507 -2.1894 0.9726
-2.5948 5.9701 -2.1639 0.9729
-3.5232 5.2789 -2.1096 0.9736
-3.9268 4.8782 -2.0816 0.9739
-4.2871 4.4476 -2.0534 0.9743
-5.8224 2.1750 -2.0660 0.9741
-5.9619 0.5365 -1.9898 0.9751
-5.9181 0.0029 -1.9672 0.9754
0.4647 -5.2778 -1.8947 0.9777
0.9398 -5.2517 -1.9079 0.9776
1.4151 -5.1872 -1.9228 0.9774
1.8880 -5.0839 -1.9394 0.9772
3.2622 -4.5374 -1.9984 0.9765
3.6949 -4.2763 -2.0210 0.9763
4.5015 -3.6380 -2.0698 0.9757
4.8682 -3.2627 -2.0957 0.9754
4.8306 -2.6464 -1.9697 0.9769
5.8606 -0.3222 -2.0989 0.9754
5.9366 0.2039 -2.1242 0.9751
5.9627 0.7407 -2.1487 0.9748
5.8579 1.8255 -2.1942 0.9743
5.7247 2.3621 -2.2146 0.9740
5.0039 3.8764 -2.2635 0.9735
3.3478 4.4598 -1.9942 0.9766
3.0515 4.9253 -2.0720 0.9757
1.4937 3.7816 -1.4540 0.9829
1.6401 5.5585 -2.0725 0.9757
0.1194 6.2320 -2.2290 0.9739
-0.4367 6.2195 -2.2296 0.9739
-1.5067 5.9355 -2.1899 0.9743
-2.0091 5.7186 -2.1675 0.9746
-2.9258 5.1535 -2.1192 0.9751
-4.5670 3.1796 -1.9900 0.9766
-5.3143 2.4351 -2.0905 0.9755
-5.5255 1.4177 -2.0400 0.9761
-5.5648 0.9089 -2.0164 0.9763
-5.5615 0.4048 -1.9941 0.9766
-5.3108 -1.0495 -1.9359 0.9773
-5.1525 -1.5060 -1.9197 0.9775
-4.9598 -1.9444 -1.9051 0.9776
-4.7346 -2.3627 -1.8922 0.9778
-4.4787 -2.7590 -1.8811 0.9779
-4.1941 -3.1317 -1.8718 0.9780
-2.4067 -4.5874 -1.8525 0.9782
-1.9900 -4.7879 -1.8542 0.9782
0.7509 -5.2666 -1.9024 0.9777
1.2264 -5.2175 -1.9167 0.9775
1.7006 -5.1296 -1.9326 0.9773
2.6335 -4.8362 -1.9692 0.9769
3.0860 -4.6302 -1.9899 0.9766
3.5250 -4.3847 -2.0119 0.9764
4.3486 -3.7768 -2.0597 0.9758
5.0642 -3.0125 -2.1072 0.9753
5.9535 1.0673 -2.1630 0.9746
5.8958 1.6104 -2.1856 0.9744
5.7841 2.1501 -2.2067 0.9741
5.6182 2.6803 -2.2260 0.9739
5.1262 3.6880 -2.2583 0.9735
3.9976 4.1339 -2.0565 0.9759
3.5256 4.3653 -2.0066 0.9764
2.7666 5.0537 -2.0603 0.9758
2.2982 5.2643 -2.0541 0.9759
1.3076 3.9146 -1.4759 0.9826
0.4041 2.7894 -1.0079 0.9881
0.3355 6.1368 -2.1979 0.9742
-1.2751 5.8914 -2.1556 0.9747
-2.7541 5.2785 -2.1291 0.9750
-3.5605 4.5932 -2.0783 0.9756
-3.9062 4.2042 -2.0522 0.9759
-4.6949 2.9068 -1.9747 0.9768
-5.2456 2.6324 -2.0988 0.9754
-5.3969 2.1297 -2.0748 0.9757
-5.5395 0.1044 -1.9813 0.9767
-5.4709 -0.3858 -1.9613 0.9770
-4.8278 -2.1991 -1.8971 0.9777
-4.5839 -2.6044 -1.8853 0.9779
-2.9598 -4.2542 -1.8533 0.9782
-2.5675 -4.4988 -1.8524 0.9782
-1.7314 -4.8930 -1.8561 0.9782
-0.8400 -5.1532 -1.8671 0.9781
-0.3790 -5.2305 -1.8754 0.9780
0.0892 -5.2716 -1.8854 0.9779
0.5622 -5.2755 -1.8972 0.9777
1.5126 -5.1692 -1.9261 0.9774
1.9846 -5.0578 -1.9430 0.9772
2.4507 -4.9070 -1.9615 0.9770
2.9077 -4.7167 -1.9815 0.9767
3.3525 -4.4869 -2.0030 0.9765
4.1918 -3.9098 -2.0499 0.9759
4.9374 -3.1793 -2.1000 0.9754
2.3093 -0.9590 -0.8942 0.9894
5.4061 -1.6980 -2.0264 0.9762
5.7663 -0.7294 -2.0785 0.9756
5.8802 -0.2151 -2.1042 0.9753
5.6906 2.4712 -2.2186 0.9740
5.2406 3.4952 -2.2526 0.9736
4.9375 3.9720 -2.2661 0.9734
3.7049 4.2684 -2.0212 0.9763
2.9540 4.9693 -2.0673 0.9757
1.5419 5.6023 -2.0779 0.9756
0.2731 3.0240 -1.0858 0.9872
0.0051 6.2727 -2.2432 0.9737
-1.0474 5.8319 -2.1189 0.9751
-2.5771 5.3974 -2.1389 0.9749
-3.7737 4.3620 -2.0626 0.9758
-4.0950 3.9575 -2.0365 0.9761
-4.6124 3.0870 -1.9848 0.9767
-5.1674 2.8267 -2.1063 0.9753
-5.3443 2.3312 -2.0851 0.9755
-5.4630 1.8229 -2.0595 0.9758
-5.5371 1.3129 -2.0350 0.9761
-5.5675 0.8048 -2.0117 0.9764
-5.5029 -0.1924 -1.9691 0.9769
-5.4108 -0.6756 -1.9500 0.9771
-5.1156 -1.5977 -1.9165 0.9775
-4.9161 -2.0321 -1.9023 0.9777
-4.6844 -2.4460 -1.8898 0.9778
-4.1322 -3.2052 -1.8701 0.9780
-3.4741 -3.8621 -1.8577 0.9782
-1.9023 -4.8251 -1.8548 0.9782
-0.5631 -5.2041 -1.8719 0.9780
1.3242 -5.2026 -1.9198 0.9775
1.7977 -5.1067 -1.9361 0.9773
2.2665 -4.9716 -1.9539 0.9771
2.7275 -4.7971 -1.9734 0.9768
5.1276 -2.9242 -2.1109 0.9752
5.0611 -2.3152 -1.9902 0.9766
5.3153 -1.8789 -2.0160 0.9763
5.5322 -1.4157 -2.0421 0.9760
5.7083 -0.9287 -2.0682 0.9757
5.8405 -0.4214 -2.0940 0.9754
5.9617 0.6372 -2.1441 0.9749
5.9460 1.1790 -2.1677 0.9746
5.5774 2.7877 -2.2298 0.9739
5.3468 3.2984 -2.2466 0.9737
5.0639 3.7861 -2.2611 0.9735
4.6698 4.1897 -2.2435 0.9737
3.8963 4.1800 -2.0435 0.9760
3.1428 4.8841 -2.0769 0.9756
2.6482 5.0555 -2.0409 0.9760
1.2503 5.7320 -2.0980 0.9754
0.3515 2.7859 -1.0041 0.9881
-1.4076 5.9716 -2.1940 0.9743
-1.9149 5.7637 -2.1719 0.9745
-2.3949 5.5100 -2.1485 0.9748
-2.8437 5.2145 -2.1240 0.9751
-3.6348 4.5155 -2.0729 0.9757
-3.9723 4.1210 -2.0469 0.9760
-4.2687 3.7028 -2.0208 0.9763
-4.7350 2.8127 -1.9695 0.9769
-5.2832 2.5310 -2.0949 0.9754
-5.5130 1.5154 -2.0446 0.9760
-5.5286 0.0027 -1.9771 0.9768
-1.7127 -4.5716 -1.8708 0.9793
-1.3011 -4.7162 -1.8748 0.9793
-0.4462 -4.9066 -1.8881 0.9791
-0.0071 -4.9508 -1.8972 0.9790
0.8828 -4.9333 -1.9206 0.9788
1.3287 -4.8704 -1.9346 0.9786
2.2092 -4.6344 -1.9674 0.9782
2.6382 -4.4607 -1.9860 0.9780
3.4585 -4.0026 -2.0271 0.9776
3.8434 -3.7190 -2.0495 0.9774
4.2070 -3.3999 -2.0729 0.9771
4.5070 -2.4692 -1.9694 0.9782
5.1825 -1.2322 -2.0414 0.9774
5.4441 -0.2993 -2.0894 0.9769
5.5296 0.6869 -2.1353 0.9764
5.4241 1.6903 -2.1772 0.9760
5.2971 2.1857 -2.1960 0.9758
4.8951 3.1366 -2.2280 0.9754
4.3048 3.9972 -2.2512 0.9751
3.7980 4.2168 -2.1748 0.9760
3.3264 4.4313 -2.1234 0.9765
3.0476 4.9189 -2.2175 0.9755
1.4811 3.7498 -1.5450 0.9829
0.1113 5.8054 -2.2251 0.9754
-0.9077 5.6484 -2.1923 0.9758
-1.3953 5.4967 -2.1732 0.9760
-3.0967 4.4724 -2.0847 0.9770
-3.4431 4.1306 -2.0607 0.9772
-3.7530 3.7626 -2.0365 0.9775
-2.4827 2.0802 -1.2412 0.9862
-4.2581 2.9645 -1.9883 0.9780
-5.0870 1.8018 -2.0681 0.9771
-5.2094 0.8509 -2.0228 0.9776
-5.1718 -0.0859 -1.9822 0.9781
-4.8383 -1.4142 -1.9317 0.9786
-4.2108 -2.5940 -1.8953 0.9790
-3.6523 -3.2726 -1.8793 0.9792
-2.9986 -3.8504 -1.8702 0.9793
-2.6407 -4.0982 -1.8683 0.9793
-1.4661 -4.6626 -1.8730 0.9793
-1.0475 -4.7876 -1.8781 0.9792
-0.6188 -4.8795 -1.8849 0.9792
0.2600 -4.9605 -1.9036 0.9789
0.7055 -4.9482 -1.9154 0.9788
1.1518 -4.8998 -1.9289 0.9787
1.5963 -4.8149 -1.9439 0.9785
2.4690 -4.5342 -1.9785 0.9781
3.3004 -4.1053 -2.0186 0.9777
3.6928 -3.8359 -2.0405 0.9774
4.4145 -3.1910 -2.0874 0.9769
4.7247 -2.8106 -2.1068 0.9767
4.9063 -1.8363 -2.0076 0.9778
5.2787 -0.9585 -2.0560 0.9773
5.4892 -0.0062 -2.1036 0.9768
5.4607 1.4915 -2.1693 0.9760
5.1966 2.4792 -2.2064 0.9756
4.9904 2.9535 -2.2223 0.9755
3.9921 4.1283 -2.2007 0.9757
2.2952 5.2575 -2.1984 0.9757
1.8262 5.4674 -2.2090 0.9756
1.3486 5.6801 -2.2372 0.9753
-0.2003 5.7793 -2.2161 0.9755
-0.7093 5.6954 -2.1995 0.9757
-1.2039 5.5625 -2.1810 0.9759
-2.1313 5.1607 -2.1397 0.9764
-2.5558 4.8983 -2.1173 0.9766
-3.9215 3.5298 -2.0219 0.9777
-5.0429 1.9901 -2.0776 0.9770
-5.1915 0.0979 -1.9898 0.9780
-5.1305 -0.3618 -1.9710 0.9782
