ply
format ascii 1.0
element vertex 1592
property float32 x
property float32 y
property float32 z
property float32 I
end_header
0.2581 6.0332 0.5112 0.9761
-0.2907 6.2422 0.5290 0.9752
-0.9043 6.6175 0.5654 0.9735
-2.2759 6.9998 0.6231 0.9709
12.0500 0.2697 0.7474 0.9528
6.9223 3.5055 0.4812 0.9694
6.1665 3.8493 0.4508 0.9713
5.3973 4.0803 0.4196 0.9732
4.7632 4.3196 0.3987 0.9746
4.1573 4.5082 0.3803 0.9757
3.7135 4.8280 0.3777 0.9759
2.6465 5.1197 0.3574 0.9772
1.6873 5.4831 0.3557 0.9773
1.2405 5.8413 0.3703 0.9764
0.7060 5.8557 0.3657 0.9766
-0.3673 6.2637 0.3891 0.9752
-0.9967 6.6919 0.4195 0.9732
-1.6300 6.7446 0.4303 0.9726
2.3557 -0.9097 0.1566 0.9899
13.1096 -2.5206 0.8278 0.9479
9.5779 2.5114 0.6140 0.9611
8.3837 3.0196 0.5526 0.9649
7.2721 3.3792 0.4973 0.9684
5.7103 4.0212 0.4331 0.9724
4.9956 4.2319 0.4060 0.9741
3.9167 4.7512 0.3818 0.9756
3.3882 4.9510 0.3720 0.9762
2.8305 5.0500 0.3590 0.9771
1.8685 5.4144 0.3552 0.9773
1.4304 5.7693 0.3686 0.9765
0.3859 5.9773 0.3714 0.9763
-0.1534 6.1823 0.3835 0.9755
-0.7562 6.6004 0.4120 0.9737
-1.4126 6.8503 0.4337 0.9724
-2.0842 6.9177 0.4480 0.9715
-5.3452 13.3088 0.8894 0.9441
-2.6387 1.6689 0.1936 0.9876
11.3640 -1.5371 0.7111 0.9551
12.1535 0.5364 0.7544 0.9524
11.6951 1.5693 0.7317 0.9538
8.7518 2.8222 0.5702 0.9638
7.6394 3.2409 0.5146 0.9673
6.7124 3.5846 0.4719 0.9700
5.9835 3.9183 0.4435 0.9717
4.6179 4.3744 0.3944 0.9748
3.5849 4.8766 0.3753 0.9760
2.9967 4.9470 0.3587 0.9771
2.0494 5.3459 0.3550 0.9773
0.5818 5.9028 0.3678 0.9765
0.0548 6.1032 0.3785 0.9758
-1.8035 6.8107 0.4369 0.9722
-9.0354 -9.8939 0.8309 0.9477
2.3997 -0.8672 0.1582 0.9898
11.6792 -1.9834 0.7346 0.9536
11.5992 -0.9176 0.7215 0.9544
11.9946 0.1240 0.7438 0.9531
11.6909 1.1684 0.7286 0.9540
7.0423 3.4604 0.4866 0.9690
4.1836 4.4286 0.3778 0.9759
3.7854 4.8008 0.3791 0.9758
2.7119 5.0949 0.3579 0.9771
2.2303 5.2773 0.3553 0.9773
1.7520 5.4586 0.3555 0.9773
1.3084 5.8156 0.3696 0.9764
0.7742 5.8298 0.3647 0.9767
0.2577 6.0260 0.3740 0.9761
-0.2903 6.2344 0.3870 0.9753
-1.5426 6.7373 0.4286 0.9727
11.6689 -1.8374 0.4658 0.9538
12.0476 0.2696 0.4752 0.9529
7.9525 3.1716 0.3376 0.9663
6.1577 3.8438 0.2862 0.9714
4.7571 4.3141 0.2532 0.9746
4.1522 4.5027 0.2415 0.9758
3.7091 4.8223 0.2399 0.9759
2.6434 5.1138 0.2270 0.9772
1.2391 5.8346 0.2352 0.9764
-0.3668 6.2559 0.2471 0.9752
-0.9954 6.6832 0.2664 0.9733
-1.6278 6.7353 0.2732 0.9726
2.3546 -0.9092 0.0995 0.9899
11.8938 -0.1355 0.4690 0.9535
12.2224 0.9538 0.4834 0.9521
9.5592 2.5065 0.3897 0.9612
7.2606 3.3738 0.3157 0.9685
5.7025 4.0157 0.2750 0.9725
4.9891 4.2264 0.2578 0.9742
1.8664 5.4083 0.2256 0.9774
1.4288 5.7627 0.2341 0.9765
-0.1532 6.1748 0.2436 0.9756
-1.4107 6.8411 0.2754 0.9724
-2.0812 6.9078 0.2845 0.9715
-2.6356 1.6669 0.1230 0.9876
11.5005 -1.5556 0.4576 0.9546
12.1488 0.5362 0.4795 0.9525
11.6818 1.5675 0.4648 0.9539
8.7359 2.8171 0.3619 0.9639
7.6269 3.2355 0.3267 0.9674
6.7023 3.5792 0.2996 0.9700
5.9751 3.9128 0.2816 0.9718
5.2299 4.1354 0.2629 0.9737
2.9932 4.9413 0.2278 0.9771
2.0471 5.3398 0.2255 0.9774
1.6169 5.6913 0.2333 0.9766
1.1160 5.8813 0.2360 0.9763
0.5811 5.8959 0.2336 0.9766
0.0547 6.0958 0.2404 0.9759
-0.5078 6.3095 0.2496 0.9750
-9.0329 -9.8911 0.5282 0.9478
2.4030 -0.8684 0.1007 0.9898
11.7925 -2.0026 0.4716 0.9532
11.6023 -0.9178 0.4589 0.9545
11.6610 1.1654 0.4621 0.9542
9.2222 2.6336 0.3782 0.9623
6.2615 3.8046 0.2889 0.9711
5.5336 4.0795 0.2711 0.9729
4.1785 4.4231 0.2399 0.9759
3.2595 4.9924 0.2351 0.9764
2.2278 5.2713 0.2257 0.9774
1.7500 5.4524 0.2258 0.9773
1.3069 5.8089 0.2348 0.9764
0.7733 5.8230 0.2316 0.9768
-0.2899 6.2267 0.2458 0.9754
-0.9088 6.6503 0.2647 0.9735
10.8233 2.2045 0.1866 0.9568
9.0270 2.6958 0.1591 0.9630
6.9011 3.4948 0.1307 0.9695
5.3829 4.0694 0.1140 0.9734
4.1471 4.4972 0.1033 0.9758
3.0738 4.8341 0.0968 0.9773
2.1609 5.2897 0.0965 0.9774
0.7043 5.8420 0.0994 0.9767
-0.3664 6.2482 0.1057 0.9753
-1.6255 6.7261 0.1169 0.9727
2.3535 -0.9088 0.0426 0.9900
15.5286 -0.1770 0.2623 0.9398
9.5405 2.5016 0.1666 0.9613
7.2491 3.3685 0.1350 0.9685
4.3872 4.4464 0.1055 0.9753
3.3803 4.9395 0.1011 0.9763
2.8240 5.0384 0.0976 0.9772
0.9218 5.9477 0.1017 0.9762
-0.1530 6.1672 0.1042 0.9756
-0.7543 6.5836 0.1119 0.9738
-2.0782 6.8979 0.1217 0.9716
-2.6327 1.6651 0.0526 0.9876
14.9120 0.6582 0.2521 0.9420
11.6540 1.5638 0.1986 0.9540
10.1052 2.2880 0.1750 0.9594
7.6144 3.2303 0.1397 0.9675
6.6922 3.5738 0.1282 0.9701
4.6063 4.3634 0.1072 0.9749
2.9898 4.9356 0.0975 0.9772
2.5231 5.1525 0.0969 0.9773
1.1147 5.8746 0.1010 0.9764
0.5805 5.8890 0.1000 0.9766
0.0546 6.0885 0.1028 0.9759
-1.7985 6.7917 0.1187 0.9723
-2.5764 1.7540 0.0526 0.9876
11.6314 1.1625 0.1975 0.9543
11.0075 2.1043 0.1893 0.9562
9.2047 2.6286 0.1617 0.9624
8.0836 3.1116 0.1463 0.9659
7.0204 3.4496 0.1321 0.9692
6.3356 3.8496 0.1252 0.9708
2.7057 5.0833 0.0973 0.9772
1.7480 5.4462 0.0966 0.9774
1.3054 5.8023 0.1005 0.9765
0.7724 5.8162 0.0991 0.9768
-0.9076 6.6417 0.1132 0.9735
-1.5436 6.7416 0.1168 0.9727
-2.2660 6.9692 0.1238 0.9711
14.8715 0.3328 -0.0838 0.9422
10.8004 2.1998 -0.0621 0.9569
9.0103 2.6908 -0.0529 0.9631
7.9259 3.1610 -0.0480 0.9664
6.2689 3.9132 -0.0416 0.9709
4.7450 4.3031 -0.0361 0.9747
3.0703 4.8286 -0.0322 0.9774
2.6374 5.1022 -0.0323 0.9773
1.2362 5.8213 -0.0335 0.9765
0.1853 6.0316 -0.0340 0.9762
2.3528 -0.9085 -0.0142 0.9900
15.5257 -0.1769 -0.0874 0.9398
9.5220 2.4967 -0.0554 0.9614
5.8061 4.0887 -0.0400 0.9720
4.9762 4.2155 -0.0367 0.9743
4.3817 4.4409 -0.0351 0.9754
3.9027 4.7342 -0.0345 0.9758
3.3764 4.9337 -0.0337 0.9764
1.8622 5.3961 -0.0321 0.9774
0.9207 5.9409 -0.0338 0.9762
-1.4069 6.8228 -0.0392 0.9725
-2.0753 6.8881 -0.0405 0.9716
-2.6313 1.6642 -0.0175 0.9876
11.6263 1.5601 -0.0660 0.9542
10.0846 2.2833 -0.0582 0.9595
7.6020 3.2250 -0.0465 0.9675
3.9634 4.4899 -0.0337 0.9763
3.5723 4.8594 -0.0340 0.9762
2.9863 4.9300 -0.0325 0.9772
2.0425 5.3277 -0.0321 0.9774
1.6132 5.6784 -0.0332 0.9767
1.1135 5.8678 -0.0336 0.9764
-0.5065 6.2937 -0.0355 0.9751
-2.5785 1.7554 -0.0176 0.9876
-9.0381 -9.8968 -0.0755 0.9478
2.4162 -0.8732 -0.0145 0.9898
15.0455 0.1555 -0.0847 0.9416
11.6019 1.1595 -0.0656 0.9544
11.0052 2.1039 -0.0631 0.9562
9.1873 2.6237 -0.0538 0.9625
4.8265 4.2722 -0.0363 0.9745
4.1682 4.4123 -0.0342 0.9760
2.7026 5.0775 -0.0324 0.9773
1.7461 5.4401 -0.0322 0.9774
-0.2892 6.2114 -0.0350 0.9754
-0.9064 6.6332 -0.0377 0.9736
19.9316 -1.3354 -0.5625 0.9232
10.7776 2.1952 -0.3097 0.9569
8.0784 3.2218 -0.2449 0.9658
5.3686 4.0585 -0.1895 0.9734
4.1371 4.4863 -0.1718 0.9759
3.6960 4.8052 -0.1707 0.9760
1.2348 5.8146 -0.1674 0.9765
0.7027 5.8284 -0.1653 0.9768
-0.3655 6.2328 -0.1758 0.9753
-0.9915 6.6573 -0.1895 0.9734
2.3527 -0.9085 -0.0710 0.9900
15.5227 -0.1769 -0.4371 0.9398
12.1255 0.9462 -0.3425 0.9525
8.4999 3.0615 -0.2544 0.9645
7.2262 3.3579 -0.2244 0.9686
6.3643 3.6801 -0.2070 0.9710
4.3763 4.4354 -0.1755 0.9754
3.3724 4.9280 -0.1681 0.9764
2.8176 5.0270 -0.1623 0.9772
0.3841 5.9490 -0.1679 0.9764
-2.0723 6.8783 -0.2023 0.9717
-2.6299 1.6633 -0.0876 0.9876
14.8271 0.6544 -0.4179 0.9423
10.0640 2.2787 -0.2906 0.9595
8.6886 2.8018 -0.2571 0.9641
5.2093 4.1190 -0.1870 0.9738
3.9586 4.4845 -0.1684 0.9763
3.5681 4.8537 -0.1696 0.9762
2.9829 4.9243 -0.1621 0.9772
2.0402 5.3217 -0.1605 0.9775
1.6114 5.6720 -0.1660 0.9767
1.1122 5.8611 -0.1680 0.9764
-9.0446 -9.9039 -0.3777 0.9477
11.5726 1.1566 -0.3275 0.9545
9.1700 2.6187 -0.2685 0.9626
6.9988 3.4390 -0.2196 0.9693
6.3175 3.8386 -0.2081 0.9709
5.6268 4.1483 -0.1968 0.9724
3.7675 4.7781 -0.1713 0.9759
3.2482 4.9751 -0.1673 0.9765
2.2202 5.2535 -0.1606 0.9774
1.7441 5.4339 -0.1607 0.9774
1.3024 5.7890 -0.1671 0.9765
0.7706 5.8027 -0.1648 0.9768
0.2565 5.9973 -0.1690 0.9763
-0.2889 6.2038 -0.1749 0.9755
-0.9053 6.6247 -0.1883 0.9736
19.4076 -1.3003 -0.9864 0.9251
14.8657 0.3327 -0.7541 0.9422
8.9769 2.6808 -0.4751 0.9632
8.0649 3.2164 -0.4403 0.9658
4.7330 4.2922 -0.3240 0.9747
4.1320 4.4808 -0.3091 0.9759
3.6916 4.7996 -0.3071 0.9760
1.2242 5.7643 -0.2989 0.9767
-0.3650 6.2250 -0.3162 0.9753
-1.6189 6.6985 -0.3495 0.9728
2.3525 -0.9084 -0.1279 0.9900
15.5197 -0.1769 -0.7871 0.9397
12.0935 0.9438 -0.6152 0.9526
7.2149 3.3526 -0.4035 0.9686
5.7903 4.0776 -0.3592 0.9720
3.3685 4.9223 -0.3025 0.9764
2.8144 5.0212 -0.2919 0.9772
2.3012 5.1312 -0.2852 0.9777
1.4223 5.7365 -0.2997 0.9766
0.3837 5.9420 -0.3020 0.9764
-0.1524 6.1447 -0.3117 0.9757
-1.4031 6.8046 -0.3523 0.9726
18.1506 -0.8204 -0.9214 0.9298
14.7849 0.6526 -0.7505 0.9424
11.5915 1.5554 -0.5931 0.9542
10.0435 2.2740 -0.5222 0.9596
5.2024 4.1136 -0.3364 0.9738
3.9538 4.4791 -0.3030 0.9764
3.5639 4.8481 -0.3052 0.9762
2.9795 4.9187 -0.2916 0.9772
2.0378 5.3157 -0.2887 0.9775
1.6096 5.6656 -0.2987 0.9767
1.1109 5.8544 -0.3022 0.9764
0.5784 5.8684 -0.2991 0.9767
0.0544 6.0665 -0.3077 0.9760
11.5515 1.1545 -0.5887 0.9546
10.9898 2.1009 -0.5674 0.9562
9.1527 2.6138 -0.4827 0.9626
8.2111 3.1607 -0.4462 0.9654
6.9880 3.4337 -0.3949 0.9693
4.8142 4.2613 -0.3261 0.9746
4.1581 4.4015 -0.3071 0.9760
3.7630 4.7724 -0.3082 0.9760
3.2445 4.9694 -0.3010 0.9765
0.7707 5.8035 -0.2969 0.9768
-0.9041 6.6162 -0.3387 0.9736
-6.2118 -15.9715 -1.2565 0.9336
-1.8193 -17.5841 -1.2962 0.9316
-0.2485 -17.9790 -1.3184 0.9304
1.3833 -18.2979 -1.3455 0.9290
3.0815 -18.5363 -1.3778 0.9274
14.8629 0.3326 -1.0901 0.9421
11.5788 1.2982 -0.8543 0.9543
10.7322 2.1859 -0.8031 0.9570
8.9602 2.6759 -0.6857 0.9632
6.8591 3.4735 -0.5637 0.9696
6.2423 3.8966 -0.5396 0.9709
4.7270 4.2868 -0.4679 0.9747
3.0597 4.8119 -0.4181 0.9774
2.6284 5.0848 -0.4197 0.9773
2.1511 5.2659 -0.4171 0.9774
1.6759 5.4460 -0.4178 0.9774
0.7011 5.8149 -0.4294 0.9768
-0.9890 6.6401 -0.4922 0.9734
-1.6167 6.6894 -0.5046 0.9728
-19.6029 -3.6491 -1.4620 0.9231
-18.6172 -5.2191 -1.4177 0.9254
-15.4254 -9.2707 -1.3196 0.9304
-10.6786 -13.4089 -1.2569 0.9336
-8.0896 -15.0222 -1.2510 0.9339
-6.7353 -15.7240 -1.2542 0.9337
-5.3376 -16.3570 -1.2616 0.9333
-3.8933 -16.9212 -1.2731 0.9327
2.4309 -18.4559 -1.3649 0.9281
4.1733 -18.6414 -1.4007 0.9262
11.0716 1.8682 -0.8233 0.9560
7.2035 3.3473 -0.5824 0.9686
5.7824 4.0720 -0.5186 0.9720
4.9570 4.1992 -0.4763 0.9743
4.3655 4.4245 -0.4557 0.9754
3.8887 4.7173 -0.4483 0.9758
1.8559 5.3778 -0.4171 0.9774
1.4206 5.7300 -0.4329 0.9766
0.9175 5.9203 -0.4393 0.9763
0.3832 5.9350 -0.4361 0.9764
-0.1522 6.1372 -0.4501 0.9757
-0.7505 6.5502 -0.4834 0.9739
-16.9329 -7.5233 -1.3586 0.9284
-15.8458 -8.8091 -1.3293 0.9299
-14.7238 -10.0010 -1.3051 0.9311
-12.3769 -12.1273 -1.2705 0.9329
-9.8902 -13.9409 -1.2533 0.9337
-8.5912 -14.7387 -1.2509 0.9339
-7.2526 -15.4666 -1.2525 0.9338
-2.9702 -17.2369 -1.2825 0.9323
3.5055 -18.5815 -1.3865 0.9270
14.7429 0.6507 -1.0820 0.9425
10.0230 2.2694 -0.7535 0.9596
6.6522 3.5525 -0.5529 0.9702
6.0579 3.9670 -0.5309 0.9714
4.5832 4.3416 -0.4629 0.9750
3.9491 4.4737 -0.4375 0.9764
3.5598 4.8424 -0.4407 0.9762
0.5778 5.8615 -0.4319 0.9767
0.0544 6.0592 -0.4443 0.9760
-0.5046 6.2702 -0.4612 0.9751
-1.1472 6.6997 -0.4984 0.9731
-1.7885 6.7541 -0.5123 0.9724
-19.3669 -4.0425 -1.4506 0.9237
-18.3709 -5.5834 -1.4078 0.9259
-17.3347 -7.0109 -1.3710 0.9277
-16.2612 -8.3341 -1.3398 0.9293
-15.1523 -9.5607 -1.3137 0.9307
-14.0089 -10.6975 -1.2924 0.9317
-10.3716 -13.6205 -1.2553 0.9336
-7.7638 -15.1994 -1.2514 0.9338
-6.3992 -15.8844 -1.2556 0.9336
-3.5342 -17.0480 -1.2766 0.9326
-0.4638 -17.9301 -1.3151 0.9306
1.1595 -18.2594 -1.3415 0.9292
2.8484 -18.5090 -1.3731 0.9276
4.6087 -18.6731 -1.4102 0.9258
19.8087 -1.5670 -1.4570 0.9234
14.9066 0.1541 -1.0930 0.9420
10.9662 2.0964 -0.8186 0.9562
9.1355 2.6088 -0.6966 0.9626
8.1972 3.1553 -0.6440 0.9654
6.9772 3.4284 -0.5700 0.9693
4.1530 4.3961 -0.4434 0.9760
3.7586 4.7668 -0.4451 0.9759
1.7402 5.4217 -0.4175 0.9774
1.2995 5.7758 -0.4341 0.9765
0.2559 5.9831 -0.4391 0.9763
-0.2882 6.1885 -0.4542 0.9755
-13.2808 -11.3615 -1.2815 0.9323
-10.8478 -13.2898 -1.2578 0.9335
-9.5775 -14.1416 -1.2523 0.9338
-8.2691 -14.9223 -1.2509 0.9339
-2.6033 -17.3531 -1.2866 0.9320
-8.8720 -9.9530 -1.2801 0.9478
-5.9715 -12.0464 -1.2908 0.9474
-4.8893 -12.5712 -1.2950 0.9472
-3.7715 -13.0346 -1.3027 0.9469
1.0770 -14.2458 -1.3716 0.9442
3.7453 -14.4261 -1.4309 0.9419
10.3262 -14.7393 -1.7278 0.9302
12.0267 -14.2671 -1.7914 0.9278
13.7755 -13.6581 -1.8624 0.9250
19.2586 -1.2903 -1.8531 0.9254
11.5765 1.2979 -1.1184 0.9543
8.0380 3.2057 -0.8308 0.9658
5.3471 4.0423 -0.6435 0.9734
4.7210 4.2813 -0.6119 0.9747
3.6829 4.7882 -0.5799 0.9760
3.0561 4.8063 -0.5468 0.9774
2.1487 5.2599 -0.5455 0.9774
1.6740 5.4398 -0.5464 0.9774
0.7002 5.8081 -0.5616 0.9768
-0.3641 6.2096 -0.5972 0.9753
-0.9803 6.5817 -0.6388 0.9736
-1.6144 6.6802 -0.6598 0.9728
-18.4145 3.2191 -1.7947 0.9276
-17.9637 1.5087 -1.7307 0.9301
-17.4302 -0.0957 -1.6734 0.9324
-16.8237 -1.5991 -1.6224 0.9343
-16.1522 -3.0068 -1.5773 0.9361
-14.6395 -5.5538 -1.5032 0.9390
-12.9318 -7.7720 -1.4485 0.9412
-11.0545 -9.6899 -1.4113 0.9426
-8.4048 -10.5537 -1.2953 0.9472
-5.3028 -12.3798 -1.2930 0.9473
-3.0581 -13.2914 -1.3094 0.9467
-0.6644 -13.9494 -1.3407 0.9454
0.5913 -14.1778 -1.3623 0.9446
1.8881 -14.3348 -1.3881 0.9436
4.6104 -14.4166 -1.4531 0.9410
8.0637 -15.1884 -1.6509 0.9332
13.1085 -13.9054 -1.8347 0.9261
2.3521 -0.9083 -0.2421 0.9899
15.3069 -0.1744 -1.4696 0.9403
11.0469 1.8640 -1.0756 0.9560
9.4482 2.4774 -0.9377 0.9615
8.4558 3.0456 -0.8628 0.9645
7.1921 3.3420 -0.7614 0.9686
6.3365 3.6641 -0.7027 0.9710
5.7311 4.0359 -0.6730 0.9722
4.9506 4.1937 -0.6229 0.9743
4.3601 4.4190 -0.5960 0.9754
3.3607 4.9108 -0.5713 0.9764
2.8079 5.0097 -0.5514 0.9772
2.2960 5.1196 -0.5387 0.9777
1.8538 5.3717 -0.5456 0.9774
1.4190 5.7234 -0.5661 0.9766
0.9165 5.9135 -0.5745 0.9762
-0.1520 6.1297 -0.5887 0.9757
-2.0635 6.8490 -0.6867 0.9717
-18.8790 5.7597 -1.8950 0.9237
-18.5612 3.8948 -1.8208 0.9266
-18.1445 2.1430 -1.7541 0.9292
-17.6411 0.4991 -1.6943 0.9315
-13.2685 -7.3763 -1.4574 0.9408
-12.3656 -8.3992 -1.4351 0.9417
-11.4218 -9.3491 -1.4171 0.9424
-9.7250 -9.5289 -1.3071 0.9468
-8.7738 -10.2843 -1.2978 0.9471
-7.7877 -10.9773 -1.2921 0.9474
-5.7113 -12.1798 -1.2915 0.9474
-4.6205 -12.6896 -1.2965 0.9472
-3.4939 -13.1380 -1.3052 0.9468
-1.1290 -13.8451 -1.3336 0.9457
0.1116 -14.0996 -1.3537 0.9449
2.7157 -14.3945 -1.4063 0.9428
4.0820 -14.4263 -1.4394 0.9415
5.8960 -15.4286 -1.5857 0.9358
7.4594 -15.2741 -1.6319 0.9340
9.0725 -15.0132 -1.6841 0.9319
10.7356 -14.6363 -1.7426 0.9297
12.4481 -14.1320 -1.8080 0.9271
14.2082 -13.4877 -1.8808 0.9243
18.0205 -0.8145 -1.7318 0.9301
11.6222 1.5595 -1.1258 0.9540
10.0025 2.2647 -0.9846 0.9596
8.6416 2.7866 -0.8717 0.9642
7.5525 3.2040 -0.7876 0.9676
3.9443 4.4683 -0.5722 0.9763
3.5556 4.8367 -0.5763 0.9762
2.9726 4.9073 -0.5508 0.9772
1.6059 5.6527 -0.5642 0.9767
-1.7860 6.7447 -0.6698 0.9724
-15.2364 -4.6307 -1.5288 0.9380
-14.4414 -5.8407 -1.4956 0.9393
-13.5989 -6.9696 -1.4670 0.9404
-12.7121 -8.0210 -1.4431 0.9414
-11.7835 -8.9982 -1.4234 0.9422
-10.0757 -9.2266 -1.3116 0.9466
-8.8831 -9.7271 -1.2647 0.9484
-6.1147 -11.9710 -1.2905 0.9474
-3.9243 -12.9757 -1.3015 0.9470
-1.5880 -13.7313 -1.3271 0.9460
2.2102 -14.3617 -1.3950 0.9433
4.9538 -14.4038 -1.4623 0.9406
6.8621 -15.3446 -1.6138 0.9347
8.4564 -15.1250 -1.6636 0.9327
11.7946 -14.3385 -1.7824 0.9281
14.8607 0.1536 -1.4268 0.9420
11.5290 1.1522 -1.1124 0.9545
8.1833 3.1500 -0.8418 0.9654
6.9664 3.4231 -0.7452 0.9693
6.3077 3.8327 -0.7086 0.9708
5.5620 4.1005 -0.6634 0.9726
4.8019 4.2505 -0.6157 0.9746
4.1481 4.3910 -0.5799 0.9760
3.7541 4.7611 -0.5821 0.9759
2.6903 5.0544 -0.5497 0.9773
2.2127 5.2357 -0.5457 0.9774
1.7382 5.4155 -0.5460 0.9774
-1.5461 6.7525 -0.6651 0.9725
-18.0295 1.7331 -1.7389 0.9298
-17.5066 0.1147 -1.6808 0.9321
-16.9094 -1.4020 -1.6290 0.9341
-15.5239 -4.1510 -1.5427 0.9375
-14.7480 -5.3928 -1.5076 0.9388
-13.0526 -7.6322 -1.4516 0.9411
-12.1396 -8.6371 -1.4303 0.9419
-7.5424 -11.1367 -1.2913 0.9474
-3.2141 -13.2378 -1.3078 0.9467
-6.9496 -9.3582 -1.3846 0.9541
-2.2598 -11.6015 -1.4040 0.9535
-0.1670 -12.0836 -1.4355 0.9525
3.4091 -13.1312 -1.6115 0.9468
4.6941 -13.1323 -1.6566 0.9454
5.9871 -12.9665 -1.6965 0.9441
7.3069 -12.7073 -1.7412 0.9427
14.1812 -9.7554 -2.0446 0.9330
15.5676 -8.7752 -2.1228 0.9305
16.9349 -7.6443 -2.2071 0.9279
10.0625 2.0495 -1.2198 0.9595
6.2246 3.8855 -0.8716 0.9709
5.3400 4.0369 -0.7952 0.9734
4.7150 4.2759 -0.7561 0.9747
3.6785 4.7826 -0.7167 0.9760
1.6721 5.4336 -0.6753 0.9774
0.1842 5.9956 -0.7125 0.9761
-0.3637 6.2019 -0.7380 0.9753
-0.9864 6.6229 -0.7954 0.9734
-1.6122 6.6710 -0.8152 0.9727
-15.4457 9.0535 -2.1267 0.9304
-15.5941 7.3585 -2.0482 0.9329
-15.5244 4.1688 -1.9094 0.9373
-15.3306 2.6800 -1.8487 0.9392
-13.7256 -2.5550 -1.6584 0.9453
-13.1550 -3.6878 -1.6229 0.9465
-12.5286 -4.7530 -1.5917 0.9475
-10.3560 -7.5575 -1.5229 0.9497
-7.2751 -9.1351 -1.3872 0.9540
-6.4100 -9.7146 -1.3825 0.9542
-4.5890 -10.7133 -1.3844 0.9541
-3.6310 -11.1271 -1.3903 0.9539
2.8976 -12.9432 -1.5755 0.9480
4.2123 -13.1720 -1.6427 0.9458
6.8046 -12.8168 -1.7237 0.9432
9.4972 -12.0710 -1.8245 0.9400
10.8726 -11.5337 -1.8828 0.9381
12.2606 -10.8758 -1.9468 0.9361
13.6542 -10.0887 -2.0166 0.9339
15.0447 -9.1632 -2.0925 0.9315
16.4208 -8.0904 -2.1745 0.9289
2.3519 -0.9082 -0.2995 0.9899
14.2060 -2.7314 -1.7184 0.9434
15.2110 -0.1733 -1.8070 0.9406
12.0357 0.9392 -1.4340 0.9525
9.2305 2.4203 -1.1335 0.9623
6.3273 3.6587 -0.8682 0.9710
4.3547 4.4135 -0.7365 0.9753
2.8047 5.0040 -0.6814 0.9772
-0.1519 6.1222 -0.7275 0.9756
-0.7262 6.3383 -0.7578 0.9746
-2.6244 1.6598 -0.3689 0.9876
-15.5535 7.9923 -2.0772 0.9320
-15.6218 6.3374 -2.0025 0.9343
-15.1633 1.7909 -1.8137 0.9403
-14.8256 0.4194 -1.7618 0.9420
-14.4106 -0.8801 -1.7150 0.9435
-13.9258 -2.1085 -1.6730 0.9448
-13.3777 -3.2674 -1.6358 0.9460
-12.1130 -5.3818 -1.5745 0.9480
-11.4053 -6.3405 -1.5501 0.9488
-10.6521 -7.2354 -1.5296 0.9495
-7.6620 -8.9811 -1.4023 0.9536
-6.7399 -9.5003 -1.3837 0.9542
-3.0197 -11.3550 -1.3957 0.9538
-0.9729 -11.9308 -1.4219 0.9529
2.4079 -12.7630 -1.5428 0.9490
3.7348 -13.1994 -1.6295 0.9462
8.9814 -12.2446 -1.8038 0.9407
10.3505 -11.7507 -1.8601 0.9389
13.1269 -10.4022 -1.9895 0.9348
15.9027 -8.5141 -2.1427 0.9299
17.2207 -7.3271 -2.2230 0.9274
17.2481 -5.5822 -2.1535 0.9296
18.4233 -4.1919 -2.2444 0.9267
17.9557 -0.8116 -2.1351 0.9302
7.5401 3.1987 -0.9729 0.9675
6.6323 3.5418 -0.8931 0.9702
4.5717 4.3306 -0.7480 0.9750
3.9395 4.4629 -0.7071 0.9763
3.5514 4.8310 -0.7122 0.9761
2.0309 5.2977 -0.6739 0.9774
1.1071 5.8342 -0.7054 0.9764
-0.5033 6.2545 -0.7453 0.9750
-1.1442 6.6821 -0.8053 0.9731
-2.5933 1.7655 -0.3727 0.9874
-15.2692 2.3285 -1.8347 0.9397
-14.9629 0.9297 -1.7808 0.9414
-14.1170 -1.6521 -1.6883 0.9444
-13.0075 -3.9533 -1.6149 0.9467
-12.3682 -5.0022 -1.5848 0.9477
-11.6785 -5.9854 -1.5588 0.9485
-10.1622 -7.7601 -1.5188 0.9498
-9.3411 -8.5540 -1.5045 0.9503
-8.0633 -8.8294 -1.4203 0.9530
-6.1953 -9.8482 -1.3820 0.9542
-3.3931 -11.2190 -1.3923 0.9539
-1.3694 -11.8408 -1.4159 0.9531
0.7755 -12.2124 -1.4536 0.9519
1.9374 -12.5896 -1.5131 0.9500
3.2241 -13.0632 -1.5983 0.9472
5.8111 -12.9942 -1.6908 0.9443
9.8306 -11.9509 -1.8382 0.9396
11.2096 -11.3850 -1.8979 0.9377
13.9934 -9.8765 -2.0345 0.9333
15.3814 -8.9160 -2.1119 0.9309
16.7521 -7.8059 -2.1953 0.9283
17.9861 -4.7365 -2.2093 0.9278
19.1187 -3.2468 -2.3036 0.9249
8.9874 2.5666 -1.1103 0.9631
6.3058 3.8315 -0.8765 0.9707
5.4294 4.0027 -0.8013 0.9732
4.7958 4.2450 -0.7608 0.9745
4.1462 4.3889 -0.7172 0.9760
3.2332 4.9521 -0.7025 0.9765
2.6873 5.0486 -0.6794 0.9772
2.2102 5.2297 -0.6744 0.9774
1.7362 5.4094 -0.6748 0.9774
1.2965 5.7626 -0.7016 0.9765
0.7725 5.8173 -0.6971 0.9766
-0.2874 6.1732 -0.7341 0.9754
-1.5466 6.7547 -0.8231 0.9725
-2.2464 6.9089 -0.8630 0.9712
-15.4152 9.2868 -2.1377 0.9301
-15.5817 7.5834 -2.0585 0.9326
-15.0887 1.4504 -1.8006 0.9408
-14.7314 0.0965 -1.7499 0.9424
-13.2353 -3.5390 -1.6274 0.9463
-11.9451 -5.6211 -1.5682 0.9482
-10.4622 -7.4437 -1.5252 0.9496
-9.6565 -8.2609 -1.5095 0.9501
-8.5003 -8.6989 -1.4447 0.9522
-4.7158 -10.6530 -1.3839 0.9542
-3.7620 -11.0746 -1.3893 0.9540
-2.7771 -11.4380 -1.3982 0.9537
-1.7615 -11.7418 -1.4104 0.9533
-5.7453 -9.3816 -1.5587 0.9565
-1.1581 -11.1938 -1.5945 0.9556
-0.1572 -11.3743 -1.6118 0.9551
1.9178 -11.5360 -1.6570 0.9539
4.0787 -11.4107 -1.7170 0.9522
5.1858 -11.2312 -1.7528 0.9513
10.8402 -8.9804 -1.9945 0.9447
11.9550 -8.2239 -2.0560 0.9431
13.0455 -7.3535 -2.1218 0.9413
14.0198 -4.8764 -2.1032 0.9418
14.8953 -3.7314 -2.1757 0.9398
16.4064 -1.0992 -2.3298 0.9357
11.5717 1.2974 -1.6499 0.9540
8.7025 2.5989 -1.2869 0.9640
7.5429 3.0083 -1.1506 0.9677
6.7818 3.4344 -1.0771 0.9698
5.3328 4.0315 -0.9472 0.9734
3.0490 4.7952 -0.8051 0.9773
2.1438 5.2480 -0.8032 0.9774
1.6702 5.4274 -0.8046 0.9773
0.6986 5.7945 -0.8270 0.9767
0.1839 5.9884 -0.8489 0.9761
-0.3632 6.1942 -0.8792 0.9752
-1.6100 6.6618 -0.9711 0.9727
-7.6638 17.3625 -2.6891 0.9262
-8.8817 16.0680 -2.6013 0.9285
-9.9366 14.7054 -2.5147 0.9308
-11.5708 11.8663 -2.3483 0.9352
-13.1425 6.2016 -2.0591 0.9430
-13.2345 4.8553 -1.9974 0.9446
-13.1214 2.2938 -1.8874 0.9476
-11.4610 -3.2129 -1.6865 0.9531
-10.9423 -4.1512 -1.6582 0.9538
-8.3923 -7.3563 -1.5813 0.9559
-7.6513 -8.0210 -1.5706 0.9562
-6.8737 -8.6311 -1.5634 0.9564
-2.4945 -10.8419 -1.5763 0.9560
2.5810 -11.5291 -1.6740 0.9534
4.7652 -11.3087 -1.7388 0.9516
5.8813 -11.0777 -1.7771 0.9506
13.7064 -6.7530 -2.1650 0.9401
2.3517 -0.9081 -0.3572 0.9899
10.9975 1.8556 -1.5803 0.9559
9.2620 2.4286 -1.3567 0.9621
7.9340 2.8576 -1.1949 0.9665
7.0552 3.2784 -1.1023 0.9691
6.3180 3.6533 -1.0341 0.9709
4.9377 4.1828 -0.9169 0.9742
4.3493 4.4080 -0.8774 0.9753
3.8748 4.7003 -0.8631 0.9757
2.8015 4.9982 -0.8118 0.9771
2.2908 5.1080 -0.7932 0.9776
0.9143 5.8997 -0.8459 0.9762
-0.7253 6.3301 -0.9028 0.9746
-1.3852 6.7173 -0.9718 0.9727
-10.5112 13.8344 -2.4618 0.9322
-11.3088 12.4096 -2.3789 0.9344
-2.6230 1.6590 -0.4397 0.9875
-13.2121 5.3599 -2.0202 0.9440
-12.7757 0.3614 -1.8109 0.9497
-12.4639 -0.7612 -1.7693 0.9508
-12.0844 -1.8297 -1.7318 0.9518
-11.6431 -2.8437 -1.6982 0.9527
-11.1448 -3.8027 -1.6685 0.9535
-10.5939 -4.7068 -1.6425 0.9542
-9.3496 -6.3507 -1.6014 0.9554
-8.6627 -7.0906 -1.5861 0.9558
-4.6741 -9.9678 -1.5599 0.9565
-1.8981 -11.0151 -1.5837 0.9558
-0.9169 -11.2436 -1.5984 0.9554
2.1765 -11.5367 -1.6635 0.9537
8.8511 -10.0484 -1.8973 0.9473
13.3401 -5.6760 -2.0541 0.9431
15.0978 -3.4352 -2.1939 0.9394
14.6173 0.6452 -2.0731 0.9426
9.8884 2.2389 -1.4365 0.9599
8.3725 2.6999 -1.2465 0.9651
6.6139 3.5320 -1.0624 0.9702
6.0324 3.9503 -1.0217 0.9713
4.5659 4.3252 -0.8911 0.9749
2.9657 4.8960 -0.8111 0.9771
1.6023 5.6398 -0.8307 0.9766
1.1058 5.8275 -0.8404 0.9763
0.0542 6.0372 -0.8554 0.9759
-1.1426 6.6733 -0.9593 0.9730
-1.7810 6.7259 -0.9858 0.9723
-9.1534 15.7416 -2.5801 0.9291
-11.7282 11.5162 -2.3289 0.9358
-2.5963 1.7676 -0.4450 0.9874
-12.9996 7.2449 -2.1086 0.9416
-13.2411 4.5338 -1.9831 0.9450
-13.2078 3.2407 -1.9269 0.9465
-12.2355 -1.4319 -1.7455 0.9514
-11.8170 -2.4666 -1.7104 0.9524
-11.3397 -3.4464 -1.6793 0.9532
-10.8082 -4.3713 -1.6519 0.9540
-10.2266 -5.2413 -1.6282 0.9546
-8.2154 -7.5231 -1.5784 0.9560
-7.4653 -8.1746 -1.5686 0.9563
-3.2058 -10.5998 -1.5691 0.9562
1.7750 -11.5338 -1.6535 0.9539
2.8429 -11.5187 -1.6810 0.9532
7.2848 -10.6692 -1.8305 0.9491
8.4208 -10.2371 -1.8782 0.9479
9.5576 -9.7071 -1.9302 0.9465
13.8969 -5.0220 -2.0937 0.9421
14.7812 -3.8925 -2.1657 0.9401
16.3167 -1.2908 -2.3191 0.9360
4.7896 4.2396 -0.9063 0.9745
4.1442 4.3869 -0.8551 0.9759
3.7452 4.7498 -0.8570 0.9759
3.2294 4.9463 -0.8370 0.9764
2.2077 5.2237 -0.8035 0.9773
1.7342 5.4032 -0.8040 0.9773
0.7731 5.8219 -0.8321 0.9766
-0.8994 6.5821 -0.9413 0.9735
-2.2150 6.8125 -1.0150 0.9715
-10.7197 13.4897 -2.4413 0.9328
-11.4799 12.0602 -2.3592 0.9349
-12.9031 7.7734 -2.1344 0.9410
-13.1405 2.4605 -1.8942 0.9474
-12.9629 1.2460 -1.8452 0.9487
-12.7063 0.0832 -1.8004 0.9500
-12.3775 -1.0263 -1.7598 0.9511
-11.9825 -2.0816 -1.7232 0.9521
-11.5268 -3.0822 -1.6906 0.9529
-10.4523 -4.9186 -1.6368 0.9544
-9.8415 -5.7546 -1.6153 0.9550
-8.4893 -7.2625 -1.5829 0.9559
-6.9806 -8.5520 -1.5641 0.9564
-6.1728 -9.1145 -1.5597 0.9565
-3.5552 -10.4660 -1.5661 0.9563
-2.6225 -10.8012 -1.5749 0.9561
-1.6617 -11.0765 -1.5870 0.9558
-6.5700 -7.3705 -1.6266 0.9608
-5.8664 -7.8997 -1.6210 0.9609
-4.3646 -8.8049 -1.6189 0.9609
-3.5700 -9.1790 -1.6225 0.9609
-2.7486 -9.4993 -1.6291 0.9607
-0.1399 -10.1208 -1.6675 0.9598
0.7718 -10.2087 -1.6866 0.9593
4.5702 -9.8981 -1.7960 0.9568
5.5432 -9.6401 -1.8319 0.9559
6.5178 -9.3034 -1.8713 0.9550
8.4522 -8.3802 -1.9608 0.9529
9.3996 -7.7869 -2.0108 0.9517
10.3239 -7.1019 -2.0643 0.9505
12.0433 -5.4363 -2.1768 0.9478
11.9404 -4.1531 -2.0826 0.9500
12.6215 -3.1618 -2.1435 0.9486
13.7532 -0.9215 -2.2708 0.9457
14.1767 0.3173 -2.3360 0.9441
11.5694 1.2972 -1.9179 0.9539
10.3237 2.1027 -1.7356 0.9582
8.8934 2.6559 -1.5290 0.9631
6.6218 3.3534 -1.2228 0.9704
5.2473 3.9669 -1.0837 0.9737
3.6697 4.7711 -0.9916 0.9759
3.0455 4.7895 -0.9350 0.9773
1.6683 5.4212 -0.9344 0.9773
0.6978 5.7877 -0.9604 0.9766
0.1837 5.9811 -0.9858 0.9760
-0.3606 6.1494 -1.0148 0.9753
-2.2853 6.7510 -1.1742 0.9715
-5.8942 13.3534 -2.4046 0.9425
-6.8693 12.4272 -2.3392 0.9441
-8.3274 12.3240 -2.4503 0.9415
-9.8020 10.0524 -2.3130 0.9447
-10.7949 7.6977 -2.1842 0.9477
-11.1231 6.5198 -2.1240 0.9491
-11.4735 4.2092 -2.0133 0.9517
-11.4594 2.0033 -1.9164 0.9539
-10.8633 -1.0326 -1.7977 0.9567
-10.5334 -1.9608 -1.7651 0.9575
-10.1461 -2.8443 -1.7359 0.9582
-9.7056 -3.6820 -1.7101 0.9588
-8.6800 -5.2166 -1.6683 0.9598
-8.1015 -5.9122 -1.6522 0.9602
-7.4831 -6.5593 -1.6393 0.9605
-6.1365 -7.7054 -1.6227 0.9609
-3.0624 -9.3846 -1.6262 0.9608
-2.2250 -9.6705 -1.6347 0.9606
0.4247 -10.1828 -1.6790 0.9595
1.3476 -10.2315 -1.7001 0.9590
3.2398 -10.1309 -1.7522 0.9578
5.1747 -9.7467 -1.8179 0.9563
7.1226 -9.0529 -1.8976 0.9544
8.0894 -8.5812 -1.9428 0.9533
9.9775 -7.3720 -2.0437 0.9510
10.8833 -6.6287 -2.0993 0.9497
11.7514 -5.7898 -2.1581 0.9483
2.3515 -0.9080 -0.4153 0.9898
12.3716 -3.5472 -2.1202 0.9492
13.0092 -2.5013 -2.1824 0.9477
14.0291 -0.1599 -2.3113 0.9447
8.0972 2.9164 -1.4178 0.9657
4.9033 4.1537 -1.0586 0.9743
3.8701 4.6946 -1.0023 0.9756
3.3489 4.8936 -0.9769 0.9762
2.7982 4.9924 -0.9428 0.9771
1.8475 5.3533 -0.9329 0.9773
1.4141 5.7037 -0.9681 0.9765
0.9133 5.8928 -0.9824 0.9761
0.1803 2.7923 -0.4610 0.9887
-0.1513 6.0992 -1.0051 0.9756
-1.3122 6.3637 -1.0704 0.9740
-1.9940 6.6185 -1.1387 0.9724
-7.9922 12.7347 -2.4768 0.9409
-9.5610 10.4918 -2.3384 0.9441
-10.1607 9.3243 -2.2719 0.9456
-2.6216 1.6581 -0.5110 0.9875
-11.4367 4.6396 -2.0332 0.9512
-11.5057 3.5102 -1.9817 0.9524
-11.4877 2.4105 -1.9337 0.9535
-11.3888 1.3451 -1.8892 0.9546
-11.2151 0.3173 -1.8483 0.9555
-10.6652 -1.6148 -1.7770 0.9572
-9.4066 -4.1794 -1.6957 0.9591
-8.3251 -5.6548 -1.6579 0.9600
-5.6902 -8.0208 -1.6201 0.9609
-4.9470 -8.4868 -1.6183 0.9610
-4.1738 -8.9009 -1.6195 0.9609
-3.3725 -9.2620 -1.6238 0.9608
-2.5447 -9.5689 -1.6312 0.9607
1.9298 -10.2291 -1.7149 0.9587
2.8779 -10.1709 -1.7413 0.9581
9.6270 -7.6288 -2.0235 0.9514
10.5445 -6.9210 -2.0778 0.9502
11.4281 -6.1185 -2.1355 0.9488
12.1121 -3.9200 -2.0972 0.9497
12.7768 -2.9071 -2.1586 0.9483
13.3659 -1.8079 -2.2219 0.9468
14.2631 0.6295 -2.3520 0.9438
11.6150 1.5585 -1.9306 0.9536
8.5921 2.7707 -1.4872 0.9641
7.3786 3.1302 -1.3204 0.9680
3.5430 4.8195 -0.9854 0.9760
2.0263 5.2856 -0.9325 0.9773
1.6004 5.6333 -0.9648 0.9765
1.1045 5.8207 -0.9760 0.9763
0.2898 2.9400 -0.4867 0.9881
-0.4974 6.1811 -1.0216 0.9752
-1.0799 6.3067 -1.0541 0.9744
-1.5130 5.7139 -0.9737 0.9763
-6.1422 13.1348 -2.3887 0.9429
-8.5336 12.0558 -2.4333 0.9419
-10.4737 8.5916 -2.2317 0.9466
-2.6015 1.7711 -0.5185 0.9873
-11.4902 3.9343 -2.0008 0.9520
-11.4353 1.7439 -1.9056 0.9542
-11.0718 -0.3015 -1.8246 0.9561
-10.4443 -2.1801 -1.7577 0.9577
-9.5908 -3.8789 -1.7043 0.9589
-9.0894 -4.6584 -1.6826 0.9594
-6.6623 -7.2953 -1.6276 0.9607
-5.2317 -8.3166 -1.6186 0.9610
-4.4697 -8.7504 -1.6187 0.9609
-2.8608 -9.4593 -1.6280 0.9607
-2.0175 -9.7317 -1.6373 0.9605
-1.1504 -9.9473 -1.6496 0.9602
1.5749 -10.2336 -1.7057 0.9589
2.5177 -10.2010 -1.7309 0.9583
5.4117 -9.6794 -1.8269 0.9560
6.3865 -9.3535 -1.8658 0.9551
8.3231 -8.4533 -1.9543 0.9530
9.2730 -7.8722 -2.0039 0.9519
10.2009 -7.1998 -2.0569 0.9506
11.9465 -5.5667 -2.1712 0.9480
11.8436 -4.2800 -2.0746 0.9502
13.1528 -2.2336 -2.1978 0.9474
11.5139 1.1507 -1.9062 0.9542
10.5470 2.0163 -1.7690 0.9574
9.0663 2.5891 -1.5533 0.9625
5.3235 3.9246 -1.0896 0.9735
4.1325 4.3745 -0.9914 0.9759
1.2935 5.7493 -0.9708 0.9764
0.2547 5.9545 -0.9818 0.9761
-0.2855 6.1316 -1.0112 0.9754
-0.8554 6.2600 -1.0409 0.9747
-2.1790 6.7016 -1.1609 0.9718
-6.7445 12.5563 -2.3480 0.9439
-9.0263 11.3588 -2.3901 0.9429
-11.3227 5.5106 -2.0745 0.9502
-11.4708 2.1479 -1.9225 0.9538
-10.9031 -0.9040 -1.8023 0.9566
-10.2015 -2.7278 -1.7396 0.9581
-9.7680 -3.5718 -1.7134 0.9587
-8.1819 -5.8213 -1.6542 0.9601
-6.9178 -7.0795 -1.6306 0.9607
-5.5122 -8.1390 -1.6194 0.9609
-3.1734 -9.3418 -1.6253 0.9608
-5.2950 -7.1301 -1.6693 0.9645
-4.6316 -7.5631 -1.6670 0.9645
-2.4796 -8.5697 -1.6768 0.9643
-0.9295 -8.9840 -1.6977 0.9639
-0.1259 -9.1095 -1.7124 0.9636
1.5274 -9.1877 -1.7506 0.9628
4.0821 -8.8408 -1.8303 0.9611
6.6427 -7.8802 -1.9372 0.9589
7.4761 -7.4124 -1.9788 0.9581
9.8285 -5.5402 -2.1207 0.9551
10.5069 -4.7427 -2.1668 0.9542
10.3881 -3.6132 -2.0673 0.9562
10.9391 -2.7403 -2.1197 0.9551
11.4220 -1.7985 -2.1733 0.9540
11.5670 1.2969 -2.1878 0.9537
5.9033 3.6850 -1.3080 0.9721
4.0070 4.3453 -1.1110 0.9762
3.0484 4.7941 -1.0679 0.9771
1.6437 5.3413 -1.0504 0.9775
0.1781 5.7977 -1.0903 0.9767
-0.3516 5.9964 -1.1290 0.9758
-1.3712 5.6738 -1.0972 0.9765
-5.8820 10.6413 -2.2854 0.9517
-6.6440 9.8327 -2.2305 0.9528
-7.3109 8.9760 -2.1760 0.9540
-9.9744 4.7067 -2.0730 0.9561
-10.1173 3.7117 -2.0256 0.9571
-10.0749 0.8461 -1.9004 0.9597
-9.9198 -0.0545 -1.8646 0.9604
-9.7020 -0.9222 -1.8318 0.9611
-9.0949 -2.5496 -1.7754 0.9623
-7.8122 -4.6951 -1.7132 0.9636
-7.2986 -5.3263 -1.6983 0.9639
-6.1591 -6.4567 -1.6772 0.9643
-5.5381 -6.9540 -1.6709 0.9645
-3.4965 -8.1629 -1.6691 0.9645
-2.7632 -8.4677 -1.6742 0.9644
-2.0066 -8.7213 -1.6821 0.9642
-0.4319 -9.0686 -1.7065 0.9637
0.3820 -9.1589 -1.7230 0.9634
1.2106 -9.1911 -1.7425 0.9630
3.7574 -8.9170 -1.8188 0.9614
7.1628 -7.5983 -1.9627 0.9584
7.9847 -7.0828 -2.0062 0.9575
8.7824 -6.4890 -2.0525 0.9565
9.5486 -5.8157 -2.1015 0.9555
10.2749 -5.0624 -2.1530 0.9545
11.2480 -2.1626 -2.1529 0.9545
11.6833 -1.1802 -2.2072 0.9533
12.0336 -0.1371 -2.2620 0.9522
10.9479 1.8473 -2.0869 0.9558
7.1463 3.3207 -1.4812 0.9684
4.7796 4.0489 -1.1774 0.9748
4.2105 4.2673 -1.1268 0.9759
3.8654 4.6889 -1.1422 0.9756
1.8219 5.2793 -1.0497 0.9775
1.3486 5.4394 -1.0534 0.9774
0.8660 5.5879 -1.0629 0.9772
-0.7027 6.1328 -1.1603 0.9752
-4.6799 11.6524 -2.3602 0.9502
-5.5694 10.9319 -2.3061 0.9513
-8.2729 9.0783 -2.3086 0.9512
-9.2785 7.1008 -2.1961 0.9536
-2.6202 1.6572 -0.5827 0.9875
-10.1773 2.1356 -1.9546 0.9586
-9.7915 -0.5980 -1.8438 0.9609
-9.2262 -2.2534 -1.7851 0.9621
-8.8635 -3.0244 -1.7603 0.9626
-8.4523 -3.7554 -1.7385 0.9631
-4.4658 -7.6613 -1.6668 0.9646
-2.2954 -8.6314 -1.6788 0.9643
3.4331 -8.9836 -1.8077 0.9616
4.2911 -8.7866 -1.8380 0.9610
6.8471 -7.7733 -1.9471 0.9587
8.4839 -6.7230 -2.0346 0.9569
10.0054 -5.3568 -2.1332 0.9549
10.5280 -3.4073 -2.0799 0.9560
11.0633 -2.5173 -2.1326 0.9549
11.5281 -1.5593 -2.1866 0.9538
11.9117 -0.5384 -2.2412 0.9526
12.2037 0.5386 -2.2961 0.9515
8.5787 2.7664 -1.6942 0.9640
5.7145 3.7421 -1.2839 0.9726
3.5387 4.8138 -1.1230 0.9760
2.9341 4.8437 -1.0644 0.9772
2.4666 5.0371 -1.0542 0.9774
1.9994 5.2154 -1.0499 0.9775
1.5285 5.3803 -1.0513 0.9775
0.2768 2.8085 -0.5304 0.9886
0.0525 5.8449 -1.0987 0.9765
-0.4867 6.0470 -1.1403 0.9756
-1.0796 6.3051 -1.2024 0.9743
-1.5019 5.6719 -1.1028 0.9764
-5.2435 11.2130 -2.3267 0.9509
-6.0762 10.4496 -2.2720 0.9520
-6.8152 9.6281 -2.2172 0.9531
-2.6097 1.7767 -0.5934 0.9872
-10.0169 4.4633 -2.0612 0.9563
-10.1395 3.4718 -2.0144 0.9573
-10.1477 1.5475 -1.9294 0.9591
-10.0432 0.6240 -1.8914 0.9599
-9.0066 -2.7373 -1.7693 0.9624
-8.6133 -3.4836 -1.7464 0.9629
-6.6068 -6.0501 -1.6838 0.9642
-4.0348 -7.8991 -1.6672 0.9645
-2.5811 -8.5342 -1.6758 0.9644
-1.8191 -8.7751 -1.6844 0.9642
-0.2353 -9.0958 -1.7102 0.9636
0.5825 -9.1722 -1.7275 0.9633
3.1093 -9.0407 -1.7970 0.9618
4.8249 -8.6297 -1.8583 0.9606
9.7294 -5.6397 -2.1138 0.9553
10.4259 -4.8581 -2.1620 0.9543
11.3612 -1.9294 -2.1660 0.9542
11.7768 -0.9316 -2.2205 0.9531
12.1047 0.1251 -2.2753 0.9519
9.0490 2.5841 -1.7688 0.9624
7.8848 3.0351 -1.5880 0.9662
6.8989 3.3899 -1.4448 0.9692
6.0112 3.6525 -1.3221 0.9718
4.6363 4.1039 -1.1638 0.9751
4.0789 4.3177 -1.1164 0.9761
3.7361 4.7383 -1.1342 0.9757
2.6432 4.9659 -1.0574 0.9774
-0.2779 5.9688 -1.1231 0.9760
-0.8470 6.1985 -1.1759 0.9749
-1.3085 5.7147 -1.1019 0.9764
-5.7721 10.7459 -2.2928 0.9516
-7.2265 9.0939 -2.1833 0.9538
-2.7078 1.6313 -0.5942 0.9872
-9.1426 -2.4447 -1.7788 0.9622
-7.3701 -5.2437 -1.7001 0.9639
-6.8232 -5.8372 -1.6878 0.9641
-6.2403 -6.3861 -1.6783 0.9643
-4.9757 -7.3468 -1.6678 0.9645
-2.1099 -8.6901 -1.6809 0.9643
-5.3962 -6.0536 -1.7142 0.9674
-4.8213 -6.4923 -1.7094 0.9675
-4.2178 -6.8874 -1.7072 0.9675
-2.9335 -7.5425 -1.7107 0.9675
-2.2569 -7.7999 -1.7164 0.9673
-1.5600 -8.0089 -1.7247 0.9672
-0.8451 -8.1679 -1.7358 0.9670
-0.1144 -8.2755 -1.7494 0.9667
0.6297 -8.3299 -1.7658 0.9664
2.1477 -8.2724 -1.8066 0.9657
5.2132 -7.4412 -1.9205 0.9635
5.9629 -7.0737 -1.9556 0.9629
7.4076 -6.1367 -2.0333 0.9614
8.6701 -3.9136 -2.0107 0.9619
9.1840 -3.1944 -2.0554 0.9610
10.0384 -1.5807 -2.1481 0.9593
10.3623 -0.6943 -2.1953 0.9584
10.6062 0.2374 -2.2425 0.9576
6.7957 3.4414 -1.6102 0.9693
4.0322 4.3726 -1.2573 0.9760
3.6609 4.7596 -1.2693 0.9757
3.0026 4.7221 -1.1829 0.9774
2.5334 4.9009 -1.1662 0.9777
2.0734 5.0756 -1.1590 0.9778
1.6153 5.2492 -1.1609 0.9778
1.1524 5.4266 -1.1727 0.9776
0.3446 2.8581 -0.6085 0.9883
-0.3566 6.0819 -1.2878 0.9754
-1.3703 5.6702 -1.2331 0.9764
-5.1375 9.2942 -2.2448 0.9575
-5.8206 8.6142 -2.1976 0.9584
-6.9474 7.1249 -2.1035 0.9601
-7.9633 6.8271 -2.2172 0.9580
-8.3546 5.9575 -2.1690 0.9589
-8.8898 4.1949 -2.0778 0.9606
-9.0615 0.7610 -1.9221 0.9635
-8.9389 -0.0491 -1.8895 0.9641
-8.5219 -1.5864 -1.8323 0.9652
-8.2345 -2.3084 -1.8077 0.9656
-7.8991 -2.9967 -1.7858 0.9660
-7.5189 -3.6494 -1.7667 0.9664
-7.0967 -4.2651 -1.7502 0.9667
-6.6353 -4.8423 -1.7364 0.9670
-5.0422 -6.3314 -1.7109 0.9675
-3.8292 -7.1106 -1.7071 0.9675
-1.1175 -8.1137 -1.7313 0.9671
0.3468 -8.3157 -1.7593 0.9665
1.0980 -8.3362 -1.7773 0.9662
1.8583 -8.3008 -1.7981 0.9658
4.1627 -7.8406 -1.8764 0.9644
6.4211 -6.8115 -1.9787 0.9625
7.1415 -6.3349 -2.0179 0.9617
7.8359 -5.7897 -2.0594 0.9610
9.1116 -4.4892 -2.1471 0.9593
10.2487 -1.0353 -2.1774 0.9588
10.5239 -0.1199 -2.2247 0.9579
10.7140 0.8361 -2.2716 0.9570
10.8114 1.8242 -2.3176 0.9562
8.1315 2.9288 -1.8269 0.9653
7.1348 3.3154 -1.6630 0.9683
6.2899 3.6371 -1.5358 0.9707
4.8546 4.1125 -1.3449 0.9743
4.2462 4.3035 -1.2779 0.9756
3.8606 4.6832 -1.2829 0.9755
2.7094 4.8339 -1.1713 0.9776
1.7889 5.1835 -1.1591 0.9778
0.8599 5.5484 -1.1868 0.9773
0.1764 2.7322 -0.5787 0.9889
-1.3484 6.5391 -1.4113 0.9731
-5.5715 8.8775 -2.2155 0.9581
-6.2054 8.1672 -2.1682 0.9589
-6.7591 7.4170 -2.1212 0.9598
-7.2320 6.6367 -2.0748 0.9607
-9.0918 1.0738 -1.9352 0.9633
-8.9923 0.2544 -1.9016 0.9639
-8.8330 -0.5394 -1.8706 0.9645
-8.6174 -1.3048 -1.8423 0.9650
-8.3490 -2.0392 -1.8167 0.9655
-8.0314 -2.7404 -1.7938 0.9659
-7.2611 -4.0366 -1.7561 0.9666
-6.8143 -4.6285 -1.7413 0.9669
-5.2590 -6.1644 -1.7128 0.9674
-3.4307 -7.3163 -1.7081 0.9675
-0.6686 -8.1989 -1.7388 0.9669
0.0656 -8.2937 -1.7532 0.9667
0.8126 -8.3349 -1.7702 0.9663
1.5698 -8.3209 -1.7899 0.9660
3.8722 -7.9290 -1.8652 0.9646
5.3969 -7.3578 -1.9288 0.9634
6.1431 -6.9741 -1.9645 0.9627
8.2516 -5.4160 -2.0864 0.9604
8.8894 -4.7593 -2.1314 0.9596
9.3011 -3.0102 -2.0665 0.9608
9.7453 -2.2174 -2.1126 0.9600
10.6526 0.4702 -2.2539 0.9573
10.7859 1.4473 -2.3004 0.9565
8.5629 2.7613 -1.9018 0.9639
6.5919 3.5202 -1.5796 0.9699
5.1044 4.0361 -1.3755 0.9737
4.4685 4.2329 -1.3011 0.9751
2.8871 4.7662 -1.1779 0.9775
2.4208 4.9437 -1.1636 0.9777
1.9620 5.1179 -1.1586 0.9778
1.5033 5.2915 -1.1628 0.9778
1.0387 5.4737 -1.1777 0.9775
0.0529 5.8977 -1.2467 0.9762
-0.4945 6.1448 -1.3031 0.9751
-1.1004 6.4265 -1.3782 0.9737
-3.7538 10.3433 -2.3259 0.9560
-5.9750 8.4412 -2.1861 0.9586
-6.5591 7.7049 -2.1389 0.9595
-2.6180 1.7823 -0.6695 0.9871
-8.7251 4.8627 -2.1114 0.9600
-8.9332 3.9804 -2.0673 0.9608
-9.0648 3.1038 -2.0253 0.9616
-9.1129 1.3897 -1.9486 0.9630
-9.0372 0.5615 -1.9140 0.9637
-8.4565 -1.7651 -1.8261 0.9653
-6.9879 -4.4092 -1.7466 0.9668
-6.5174 -4.9769 -1.7334 0.9670
-4.3008 -6.8367 -1.7073 0.9675
-2.3493 -7.7680 -1.7155 0.9674
-0.9425 -8.1495 -1.7341 0.9670
0.5287 -8.3257 -1.7634 0.9665
1.2823 -8.3328 -1.7821 0.9661
2.0444 -8.2835 -1.8035 0.9657
4.3492 -7.7789 -1.8839 0.9642
5.1111 -7.4857 -1.9160 0.9636
5.8626 -7.1271 -1.9507 0.9630
6.5985 -6.7018 -1.9880 0.9623
9.1178 -3.2949 -2.0493 0.9611
10.5783 0.1093 -2.2362 0.9577
10.7465 1.0741 -2.2829 0.9568
10.5009 2.0075 -2.2599 0.9572
9.0315 2.5791 -1.9854 0.9623
7.8711 3.0298 -1.7828 0.9661
5.3672 3.9569 -1.4095 0.9731
4.7001 4.1603 -1.3268 0.9747
3.7316 4.7326 -1.2739 0.9757
2.5959 4.8771 -1.1679 0.9777
2.1352 5.0522 -1.1594 0.9778
0.3867 2.9120 -0.6209 0.9881
-0.8630 6.3152 -1.3473 0.9743
-1.3089 5.7163 -1.2396 0.9763
-2.2332 6.8683 -1.5266 0.9709
-5.0393 9.3818 -2.2511 0.9574
-5.7331 8.7088 -2.2040 0.9583
-7.9040 6.9431 -2.2238 0.9579
-8.3067 6.0756 -2.1754 0.9588
-8.8637 4.3138 -2.0837 0.9605
-9.0238 3.4343 -2.0409 0.9613
-9.1096 2.5642 -2.0004 0.9620
-9.0733 0.8722 -1.9267 0.9634
-8.2761 -2.2130 -1.8109 0.9656
-7.1559 -4.1843 -1.7522 0.9667
-6.6997 -4.7667 -1.7381 0.9669
-5.1200 -6.2726 -1.7115 0.9674
-3.9143 -7.0637 -1.7070 0.9675
-1.2141 -8.0927 -1.7298 0.9671
-4.4220 -5.9545 -1.7431 0.9700
-3.2910 -6.6389 -1.7415 0.9700
-2.0692 -7.1514 -1.7497 0.9699
-0.1047 -7.5753 -1.7805 0.9693
0.5760 -7.6191 -1.7958 0.9691
1.2654 -7.6117 -1.8135 0.9688
4.7330 -6.7557 -1.9386 0.9667
5.4045 -6.4113 -1.9707 0.9661
6.0583 -6.0067 -2.0050 0.9656
7.2909 -5.0155 -2.0798 0.9643
8.6125 -2.1575 -2.0867 0.9642
9.4054 0.2105 -2.2110 0.9621
9.5529 1.9457 -2.2912 0.9607
6.7849 3.4360 -1.7874 0.9692
5.9949 3.7422 -1.6609 0.9714
5.3037 4.0095 -1.5626 0.9731
4.6846 4.2483 -1.4863 0.9743
4.1050 4.4516 -1.4232 0.9754
3.6564 4.7538 -1.4095 0.9757
3.0529 4.8012 -1.3372 0.9769
2.5706 4.9729 -1.3157 0.9773
1.1873 3.8582 -0.9487 0.9835
0.3400 2.8203 -0.6676 0.9884
0.0876 2.8513 -0.6704 0.9883
-0.9506 6.3826 -1.5166 0.9738
-2.3346 6.8968 -1.7113 0.9705
-4.5553 8.2410 -2.2130 0.9620
-5.1734 7.6563 -2.1717 0.9627
-5.7236 7.0273 -2.1301 0.9634
-6.6151 5.6713 -2.0478 0.9648
-7.7891 4.5656 -2.1219 0.9636
-8.2464 2.2144 -2.0068 0.9655
-8.2667 1.4451 -1.9723 0.9661
-8.2261 0.6909 -1.9401 0.9666
-8.1275 -0.0446 -1.9102 0.9672
-7.7697 -1.4463 -1.8574 0.9680
-7.5166 -2.1072 -1.8347 0.9684
-6.4960 -3.9041 -1.7812 0.9693
-6.0778 -4.4354 -1.7683 0.9696
-5.1396 -5.3879 -1.7500 0.9699
-4.6243 -5.8065 -1.7446 0.9700
-1.6736 -7.2741 -1.7543 0.9698
-1.0239 -7.4338 -1.7636 0.9696
0.3173 -7.6085 -1.7897 0.9692
1.0037 -7.6206 -1.8065 0.9689
1.6971 -7.5806 -1.8257 0.9686
2.3943 -7.4871 -1.8474 0.9682
3.0922 -7.3385 -1.8716 0.9678
4.4753 -6.8704 -1.9271 0.9669
5.1523 -6.5486 -1.9583 0.9663
8.1758 -4.0282 -2.1421 0.9632
8.4713 -2.4289 -2.0712 0.9644
8.8263 -1.6970 -2.1124 0.9637
9.1184 -0.9211 -2.1539 0.9630
9.3408 -0.1065 -2.1955 0.9623
9.4871 0.7404 -2.2365 0.9617
8.1169 2.9235 -2.0276 0.9652
4.9116 4.1608 -1.5129 0.9739
3.3369 4.8760 -1.3886 0.9760
2.7508 4.9078 -1.3223 0.9771
-0.1509 6.0841 -1.4304 0.9753
-0.7215 6.2972 -1.4897 0.9743
-1.3465 6.5300 -1.5670 0.9730
-3.5977 8.9579 -2.2688 0.9611
-4.3043 8.4489 -2.2285 0.9618
-4.9474 7.8831 -2.1874 0.9625
-5.5236 7.2699 -2.1458 0.9632
-6.0308 6.6178 -2.1043 0.9639
-6.8352 5.2310 -2.0229 0.9653
-2.6192 1.6565 -0.7283 0.9873
-7.9350 4.0774 -2.0967 0.9640
-8.1127 3.2911 -2.0576 0.9647
-8.2221 2.5085 -2.0203 0.9653
-8.2484 0.9742 -1.9520 0.9664
-7.8530 -1.1890 -1.8667 0.9679
-7.6179 -1.8606 -1.8430 0.9683
-7.3362 -2.5032 -1.8218 0.9687
-7.0108 -3.1149 -1.8030 0.9690
-6.6446 -3.6939 -1.7867 0.9692
-6.2402 -4.2386 -1.7729 0.9695
-5.8001 -4.7475 -1.7616 0.9697
-4.8226 -5.6528 -1.7463 0.9699
-4.2897 -6.0467 -1.7424 0.9700
-3.7304 -6.3997 -1.7409 0.9700
-2.5410 -6.9784 -1.7454 0.9699
-1.2715 -7.3789 -1.7598 0.9697
-0.6123 -7.5091 -1.7707 0.9695
0.0601 -7.5906 -1.7840 0.9693
0.7431 -7.6221 -1.7999 0.9690
1.4342 -7.6020 -1.8182 0.9687
2.1303 -7.5289 -1.8389 0.9684
3.5249 -7.2177 -1.8878 0.9675
4.2161 -6.9768 -1.9158 0.9671
5.5655 -6.3183 -1.9789 0.9660
6.2141 -5.8990 -2.0137 0.9654
6.8384 -5.4190 -2.0506 0.9648
7.4323 -4.8783 -2.0894 0.9641
7.9897 -4.2776 -2.1299 0.9634
8.3220 -2.6933 -2.0558 0.9647
8.6990 -1.9793 -2.0967 0.9640
9.0157 -1.2195 -2.1382 0.9633
8.5469 2.7561 -2.1106 0.9638
5.1472 4.0699 -1.5422 0.9734
4.5425 4.3030 -1.4705 0.9746
1.5265 5.3730 -1.3128 0.9773
0.2752 2.7920 -0.6594 0.9885
0.0539 6.0033 -1.4110 0.9756
-0.5002 6.2146 -1.4653 0.9747
-1.1026 6.4392 -1.5354 0.9735
-1.4986 5.6592 -1.3759 0.9762
-3.3148 9.1338 -2.2837 0.9609
-4.0442 8.6486 -2.2439 0.9615
-4.7119 8.1032 -2.2030 0.9622
-5.8471 6.8685 -2.1200 0.9636
-6.3108 6.1967 -2.0787 0.9643
-7.5738 5.1562 -2.1534 0.9631
-8.1886 2.8038 -2.0342 0.9651
-8.2571 2.0260 -1.9982 0.9657
-8.2623 1.2600 -1.9643 0.9662
-8.2073 0.5100 -1.9326 0.9668
-8.0952 -0.2204 -1.9033 0.9673
-7.1389 -2.8873 -1.8098 0.9689
-6.3975 -4.0367 -1.7779 0.9694
-5.5096 -5.0453 -1.7558 0.9698
-2.7726 -6.8823 -1.7438 0.9700
-0.1957 -7.5655 -1.7787 0.9694
0.4836 -7.6161 -1.7936 0.9691
1.1720 -7.6157 -1.8109 0.9688
1.8666 -7.5629 -1.8308 0.9685
2.5643 -7.4560 -1.8531 0.9681
3.2618 -7.2938 -1.8778 0.9677
4.6413 -6.7976 -1.9345 0.9667
5.9713 -6.0648 -2.0003 0.9656
7.7835 -4.5118 -2.1144 0.9637
8.2878 -3.8619 -2.1489 0.9631
8.1651 -2.9507 -2.0405 0.9650
9.1792 -0.7261 -2.1641 0.9629
9.3837 0.0970 -2.2055 0.9622
9.5105 0.9505 -2.2463 0.9615
9.5537 1.8264 -2.2860 0.9608
9.0139 2.5741 -2.2032 0.9622
7.8574 3.0245 -1.9788 0.9660
6.0950 3.7034 -1.6762 0.9711
4.7646 4.2174 -1.4955 0.9742
4.1822 4.4271 -1.4313 0.9753
3.7270 4.7267 -1.4147 0.9756
3.2142 4.9229 -1.3818 0.9761
2.6346 4.9497 -1.3178 0.9772
2.1653 5.1235 -1.3073 0.9774
1.2355 5.4916 -1.3229 0.9771
0.3793 2.8565 -0.6772 0.9882
-0.2856 6.1345 -1.4433 0.9751
-2.2298 6.8580 -1.6948 0.9708
-4.4669 8.3160 -2.2186 0.9620
-5.0939 7.7379 -2.1773 0.9626
-6.1437 6.4542 -2.0942 0.9640
-6.5638 5.7658 -2.0533 0.9647
-2.6917 1.6216 -0.7385 0.9872
-8.1455 3.1001 -2.0483 0.9648
-8.2350 0.7916 -1.9443 0.9666
-8.1441 0.0534 -1.9141 0.9671
-7.5535 -2.0198 -1.8376 0.9684
-7.2609 -2.6550 -1.8170 0.9687
-6.5496 -3.8297 -1.7831 0.9693
-6.1363 -4.3658 -1.7699 0.9695
-5.6879 -4.8659 -1.7592 0.9697
-3.5905 -6.4793 -1.7410 0.9700
-3.0013 -6.7799 -1.7426 0.9700
-2.3904 -7.0369 -1.7466 0.9699
-1.7600 -7.2490 -1.7532 0.9698
-1.1124 -7.4150 -1.7622 0.9697
-4.5649 -5.1211 -1.7763 0.9721
-4.0804 -5.4945 -1.7720 0.9721
-1.9088 -6.5971 -1.7782 0.9720
-1.3185 -6.7687 -1.7855 0.9719
1.1640 -7.0019 -1.8378 0.9711
1.8019 -6.9405 -1.8566 0.9708
2.4409 -6.8287 -1.8776 0.9705
4.9372 -5.8569 -1.9834 0.9688
5.5262 -5.4791 -2.0149 0.9684
7.0479 -3.1814 -2.0021 0.9686
7.7732 -1.9472 -2.0748 0.9674
8.0572 -1.2687 -2.1119 0.9669
8.2813 -0.5548 -2.1490 0.9663
8.4398 0.1889 -2.1858 0.9657
8.5403 1.7395 -2.2566 0.9646
5.2963 4.0039 -1.7191 0.9729
3.1429 4.9427 -1.5166 0.9761
2.6041 5.0378 -1.4683 0.9768
1.1613 3.7738 -1.0223 0.9838
1.1841 5.5757 -1.4758 0.9767
0.0872 2.8400 -0.7357 0.9883
-0.9493 6.3740 -1.6685 0.9737
-2.3311 6.8863 -1.8824 0.9704
-3.4678 7.8563 -2.2235 0.9651
-4.6507 6.8828 -2.1508 0.9663
-5.9812 5.1278 -2.0399 0.9680
-7.0687 4.1433 -2.1215 0.9667
-7.2824 3.4364 -2.0849 0.9673
-7.4326 2.7268 -2.0499 0.9678
-7.5215 2.0198 -2.0164 0.9683
-7.5249 0.6320 -1.9552 0.9693
-7.4446 -0.0409 -1.9276 0.9697
-7.3132 -0.6951 -1.9020 0.9701
-6.6396 -2.5189 -1.8386 0.9711
-6.3307 -3.0728 -1.8220 0.9713
-5.6020 -4.0882 -1.7956 0.9718
-5.1869 -4.5466 -1.7859 0.9719
-4.7411 -4.9702 -1.7785 0.9720
-4.2668 -5.3577 -1.7734 0.9721
-3.7661 -5.7077 -1.7705 0.9721
-3.2413 -6.0191 -1.7701 0.9721
-0.9439 -6.8533 -1.7912 0.9718
0.2922 -7.0063 -1.8156 0.9714
0.9236 -7.0123 -1.8313 0.9712
2.1992 -6.8770 -1.8694 0.9706
3.4708 -6.5374 -1.9164 0.9699
4.0962 -6.2885 -1.9432 0.9695
5.3058 -5.6284 -2.0027 0.9685
6.4293 -4.7504 -2.0698 0.9675
7.4071 -3.6494 -2.1380 0.9665
2.3550 -0.9094 -0.6536 0.9896
7.9565 -1.5298 -2.0978 0.9671
8.2039 -0.8287 -2.1350 0.9665
8.5030 0.6636 -2.2083 0.9654
8.5446 1.4418 -2.2436 0.9648
8.5086 2.2310 -2.2775 0.9643
8.1023 2.9183 -2.2297 0.9650
6.2709 3.6261 -1.8755 0.9705
5.5475 3.9066 -1.7568 0.9724
4.3217 4.3801 -1.5932 0.9749
3.3328 4.8701 -1.5280 0.9759
2.7850 4.9689 -1.4748 0.9767
2.2902 5.1066 -1.4491 0.9771
-0.1507 6.0764 -1.5738 0.9752
-0.7205 6.2889 -1.6390 0.9742
-1.7318 5.7482 -1.5544 0.9755
-3.2197 8.0167 -2.2368 0.9649
-5.4385 5.9680 -2.0906 0.9672
-7.2091 3.7044 -2.0986 0.9671
-7.3831 2.9952 -2.0629 0.9676
-7.5469 1.5836 -1.9966 0.9686
-6.9984 -1.7093 -1.8653 0.9707
-6.7460 -2.3018 -1.8455 0.9710
-6.4521 -2.8667 -1.8280 0.9712
-6.1195 -3.4020 -1.8128 0.9715
-5.7506 -3.9060 -1.7999 0.9717
-4.9132 -4.8142 -1.7810 0.9720
-2.9038 -6.1926 -1.7709 0.9721
-1.7666 -6.6429 -1.7797 0.9720
-1.1724 -6.8039 -1.7876 0.9719
-0.5643 -6.9206 -1.7978 0.9717
0.6840 -7.0156 -1.8251 0.9713
1.3190 -6.9915 -1.8422 0.9710
1.9574 -6.9179 -1.8615 0.9707
3.8609 -6.3890 -1.9328 0.9696
4.4791 -6.1066 -1.9608 0.9692
6.2253 -4.9332 -2.0566 0.9677
6.7545 -4.4334 -2.0919 0.9672
7.2470 -3.8800 -2.1284 0.9666
2.3418 -0.9964 -0.6589 0.9895
8.4678 0.3737 -2.1946 0.9656
7.4649 3.1668 -2.0995 0.9671
5.8103 3.8048 -1.7982 0.9717
4.5365 4.2973 -1.6179 0.9745
3.5258 4.7962 -1.5413 0.9757
1.5453 5.4394 -1.4641 0.9769
1.0664 5.6200 -1.4811 0.9766
0.2745 2.7846 -0.7245 0.9885
-0.4995 6.2065 -1.6122 0.9746
-1.4968 5.6528 -1.5140 0.9761
-4.7791 6.7517 -2.1417 0.9664
-5.6979 5.5949 -2.0676 0.9675
-6.3699 4.3366 -1.9952 0.9687
-7.3247 3.2637 -2.0762 0.9674
-7.4598 2.5542 -2.0416 0.9679
-7.5501 1.1514 -1.9775 0.9689
-7.5102 0.4667 -1.9483 0.9694
-7.4172 -0.2020 -1.9212 0.9698
-5.5040 -4.2029 -1.7931 0.9718
-5.0812 -4.6530 -1.7839 0.9719
-4.6282 -5.0679 -1.7770 0.9720
-3.6405 -5.7871 -1.7702 0.9721
-3.1102 -6.0889 -1.7703 0.9721
-2.5584 -6.3505 -1.7727 0.9721
-1.9872 -6.5706 -1.7774 0.9720
-0.7959 -6.8817 -1.7937 0.9718
-0.1803 -6.9702 -1.8053 0.9716
0.4453 -7.0121 -1.8192 0.9714
1.7157 -6.9517 -1.8539 0.9708
2.9920 -6.6904 -1.8976 0.9702
4.2468 -6.2198 -1.9500 0.9694
5.4480 -5.5332 -2.0105 0.9684
6.0170 -5.1081 -2.0436 0.9679
6.5582 -4.6288 -2.0784 0.9674
6.9923 -3.2582 -1.9973 0.9686
7.7306 -2.0358 -2.0698 0.9675
8.0223 -1.3624 -2.1069 0.9669
8.4224 0.0870 -2.1808 0.9658
8.5431 1.6332 -2.2520 0.9647
8.4877 2.4238 -2.2855 0.9642
7.8435 3.0192 -2.1761 0.9659
6.8898 3.3855 -1.9876 0.9688
3.7224 4.7209 -1.5566 0.9755
1.2489 5.5512 -1.4732 0.9768
-4.5781 6.9543 -2.1557 0.9662
-5.5429 5.8231 -2.0816 0.9673
-6.2617 4.5798 -2.0086 0.9685
-7.2573 3.5320 -2.0898 0.9672
-7.4160 2.8224 -2.0545 0.9677
-7.5130 2.1148 -2.0209 0.9683
-7.5508 1.4139 -1.9890 0.9688
-7.5317 0.7240 -1.9591 0.9692
-7.4585 0.0489 -1.9312 0.9697
-6.3747 -2.9998 -1.8241 0.9713
-5.6556 -4.0238 -1.7971 0.9717
-5.2448 -4.4868 -1.7871 0.9719
-4.8029 -4.9152 -1.7793 0.9720
-3.8351 -5.6627 -1.7708 0.9721
-2.2054 -6.4923 -1.7753 0.9721
-1.6233 -6.6861 -1.7814 0.9720
-1.0256 -6.8364 -1.7899 0.9718
-3.7846 -5.0963 -1.7970 0.9740
-3.3118 -5.4079 -1.7952 0.9740
-1.7700 -6.1173 -1.8028 0.9739
-1.2222 -6.2746 -1.8097 0.9738
-0.0893 -6.4634 -1.8299 0.9735
1.0767 -6.4769 -1.8587 0.9731
1.6655 -6.4152 -1.8763 0.9728
2.2542 -6.3064 -1.8959 0.9725
3.4182 -5.9445 -1.9412 0.9719
5.0751 -5.0319 -2.0232 0.9707
5.5870 -4.6285 -2.0539 0.9703
6.5220 -3.6763 -2.1194 0.9694
6.4355 -2.9050 -1.9989 0.9711
6.7782 -2.3576 -2.0316 0.9706
7.0755 -1.7725 -2.0649 0.9701
7.3223 -1.1530 -2.0984 0.9697
7.5139 -0.5034 -2.1319 0.9692
