ply
format ascii 1.0
element vertex 1596
property float32 x
property float32 y
property float32 z
property float32 I
end_header
10.5465 -0.0482 -2.2293 0.9578
9.8954 1.7428 -2.1239 0.9598
7.6498 2.8206 -1.7234 0.9672
4.3633 4.4974 -1.3245 0.9747
3.8427 4.7440 -1.2905 0.9753
3.1995 4.7646 -1.2131 0.9768
1.8131 5.4168 -1.2074 0.9769
0.4355 3.0019 -0.6412 0.9877
-0.2262 6.4920 -1.3731 0.9738
-3.3197 10.6114 -2.3502 0.9556
-4.1724 10.0743 -2.3049 0.9564
-4.9534 9.4656 -2.2582 0.9573
-5.6578 8.7966 -2.2108 0.9581
-6.2829 8.0783 -2.1632 0.9590
-7.3565 7.8891 -2.2801 0.9569
-7.8555 7.0422 -2.2300 0.9578
-8.2681 6.1740 -2.1812 0.9587
-8.8426 4.4085 -2.0886 0.9604
-9.0105 3.5263 -2.0453 0.9612
-9.1034 2.6530 -2.0043 0.9620
-9.1250 1.7940 -1.9658 0.9627
-8.9703 0.1365 -1.8964 0.9640
-8.5771 -1.4168 -1.8376 0.9651
-7.9746 -2.8444 -1.7897 0.9660
-7.1891 -4.1308 -1.7526 0.9667
-6.7353 -4.7173 -1.7382 0.9669
-6.2443 -5.2642 -1.7264 0.9672
-5.7188 -5.7704 -1.7173 0.9673
-5.1610 -6.2348 -1.7108 0.9675
-4.5732 -6.6562 -1.7071 0.9675
-3.9577 -7.0335 -1.7059 0.9675
-3.3165 -7.3655 -1.7075 0.9675
-2.6517 -7.6510 -1.7117 0.9674
-1.9654 -7.8887 -1.7185 0.9673
-1.2597 -8.0772 -1.7280 0.9671
-0.5368 -8.2150 -1.7402 0.9669
0.2009 -8.3004 -1.7551 0.9666
0.9511 -8.3319 -1.7726 0.9663
1.7110 -8.3077 -1.7929 0.9659
2.4777 -8.2258 -1.8159 0.9655
3.2480 -8.0845 -1.8417 0.9650
7.7150 -5.8899 -2.0517 0.9611
8.3670 -4.2831 -1.9869 0.9623
10.1998 -1.1813 -2.1704 0.9589
10.4896 -0.2712 -2.2180 0.9580
10.6954 0.6812 -2.2654 0.9571
8.9264 2.2083 -1.9437 0.9631
6.2322 3.4933 -1.5102 0.9712
5.5412 3.7937 -1.4195 0.9729
7.0159 3.1085 -1.8035 0.9690
5.5894 3.7910 -1.5873 0.9726
3.9843 4.6689 -1.4425 0.9751
2.9119 4.9980 -1.3595 0.9765
2.4433 5.2159 -1.3537 0.9766
1.9775 5.4408 -1.3606 0.9765
1.5053 5.6776 -1.3805 0.9762
0.4908 2.8640 -0.6829 0.9881
0.4979 6.1910 -1.4597 0.9748
-0.0594 6.4497 -1.5159 0.9738
-0.6662 6.7308 -1.5896 0.9726
-1.1387 5.9819 -1.4311 0.9753
-4.1948 8.5420 -2.2366 0.9617
-4.8499 7.9829 -2.1953 0.9623
-5.4381 7.3746 -2.1535 0.9630
-6.4061 6.0460 -2.0702 0.9645
-7.9029 4.1962 -2.1030 0.9639
-8.0908 3.4080 -2.0633 0.9646
-8.2630 1.8456 -1.9899 0.9658
-8.2533 1.0815 -1.9563 0.9664
-7.3731 -2.4187 -1.8237 0.9686
-6.6908 -3.6196 -1.7878 0.9692
-6.2903 -4.1695 -1.7737 0.9695
-5.8538 -4.6837 -1.7619 0.9697
-5.3836 -5.1608 -1.7527 0.9698
-4.8823 -5.5995 -1.7460 0.9699
-4.3519 -5.9986 -1.7418 0.9700
-1.9842 -7.1750 -1.7496 0.9699
0.6722 -7.6173 -1.7972 0.9691
2.0606 -7.5351 -1.8359 0.9684
2.7598 -7.4129 -1.8590 0.9680
3.4578 -7.2348 -1.8846 0.9676
4.1510 -6.9992 -1.9125 0.9671
5.5057 -6.3511 -1.9754 0.9661
6.1577 -5.9367 -2.0103 0.9655
7.9233 -4.3158 -2.1205 0.9636
8.2921 -2.7465 -2.0530 0.9647
8.6749 -2.0347 -2.0941 0.9640
8.9977 -1.2765 -2.1358 0.9633
9.2536 -0.4768 -2.1777 0.9626
9.4359 0.3585 -2.2192 0.9619
9.5383 1.2221 -2.2600 0.9613
9.2530 2.0389 -2.2268 0.9618
8.1396 2.5746 -2.0064 0.9655
5.7415 3.7184 -1.6077 0.9723
4.5617 4.2806 -1.4702 0.9746
3.5989 4.8513 -1.4196 0.9755
2.5541 5.1636 -1.3539 0.9766
1.5109 3.8966 -0.9822 0.9830
1.6187 5.6199 -1.3745 0.9763
0.5572 2.8822 -0.6899 0.9880
-0.5165 6.6615 -1.5703 0.9729
-2.5074 9.5680 -2.3246 0.9602
-3.2968 9.1522 -2.2863 0.9608
-4.0295 8.6667 -2.2463 0.9615
-5.3044 7.5233 -2.1634 0.9629
-5.8401 6.8835 -2.1216 0.9636
-6.3057 6.2102 -2.0800 0.9643
-7.5712 5.1670 -2.1543 0.9630
-7.8478 4.3835 -2.1126 0.9637
-8.1877 2.8089 -2.0344 0.9651
-8.2562 2.0294 -1.9982 0.9657
-8.2611 1.2618 -1.9641 0.9662
-7.4430 -2.2674 -1.8286 0.9685
-6.7804 -3.4837 -1.7916 0.9692
-5.9607 -4.5647 -1.7645 0.9696
-5.4984 -5.0507 -1.7547 0.9698
-4.4805 -5.9074 -1.7425 0.9700
-3.9296 -6.2755 -1.7402 0.9700
-3.3535 -6.6020 -1.7403 0.9700
-2.7544 -6.8855 -1.7429 0.9700
-2.1345 -7.1248 -1.7480 0.9699
-1.4959 -7.3185 -1.7556 0.9698
-0.8409 -7.4655 -1.7657 0.9696
1.1986 -7.6109 -1.8108 0.9688
3.2921 -7.2823 -1.8783 0.9677
4.6735 -6.7804 -1.9354 0.9667
6.6389 -5.5799 -2.0382 0.9650
7.2448 -5.0581 -2.0766 0.9643
7.7457 -3.5577 -2.0033 0.9656
8.1931 -2.9085 -2.0433 0.9649
8.5890 -2.2084 -2.0843 0.9642
9.1991 -0.6705 -2.1677 0.9628
9.5215 1.0146 -2.2504 0.9614
8.3841 2.4570 -2.0533 0.9647
5.2667 3.9450 -1.5465 0.9733
4.2317 4.5516 -1.4606 0.9748
3.7179 4.7950 -1.4260 0.9754
2.6652 5.1116 -1.3548 0.9766
1.5919 3.8599 -0.9813 0.9830
1.7314 5.5632 -1.3693 0.9763
0.3753 3.0408 -0.7201 0.9875
0.2110 6.3243 -1.4872 0.9743
-0.3704 6.5938 -1.5521 0.9732
-1.7292 7.2216 -1.7452 0.9699
-3.1140 9.2577 -2.2956 0.9607
-3.8607 8.7880 -2.2559 0.9613
-4.5464 8.2555 -2.2150 0.9620
-5.7190 7.0390 -2.1315 0.9634
-6.2014 6.3729 -2.0899 0.9641
-2.4016 2.0625 -0.7440 0.9871
-7.4946 5.3519 -2.1644 0.9629
-7.7886 4.5705 -2.1224 0.9636
-8.0101 3.7829 -2.0820 0.9643
-8.2458 2.2139 -2.0066 0.9655
-8.1247 -0.0493 -1.9095 0.9672
-7.7646 -1.4529 -1.8565 0.9681
-6.0658 -4.4436 -1.7672 0.9696
-5.6113 -4.9385 -1.7568 0.9698
-5.1245 -5.3957 -1.7489 0.9699
-4.6077 -5.8138 -1.7435 0.9700
-4.0630 -6.1917 -1.7405 0.9700
-2.8988 -6.8220 -1.7421 0.9700
-2.2837 -7.0719 -1.7466 0.9699
-0.9980 -7.4348 -1.7630 0.9696
2.4271 -7.4779 -1.8477 0.9682
3.1262 -7.3266 -1.8721 0.9678
3.8221 -7.1185 -1.8989 0.9673
5.8502 -6.1414 -1.9934 0.9657
6.4904 -5.6951 -2.0294 0.9651
7.1036 -5.1877 -2.0673 0.9645
7.6838 -4.6196 -2.1071 0.9638
7.6324 -3.7044 -1.9939 0.9657
8.4999 -2.3794 -2.0745 0.9644
8.8520 -1.6427 -2.1160 0.9637
9.1406 -0.8620 -2.1578 0.9630
9.3587 -0.0428 -2.1995 0.9623
9.4999 0.8083 -2.2408 0.9616
7.6371 2.8159 -1.9130 0.9671
6.7876 3.2179 -1.7654 0.9696
4.3578 4.4917 -1.4708 0.9746
3.2532 4.8445 -1.3715 0.9763
2.7768 5.0600 -1.3565 0.9766
2.3100 5.2794 -1.3544 0.9766
1.8433 5.5072 -1.3649 0.9764
1.3674 5.7483 -1.3887 0.9760
0.3425 6.2632 -1.4742 0.9746
-0.2275 6.5277 -1.5351 0.9735
-0.7577 6.0647 -1.4364 0.9752
-2.9280 9.3592 -2.3048 0.9605
-4.3891 8.3873 -2.2248 0.9618
-5.5940 7.1925 -2.1415 0.9633
-7.0275 6.3000 -2.2181 0.9620
-7.4137 5.5360 -2.1746 0.9627
-7.7253 4.7571 -2.1323 0.9634
-7.9639 3.9704 -2.0914 0.9641
-8.2665 1.6252 -1.9800 0.9660
-8.1534 0.1240 -1.9165 0.9670
-7.8181 -1.2914 -1.8623 0.9680
-6.9531 -3.2062 -1.7995 0.9690
-5.7224 -4.8242 -1.7590 0.9697
-5.2431 -5.2904 -1.7505 0.9699
-4.7332 -5.7179 -1.7445 0.9700
-3.0421 -6.7561 -1.7414 0.9700
-2.4318 -7.0165 -1.7453 0.9699
0.1838 -7.5961 -1.7858 0.9693
2.2608 -7.5057 -1.8423 0.9683
4.3481 -6.9210 -1.9210 0.9670
5.0288 -6.6098 -1.9519 0.9664
5.6946 -6.2386 -1.9852 0.9659
6.3404 -5.8067 -2.0206 0.9653
7.5492 -4.7602 -2.0975 0.9640
8.7738 -1.8221 -2.1060 0.9638
9.5521 1.4736 -2.2715 0.9611
7.8592 2.7093 -1.9538 0.9664
6.9764 3.1274 -1.7968 0.9691
5.5587 3.8057 -1.5833 0.9727
4.4076 4.3538 -1.4561 0.9749
3.9593 4.6807 -1.4408 0.9751
7.8922 2.6823 -2.1582 0.9661
7.0048 3.1036 -1.9837 0.9688
5.5816 3.7858 -1.7462 0.9725
4.4279 4.3359 -1.6046 0.9747
3.9793 4.6631 -1.5872 0.9750
3.4161 4.8157 -1.5287 0.9759
2.4657 5.2637 -1.5050 0.9763
1.9937 5.4852 -1.5111 0.9762
1.5138 5.7097 -1.5294 0.9759
0.4870 2.8418 -0.7465 0.9882
0.4973 6.1831 -1.6061 0.9747
-1.1370 5.9728 -1.5742 0.9752
-2.4110 8.4619 -2.2781 0.9643
-4.3551 7.1686 -2.1718 0.9659
-5.3704 6.0635 -2.0972 0.9671
-6.9300 4.5164 -2.1417 0.9664
-7.1780 3.8113 -2.1043 0.9670
-7.3614 3.1008 -2.0682 0.9675
-7.4821 2.3902 -2.0337 0.9681
-7.5445 0.9886 -1.9701 0.9690
-7.4914 0.3061 -1.9413 0.9695
-7.2298 -1.0046 -1.8899 0.9703
-6.7794 -2.2240 -1.8473 0.9709
-6.1618 -3.3334 -1.8139 0.9715
-5.7966 -3.8422 -1.8006 0.9717
-5.3971 -4.3183 -1.7897 0.9718
-4.9657 -4.7601 -1.7810 0.9720
-4.5046 -5.1663 -1.7747 0.9721
-4.0160 -5.5356 -1.7707 0.9721
-1.8304 -6.6189 -1.7781 0.9720
0.6188 -7.0121 -1.8226 0.9713
1.2543 -6.9931 -1.8395 0.9711
3.1709 -6.6344 -1.9039 0.9701
3.8018 -6.4105 -1.9297 0.9697
5.6156 -5.4140 -2.0197 0.9683
6.7118 -4.4766 -2.0889 0.9672
2.3215 -1.0071 -0.6552 0.9896
8.3164 -0.4285 -2.1561 0.9662
8.4639 0.3216 -2.1930 0.9656
8.5396 1.0941 -2.2291 0.9651
8.5390 1.8816 -2.2639 0.9645
8.1253 2.5700 -2.2065 0.9654
4.1021 4.6049 -1.5967 0.9748
3.0503 4.9884 -1.5139 0.9761
2.5776 5.2111 -1.5053 0.9763
1.4942 3.8535 -1.0701 0.9831
0.5537 2.8636 -0.7552 0.9880
0.6239 6.1242 -1.5939 0.9749
-0.9969 5.9199 -1.5543 0.9755
-4.2186 7.2889 -2.1805 0.9658
-4.7704 6.7658 -2.1434 0.9664
-5.2624 6.2026 -2.1061 0.9669
-2.4421 2.0086 -0.8187 0.9870
-6.8613 4.6825 -2.1508 0.9663
-7.4153 -0.2028 -1.9207 0.9698
-7.2712 -0.8531 -1.8956 0.9702
-7.0792 -1.4812 -1.8726 0.9706
-6.2433 -3.2078 -1.8174 0.9714
-5.8866 -3.7241 -1.8036 0.9716
-5.4951 -4.2081 -1.7921 0.9718
-5.0711 -4.6582 -1.7829 0.9719
-4.6168 -5.0730 -1.7760 0.9721
-4.1346 -5.4512 -1.7715 0.9721
-3.0948 -6.0928 -1.7694 0.9722
-0.1583 -6.9690 -1.8049 0.9716
0.4686 -7.0095 -1.8189 0.9714
1.7414 -6.9454 -1.8540 0.9708
2.3815 -6.8384 -1.8749 0.9705
3.0197 -6.6798 -1.8980 0.9702
4.2760 -6.2038 -1.9509 0.9693
5.4780 -5.5110 -2.0119 0.9684
6.0470 -5.0825 -2.0453 0.9679
7.0813 -4.0548 -2.1128 0.9668
7.0182 -3.2236 -1.9996 0.9686
7.4096 -2.6304 -2.0358 0.9680
8.0420 -1.3161 -2.1099 0.9669
8.2713 -0.6028 -2.1473 0.9663
8.5283 0.9088 -2.2206 0.9652
8.3691 2.4526 -2.2580 0.9646
5.8892 3.6386 -1.7924 0.9718
5.2595 3.9396 -1.7015 0.9732
4.6858 4.2132 -1.6315 0.9743
3.7133 4.7891 -1.5691 0.9753
3.1637 4.9349 -1.5178 0.9761
0.3735 3.0263 -0.7895 0.9875
0.2107 6.3160 -1.6362 0.9742
-0.3699 6.5849 -1.7076 0.9731
-3.4571 7.8693 -2.2255 0.9651
-4.0789 7.4066 -2.1893 0.9657
-4.6445 6.8941 -2.1523 0.9662
-5.1509 6.3398 -2.1150 0.9668
-5.5962 5.7510 -2.0777 0.9674
-6.7889 4.8480 -2.1600 0.9661
-7.0682 4.1478 -2.1219 0.9667
-7.5506 1.3183 -1.9845 0.9688
-7.5234 0.6289 -1.9547 0.9693
-7.4423 -0.0451 -1.9270 0.9697
-7.3099 -0.7004 -1.9013 0.9701
-7.1291 -1.3340 -1.8779 0.9705
-6.9025 -1.9433 -1.8567 0.9708
-5.1748 -4.5543 -1.7848 0.9719
-4.7275 -4.9776 -1.7774 0.9720
-3.7496 -5.7141 -1.7696 0.9722
-3.2233 -6.0248 -1.7691 0.9722
-2.6751 -6.2954 -1.7710 0.9721
-0.9201 -6.8545 -1.7907 0.9718
1.5893 -6.9634 -1.8493 0.9709
2.2293 -6.8685 -1.8697 0.9706
4.1288 -6.2717 -1.9441 0.9695
5.3391 -5.6049 -2.0042 0.9685
5.9140 -5.1894 -2.0372 0.9680
6.9186 -3.3579 -1.9912 0.9687
7.3207 -2.7756 -2.0271 0.9682
7.9785 -1.4806 -2.1010 0.9670
8.4024 -0.0384 -2.1755 0.9659
8.5128 0.7243 -2.2121 0.9653
8.5490 1.5057 -2.2476 0.9648
6.0493 3.5620 -1.8176 0.9714
5.4036 3.8709 -1.7210 0.9729
4.3523 4.4860 -1.6183 0.9745
3.8332 4.7323 -1.5768 0.9752
2.7790 5.0640 -1.4956 0.9764
0.3420 6.2551 -1.6220 0.9744
-0.2272 6.5189 -1.6889 0.9734
-1.5472 7.1280 -1.8886 0.9703
-2.6160 8.3619 -2.2685 0.9644
-3.9360 7.5214 -2.1980 0.9655
-5.0359 6.4750 -2.1239 0.9667
-5.4959 5.8937 -2.0865 0.9673
-5.8939 5.2837 -2.0495 0.9678
-7.0077 4.3153 -2.1309 0.9666
-7.5054 2.1873 -2.0241 0.9682
-7.5348 0.7915 -1.9616 0.9692
-7.3459 -0.5464 -1.9072 0.9700
-7.1763 -1.1854 -1.8833 0.9704
-6.7007 -2.3900 -1.8420 0.9710
-5.6855 -3.9820 -1.7972 0.9717
-5.2767 -4.4484 -1.7869 0.9719
-4.3673 -5.2760 -1.7733 0.9721
-3.8713 -5.6345 -1.7700 0.9721
-2.8073 -6.2347 -1.7704 0.9721
-2.2437 -6.4739 -1.7740 0.9721
-1.0644 -6.8245 -1.7884 0.9719
0.8004 -7.0117 -1.8272 0.9713
2.0770 -6.8957 -1.8646 0.9707
2.7166 -6.7617 -1.8867 0.9703
3.3524 -6.5757 -1.9111 0.9700
4.5979 -6.0433 -1.9661 0.9691
5.1990 -5.6956 -1.9967 0.9686
6.3345 -4.8359 -2.0634 0.9676
6.8584 -4.3246 -2.0993 0.9671
2.3184 -0.9359 -0.6473 0.9897
7.5960 -2.3017 -2.0550 0.9677
8.5474 1.3186 -2.2392 0.9649
7.8457 2.7047 -2.1487 0.9663
6.9654 3.1225 -1.9764 0.9690
6.2140 3.4831 -1.8444 0.9710
5.5510 3.8004 -1.7418 0.9726
3.9544 4.6749 -1.5854 0.9750
7.5956 2.5815 -2.2710 0.9672
6.9936 3.0987 -2.1655 0.9687
6.2390 3.4615 -2.0198 0.9708
5.5738 3.7805 -1.9066 0.9724
4.9740 4.0672 -1.8189 0.9736
4.4222 4.3303 -1.7521 0.9746
1.9912 5.4785 -1.6502 0.9761
1.5119 5.7026 -1.6701 0.9758
0.4966 6.1751 -1.7538 0.9746
-0.6644 6.7120 -1.9094 0.9724
-2.8103 7.3100 -2.2171 0.9680
-3.4026 6.9288 -2.1852 0.9684
-4.8837 5.5140 -2.0852 0.9698
-2.5340 1.9953 -0.9131 0.9867
-6.3319 4.1266 -2.1396 0.9691
-6.5684 3.4877 -2.1054 0.9696
-6.7461 2.8416 -2.0723 0.9700
-6.9307 1.5480 -2.0104 0.9709
-6.9006 0.2820 -1.9551 0.9717
-6.8105 -0.3313 -1.9303 0.9721
-6.6735 -0.9273 -1.9074 0.9724
-6.4921 -1.5032 -1.8865 0.9727
-6.2687 -2.0564 -1.8677 0.9729
-5.7054 -3.0865 -1.8364 0.9734
-4.6041 -4.4134 -1.8055 0.9738
-3.7251 -5.1347 -1.7958 0.9740
-3.2487 -5.4422 -1.7943 0.9740
-2.7505 -5.7127 -1.7949 0.9740
-1.6973 -6.1376 -1.8027 0.9739
-0.5833 -6.4000 -1.8193 0.9736
1.1602 -6.4683 -1.8604 0.9731
1.7502 -6.4000 -1.8783 0.9728
2.3396 -6.2843 -1.8983 0.9725
3.5036 -5.9077 -1.9444 0.9719
5.1563 -4.9713 -2.0276 0.9707
6.1456 -4.0990 -2.0913 0.9698
6.1221 -3.3347 -1.9735 0.9714
2.3171 -1.0051 -0.7150 0.9896
7.3610 -1.0443 -2.1047 0.9696
7.6651 0.2912 -2.1715 0.9686
7.6262 2.4122 -2.2643 0.9673
4.5499 4.2695 -1.7663 0.9744
3.5901 4.8394 -1.7058 0.9753
3.0465 4.9824 -1.6533 0.9760
2.5745 5.2047 -1.6438 0.9761
1.6270 5.6489 -1.6642 0.9759
0.5502 2.8456 -0.8205 0.9880
0.6231 6.1164 -1.7405 0.9748
0.0769 6.3696 -1.8033 0.9739
-0.9957 5.9128 -1.6975 0.9754
-3.8225 6.6045 -2.1603 0.9688
-4.3294 6.1404 -2.1269 0.9692
-4.7836 5.6383 -2.0932 0.9697
-5.1833 5.1048 -2.0595 0.9702
-2.4405 2.0073 -0.8946 0.9869
-6.7091 2.9956 -2.0800 0.9699
-6.9203 1.7011 -2.0174 0.9708
-6.0717 -2.4615 -1.8547 0.9731
-5.4529 -3.4497 -1.8267 0.9735
-4.7014 -4.3186 -1.8072 0.9738
-2.8708 -5.6518 -1.7946 0.9740
-2.3574 -5.8932 -1.7969 0.9740
-1.2790 -6.2573 -1.8080 0.9738
0.4338 -6.4890 -1.8411 0.9733
1.0202 -6.4777 -1.8564 0.9731
1.6098 -6.4205 -1.8739 0.9729
2.1996 -6.3162 -1.8934 0.9726
2.7865 -6.1638 -1.9150 0.9723
3.3669 -5.9628 -1.9385 0.9719
3.9373 -5.7123 -1.9640 0.9716
4.4936 -5.4121 -1.9914 0.9712
6.0343 -4.2129 -2.0834 0.9699
6.4736 -3.7068 -2.1118 0.9695
6.7560 -2.3984 -2.0295 0.9706
7.6419 0.1276 -2.1637 0.9687
7.7143 0.8220 -2.1962 0.9683
7.7188 1.5295 -2.2276 0.9678
6.5850 3.2952 -2.0845 0.9699
5.8807 3.6334 -1.9569 0.9717
4.6796 4.2077 -1.7815 0.9742
3.7087 4.7832 -1.7134 0.9752
3.1598 4.9289 -1.6574 0.9760
2.6864 5.1521 -1.6449 0.9761
0.6453 2.9945 -0.8672 0.9873
0.3721 3.0147 -0.8599 0.9875
-0.3694 6.5758 -1.8645 0.9730
-1.7239 7.1994 -2.0957 0.9697
-2.5134 7.4721 -2.2318 0.9678
-3.1265 7.1167 -2.2005 0.9682
-3.6945 6.7086 -2.1681 0.9687
-4.2135 6.2544 -2.1349 0.9691
-5.0933 5.2342 -2.0675 0.9701
-2.4034 2.0640 -0.8969 0.9869
-6.1915 4.4214 -2.1538 0.9689
-6.4633 3.7928 -2.1215 0.9693
-6.6688 3.1495 -2.0879 0.9698
-6.8593 -0.0416 -1.9419 0.9719
-6.7444 -0.6462 -1.9180 0.9722
-6.3801 -1.7962 -1.8764 0.9728
-5.1812 -3.7956 -1.8182 0.9737
-4.3838 -4.6158 -1.8021 0.9739
-3.9434 -4.9757 -1.7973 0.9740
-2.9900 -5.5887 -1.7943 0.9740
-0.8528 -6.3528 -1.8146 0.9737
-0.2835 -6.4407 -1.8251 0.9736
0.2951 -6.4850 -1.8378 0.9734
0.8803 -6.4846 -1.8526 0.9732
1.4694 -6.4383 -1.8695 0.9729
2.0595 -6.3453 -1.8885 0.9726
2.6473 -6.2045 -1.9096 0.9723
4.3628 -5.4880 -1.9847 0.9713
4.9055 -5.1497 -2.0134 0.9709
6.3205 -3.0676 -1.9889 0.9712
6.6774 -2.5317 -2.0216 0.9707
6.9903 -1.9568 -2.0550 0.9703
7.2542 -1.3462 -2.0887 0.9698
7.6151 -0.0348 -2.1558 0.9688
7.7031 0.6554 -2.1886 0.9684
7.5532 2.7850 -2.2790 0.9671
4.8117 4.1447 -1.7978 0.9739
4.3468 4.4803 -1.7672 0.9744
3.2737 4.8751 -1.6624 0.9759
2.7756 5.0579 -1.6333 0.9763
1.8551 5.5422 -1.6545 0.9760
1.3720 5.7679 -1.6784 0.9757
0.4177 2.8788 -0.8235 0.9880
0.3416 6.2470 -1.7711 0.9743
-0.8492 6.7971 -1.9392 0.9719
-2.9846 7.2062 -2.2081 0.9681
-3.5637 6.8101 -2.1759 0.9686
-4.0947 6.3663 -2.1429 0.9690
-4.5742 5.8814 -2.1093 0.9695
-5.0001 5.3621 -2.0755 0.9700
-5.6857 4.2456 -2.0088 0.9709
-6.6253 3.3031 -2.0957 0.9697
-6.8903 2.0081 -2.0318 0.9706
-6.9392 1.3642 -2.0020 0.9710
-6.9349 0.7285 -1.9740 0.9714
-6.6260 -1.0945 -1.9012 0.9725
-5.2680 -3.6896 -1.8207 0.9736
-4.4847 -4.5252 -1.8036 0.9739
-3.5909 -5.2264 -1.7952 0.9740
-2.0809 -6.0042 -1.7989 0.9739
-1.5410 -6.1854 -1.8046 0.9738
-0.9866 -6.3256 -1.8124 0.9737
0.1568 -6.4785 -1.8345 0.9734
1.9192 -6.3717 -1.8838 0.9727
2.5079 -6.2423 -1.9044 0.9724
3.0919 -6.0645 -1.9271 0.9721
3.6675 -5.8377 -1.9517 0.9717
4.2310 -5.5611 -1.9782 0.9714
4.7782 -5.2347 -2.0064 0.9710
6.2772 -3.9581 -2.1008 0.9696
6.9202 -2.0969 -2.0470 0.9704
7.1961 -1.4944 -2.0806 0.9699
7.7253 1.1918 -2.2128 0.9680
7.5888 2.6161 -2.2724 0.9672
6.2048 3.4779 -2.0136 0.9709
4.3963 4.3426 -1.7494 0.9746
3.9494 4.6691 -1.7312 0.9749
6.7396 2.9861 -2.2673 0.9696
6.2296 3.4563 -2.1912 0.9706
3.9693 4.6513 -1.8808 0.9747
2.4597 5.2509 -1.7835 0.9760
1.5100 5.6955 -1.8123 0.9756
0.4960 6.1670 -1.9030 0.9744
-0.0591 6.4238 -1.9759 0.9735
-0.6634 6.7024 -2.0716 0.9722
-1.1335 5.9545 -1.8644 0.9750
-2.5604 6.6600 -2.1946 0.9706
-3.1039 6.3207 -2.1659 0.9710
-3.6060 5.9355 -2.1362 0.9714
-4.0632 5.5101 -2.1058 0.9718
-4.8337 4.5620 -2.0443 0.9726
-2.5268 1.9897 -0.9892 0.9866
-6.3379 2.0247 -2.0465 0.9725
-6.3127 -0.3071 -1.9439 0.9739
-6.0276 -1.3956 -1.9030 0.9744
-5.8243 -1.9106 -1.8854 0.9747
-5.5835 -2.4031 -1.8697 0.9749
-4.2878 -4.1103 -1.8269 0.9754
-3.8915 -4.4632 -1.8213 0.9755
-3.4705 -4.7837 -1.8178 0.9756
-2.5625 -5.3224 -1.8169 0.9756
-1.0678 -5.8567 -1.8311 0.9754
-0.0086 -6.0172 -1.8508 0.9751
1.0783 -6.0115 -1.8785 0.9748
2.1712 -5.8320 -1.9141 0.9743
2.7124 -5.6752 -1.9347 0.9740
4.7619 -4.5910 -2.0345 0.9727
6.5272 -1.5310 -2.0621 0.9723
6.9963 0.2658 -2.1535 0.9711
6.9349 2.1935 -2.2372 0.9700
6.7850 2.8351 -2.2618 0.9697
6.3995 3.3745 -2.2252 0.9702
4.0917 4.5932 -1.8920 0.9746
3.5856 4.8333 -1.8510 0.9751
1.6250 5.6419 -1.8059 0.9757
0.6223 6.1084 -1.8886 0.9746
-0.5144 6.6338 -2.0465 0.9725
-1.8365 7.0082 -2.2283 0.9701
-2.4255 6.7333 -2.2013 0.9705
-4.7525 4.6805 -2.0516 0.9725
-5.9996 3.3512 -2.1137 0.9717
-6.1836 2.7610 -2.0829 0.9721
-6.4219 0.9809 -1.9982 0.9732
-6.4019 0.3982 -1.9729 0.9735
-5.6440 -2.2882 -1.8732 0.9748
-5.3760 -2.7621 -1.8590 0.9750
-5.0743 -3.2102 -1.8468 0.9752
-4.3782 -4.0217 -1.8285 0.9754
-3.9881 -4.3821 -1.8225 0.9755
-3.5727 -4.7105 -1.8184 0.9756
-3.1343 -5.0054 -1.8165 0.9756
-2.6747 -5.2657 -1.8166 0.9756
-1.1910 -5.8269 -1.8293 0.9754
-0.6687 -5.9369 -1.8376 0.9753
0.4034 -6.0351 -1.8604 0.9750
1.4953 -5.9639 -1.8912 0.9746
3.1199 -5.5252 -1.9516 0.9738
4.1555 -5.0049 -2.0008 0.9731
4.6479 -4.6759 -2.0279 0.9728
5.1179 -4.3015 -2.0563 0.9724
6.8619 -0.5001 -2.1162 0.9716
6.9773 0.1165 -2.1464 0.9712
6.5748 3.2901 -2.2613 0.9697
5.8722 3.6281 -2.1231 0.9715
5.2451 3.9288 -2.0157 0.9729
4.6734 4.2021 -1.9331 0.9740
3.7041 4.7772 -1.8593 0.9750
1.5351 3.7222 -1.2384 0.9833
1.7392 5.5885 -1.8002 0.9758
0.6511 3.0214 -0.9507 0.9871
0.3720 3.0137 -0.9340 0.9874
-0.3688 6.5667 -2.0230 0.9729
-0.8664 5.9102 -1.8373 0.9753
-2.8504 6.4882 -2.1797 0.9708
-3.3726 6.1241 -2.1504 0.9712
-3.8515 5.7171 -2.1203 0.9716
-4.2842 5.2730 -2.0897 0.9720
-4.6684 4.7975 -2.0589 0.9724
-5.2866 3.7752 -1.9981 0.9732
-6.1447 2.9019 -2.0902 0.9720
-6.3793 1.7128 -2.0316 0.9727
-6.4110 0.5359 -1.9788 0.9734
-6.3552 -0.0385 -1.9548 0.9738
-6.2543 -0.5992 -1.9325 0.9740
-5.9258 -1.6683 -1.8935 0.9746
-5.7026 -2.1718 -1.8769 0.9748
-5.1490 -3.1061 -1.8496 0.9751
-3.6737 -4.6354 -1.8192 0.9756
-2.7858 -5.2070 -1.8164 0.9756
-1.8201 -5.6364 -1.8218 0.9755
-0.7939 -5.9144 -1.8355 0.9753
0.8184 -6.0283 -1.8712 0.9749
1.3652 -5.9815 -1.8871 0.9747
1.9120 -5.8908 -1.9049 0.9744
2.9933 -5.5749 -1.9462 0.9739
3.5211 -5.3486 -1.9696 0.9736
4.0356 -5.0764 -1.9947 0.9732
5.4582 -3.9861 -2.0789 0.9721
6.1317 -2.3248 -2.0170 0.9729
6.4104 -1.7944 -2.0475 0.9725
6.6433 -1.2328 -2.0782 0.9721
6.9550 -0.0318 -2.1392 0.9713
7.0261 0.5978 -2.1689 0.9709
6.6799 3.1668 -2.2738 0.9695
6.0315 3.5515 -2.1529 0.9711
4.3411 4.4745 -1.9175 0.9742
3.8236 4.7205 -1.8685 0.9749
3.2697 4.8690 -1.8040 0.9758
2.7722 5.0517 -1.7724 0.9762
2.3251 5.3141 -1.7841 0.9760
1.8528 5.5354 -1.7954 0.9759
-0.2265 6.5011 -2.0008 0.9731
-1.5425 7.1063 -2.2366 0.9700
-2.1496 6.8710 -2.2144 0.9703
-2.7201 6.5678 -2.1865 0.9707
-3.2522 6.2148 -2.1575 0.9711
-3.7417 5.8175 -2.1275 0.9715
-5.2237 3.9007 -2.0052 0.9731
-6.1028 3.0426 -2.0974 0.9719
-6.2588 2.4494 -2.0673 0.9723
-6.3622 1.8542 -2.0383 0.9726
-6.4145 1.2611 -2.0107 0.9730
-6.3726 0.0969 -1.9603 0.9737
-6.2823 -0.4673 -1.9376 0.9740
-6.1485 -1.0156 -1.9168 0.9743
-5.7590 -2.0541 -1.8807 0.9747
-5.2219 -3.0004 -1.8524 0.9751
-4.5543 -3.8394 -1.8322 0.9754
-3.7733 -4.5584 -1.8201 0.9755
-2.8958 -5.1463 -1.8163 0.9756
3.3967 -5.4066 -1.9639 0.9736
4.8974 -4.4852 -2.0426 0.9726
5.3538 -4.0873 -2.0717 0.9722
5.7781 -3.6434 -2.1010 0.9718
6.3481 -1.9235 -2.0402 0.9726
6.7875 -0.7861 -2.1016 0.9718
6.9295 -0.1792 -2.1321 0.9714
6.8987 2.3782 -2.2444 0.9699
6.7298 3.0169 -2.2684 0.9696
6.1955 3.4727 -2.1845 0.9707
5.5354 3.7897 -2.0633 0.9723
3.9444 4.6631 -1.8786 0.9748
6.3225 2.1488 -2.2197 0.9722
6.1653 2.7316 -2.2415 0.9720
4.9604 4.0562 -2.1299 0.9734
1.5081 5.6883 -1.9562 0.9755
-0.0590 6.4150 -2.1325 0.9733
-0.6624 6.6928 -2.2356 0.9720
-2.8503 5.8043 -2.1495 0.9731
-3.3151 5.4567 -2.1223 0.9734
-4.1217 4.6537 -2.0664 0.9741
-4.4592 4.2086 -2.0382 0.9745
-2.5196 1.9840 -1.0660 0.9866
-4.9966 3.2563 -1.9825 0.9752
-5.5986 2.9727 -2.1071 0.9736
-5.8792 1.8781 -2.0516 0.9743
-5.9470 1.3283 -2.0255 0.9746
-5.9682 0.7821 -2.0008 0.9749
-5.8771 -0.2859 -1.9559 0.9755
-5.7683 -0.8015 -1.9358 0.9758
-5.6198 -1.3012 -1.9175 0.9760
-5.4337 -1.7825 -1.9009 0.9762
-5.2119 -2.2432 -1.8861 0.9764
-4.9565 -2.6814 -1.8732 0.9765
-4.6695 -3.0951 -1.8622 0.9767
-4.0086 -3.8426 -1.8458 0.9769
-2.8308 -4.7421 -1.8358 0.9770
-2.3965 -4.9776 -1.8364 0.9770
-1.4781 -5.3449 -1.8433 0.9769
-0.9981 -5.4745 -1.8498 0.9768
-0.5073 -5.5667 -1.8581 0.9767
-0.0080 -5.6206 -1.8683 0.9766
1.0062 -5.6097 -1.8945 0.9763
1.5159 -5.5433 -1.9103 0.9761
2.0235 -5.4354 -1.9279 0.9758
3.9706 -4.5803 -2.0150 0.9748
5.2434 -3.4972 -2.0951 0.9738
2.3080 -1.0012 -0.8363 0.9895
5.7868 -1.9167 -2.0263 0.9746
6.4595 0.8276 -2.1647 0.9729
6.4346 1.4179 -2.1902 0.9726
6.3511 2.0089 -2.2142 0.9723
6.0053 3.1666 -2.2567 0.9718
4.5378 4.2582 -2.0685 0.9741
4.0152 4.5073 -2.0065 0.9749
3.5187 4.7431 -1.9631 0.9754
1.4175 3.6557 -1.3033 0.9836
0.5761 2.9795 -1.0087 0.9873
0.6215 6.1004 -2.0383 0.9745
0.0767 6.3523 -2.1117 0.9736
-0.5136 6.6243 -2.2086 0.9724
-2.2243 6.1749 -2.1817 0.9727
-2.7342 5.8808 -2.1558 0.9730
-4.0348 4.7557 -2.0731 0.9741
-4.3831 4.3166 -2.0449 0.9744
-2.4374 2.0047 -1.0490 0.9868
-5.7287 2.5579 -2.0855 0.9739
-5.9674 0.9115 -2.0066 0.9749
-5.9540 0.3703 -1.9830 0.9752
-5.8969 -0.1613 -1.9609 0.9754
-4.7405 -2.9990 -1.8646 0.9766
-3.7290 -4.0974 -1.8416 0.9769
-3.3411 -4.4051 -1.8378 0.9770
-2.5015 -4.9247 -1.8361 0.9770
-2.0538 -5.1342 -1.8381 0.9770
-1.1133 -5.4470 -1.8481 0.9768
-0.6249 -5.5482 -1.8559 0.9767
-0.1274 -5.6113 -1.8657 0.9766
0.3767 -5.6354 -1.8774 0.9765
1.3947 -5.5628 -1.9064 0.9761
1.9031 -5.4648 -1.9235 0.9759
2.9038 -5.1426 -1.9631 0.9754
3.3896 -4.9177 -1.9853 0.9751
3.8610 -4.6502 -2.0091 0.9748
4.3144 -4.3404 -2.0343 0.9745
4.7458 -3.9888 -2.0607 0.9742
5.1513 -3.5964 -2.0883 0.9739
5.5093 -3.1546 -2.1103 0.9736
5.4452 -2.5011 -1.9918 0.9751
5.7258 -2.0326 -2.0196 0.9747
5.9665 -1.5341 -2.0478 0.9744
6.3131 -0.4601 -2.1041 0.9737
6.4119 0.1071 -2.1317 0.9733
6.4570 0.6880 -2.1585 0.9730
6.4458 1.2772 -2.1843 0.9727
6.3764 1.8686 -2.2087 0.9724
6.2476 2.4558 -2.2314 0.9721
6.0589 3.0320 -2.2521 0.9718
4.6671 4.1965 -2.0863 0.9739
4.1210 4.4325 -2.0118 0.9748
3.1520 4.9166 -1.9413 0.9757
-0.8659 5.9065 -1.9843 0.9752
-2.6161 5.9549 -2.1620 0.9730
-3.5429 5.2590 -2.1078 0.9736
-3.9455 4.8561 -2.0798 0.9740
-4.3043 4.4234 -2.0516 0.9743
-2.4052 2.0656 -1.0539 0.9867
-5.6912 2.6878 -2.0921 0.9738
-5.9207 1.5896 -2.0378 0.9745
-5.9639 1.0412 -2.0124 0.9748
-5.9612 0.4983 -1.9885 0.9751
-5.8251 -0.5581 -1.9452 0.9756
-5.6953 -1.0657 -1.9260 0.9759
-4.8098 -2.9015 -1.8672 0.9766
-4.1756 -3.6750 -1.8490 0.9768
-3.4354 -4.3347 -1.8385 0.9770
-3.0306 -4.6185 -1.8362 0.9770
-2.6054 -4.8698 -1.8359 0.9770
-1.7019 -5.2704 -1.8410 0.9769
-1.2279 -5.4174 -1.8465 0.9769
-0.7420 -5.5276 -1.8539 0.9768
-0.2465 -5.5998 -1.8632 0.9766
0.7639 -5.6269 -1.8876 0.9763
1.7825 -5.4919 -1.9193 0.9760
2.2879 -5.3620 -1.9378 0.9757
2.7865 -5.1898 -1.9581 0.9755
3.2752 -4.9750 -1.9799 0.9752
3.7504 -4.7176 -2.0033 0.9749
4.2084 -4.4178 -2.0282 0.9746
4.6454 -4.0761 -2.0543 0.9743
5.0574 -3.6934 -2.0817 0.9739
5.3731 -2.6078 -1.9853 0.9751
5.9130 -1.6552 -2.0411 0.9744
6.2819 -0.5924 -2.0974 0.9738
6.3932 -0.0293 -2.1251 0.9734
6.4513 0.5489 -2.1522 0.9731
6.4537 1.1367 -2.1783 0.9728
6.3982 1.7281 -2.2030 0.9725
6.2836 2.3169 -2.2262 0.9722
6.1092 2.8963 -2.2474 0.9719
5.8753 3.4595 -2.2664 0.9717
3.7522 4.6323 -1.9816 0.9752
2.7688 5.0454 -1.9131 0.9760
2.3222 5.3075 -1.9257 0.9759
0.3406 6.2304 -2.0741 0.9740
-0.2262 6.4920 -2.1593 0.9730
-1.9703 6.2980 -2.1936 0.9726
-2.4960 6.0265 -2.1682 0.9729
-2.9874 5.7088 -2.1418 0.9732
-3.8536 4.9548 -2.0865 0.9739
-4.8262 3.6038 -2.0021 0.9749
-5.4393 3.3495 -2.1234 0.9734
-5.6509 2.8173 -2.0989 0.9737
-5.8016 2.2705 -2.0709 0.9741
-5.9035 1.7205 -2.0440 0.9744
-5.9659 0.6267 -1.9940 0.9750
-5.9295 0.0902 -1.9712 0.9753
-5.8501 -0.4351 -1.9500 0.9756
-5.5703 -1.4411 -1.9126 0.9760
-5.3737 -1.9167 -1.8965 0.9762
-5.1421 -2.3712 -1.8822 0.9764
-2.7083 -4.8130 -1.8358 0.9770
-1.3418 -5.3858 -1.8450 0.9769
2.6687 -5.2346 -1.9531 0.9755
3.1601 -5.0300 -1.9746 0.9753
3.6388 -4.7827 -1.9976 0.9750
4.1012 -4.4930 -2.0221 0.9747
5.3467 -3.3714 -2.1011 0.9737
5.2990 -2.7126 -1.9788 0.9752
2.3185 -0.9359 -0.8311 0.9895
6.0754 -1.2617 -2.0626 0.9742
6.2480 -0.7236 -2.0908 0.9738
6.4424 0.4103 -2.1458 0.9732
6.4583 0.9963 -2.1722 0.9728
6.4168 1.5874 -2.1973 0.9725
5.9362 3.3274 -2.2621 0.9717
5.4710 3.0354 -2.2374 0.9738
5.2142 3.5366 -2.2531 0.9736
4.9060 4.0117 -2.2663 0.9734
3.3990 4.7916 -2.1009 0.9754
2.9228 5.0168 -2.0763 0.9756
2.4535 5.2378 -2.0684 0.9757
1.5062 5.6811 -2.1018 0.9753
0.4947 6.1506 -2.2066 0.9741
-0.6123 6.1859 -2.2229 0.9739
-1.1301 5.9364 -2.1610 0.9747
-1.6721 5.8683 -2.1821 0.9744
-2.1668 5.6360 -2.1593 0.9747
-2.6320 5.3597 -2.1353 0.9750
-3.0642 5.0436 -2.1104 0.9752
-4.1341 3.9017 -2.0328 0.9761
-2.5123 1.9783 -1.1435 0.9865
-4.6415 3.0249 -1.9812 0.9767
-5.5448 1.2385 -2.0317 0.9762
-5.5692 0.7298 -2.0086 0.9764
-5.5512 0.2268 -1.9868 0.9767
-5.4924 -0.2672 -1.9665 0.9769
-5.2587 -1.2176 -1.9303 0.9773
-5.0874 -1.6689 -1.9147 0.9775
-4.3775 -2.9016 -1.8781 0.9779
-4.0819 -3.2660 -1.8695 0.9780
-3.7601 -3.6044 -1.8626 0.9781
-3.4138 -3.9153 -1.8576 0.9782
-2.6562 -4.4496 -1.8532 0.9782
-2.2487 -4.6705 -1.8537 0.9782
-1.8248 -4.8589 -1.8561 0.9782
-0.9361 -5.1344 -1.8664 0.9781
-0.4757 -5.2194 -1.8742 0.9780
0.4660 -5.2797 -1.8954 0.9777
0.9423 -5.2533 -1.9086 0.9776
1.4188 -5.1884 -1.9235 0.9774
1.8929 -5.0844 -1.9401 0.9772
2.3614 -4.9408 -1.9583 0.9770
4.1182 -3.9704 -2.0457 0.9760
4.5108 -3.6304 -2.0706 0.9757
4.8761 -3.2522 -2.0960 0.9754
4.8391 -2.6358 -1.9705 0.9769
5.3671 -1.7777 -2.0219 0.9763
5.5754 -1.3077 -2.0479 0.9760
5.7420 -0.8146 -2.0739 0.9757
5.8637 -0.3021 -2.0997 0.9754
5.7149 2.3880 -2.2149 0.9740
4.9838 3.9014 -2.2634 0.9735
4.5317 4.2525 -2.2223 0.9739
3.7814 4.2449 -2.0330 0.9761
3.4238 4.6152 -2.0550 0.9759
3.0352 4.9637 -2.0806 0.9756
0.5736 2.9666 -1.0805 0.9872
0.0758 6.2754 -2.2443 0.9737
-0.4815 6.2097 -2.2273 0.9739
-0.9921 5.8914 -2.1365 0.9749
-1.5505 5.9167 -2.1873 0.9744
-2.5243 5.4292 -2.1411 0.9749
-3.3693 4.7787 -2.0910 0.9755
-3.7360 4.4034 -2.0651 0.9758
-4.0625 4.0009 -2.0390 0.9761
-2.4361 2.0037 -1.1280 0.9867
-4.5901 3.1325 -1.9873 0.9767
-5.3306 2.3801 -2.0877 0.9755
-5.2943 -1.1077 -1.9343 0.9773
-4.9340 -2.0003 -1.9039 0.9776
-4.7041 -2.4170 -1.8913 0.9778
-4.4438 -2.8113 -1.8804 0.9779
-4.1547 -3.1816 -1.8714 0.9780
-3.4983 -3.8440 -1.8587 0.9782
-3.1348 -4.1331 -1.8551 0.9782
-2.7504 -4.3924 -1.8533 0.9782
-2.3471 -4.6208 -1.8534 0.9782
-0.5860 -5.2025 -1.8722 0.9780
0.3530 -5.2804 -1.8925 0.9778
0.8289 -5.2631 -1.9053 0.9776
1.7805 -5.1127 -1.9360 0.9773
2.7131 -4.8048 -1.9732 0.9768
4.0214 -4.0456 -2.0399 0.9761
4.4197 -3.7147 -2.0646 0.9758
4.7929 -3.3462 -2.0903 0.9755
5.3118 -1.8857 -2.0157 0.9763
5.7063 -0.9338 -2.0678 0.9757
5.9246 0.0990 -2.1190 0.9751
5.9447 1.1779 -2.1672 0.9746
5.8756 1.7218 -2.1895 0.9743
5.0589 3.7893 -2.2603 0.9735
3.8959 4.1904 -2.0461 0.9760
3.4342 4.4291 -2.0042 0.9765
3.1480 4.9104 -2.0859 0.9755
1.5596 3.7816 -1.4628 0.9828
1.7349 5.5744 -2.0878 0.9755
0.6551 3.0399 -1.1121 0.9869
0.2096 6.2822 -2.2478 0.9737
-1.4276 5.9623 -2.1924 0.9743
-1.9349 5.7523 -2.1703 0.9745
-2.8630 5.1986 -2.1223 0.9751
-4.5363 3.2394 -1.9934 0.9766
-5.2945 2.5004 -2.0939 0.9754
-5.5180 1.4815 -2.0432 0.9760
-5.4458 -0.5218 -1.9564 0.9770
-5.3278 -0.9969 -1.9383 0.9772
-3.5814 -3.7709 -1.8598 0.9781
-3.2232 -4.0670 -1.8557 0.9782
-2.8436 -4.3335 -1.8536 0.9782
-1.5966 -4.9444 -1.8581 0.9782
3.9234 -4.1187 -2.0342 0.9761
4.3271 -3.7968 -2.0586 0.9758
4.9907 -2.4222 -1.9838 0.9767
5.2544 -1.9921 -2.0095 0.9764
5.4813 -1.5344 -2.0355 0.9761
5.8116 -0.5481 -2.0875 0.9755
5.9086 -0.0270 -2.1130 0.9752
5.9566 0.5068 -2.1378 0.9749
5.8969 1.5927 -2.1843 0.9744
5.7865 2.1336 -2.2055 0.9741
5.6217 2.6652 -2.2248 0.9739
5.4028 3.1813 -2.2421 0.9737
4.7921 4.1279 -2.2618 0.9735
3.5405 4.3709 -2.0115 0.9764
2.7653 5.0391 -2.0555 0.9759
1.3668 5.7460 -2.1121 0.9752
0.3402 6.2220 -2.2283 0.9739
-0.2177 6.2479 -2.2357 0.9738
-0.7687 6.1532 -2.2175 0.9740
-1.3035 6.0050 -2.1975 0.9742
-1.8165 5.8065 -2.1757 0.9745
-2.3032 5.5612 -2.1525 0.9748
-3.1814 4.9463 -2.1031 0.9753
-3.9123 4.1955 -2.0514 0.9759
-4.4800 3.3454 -1.9995 0.9765
-5.2559 2.6203 -2.1002 0.9754
-5.4010 2.1137 -2.0741 0.9757
-5.5009 1.6031 -2.0490 0.9760
-5.5562 1.0923 -2.0250 0.9762
-5.2132 -1.3487 -1.9257 0.9774
-5.0320 -1.7948 -1.9105 0.9776
-4.8174 -2.2214 -1.8971 0.9777
-4.2956 -3.0086 -1.8754 0.9780
-3.9923 -3.3657 -1.8673 0.9781
-3.3104 -3.9992 -1.8565 0.9782
-2.9357 -4.2729 -1.8539 0.9782
-0.3422 -5.2371 -1.8768 0.9780
0.1277 -5.2753 -1.8870 0.9778
0.6022 -5.2760 -1.8990 0.9777
1.0789 -5.2387 -1.9127 0.9775
1.5550 -5.1626 -1.9281 0.9774
3.8243 -4.1896 -2.0285 0.9762
2.3185 -0.9359 -0.8941 0.9894
5.4308 -1.6456 -2.0293 0.9762
5.6275 -1.1687 -2.0554 0.9759
5.7816 -0.6696 -2.0814 0.9756
5.8177 2.0056 -2.2006 0.9742
5.2004 3.5604 -2.2538 0.9736
4.8899 4.0340 -2.2669 0.9734
4.1294 4.0790 -2.0757 0.9756
3.6471 4.3116 -2.0195 0.9763
5.2498 2.3260 -2.2004 0.9757
5.0584 2.8065 -2.2168 0.9755
4.8185 3.2682 -2.2312 0.9754
4.5317 3.7056 -2.2433 0.9752
3.3784 4.7625 -2.2376 0.9753
1.9813 5.4510 -2.2226 0.9755
0.5050 2.9468 -1.1457 0.9873
0.4672 5.8098 -2.2336 0.9753
-0.0533 5.7919 -2.2196 0.9755
-0.5664 5.7222 -2.2036 0.9757
-1.0666 5.6028 -2.1857 0.9759
-2.0087 5.2248 -2.1451 0.9763
-2.4420 4.9727 -2.1230 0.9765
-2.8453 4.6833 -2.1000 0.9768
-3.5508 4.0091 -2.0523 0.9773
-2.5065 1.9737 -1.2226 0.9864
-4.3289 2.8212 -1.9801 0.9781
-5.2017 0.2126 -1.9950 0.9779
-5.1499 -0.2506 -1.9759 0.9782
-4.3660 -2.3619 -1.9023 0.9790
-3.8392 -3.0717 -1.8842 0.9792
-3.5372 -3.3907 -1.8777 0.9792
-3.2120 -3.6839 -1.8730 0.9793
-2.4995 -4.1871 -1.8687 0.9793
-2.1160 -4.3949 -1.8692 0.9793
-1.7170 -4.5719 -1.8715 0.9793
-1.3045 -4.7171 -1.8755 0.9793
-0.8805 -4.8295 -1.8813 0.9792
0.4379 -4.9616 -1.9088 0.9789
0.8851 -4.9347 -1.9213 0.9788
2.2147 -4.6339 -1.9682 0.9782
3.8517 -3.7134 -2.0503 0.9773
4.2156 -3.3927 -2.0737 0.9771
4.5148 -2.4592 -1.9702 0.9782
2.3017 -0.9985 -0.9615 0.9893
5.1881 -1.2169 -2.0421 0.9774
5.3384 -0.7574 -2.0663 0.9772
5.4178 1.7137 -2.1776 0.9760
5.1084 2.6937 -2.2131 0.9756
4.2325 3.9717 -2.2242 0.9754
3.4220 4.6128 -2.2010 0.9757
3.0313 4.9574 -2.2268 0.9754
2.5616 5.1788 -2.2141 0.9756
1.4494 3.7380 -1.5364 0.9830
1.6188 5.6203 -2.2414 0.9753
0.0700 5.8009 -2.2232 0.9755
-1.4360 5.4798 -2.1709 0.9760
-1.9016 5.2789 -2.1502 0.9763
-2.7522 4.7553 -2.1055 0.9767
-3.1307 4.4403 -2.0820 0.9770
-3.7814 3.7241 -2.0339 0.9775
-4.2801 2.9209 -1.9858 0.9780
-4.4702 2.4969 -1.9622 0.9783
-4.9790 2.2231 -2.0896 0.9769
-5.1759 1.2723 -2.0426 0.9774
-5.2122 0.7961 -2.0206 0.9777
-5.2083 0.3239 -1.9998 0.9779
-5.1656 -0.1412 -1.9803 0.9781
-5.0854 -0.5967 -1.9622 0.9783
-4.9692 -1.0397 -1.9455 0.9785
-4.1780 -2.6432 -1.8946 0.9790
-2.9497 -3.8890 -1.8705 0.9793
-2.5882 -4.1333 -1.8689 0.9793
-2.2087 -4.3482 -1.8690 0.9793
-0.5511 -4.8926 -1.8868 0.9791
0.3318 -4.9627 -1.9060 0.9789
0.7787 -4.9444 -1.9181 0.9788
1.2260 -4.8898 -1.9319 0.9786
1.6711 -4.7984 -1.9472 0.9785
2.5433 -4.5042 -1.9822 0.9781
2.9646 -4.3011 -2.0019 0.9779
3.3719 -4.0611 -2.0228 0.9776
4.1311 -3.4722 -2.0680 0.9771
4.4488 -2.5474 -1.9646 0.9783
4.7146 -2.1655 -1.9882 0.9780
5.1465 -1.3233 -2.0364 0.9775
5.3064 -0.8684 -2.0605 0.9772
5.4250 -0.3954 -2.0845 0.9770
5.5286 0.5891 -2.1306 0.9765
5.5095 1.0917 -2.1524 0.9762
5.4413 1.5946 -2.1729 0.9760
5.3234 2.0925 -2.1920 0.9758
4.9386 3.0513 -2.2246 0.9754
4.6738 3.5009 -2.2378 0.9753
4.3634 3.9233 -2.2487 0.9752
2.6729 5.1264 -2.2155 0.9755
1.5499 3.7581 -1.5578 0.9827
1.7326 5.5672 -2.2344 0.9753
1.2369 5.7394 -2.2499 0.9752
0.3508 2.8418 -1.0973 0.9878
0.1937 5.8069 -2.2266 0.9754
-0.8306 5.6657 -2.1944 0.9758
-1.3220 5.5211 -2.1756 0.9760
-1.7930 5.3306 -2.1552 0.9762
-2.6574 4.8254 -2.1110 0.9767
-3.3959 4.1798 -2.0638 0.9772
-3.7118 3.8145 -2.0396 0.9775
-4.2290 3.0199 -1.9914 0.9780
-5.0739 1.8623 -2.0712 0.9771
-5.2073 0.9091 -2.0257 0.9776
-5.2128 0.4357 -2.0046 0.9778
-5.1078 -0.4894 -1.9664 0.9783
-4.2384 -2.5568 -1.8969 0.9790
-3.6838 -3.2421 -1.8806 0.9792
-3.3694 -3.5477 -1.8750 0.9793
-2.6758 -4.0778 -1.8691 0.9793
-2.3005 -4.2998 -1.8688 0.9793
-1.9086 -4.4916 -1.8702 0.9793
-1.0835 -4.7802 -1.8783 0.9792
1.1197 -4.9061 -1.9285 0.9787
1.5656 -4.8235 -1.9434 0.9785
2.8656 -4.3528 -1.9971 0.9779
3.2764 -4.1215 -2.0177 0.9777
4.3966 -3.2108 -2.0863 0.9769
4.6542 -2.2589 -1.9825 0.9781
4.8958 -1.8562 -2.0065 0.9778
5.2720 -0.9783 -2.0548 0.9773
5.4007 -0.5093 -2.0788 0.9770
5.5260 0.4702 -2.1253 0.9765
5.4620 1.4752 -2.1682 0.9761
5.2000 2.4652 -2.2053 0.9757
4.7410 3.3962 -2.2349 0.9753
4.0064 4.1295 -2.2049 0.9757
3.5292 4.3569 -2.1487 0.9763
3.2563 4.8491 -2.2384 0.9753
2.7618 5.0326 -2.1999 0.9757
1.8457 5.5144 -2.2285 0.9754
0.4084 2.8148 -1.0900 0.9879
-0.2013 5.7771 -2.2152 0.9755
-0.7113 5.6930 -2.1986 0.9757
-1.6831 5.3799 -2.1602 0.9761
-2.1357 5.1566 -2.1389 0.9764
-2.9549 4.5941 -2.0933 0.9769
-3.6401 3.9036 -2.0454 0.9774
-3.9272 3.5206 -2.0212 0.9777
-2.6662 1.9909 -1.2752 0.9858
-4.9013 2.4435 -2.0987 0.9768
-5.2000 1.0223 -2.0309 0.9776
-5.1907 0.0790 -1.9894 0.9780
-5.1281 -0.3814 -1.9706 0.9782
-5.0288 -0.8307 -1.9533 0.9784
-4.8944 -1.2662 -1.9374 0.9786
-4.5269 -2.0875 -1.9103 0.9789
-4.0394 -2.8291 -1.8899 0.9791
-3.1148 -3.7629 -1.8719 0.9793
-2.7625 -4.0207 -1.8694 0.9793
-2.3913 -4.2497 -1.8687 0.9793
-2.0032 -4.4488 -1.8697 0.9793
-1.1841 -4.7527 -1.8770 0.9792
0.1200 -4.9588 -1.9008 0.9790
1.0133 -4.9203 -1.9251 0.9787
1.4598 -4.8465 -1.9397 0.9786
1.9026 -4.7357 -1.9558 0.9784
2.3389 -4.5877 -1.9734 0.9782
3.5787 -3.9206 -2.0342 0.9775
3.9583 -3.6251 -2.0569 0.9773
4.3154 -3.2945 -2.0806 0.9770
5.2353 -1.0872 -2.0491 0.9774
5.3739 -0.6224 -2.0731 0.9771
5.4698 -0.1414 -2.0968 0.9768
5.5246 0.8523 -2.1422 0.9763
5.4799 1.3557 -2.1633 0.9761
5.3857 1.8566 -2.1831 0.9759
5.2416 2.3497 -2.2013 0.9757
5.0479 2.8294 -2.2176 0.9755
4.8783 2.1614 -2.1837 0.9772
4.6980 2.6065 -2.1989 0.9770
4.4731 3.0339 -2.2121 0.9769
3.8967 3.8157 -2.2321 0.9767
3.1704 4.4693 -2.2427 0.9766
1.8692 5.1428 -2.2395 0.9766
1.3985 5.2749 -2.2335 0.9767
0.5109 2.9815 -1.2380 0.9870
-1.8699 4.8637 -2.1326 0.9777
-3.0001 4.0684 -2.0689 0.9784
-3.5965 3.3943 -2.0240 0.9789
-4.0513 2.6402 -1.9791 0.9793
-4.2236 2.2426 -1.9572 0.9795
-4.6969 1.9784 -2.0859 0.9782
-4.8029 1.5343 -2.0636 0.9784
-1.9347 0.0791 -0.7925 0.9917
-1.9473 -0.2706 -0.8046 0.9915
-4.4995 -1.4760 -1.9381 0.9797
-4.3216 -1.8600 -1.9256 0.9799
-4.1146 -2.2259 -1.9146 0.9800
-3.3360 -3.1979 -1.8913 0.9802
-2.3579 -3.9501 -1.8828 0.9803
-1.6196 -4.3127 -1.8854 0.9803
-1.2304 -4.4491 -1.8892 0.9802
-0.0067 -4.6680 -1.9105 0.9800
0.4126 -4.6750 -1.9208 0.9799
1.2542 -4.5864 -1.9460 0.9797
1.6715 -4.4899 -1.9608 0.9795
2.0831 -4.3584 -1.9770 0.9793
3.6137 -3.4840 -2.0544 0.9785
4.2620 -2.8426 -2.0967 0.9781
2.2991 -0.9974 -1.0257 0.9892
4.6724 -1.5476 -2.0145 0.9790
4.8456 -1.1366 -2.0370 0.9787
4.9822 -0.7068 -2.0595 0.9785
5.1353 0.1951 -2.1033 0.9780
5.1479 0.6596 -2.1241 0.9778
5.1158 1.1273 -2.1440 0.9776
4.9144 2.0535 -2.1799 0.9772
4.7450 2.5021 -2.1954 0.9771
3.9736 3.7288 -2.2302 0.9767
3.6361 4.0818 -2.2373 0.9767
2.8603 4.6778 -2.2440 0.9766
2.4305 4.9136 -2.2436 0.9766
1.4682 3.7865 -1.6622 0.9826
1.5115 5.2479 -2.2351 0.9767
1.0330 5.3430 -2.2273 0.9768
0.5490 5.3891 -2.2171 0.9769
0.0650 5.3864 -2.2047 0.9770
-0.4137 5.3358 -2.1903 0.9771
-1.7699 4.9133 -2.1374 0.9777
-2.1809 4.6907 -2.1171 0.9779
-3.2434 3.8229 -2.0519 0.9786
-3.5328 3.4792 -2.0293 0.9788
-2.4029 1.9764 -1.2734 0.9866
-4.1860 2.3381 -1.9623 0.9795
-4.6624 2.0818 -2.0898 0.9782
-4.7813 1.6403 -2.0688 0.9784
-4.8573 1.1940 -2.0472 0.9786
-1.9800 0.3024 -0.8198 0.9914
-1.9480 0.1212 -0.7988 0.9916
-1.9241 -0.0526 -0.7878 0.9917
-1.9550 -0.2294 -0.8056 0.9915
-4.3666 -1.7703 -1.9284 0.9798
-4.1664 -2.1407 -1.9171 0.9800
-3.9384 -2.4916 -1.9074 0.9801
-3.1045 -3.4113 -1.8878 0.9803
-2.7825 -3.6686 -1.8845 0.9803
-2.4416 -3.8993 -1.8829 0.9803
-2.0836 -4.1020 -1.8830 0.9803
-1.7104 -4.2757 -1.8848 0.9803
-1.3240 -4.4194 -1.8882 0.9803
-0.9263 -4.5322 -1.8933 0.9802
-0.1059 -4.6614 -1.9083 0.9800
0.3126 -4.6764 -1.9182 0.9799
0.7335 -4.6575 -1.9297 0.9798
1.5727 -4.5160 -1.9572 0.9795
1.9859 -4.3929 -1.9731 0.9794
2.3911 -4.2346 -1.9903 0.9792
2.7855 -4.0413 -2.0088 0.9790
3.1662 -3.8133 -2.0285 0.9788
3.5300 -3.5513 -2.0493 0.9786
3.8739 -3.2559 -2.0711 0.9784
4.1931 -2.9275 -2.0930 0.9781
4.1656 -2.3853 -1.9646 0.9795
4.6261 -1.6423 -2.0091 0.9790
4.8077 -1.2361 -2.0317 0.9788
4.9532 -0.8106 -2.0542 0.9785
5.1259 0.0856 -2.0982 0.9781
5.1489 0.5487 -2.1192 0.9779
4.9480 1.9450 -2.1759 0.9773
4.5855 2.8331 -2.2061 0.9770
4.3379 3.2493 -2.2182 0.9768
4.0483 3.6401 -2.2282 0.9767
3.7197 4.0009 -2.2358 0.9767
2.9588 4.6153 -2.2438 0.9766
2.5348 4.8615 -2.2439 0.9766
1.5547 3.7697 -1.6689 0.9825
0.1798 5.3915 -2.2078 0.9770
-0.3006 5.3521 -2.1939 0.9771
-0.7720 5.2658 -2.1782 0.9773
-1.2294 5.1345 -2.1608 0.9774
-1.6686 4.9606 -2.1420 0.9776
-2.3714 2.0366 -1.2793 0.9866
-4.1462 2.4331 -1.9676 0.9794
-1.9579 -0.1876 -0.8050 0.9915
-2.1973 -0.4112 -0.9149 0.9904
-4.5734 -1.2876 -1.9446 0.9797
-3.9950 -2.4100 -1.9095 0.9800
-3.7469 -2.7449 -1.9010 0.9801
-3.4740 -3.0575 -1.8941 0.9802
-3.1781 -3.3462 -1.8888 0.9803
-2.8609 -3.6098 -1.8851 0.9803
-2.1702 -4.0564 -1.8828 0.9803
-1.8004 -4.2371 -1.8842 0.9803
0.2128 -4.6759 -1.9157 0.9800
0.6333 -4.6651 -1.9268 0.9799
1.0544 -4.6200 -1.9395 0.9797
1.4736 -4.5401 -1.9536 0.9796
1.8882 -4.4253 -1.9692 0.9794
3.0771 -3.8707 -2.0238 0.9789
3.4452 -3.6167 -2.0443 0.9786
4.1205 -3.0092 -2.0883 0.9782
4.4077 -2.6500 -2.1049 0.9780
4.3554 -2.1139 -1.9814 0.9793
4.5779 -1.7357 -2.0038 0.9791
4.7677 -1.3346 -2.0263 0.9788
4.9220 -0.9134 -2.0488 0.9786
5.0382 -0.4751 -2.0712 0.9784
4.9790 1.8358 -2.1719 0.9773
4.8312 2.2904 -2.1883 0.9772
4.4006 3.1524 -2.2155 0.9769
4.1209 3.5497 -2.2260 0.9768
3.0557 4.5505 -2.2433 0.9766
1.7357 5.1856 -2.2381 0.9766
1.2617 5.3038 -2.2313 0.9767
0.2949 5.3938 -2.2108 0.9769
-1.9885 4.8012 -2.1269 0.9778
-3.0938 3.9779 -2.0625 0.9785
-2.3483 2.1051 -1.2907 0.9865
-2.5721 1.9207 -1.3138 0.9862
-4.1044 2.5275 -1.9728 0.9794
-4.5865 2.2866 -2.0975 0.9781
-4.7313 1.8516 -2.0794 0.9783
-4.8816 0.9597 -2.0362 0.9787
-1.9572 0.2056 -0.8055 0.9915
-1.9132 0.0291 -0.7831 0.9918
-4.2652 -1.9668 -1.9223 0.9799
-4.0502 -2.3272 -1.9118 0.9800
-3.8082 -2.6672 -1.9029 0.9801
-3.5411 -2.9852 -1.8956 0.9802
-2.6060 -3.7930 -1.8835 0.9803
-2.2559 -4.0091 -1.8828 0.9803
-1.8897 -4.1968 -1.8837 0.9803
-1.5093 -4.3549 -1.8864 0.9803
-1.1168 -4.4825 -1.8906 0.9802
-0.7141 -4.5786 -1.8966 0.9802
1.7902 -4.4558 -1.9653 0.9795
2.5994 -4.1376 -1.9999 0.9791
2.9870 -3.9261 -2.0190 0.9789
3.3592 -3.6801 -2.0393 0.9787
3.7130 -3.4005 -2.0606 0.9785
4.0451 -3.0881 -2.0828 0.9782
4.2980 -2.2002 -1.9761 0.9793
2.3189 -0.9361 -1.0235 0.9892
4.8886 -1.0152 -2.0435 0.9787
5.0998 -0.1319 -2.0879 0.9782
5.1433 0.7934 -2.1299 0.9778
5.0983 1.2612 -2.1495 0.9776
4.8705 2.1834 -2.1845 0.9772
4.6881 2.6278 -2.1996 0.9770
4.1911 3.4576 -2.2237 0.9768
3.5328 4.1766 -2.2389 0.9766
4.5503 2.0161 -2.1690 0.9785
3.3063 3.8744 -2.2198 0.9780
2.9519 4.1613 -2.2235 0.9780
1.7406 4.7888 -2.2206 0.9780
1.3025 4.9128 -2.2150 0.9781
0.4042 5.0256 -2.1973 0.9782
-0.4908 4.9589 -2.1717 0.9785
-1.3453 4.7215 -2.1396 0.9788
-2.1266 4.3304 -2.1026 0.9792
-2.4813 4.0842 -2.0827 0.9794
-3.1056 3.5064 -2.0414 0.9798
-3.3712 3.1817 -2.0203 0.9800
-2.4037 1.8928 -1.3334 0.9867
-3.9673 2.1065 -1.9576 0.9806
-1.5191 0.1991 -0.6677 0.9933
-1.5858 -0.5202 -0.7273 0.9927
-4.0809 -1.7564 -1.9363 0.9808
-3.4212 -2.7374 -1.9096 0.9811
-2.5556 -3.5227 -1.8967 0.9812
-1.8873 -3.9199 -1.8960 0.9812
-1.5312 -4.0772 -1.8981 0.9812
-1.1630 -4.2057 -1.9017 0.9811
-0.3985 -4.3728 -1.9136 0.9810
-0.0063 -4.4099 -1.9219 0.9809
0.3897 -4.4152 -1.9317 0.9808
0.7871 -4.3882 -1.9430 0.9807
1.1836 -4.3284 -1.9556 0.9806
2.3428 -3.9504 -2.0017 0.9802
2.7103 -3.7584 -2.0194 0.9800
3.3998 -3.2777 -2.0581 0.9796
3.7160 -2.9907 -2.0788 0.9794
3.9686 -2.1617 -1.9695 0.9805
2.2965 -0.9962 -1.0910 0.9891
4.3811 -1.4511 -2.0114 0.9801
4.5404 -1.0650 -2.0325 0.9799
4.6651 -0.6619 -2.0535 0.9797
4.7529 -0.2449 -2.0741 0.9794
4.8019 0.1824 -2.0943 0.9793
4.7777 1.0528 -2.1322 0.9789
4.7025 1.4874 -2.1495 0.9787
4.4244 2.3330 -2.1799 0.9784
3.7012 3.4731 -2.2120 0.9781
3.3861 3.8011 -2.2185 0.9780
2.2629 4.5748 -2.2244 0.9780
0.9623 4.9771 -2.2093 0.9781
0.5116 5.0217 -2.1999 0.9782
-0.8231 4.8878 -2.1602 0.9786
-1.6532 4.5895 -2.1260 0.9789
-2.0384 4.3843 -2.1072 0.9791
-2.3993 4.1455 -2.0875 0.9793
-3.0377 3.5804 -2.0463 0.9797
-3.7586 2.5651 -1.9832 0.9803
-3.9313 2.1959 -1.9625 0.9805
-4.3775 1.9546 -2.0893 0.9793
-1.5909 0.5458 -0.7330 0.9927
-1.5422 0.3791 -0.6921 0.9931
-1.5296 0.0951 -0.6679 0.9933
-1.5274 -0.0418 -0.6659 0.9934
-3.9353 -2.0219 -1.9282 0.9809
-2.9348 -3.2248 -1.9003 0.9812
-0.8756 -4.2837 -1.9055 0.9811
-0.4910 -4.3594 -1.9119 0.9810
0.2953 -4.4169 -1.9292 0.9809
1.0895 -4.3456 -1.9525 0.9806
2.6241 -3.8070 -2.0151 0.9800
3.3215 -3.3415 -2.0533 0.9797
3.6427 -3.0617 -2.0738 0.9795
4.1397 -1.9014 -1.9853 0.9803
4.3384 -1.5401 -2.0063 0.9801
4.6386 -0.7591 -2.0485 0.9797
4.7354 -0.3451 -2.0693 0.9795
4.7939 0.0801 -2.0895 0.9793
4.8123 0.5128 -2.1091 0.9791
4.7242 1.3844 -2.1455 0.9787
4.0419 3.0276 -2.2009 0.9782
3.4641 3.7259 -2.2172 0.9780
3.1241 4.0292 -2.2220 0.9780
2.3600 4.5263 -2.2247 0.9780
-0.2803 4.9907 -2.1785 0.9784
-1.1476 4.7927 -2.1478 0.9787
-1.5584 4.6330 -2.1303 0.9789
-1.9489 4.4362 -2.1117 0.9791
-2.6564 3.9430 -2.0720 0.9795
-2.9680 3.6531 -2.0513 0.9797
-3.2489 3.3388 -2.0303 0.9799
-3.7125 2.6511 -1.9882 0.9803
-3.8934 2.2847 -1.9674 0.9805
-1.5972 0.5862 -0.7415 0.9926
-1.5029 0.2624 -0.6649 0.9934
-1.4971 -0.2801 -0.6638 0.9934
-3.9824 -1.9402 -1.9306 0.9809
-3.7743 -2.2768 -1.9210 0.9810
-3.5408 -2.5939 -1.9129 0.9810
-2.7047 -3.4127 -1.8978 0.9812
-2.3867 -3.6371 -1.8959 0.9812
-1.7022 -4.0059 -1.8969 0.9812
-1.3395 -4.1482 -1.8998 0.9812
-0.5831 -4.3442 -1.9102 0.9811
0.5980 -4.4051 -1.9374 0.9808
0.9953 -4.3609 -1.9494 0.9807
2.1639 -4.0302 -1.9936 0.9802
3.2421 -3.4035 -2.0486 0.9797
3.5683 -3.1310 -2.0689 0.9795
4.0880 -1.9841 -1.9804 0.9804
4.4688 -1.2509 -2.0224 0.9800
4.6102 -0.8555 -2.0435 0.9797
4.7835 -0.0219 -2.0848 0.9793
4.7986 0.8452 -2.1235 0.9790
4.6460 1.7130 -2.1580 0.9786
4.1008 2.9376 -2.1984 0.9782
3.8388 3.3067 -2.2081 0.9781
3.5402 3.6489 -2.2157 0.9781
2.8451 4.2368 -2.2241 0.9780
2.4560 4.4754 -2.2249 0.9780
1.6163 4.8289 -2.2193 0.9780
0.4277 2.9480 -1.2982 0.9871
-1.4624 4.6745 -2.1346 0.9789
-2.2309 4.2631 -2.0969 0.9792
-2.5779 4.0080 -2.0769 0.9794
-4.0080 1.9982 -1.9518 0.9806
-4.4476 1.7406 -2.0815 0.9794
-1.5695 0.4574 -0.7125 0.9929
-1.5040 0.2957 -0.6680 0.9933
-1.5070 -0.2489 -0.6657 0.9934
-1.5507 -0.4012 -0.6981 0.9930
-4.0280 -1.8574 -1.9331 0.9808
-3.8261 -2.1985 -1.9232 0.9809
-3.5985 -2.5203 -1.9147 0.9810
-3.3467 -2.8214 -1.9077 0.9811
-3.0726 -3.1003 -1.9023 0.9811
-2.4639 -3.5861 -1.8962 0.9812
-1.7866 -3.9678 -1.8965 0.9812
-1.4269 -4.1170 -1.8990 0.9812
-1.0556 -4.2371 -1.9030 0.9811
-0.6749 -4.3272 -1.9087 0.9811
0.1069 -4.4147 -1.9246 0.9809
0.5035 -4.4108 -1.9348 0.9808
0.9009 -4.3744 -1.9464 0.9807
2.0736 -4.0673 -1.9897 0.9803
2.8131 -3.6974 -2.0247 0.9799
3.1617 -3.4638 -2.0439 0.9797
3.8025 -2.9029 -2.0849 0.9793
4.0782 -2.5716 -2.1012 0.9792
4.5797 -0.9511 -2.0385 0.9798
4.8086 0.3063 -2.0999 0.9792
4.8055 0.7413 -2.1191 0.9790
4.3707 2.4499 -2.1837 0.9784
4.1574 2.8463 -2.1958 0.9783
3.9045 3.2212 -2.2060 0.9782
4.3801 1.4887 -2.1414 0.9798
3.6624 2.9947 -2.1899 0.9794
3.3919 3.3215 -2.1975 0.9793
2.7580 3.8880 -2.2065 0.9792
2.4011 4.1212 -2.2078 0.9792
2.0225 4.3175 -2.2069 0.9792
1.6264 4.4747 -2.2038 0.9792
0.5309 3.0982 -1.4550 0.9862
-0.4593 4.6403 -2.1584 0.9797
-0.8662 4.5504 -2.1442 0.9798
-1.6371 4.2583 -2.1117 0.9801
-1.9940 4.0605 -2.0940 0.9803
-2.3280 3.8319 -2.0754 0.9804
-2.6365 3.5753 -2.0563 0.9806
-3.1689 2.9907 -2.0169 0.9810
-2.3957 1.8865 -1.4115 0.9866
-3.7361 1.9838 -1.9580 0.9815
-1.3301 0.4249 -0.6463 0.9939
-1.3379 0.0547 -0.6198 0.9941
-1.3285 -0.1846 -0.6209 0.9941
-1.3019 -0.3015 -0.6186 0.9941
-1.3226 -0.5692 -0.6665 0.9937
-2.9865 -2.8629 -1.9150 0.9819
-2.4209 -3.3370 -1.9083 0.9820
-2.1119 -3.5379 -1.9073 0.9820
-1.7878 -3.7133 -1.9077 0.9820
-1.1016 -3.9835 -1.9131 0.9819
0.3688 -4.1784 -1.9417 0.9817
1.1194 -4.0935 -1.9644 0.9815
1.4907 -4.0041 -1.9777 0.9813
1.8560 -3.8834 -1.9923 0.9812
2.2129 -3.7313 -2.0081 0.9811
2.8907 -3.3346 -2.0428 0.9807
3.2062 -3.0911 -2.0615 0.9806
3.5024 -2.8188 -2.0810 0.9804
3.7694 -2.5141 -2.0973 0.9802
4.2663 -1.0007 -2.0284 0.9809
4.3807 -0.6215 -2.0481 0.9807
4.1391 2.1826 -2.1660 0.9796
3.4593 3.2461 -2.1958 0.9793
2.1142 4.2743 -2.2073 0.9792
1.4777 3.8109 -1.8920 0.9821
0.0567 4.6962 -2.1740 0.9795
-0.3610 4.6559 -2.1616 0.9796
-0.7705 4.5754 -2.1477 0.9798
-1.1678 4.4562 -2.1324 0.9799
-1.5491 4.3005 -2.1158 0.9801
-1.9111 4.1105 -2.0983 0.9802
-2.2508 3.8889 -2.0799 0.9804
-2.5655 3.6387 -2.0609 0.9806
-3.1118 3.0646 -2.0217 0.9809
-2.3668 1.9467 -1.4185 0.9866
-3.7017 2.0676 -1.9626 0.9815
-1.3182 0.5886 -0.6682 0.9937
-1.3336 0.4575 -0.6526 0.9938
-1.3333 -0.1564 -0.6214 0.9941
-1.3048 -0.2730 -0.6171 0.9941
-1.3268 -0.4042 -0.6420 0.9939
-3.7246 -1.9137 -1.9383 0.9817
-3.5227 -2.2286 -1.9295 0.9818
-2.4920 -3.2856 -1.9088 0.9820
-2.1869 -3.4924 -1.9074 0.9820
-1.8662 -3.6740 -1.9074 0.9820
-1.1855 -3.9571 -1.9121 0.9820
1.0305 -4.1101 -1.9614 0.9815
1.4029 -4.0282 -1.9744 0.9814
1.7698 -3.9149 -1.9887 0.9812
2.1289 -3.7703 -2.0042 0.9811
2.8131 -3.3881 -2.0384 0.9808
3.1328 -3.1517 -2.0570 0.9806
3.7092 -2.5896 -2.0940 0.9803
3.8952 -1.7891 -1.9841 0.9813
4.0796 -1.4483 -2.0039 0.9811
4.4242 1.2965 -2.1340 0.9799
4.1787 2.0911 -2.1629 0.9796
3.9976 2.4699 -2.1751 0.9795
3.7790 2.8307 -2.1856 0.9794
3.2372 3.4819 -2.2007 0.9793
2.9191 3.7648 -2.2051 0.9792
1.4132 4.5410 -2.2014 0.9793
0.9990 4.6358 -2.1951 0.9793
-0.2623 4.6692 -2.1647 0.9796
-1.0746 4.4879 -2.1361 0.9799
-1.4601 4.3407 -2.1199 0.9800
-1.8270 4.1586 -2.1025 0.9802
-2.4931 3.7006 -2.0654 0.9805
-2.7873 3.4306 -2.0460 0.9807
-2.3376 2.0076 -1.4263 0.9865
-2.7045 1.9313 -1.5383 0.9855
-3.8054 1.7972 -1.9480 0.9816
-1.3328 0.4892 -0.6572 0.9938
-1.3164 0.3534 -0.6309 0.9940
-1.3180 0.2301 -0.6193 0.9941
-1.3343 -0.0081 -0.6176 0.9941
-1.3368 -0.1281 -0.6216 0.9941
-1.3136 -0.2458 -0.6186 0.9941
-1.3316 -0.5071 -0.6596 0.9937
-3.7690 -1.8362 -1.9406 0.9817
-3.5729 -2.1553 -1.9315 0.9818
-3.1096 -2.7368 -1.9175 0.9819
-2.8456 -2.9961 -1.9127 0.9820
-2.5621 -3.2328 -1.9094 0.9820
-2.2609 -3.4455 -1.9076 0.9820
-1.2688 -3.9292 -1.9113 0.9820
-0.1832 -4.1621 -1.9284 0.9818
3.0583 -3.2106 -2.0525 0.9806
3.8965 -2.3426 -2.1045 0.9802
