ply
format ascii 1.0
element vertex 1591
property float32 x
property float32 y
property float32 z
property float32 I
end_header
-9.8713 -5.6987 -1.6150 0.9550
-9.2195 -6.4822 -1.5969 0.9555
-8.5260 -7.2112 -1.5822 0.9559
-7.0239 -8.5060 -1.5630 0.9564
-5.3535 -9.5315 -1.5490 0.9568
-4.4719 -9.9468 -1.5452 0.9569
-8.4402 -5.5033 -1.6599 0.9600
-7.8456 -6.1781 -1.6451 0.9603
-7.2123 -6.8043 -1.6335 0.9606
-5.8391 -7.9082 -1.6194 0.9609
-5.1033 -8.3846 -1.6170 0.9610
-4.3373 -8.8095 -1.6176 0.9610
-2.7217 -9.5002 -1.6280 0.9607
-1.8753 -9.7634 -1.6378 0.9605
-1.0056 -9.9697 -1.6507 0.9602
1.7262 -10.2267 -1.7086 0.9588
4.5944 -9.8881 -1.7962 0.9568
5.5671 -9.6289 -1.8323 0.9559
6.5417 -9.2911 -1.8719 0.9550
8.4759 -8.3655 -1.9619 0.9529
9.4233 -7.7710 -2.0122 0.9517
11.2214 -5.0361 -2.0262 0.9514
11.9626 -4.1324 -2.0850 0.9500
13.2522 -2.0587 -2.2093 0.9471
13.7749 -0.8948 -2.2741 0.9456
10.9437 1.2489 -1.8146 0.9563
9.4849 1.9511 -1.5952 0.9615
6.3853 3.2485 -1.1802 0.9714
5.7205 3.5854 -1.1122 0.9730
5.1872 3.9360 -1.0727 0.9739
4.6725 4.2524 -1.0408 0.9747
4.2139 4.5856 -1.0260 0.9751
2.6773 5.2002 -0.9635 0.9766
1.7799 5.8169 -1.0021 0.9756
1.2389 5.8789 -0.9898 0.9759
0.7282 6.1190 -1.0151 0.9753
0.1848 6.3246 -1.0424 0.9747
-0.3911 6.5070 -1.0739 0.9739
-1.7287 7.1092 -1.2053 0.9708
-6.3721 14.3837 -2.5917 0.9382
-7.4203 13.3826 -2.5209 0.9399
-8.3429 12.3128 -2.4502 0.9415
-2.4038 2.0559 -0.5211 0.9873
-10.7989 7.6815 -2.1832 0.9477
-11.4702 4.1940 -2.0119 0.9517
-11.4524 1.9901 -1.9149 0.9540
-11.3231 0.9397 -1.8718 0.9550
-10.5220 -1.9684 -1.7635 0.9575
-10.1342 -2.8505 -1.7343 0.9582
-9.2034 -4.4762 -1.6860 0.9594
-7.4714 -6.5585 -1.6378 0.9605
-4.6488 -8.6450 -1.6170 0.9610
-3.8656 -9.0385 -1.6195 0.9609
-1.3579 -9.8937 -1.6452 0.9603
5.1757 -9.7424 -1.8174 0.9563
6.1500 -9.4366 -1.8556 0.9554
7.1234 -9.0500 -1.8973 0.9544
9.9794 -7.3717 -2.0439 0.9509
10.8860 -6.6291 -2.0997 0.9496
2.3459 -0.9058 -0.4143 0.9899
12.3779 -3.5491 -2.1213 0.9491
13.5761 -1.3723 -2.2479 0.9462
7.6300 2.7463 -1.3359 0.9677
6.6915 3.1074 -1.2154 0.9705
5.9676 3.4485 -1.1354 0.9724
4.3600 4.4156 -1.0223 0.9752
3.3240 4.8527 -0.9690 0.9764
2.8673 5.1102 -0.9653 0.9765
2.3951 5.3336 -0.9632 0.9766
1.4698 5.9145 -1.0040 0.9756
0.4645 2.9860 -0.4978 0.9878
0.4074 6.2499 -1.0318 0.9749
-0.1555 6.4342 -1.0603 0.9742
-0.7551 6.6295 -1.0992 0.9733
-4.1278 13.7369 -2.3630 0.9435
-5.4902 13.6998 -2.4314 0.9419
-7.0140 13.7943 -2.5494 0.9392
-7.9872 12.7498 -2.4785 0.9408
-10.1558 9.3368 -2.2727 0.9456
-10.6374 8.1566 -2.2083 0.9471
-11.4827 2.4225 -1.9333 0.9535
-11.3841 1.3574 -1.8887 0.9546
-10.9683 -0.6569 -1.8102 0.9564
-10.6620 -1.6012 -1.7762 0.9572
-10.2967 -2.5014 -1.7456 0.9580
-9.8767 -3.3561 -1.7184 0.9586
-9.4060 -4.1645 -1.6946 0.9592
-8.8883 -4.9258 -1.6741 0.9596
-7.7244 -6.3048 -1.6426 0.9604
-7.0838 -6.9213 -1.6315 0.9606
-5.6973 -8.0057 -1.6187 0.9609
-4.9554 -8.4720 -1.6169 0.9610
0.9781 -10.2132 -1.6902 0.9593
2.8574 -10.1674 -1.7398 0.9581
4.7848 -9.8433 -1.8030 0.9566
5.7582 -9.5690 -1.8398 0.9557
10.5256 -6.9390 -2.0769 0.9502
11.3918 -6.1291 -2.1311 0.9489
12.7691 -2.9341 -2.1584 0.9483
13.8662 -0.6573 -2.2869 0.9453
10.6268 1.4015 -1.7658 0.9575
9.2386 2.0696 -1.5597 0.9623
8.0627 2.5793 -1.3945 0.9663
6.2447 3.3158 -1.1648 0.9717
4.4861 4.2286 -1.0156 0.9753
3.4791 4.7077 -0.9643 0.9765
2.5847 5.2440 -0.9631 0.9766
2.1124 5.4672 -0.9656 0.9765
1.6775 5.8457 -1.0019 0.9756
0.5681 2.9509 -0.4951 0.9879
0.0745 6.3608 -1.0479 0.9745
-1.0057 5.9738 -0.9980 0.9757
-5.0489 14.0369 -2.4575 0.9413
-6.5875 14.1938 -2.5778 0.9385
-7.6112 13.1776 -2.5070 0.9402
-8.5090 12.0965 -2.4364 0.9418
-9.2809 10.9682 -2.3670 0.9434
-2.4487 2.0212 -0.5231 0.9872
-11.1759 6.2739 -2.1114 0.9494
-11.5000 2.8606 -1.9522 0.9531
-11.2890 0.7383 -1.8637 0.9552
-11.0737 -0.2652 -1.8248 0.9561
-10.4504 -2.1449 -1.7575 0.9577
-9.1018 -4.6255 -1.6819 0.9595
-5.2573 -8.2907 -1.6173 0.9610
-4.4974 -8.7263 -1.6173 0.9610
-3.7087 -9.1095 -1.6203 0.9609
-2.0516 -9.7138 -1.6355 0.9606
-0.2993 -10.0917 -1.6632 0.9599
3.4298 -10.1007 -1.7573 0.9577
5.3666 -9.6886 -1.8246 0.9561
6.3411 -9.3673 -1.8635 0.9552
7.3137 -8.9645 -1.9059 0.9542
8.2787 -8.4768 -1.9519 0.9531
11.0598 -6.4723 -2.1110 0.9494
11.8145 -4.3258 -2.0727 0.9503
13.1335 -2.2881 -2.1962 0.9474
13.6750 -1.1409 -2.2606 0.9459
12.2072 0.0733 -2.0110 0.9517
9.7559 1.8207 -1.6349 0.9606
7.4323 2.8230 -1.3097 0.9683
5.8373 3.5109 -1.1222 0.9728
5.2950 3.8666 -1.0801 0.9738
4.7792 4.1916 -1.0472 0.9746
4.3227 4.5338 -1.0320 0.9749
3.8050 4.7800 -1.0065 0.9755
3.2507 4.9285 -0.9726 0.9763
1.8818 5.7688 -0.9996 0.9757
0.2994 6.2865 -1.0368 0.9748
-0.8175 6.2090 -1.0317 0.9749
-8.1633 12.5377 -2.4647 0.9412
-8.9857 11.4263 -2.3947 0.9428
-10.7184 7.9248 -2.1960 0.9474
-11.3086 5.5770 -2.0772 0.9502
-11.4523 4.4277 -2.0227 0.9514
-11.5038 3.3039 -1.9717 0.9526
-10.9132 -0.8455 -1.8032 0.9566
-10.5949 -1.7813 -1.7699 0.9574
-9.3081 -4.3175 -1.6903 0.9593
-8.7816 -5.0695 -1.6704 0.9597
-8.2118 -5.7737 -1.6537 0.9601
-7.6017 -6.4295 -1.6402 0.9604
-7.6002 -4.9556 -1.7054 0.9637
-5.9040 -6.6606 -1.6730 0.9644
-5.2707 -7.1385 -1.6679 0.9645
-3.1977 -8.2871 -1.6696 0.9645
-2.4555 -8.5711 -1.6758 0.9644
-0.1027 -9.1065 -1.7118 0.9636
1.5499 -9.1821 -1.7503 0.9628
2.3942 -9.1295 -1.7740 0.9623
3.2465 -9.0135 -1.8007 0.9618
5.8167 -8.2614 -1.8991 0.9597
6.6635 -7.8678 -1.9380 0.9589
7.4966 -7.3990 -1.9798 0.9580
9.8402 -5.5184 -2.1206 0.9551
10.4060 -3.5946 -2.0693 0.9562
11.4390 -1.7770 -2.1759 0.9540
11.7339 0.2862 -2.2062 0.9534
10.9197 1.2462 -2.0658 0.9563
9.4665 1.9473 -1.8166 0.9614
7.3717 2.9561 -1.4928 0.9682
6.4943 3.3039 -1.3696 0.9708
5.7414 3.5985 -1.2736 0.9728
5.0881 3.8609 -1.2005 0.9743
4.2088 4.5800 -1.1691 0.9750
2.6267 5.1020 -1.0786 0.9769
2.1617 5.3163 -1.0787 0.9769
1.6887 5.5185 -1.0847 0.9768
0.6434 3.0530 -0.5864 0.9874
-0.8928 5.9358 -1.1283 0.9759
-5.0432 11.3839 -2.3403 0.9506
-6.6564 9.8238 -2.2304 0.9529
-7.8890 9.6611 -2.3444 0.9505
-9.4284 6.7067 -2.1748 0.9540
-9.7468 5.6982 -2.1221 0.9551
-10.1152 3.6986 -2.0244 0.9571
-10.0683 0.8356 -1.8989 0.9597
-9.9121 -0.0639 -1.8631 0.9605
-9.6934 -0.9304 -1.8304 0.9611
-9.4164 -1.7616 -1.8006 0.9618
-8.7033 -3.3101 -1.7502 0.9628
-8.2745 -4.0245 -1.7295 0.9632
-6.1495 -6.4555 -1.6758 0.9644
-5.5290 -6.9520 -1.6696 0.9645
-2.7567 -8.4631 -1.6730 0.9644
-2.0008 -8.7163 -1.6809 0.9643
2.0536 -9.1581 -1.7641 0.9625
2.9031 -9.0679 -1.7896 0.9620
4.6170 -8.6907 -1.8497 0.9607
6.3244 -8.0350 -1.9220 0.9592
7.1637 -7.5966 -1.9626 0.9584
7.9858 -7.0818 -2.0062 0.9575
8.7840 -6.4886 -2.0527 0.9565
9.5508 -5.8160 -2.1018 0.9555
11.2540 -2.1642 -2.1541 0.9544
11.6906 -1.1817 -2.2086 0.9533
7.7318 2.7829 -1.5445 0.9671
5.3407 3.7586 -1.2275 0.9738
4.7509 4.0219 -1.1700 0.9750
4.3588 4.4144 -1.1660 0.9751
3.2726 4.7777 -1.0885 0.9767
2.3493 5.2317 -1.0779 0.9769
1.8800 5.4386 -1.0816 0.9769
0.4579 2.9434 -0.5599 0.9879
-0.7619 6.6890 -1.2654 0.9730
-3.6977 12.3056 -2.4151 0.9490
-5.5645 10.9437 -2.3076 0.9513
-6.3623 10.1560 -2.2526 0.9524
-7.6135 10.0381 -2.3681 0.9500
-8.2683 9.0891 -2.3095 0.9512
-9.6300 6.1036 -2.1430 0.9547
-10.1732 2.1463 -1.9543 0.9586
-9.7886 -0.5862 -1.8432 0.9609
-9.5345 -1.4319 -1.8122 0.9615
-9.2246 -2.2409 -1.7843 0.9621
-8.4523 -3.7423 -1.7375 0.9631
-5.7823 -6.7580 -1.6717 0.9644
-4.4738 -7.6486 -1.6655 0.9646
-2.3073 -8.6208 -1.6774 0.9643
-1.5386 -8.8427 -1.6871 0.9641
-0.7498 -9.0111 -1.6996 0.9639
0.0568 -9.1242 -1.7150 0.9635
3.4143 -8.9831 -1.8063 0.9616
6.8281 -7.7819 -1.9459 0.9587
8.4665 -6.7366 -2.0337 0.9569
9.2468 -6.0960 -2.0817 0.9559
11.9118 -0.5646 -2.2415 0.9526
11.6710 0.4891 -2.1956 0.9536
9.2211 2.0657 -1.7762 0.9623
8.1180 2.5971 -1.6020 0.9659
6.3371 3.3648 -1.3486 0.9712
5.6065 3.6521 -1.2577 0.9731
2.9973 4.9197 -1.0828 0.9768
2.5359 5.1450 -1.0781 0.9769
2.0697 5.3568 -1.0794 0.9769
1.5946 5.5569 -1.0866 0.9767
0.5619 2.9185 -0.5586 0.9880
0.6062 5.9841 -1.1305 0.9758
0.0730 6.2339 -1.1718 0.9749
-4.2921 11.9329 -2.3836 0.9497
-5.2177 11.2424 -2.3296 0.9508
-6.0529 10.4797 -2.2747 0.9519
-8.0174 9.4749 -2.3329 0.9507
-2.4468 2.0196 -0.5963 0.9872
-9.7984 5.5006 -2.1121 0.9553
-10.0085 4.4971 -2.0624 0.9563
-10.1454 1.5806 -1.9299 0.9591
-9.6436 -1.0963 -1.8243 0.9613
-8.6229 -3.4534 -1.7459 0.9629
-8.1852 -4.1597 -1.7258 0.9633
-7.7043 -4.8241 -1.7086 0.9637
-4.7462 -7.4847 -1.6659 0.9646
-4.0602 -7.8780 -1.6658 0.9646
-3.3476 -8.2224 -1.6687 0.9645
-1.0692 -8.9500 -1.6942 0.9640
0.5469 -9.1646 -1.7257 0.9633
2.2196 -9.1454 -1.7689 0.9624
3.0705 -9.0427 -1.7950 0.9619
3.9269 -8.8747 -1.8241 0.9613
4.7852 -8.6391 -1.8563 0.9606
8.9371 -6.3631 -2.0621 0.9563
9.6968 -5.6747 -2.1118 0.9553
11.3458 -1.9766 -2.1647 0.9542
11.7666 -0.9817 -2.2193 0.9531
12.1002 0.0727 -2.2744 0.9519
8.5345 2.3965 -1.6662 0.9646
7.5531 2.8689 -1.5186 0.9677
5.8871 3.5409 -1.2913 0.9724
5.2160 3.8089 -1.2140 0.9741
4.3174 4.5282 -1.1760 0.9749
3.8005 4.7743 -1.1470 0.9755
3.1823 4.8249 -1.0864 0.9768
2.7218 5.0562 -1.0793 0.9769
1.7869 5.4778 -1.0830 0.9768
0.4265 3.0976 -0.5877 0.9874
-0.7872 5.9789 -1.1335 0.9758
-3.8958 12.1870 -2.4049 0.9493
-5.7283 10.7941 -2.2969 0.9515
-6.5077 9.9950 -2.2418 0.9526
-7.7500 9.8550 -2.3565 0.9503
-8.3846 8.8991 -2.2982 0.9515
-2.3875 2.1191 -0.6000 0.9871
-9.6888 5.9058 -2.1328 0.9549
-9.9346 4.8994 -2.0820 0.9559
-10.0923 1.0246 -1.9067 0.9596
-9.7433 -0.7548 -1.8369 0.9610
-7.9026 -4.5621 -1.7151 0.9635
-7.3973 -5.2010 -1.6997 0.9639
-6.8533 -5.7965 -1.6871 0.9641
-6.2732 -6.3477 -1.6774 0.9643
-5.0141 -7.3132 -1.6667 0.9646
-3.6371 -8.0899 -1.6672 0.9645
-6.4308 -5.0640 -1.7302 0.9671
-4.7996 -6.5005 -1.7080 0.9675
-4.1960 -6.8939 -1.7059 0.9675
-3.5659 -7.2427 -1.7065 0.9675
-2.9116 -7.5457 -1.7096 0.9675
-2.2351 -7.8016 -1.7155 0.9674
-1.5384 -8.0092 -1.7239 0.9672
-0.8237 -8.1668 -1.7351 0.9670
6.7143 -6.6268 -1.9941 0.9622
7.4252 -6.1233 -2.0344 0.9614
8.1077 -5.5509 -2.0770 0.9606
8.7412 -4.9021 -2.1184 0.9599
8.6853 -3.8980 -2.0123 0.9618
9.1988 -3.1776 -2.0572 0.9610
9.6570 -2.3977 -2.1033 0.9601
10.3750 -0.6739 -2.1977 0.9584
10.6180 0.2589 -2.2451 0.9575
10.7728 1.2294 -2.2919 0.9566
9.4481 1.9435 -2.0390 0.9613
8.3026 2.4968 -1.8326 0.9652
7.3600 2.9514 -1.6762 0.9681
4.2036 4.5743 -1.3132 0.9749
3.0608 4.8316 -1.2090 0.9769
2.5978 5.0458 -1.1996 0.9771
1.6806 5.4920 -1.2140 0.9768
0.3708 3.1156 -0.6632 0.9873
0.1835 6.2807 -1.3282 0.9746
-0.3969 6.6039 -1.3984 0.9733
-0.8920 5.9305 -1.2677 0.9758
-3.5600 10.4692 -2.3374 0.9558
-6.4335 7.8786 -2.1501 0.9593
-2.4031 2.0553 -0.6684 0.9872
-8.6646 5.0656 -2.1216 0.9598
-8.8901 4.1830 -2.0768 0.9606
-9.0383 3.3048 -2.0342 0.9614
-9.1175 1.5843 -1.9561 0.9629
-9.0562 0.7516 -1.9209 0.9635
-8.7508 -0.8399 -1.8582 0.9647
-8.5141 -1.5928 -1.8309 0.9652
-8.2263 -2.3138 -1.8063 0.9657
-7.5101 -3.6527 -1.7653 0.9664
-7.0879 -4.2673 -1.7488 0.9667
-5.5975 -5.8760 -1.7154 0.9674
-5.0344 -6.3300 -1.7096 0.9675
-4.4419 -6.7410 -1.7064 0.9675
-3.8222 -7.1079 -1.7059 0.9675
-1.8207 -7.9317 -1.7202 0.9673
-1.1130 -8.1095 -1.7303 0.9671
0.3501 -8.3113 -1.7584 0.9666
3.3954 -8.0514 -1.8470 0.9649
4.1637 -7.8375 -1.8760 0.9644
6.4220 -6.8100 -1.9786 0.9625
7.8372 -5.7893 -2.0596 0.9609
10.7217 0.8354 -2.2732 0.9570
9.9861 1.6834 -2.1407 0.9594
7.7190 2.7783 -1.7341 0.9670
6.8610 3.1861 -1.5990 0.9695
6.1254 3.5397 -1.4954 0.9715
5.4418 3.8297 -1.4066 0.9732
4.8179 4.0786 -1.3343 0.9745
4.3576 4.4131 -1.3110 0.9750
3.2507 4.7458 -1.2159 0.9768
2.7827 4.9594 -1.2021 0.9770
2.3242 5.1758 -1.1993 0.9771
1.8664 5.3992 -1.2076 0.9769
-0.1563 6.4689 -1.3678 0.9739
-4.0657 10.1452 -2.3103 0.9563
-6.2012 8.1760 -2.1691 0.9589
-7.2789 8.0015 -2.2865 0.9567
-7.7886 7.1605 -2.2364 0.9577
-8.9878 3.6569 -2.0511 0.9611
-9.0915 2.7842 -2.0099 0.9619
-9.0885 1.0837 -1.9347 0.9633
-8.9896 0.2646 -1.9010 0.9639
-8.0311 -2.7290 -1.7929 0.9659
-7.6682 -3.3951 -1.7727 0.9663
-7.2624 -4.0248 -1.7551 0.9666
-4.6834 -6.5810 -1.7074 0.9675
-4.0744 -6.9658 -1.7058 0.9675
-3.4395 -7.3057 -1.7069 0.9675
-1.3996 -8.0441 -1.7259 0.9672
1.5542 -8.3177 -1.7886 0.9660
2.3180 -8.2482 -1.8111 0.9656
3.0862 -8.1199 -1.8362 0.9651
5.3799 -7.3638 -1.9277 0.9634
6.1265 -6.9823 -1.9635 0.9627
6.8556 -6.5335 -2.0018 0.9620
8.2376 -5.4306 -2.0856 0.9605
2.3192 -0.9925 -0.5332 0.9897
10.1212 -1.3914 -2.1595 0.9591
10.6555 0.4465 -2.2543 0.9573
10.5812 1.3955 -2.2560 0.9573
8.1041 2.5926 -1.7986 0.9658
7.1871 3.0291 -1.6486 0.9686
5.0600 3.9810 -1.3609 0.9740
4.1014 4.6230 -1.3064 0.9750
2.9691 4.8734 -1.2063 0.9769
0.5579 2.8980 -0.6238 0.9880
0.6126 6.0476 -1.2849 0.9755
-4.5461 9.7952 -2.2826 0.9568
-5.2898 9.1585 -2.2356 0.9577
-6.5421 7.7314 -2.1408 0.9594
-7.5942 7.5018 -2.2564 0.9573
-8.7151 4.8925 -2.1126 0.9600
-9.0586 3.1337 -2.0261 0.9616
-9.1106 1.4193 -1.9490 0.9630
-9.0367 0.5910 -1.9143 0.9637
-8.4616 -1.7368 -1.8259 0.9653
-8.1641 -2.4513 -1.8018 0.9658
-6.0274 -5.4806 -1.7220 0.9672
-3.0482 -7.4871 -1.7088 0.9675
-0.9722 -8.1385 -1.7325 0.9670
2.0103 -8.2831 -1.8017 0.9658
2.7771 -8.1787 -1.8258 0.9653
4.3139 -7.7882 -1.8820 0.9643
5.0761 -7.4986 -1.9141 0.9637
5.8282 -7.1436 -1.9488 0.9630
6.5650 -6.7220 -1.9861 0.9623
7.2809 -6.2326 -2.0259 0.9616
9.0973 -3.3309 -2.0478 0.9612
10.3148 -0.8606 -2.1879 0.9586
10.5749 0.0635 -2.2354 0.9577
10.7485 1.0270 -2.2824 0.9568
8.5193 2.3922 -1.8705 0.9645
7.5408 2.8642 -1.7051 0.9676
5.9919 3.6039 -1.4780 0.9718
5.3136 3.8802 -1.3908 0.9735
4.7035 4.1251 -1.3224 0.9747
4.3120 4.5226 -1.3209 0.9748
3.1578 4.7877 -1.2123 0.9768
2.6923 5.0015 -1.2007 0.9770
1.7760 5.4443 -1.2105 0.9769
0.4164 3.0242 -0.6453 0.9876
-3.3803 10.5743 -2.3466 0.9556
-5.0000 9.4217 -2.2546 0.9573
-5.6977 8.7508 -2.2073 0.9582
-9.0140 3.4850 -2.0428 0.9613
-9.1034 2.6145 -2.0021 0.9620
-9.1221 1.7584 -1.9637 0.9627
-9.0740 0.9212 -1.9279 0.9634
-8.9630 0.1069 -1.8947 0.9640
-7.9635 -2.8624 -1.7887 0.9660
-7.5920 -3.5215 -1.7690 0.9664
-6.7246 -4.7281 -1.7376 0.9670
-5.7096 -5.7773 -1.7169 0.9673
-5.1528 -6.2400 -1.7106 0.9675
-6.3246 -4.1238 -1.7745 0.9695
-5.4261 -5.1192 -1.7532 0.9698
-2.6704 -6.9206 -1.7434 0.9700
-2.0493 -7.1533 -1.7488 0.9699
-1.4100 -7.3406 -1.7567 0.9698
-0.7545 -7.4810 -1.7671 0.9696
0.5951 -7.6159 -1.7954 0.9691
1.9789 -7.5462 -1.8335 0.9685
2.6765 -7.4309 -1.8563 0.9681
3.3733 -7.2601 -1.8815 0.9676
4.0658 -7.0323 -1.9091 0.9672
5.4210 -6.4008 -1.9714 0.9661
6.7046 -5.5290 -2.0424 0.9649
7.8555 -4.4054 -2.1167 0.9637
8.9556 -1.3912 -2.1300 0.9634
9.2213 -0.5990 -2.1718 0.9627
9.5294 1.0875 -2.2542 0.9614
7.3481 2.9466 -1.8606 0.9680
5.2236 3.9637 -1.5411 0.9734
4.1984 4.5686 -1.4583 0.9748
3.6880 4.8119 -1.4249 0.9754
3.1119 4.9123 -1.3667 0.9764
0.3657 3.0725 -0.7272 0.9874
-0.3980 6.6210 -1.5589 0.9731
-2.3440 9.6396 -2.3315 0.9601
-4.5664 8.2355 -2.2132 0.9620
-5.1831 7.6494 -2.1716 0.9627
-5.7319 7.0193 -2.1299 0.9634
-7.4995 5.3346 -2.1630 0.9629
-7.7913 4.5550 -2.1211 0.9636
-8.2444 2.2046 -2.0057 0.9655
-8.2635 1.4359 -1.9712 0.9661
-8.2218 0.6823 -1.9390 0.9667
-7.9684 -0.7649 -1.8814 0.9676
-7.7632 -1.4523 -1.8562 0.9681
-7.5096 -2.1122 -1.8334 0.9685
-6.8694 -3.3411 -1.7953 0.9691
-6.4884 -3.9063 -1.7800 0.9694
-6.0702 -4.4368 -1.7671 0.9696
-3.5062 -6.5202 -1.7399 0.9700
-1.6690 -7.2709 -1.7533 0.9698
2.3960 -7.4839 -1.8468 0.9682
6.4544 -5.7237 -2.0275 0.9652
7.6493 -4.6581 -2.1049 0.9639
7.6019 -3.7449 -1.9916 0.9658
8.4743 -2.4298 -2.0719 0.9644
9.1228 -0.9221 -2.1550 0.9630
9.5580 1.6112 -2.2780 0.9610
8.7182 2.2843 -2.1181 0.9636
7.7061 2.7737 -1.9249 0.9669
6.8504 3.1812 -1.7751 0.9694
6.1166 3.5347 -1.6603 0.9714
4.8779 4.1293 -1.5020 0.9741
3.8904 4.7155 -1.4367 0.9752
2.3627 5.2615 -1.3555 0.9766
0.4498 2.8912 -0.6877 0.9880
0.4070 6.2452 -1.4709 0.9746
-2.8274 9.4094 -2.3091 0.9604
-3.5931 8.9659 -2.2701 0.9611
-4.3000 8.4567 -2.2297 0.9618
-4.9432 7.8908 -2.1884 0.9625
-5.5196 7.2773 -2.1466 0.9632
-6.0269 6.6252 -2.1049 0.9639
-7.3614 5.6447 -2.1802 0.9626
-7.9313 4.0855 -2.0968 0.9640
-8.2188 2.5169 -2.0202 0.9653
-8.2633 1.7433 -1.9848 0.9659
-8.2457 0.9832 -1.9516 0.9665
-8.1691 0.2405 -1.9207 0.9670
-7.6171 -1.8504 -1.8423 0.9683
-6.6461 -3.6832 -1.7858 0.9693
-4.8278 -5.6424 -1.7453 0.9699
-4.2959 -6.0365 -1.7413 0.9700
-3.7376 -6.3899 -1.7398 0.9700
-3.1550 -6.7014 -1.7408 0.9700
-1.2827 -7.3719 -1.7586 0.9697
-0.6244 -7.5030 -1.7695 0.9695
0.7296 -7.6183 -1.7987 0.9690
1.4200 -7.5996 -1.8170 0.9687
2.1156 -7.5279 -1.8378 0.9684
4.2007 -6.9808 -1.9148 0.9671
4.8826 -6.6832 -1.9452 0.9666
7.9516 -4.2782 -2.1221 0.9636
8.3151 -2.7105 -2.0555 0.9647
9.2651 -0.4392 -2.1800 0.9626
9.1859 2.0578 -2.2124 0.9621
7.1757 3.0243 -1.8301 0.9685
6.4000 3.3982 -1.7030 0.9707
5.1083 4.0190 -1.5276 0.9736
4.0964 4.6173 -1.4507 0.9750
3.5904 4.8583 -1.4198 0.9755
3.0186 4.9546 -1.3635 0.9764
0.0750 6.4004 -1.5043 0.9740
-2.5045 9.5672 -2.3243 0.9602
-3.2921 9.1526 -2.2860 0.9608
-4.0232 8.6687 -2.2461 0.9615
-5.2961 7.5290 -2.1634 0.9629
-5.8313 6.8914 -2.1217 0.9636
-8.0459 3.6152 -2.0731 0.9644
-8.2531 2.0529 -1.9988 0.9657
-8.2067 0.5367 -1.9329 0.9668
-7.9321 -0.9017 -1.8762 0.9677
-7.1471 -2.8624 -1.8094 0.9689
-5.9841 -4.5366 -1.7649 0.9696
-5.0336 -5.4728 -1.7475 0.9699
-4.5130 -5.8829 -1.7426 0.9700
-3.9651 -6.2528 -1.7401 0.9700
-1.5430 -7.3058 -1.7549 0.9698
-0.8907 -7.4560 -1.7648 0.9696
-0.2241 -7.5583 -1.7772 0.9694
1.1417 -7.6134 -1.8093 0.9689
3.2301 -7.2999 -1.8761 0.9677
4.6099 -6.8099 -1.9327 0.9668
5.9415 -6.0837 -1.9986 0.9657
6.5770 -5.6299 -2.0347 0.9651
7.1848 -5.1155 -2.0729 0.9644
7.6958 -3.6252 -1.9993 0.9656
9.3811 0.0564 -2.2048 0.9622
9.5606 1.7843 -2.2858 0.9608
7.5284 2.8595 -1.8927 0.9675
6.6986 3.2544 -1.7503 0.9699
5.3469 3.9045 -1.5560 0.9732
4.7681 4.1819 -1.4906 0.9743
3.7912 4.7627 -1.4307 0.9753
3.2106 4.8678 -1.3705 0.9763
2.7370 5.0844 -1.3571 0.9766
2.2717 5.3054 -1.3564 0.9766
1.8057 5.5353 -1.3684 0.9764
0.4130 2.9998 -0.7117 0.9876
0.2998 6.2954 -1.4812 0.9744
-0.7874 5.9804 -1.4177 0.9755
-1.6075 7.1833 -1.7300 0.9702
-4.4312 8.3499 -2.2216 0.9619
-5.6245 7.1522 -2.1384 0.9633
-2.3930 2.1240 -0.7520 0.9869
-7.4303 5.4937 -2.1718 0.9627
-7.9716 3.9313 -2.0890 0.9641
-8.1359 3.1455 -2.0500 0.9648
-8.2326 2.3644 -2.0131 0.9654
-8.1474 0.0972 -1.9150 0.9671
-8.0044 -0.6201 -1.8869 0.9675
-7.2758 -2.6152 -1.8171 0.9687
-6.9430 -3.2205 -1.7988 0.9690
-6.1592 -4.3305 -1.7695 0.9695
-3.6252 -6.4543 -1.7398 0.9700
-3.0381 -6.7575 -1.7413 0.9700
-5.8279 -3.8000 -1.8014 0.9717
-4.5474 -5.1302 -1.7750 0.9721
-3.5522 -5.8362 -1.7690 0.9722
-3.0187 -6.1312 -1.7695 0.9722
-1.3003 -6.7695 -1.7848 0.9719
-0.6955 -6.8958 -1.7945 0.9718
0.5478 -7.0114 -1.8209 0.9714
1.8188 -6.9355 -1.8564 0.9708
2.4574 -6.8227 -1.8776 0.9705
4.3452 -6.1715 -1.9542 0.9693
5.5406 -5.4684 -2.0156 0.9683
6.6422 -4.5476 -2.0842 0.9673
7.1258 -3.9962 -2.1153 0.9668
7.7832 -1.9324 -2.0764 0.9674
8.0665 -1.2531 -2.1136 0.9668
8.5339 0.9739 -2.2239 0.9651
8.2732 2.4880 -2.2369 0.9649
6.5338 3.3240 -1.8981 0.9702
5.8384 3.6593 -1.7840 0.9719
5.2165 3.9583 -1.6955 0.9733
4.1931 4.5629 -1.6045 0.9747
3.6835 4.8060 -1.5678 0.9753
3.1369 4.9517 -1.5177 0.9761
2.6646 5.1756 -1.5072 0.9762
1.5601 3.8367 -1.0724 0.9830
1.7201 5.6214 -1.5221 0.9760
-0.3974 6.6119 -1.7150 0.9730
-0.8902 5.9191 -1.5498 0.9756
-2.0916 8.6018 -2.2920 0.9641
-2.8085 8.2593 -2.2587 0.9646
-5.1628 6.3225 -2.1135 0.9668
-7.4323 2.7176 -2.0489 0.9678
-7.5200 2.0109 -2.0155 0.9683
-7.5489 1.3117 -1.9838 0.9688
-7.1278 -1.3335 -1.8775 0.9705
-6.9019 -1.9413 -1.8564 0.9708
-6.6332 -2.5228 -1.8375 0.9711
-6.3242 -3.0759 -1.8208 0.9714
-5.1803 -4.5474 -1.7847 0.9719
-4.7347 -4.9703 -1.7773 0.9720
-4.2606 -5.3571 -1.7722 0.9721
0.2950 -7.0032 -1.8149 0.9715
0.9260 -7.0092 -1.8306 0.9712
1.5622 -6.9666 -1.8486 0.9709
2.8385 -6.7307 -1.8913 0.9703
4.0971 -6.2866 -1.9429 0.9695
4.7101 -5.9841 -1.9718 0.9690
5.3066 -5.6273 -2.0027 0.9685
6.4303 -4.7500 -2.0699 0.9675
6.9449 -4.2291 -2.1053 0.9670
6.8916 -3.3950 -1.9891 0.9688
2.3544 -0.9091 -0.6535 0.9896
7.6536 -2.1945 -2.0615 0.9676
8.5078 0.6629 -2.2095 0.9654
8.5500 1.4413 -2.2450 0.9648
8.5147 2.2309 -2.2790 0.9643
7.6931 2.7690 -2.1170 0.9668
5.4590 3.8418 -1.7284 0.9728
4.8714 4.1239 -1.6526 0.9740
4.3551 4.4106 -1.6049 0.9747
2.3838 5.3085 -1.5067 0.9762
1.9120 5.5311 -1.5152 0.9761
-0.1571 6.5001 -1.6835 0.9735
-0.7730 6.7865 -1.7685 0.9722
-1.2507 6.0867 -1.6089 0.9747
-4.4404 7.0881 -2.1656 0.9660
-4.9677 6.5497 -2.1284 0.9666
-6.6637 5.1097 -2.1742 0.9659
-6.9675 4.4161 -2.1358 0.9665
-7.2057 3.7117 -2.0987 0.9671
-7.4920 2.2943 -2.0287 0.9681
-7.5442 1.5916 -1.9963 0.9686
-7.2059 -1.0822 -1.8867 0.9703
-6.9980 -1.7000 -1.8646 0.9707
-6.7462 -2.2924 -1.8448 0.9710
-6.4531 -2.8571 -1.8272 0.9713
-5.7530 -3.8963 -1.7990 0.9717
-5.3510 -4.3675 -1.7884 0.9719
-4.9174 -4.8046 -1.7800 0.9720
-4.4544 -5.2060 -1.7740 0.9721
-3.4494 -5.8972 -1.7689 0.9722
-2.9116 -6.1844 -1.7698 0.9722
-2.3531 -6.4310 -1.7731 0.9721
0.0435 -6.9874 -1.8092 0.9715
1.3060 -6.9897 -1.8411 0.9710
2.5825 -6.7946 -1.8820 0.9704
3.8470 -6.3929 -1.9318 0.9696
4.4655 -6.1122 -1.9599 0.9692
5.0691 -5.7772 -1.9900 0.9687
5.6534 -5.3878 -2.0220 0.9682
6.2133 -4.9438 -2.0559 0.9677
8.1151 -1.1156 -2.1209 0.9667
8.3258 -0.3947 -2.1581 0.9661
8.5422 1.1266 -2.2309 0.9650
8.5384 1.9127 -2.2655 0.9645
3.0438 4.9959 -1.5147 0.9761
1.4929 3.8639 -1.0725 0.9830
0.5502 2.8580 -0.7536 0.9880
0.6217 6.1367 -1.5970 0.9748
-0.9985 5.9310 -1.5573 0.9755
-2.2356 8.5400 -2.2857 0.9642
-6.8533 4.6965 -2.1511 0.9663
-7.1177 3.9958 -2.1134 0.9668
-7.4542 2.5786 -2.0422 0.9679
-7.5302 1.8731 -2.0091 0.9684
-7.5096 0.4911 -1.9485 0.9694
-7.4183 -0.1777 -1.9213 0.9698
-6.2591 -3.1808 -1.8178 0.9714
-3.6593 -5.7706 -1.7692 0.9722
-3.1304 -6.0738 -1.7692 0.9722
-2.5799 -6.3368 -1.7715 0.9721
-1.4231 -6.7380 -1.7831 0.9719
-0.2065 -6.9640 -1.8039 0.9716
0.4182 -7.0081 -1.8178 0.9714
1.6873 -6.9525 -1.8524 0.9709
2.3260 -6.8501 -1.8731 0.9706
4.2184 -6.2315 -1.9484 0.9694
4.8285 -5.9184 -1.9777 0.9689
5.4212 -5.5509 -2.0089 0.9684
7.7179 -2.0675 -2.0688 0.9675
8.0129 -1.3960 -2.1059 0.9670
8.2489 -0.6882 -2.1432 0.9664
8.4203 0.0506 -2.1802 0.9658
8.5493 1.5955 -2.2518 0.9647
8.4886 2.3836 -2.2828 0.9642
6.6884 3.2494 -1.9253 0.9697
5.9748 3.5936 -1.8052 0.9716
2.7390 5.0881 -1.4962 0.9764
2.2917 5.3520 -1.5074 0.9762
1.8186 5.5751 -1.5183 0.9761
-0.7875 5.9812 -1.5620 0.9754
-1.6051 7.1724 -1.9030 0.9701
-2.6646 8.3353 -2.2657 0.9645
-3.3449 7.9413 -2.2311 0.9650
-3.9743 7.4889 -2.1951 0.9656
-4.5484 6.9858 -2.1583 0.9661
-5.5193 5.8579 -2.0839 0.9673
-2.3958 2.1265 -0.8294 0.9869
-6.7285 4.9748 -2.1666 0.9660
-7.0193 4.2786 -2.1284 0.9666
-7.2448 3.5729 -2.0915 0.9672
-7.4067 2.8636 -2.0561 0.9677
-7.3394 -0.5686 -1.9060 0.9700
-7.1687 -1.2052 -1.8822 0.9704
-6.9520 -1.8182 -1.8605 0.9707
-6.6919 -2.4053 -1.8412 0.9710
-4.3604 -5.2805 -1.7731 0.9721
-5.0348 -3.9647 -1.8142 0.9737
-3.7682 -5.1035 -1.7959 0.9740
-3.2952 -5.4138 -1.7942 0.9740
-1.7531 -6.1194 -1.8021 0.9739
-1.2054 -6.2755 -1.8090 0.9738
-0.0728 -6.4620 -1.8295 0.9735
0.5071 -6.4901 -1.8429 0.9733
1.6811 -6.4106 -1.8762 0.9728
2.2695 -6.3009 -1.8959 0.9725
2.8545 -6.1434 -1.9177 0.9722
3.4327 -5.9372 -1.9415 0.9719
4.5537 -5.3768 -1.9947 0.9711
5.5996 -4.6178 -2.0547 0.9703
6.5136 -3.6529 -2.1141 0.9694
7.0841 -1.7589 -2.0663 0.9701
7.3302 -1.1387 -2.1000 0.9696
7.6450 2.2991 -2.2600 0.9674
7.3241 2.9370 -2.2339 0.9677
6.5238 3.3190 -2.0721 0.9700
5.2094 3.9529 -1.8513 0.9732
4.6426 4.2252 -1.7771 0.9742
3.6789 4.8000 -1.7121 0.9752
2.6614 5.1694 -1.6460 0.9761
1.5481 3.8073 -1.1635 0.9831
1.7181 5.6145 -1.6622 0.9759
-0.3969 6.6028 -1.8726 0.9729
-2.5363 7.4587 -2.2302 0.9678
-3.1463 7.1021 -2.1990 0.9682
-3.7113 6.6933 -2.1666 0.9687
-4.2274 6.2389 -2.1335 0.9692
-2.4021 2.0544 -0.8948 0.9869
-6.1977 4.4086 -2.1531 0.9689
-6.4662 3.7803 -2.1204 0.9693
-6.6702 3.1385 -2.0869 0.9698
-6.8163 2.4923 -2.0546 0.9703
-6.9061 1.8468 -2.0238 0.9707
-6.9416 1.2062 -1.9945 0.9711
-6.8576 -0.0442 -1.9414 0.9719
-6.5827 -1.2315 -1.8958 0.9725
-6.3796 -1.7944 -1.8761 0.9728
-6.1359 -2.3337 -1.8584 0.9731
-5.8540 -2.8472 -1.8429 0.9733
-5.1850 -3.7898 -1.8181 0.9737
-4.8023 -4.2156 -1.8090 0.9738
-3.9517 -4.9687 -1.7972 0.9740
-1.9691 -6.0452 -1.7999 0.9739
-0.8714 -6.3491 -1.8142 0.9737
0.2731 -6.4842 -1.8373 0.9734
2.0332 -6.3507 -1.8877 0.9727
3.7737 -5.7904 -1.9566 0.9717
4.3333 -5.5053 -1.9834 0.9713
4.8759 -5.1706 -2.0119 0.9709
5.8924 -4.3527 -2.0739 0.9700
6.3508 -3.8674 -2.1050 0.9696
6.9707 -1.9987 -2.0529 0.9703
7.4512 -0.7532 -2.1201 0.9693
7.6065 -0.0874 -2.1535 0.9689
7.6994 0.5999 -2.1862 0.9684
7.7258 1.3024 -2.2180 0.9680
7.5674 2.7238 -2.2768 0.9671
5.4515 3.8365 -1.8871 0.9727
4.3538 4.4093 -1.7542 0.9746
3.8807 4.7038 -1.7263 0.9750
3.3251 4.8544 -1.6657 0.9758
2.8503 5.0799 -1.6490 0.9761
0.4421 2.8417 -0.8141 0.9881
0.4060 6.2291 -1.7672 0.9744
-0.1569 6.4913 -1.8382 0.9734
-0.7719 6.7769 -1.9309 0.9720
-2.2795 7.5859 -2.2424 0.9676
-4.0260 6.4266 -2.1469 0.9690
-4.5114 5.9481 -2.1134 0.9694
-4.9435 5.4343 -2.0797 0.9699
-6.3676 4.0359 -2.1342 0.9691
-6.5952 3.3973 -2.1002 0.9696
-6.8904 0.2028 -1.9515 0.9717
-6.7946 -0.4069 -1.9269 0.9721
-6.6524 -0.9991 -1.9044 0.9724
-6.4662 -1.5708 -1.8838 0.9727
-6.2386 -2.1199 -1.8653 0.9730
-5.9718 -2.6440 -1.8489 0.9732
-5.6682 -3.1413 -1.8346 0.9734
-4.9598 -4.0482 -1.8124 0.9737
-4.5594 -4.4548 -1.8046 0.9738
-4.1312 -4.8283 -1.7989 0.9739
-2.7008 -5.7366 -1.7950 0.9740
-1.0964 -6.3013 -1.8106 0.9738
-0.5332 -6.4076 -1.8202 0.9736
0.0403 -6.4710 -1.8319 0.9735
0.6216 -6.4904 -1.8458 0.9733
2.9685 -6.1068 -1.9222 0.9722
3.5450 -5.8910 -1.9464 0.9718
4.1102 -5.6259 -1.9724 0.9715
5.1905 -4.9466 -2.0298 0.9706
6.1741 -4.0703 -2.0935 0.9697
6.8494 -2.2327 -2.0395 0.9705
7.1365 -1.6398 -2.0729 0.9700
7.5513 -0.3579 -2.1401 0.9691
7.6698 0.3214 -2.1732 0.9686
7.7233 1.0186 -2.2054 0.9681
7.7085 1.7268 -2.2363 0.9677
7.6224 2.4385 -2.2656 0.9673
5.7033 3.7152 -1.9269 0.9721
4.0861 4.6057 -1.7430 0.9747
3.5816 4.8464 -1.7060 0.9753
3.0401 4.9898 -1.6541 0.9760
2.5694 5.2129 -1.6453 0.9761
1.4850 3.8435 -1.1665 0.9830
1.6239 5.6588 -1.6666 0.9758
0.6209 6.1288 -1.7439 0.9747
-2.0165 7.7032 -2.2542 0.9674
-3.8165 6.6076 -2.1602 0.9688
-4.3226 6.1450 -2.1269 0.9692
-4.7763 5.6446 -2.0933 0.9697
-5.1759 5.1130 -2.0596 0.9702
-2.4406 2.0145 -0.8959 0.9869
-6.5108 3.6551 -2.1137 0.9694
-6.8383 2.3656 -2.0484 0.9704
-6.8388 -0.1638 -1.9366 0.9720
-6.7149 -0.7633 -1.9132 0.9723
-5.7945 -2.9447 -1.8401 0.9733
-5.4700 -3.4251 -1.8270 0.9735
-4.7238 -4.2953 -1.8075 0.9738
-4.3065 -4.6822 -1.8009 0.9739
-3.8627 -5.0352 -1.7966 0.9740
-2.9038 -5.6341 -1.7944 0.9740
-2.3930 -5.8776 -1.7965 0.9740
-1.8641 -6.0822 -1.8009 0.9739
-1.3193 -6.2467 -1.8074 0.9738
2.7345 -6.1798 -1.9131 0.9723
3.8846 -5.7384 -1.9617 0.9716
4.4412 -5.4436 -1.9889 0.9712
4.9799 -5.0991 -2.0177 0.9708
5.4965 -4.7050 -2.0482 0.9704
5.9860 -4.2620 -2.0802 0.9699
6.4311 -3.7636 -2.1094 0.9695
6.3700 -3.0006 -1.9933 0.9712
7.2839 -1.2690 -2.0931 0.9697
7.4863 -0.6246 -2.1267 0.9693
7.6657 2.1525 -2.2540 0.9674
7.5034 2.8500 -2.2722 0.9672
6.6780 3.2444 -2.1018 0.9696
5.3323 3.8938 -1.8692 0.9729
4.7556 4.1709 -1.7907 0.9740
3.2312 4.8990 -1.6614 0.9759
2.7357 5.0820 -1.6339 0.9763
1.8164 5.5683 -1.6581 0.9759
1.3330 5.7954 -1.6835 0.9756
0.4112 2.9865 -0.8534 0.9875
0.2990 6.2790 -1.7795 0.9742
-1.6026 7.1615 -2.0775 0.9700
-2.4055 7.5250 -2.2365 0.9677
-3.0242 7.1800 -2.2055 0.9681
-3.5989 6.7814 -2.1734 0.9686
-4.1253 6.3359 -2.1403 0.9691
-5.0219 5.3300 -2.0731 0.9700
-6.1306 4.5328 -2.1584 0.9688
-6.4169 3.9114 -2.1275 0.9692
-6.9323 0.7038 -1.9726 0.9714
-6.8754 0.0820 -1.9465 0.9718
-6.7702 -0.5245 -1.9224 0.9722
-6.6193 -1.1129 -1.9002 0.9725
-6.1893 -2.2247 -1.8619 0.9730
-5.9151 -2.7437 -1.8459 0.9733
-5.6045 -3.2355 -1.8320 0.9735
-4.8836 -4.1305 -1.8107 0.9738
-4.0442 -4.8975 -1.7980 0.9739
-3.5854 -5.2295 -1.7950 0.9740
-2.6006 -5.7844 -1.7954 0.9740
-5.0245 -3.2761 -1.8449 0.9752
-4.6874 -3.6912 -1.8351 0.9753
-4.3213 -4.0769 -1.8273 0.9754
-3.9284 -4.4318 -1.8216 0.9755
-2.1291 -5.5178 -1.8191 0.9756
-1.6329 -5.6998 -1.8237 0.9755
-0.0678 -6.0126 -1.8495 0.9751
2.1063 -5.8480 -1.9118 0.9743
3.7028 -5.2591 -1.9783 0.9734
4.2106 -4.9716 -2.0039 0.9731
5.1660 -4.2602 -2.0595 0.9724
5.6051 -3.8375 -2.0894 0.9720
6.7098 -1.0423 -2.0886 0.9720
6.8751 -0.4466 -2.1191 0.9716
7.0369 0.8031 -2.1784 0.9708
7.0270 1.4455 -2.2066 0.9704
6.9532 2.0910 -2.2333 0.9701
6.8141 2.7325 -2.2581 0.9697
6.5138 3.3138 -2.2479 0.9699
5.8216 3.6487 -2.1132 0.9717
4.6364 4.2196 -1.9282 0.9741
3.6743 4.7940 -1.8578 0.9750
3.1292 4.9396 -1.7985 0.9758
2.6581 5.1630 -1.7861 0.9760
1.5100 3.7135 -1.2330 0.9834
1.7159 5.6076 -1.8037 0.9758
0.6314 2.9961 -0.9418 0.9873
0.3616 3.0387 -0.9412 0.9873
0.1848 6.3236 -1.9458 0.9739
-0.8886 5.9078 -1.8376 0.9753
-3.8644 5.7032 -2.1190 0.9716
-4.6765 4.7842 -2.0577 0.9724
-2.4028 2.0550 -0.9725 0.9869
-5.2908 3.7635 -1.9971 0.9732
-5.9507 3.4789 -2.1201 0.9716
-6.1462 2.8919 -2.0892 0.9720
-6.2884 2.2993 -2.0594 0.9724
-6.3787 1.7057 -2.0309 0.9727
-6.2530 -0.6002 -1.9321 0.9741
-6.1095 -1.1429 -1.9117 0.9743
-5.9254 -1.6667 -1.8933 0.9746
-5.7029 -2.1690 -1.8767 0.9748
-5.4442 -2.6479 -1.8621 0.9750
-5.1513 -3.1014 -1.8494 0.9752
-4.8265 -3.5278 -1.8388 0.9753
-4.0894 -4.2930 -1.8236 0.9755
-3.6814 -4.6289 -1.8191 0.9756
-3.2498 -4.9319 -1.8166 0.9756
-2.7966 -5.2007 -1.8162 0.9756
-2.3241 -5.4342 -1.8179 0.9756
-1.8342 -5.6312 -1.8216 0.9755
-1.3292 -5.7904 -1.8273 0.9754
-0.8113 -5.9110 -1.8351 0.9753
0.2541 -6.0314 -1.8568 0.9751
0.7965 -6.0294 -1.8706 0.9749
1.8876 -5.8960 -1.9042 0.9744
2.9671 -5.5852 -1.9453 0.9739
4.5056 -4.7778 -2.0199 0.9729
4.9816 -4.4176 -2.0479 0.9725
5.4322 -4.0127 -2.0772 0.9721
5.8445 -3.5590 -2.1047 0.9718
6.6288 -1.2747 -2.0762 0.9721
6.9478 -0.0799 -2.1371 0.9713
7.0234 0.5472 -2.1668 0.9709
7.0385 1.1865 -2.1954 0.9706
6.6994 3.1111 -2.2720 0.9696
6.0897 3.5191 -2.1633 0.9710
4.8584 4.1129 -1.9579 0.9737
4.3525 4.4080 -1.9054 0.9744
3.8758 4.6978 -1.8732 0.9748
2.8468 5.0736 -1.7894 0.9759
1.9073 5.5175 -1.7956 0.9759
0.4413 2.8369 -0.8831 0.9881
-0.1567 6.4824 -1.9944 0.9732
-2.0747 6.9043 -2.2174 0.9703
-4.5289 4.9785 -2.0701 0.9722
-5.8530 3.7097 -2.1314 0.9714
-6.0741 3.1288 -2.1015 0.9718
-6.4189 0.7654 -1.9883 0.9733
-6.1722 -0.9269 -1.9197 0.9742
-6.0042 -1.4586 -1.9005 0.9745
-5.7968 -1.9698 -1.8831 0.9747
-5.5524 -2.4583 -1.8677 0.9749
-5.2730 -2.9222 -1.8543 0.9751
-4.6178 -3.7691 -1.8334 0.9754
-3.8484 -4.4977 -1.8207 0.9755
-2.9812 -5.0968 -1.8162 0.9756
-2.5162 -5.3447 -1.8170 0.9756
-2.0331 -5.5565 -1.8199 0.9755
-1.5339 -5.7310 -1.8248 0.9755
-1.0208 -5.8672 -1.8318 0.9754
-0.4963 -5.9641 -1.8408 0.9753
0.5780 -6.0353 -1.8648 0.9749
2.7524 -5.6621 -1.9364 0.9740
3.2838 -5.4571 -1.9589 0.9737
4.3081 -4.9099 -2.0091 0.9730
4.7930 -4.5678 -2.0365 0.9727
5.6876 -3.7496 -2.0953 0.9719
2.3062 -0.9869 -0.7716 0.9896
6.2851 -2.0488 -2.0333 0.9727
6.7464 -0.9274 -2.0946 0.9719
6.9011 -0.3271 -2.1250 0.9715
7.0001 0.2933 -2.1550 0.9711
7.0176 1.5720 -2.2120 0.9704
6.3712 3.3829 -2.2187 0.9703
5.0876 4.0027 -1.9911 0.9733
3.0363 4.9837 -1.7950 0.9759
1.4623 3.7848 -1.2480 0.9832
1.6218 5.6518 -1.8085 0.9757
0.5701 2.9612 -0.9275 0.9875
0.6200 6.1208 -1.8923 0.9746
-0.5166 6.6494 -2.0514 0.9725
-2.9737 6.4073 -2.1727 0.9709
-3.4850 6.0338 -2.1432 0.9713
-3.9525 5.6189 -2.1130 0.9717
-2.4390 2.0132 -0.9727 0.9869
-5.3402 3.6596 -1.9912 0.9733
-6.1782 2.7760 -2.0833 0.9721
-6.3102 2.1829 -2.0537 0.9724
-6.3905 1.5896 -2.0255 0.9728
-6.4205 1.0003 -1.9986 0.9732
-6.0765 -1.2472 -1.9080 0.9744
-5.6550 -2.2648 -1.8737 0.9748
-5.3894 -2.7388 -1.8594 0.9750
-5.0901 -3.1872 -1.8472 0.9752
-4.7592 -3.6080 -1.8369 0.9753
-4.0114 -4.3613 -1.8226 0.9755
-3.1626 -4.9873 -1.8164 0.9756
-2.7055 -5.2493 -1.8164 0.9756
-2.2293 -5.4757 -1.8185 0.9756
-1.2286 -5.8172 -1.8287 0.9754
0.3601 -6.0344 -1.8593 0.9750
0.9033 -6.0240 -1.8736 0.9748
1.9944 -5.8735 -1.9079 0.9744
3.0714 -5.5450 -1.9497 0.9738
5.0721 -4.3417 -2.0536 0.9724
6.1703 -2.2592 -2.0211 0.9729
6.4429 -1.7259 -2.0516 0.9725
6.6693 -1.1619 -2.0822 0.9721
6.9673 0.0419 -2.1430 0.9713
7.0312 0.6718 -2.1725 0.9709
4.7493 4.1654 -1.9430 0.9739
4.2902 4.4997 -1.9123 0.9743
3.7771 4.7450 -1.8654 0.9749
2.7323 5.0757 -1.7730 0.9762
0.2986 6.2707 -1.9309 0.9741
-0.2725 6.5361 -2.0121 0.9730
-0.7877 5.9827 -1.8560 0.9751
-1.5893 7.1020 -2.2384 0.9700
-3.7701 5.7903 -2.1252 0.9715
-4.2099 5.3534 -2.0947 0.9719
-4.6019 4.8843 -2.0641 0.9723
-2.4087 2.1379 -0.9906 0.9866
-5.2369 3.8720 -2.0032 0.9731
-6.1103 3.0134 -2.0955 0.9719
-6.3643 1.8278 -2.0367 0.9727
-6.4144 1.2364 -2.0092 0.9730
-6.3689 0.0760 -1.9591 0.9737
-6.2773 -0.4863 -1.9365 0.9740
-6.1424 -1.0327 -1.9158 0.9743
-5.9665 -1.5605 -1.8969 0.9745
-5.7518 -2.0674 -1.8799 0.9747
-4.5472 -3.8460 -1.8318 0.9754
-4.1703 -4.2198 -1.8248 0.9755
-3.7674 -4.5623 -1.8199 0.9755
-3.3405 -4.8722 -1.8170 0.9756
-2.8916 -5.1482 -1.8162 0.9756
-2.4229 -5.3891 -1.8174 0.9756
-4.0399 -3.8113 -1.8462 0.9769
-3.2831 -4.4465 -1.8373 0.9770
-2.8713 -4.7174 -1.8357 0.9770
-2.4399 -4.9556 -1.8361 0.9770
-1.9910 -5.1599 -1.8385 0.9770
-1.5268 -5.3292 -1.8427 0.9769
-1.0492 -5.4624 -1.8489 0.9768
-0.5606 -5.5585 -1.8571 0.9767
0.4403 -5.6356 -1.8790 0.9765
1.9632 -5.4507 -1.9258 0.9759
2.4654 -5.3061 -1.9449 0.9756
2.9599 -5.1194 -1.9657 0.9754
3.4431 -4.8902 -1.9880 0.9751
3.9117 -4.6187 -2.0119 0.9748
5.1915 -3.5544 -2.0914 0.9738
5.7510 -1.9866 -2.0225 0.9747
5.9872 -1.4865 -2.0506 0.9743
6.1796 -0.9600 -2.0788 0.9740
6.4588 0.7371 -2.1609 0.9730
6.4429 1.3253 -2.1865 0.9727
6.3689 1.9153 -2.2107 0.9724
6.2356 2.5005 -2.2332 0.9721
6.0429 3.0743 -2.2537 0.9718
5.1950 3.9420 -2.1677 0.9729
4.6302 4.2139 -2.0811 0.9740
4.0962 4.4574 -2.0123 0.9748
3.1253 4.9334 -1.9413 0.9757
1.7138 5.6006 -1.9469 0.9756
0.6374 3.0246 -1.0275 0.9871
0.1845 6.3151 -2.1001 0.9737
-0.3958 6.5843 -2.1926 0.9726
-0.8879 5.9032 -1.9843 0.9752
-1.5713 6.4620 -2.2106 0.9724
-2.6329 5.9433 -2.1608 0.9730
-3.1133 5.6147 -2.1341 0.9733
-3.5549 5.2465 -2.1066 0.9736
-3.9552 4.8436 -2.0787 0.9740
-4.3120 4.4113 -2.0505 0.9743
-4.8896 3.4781 -1.9946 0.9750
-5.5005 3.2158 -2.1179 0.9735
-5.8306 2.1319 -2.0636 0.9742
-5.9600 0.4946 -1.9879 0.9751
-5.9131 -0.0381 -1.9656 0.9754
-5.8239 -0.5590 -1.9448 0.9756
-4.1801 -3.6694 -1.8489 0.9768
-3.8236 -4.0139 -1.8427 0.9769
-3.4426 -4.3286 -1.8384 0.9770
-2.6155 -4.8639 -1.8357 0.9770
-2.1734 -5.0820 -1.8373 0.9770
-1.2426 -5.4133 -1.8462 0.9769
-0.2641 -5.5979 -1.8628 0.9767
0.2373 -5.6327 -1.8740 0.9765
1.2519 -5.5830 -1.9019 0.9762
3.2504 -4.9875 -1.9789 0.9752
4.1834 -4.4362 -2.0269 0.9746
4.6208 -4.0977 -2.0529 0.9743
6.1077 -1.1745 -2.0675 0.9741
6.2721 -0.6340 -2.0955 0.9738
6.3870 -0.0734 -2.1232 0.9734
6.4492 0.5025 -2.1503 0.9731
6.4562 1.0883 -2.1763 0.9728
5.4360 3.8256 -2.2096 0.9724
4.8518 4.1073 -2.1131 0.9736
3.8035 4.6102 -1.9867 0.9751
2.8432 5.0673 -1.9314 0.9758
2.3751 5.2890 -1.9272 0.9759
1.9049 5.5107 -1.9381 0.9757
1.4254 5.7359 -1.9646 0.9754
0.4388 2.8206 -0.9489 0.9880
-1.9014 6.3278 -2.1963 0.9725
-2.4298 6.0631 -2.1712 0.9728
-2.9246 5.7519 -2.1449 0.9732
-3.3822 5.3990 -2.1177 0.9735
-3.7995 5.0094 -2.0899 0.9738
-4.5039 4.1407 -2.0337 0.9745
-5.0266 3.1859 -1.9782 0.9752
-5.6235 2.8967 -2.1027 0.9737
-5.7810 2.3522 -2.0746 0.9740
-5.8900 1.8037 -2.0476 0.9744
-5.9514 1.2556 -2.0218 0.9747
-5.9666 0.7114 -1.9974 0.9750
-5.7512 -0.8637 -1.9332 0.9758
-5.1833 -2.2949 -1.8843 0.9764
-3.5986 -4.2058 -1.8399 0.9769
-3.2040 -4.5021 -1.8368 0.9770
-2.7882 -4.7668 -1.8356 0.9770
-1.9012 -5.1959 -1.8391 0.9769
-0.9542 -5.4842 -1.8504 0.9768
3.0556 -5.0778 -1.9699 0.9753
3.5363 -4.8403 -1.9926 0.9750
6.0285 -1.3852 -2.0561 0.9743
6.2118 -0.8539 -2.0843 0.9739
6.3470 -0.3009 -2.1121 0.9736
6.4602 0.8520 -2.1660 0.9729
6.3474 2.0306 -2.2153 0.9723
6.2025 2.6141 -2.2374 0.9720
5.6868 3.7044 -2.2560 0.9718
5.0805 3.9972 -2.1488 0.9731
4.5244 4.2647 -2.0668 0.9741
3.5104 4.7501 -1.9633 0.9754
3.0325 4.9775 -1.9374 0.9757
1.6198 5.6447 -1.9521 0.9756
0.5734 2.9785 -1.0082 0.9873
0.6192 6.1128 -2.0423 0.9744
-0.5159 6.6399 -2.2138 0.9723
-1.6806 6.4201 -2.2060 0.9724
-2.7300 5.8823 -2.1556 0.9730
-3.2030 5.5455 -2.1287 0.9734
-3.6368 5.1701 -2.1012 0.9737
-4.3767 4.3235 -2.0450 0.9744
-4.9364 3.3828 -1.9892 0.9751
-5.5453 3.1130 -2.1139 0.9736
-5.8520 2.0244 -2.0583 0.9742
-5.9323 1.4756 -2.0320 0.9746
-5.9659 0.9294 -2.0070 0.9749
-5.9542 0.3894 -1.9834 0.9752
-5.6645 -1.1626 -1.9222 0.9759
-5.4892 -1.6481 -1.9051 0.9761
-5.0326 -2.5575 -1.8765 0.9765
-4.7552 -2.9775 -1.8649 0.9766
-4.4477 -3.3719 -1.8553 0.9767
-4.1122 -3.7392 -1.8475 0.9768
-3.7508 -4.0780 -1.8417 0.9769
-2.5302 -4.9093 -1.8359 0.9770
-1.1485 -5.4380 -1.8475 0.9768
1.8591 -5.4752 -1.9220 0.9759
4.2709 -4.3731 -2.0319 0.9746
4.7038 -4.0265 -2.0582 0.9742
5.1112 -3.6391 -2.0856 0.9739
5.4740 -3.2034 -2.1083 0.9736
5.4132 -2.5500 -1.9890 0.9751
5.9420 -1.5917 -2.0448 0.9744
6.4035 0.0385 -2.1286 0.9734
6.4508 1.2039 -2.1813 0.9727
6.0874 2.9574 -2.2497 0.9719
5.8478 3.5172 -2.2683 0.9716
5.3173 3.8830 -2.1886 0.9726
4.7429 4.1597 -2.0970 0.9738
4.1742 4.3781 -2.0107 0.9748
3.7067 4.6564 -1.9783 0.9752
1.6186 3.7800 -1.3668 0.9828
-0.2721 6.5270 -2.1715 0.9728
-0.7878 5.9835 -2.0061 0.9749
-1.4555 6.5039 -2.2154 0.9723
-2.0075 6.2798 -2.1915 0.9726
-3.4673 5.3253 -2.1123 0.9736
-4.2421 4.5024 -2.0563 0.9743
-5.9057 1.6961 -2.0425 0.9744
-5.9580 1.1484 -2.0169 0.9747
-5.9643 0.6055 -1.9927 0.9750
-5.8456 -0.4529 -1.9489 0.9756
-5.7243 -0.9624 -1.9295 0.9758
-5.5641 -1.4552 -1.9118 0.9760
-5.3671 -1.9291 -1.8958 0.9762
-4.5748 -3.2165 -1.8589 0.9767
-4.2503 -3.5949 -1.8504 0.9768
-3.5230 -4.2663 -1.8392 0.9769
-3.1241 -4.5566 -1.8364 0.9770
-2.2659 -5.0399 -1.8368 0.9770
-4.4007 -2.8694 -1.8787 0.9779
-4.1082 -3.2350 -1.8699 0.9780
-3.7894 -3.5750 -1.8630 0.9781
-1.8681 -4.8412 -1.8557 0.9782
-1.4322 -4.9993 -1.8597 0.9782
-0.9840 -5.1232 -1.8656 0.9781
-0.0594 -5.2646 -1.8828 0.9779
0.8876 -5.2583 -1.9070 0.9776
1.8366 -5.0990 -1.9381 0.9772
2.3049 -4.9606 -1.9561 0.9770
3.2143 -4.5652 -1.9966 0.9766
4.0653 -4.0124 -2.0426 0.9760
4.7981 -2.6908 -1.9672 0.9769
5.0834 -2.2814 -1.9926 0.9766
5.5594 2.8283 -2.2306 0.9739
3.8655 4.2064 -2.0429 0.9760
1.5386 3.7838 -1.4607 0.9828
1.7116 5.5934 -2.0918 0.9755
0.6336 3.0067 -1.0988 0.9870
0.3610 3.0333 -1.0924 0.9871
-0.3742 6.2260 -2.2305 0.9739
-0.8871 5.8980 -2.1329 0.9750
-1.9528 5.7428 -2.1691 0.9746
-3.2877 4.8521 -2.0959 0.9754
-3.6615 4.4840 -2.0702 0.9757
-2.4047 2.0566 -1.1315 0.9866
-5.1046 2.9843 -2.1145 0.9752
-5.4294 1.9852 -2.0673 0.9757
-5.5622 0.9665 -2.0189 0.9763
-5.5639 0.4618 -1.9965 0.9766
-5.3270 -0.9966 -1.9380 0.9772
-4.7628 -2.3165 -1.8940 0.9778
-4.2290 -3.0911 -1.8732 0.9780
-3.9205 -3.4415 -1.8656 0.9781
-3.5869 -3.7654 -1.8597 0.9782
-3.2300 -4.0612 -1.8556 0.9782
-2.8517 -4.3278 -1.8534 0.9782
-1.6090 -4.9398 -1.8579 0.9782
-0.7110 -5.1805 -1.8700 0.9780
0.6964 -5.2717 -1.9016 0.9777
1.1721 -5.2270 -1.9156 0.9775
3.9003 -4.1360 -2.0330 0.9761
4.6845 -3.4604 -2.0827 0.9756
5.0258 -3.0605 -2.1043 0.9753
4.9726 -2.4496 -1.9823 0.9767
2.3862 -0.9213 -0.9147 0.9892
5.9551 0.4640 -2.1360 0.9749
5.9560 1.0040 -2.1599 0.9747
5.9042 1.5469 -2.1826 0.9744
5.6388 2.6185 -2.2233 0.9739
5.1589 3.6305 -2.2559 0.9736
4.0609 4.1127 -2.0669 0.9757
3.5866 4.3473 -2.0154 0.9763
3.3126 4.8361 -2.0962 0.9754
2.8397 5.0609 -2.0753 0.9756
1.4236 5.7286 -2.1109 0.9752
0.4044 6.2042 -2.2234 0.9739
-0.1512 6.2548 -2.2374 0.9738
-1.7529 5.8334 -2.1782 0.9745
-2.7011 5.3122 -2.1311 0.9750
-3.1267 4.9911 -2.1062 0.9753
-4.1762 3.8394 -2.0286 0.9762
-5.2283 2.6932 -2.1032 0.9753
-5.3812 2.1895 -2.0776 0.9756
-5.5496 1.1708 -2.0282 0.9762
-5.4814 -0.3283 -1.9637 0.9769
-5.3788 -0.8078 -1.9451 0.9772
-5.2392 -1.2727 -1.9281 0.9774
-5.0642 -1.7208 -1.9127 0.9775
-4.6155 -2.5578 -1.8870 0.9778
-4.0477 -3.3038 -1.8684 0.9780
-3.7239 -3.6385 -1.8618 0.9781
-3.3761 -3.9458 -1.8571 0.9782
-2.6162 -4.4727 -1.8530 0.9782
-2.2080 -4.6900 -1.8537 0.9782
-1.7837 -4.8749 -1.8563 0.9782
0.0328 -5.2706 -1.8848 0.9779
0.9809 -5.2496 -1.9098 0.9776
1.4562 -5.1818 -1.9248 0.9774
2.3959 -4.9289 -1.9598 0.9770
3.7320 -4.2533 -2.0235 0.9762
4.5348 -3.6082 -2.0724 0.9757
4.8960 -3.2277 -2.0971 0.9754
5.3796 -1.7536 -2.0234 0.9763
5.7494 -0.7904 -2.0754 0.9756
5.8687 -0.2782 -2.1010 0.9754
5.9619 0.7863 -2.1505 0.9748
5.9314 1.3287 -2.1737 0.9745
5.8475 1.8707 -2.1955 0.9743
5.5175 2.9296 -2.2340 0.9738
5.2721 3.4343 -2.2501 0.9736
3.4856 4.7165 -2.0973 0.9754
1.4550 3.7659 -1.4437 0.9830
0.5711 2.9663 -1.0802 0.9872
0.6184 6.1046 -2.1942 0.9743
-0.4824 6.2088 -2.2270 0.9739
-2.5204 5.4305 -2.1410 0.9749
-3.7302 4.4084 -2.0651 0.9758
-4.0566 4.0072 -2.0391 0.9761
-4.5844 3.1417 -1.9874 0.9767
-5.1469 2.8894 -2.1108 0.9752
-5.3258 2.3930 -2.0880 0.9755
-5.4502 1.8854 -2.0624 0.9758
-5.5299 1.3755 -2.0378 0.9761
-5.4246 -0.6167 -1.9524 0.9771
-5.2997 -1.0878 -1.9347 0.9773
-5.1386 -1.5429 -1.9187 0.9775
-4.9434 -1.9798 -1.9043 0.9776
-4.7157 -2.3965 -1.8916 0.9778
-4.1706 -3.1618 -1.8716 0.9780
-3.8570 -3.5072 -1.8643 0.9781
-3.5187 -3.8256 -1.8588 0.9782
-3.1574 -4.1159 -1.8551 0.9782
-1.5231 -4.9695 -1.8587 0.9782
-0.6208 -5.1966 -1.8715 0.9780
0.3151 -5.2801 -1.8916 0.9778
0.7897 -5.2660 -1.9042 0.9776
1.2653 -5.2137 -1.9186 0.9775
1.7394 -5.1226 -1.9346 0.9773
2.2090 -4.9923 -1.9523 0.9771
2.6713 -4.8226 -1.9715 0.9769
3.9812 -4.0765 -2.0377 0.9761
4.3809 -3.7501 -2.0622 0.9758
4.7560 -3.3862 -2.0878 0.9755
5.0871 -2.9770 -2.1078 0.9753
5.0274 -2.3682 -1.9873 0.9767
5.2859 -1.9354 -2.0130 0.9764
5.5074 -1.4753 -2.0389 0.9761
5.9174 0.0355 -2.1161 0.9752
5.3771 3.2341 -2.2439 0.9737
4.7364 4.1540 -2.2529 0.9736
3.4991 4.3958 -2.0092 0.9764
1.3279 5.7734 -2.1185 0.9751
0.3902 2.8340 -1.0230 0.9879
-1.8510 5.7901 -2.1738 0.9745
-3.5877 4.5622 -2.0755 0.9756
-3.9303 4.1714 -2.0496 0.9759
-4.2320 3.7563 -2.0236 0.9762
-4.4919 3.3212 -1.9977 0.9765
-4.7093 2.8706 -1.9723 0.9768
-5.2630 2.5955 -2.0985 0.9754
-5.4056 2.0899 -2.0725 0.9757
-5.5357 0.0660 -1.9797 0.9768
-5.4643 -0.4233 -1.9599 0.9770
-4.8110 -2.2315 -1.8965 0.9777
-4.2892 -3.0157 -1.8750 0.9780
-3.6575 -3.7009 -1.8607 0.9781
-3.3053 -4.0027 -1.8563 0.9782
-2.5375 -4.5178 -1.8530 0.9782
-4.1377 -2.6979 -1.8929 0.9791
-3.8638 -3.0426 -1.8846 0.9792
-2.8985 -3.9257 -1.8700 0.9793
-2.1543 -4.3755 -1.8690 0.9793
-0.4944 -4.9013 -1.8878 0.9791
-0.0558 -4.9493 -1.8968 0.9790
1.2800 -4.8808 -1.9337 0.9786
2.1619 -4.6527 -1.9661 0.9783
2.5920 -4.4831 -1.9845 0.9781
3.4155 -4.0329 -2.0253 0.9776
3.8026 -3.7530 -2.0474 0.9774
4.1687 -3.4377 -2.0707 0.9771
4.5091 -3.0871 -2.0941 0.9769
4.7392 -2.1269 -1.9907 0.9780
5.1634 -1.2820 -2.0388 0.9775
5.5061 1.1326 -2.1542 0.9762
5.3125 2.1303 -2.1934 0.9758
5.1413 2.6156 -2.2106 0.9756
4.9213 3.0845 -2.2257 0.9754
0.6350 3.0131 -1.1800 0.9869
0.3604 3.0285 -1.1688 0.9870
-0.3461 5.7579 -2.2105 0.9756
-0.8513 5.6599 -2.1934 0.9758
-1.3407 5.5137 -2.1745 0.9760
-3.0543 4.5077 -2.0866 0.9769
-3.7187 3.8043 -2.0387 0.9775
-2.4056 2.0574 -1.2130 0.9865
-4.4311 2.5905 -1.9670 0.9783
-4.9448 2.3267 -2.0942 0.9769
-5.0745 1.8555 -2.0706 0.9771
-5.1612 1.3801 -2.0473 0.9774
-5.1068 -0.4902 -1.9660 0.9783
-4.6822 -1.7808 -1.9197 0.9788
-4.4760 -2.1770 -1.9074 0.9789
-4.2403 -2.5529 -1.8968 0.9790
-3.9770 -2.9069 -1.8878 0.9791
-3.6878 -3.2372 -1.8805 0.9792
-3.0392 -3.8214 -1.8711 0.9793
-2.3094 -4.2946 -1.8686 0.9793
-1.9189 -4.4867 -1.8700 0.9793
-1.5139 -4.6477 -1.8732 0.9793
-1.0965 -4.7765 -1.8781 0.9792
-0.6687 -4.8723 -1.8847 0.9792
-0.2328 -4.9342 -1.8930 0.9791
1.1008 -4.9089 -1.9279 0.9787
1.5457 -4.8281 -1.9427 0.9785
2.4203 -4.5557 -1.9769 0.9781
2.8441 -4.3639 -1.9961 0.9779
4.3762 -3.2327 -2.0850 0.9770
4.6895 -2.8557 -2.1041 0.9768
4.6375 -2.2845 -1.9811 0.9781
4.8807 -1.8845 -2.0050 0.9778
5.2614 -1.0118 -2.0532 0.9773
5.4815 -0.0630 -2.1007 0.9768
5.5212 0.9307 -2.1457 0.9763
5.3674 1.9319 -2.1861 0.9759
5.2161 2.4222 -2.2039 0.9757
4.7669 3.3547 -2.2338 0.9753
3.3004 4.8183 -2.2381 0.9753
2.8360 5.0545 -2.2210 0.9755
1.9001 5.4966 -2.2287 0.9754
0.4393 2.8241 -1.0953 0.9878
0.3787 5.8099 -2.2312 0.9754
-0.6498 5.7052 -2.2005 0.9757
-1.6239 5.4043 -2.1625 0.9761
-2.0786 5.1869 -2.1414 0.9763
-2.9038 4.6352 -2.0961 0.9768
-3.5969 3.9540 -2.0484 0.9774
-2.5899 1.9859 -1.2507 0.9861
-4.8744 2.5109 -2.1012 0.9768
-5.1932 1.0956 -2.0339 0.9775
-5.2145 0.6218 -2.0125 0.9778
-5.1963 0.1530 -1.9922 0.9780
-5.0468 -0.7579 -1.9557 0.9784
-4.9184 -1.1948 -1.9396 0.9786
-4.5625 -2.0201 -1.9122 0.9789
-3.8070 -3.1074 -1.8832 0.9792
-3.5033 -3.4229 -1.8770 0.9792
-2.0777 -4.4132 -1.8693 0.9793
-1.6783 -4.5868 -1.8717 0.9793
-1.2656 -4.7287 -1.8759 0.9792
-0.8417 -4.8379 -1.8818 0.9792
0.0308 -4.9547 -1.8987 0.9790
0.4751 -4.9607 -1.9097 0.9789
1.8100 -4.7622 -1.9523 0.9784
3.4929 -3.9808 -2.0295 0.9776
3.8761 -3.6940 -2.0519 0.9773
4.2377 -3.3718 -2.0753 0.9771
4.5474 -2.4466 -1.9789 0.9781
5.4512 -0.2584 -2.0913 0.9769
5.5285 0.7291 -2.1370 0.9764
5.4959 1.2312 -2.1583 0.9762
5.4142 1.7321 -2.1784 0.9759
5.2829 2.2265 -2.1970 0.9757
4.8725 3.1740 -2.2285 0.9754
4.5959 3.6159 -2.2410 0.9753
3.4692 4.6943 -2.2369 0.9753
3.0248 4.9648 -2.2279 0.9754
2.5566 5.1869 -2.2160 0.9755
1.6157 5.6302 -2.2447 0.9752
0.5704 2.9625 -1.1561 0.9872
0.5882 5.8059 -2.2363 0.9753
0.0679 5.8001 -2.2229 0.9755
-0.9486 5.6350 -2.1898 0.9758
-1.4344 5.4796 -2.1706 0.9760
-1.8989 5.2793 -2.1500 0.9763
-2.3379 5.0374 -2.1282 0.9765
-2.7479 4.7575 -2.1054 0.9767
-3.7759 3.7300 -2.0339 0.9775
-2.4342 2.0092 -1.2095 0.9866
-4.2748 2.9295 -1.9859 0.9780
-4.4653 2.5068 -1.9624 0.9783
-4.9744 2.2351 -2.0899 0.9769
-5.0948 1.7624 -2.0659 0.9772
-5.1733 1.2868 -2.0429 0.9774
-5.2108 0.8118 -2.0210 0.9777
-5.2083 0.3406 -2.0002 0.9779
-4.9741 -1.0209 -1.9459 0.9785
-4.8254 -1.4488 -1.9308 0.9786
-4.4321 -2.2524 -1.9052 0.9789
-3.6282 -3.2991 -1.8793 0.9792
-2.9710 -3.8728 -1.8705 0.9793
-2.6115 -4.1184 -1.8688 0.9793
-1.0133 -4.7980 -1.8792 0.9792
-0.5838 -4.8872 -1.8862 0.9791
-0.1466 -4.9423 -1.8948 0.9790
0.2961 -4.9625 -1.9051 0.9789
0.7419 -4.9473 -1.9171 0.9788
1.1882 -4.8959 -1.9307 0.9786
1.6326 -4.8079 -1.9458 0.9785
2.0722 -4.6831 -1.9625 0.9783
2.9257 -4.3220 -2.0001 0.9779
3.3335 -4.0860 -2.0208 0.9777
4.0952 -3.5055 -2.0658 0.9772
4.4422 -3.1628 -2.0897 0.9769
4.7462 -2.7775 -2.1074 0.9767
4.9245 -1.8031 -2.0097 0.9778
5.1264 -1.3733 -2.0338 0.9775
5.4936 0.0330 -2.1053 0.9767
5.5148 1.0292 -2.1499 0.9763
5.4530 1.5312 -2.1705 0.9760
4.9705 2.9896 -2.2228 0.9755
4.7126 3.4414 -2.2362 0.9753
3.4865 4.3799 -2.1453 0.9763
3.2149 4.8744 -2.2377 0.9753
1.6073 3.7535 -1.5647 0.9827
1.8073 5.5403 -2.2332 0.9753
0.2766 5.8087 -2.2285 0.9754
-0.2406 5.7718 -2.2138 0.9756
-1.2415 5.5476 -2.1785 0.9759
-1.7150 5.3650 -2.1585 0.9762
-2.1647 5.1394 -2.1371 0.9764
-3.3354 4.2413 -2.0677 0.9772
-4.3935 2.6780 -1.9718 0.9782
-4.9096 2.4213 -2.0978 0.9768
-5.1467 1.4781 -2.0520 0.9773
-5.1882 0.0619 -1.9884 0.9780
-5.1245 -0.3970 -1.9697 0.9782
-5.0243 -0.8447 -1.9524 0.9784
-4.7208 -1.6969 -1.9224 0.9787
-4.5209 -2.0970 -1.9098 0.9789
-2.7583 -4.0231 -1.8693 0.9793
-2.3878 -4.2513 -1.8686 0.9793
-3.0583 -3.4503 -1.8870 0.9803
-2.7343 -3.7033 -1.8840 0.9803
-1.2709 -4.4363 -1.8887 0.9803
-0.0526 -4.6651 -1.9094 0.9800
0.3653 -4.6759 -1.9196 0.9799
2.0334 -4.3764 -1.9751 0.9794
2.4367 -4.2145 -1.9924 0.9792
3.5679 -3.5215 -2.0517 0.9786
3.9087 -3.2234 -2.0735 0.9783
4.2229 -2.8912 -2.0946 0.9781
4.4337 -1.9899 -1.9890 0.9792
4.6452 -1.6046 -2.0114 0.9790
4.8231 -1.1975 -2.0339 0.9788
5.0678 -0.3292 -2.0785 0.9783
5.1298 0.1251 -2.1002 0.9781
3.6971 4.0231 -2.2362 0.9767
3.3057 4.3131 -2.2241 0.9768
2.9339 4.6312 -2.2438 0.9766
1.5987 5.2247 -2.2362 0.9767
0.1575 5.3902 -2.2070 0.9770
-0.7912 5.2606 -2.1772 0.9773
-2.0991 4.7382 -2.1210 0.9779
-2.4882 4.4875 -2.1001 0.9781
-3.1777 3.8915 -2.0562 0.9785
-3.4736 3.5536 -2.0338 0.9788
-4.1487 2.4254 -1.9668 0.9794
-4.8427 1.2950 -2.0516 0.9786
-2.1436 0.3725 -0.8905 0.9906
-1.9568 0.1624 -0.8036 0.9915
-1.9045 -0.0123 -0.7795 0.9918
-1.9579 -0.1879 -0.8050 0.9915
-2.1972 -0.4110 -0.9149 0.9904
