ply
format ascii 1.0
element vertex 1591
property float32 x
property float32 y
property float32 z
property float32 I
end_header
-7.5181 -5.0541 -1.7027 0.9638
-6.4089 -6.2230 -1.6791 0.9643
-5.8016 -6.7401 -1.6716 0.9645
-5.1622 -7.2110 -1.6669 0.9645
-4.4928 -7.6348 -1.6651 0.9646
-3.0722 -8.3366 -1.6700 0.9645
-0.7659 -9.0054 -1.6988 0.9639
2.5486 -9.1100 -1.7781 0.9622
4.2623 -8.7876 -1.8358 0.9610
-9.0854 1.0447 -1.9331 0.9633
-8.9830 0.2253 -1.8994 0.9639
-8.8208 -0.5683 -1.8684 0.9645
-8.6023 -1.3331 -1.8401 0.9650
-7.6449 -3.4321 -1.7714 0.9663
-6.3003 -5.2019 -1.7270 0.9671
-5.7790 -5.7124 -1.7176 0.9673
-4.0295 -6.9895 -1.7054 0.9676
-1.3440 -8.0550 -1.7262 0.9672
1.6183 -8.3115 -1.7899 0.9660
3.9235 -7.9085 -1.8661 0.9646
4.6901 -7.6509 -1.8969 0.9640
6.9238 -6.4843 -2.0052 0.9620
7.6282 -5.9598 -2.0462 0.9612
8.3021 -5.3662 -2.0896 0.9604
8.9384 -4.7036 -2.1350 0.9595
9.3420 -2.9471 -2.0706 0.9607
9.7828 -2.1484 -2.1172 0.9599
10.1576 -1.2946 -2.1645 0.9590
10.4577 -0.3909 -2.2121 0.9581
10.6750 0.5561 -2.2595 0.9572
8.5263 2.8281 -1.8988 0.9639
6.5440 3.5672 -1.5754 0.9700
5.0469 4.0637 -1.3697 0.9739
4.4102 4.2535 -1.2951 0.9753
3.4759 4.8211 -1.2563 0.9760
2.8298 4.7721 -1.1727 0.9776
1.9037 5.1128 -1.1532 0.9779
1.4447 5.2810 -1.1573 0.9779
0.9791 5.4542 -1.1713 0.9776
0.2497 2.8228 -0.5990 0.9885
-0.0070 5.8662 -1.2400 0.9763
-0.5548 6.1067 -1.2962 0.9752
-1.1612 6.3811 -1.3710 0.9738
-1.6419 5.9461 -1.3039 0.9751
-4.6666 9.7041 -2.2761 0.9569
-5.3999 9.0567 -2.2289 0.9578
-6.0549 8.3560 -2.1813 0.9587
-7.1227 6.8368 -2.0869 0.9604
-8.4797 5.6299 -2.1515 0.9592
-8.7566 4.7463 -2.1054 0.9601
-8.9537 3.8628 -2.0613 0.9609
-9.0746 2.9859 -2.0194 0.9617
-9.1229 2.1214 -1.9799 0.9624
-8.6678 -1.1258 -1.8476 0.9649
-8.4109 -1.8682 -1.8212 0.9654
-7.3524 -3.8915 -1.7584 0.9666
-4.8048 -6.4945 -1.7077 0.9675
-2.9144 -7.5422 -1.7092 0.9675
-2.2368 -7.7987 -1.7150 0.9674
-0.8234 -8.1644 -1.7346 0.9670
0.6532 -8.3238 -1.7649 0.9664
1.4090 -8.3219 -1.7841 0.9661
4.4799 -7.7281 -1.8882 0.9641
7.4373 -6.1109 -2.0347 0.9614
8.1203 -5.5363 -2.0774 0.9606
9.3413 -4.1669 -2.1621 0.9590
9.2103 -3.1565 -2.0580 0.9610
10.0616 -1.5346 -2.1514 0.9592
10.3831 -0.6441 -2.1990 0.9584
10.6240 0.2918 -2.2465 0.9575
10.7761 1.2651 -2.2935 0.9566
10.3079 2.1570 -2.2261 0.9579
8.8653 2.7005 -1.9590 0.9628
7.7226 3.1302 -1.7614 0.9665
6.7758 3.4803 -1.6102 0.9693
4.5777 4.2028 -1.3136 0.9749
3.9911 4.3827 -1.2530 0.9761
2.9606 4.7238 -1.1784 0.9775
0.3268 2.8847 -0.6137 0.9882
-0.3992 6.0376 -1.2790 0.9756
-1.4102 5.6443 -1.2298 0.9765
-2.3760 6.8418 -1.5309 0.9708
-6.4794 7.8207 -2.1468 0.9593
-8.3891 5.8720 -2.1645 0.9590
-2.7440 1.5758 -0.6689 0.9871
-9.1167 2.3576 -1.9905 0.9622
-9.0470 0.6729 -1.9176 0.9636
-8.9172 -0.1353 -1.8851 0.9642
-8.7292 -0.9162 -1.8553 0.9648
-8.4866 -1.6672 -1.8282 0.9653
-8.1931 -2.3861 -1.8038 0.9657
-7.0385 -4.3311 -1.7469 0.9668
-6.5723 -4.9038 -1.7334 0.9670
-5.5337 -5.9287 -1.7143 0.9674
-4.9661 -6.3784 -1.7087 0.9675
-4.3693 -6.7849 -1.7058 0.9675
0.4471 -8.3146 -1.7601 0.9665
1.2002 -8.3280 -1.7786 0.9662
2.7299 -8.1842 -1.8237 0.9653
3.5001 -8.0232 -1.8503 0.9648
4.2692 -7.8004 -1.8796 0.9643
5.7869 -7.1622 -1.9463 0.9631
7.9357 -5.7012 -2.0655 0.9608
9.9602 -1.7707 -2.1384 0.9595
10.3024 -0.8937 -2.1859 0.9586
10.7436 0.9943 -2.2807 0.9568
9.2265 2.5645 -2.0242 0.9616
8.0134 3.0209 -1.8102 0.9656
6.1849 3.7017 -1.5236 0.9710
5.4343 3.9517 -1.4203 0.9729
4.1464 4.3344 -1.2679 0.9758
3.7644 4.7142 -1.2752 0.9756
2.1558 5.0203 -1.1549 0.9779
0.7660 5.5407 -1.1823 0.9774
-1.4578 6.5114 -1.4105 0.9731
-5.7046 8.7473 -2.2075 0.9582
-6.3234 8.0261 -2.1598 0.9591
-6.8614 7.2669 -2.1126 0.9600
-9.1051 2.5950 -2.0013 0.9620
-9.1220 1.7376 -1.9629 0.9627
-9.0720 0.8995 -1.9270 0.9634
-8.5586 -1.4639 -1.8354 0.9651
-7.9502 -2.8860 -1.7878 0.9660
-7.5763 -3.5448 -1.7681 0.9664
-6.7042 -4.7503 -1.7368 0.9670
-5.6843 -5.7976 -1.7163 0.9674
-3.9196 -7.0519 -1.7054 0.9676
-0.4959 -8.2188 -1.7404 0.9669
0.2420 -8.3013 -1.7555 0.9666
0.9922 -8.3298 -1.7732 0.9663
1.7519 -8.3026 -1.7937 0.9659
2.5184 -8.2178 -1.8168 0.9655
4.0581 -7.8680 -1.8713 0.9645
4.8237 -7.5992 -1.9026 0.9639
7.7486 -5.8608 -2.0537 0.9611
8.4165 -5.2552 -2.0974 0.9602
9.0454 -4.5805 -2.1432 0.9594
9.4236 -2.8114 -2.0787 0.9606
9.8535 -2.0028 -2.1254 0.9597
10.2157 -1.1398 -2.1728 0.9588
10.5020 -0.2280 -2.2204 0.9580
10.7039 0.7258 -2.2678 0.9571
10.8136 1.7130 -2.3143 0.9562
7.2785 3.2970 -1.6890 0.9679
6.4014 3.6206 -1.5546 0.9704
3.9121 4.6595 -1.2860 0.9754
3.3857 4.8544 -1.2510 0.9761
2.7472 4.8026 -1.1695 0.9776
2.2822 4.9738 -1.1568 0.9779
0.8967 5.4875 -1.1753 0.9775
0.1990 2.7379 -0.5803 0.9888
-0.0995 5.9063 -1.2487 0.9761
-0.6562 6.1520 -1.3078 0.9750
-1.2751 6.4335 -1.3864 0.9735
-4.0050 10.1901 -2.3144 0.9562
-4.8005 9.5951 -2.2679 0.9571
-5.5204 8.9376 -2.2205 0.9580
-6.1613 8.2286 -2.1729 0.9588
-7.2007 6.6983 -2.0788 0.9606
-8.1891 6.3538 -2.1909 0.9585
-8.9803 3.7086 -2.0538 0.9611
-9.0882 2.8335 -2.0123 0.9618
-8.8396 -0.4903 -1.8714 0.9645
-8.3606 -1.9949 -1.8169 0.9655
-7.6834 -3.3673 -1.7733 0.9663
-7.2785 -3.9995 -1.7555 0.9666
-6.8333 -4.5937 -1.7405 0.9669
-5.8326 -5.6633 -1.7185 0.9673
-4.0918 -6.9534 -1.7054 0.9676
-3.4565 -7.2950 -1.7064 0.9675
-2.1161 -7.8386 -1.7162 0.9674
-1.4150 -8.0379 -1.7252 0.9672
-0.6963 -8.1868 -1.7368 0.9670
0.7848 -8.3275 -1.7681 0.9664
1.5422 -8.3158 -1.7878 0.9660
3.0765 -8.1193 -1.8353 0.9651
-8.2225 2.4833 -2.0187 0.9653
-8.2434 0.9479 -1.9502 0.9665
-8.1637 0.2047 -1.9193 0.9670
-7.8401 -1.2150 -1.8646 0.9679
-7.3183 -2.5277 -1.8197 0.9687
-6.9906 -3.1384 -1.8009 0.9690
-6.6222 -3.7162 -1.7847 0.9693
-5.7735 -4.7670 -1.7596 0.9697
-4.7921 -5.6688 -1.7446 0.9700
-4.2574 -6.0608 -1.7407 0.9700
-3.6964 -6.4118 -1.7394 0.9700
-1.8767 -7.2069 -1.7503 0.9699
-0.5712 -7.5093 -1.7700 0.9695
0.7865 -7.6166 -1.7996 0.9690
2.8743 -7.3859 -1.8627 0.9680
3.5713 -7.1987 -1.8886 0.9675
4.2629 -6.9539 -1.9170 0.9670
4.9447 -6.6504 -1.9477 0.9665
6.2605 -5.8631 -2.0159 0.9654
6.8840 -5.3783 -2.0531 0.9647
7.4767 -4.8327 -2.0923 0.9641
8.0323 -4.2268 -2.1332 0.9634
8.3568 -2.6363 -2.0595 0.9646
8.7305 -1.9173 -2.1008 0.9639
9.4582 0.4927 -2.2259 0.9618
9.5509 2.2450 -2.3059 0.9605
8.5103 2.8228 -2.1073 0.9638
7.4343 3.2283 -1.9049 0.9672
6.5338 3.5617 -1.7489 0.9699
5.7676 3.8491 -1.6297 0.9719
5.0936 4.1014 -1.5369 0.9735
3.9083 4.5097 -1.4025 0.9758
3.4716 4.8152 -1.3951 0.9759
1.4660 5.3588 -1.3057 0.9774
0.9957 5.5463 -1.3243 0.9771
0.2467 2.7898 -0.6582 0.9886
-0.0035 2.9353 -0.6899 0.9880
-1.1642 6.3974 -1.5282 0.9736
-1.5510 5.6167 -1.3695 0.9763
-3.4077 9.0857 -2.2806 0.9609
-4.1312 8.5909 -2.2404 0.9616
-5.3860 7.4329 -2.1573 0.9630
-5.9112 6.7880 -2.1155 0.9637
-6.7509 5.4093 -2.0331 0.9651
-7.6141 5.0553 -2.1480 0.9631
-8.0744 3.4834 -2.0667 0.9645
-8.1997 2.6980 -2.0288 0.9652
-8.2590 1.9205 -1.9928 0.9658
-8.2551 1.1555 -1.9591 0.9663
-8.1913 0.4071 -1.9275 0.9669
-8.0709 -0.3210 -1.8983 0.9674
-7.4009 -2.3542 -1.8253 0.9686
-6.3311 -4.1136 -1.7745 0.9695
-5.8984 -4.6311 -1.7625 0.9697
-5.4320 -5.1117 -1.7530 0.9698
-4.4072 -5.9570 -1.7415 0.9700
-3.8532 -6.3194 -1.7395 0.9700
-3.2744 -6.6400 -1.7400 0.9700
-2.6730 -6.9175 -1.7429 0.9700
-2.0510 -7.1507 -1.7484 0.9699
-0.7542 -7.4790 -1.7667 0.9696
0.5975 -7.6138 -1.7949 0.9691
1.9835 -7.5434 -1.8331 0.9685
2.6821 -7.4275 -1.8560 0.9681
3.3800 -7.2559 -1.8812 0.9676
5.4305 -6.3929 -1.9714 0.9661
6.0845 -5.9858 -2.0060 0.9655
6.7153 -5.5177 -2.0427 0.9649
7.3171 -4.9887 -2.0813 0.9643
8.6335 -2.1198 -2.0893 0.9641
8.9637 -1.3672 -2.1310 0.9634
9.2278 -0.5724 -2.1729 0.9627
7.7092 3.1248 -1.9550 0.9664
4.6483 4.2676 -1.4830 0.9744
3.6146 4.7622 -1.4051 0.9757
3.1032 4.9515 -1.3734 0.9763
2.5252 4.9659 -1.3093 0.9774
2.0569 5.1346 -1.3000 0.9775
1.5937 5.3093 -1.3028 0.9775
1.1262 5.4935 -1.3179 0.9772
0.0660 2.8194 -0.6628 0.9885
-0.4048 6.1234 -1.4423 0.9751
-1.4096 5.6416 -1.3667 0.9764
-3.9383 8.7332 -2.2516 0.9614
-5.2294 7.6034 -2.1688 0.9628
-6.2481 6.2997 -2.0853 0.9642
-7.5282 5.2694 -2.1596 0.9629
-8.1720 2.9134 -2.0390 0.9650
-8.2491 2.1332 -2.0025 0.9656
-8.2623 1.3643 -1.9681 0.9662
-8.2147 0.6110 -1.9360 0.9667
-7.9499 -0.8344 -1.8787 0.9677
-7.7391 -1.5204 -1.8536 0.9681
-7.1761 -2.8065 -1.8109 0.9688
-6.0209 -4.4924 -1.7655 0.9696
-5.5635 -4.9833 -1.7554 0.9698
-5.0741 -5.4363 -1.7477 0.9699
-4.5549 -5.8502 -1.7425 0.9700
-4.0081 -6.2239 -1.7398 0.9700
-2.8405 -6.8456 -1.7419 0.9700
-1.5884 -7.2914 -1.7538 0.9698
-0.2695 -7.5508 -1.7758 0.9694
1.0971 -7.6126 -1.8076 0.9689
1.7918 -7.5657 -1.8273 0.9686
3.1884 -7.3087 -1.8740 0.9678
3.8835 -7.0957 -1.9011 0.9673
4.5712 -6.8246 -1.9305 0.9668
5.2472 -6.4943 -1.9623 0.9663
5.9067 -6.1038 -1.9963 0.9657
7.1549 -5.1402 -2.0705 0.9644
7.7317 -4.5674 -2.1105 0.9638
8.8792 -1.5785 -2.1195 0.9636
9.3742 0.0270 -2.2032 0.9622
9.5601 1.7564 -2.2845 0.9608
7.9991 3.0155 -2.0091 0.9655
6.1755 3.6962 -1.6915 0.9709
5.4545 3.9664 -1.5850 0.9727
3.2416 4.9003 -1.3809 0.9761
2.6561 4.9201 -1.3141 0.9773
1.7211 5.2605 -1.3008 0.9775
0.7791 5.6352 -1.3370 0.9769
-0.2516 6.0680 -1.4273 0.9754
-0.8258 6.2754 -1.4876 0.9743
-6.1247 6.4867 -2.0967 0.9640
-6.9013 5.0878 -2.0151 0.9654
-2.6431 1.6055 -0.7268 0.9874
-8.2344 2.3468 -2.0123 0.9654
-8.1440 0.0767 -1.9141 0.9671
-7.9990 -0.6412 -1.8860 0.9676
-7.8020 -1.3345 -1.8603 0.9680
-7.5560 -2.0004 -1.8370 0.9684
-6.9290 -3.2420 -1.7979 0.9691
-6.1407 -4.3510 -1.7688 0.9695
-5.6926 -4.8520 -1.7579 0.9697
-5.2117 -5.3156 -1.7496 0.9699
-3.5956 -6.4690 -1.7394 0.9700
-3.0064 -6.7703 -1.7410 0.9700
-2.3954 -7.0281 -1.7451 0.9700
-1.1171 -7.4076 -1.7606 0.9697
2.2978 -7.4981 -1.8431 0.9683
2.9965 -7.3572 -1.8670 0.9679
3.6929 -7.1600 -1.8934 0.9674
6.9901 -5.2872 -2.0599 0.9646
8.1227 -4.1133 -2.1398 0.9633
8.7898 -1.7866 -2.1081 0.9638
9.3233 -0.2024 -2.1917 0.9624
9.5422 2.4012 -2.3126 0.9604
4.9831 4.1426 -1.5230 0.9737
4.3860 4.3647 -1.4542 0.9749
3.9072 4.6536 -1.4281 0.9753
1.3844 5.3908 -1.3081 0.9774
0.1982 2.7270 -0.6426 0.9888
-0.1013 6.0128 -1.4133 0.9756
-0.6631 6.2167 -1.4694 0.9746
-1.2760 6.4376 -1.5424 0.9734
-1.6523 5.6380 -1.3808 0.9761
-3.5388 9.0037 -2.2737 0.9610
-5.4830 7.3227 -2.1500 0.9631
-5.9959 6.6715 -2.1081 0.9638
-6.4387 5.9894 -2.0667 0.9645
-8.1012 3.3455 -2.0599 0.9646
-8.2628 1.7855 -1.9868 0.9659
-8.0442 -0.4462 -1.8935 0.9674
-7.8612 -1.1465 -1.8671 0.9679
-7.6283 -1.8202 -1.8432 0.9683
-7.3487 -2.4650 -1.8217 0.9687
-7.0252 -3.0789 -1.8027 0.9690
-6.2578 -4.2069 -1.7722 0.9695
-5.8191 -4.7179 -1.7607 0.9697
-4.3121 -6.0235 -1.7410 0.9700
-2.5655 -6.9616 -1.7437 0.9700
-1.9401 -7.1869 -1.7496 0.9699
-1.2968 -7.3664 -1.7579 0.9697
-0.6378 -7.4987 -1.7687 0.9695
1.4091 -7.5981 -1.8162 0.9687
-7.4958 2.2638 -2.0274 0.9682
-7.4748 0.1874 -1.9360 0.9696
-7.1957 -1.1151 -1.8853 0.9704
-6.9849 -1.7327 -1.8633 0.9707
-6.0994 -3.4228 -1.8109 0.9715
-5.7284 -3.9256 -1.7980 0.9717
-5.3236 -4.3955 -1.7875 0.9719
-4.4216 -5.2306 -1.7733 0.9721
-3.9290 -5.5932 -1.7698 0.9722
-2.8712 -6.2022 -1.7696 0.9722
-2.3104 -6.4462 -1.7730 0.9721
-1.7311 -6.6481 -1.7787 0.9720
0.0943 -6.9893 -1.8098 0.9715
2.6382 -6.7795 -1.8836 0.9704
3.2743 -6.6000 -1.9076 0.9700
3.9035 -6.3677 -1.9338 0.9696
4.5218 -6.0815 -1.9622 0.9692
5.1248 -5.7409 -1.9925 0.9687
5.7079 -5.3456 -2.0248 0.9682
7.2849 -3.8335 -2.1314 0.9666
2.3346 -0.9733 -0.6549 0.9896
7.5519 -2.3824 -2.0503 0.9678
8.1405 -1.0376 -2.1248 0.9667
8.4812 0.4418 -2.1989 0.9655
8.5327 2.0056 -2.2695 0.9644
7.4216 3.2228 -2.0949 0.9671
5.7591 3.8435 -1.7927 0.9718
4.4812 4.3220 -1.6120 0.9746
2.9092 4.9059 -1.4768 0.9767
1.9572 5.2564 -1.4523 0.9771
1.0522 3.8464 -1.0325 0.9837
1.0060 5.6042 -1.4742 0.9767
0.2461 2.7820 -0.7231 0.9885
-0.5607 6.1719 -1.6046 0.9747
-1.5492 5.6103 -1.5070 0.9762
-3.7020 7.6983 -2.2117 0.9653
-4.8451 6.6864 -2.1380 0.9665
-5.3279 6.1182 -2.1006 0.9670
-5.7492 5.5184 -2.0633 0.9676
-6.1082 4.8944 -2.0266 0.9682
-7.4717 2.4585 -2.0366 0.9680
-7.4973 0.3726 -1.9436 0.9695
-7.3965 -0.2942 -1.9166 0.9699
-7.2456 -0.9411 -1.8918 0.9703
-7.0474 -1.5653 -1.8692 0.9706
-6.5195 -2.7363 -1.8307 0.9712
-6.1952 -3.2790 -1.8149 0.9715
-5.4381 -4.2697 -1.7902 0.9718
-4.5524 -5.1243 -1.7747 0.9721
-2.4665 -6.3832 -1.7718 0.9721
-1.8921 -6.5968 -1.7769 0.9720
-0.0774 -6.9752 -1.8061 0.9716
0.5500 -7.0096 -1.8205 0.9714
1.1845 -6.9959 -1.8371 0.9711
3.1000 -6.6546 -1.9008 0.9701
7.1545 -3.9925 -2.1213 0.9667
7.7911 -1.9129 -2.0772 0.9674
8.2950 -0.5145 -2.1518 0.9662
8.4507 0.2321 -2.1889 0.9657
8.4735 2.5811 -2.2935 0.9641
7.6957 3.1193 -2.1500 0.9663
6.7542 3.4692 -1.9660 0.9691
5.9589 3.7685 -1.8255 0.9713
4.0740 4.4738 -1.5667 0.9753
2.5602 5.0347 -1.4624 0.9769
0.0640 2.7336 -0.7080 0.9888
-2.3687 6.8210 -1.8695 0.9706
-3.5273 7.8218 -2.2216 0.9652
-4.1428 7.3533 -2.1853 0.9657
-2.7271 1.5661 -0.8143 0.9871
-7.5488 1.2465 -1.9810 0.9689
-7.4294 -0.1127 -1.9238 0.9698
-6.8755 -2.0024 -1.8542 0.9708
-6.6019 -2.5819 -1.8354 0.9711
-5.1309 -4.5958 -1.7835 0.9719
-4.6812 -5.0153 -1.7763 0.9721
-3.6990 -5.7439 -1.7689 0.9722
-3.1710 -6.0506 -1.7687 0.9722
-2.6212 -6.3171 -1.7708 0.9721
-1.4650 -6.7250 -1.7820 0.9720
-0.8631 -6.8638 -1.7911 0.9718
-0.2484 -6.9575 -1.8026 0.9716
1.0095 -7.0045 -1.8323 0.9712
2.2869 -6.8559 -1.8713 0.9706
2.9251 -6.7052 -1.8941 0.9702
4.1834 -6.2456 -1.9463 0.9694
4.7953 -5.9350 -1.9756 0.9690
5.3900 -5.5698 -2.0068 0.9685
5.9625 -5.1498 -2.0399 0.9680
6.5077 -4.6753 -2.0747 0.9674
7.0202 -4.1470 -2.1111 0.9669
7.3527 -2.7237 -2.0302 0.9681
7.7036 -2.0935 -2.0669 0.9676
8.0015 -1.4225 -2.1042 0.9670
8.5193 0.7884 -2.2152 0.9653
8.5494 1.5707 -2.2506 0.9647
6.1662 3.6905 -1.8606 0.9707
4.2257 4.4173 -1.5828 0.9751
3.7550 4.7025 -1.5581 0.9754
2.6918 4.9862 -1.4671 0.9769
1.2709 5.5076 -1.4635 0.9769
0.7859 5.6843 -1.4858 0.9766
-0.2512 6.0602 -1.5704 0.9752
-1.8342 5.7327 -1.5584 0.9754
-3.9790 7.4873 -2.1954 0.9656
-5.0699 6.4350 -2.1211 0.9667
-6.2495 4.6073 -2.0103 0.9684
-7.4099 2.8489 -2.0555 0.9677
-7.4583 0.0702 -1.9312 0.9697
-7.3346 -0.5880 -1.9052 0.9701
-7.1621 -1.2250 -1.8813 0.9704
-6.9434 -1.8383 -1.8597 0.9708
-6.3783 -2.9843 -1.8233 0.9713
-5.6599 -4.0103 -1.7960 0.9717
-5.2494 -4.4743 -1.7859 0.9719
-4.3372 -5.2968 -1.7726 0.9721
-3.8401 -5.6528 -1.7694 0.9722
-2.7744 -6.2479 -1.7700 0.9721
-2.2102 -6.4846 -1.7738 0.9721
-1.6280 -6.6790 -1.7800 0.9720
-0.4185 -6.9363 -1.7992 0.9717
0.2040 -6.9965 -1.8123 0.9715
0.8349 -7.0094 -1.8277 0.9713
1.4716 -6.9738 -1.8454 0.9710
2.7500 -6.7518 -1.8876 0.9703
3.3851 -6.5632 -1.9120 0.9699
4.0127 -6.3215 -1.9386 0.9695
4.6286 -6.0258 -1.9673 0.9691
5.8076 -5.2707 -2.0306 0.9681
6.3609 -4.8112 -2.0650 0.9676
7.3595 -3.7268 -2.1359 0.9665
7.6122 -2.2710 -2.0568 0.9677
8.3736 -0.1818 -2.1686 0.9660
8.5488 1.3543 -2.2410 0.9649
8.5223 2.1445 -2.2754 0.9643
5.6355 3.8899 -1.7730 0.9721
4.9763 4.1370 -1.6755 0.9736
2.3463 5.1134 -1.4567 0.9770
1.8748 5.2867 -1.4523 0.9771
0.9208 5.6352 -1.4784 0.9767
-0.1012 6.0060 -1.5553 0.9755
-3.1662 8.0558 -2.2411 0.9649
-5.8165 5.4107 -2.0569 0.9677
-7.4876 2.3345 -2.0307 0.9681
-7.5431 1.6300 -1.9981 0.9686
-7.3736 -0.4090 -1.9121 0.9699
-7.2143 -1.0521 -1.8877 0.9703
-5.3654 -4.3501 -1.7884 0.9719
-4.4694 -5.1923 -1.7738 0.9721
-3.9793 -5.5587 -1.7700 0.9721
-3.4642 -5.8868 -1.7685 0.9722
-1.7897 -6.6299 -1.7780 0.9720
-1.1959 -6.7929 -1.7859 0.9719
0.0318 -6.9846 -1.8085 0.9716
0.6607 -7.0107 -1.8232 0.9713
3.2111 -6.6203 -1.9051 0.9701
-6.8805 2.0780 -2.0347 0.9706
-6.9352 1.4339 -2.0048 0.9710
-6.9365 0.7976 -1.9766 0.9714
-6.6433 -1.0295 -1.9031 0.9724
-6.2241 -2.1497 -1.8641 0.9730
-4.9345 -4.0743 -1.8116 0.9737
-3.6445 -5.1882 -1.7949 0.9740
-2.1428 -5.9786 -1.7979 0.9739
0.6700 -6.4884 -1.8466 0.9732
1.2576 -6.4588 -1.8628 0.9730
1.8473 -6.3828 -1.8811 0.9728
2.4359 -6.2595 -1.9015 0.9725
3.5967 -5.8672 -1.9482 0.9718
4.1616 -5.5971 -1.9745 0.9714
4.7108 -5.2772 -2.0026 0.9710
6.2194 -4.0200 -2.0964 0.9697
6.6537 -3.5014 -2.1285 0.9692
6.8813 -2.1709 -2.0427 0.9704
7.3939 -0.9424 -2.1101 0.9695
7.6787 0.4000 -2.1767 0.9685
7.7249 1.1001 -2.2089 0.9681
7.7019 1.8104 -2.2398 0.9676
7.4087 3.2172 -2.2866 0.9670
5.7506 3.8378 -1.9572 0.9717
2.9057 4.8999 -1.6127 0.9766
2.4264 5.0768 -1.5929 0.9769
1.9549 5.2501 -1.5860 0.9770
1.0048 5.5974 -1.6099 0.9766
0.2467 2.7891 -0.7927 0.9884
-0.5600 6.1637 -1.7521 0.9746
-2.7539 7.3424 -2.2200 0.9679
-3.8991 6.5396 -2.1554 0.9688
-4.3981 6.0697 -2.1220 0.9693
-5.2357 5.0256 -2.0545 0.9703
-5.8516 3.8851 -1.9884 0.9712
-6.5400 3.5449 -2.1059 0.9695
-6.9255 1.6104 -2.0129 0.9709
-6.8200 -0.2713 -1.9322 0.9720
-6.6876 -0.8686 -1.9091 0.9724
-5.7360 -3.0359 -1.8372 0.9734
-4.6453 -4.3713 -1.8057 0.9738
-4.2219 -4.7523 -1.7996 0.9739
-3.7724 -5.0991 -1.7956 0.9740
-2.8032 -5.6844 -1.7942 0.9740
-0.6443 -6.3886 -1.8177 0.9737
-0.0717 -6.4605 -1.8290 0.9735
0.5092 -6.4886 -1.8425 0.9733
1.0957 -6.4715 -1.8581 0.9731
1.6851 -6.4084 -1.8758 0.9728
3.4392 -5.9328 -1.9413 0.9719
4.0077 -5.6763 -1.9671 0.9715
4.5616 -5.3701 -1.9947 0.9711
5.0967 -5.0140 -2.0240 0.9707
5.6085 -4.6082 -2.0549 0.9703
6.0921 -4.1535 -2.0873 0.9698
6.5424 -3.6509 -2.1210 0.9693
6.4598 -2.8815 -2.0024 0.9710
6.7952 -2.3289 -2.0335 0.9706
7.3361 -1.1189 -2.1008 0.9696
7.5254 -0.4668 -2.1345 0.9691
7.6544 0.2102 -2.1677 0.9687
7.7189 0.9062 -2.2002 0.9682
7.6406 2.3274 -2.2611 0.9673
7.4929 3.0371 -2.2888 0.9669
6.7432 3.4636 -2.1460 0.9690
3.6056 4.7503 -1.6883 0.9755
1.1252 3.7485 -1.1080 0.9839
0.3231 2.8527 -0.8127 0.9881
0.0632 2.7016 -0.7650 0.9888
-0.9900 6.3184 -1.8105 0.9738
-2.3651 6.8104 -2.0409 0.9705
-4.7270 5.7055 -2.0975 0.9697
-2.7186 1.5612 -0.8875 0.9871
-6.6859 3.0815 -2.0841 0.9699
-6.8271 2.4339 -2.0518 0.9703
-6.9118 1.7874 -2.0211 0.9708
-6.9422 1.1463 -1.9919 0.9712
-6.9203 0.5147 -1.9645 0.9716
-6.5636 -1.2895 -1.8936 0.9726
-6.1075 -2.3886 -1.8565 0.9731
-5.8211 -2.9001 -1.8411 0.9733
-5.4990 -3.3837 -1.8278 0.9735
-5.1435 -3.8378 -1.8167 0.9737
-2.4313 -5.8595 -1.7959 0.9740
-1.3583 -6.2349 -1.8065 0.9738
-0.7999 -6.3612 -1.8150 0.9737
-0.2301 -6.4451 -1.8257 0.9735
0.3488 -6.4853 -1.8386 0.9734
3.2809 -5.9947 -1.9346 0.9720
3.8526 -5.7518 -1.9598 0.9716
4.4110 -5.4593 -1.9869 0.9712
5.4703 -4.7247 -2.0463 0.9704
6.4222 -3.7938 -2.1116 0.9695
6.8227 -3.2468 -2.1390 0.9691
6.7057 -2.4840 -2.0244 0.9707
6.9897 3.3757 -2.1974 0.9682
5.4389 3.9550 -1.9038 0.9724
4.2202 4.4115 -1.7283 0.9749
3.7503 4.6966 -1.7014 0.9753
2.6885 4.9801 -1.6022 0.9767
2.2137 5.1551 -1.5882 0.9769
1.2318 3.7650 -1.1214 0.9837
1.2694 5.5009 -1.5982 0.9768
0.7849 5.6773 -1.6225 0.9765
-0.2509 6.0524 -1.7149 0.9751
-0.8236 6.2586 -1.7870 0.9741
-1.4517 6.4839 -1.8810 0.9728
-4.6056 5.8457 -2.1068 0.9695
-2.6429 1.6054 -0.8754 0.9872
-6.6370 3.2591 -2.0932 0.9697
-6.7939 2.6121 -2.0606 0.9702
-6.8940 1.9648 -2.0294 0.9706
-6.9392 1.3218 -1.9998 0.9711
-6.8729 0.0647 -1.9458 0.9718
-6.7661 -0.5424 -1.9216 0.9722
-6.6133 -1.1311 -1.8994 0.9725
-6.4170 -1.6989 -1.8792 0.9728
-5.9035 -2.7622 -1.8451 0.9733
-4.8661 -4.1476 -1.8101 0.9738
-4.4581 -4.5469 -1.8027 0.9739
-4.0227 -4.9127 -1.7975 0.9739
-3.0783 -5.5382 -1.7937 0.9740
-2.5735 -5.7955 -1.7951 0.9740
0.1889 -6.4787 -1.8348 0.9734
0.7726 -6.4866 -1.8493 0.9732
1.3608 -6.4489 -1.8658 0.9730
1.9505 -6.3647 -1.8845 0.9727
4.2590 -5.5447 -1.9793 0.9714
4.8050 -5.2160 -2.0077 0.9709
5.3302 -4.8375 -2.0377 0.9705
5.8299 -4.4096 -2.0693 0.9701
6.2992 -3.9331 -2.1023 0.9696
6.9343 -2.0688 -2.0486 0.9704
7.4284 -0.8288 -2.1160 0.9694
7.7259 1.2239 -2.2144 0.9680
7.5833 2.6478 -2.2739 0.9672
6.3716 3.6038 -2.0723 0.9700
5.6273 3.8842 -1.9357 0.9720
4.3749 4.3537 -1.7473 0.9747
3.8973 4.6419 -1.7158 0.9751
3.3733 4.8366 -1.6693 0.9758
2.8208 4.9313 -1.6083 0.9767
2.3435 5.1073 -1.5908 0.9769
1.8725 5.2803 -1.5860 0.9770
1.4004 5.4531 -1.5938 0.9769
0.1974 2.7163 -0.7710 0.9887
-0.6613 6.2002 -1.7652 0.9744
-1.2724 6.4197 -1.8527 0.9732
-1.6477 5.6225 -1.6586 0.9759
-2.8614 7.2804 -2.2145 0.9680
-3.4495 6.8948 -2.1825 0.9685
-3.9902 6.4603 -2.1496 0.9689
-4.4801 5.9834 -2.1161 0.9694
-4.9168 5.4708 -2.0823 0.9699
-5.2986 4.9289 -2.0486 0.9704
-6.5812 3.4350 -2.1016 0.9696
-6.9321 1.4980 -2.0077 0.9709
-6.8939 0.2345 -1.9527 0.9717
-6.8001 -0.3772 -1.9280 0.9721
-6.6598 -0.9712 -1.9053 0.9724
-5.9832 -2.6221 -1.8493 0.9732
-5.6804 -3.1213 -1.8349 0.9734
-4.9732 -4.0320 -1.8125 0.9737
-4.5731 -4.4404 -1.8045 0.9738
-3.6912 -5.1561 -1.7951 0.9740
-2.7143 -5.7285 -1.7945 0.9740
-2.1956 -5.9579 -1.7975 0.9739
-1.6596 -6.1477 -1.8027 0.9739
-0.5447 -6.4043 -1.8196 0.9736
0.0295 -6.4686 -1.8312 0.9735
2.3773 -6.2739 -1.8993 0.9725
-6.3524 1.9185 -2.0410 0.9726
-5.9935 -1.4868 -1.8993 0.9745
-5.7836 -1.9976 -1.8820 0.9747
-5.5366 -2.4856 -1.8667 0.9749
-4.9399 -3.3853 -1.8419 0.9752
-4.2206 -4.1719 -1.8253 0.9755
-3.8202 -4.5191 -1.8201 0.9755
-3.3955 -4.8337 -1.8169 0.9756
-2.4814 -5.3601 -1.8167 0.9756
-1.9962 -5.5695 -1.8198 0.9755
-1.4950 -5.7415 -1.8248 0.9755
-0.9802 -5.8749 -1.8320 0.9754
0.6230 -6.0332 -1.8656 0.9749
1.7154 -5.9273 -1.8979 0.9745
2.2603 -5.8082 -1.9170 0.9743
2.8001 -5.6442 -1.9379 0.9740
3.3315 -5.4346 -1.9607 0.9737
3.8509 -5.1793 -1.9851 0.9734
4.8382 -4.5311 -2.0388 0.9726
5.2977 -4.1391 -2.0678 0.9723
5.7287 -3.7028 -2.0981 0.9719
2.3290 -0.9710 -0.7761 0.9895
6.3135 -1.9918 -2.0363 0.9727
6.5637 -1.4415 -2.0670 0.9723
6.9145 -0.2585 -2.1282 0.9715
7.0072 0.3650 -2.1582 0.9711
7.0106 1.6479 -2.2151 0.9703
6.7564 2.9340 -2.2656 0.9696
5.0723 4.0842 -2.0030 0.9731
4.4692 4.3104 -1.9098 0.9743
3.4587 4.7972 -1.8190 0.9756
2.4235 5.0706 -1.7286 0.9768
1.9525 5.2438 -1.7210 0.9769
-0.0034 2.8672 -0.8819 0.9881
-1.5458 5.5978 -1.7862 0.9760
-4.4364 5.0944 -2.0778 0.9721
-4.8014 4.6087 -2.0471 0.9725
-5.1163 4.0996 -2.0165 0.9729
-5.5949 3.0326 -1.9574 0.9737
-6.3993 1.4880 -2.0208 0.9729
-6.3210 -0.2514 -1.9457 0.9739
-5.8451 -1.8593 -1.8866 0.9747
-5.6081 -2.3538 -1.8707 0.9749
-5.3355 -2.8240 -1.8568 0.9751
-5.0296 -3.2680 -1.8449 0.9752
-4.6924 -3.6842 -1.8350 0.9753
-4.3261 -4.0709 -1.8271 0.9754
-3.5146 -4.7505 -1.8176 0.9756
-3.0735 -5.0407 -1.8159 0.9756
-2.6117 -5.2961 -1.8163 0.9756
-1.6343 -5.6980 -1.8232 0.9755
-0.0667 -6.0113 -1.8491 0.9752
0.4735 -6.0343 -1.8617 0.9750
3.7095 -5.2541 -1.9782 0.9734
4.7074 -4.6310 -2.0311 0.9727
5.9313 -2.6458 -1.9976 0.9732
6.4996 -1.5958 -2.0585 0.9724
6.7150 -1.0242 -2.0893 0.9720
6.8789 -0.4267 -2.1199 0.9716
6.9875 0.1919 -2.1500 0.9712
7.0372 0.8262 -2.1794 0.9708
6.9489 2.1167 -2.2343 0.9701
6.5989 3.3895 -2.2818 0.9694
5.2489 4.0178 -2.0331 0.9727
4.6295 4.2504 -1.9331 0.9740
4.0634 4.4622 -1.8563 0.9751
3.0918 4.9333 -1.7908 0.9759
2.5540 5.0225 -1.7331 0.9767
2.0817 5.1963 -1.7218 0.9768
1.1154 3.7157 -1.1932 0.9839
1.1362 5.5422 -1.7401 0.9766
0.3262 2.8798 -0.8914 0.9879
0.0629 2.6861 -0.8264 0.9888
-0.4033 6.0994 -1.8801 0.9747
-0.9886 6.3096 -1.9644 0.9736
-3.4265 6.0819 -2.1471 0.9712
-3.9002 5.6708 -2.1169 0.9716
-4.7060 4.7449 -2.0555 0.9724
-5.0348 4.2416 -2.0249 0.9728
-5.3129 3.7188 -1.9947 0.9732
-2.7148 1.5590 -0.9629 0.9870
-6.1583 2.8383 -2.0857 0.9720
-6.2990 2.2457 -2.0569 0.9724
-6.3846 1.6511 -2.0284 0.9728
-6.2403 -0.6550 -1.9299 0.9741
-5.9037 -1.7194 -1.8913 0.9746
-5.6769 -2.2202 -1.8749 0.9748
-5.4139 -2.6972 -1.8604 0.9750
-5.1169 -3.1486 -1.8479 0.9752
-4.7881 -3.5726 -1.8375 0.9753
-3.6319 -4.6648 -1.8184 0.9756
-2.2651 -5.4589 -1.8179 0.9756
-1.7725 -5.6516 -1.8218 0.9755
-1.2649 -5.8063 -1.8278 0.9754
-0.2141 -5.9977 -1.8459 0.9752
0.3244 -6.0322 -1.8580 0.9750
1.9611 -5.8792 -1.9063 0.9744
3.0406 -5.5555 -1.9479 0.9738
4.5749 -4.7275 -2.0235 0.9728
5.4955 -3.9481 -2.0813 0.9721
6.4318 -1.7479 -2.0500 0.9725
6.9634 0.0200 -2.1418 0.9713
7.0348 1.2924 -2.2000 0.9705
6.9763 1.9390 -2.2271 0.9702
6.1471 3.6792 -2.2035 0.9705
5.4310 3.9493 -2.0654 0.9723
4.2147 4.4057 -1.8753 0.9748
3.2297 4.8822 -1.8005 0.9758
2.6852 4.9740 -1.7386 0.9766
1.2201 3.7290 -1.2068 0.9837
1.2679 5.4942 -1.7343 0.9767
0.1276 2.6569 -0.8181 0.9889
-0.2506 6.0444 -1.8607 0.9750
-0.8225 6.2500 -1.9389 0.9740
-1.8259 5.7068 -1.8429 0.9752
-3.2884 6.1878 -2.1553 0.9711
-3.7745 5.7877 -2.1253 0.9715
-4.2147 5.3495 -2.0947 0.9719
-4.6068 4.8791 -2.0640 0.9723
-4.9494 4.3821 -2.0333 0.9727
-5.2415 3.8642 -2.0029 0.9731
-2.6427 1.6053 -0.9511 0.9871
-6.1045 2.9976 -2.0918 0.9719
-6.2664 2.4093 -2.0649 0.9723
-6.3662 1.8144 -2.0361 0.9727
-6.4150 1.2220 -2.0086 0.9730
-6.4146 0.6360 -1.9827 0.9734
-6.1371 -1.0497 -1.9150 0.9743
-5.7429 -2.0847 -1.8792 0.9748
-4.8815 -3.4588 -1.8402 0.9753
-2.3977 -5.3994 -1.8171 0.9756
-1.9095 -5.6024 -1.8205 0.9755
-1.4058 -5.7676 -1.8259 0.9755
-0.8888 -5.8942 -1.8334 0.9754
0.1757 -6.0268 -1.8545 0.9751
1.8111 -5.9097 -1.9011 0.9745
3.4235 -5.3932 -1.9648 0.9736
3.9404 -5.1299 -1.9896 0.9733
4.4408 -4.8206 -2.0159 0.9729
4.9205 -4.4657 -2.0438 0.9726
5.8009 -3.6220 -2.1035 0.9718
6.7954 -0.7582 -2.1031 0.9718
7.0174 0.4758 -2.1633 0.9710
6.9988 1.7612 -2.2198 0.9702
6.8932 2.4068 -2.2457 0.9699
6.7215 3.0448 -2.2696 0.9696
6.3616 3.5981 -2.2480 0.9699
5.6189 3.8785 -2.1000 0.9718
4.9625 4.1255 -1.9849 0.9734
3.8922 4.6359 -1.8618 0.9750
3.3690 4.8305 -1.8114 0.9757
2.8174 4.9252 -1.7452 0.9765
2.3407 5.1011 -1.7263 0.9768
1.8702 5.2739 -1.7211 0.9769
0.2021 2.7810 -0.8576 0.9884
-0.1009 5.9905 -1.8428 0.9752
-1.2706 6.4106 -2.0101 0.9730
-1.6454 5.6147 -1.7996 0.9758
-3.6453 5.9017 -2.1336 0.9714
-4.0983 5.4735 -2.1032 0.9718
-4.5039 5.0113 -2.0724 0.9722
-5.1662 4.0084 -2.0112 0.9730
-5.6264 2.9367 -1.9521 0.9738
-6.3439 1.9779 -2.0439 0.9726
-6.4066 1.3844 -2.0160 0.9729
-6.3845 0.2172 -1.9649 0.9736
-6.3036 -0.3496 -1.9418 0.9739
-6.0123 -1.4346 -1.9012 0.9745
-5.8062 -1.9476 -1.8837 0.9747
-5.5628 -2.4379 -1.8681 0.9749
-4.9727 -3.3429 -1.8430 0.9752
-4.6303 -3.7541 -1.8334 0.9754
-3.4389 -4.8038 -1.8171 0.9756
-1.5457 -5.7260 -1.8242 0.9755
0.0274 -6.0184 -1.8511 0.9751
0.5687 -6.0340 -1.8642 0.9750
1.1141 -6.0071 -1.8792 0.9748
-5.8938 1.7800 -2.0465 0.9744
-5.9661 0.6860 -1.9962 0.9750
-5.9344 0.1488 -1.9733 0.9753
-5.7438 -0.8901 -1.9321 0.9758
-5.5887 -1.3864 -1.9140 0.9760
-5.3963 -1.8638 -1.8978 0.9762
-4.6157 -3.1631 -1.8600 0.9767
-4.2944 -3.5457 -1.8512 0.9768
-3.9459 -3.9005 -1.8443 0.9769
-3.5723 -4.2259 -1.8394 0.9769
-3.1755 -4.5206 -1.8363 0.9770
-2.3206 -5.0129 -1.8362 0.9770
-1.8667 -5.2081 -1.8390 0.9769
-1.3978 -5.3680 -1.8438 0.9769
-0.9163 -5.4913 -1.8506 0.9768
1.0905 -5.6004 -1.8966 0.9762
1.5997 -5.5273 -1.9127 0.9760
2.1063 -5.4126 -1.9306 0.9758
3.5800 -4.8148 -1.9944 0.9750
4.0444 -4.5306 -2.0188 0.9747
5.8261 -1.8380 -2.0307 0.9746
6.0499 -1.3286 -2.0589 0.9742
6.3585 -0.2377 -2.1151 0.9735
6.4365 0.3353 -2.1424 0.9732
6.4597 0.9199 -2.1689 0.9729
6.3332 2.1007 -2.2180 0.9723
5.6984 3.8030 -2.2773 0.9715
4.4631 4.3046 -2.0611 0.9742
1.9501 5.2373 -1.8577 0.9767
1.0308 3.7682 -1.2986 0.9837
1.0023 5.5835 -1.8857 0.9764
0.2486 2.8104 -0.9378 0.9882
-0.0035 2.9111 -0.9677 0.9878
-0.5585 6.1471 -2.0518 0.9743
-1.1577 6.3617 -2.1494 0.9731
-1.5441 5.5919 -1.9283 0.9758
-3.2735 5.4903 -2.1248 0.9734
-4.0874 4.6937 -2.0689 0.9741
-4.9745 3.3028 -1.9848 0.9751
-5.1778 2.8065 -1.9577 0.9755
-5.8844 -0.2340 -1.9576 0.9755
-5.7797 -0.7507 -1.9373 0.9757
-5.4528 -1.7345 -1.9020 0.9762
-4.9827 -2.6373 -1.8740 0.9765
-4.6990 -3.0532 -1.8627 0.9767
-4.3855 -3.4432 -1.8534 0.9768
-3.6774 -4.1394 -1.8405 0.9769
-1.5281 -5.3276 -1.8423 0.9769
-1.0498 -5.4611 -1.8485 0.9768
-0.0623 -5.6154 -1.8667 0.9766
0.9504 -5.6133 -1.8924 0.9763
1.4598 -5.5515 -1.9081 0.9761
1.9674 -5.4483 -1.9255 0.9759
2.4704 -5.3032 -1.9447 0.9756
2.9655 -5.1156 -1.9655 0.9754
4.3691 -4.2982 -2.0373 0.9745
4.7973 -3.9417 -2.0639 0.9742
5.1991 -3.5447 -2.0917 0.9738
5.4814 -2.4451 -1.9951 0.9750
5.7572 -1.9731 -2.0230 0.9747
6.4204 0.1764 -2.1350 0.9733
6.4589 0.7583 -2.1617 0.9730
6.3646 1.9387 -2.2116 0.9723
6.2288 2.5247 -2.2341 0.9721
6.0333 3.0990 -2.2546 0.9718
5.7787 3.6545 -2.2727 0.9716
5.2413 4.0120 -2.1941 0.9726
4.6231 4.2445 -2.0862 0.9739
4.0580 4.4563 -2.0034 0.9749
3.0497 4.8661 -1.9089 0.9761
2.5508 5.0163 -1.8706 0.9766
2.0791 5.1900 -1.8584 0.9767
1.0793 3.5956 -1.2479 0.9843
-0.4027 6.0912 -2.0292 0.9746
-0.9873 6.3008 -2.1200 0.9735
-1.4063 5.6286 -1.9285 0.9758
-2.1563 6.2093 -2.1849 0.9727
-3.1487 5.5889 -2.1323 0.9733
-3.5881 5.2170 -2.1047 0.9737
-4.6481 3.9158 -2.0203 0.9747
-5.8409 2.0824 -2.0612 0.9742
-5.9263 1.5326 -2.0347 0.9745
-5.9646 0.9849 -2.0095 0.9748
-5.9573 0.4431 -1.9857 0.9751
-5.2981 -2.0720 -1.8910 0.9763
-4.4746 -3.3387 -1.8558 0.9767
-4.1408 -3.7089 -1.8478 0.9768
-3.7808 -4.0506 -1.8418 0.9769
-3.3964 -4.3624 -1.8378 0.9770
-2.9899 -4.6428 -1.8356 0.9770
-1.6573 -5.2845 -1.8410 0.9769
-0.2000 -5.6033 -1.8638 0.9766
2.3328 -5.3473 -1.9392 0.9757
2.8303 -5.1714 -1.9596 0.9755
5.4715 -3.2322 -2.1124 0.9736
5.6852 -2.1060 -2.0153 0.9748
6.1361 -1.0909 -2.0717 0.9741
6.4002 0.0184 -2.1275 0.9734
6.4538 0.5973 -2.1545 0.9730
6.4516 1.1853 -2.1804 0.9727
6.3915 1.7765 -2.2051 0.9724
5.8545 3.5040 -2.2680 0.9716
4.2090 4.3998 -2.0240 0.9747
2.6819 4.9678 -1.8766 0.9765
2.2083 5.1425 -1.8603 0.9767
1.2663 5.4874 -1.8720 0.9765
0.1278 2.6628 -0.8862 0.9888
-0.2503 6.0364 -2.0083 0.9749
-0.8213 6.2414 -2.0926 0.9738
-1.4474 6.4652 -2.2023 0.9725
-1.8218 5.6939 -1.9872 0.9751
-3.4713 5.3229 -2.1124 0.9736
-3.8807 4.9256 -2.0844 0.9739
-4.2467 4.4977 -2.0562 0.9743
-4.8430 3.5704 -2.0000 0.9750
-2.6426 1.6052 -1.0278 0.9871
-5.2542 2.5801 -1.9457 0.9756
-5.8090 2.2334 -2.0687 0.9741
-5.9076 1.6837 -2.0419 0.9744
-5.9587 1.1351 -2.0163 0.9748
-5.9638 0.5913 -1.9921 0.9751
-5.9244 0.0558 -1.9694 0.9753
-5.7195 -0.9783 -1.9288 0.9758
-5.5577 -1.4714 -1.9110 0.9761
-5.3590 -1.9454 -1.8951 0.9763
-3.8823 -3.9596 -1.8433 0.9769
-3.5044 -4.2797 -1.8387 0.9770
-2.6824 -4.8259 -1.8353 0.9770
-1.3143 -5.3922 -1.8449 0.9769
0.1641 -5.6288 -1.8718 0.9765
0.6706 -5.6299 -1.8846 0.9764
1.1797 -5.5906 -1.8993 0.9762
2.1946 -5.3882 -1.9339 0.9758
2.6944 -5.2240 -1.9539 0.9755
4.1238 -4.4765 -2.0232 0.9747
5.3702 -3.3531 -2.1045 0.9737
2.3375 -0.9318 -0.8365 0.9894
5.8684 -1.7508 -2.0356 0.9745
6.0845 -1.2367 -2.0639 0.9742
6.4445 0.4370 -2.1471 0.9731
6.4579 1.0230 -2.1734 0.9728
6.3109 2.2035 -2.2220 0.9722
5.9259 3.3517 -2.2631 0.9717
5.6105 3.8727 -2.2661 0.9717
3.3040 4.7373 -1.9199 0.9759
1.3970 5.4397 -1.8669 0.9766
0.9174 5.6144 -1.8910 0.9763
-0.1008 5.9826 -1.9889 0.9751
-0.6595 6.1834 -2.0671 0.9741
-1.6431 5.6068 -1.9421 0.9757
-2.8902 5.7769 -2.1472 0.9731
-3.7724 5.0381 -2.0921 0.9738
-4.1505 4.6181 -2.0640 0.9742
-2.6392 1.6934 -1.0423 0.9869
-5.2087 2.7186 -1.9530 0.9755
-5.7572 -0.8396 -1.9340 0.9758
-5.6059 -1.3376 -1.9158 0.9760
-5.1930 -2.2758 -1.8847 0.9764
-4.9353 -2.7119 -1.8719 0.9765
-4.3277 -3.5088 -1.8520 0.9768
-3.9819 -3.8663 -1.8449 0.9769
-3.6107 -4.1947 -1.8398 0.9769
-3.2161 -4.4925 -1.8366 0.9770
-2.8002 -4.7585 -1.8353 0.9770
-1.9127 -5.1902 -1.8387 0.9770
-1.4452 -5.3536 -1.8433 0.9769
-0.9648 -5.4807 -1.8498 0.9768
-0.4738 -5.5703 -1.8583 0.9767
2.0559 -5.4259 -1.9287 0.9758
2.5578 -5.2734 -1.9482 0.9756
-5.4913 1.6584 -2.0513 0.9759
-5.5513 1.1478 -2.0272 0.9762
-5.5427 0.1390 -1.9827 0.9767
-5.3721 -0.8325 -1.9440 0.9772
-5.2302 -1.2974 -1.9270 0.9774
-4.3274 -2.9656 -1.8760 0.9780
-4.0274 -3.3253 -1.8677 0.9781
-3.7015 -3.6588 -1.8612 0.9781
-3.3515 -3.9647 -1.8565 0.9782
-2.9795 -4.2416 -1.8537 0.9782
-2.5875 -4.4883 -1.8527 0.9782
-2.1774 -4.7036 -1.8535 0.9782
-1.7513 -4.8863 -1.8562 0.9782
-1.3112 -5.0355 -1.8608 0.9781
-0.8593 -5.1500 -1.8671 0.9781
0.0711 -5.2715 -1.8853 0.9779
0.5449 -5.2769 -1.8971 0.9777
1.0211 -5.2442 -1.9106 0.9776
1.4971 -5.1729 -1.9258 0.9774
3.3413 -4.4939 -2.0026 0.9765
4.1829 -3.9174 -2.0494 0.9759
4.5715 -3.5716 -2.0746 0.9757
4.9334 -3.1888 -2.1007 0.9754
2.3242 -0.9690 -0.9005 0.9894
5.4027 -1.7044 -2.0259 0.9762
5.6046 -1.2308 -2.0520 0.9759
5.8786 -0.2198 -2.1037 0.9753
5.9449 0.3097 -2.1288 0.9750
5.6892 2.4705 -2.2180 0.9740
5.4903 2.9929 -2.2361 0.9738
5.2381 3.4958 -2.2520 0.9736
4.9343 3.9731 -2.2655 0.9734
4.4570 4.2986 -2.2144 0.9740
1.9476 5.2308 -1.9960 0.9766
1.0234 3.7410 -1.3870 0.9837
0.2483 2.8073 -1.0078 0.9881
-0.0034 2.8846 -1.0316 0.9878
-0.5577 6.1387 -2.2043 0.9742
-1.5425 5.5859 -2.0723 0.9757
-2.1225 5.6591 -2.1614 0.9747
-3.0254 5.0742 -2.1126 0.9752
-3.7852 4.3467 -2.0612 0.9758
-4.1056 3.9408 -2.0351 0.9761
-4.3843 3.5130 -2.0091 0.9764
-4.6206 3.0678 -1.9834 0.9767
-5.4670 1.7989 -2.0582 0.9758
-5.5392 1.2881 -2.0337 0.9761
-5.4989 -0.2187 -1.9680 0.9769
-4.9033 -2.0580 -1.9016 0.9777
-4.6694 -2.4714 -1.8893 0.9778
-4.1126 -3.2289 -1.8698 0.9780
-1.8700 -4.8394 -1.8553 0.9782
-1.4335 -4.9978 -1.8593 0.9782
-0.9846 -5.1220 -1.8652 0.9781
1.3664 -5.1964 -1.9214 0.9774
1.8405 -5.0968 -1.9379 0.9772
2.3095 -4.9579 -1.9559 0.9770
3.2201 -4.5609 -1.9965 0.9766
3.6551 -4.3029 -2.0190 0.9763
4.0720 -4.0059 -2.0427 0.9760
5.8519 -0.3630 -2.0967 0.9754
5.9317 0.1629 -2.1220 0.9751
5.8641 1.7863 -2.1922 0.9743
5.7344 2.3243 -2.2127 0.9741
5.5504 2.8509 -2.2314 0.9738
5.3127 3.3598 -2.2479 0.9737
5.0229 3.8448 -2.2620 0.9735
4.6167 4.2386 -2.2412 0.9737
2.5476 5.0100 -2.0099 0.9764
1.1334 5.5283 -2.0181 0.9763
0.6463 5.7051 -2.0532 0.9759
0.0623 2.6624 -0.9524 0.9888
-1.4057 5.6262 -2.0738 0.9757
-2.4649 5.4658 -2.1442 0.9749
-2.9093 5.1639 -2.1196 0.9751
-3.3185 4.8251 -2.0942 0.9754
-4.0216 4.0548 -2.0423 0.9760
-4.5599 3.1917 -1.9904 0.9766
-4.9277 2.2711 -1.9403 0.9772
-5.4378 1.9387 -2.0645 0.9758
-5.5642 0.9188 -2.0167 0.9763
-5.5617 0.4137 -1.9944 0.9766
-5.4344 -0.5704 -1.9541 0.9771
-5.3127 -1.0437 -1.9362 0.9773
-5.1547 -1.5012 -1.9199 0.9775
-4.9621 -1.9406 -1.9054 0.9776
-4.4807 -2.7571 -1.8814 0.9779
-2.8055 -4.3564 -1.8530 0.9782
-2.4050 -4.5891 -1.8528 0.9782
-1.1091 -5.0913 -1.8634 0.9781
-0.6526 -5.1900 -1.8706 0.9780
0.2839 -5.2786 -1.8904 0.9778
1.2355 -5.2169 -1.9172 0.9775
2.1812 -5.0000 -1.9508 0.9771
3.0978 -4.6248 -1.9906 0.9766
3.5371 -4.3778 -2.0127 0.9764
3.9594 -4.0914 -2.0360 0.9761
4.3608 -3.7664 -2.0606 0.9758
4.7379 -3.4038 -2.0862 0.9755
5.0849 -3.0038 -2.1120 0.9752
5.2749 -1.9540 -2.0116 0.9764
5.4986 -1.4943 -2.0376 0.9761
5.6818 -1.0101 -2.0637 0.9758
5.9584 0.5514 -2.1399 0.9749
5.9509 1.0933 -2.1637 0.9746
5.7755 2.1773 -2.2072 0.9741
5.6064 2.7076 -2.2264 0.9739
5.3833 3.2220 -2.2436 0.9737
4.2033 4.3938 -2.1744 0.9745
3.0785 4.6536 -1.9953 0.9766
1.2647 5.4805 -2.0114 0.9764
0.7820 5.6560 -2.0418 0.9760
-0.8085 6.1442 -2.2162 0.9740
-2.3369 5.5418 -2.1508 0.9748
-3.5917 4.5589 -2.0755 0.9756
-3.9345 4.1670 -2.0494 0.9759
-4.2362 3.7507 -2.0234 0.9763
-4.4959 3.3145 -1.9975 0.9766
-4.8873 2.3999 -1.9471 0.9771
-5.4016 2.0768 -2.0695 0.9757
-5.5050 1.5689 -2.0470 0.9760
-5.5666 0.5519 -2.0004 0.9765
-5.4613 -0.4378 -1.9593 0.9770
-5.3499 -0.9150 -1.9409 0.9772
-5.0184 -1.8217 -1.9092 0.9776
-4.8019 -2.2467 -1.8959 0.9777
-4.5541 -2.6502 -1.8843 0.9779
-4.2768 -3.0304 -1.8744 0.9780
-3.9721 -3.3856 -1.8664 0.9781
-3.6418 -3.7144 -1.8602 0.9781
-2.9123 -4.2870 -1.8534 0.9782
-1.2329 -5.0580 -1.8617 0.9781
-0.7791 -5.1664 -1.8684 0.9780
0.1538 -5.2752 -1.8872 0.9778
0.6282 -5.2739 -1.8993 0.9777
1.5802 -5.1565 -1.9286 0.9773
2.9744 -4.6858 -1.9848 0.9767
5.3019 -2.6849 -2.1253 0.9751
2.3373 -0.9318 -0.8998 0.9894
5.4410 -1.6233 -2.0305 0.9762
5.7876 -0.6458 -2.0825 0.9756
5.9123 1.4877 -2.1802 0.9744
5.6583 2.5631 -2.2214 0.9740
4.8760 4.0536 -2.2676 0.9734
3.1909 4.5751 -1.9947 0.9766
2.8103 4.9128 -2.0240 0.9762
1.8656 5.2609 -1.9961 0.9766
0.9865 3.8415 -1.4183 0.9833
0.9162 5.6072 -2.0318 0.9762
-0.6586 6.1748 -2.2207 0.9740
-1.1970 6.0392 -2.2017 0.9742
-1.6408 5.5988 -2.0864 0.9755
-2.2067 5.6145 -2.1573 0.9747
-3.4905 4.6617 -2.0826 0.9756
-2.6481 1.6991 -1.1252 0.9867
-5.3618 2.2143 -2.0745 0.9757
-5.5473 1.1987 -2.0296 0.9762
-5.5471 0.1887 -1.9848 0.9767
-5.4852 -0.3042 -1.9646 0.9769
-5.3843 -0.7852 -1.9458 0.9772
-5.2460 -1.2517 -1.9287 0.9773
-4.3559 -2.9283 -1.8770 0.9779
-4.0586 -3.2905 -1.8685 0.9780
-3.7351 -3.6267 -1.8618 0.9781
-3.0176 -4.2153 -1.8539 0.9782
-2.6275 -4.4650 -1.8527 0.9782
-2.2191 -4.6835 -1.8534 0.9782
-1.7945 -4.8696 -1.8559 0.9782
-0.9049 -5.1401 -1.8664 0.9781
-0.4442 -5.2227 -1.8744 0.9780
0.0240 -5.2690 -1.8842 0.9779
1.9231 -5.0754 -1.9409 0.9772
-5.1951 1.0741 -2.0330 0.9775
-5.1943 0.1303 -1.9912 0.9780
-5.1359 -0.3309 -1.9722 0.9782
-4.9101 -1.2180 -1.9387 0.9786
-4.7460 -1.6392 -1.9242 0.9787
-4.3237 -2.4264 -1.9000 0.9790
-4.0692 -2.7886 -1.8904 0.9791
-3.4822 -3.4421 -1.8763 0.9792
-3.1535 -3.7304 -1.8719 0.9793
-2.8037 -3.9913 -1.8692 0.9793
-1.6478 -4.5976 -1.8716 0.9793
-1.2336 -4.7372 -1.8759 0.9792
-0.3740 -4.9170 -1.8897 0.9791
0.5120 -4.9586 -1.9103 0.9789
1.4055 -4.8565 -1.9375 0.9786
1.8486 -4.7504 -1.9534 0.9784
3.9117 -3.6634 -2.0538 0.9773
4.6061 -2.9772 -2.1018 0.9768
4.8966 -2.5767 -2.1204 0.9766
2.3229 -0.9684 -0.9645 0.9893
5.0312 -1.5872 -2.0217 0.9777
5.3583 -0.6829 -2.0700 0.9771
5.4599 -0.2041 -2.0938 0.9769
5.5168 0.2874 -2.1170 0.9766
5.4887 1.2901 -2.1607 0.9761
5.4011 1.7915 -2.1807 0.9759
4.5579 3.6700 -2.2425 0.9752
4.2306 4.0802 -2.2524 0.9751
2.8911 4.8753 -2.1721 0.9760
2.4144 5.0516 -2.1456 0.9763
1.9452 5.2242 -2.1363 0.9764
1.0263 3.7517 -1.4905 0.9835
0.9998 5.5693 -2.1684 0.9761
0.2471 2.7937 -1.0748 0.9881
-0.0032 2.6888 -1.0304 0.9885
-3.1824 4.3919 -2.0785 0.9770
-4.0851 3.2733 -2.0061 0.9778
-4.3090 2.8609 -1.9821 0.9781
-2.8718 1.5566 -1.2518 0.9861
-5.1074 1.6805 -2.0605 0.9772
-5.2131 0.7297 -2.0172 0.9777
-5.1557 -0.2051 -1.9773 0.9781
-5.0704 -0.6586 -1.9594 0.9783
-4.3889 -2.3229 -1.9029 0.9790
-4.1419 -2.6912 -1.8929 0.9791
-3.8679 -3.0368 -1.8845 0.9792
-3.5686 -3.3582 -1.8779 0.9792
-3.2460 -3.6538 -1.8729 0.9793
-2.9019 -3.9224 -1.8698 0.9793
-2.5381 -4.1626 -1.8683 0.9793
-1.7595 -4.5536 -1.8707 0.9793
-1.3487 -4.7021 -1.8746 0.9793
-0.9262 -4.8180 -1.8801 0.9792
-0.4942 -4.9004 -1.8874 0.9791
-0.0549 -4.9484 -1.8964 0.9790
0.3893 -4.9613 -1.9071 0.9789
1.2830 -4.8793 -1.9334 0.9786
2.5969 -4.4798 -1.9843 0.9781
3.4214 -4.0278 -2.0252 0.9776
4.1751 -3.4305 -2.0708 0.9771
4.5169 -3.0796 -2.0950 0.9769
4.8211 -2.6903 -2.1157 0.9766
4.7448 -2.1165 -1.9910 0.9780
5.1679 -1.2689 -2.0393 0.9775
5.5041 1.1518 -2.1550 0.9762
4.9103 3.1053 -2.2264 0.9754
4.6402 3.5519 -2.2394 0.9753
3.9202 4.3049 -2.2312 0.9754
2.9545 4.7141 -2.1320 0.9765
2.5444 5.0036 -2.1511 0.9762
-0.3804 5.7537 -2.2097 0.9756
-1.3747 5.5023 -2.1734 0.9760
-2.2862 5.0696 -2.1312 0.9765
-2.7006 4.7935 -2.1084 0.9767
-3.4313 4.1416 -2.0611 0.9772
-3.7429 3.7738 -2.0369 0.9775
-4.2514 2.9758 -1.9887 0.9780
-2.7039 1.5528 -1.1949 0.9867
-4.6022 2.1211 -1.9419 0.9785
-5.0757 1.8096 -2.0650 0.9772
-5.1671 1.3362 -2.0453 0.9774
-5.1727 -0.0785 -1.9825 0.9781
-5.0975 -0.5350 -1.9642 0.9783
-4.9861 -0.9796 -1.9473 0.9785
-4.8403 -1.4097 -1.9319 0.9786
-4.4518 -2.2179 -1.9060 0.9789
-4.2126 -2.5922 -1.8955 0.9790
-2.9985 -3.8513 -1.8705 0.9793
-2.6400 -4.0995 -1.8686 0.9793
-1.8702 -4.5071 -1.8700 0.9793
-1.0434 -4.7894 -1.8784 0.9792
-0.6138 -4.8811 -1.8853 0.9791
-0.1763 -4.9387 -1.8938 0.9791
1.1603 -4.8992 -1.9294 0.9787
2.0462 -4.6905 -1.9611 0.9783
2.4795 -4.5304 -1.9791 0.9781
2.9023 -4.3330 -1.9986 0.9779
3.7042 -3.8278 -2.0413 0.9774
4.0767 -3.5210 -2.0643 0.9772
4.7430 -2.8018 -2.1110 0.9767
4.6919 -2.2328 -1.9912 0.9780
5.4094 -0.4693 -2.0808 0.9770
5.4912 0.0158 -2.1043 0.9768
5.5272 0.5115 -2.1272 0.9765
5.3454 2.0151 -2.1892 0.9758
4.9763 2.9784 -2.2225 0.9755
4.0695 4.2539 -2.2560 0.9751
3.4471 4.3168 -2.1170 0.9766
2.2027 5.1295 -2.1393 0.9764
0.7809 5.6486 -2.1853 0.9759
-1.2421 5.5482 -2.1788 0.9759
-2.5897 4.8731 -2.1148 0.9766
-2.9813 4.5715 -2.0915 0.9769
-3.3391 4.2382 -2.0677 0.9772
-4.1908 3.0896 -1.9952 0.9779
-2.6424 1.6051 -1.1848 0.9868
-5.0409 1.9381 -2.0696 0.9771
-5.2014 0.9908 -2.0291 0.9776
-5.2138 0.5169 -2.0078 0.9778
-5.1218 -0.4106 -1.9691 0.9782
-4.8837 -1.2930 -1.9360 0.9786
-3.7362 -3.1845 -1.8813 0.9792
-3.4262 -3.4945 -1.8754 0.9793
-2.3685 -4.2612 -1.8683 0.9793
-1.5762 -4.6244 -1.8723 0.9793
-1.1598 -4.7583 -1.8769 0.9792
-0.2973 -4.9263 -1.8913 0.9791
0.1445 -4.9586 -1.9010 0.9790
1.0374 -4.9163 -1.9255 0.9787
1.4834 -4.8406 -1.9402 0.9785
2.3613 -4.5781 -1.9740 0.9782
2.7873 -4.3910 -1.9931 0.9780
3.2006 -4.1668 -2.0135 0.9777
3.5981 -3.9059 -2.0351 0.9775
4.6618 -2.9108 -2.1061 0.9767
2.3370 -0.9317 -0.9641 0.9893
5.0660 -1.5114 -2.0259 0.9776
5.2426 -1.0656 -2.0501 0.9773
5.5220 0.3744 -2.1210 0.9766
5.4770 1.3782 -2.1643 0.9761
5.3806 1.8787 -2.1840 0.9759
4.5037 3.7441 -2.2444 0.9752
3.1008 4.4460 -2.0772 0.9770
2.8067 4.9066 -2.1662 0.9761
2.3319 5.0820 -2.1427 0.9763
1.8633 5.2542 -2.1364 0.9764
1.3934 5.4260 -2.1468 0.9763
0.2019 2.7777 -1.0673 0.9881
-0.0975 5.7881 -2.2184 0.9755
-1.1081 5.5905 -2.1841 0.9759
-1.5883 5.4199 -2.1643 0.9761
-2.4765 4.9499 -2.1210 0.9766
-3.2442 4.3328 -2.0743 0.9771
-3.5762 3.9791 -2.0502 0.9773
-2.6573 1.7049 -1.2099 0.9866
-4.5215 2.3600 -1.9546 0.9784
-5.1259 1.5981 -2.0576 0.9773
-5.1909 1.1217 -2.0352 0.9775
-5.2143 0.6468 -2.0135 0.9777
-5.1981 0.1768 -1.9931 0.9780
-4.9247 -1.1751 -1.9402 0.9785
-4.7638 -1.5979 -1.9255 0.9787
-4.5709 -2.0032 -1.9125 0.9788
-4.0958 -2.7534 -1.8913 0.9791
-3.8173 -3.0949 -1.8832 0.9792
-3.1873 -3.7028 -1.8723 0.9793
-2.8395 -3.9665 -1.8694 0.9793
-2.4726 -4.2017 -1.8683 0.9793
-2.0882 -4.4072 -1.8689 0.9793
-1.2755 -4.7248 -1.8754 0.9793
-0.8511 -4.8349 -1.8813 0.9792
0.9144 -4.9307 -1.9218 0.9787
1.8046 -4.7626 -1.9518 0.9784
2.2423 -4.6230 -1.9690 0.9782
-4.8118 1.4532 -2.0572 0.9785
-1.9556 0.2249 -0.8056 0.9915
-1.9221 0.0482 -0.7869 0.9917
-1.9491 -0.1256 -0.7994 0.9916
-4.4697 -1.5438 -1.9354 0.9798
-4.2868 -1.9245 -1.9232 0.9799
-4.0751 -2.2868 -1.9125 0.9800
-3.5721 -2.9493 -1.8959 0.9802
-3.2843 -3.2464 -1.8900 0.9802
-2.9746 -3.5188 -1.8858 0.9803
-2.6449 -3.7653 -1.8832 0.9803
-2.2971 -3.9845 -1.8823 0.9803
-1.9329 -4.1754 -1.8831 0.9803
-1.1635 -4.4680 -1.8896 0.9802
-0.7622 -4.5679 -1.8954 0.9802
-0.3526 -4.6357 -1.9027 0.9801
3.3136 -3.7120 -2.0365 0.9787
4.0045 -3.1286 -2.0798 0.9783
4.3148 -2.7889 -2.1027 0.9780
4.7021 -1.4834 -2.0180 0.9789
5.0001 -0.6373 -2.0630 0.9785
5.1402 0.2678 -2.1066 0.9780
5.1068 1.2004 -2.1470 0.9776
4.8913 2.1241 -2.1825 0.9772
4.4938 2.9991 -2.2112 0.9769
3.9246 3.7851 -2.2316 0.9767
3.5725 4.1222 -2.2325 0.9767
2.7638 4.6608 -2.2177 0.9769
2.3637 4.9456 -2.2434 0.9766
1.9098 5.1292 -2.2401 0.9766
1.4405 5.2655 -2.2342 0.9767
0.2469 2.7914 -1.1469 0.9880
-0.0032 2.6705 -1.0930 0.9885
-0.4837 5.3243 -2.1881 0.9772
-0.9500 5.2204 -2.1717 0.9773
-1.4007 5.0724 -2.1537 0.9775
-1.8314 4.8830 -2.1344 0.9777
-2.6186 4.3919 -2.0927 0.9781
-2.9688 4.0971 -2.0708 0.9784
-3.2869 3.7745 -2.0485 0.9786
-3.5711 3.4278 -2.0259 0.9788
-4.3468 1.8753 -1.9375 0.9797
-4.7845 1.5743 -2.0614 0.9785
-4.8641 1.1311 -2.0439 0.9786
-1.9468 0.2725 -0.8046 0.9915
-1.9339 -0.0769 -0.7921 0.9917
-1.9511 -0.2534 -0.8052 0.9915
-4.6587 -1.0348 -1.9532 0.9796
-4.5148 -1.4361 -1.9390 0.9797
-3.3656 -3.1671 -1.8915 0.9802
-2.3944 -3.9270 -1.8824 0.9803
-2.0346 -4.1258 -1.8827 0.9803
-1.2721 -4.4350 -1.8883 0.9803
0.3668 -4.6750 -1.9192 0.9799
0.7876 -4.6517 -1.9309 0.9798
1.2080 -4.5940 -1.9441 0.9797
2.0375 -4.3740 -1.9749 0.9794
3.2125 -3.7818 -2.0308 0.9788
3.5738 -3.5157 -2.0518 0.9786
4.5117 -2.5177 -2.1146 0.9779
4.4389 -1.9801 -1.9893 0.9792
4.8272 -1.1852 -2.0343 0.9787
4.9681 -0.7577 -2.0568 0.9785
5.1221 1.0718 -2.1417 0.9776
5.0499 1.5383 -2.1606 0.9774
4.9318 1.9990 -2.1780 0.9773
4.5590 2.8832 -2.2077 0.9770
4.3064 3.2964 -2.2196 0.9768
4.0124 3.6838 -2.2293 0.9767
3.2722 4.3110 -2.2151 0.9769
2.8773 4.5910 -2.2175 0.9769
2.4851 4.8871 -2.2439 0.9766
2.0364 5.0834 -2.2412 0.9766
1.0935 5.3340 -2.2285 0.9767
-0.3534 5.3449 -2.1923 0.9771
-0.8232 5.2535 -2.1764 0.9773
-2.5169 4.4675 -2.0987 0.9781
-3.2028 3.8658 -2.0546 0.9785
-3.7551 3.1635 -2.0096 0.9790
-3.9776 2.7841 -1.9871 0.9792
-2.6551 1.5247 -1.2531 0.9869
-4.3123 1.9875 -1.9434 0.9797
-4.7542 1.6949 -2.0657 0.9784
-4.8486 1.2539 -2.0497 0.9786
-1.9537 0.1453 -0.8018 0.9916
-4.6926 -0.9219 -1.9573 0.9795
-4.5575 -1.3273 -1.9428 0.9797
-4.3911 -1.7173 -1.9297 0.9798
-3.9708 -2.4434 -1.9082 0.9801
-3.7204 -2.7759 -1.8998 0.9801
-3.4453 -3.0860 -1.8930 0.9802
-2.1351 -4.0740 -1.8825 0.9803
-1.7642 -4.2518 -1.8840 0.9803
-0.9840 -4.5169 -1.8920 0.9802
0.6718 -4.6615 -1.9275 0.9799
2.7273 -4.0717 -2.0057 0.9790
3.1099 -3.8491 -2.0253 0.9788
4.1474 -2.9796 -2.0900 0.9782
4.3754 -2.0822 -1.9832 0.9793
4.7820 -1.2995 -2.0281 0.9788
5.1482 0.4765 -2.1160 0.9779
5.0743 1.4104 -2.1555 0.9775
4.9689 1.8732 -2.1734 0.9773
4.8175 2.3267 -2.1896 0.9771
4.6209 2.7657 -2.2041 0.9770
4.3801 3.1851 -2.2165 0.9769
4.0972 3.5801 -2.2269 0.9768
3.7748 3.9458 -2.2349 0.9767
3.3755 4.2272 -2.2140 0.9769
2.9687 4.4878 -2.2022 0.9770
0.1332 2.7739 -1.1366 0.9881
-1.1550 5.1591 -2.1638 0.9774
-2.0178 4.7849 -2.1254 0.9778
-3.1161 3.9552 -2.0608 0.9785
-3.9201 2.8900 -1.9933 0.9792
-2.6071 1.5837 -1.2485 0.9869
-4.2751 2.0993 -1.9493 0.9796
-4.3971 1.6906 -1.9281 0.9798
-4.8277 1.3759 -2.0546 0.9785
-1.9075 0.0180 -0.7807 0.9918
-2.1328 -0.3648 -0.8856 0.9907
-4.5978 -1.2173 -1.9466 0.9797
-4.4398 -1.6117 -1.9331 0.9798
-4.0352 -2.3482 -1.9108 0.9800
-3.7918 -2.6867 -1.9020 0.9801
-3.2316 -3.2959 -1.8892 0.9802
-2.9183 -3.5639 -1.8852 0.9803
-2.5853 -3.8056 -1.8830 0.9803
-2.2344 -4.0200 -1.8823 0.9803
-1.4868 -4.3621 -1.8861 0.9803
0.1362 -4.6733 -1.9135 0.9800
1.3964 -4.5567 -1.9505 0.9796
1.8118 -4.4484 -1.9658 0.9795
2.2205 -4.3051 -1.9825 0.9793
3.0062 -3.9137 -2.0198 0.9789
4.0607 -3.0714 -2.0838 0.9782
4.3096 -2.1824 -1.9771 0.9793
2.3368 -0.9316 -1.0296 0.9892
4.7340 -1.4123 -2.0219 0.9789
5.0189 -0.5600 -2.0669 0.9784
5.1444 0.3488 -2.1103 0.9780
5.1423 0.8146 -2.1309 0.9777
4.6794 2.6467 -2.2003 0.9770
4.1791 3.4742 -2.2242 0.9768
3.8672 3.8485 -2.2329 0.9767
2.7228 4.7599 -2.2443 0.9766
1.8286 5.1566 -2.2392 0.9766
1.3571 5.2844 -2.2329 0.9767
0.2016 2.7739 -1.1383 0.9881
-0.5663 5.3094 -2.1853 0.9772
-1.0302 5.1976 -2.1686 0.9774
-1.9045 4.8457 -2.1309 0.9777
-2.3071 4.6114 -2.1103 0.9780
-2.6821 4.3424 -2.0889 0.9782
-3.6173 3.3649 -2.0220 0.9789
-2.5934 1.6640 -1.2611 0.9868
-4.2351 2.2104 -1.9552 0.9796
-4.8022 1.4972 -2.0587 0.9785
-1.9531 0.2423 -0.8055 0.9915
-1.9295 0.0656 -0.7902 0.9917
-1.9442 -0.1078 -0.7970 0.9916
-4.4864 -1.5048 -1.9367 0.9798
-4.3064 -1.8873 -1.9243 0.9799
-4.0975 -2.2515 -1.9135 0.9800
-3.5995 -2.9184 -1.8966 0.9802
-2.3326 -3.9638 -1.8824 0.9803
-1.9700 -4.1576 -1.8830 0.9803
-1.5928 -4.3221 -1.8852 0.9803
-1.2030 -4.4563 -1.8891 0.9802
-0.8026 -4.5594 -1.8947 0.9802
-0.3938 -4.6304 -1.9019 0.9801
0.0213 -4.6686 -1.9108 0.9800
1.2814 -4.5803 -1.9466 0.9797
1.6982 -4.4817 -1.9615 0.9795
2.1089 -4.3480 -1.9778 0.9793
-1.5748 0.4756 -0.7169 0.9928
-1.5271 0.0383 -0.6657 0.9934
-1.5296 -0.0985 -0.6680 0.9933
-1.5111 -0.2342 -0.6664 0.9934
-1.5916 -0.5497 -0.7339 0.9927
-3.6249 -2.4841 -1.9151 0.9810
-3.3760 -2.7874 -1.9080 0.9811
-3.1045 -3.0687 -1.9024 0.9811
-2.8121 -3.3267 -1.8984 0.9812
-2.1718 -3.7672 -1.8951 0.9812
-1.8275 -3.9476 -1.8959 0.9812
-0.7203 -4.3172 -1.9075 0.9811
-0.3332 -4.3803 -1.9145 0.9810
0.0595 -4.4122 -1.9231 0.9809
0.4556 -4.4121 -1.9331 0.9808
0.8528 -4.3797 -1.9446 0.9807
2.4035 -3.9207 -2.0042 0.9801
2.7685 -3.7235 -2.0222 0.9800
3.1191 -3.4940 -2.0412 0.9798
3.7646 -2.9412 -2.0820 0.9794
4.0520 -2.6191 -2.1027 0.9792
2.3202 -0.9673 -1.0956 0.9891
4.5624 -1.0020 -2.0357 0.9798
4.6813 -0.5967 -2.0567 0.9796
4.8060 0.2503 -2.0974 0.9792
4.8082 0.6847 -2.1167 0.9790
4.7688 1.1209 -2.1350 0.9789
4.1881 2.7951 -2.1944 0.9783
3.9405 3.1729 -2.2049 0.9782
2.6040 4.3912 -2.2250 0.9780
2.2008 4.6046 -2.2242 0.9780
1.7783 4.7761 -2.2211 0.9780
0.2635 2.9791 -1.3034 0.9870
-0.0032 2.6682 -1.1629 0.9884
-2.0925 4.3513 -2.1043 0.9792
-2.4494 4.1081 -2.0844 0.9793
-2.6537 1.4384 -1.3155 0.9869
-1.5328 0.3564 -0.6859 0.9932
-1.5164 0.2122 -0.6673 0.9933
-1.5294 0.0760 -0.6674 0.9933
-1.5250 -0.3387 -0.6808 0.9932
-1.5819 -0.5032 -0.7235 0.9928
-4.0982 -1.7201 -1.9370 0.9808
-3.4468 -2.7062 -1.9098 0.9811
-2.5881 -3.4983 -1.8965 0.9812
