ply
format ascii 1.0
element vertex 1583
property float32 x
property float32 y
property float32 z
property float32 I
end_header
4.9830 4.1512 -0.6226 0.9743
4.3628 4.3502 -0.5915 0.9755
3.9449 4.7076 -0.5897 0.9756
3.4298 4.9272 -0.5764 0.9762
2.8817 5.0477 -0.5580 0.9769
1.9288 5.4527 -0.5553 0.9770
1.4810 5.7850 -0.5733 0.9763
0.9542 5.8660 -0.5706 0.9764
-0.7204 6.7164 -0.6485 0.9732
-1.3604 6.8441 -0.6699 0.9723
-2.4860 1.9279 -0.3020 0.9874
-18.8835 5.8859 -1.8989 0.9236
-18.5686 4.0118 -1.8238 0.9265
-17.6533 0.6012 -1.6958 0.9315
-17.0755 -0.9457 -1.6418 0.9336
-15.7233 -3.7490 -1.5518 0.9371
-14.9620 -5.0154 -1.5150 0.9386
-14.1508 -6.1976 -1.4831 0.9398
-11.4520 -9.2780 -1.4150 0.9425
-9.4638 -9.1819 -1.2659 0.9484
-4.6659 -12.6382 -1.2934 0.9473
7.3839 -15.2604 -1.6276 0.9341
10.6583 -14.6368 -1.7383 0.9298
12.3712 -14.1404 -1.8038 0.9273
18.2924 -7.8460 -1.9109 0.9231
15.3998 -0.7353 -1.4801 0.9399
11.2235 1.4791 -1.0868 0.9555
9.6399 2.1597 -0.9484 0.9611
8.6593 2.7716 -0.8729 0.9641
6.5491 3.4807 -0.7120 0.9706
4.5798 4.3235 -0.6047 0.9750
3.0293 4.9848 -0.5600 0.9768
2.5147 5.1180 -0.5475 0.9773
1.1408 5.9770 -0.5842 0.9758
0.3003 3.0167 -0.2911 0.9879
-0.5287 6.6354 -0.6391 0.9736
-1.1859 6.9555 -0.6774 0.9720
-18.6761 4.5727 -1.8460 0.9256
-17.8151 1.0948 -1.7136 0.9308
-15.9454 -3.3442 -1.5641 0.9366
-15.2004 -4.6371 -1.5257 0.9381
-14.4040 -5.8447 -1.4924 0.9394
-13.5604 -6.9710 -1.4638 0.9406
-12.6729 -8.0197 -1.4398 0.9415
-9.1010 -9.9977 -1.2980 0.9471
-8.1283 -10.7120 -1.2910 0.9474
-6.0792 -11.9566 -1.2877 0.9475
-5.0024 -12.4878 -1.2915 0.9474
-3.8899 -12.9580 -1.2989 0.9471
-2.7410 -13.3662 -1.3099 0.9466
0.9363 -14.2001 -1.3662 0.9444
3.5938 -14.3994 -1.4248 0.9421
5.3547 -15.4340 -1.5684 0.9365
6.9010 -15.3165 -1.6128 0.9347
8.4974 -15.0959 -1.6631 0.9328
13.5890 -13.7146 -1.8535 0.9254
17.7669 -1.3359 -1.7105 0.9309
6.7937 3.3758 -0.7283 0.9700
4.1236 4.4074 -0.5795 0.9760
3.7421 4.7941 -0.5839 0.9759
3.1577 4.8897 -0.5588 0.9769
2.2197 5.3292 -0.5542 0.9771
0.3803 2.9887 -0.2892 0.9880
0.2297 6.1727 -0.5930 0.9755
-0.9794 6.8734 -0.6665 0.9725
-1.6365 6.9605 -0.6865 0.9717
-2.5511 1.8403 -0.3020 0.9874
-17.4375 -0.0114 -1.6741 0.9323
-16.8324 -1.5194 -1.6226 0.9343
-15.4339 -4.2509 -1.5369 0.9377
-14.6528 -5.4841 -1.5020 0.9391
-13.8233 -6.6348 -1.4721 0.9402
-7.4328 -11.1715 -1.2882 0.9475
-6.4016 -11.7820 -1.2873 0.9475
-4.2340 -12.8207 -1.2962 0.9472
-0.7082 -13.9116 -1.3373 0.9456
0.5448 -14.1432 -1.3588 0.9447
1.8391 -14.3038 -1.3845 0.9437
3.1761 -14.3891 -1.4147 0.9425
6.4227 -15.3630 -1.5986 0.9353
9.6352 -14.8773 -1.7017 0.9313
13.0494 -13.9108 -1.8312 0.9262
14.8294 -13.2169 -1.9071 0.9233
2.3436 -0.9103 -0.2414 0.9899
19.2608 -1.9789 -1.8589 0.9251
11.6318 0.8899 -1.1200 0.9542
10.8569 1.8159 -1.0568 0.9567
9.1268 2.3801 -0.9055 0.9628
8.2341 2.9541 -0.8398 0.9655
7.0499 3.2660 -0.7459 0.9693
6.4432 3.7166 -0.7141 0.9706
3.9015 4.7261 -0.5884 0.9757
2.3650 5.2674 -0.5543 0.9771
1.8896 5.4694 -0.5555 0.9770
0.9127 5.8836 -0.5716 0.9764
-0.1574 6.3363 -0.6085 0.9749
-1.4179 6.8684 -0.6733 0.9722
1.8346 5.6754 -0.7085 0.9763
1.3367 5.8865 -0.7170 0.9760
0.3992 2.9627 -0.3551 0.9880
0.2740 6.1462 -0.7308 0.9755
-15.4135 9.3006 -2.1384 0.9301
-15.5776 7.5932 -2.0585 0.9326
-15.3507 2.8798 -1.8553 0.9390
-15.0748 1.4528 -1.7990 0.9408
-14.7155 0.0987 -1.7480 0.9424
-13.2149 -3.5353 -1.6249 0.9464
-12.5947 -4.6085 -1.5931 0.9474
-11.9229 -5.6151 -1.5655 0.9483
-9.5687 -8.1955 -1.4965 0.9505
-5.6177 -10.1604 -1.3791 0.9543
-3.7427 -11.0589 -1.3868 0.9541
-2.7583 -11.4216 -1.3957 0.9538
-1.7432 -11.7247 -1.4080 0.9534
0.3783 -12.1442 -1.4433 0.9522
1.5248 -12.5908 -1.5065 0.9502
2.7938 -13.1151 -1.5928 0.9474
4.0610 -13.1628 -1.6363 0.9460
7.9809 -12.5240 -1.7641 0.9419
9.3375 -12.1128 -1.8167 0.9403
10.7132 -11.5901 -1.8748 0.9384
16.2787 -8.2122 -2.1658 0.9292
17.5887 -5.2196 -2.1794 0.9288
9.0710 2.2943 -1.1114 0.9630
8.2491 2.8912 -1.0383 0.9654
7.1100 3.2305 -0.9277 0.9690
6.4852 3.6775 -0.8856 0.9704
5.6040 3.8769 -0.8095 0.9729
4.9766 4.1458 -0.7694 0.9742
4.3612 4.3486 -0.7316 0.9755
2.8783 5.0418 -0.6896 0.9769
1.4793 5.7782 -0.7085 0.9763
-0.7248 6.7575 -0.8073 0.9730
-14.4670 13.4503 -2.3465 0.9235
-15.6152 6.4464 -2.0067 0.9342
-15.5696 4.8529 -1.9372 0.9364
-14.4215 -0.7987 -1.7157 0.9435
-12.7901 -4.2873 -1.6024 0.9471
-12.1337 -5.3142 -1.5735 0.9480
-9.8843 -8.0080 -1.5111 0.9500
-8.5933 -8.3374 -1.4222 0.9529
-7.6195 -8.8443 -1.3867 0.9541
-5.8933 -10.0030 -1.3791 0.9543
-4.9813 -10.4981 -1.3803 0.9543
-2.0569 -11.6384 -1.4039 0.9535
-1.0206 -11.8991 -1.4186 0.9530
3.6756 -13.1825 -1.6256 0.9464
4.9458 -13.0885 -1.6620 0.9452
6.2447 -12.9059 -1.7031 0.9439
10.2906 -11.7623 -1.8564 0.9390
13.0721 -10.4267 -1.9862 0.9349
14.4691 -9.5611 -2.0601 0.9325
15.8575 -8.5513 -2.1401 0.9300
17.2202 -5.6268 -2.1519 0.9296
12.1547 0.5066 -1.4451 0.9522
9.3672 2.0986 -1.1403 0.9621
7.3884 3.1162 -0.9525 0.9682
6.5394 3.4755 -0.8797 0.9706
4.1026 4.6325 -0.7351 0.9754
3.5807 4.8553 -0.7166 0.9760
2.0720 5.3847 -0.6853 0.9770
1.6427 5.7568 -0.7111 0.9762
-0.5319 6.6762 -0.7955 0.9734
-4.8632 13.4220 -1.6957 0.9441
-15.2438 10.3751 -2.1904 0.9284
-15.4933 8.6303 -2.1067 0.9311
-15.6060 6.9478 -2.0292 0.9335
-15.2540 2.3171 -1.8327 0.9397
-14.9447 0.9184 -1.7786 0.9415
-14.0938 -1.6617 -1.6857 0.9444
-13.5669 -2.8453 -1.6466 0.9457
-11.6491 -5.9884 -1.5559 0.9486
-10.9119 -6.9053 -1.5339 0.9493
-10.1313 -7.7592 -1.5159 0.9499
-8.9639 -8.2334 -1.4458 0.9522
-7.8717 -8.6473 -1.3890 0.9540
-6.1659 -9.8403 -1.3794 0.9543
-5.2637 -10.3526 -1.3796 0.9543
-1.3408 -11.8259 -1.4138 0.9532
3.2930 -13.1945 -1.6154 0.9467
7.1622 -12.7240 -1.7344 0.9429
9.8696 -11.9235 -1.8386 0.9396
11.2514 -11.3554 -1.8989 0.9376
14.0422 -9.8408 -2.0368 0.9333
16.7564 -7.7361 -2.1923 0.9284
19.1860 -3.1832 -2.3102 0.9246
17.7041 -1.3312 -2.1089 0.9310
14.5787 0.2088 -1.7319 0.9430
9.7680 1.9096 -1.1823 0.9607
7.6753 2.9929 -0.9786 0.9674
6.2056 3.8093 -0.8649 0.9711
4.7485 4.2434 -0.7565 0.9747
4.1186 4.4020 -0.7161 0.9760
3.7377 4.7884 -0.7216 0.9758
2.6924 5.1210 -0.6872 0.9770
0.3763 2.9577 -0.3542 0.9881
-0.3344 6.4031 -0.7616 0.9745
-1.6341 6.9506 -0.8481 0.9716
-14.6874 12.7345 -2.3091 0.9247
-15.5224 4.2534 -1.9118 0.9372
-15.0482 1.3385 -1.7946 0.9410
-11.8655 -5.6951 -1.5634 0.9484
-10.3745 -7.5046 -1.5210 0.9497
-9.4181 -8.1875 -1.4824 0.9510
-8.1761 -8.5027 -1.4012 0.9536
-6.4354 -9.6724 -1.3800 0.9543
-5.5430 -10.2019 -1.3792 0.9543
-3.6628 -11.0910 -1.3874 0.9540
-1.6582 -11.7469 -1.4092 0.9533
-0.6101 -11.9834 -1.4253 0.9528
1.6242 -12.6319 -1.5128 0.9500
4.1652 -13.1562 -1.6392 0.9459
6.7563 -12.8099 -1.7203 0.9433
10.8272 -11.5419 -1.8798 0.9382
12.2177 -10.8892 -1.9441 0.9362
15.0098 -9.1867 -2.0904 0.9316
16.3917 -8.1184 -2.1728 0.9290
19.1868 -1.9713 -2.2911 0.9252
10.2290 1.7109 -1.2319 0.9591
8.9934 2.3453 -1.1040 0.9633
5.5498 3.9002 -0.8058 0.9730
4.9275 4.1668 -0.7665 0.9743
4.3303 4.3818 -0.7318 0.9755
3.2658 4.7660 -0.6863 0.9770
2.8388 5.0587 -0.6890 0.9769
2.3623 5.2614 -0.6851 0.9770
1.8874 5.4631 -0.6866 0.9770
1.4491 5.8388 -0.7146 0.9761
0.3939 6.0956 -0.7256 0.9757
-0.7777 6.7798 -0.8106 0.9729
-1.4159 6.8588 -0.8319 0.9722
-2.4922 1.9035 -0.3725 0.9874
1.3351 5.8796 -0.8543 0.9759
0.3982 2.9555 -0.4225 0.9880
0.2737 6.1387 -0.8706 0.9755
-0.2859 6.3746 -0.9041 0.9746
-6.0733 18.7707 -2.7954 0.9234
-8.7230 16.2888 -2.6181 0.9281
-9.8021 14.9276 -2.5303 0.9304
-2.5259 1.8505 -0.4437 0.9874
-13.1181 6.3943 -2.0678 0.9427
-13.2230 5.0404 -2.0051 0.9444
-13.2246 3.7286 -1.9468 0.9460
-12.3642 -1.0244 -1.7579 0.9511
-11.9680 -2.0794 -1.7211 0.9521
-9.8238 -5.7494 -1.6128 0.9551
-9.1681 -6.5297 -1.5948 0.9555
-7.7350 -7.9264 -1.5692 0.9562
-6.9623 -8.5429 -1.5615 0.9565
-4.4407 -10.0600 -1.5581 0.9565
-0.6572 -11.2752 -1.6003 0.9554
0.3559 -11.4237 -1.6194 0.9549
4.6336 -11.3168 -1.7327 0.9518
5.7487 -11.0966 -1.7707 0.9508
6.8761 -10.7903 -1.8129 0.9496
10.2866 -9.3049 -1.9653 0.9455
11.4124 -8.6032 -2.0250 0.9439
14.4896 -4.2999 -2.1415 0.9408
16.0950 -1.7734 -2.2943 0.9367
14.8293 -0.3022 -2.1016 0.9418
10.6460 1.7002 -1.5275 0.9574
7.0085 3.1844 -1.0907 0.9694
6.4397 3.6516 -1.0489 0.9705
5.5964 3.8717 -0.9642 0.9729
4.3596 4.3470 -0.8723 0.9754
3.9354 4.6963 -0.8682 0.9756
2.3986 5.2387 -0.8164 0.9770
1.4776 5.7715 -0.8441 0.9762
0.9520 5.8521 -0.8401 0.9763
-0.7238 6.7485 -0.9617 0.9730
-1.3567 6.8251 -0.9860 0.9723
-2.0632 7.0270 -1.0377 0.9708
-8.3602 16.6921 -2.6452 0.9274
-9.4894 15.3501 -2.5570 0.9297
-10.4557 13.9537 -2.4705 0.9320
-11.2635 12.5247 -2.3867 0.9342
-2.4907 1.9316 -0.4466 0.9873
-12.8106 8.2158 -2.1563 0.9404
-13.2023 5.4503 -2.0238 0.9439
-13.0161 1.6145 -1.8584 0.9484
-12.7813 0.4353 -1.8120 0.9496
-12.4725 -0.6908 -1.7699 0.9508
-11.6571 -2.7795 -1.6980 0.9527
-11.1612 -3.7413 -1.6679 0.9536
-10.6128 -4.6481 -1.6416 0.9543
-10.0156 -5.4998 -1.6190 0.9549
-9.3732 -6.2968 -1.5999 0.9554
-8.6885 -7.0392 -1.5844 0.9558
-7.2024 -8.3601 -1.5635 0.9564
-6.4053 -8.9385 -1.5581 0.9565
-3.8121 -10.3257 -1.5596 0.9565
-1.9415 -10.9850 -1.5806 0.9559
0.0434 -11.3853 -1.6132 0.9550
1.0735 -11.4877 -1.6348 0.9545
3.2016 -11.4824 -1.6890 0.9530
4.2955 -11.3677 -1.7218 0.9521
6.5302 -10.8934 -1.7996 0.9500
8.8023 -10.0611 -1.8941 0.9474
9.9399 -9.4979 -1.9480 0.9460
12.1832 -8.0506 -2.0691 0.9427
13.2709 -7.1564 -2.1363 0.9409
13.2901 -5.7004 -2.0490 0.9433
14.2175 -4.6456 -2.1193 0.9414
15.8719 -2.1894 -2.2702 0.9373
15.2771 -0.7294 -2.1671 0.9401
12.1223 0.5053 -1.7191 0.9522
11.1730 1.4724 -1.5968 0.9555
8.1326 2.6030 -1.2099 0.9661
7.2266 3.0480 -1.1113 0.9688
3.0223 4.9732 -0.8246 0.9768
1.6408 5.7501 -0.8472 0.9761
0.2964 2.9771 -0.4239 0.9880
0.0614 6.2282 -0.8825 0.9752
-0.5313 6.6675 -0.9477 0.9733
-1.1749 6.8907 -0.9904 0.9722
-1.8429 6.9766 -1.0224 0.9713
-4.8149 13.2885 -2.0026 0.9445
-9.1614 15.7675 -2.5838 0.9290
-11.7346 11.5237 -2.3303 0.9357
-12.2902 10.0809 -2.2523 0.9378
-12.7086 8.6496 -2.1782 0.9398
-13.2354 4.5258 -1.9819 0.9451
-13.0720 1.9856 -1.8734 0.9480
-12.8613 0.7904 -1.8257 0.9493
-12.5744 -0.3521 -1.7824 0.9504
-11.7976 -2.4743 -1.7080 0.9525
-11.3187 -3.4530 -1.6767 0.9533
-10.7859 -4.3765 -1.6493 0.9541
-9.5743 -6.0589 -1.6054 0.9553
-8.1898 -7.5224 -1.5756 0.9561
-6.6528 -8.7674 -1.5594 0.9565
-5.8320 -9.3075 -1.5563 0.9566
-4.0894 -10.2086 -1.5582 0.9565
-3.1792 -10.5903 -1.5667 0.9563
-2.2356 -10.9018 -1.5768 0.9560
-1.2645 -11.1526 -1.5903 0.9557
0.7559 -11.4635 -1.6278 0.9546
1.8023 -11.5185 -1.6519 0.9540
3.9590 -11.4111 -1.7114 0.9524
5.0648 -11.2413 -1.7470 0.9514
8.4539 -10.2133 -1.8785 0.9478
10.7253 -9.0454 -1.9880 0.9449
12.9416 -7.4424 -2.1153 0.9415
12.9964 -6.0002 -2.0282 0.9438
14.8260 -3.8455 -2.1702 0.9400
16.0837 -1.2093 -2.2853 0.9369
14.5375 0.2082 -2.0600 0.9430
11.7139 1.2190 -1.6687 0.9535
9.9811 1.9513 -1.4410 0.9597
7.4462 2.9035 -1.1324 0.9682
6.1659 3.7849 -1.0251 0.9712
4.7425 4.2380 -0.9012 0.9746
3.7332 4.7826 -0.8597 0.9758
2.6893 5.1150 -0.8188 0.9769
2.2146 5.3169 -0.8161 0.9770
0.3755 2.9511 -0.4215 0.9881
0.2291 6.1575 -0.8731 0.9754
-0.3339 6.3949 -0.9073 0.9745
-0.9753 6.8448 -0.9796 0.9725
-1.6284 6.9261 -1.0081 0.9717
-6.1952 18.6769 -2.7881 0.9236
-9.8837 14.8132 -2.5232 0.9306
-10.7878 13.4017 -2.4376 0.9329
-11.5358 11.9653 -2.3550 0.9351
-12.1352 10.5217 -2.2757 0.9372
-12.9233 7.6688 -2.1292 0.9411
-13.1201 2.3615 -1.8889 0.9476
-12.6699 -0.0083 -1.7952 0.9501
-11.9326 -2.1639 -1.7183 0.9522
-10.3865 -4.9853 -1.6324 0.9545
-9.7714 -5.8158 -1.6112 0.9551
-9.1122 -6.5915 -1.5935 0.9556
-7.6728 -7.9793 -1.5685 0.9563
-6.8971 -8.5912 -1.5610 0.9565
-6.0866 -9.1481 -1.5569 0.9566
-4.3662 -10.0915 -1.5580 0.9566
-3.4592 -10.4745 -1.5630 0.9564
-0.5748 -11.2899 -1.6017 0.9554
0.4404 -11.4330 -1.6211 0.9548
1.4798 -11.5091 -1.6441 0.9542
3.6241 -11.4472 -1.7013 0.9526
5.8412 -11.0747 -1.7740 0.9507
8.1056 -10.3562 -1.8634 0.9483
10.3798 -9.2512 -1.9701 0.9454
11.5044 -8.5405 -2.0301 0.9438
12.6091 -7.7174 -2.0946 0.9420
13.6744 -6.7726 -2.1621 0.9402
2.3434 -0.9103 -0.3562 0.9899
14.8754 -0.1936 -2.1079 0.9417
11.6282 0.8896 -1.6524 0.9540
5.5423 3.8949 -0.9598 0.9730
4.9212 4.1614 -0.9132 0.9743
4.3249 4.3764 -0.8718 0.9754
3.2620 4.7604 -0.8177 0.9770
2.3596 5.2553 -0.8162 0.9770
0.3934 6.0881 -0.8644 0.9757
-2.1236 7.0406 -1.0420 0.9707
-8.4594 16.5842 -2.6378 0.9275
-9.5751 15.2368 -2.5498 0.9299
-10.5281 13.8369 -2.4635 0.9322
-11.3232 12.4061 -2.3799 0.9344
-11.9672 10.9630 -2.2996 0.9365
1.8304 5.6622 -0.9803 0.9762
0.2733 6.1311 -1.0110 0.9754
-0.2824 6.2976 -1.0385 0.9748
-1.3292 5.8463 -0.9877 0.9760
-5.7460 13.5043 -2.4177 0.9422
-7.2620 13.5606 -2.5341 0.9395
-9.0241 11.3811 -2.3928 0.9428
-10.2872 9.0529 -2.2575 0.9460
-2.5244 1.8495 -0.5155 0.9874
-11.4576 4.3675 -2.0200 0.9515
-11.5036 3.2434 -1.9690 0.9527
-11.1529 0.0748 -1.8374 0.9558
-10.8928 -0.9025 -1.8006 0.9567
-10.1893 -2.7259 -1.7376 0.9581
-8.7405 -5.1155 -1.6684 0.9598
-8.1672 -5.8168 -1.6518 0.9602
-7.5537 -6.4697 -1.6384 0.9605
-5.4969 -8.1314 -1.6169 0.9610
-4.7462 -8.5841 -1.6159 0.9610
-3.9661 -8.9847 -1.6179 0.9610
-3.1583 -9.3321 -1.6230 0.9608
-2.3244 -9.6249 -1.6312 0.9607
-0.5853 -10.0405 -1.6569 0.9600
0.3165 -10.1595 -1.6745 0.9596
1.2372 -10.2163 -1.6953 0.9591
4.0892 -9.9871 -1.7778 0.9572
6.0353 -9.4709 -1.8501 0.9555
8.9369 -8.0840 -1.9852 0.9523
10.7874 -6.7120 -2.0930 0.9498
2.3329 -0.9260 -0.4135 0.9899
12.3072 -3.6523 -2.1149 0.9493
11.5888 0.8008 -1.9137 0.9540
10.6230 1.6965 -1.7722 0.9573
9.1793 2.3217 -1.5598 0.9623
7.9539 2.7877 -1.3885 0.9664
6.9111 3.1401 -1.2505 0.9697
6.1052 3.4620 -1.1562 0.9719
5.4795 3.7908 -1.0977 0.9734
4.9376 4.1133 -1.0587 0.9743
2.3958 5.2326 -0.9481 0.9769
1.9221 5.4338 -0.9495 0.9769
1.4758 5.7647 -0.9803 0.9762
0.9509 5.8451 -0.9756 0.9763
0.4366 6.0622 -1.0013 0.9757
-0.1092 6.2497 -1.0297 0.9750
-0.6869 6.4042 -1.0611 0.9742
-1.1836 5.9546 -1.0002 0.9757
-5.4193 13.7696 -2.4378 0.9418
-6.9479 13.8724 -2.5559 0.9390
-8.7874 11.7273 -2.4141 0.9423
-2.4936 1.9338 -0.5198 0.9873
-10.9896 7.0480 -2.1507 0.9485
-11.4849 2.4813 -1.9357 0.9535
-11.2191 0.3821 -1.8493 0.9555
-10.9792 -0.6081 -1.8115 0.9564
-10.3116 -2.4587 -1.7463 0.9579
-9.4240 -4.1274 -1.6949 0.9592
-8.9074 -4.8913 -1.6741 0.9596
-8.3470 -5.6074 -1.6566 0.9601
-7.7455 -6.2752 -1.6422 0.9604
-7.1057 -6.8940 -1.6310 0.9607
-6.4299 -7.4634 -1.6229 0.9609
-4.2077 -8.8678 -1.6170 0.9610
-3.4082 -9.2315 -1.6211 0.9609
-2.5821 -9.5412 -1.6284 0.9607
-1.7312 -9.7953 -1.6387 0.9605
-0.8570 -9.9921 -1.6521 0.9602
0.9537 -10.2056 -1.6886 0.9593
1.8862 -10.2178 -1.7117 0.9588
2.8338 -10.1634 -1.7382 0.9581
3.7936 -10.0394 -1.7680 0.9574
6.7123 -9.2179 -1.8785 0.9548
7.6839 -8.7828 -1.9224 0.9538
9.5910 -7.6501 -2.0211 0.9515
10.5119 -6.9462 -2.0756 0.9502
12.0950 -3.9521 -2.0962 0.9497
12.7652 -2.9411 -2.1580 0.9483
11.1477 1.4691 -1.8523 0.9554
9.5830 2.1470 -1.6178 0.9610
8.3210 2.6633 -1.4393 0.9652
6.3309 3.3647 -1.1811 0.9714
3.5722 4.8438 -0.9915 0.9759
3.0188 4.9674 -0.9576 0.9767
2.5198 5.1283 -0.9413 0.9771
0.5968 5.9947 -0.9924 0.9759
0.0611 6.2011 -1.0216 0.9752
-1.1140 6.5333 -1.0918 0.9735
-4.7972 13.2397 -2.3198 0.9445
-6.1453 13.1562 -2.3921 0.9428
-7.6437 13.1554 -2.5065 0.9402
-8.5389 12.0696 -2.4356 0.9418
-9.3077 10.9369 -2.3659 0.9434
-9.9524 9.7735 -2.2979 0.9450
-10.4769 8.5936 -2.2323 0.9465
-10.8864 7.4094 -2.1694 0.9480
-11.1868 6.2314 -2.1095 0.9494
-11.3845 5.0684 -2.0529 0.9507
-11.4860 3.9277 -1.9998 0.9520
-11.4270 1.7358 -1.9041 0.9542
-11.0597 -0.3096 -1.8227 0.9561
-10.4288 -2.1872 -1.7554 0.9577
-10.0268 -3.0588 -1.7270 0.9584
-9.0702 -4.6627 -1.6801 0.9595
-7.3053 -6.7100 -1.6341 0.9606
-5.2090 -8.3133 -1.6162 0.9610
-4.4467 -8.7459 -1.6163 0.9610
-3.6557 -9.1259 -1.6195 0.9609
-1.9940 -9.7236 -1.6352 0.9606
-1.1268 -9.9381 -1.6477 0.9603
1.5993 -10.2210 -1.7043 0.9589
2.5425 -10.1873 -1.7297 0.9583
3.4989 -10.0849 -1.7585 0.9576
4.4654 -9.9108 -1.7908 0.9569
6.4141 -9.3343 -1.8658 0.9551
8.3529 -8.4302 -1.9551 0.9530
9.3040 -7.8467 -2.0051 0.9519
10.2333 -7.1715 -2.0586 0.9506
11.1276 -5.1373 -2.0191 0.9515
12.5675 -3.2598 -2.1389 0.9487
13.1871 -2.1879 -2.2021 0.9473
13.7223 -1.0318 -2.2670 0.9457
14.1592 0.2028 -2.3328 0.9442
11.7120 1.2188 -1.9399 0.9534
8.7062 2.5264 -1.4934 0.9639
6.5667 3.2630 -1.2080 0.9707
4.1118 4.3947 -0.9915 0.9759
2.6861 5.1091 -0.9509 0.9769
2.2121 5.3107 -0.9477 0.9769
1.2920 5.8902 -0.9934 0.9759
-0.9209 6.4626 -1.0754 0.9739
-7.3446 13.4756 -2.5283 0.9397
-8.2785 12.4075 -2.4572 0.9413
-9.0858 11.2873 -2.3871 0.9430
-10.3289 8.9555 -2.2521 0.9461
-11.1061 6.5905 -2.1275 0.9490
-11.3345 5.4221 -2.0699 0.9503
-11.4572 2.0622 -1.9178 0.9539
-11.1339 -0.0073 -1.8342 0.9559
-10.8685 -0.9811 -1.7977 0.9567
-10.5408 -1.9115 -1.7648 0.9575
-10.1555 -2.7971 -1.7353 0.9582
-9.7169 -3.6367 -1.7092 0.9588
-8.6949 -5.1751 -1.6669 0.9598
-7.5015 -6.5213 -1.6375 0.9605
-5.4362 -8.1706 -1.6167 0.9610
-4.6830 -8.6191 -1.6159 0.9610
-3.9006 -9.0153 -1.6182 0.9610
-0.5118 -10.0526 -1.6582 0.9600
1.3138 -10.2181 -1.6972 0.9591
2.2525 -10.2047 -1.7216 0.9585
3.2051 -10.1236 -1.7493 0.9579
4.1689 -9.9718 -1.7805 0.9571
5.1404 -9.7461 -1.8152 0.9563
7.0903 -9.0590 -1.8951 0.9544
9.0151 -8.0348 -1.9894 0.9522
9.9518 -7.3879 -2.0418 0.9510
10.8609 -6.6474 -2.0977 0.9497
11.7125 -5.8009 -2.1532 0.9484
2.3433 -0.9102 -0.4141 0.9899
13.0059 -2.5249 -2.1826 0.9477
13.5684 -1.3940 -2.2470 0.9462
10.4893 1.7544 -1.7520 0.9578
9.0754 2.3667 -1.5451 0.9627
6.8351 3.1665 -1.2410 0.9699
4.2708 4.3216 -1.0009 0.9757
3.2581 4.7548 -0.9496 0.9769
2.8322 5.0469 -0.9534 0.9768
2.3568 5.2492 -0.9479 0.9769
1.8830 5.4504 -0.9500 0.9769
0.3929 6.0807 -1.0038 0.9756
-0.1556 6.2626 -1.0320 0.9749
-1.2198 5.9089 -0.9940 0.9758
-2.1057 6.9812 -1.2012 0.9709
-7.0337 13.7891 -2.5501 0.9392
-9.5726 10.4881 -2.3393 0.9441
-2.4942 1.9050 -0.5170 0.9874
-0.2768 6.1738 -1.1616 0.9752
-0.8732 6.4685 -1.2269 0.9738
-1.4054 6.1817 -1.1916 0.9745
-6.5427 9.9639 -2.2405 0.9526
-8.9430 7.8699 -2.2391 0.9527
-10.0993 3.8497 -2.0315 0.9570
-10.0844 0.9718 -1.9042 0.9596
-9.7266 -0.8059 -1.8345 0.9611
-7.3579 -5.2405 -1.6979 0.9639
-6.8107 -5.8333 -1.6855 0.9642
-6.2275 -6.3816 -1.6760 0.9644
-5.6108 -6.8845 -1.6693 0.9645
-4.9626 -7.3411 -1.6655 0.9646
-3.5804 -8.1109 -1.6665 0.9646
-2.8502 -8.4219 -1.6712 0.9645
-2.0967 -8.6819 -1.6788 0.9643
-0.5271 -9.0429 -1.7026 0.9638
0.2848 -9.1404 -1.7189 0.9635
1.9512 -9.1597 -1.7603 0.9626
2.8004 -9.0771 -1.7855 0.9621
3.6563 -8.9300 -1.8137 0.9615
5.3734 -8.4322 -1.8794 0.9601
7.0680 -7.6466 -1.9572 0.9585
7.8935 -7.1402 -2.0006 0.9576
8.6959 -6.5554 -2.0469 0.9566
11.2053 -2.2611 -2.1486 0.9545
12.0135 -0.2448 -2.2585 0.9523
10.5998 1.6928 -2.0176 0.9573
9.1617 2.3173 -1.7763 0.9623
8.0218 2.8115 -1.5977 0.9660
7.0652 3.2101 -1.4586 0.9689
6.1862 3.5079 -1.3367 0.9715
4.2599 4.2476 -1.1307 0.9758
3.9258 4.6848 -1.1489 0.9754
3.4137 4.9039 -1.1231 0.9760
2.8236 4.9460 -1.0705 0.9771
1.4133 5.5205 -1.0711 0.9771
0.4234 5.8792 -1.1079 0.9763
-0.1067 6.1022 -1.1472 0.9755
-1.1540 5.8058 -1.1126 0.9762
-5.5100 11.0014 -2.3127 0.9512
-6.3152 10.2156 -2.2574 0.9523
-9.6129 6.1651 -2.1465 0.9546
-9.8815 5.1556 -2.0949 0.9557
-10.1570 3.1659 -1.9997 0.9576
-10.1736 2.1980 -1.9564 0.9585
-9.2375 -2.2026 -1.7850 0.9621
-8.8772 -2.9757 -1.7598 0.9626
-8.4683 -3.7089 -1.7377 0.9631
-8.0141 -4.4008 -1.7185 0.9635
-7.5177 -5.0504 -1.7023 0.9638
-6.4096 -6.2187 -1.6786 0.9643
-5.8028 -6.7356 -1.6711 0.9645
-5.1641 -7.2064 -1.6664 0.9646
-4.4953 -7.6302 -1.6646 0.9646
-3.7987 -8.0058 -1.6656 0.9646
-3.0762 -8.3321 -1.6694 0.9645
-1.5609 -8.8316 -1.6857 0.9642
0.0347 -9.1166 -1.7136 0.9636
0.8573 -9.1741 -1.7319 0.9632
1.6932 -9.1724 -1.7532 0.9627
2.5398 -9.1091 -1.7775 0.9622
4.2525 -8.7886 -1.8351 0.9610
5.1113 -8.5265 -1.8685 0.9603
5.9661 -8.1931 -1.9050 0.9596
6.8119 -7.7861 -1.9445 0.9588
8.4534 -6.7427 -2.0324 0.9569
9.2355 -6.1027 -2.0807 0.9559
11.0537 -2.5468 -2.1321 0.9549
11.9123 -0.5688 -2.2416 0.9526
12.0574 0.5026 -2.2683 0.9521
6.4382 3.4217 -1.3704 0.9708
5.6592 3.6906 -1.2699 0.9729
4.9923 3.9328 -1.1946 0.9745
4.0876 4.6155 -1.1588 0.9752
2.9659 4.8803 -1.0734 0.9770
2.5009 5.0897 -1.0659 0.9772
2.0336 5.2847 -1.0643 0.9772
1.5600 5.4670 -1.0686 0.9771
0.0595 6.0324 -1.1339 0.9757
-0.5004 6.2804 -1.1842 0.9747
-5.2451 11.2289 -2.3295 0.9508
-6.8184 9.6377 -2.2190 0.9531
-8.6317 8.4766 -2.2739 0.9520
-9.5124 6.4742 -2.1628 0.9542
-10.1363 3.4661 -2.0135 0.9573
-10.1766 2.4917 -1.9693 0.9583
-10.0350 0.6167 -1.8898 0.9599
-9.8627 -0.2761 -1.8545 0.9606
-9.6287 -1.1352 -1.8224 0.9613
-9.3374 -1.9583 -1.7933 0.9619
-6.5884 -6.0515 -1.6815 0.9642
-5.3627 -7.0673 -1.6675 0.9645
-4.7030 -7.5056 -1.6648 0.9646
-3.2998 -8.2376 -1.6680 0.9645
-0.2138 -9.0875 -1.7086 0.9637
0.6042 -9.1627 -1.7260 0.9633
1.4363 -9.1794 -1.7464 0.9629
2.2799 -9.1351 -1.7697 0.9624
3.1321 -9.0278 -1.7961 0.9619
4.8488 -8.6141 -1.8580 0.9606
5.7053 -8.3028 -1.8935 0.9598
6.5545 -7.9186 -1.9321 0.9590
7.3908 -7.4592 -1.9737 0.9582
8.9997 -6.3070 -2.0656 0.9563
9.7576 -5.6114 -2.1157 0.9552
10.3361 -3.6930 -2.0631 0.9563
10.8955 -2.8261 -2.1157 0.9552
11.3878 -1.8894 -2.1697 0.9541
12.1290 0.1737 -2.2800 0.9518
9.9975 1.9545 -1.9147 0.9594
7.6372 2.9780 -1.5408 0.9672
5.1836 3.8587 -1.2146 0.9740
4.5931 4.1045 -1.1578 0.9752
4.1101 4.3930 -1.1308 0.9758
3.7242 4.7711 -1.1376 0.9757
2.6431 5.0273 -1.0676 0.9771
2.1770 5.2265 -1.0642 0.9772
1.2255 5.5868 -1.0751 0.9770
0.2220 5.9640 -1.1218 0.9760
-0.3234 6.1933 -1.1657 0.9751
-1.4310 6.0865 -1.1752 0.9749
-4.0201 12.1197 -2.4001 0.9494
-8.9820 7.7877 -2.2345 0.9528
-2.5435 1.8349 -0.5895 0.9873
-9.7280 5.7727 -2.1262 0.9550
-9.9616 4.7653 -2.0756 0.9561
-10.1726 2.7875 -1.9825 0.9580
-10.1598 1.8287 -1.9403 0.9589
-10.0748 0.8961 -1.9011 0.9597
-9.4324 -1.7105 -1.8018 0.9617
-9.1036 -2.5074 -1.7748 0.9623
-8.2972 -3.9824 -1.7299 0.9632
-7.8262 -4.6581 -1.7119 0.9636
-6.7640 -5.8802 -1.6846 0.9642
-4.9079 -7.3766 -1.6653 0.9646
-4.2281 -7.7818 -1.6646 0.9646
-3.5212 -8.1384 -1.6667 0.9646
-2.7891 -8.4453 -1.6717 0.9644
-1.2569 -8.9042 -1.6902 0.9641
0.3523 -9.1458 -1.7203 0.9634
3.7270 -8.9149 -1.8162 0.9614
4.5861 -8.6951 -1.8477 0.9608
5.4439 -8.4056 -1.8823 0.9601
6.2958 -8.0440 -1.9200 0.9593
7.9606 -7.0950 -2.0043 0.9575
8.7608 -6.5037 -2.0508 0.9566
12.0392 -0.1567 -2.2631 0.9522
10.4667 1.7507 -1.9947 0.9577
7.9379 2.8478 -1.5851 0.9663
6.1205 3.5305 -1.3281 0.9717
5.3876 3.7862 -1.2377 0.9736
4.7660 4.0302 -1.1732 0.9749
4.2162 4.2663 -1.1274 0.9759
3.8827 4.7033 -1.1464 0.9755
3.2509 4.7442 -1.0810 0.9769
2.7853 4.9635 -1.0698 0.9771
2.3199 5.1670 -1.0646 0.9772
1.8507 5.3569 -1.0653 0.9772
1.3736 5.5347 -1.0719 0.9771
0.4610 2.9716 -0.5652 0.9878
0.3811 5.8970 -1.1107 0.9762
-0.1521 6.1213 -1.1509 0.9754
-0.7339 6.3979 -1.2104 0.9741
-4.6898 11.6634 -2.3629 0.9501
-5.5798 10.9390 -2.3082 0.9512
-8.2825 9.0746 -2.3093 0.9512
-8.8336 8.0924 -2.2518 0.9524
-2.4952 1.9058 -0.5902 0.9873
1.7215 5.3252 -1.1830 0.9774
1.2571 5.5358 -1.1999 0.9771
0.2678 6.0073 -1.2711 0.9757
-3.4169 10.5607 -2.3462 0.9556
-4.2613 10.0149 -2.3006 0.9565
-6.8790 7.2410 -2.1112 0.9600
-7.9017 6.9535 -2.2249 0.9579
-8.8611 4.3193 -2.0837 0.9605
-9.0207 3.4386 -2.0406 0.9613
-9.1058 2.5674 -1.9998 0.9621
-9.0681 0.8739 -1.9257 0.9634
-8.7788 -0.7273 -1.8620 0.9646
-8.5493 -1.4854 -1.8342 0.9651
-8.2680 -2.2119 -1.8091 0.9656
-7.1461 -4.1823 -1.7502 0.9667
-5.6684 -5.8087 -1.7156 0.9674
-4.5196 -6.6857 -1.7058 0.9675
-3.9028 -7.0587 -1.7049 0.9676
-3.2606 -7.3864 -1.7067 0.9675
-1.9082 -7.9013 -1.7182 0.9673
-1.2021 -8.0856 -1.7279 0.9671
-0.4791 -8.2192 -1.7403 0.9669
3.3037 -8.0687 -1.8430 0.9650
8.4282 -5.2441 -2.0983 0.9602
2.3327 -0.9259 -0.5305 0.9898
9.4324 -2.7992 -2.0798 0.9606
9.8615 -1.9899 -2.1265 0.9597
10.5083 -0.2141 -2.2217 0.9579
10.7092 0.7401 -2.2691 0.9571
9.1440 2.3128 -1.9937 0.9622
8.0079 2.8066 -1.7937 0.9659
3.4095 4.8980 -1.2615 0.9759
1.8620 5.2638 -1.1802 0.9774
-0.6964 6.4930 -1.3804 0.9737
-1.1530 5.8007 -1.2501 0.9761
-3.1451 10.7118 -2.3598 0.9554
-4.0104 10.1898 -2.3147 0.9562
-5.5243 8.9362 -2.2207 0.9580
-6.7241 7.4770 -2.1256 0.9597
-7.7613 7.2159 -2.2401 0.9576
-8.5347 5.4736 -2.1432 0.9594
-8.9800 3.7072 -2.0536 0.9611
-9.0875 2.8325 -2.0121 0.9618
-9.1232 1.9711 -1.9729 0.9626
-9.0909 1.1276 -1.9364 0.9632
-8.9946 0.3063 -1.9024 0.9639
-8.8381 -0.4895 -1.8711 0.9645
-8.6251 -1.2568 -1.8424 0.9650
-6.3507 -5.1452 -1.7277 0.9671
-5.8333 -5.6596 -1.7180 0.9673
-5.2833 -6.1325 -1.7110 0.9674
-4.7028 -6.5627 -1.7066 0.9675
-3.4596 -7.2911 -1.7059 0.9675
-2.1204 -7.8350 -1.7157 0.9674
-0.7019 -8.1838 -1.7363 0.9670
0.0315 -8.2814 -1.7505 0.9667
1.5349 -8.3145 -1.7872 0.9660
2.2993 -8.2464 -1.8096 0.9656
3.0681 -8.1195 -1.8348 0.9651
5.3646 -7.3671 -1.9264 0.9634
6.1124 -6.9866 -1.9622 0.9628
6.8429 -6.5386 -2.0006 0.9620
9.2889 -3.0352 -2.0657 0.9608
10.1201 -1.3960 -2.1594 0.9591
10.4296 -0.4980 -2.2071 0.9582
10.6572 0.4442 -2.2547 0.9573
10.7949 1.4226 -2.3016 0.9565
5.7722 3.7643 -1.4566 0.9722
4.0825 4.6098 -1.3016 0.9751
2.9250 4.8131 -1.1905 0.9772
2.4613 5.0092 -1.1798 0.9774
1.0729 5.6213 -1.2097 0.9769
0.0602 6.1099 -1.2916 0.9753
-0.5097 6.3972 -1.3565 0.9741
-1.8503 7.0048 -1.5315 0.9708
-3.7531 10.3578 -2.3287 0.9560
-4.5699 9.7835 -2.2825 0.9568
-5.3126 9.1434 -2.2353 0.9577
-5.9772 8.4487 -2.1876 0.9586
-6.5615 7.7101 -2.1401 0.9595
-8.0682 6.6179 -2.2058 0.9582
-8.4383 5.7432 -2.1576 0.9591
-9.0624 3.0989 -2.0245 0.9616
-9.1197 2.2329 -1.9846 0.9623
-9.1077 1.3835 -1.9473 0.9630
-9.0306 0.5550 -1.9125 0.9637
-8.6961 -1.0253 -1.8509 0.9648
-8.4460 -1.7713 -1.8242 0.9653
-7.7979 -3.1641 -1.7788 0.9662
-7.4061 -3.8073 -1.7603 0.9665
-6.9733 -4.4129 -1.7444 0.9668
-6.5021 -4.9797 -1.7312 0.9671
-5.9952 -5.5066 -1.7207 0.9673
-5.4548 -5.9923 -1.7129 0.9674
-3.6564 -7.1914 -1.7053 0.9676
-3.0048 -7.5012 -1.7081 0.9675
-2.3308 -7.7642 -1.7135 0.9674
-0.1943 -8.2572 -1.7459 0.9668
2.0648 -8.2734 -1.8025 0.9657
2.8327 -8.1647 -1.8268 0.9653
4.3708 -7.7650 -1.8835 0.9642
6.6216 -6.6829 -1.9886 0.9623
8.0242 -5.6233 -2.0712 0.9607
8.6771 -4.9900 -2.1158 0.9599
8.6195 -3.9795 -2.0068 0.9619
9.1401 -3.2657 -2.0517 0.9611
9.6065 -2.4917 -2.0978 0.9602
10.0103 -1.6609 -2.1449 0.9594
10.3432 -0.7777 -2.1925 0.9585
9.9767 1.9504 -2.1488 0.9593
8.6741 2.5171 -1.9092 0.9637
6.7421 3.3502 -1.5914 0.9697
5.2825 3.9323 -1.3920 0.9734
4.6503 4.1556 -1.3183 0.9748
4.1085 4.3912 -1.2711 0.9757
3.0704 4.7545 -1.1964 0.9771
2.6021 4.9492 -1.1820 0.9774
1.2182 5.5537 -1.2019 0.9770
0.3557 2.7957 -0.5957 0.9885
-0.3293 6.3054 -1.3346 0.9745
-1.3943 5.9304 -1.2878 0.9754
-4.3277 9.9667 -2.2968 0.9565
-5.0936 9.3456 -2.2498 0.9574
-5.7824 8.6664 -2.2022 0.9583
-8.8772 4.2465 -2.0801 0.9606
-9.1096 2.4962 -1.9966 0.9621
-9.1185 1.6412 -1.9584 0.9628
-9.0609 0.8060 -1.9229 0.9635
-8.7619 -0.7909 -1.8596 0.9647
-8.2426 -2.2702 -1.8072 0.9657
-7.9090 -2.9601 -1.7851 0.9661
-7.5305 -3.6144 -1.7657 0.9664
-6.6502 -4.8105 -1.7349 0.9670
-6.1539 -5.3497 -1.7236 0.9672
-5.6235 -5.8481 -1.7150 0.9674
-5.0614 -6.3046 -1.7090 0.9675
-4.4698 -6.7181 -1.7057 0.9675
-1.8507 -7.9183 -1.7189 0.9673
-1.1432 -8.0985 -1.7288 0.9671
0.3199 -8.3050 -1.7568 0.9666
1.0708 -8.3279 -1.7748 0.9663
2.5974 -8.2043 -1.8191 0.9654
4.1363 -7.8423 -1.8741 0.9644
4.9010 -7.5673 -1.9057 0.9638
5.6566 -7.2273 -1.9400 0.9632
2.3453 -0.9110 -0.5318 0.9898
9.4701 -2.7347 -2.0836 0.9605
9.8940 -1.9208 -2.1304 0.9596
10.4440 1.7469 -2.2383 0.9576
9.0409 2.3576 -1.9750 0.9625
7.9242 2.8429 -1.7796 0.9662
6.2084 3.5812 -1.5150 0.9711
4.8359 4.0893 -1.3387 0.9744
4.2506 4.3011 -1.2782 0.9756
1.3619 5.4876 -1.1952 0.9771
0.3845 5.9502 -1.2604 0.9759
-0.7478 6.5195 -1.3871 0.9735
-3.2189 10.6719 -2.3562 0.9555
-4.8673 9.5422 -2.2643 0.9572
-5.5801 8.8796 -2.2168 0.9580
-6.2137 8.1666 -2.1691 0.9589
1.2783 5.6293 -1.3567 0.9766
0.3746 2.7800 -0.6593 0.9885
-0.2844 6.3416 -1.4919 0.9743
-0.8903 6.5951 -1.5641 0.9730
-3.7678 8.8551 -2.2617 0.9612
-4.4610 8.3302 -2.2208 0.9619
-5.0894 7.7507 -2.1792 0.9626
-6.1409 6.4641 -2.0955 0.9640
-2.5220 1.8477 -0.7348 0.9872
-7.9823 3.8909 -2.0870 0.9642
-8.2639 1.5503 -1.9761 0.9660
-8.1391 0.0546 -1.9129 0.9671
-7.2535 -2.6541 -1.8153 0.9688
-6.9174 -3.2578 -1.7970 0.9691
-6.5412 -3.8283 -1.7813 0.9693
-2.3798 -7.0320 -1.7448 0.9700
-1.7494 -7.2437 -1.7514 0.9698
-1.1016 -7.4092 -1.7605 0.9697
-0.4388 -7.5271 -1.7721 0.9695
3.7065 -7.1546 -1.8937 0.9674
4.3962 -6.8987 -1.9226 0.9669
5.0754 -6.5839 -1.9538 0.9664
7.0010 -5.2777 -2.0606 0.9646
8.1093 -4.0909 -2.1347 0.9634
2.3327 -0.9259 -0.5898 0.9897
8.4338 -2.5028 -2.0676 0.9645
8.7965 -1.7750 -2.1091 0.9638
9.3283 -0.1901 -2.1928 0.9624
9.1262 2.3083 -2.2124 0.9621
7.9939 2.8017 -1.9908 0.9658
7.0540 3.2050 -1.8209 0.9687
6.2598 3.5496 -1.6913 0.9709
4.9440 4.1187 -1.5123 0.9739
4.3742 4.3616 -1.4518 0.9749
3.4054 4.8921 -1.4009 0.9758
2.3574 5.1488 -1.3309 0.9770
1.3632 3.8537 -0.9607 0.9833
0.4676 2.8748 -0.6845 0.9881
-0.1096 6.2683 -1.4734 0.9746
-0.6988 6.5150 -1.5400 0.9734
-3.5435 9.0033 -2.2740 0.9610
-6.4403 5.9877 -2.0667 0.9645
-2.5024 1.9406 -0.7443 0.9871
-8.2472 1.0230 -1.9531 0.9664
-8.1731 0.2783 -1.9220 0.9670
-7.6273 -1.8186 -1.8428 0.9683
-6.6604 -3.6574 -1.7858 0.9693
-5.3479 -5.1886 -1.7512 0.9698
-3.7559 -6.3751 -1.7390 0.9701
1.4024 -7.5971 -1.8157 0.9688
2.7970 -7.4020 -1.8597 0.9680
4.1862 -6.9832 -1.9135 0.9671
4.8691 -6.6865 -1.9440 0.9666
6.1887 -5.9135 -2.0118 0.9654
2.3346 -1.0014 -0.5970 0.9896
9.0121 -1.2432 -2.1381 0.9633
9.5443 1.2578 -2.2625 0.9612
8.3156 2.6616 -2.0520 0.9648
7.3287 3.0911 -1.8693 0.9678
6.4906 3.4496 -1.7275 0.9702
5.7690 3.7622 -1.6187 0.9721
5.1276 4.0394 -1.5341 0.9735
2.9740 4.8938 -1.3459 0.9767
2.5002 5.0885 -1.3325 0.9770
2.0348 5.2879 -1.3316 0.9770
1.0912 5.7170 -1.3679 0.9764
0.2799 2.8116 -0.6641 0.9885
0.0611 6.1967 -1.4564 0.9749
-3.3136 9.1453 -2.2861 0.9608
-4.7129 8.1112 -2.2047 0.9622
-5.8489 6.8727 -2.1210 0.9636
-8.0528 3.5851 -2.0717 0.9644
-8.2541 2.0209 -1.9972 0.9657
-8.0886 -0.2265 -1.9017 0.9673
-7.7035 -1.6156 -1.8499 0.9682
-7.4381 -2.2691 -1.8277 0.9686
-7.1279 -2.8923 -1.8079 0.9689
-6.7760 -3.4833 -1.7906 0.9692
-6.3849 -4.0405 -1.7758 0.9694
-5.9572 -4.5624 -1.7635 0.9696
-5.4955 -5.0477 -1.7537 0.9698
-4.4793 -5.9031 -1.7416 0.9700
-3.9293 -6.2708 -1.7392 0.9701
-3.3542 -6.5970 -1.7393 0.9700
-2.7561 -6.8803 -1.7419 0.9700
-2.1373 -7.1196 -1.7470 0.9699
-1.4998 -7.3135 -1.7546 0.9698
-0.8459 -7.4607 -1.7647 0.9696
-0.1779 -7.5598 -1.7772 0.9694
0.5017 -7.6094 -1.7923 0.9692
1.1904 -7.6080 -1.8098 0.9689
1.8853 -7.5540 -1.8298 0.9685
3.2812 -7.2826 -1.8773 0.9677
5.3353 -6.4456 -1.9665 0.9662
5.9921 -6.0475 -2.0008 0.9656
7.7357 -3.5714 -2.0025 0.9656
8.1842 -2.9241 -2.0426 0.9649
8.5816 -2.2259 -2.0836 0.9642
8.9209 -1.4801 -2.1253 0.9635
5.9801 3.6708 -1.6491 0.9716
5.3167 3.9578 -1.5578 0.9731
4.7180 4.2161 -1.4871 0.9743
4.1551 4.4410 -1.4294 0.9753
3.7151 4.7595 -1.4190 0.9755
2.6438 5.0286 -1.3352 0.9769
0.3531 2.7748 -0.6574 0.9886
0.2280 6.1267 -1.4409 0.9751
-1.3740 5.8442 -1.4110 0.9756
-3.0785 9.2809 -2.2981 0.9606
-5.1382 7.7008 -2.1758 0.9627
-6.1782 6.4082 -2.0920 0.9641
-6.5930 5.7164 -2.0508 0.9648
-7.7733 4.6128 -2.1243 0.9635
-7.9982 3.8261 -2.0838 0.9642
-8.2404 2.2580 -2.0081 0.9655
-8.2635 1.4873 -1.9733 0.9661
-8.2253 0.7316 -1.9408 0.9666
-7.9781 -0.7202 -1.8827 0.9676
-7.5242 -2.0723 -1.8342 0.9684
-7.2274 -2.7050 -1.8137 0.9688
-6.5085 -3.8737 -1.7801 0.9694
-5.6402 -4.9032 -1.7565 0.9698
-5.1563 -5.3623 -1.7484 0.9699
-3.5326 -6.5017 -1.7390 0.9701
-2.9413 -6.7983 -1.7409 0.9700
-1.0475 -7.4207 -1.7613 0.9697
-0.3836 -7.5347 -1.7731 0.9695
0.2928 -7.5996 -1.7874 0.9692
0.9790 -7.6139 -1.8042 0.9689
1.6723 -7.5762 -1.8234 0.9686
2.3697 -7.4849 -1.8452 0.9683
3.0680 -7.3385 -1.8694 0.9678
3.7636 -7.1357 -1.8960 0.9674
4.4526 -6.8750 -1.9251 0.9669
5.1307 -6.5554 -1.9564 0.9664
7.0506 -5.2341 -2.0638 0.9646
7.6337 -4.6722 -2.1035 0.9639
7.5893 -3.7588 -1.9904 0.9658
2.3466 -0.9115 -0.5917 0.9897
9.1187 -0.9369 -2.1544 0.9630
9.3441 -0.1216 -2.1963 0.9623
9.4933 0.7263 -2.2377 0.9616
9.5601 1.5990 -2.2781 0.9610
7.9104 2.8380 -1.9752 0.9661
6.1993 3.5759 -1.6820 0.9710
4.3271 4.3786 -1.4468 0.9750
3.8732 4.6917 -1.4299 0.9753
2.7885 4.9691 -1.3392 0.9769
1.3391 3.8762 -0.9638 0.9833
0.4443 2.8643 -0.6812 0.9882
-1.1964 5.7954 -1.3908 0.9760
-2.8382 9.4096 -2.3099 0.9604
-3.6044 8.9640 -2.2707 0.9611
-4.3115 8.4526 -2.2301 0.9618
-5.5307 7.2689 -2.1466 0.9632
-6.0373 6.6147 -2.1048 0.9639
-6.4736 5.9304 -2.0634 0.9646
1.2675 3.9208 -1.0669 0.9831
1.2881 5.6726 -1.5061 0.9763
0.2720 6.1002 -1.5810 0.9751
-0.8891 6.5859 -1.7207 0.9729
-1.3221 5.8152 -1.5441 0.9757
-2.6935 8.3248 -2.2654 0.9645
-4.0011 7.4715 -2.1944 0.9656
-5.5401 5.8317 -2.0827 0.9673
-5.9310 5.2193 -2.0456 0.9679
-2.5218 1.8475 -0.8094 0.9872
-7.2551 3.5365 -2.0898 0.9672
-7.4543 0.0500 -1.9301 0.9697
-7.1551 -1.2432 -1.8803 0.9704
-6.3678 -2.9990 -1.8224 0.9713
-5.6479 -4.0225 -1.7953 0.9718
-5.2367 -4.4852 -1.7852 0.9719
-3.3043 -5.9763 -1.7681 0.9722
-2.7601 -6.2528 -1.7697 0.9722
-2.1959 -6.4883 -1.7735 0.9721
-1.0157 -6.8316 -1.7883 0.9719
-0.4044 -6.9368 -1.7991 0.9717
0.2180 -6.9960 -1.8123 0.9715
0.8487 -7.0079 -1.8277 0.9713
1.4850 -6.9714 -1.8455 0.9710
2.1241 -6.8850 -1.8656 0.9707
2.7628 -6.7476 -1.8878 0.9703
3.3975 -6.5581 -1.9124 0.9699
4.0246 -6.3156 -1.9390 0.9695
5.8179 -5.2627 -2.0312 0.9681
6.3706 -4.8025 -2.0656 0.9676
6.8919 -4.2882 -2.1017 0.9670
8.3776 -0.1707 -2.1696 0.9660
8.5011 0.5875 -2.2063 0.9654
4.9374 4.1131 -1.6638 0.9738
4.3704 4.3577 -1.5980 0.9748
2.3845 5.2079 -1.4830 0.9766
1.3467 3.8070 -1.0455 0.9835
1.4362 5.6100 -1.4994 0.9764
-0.1094 6.2601 -1.6211 0.9745
-0.6978 6.5061 -1.6942 0.9733
-1.1509 5.7898 -1.5284 0.9759
-2.4762 8.4336 -2.2758 0.9643
-4.4046 7.1250 -2.1688 0.9660
-5.4081 6.0137 -2.0941 0.9671
-5.8181 5.4092 -2.0569 0.9677
-2.5054 1.9430 -0.8209 0.9870
-7.1940 3.7534 -2.1009 0.9670
-7.5424 1.6295 -1.9979 0.9686
-7.5399 0.9353 -1.9672 0.9691
-7.4824 0.2548 -1.9385 0.9695
-7.2133 -1.0511 -1.8874 0.9703
-7.0071 -1.6707 -1.8651 0.9707
-6.7568 -2.2649 -1.8451 0.9710
-6.4650 -2.8315 -1.8274 0.9713
-6.1343 -3.3685 -1.8120 0.9715
-5.7671 -3.8743 -1.7989 0.9717
-4.9330 -4.7861 -1.7796 0.9720
-4.4706 -5.1892 -1.7734 0.9721
-3.9811 -5.5555 -1.7696 0.9722
-2.3705 -6.4207 -1.7721 0.9721
-1.2001 -6.7904 -1.7854 0.9719
-0.5926 -6.9094 -1.7955 0.9718
1.2899 -6.9878 -1.8398 0.9711
2.5677 -6.7951 -1.8808 0.9704
3.2040 -6.6217 -1.9046 0.9701
4.4533 -6.1156 -1.9588 0.9692
7.2192 -3.8930 -2.1236 0.9667
2.3299 -0.9993 -0.6564 0.9896
7.5125 -2.4547 -2.0463 0.9679
8.1142 -1.1193 -2.1208 0.9667
8.4709 0.3531 -2.1952 0.9656
6.4806 3.4443 -1.9002 0.9701
5.7608 3.7568 -1.7807 0.9720
5.1206 4.0339 -1.6878 0.9734
4.0723 4.5983 -1.5903 0.9749
3.5549 4.8203 -1.5508 0.9756
3.0044 4.9437 -1.4978 0.9764
1.0980 5.7528 -1.5164 0.9761
0.0610 6.1887 -1.6024 0.9748
-0.5122 6.4286 -1.6698 0.9737
-1.8447 6.9838 -1.8702 0.9706
-4.7802 6.7567 -2.1430 0.9664
-5.2704 6.1929 -2.1055 0.9670
-5.6993 5.5969 -2.0682 0.9675
-6.0660 4.9756 -2.0314 0.9681
-7.4583 2.5504 -2.0409 0.9680
-7.2671 -0.8568 -1.8946 0.9702
-6.8379 -2.0860 -1.8510 0.9709
-6.5585 -2.6612 -1.8326 0.9712
-6.2394 -3.2075 -1.8165 0.9714
-5.8831 -3.7230 -1.8026 0.9716
-5.0686 -4.6556 -1.7819 0.9720
-4.6151 -5.0698 -1.7751 0.9721
-4.1336 -5.4475 -1.7705 0.9721
-2.5433 -6.3492 -1.7709 0.9721
-0.7798 -6.8778 -1.7922 0.9718
2.3723 -6.8378 -1.8739 0.9705
3.0099 -6.6803 -1.8971 0.9702
3.6421 -6.4703 -1.9225 0.9698
4.8749 -5.8894 -1.9795 0.9689
5.4667 -5.5173 -2.0110 0.9684
6.5770 -4.6092 -2.0795 0.9674
7.0842 -4.0740 -2.1159 0.9668
7.0093 -3.2360 -1.9989 0.9686
7.7463 -2.0092 -2.0720 0.9675
8.4340 0.1208 -2.1839 0.9657
8.5295 0.8876 -2.2204 0.9652
8.5499 1.6715 -2.2556 0.9646
8.4915 2.4641 -2.2893 0.9641
5.3094 3.9523 -1.7138 0.9730
4.7118 4.2105 -1.6361 0.9742
3.7105 4.7536 -1.5614 0.9754
2.6734 5.0849 -1.4874 0.9765
1.2480 5.6895 -1.5081 0.9762
-0.3318 6.3531 -1.6472 0.9741
-2.7513 8.2944 -2.2626 0.9645
-4.0504 7.4316 -2.1914 0.9656
-5.5747 5.7822 -2.0796 0.9674
-5.9604 5.1679 -2.0426 0.9679
-2.5391 1.8316 -0.8106 0.9871
-7.0537 4.1857 -2.1237 0.9667
-7.5481 1.3586 -1.9857 0.9688
-7.5240 0.6692 -1.9558 0.9693
-7.4459 -0.0049 -1.9279 0.9697
-7.3165 -0.6604 -1.9021 0.9701
-7.1387 -1.2945 -1.8785 0.9705
-6.9150 -1.9046 -1.8571 0.9708
-6.6483 -2.4883 -1.8380 0.9711
-5.6152 -4.0619 -1.7944 0.9718
-4.7569 -4.9469 -1.7769 0.9720
-4.2837 -5.3359 -1.7717 0.9721
-3.7841 -5.6875 -1.7688 0.9722
-0.3535 -6.9434 -1.8001 0.9717
0.2696 -6.9988 -1.8135 0.9715
0.9009 -7.0068 -1.8291 0.9712
1.5376 -6.9661 -1.8471 0.9710
3.4495 -6.5402 -1.9145 0.9699
4.0758 -6.2932 -1.9413 0.9695
4.6901 -5.9923 -1.9702 0.9690
5.8645 -5.2268 -2.0340 0.9681
6.4148 -4.7621 -2.0686 0.9675
6.8806 -3.4078 -1.9880 0.9688
2.3480 -0.9120 -0.6522 0.9896
7.6463 -2.2080 -2.0607 0.9676
7.9541 -1.5442 -2.0979 0.9671
8.2040 -0.8429 -2.1354 0.9665
8.5080 0.6509 -2.2093 0.9654
8.5180 2.2213 -2.2792 0.9643
7.8966 2.8330 -2.1722 0.9659
6.9727 3.2302 -1.9897 0.9687
6.1900 3.5705 -1.8502 0.9709
5.5041 3.8680 -1.7418 0.9726
4.8889 4.1341 -1.6577 0.9739
4.3256 4.3770 -1.5933 0.9749
3.8683 4.6859 -1.5733 0.9752
3.3602 4.9037 -1.5391 0.9757
2.8187 5.0230 -1.4913 0.9765
2.3457 5.2244 -1.4828 0.9766
1.3195 3.8193 -1.0462 0.9834
1.3965 5.6268 -1.5011 0.9763
0.1914 2.9625 -0.7686 0.9878
-0.1560 6.2796 -1.6264 0.9744
-0.7487 6.5274 -1.7011 0.9732
-1.1951 5.7893 -1.5306 0.9759
-3.2254 8.0214 -2.2385 0.9649
-3.8654 7.5780 -2.2026 0.9655
-4.4507 7.0823 -2.1658 0.9660
-5.4443 5.9650 -2.0910 0.9672
-2.4987 1.9085 -0.8141 0.9871
1.2516 3.8718 -1.1519 0.9832
1.2866 5.6656 -1.6447 0.9761
0.3691 2.7394 -0.7825 0.9886
0.2716 6.0924 -1.7264 0.9750
-0.8878 6.5767 -1.8787 0.9728
-1.3203 5.8071 -1.6859 0.9755
-2.4317 7.5156 -2.2362 0.9677
-5.0411 5.3064 -2.0720 0.9700
-6.4298 3.8798 -2.1259 0.9693
-6.7977 2.5912 -2.0594 0.9702
-6.8958 1.9443 -2.0283 0.9707
-6.9391 1.3018 -1.9987 0.9711
-6.8695 0.0461 -1.9448 0.9718
-6.4097 -1.7147 -1.8783 0.9728
-6.1712 -2.2580 -1.8603 0.9731
-5.8941 -2.7758 -1.8444 0.9733
-5.5808 -3.2662 -1.8306 0.9735
-4.8545 -4.1578 -1.8094 0.9738
-4.4460 -4.5560 -1.8021 0.9739
-3.0653 -5.5439 -1.7934 0.9740
-2.5603 -5.8001 -1.7948 0.9740
-2.0366 -6.0176 -1.7985 0.9739
-1.4962 -6.1954 -1.8043 0.9739
-0.9414 -6.3322 -1.8123 0.9737
-0.3746 -6.4268 -1.8225 0.9736
1.9626 -6.3615 -1.8847 0.9727
2.5504 -6.2290 -1.9055 0.9724
3.7075 -5.8180 -1.9530 0.9717
4.2695 -5.5385 -1.9797 0.9713
7.5946 -0.1548 -2.1504 0.9689
7.7277 1.2341 -2.2154 0.9680
7.5835 2.6579 -2.2749 0.9671
7.0311 3.1946 -2.1863 0.9684
6.2409 3.5389 -2.0310 0.9706
4.9307 4.1076 -1.8167 0.9737
3.9063 4.6616 -1.7217 0.9750
2.8545 5.0001 -1.6299 0.9763
1.3410 3.7910 -1.1384 0.9834
-0.1093 6.2518 -1.7701 0.9743
-2.2345 7.6104 -2.2454 0.9676
-2.8652 7.2799 -2.2148 0.9680
-5.3000 4.9275 -2.0487 0.9704
-6.3449 4.0692 -2.1338 0.9692
-6.7564 2.7893 -2.0693 0.9701
-6.8717 2.1419 -2.0376 0.9705
-6.9380 0.8606 -1.9791 0.9714
-6.8931 0.2347 -1.9525 0.9717
-6.7993 -0.3766 -1.9278 0.9721
-6.6590 -0.9703 -1.9050 0.9724
-6.4745 -1.5438 -1.8843 0.9727
-6.2483 -2.0945 -1.8656 0.9730
-5.9828 -2.6203 -1.8490 0.9732
-5.3432 -3.5895 -1.8222 0.9736
-4.9736 -4.0295 -1.8121 0.9737
-4.5740 -4.4377 -1.8041 0.9739
-3.6928 -5.1533 -1.7948 0.9740
-2.1986 -5.9552 -1.7971 0.9740
-1.6631 -6.1453 -1.8023 0.9739
-0.5491 -6.4024 -1.8191 0.9736
1.1931 -6.4633 -1.8606 0.9730
2.3710 -6.2746 -1.8989 0.9725
2.9557 -6.1085 -1.9211 0.9722
3.5330 -5.8936 -1.9453 0.9718
4.0992 -5.6293 -1.9713 0.9715
4.6501 -5.3152 -1.9993 0.9711
5.1816 -4.9512 -2.0289 0.9706
5.6890 -4.5377 -2.0601 0.9702
6.5963 -3.5571 -2.1216 0.9693
2.3251 -0.9973 -0.7162 0.9895
6.8467 -2.2372 -2.0391 0.9705
7.1347 -1.6438 -2.0727 0.9700
7.3713 -1.0168 -2.1065 0.9695
7.7247 1.0180 -2.2057 0.9681
7.7102 1.7274 -2.2368 0.9677
7.6243 2.4403 -2.2663 0.9673
6.4706 3.4389 -2.0744 0.9700
5.7524 3.7513 -1.9441 0.9719
5.1136 4.0284 -1.8429 0.9733
4.5331 4.2794 -1.7648 0.9744
3.5505 4.8143 -1.6934 0.9754
1.4676 3.8139 -1.1569 0.9832
0.2752 2.7639 -0.7863 0.9885
0.0609 6.1806 -1.7498 0.9746
-0.5115 6.4198 -1.8232 0.9736
-2.6766 7.3872 -2.2243 0.9679
-3.2779 7.0175 -2.1926 0.9683
-3.8330 6.5970 -2.1599 0.9688
-4.7910 5.6296 -2.0927 0.9697
-6.7098 2.9872 -2.0792 0.9699
-6.8424 2.3398 -2.0472 0.9704
-6.9416 1.0544 -1.9876 0.9712
-6.9121 0.4248 -1.9605 0.9716
-6.8331 -0.1913 -1.9352 0.9720
-6.7067 -0.7907 -1.9118 0.9723
-6.3218 -1.9286 -1.8711 0.9729
-5.7766 -2.9696 -1.8387 0.9734
-5.4498 -3.4488 -1.8258 0.9735
-4.6993 -4.3163 -1.8064 0.9738
-2.3591 -5.8892 -1.7960 0.9740
-1.8286 -6.0914 -1.8005 0.9739
-1.2824 -6.2534 -1.8071 0.9738
-0.1518 -6.4520 -1.8270 0.9735
1.0132 -6.4757 -1.8555 0.9731
2.1912 -6.3158 -1.8925 0.9726
2.7775 -6.1645 -1.9141 0.9723
3.9274 -5.7154 -1.9632 0.9716
5.0214 -5.0678 -2.0196 0.9708
5.5366 -4.6694 -2.0504 0.9703
6.4012 -2.9553 -1.9959 0.9711
6.7490 -2.4114 -2.0289 0.9706
7.0519 -1.8291 -2.0624 0.9702
7.5026 -0.5641 -2.1299 0.9692
7.6409 0.1094 -2.1633 0.9687
7.7153 0.8029 -2.1959 0.9683
7.7221 1.5096 -2.2275 0.9678
7.5217 2.9330 -2.2855 0.9670
4.7055 4.2049 -1.7865 0.9741
4.1560 4.4420 -1.7221 0.9750
2.6702 5.0787 -1.6244 0.9764
2.1990 5.2793 -1.6190 0.9765
1.7269 5.4795 -1.6264 0.9764
1.2465 5.6825 -1.6469 0.9761
0.2274 6.1109 -1.7312 0.9749
-1.3698 5.8265 -1.6944 0.9754
-2.4841 7.4891 -2.2337 0.9677
-3.0987 7.1363 -2.2025 0.9682
-3.6684 6.7306 -2.1700 0.9686
-4.1892 6.2786 -2.1368 0.9691
-4.6582 5.7869 -2.1031 0.9696
-5.0732 5.2621 -2.0692 0.9701
-5.4330 4.7106 -2.0357 0.9705
-2.5375 1.8305 -0.8858 0.9871
-6.4496 3.8273 -2.1231 0.9693
-6.9014 1.8911 -2.0258 0.9707
-6.9403 1.2492 -1.9963 0.9711
-6.9265 0.6161 -1.9686 0.9715
-6.7502 -0.6093 -1.9187 0.9722
-6.5925 -1.1955 -1.8967 0.9725
-5.8696 -2.8173 -1.8431 0.9733
-5.2034 -3.7640 -1.8181 0.9737
-2.5179 -5.8195 -1.7950 0.9740
-0.8952 -6.3416 -1.8130 0.9737
-0.3275 -6.4327 -1.8234 0.9736
0.2496 -6.4805 -1.8359 0.9734
0.8336 -6.4837 -1.8506 0.9732
2.0112 -6.3524 -1.8863 0.9727
2.5986 -6.2159 -1.9073 0.9724
3.1809 -6.0309 -1.9302 0.9721
4.3151 -5.5132 -1.9820 0.9713
4.8590 -5.1798 -2.0106 0.9709
5.3817 -4.7965 -2.0408 0.9705
6.3444 -3.8830 -2.1058 0.9696
6.2866 -3.1136 -1.9860 0.9713
6.9643 -2.0111 -2.0521 0.9703
7.4482 -0.7652 -2.1196 0.9694
7.6052 -0.0990 -2.1532 0.9689
7.6996 0.5891 -2.1861 0.9684
7.7274 1.2925 -2.2180 0.9680
7.6855 2.0042 -2.2485 0.9675
7.5713 2.7163 -2.2771 0.9671
6.1807 3.5651 -2.0199 0.9708
4.8822 4.1285 -1.8100 0.9738
4.3199 4.3713 -1.7398 0.9748
3.3560 4.8977 -1.6808 0.9756
2.8153 5.0168 -1.6286 0.9764
2.3429 5.2181 -1.6193 0.9765
1.3141 3.8036 -1.1392 0.9834
1.3948 5.6199 -1.6392 0.9762
0.4452 2.8698 -0.8221 0.9880
-0.1558 6.2713 -1.7759 0.9743
-1.1939 5.7832 -1.6717 0.9758
-2.9152 7.2501 -2.2122 0.9680
-4.9521 5.4258 -2.0796 0.9699
-2.5017 1.9108 -0.8912 0.9870
1.2849 5.6585 -1.7848 0.9760
0.3690 2.7386 -0.8499 0.9885
0.2713 6.0844 -1.8733 0.9748
-0.2832 6.3161 -1.9447 0.9739
-2.7798 6.5332 -2.1838 0.9707
-4.2295 5.3342 -2.0939 0.9719
-4.6197 4.8628 -2.0630 0.9723
-6.1198 2.9830 -2.0940 0.9719
-6.2701 2.3901 -2.0639 0.9723
-6.3681 1.7955 -2.0351 0.9727
-6.4152 1.2035 -2.0076 0.9731
-6.3639 0.0427 -1.9574 0.9737
-6.1315 -1.0654 -1.9142 0.9743
-5.7353 -2.0985 -1.8784 0.9748
-4.8715 -3.4695 -1.8395 0.9753
-4.5203 -3.8716 -1.8306 0.9754
-4.1411 -4.2436 -1.8237 0.9755
-2.8560 -5.1655 -1.8155 0.9756
-1.8972 -5.6057 -1.8203 0.9755
0.7302 -6.0296 -1.8681 0.9749
1.2760 -5.9900 -1.8837 0.9747
1.8223 -5.9067 -1.9013 0.9745
2.9044 -5.6063 -1.9421 0.9739
3.9500 -5.1240 -1.9900 0.9733
4.9291 -4.4587 -2.0443 0.9726
5.3834 -4.0583 -2.0736 0.9722
6.3656 -1.8891 -2.0423 0.9726
7.0410 1.1245 -2.1931 0.9706
6.2313 3.5335 -2.2033 0.9705
4.3589 4.3463 -1.8933 0.9746
2.8510 4.9939 -1.7687 0.9762
2.3787 5.1953 -1.7575 0.9764
1.3188 3.7281 -1.2163 0.9836
0.4717 2.8994 -0.9035 0.9878
0.2095 2.9095 -0.8972 0.9879
-1.1488 5.7794 -1.8124 0.9756
-2.0335 6.9258 -2.2201 0.9702
-3.1501 6.2896 -2.1636 0.9710
-4.1005 5.4723 -2.1032 0.9718
-4.5056 5.0101 -2.0725 0.9722
-2.5220 1.9558 -0.9816 0.9867
-5.4222 3.4774 -1.9812 0.9734
-6.2298 2.5718 -2.0730 0.9722
-6.4061 1.3840 -2.0158 0.9729
-6.3839 0.2174 -1.9647 0.9736
-6.1781 -0.9003 -1.9203 0.9742
-5.2842 -2.9017 -1.8542 0.9751
-4.9729 -3.3408 -1.8427 0.9752
-4.6308 -3.7517 -1.8331 0.9754
-4.2600 -4.1331 -1.8256 0.9755
-3.8625 -4.4834 -1.8202 0.9755
-2.9961 -5.0854 -1.8155 0.9756
-2.0482 -5.5479 -1.8190 0.9756
-0.5111 -5.9595 -1.8397 0.9753
1.1088 -6.0067 -1.8787 0.9748
1.6553 -5.9369 -1.8957 0.9745
2.2003 -5.8229 -1.9146 0.9743
3.2729 -5.4597 -1.9579 0.9737
4.2990 -4.9138 -2.0081 0.9730
4.7850 -4.5722 -2.0356 0.9727
5.6817 -3.7544 -2.0946 0.9719
6.2826 -2.0529 -2.0329 0.9727
6.5381 -1.5064 -2.0637 0.9723
6.7457 -0.9305 -2.0945 0.9719
7.0410 0.9279 -2.1844 0.9707
6.4605 3.4336 -2.2503 0.9698
3.5460 4.8083 -1.8376 0.9753
2.9970 4.9316 -1.7750 0.9761
2.5018 5.0916 -1.7449 0.9765
1.4542 3.7792 -1.2455 0.9832
1.5792 5.5343 -1.7702 0.9762
1.0953 5.7385 -1.7969 0.9758
0.0609 6.1724 -1.8986 0.9745
-0.5108 6.4110 -1.9781 0.9734
-1.1375 6.6716 -2.0817 0.9721
-2.9893 6.3997 -2.1726 0.9709
-4.3868 5.1547 -2.0819 0.9721
-4.7579 4.6724 -2.0511 0.9725
-5.9975 3.3408 -2.1116 0.9717
-6.1844 2.7533 -2.0822 0.9721
-6.3143 2.1592 -2.0526 0.9725
-6.4202 0.9752 -1.9974 0.9732
-6.3324 -0.1773 -1.9485 0.9738
-6.0669 -1.2724 -1.9066 0.9744
-5.0715 -3.2094 -1.8460 0.9752
-4.3763 -4.0197 -1.8277 0.9754
-3.9868 -4.3796 -1.8216 0.9755
-3.5721 -4.7075 -1.8176 0.9756
-2.1978 -5.4866 -1.8179 0.9756
-0.6728 -5.9337 -1.8368 0.9753
-0.1413 -6.0038 -1.8472 0.9752
1.4882 -5.9629 -1.8903 0.9746
2.0340 -5.8625 -1.9086 0.9744
2.5760 -5.7174 -1.9288 0.9741
3.6358 -5.2910 -1.9746 0.9735
4.1463 -5.0092 -2.0000 0.9732
4.6386 -4.6815 -2.0271 0.9728
5.5521 -3.8909 -2.0853 0.9720
5.9563 -3.4253 -2.1134 0.9717
6.1956 -2.2136 -2.0236 0.9728
6.4648 -1.6768 -2.0542 0.9724
6.6875 -1.1096 -2.0851 0.9720
6.8594 -0.5158 -2.1158 0.9716
7.0352 0.7321 -2.1755 0.9708
7.0325 1.3748 -2.2040 0.9705
6.8341 2.6648 -2.2562 0.9698
6.6360 3.2975 -2.2792 0.9695
5.9536 3.6546 -2.1487 0.9712
5.2945 3.9412 -2.0301 0.9728
4.6991 4.1992 -1.9384 0.9740
3.7012 4.7416 -1.8501 0.9751
3.1441 4.8686 -1.7826 0.9760
2.6669 5.0725 -1.7627 0.9763
1.7248 5.4727 -1.7649 0.9763
-1.3678 5.8179 -1.8382 0.9753
-3.3485 6.1437 -2.1521 0.9711
-3.8290 5.7388 -2.1220 0.9715
-2.5360 1.8294 -0.9618 0.9870
-6.1342 2.9344 -2.0915 0.9719
-6.3739 1.7466 -2.0327 0.9727
-6.4169 1.1550 -2.0054 0.9731
-6.4109 0.5702 -1.9796 0.9734
-6.3578 -0.0042 -1.9555 0.9737
-6.2595 -0.5650 -1.9331 0.9740
-5.9363 -1.6350 -1.8939 0.9746
-5.7157 -2.1392 -1.8771 0.9748
-4.8437 -3.5037 -1.8387 0.9753
-3.7015 -4.6107 -1.8186 0.9756
-2.8180 -5.1864 -1.8155 0.9756
-2.3458 -5.4218 -1.8170 0.9756
-1.8562 -5.6207 -1.8206 0.9755
-0.8334 -5.9042 -1.8340 0.9754
-0.3048 -5.9867 -1.8438 0.9752
0.7751 -6.0280 -1.8693 0.9749
1.3210 -5.9848 -1.8851 0.9747
1.8673 -5.8979 -1.9028 0.9744
2.4108 -5.7665 -1.9224 0.9742
2.9484 -5.5901 -1.9439 0.9739
4.9675 -4.4274 -2.0467 0.9725
5.8418 -3.5754 -2.1066 0.9717
7.0400 1.1775 -2.1954 0.9706
4.8756 4.1229 -1.9639 0.9736
4.3143 4.3656 -1.8878 0.9746
3.3519 4.8915 -1.8239 0.9755
0.1896 2.9342 -0.9044 0.9878
-0.1556 6.2629 -1.9269 0.9741
-0.7466 6.5092 -2.0152 0.9730
-1.1926 5.7770 -1.8143 0.9756
-2.0823 6.9037 -2.2179 0.9703
-3.1927 6.2592 -2.1612 0.9710
-4.1356 5.4354 -2.1007 0.9718
-4.5368 4.9707 -2.0699 0.9722
-4.8886 4.4784 -2.0392 0.9726
-2.5048 1.9131 -0.9694 0.9869
1.2376 3.8284 -1.3374 0.9832
1.2833 5.6514 -1.9264 0.9759
0.3866 2.8693 -0.9624 0.9879
-1.3166 5.7908 -1.9740 0.9753
-3.0380 5.6730 -2.1391 0.9732
-3.4868 5.3101 -2.1116 0.9736
-3.8945 4.9117 -2.0836 0.9739
-4.2587 4.4828 -2.0554 0.9743
-4.5781 4.0287 -2.0271 0.9746
-5.0785 3.0644 -1.9717 0.9753
-5.9096 1.6662 -2.0410 0.9745
-5.9591 1.1179 -2.0154 0.9748
-5.8386 -0.4837 -1.9474 0.9756
-5.3520 -1.9583 -1.8944 0.9763
-5.1175 -2.4101 -1.8803 0.9764
-4.8502 -2.8386 -1.8681 0.9766
-4.5522 -3.2421 -1.8577 0.9767
-2.2309 -5.0537 -1.8363 0.9770
-1.7740 -5.2419 -1.8395 0.9769
-1.3028 -5.3945 -1.8447 0.9769
-0.8193 -5.5104 -1.8518 0.9768
