ply
format ascii 1.0
element vertex 1607
property float32 x
property float32 y
property float32 z
property float32 I
end_header
4.5073 4.4448 0.9698 0.9747
2.9256 5.0622 0.8957 0.9766
2.4046 5.1805 0.8750 0.9772
-0.0792 6.2460 0.9569 0.9750
-0.6639 6.4779 0.9976 0.9740
-1.3060 6.7330 1.0507 0.9726
-5.2028 13.3946 2.2014 0.9435
15.7825 -0.4713 2.0561 0.9383
6.5561 3.6402 0.9765 0.9702
5.7974 3.9349 0.9124 0.9721
4.5223 4.4310 0.8245 0.9748
4.0366 4.7333 0.8101 0.9752
3.5032 4.9417 0.7888 0.9759
1.9715 5.4292 0.7522 0.9770
1.5337 5.7917 0.7802 0.9761
-0.0591 6.2302 0.8113 0.9752
-1.9961 6.9986 0.9477 0.9711
18.4498 -0.9495 2.4057 0.9282
13.0729 0.4974 1.7036 0.9486
11.7466 1.5057 1.5422 0.9534
6.7559 3.5628 0.9946 0.9697
5.2822 4.1352 0.8736 0.9733
1.6545 5.7441 0.7784 0.9762
0.6079 5.9665 0.7810 0.9761
0.0746 6.1773 0.8045 0.9754
-0.4964 6.4034 0.8364 0.9744
-1.1476 6.8152 0.9000 0.9725
-1.8150 6.9266 0.9324 0.9715
-2.5725 1.7558 0.4056 0.9875
2.4235 -0.8609 0.3349 0.9897
14.3376 0.2362 1.8673 0.9438
8.8530 2.5921 1.2012 0.9635
7.9277 3.1140 1.1091 0.9662
6.9632 3.4823 1.0138 0.9691
6.1503 3.7978 0.9413 0.9713
5.4410 4.0734 0.8851 0.9730
4.8071 4.3201 0.8416 0.9743
3.7568 4.8425 0.7981 0.9756
2.6863 5.1486 0.7562 0.9768
2.2033 5.3381 0.7520 0.9770
1.7614 5.6542 0.7712 0.9764
-1.6396 6.8569 0.9181 0.9720
-9.1191 -9.5938 1.7236 0.9480
2.3594 -0.8959 0.3287 0.9899
15.2847 -0.0778 1.9904 0.9402
10.9898 1.9297 1.4530 0.9560
9.1669 2.4707 1.2363 0.9624
8.1868 3.0136 1.1360 0.9654
7.1851 3.4017 1.0352 0.9684
5.6042 4.0100 0.8974 0.9726
4.9542 4.2628 0.8511 0.9740
3.8860 4.7921 0.8034 0.9754
3.3601 4.9976 0.7842 0.9760
2.8039 5.1025 0.7582 0.9768
2.3193 5.2926 0.7525 0.9770
1.8382 5.4816 0.7529 0.9769
1.3943 5.8466 0.7827 0.9760
0.8550 5.8690 0.7723 0.9764
0.3357 6.0741 0.7922 0.9758
-0.8366 6.7284 0.8829 0.9730
-1.4695 6.7893 0.9046 0.9724
13.1546 0.8272 1.7164 0.9482
11.4407 1.7554 1.5072 0.9544
8.4530 2.9063 1.1640 0.9646
7.4101 3.3145 1.0571 0.9678
5.7720 3.9447 0.9104 0.9722
5.1047 4.2042 0.8612 0.9737
1.9543 5.4360 0.7522 0.9770
1.5158 5.7987 0.7805 0.9761
0.4633 6.0236 0.7867 0.9759
-1.3341 6.8780 0.9124 0.9721
-2.0235 7.0095 0.9501 0.9710
11.2425 1.6882 1.2208 0.9553
9.7910 2.3805 1.0820 0.9603
8.4852 2.8870 0.9625 0.9646
7.4321 3.2959 0.8730 0.9678
6.5463 3.6347 0.8040 0.9703
5.8448 3.9670 0.7585 0.9720
4.5165 4.4254 0.6790 0.9749
4.0317 4.7274 0.6672 0.9753
3.4990 4.9358 0.6497 0.9760
1.9692 5.4229 0.6195 0.9771
1.5319 5.7849 0.6426 0.9762
0.4816 6.0089 0.6473 0.9760
-1.3174 6.9104 0.7554 0.9721
-2.6616 1.7337 0.3411 0.9873
13.0110 -1.8451 1.4111 0.9485
13.2150 0.5029 1.4201 0.9482
10.1568 2.2386 1.1168 0.9590
8.7730 2.7753 0.9881 0.9637
7.6677 3.2043 0.8924 0.9671
6.7455 3.5573 0.8189 0.9698
3.6249 4.8865 0.6533 0.9758
3.0353 4.9642 0.6248 0.9769
2.5663 5.1885 0.6216 0.9770
1.1477 5.9362 0.6492 0.9760
0.6072 5.9593 0.6432 0.9762
-0.4958 6.3951 0.6888 0.9745
-1.1526 6.8451 0.7454 0.9725
-1.8124 6.9166 0.7678 0.9716
-2.5711 1.7548 0.3343 0.9876
11.6389 1.2375 1.2568 0.9540
9.0766 2.6575 1.0156 0.9627
3.1194 4.8629 0.6204 0.9770
2.6832 5.1426 0.6229 0.9769
2.2008 5.3320 0.6194 0.9771
1.7594 5.6476 0.6352 0.9765
1.2706 5.8878 0.6468 0.9761
0.7312 5.9104 0.6395 0.9763
0.2059 6.1177 0.6573 0.9757
-0.3541 6.3391 0.6818 0.9748
14.7023 -0.0748 1.5788 0.9426
9.3979 2.5329 1.0452 0.9616
5.6501 4.0428 0.7460 0.9724
4.9477 4.2572 0.7009 0.9741
3.8813 4.7862 0.6617 0.9755
3.3561 4.9917 0.6459 0.9761
2.8006 5.0966 0.6245 0.9769
2.3166 5.2865 0.6198 0.9770
1.8361 5.4753 0.6201 0.9770
1.3927 5.8397 0.6447 0.9761
0.3353 6.0667 0.6524 0.9759
2.3689 -0.9584 0.2744 0.9898
15.4837 -0.4128 1.6633 0.9396
9.7386 2.4008 1.0771 0.9605
5.8192 3.9770 0.7569 0.9720
3.4804 4.9430 0.6492 0.9760
1.9520 5.4297 0.6196 0.9771
1.5140 5.7920 0.6428 0.9762
1.0053 5.9923 0.6525 0.9759
0.4628 6.0163 0.6479 0.9760
-0.0790 6.2303 0.6691 0.9752
-1.3423 6.9202 0.7570 0.9720
-5.1917 13.3660 1.5397 0.9439
12.7024 -0.3793 1.0758 0.9503
11.4571 1.7204 0.9807 0.9546
9.7713 2.3757 0.8513 0.9604
8.5512 2.9094 0.7646 0.9644
4.5108 4.4198 0.5346 0.9750
3.4949 4.9299 0.5116 0.9760
2.9016 4.9838 0.4882 0.9771
2.4133 5.1558 0.4819 0.9774
1.5302 5.7782 0.5060 0.9763
0.4810 6.0017 0.5097 0.9761
-0.0589 6.2147 0.5261 0.9754
-0.6543 6.5918 0.5608 0.9738
-1.3156 6.9009 0.5947 0.9722
-1.9903 6.9782 0.6143 0.9713
11.6986 -1.6589 1.0002 0.9537
12.4907 -0.6428 1.0588 0.9510
13.3573 0.5083 1.1315 0.9478
10.1358 2.2340 0.8786 0.9592
8.7569 2.7702 0.7775 0.9638
7.6550 3.1990 0.7023 0.9672
6.7352 3.5519 0.6446 0.9699
6.0112 3.8934 0.6063 0.9717
5.2680 4.1241 0.5664 0.9735
4.0123 4.5043 0.5106 0.9761
3.6206 4.8807 0.5144 0.9759
3.0318 4.9584 0.4920 0.9769
2.5634 5.1825 0.4894 0.9771
2.0826 5.3712 0.4877 0.9771
0.6064 5.9522 0.5065 0.9763
0.0745 6.1620 0.5217 0.9756
-1.8098 6.9068 0.6044 0.9717
-2.5697 1.7539 0.2634 0.9876
11.5252 -1.8887 0.9887 0.9542
7.9765 3.1331 0.7255 0.9662
6.1914 3.8231 0.6160 0.9712
3.7478 4.8309 0.5176 0.9758
2.1982 5.3258 0.4877 0.9771
1.7179 5.5146 0.4890 0.9771
1.2691 5.8809 0.5093 0.9761
0.7304 5.9033 0.5035 0.9764
0.2057 6.1102 0.5175 0.9758
-1.6350 6.8376 0.5951 0.9722
-9.1385 -9.6142 1.1229 0.9481
2.3591 -0.8958 0.2136 0.9899
12.1042 -2.2526 1.0422 0.9518
12.0929 -1.1467 1.0283 0.9524
12.9572 -0.0660 1.0969 0.9493
9.3796 2.5280 0.8223 0.9618
8.2365 3.0319 0.7430 0.9654
7.1623 3.3909 0.6708 0.9687
6.3775 3.7506 0.6263 0.9707
5.6424 4.0373 0.5873 0.9725
3.8766 4.7804 0.5210 0.9756
3.3521 4.9858 0.5086 0.9762
2.7973 5.0907 0.4917 0.9770
2.3140 5.2804 0.4880 0.9771
1.8340 5.4689 0.4883 0.9771
1.3911 5.8329 0.5076 0.9762
-0.2150 6.2763 0.5316 0.9751
11.9054 -1.3885 1.0147 0.9530
12.7346 -0.3395 1.0784 0.9501
13.1300 0.8257 1.1137 0.9486
7.3860 3.3038 0.6849 0.9680
5.0912 4.1931 0.5583 0.9739
4.0072 4.7293 0.5247 0.9754
3.4763 4.9372 0.5112 0.9761
2.3963 5.1625 0.4818 0.9774
1.9498 5.4234 0.4879 0.9771
1.5122 5.7852 0.5062 0.9763
1.0025 5.9756 0.5129 0.9760
-0.6765 6.6006 0.5617 0.9737
11.4595 -1.3737 0.7157 0.9548
12.3112 0.7346 0.7648 0.9518
8.5360 2.9043 0.5591 0.9645
6.5268 3.6239 0.4629 0.9705
2.8984 4.9784 0.3572 0.9772
1.9647 5.4105 0.3569 0.9772
1.0214 5.9710 0.3756 0.9760
-0.0589 6.2070 0.3849 0.9754
-0.6584 6.6329 0.4133 0.9736
-1.9874 6.9681 0.4493 0.9714
-2.6465 1.7239 0.1959 0.9874
11.3659 -1.6118 0.7119 0.9550
11.6478 1.4930 0.7282 0.9540
10.1148 2.2294 0.6423 0.9593
7.6424 3.1938 0.5136 0.9673
5.2610 4.1186 0.4143 0.9736
4.0074 4.4988 0.3736 0.9761
3.0283 4.9526 0.3600 0.9770
2.0802 5.3651 0.3568 0.9772
1.1450 5.9223 0.3740 0.9761
0.0744 6.1545 0.3817 0.9756
-1.8073 6.8970 0.4421 0.9718
11.6645 -0.8528 0.7252 0.9542
12.0783 0.1990 0.7491 0.9527
11.6345 1.2370 0.7255 0.9542
10.8238 2.1420 0.6842 0.9567
9.0425 2.6475 0.5843 0.9629
7.9630 3.1278 0.5305 0.9663
6.9308 3.4661 0.4805 0.9694
5.4189 4.0568 0.4198 0.9732
4.7885 4.3034 0.3992 0.9745
3.1141 4.8546 0.3576 0.9772
2.1957 5.3197 0.3569 0.9772
1.2677 5.8741 0.3726 0.9762
0.7295 5.8964 0.3684 0.9765
0.2054 6.1028 0.3787 0.9758
-0.3532 6.3230 0.3927 0.9749
-0.9821 6.7130 0.4207 0.9732
-2.5436 1.8177 0.1939 0.9875
2.3590 -0.8957 0.1565 0.9899
12.0299 -2.2387 0.7588 0.9521
11.9200 1.0080 0.7418 0.9532
9.3615 2.5231 0.6012 0.9619
5.6346 4.0317 0.4296 0.9726
3.3482 4.9800 0.3721 0.9762
2.3113 5.2743 0.3571 0.9772
1.8319 5.4627 0.3573 0.9772
0.8519 5.8482 0.3665 0.9766
-0.2148 6.2684 0.3889 0.9752
-0.8333 6.7019 0.4188 0.9733
12.3303 0.7754 0.7661 0.9517
9.6998 2.3912 0.6195 0.9608
8.4944 2.9205 0.5570 0.9646
7.3741 3.2985 0.5009 0.9681
5.8030 3.9659 0.4359 0.9722
4.0023 4.7236 0.3839 0.9755
3.4722 4.9313 0.3740 0.9761
2.3935 5.1565 0.3525 0.9775
1.9475 5.4172 0.3570 0.9772
1.5105 5.7786 0.3704 0.9763
0.4616 6.0019 0.3733 0.9762
-0.0788 6.2148 0.3854 0.9754
-1.3386 6.9014 0.4359 0.9722
-2.0147 6.9789 0.4504 0.9713
8.5209 2.8991 0.3549 0.9646
6.5171 3.6185 0.2939 0.9706
5.1004 4.1733 0.2599 0.9740
4.4995 4.4088 0.2484 0.9751
3.4866 4.9183 0.2377 0.9762
1.9625 5.4043 0.2267 0.9772
1.5266 5.7649 0.2352 0.9764
1.0202 5.9640 0.2386 0.9761
-0.6575 6.6244 0.2625 0.9737
-1.3121 6.8823 0.2763 0.9723
-2.6393 1.7192 0.1242 0.9875
11.7598 -0.6052 0.4643 0.9540
12.1802 0.4635 0.4806 0.9524
10.0941 2.2248 0.4076 0.9595
7.6299 3.1885 0.3261 0.9674
5.9943 3.8824 0.2816 0.9718
4.6395 4.3539 0.2509 0.9749
4.0025 4.4933 0.2373 0.9762
3.6120 4.8691 0.2391 0.9760
3.0247 4.9469 0.2286 0.9771
2.5575 5.1706 0.2275 0.9772
2.0779 5.3589 0.2266 0.9773
1.6468 5.7176 0.2346 0.9765
0.0743 6.1469 0.2424 0.9757
-0.4939 6.3707 0.2520 0.9747
-1.8047 6.8872 0.2807 0.9719
-2.5688 1.7533 0.1226 0.9876
14.4792 -2.3728 0.5785 0.9430
11.6323 1.2368 0.4613 0.9543
10.8009 2.1375 0.4341 0.9569
6.9202 3.4608 0.3051 0.9695
4.7824 4.2979 0.2535 0.9746
4.1801 4.4937 0.2420 0.9757
0.7286 5.8894 0.2340 0.9765
-0.3528 6.3151 0.2494 0.9750
-1.6304 6.8185 0.2764 0.9723
-2.5451 1.8188 0.1233 0.9876
12.0879 -2.2495 0.4848 0.9520
11.5799 -1.0980 0.4587 0.9545
11.0575 1.9416 0.4427 0.9561
9.3435 2.5183 0.3816 0.9620
8.2081 3.0215 0.3449 0.9656
7.1398 3.3802 0.3115 0.9689
6.3589 3.7397 0.2909 0.9709
5.6270 4.0263 0.2728 0.9727
4.9284 4.2407 0.2564 0.9743
3.8673 4.7690 0.2421 0.9757
3.3443 4.9741 0.2363 0.9763
2.7909 5.0789 0.2285 0.9771
1.3878 5.8195 0.2359 0.9763
0.8509 5.8413 0.2328 0.9766
0.3340 6.0447 0.2387 0.9761
2.3544 -0.9526 0.1001 0.9899
13.4276 -2.7997 0.5408 0.9466
11.8734 -0.3165 0.4683 0.9536
12.3022 0.7736 0.4860 0.9519
11.3359 1.7394 0.4522 0.9551
9.6806 2.3865 0.3931 0.9609
8.4794 2.9154 0.3536 0.9647
5.7950 3.9604 0.2768 0.9723
4.4789 4.4168 0.2480 0.9751
3.4681 4.9256 0.2375 0.9762
2.3908 5.1506 0.2239 0.9775
0.4611 5.9947 0.2371 0.9762
-0.0788 6.2072 0.2448 0.9755
-1.3368 6.8920 0.2768 0.9723
-5.1851 13.3489 0.5647 0.9443
11.3786 1.7086 0.1944 0.9550
8.5059 2.8940 0.1518 0.9647
4.0122 4.7046 0.1044 0.9756
3.4825 4.9125 0.1017 0.9762
2.8921 4.9675 0.0971 0.9773
1.9602 5.3981 0.0970 0.9773
1.5249 5.7583 0.1006 0.9765
0.4793 5.9802 0.1013 0.9763
-0.0587 6.1917 0.1046 0.9755
-0.6567 6.6159 0.1123 0.9738
-1.9817 6.9481 0.1220 0.9715
18.1163 -0.9323 0.3064 0.9300
14.7843 0.5626 0.2499 0.9425
11.6434 1.4925 0.1983 0.9541
7.6174 3.1833 0.1395 0.9675
6.1107 3.9578 0.1230 0.9713
4.6337 4.3484 0.1073 0.9749
3.9977 4.4879 0.1015 0.9762
3.0212 4.9412 0.0978 0.9771
2.0755 5.3528 0.0970 0.9773
0.6043 5.9310 0.1007 0.9764
0.0742 6.1395 0.1037 0.9757
-0.4933 6.3626 0.1078 0.9748
-1.1465 6.8086 0.1166 0.9728
-1.8021 6.8775 0.1201 0.9720
-2.5687 1.7532 0.0525 0.9876
14.9104 0.2456 0.2519 0.9421
10.7781 2.1330 0.1856 0.9570
9.0088 2.6377 0.1586 0.9631
6.9096 3.4555 0.1305 0.9696
6.2934 3.8862 0.1249 0.9708
5.4044 4.0460 0.1140 0.9734
4.1750 4.4882 0.1035 0.9758
3.7344 4.8136 0.1029 0.9759
3.1088 4.8463 0.0973 0.9772
2.6709 5.1190 0.0975 0.9772
0.7278 5.8825 0.1001 0.9766
0.2049 6.0881 0.1029 0.9759
-2.5480 1.8208 0.0529 0.9875
2.3587 -0.8956 0.0426 0.9900
15.1436 -0.0771 0.2558 0.9412
8.1940 3.0163 0.1475 0.9657
7.1287 3.3750 0.1332 0.9689
5.7365 4.1046 0.1192 0.9722
2.7877 5.0731 0.0978 0.9771
2.3060 5.2623 0.0971 0.9773
1.8277 5.4502 0.0971 0.9773
0.8499 5.8345 0.0996 0.9767
0.3336 6.0374 0.1021 0.9761
-0.2142 6.2529 0.1057 0.9753
-0.8311 6.6845 0.1138 0.9734
2.3511 -0.9512 0.0428 0.9899
9.6615 2.3818 0.1681 0.9610
6.4788 3.6245 0.1254 0.9707
5.9077 4.0375 0.1209 0.9718
5.0713 4.1767 0.1110 0.9741
2.3880 5.1448 0.0958 0.9776
-0.6790 6.6247 0.1125 0.9737
-5.1876 13.3553 0.2420 0.9443
15.4971 -0.4628 -0.0873 0.9399
11.3527 1.7047 -0.0646 0.9551
9.6939 2.3569 -0.0562 0.9609
7.3725 3.2695 -0.0454 0.9683
6.4979 3.6079 -0.0418 0.9707
5.9254 4.0218 -0.0403 0.9718
4.4883 4.3978 -0.0354 0.9752
3.4785 4.9068 -0.0339 0.9762
2.8890 4.9621 -0.0323 0.9773
2.4023 5.1323 -0.0319 0.9776
1.5231 5.7517 -0.0335 0.9765
-0.6558 6.6075 -0.0374 0.9738
-1.9789 6.9382 -0.0406 0.9716
-2.6329 1.7150 -0.0177 0.9875
14.7423 0.5610 -0.0831 0.9427
11.6412 1.4922 -0.0661 0.9541
10.0529 2.2157 -0.0580 0.9597
8.6935 2.7502 -0.0513 0.9642
7.6049 3.1781 -0.0464 0.9676
6.6947 3.5305 -0.0426 0.9702
5.2402 4.1023 -0.0375 0.9737
4.6278 4.3429 -0.0357 0.9749
3.6035 4.8576 -0.0341 0.9761
3.0178 4.9355 -0.0326 0.9771
2.0731 5.3468 -0.0323 0.9773
1.6431 5.7046 -0.0334 0.9765
0.6036 5.9240 -0.0335 0.9765
0.0741 6.1320 -0.0345 0.9758
-1.1450 6.7995 -0.0388 0.9728
-2.5685 1.7531 -0.0175 0.9876
19.2723 -1.4090 -0.1088 0.9256
10.7554 2.1285 -0.0617 0.9571
6.2845 3.8806 -0.0416 0.9709
5.3972 4.0406 -0.0380 0.9734
4.1699 4.4827 -0.0345 0.9758
2.6678 5.1131 -0.0325 0.9772
2.1882 5.3015 -0.0323 0.9773
1.7101 5.4894 -0.0324 0.9773
1.2633 5.8538 -0.0337 0.9763
0.7269 5.8756 -0.0333 0.9766
0.2046 6.0807 -0.0343 0.9760
-1.6259 6.7996 -0.0394 0.9724
-2.5509 1.8229 -0.0177 0.9875
2.3585 -0.8956 -0.0142 0.9900
11.7587 0.9943 -0.0664 0.9539
8.1800 3.0112 -0.0491 0.9657
6.3967 3.7619 -0.0418 0.9708
5.7288 4.0991 -0.0397 0.9722
4.9158 4.2298 -0.0365 0.9744
4.2539 4.3798 -0.0344 0.9759
3.8581 4.7576 -0.0345 0.9758
3.3365 4.9626 -0.0337 0.9764
2.7845 5.0673 -0.0326 0.9771
1.8256 5.4440 -0.0323 0.9773
1.3847 5.8061 -0.0336 0.9764
0.8489 5.8277 -0.0332 0.9767
-0.2140 6.2451 -0.0352 0.9753
-0.8300 6.6759 -0.0379 0.9734
-1.4643 6.7653 -0.0390 0.9727
-2.1922 7.0220 -0.0414 0.9710
15.5002 -0.4132 -0.0873 0.9399
12.7596 0.8024 -0.0720 0.9501
11.2846 1.7315 -0.0643 0.9554
9.6425 2.3771 -0.0559 0.9611
6.4693 3.6191 -0.0417 0.9708
3.9879 4.7066 -0.0347 0.9756
2.9018 5.0212 -0.0327 0.9771
1.9409 5.3987 -0.0323 0.9773
0.9994 5.9574 -0.0340 0.9761
0.4600 5.9804 -0.0338 0.9763
-0.6781 6.6162 -0.0374 0.9737
13.0406 0.7781 -0.3678 0.9491
11.3269 1.7009 -0.3225 0.9552
8.6526 2.9440 -0.2574 0.9641
7.3608 3.2642 -0.2267 0.9683
5.9173 4.0162 -0.2014 0.9718
5.0805 4.1570 -0.1848 0.9741
4.0026 4.6933 -0.1737 0.9756
3.4744 4.9010 -0.1692 0.9762
2.3995 5.1264 -0.1594 0.9776
1.9558 5.3859 -0.1613 0.9773
0.4781 5.9660 -0.1685 0.9763
-0.0586 6.1765 -0.1739 0.9756
-0.6550 6.5991 -0.1867 0.9738
-1.3068 6.8546 -0.1965 0.9725
14.7007 0.5594 -0.4142 0.9428
8.6824 2.7467 -0.2564 0.9642
6.6847 3.5252 -0.2128 0.9702
6.0937 3.9468 -0.2044 0.9714
5.2333 4.0969 -0.1871 0.9738
4.6220 4.3375 -0.1785 0.9750
3.5992 4.8519 -0.1701 0.9761
2.0708 5.3407 -0.1613 0.9773
0.0740 6.1245 -0.1725 0.9758
-1.1434 6.7905 -0.1939 0.9728
19.1988 -1.4036 -0.5420 0.9259
14.9050 0.2455 -0.4198 0.9421
8.9754 2.6279 -0.2633 0.9633
6.8885 3.4450 -0.2169 0.9697
5.3900 4.0352 -0.1896 0.9734
4.1648 4.4772 -0.1722 0.9758
3.1035 4.8381 -0.1618 0.9773
2.1857 5.2955 -0.1613 0.9773
1.7082 5.4831 -0.1617 0.9773
-0.3515 6.2914 -0.1774 0.9751
-2.5538 1.8250 -0.0884 0.9875
-9.1902 -9.6686 -0.3756 0.9480
11.7286 0.9918 -0.3314 0.9540
9.2901 2.5039 -0.2709 0.9622
6.3950 3.7609 -0.2089 0.9707
5.7210 4.0935 -0.1981 0.9722
4.9095 4.2243 -0.1824 0.9744
2.7813 5.0615 -0.1626 0.9772
2.3008 5.2503 -0.1614 0.9773
1.3831 5.7994 -0.1679 0.9764
0.8479 5.8209 -0.1656 0.9767
-0.2137 6.2374 -0.1757 0.9753
-0.8290 6.6673 -0.1892 0.9735
-1.4647 6.7673 -0.1950 0.9727
-2.1890 7.0117 -0.2068 0.9710
15.4975 -0.4131 -0.4365 0.9398
12.7254 0.8002 -0.3590 0.9503
11.2592 1.7276 -0.3207 0.9554
9.6236 2.3724 -0.2791 0.9611
7.3272 3.2775 -0.2260 0.9684
6.4597 3.6138 -0.2084 0.9708
4.4622 4.4003 -0.1765 0.9752
3.9831 4.7009 -0.1735 0.9756
3.4560 4.9083 -0.1690 0.9763
2.3826 5.1331 -0.1593 0.9776
1.9387 5.3926 -0.1614 0.9773
0.4595 5.9733 -0.1687 0.9763
-0.6772 6.6078 -0.1870 0.9738
15.4754 -0.4622 -0.7852 0.9399
13.0054 0.7760 -0.6607 0.9492
9.6558 2.3476 -0.5039 0.9610
8.6375 2.9388 -0.4627 0.9641
7.3491 3.2590 -0.4077 0.9683
5.9092 4.0107 -0.3622 0.9718
5.0739 4.1516 -0.3325 0.9741
3.9978 4.6876 -0.3124 0.9756
3.4703 4.8953 -0.3043 0.9763
2.8827 4.9513 -0.2906 0.9773
1.9536 5.3797 -0.2903 0.9773
0.4775 5.9589 -0.3032 0.9763
-0.0585 6.1690 -0.3129 0.9756
-0.6542 6.5906 -0.3359 0.9738
-1.3050 6.8454 -0.3534 0.9725
14.6592 0.5578 -0.7440 0.9429
11.6368 1.4916 -0.5950 0.9541
10.0121 2.2067 -0.5199 0.9598
8.6806 2.7461 -0.4617 0.9642
7.5802 3.1677 -0.4166 0.9676
6.6747 3.5199 -0.3827 0.9702
4.6162 4.3320 -0.3210 0.9750
3.5950 4.8462 -0.3060 0.9761
3.0108 4.9241 -0.2927 0.9771
2.5459 5.1470 -0.2912 0.9773
2.0684 5.3346 -0.2902 0.9773
1.1384 5.8881 -0.3041 0.9763
0.6021 5.9101 -0.3013 0.9765
-0.4914 6.3385 -0.3224 0.9749
19.1258 -1.3983 -0.9725 0.9261
14.9024 0.2455 -0.7559 0.9421
10.6302 2.1037 -0.5496 0.9575
7.8217 3.0723 -0.4262 0.9669
6.8780 3.4397 -0.3900 0.9697
4.1597 4.4718 -0.3097 0.9758
2.6617 5.1014 -0.2918 0.9772
0.7252 5.8618 -0.2995 0.9766
0.2042 6.0661 -0.3078 0.9760
-1.6214 6.7808 -0.3536 0.9725
3.8489 4.7463 -0.3099 0.9758
3.3287 4.9510 -0.3026 0.9764
2.7781 5.0557 -0.2926 0.9772
1.8215 5.4316 -0.2905 0.9773
0.8476 5.8186 -0.2982 0.9767
-0.8279 6.6586 -0.3403 0.9735
-1.4651 6.7693 -0.3512 0.9726
2.3435 -0.9482 -0.1282 0.9899
11.2338 1.7237 -0.5764 0.9555
7.3156 3.2723 -0.4064 0.9684
6.4503 3.6085 -0.3748 0.9708
5.8834 4.0209 -0.3614 0.9719
4.4567 4.3949 -0.3174 0.9752
3.9784 4.6953 -0.3121 0.9757
2.8952 5.0096 -0.2934 0.9771
1.9365 5.3865 -0.2903 0.9773
0.4589 5.9662 -0.3035 0.9763
-0.0784 6.1768 -0.3133 0.9756
-0.6764 6.5993 -0.3364 0.9738
15.4727 -0.4621 -1.1350 0.9398
5.9010 4.0052 -0.5229 0.9718
5.0673 4.1462 -0.4801 0.9741
3.9929 4.6820 -0.4512 0.9756
2.8795 4.9460 -0.4196 0.9773
1.9513 5.3736 -0.4192 0.9773
1.5179 5.7320 -0.4348 0.9765
-0.0584 6.1614 -0.4518 0.9756
-0.6339 6.3865 -0.4706 0.9746
-2.6234 1.7088 -0.2296 0.9875
-19.1005 -4.4263 -1.4376 0.9244
-18.0915 -5.9386 -1.3961 0.9265
-17.0436 -7.3393 -1.3606 0.9283
-14.8401 -9.8404 -1.3056 0.9311
-13.6868 -10.9548 -1.2854 0.9321
-12.4995 -11.9860 -1.2698 0.9329
-11.2777 -12.9387 -1.2585 0.9335
-7.3914 -15.3577 -1.2497 0.9339
-6.0153 -16.0243 -1.2550 0.9337
-4.5942 -16.6221 -1.2645 0.9332
-3.1245 -17.1509 -1.2782 0.9325
-0.0234 -17.9941 -1.3194 0.9304
3.3260 -18.5301 -1.3804 0.9273
9.9917 2.2023 -0.7502 0.9598
7.5678 3.1626 -0.6014 0.9676
6.0767 3.9358 -0.5308 0.9714
5.2195 4.0861 -0.4860 0.9738
3.5908 4.8405 -0.4419 0.9761
1.6375 5.6851 -0.4338 0.9766
-0.4908 6.3305 -0.4656 0.9749
-2.5680 1.7527 -0.2280 0.9876
-18.3384 -5.5846 -1.4056 0.9260
-17.2996 -7.0114 -1.3687 0.9279
-13.9679 -10.6939 -1.2899 0.9319
-12.7889 -11.7448 -1.2731 0.9327
-11.5754 -12.7161 -1.2608 0.9334
-4.9410 -16.4843 -1.2618 0.9333
-3.4835 -17.0298 -1.2745 0.9327
-0.4095 -17.9081 -1.3134 0.9307
1.2161 -18.2355 -1.3400 0.9293
2.9077 -18.4830 -1.3719 0.9277
18.6230 -1.3615 -1.3691 0.9278
14.8997 0.2455 -1.0926 0.9420
6.8674 3.4344 -0.5630 0.9697
5.3756 4.0244 -0.4924 0.9734
4.1546 4.4663 -0.4473 0.9758
3.7167 4.7909 -0.4446 0.9760
3.0982 4.8299 -0.4207 0.9772
2.6587 5.0956 -0.4214 0.9772
2.1808 5.2835 -0.4191 0.9773
0.7244 5.8549 -0.4326 0.9766
0.2039 6.0588 -0.4445 0.9760
-0.3506 6.2757 -0.4609 0.9751
-0.9799 6.6982 -0.4964 0.9732
-17.5534 -6.6774 -1.3770 0.9274
-16.4864 -8.0239 -1.3444 0.9291
-15.3839 -9.2719 -1.3170 0.9305
-9.1257 -9.6007 -0.9712 0.9483
-9.3545 -14.2426 -1.2494 0.9339
-0.7921 -17.8177 -1.3077 0.9310
4.2394 -18.6141 -1.3998 0.9263
11.0216 1.9353 -0.8205 0.9561
8.2841 3.0495 -0.6473 0.9652
7.0782 3.3511 -0.5742 0.9691
4.8969 4.2135 -0.4737 0.9744
4.2382 4.3637 -0.4460 0.9759
3.3249 4.9452 -0.4369 0.9764
2.7749 5.0499 -0.4225 0.9772
1.3799 5.7861 -0.4361 0.9764
0.8482 5.8229 -0.4315 0.9767
0.3321 6.0086 -0.4412 0.9762
-0.8268 6.6500 -0.4913 0.9735
-18.8252 -4.8567 -1.4255 0.9250
-16.7469 -7.7087 -1.3518 0.9287
-14.5242 -10.1575 -1.2995 0.9314
-13.3615 -11.2484 -1.2806 0.9323
-9.6656 -14.0467 -1.2502 0.9339
-8.3602 -14.8328 -1.2484 0.9340
-7.0147 -15.5491 -1.2507 0.9339
-4.1923 -16.7755 -1.2678 0.9330
2.0836 -18.3740 -1.3559 0.9285
15.5081 -3.2334 -1.1615 0.9384
15.4920 -0.4130 -1.1363 0.9397
12.2191 0.7684 -0.8977 0.9521
11.2085 1.7198 -0.8314 0.9555
9.5858 2.3631 -0.7239 0.9612
7.3039 3.2671 -0.5867 0.9684
3.9736 4.6896 -0.4507 0.9756
3.4479 4.8968 -0.4391 0.9763
2.8919 5.0039 -0.4238 0.9771
1.9343 5.3803 -0.4192 0.9773
-0.0783 6.1692 -0.4524 0.9756
-0.6755 6.5909 -0.4858 0.9738
-1.3279 6.8458 -0.5113 0.9724
-1.9974 6.9190 -0.5280 0.9715
15.4485 -3.2727 -1.5161 0.9385
15.4700 -0.4620 -1.4859 0.9397
8.6071 2.9285 -0.8728 0.9641
7.3256 3.2486 -0.7693 0.9683
3.9881 4.6764 -0.5900 0.9756
3.4622 4.8838 -0.5747 0.9762
2.8764 4.9406 -0.5488 0.9773
1.5162 5.7254 -0.5686 0.9765
1.0131 5.9226 -0.5769 0.9761
-0.6331 6.3783 -0.6154 0.9746
-1.3015 6.8270 -0.6672 0.9725
-2.6202 1.7068 -0.3002 0.9875
-18.6050 4.1514 -1.8301 0.9263
-16.4877 -2.2944 -1.5982 0.9353
-15.7845 -3.6579 -1.5556 0.9370
-9.8223 -9.4188 -1.3065 0.9468
-7.8919 -10.8818 -1.2905 0.9474
-6.8746 -11.5205 -1.2880 0.9475
-5.8226 -12.0982 -1.2890 0.9475
-3.6125 -13.0704 -1.3019 0.9470
1.2591 -14.2464 -1.3731 0.9441
2.5785 -14.3653 -1.4012 0.9430
3.9413 -14.4060 -1.4339 0.9417
7.3018 -15.2733 -1.6253 0.9342
10.5733 -14.6593 -1.7352 0.9299
14.0446 -13.5379 -1.8728 0.9246
14.5766 0.5547 -1.4004 0.9431
9.9713 2.1978 -0.9803 0.9598
7.5554 3.1574 -0.7862 0.9676
6.6546 3.5094 -0.7223 0.9702
5.2126 4.0807 -0.6355 0.9737
3.0038 4.9127 -0.5528 0.9771
2.5400 5.1353 -0.5500 0.9772
2.0637 5.3225 -0.5481 0.9773
1.6356 5.6786 -0.5673 0.9765
1.1358 5.8745 -0.5744 0.9762
0.3035 2.9793 -0.2875 0.9880
-0.4902 6.3225 -0.6088 0.9748
-1.1389 6.7636 -0.6585 0.9728
-1.7895 6.8292 -0.6778 0.9720
-18.3045 2.7974 -1.7777 0.9283
-17.8294 1.1104 -1.7150 0.9307
-17.2742 -0.4709 -1.6590 0.9329
-15.9593 -3.3376 -1.5653 0.9366
-15.2136 -4.6330 -1.5268 0.9381
-14.4163 -5.8428 -1.4934 0.9394
-13.5717 -6.9712 -1.4648 0.9405
-12.6830 -8.0218 -1.4407 0.9415
-9.0153 -9.9037 -1.2857 0.9476
-8.1319 -10.7186 -1.2917 0.9474
-6.0794 -11.9645 -1.2884 0.9475
-5.0008 -12.4960 -1.2922 0.9474
-3.8865 -12.9663 -1.2995 0.9471
-1.5473 -13.7187 -1.3254 0.9460
2.2565 -14.3436 -1.3940 0.9433
5.0055 -14.3811 -1.4619 0.9406
8.5195 -15.0942 -1.6640 0.9327
13.6160 -13.7032 -1.8546 0.9253
11.6193 1.2354 -1.1218 0.9541
6.8569 3.4292 -0.7360 0.9697
5.3684 4.0190 -0.6438 0.9734
4.7460 4.2652 -0.6126 0.9747
4.1495 4.4608 -0.5849 0.9758
3.7123 4.7852 -0.5814 0.9760
2.6556 5.0898 -0.5512 0.9772
1.7023 5.4644 -0.5495 0.9773
1.2575 5.8268 -0.5723 0.9763
0.7235 5.8480 -0.5657 0.9766
0.2037 6.0514 -0.5813 0.9760
-0.3502 6.2678 -0.6027 0.9751
-18.4059 3.2204 -1.7939 0.9277
-17.4148 -0.0991 -1.6719 0.9324
-16.1308 -3.0120 -1.5754 0.9362
-15.3983 -4.3287 -1.5356 0.9377
-13.7794 -6.7064 -1.4713 0.9403
-7.3694 -11.2202 -1.2888 0.9475
-6.3341 -11.8273 -1.2881 0.9475
-5.2640 -12.3735 -1.2909 0.9474
-3.0165 -13.2818 -1.3076 0.9467
-0.6195 -13.9362 -1.3393 0.9455
1.9371 -14.3175 -1.3871 0.9436
4.6647 -14.3944 -1.4527 0.9410
6.5434 -15.3552 -1.6024 0.9351
9.7663 -14.8501 -1.7064 0.9311
13.1901 -13.8600 -1.8369 0.9260
15.0674 -0.0767 -1.4466 0.9412
10.9976 1.9310 -1.0720 0.9561
9.2371 2.4896 -0.9185 0.9623
8.2823 3.0488 -0.8473 0.9652
6.3874 3.7564 -0.7114 0.9707
5.6551 4.0464 -0.6676 0.9724
4.2330 4.3583 -0.5833 0.9759
3.8397 4.7349 -0.5853 0.9758
3.3210 4.9395 -0.5714 0.9764
2.2929 5.2324 -0.5485 0.9773
-0.2129 6.2142 -0.5969 0.9753
-0.8196 6.5918 -0.6377 0.9737
-18.8376 5.5031 -1.8841 0.9242
-18.5018 3.6499 -1.8105 0.9270
-18.0690 1.9101 -1.7444 0.9296
-17.5512 0.2786 -1.6852 0.9319
-16.9584 -1.2501 -1.6325 0.9340
-14.8068 -5.2700 -1.5089 0.9388
-13.9846 -6.4371 -1.4780 0.9400
-8.6059 -10.3816 -1.2946 0.9473
-7.6137 -11.0647 -1.2895 0.9475
0.3313 -14.1144 -1.3554 0.9448
1.6201 -14.2869 -1.3804 0.9439
2.9514 -14.3846 -1.4098 0.9427
7.7426 -15.2152 -1.6390 0.9337
9.3672 -14.9350 -1.6925 0.9316
12.7670 -14.0081 -1.8196 0.9267
2.3384 -0.9461 -0.2422 0.9899
11.1832 1.7159 -1.0862 0.9556
5.8234 3.9798 -0.6772 0.9721
2.3745 5.1155 -0.5414 0.9776
0.2277 2.9608 -0.2851 0.9881
-0.0782 6.1616 -0.5916 0.9755
-0.6696 6.5332 -0.6305 0.9740
-1.3261 6.8365 -0.6686 0.9724
-1.9945 6.9091 -0.6904 0.9715
15.4521 -3.2734 -1.8762 0.9384
15.4672 -0.4619 -1.8381 0.9396
12.2390 0.7303 -1.4564 0.9518
10.9846 1.6495 -1.3194 0.9562
8.5278 2.9015 -1.0700 0.9644
6.4501 3.5814 -0.8764 0.9707
4.4604 4.3704 -0.7418 0.9752
3.9833 4.6707 -0.7292 0.9756
3.4581 4.8781 -0.7103 0.9762
2.3886 5.1031 -0.6693 0.9776
1.5144 5.7188 -0.7027 0.9765
-0.0583 6.1463 -0.7301 0.9755
-0.6323 6.3701 -0.7604 0.9745
-1.2998 6.8177 -0.8244 0.9724
-1.9647 6.8887 -0.8509 0.9716
-2.6170 1.7047 -0.3710 0.9875
-15.5350 8.2442 -2.0891 0.9316
-15.5827 4.9743 -1.9430 0.9362
-15.4382 3.4448 -1.8789 0.9383
-15.1966 1.9881 -1.8205 0.9401
-13.9829 -1.9458 -1.6770 0.9447
-13.4410 -3.1148 -1.6389 0.9459
-12.1870 -5.2480 -1.5762 0.9480
-10.7351 -7.1184 -1.5300 0.9494
-9.9433 -7.9585 -1.5129 0.9500
-8.8819 -8.5170 -1.4617 0.9516
-6.8312 -9.4193 -1.3821 0.9542
-5.9522 -9.9748 -1.3798 0.9543
-5.0409 -10.4739 -1.3807 0.9543
-4.0977 -10.9160 -1.3850 0.9541
-0.0157 -12.0912 -1.4363 0.9525
1.0883 -12.3142 -1.4685 0.9514
2.2930 -12.7751 -1.5417 0.9491
3.6082 -13.1882 -1.6241 0.9464
7.5021 -12.6467 -1.7467 0.9425
10.2219 -11.7892 -1.8535 0.9391
13.0035 -10.4635 -1.9826 0.9350
15.7899 -8.5989 -2.1357 0.9301
17.1065 -7.4192 -2.2149 0.9276
18.3460 -4.3018 -2.2383 0.9269
17.7325 -0.9126 -2.1092 0.9310
9.6595 2.1290 -1.1749 0.9609
8.6375 2.7325 -1.0761 0.9642
3.5823 4.8291 -0.7142 0.9761
3.0004 4.9070 -0.6832 0.9771
2.5371 5.1294 -0.6798 0.9772
1.6337 5.6720 -0.7012 0.9765
1.1345 5.8677 -0.7099 0.9762
0.0736 6.0948 -0.7240 0.9757
-0.4895 6.3145 -0.7523 0.9748
-1.1374 6.7545 -0.8136 0.9728
-1.7870 6.8196 -0.8374 0.9720
-15.4952 8.6563 -2.1083 0.9310
-15.6103 6.9712 -2.0308 0.9335
-15.4823 3.8069 -1.8939 0.9378
-15.2632 2.3326 -1.8341 0.9397
-13.5772 -2.8394 -1.6477 0.9457
-12.9905 -3.9560 -1.6131 0.9468
-12.3492 -5.0050 -1.5828 0.9477
-10.9196 -6.9065 -1.5348 0.9493
-10.1380 -7.7617 -1.5167 0.9499
-7.9857 -8.7726 -1.4092 0.9533
-7.0381 -9.2770 -1.3832 0.9542
-5.2635 -10.3587 -1.3802 0.9543
-4.3279 -10.8147 -1.3837 0.9542
-2.3631 -11.5527 -1.4007 0.9536
-1.3345 -11.8319 -1.4144 0.9532
4.5692 -13.1278 -1.6511 0.9455
7.1803 -12.7215 -1.7352 0.9429
8.5244 -12.3722 -1.7847 0.9413
12.6666 -10.6504 -1.9658 0.9355
14.0644 -9.8234 -2.0378 0.9332
15.4565 -8.8547 -2.1159 0.9308
16.8311 -7.7351 -2.2003 0.9281
16.8656 -5.9913 -2.1260 0.9304
18.9087 -1.3824 -2.2521 0.9265
14.8943 0.2454 -1.7695 0.9418
7.7826 3.0570 -0.9932 0.9669
6.8464 3.4239 -0.9093 0.9696
6.2400 3.8531 -0.8711 0.9709
4.7400 4.2597 -0.7570 0.9747
4.1444 4.4554 -0.7228 0.9758
3.7079 4.7795 -0.7186 0.9759
3.0929 4.8216 -0.6805 0.9772
2.6526 5.0839 -0.6812 0.9772
2.1758 5.2714 -0.6774 0.9773
1.7004 5.4581 -0.6791 0.9772
1.2560 5.8201 -0.7073 0.9763
0.2034 6.0441 -0.7184 0.9759
-0.3497 6.2600 -0.7448 0.9751
-0.9791 6.6929 -0.8035 0.9731
-2.5667 1.8342 -0.3747 0.9874
-15.4474 9.0720 -2.1280 0.9304
-15.5944 7.3714 -2.0489 0.9329
-15.6145 5.7372 -1.9760 0.9352
-15.5207 4.1731 -1.9091 0.9373
-14.6663 -0.0835 -1.7422 0.9426
-14.2217 -1.3572 -1.6970 0.9441
-11.8288 -5.7570 -1.5627 0.9484
-11.1016 -6.6909 -1.5397 0.9491
-9.5172 -8.3693 -1.5055 0.9502
-8.2452 -8.6744 -1.4216 0.9529
-7.2431 -9.1314 -1.3845 0.9541
-5.4842 -10.2403 -1.3799 0.9543
-4.5563 -10.7100 -1.3825 0.9542
-3.5969 -11.1224 -1.3886 0.9540
-1.5852 -11.7703 -1.4108 0.9533
-0.5336 -12.0022 -1.4271 0.9528
1.6976 -12.5475 -1.5040 0.9503
2.9682 -13.0326 -1.5877 0.9476
4.2621 -13.1523 -1.6423 0.9458
12.3300 -10.8296 -1.9493 0.9360
13.7275 -10.0353 -2.0199 0.9338
16.5021 -8.0192 -2.1794 0.9288
2.3615 -0.8967 -0.3001 0.9899
15.0202 -0.0765 -1.7842 0.9413
11.6090 0.9817 -1.3839 0.9542
10.4283 1.8311 -1.2577 0.9582
9.0775 2.4466 -1.1168 0.9628
8.2487 3.0365 -1.0441 0.9652
6.3781 3.7510 -0.8789 0.9706
5.6900 4.0714 -0.8311 0.9722
4.8842 4.2026 -0.7654 0.9744
3.8351 4.7293 -0.7233 0.9758
3.3171 4.9337 -0.7062 0.9763
2.7686 5.0383 -0.6829 0.9771
2.2903 5.2264 -0.6778 0.9773
0.8495 5.8314 -0.7000 0.9765
0.1640 2.9669 -0.3530 0.9881
-0.2126 6.2065 -0.7377 0.9753
-0.8247 6.6328 -0.7939 0.9734
-2.1762 6.9709 -0.8675 0.9710
-15.0673 11.2660 -2.2348 0.9270
-15.5531 4.5436 -1.9247 0.9368
-15.3806 3.0342 -1.8622 0.9388
-15.1140 1.5978 -1.8053 0.9406
-14.3353 -1.0567 -1.7074 0.9437
-13.8390 -2.2764 -1.6660 0.9451
-13.2804 -3.4262 -1.6292 0.9463
-11.2810 -6.4717 -1.5449 0.9490
-9.7169 -8.1802 -1.5088 0.9501
-5.7031 -10.1186 -1.3797 0.9543
-4.7829 -10.6020 -1.3816 0.9542
-3.8311 -11.0283 -1.3868 0.9541
0.2848 -12.1354 -1.4419 0.9523
1.4104 -12.4376 -1.4869 0.9508
2.6490 -12.9109 -1.5656 0.9483
3.9568 -13.1718 -1.6337 0.9461
5.2347 -13.0579 -1.6711 0.9449
9.2292 -12.1498 -1.8124 0.9404
10.6043 -11.6351 -1.8700 0.9386
11.9936 -11.0012 -1.9332 0.9365
17.4940 -5.3159 -2.1719 0.9290
14.1992 -2.9605 -1.7229 0.9432
12.1538 0.7643 -1.4466 0.9521
9.3183 2.2972 -1.1400 0.9621
7.2806 3.2566 -0.9474 0.9684
6.4218 3.5926 -0.8741 0.9708
5.8592 4.0043 -0.8430 0.9718
5.0318 4.1442 -0.7743 0.9741
4.4401 4.3785 -0.7407 0.9752
3.9640 4.6783 -0.7284 0.9756
3.4398 4.8853 -0.7097 0.9762
2.3718 5.1097 -0.6692 0.9776
1.9299 5.3680 -0.6776 0.9773
1.4967 5.7258 -0.7030 0.9764
-0.0781 6.1540 -0.7311 0.9755
-0.6738 6.5740 -0.7850 0.9737
-1.3243 6.8273 -0.8261 0.9724
-1.9917 6.8992 -0.8530 0.9715
16.0107 -1.9193 -2.2848 0.9369
15.4645 -0.4618 -2.1921 0.9394
12.2059 0.7283 -1.7325 0.9518
11.1989 1.6817 -1.6046 0.9553
7.1639 3.1769 -1.1104 0.9688
6.4406 3.5760 -1.0438 0.9707
5.0474 4.1299 -0.9241 0.9740
4.4548 4.3649 -0.8837 0.9751
3.9785 4.6650 -0.8687 0.9755
3.4540 4.8723 -0.8462 0.9762
2.8701 4.9297 -0.8082 0.9772
2.3858 5.0972 -0.7974 0.9775
1.5127 5.7122 -0.8373 0.9764
-0.0582 6.1387 -0.8698 0.9755
-0.6315 6.3619 -0.9058 0.9745
-1.2883 6.7577 -0.9747 0.9726
-5.1137 13.2911 -2.0178 0.9441
-8.2556 16.8004 -2.6523 0.9272
-10.3815 14.0710 -2.4776 0.9318
-11.2036 12.6434 -2.3936 0.9340
-11.8731 11.2004 -2.3127 0.9362
-12.3982 9.7581 -2.2355 0.9382
-2.6150 1.7033 -0.4422 0.9875
-13.0517 6.9264 -2.0936 0.9421
-13.0353 1.7054 -1.8627 0.9483
-12.8063 0.5207 -1.8160 0.9495
-12.5025 -0.6108 -1.7736 0.9507
-11.6953 -2.7103 -1.7010 0.9527
-11.2027 -3.6773 -1.6706 0.9535
-10.0624 -5.4459 -1.6212 0.9548
-9.4221 -6.2477 -1.6018 0.9554
-8.7392 -6.9947 -1.5860 0.9558
-8.0164 -7.6870 -1.5737 0.9561
-4.7674 -9.9056 -1.5576 0.9566
-2.9508 -10.6763 -1.5694 0.9562
-1.9991 -10.9732 -1.5804 0.9559
-0.0148 -11.3807 -1.6125 0.9551
2.0685 -11.5239 -1.6589 0.9538
3.1432 -11.4888 -1.6877 0.9530
4.2373 -11.3777 -1.7203 0.9521
6.4725 -10.9109 -1.7975 0.9500
11.0146 -8.8631 -2.0032 0.9445
13.2187 -7.1987 -2.1327 0.9410
15.8333 -2.2453 -2.2659 0.9374
16.0916 -0.8281 -2.2830 0.9370
14.4941 0.5515 -2.0551 0.9431
11.6634 1.4950 -1.6661 0.9536
9.8528 2.1716 -1.4295 0.9601
8.3608 2.6450 -1.2425 0.9652
7.3407 3.0677 -1.1273 0.9684
6.6282 3.4954 -1.0617 0.9702
6.0511 3.9192 -1.0215 0.9713
5.1987 4.0698 -0.9355 0.9737
4.5929 4.3102 -0.8924 0.9749
3.9832 4.4717 -0.8485 0.9761
3.5780 4.8233 -0.8509 0.9760
2.0590 5.3103 -0.8070 0.9773
0.2984 2.9290 -0.4172 0.9882
-0.4889 6.3064 -0.8962 0.9748
-1.1359 6.7455 -0.9692 0.9727
-11.0197 12.9896 -2.4136 0.9335
-11.7253 11.5487 -2.3319 0.9357
-2.5675 1.7524 -0.4404 0.9875
-13.1738 5.8831 -2.0443 0.9434
-13.2047 3.2468 -1.9267 0.9465
-13.0785 1.9987 -1.8746 0.9480
-12.8686 0.8014 -1.8269 0.9492
-12.5822 -0.3430 -1.7834 0.9504
-11.3265 -3.4493 -1.6776 0.9533
-10.7933 -4.3744 -1.6501 0.9540
-9.5804 -6.0595 -1.6062 0.9552
-8.1941 -7.5252 -1.5763 0.9560
-7.4425 -8.1759 -1.5665 0.9563
-5.8328 -9.3124 -1.5569 0.9566
-1.2585 -11.1576 -1.5909 0.9557
-0.2594 -11.3452 -1.6079 0.9552
1.8125 -11.5214 -1.6525 0.9540
3.9719 -11.4116 -1.7120 0.9524
5.0790 -11.2402 -1.7477 0.9514
6.2004 -10.9854 -1.7873 0.9503
7.3325 -10.6424 -1.8312 0.9491
9.6099 -9.6715 -1.9318 0.9464
11.8627 -8.2856 -2.0502 0.9432
12.9591 -7.4240 -2.1161 0.9414
11.5175 -1.8874 -1.6537 0.9539
16.3720 -1.1969 -2.3259 0.9358
14.8916 0.2453 -2.1103 0.9416
8.6827 2.5422 -1.2819 0.9641
7.5419 2.9624 -1.1481 0.9678
6.7928 3.3971 -1.0761 0.9698
6.1844 3.8188 -1.0299 0.9711
4.1393 4.4499 -0.8611 0.9757
3.0903 4.8175 -0.8110 0.9771
2.6495 5.0781 -0.8116 0.9771
1.2545 5.8133 -0.8426 0.9763
0.2032 6.0367 -0.8558 0.9759
-0.3493 6.2521 -0.8872 0.9750
-7.6450 17.4171 -2.6951 0.9260
-13.2217 3.5550 -1.9399 0.9462
-13.1169 2.2950 -1.8868 0.9476
-12.9265 1.0852 -1.8380 0.9489
-12.6579 -0.0721 -1.7935 0.9501
-11.9125 -2.2243 -1.7170 0.9522
-11.4471 -3.2180 -1.6848 0.9531
-10.3550 -5.0398 -1.6317 0.9545
-9.7363 -5.8681 -1.6107 0.9551
-8.3697 -7.3601 -1.5792 0.9560
-7.6271 -8.0241 -1.5686 0.9563
-6.0340 -9.1871 -1.5574 0.9566
-4.3084 -10.1274 -1.5594 0.9565
-1.4954 -11.1029 -1.5874 0.9557
-0.5026 -11.3059 -1.6035 0.9553
0.5156 -11.4441 -1.6231 0.9548
2.6225 -11.5150 -1.6733 0.9534
3.7076 -11.4410 -1.7041 0.9526
5.9289 -11.0547 -1.7774 0.9506
10.4710 -9.1968 -1.9746 0.9453
11.5946 -8.4760 -2.0350 0.9436
2.3627 -0.8972 -0.3581 0.9898
15.4624 -2.8775 -2.2285 0.9384
16.2073 -1.5368 -2.3067 0.9363
14.9730 -0.0762 -2.1215 0.9413
10.7042 1.8795 -1.5399 0.9570
7.7845 2.8656 -1.1753 0.9670
6.3688 3.7455 -1.0469 0.9706
4.2225 4.3475 -0.8587 0.9758
3.8305 4.7236 -0.8617 0.9757
2.7653 5.0324 -0.8136 0.9771
1.8131 5.4068 -0.8080 0.9772
0.8501 5.8357 -0.8356 0.9765
-0.2124 6.1987 -0.8788 0.9753
-0.8236 6.6241 -0.9458 0.9734
-2.1463 6.8748 -1.0205 0.9713
-8.5890 16.4375 -2.6278 0.9278
-9.6881 15.0831 -2.5400 0.9301
-11.4039 12.2447 -2.3708 0.9346
-12.0326 10.8004 -2.2910 0.9368
-12.5192 9.3607 -2.2149 0.9388
-13.1038 6.5434 -2.0753 0.9425
-13.2208 5.1839 -2.0121 0.9442
-13.2333 3.8659 -1.9534 0.9458
-13.1503 2.5942 -1.8992 0.9473
-12.7294 0.2020 -1.8038 0.9499
-12.0159 -1.9765 -1.7254 0.9520
-11.5645 -2.9835 -1.6922 0.9529
-11.0568 -3.9353 -1.6629 0.9537
-10.4972 -4.8319 -1.6373 0.9544
-9.8896 -5.6734 -1.6154 0.9550
-9.2372 -6.4600 -1.5971 0.9555
-8.5430 -7.1919 -1.5823 0.9559
-6.2333 -9.0587 -1.5580 0.9565
-4.5231 -10.0260 -1.5585 0.9565
-2.6901 -10.7645 -1.5721 0.9562
1.3045 -11.5041 -1.6405 0.9543
3.4443 -11.4658 -1.6963 0.9528
5.6582 -11.1189 -1.7677 0.9508
6.7856 -10.8191 -1.8095 0.9497
7.9216 -10.4284 -1.8556 0.9485
9.0611 -9.9419 -1.9059 0.9471
13.5142 -6.9314 -2.1520 0.9405
2.3350 -0.9447 -0.3569 0.9899
14.4203 -4.3819 -2.1355 0.9409
14.1694 -2.9543 -2.0508 0.9432
16.0366 -1.8703 -2.2876 0.9369
15.3697 -0.4097 -2.1785 0.9398
8.0391 2.7640 -1.2045 0.9662
7.1380 3.1928 -1.1079 0.9689
5.8511 3.9987 -1.0041 0.9718
5.0252 4.1387 -0.9224 0.9740
3.9592 4.6727 -0.8678 0.9756
3.4357 4.8795 -0.8456 0.9762
2.8818 4.9865 -0.8160 0.9770
1.4949 5.7192 -0.8376 0.9764
0.9925 5.9159 -0.8499 0.9761
-0.0780 6.1464 -0.8709 0.9755
-0.6729 6.5655 -0.9351 0.9737
-1.3126 6.7671 -0.9767 0.9725
-5.1477 13.2526 -2.0144 0.9442
-8.2995 16.7538 -2.6491 0.9272
-9.4382 15.4150 -2.5610 0.9296
13.4636 -1.6140 -2.2339 0.9465
12.1728 0.7263 -2.0089 0.9518
11.1732 1.6778 -1.8613 0.9552
9.5605 2.3244 -1.6209 0.9609
8.2614 2.8109 -1.4376 0.9652
6.2423 3.4660 -1.1762 0.9715
4.4491 4.3594 -1.0261 0.9751
3.4499 4.8665 -0.9827 0.9761
2.8669 4.9243 -0.9387 0.9772
2.3963 5.1196 -0.9312 0.9773
1.9424 5.3490 -0.9375 0.9772
0.2262 2.8226 -0.4665 0.9886
-1.2208 6.4036 -1.0739 0.9739
-1.9016 6.6673 -1.1422 0.9723
-6.3642 12.9514 -2.3773 0.9432
-9.4631 10.6792 -2.3506 0.9438
-10.5806 8.3275 -2.2182 0.9469
-2.6135 1.7024 -0.5138 0.9874
-11.2430 5.9665 -2.0968 0.9497
-11.4997 3.6709 -1.9886 0.9522
-10.3433 -2.3970 -1.7491 0.9579
-9.4618 -4.0744 -1.6971 0.9591
-8.3894 -5.5630 -1.6583 0.9600
-7.7898 -6.2349 -1.6437 0.9604
-7.1516 -6.8578 -1.6323 0.9606
-6.4771 -7.4311 -1.6239 0.9608
-5.7687 -7.9542 -1.6187 0.9609
-4.2578 -8.8467 -1.6174 0.9610
-3.4588 -9.2141 -1.6213 0.9609
1.8346 -10.2210 -1.7107 0.9588
3.7425 -10.0493 -1.7666 0.9575
5.6869 -9.5868 -1.8363 0.9558
6.6632 -9.2381 -1.8764 0.9549
7.6357 -8.8065 -1.9202 0.9538
8.5987 -8.2885 -1.9675 0.9527
9.5453 -7.6808 -2.0184 0.9515
11.3574 -6.1851 -2.1305 0.9489
11.3254 -4.9119 -2.0337 0.9512
12.7336 -2.9858 -2.1546 0.9484
13.8422 -0.7124 -2.2834 0.9454
11.6372 1.4917 -1.9328 0.9536
6.4302 3.3910 -1.1976 0.9710
5.1352 4.0201 -1.0744 0.9739
3.5738 4.8176 -0.9882 0.9760
2.9933 4.8955 -0.9453 0.9770
1.1318 5.8540 -0.9822 0.9761
-0.4831 6.2310 -1.0296 0.9750
-1.0717 6.3644 -1.0632 0.9742
-1.5054 5.7452 -0.9784 0.9762
-5.0576 14.0413 -2.4586 0.9413
-6.1242 13.1731 -2.3932 0.9428
-8.5234 12.0898 -2.4369 0.9418
-9.2957 10.9574 -2.3672 0.9434
-9.9435 9.7938 -2.2992 0.9450
-11.3853 5.0844 -2.0541 0.9507
-11.4885 3.9422 -2.0009 0.9520
-11.4318 1.7470 -1.9051 0.9542
-11.2845 0.7028 -1.8626 0.9552
-11.0657 -0.3017 -1.8236 0.9561
-10.7810 -1.2640 -1.7882 0.9569
-10.4353 -2.1823 -1.7563 0.9577
-9.0758 -4.6619 -1.6809 0.9595
-7.9380 -6.0774 -1.6469 0.9603
-7.3088 -6.7121 -1.6347 0.9606
-2.8346 -9.4569 -1.6264 0.9608
-1.9899 -9.7280 -1.6358 0.9605
-1.1214 -9.9422 -1.6482 0.9603
-0.2309 -10.0976 -1.6639 0.9599
0.6797 -10.1921 -1.6828 0.9594
2.5527 -10.1885 -1.7303 0.9583
4.4776 -9.9094 -1.7914 0.9569
5.4516 -9.6588 -1.8271 0.9560
6.4280 -9.3296 -1.8664 0.9551
8.3678 -8.4214 -1.9557 0.9530
10.2481 -7.1579 -2.0593 0.9506
11.1465 -6.3856 -2.1162 0.9493
11.8885 -4.2233 -2.0784 0.9501
14.1620 0.2333 -2.3334 0.9442
10.2827 2.0350 -1.7268 0.9584
6.6297 3.3155 -1.2211 0.9704
5.8599 3.6185 -1.1346 0.9725
5.2690 3.9447 -1.0843 0.9737
4.1040 4.4119 -0.9926 0.9759
3.0876 4.8133 -0.9421 0.9771
1.2531 5.8065 -0.9786 0.9762
-0.9264 6.3328 -1.0544 0.9744
-2.3035 6.8552 -1.1914 0.9711
-8.3184 12.3563 -2.4539 0.9414
-10.3546 8.8986 -2.2492 0.9462
-11.1224 6.5320 -2.1249 0.9491
-11.3463 5.3633 -2.0675 0.9504
-11.4721 4.2152 -2.0134 0.9517
-11.5065 3.0938 -1.9629 0.9528
-11.4559 2.0044 -1.9159 0.9539
-11.3267 0.9509 -1.8725 0.9550
-11.1247 -0.0633 -1.8327 0.9559
-10.8554 -1.0360 -1.7964 0.9568
-10.1350 -2.8491 -1.7343 0.9582
-8.6639 -5.2218 -1.6665 0.9598
-8.0838 -5.9171 -1.6504 0.9602
-3.8474 -9.0437 -1.6191 0.9609
-1.3328 -9.8958 -1.6450 0.9603
0.4585 -10.1750 -1.6779 0.9596
1.3829 -10.2216 -1.6992 0.9590
3.2783 -10.1163 -1.7519 0.9578
4.2437 -9.9585 -1.7833 0.9571
5.2165 -9.7263 -1.8182 0.9562
6.1927 -9.4163 -1.8566 0.9553
7.1677 -9.0251 -1.8986 0.9544
8.1360 -8.5492 -1.9442 0.9533
10.0267 -7.3298 -2.0461 0.9509
10.9333 -6.5805 -2.1022 0.9496
11.8002 -5.7344 -2.1613 0.9482
13.0536 -2.4292 -2.1874 0.9476
13.6081 -1.2904 -2.2518 0.9461
11.5493 0.9766 -1.9094 0.9541
7.9213 2.9159 -1.3906 0.9664
5.4046 3.8672 -1.0948 0.9734
4.8530 4.1757 -1.0547 0.9744
4.2172 4.3420 -0.9972 0.9758
3.8258 4.7179 -1.0006 0.9757
2.2850 5.2144 -0.9379 0.9772
1.3735 5.7594 -0.9754 0.9763
0.8508 5.8401 -0.9722 0.9764
-0.2112 6.1641 -1.0161 0.9753
-0.7834 6.3009 -1.0460 0.9746
-1.2922 5.9704 -1.0063 0.9755
-2.1113 6.7630 -1.1672 0.9717
-5.4110 13.0873 -2.3330 0.9442
-8.1060 12.6199 -2.4709 0.9410
-9.6465 10.3577 -2.3317 0.9442
-10.2314 9.1837 -2.2649 0.9458
-10.6984 7.9993 -2.2006 0.9473
-11.0530 6.8160 -2.1392 0.9487
-11.3015 5.6434 -2.0810 0.9501
-11.4503 4.4897 -2.0261 0.9514
-11.1797 0.1774 -1.8420 0.9557
-9.8040 -3.4894 -1.7144 0.9587
-9.3241 -4.2919 -1.6910 0.9592
-8.7975 -5.0469 -1.6708 0.9597
-8.2274 -5.7539 -1.6539 0.9601
-6.9684 -7.0215 -1.6297 0.9607
-6.2843 -7.5810 -1.6222 0.9609
0.2383 -10.1543 -1.6733 0.9597
1.1585 -10.2163 -1.6938 0.9592
5.9573 -9.4983 -1.8470 0.9556
6.9330 -9.1270 -1.8882 0.9546
9.8035 -7.4963 -2.0331 0.9512
10.7179 -6.7699 -2.0884 0.9499
11.5966 -5.9478 -2.1470 0.9485
13.4826 -1.5724 -2.2362 0.9465
12.0885 0.7602 -1.9954 0.9521
9.5103 2.3445 -1.6136 0.9611
8.2161 2.8248 -1.4313 0.9654
7.0953 3.1737 -1.2805 0.9690
6.2150 3.4769 -1.1732 0.9715
5.5421 3.7876 -1.1059 0.9732
4.9835 4.1044 -1.0636 0.9742
4.4289 4.3674 -1.0247 0.9751
3.4316 4.8737 -0.9820 0.9761
2.8785 4.9807 -0.9477 0.9769
1.9254 5.3557 -0.9376 0.9772
0.9913 5.9089 -0.9870 0.9760
0.2175 2.8278 -0.4672 0.9886
-0.6425 6.2686 -1.0381 0.9748
-1.2438 6.4125 -1.0761 0.9739
-1.9276 6.6774 -1.1449 0.9722
-7.8862 12.8802 -2.4880 0.9406
-8.7498 11.7803 -2.4174 0.9422
11.1494 -2.3619 -2.1422 0.9547
11.6037 -1.3910 -2.1967 0.9535
11.9750 -0.3576 -2.2518 0.9524
12.1396 0.7243 -2.2858 0.9517
9.5413 2.3198 -1.8456 0.9608
7.2784 3.2277 -1.4965 0.9681
4.3131 4.2261 -1.1350 0.9757
3.9687 4.6536 -1.1496 0.9754
1.4408 5.4407 -1.0579 0.9774
0.9574 5.5969 -1.0673 0.9772
0.2235 2.7888 -0.5259 0.9887
-0.0564 5.9437 -1.1172 0.9761
-0.6118 6.1637 -1.1642 0.9751
-1.2309 6.4564 -1.2354 0.9736
-1.6625 5.8291 -1.1393 0.9756
-6.2510 10.2833 -2.2620 0.9522
-8.1824 9.2340 -2.3190 0.9510
-8.7511 8.2553 -2.2613 0.9522
-9.2190 7.2559 -2.2051 0.9534
-9.8656 5.2355 -2.0993 0.9556
-10.1550 3.2416 -2.0036 0.9575
-10.1778 2.2710 -1.9601 0.9584
-10.0039 0.4067 -1.8819 0.9601
-8.0494 -4.3565 -1.7204 0.9634
-7.5552 -5.0098 -1.7039 0.9638
-7.0213 -5.6198 -1.6904 0.9641
-6.4505 -6.1855 -1.6798 0.9643
-4.5397 -7.6076 -1.6652 0.9646
-3.8438 -7.9866 -1.6660 0.9646
-1.6073 -8.8224 -1.6856 0.9642
0.8108 -9.1744 -1.7312 0.9632
1.6470 -9.1758 -1.7523 0.9628
4.2077 -8.8014 -1.8336 0.9611
5.0674 -8.5423 -1.8669 0.9604
5.9231 -8.2121 -1.9032 0.9596
6.7701 -7.8082 -1.9425 0.9588
8.4145 -6.7709 -2.0300 0.9570
9.9465 -5.4167 -2.1288 0.9549
11.0286 -2.5860 -2.1292 0.9549
11.5014 -1.6310 -2.1834 0.9538
11.8937 -0.6121 -2.2385 0.9527
12.1948 0.4640 -2.2938 0.9515
11.6094 1.4881 -2.2000 0.9535
9.8897 2.1798 -1.9035 0.9596
5.7333 3.7133 -1.2839 0.9726
4.4468 4.1730 -1.1462 0.9755
3.9794 4.4673 -1.1245 0.9759
3.5695 4.8118 -1.1261 0.9759
2.4960 5.0462 -1.0582 0.9773
1.5557 5.4013 -1.0565 0.9774
0.2847 2.7939 -0.5279 0.9886
-0.4734 6.1057 -1.1511 0.9754
-1.5927 6.0782 -1.1810 0.9748
-5.2267 11.2426 -2.3304 0.9508
-6.0634 10.4771 -2.2753 0.9519
-6.8056 9.6532 -2.2200 0.9531
-2.5685 1.7531 -0.5845 0.9874
-9.8073 5.4788 -2.1115 0.9553
-10.1449 1.5504 -1.9290 0.9591
-9.8676 -0.2690 -1.8554 0.9606
-9.6339 -1.1295 -1.8232 0.9613
-9.3427 -1.9538 -1.7941 0.9619
-8.9979 -2.7402 -1.7679 0.9624
-7.1535 -5.4768 -1.6934 0.9640
-6.5913 -6.0532 -1.6821 0.9642
-4.7033 -7.5089 -1.6654 0.9646
-3.2981 -8.2414 -1.6685 0.9645
-2.5576 -8.5328 -1.6743 0.9644
-0.2079 -9.0905 -1.7091 0.9637
1.4443 -9.1810 -1.7469 0.9629
2.2890 -9.1359 -1.7703 0.9624
3.1421 -9.0275 -1.7967 0.9618
4.8603 -8.6112 -1.8586 0.9606
5.7175 -8.2983 -1.8941 0.9598
7.4037 -7.4511 -1.9743 0.9581
8.2211 -6.9125 -2.0189 0.9572
9.0124 -6.2948 -2.0663 0.9562
9.7699 -5.5970 -2.1163 0.9552
10.4517 -4.8033 -2.1620 0.9543
12.1311 0.1999 -2.2805 0.9518
10.2607 2.0306 -1.9660 0.9583
8.8590 2.5938 -1.7351 0.9631
7.7432 3.0415 -1.5637 0.9667
6.7759 3.3887 -1.4240 0.9696
4.5831 4.1188 -1.1582 0.9752
3.0768 4.7965 -1.0711 0.9771
2.6086 4.9996 -1.0600 0.9773
2.1411 5.1873 -1.0548 0.9774
1.1919 5.5230 -1.0620 0.9773
-5.8702 10.6675 -2.2886 0.9517
-8.4897 8.7304 -2.2889 0.9516
-9.0059 7.7396 -2.2320 0.9528
-9.9733 4.7143 -2.0735 0.9561
-10.1159 3.7169 -2.0257 0.9571
-10.1764 2.7362 -1.9807 0.9580
-9.9148 -0.0564 -1.8636 0.9604
-9.6957 -0.9253 -1.8307 0.9611
-9.4180 -1.7585 -1.8008 0.9618
-8.7028 -3.3106 -1.7501 0.9628
-8.2727 -4.0263 -1.7293 0.9632
-7.7986 -4.7002 -1.7115 0.9636
-7.2835 -5.3312 -1.6966 0.9639
-6.1411 -6.4608 -1.6754 0.9644
-4.1827 -7.8100 -1.6652 0.9646
-2.7383 -8.4673 -1.6727 0.9644
-1.9804 -8.7195 -1.6807 0.9643
-0.4029 -9.0639 -1.7053 0.9637
1.2424 -9.1827 -1.7417 0.9630
2.9358 -9.0596 -1.7900 0.9620
3.7933 -8.9015 -1.8187 0.9614
5.5114 -8.3803 -1.8853 0.9600
8.8244 -6.4510 -2.0546 0.9565
10.3045 -5.0075 -2.1534 0.9544
11.2829 -2.0997 -2.1572 0.9544
12.0617 -0.0614 -2.2672 0.9521
11.5317 0.9752 -2.1753 0.9540
9.1662 2.4705 -1.7844 0.9621
7.9917 2.9418 -1.6007 0.9659
6.1115 3.5942 -1.3327 0.9716
5.3575 3.8335 -1.2382 0.9735
4.7225 4.0634 -1.1710 0.9750
4.1627 4.2859 -1.1230 0.9760
3.3053 4.9162 -1.1135 0.9762
1.7842 5.3205 -1.0548 0.9774
0.4449 3.0543 -0.5802 0.9875
-1.2430 5.7432 -1.1045 0.9764
-5.6716 10.8543 -2.3019 0.9514
-7.1523 9.2079 -2.1915 0.9537
-8.3501 8.9657 -2.3029 0.9514
-8.8906 7.9802 -2.2455 0.9525
-9.3311 6.9770 -2.1899 0.9537
-9.9261 4.9566 -2.0854 0.9558
-10.0892 3.9560 -2.0369 0.9569
-10.1691 2.9707 -1.9913 0.9578
-9.9584 0.1581 -1.8720 0.9603
-9.4900 -1.5610 -1.8077 0.9616
-8.3805 -3.8576 -1.7341 0.9631
-7.4113 -5.1831 -1.6999 0.9639
-6.2862 -6.3342 -1.6774 0.9643
-5.0255 -7.3034 -1.6663 0.9646
-3.6465 -8.0829 -1.6667 0.9646
-2.1651 -8.6635 -1.6785 0.9643
-1.3909 -8.8758 -1.6887 0.9641
-0.5970 -9.0340 -1.7017 0.9638
1.0411 -9.1808 -1.7367 0.9631
2.7299 -9.0878 -1.7836 0.9621
3.5862 -8.9457 -1.8115 0.9615
4.4459 -8.7366 -1.8425 0.9609
7.0023 -7.6830 -1.9539 0.9586
7.8298 -7.1819 -1.9970 0.9577
8.6346 -6.6025 -2.0431 0.9567
9.4094 -5.9434 -2.0919 0.9557
10.1461 -5.2039 -2.1433 0.9547
10.6426 -3.2340 -2.0907 0.9557
8.2523 2.8373 -1.6402 0.9651
7.2455 3.2409 -1.4919 0.9682
6.3126 3.5315 -1.3596 0.9710
5.5288 3.7785 -1.2587 0.9731
2.3666 5.0986 -1.0566 0.9774
0.9399 5.6023 -1.0677 0.9771
-0.0755 5.9512 -1.1187 0.9761
-0.6327 6.1735 -1.1665 0.9751
-1.2545 6.4678 -1.2383 0.9735
-1.6902 5.8550 -1.1455 0.9755
-6.2784 10.2543 -2.2600 0.9522
-6.9942 9.4166 -2.2048 0.9534
9.3800 -2.8832 -2.0743 0.9607
10.6886 0.6378 -2.2634 0.9572
10.8071 1.6228 -2.3100 0.9563
9.5221 2.3151 -2.0714 0.9607
8.2773 2.8162 -1.8481 0.9649
7.2665 3.2224 -1.6803 0.9680
5.6665 3.8460 -1.4476 0.9724
4.9685 4.0654 -1.3570 0.9741
4.3537 4.2659 -1.2884 0.9754
3.4417 4.8548 -1.2579 0.9760
2.8042 4.8166 -1.1781 0.9775
2.3401 4.9995 -1.1668 0.9777
1.8810 5.1800 -1.1649 0.9777
1.4196 5.3609 -1.1722 0.9776
0.9510 5.5592 -1.1922 0.9772
0.2217 2.7658 -0.5865 0.9887
-0.6231 6.2779 -1.3335 0.9745
-1.6589 5.8163 -1.2785 0.9756
-4.7403 9.6466 -2.2720 0.9570
-6.6815 7.5401 -2.1296 0.9596
-7.1673 6.7612 -2.0828 0.9605
-8.7807 4.6598 -2.1012 0.9602
-9.1251 2.0361 -1.9763 0.9625
-8.6449 -1.2030 -1.8450 0.9649
-7.7116 -3.3208 -1.7748 0.9663
-7.3094 -3.9559 -1.7568 0.9666
-6.3860 -5.1113 -1.7290 0.9671
-5.8702 -5.6290 -1.7191 0.9673
-2.8425 -7.5722 -1.7097 0.9675
-2.1624 -7.8236 -1.7158 0.9674
1.4930 -8.3180 -1.7864 0.9660
3.0273 -8.1288 -1.8336 0.9652
4.5657 -7.6967 -1.8916 0.9641
5.3265 -7.3849 -1.9247 0.9635
6.8075 -6.5619 -1.9986 0.9621
7.5164 -6.0482 -2.0393 0.9613
8.1960 -5.4655 -2.0823 0.9605
8.8391 -4.8136 -2.1275 0.9597
8.7586 -3.7987 -2.0180 0.9617
9.2658 -3.0683 -2.0632 0.9609
9.7166 -2.2784 -2.1096 0.9600
10.6461 0.4051 -2.2520 0.9574
8.5524 2.7056 -1.8961 0.9640
7.4932 3.1314 -1.7167 0.9673
5.8461 3.7864 -1.4723 0.9719
5.1281 4.0145 -1.3766 0.9737
4.4957 4.2189 -1.3032 0.9751
3.9774 4.4651 -1.2640 0.9758
2.9177 4.7718 -1.1823 0.9774
1.5315 5.3171 -1.1696 0.9776
-0.4815 6.2105 -1.3167 0.9749
-1.0954 6.5055 -1.3945 0.9734
-5.9657 8.4618 -2.1885 0.9586
-7.0576 6.9513 -2.0940 0.9603
-2.5696 1.7538 -0.6576 0.9874
-8.7233 4.8732 -2.1121 0.9600
-8.9317 3.9887 -2.0677 0.9608
-9.0632 3.1100 -2.0254 0.9616
-9.1106 1.3923 -1.9482 0.9630
-9.0341 0.5626 -1.9133 0.9637
-8.8961 -0.2425 -1.8812 0.9643
-8.7004 -1.0200 -1.8517 0.9648
-8.4505 -1.7672 -1.8249 0.9653
-7.8021 -3.1622 -1.7795 0.9662
-7.4101 -3.8062 -1.7609 0.9665
-6.9769 -4.4128 -1.7450 0.9668
-5.9976 -5.5080 -1.7213 0.9673
-4.8845 -6.4382 -1.7082 0.9675
-4.2834 -6.8387 -1.7057 0.9675
-3.6557 -7.1945 -1.7058 0.9675
-3.0032 -7.5045 -1.7086 0.9675
-2.3282 -7.7674 -1.7140 0.9674
-0.9188 -8.1465 -1.7329 0.9670
0.5548 -8.3198 -1.7625 0.9665
6.6329 -6.6754 -1.9892 0.9623
7.3480 -6.1784 -2.0293 0.9615
8.0353 -5.6123 -2.0718 0.9607
9.1484 -3.2499 -2.0522 0.9611
10.0159 -1.6413 -2.1454 0.9594
10.3469 -0.7565 -2.1930 0.9585
8.8422 2.5889 -1.9475 0.9630
7.7300 3.0363 -1.7555 0.9666
5.2928 3.9624 -1.3976 0.9733
4.0599 4.3645 -1.2600 0.9759
3.6900 4.7565 -1.2725 0.9757
2.5628 4.9118 -1.1711 0.9776
1.6428 5.2735 -1.1675 0.9777
1.1786 5.4613 -1.1810 0.9774
0.1984 5.8943 -1.2466 0.9762
-1.3645 5.7064 -1.2402 0.9763
-3.5264 10.4948 -2.3403 0.9557
-5.1262 9.3154 -2.2475 0.9575
-5.8122 8.6336 -2.2000 0.9583
-8.3526 5.9689 -2.1701 0.9589
-9.1194 1.5956 -1.9569 0.9629
-9.0583 0.7605 -1.9215 0.9635
-8.5154 -1.5900 -1.8311 0.9652
-8.2268 -2.3127 -1.8064 0.9657
-7.8901 -3.0014 -1.7844 0.9661
-7.5085 -3.6544 -1.7651 0.9664
-6.6223 -4.8472 -1.7347 0.9670
-4.4308 -6.7462 -1.7061 0.9675
-3.8093 -7.1129 -1.7056 0.9676
-3.1626 -7.4340 -1.7077 0.9675
-2.4929 -7.7084 -1.7125 0.9674
-1.8021 -7.9347 -1.7199 0.9673
-1.0925 -8.1114 -1.7301 0.9671
-0.3662 -8.2372 -1.7429 0.9669
0.3744 -8.3102 -1.7584 0.9666
1.1269 -8.3289 -1.7766 0.9662
1.8884 -8.2915 -1.7975 0.9658
2.6560 -8.1961 -1.8212 0.9654
4.1961 -7.8239 -1.8767 0.9644
4.9609 -7.5433 -1.9084 0.9638
5.7163 -7.1976 -1.9429 0.9631
7.1779 -6.3045 -2.0194 0.9617
8.5340 -5.1365 -2.1055 0.9601
2.3664 -0.8986 -0.5351 0.9897
10.2741 -0.9742 -2.1815 0.9587
10.5454 -0.0537 -2.2291 0.9578
