ply
format ascii 1.0
element vertex 1596
property float32 x
property float32 y
property float32 z
property float32 I
end_header
-8.6405 8.4699 -2.2742 0.9519
-10.0200 4.4489 -2.0607 0.9564
-10.1789 2.4809 -1.9692 0.9583
-10.1423 1.5295 -1.9279 0.9591
-10.0349 0.6056 -1.8896 0.9599
-9.8614 -0.2872 -1.8543 0.9606
-9.3339 -1.9690 -1.7930 0.9619
-8.9881 -2.7537 -1.7669 0.9625
-7.6664 -4.8651 -1.7066 0.9637
-4.0028 -7.9003 -1.6647 0.9646
-3.2874 -8.2410 -1.6677 0.9645
0.6184 -9.1609 -1.7258 0.9633
2.2944 -9.1310 -1.7696 0.9624
5.7198 -8.2935 -1.8936 0.9598
6.5687 -7.9079 -1.9323 0.9590
7.4047 -7.4470 -1.9739 0.9582
8.2216 -6.9089 -2.0185 0.9572
9.0126 -6.2919 -2.0660 0.9562
11.3952 -1.8681 -2.1704 0.9541
11.8085 -0.8647 -2.2255 0.9530
9.1399 2.6725 -1.7899 0.9620
7.9301 3.1111 -1.6012 0.9659
6.9152 3.4542 -1.4529 0.9690
5.2377 3.9164 -1.2293 0.9737
4.6014 4.1298 -1.1621 0.9751
4.0360 4.3327 -1.1130 0.9762
2.1247 5.1340 -1.0444 0.9776
1.1802 5.4409 -1.0465 0.9776
0.6962 5.5761 -1.0562 0.9774
-0.3211 5.8763 -1.1062 0.9763
-0.8809 6.0761 -1.1540 0.9753
-1.5092 6.3494 -1.2267 0.9738
-1.9135 5.7214 -1.1339 0.9757
-6.6258 9.8758 -2.2353 0.9527
-7.2964 9.0167 -2.1802 0.9539
-8.4817 8.7518 -2.2908 0.9516
-8.9991 7.7613 -2.2337 0.9528
-2.6582 1.5678 -0.5801 0.9875
-9.9701 4.7364 -2.0747 0.9561
-10.1139 3.7390 -2.0268 0.9571
-10.1756 2.7583 -1.9816 0.9580
-9.9176 -0.0344 -1.8641 0.9604
-8.7110 -3.2892 -1.7502 0.9628
-7.8096 -4.6795 -1.7113 0.9636
-6.7442 -5.8987 -1.6841 0.9642
-6.1568 -6.4417 -1.6749 0.9644
-5.5360 -6.9392 -1.6685 0.9645
-1.2284 -8.9082 -1.6902 0.9641
3.7579 -8.9051 -1.8167 0.9614
4.6170 -8.6827 -1.8484 0.9608
5.4746 -8.3905 -1.8831 0.9600
7.9896 -7.0713 -2.0054 0.9575
10.2846 -5.0484 -2.1534 0.9544
2.3570 -0.9059 -0.4746 0.9898
11.6985 -1.1589 -2.2096 0.9533
12.3052 0.9870 -2.3203 0.9510
11.2156 1.9187 -2.1387 0.9547
7.2081 3.3725 -1.4958 0.9681
6.2467 3.6350 -1.3584 0.9710
10.5700 0.0405 -2.2343 0.9577
8.0689 3.0501 -1.8234 0.9653
6.2046 3.7208 -1.5293 0.9709
5.4446 3.9663 -1.4239 0.9728
3.2351 4.8988 -1.2409 0.9763
2.6062 4.8365 -1.1613 0.9778
2.1431 5.0011 -1.1501 0.9780
1.6851 5.1635 -1.1481 0.9780
-0.2490 5.9097 -1.2503 0.9761
-0.8139 6.1530 -1.3119 0.9749
-1.8208 5.6785 -1.2605 0.9759
-4.2395 10.0360 -2.3029 0.9564
-5.0142 9.4215 -2.2560 0.9573
-5.7121 8.7476 -2.2084 0.9582
-6.3304 8.0254 -2.1606 0.9591
-6.8676 7.2653 -2.1133 0.9600
-8.2972 6.1102 -2.1781 0.9587
-2.6469 1.6060 -0.6544 0.9874
-8.8581 4.3442 -2.0855 0.9605
-9.1225 1.7335 -1.9628 0.9627
-9.0716 0.8954 -1.9269 0.9634
-8.9578 0.0806 -1.8936 0.9640
-8.7848 -0.7078 -1.8629 0.9646
-8.2759 -2.1944 -1.8098 0.9656
-7.9470 -2.8881 -1.7873 0.9660
-7.5728 -3.5464 -1.7676 0.9664
-7.1563 -4.1677 -1.7505 0.9667
-6.7004 -4.7507 -1.7362 0.9670
-2.6093 -7.6606 -1.7106 0.9675
-1.2171 -8.0803 -1.7273 0.9671
-0.4943 -8.2150 -1.7396 0.9669
0.9928 -8.3259 -1.7724 0.9663
1.7521 -8.2986 -1.7928 0.9659
2.5181 -8.2139 -1.8160 0.9655
3.2876 -8.0698 -1.8419 0.9650
4.0570 -7.8644 -1.8705 0.9645
7.0470 -6.3954 -2.0116 0.9618
9.0436 -4.5800 -2.1428 0.9594
2.3417 -0.9337 -0.5329 0.9897
9.8530 -2.0035 -2.1253 0.9597
10.2159 -1.1408 -2.1729 0.9588
10.5029 -0.2292 -2.2206 0.9580
10.7056 0.7246 -2.2681 0.9571
10.8162 1.7119 -2.3148 0.9562
9.7284 2.4464 -2.1204 0.9598
4.3098 4.2869 -1.2849 0.9755
3.8043 4.5287 -1.2502 0.9761
2.7410 4.7885 -1.1663 0.9777
2.2751 4.9543 -1.1524 0.9780
1.3576 5.2792 -1.1522 0.9780
0.8915 5.4443 -1.1661 0.9777
-5.5200 8.9463 -2.2221 0.9579
-6.7218 7.4867 -2.1268 0.9597
-7.2012 6.7057 -2.0799 0.9606
-8.1897 6.3612 -2.1920 0.9585
-8.5347 5.4825 -2.1442 0.9594
-8.7975 4.5980 -2.0983 0.9602
-9.1249 1.9776 -1.9736 0.9625
-9.0928 1.1336 -1.9369 0.9632
-8.9967 0.3117 -1.9029 0.9639
-8.6273 -1.2523 -1.8427 0.9650
-8.0461 -2.6927 -1.7935 0.9659
-7.6846 -3.3613 -1.7730 0.9663
-7.2800 -3.9934 -1.7551 0.9666
-6.8350 -4.5875 -1.7400 0.9669
-5.8350 -5.6569 -1.7179 0.9673
-5.2849 -6.1299 -1.7108 0.9675
-2.8023 -7.5844 -1.7091 0.9675
-2.1218 -7.8327 -1.7154 0.9674
0.0302 -8.2792 -1.7501 0.9667
1.5335 -8.3123 -1.7867 0.9660
4.6034 -7.6795 -1.8926 0.9641
6.1109 -6.9844 -1.9617 0.9628
8.2265 -5.4348 -2.0841 0.9605
8.8675 -4.7804 -2.1294 0.9597
9.2879 -3.0330 -2.0653 0.9608
9.7361 -2.2411 -2.1118 0.9600
10.1192 -1.3935 -2.1592 0.9591
10.4288 -0.4953 -2.2069 0.9582
10.7943 1.4258 -2.3015 0.9565
10.1763 2.2833 -2.2045 0.9583
7.6147 3.2150 -1.7472 0.9668
6.6745 3.5507 -1.5981 0.9696
5.8801 3.8382 -1.4843 0.9717
5.1375 4.0509 -1.3829 0.9736
4.4833 4.2364 -1.3038 0.9751
2.4077 4.9072 -1.1554 0.9779
1.4897 5.2326 -1.1500 0.9780
1.0264 5.3961 -1.1611 0.9778
0.2814 2.8456 -0.6044 0.9884
-0.4831 6.0096 -1.2744 0.9757
-1.0733 6.2672 -1.3440 0.9743
-1.4840 5.6010 -1.2248 0.9766
-5.3213 9.1408 -2.2357 0.9577
-8.0751 6.6110 -2.2060 0.9582
-8.4443 5.7355 -2.1577 0.9591
-2.7303 1.5173 -0.6603 0.9873
-9.1217 2.2232 -1.9846 0.9623
-9.0306 0.5450 -1.9124 0.9637
-8.4429 -1.7810 -1.8239 0.9653
-8.1415 -2.4943 -1.7999 0.9658
-7.7929 -3.1732 -1.7786 0.9662
-7.4003 -3.8159 -1.7600 0.9665
-6.9666 -4.4210 -1.7441 0.9668
-5.9869 -5.5135 -1.7204 0.9673
-4.8739 -6.4413 -1.7074 0.9675
-4.2731 -6.8406 -1.7049 0.9676
-3.6456 -7.1954 -1.7050 0.9676
-1.6241 -7.9801 -1.7214 0.9673
-0.9109 -8.1440 -1.7322 0.9671
0.5614 -8.3162 -1.7619 0.9665
1.3155 -8.3212 -1.7808 0.9661
2.8459 -8.1599 -1.8267 0.9653
3.6158 -7.9899 -1.8538 0.9648
5.1462 -7.4619 -1.9160 0.9636
5.8979 -7.1004 -1.9511 0.9630
6.6340 -6.6719 -1.9888 0.9623
7.3486 -6.1753 -2.0290 0.9615
8.0355 -5.6098 -2.0715 0.9607
9.2826 -4.2648 -2.1593 0.9591
9.6138 -2.4741 -2.0984 0.9602
10.6001 0.1727 -2.2409 0.9576
10.6613 2.1066 -2.2972 0.9565
7.9161 3.1056 -1.7975 0.9658
6.9321 3.4627 -1.6379 0.9688
6.0963 3.7600 -1.5140 0.9711
4.6626 4.1848 -1.3243 0.9747
4.0616 4.3602 -1.2596 0.9759
3.6822 4.7390 -1.2686 0.9758
1.6213 5.1861 -1.1485 0.9780
0.6897 5.5239 -1.1767 0.9775
-0.8973 6.1896 -1.3220 0.9748
-1.9092 5.7084 -1.2723 0.9757
-2.6581 1.5678 -0.6523 0.9875
-9.1193 1.6154 -1.9576 0.9628
-9.0594 0.7803 -1.9221 0.9635
-8.9371 -0.0310 -1.8891 0.9641
-7.8975 -2.9821 -1.7844 0.9661
-7.5172 -3.6353 -1.7650 0.9664
-6.6338 -4.8289 -1.7344 0.9670
-5.0410 -6.3187 -1.7086 0.9675
-4.4482 -6.7306 -1.7053 0.9676
-3.8282 -7.0983 -1.7047 0.9676
-3.1830 -7.4205 -1.7068 0.9675
-1.8255 -7.9239 -1.7188 0.9673
-0.3923 -8.2296 -1.7416 0.9669
0.3470 -8.3046 -1.7570 0.9666
1.0982 -8.3254 -1.7751 0.9663
1.8586 -8.2903 -1.7959 0.9659
2.6253 -8.1974 -1.8195 0.9654
4.9284 -7.5534 -1.9064 0.9638
5.6837 -7.2109 -1.9408 0.9632
6.4248 -6.8018 -1.9777 0.9625
7.1462 -6.3248 -2.0172 0.9617
7.8417 -5.7790 -2.0591 0.9610
9.1278 -4.4806 -2.1493 0.9593
9.4864 -2.7025 -2.0850 0.9605
10.2607 -1.0165 -2.1795 0.9587
10.5364 -0.0985 -2.2273 0.9578
9.5228 2.5213 -2.0823 0.9605
8.2354 2.9896 -1.8520 0.9648
7.1962 3.3669 -1.6794 0.9680
6.3215 3.6785 -1.5460 0.9705
9.1654 -0.7862 -2.1620 0.9629
9.3772 0.0359 -2.2039 0.9622
9.5625 1.7659 -2.2854 0.9608
8.0543 3.0446 -2.0237 0.9652
7.0472 3.4111 -1.8401 0.9683
5.4636 3.9801 -1.5887 0.9726
4.8150 4.2144 -1.5039 0.9740
4.2179 4.4162 -1.4352 0.9752
3.7520 4.7064 -1.4146 0.9756
3.2312 4.8929 -1.3781 0.9762
2.1706 5.0653 -1.2952 0.9776
1.7073 5.2313 -1.2933 0.9776
1.2432 5.4053 -1.3035 0.9775
-0.2534 6.0144 -1.4148 0.9756
-0.8217 6.2126 -1.4728 0.9746
-1.4437 6.4288 -1.5485 0.9733
-4.4435 8.3491 -2.2228 0.9619
-5.6369 7.1463 -2.1392 0.9633
-6.1300 6.4851 -2.0973 0.9640
-6.9053 5.0851 -2.0155 0.9654
-7.9789 3.9131 -2.0886 0.9641
-8.1411 3.1255 -2.0495 0.9648
-8.2653 1.5706 -1.9773 0.9660
-8.1431 0.0732 -1.9139 0.9671
-7.9976 -0.6444 -1.8857 0.9676
-7.8000 -1.3373 -1.8599 0.9680
-7.5536 -2.0028 -1.8366 0.9684
-6.9260 -3.2435 -1.7974 0.9691
-6.5505 -3.8149 -1.7816 0.9693
-6.1374 -4.3516 -1.7682 0.9696
-5.6892 -4.8521 -1.7573 0.9697
-5.2083 -5.3151 -1.7489 0.9699
-3.0036 -6.7682 -1.7403 0.9700
-1.1153 -7.4046 -1.7599 0.9697
0.2225 -7.5934 -1.7854 0.9693
2.2977 -7.4948 -1.8424 0.9683
2.9960 -7.3541 -1.8663 0.9679
4.3820 -6.9024 -1.9215 0.9670
5.7258 -6.2151 -1.9861 0.9659
6.3700 -5.7810 -2.0217 0.9653
6.9884 -5.2859 -2.0594 0.9646
8.1238 -4.1142 -2.1402 0.9633
2.3404 -0.9332 -0.5922 0.9897
8.4256 -2.5143 -2.0665 0.9645
9.3241 -0.2034 -2.1919 0.9624
9.5450 2.4003 -2.3131 0.9604
8.3821 2.9251 -2.0865 0.9642
5.6638 3.9077 -1.6172 0.9721
4.9940 4.1498 -1.5260 0.9737
4.3903 4.3669 -1.4553 0.9749
3.3779 4.8404 -1.3872 0.9760
2.3047 5.0187 -1.2979 0.9776
1.8399 5.1830 -1.2926 0.9777
0.2018 2.7619 -0.6508 0.9887
-0.6539 6.1541 -1.4545 0.9749
-1.2588 6.3646 -1.5248 0.9737
-3.5372 9.0115 -2.2752 0.9610
-5.4826 7.3296 -2.1512 0.9631
-5.9958 6.6781 -2.1093 0.9638
-6.4387 5.9957 -2.0677 0.9645
-7.9195 4.1391 -2.1001 0.9639
-8.2632 1.7908 -1.9871 0.9659
-8.1748 0.2833 -1.9224 0.9669
-7.8619 -1.1412 -1.8671 0.9679
-7.3497 -2.4596 -1.8215 0.9687
-5.8212 -4.7123 -1.7602 0.9697
-4.8468 -5.6218 -1.7445 0.9700
-1.9454 -7.1819 -1.7487 0.9699
-1.3027 -7.3617 -1.7570 0.9697
0.0276 -7.5784 -1.7811 0.9693
2.7958 -7.4002 -1.8592 0.9680
3.4929 -7.2195 -1.8849 0.9676
4.1849 -6.9814 -1.9130 0.9671
4.8678 -6.6848 -1.9435 0.9666
5.5371 -6.3285 -1.9763 0.9660
6.1876 -5.9118 -2.0113 0.9654
7.4105 -4.8957 -2.0874 0.9642
7.9708 -4.2969 -2.1282 0.9635
8.3107 -2.7139 -2.0547 0.9647
8.6911 -2.0006 -2.0960 0.9640
9.0114 -1.2410 -2.1379 0.9633
9.2647 -0.4400 -2.1799 0.9626
9.5437 1.2606 -2.2625 0.9612
9.5575 2.1445 -2.3021 0.9606
8.7310 2.7979 -2.1548 0.9630
5.8714 3.8325 -1.6479 0.9716
5.1784 4.0832 -1.5499 0.9733
4.5581 4.3070 -1.4738 0.9746
2.9210 4.8124 -1.3231 0.9771
2.4397 4.9724 -1.3017 0.9775
1.9726 5.1353 -1.2929 0.9776
1.5101 5.3043 -1.2962 0.9776
1.0429 5.4829 -1.3117 0.9773
0.2770 2.8012 -0.6616 0.9885
-0.4902 6.0970 -1.4376 0.9752
-1.0793 6.3022 -1.5027 0.9741
-2.4634 6.7821 -1.6958 0.9708
-4.0522 8.6568 -2.2464 0.9615
-4.7204 8.1087 -2.2051 0.9622
-5.8557 6.8685 -2.1213 0.9636
-2.7268 1.5154 -0.7332 0.9873
-8.0565 3.5771 -2.0717 0.9644
-8.1895 2.7910 -2.0334 0.9651
-8.2560 2.0122 -1.9972 0.9657
-8.2019 0.4950 -1.9311 0.9668
-8.0876 -0.2355 -1.9016 0.9673
-7.9196 -0.9429 -1.8744 0.9678
-7.7008 -1.6245 -1.8497 0.9682
-7.4345 -2.2777 -1.8274 0.9686
-6.7707 -3.4912 -1.7904 0.9692
-6.3788 -4.0480 -1.7756 0.9694
-5.9505 -4.5694 -1.7633 0.9696
-3.9200 -6.2753 -1.7390 0.9701
-3.3444 -6.6008 -1.7391 0.9701
-2.7458 -6.8833 -1.7417 0.9700
-0.8345 -7.4612 -1.7645 0.9696
1.8973 -7.5506 -1.8297 0.9685
2.5954 -7.4416 -1.8523 0.9681
5.3467 -6.4368 -1.9666 0.9662
6.6371 -5.5774 -2.0375 0.9650
8.3241 -3.8244 -2.1529 0.9631
8.5878 -2.2101 -2.0841 0.9642
8.9261 -1.4633 -2.1258 0.9635
9.5237 1.0103 -2.2509 0.9614
9.1037 2.6619 -2.2292 0.9618
6.9208 3.4570 -1.8182 0.9687
6.0871 3.7543 -1.6808 0.9710
5.3688 4.0144 -1.5755 0.9728
3.1605 4.9181 -1.3740 0.9763
2.1057 5.0881 -1.2942 0.9776
-1.5357 6.4607 -1.5607 0.9731
-4.5354 8.2716 -2.2171 0.9620
-5.1567 7.6861 -2.1753 0.9627
-6.6061 5.6974 -2.0502 0.9648
-6.9489 4.9849 -2.0099 0.9655
-8.1583 3.0160 -2.0442 0.9649
-8.2436 2.2346 -2.0073 0.9655
-8.2645 1.4639 -1.9726 0.9661
-8.2243 0.7084 -1.9400 0.9667
-8.1261 -0.0282 -1.9098 0.9672
-7.7686 -1.4318 -1.8565 0.9681
-7.5156 -2.0934 -1.8336 0.9685
-7.2171 -2.7251 -1.8131 0.9688
-6.8760 -3.3252 -1.7951 0.9691
-6.4951 -3.8919 -1.7796 0.9694
-5.6240 -4.9189 -1.7560 0.9698
-4.0806 -6.1743 -1.7394 0.9700
-2.9197 -6.8067 -1.7407 0.9700
-2.3062 -7.0580 -1.7451 0.9700
-1.6735 -7.2642 -1.7520 0.9698
0.3175 -7.5992 -1.7875 0.9692
1.0040 -7.6116 -1.8044 0.9689
1.6975 -7.5719 -1.8237 0.9686
4.4774 -6.8622 -1.9257 0.9669
5.1551 -6.5402 -1.9572 0.9664
6.4579 -5.7156 -2.0268 0.9652
7.0723 -5.2120 -2.0648 0.9645
7.6542 -4.6478 -2.1046 0.9639
8.1920 -4.0212 -2.1448 0.9632
2.3593 -0.9067 -0.5940 0.9897
8.8354 -1.6822 -2.1138 0.9637
9.1280 -0.9043 -2.1558 0.9630
9.3506 -0.0874 -2.1977 0.9623
9.4968 0.7618 -2.2391 0.9616
9.5604 1.6356 -2.2796 0.9609
8.2431 -0.7071 -2.1421 0.9664
8.4172 0.0322 -2.1794 0.9658
8.5214 0.7967 -2.2160 0.9653
8.0396 3.0390 -2.2254 0.9651
7.0355 3.4054 -2.0238 0.9682
6.1857 3.7095 -1.8675 0.9706
5.4558 3.9744 -1.7477 0.9725
3.2272 4.8869 -1.5163 0.9761
2.6797 4.9729 -1.4626 0.9769
2.1850 5.0988 -1.4363 0.9773
1.7327 5.3092 -1.4460 0.9772
1.2595 5.4763 -1.4549 0.9770
0.1262 2.6674 -0.6914 0.9890
-0.8207 6.2043 -1.6204 0.9745
-1.4417 6.4198 -1.7036 0.9732
-1.8014 5.6179 -1.5275 0.9759
-3.3550 7.9423 -2.2323 0.9650
-3.9851 7.4878 -2.1962 0.9656
-4.5595 6.9825 -2.1592 0.9661
-5.9226 5.2381 -2.0472 0.9679
-6.2531 4.6048 -2.0107 0.9684
-7.2515 3.5564 -2.0912 0.9672
-7.4116 2.8455 -2.0556 0.9677
-7.5098 2.1365 -2.0216 0.9683
-7.5485 1.4344 -1.9894 0.9688
-7.5302 0.7433 -1.9592 0.9692
-7.4576 0.0671 -1.9310 0.9697
-6.0342 -3.5142 -1.8080 0.9716
-5.6570 -4.0110 -1.7955 0.9718
-5.2464 -4.4744 -1.7853 0.9719
-2.7720 -6.2462 -1.7693 0.9722
-2.2080 -6.4825 -1.7731 0.9721
-1.6261 -6.6768 -1.7793 0.9720
-0.4172 -6.9336 -1.7985 0.9717
0.2049 -6.9938 -1.8116 0.9715
0.8355 -7.0066 -1.8270 0.9713
1.4718 -6.9710 -1.8447 0.9710
2.1109 -6.8856 -1.8647 0.9707
2.7496 -6.7492 -1.8869 0.9703
3.3844 -6.5607 -1.9114 0.9700
7.3622 -3.7285 -2.1367 0.9665
7.6116 -2.2714 -2.0566 0.9677
8.1810 -0.9136 -2.1314 0.9666
8.4989 0.5752 -2.2056 0.9654
7.3047 3.3073 -2.0761 0.9674
6.4144 3.6263 -1.9078 0.9700
3.8312 4.5608 -1.5422 0.9757
3.3737 4.8345 -1.5264 0.9759
1.3959 5.4282 -1.4512 0.9771
0.9165 5.5971 -1.4685 0.9768
0.2010 2.7520 -0.7144 0.9887
-0.6531 6.1460 -1.6003 0.9748
-3.1646 8.0622 -2.2425 0.9648
-3.8099 7.6237 -2.2067 0.9654
-5.4057 6.0208 -2.0950 0.9671
-5.8163 5.4161 -2.0578 0.9677
-6.1646 4.7883 -2.0211 0.9683
-6.4509 4.1439 -1.9852 0.9688
-7.1939 3.7599 -2.1017 0.9670
-7.5434 1.6348 -1.9985 0.9686
-7.5411 0.9402 -1.9677 0.9691
-7.3742 -0.4042 -1.9122 0.9699
-7.0088 -1.6673 -1.8653 0.9707
-6.7585 -2.2617 -1.8453 0.9710
-6.4667 -2.8285 -1.8275 0.9713
-6.1359 -3.3658 -1.8120 0.9715
-5.3674 -4.3450 -1.7880 0.9719
-4.4721 -5.1872 -1.7733 0.9721
-2.9301 -6.1707 -1.7687 0.9722
-2.3717 -6.4190 -1.7718 0.9721
-0.5938 -6.9078 -1.7952 0.9718
0.6539 -7.0078 -1.8223 0.9713
1.9275 -6.9152 -1.8587 0.9708
4.4523 -6.1141 -1.9583 0.9692
5.0571 -5.7799 -1.9885 0.9688
6.2037 -4.9475 -2.0545 0.9677
6.7353 -4.4496 -2.0901 0.9672
7.2316 -3.8985 -2.1271 0.9666
7.5119 -2.4531 -2.0460 0.9679
7.8406 -1.8048 -2.0832 0.9673
8.3255 -0.3954 -2.1581 0.9661
8.4704 0.3554 -2.1951 0.9656
8.5401 1.9162 -2.2662 0.9645
6.6533 3.5394 -1.9512 0.9693
5.8627 3.8268 -1.8127 0.9715
3.5223 4.7812 -1.5376 0.9758
3.0127 4.9635 -1.5034 0.9763
2.4756 5.0456 -1.4552 0.9770
1.0553 5.5483 -1.4623 0.9769
0.2762 2.7932 -0.7267 0.9885
0.0256 2.7921 -0.7230 0.9885
-1.0779 6.2936 -1.6533 0.9740
-1.4826 5.5957 -1.4988 0.9764
-2.4596 6.7717 -1.8654 0.9707
-4.2369 7.2781 -2.1805 0.9658
-4.7866 6.7535 -2.1433 0.9664
-5.2765 6.1891 -2.1058 0.9670
-5.7049 5.5922 -2.0684 0.9675
-6.0711 4.9703 -2.0315 0.9681
-6.3751 4.3301 -1.9954 0.9687
-7.3275 3.2534 -2.0758 0.9674
-7.5335 1.8361 -2.0076 0.9685
-7.5475 1.1382 -1.9763 0.9690
-7.5058 0.4530 -1.9469 0.9694
-7.4109 -0.2158 -1.9196 0.9698
-7.2655 -0.8651 -1.8945 0.9702
-6.8346 -2.0940 -1.8508 0.9709
-6.5545 -2.6689 -1.8324 0.9712
-5.8776 -3.7300 -1.8024 0.9716
-5.4859 -4.2127 -1.7909 0.9718
-5.0618 -4.6616 -1.7817 0.9720
-4.1256 -5.4523 -1.7703 0.9721
-3.6178 -5.7917 -1.7681 0.9722
-1.9620 -6.5706 -1.7755 0.9721
-1.3731 -6.7464 -1.7826 0.9720
-0.7694 -6.8783 -1.7920 0.9718
-0.1532 -6.9650 -1.8038 0.9716
0.4729 -7.0051 -1.8179 0.9714
3.6530 -6.4643 -1.9225 0.9698
5.4769 -5.5082 -2.0112 0.9684
6.5862 -4.5979 -2.0797 0.9674
7.4082 -2.6312 -2.0355 0.9680
7.7518 -1.9950 -2.0725 0.9675
8.2714 -0.6057 -2.1473 0.9663
8.4360 0.1374 -2.1845 0.9657
8.4891 2.4822 -2.2900 0.9641
7.8877 3.0945 -2.1938 0.9656
5.3612 4.0087 -1.7332 0.9727
4.7234 4.2394 -1.6433 0.9741
3.1567 4.9121 -1.5118 0.9762
2.6127 4.9968 -1.4599 0.9770
2.1378 5.1656 -1.4475 0.9772
1.1930 5.4998 -1.4571 0.9770
0.7080 5.6704 -1.4796 0.9767
-0.3296 6.0334 -1.5645 0.9753
-1.9005 5.6823 -1.5513 0.9755
-3.4460 7.8823 -2.2274 0.9651
-4.0686 7.4202 -2.1911 0.9656
-5.9724 5.1509 -2.0420 0.9679
-6.2942 4.5152 -2.0056 0.9685
-2.6580 1.5677 -0.7990 0.9873
-7.2776 3.4573 -2.0861 0.9673
-7.5187 2.0381 -2.0170 0.9683
-7.5233 0.6480 -1.9551 0.9693
-7.1326 -1.3146 -1.8779 0.9705
-6.6390 -2.5069 -1.8374 0.9711
-6.3303 -3.0613 -1.8206 0.9714
-5.9837 -3.5854 -1.8061 0.9716
-5.1866 -4.5364 -1.7841 0.9719
-4.2666 -5.3480 -1.7714 0.9721
-2.6945 -6.2816 -1.7697 0.9722
-0.3311 -6.9448 -1.8002 0.9717
1.5608 -6.9621 -1.8474 0.9709
2.2000 -6.8696 -1.8677 0.9706
2.8384 -6.7261 -1.8902 0.9703
3.4725 -6.5303 -1.9150 0.9699
5.3093 -5.6208 -2.0019 0.9686
6.9515 -4.2211 -2.1057 0.9670
7.6585 -2.1818 -2.0618 0.9676
8.3958 -0.0785 -2.1739 0.9659
8.5106 0.6827 -2.2106 0.9653
8.5516 1.4630 -2.2463 0.9648
8.5146 2.2544 -2.2805 0.9643
7.1721 3.3556 -2.0502 0.9678
6.3020 3.6672 -1.8879 0.9703
7.5414 2.8507 -2.2824 0.9670
7.0237 3.3997 -2.2090 0.9681
6.1761 3.7037 -2.0387 0.9705
4.8019 4.2029 -1.8065 0.9738
2.6764 4.9669 -1.5972 0.9768
0.1255 2.6527 -0.7518 0.9890
-0.2528 5.9989 -1.6998 0.9753
-0.8195 6.1959 -1.7693 0.9744
-3.0332 7.1805 -2.2067 0.9681
-4.1351 6.3326 -2.1411 0.9690
-5.0315 5.3229 -2.0735 0.9700
-5.3975 4.7736 -2.0398 0.9705
-2.6511 1.6085 -0.8778 0.9872
-6.7955 2.6089 -2.0607 0.9702
-6.8951 1.9616 -2.0294 0.9706
-6.9396 1.3187 -1.9997 0.9711
-6.6119 -1.1336 -1.8991 0.9725
-6.4153 -1.7010 -1.8789 0.9728
-6.1776 -2.2451 -1.8607 0.9730
-5.9012 -2.7636 -1.8447 0.9733
-5.5886 -3.2547 -1.8308 0.9735
-5.2419 -3.7166 -1.8191 0.9736
-4.8635 -4.1478 -1.8095 0.9738
-4.4555 -4.5468 -1.8022 0.9739
-3.0759 -5.5371 -1.7931 0.9740
-1.5077 -6.1909 -1.8038 0.9739
-0.3866 -6.4241 -1.8219 0.9736
0.1897 -6.4763 -1.8342 0.9734
0.7732 -6.4841 -1.8486 0.9732
1.3611 -6.4465 -1.8652 0.9730
1.9505 -6.3623 -1.8839 0.9727
2.5383 -6.2307 -1.9046 0.9724
6.2980 -3.9326 -2.1020 0.9696
7.5917 -0.1656 -2.1497 0.9689
7.6926 0.5206 -2.1827 0.9685
6.4042 3.6206 -2.0827 0.9699
5.6472 3.8962 -1.9423 0.9719
4.9802 4.1383 -1.8331 0.9734
4.3791 4.3557 -1.7485 0.9747
2.8148 4.9175 -1.6040 0.9767
2.3365 5.0879 -1.5850 0.9770
1.8654 5.2551 -1.5786 0.9771
0.9769 3.7986 -1.1104 0.9838
0.2015 2.7582 -0.7829 0.9886
-0.0476 2.8901 -0.8183 0.9881
-0.6522 6.1379 -1.7474 0.9747
-1.2553 6.3470 -1.8316 0.9735
-1.6276 5.5624 -1.6407 0.9762
-3.4482 6.9001 -2.1837 0.9684
-3.9892 6.4654 -2.1507 0.9689
-4.4794 5.9884 -2.1171 0.9694
-4.9162 5.4756 -2.0832 0.9699
-5.2982 4.9336 -2.0495 0.9704
-5.6244 4.3687 -2.0161 0.9708
-6.5760 3.4370 -2.1006 0.9696
-6.7566 2.7948 -2.0699 0.9701
-6.8722 2.1471 -2.0382 0.9705
-6.9390 0.8651 -1.9796 0.9713
-6.8007 -0.3727 -1.9281 0.9721
-6.4760 -1.5405 -1.8845 0.9727
-6.2498 -2.0915 -1.8657 0.9730
-5.9843 -2.6176 -1.8491 0.9732
-5.3447 -3.5872 -1.8222 0.9736
-3.6942 -5.1516 -1.7946 0.9740
-3.2169 -5.4564 -1.7931 0.9740
-2.1998 -5.9537 -1.7968 0.9740
-1.6643 -6.1438 -1.8020 0.9739
-0.5502 -6.4010 -1.8188 0.9736
5.1808 -4.9499 -2.0285 0.9707
5.6883 -4.5364 -2.0597 0.9702
6.1668 -4.0741 -2.0924 0.9697
2.3669 -1.0148 -0.7291 0.9894
6.8462 -2.2357 -2.0388 0.9705
7.1343 -1.6422 -2.0725 0.9700
7.6238 2.4431 -2.2663 0.9673
6.6425 3.5337 -2.1300 0.9692
5.8539 3.8210 -1.9790 0.9714
4.5459 4.2955 -1.7705 0.9743
2.0003 5.2073 -1.5792 0.9771
1.0658 3.7437 -1.1019 0.9839
1.0540 5.5415 -1.5969 0.9768
-0.4889 6.0811 -1.7271 0.9750
-1.0764 6.2850 -1.8051 0.9738
-2.4558 6.7612 -2.0364 0.9705
-3.8391 6.5947 -2.1602 0.9688
-4.3441 6.1292 -2.1267 0.9693
-4.7965 5.6260 -2.0929 0.9697
-5.5365 4.5327 -2.0256 0.9707
-2.7199 1.5116 -0.8809 0.9871
-6.7129 2.9805 -2.0793 0.9699
-6.8448 2.3328 -2.0472 0.9704
-6.9207 1.6868 -2.0165 0.9708
-6.9122 0.4172 -1.9604 0.9716
-6.8324 -0.1990 -1.9350 0.9720
-6.3189 -1.9359 -1.8709 0.9729
-6.0644 -2.4693 -1.8536 0.9731
-5.7723 -2.9764 -1.8385 0.9734
-5.4448 -3.4553 -1.8256 0.9735
-3.3561 -5.3727 -1.7933 0.9740
-2.8633 -5.6512 -1.7935 0.9740
-1.8195 -6.0934 -1.8003 0.9739
-1.2730 -6.2547 -1.8070 0.9738
-0.1419 -6.4517 -1.8269 0.9735
0.4377 -6.4851 -1.8401 0.9733
1.0234 -6.4737 -1.8554 0.9731
2.2015 -6.3121 -1.8925 0.9726
2.7876 -6.1599 -1.9141 0.9723
3.9373 -5.7089 -1.9632 0.9716
4.4931 -5.4091 -1.9906 0.9712
5.0306 -5.0594 -2.0198 0.9708
5.5455 -4.6601 -2.0506 0.9703
6.0328 -4.2116 -2.0829 0.9699
6.4876 -3.7152 -2.1164 0.9694
7.0567 -1.8161 -2.0628 0.9702
7.5054 -0.5496 -2.1304 0.9692
7.7157 0.8185 -2.1965 0.9683
7.5177 2.9493 -2.2861 0.9670
6.0686 3.7429 -2.0185 0.9708
5.3535 4.0029 -1.8923 0.9726
4.7170 4.2336 -1.7943 0.9740
4.1384 4.4426 -1.7188 0.9751
3.6685 4.7212 -1.6926 0.9755
3.1528 4.9061 -1.6509 0.9760
2.6095 4.9907 -1.5943 0.9769
2.1352 5.1594 -1.5807 0.9771
1.1710 3.7457 -1.1110 0.9838
0.7071 5.6634 -1.6157 0.9766
-0.9024 6.2247 -1.7806 0.9742
-1.8961 5.6694 -1.6923 0.9755
-3.1162 7.1277 -2.2022 0.9682
-3.6849 6.7204 -2.1697 0.9686
-4.2046 6.2669 -2.1364 0.9691
-5.0858 5.2478 -2.0688 0.9701
-5.7464 4.1223 -2.0021 0.9710
-2.6579 1.5676 -0.8736 0.9873
-6.6645 3.1660 -2.0887 0.9698
-6.9045 1.8716 -2.0252 0.9707
-6.9261 0.5966 -1.9680 0.9715
-6.8602 -0.0238 -1.9421 0.9719
-6.7464 -0.6283 -1.9181 0.9722
-6.5871 -1.2140 -1.8962 0.9725
-6.1413 -2.3189 -1.8584 0.9731
-5.5422 -3.3209 -1.8291 0.9735
-5.1910 -3.7786 -1.8176 0.9737
-4.8083 -4.2054 -1.8084 0.9738
-3.9574 -4.9605 -1.7964 0.9740
-1.4312 -6.2126 -1.8048 0.9738
-0.8749 -6.3444 -1.8131 0.9737
-0.3067 -6.4340 -1.8235 0.9736
0.2707 -6.4801 -1.8361 0.9734
0.8550 -6.4817 -1.8508 0.9732
2.0326 -6.3468 -1.8866 0.9727
2.6200 -6.2085 -1.9077 0.9724
3.2020 -6.0217 -1.9307 0.9720
4.3353 -5.5002 -1.9826 0.9713
5.4004 -4.7797 -2.0416 0.9705
5.8961 -4.3452 -2.0735 0.9700
6.7750 -3.3257 -2.1366 0.9691
7.2417 -1.3788 -2.0869 0.9698
7.4549 -0.7385 -2.1208 0.9693
7.7015 0.6178 -2.1872 0.9684
7.5649 2.7462 -2.2783 0.9671
6.2921 3.6614 -2.0609 0.9702
6.8412 -0.5868 -2.1119 0.9717
6.9651 0.0267 -2.1423 0.9713
6.6626 3.2249 -2.2767 0.9695
6.1664 3.6979 -2.2116 0.9704
5.4399 3.9628 -2.0701 0.9722
4.7952 4.1970 -1.9601 0.9737
3.2192 4.8748 -1.7968 0.9758
2.6731 4.9608 -1.7333 0.9767
1.7285 5.2964 -1.7136 0.9770
0.7746 5.6324 -1.7487 0.9765
-0.2525 5.9911 -1.8444 0.9752
-0.8184 6.1875 -1.9197 0.9742
-2.7646 6.5447 -2.1852 0.9707
-3.2932 6.1878 -2.1560 0.9711
-3.7789 5.7871 -2.1259 0.9715
-4.2188 5.3485 -2.0953 0.9719
-4.9527 4.3803 -2.0336 0.9727
-2.6544 1.6105 -0.9549 0.9871
-6.3671 1.8114 -2.0361 0.9727
-6.2727 -0.5054 -1.9356 0.9740
-6.1359 -1.0520 -1.9148 0.9743
-5.9579 -1.5797 -1.8959 0.9745
-5.4877 -2.5699 -1.8638 0.9750
-5.1996 -3.0282 -1.8507 0.9751
-4.5286 -3.8623 -1.8307 0.9754
-4.1499 -4.2350 -1.8237 0.9755
-2.8660 -5.1591 -1.8152 0.9756
-1.9077 -5.6009 -1.8199 0.9755
-1.4043 -5.7660 -1.8253 0.9755
-0.8875 -5.8924 -1.8328 0.9754
-0.3598 -5.9790 -1.8423 0.9752
0.7189 -6.0288 -1.8675 0.9749
1.2647 -5.9900 -1.8830 0.9747
1.8111 -5.9076 -1.9005 0.9745
2.3551 -5.7808 -1.9199 0.9742
2.8935 -5.6090 -1.9412 0.9739
3.4229 -5.3916 -1.9643 0.9736
3.9396 -5.1284 -1.9891 0.9733
4.4399 -4.8194 -2.0155 0.9729
5.8000 -3.6216 -2.1032 0.9718
2.3396 -0.9328 -0.7747 0.9895
6.9353 -0.1513 -2.1337 0.9714
6.8952 2.4062 -2.2462 0.9699
6.3940 3.6148 -2.2592 0.9697
4.9732 4.1325 -1.9888 0.9733
4.3732 4.3499 -1.8972 0.9745
3.8213 4.5491 -1.8274 0.9754
2.8114 4.9114 -1.7406 0.9766
2.3336 5.0817 -1.7200 0.9769
0.9800 3.8108 -1.2103 0.9837
0.9143 5.5834 -1.7402 0.9766
0.2020 2.7655 -0.8529 0.9885
-0.0473 2.8703 -0.8829 0.9881
-1.2535 6.3380 -1.9872 0.9733
-1.6256 5.5559 -1.7805 0.9761
-2.6056 6.6382 -2.1934 0.9706
-4.5032 5.0156 -2.0733 0.9722
-4.8597 4.5253 -2.0424 0.9726
-5.1659 4.0125 -2.0119 0.9730
-6.2297 2.5769 -2.0736 0.9722
-6.4198 0.8004 -1.9899 0.9733
-6.3849 0.2212 -1.9650 0.9736
-6.3041 -0.3455 -1.9419 0.9739
-6.0130 -1.4304 -1.9011 0.9745
-5.8072 -1.9434 -1.8835 0.9747
-5.2857 -2.8994 -1.8543 0.9751
-4.9743 -3.3386 -1.8427 0.9752
-4.6322 -3.7498 -1.8331 0.9754
-4.2613 -4.1313 -1.8255 0.9755
-3.8638 -4.4817 -1.8200 0.9755
-3.4418 -4.7997 -1.8166 0.9756
-2.0494 -5.5466 -1.8187 0.9756
-1.5501 -5.7225 -1.8236 0.9755
-0.5122 -5.9583 -1.8394 0.9753
0.5629 -6.0320 -1.8634 0.9750
1.6545 -5.9358 -1.8953 0.9745
2.1995 -5.8218 -1.9142 0.9743
3.2721 -5.4586 -1.9575 0.9737
4.7843 -4.5711 -2.0352 0.9727
5.6812 -3.7532 -2.0943 0.9719
6.0792 -3.2772 -2.1242 0.9715
2.3499 -1.0075 -0.7864 0.9894
6.2823 -2.0515 -2.0327 0.9727
6.9009 -0.3277 -2.1250 0.9715
7.0406 0.9300 -2.1844 0.9707
7.0186 1.5748 -2.2124 0.9703
6.7798 2.8625 -2.2636 0.9697
6.5614 3.4905 -2.2859 0.9694
5.8450 3.8152 -2.1469 0.9712
3.9756 4.4935 -1.8454 0.9752
3.5134 4.7692 -1.8220 0.9755
3.0053 4.9513 -1.7815 0.9761
2.4696 5.0333 -1.7245 0.9768
1.9978 5.2010 -1.7137 0.9770
1.0573 3.7137 -1.1877 0.9840
1.0527 5.5347 -1.7329 0.9767
-1.0749 6.2763 -1.9586 0.9737
-2.4435 6.7275 -2.2015 0.9705
-2.9949 6.3983 -2.1729 0.9709
-3.5057 6.0220 -2.1432 0.9713
-3.9722 5.6044 -2.1129 0.9717
-5.0832 4.1616 -2.0206 0.9729
-2.7163 1.5096 -0.9558 0.9871
-6.1837 2.7456 -2.0810 0.9721
-6.3165 2.1527 -2.0525 0.9725
-6.3318 -0.1844 -1.9484 0.9738
-5.3690 -2.7684 -1.8580 0.9750
-3.1270 -5.0059 -1.8154 0.9756
-2.6678 -5.2654 -1.8155 0.9756
-2.1897 -5.4892 -1.8177 0.9756
-1.6949 -5.6759 -1.8220 0.9755
-1.1855 -5.8247 -1.8283 0.9754
-0.1321 -6.0036 -1.8470 0.9752
1.4977 -5.9603 -1.8902 0.9746
2.5855 -5.7131 -1.9288 0.9741
3.6449 -5.2850 -1.9747 0.9735
4.6471 -4.6737 -2.0272 0.9728
5.9713 -3.4195 -2.1165 0.9716
5.8900 -2.7061 -1.9937 0.9732
6.2008 -2.2024 -2.0240 0.9728
6.6910 -1.0969 -2.0855 0.9720
6.8618 -0.5025 -2.1162 0.9716
7.0354 0.7463 -2.1761 0.9708
7.0314 1.3894 -2.2045 0.9705
6.9636 2.0362 -2.2315 0.9701
6.8303 2.6796 -2.2567 0.9698
6.6308 3.3122 -2.2798 0.9695
6.0592 3.7371 -2.1896 0.9706
3.6638 4.7152 -1.8366 0.9753
2.6063 4.9846 -1.7301 0.9767
1.1901 5.4864 -1.7267 0.9768
-1.8919 5.6566 -1.8346 0.9753
-3.3636 6.1344 -2.1518 0.9711
-4.2764 5.2846 -2.0910 0.9720
-4.6613 4.8097 -2.0601 0.9724
-6.1299 2.9121 -2.0874 0.9720
-6.2848 2.3234 -2.0609 0.9723
-6.4183 1.1369 -2.0048 0.9731
-6.4106 0.5522 -1.9791 0.9734
-6.1134 -1.1267 -1.9120 0.9743
-5.4495 -2.6354 -1.8619 0.9750
-4.4775 -3.9161 -1.8296 0.9754
-4.0950 -4.2845 -1.8229 0.9755
-3.6868 -4.6213 -1.8183 0.9756
-3.2550 -4.9251 -1.8158 0.9756
-2.3287 -5.4287 -1.8169 0.9756
-1.8384 -5.6262 -1.8205 0.9755
-1.3329 -5.7860 -1.8263 0.9755
-0.2855 -5.9879 -1.8438 0.9752
3.4958 -5.3577 -1.9677 0.9736
4.9846 -4.4117 -2.0474 0.9725
5.4356 -4.0059 -2.0769 0.9721
6.6324 -1.2627 -2.0766 0.9721
6.8183 -0.6755 -2.1074 0.9717
7.0390 1.2042 -2.1965 0.9706
6.2822 3.6556 -2.2356 0.9700
6.4524 1.1916 -2.1811 0.9727
6.3919 1.7828 -2.2058 0.9724
6.2722 2.3709 -2.2289 0.9721
6.0927 2.9491 -2.2500 0.9719
5.8538 3.5104 -2.2689 0.9716
3.6652 4.5976 -1.9545 0.9755
2.6698 4.9546 -1.8708 0.9766
2.1770 5.0802 -1.8372 0.9770
1.2234 3.7487 -1.3108 0.9835
1.2549 5.4563 -1.8611 0.9767
-0.2521 5.9832 -1.9906 0.9751
-0.8173 6.1790 -2.0718 0.9741
-1.4355 6.3923 -2.1778 0.9728
-1.7927 5.5908 -1.9516 0.9756
-2.5369 6.0055 -2.1671 0.9729
-3.0252 5.6843 -2.1404 0.9732
-3.4754 5.3223 -2.1129 0.9736
-3.8844 4.9245 -2.0849 0.9739
-4.2501 4.4962 -2.0566 0.9743
-4.8455 3.5683 -2.0003 0.9750
-2.6577 1.6125 -1.0333 0.9870
-5.2559 2.5777 -1.9459 0.9756
-5.8085 2.2300 -2.0682 0.9741
-5.9085 1.6809 -2.0419 0.9744
-5.9240 0.0533 -1.9692 0.9753
-5.7184 -0.9804 -1.9285 0.9758
-5.5563 -1.4732 -1.9108 0.9761
-5.3574 -1.9470 -1.8948 0.9763
-3.8801 -3.9597 -1.8428 0.9769
-1.7839 -5.2375 -1.8392 0.9769
-0.8295 -5.5075 -1.8514 0.9768
-0.3362 -5.5866 -1.8604 0.9767
0.6711 -5.6281 -1.8841 0.9764
1.1800 -5.5888 -1.8987 0.9762
1.6887 -5.5085 -1.9152 0.9760
2.1944 -5.3865 -1.9334 0.9758
2.6941 -5.2224 -1.9533 0.9755
3.1844 -5.0159 -1.9749 0.9753
3.6619 -4.7669 -1.9981 0.9750
4.1230 -4.4754 -2.0227 0.9747
4.5640 -4.1420 -2.0487 0.9744
4.9808 -3.7674 -2.0759 0.9740
5.3694 -3.3527 -2.1042 0.9737
5.7109 -2.8922 -2.1279 0.9734
2.3393 -0.9327 -0.8371 0.9894
5.8680 -1.7511 -2.0356 0.9745
6.0844 -1.2372 -2.0639 0.9742
6.2550 -0.6985 -2.0921 0.9738
6.4452 0.4362 -2.1473 0.9731
6.4153 1.6133 -2.1989 0.9725
6.3126 2.2029 -2.2224 0.9722
6.1503 2.7846 -2.2442 0.9719
5.9283 3.3515 -2.2637 0.9717
5.6303 3.8845 -2.2737 0.9716
4.3672 4.3440 -2.0475 0.9744
2.8079 4.9053 -1.8788 0.9765
2.3308 5.0755 -1.8565 0.9767
1.8609 5.2423 -1.8491 0.9768
0.2027 2.7752 -0.9250 0.9883
-0.6504 6.1213 -2.0462 0.9744
-1.2517 6.3290 -2.1445 0.9732
-1.6238 5.5496 -1.9221 0.9759
-2.8889 5.7808 -2.1482 0.9731
-4.1497 4.6219 -2.0647 0.9742
-4.4835 4.1750 -2.0364 0.9745
-4.7715 3.7062 -2.0083 0.9749
-5.7654 2.3848 -2.0739 0.9740
-5.9493 1.2894 -2.0235 0.9747
-5.9671 0.7439 -1.9988 0.9750
-5.9399 0.2058 -1.9756 0.9753
-5.8695 -0.3217 -1.9540 0.9755
-5.7578 -0.8358 -1.9340 0.9758
-5.1941 -2.2719 -1.8845 0.9764
-4.9366 -2.7079 -1.8716 0.9765
-3.9840 -3.8624 -1.8445 0.9769
-3.6131 -4.1909 -1.8393 0.9769
-0.9693 -5.4778 -1.8492 0.9768
-0.4786 -5.5678 -1.8576 0.9767
0.0205 -5.6195 -1.8679 0.9766
0.5255 -5.6319 -1.8802 0.9764
2.0498 -5.4258 -1.9280 0.9758
2.5516 -5.2738 -1.9474 0.9756
3.0449 -5.0795 -1.9686 0.9753
3.9927 -4.5633 -2.0155 0.9748
4.4398 -4.2419 -2.0411 0.9744
4.8640 -3.8790 -2.0680 0.9741
5.6198 -3.0296 -2.1222 0.9734
2.3443 -1.0051 -0.8479 0.9893
6.2110 -0.8553 -2.0840 0.9739
6.3468 -0.3014 -2.1121 0.9736
6.4310 0.2698 -2.1396 0.9732
6.4338 1.4436 -2.1918 0.9726
6.3481 2.0343 -2.2159 0.9723
6.2030 2.6190 -2.2381 0.9720
5.9980 3.1908 -2.2584 0.9718
5.7342 3.7429 -2.2762 0.9715
5.1490 4.0600 -2.1796 0.9727
3.9703 4.4875 -1.9917 0.9751
3.4453 4.6767 -1.9309 0.9758
2.9814 4.9120 -1.9100 0.9761
1.0164 3.5702 -1.2339 0.9845
1.0514 5.5279 -1.8704 0.9766
0.0244 2.6588 -0.8839 0.9889
-1.4799 5.5855 -1.9207 0.9759
-3.2220 5.5346 -2.1288 0.9734
-3.6549 5.1568 -2.1010 0.9737
-4.3924 4.3056 -2.0445 0.9744
-4.6936 3.8426 -2.0163 0.9748
-4.9486 3.3612 -1.9885 0.9751
-2.7128 1.5076 -1.0316 0.9870
-5.3195 2.3619 -1.9347 0.9758
-5.8581 1.9965 -2.0572 0.9742
-5.9358 1.4467 -2.0308 0.9746
-5.9666 0.8998 -2.0058 0.9749
-5.7939 -0.6898 -1.9395 0.9757
-4.4238 -3.3971 -1.8540 0.9768
-3.7220 -4.0997 -1.8406 0.9769
-3.3342 -4.4065 -1.8368 0.9770
-2.9246 -4.6819 -1.8350 0.9770
-2.4951 -4.9245 -1.8351 0.9770
-1.5848 -5.3073 -1.8411 0.9769
-0.6203 -5.5459 -1.8550 0.9768
-0.1234 -5.6086 -1.8648 0.9766
0.8879 -5.6163 -1.8901 0.9763
1.3970 -5.5596 -1.9055 0.9761
1.9048 -5.4616 -1.9227 0.9759
2.9044 -5.1396 -1.9624 0.9754
3.3897 -4.9150 -1.9846 0.9751
4.3137 -4.3384 -2.0337 0.9745
4.7449 -3.9873 -2.0602 0.9742
5.1502 -3.5954 -2.0879 0.9739
5.5254 -3.1642 -2.1165 0.9735
5.4441 -2.5012 -1.9915 0.9751
6.3129 -0.4623 -2.1041 0.9737
6.4123 0.1045 -2.1318 0.9733
6.4580 0.6851 -2.1587 0.9730
5.8158 3.5870 -2.2713 0.9716
4.7039 4.2218 -2.1010 0.9737
3.5927 4.6237 -1.9464 0.9756
3.1058 4.8330 -1.9096 0.9761
2.6031 4.9784 -1.8674 0.9766
2.1300 5.1468 -1.8516 0.9768
1.1886 5.4796 -1.8638 0.9766
0.0917 2.6343 -0.8762 0.9890
-0.3283 6.0096 -2.0006 0.9749
-0.8999 6.2076 -2.0850 0.9739
-1.5269 6.4238 -2.1948 0.9726
-1.8880 5.6449 -1.9786 0.9752
-2.6071 5.9633 -2.1634 0.9729
-4.6119 3.9775 -2.0244 0.9747
-4.8802 3.5009 -1.9964 0.9750
-2.6593 1.5685 -1.0263 0.9871
-5.2777 2.5072 -1.9422 0.9757
-5.8269 2.1541 -2.0650 0.9742
-5.9183 1.6043 -2.0383 0.9745
-5.9625 1.0562 -2.0128 0.9748
-5.9150 -0.0205 -1.9662 0.9754
-5.3268 -2.0114 -1.8927 0.9763
-5.0883 -2.4607 -1.8788 0.9765
-4.8172 -2.8865 -1.8667 0.9766
-3.8289 -4.0061 -1.8420 0.9769
-3.4478 -4.3217 -1.8377 0.9770
-3.0442 -4.6062 -1.8353 0.9770
-1.7191 -5.2610 -1.8398 0.9769
-1.2462 -5.4093 -1.8452 0.9769
0.2352 -5.6296 -1.8729 0.9765
1.7595 -5.4940 -1.9176 0.9760
3.7273 -4.7288 -2.0015 0.9749
4.1858 -4.4314 -2.0263 0.9746
5.7540 -2.8245 -2.1307 0.9733
2.3639 -0.9085 -0.8418 0.9894
6.2749 -0.6216 -2.0960 0.9738
6.3892 -0.0597 -2.1239 0.9734
6.4505 0.5174 -2.1511 0.9731
6.4563 1.1045 -2.1773 0.9728
6.2936 2.2847 -2.2256 0.9722
5.8927 3.4290 -2.2663 0.9717
5.9158 0.0226 -2.1156 0.9752
5.9593 0.5571 -2.1404 0.9749
5.9515 1.0991 -2.1643 0.9746
5.8905 1.6430 -2.1869 0.9744
5.7754 2.1831 -2.2080 0.9741
5.6059 2.7135 -2.2272 0.9739
5.1064 3.7199 -2.2593 0.9735
3.4740 4.3577 -1.9930 0.9766
3.0761 4.6581 -1.9962 0.9766
1.2534 5.4494 -1.9996 0.9765
0.7727 5.6182 -2.0280 0.9762
-0.2518 5.9751 -2.1386 0.9749
-0.8129 6.1460 -2.2170 0.9740
-1.7899 5.5819 -2.0963 0.9754
-2.3411 5.5420 -2.1514 0.9748
-2.7944 5.2506 -2.1270 0.9750
-3.5952 4.5578 -2.0759 0.9756
-3.9376 4.1656 -2.0498 0.9759
-2.6612 1.6146 -1.1131 0.9869
-5.5578 1.0561 -2.0231 0.9763
-5.5666 0.5495 -2.0003 0.9765
-5.5338 0.0498 -1.9790 0.9768
-5.4606 -0.4400 -1.9591 0.9770
-5.3489 -0.9170 -1.9407 0.9772
-4.8003 -2.2480 -1.8955 0.9777
-3.9702 -3.3860 -1.8660 0.9781
-3.6399 -3.7145 -1.8598 0.9781
-2.5152 -4.5277 -1.8522 0.9782
-1.6737 -4.9138 -1.8564 0.9782
-1.2315 -5.0568 -1.8612 0.9781
-0.3152 -5.2376 -1.8764 0.9780
0.6287 -5.2723 -1.8988 0.9777
1.5803 -5.1549 -1.9281 0.9774
2.0523 -5.0377 -1.9453 0.9772
4.2520 -3.8589 -2.0534 0.9759
4.6361 -3.5067 -2.0788 0.9756
5.3030 -2.6857 -2.1257 0.9751
2.3390 -0.9326 -0.9005 0.9894
5.6355 -1.1459 -2.0566 0.9759
5.7877 -0.6463 -2.0826 0.9756
5.9520 0.4028 -2.1334 0.9750
5.9135 1.4871 -2.1805 0.9744
5.6601 2.5627 -2.2219 0.9740
5.1909 3.5814 -2.2552 0.9736
4.8785 4.0539 -2.2683 0.9734
4.3612 4.3380 -2.1997 0.9742
3.1935 4.5761 -1.9955 0.9766
2.8043 4.8991 -2.0187 0.9763
0.9658 3.7558 -1.3868 0.9837
0.9120 5.5694 -2.0182 0.9763
-1.1951 6.0425 -2.2027 0.9742
-2.2052 5.6180 -2.1583 0.9747
-3.0969 5.0192 -2.1091 0.9753
-3.4896 4.6652 -2.0834 0.9756
-3.8435 4.2808 -2.0573 0.9759
-4.1568 3.8708 -2.0312 0.9762
-4.8433 2.5314 -1.9543 0.9771
-5.4828 1.7130 -2.0541 0.9759
-5.5473 1.2022 -2.0298 0.9762
-5.3848 -0.7816 -1.9458 0.9772
-4.8657 -2.1283 -1.8992 0.9777
-4.3574 -2.9246 -1.8767 0.9780
-4.0603 -3.2869 -1.8681 0.9781
-3.3898 -3.9319 -1.8565 0.9782
-2.6305 -4.4617 -1.8522 0.9782
-0.9091 -5.1376 -1.8658 0.9781
0.0192 -5.2671 -1.8836 0.9779
0.9682 -5.2482 -1.9085 0.9776
1.4442 -5.1813 -1.9235 0.9774
2.8444 -4.7450 -1.9784 0.9768
3.7239 -4.2561 -2.0224 0.9763
4.1374 -3.9530 -2.0463 0.9760
4.5286 -3.6115 -2.0714 0.9757
2.3387 -1.0027 -0.9100 0.9892
5.8685 -0.2787 -2.1010 0.9754
5.2711 3.4407 -2.2510 0.9736
4.9732 3.9214 -2.2648 0.9735
3.3083 4.4908 -1.9947 0.9766
1.0114 3.5526 -1.3209 0.9844
1.0501 5.5209 -2.0097 0.9764
0.0242 2.6413 -0.9446 0.9888
-0.4869 6.0566 -2.1729 0.9745
-3.3808 4.7700 -2.0908 0.9755
-3.7461 4.3939 -2.0648 0.9758
-4.0711 3.9908 -2.0387 0.9761
-4.5959 3.1216 -1.9868 0.9767
-2.7101 1.5061 -1.1088 0.9869
-5.4540 1.8587 -2.0605 0.9758
-5.5333 1.3486 -2.0367 0.9761
-5.5576 0.3354 -1.9911 0.9766
-5.4176 -0.6450 -1.9511 0.9771
-5.2900 -1.1159 -1.9334 0.9773
-5.1264 -1.5706 -1.9173 0.9775
-4.9285 -2.0068 -1.9030 0.9776
-3.8324 -3.5294 -1.8631 0.9781
-3.1284 -4.1345 -1.8541 0.9782
-2.7443 -4.3932 -1.8523 0.9782
-2.3412 -4.6209 -1.8524 0.9782
-1.4867 -4.9790 -1.8582 0.9782
-0.5817 -5.2004 -1.8713 0.9780
-0.1157 -5.2575 -1.8806 0.9779
0.8316 -5.2602 -1.9045 0.9776
1.7821 -5.1098 -1.9352 0.9773
3.6016 -4.3360 -2.0157 0.9763
4.0209 -4.0439 -2.0393 0.9761
4.4188 -3.7133 -2.0641 0.9758
4.7919 -3.3453 -2.0899 0.9755
5.1328 -2.9393 -2.1152 0.9752
5.0706 -2.3297 -1.9955 0.9766
5.3108 -1.8863 -2.0154 0.9763
5.5287 -1.4228 -2.0415 0.9760
5.7058 -0.9354 -2.0677 0.9757
5.9462 1.1749 -2.1675 0.9746
5.7550 2.2578 -2.2108 0.9741
5.3471 3.2979 -2.2466 0.9737
4.6973 4.2159 -2.2571 0.9735
4.1218 4.4248 -2.1625 0.9746
3.4205 4.4021 -1.9936 0.9766
3.0182 4.6966 -1.9965 0.9766
2.5998 4.9722 -2.0065 0.9764
2.1274 5.1404 -1.9895 0.9766
1.1750 3.7584 -1.4082 0.9834
1.1871 5.4727 -2.0026 0.9765
0.7044 5.6421 -2.0333 0.9761
-0.8884 6.1279 -2.2143 0.9740
-1.8841 5.6333 -2.1242 0.9751
-3.2689 4.8723 -2.0982 0.9754
-3.6453 4.5048 -2.0723 0.9757
-4.2777 3.6893 -2.0201 0.9763
-4.5311 3.2504 -1.9942 0.9766
-4.9097 2.3324 -1.9438 0.9772
-5.4181 2.0030 -2.0657 0.9758
-5.5645 0.4793 -1.9973 0.9766
-5.4473 -0.5073 -1.9564 0.9770
-5.3304 -0.9824 -1.9383 0.9772
-5.1769 -1.4420 -1.9218 0.9774
-4.9887 -1.8837 -1.9069 0.9776
-4.5154 -2.7056 -1.8824 0.9779
-3.9256 -3.4335 -1.8650 0.9781
-2.4586 -4.5588 -1.8522 0.9782
-2.0434 -4.7637 -1.8536 0.9782
0.2204 -5.2757 -1.8883 0.9778
0.6950 -5.2691 -1.9006 0.9777
1.6464 -5.1409 -1.9304 0.9773
2.5822 -4.8560 -1.9668 0.9769
3.0367 -4.6541 -1.9873 0.9767
3.9026 -4.1316 -2.0324 0.9761
4.6877 -3.4546 -2.0824 0.9756
4.9759 -2.4425 -1.9822 0.9767
2.3660 -0.9093 -0.9064 0.9893
5.4703 -1.5584 -2.0340 0.9761
5.6594 -1.0775 -2.0602 0.9758
5.9052 -0.0552 -2.1118 0.9752
5.9561 0.4778 -2.1368 0.9749
5.9028 1.5629 -2.1836 0.9744
5.6343 2.6361 -2.2245 0.9739
5.4188 3.1532 -2.2420 0.9737
5.4108 -0.4641 -2.0811 0.9770
5.4923 0.0210 -2.1047 0.9767
5.5280 0.5168 -2.1277 0.9765
5.4556 1.5217 -2.1705 0.9760
4.9754 2.9837 -2.2232 0.9755
4.7179 3.4369 -2.2368 0.9753
4.4143 3.8637 -2.2481 0.9752
2.9619 4.4851 -2.0597 0.9772
1.2518 5.4425 -2.1401 0.9764
0.7717 5.6109 -2.1704 0.9760
-1.7205 5.3656 -2.1593 0.9762
-2.9847 4.5708 -2.0920 0.9769
-3.6638 3.8760 -2.0439 0.9774
-2.6646 1.6167 -1.1944 0.9867
-4.5648 2.2387 -1.9484 0.9785
-4.6913 1.8011 -1.9257 0.9787
-5.2018 0.9884 -2.0291 0.9776
-5.0194 -0.8605 -1.9516 0.9784
-4.7126 -1.7126 -1.9215 0.9788
-4.5110 -2.1125 -1.9089 0.9789
-4.2796 -2.4924 -1.8979 0.9790
-4.0201 -2.8504 -1.8885 0.9791
-3.7345 -3.1850 -1.8809 0.9792
-3.0919 -3.7780 -1.8709 0.9793
-2.7388 -4.0338 -1.8684 0.9793
-1.9782 -4.4576 -1.8689 0.9793
-1.1586 -4.7573 -1.8764 0.9792
-0.7317 -4.8581 -1.8827 0.9792
0.5907 -4.9541 -1.9120 0.9789
1.4836 -4.8393 -1.9397 0.9786
2.3611 -4.5769 -1.9736 0.9782
3.2002 -4.1658 -2.0131 0.9777
3.5976 -3.9051 -2.0348 0.9775
4.9442 -2.5039 -2.1238 0.9765
5.0657 -1.5117 -2.0259 0.9776
5.3793 -0.6007 -2.0743 0.9771
5.4735 -0.1194 -2.0980 0.9768
5.5225 0.3738 -2.1212 0.9766
5.3819 1.8781 -2.1844 0.9759
3.5803 4.2621 -2.1331 0.9764
2.8007 4.8928 -2.1605 0.9761
2.3249 5.0627 -2.1349 0.9764
0.9108 5.5622 -2.1599 0.9761
0.2021 2.7667 -1.0631 0.9882
-0.0954 5.7907 -2.2194 0.9755
-0.6075 5.7169 -2.2031 0.9757
-2.4752 4.9530 -2.1219 0.9766
-2.8758 4.6608 -2.0987 0.9768
-3.2433 4.3359 -2.0750 0.9771
-3.5754 3.9822 -2.0509 0.9773
-2.8287 1.4785 -1.2232 0.9864
-5.2145 0.6501 -2.0137 0.9777
-5.1437 -0.2819 -1.9741 0.9782
-4.9253 -1.1717 -1.9402 0.9785
-4.7647 -1.5945 -1.9254 0.9787
-4.3489 -2.3856 -1.9008 0.9790
-2.8421 -3.9633 -1.8690 0.9793
-2.4754 -4.1986 -1.8678 0.9793
-2.0913 -4.4043 -1.8684 0.9793
-1.6919 -4.5791 -1.8708 0.9793
-1.2792 -4.7222 -1.8749 0.9793
1.7994 -4.7627 -1.9511 0.9784
3.0831 -4.2339 -2.0071 0.9778
3.8695 -3.6970 -2.0509 0.9773
4.2320 -3.3750 -2.0744 0.9771
4.5695 -3.0188 -2.0987 0.9768
5.0080 -1.6354 -2.0189 0.9777
5.4510 -0.2589 -2.0913 0.9769
5.5132 0.2313 -2.1146 0.9766
5.4146 1.7351 -2.1789 0.9759
4.2716 4.0363 -2.2522 0.9751
0.2797 2.8287 -1.0893 0.9879
0.0242 2.6378 -1.0109 0.9888
-0.4617 5.7432 -2.2080 0.9756
-1.4510 5.4764 -2.1711 0.9760
-1.9156 5.2741 -2.1503 0.9763
-2.3546 5.0301 -2.1284 0.9765
-2.7641 4.7482 -2.1055 0.9767
-3.1414 4.4322 -2.0819 0.9770
-3.4838 4.0863 -2.0578 0.9773
-4.0571 3.3215 -2.0093 0.9778
-4.2855 2.9108 -1.9853 0.9781
-5.2118 0.7859 -2.0198 0.9777
-5.1632 -0.1504 -1.9795 0.9781
-5.0822 -0.6051 -1.9613 0.9783
-4.4159 -2.2770 -1.9040 0.9789
-3.6052 -3.3201 -1.8782 0.9792
-3.2853 -3.6188 -1.8730 0.9793
-2.5824 -4.1341 -1.8680 0.9793
-2.2031 -4.3484 -1.8680 0.9793
-1.8080 -4.5322 -1.8699 0.9793
-1.3988 -4.6845 -1.8735 0.9793
-0.5471 -4.8908 -1.8859 0.9791
0.3348 -4.9603 -1.9052 0.9789
1.2281 -4.8872 -1.9311 0.9786
1.6726 -4.7958 -1.9464 0.9785
2.5439 -4.5017 -1.9815 0.9781
3.3717 -4.0591 -2.0222 0.9776
4.1304 -3.4710 -2.0675 0.9772
4.4754 -3.1244 -2.0917 0.9769
4.9474 -1.7572 -2.0120 0.9778
5.1458 -1.3243 -2.0362 0.9775
5.3059 -0.8699 -2.0605 0.9772
5.4248 -0.3973 -2.0845 0.9770
5.5293 0.5865 -2.1308 0.9765
5.5107 1.0889 -2.1526 0.9762
5.4432 1.5916 -2.1733 0.9760
5.3258 2.0894 -2.1924 0.9758
4.3685 3.9208 -2.2495 0.9752
4.0160 4.3112 -2.2579 0.9751
3.3706 4.3379 -2.1052 0.9767
2.8972 4.5083 -2.0537 0.9773
2.1247 5.1339 -2.1292 0.9765
1.1534 3.6896 -1.4814 0.9836
1.1856 5.4658 -2.1433 0.9763
0.7035 5.6348 -2.1761 0.9760
0.0959 2.7550 -1.0564 0.9883
-0.3150 5.7654 -2.2127 0.9756
-1.3136 5.5263 -2.1768 0.9760
-1.7848 5.3365 -2.1564 0.9762
-2.6498 4.8327 -2.1121 0.9767
-3.0366 4.5261 -2.0887 0.9769
-4.2240 3.0302 -1.9922 0.9780
-2.6620 1.5701 -1.1844 0.9868
-5.0569 1.8695 -2.0661 0.9772
-5.1590 1.3985 -2.0484 0.9774
-5.2059 0.9221 -2.0260 0.9776
-5.1796 -0.0180 -1.9849 0.9781
-4.6864 -1.7695 -1.9197 0.9788
-3.6927 -3.2297 -1.8800 0.9792
-2.6880 -4.0672 -1.8683 0.9793
-1.9228 -4.4826 -1.8692 0.9793
-1.5175 -4.6441 -1.8723 0.9793
-1.0997 -4.7733 -1.8771 0.9792
-0.2351 -4.9316 -1.8920 0.9791
0.2072 -4.9590 -1.9020 0.9790
0.6530 -4.9508 -1.9137 0.9788
1.1000 -4.9066 -1.9270 0.9787
1.5455 -4.8258 -1.9418 0.9785
2.4211 -4.5531 -1.9762 0.9782
2.8454 -4.3609 -1.9954 0.9779
3.6516 -3.8658 -2.0379 0.9775
4.0269 -3.5640 -2.0608 0.9772
4.7042 -2.8565 -2.1091 0.9767
4.6406 -2.2779 -1.9811 0.9781
5.0927 -1.4508 -2.0292 0.9776
5.2640 -1.0022 -2.0535 0.9773
5.3951 -0.5345 -2.0776 0.9770
5.4831 -0.0513 -2.1013 0.9768
5.5257 0.4432 -2.1243 0.9765
5.5210 0.9445 -2.1465 0.9763
5.4676 1.4477 -2.1675 0.9761
5.1489 0.4814 -2.1165 0.9779
5.1342 0.9482 -2.1369 0.9777
4.9686 1.8781 -2.1740 0.9773
4.6199 2.7705 -2.2048 0.9770
4.3789 3.1899 -2.2173 0.9769
3.7729 3.9503 -2.2357 0.9767
3.3733 4.2315 -2.2148 0.9769
2.1587 5.0375 -2.2431 0.9766
0.7398 5.3792 -2.2223 0.9768
-0.2260 5.3635 -2.1971 0.9771
-0.6990 5.2844 -2.1816 0.9772
-1.1587 5.1600 -2.1644 0.9774
-2.0213 4.7849 -2.1259 0.9778
-2.7832 4.2622 -2.0834 0.9782
-3.9221 2.8883 -1.9935 0.9792
-4.2764 2.0973 -1.9494 0.9796
-4.8256 1.3729 -2.0534 0.9785
-1.9071 0.0172 -0.7806 0.9918
-1.9560 -0.1576 -0.8031 0.9916
-4.5968 -1.2189 -1.9464 0.9797
-4.2504 -1.9905 -1.9209 0.9799
-4.0337 -2.3492 -1.9105 0.9800
-3.2299 -3.2962 -1.8888 0.9803
-2.9167 -3.5639 -1.8848 0.9803
-2.5837 -3.8054 -1.8825 0.9803
-2.2329 -4.0196 -1.8819 0.9803
-1.4855 -4.3613 -1.8857 0.9803
-1.0927 -4.4869 -1.8900 0.9802
-0.2794 -4.6430 -1.9037 0.9801
0.1369 -4.6721 -1.9130 0.9800
0.5566 -4.6675 -1.9238 0.9799
1.8118 -4.4473 -1.9654 0.9795
2.2203 -4.3041 -1.9821 0.9793
2.6193 -4.1258 -2.0002 0.9791
3.0058 -3.9128 -2.0194 0.9789
3.7294 -3.3846 -2.0612 0.9785
2.3385 -0.9324 -1.0304 0.9892
4.8952 -0.9954 -2.0445 0.9786
5.1448 0.3482 -2.1105 0.9780
5.1430 0.8140 -2.1311 0.9777
5.0962 1.2816 -2.1507 0.9775
4.1811 3.4743 -2.2249 0.9768
3.8693 3.8487 -2.2336 0.9767
3.4855 4.1493 -2.2179 0.9769
1.8310 5.1580 -2.2401 0.9766
1.3594 5.2861 -2.2339 0.9767
0.8786 5.3655 -2.2252 0.9768
0.2017 2.7612 -1.1331 0.9881
-0.5644 5.3118 -2.1862 0.9772
-1.4761 5.0448 -2.1513 0.9775
-2.3058 4.6141 -2.1111 0.9780
-2.6810 4.3452 -2.0897 0.9782
-3.3384 3.7183 -2.0452 0.9786
-3.8592 2.9975 -1.9999 0.9791
-2.5900 1.6638 -1.2599 0.9868
-2.7471 1.4358 -1.2686 0.9867
-4.7991 1.4994 -2.0578 0.9785
-1.9529 0.2435 -0.8055 0.9915
-1.9439 -0.1065 -0.7968 0.9916
-1.9442 -0.2822 -0.8041 0.9915
-4.6364 -1.1029 -1.9505 0.9796
-4.4872 -1.5016 -1.9366 0.9798
-4.3074 -1.8841 -1.9242 0.9799
-3.8627 -2.5925 -1.9040 0.9801
-3.6012 -2.9152 -1.8963 0.9802
-3.3159 -3.2147 -1.8902 0.9802
-2.6811 -3.7389 -1.8830 0.9803
-2.3353 -3.9610 -1.8819 0.9803
-0.3979 -4.6286 -1.9014 0.9801
2.1040 -4.3487 -1.9772 0.9793
2.8964 -3.9775 -2.0138 0.9790
3.2722 -3.7399 -2.0338 0.9788
4.2809 -2.8282 -2.0999 0.9781
4.5542 -2.4551 -2.1175 0.9779
4.8526 -1.1170 -2.0380 0.9787
5.0831 -0.2414 -2.0827 0.9782
5.1481 0.6800 -2.1253 0.9778
5.1143 1.1475 -2.1452 0.9776
4.9095 2.0729 -2.1811 0.9772
4.2632 3.3615 -2.2220 0.9768
3.6240 4.0961 -2.2384 0.9766
3.2120 4.3601 -2.2164 0.9769
2.4157 4.9234 -2.2445 0.9766
1.9638 5.1125 -2.2415 0.9766
1.0172 5.3477 -2.2279 0.9767
0.0243 2.6466 -1.0832 0.9886
-0.4289 5.3355 -2.1907 0.9771
-0.8969 5.2368 -2.1745 0.9773
-1.3496 5.0937 -2.1566 0.9775
-1.7830 4.9088 -2.1375 0.9777
-2.1930 4.6850 -2.1171 0.9779
-2.5764 4.4257 -2.0959 0.9781
-3.2522 3.8147 -2.0516 0.9786
-3.5404 3.4704 -2.0290 0.9788
-3.7933 3.1055 -2.0064 0.9790
-4.3328 1.9238 -1.9403 0.9797
-4.4388 1.5128 -1.9193 0.9799
-4.8581 1.1840 -2.0465 0.9786
-1.9470 0.1175 -0.7983 0.9916
-4.6734 -0.9858 -1.9548 0.9796
-4.3620 -1.7761 -1.9276 0.9799
-3.0989 -3.4134 -1.8869 0.9803
-2.4362 -3.9001 -1.8821 0.9803
-2.0784 -4.1022 -1.8821 0.9803
-1.3194 -4.4186 -1.8873 0.9803
-0.9222 -4.5309 -1.8924 0.9802
0.7359 -4.6552 -1.9289 0.9798
1.5742 -4.5136 -1.9564 0.9796
1.9869 -4.3905 -1.9724 0.9794
2.7858 -4.0393 -2.0082 0.9790
3.1661 -3.8116 -2.0280 0.9788
3.5296 -3.5498 -2.0488 0.9786
3.8732 -3.2548 -2.0706 0.9784
4.1937 -2.9277 -2.0933 0.9781
4.4103 -2.0262 -1.9864 0.9792
5.0598 -0.3705 -2.0764 0.9783
4.9502 1.9421 -2.1763 0.9773
4.7922 2.3938 -2.1924 0.9771
4.5889 2.8303 -2.2066 0.9770
4.0530 3.6376 -2.2289 0.9767
3.7249 3.9987 -2.2366 0.9767
3.3212 4.2743 -2.2154 0.9769
2.8933 4.5024 -2.1904 0.9771
2.0953 5.0630 -2.2426 0.9766
1.1460 3.6657 -1.5719 0.9835
1.1552 5.3259 -2.2304 0.9767
0.6722 5.3844 -2.2208 0.9768
0.0958 2.7523 -1.1271 0.9882
-0.7640 5.2697 -2.1793 0.9772
-1.6609 4.9659 -2.1431 0.9776
-2.0780 4.7530 -2.1231 0.9778
-3.1632 3.9090 -2.0581 0.9785
-3.4612 3.5715 -2.0355 0.9787
-2.6246 1.5480 -1.2471 0.9869
-4.4122 1.6311 -1.9252 0.9799
-4.8374 1.3113 -2.0513 0.9786
-2.1571 0.3821 -0.8966 0.9906
-1.9577 0.1686 -0.8042 0.9915
-1.9014 -0.0066 -0.7782 0.9918
-2.1860 -0.4029 -0.9097 0.9904
-4.5767 -1.2748 -1.9444 0.9797
-4.4142 -1.6668 -1.9311 0.9798
-4.2218 -2.0417 -1.9193 0.9799
-3.7542 -2.7328 -1.9005 0.9801
-2.8714 -3.5992 -1.8844 0.9803
-2.5358 -3.8369 -1.8823 0.9803
-2.1827 -4.0472 -1.8819 0.9803
-1.4314 -4.3806 -1.8862 0.9803
-1.0371 -4.5019 -1.8908 0.9802
-0.6332 -4.5917 -1.8970 0.9802
-0.2216 -4.6491 -1.9049 0.9801
0.1952 -4.6734 -1.9144 0.9800
0.6152 -4.6641 -1.9255 0.9799
1.0359 -4.6206 -1.9380 0.9797
2.2766 -4.2813 -1.9846 0.9793
2.6740 -4.0982 -2.0028 0.9791
3.7769 -3.3428 -2.0643 0.9784
4.1043 -3.0248 -2.0867 0.9782
4.4032 -2.6737 -2.1083 0.9780
4.3428 -2.1318 -1.9800 0.9793
2.3731 -0.9121 -1.0405 0.9891
4.7585 -1.3556 -2.0250 0.9788
4.9148 -0.9357 -2.0476 0.9786
5.1113 -0.0478 -2.0920 0.9781
4.9871 1.8104 -2.1714 0.9773
4.6518 2.7069 -2.2027 0.9770
4.7240 -0.4052 -2.0663 0.9795
4.6359 1.7524 -2.1599 0.9786
4.4922 2.1744 -2.1750 0.9785
4.3065 2.5826 -2.1885 0.9783
3.1786 3.9871 -2.2223 0.9780
2.8136 4.2605 -2.2252 0.9780
2.4226 4.4958 -2.2257 0.9780
1.5802 4.8419 -2.2197 0.9780
1.1383 4.9493 -2.2133 0.9781
0.6892 5.0115 -2.2047 0.9782
0.1308 2.7638 -1.2059 0.9880
-0.2107 5.0009 -2.1814 0.9784
-0.6520 4.9294 -2.1670 0.9785
-1.0815 4.8159 -2.1511 0.9787
-2.6041 3.9880 -2.0757 0.9794
-2.9203 3.7023 -2.0550 0.9796
-3.2060 3.3917 -2.0340 0.9798
-3.4596 3.0598 -2.0128 0.9800
-3.6799 2.7099 -1.9917 0.9803
-2.5859 1.5690 -1.3182 0.9869
-1.5659 0.4455 -0.7095 0.9929
-1.4984 0.2847 -0.6647 0.9934
-1.5242 0.0137 -0.6643 0.9934
-1.5287 -0.1232 -0.6684 0.9933
-1.5043 -0.2579 -0.6652 0.9934
-4.0142 -1.8799 -1.9318 0.9808
-3.0533 -3.1159 -1.9012 0.9811
-2.1112 -3.8005 -1.8947 0.9812
-1.7644 -3.9759 -1.8957 0.9812
-1.4044 -4.1231 -1.8983 0.9812
-0.2640 -4.3872 -1.9155 0.9810
0.5256 -4.4077 -1.9346 0.9808
1.3178 -4.2987 -1.9595 0.9806
1.7089 -4.1947 -1.9740 0.9804
3.1783 -3.4499 -2.0443 0.9797
3.5079 -3.1836 -2.0645 0.9795
2.3382 -0.9323 -1.0970 0.9891
4.4376 -1.3242 -2.0183 0.9800
4.5857 -0.9325 -2.0394 0.9798
4.6984 -0.5247 -2.0604 0.9796
4.8098 0.3255 -2.1010 0.9792
4.6693 1.6295 -2.1553 0.9787
4.5377 2.0545 -2.1709 0.9785
4.1492 2.8627 -2.1969 0.9782
3.2779 3.9021 -2.2210 0.9780
2.9211 4.1859 -2.2246 0.9780
2.5371 4.4324 -2.2258 0.9780
2.1302 4.6388 -2.2246 0.9780
1.7049 4.8029 -2.2211 0.9780
1.2660 4.9231 -2.2154 0.9781
-0.0437 2.6499 -1.1550 0.9885
-0.5265 4.9543 -2.1713 0.9785
-0.9597 4.8526 -2.1558 0.9786
-1.7780 4.5297 -2.1207 0.9790
-2.5080 4.0648 -2.0816 0.9794
-2.8326 3.7869 -2.0610 0.9796
-3.6202 2.8119 -1.9978 0.9802
-2.5605 1.6448 -1.3263 0.9868
-4.1049 1.6980 -1.9360 0.9808
-1.5208 0.3296 -0.6782 0.9932
-1.5283 0.0530 -0.6665 0.9933
-1.5367 -0.3656 -0.6884 0.9931
-1.5882 -0.5315 -0.7299 0.9927
-4.0676 -1.7792 -1.9349 0.9808
-3.8717 -2.1238 -1.9246 0.9809
-3.4035 -2.7551 -1.9084 0.9811
-2.2080 -3.7451 -1.8947 0.9812
-1.8654 -3.9284 -1.8953 0.9812
-1.1405 -4.2104 -1.9011 0.9811
-0.7622 -4.3074 -1.9064 0.9811
-0.3760 -4.3738 -1.9132 0.9810
0.0161 -4.4091 -1.9216 0.9809
0.4117 -4.4127 -1.9315 0.9808
