ply
format ascii 1.0
element vertex 1595
property float32 x
property float32 y
property float32 z
property float32 I
end_header
-3.8333 7.5989 -2.2037 0.9654
-4.4217 7.1057 -2.1669 0.9660
-5.4218 5.9921 -2.0923 0.9672
-6.6549 5.1273 -2.1752 0.9659
-7.2009 3.7271 -2.0994 0.9671
-7.4901 2.3068 -2.0292 0.9681
-7.4797 0.2281 -1.9375 0.9696
-6.7467 -2.2899 -1.8447 0.9710
-5.3488 -4.3689 -1.7882 0.9719
-4.4502 -5.2086 -1.7738 0.9721
-2.9036 -6.1875 -1.7697 0.9722
-2.3438 -6.4341 -1.7730 0.9721
-1.7654 -6.6386 -1.7786 0.9720
0.0584 -6.9880 -1.8094 0.9715
0.6879 -7.0121 -1.8243 0.9713
1.3237 -6.9879 -1.8415 0.9710
1.9630 -6.9141 -1.8609 0.9707
2.6027 -6.7895 -1.8827 0.9704
3.2393 -6.6130 -1.9066 0.9700
4.4885 -6.1004 -1.9610 0.9692
5.6773 -5.3703 -2.0234 0.9682
6.2372 -4.9231 -2.0574 0.9677
7.5343 -2.4175 -2.0487 0.9678
7.8597 -1.7664 -2.0858 0.9673
8.1291 -1.0763 -2.1231 0.9667
7.9662 2.6000 -2.1697 0.9660
6.3221 3.4074 -1.8595 0.9708
5.0549 4.0310 -1.6740 0.9736
4.0553 4.6352 -1.5946 0.9749
3.4915 4.7953 -1.5358 0.9758
3.0132 5.0277 -1.5177 0.9761
2.5421 5.2560 -1.5117 0.9762
1.4895 3.9443 -1.0916 0.9827
1.5916 5.7145 -1.5359 0.9758
0.5266 2.8580 -0.7525 0.9881
0.5771 6.2010 -1.6125 0.9746
-0.5827 6.7541 -1.7552 0.9724
-2.3081 8.5082 -2.2826 0.9642
-3.0133 8.1451 -2.2486 0.9648
-3.6698 7.7198 -2.2131 0.9653
-4.8187 6.7126 -2.1395 0.9664
-5.3046 6.1462 -2.1021 0.9670
-5.7289 5.5479 -2.0649 0.9676
-6.5612 5.3048 -2.1846 0.9657
-6.8870 4.6161 -2.1467 0.9663
-7.1443 3.9128 -2.1090 0.9669
-7.4663 2.4926 -2.0380 0.9680
-7.5004 0.4050 -1.9448 0.9694
-6.8169 -2.1368 -1.8497 0.9709
-5.8518 -3.7676 -1.8020 0.9717
-5.4576 -4.2484 -1.7907 0.9718
-4.5746 -5.1067 -1.7752 0.9721
-2.4925 -6.3734 -1.7719 0.9721
0.5221 -7.0104 -1.8201 0.9714
1.7952 -6.9383 -1.8556 0.9708
2.4351 -6.8272 -1.8767 0.9705
3.7049 -6.4489 -1.9257 0.9697
5.5262 -5.4785 -2.0148 0.9684
6.6314 -4.5584 -2.0835 0.9673
7.0526 -3.1780 -2.0029 0.9685
7.7795 -1.9410 -2.0760 0.9674
8.0642 -1.2608 -2.1133 0.9668
8.2885 -0.5450 -2.1507 0.9663
8.4470 0.2007 -2.1877 0.9657
8.5344 0.9701 -2.2239 0.9651
8.5463 1.7557 -2.2590 0.9646
6.5106 3.3144 -1.8916 0.9703
5.2071 3.9563 -1.6932 0.9733
3.6829 4.8167 -1.5699 0.9753
3.1376 4.9673 -1.5212 0.9760
1.7184 5.6535 -1.5299 0.9759
0.3660 3.1345 -0.8171 0.9870
-0.4185 6.6760 -1.7319 0.9727
-0.9122 5.9535 -1.5595 0.9754
-2.1159 8.5922 -2.2911 0.9641
-2.8329 8.2467 -2.2577 0.9646
-3.5027 7.8369 -2.2226 0.9652
-4.6813 6.8549 -2.1492 0.9663
-5.1830 6.2981 -2.1119 0.9669
-2.4226 2.0545 -0.8225 0.9870
-6.8087 4.7987 -2.1567 0.9662
-7.0831 4.0981 -2.1188 0.9668
-7.2924 3.3895 -2.0821 0.9673
-7.4383 2.6787 -2.0470 0.9679
-7.5228 1.9710 -2.0135 0.9684
-7.5483 1.2710 -1.9819 0.9689
-7.4329 -0.0895 -1.9247 0.9698
-7.2973 -0.7429 -1.8992 0.9701
-7.1135 -1.3746 -1.8759 0.9705
-6.8842 -1.9819 -1.8548 0.9708
-6.6120 -2.5626 -1.8361 0.9711
-4.6971 -5.0023 -1.7767 0.9720
-3.7165 -5.7338 -1.7692 0.9722
-3.1891 -6.0419 -1.7689 0.9722
-0.2682 -6.9565 -1.8025 0.9716
0.9896 -7.0067 -1.8322 0.9712
1.6275 -6.9591 -1.8504 0.9709
2.2674 -6.8612 -1.8710 0.9706
3.5400 -6.5106 -1.9188 0.9698
4.1653 -6.2556 -1.9459 0.9694
4.7780 -5.9466 -1.9751 0.9690
5.3735 -5.5829 -2.0063 0.9685
5.9470 -5.1644 -2.0393 0.9680
6.9970 -4.1585 -2.1075 0.9669
7.9951 -1.4428 -2.1035 0.9670
8.4121 0.0026 -2.1780 0.9658
8.5507 1.5486 -2.2499 0.9647
7.5286 2.8167 -2.0813 0.9673
6.7058 3.2181 -1.9258 0.9697
5.9956 3.5684 -1.8065 0.9716
4.3278 4.5021 -1.6169 0.9745
3.8140 4.7529 -1.5778 0.9751
3.2626 4.9066 -1.5256 0.9759
1.8443 5.5928 -1.5248 0.9760
-0.2586 6.5998 -1.7101 0.9731
-1.6036 7.2387 -1.9197 0.9698
-2.6492 8.3438 -2.2666 0.9645
-3.9636 7.4978 -2.1959 0.9656
-4.5398 6.9944 -2.1590 0.9661
-5.0573 6.4477 -2.1217 0.9667
-5.5141 5.8651 -2.0843 0.9673
-7.0175 4.2828 -2.1286 0.9666
-7.2438 3.5757 -2.0916 0.9672
-7.5065 2.1560 -2.0221 0.9682
-7.5472 1.4535 -1.9900 0.9687
-6.9486 -1.8252 -1.8601 0.9708
-6.6874 -2.4130 -1.8408 0.9711
-6.3853 -2.9727 -1.8237 0.9713
-6.0448 -3.5024 -1.8089 0.9715
-5.6685 -4.0004 -1.7964 0.9717
-4.8176 -4.8954 -1.7783 0.9720
-4.3476 -5.2896 -1.7728 0.9721
-2.2219 -6.4813 -1.7740 0.9721
-1.6398 -6.6767 -1.7801 0.9720
-1.0419 -6.8287 -1.7885 0.9719
-0.4305 -6.9359 -1.7993 0.9717
2.7389 -6.7563 -1.8876 0.9703
3.3744 -6.5685 -1.9120 0.9699
4.0024 -6.3277 -1.9386 0.9695
6.8758 -4.3077 -2.1008 0.9670
-0.3709 -6.4296 -1.8232 0.9736
0.2062 -6.4807 -1.8356 0.9734
1.3788 -6.4483 -1.8667 0.9730
1.9688 -6.3627 -1.8855 0.9727
2.5571 -6.2294 -1.9063 0.9724
4.2772 -5.5364 -1.9806 0.9713
4.8228 -5.2060 -2.0090 0.9709
5.3475 -4.8258 -2.0391 0.9705
2.3306 -0.9213 -0.7095 0.9896
6.9453 -2.0502 -2.0500 0.9703
7.4359 -0.8077 -2.1174 0.9694
7.5967 -0.1426 -2.1509 0.9689
7.7269 1.2476 -2.2157 0.9680
7.6891 1.9593 -2.2463 0.9676
5.4849 3.8108 -1.8907 0.9726
4.8995 4.0987 -1.8083 0.9738
4.4136 4.4194 -1.7682 0.9744
2.8624 5.0405 -1.6410 0.9762
2.4159 5.3092 -1.6513 0.9760
1.9438 5.5370 -1.6613 0.9759
1.4619 5.7688 -1.6847 0.9756
-0.1312 6.5303 -1.8491 0.9732
-0.7503 6.8245 -1.9436 0.9719
-1.4419 7.1522 -2.0655 0.9701
-4.4968 5.9639 -2.1145 0.9694
-5.3112 4.9073 -2.0471 0.9704
-5.6352 4.3417 -2.0139 0.9709
-6.3613 4.0509 -2.1350 0.9691
-6.8748 2.1173 -2.0364 0.9705
-6.9329 1.4729 -2.0065 0.9710
-6.9375 0.8359 -1.9782 0.9714
-6.8908 0.2102 -1.9517 0.9717
-6.7953 -0.4009 -1.9270 0.9721
-6.2391 -2.1176 -1.8652 0.9730
-5.9718 -2.6428 -1.8487 0.9732
-5.6677 -3.1410 -1.8344 0.9734
-5.3289 -3.6105 -1.8222 0.9736
-4.9578 -4.0496 -1.8122 0.9737
-4.5565 -4.4568 -1.8044 0.9739
-4.1273 -4.8307 -1.7987 0.9739
-1.0852 -6.3033 -1.8107 0.9738
0.0541 -6.4716 -1.8321 0.9735
1.2243 -6.4630 -1.8622 0.9730
1.8141 -6.3897 -1.8804 0.9728
2.4031 -6.2690 -1.9006 0.9725
2.9881 -6.1001 -1.9229 0.9722
4.1312 -5.6148 -1.9734 0.9714
4.6816 -5.2975 -2.0014 0.9710
5.2122 -4.9303 -2.0311 0.9706
6.1600 -3.2804 -1.9757 0.9714
7.3840 -0.9777 -2.1086 0.9695
7.6755 0.3626 -2.1753 0.9686
7.6150 2.4854 -2.2677 0.9672
6.3127 3.4024 -2.0301 0.9706
3.0095 5.0216 -1.6573 0.9760
2.5390 5.2496 -1.6508 0.9760
1.4864 3.9361 -1.1911 0.9827
1.5897 5.7074 -1.6772 0.9757
0.5763 6.1930 -1.7608 0.9745
0.0217 6.4575 -1.8281 0.9735
-0.5819 6.7446 -1.9164 0.9722
-1.0645 6.0036 -1.7261 0.9750
-2.0823 7.6756 -2.2514 0.9675
-2.7223 7.3587 -2.2212 0.9679
-3.8723 6.5610 -2.1568 0.9688
-4.3739 6.0931 -2.1233 0.9693
-4.8228 5.5879 -2.0896 0.9698
-5.2170 5.0521 -2.0559 0.9703
-5.5557 4.4919 -2.0225 0.9707
-6.2914 4.2169 -2.1441 0.9690
-6.9229 1.6413 -2.0142 0.9709
-6.9413 1.0020 -1.9854 0.9713
-6.9079 0.3730 -1.9584 0.9717
-6.6948 -0.8406 -1.9101 0.9723
-6.3027 -1.9757 -1.8699 0.9729
-3.7940 -5.0844 -1.7959 0.9740
-3.3213 -5.3973 -1.7941 0.9740
-1.7793 -6.1103 -1.8016 0.9739
-1.2312 -6.2686 -1.8085 0.9738
-0.6698 -6.3854 -1.8176 0.9737
-0.0975 -6.4594 -1.8288 0.9735
0.4833 -6.4895 -1.8422 0.9733
1.0699 -6.4745 -1.8577 0.9731
3.9841 -5.6897 -1.9663 0.9715
4.5390 -5.3855 -1.9939 0.9711
5.5883 -4.6276 -2.0540 0.9703
6.0733 -4.1747 -2.0863 0.9698
6.5038 -3.6618 -2.1130 0.9694
6.4396 -2.9018 -1.9995 0.9711
7.0809 -1.7667 -2.0660 0.9701
7.6515 0.1818 -2.1667 0.9687
7.7186 0.8774 -2.1992 0.9682
7.7177 1.5854 -2.2305 0.9678
7.6459 2.2986 -2.2602 0.9674
4.6374 4.2273 -1.7764 0.9743
4.1853 4.5633 -1.7529 0.9746
3.6784 4.8108 -1.7144 0.9751
2.6621 5.1900 -1.6513 0.9760
1.5492 3.8285 -1.1692 0.9830
-0.4179 6.6667 -1.8910 0.9726
-1.9082 7.7485 -2.2591 0.9674
-3.1681 7.0882 -2.1979 0.9682
-4.7103 5.7236 -2.0985 0.9697
-6.9092 1.8102 -2.0220 0.9707
-6.8513 -0.0825 -1.9397 0.9719
-6.5700 -1.2696 -1.8943 0.9726
-5.8316 -2.8832 -1.8417 0.9733
-5.1563 -3.8232 -1.8172 0.9737
-3.9140 -4.9964 -1.7968 0.9740
-3.4475 -5.3188 -1.7943 0.9740
-2.9583 -5.6047 -1.7941 0.9740
-1.9205 -6.0620 -1.8002 0.9739
-1.3763 -6.2311 -1.8065 0.9738
-0.8182 -6.3589 -1.8150 0.9737
0.3303 -6.4859 -1.8385 0.9734
1.5047 -6.4340 -1.8706 0.9729
2.6820 -6.1947 -1.9110 0.9723
3.2638 -6.0026 -1.9342 0.9720
4.3951 -5.4701 -1.9865 0.9713
4.9367 -5.1291 -2.0153 0.9708
5.4562 -4.7383 -2.0458 0.9704
6.3981 -3.8025 -2.1070 0.9695
7.7247 1.3990 -2.2224 0.9679
5.9869 3.5632 -1.9723 0.9715
5.3556 3.8744 -1.8713 0.9729
4.7808 4.1569 -1.7935 0.9740
3.8092 4.7470 -1.7230 0.9750
1.8421 5.5860 -1.6651 0.9758
0.3178 6.3164 -1.7904 0.9741
-3.5890 6.7893 -2.1740 0.9686
-4.1173 6.3435 -2.1409 0.9690
-5.0171 5.3365 -2.0736 0.9700
-6.1316 4.5404 -2.1599 0.9688
-6.4153 3.9153 -2.1276 0.9692
-6.6320 3.2737 -2.0938 0.9697
-6.8918 1.9794 -2.0299 0.9706
-6.9383 1.3363 -2.0003 0.9711
-6.9317 0.7014 -1.9723 0.9715
-6.1853 -2.2318 -1.8615 0.9730
-5.5982 -3.2436 -1.8316 0.9735
-5.2524 -3.7068 -1.8199 0.9736
-3.5721 -5.2377 -1.7948 0.9740
-2.0607 -6.0110 -1.7989 0.9739
-1.5205 -6.1907 -1.8046 0.9738
-0.3988 -6.4260 -1.8227 0.9736
1.9400 -6.3679 -1.8845 0.9727
3.1120 -6.0577 -1.9280 0.9721
3.6871 -5.8293 -1.9526 0.9717
4.2501 -5.5513 -1.9792 0.9714
4.7966 -5.2233 -2.0076 0.9709
5.3224 -4.8455 -2.0376 0.9705
0.7348 -6.0314 -1.8688 0.9749
1.2811 -5.9914 -1.8845 0.9747
2.3723 -5.7793 -1.9215 0.9742
2.9109 -5.6059 -1.9428 0.9739
3.4403 -5.3869 -1.9660 0.9736
4.4570 -4.8111 -2.0172 0.9729
4.9362 -4.4547 -2.0451 0.9726
5.7587 -2.8955 -1.9826 0.9734
2.3322 -0.9220 -0.7713 0.9896
6.3703 -1.8805 -2.0430 0.9726
6.8019 -0.7388 -2.1044 0.9718
6.9396 -0.1302 -2.1348 0.9714
7.0200 0.4969 -2.1646 0.9710
7.0401 1.1367 -2.1934 0.9706
6.8891 2.4287 -2.2468 0.9699
6.1217 3.4870 -2.1669 0.9709
4.4124 4.4182 -1.9206 0.9742
3.9118 4.6886 -1.8781 0.9748
2.4129 5.3026 -1.7919 0.9759
1.9414 5.5302 -1.8027 0.9758
0.4567 2.8523 -0.8885 0.9880
0.4342 6.2523 -1.9277 0.9741
-0.1310 6.5213 -2.0062 0.9731
-2.0512 6.9153 -2.2186 0.9703
-4.5176 4.9928 -2.0710 0.9722
-5.1763 3.9881 -2.0099 0.9730
-6.0697 3.1416 -2.1022 0.9718
-6.2346 2.5496 -2.0718 0.9722
-6.4076 1.3613 -2.0148 0.9730
-6.3820 0.1946 -1.9639 0.9736
-6.2993 -0.3717 -1.9409 0.9739
-6.1729 -0.9226 -1.9197 0.9742
-5.7973 -1.9676 -1.8830 0.9747
-5.5524 -2.4572 -1.8676 0.9749
-5.2725 -2.9220 -1.8541 0.9751
-4.9597 -3.3603 -1.8427 0.9752
-4.6160 -3.7704 -1.8332 0.9754
-4.2437 -4.1508 -1.8258 0.9755
-3.8448 -4.5000 -1.8205 0.9755
-3.4214 -4.8167 -1.8172 0.9756
-2.5094 -5.3475 -1.8169 0.9756
-2.0251 -5.5591 -1.8198 0.9755
-1.5247 -5.7334 -1.8248 0.9755
-1.0104 -5.8692 -1.8318 0.9754
0.0503 -6.0209 -1.8520 0.9751
1.6847 -5.9338 -1.8972 0.9745
3.3026 -5.4487 -1.9597 0.9737
4.3277 -4.8971 -2.0101 0.9730
4.8128 -4.5525 -2.0377 0.9727
5.2740 -4.1628 -2.0666 0.9723
5.6727 -3.0210 -1.9768 0.9735
2.3015 -0.9728 -0.7685 0.9896
7.0047 0.3309 -2.1569 0.9711
6.9238 2.2598 -2.2402 0.9700
6.7671 2.9003 -2.2645 0.9697
6.3032 3.3972 -2.2024 0.9705
5.6396 3.7253 -2.0789 0.9721
5.0413 4.0202 -1.9833 0.9734
4.0450 4.6235 -1.8895 0.9746
3.0058 5.0154 -1.7985 0.9758
2.5359 5.2432 -1.7914 0.9759
1.4825 3.9260 -1.2908 0.9826
1.5877 5.7003 -1.8200 0.9755
-1.8945 6.9834 -2.2256 0.9702
-2.4799 6.7033 -2.1983 0.9705
-4.4165 5.1172 -2.0791 0.9721
-4.7840 4.6328 -2.0483 0.9725
-5.1014 4.1246 -2.0178 0.9729
-6.0176 3.2957 -2.1103 0.9717
-6.1965 2.7053 -2.0796 0.9721
-6.3961 0.3453 -1.9702 0.9735
-6.3253 -0.2246 -1.9468 0.9739
-6.2102 -0.7798 -1.9251 0.9741
-6.0528 -1.3176 -1.9053 0.9744
-5.8554 -1.8354 -1.8874 0.9746
-5.3492 -2.8026 -1.8574 0.9750
-4.7090 -3.6657 -1.8355 0.9753
-4.3440 -4.0540 -1.8276 0.9754
-3.0945 -5.0287 -1.8161 0.9756
-2.6335 -5.2859 -1.8164 0.9756
-1.6573 -5.6914 -1.8232 0.9755
-0.6235 -5.9440 -1.8383 0.9753
-0.0907 -6.0103 -1.8489 0.9752
0.4495 -6.0352 -1.8614 0.9750
2.0873 -5.8522 -1.9111 0.9743
3.6879 -5.2666 -1.9776 0.9735
5.5963 -3.8468 -2.0887 0.9720
5.9620 -3.3568 -2.1045 0.9718
6.2260 -2.1600 -2.0269 0.9728
6.4906 -1.6194 -2.0576 0.9724
6.7081 -1.0488 -2.0883 0.9720
6.8743 -0.4520 -2.1189 0.9716
6.9852 0.1660 -2.1491 0.9712
5.8065 3.6429 -2.1083 0.9717
5.1929 3.9455 -2.0060 0.9731
1.5058 3.7211 -1.2347 0.9833
0.3672 3.1449 -0.9739 0.9868
-0.4174 6.6573 -2.0517 0.9725
-0.9100 5.9393 -1.8481 0.9752
-2.3297 6.7820 -2.2056 0.9704
-2.8885 6.4629 -2.1773 0.9708
-3.8829 5.6859 -2.1178 0.9716
-5.3032 3.7377 -1.9956 0.9732
-5.9618 3.4493 -2.1185 0.9716
-6.2945 2.2668 -2.0578 0.9724
-6.3820 1.6721 -2.0292 0.9728
-6.3483 -0.0764 -1.9527 0.9738
-5.6854 -2.2034 -1.8754 0.9748
-5.1277 -3.1339 -1.8484 0.9752
-4.7999 -3.5590 -1.8379 0.9753
-3.6463 -4.6547 -1.8187 0.9756
-3.2120 -4.9555 -1.8164 0.9756
-2.2812 -5.4527 -1.8180 0.9756
-0.7617 -5.9199 -1.8358 0.9753
0.3073 -6.0328 -1.8579 0.9750
0.8512 -6.0265 -1.8720 0.9749
1.3979 -5.9772 -1.8881 0.9746
3.0247 -5.5630 -1.9476 0.9738
3.5518 -5.3342 -1.9711 0.9735
4.0652 -5.0595 -1.9963 0.9732
5.8876 -3.4992 -2.1066 0.9717
5.8315 -2.7940 -1.9889 0.9733
6.1493 -2.2963 -2.0190 0.9729
6.8359 -0.6108 -2.1109 0.9717
6.9616 0.0022 -2.1412 0.9713
7.0363 1.2743 -2.1994 0.9705
6.9796 1.9210 -2.2266 0.9702
6.6694 3.2006 -2.2753 0.9695
5.9782 3.5580 -2.1398 0.9713
5.3481 3.8691 -2.0303 0.9728
4.7744 4.1514 -1.9460 0.9739
4.3167 4.4906 -1.9159 0.9743
3.8045 4.7410 -1.8697 0.9749
3.2546 4.8945 -1.8079 0.9757
2.7819 5.1240 -1.7933 0.9759
1.6229 3.7550 -1.2582 0.9830
1.3554 5.8119 -1.8356 0.9753
0.4240 3.0158 -0.9367 0.9873
0.3173 6.3080 -1.9427 0.9739
-0.2579 6.5816 -2.0259 0.9728
-0.7699 5.9545 -1.8467 0.9752
-2.1771 6.8570 -2.2128 0.9703
-2.7457 6.5514 -2.1849 0.9707
-3.2755 6.1963 -2.1557 0.9711
-3.7627 5.7971 -2.1257 0.9715
-4.2041 5.3598 -2.0952 0.9719
-2.3743 2.1112 -0.9772 0.9868
-5.9022 3.6021 -2.1268 0.9715
-6.1094 3.0158 -2.0956 0.9719
-6.2629 2.4228 -2.0655 0.9723
-6.2759 -0.4906 -1.9362 0.9740
-5.9638 -1.5665 -1.8966 0.9745
-5.7481 -2.0741 -1.8796 0.9748
-4.8889 -3.4502 -1.8405 0.9753
-4.5389 -3.8541 -1.8315 0.9754
-4.1607 -4.2280 -1.8245 0.9755
-3.7564 -4.5703 -1.8196 0.9755
-3.3280 -4.8799 -1.8168 0.9756
-2.8777 -5.1554 -1.8160 0.9756
-1.4161 -5.7656 -1.8261 0.9755
-0.8991 -5.8930 -1.8335 0.9754
-0.3712 -5.9806 -1.8431 0.9752
0.7082 -6.0323 -1.8681 0.9749
2.8848 -5.6154 -1.9418 0.9739
3.4147 -5.3986 -1.9648 0.9736
3.9321 -5.1360 -1.9895 0.9733
4.4330 -4.8274 -2.0159 0.9729
5.3688 -4.0739 -2.0729 0.9722
5.7889 -3.6268 -2.1011 0.9718
1.7044 -5.5081 -1.9166 0.9760
2.2104 -5.3848 -1.9349 0.9758
3.2004 -5.0112 -1.9765 0.9752
4.5792 -4.1325 -2.0503 0.9743
5.3737 -3.3340 -2.1021 0.9737
2.3338 -0.9226 -0.8342 0.9895
6.2606 -0.6800 -2.0933 0.9738
6.4581 1.0428 -2.1745 0.9728
6.3069 2.2234 -2.2229 0.9722
6.1421 2.8047 -2.2445 0.9719
5.4694 3.8000 -2.2138 0.9723
3.8390 4.6014 -1.9920 0.9751
2.8553 5.0281 -1.9220 0.9759
1.4582 5.7543 -1.9732 0.9753
0.4541 2.8359 -0.9547 0.9880
0.4337 6.2440 -2.0805 0.9740
-1.3204 6.5497 -2.2209 0.9722
-2.4105 6.0742 -2.1723 0.9728
-2.9076 5.7639 -2.1459 0.9732
-3.7869 5.0224 -2.0908 0.9738
-4.4953 4.1534 -2.0344 0.9745
-5.6193 2.9085 -2.1033 0.9737
-5.7782 2.3629 -2.0751 0.9740
-5.8882 1.8135 -2.0480 0.9744
-5.9505 1.2642 -2.0221 0.9747
-5.9664 0.7189 -1.9976 0.9750
-5.9374 0.1811 -1.9745 0.9753
-5.7519 -0.8597 -1.9332 0.9758
-4.9244 -2.7291 -1.8715 0.9765
-4.6341 -3.1397 -1.8607 0.9767
-3.9675 -3.8806 -1.8448 0.9769
-3.5952 -4.2079 -1.8397 0.9769
-3.1997 -4.5046 -1.8366 0.9770
-2.7828 -4.7694 -1.8355 0.9770
-1.8937 -5.1984 -1.8391 0.9769
-1.4255 -5.3604 -1.8438 0.9769
-0.4529 -5.5741 -1.8590 0.9767
0.5527 -5.6341 -1.8818 0.9764
1.0616 -5.6043 -1.8960 0.9762
1.5710 -5.5335 -1.9121 0.9760
2.0781 -5.4212 -1.9299 0.9758
3.0730 -5.0699 -1.9707 0.9753
3.5541 -4.8304 -1.9935 0.9750
4.0197 -4.5485 -2.0177 0.9747
4.8888 -3.8588 -2.0703 0.9741
5.8136 -1.8654 -2.0295 0.9746
6.0398 -1.3574 -2.0577 0.9742
6.2210 -0.8237 -2.0859 0.9739
6.3536 -0.2684 -2.1139 0.9736
6.4298 1.4788 -2.1931 0.9726
6.3403 2.0694 -2.2169 0.9723
6.1911 2.6535 -2.2390 0.9720
5.6315 3.7199 -2.2435 0.9720
5.0344 4.0146 -2.1404 0.9732
3.9697 4.5374 -2.0040 0.9749
3.0021 5.0092 -1.9412 0.9757
1.5857 5.6931 -1.9645 0.9754
0.5266 2.8581 -0.9660 0.9878
0.5748 6.1767 -2.0620 0.9742
0.0217 6.4399 -2.1407 0.9732
-0.5802 6.7253 -2.2438 0.9719
-1.0612 5.9853 -2.0206 0.9747
-1.7358 6.3983 -2.2037 0.9724
-2.7807 5.8495 -2.1529 0.9731
-3.6810 5.1277 -2.0982 0.9737
-4.7109 3.8089 -2.0137 0.9748
-5.5695 3.0503 -2.1108 0.9736
-5.9387 1.4080 -2.0288 0.9746
-5.6429 -1.2283 -1.9197 0.9760
-5.4623 -1.7122 -1.9028 0.9762
-5.2458 -2.1759 -1.8878 0.9763
-4.9954 -2.6173 -1.8746 0.9765
-4.7131 -3.0345 -1.8633 0.9766
-4.4010 -3.4259 -1.8539 0.9768
-3.6952 -4.1250 -1.8409 0.9769
-2.8941 -4.7031 -1.8356 0.9770
-2.4629 -4.9435 -1.8359 0.9770
-2.0140 -5.1500 -1.8382 0.9770
-1.5496 -5.3214 -1.8423 0.9769
-0.5827 -5.5547 -1.8565 0.9767
-0.0847 -5.6145 -1.8665 0.9766
1.4376 -5.5561 -1.9077 0.9761
2.9447 -5.1256 -1.9649 0.9754
3.4293 -4.8974 -1.9873 0.9751
4.3509 -4.3134 -2.0365 0.9745
5.1835 -3.5631 -2.0908 0.9738
5.1562 -2.9031 -1.9669 0.9754
6.2360 2.5013 -2.2334 0.9721
5.7903 3.6327 -2.2722 0.9716
5.1857 3.9400 -2.1649 0.9729
4.0924 4.4620 -2.0126 0.9748
3.1260 4.9490 -1.9458 0.9756
2.6556 5.1772 -1.9341 0.9758
1.4786 3.6540 -1.3103 0.9835
0.3630 3.1086 -1.0403 0.9869
-0.4168 6.6479 -2.2141 0.9723
-2.1361 6.2185 -2.1856 0.9727
-2.6514 5.9322 -2.1599 0.9730
-3.1312 5.6013 -2.1331 0.9733
-3.5721 5.2308 -2.1055 0.9737
-3.9714 4.8258 -2.0775 0.9740
-4.3269 4.3913 -2.0492 0.9743
-5.5152 3.1909 -2.1180 0.9735
-5.8365 2.1019 -2.0621 0.9742
-5.9581 0.4620 -1.9864 0.9751
-5.9083 -0.0711 -1.9641 0.9754
-5.8164 -0.5922 -1.9434 0.9757
-5.6840 -1.0984 -1.9244 0.9759
-5.5132 -1.5872 -1.9071 0.9761
-5.3060 -2.0564 -1.8916 0.9763
-4.1527 -3.6972 -1.8482 0.9768
-3.4099 -4.3529 -1.8380 0.9770
-2.5778 -4.8837 -1.8356 0.9770
-2.1333 -5.0992 -1.8374 0.9770
-1.1982 -5.4248 -1.8467 0.9769
-0.2160 -5.6026 -1.8637 0.9766
0.2869 -5.6337 -1.8751 0.9765
1.3040 -5.5758 -1.9034 0.9762
3.3035 -4.9613 -1.9813 0.9752
3.7777 -4.7016 -2.0048 0.9749
4.6701 -4.0556 -2.0560 0.9743
5.0806 -3.6707 -2.0835 0.9739
5.4469 -3.2373 -2.1062 0.9736
5.3910 -2.5830 -1.9871 0.9751
5.6783 -2.1204 -2.0148 0.9748
5.9265 -1.6272 -2.0429 0.9744
6.1318 -1.1065 -2.0712 0.9741
6.2903 -0.5620 -2.0993 0.9737
6.4532 1.1687 -2.1800 0.9727
6.3946 1.7600 -2.2046 0.9724
6.2768 2.3484 -2.2277 0.9721
1.6335 3.7793 -1.3686 0.9828
0.3169 6.2995 -2.0966 0.9738
-0.2575 6.5724 -2.1864 0.9727
-1.4419 6.5089 -2.2161 0.9723
-1.9957 6.2856 -2.1921 0.9726
-2.5195 6.0118 -2.1667 0.9729
-3.0090 5.6921 -2.1402 0.9732
-2.3751 2.1120 -1.0565 0.9867
-5.8057 2.2459 -2.0692 0.9741
-5.9255 0.0676 -1.9698 0.9753
-5.8445 -0.4569 -1.9487 0.9756
-5.7225 -0.9672 -1.9292 0.9758
-5.5616 -1.4608 -1.9114 0.9761
-4.5683 -3.2240 -1.8586 0.9767
-3.8901 -3.9530 -1.8435 0.9769
-3.1125 -4.5638 -1.8362 0.9770
-2.6914 -4.8216 -1.8355 0.9770
-1.3239 -5.3903 -1.8450 0.9769
-0.3468 -5.5880 -1.8610 0.9767
0.1545 -5.6293 -1.8719 0.9765
1.1704 -5.5927 -1.8993 0.9762
1.6795 -5.5131 -1.9157 0.9760
2.1858 -5.3918 -1.9339 0.9758
2.6859 -5.2283 -1.9538 0.9755
4.5582 -4.1498 -2.0490 0.9744
4.9756 -3.7755 -2.0762 0.9740
5.3566 -3.3560 -2.1012 0.9737
0.6426 -5.2741 -1.9000 0.9777
1.1191 -5.2336 -1.9139 0.9775
2.0671 -5.0359 -1.9467 0.9771
3.4321 -4.4425 -2.0075 0.9764
4.9949 -3.0991 -2.1021 0.9753
4.9468 -2.4873 -1.9800 0.9768
2.3355 -0.9232 -0.8981 0.9894
5.8973 -0.1107 -2.1093 0.9753
5.9532 0.4213 -2.1342 0.9750
5.9582 0.9620 -2.1583 0.9747
5.9104 1.5061 -2.1811 0.9744
5.8087 2.0478 -2.2025 0.9742
5.4423 3.1000 -2.2398 0.9737
5.1789 3.5982 -2.2551 0.9736
3.6183 4.3369 -2.0198 0.9763
2.4069 5.2894 -2.0782 0.9756
1.9365 5.5163 -2.0907 0.9755
0.4530 2.8293 -1.0247 0.9879
-0.6786 6.1722 -2.2205 0.9740
-1.2162 6.0326 -2.2007 0.9742
-1.7329 5.8422 -2.1792 0.9744
-2.2241 5.6044 -2.1562 0.9747
-3.1130 5.0026 -2.1071 0.9753
-3.5041 4.6474 -2.0814 0.9756
-4.1681 3.8511 -2.0294 0.9762
-5.4859 1.6896 -2.0527 0.9759
-5.5453 0.1691 -1.9840 0.9767
-5.2398 -1.2700 -1.9280 0.9774
-4.8557 -2.1489 -1.8989 0.9777
-4.3446 -2.9436 -1.8767 0.9780
-3.0022 -4.2266 -1.8540 0.9782
-2.6112 -4.4752 -1.8529 0.9782
-2.2020 -4.6924 -1.8536 0.9782
-1.7767 -4.8772 -1.8562 0.9782
-1.3372 -5.0284 -1.8607 0.9781
-0.4246 -5.2262 -1.8751 0.9780
0.9941 -5.2480 -1.9101 0.9776
1.4704 -5.1789 -1.9252 0.9774
1.9438 -5.0707 -1.9420 0.9772
2.8704 -4.7357 -1.9803 0.9768
4.5513 -3.5924 -2.0735 0.9757
2.2988 -0.9717 -0.8925 0.9895
5.3914 -1.7299 -2.0248 0.9762
5.7575 -0.7623 -2.0769 0.9756
5.5026 2.9657 -2.2354 0.9738
5.2530 3.4699 -2.2513 0.9736
3.4740 4.7713 -2.1106 0.9752
2.9983 5.0028 -2.0857 0.9755
2.5296 5.2301 -2.0776 0.9756
1.4610 3.8690 -1.4789 0.9826
1.5837 5.6859 -2.1107 0.9752
0.5477 2.9726 -1.0809 0.9872
0.0211 6.2712 -2.2426 0.9737
-1.0596 5.9761 -2.1704 0.9745
-2.0980 5.6711 -2.1624 0.9746
-3.0042 5.0902 -2.1137 0.9752
-3.7679 4.3657 -2.0623 0.9758
-4.3712 3.5342 -2.0102 0.9764
-5.5365 1.3126 -2.0348 0.9761
-5.5671 0.8036 -2.0115 0.9764
-5.4100 -0.6793 -1.9498 0.9771
-5.2799 -1.1493 -1.9323 0.9773
-5.1138 -1.6030 -1.9165 0.9775
-4.9136 -2.0381 -1.9023 0.9777
-4.4183 -2.8447 -1.8792 0.9779
-4.1270 -3.2126 -1.8703 0.9780
-3.8091 -3.5549 -1.8632 0.9781
-3.1015 -4.1564 -1.8545 0.9782
-2.7156 -4.4130 -1.8530 0.9782
0.8691 -5.2597 -1.9064 0.9776
3.6373 -4.3157 -2.0183 0.9763
4.7925 -2.6983 -1.9668 0.9769
5.5459 -1.3837 -2.0440 0.9760
5.9301 0.1409 -2.1212 0.9751
5.7412 2.3028 -2.2121 0.9741
5.5592 2.8301 -2.2308 0.9738
5.3235 3.3399 -2.2474 0.9737
4.6189 4.2103 -2.2350 0.9738
3.1220 4.9427 -2.0906 0.9755
1.7099 5.6253 -2.1025 0.9753
0.6251 2.9965 -1.0947 0.9871
0.3647 3.1235 -1.1246 0.9867
0.1685 6.2806 -2.2468 0.9737
-0.3902 6.2240 -2.2301 0.9739
-1.4648 5.9482 -2.1907 0.9743
-2.4474 5.4758 -2.1449 0.9748
-3.3037 4.8377 -2.0949 0.9754
-3.6766 4.4676 -2.0691 0.9757
-2.4162 2.0491 -1.1329 0.9866
-5.4352 1.9573 -2.0659 0.9758
-5.5624 0.4313 -1.9951 0.9766
-5.5201 -0.0664 -1.9742 0.9768
-5.1608 -1.4857 -1.9205 0.9774
-4.9693 -1.9259 -1.9059 0.9776
-4.7451 -2.3460 -1.8930 0.9778
-4.4901 -2.7442 -1.8818 0.9779
-4.2060 -3.1186 -1.8725 0.9780
-3.8949 -3.4677 -1.8649 0.9781
-2.8187 -4.3486 -1.8532 0.9782
-2.4188 -4.5825 -1.8530 0.9782
-2.0016 -4.7844 -1.8546 0.9782
-1.1239 -5.0882 -1.8635 0.9781
-0.2025 -5.2520 -1.8796 0.9779
0.2689 -5.2792 -1.8903 0.9778
0.7442 -5.2687 -1.9028 0.9776
1.2208 -5.2200 -1.9171 0.9775
1.6961 -5.1324 -1.9330 0.9773
2.6310 -4.8389 -1.9697 0.9769
3.0846 -4.6326 -1.9903 0.9766
3.5246 -4.3867 -2.0123 0.9764
4.3498 -3.7775 -2.0602 0.9758
4.7278 -3.4158 -2.0858 0.9755
5.0070 -2.3990 -1.9855 0.9767
5.2687 -1.9674 -2.0112 0.9764
5.4935 -1.5083 -2.0372 0.9761
5.6780 -1.0246 -2.0633 0.9758
5.8189 -0.5199 -2.0892 0.9755
5.8932 1.6220 -2.1858 0.9744
5.7799 2.1625 -2.2069 0.9741
5.6122 2.6933 -2.2261 0.9739
5.1161 3.7012 -2.2581 0.9735
4.7615 4.1401 -2.2564 0.9736
3.2464 4.8822 -2.0967 0.9754
1.6372 3.7880 -1.4757 0.9826
1.3519 5.7970 -2.1287 0.9750
0.3162 6.2860 -2.2508 0.9736
-0.2447 6.2443 -2.2347 0.9738
-0.7687 5.9454 -2.1438 0.9749
-1.3283 5.9962 -2.1963 0.9742
-2.3251 5.5479 -2.1512 0.9748
-2.7795 5.2579 -2.1268 0.9751
-3.1996 4.9296 -2.1016 0.9753
-3.5826 4.5675 -2.0759 0.9756
-4.4899 3.3247 -1.9979 0.9765
-5.5564 1.0701 -2.0235 0.9762
-5.5351 0.0632 -1.9795 0.9768
-5.3527 -0.9047 -1.9413 0.9772
-5.2053 -1.3673 -1.9246 0.9774
-5.0228 -1.8124 -1.9095 0.9776
-4.8070 -2.2379 -1.8962 0.9777
-4.5598 -2.6420 -1.8846 0.9779
-3.6492 -3.7082 -1.8605 0.9781
-3.2957 -4.0098 -1.8561 0.9782
-2.9204 -4.2822 -1.8536 0.9782
-2.1126 -4.7346 -1.8540 0.9782
-0.3252 -5.2388 -1.8770 0.9779
0.1448 -5.2757 -1.8873 0.9778
0.6193 -5.2751 -1.8994 0.9777
1.0958 -5.2365 -1.9132 0.9775
1.5717 -5.1591 -1.9287 0.9773
2.0442 -5.0426 -1.9458 0.9772
2.9669 -4.6906 -1.9848 0.9767
3.4108 -4.4550 -2.0064 0.9764
3.8385 -4.1800 -2.0294 0.9762
4.2466 -3.8661 -2.0537 0.9759
-0.2843 -4.9285 -1.8918 0.9791
0.1578 -4.9598 -1.9016 0.9790
0.6038 -4.9556 -1.9131 0.9788
1.0511 -4.9154 -1.9262 0.9787
1.4972 -4.8385 -1.9409 0.9785
1.9394 -4.7247 -1.9572 0.9784
2.3749 -4.5737 -1.9749 0.9782
2.8007 -4.3854 -1.9940 0.9780
3.2138 -4.1600 -2.0145 0.9777
3.6109 -3.8978 -2.0362 0.9775
4.6611 -2.8919 -2.1021 0.9768
4.6138 -2.3198 -1.9790 0.9781
2.3371 -0.9239 -0.9631 0.9893
5.5236 0.8919 -2.1441 0.9763
5.4750 1.3951 -2.1652 0.9761
5.2290 2.3877 -2.2029 0.9757
5.0315 2.8660 -2.2190 0.9755
4.7855 3.3248 -2.2331 0.9753
4.0893 4.0947 -2.2177 0.9755
3.3260 4.8007 -2.2381 0.9753
2.8481 5.0153 -2.2102 0.9756
1.7298 3.8013 -1.6005 0.9823
1.4445 5.7002 -2.2535 0.9751
0.4535 2.8324 -1.0992 0.9878
-0.1162 5.7858 -2.2177 0.9755
-1.1259 5.5846 -2.1832 0.9759
-1.6054 5.4123 -2.1634 0.9761
-2.0620 5.1960 -2.1423 0.9763
-2.8909 4.6458 -2.0969 0.9768
-3.5876 3.9649 -2.0491 0.9774
-2.3939 2.2118 -1.2490 0.9861
-4.1358 3.1865 -2.0008 0.9779
-4.3514 2.7710 -1.9769 0.9781
-5.0252 2.0550 -2.0806 0.9770
-5.1297 1.5798 -2.0569 0.9773
-5.1965 0.1585 -1.9923 0.9780
-4.9189 -1.1922 -1.9396 0.9786
-4.3382 -2.4042 -1.9007 0.9790
-4.0852 -2.7679 -1.8910 0.9791
-3.5011 -3.4245 -1.8768 0.9792
-2.8250 -3.9772 -1.8695 0.9793
-2.4572 -4.2112 -1.8684 0.9793
-2.0721 -4.4156 -1.8692 0.9793
-1.6717 -4.5890 -1.8716 0.9793
-0.3993 -4.9144 -1.8895 0.9791
0.0414 -4.9549 -1.8989 0.9790
0.9338 -4.9294 -1.9226 0.9787
1.3805 -4.8622 -1.9369 0.9786
3.1069 -4.2226 -2.0090 0.9778
3.5085 -3.9701 -2.0304 0.9776
4.5824 -2.9942 -2.0977 0.9768
4.5438 -2.4198 -1.9728 0.9782
2.2978 -0.9713 -0.9560 0.9894
5.0208 -1.6110 -2.0207 0.9777
5.2062 -1.1700 -2.0449 0.9774
5.5282 0.7601 -2.1384 0.9764
5.4925 1.2632 -2.1598 0.9761
5.4075 1.7649 -2.1798 0.9759
4.8546 3.2067 -2.2296 0.9754
4.1986 4.0115 -2.2253 0.9754
3.7347 4.2688 -2.1736 0.9760
2.9944 4.9964 -2.2323 0.9754
2.5263 5.2234 -2.2235 0.9755
2.0579 5.4496 -2.2323 0.9754
0.5405 5.8079 -2.2353 0.9753
-0.9968 5.6221 -2.1881 0.9758
-1.4817 5.4618 -2.1687 0.9760
-2.3818 5.0103 -2.1259 0.9765
-2.7893 4.7261 -2.1030 0.9768
-2.5122 2.0311 -1.2380 0.9863
-5.2124 0.7524 -2.0182 0.9777
-4.3999 -2.3052 -1.9035 0.9789
-4.1542 -2.6747 -1.8934 0.9791
-3.8814 -3.0215 -1.8850 0.9791
-3.5833 -3.3441 -1.8783 0.9792
-2.9184 -3.9110 -1.8700 0.9793
-2.1746 -4.3649 -1.8688 0.9793
-1.7780 -4.5466 -1.8708 0.9793
-1.3676 -4.6966 -1.8746 0.9793
-0.5138 -4.8981 -1.8873 0.9791
-0.0747 -4.9477 -1.8963 0.9790
0.3696 -4.9622 -1.9069 0.9789
2.1475 -4.6575 -1.9654 0.9783
2.5788 -4.4888 -1.9838 0.9781
3.4048 -4.0398 -2.0246 0.9776
4.5016 -3.0944 -2.0933 0.9769
4.4719 -2.5178 -1.9666 0.9783
5.1613 -1.2878 -2.0385 0.9775
5.3180 -0.8314 -2.0627 0.9772
5.4332 -0.3573 -2.0866 0.9769
5.5044 0.1308 -2.1100 0.9767
5.5295 0.6285 -2.1327 0.9764
5.5066 1.1312 -2.1543 0.9762
4.6521 3.5346 -2.2390 0.9753
3.8592 4.2077 -2.1880 0.9758
3.4244 4.4785 -2.1605 0.9761
3.1180 4.9363 -2.2375 0.9753
1.5229 3.7633 -1.5558 0.9828
1.7077 5.6180 -2.2502 0.9752
0.6252 2.9970 -1.1732 0.9870
0.6775 5.8019 -2.2385 0.9753
-0.3608 5.7561 -2.2102 0.9756
-0.8667 5.6564 -2.1929 0.9758
-1.3565 5.5083 -2.1740 0.9760
-1.8257 5.3147 -2.1535 0.9762
-2.2699 5.0787 -2.1318 0.9765
-3.7319 3.7874 -2.0376 0.9775
-5.0801 1.8295 -2.0692 0.9771
-5.1646 1.3531 -2.0460 0.9774
-5.2078 0.8769 -2.0238 0.9776
-5.2107 0.4041 -2.0028 0.9779
-5.1745 -0.0623 -1.9831 0.9781
-4.8459 -1.3951 -1.9325 0.9786
-4.4596 -2.2048 -1.9064 0.9789
-3.3481 -3.5657 -1.8744 0.9793
-3.0104 -3.8429 -1.8707 0.9793
-2.6524 -4.0921 -1.8688 0.9793
-2.2761 -4.3122 -1.8686 0.9793
-1.8835 -4.5020 -1.8701 0.9793
-1.4765 -4.6604 -1.8734 0.9793
-1.0572 -4.7865 -1.8785 0.9792
-0.6278 -4.8794 -1.8853 0.9791
0.6992 -4.9501 -1.9158 0.9788
1.1464 -4.9021 -1.9292 0.9787
1.5919 -4.8174 -1.9443 0.9785
2.4667 -4.5366 -1.9789 0.9781
3.6932 -3.8372 -2.0409 0.9774
4.4162 -3.1907 -2.0879 0.9769
4.7234 -2.8072 -2.1056 0.9767
4.9088 -1.8331 -2.0080 0.9778
5.1137 -1.4040 -2.0322 0.9775
5.2808 -0.9530 -2.0564 0.9773
5.4071 -0.4831 -2.0804 0.9770
5.5275 0.4974 -2.1268 0.9765
5.4583 1.5023 -2.1695 0.9760
5.1909 2.4911 -2.2065 0.9756
4.9830 2.9657 -2.2222 0.9755
4.7270 3.4197 -2.2358 0.9753
2.7714 5.1047 -2.2259 0.9754
1.3344 5.7221 -2.2516 0.9751
0.2923 5.8094 -2.2291 0.9754
-0.2262 5.7739 -2.2144 0.9756
-0.7354 5.6873 -2.1976 0.9757
-1.2299 5.5517 -2.1791 0.9759
-2.1560 5.1445 -2.1376 0.9764
-2.9719 4.5788 -2.0919 0.9769
-4.1851 3.0990 -1.9957 0.9779
-4.9113 2.4243 -2.0989 0.9768
-5.1877 0.0592 -1.9882 0.9780
-5.0229 -0.8490 -1.9522 0.9784
-4.7180 -1.7024 -1.9221 0.9787
-4.5172 -2.1030 -1.9095 0.9789
-4.2866 -2.4836 -1.8985 0.9790
-4.0278 -2.8425 -1.8892 0.9791
-3.7427 -3.1780 -1.8816 0.9792
-3.1010 -3.7729 -1.8715 0.9793
-2.3764 -4.2574 -1.8685 0.9793
-0.3057 -4.9260 -1.8914 0.9791
0.1361 -4.9590 -1.9011 0.9790
1.0292 -4.9182 -1.9256 0.9787
1.4754 -4.8431 -1.9402 0.9785
2.3538 -4.5819 -1.9740 0.9782
2.7802 -4.3954 -1.9931 0.9780
3.9707 -3.6150 -2.0578 0.9773
-0.2680 -4.6461 -1.9047 0.9801
1.4093 -4.5546 -1.9513 0.9796
1.8247 -4.4453 -1.9667 0.9794
2.2333 -4.3009 -1.9834 0.9793
2.6322 -4.1214 -2.0014 0.9791
3.0185 -3.9072 -2.0207 0.9789
3.3892 -3.6585 -2.0411 0.9787
4.0714 -3.0614 -2.0848 0.9782
4.3643 -2.7078 -2.1021 0.9780
4.3180 -2.1711 -1.9781 0.9793
4.7405 -1.3994 -2.0229 0.9789
4.9006 -0.9812 -2.0455 0.9786
5.1053 -0.0958 -2.0898 0.9782
5.1420 0.8303 -2.1317 0.9777
5.0934 1.2979 -2.1512 0.9775
4.9990 1.7623 -2.1694 0.9774
4.8585 2.2186 -2.1860 0.9772
4.6726 2.6616 -2.2009 0.9770
4.4422 3.0863 -2.2138 0.9769
2.7078 4.7683 -2.2443 0.9766
1.8121 5.1617 -2.2390 0.9766
1.3400 5.2878 -2.2326 0.9767
0.4747 2.9649 -1.2289 0.9871
-0.5833 5.3058 -2.1846 0.9772
-1.0467 5.1923 -2.1678 0.9774
-1.4936 5.0353 -2.1496 0.9776
-2.3213 4.6016 -2.1094 0.9780
-2.6953 4.3314 -2.0880 0.9782
-3.0390 4.0305 -2.0659 0.9784
-2.5693 1.9795 -1.3275 0.9861
-4.0727 2.5935 -1.9761 0.9793
-4.8118 1.4819 -2.0606 0.9785
-4.8739 1.0355 -2.0393 0.9787
-4.4798 -1.5205 -1.9362 0.9798
-4.0886 -2.2659 -1.9132 0.9800
-2.9936 -3.5038 -1.8861 0.9803
-2.3181 -3.9728 -1.8825 0.9803
-0.3764 -4.6333 -1.9025 0.9801
0.4585 -4.6735 -1.9219 0.9799
1.7163 -4.4773 -1.9625 0.9795
2.9186 -3.9667 -2.0156 0.9789
3.2937 -3.7270 -2.0357 0.9787
4.2912 -2.8039 -2.0980 0.9781
4.2534 -2.2651 -1.9723 0.9794
4.8621 -1.0927 -2.0396 0.9787
4.9947 -0.6613 -2.0620 0.9785
5.0877 -0.2149 -2.0841 0.9782
5.1392 0.2428 -2.1057 0.9780
5.1473 0.7077 -2.1265 0.9778
5.1105 1.1754 -2.1462 0.9776
5.0282 1.6411 -2.1647 0.9774
4.7257 2.5470 -2.1971 0.9771
4.2448 3.3850 -2.2220 0.9768
3.9417 3.7660 -2.2312 0.9767
2.8188 4.7034 -2.2442 0.9766
1.4649 5.2594 -2.2345 0.9767
0.5017 5.3908 -2.2159 0.9769
-0.4596 5.3280 -2.1887 0.9772
-1.3783 5.0805 -2.1545 0.9775
-1.8102 4.8930 -2.1352 0.9777
-2.2185 4.6669 -2.1149 0.9779
-2.6001 4.4054 -2.0936 0.9781
-2.9519 4.1121 -2.0717 0.9784
-3.2717 3.7908 -2.0494 0.9786
-3.5576 3.4452 -2.0269 0.9788
-2.4137 1.9516 -1.2704 0.9867
-4.0226 2.6962 -1.9820 0.9793
-4.2001 2.3003 -1.9599 0.9795
-1.9434 0.1049 -0.7965 0.9916
-1.9526 -0.2452 -0.8054 0.9915
-4.6647 -1.0154 -1.9539 0.9796
-4.5223 -1.4176 -1.9397 0.9797
-3.9161 -2.5213 -1.9062 0.9801
-3.6598 -2.8490 -1.8982 0.9802
-3.3794 -3.1538 -1.8918 0.9802
-2.4107 -3.9176 -1.8826 0.9803
-2.0515 -4.1178 -1.8829 0.9803
-1.6773 -4.2889 -1.8848 0.9803
1.6075 -4.5070 -1.9584 0.9795
2.0200 -4.3810 -1.9744 0.9794
2.4244 -4.2199 -1.9918 0.9792
3.1970 -3.7932 -2.0303 0.9788
3.5592 -3.5285 -2.0512 0.9786
3.9012 -3.2305 -2.0730 0.9783
4.2161 -2.8981 -2.0939 0.9781
4.1869 -2.3573 -1.9665 0.9794
4.4300 -1.9962 -1.9887 0.9792
4.8212 -1.2029 -2.0337 0.9788
4.9636 -0.7760 -2.0562 0.9785
5.1298 0.1219 -2.1001 0.9781
4.5685 2.8662 -2.2073 0.9770
4.3176 3.2804 -2.2192 0.9768
3.6935 4.0272 -2.2365 0.9767
2.9280 4.6355 -2.2440 0.9766
2.5023 4.8784 -2.2439 0.9766
1.5890 5.2277 -2.2362 0.9767
1.1121 5.3307 -2.2287 0.9767
-0.8055 5.2574 -2.1768 0.9773
-1.2616 5.1229 -2.1593 0.9775
-1.6990 4.9460 -2.1404 0.9777
-3.4860 3.5379 -2.0328 0.9788
-4.6383 2.1559 -2.0934 0.9781
-4.7636 1.7155 -2.0722 0.9784
-4.8462 1.2697 -2.0504 0.9786
-2.1063 0.3547 -0.8742 0.9908
-1.9549 0.1516 -0.8025 0.9916
-1.9576 -0.1993 -0.8053 0.9915
-4.6968 -0.9076 -1.9578 0.9795
-4.3974 -1.7042 -1.9302 0.9798
-4.2022 -2.0776 -1.9186 0.9799
-3.9790 -2.4318 -1.9086 0.9800
-3.7294 -2.7652 -1.9002 0.9801
-3.4552 -3.0762 -1.8934 0.9802
-3.1580 -3.3633 -1.8882 0.9803
-1.7767 -4.2469 -1.8841 0.9803
-0.5920 -4.6008 -1.8985 0.9802
-0.1795 -4.6549 -1.9066 0.9801
0.6586 -4.6631 -1.9274 0.9799
1.0795 -4.6160 -1.9402 0.9797
2.7157 -4.0786 -2.0055 0.9790
3.0990 -3.8570 -2.0250 0.9788
4.1387 -2.9902 -2.0897 0.9782
4.4222 -2.6282 -2.1054 0.9780
4.5898 -1.7139 -2.0052 0.9790
4.7777 -1.3118 -2.0277 0.9788
5.1175 0.0016 -2.0945 0.9781
5.1354 0.9301 -2.1360 0.9777
5.0771 1.3974 -2.1552 0.9775
4.3875 3.1741 -2.2163 0.9769
3.7840 3.9364 -2.2347 0.9767
3.4240 4.2669 -2.2391 0.9766
3.0353 4.5647 -2.2436 0.9766
2.6163 4.8189 -2.2442 0.9766
2.1736 5.0290 -2.2422 0.9766
1.2380 5.3084 -2.2309 0.9767
-0.2101 5.3629 -2.1966 0.9771
-1.1436 5.1624 -2.1641 0.9774
-1.5864 4.9964 -2.1455 0.9776
-2.0075 4.7901 -2.1257 0.9778
-2.4035 4.5467 -2.1049 0.9780
-2.7713 4.2697 -2.0833 0.9782
-3.1081 3.9626 -2.0612 0.9785
-2.3415 2.0820 -1.2824 0.9865
-3.9147 2.8988 -1.9937 0.9792
-4.1116 2.5093 -1.9714 0.9794
-4.5959 2.2686 -2.0977 0.9781
-4.7354 1.8319 -2.0780 0.9783
-1.9577 0.1981 -0.8053 0.9915
-1.9551 -0.1528 -0.8026 0.9916
-2.1221 -0.3587 -0.8808 0.9907
-4.6010 -1.2085 -1.9469 0.9796
-4.4437 -1.6034 -1.9335 0.9798
-3.7974 -2.6799 -1.9022 0.9801
-3.5294 -2.9969 -1.8950 0.9802
-2.9251 -3.5589 -1.8854 0.9803
-1.4946 -4.3598 -1.8863 0.9803
-0.2882 -4.6439 -1.9043 0.9801
1.8046 -4.4514 -1.9659 0.9795
2.2135 -4.3087 -1.9825 0.9793
2.6129 -4.1310 -2.0005 0.9791
4.0558 -3.0776 -2.0837 0.9782
0.1405 -4.4154 -1.9253 0.9809
0.9344 -4.3697 -1.9474 0.9807
3.8270 -2.8777 -2.0868 0.9793
4.0985 -2.5429 -2.1021 0.9792
4.0534 -2.0381 -1.9773 0.9804
4.4438 -1.3118 -2.0193 0.9800
4.7557 1.2118 -2.1388 0.9788
4.5316 2.0693 -2.1711 0.9785
4.3561 2.4813 -2.1849 0.9784
3.8839 3.2491 -2.2069 0.9781
3.2640 3.9122 -2.2205 0.9780
2.9060 4.1945 -2.2239 0.9780
1.2480 4.9248 -2.2142 0.9781
-0.5441 4.9489 -2.1698 0.9785
-1.7936 4.5196 -2.1191 0.9790
-2.1702 4.3021 -2.1000 0.9792
-2.5215 4.0522 -2.0800 0.9794
-3.1384 3.4684 -2.0385 0.9798
-2.2896 2.1155 -1.3586 0.9865
-3.8233 2.4347 -1.9754 0.9804
-3.9836 2.0618 -1.9549 0.9806
-1.5775 0.4859 -0.7194 0.9928
-1.5220 0.1834 -0.6681 0.9933
-1.5278 0.0466 -0.6662 0.9934
-1.5897 -0.5396 -0.7317 0.9927
-4.0594 -1.7965 -1.9347 0.9808
-2.8301 -3.3124 -1.8988 0.9812
-1.8481 -3.9383 -1.8960 0.9812
-1.4908 -4.0924 -1.8982 0.9812
-1.1216 -4.2177 -1.9020 0.9811
0.4330 -4.4136 -1.9328 0.9808
1.2265 -4.3198 -1.9570 0.9806
1.6190 -4.2234 -1.9713 0.9805
3.4345 -3.2488 -2.0604 0.9796
2.2957 -0.9704 -1.0862 0.9892
4.3997 -1.4117 -2.0137 0.9800
4.6764 -0.6192 -2.0558 0.9796
4.7603 -0.2011 -2.0764 0.9794
4.8097 0.6613 -2.1158 0.9790
4.7725 1.0976 -2.1342 0.9789
4.4062 2.3748 -2.1814 0.9784
4.2003 2.7745 -2.1939 0.9783
3.9547 3.1537 -2.2044 0.9782
2.6244 4.3790 -2.2249 0.9780
0.0169 5.0184 -2.1871 0.9783
-0.4287 4.9690 -2.1736 0.9785
-0.8647 4.8767 -2.1585 0.9786
-1.6910 4.5709 -2.1240 0.9790
-2.0738 4.3623 -2.1051 0.9791
-2.4320 4.1206 -2.0853 0.9793
-3.0644 3.5506 -2.0440 0.9797
-3.3345 3.2291 -2.0230 0.9799
-2.3857 1.9289 -1.3370 0.9867
-3.7756 2.5306 -1.9809 0.9804
-4.3925 1.9177 -2.0888 0.9793
-1.5879 0.5301 -0.7296 0.9927
-1.5361 0.3642 -0.6880 0.9931
-1.5149 0.2187 -0.6671 0.9933
-1.5295 0.0826 -0.6676 0.9933
-1.5284 -0.0543 -0.6665 0.9933
-1.5207 -0.1909 -0.6679 0.9933
-1.5800 -0.4953 -0.7216 0.9928
-4.1066 -1.7034 -1.9376 0.9808
-3.9165 -2.0520 -1.9270 0.9809
-3.4587 -2.6924 -1.9103 0.9811
-3.1943 -2.9811 -1.9042 0.9811
-2.6028 -3.4881 -1.8968 0.9812
-1.9396 -3.8932 -1.8956 0.9812
-1.5857 -4.0548 -1.8975 0.9812
-1.2194 -4.1877 -1.9009 0.9811
-0.0665 -4.4060 -1.9204 0.9810
0.3289 -4.4163 -1.9300 0.9809
0.7261 -4.3943 -1.9411 0.9808
1.1228 -4.3396 -1.9535 0.9806
1.5166 -4.2519 -1.9674 0.9805
1.9048 -4.1311 -1.9826 0.9803
3.0098 -3.5711 -2.0354 0.9798
3.3488 -3.3199 -2.0551 0.9796
3.6683 -3.0376 -2.0757 0.9794
2.3278 -1.0489 -1.1127 0.9889
4.3534 -1.5103 -2.0082 0.9801
4.5179 -1.1272 -2.0293 0.9799
4.7420 -0.3118 -2.0711 0.9795
4.7973 0.1140 -2.0913 0.9793
4.7863 0.9832 -2.1295 0.9789
4.2582 2.6715 -2.1908 0.9783
4.0229 3.0565 -2.2019 0.9782
3.7491 3.4175 -2.2109 0.9781
3.4396 3.7503 -2.2178 0.9780
3.0974 4.0509 -2.2224 0.9780
2.3297 4.5419 -2.2247 0.9780
1.4798 4.8683 -2.2176 0.9780
-0.3126 4.9862 -2.1773 0.9784
-1.9756 4.4204 -2.1101 0.9791
-2.3406 4.1871 -2.0906 0.9793
-2.6790 3.9229 -2.0703 0.9795
-3.9038 2.2587 -1.9656 0.9805
-4.3545 2.0240 -2.0928 0.9793
-1.5527 0.4068 -0.6995 0.9930
-1.5056 0.2535 -0.6654 0.9934
-1.5259 -0.1554 -0.6685 0.9933
-1.5012 -0.2901 -0.6663 0.9934
-4.1519 -1.6091 -1.9406 0.9808
-3.9690 -1.9623 -1.9296 0.9809
-3.7593 -2.2975 -1.9201 0.9810
-3.2658 -2.9075 -1.9056 0.9811
-2.9853 -3.1794 -1.9007 0.9812
-2.6848 -3.4272 -1.8974 0.9812
-2.3657 -3.6499 -1.8956 0.9812
-2.0301 -3.8462 -1.8954 0.9812
-1.6798 -4.0151 -1.8968 0.9812
-0.9425 -4.2669 -1.9044 0.9811
-0.5594 -4.3479 -1.9105 0.9811
-0.1696 -4.3981 -1.9182 0.9810
0.2250 -4.4167 -1.9274 0.9809
1.0190 -4.3571 -1.9501 0.9807
1.4137 -4.2781 -1.9636 0.9805
2.1862 -4.0208 -1.9946 0.9802
2.5586 -3.8426 -2.0119 0.9801
2.9180 -3.6317 -2.0304 0.9799
3.5865 -3.1146 -2.0702 0.9795
3.8681 -2.2989 -1.9610 0.9806
4.7210 -0.4218 -2.0657 0.9795
4.7866 0.0015 -2.0861 0.9793
4.8125 0.4330 -2.1058 0.9791
4.7972 0.8688 -2.1247 0.9790
4.4976 2.1584 -2.1742 0.9785
4.3134 2.5672 -2.1876 0.9783
3.5241 3.6660 -2.2162 0.9781
3.1901 3.9754 -2.2214 0.9780
1.5946 4.8355 -2.2190 0.9780
0.3949 2.8089 -1.2362 0.9877
0.2529 5.0266 -2.1934 0.9783
-0.1959 5.0004 -2.1809 0.9784
-0.6375 4.9303 -2.1666 0.9785
-1.0674 4.8182 -2.1508 0.9787
-1.8759 4.4760 -2.1151 0.9790
-2.2474 4.2514 -2.0958 0.9792
-2.9101 3.7102 -2.0550 0.9796
-3.1969 3.4004 -2.0340 0.9798
-2.3169 2.0602 -1.3512 0.9866
-3.8604 2.3560 -1.9710 0.9805
-4.3140 2.1295 -2.0967 0.9792
-4.4520 1.7222 -2.0804 0.9794
-1.5247 0.0174 -0.6645 0.9934
-1.5289 -0.1195 -0.6684 0.9933
-1.5531 -0.4080 -0.6998 0.9930
-1.5958 -0.5758 -0.7394 0.9926
-3.5883 -2.5324 -1.9140 0.9810
-3.3357 -2.8325 -1.9072 0.9811
-3.0609 -3.1104 -1.9018 0.9811
-2.4510 -3.5940 -1.8959 0.9812
-2.1196 -3.7974 -1.8953 0.9812
-1.4130 -4.1216 -1.8989 0.9812
-1.0415 -4.2406 -1.9030 0.9811
-0.6606 -4.3296 -1.9088 0.9811
0.1212 -4.4149 -1.9248 0.9809
1.3106 -4.3020 -1.9600 0.9806
1.7020 -4.1986 -1.9745 0.9804
2.4621 -3.8925 -2.0073 0.9801
2.8252 -3.6901 -2.0254 0.9799
3.1732 -3.4555 -2.0446 0.9797
3.5033 -3.1894 -2.0648 0.9795
-0.2397 -4.1563 -1.9271 0.9818
0.1330 -4.1793 -1.9355 0.9817
0.5083 -4.1719 -1.9454 0.9816
0.8839 -4.1335 -1.9566 0.9815
1.9892 -3.8308 -1.9980 0.9812
2.3421 -3.6673 -2.0142 0.9810
3.8149 -1.9182 -1.9765 0.9814
2.3500 -0.9290 -1.1697 0.9889
4.1771 -1.2331 -2.0160 0.9810
4.5021 0.7269 -2.1110 0.9801
4.4545 1.1351 -2.1278 0.9799
4.3673 1.5396 -2.1435 0.9798
3.8709 2.6894 -2.1818 0.9794
2.7152 3.9190 -2.2069 0.9792
1.9745 4.3391 -2.2067 0.9792
1.5767 4.4913 -2.2033 0.9792
0.4778 2.9843 -1.3990 0.9868
0.3264 4.7002 -2.1809 0.9794
-0.0941 4.6862 -2.1696 0.9796
-1.3064 4.4041 -2.1264 0.9800
-2.6711 3.5425 -2.0537 0.9806
-2.2818 2.1083 -1.4380 0.9864
-2.4821 1.9124 -1.4504 0.9863
-3.7517 1.9418 -1.9554 0.9816
-1.3273 0.5428 -0.6638 0.9937
-1.3372 0.0408 -0.6192 0.9941
-1.3385 -0.0790 -0.6207 0.9941
-1.3258 -0.1981 -0.6205 0.9941
-1.3066 -0.3167 -0.6223 0.9941
-1.3334 -0.4526 -0.6518 0.9938
-1.3193 -0.5839 -0.6678 0.9937
-3.4454 -2.3344 -1.9264 0.9818
-2.9563 -2.8916 -1.9142 0.9819
-2.6808 -3.1376 -1.9103 0.9820
-2.0762 -3.5584 -1.9070 0.9820
-1.4121 -3.8766 -1.9097 0.9820
-0.7032 -4.0846 -1.9185 0.9819
-0.3368 -4.1453 -1.9251 0.9818
0.7855 -4.1466 -1.9535 0.9816
1.8949 -3.8685 -1.9939 0.9812
3.2388 -3.0636 -2.0636 0.9805
3.5327 -2.7884 -2.0833 0.9804
3.7951 -2.4797 -2.0984 0.9802
4.1364 -1.3272 -2.0108 0.9810
4.2801 -0.9619 -2.0306 0.9808
4.5081 0.6198 -2.1064 0.9801
4.3940 1.4341 -2.1395 0.9798
4.2776 1.8333 -2.1542 0.9797
3.4313 3.2783 -2.1967 0.9793
2.0762 4.2926 -2.2072 0.9792
0.5743 3.1168 -1.4670 0.9861
0.4371 4.6969 -2.1835 0.9794
-0.8094 4.5652 -2.1461 0.9798
-2.5936 3.6131 -2.0587 0.9806
-2.8784 3.3351 -2.0392 0.9808
-2.3760 1.9211 -1.4143 0.9866
-3.5531 2.3815 -1.9799 0.9813
-1.3210 0.5767 -0.6672 0.9937
-1.3044 0.3092 -0.6205 0.9941
-1.3384 0.0723 -0.6205 0.9941
-1.3376 -0.0475 -0.6195 0.9941
-1.3288 -0.4165 -0.6446 0.9939
-3.2752 -2.5496 -1.9212 0.9819
-3.0253 -2.8233 -1.9154 0.9819
-2.7549 -3.0753 -1.9112 0.9820
-1.8374 -3.6881 -1.9073 0.9820
-1.1550 -3.9665 -1.9123 0.9820
-0.0629 -4.1710 -1.9309 0.9818
1.0620 -4.1043 -1.9624 0.9815
1.8001 -3.9040 -1.9900 0.9812
2.5059 -3.5787 -2.0223 0.9809
2.8402 -3.3698 -2.0400 0.9808
3.7294 -2.5636 -2.0948 0.9803
4.0935 -1.4202 -2.0056 0.9811
4.2455 -1.0593 -2.0254 0.9809
4.3652 -0.6825 -2.0451 0.9807
4.4505 -0.2927 -2.0645 0.9805
4.4998 0.1069 -2.0835 0.9804
4.5114 0.5128 -2.1017 0.9802
4.4844 0.9212 -2.1191 0.9800
4.4180 1.3282 -2.1354 0.9799
4.3119 1.7295 -2.1505 0.9797
3.9824 2.4985 -2.1762 0.9795
3.7611 2.8576 -2.1864 0.9794
2.8941 3.7850 -2.2055 0.9792
2.5469 4.0322 -2.2076 0.9792
1.5378 3.8002 -1.8976 0.9821
1.3829 4.5494 -2.2010 0.9793
0.1260 4.6987 -2.1757 0.9795
-0.2925 4.6651 -2.1636 0.9796
-0.7034 4.5911 -2.1499 0.9797
-1.1028 4.4782 -2.1348 0.9799
-1.4869 4.3284 -2.1185 0.9800
-1.8521 4.1439 -2.1010 0.9802
-2.1955 3.9275 -2.0828 0.9804
-2.5144 3.6819 -2.0638 0.9805
-3.0699 3.1157 -2.0247 0.9809
-2.3422 1.9863 -1.4215 0.9866
-3.5054 2.4706 -1.9851 0.9813
-3.6755 2.1265 -1.9656 0.9815
-1.3124 0.6100 -0.6699 0.9936
-1.3333 0.4801 -0.6559 0.9938
-1.3113 -0.2534 -0.6182 0.9941
-1.3225 -0.3807 -0.6370 0.9940
-3.5588 -2.1750 -1.9306 0.9818
-3.3371 -2.4743 -1.9230 0.9819
-2.5432 -3.2465 -1.9089 0.9820
-2.2411 -3.4576 -1.9073 0.9820
-1.9232 -3.6436 -1.9071 0.9820
-1.5912 -3.8035 -1.9084 0.9820
-1.2471 -3.9363 -1.9113 0.9820
-0.8926 -4.0411 -1.9156 0.9819
-0.5297 -4.1172 -1.9215 0.9819
-0.1605 -4.1638 -1.9288 0.9818
0.5885 -4.1663 -1.9477 0.9816
0.9638 -4.1213 -1.9592 0.9815
1.3367 -4.0451 -1.9720 0.9814
1.7047 -3.9375 -1.9861 0.9813
2.0653 -3.7985 -2.0014 0.9811
2.4160 -3.6284 -2.0178 0.9810
2.7540 -3.4275 -2.0352 0.9808
3.0766 -3.1965 -2.0536 0.9806
3.3812 -2.9363 -2.0729 0.9805
3.6620 -2.6458 -2.0912 0.9803
3.6423 -2.1647 -1.9612 0.9815
3.8589 -1.8489 -1.9807 0.9813
4.0486 -1.5118 -2.0004 0.9811
4.3371 -0.7827 -2.0400 0.9808
4.5121 0.4060 -2.0970 0.9802
4.4953 0.8141 -2.1146 0.9801
4.4392 1.2218 -2.1313 0.9799
4.2084 2.0196 -2.1607 0.9796
4.0344 2.4011 -2.1732 0.9795
3.8226 2.7654 -2.1839 0.9794
2.9808 3.7146 -2.2046 0.9792
2.2758 4.1917 -2.2078 0.9792
1.6425 3.8003 -1.9164 0.9819
1.4901 4.5185 -2.2023 0.9792
-0.1833 4.6778 -2.1670 0.9796
-0.5966 4.6143 -2.1537 0.9797
-1.3878 4.3711 -2.1229 0.9800
-2.1077 3.9872 -2.0876 0.9803
-2.4333 3.7490 -2.0688 0.9805
-2.7326 3.4838 -2.0495 0.9807
-3.4554 2.5587 -1.9903 0.9812
-1.3115 0.2526 -0.6182 0.9941
-1.3350 0.0152 -0.6180 0.9941
-1.3382 -0.1046 -0.6213 0.9941
-1.3332 -0.4811 -0.6561 0.9938
-1.3121 -0.6109 -0.6700 0.9936
-2.6195 -3.1871 -1.9096 0.9820
-1.6795 -3.7642 -1.9079 0.9820
-1.3384 -3.9041 -1.9104 0.9820
-0.6256 -4.1000 -1.9198 0.9819
-0.2578 -4.1544 -1.9267 0.9818
0.4899 -4.1729 -1.9449 0.9817
2.3251 -3.6760 -2.0134 0.9810
3.3032 -3.0073 -2.0678 0.9805
3.5926 -2.7261 -2.0875 0.9803
-0.2274 -3.9421 -1.9369 0.9826
0.4818 -3.9549 -1.9543 0.9824
0.8376 -3.9173 -1.9650 0.9823
1.1913 -3.8501 -1.9769 0.9822
1.5406 -3.7531 -1.9901 0.9821
3.5987 -1.8095 -1.9758 0.9822
4.0612 -0.8132 -2.0316 0.9817
4.1548 -0.4513 -2.0500 0.9816
4.2409 0.3002 -2.0855 0.9812
4.1839 1.0661 -2.1179 0.9809
3.9795 1.8172 -2.1459 0.9807
2.8585 3.4261 -2.1887 0.9803
2.5445 3.6727 -2.1916 0.9803
2.2073 3.8869 -2.1926 0.9803
0.3062 4.4080 -2.1674 0.9805
-0.0883 4.3963 -2.1569 0.9806
-1.5797 3.9806 -2.1007 0.9811
-2.2257 3.5768 -2.0665 0.9814
-2.2739 2.1009 -1.5186 0.9863
-2.4409 1.8806 -1.5114 0.9864
-3.3948 2.1618 -1.9742 0.9822
-1.1238 0.5816 -0.6207 0.9944
-1.1493 0.4700 -0.6091 0.9945
-1.1709 0.2488 -0.5872 0.9947
-1.1904 0.1434 -0.5881 0.9947
-1.1960 -0.0706 -0.5877 0.9947
-1.1618 -0.2816 -0.5864 0.9947
-1.1431 -0.5059 -0.6132 0.9944
-3.0468 -2.4886 -1.9297 0.9826
-2.8048 -2.7435 -1.9246 0.9827
-2.2650 -3.1887 -1.9186 0.9827
-1.9703 -3.3767 -1.9177 0.9827
-1.0079 -3.7902 -1.9238 0.9827
-0.6671 -3.8749 -1.9287 0.9826
0.0331 -3.9603 -1.9427 0.9825
0.3884 -3.9598 -1.9517 0.9824
0.7445 -3.9300 -1.9621 0.9823
1.4496 -3.7815 -1.9865 0.9821
2.4547 -3.3361 -2.0317 0.9817
2.7658 -3.1296 -2.0487 0.9816
3.3367 -2.6337 -2.0851 0.9812
2.2936 -0.9695 -1.2214 0.9890
4.2376 0.2002 -2.0809 0.9813
4.2369 0.5825 -2.0978 0.9811
4.1257 1.3466 -2.1288 0.9809
4.0147 1.7207 -2.1426 0.9807
3.6839 2.4334 -2.1657 0.9805
2.9365 3.3565 -2.1876 0.9803
2.6292 3.6110 -2.1911 0.9803
2.2977 3.8340 -2.1925 0.9803
1.9457 4.0228 -2.1920 0.9803
0.5751 3.1211 -1.5568 0.9860
0.4099 4.4046 -2.1699 0.9805
-0.3764 4.3631 -2.1481 0.9807
-1.1319 4.1722 -2.1205 0.9809
-1.4889 4.0247 -2.1050 0.9811
-1.8279 3.8452 -2.0884 0.9812
-2.1461 3.6362 -2.0711 0.9814
-2.4409 3.4003 -2.0532 0.9815
-2.7105 3.1405 -2.0349 0.9817
-2.2449 2.1740 -1.5329 0.9862
-2.3667 1.9135 -1.4929 0.9865
-1.1443 0.4996 -0.6125 0.9945
-1.1962 0.0646 -0.5876 0.9947
-1.1896 -0.1494 -0.5881 0.9947
-1.1483 -0.4763 -0.6098 0.9945
-1.4254 -3.6447 -1.9197 0.9827
-1.0959 -3.7635 -1.9228 0.9827
-0.7572 -3.8554 -1.9273 0.9826
-0.0597 -3.9556 -1.9405 0.9825
0.2951 -3.9628 -1.9492 0.9825
0.6512 -3.9407 -1.9592 0.9824
1.7045 -3.6966 -1.9967 0.9820
2.6856 -3.1865 -2.0442 0.9816
2.9850 -2.9593 -2.0618 0.9814
3.5200 -2.4196 -2.0952 0.9811
2.3020 -1.0373 -1.2386 0.9888
3.8583 -1.3386 -2.0033 0.9820
4.1098 -0.6425 -2.0404 0.9816
4.1878 -0.2754 -2.0586 0.9815
4.2406 0.4820 -2.0935 0.9812
4.2131 0.8655 -2.1098 0.9810
4.1487 1.2472 -2.1250 0.9809
3.9094 1.9902 -2.1518 0.9806
3.7354 2.3435 -2.1630 0.9805
3.0127 3.2848 -2.1864 0.9803
2.3868 3.7787 -2.1923 0.9803
1.2962 4.2642 -2.1862 0.9803
-2.0648 3.6937 -2.0757 0.9813
-2.3660 3.4646 -2.0580 0.9815
-2.3341 1.9795 -1.5012 0.9865
-3.3059 2.3300 -1.9839 0.9821
-1.1382 0.5290 -0.6157 0.9944
-1.1557 0.4162 -0.6025 0.9945
-1.1582 0.3034 -0.5873 0.9947
-1.1818 0.1990 -0.5879 0.9947
-1.1949 0.0927 -0.5879 0.9947
-1.1927 -0.1214 -0.5881 0.9947
-1.1760 -0.2272 -0.5875 0.9947
-1.1525 -0.4467 -0.6063 0.9945
-1.1308 -0.5591 -0.6188 0.9944
-3.3750 -2.0627 -1.9402 0.9825
-3.1654 -2.3470 -1.9330 0.9826
-2.6830 -2.8573 -1.9226 0.9827
-2.4132 -3.0806 -1.9196 0.9827
-2.1267 -3.2811 -1.9180 0.9827
-1.8250 -3.4576 -1.9178 0.9827
-0.5025 -3.9055 -1.9315 0.9826
0.2019 -3.9637 -1.9468 0.9825
0.9134 -3.9055 -1.9674 0.9823
1.9550 -3.5955 -2.0075 0.9819
2.2859 -3.4330 -2.0231 0.9818
2.9082 -3.0215 -2.0571 0.9815
3.1944 -2.7741 -2.0753 0.9813
3.4567 -2.4974 -2.0918 0.9812
3.4374 -2.0429 -1.9614 0.9823
4.0839 -0.7370 -2.0356 0.9817
4.2237 0.0013 -2.0718 0.9814
4.2418 0.3817 -2.0891 0.9812
4.0775 1.5255 -2.1355 0.9808
3.0870 3.2113 -2.1850 0.9803
2.4744 3.7212 -2.1920 0.9803
1.6323 3.7766 -2.0181 0.9818
1.3966 4.2350 -2.1874 0.9803
1.0102 4.3319 -2.1819 0.9804
0.4210 2.9939 -1.4830 0.9866
0.2218 4.4087 -2.1653 0.9805
-0.1719 4.3888 -2.1545 0.9806
-1.3037 4.1062 -2.1133 0.9810
-1.9820 3.7493 -2.0803 0.9813
-2.2894 3.5272 -2.0627 0.9814
-2.3011 2.0461 -1.5104 0.9864
-2.6425 1.9568 -1.6129 0.9855
-3.4286 2.0925 -1.9703 0.9823
-1.1589 0.3329 -0.5915 0.9946
-1.1928 0.1207 -0.5881 0.9947
-1.1817 -0.1997 -0.5879 0.9947
-3.2225 -2.2743 -1.9347 0.9826
-2.9969 -2.5447 -1.9285 0.9826
-2.7507 -2.7951 -1.9237 0.9827
-1.5938 -3.5719 -1.9186 0.9827
-0.2446 -3.9403 -1.9365 0.9826
0.1088 -3.9626 -1.9445 0.9825
1.1741 -3.8541 -1.9763 0.9822
1.5237 -3.7586 -1.9894 0.9821
1.8665 -3.6333 -2.0036 0.9820
2.8301 -3.0819 -2.0525 0.9815
3.1212 -2.8416 -2.0705 0.9814
3.6303 -2.2745 -2.1014 0.9811
-0.2160 -3.7447 -1.9459 0.9832
0.4575 -3.7552 -1.9625 0.9831
2.6942 -2.9083 -2.0567 0.9823
3.2196 -2.4209 -2.0898 0.9820
3.4017 -1.7104 -1.9752 0.9830
3.7166 -1.0971 -2.0103 0.9827
3.9742 -0.0746 -2.0621 0.9822
3.8589 1.3604 -2.1227 0.9817
3.1997 2.6767 -2.1642 0.9814
2.9566 2.9605 -2.1706 0.9813
2.0739 3.6521 -2.1788 0.9813
1.3886 3.9556 -2.1749 0.9813
1.0276 4.0549 -2.1701 0.9813
0.4803 2.9998 -1.5761 0.9864
-0.0831 4.1348 -2.1455 0.9815
-0.4496 4.0892 -2.1342 0.9816
-1.4880 3.7497 -2.0928 0.9820
-2.0986 3.3725 -2.0607 0.9823
-2.3717 3.1455 -2.0437 0.9824
-2.6207 2.8963 -2.0264 0.9826
-2.2658 2.0935 -1.6004 0.9862
-2.4161 1.8615 -1.5823 0.9863
-1.0232 0.5296 -0.5977 0.9948
-1.0523 0.4303 -0.5898 0.9949
-1.0828 0.2300 -0.5743 0.9950
-1.1009 0.1326 -0.5752 0.9950
