ply
format ascii 1.0
element vertex 1589
property float32 x
property float32 y
property float32 z
property float32 I
end_header
-9.0041 -6.7276 -1.5926 0.9556
-8.2958 -7.4413 -1.5790 0.9560
-7.5489 -8.1003 -1.5689 0.9563
-5.9473 -9.2531 -1.5585 0.9565
-4.1940 -10.1358 -1.5542 0.9567
-1.3878 -11.1402 -1.5906 0.9557
1.6773 -11.5306 -1.6510 0.9540
2.7456 -11.5226 -1.6783 0.9533
6.0610 -11.0340 -1.7837 0.9504
7.1930 -10.7019 -1.8270 0.9492
8.3317 -10.2770 -1.8746 0.9480
9.4716 -9.7543 -1.9264 0.9466
10.6065 -9.1283 -1.9828 0.9450
12.8281 -7.5457 -2.1087 0.9416
13.8421 -5.0964 -2.0900 0.9421
14.7337 -3.9718 -2.1621 0.9402
14.5130 0.0736 -2.0564 0.9431
11.7416 1.1133 -1.6711 0.9535
7.4790 2.8401 -1.1335 0.9682
6.7801 3.2952 -1.0681 0.9700
5.3951 3.9446 -0.9470 0.9734
4.1879 4.4014 -0.8608 0.9758
3.7874 4.7698 -0.8630 0.9757
3.2041 4.8733 -0.8264 0.9767
1.3474 5.9203 -0.8603 0.9758
-1.5881 6.9854 -1.0150 0.9715
-11.4725 12.0627 -2.3587 0.9350
-2.5897 1.8943 -0.4546 0.9871
-13.2219 5.0244 -2.0041 0.9445
-13.1322 2.4470 -1.8927 0.9475
-12.3651 -1.0432 -1.7582 0.9511
-11.9685 -2.0992 -1.7217 0.9521
-11.5110 -3.1003 -1.6891 0.9530
-10.9977 -4.0464 -1.6604 0.9538
-10.4327 -4.9373 -1.6354 0.9544
-9.1626 -6.5544 -1.5962 0.9555
-7.7254 -7.9524 -1.5709 0.9562
-6.9503 -8.5692 -1.5633 0.9564
-5.2964 -9.6369 -1.5581 0.9565
-2.5789 -10.8124 -1.5750 0.9561
-1.6151 -11.0856 -1.5873 0.9558
-0.6244 -11.2967 -1.6031 0.9553
0.3921 -11.4431 -1.6223 0.9548
1.4328 -11.5222 -1.6451 0.9542
2.4961 -11.5310 -1.6717 0.9535
3.5800 -11.4659 -1.7019 0.9526
5.8000 -11.0983 -1.7743 0.9507
6.9298 -10.7869 -1.8166 0.9495
8.0673 -10.3841 -1.8631 0.9483
9.2076 -9.8845 -1.9140 0.9469
10.3442 -9.2829 -1.9693 0.9454
13.6297 -6.8035 -2.1584 0.9403
14.9316 -0.2340 -2.1159 0.9415
10.4116 1.7151 -1.4951 0.9583
8.8411 2.2832 -1.2938 0.9638
7.6986 2.7422 -1.1579 0.9675
6.3681 3.6555 -1.0404 0.9708
4.9285 4.1515 -0.9130 0.9743
4.3370 4.3728 -0.8726 0.9754
3.9075 4.7168 -0.8679 0.9756
3.3168 4.8236 -0.8294 0.9766
2.8542 5.0680 -0.8241 0.9768
1.9609 5.6514 -0.8476 0.9761
1.4644 5.8691 -0.8571 0.9759
0.4034 6.1425 -0.8722 0.9754
-0.1525 6.3850 -0.9049 0.9745
-0.7796 6.8486 -0.9766 0.9725
-1.4270 6.9397 -1.0038 0.9718
-8.4388 16.5638 -2.6339 0.9276
-9.5565 15.2206 -2.5464 0.9300
-10.5119 13.8242 -2.4607 0.9322
-11.9560 10.9553 -2.2977 0.9366
-2.4971 1.9073 -0.4452 0.9874
-12.8299 8.0942 -2.1494 0.9406
-13.0757 6.6973 -2.0816 0.9424
-13.2326 4.0127 -1.9592 0.9457
-12.4478 -0.7905 -1.7673 0.9509
-12.0660 -1.8593 -1.7298 0.9519
-10.5681 -4.7356 -1.6409 0.9543
-9.9661 -5.5843 -1.6187 0.9549
-9.3188 -6.3781 -1.6000 0.9554
-5.4948 -9.5245 -1.5580 0.9565
-4.6109 -9.9535 -1.5543 0.9567
-0.8564 -11.2534 -1.5991 0.9554
1.1894 -11.5100 -1.6395 0.9543
2.2476 -11.5354 -1.6652 0.9536
4.4252 -11.3633 -1.7278 0.9519
5.5397 -11.1580 -1.7651 0.9509
6.6670 -10.8671 -1.8064 0.9498
7.8031 -10.4859 -1.8520 0.9486
10.0814 -9.4317 -1.9561 0.9458
12.3216 -7.9533 -2.0779 0.9425
13.4051 -7.0425 -2.1455 0.9407
2.3270 -0.9681 -0.3571 0.9899
14.3282 -4.5077 -2.1282 0.9411
15.9587 -2.0194 -2.2792 0.9371
14.8998 -0.5428 -2.1125 0.9415
7.9281 2.6400 -1.1840 0.9668
5.8664 3.9265 -1.0002 0.9719
2.9654 5.0191 -0.8260 0.9767
2.4885 5.2290 -0.8205 0.9769
2.0140 5.4375 -0.8216 0.9768
1.0415 5.8636 -0.8438 0.9762
-0.0198 6.3271 -0.8965 0.9748
-0.6300 6.7835 -0.9653 0.9729
-1.2646 6.8691 -0.9896 0.9722
-6.8367 18.1088 -2.7426 0.9248
-10.3047 14.1515 -2.4804 0.9317
-11.1383 12.7291 -2.3966 0.9339
-11.8192 11.2897 -2.3159 0.9361
-2.4612 1.9620 -0.4460 0.9874
-12.7555 8.4221 -2.1657 0.9401
-13.1862 3.0278 -1.9170 0.9468
-13.0466 1.7886 -1.8659 0.9482
-12.5269 -0.5350 -1.7765 0.9506
-12.1603 -1.6164 -1.7381 0.9516
-11.7304 -2.6430 -1.7037 0.9526
-10.7009 -4.5310 -1.6465 0.9541
-9.4727 -6.1990 -1.6040 0.9553
-8.0724 -7.6477 -1.5756 0.9561
-7.3142 -8.2900 -1.5664 0.9563
-6.5200 -8.8773 -1.5606 0.9565
-5.6916 -9.4092 -1.5581 0.9565
-4.8194 -9.8621 -1.5553 0.9566
-3.0122 -10.6507 -1.5683 0.9563
-2.0655 -10.9665 -1.5812 0.9559
-1.0871 -11.2067 -1.5953 0.9555
3.0749 -11.5055 -1.6874 0.9530
6.4047 -10.9424 -1.7965 0.9501
8.6789 -10.1285 -1.8899 0.9475
9.8180 -9.5749 -1.9431 0.9461
10.9498 -8.9164 -2.0008 0.9445
12.0660 -8.1478 -2.0629 0.9429
15.7871 -2.3313 -2.2611 0.9376
11.1863 1.3690 -1.5968 0.9555
9.5145 2.0403 -1.3787 0.9615
8.1681 2.5330 -1.2117 0.9660
6.5754 3.4201 -1.0502 0.9705
6.0268 3.8553 -1.0137 0.9715
5.2061 4.0284 -0.9327 0.9738
4.1520 4.6087 -0.8789 0.9753
3.6316 4.8386 -0.8572 0.9759
2.5632 5.1101 -0.8100 0.9772
2.1241 5.3891 -0.8207 0.9769
1.6960 5.7676 -0.8518 0.9760
0.3307 3.0773 -0.4385 0.9876
-0.4837 6.7198 -0.9546 0.9731
-1.1316 6.9539 -0.9983 0.9719
-4.7324 13.3676 -2.0092 0.9443
-7.8648 17.1619 -2.6748 0.9266
-9.0586 15.8514 -2.5869 0.9289
-10.0889 14.4769 -2.5002 0.9312
0.1500 6.2212 -1.0252 0.9751
-9.1906 11.0992 -2.3740 0.9433
-10.3993 8.7639 -2.2404 0.9464
-10.8274 7.5804 -2.1774 0.9478
-11.4762 4.0907 -2.0071 0.9518
-11.4441 1.8877 -1.9108 0.9541
-11.3078 0.8385 -1.8679 0.9551
-11.0992 -0.1714 -1.8287 0.9560
-10.8238 -1.1397 -1.7930 0.9568
-10.4866 -2.0644 -1.7607 0.9576
-10.0923 -2.9440 -1.7319 0.9583
-9.1488 -4.5643 -1.6843 0.9594
-6.7367 -7.2288 -1.6278 0.9607
-6.0404 -7.7715 -1.6215 0.9609
-4.5512 -8.7039 -1.6181 0.9610
1.4885 -10.2324 -1.7034 0.9589
4.3561 -9.9452 -1.7886 0.9569
6.3075 -9.3844 -1.8627 0.9552
8.2503 -8.4965 -1.9510 0.9531
10.1366 -7.2545 -2.0535 0.9507
11.8000 -4.3445 -2.0715 0.9503
12.4964 -3.3687 -2.1321 0.9489
13.6655 -1.1560 -2.2593 0.9459
14.1111 0.0716 -2.3247 0.9444
11.7278 1.1120 -1.9407 0.9534
10.0393 1.8684 -1.6823 0.9594
8.7375 2.4508 -1.4950 0.9639
6.6107 3.2129 -1.2108 0.9706
5.3079 3.8808 -1.0832 0.9737
4.7785 4.1977 -1.0478 0.9745
4.1864 4.3998 -1.0005 0.9757
2.2660 5.3195 -0.9525 0.9768
1.8446 5.6949 -0.9862 0.9760
0.3903 2.8889 -0.4802 0.9883
0.2774 6.1821 -1.0195 0.9752
-0.8782 6.5103 -1.0822 0.9737
-7.2554 13.5392 -2.5305 0.9396
-8.2004 12.4782 -2.4598 0.9413
-9.7122 10.2118 -2.3216 0.9445
-2.5826 1.8891 -0.5271 0.9871
-11.3187 5.5041 -2.0734 0.9503
-11.4574 4.3539 -2.0192 0.9515
-11.5040 3.2295 -1.9684 0.9527
-11.4647 2.1363 -1.9212 0.9538
-11.3460 1.0784 -1.8776 0.9548
-11.1537 0.0591 -1.8375 0.9558
-10.8933 -0.9190 -1.8009 0.9567
-9.7533 -3.5885 -1.7120 0.9587
-8.7364 -5.1362 -1.6695 0.9597
-8.1615 -5.8382 -1.6531 0.9601
-6.8933 -7.0958 -1.6297 0.9607
-6.2049 -7.6501 -1.6227 0.9609
-4.7300 -8.6064 -1.6178 0.9610
-3.1370 -9.3532 -1.6252 0.9608
-1.4395 -9.8805 -1.6449 0.9603
-0.5559 -10.0577 -1.6594 0.9600
2.2119 -10.2183 -1.7223 0.9585
3.1660 -10.1398 -1.7499 0.9579
8.0269 -8.6171 -1.9400 0.9534
8.9846 -8.0627 -1.9887 0.9522
11.6775 -5.8291 -2.1501 0.9485
12.3407 -3.6029 -2.1179 0.9492
11.4146 -2.2497 -1.9166 0.9539
13.5478 -1.4296 -2.2442 0.9463
14.0172 -0.2196 -2.3095 0.9448
11.6850 0.8639 -1.9302 0.9536
10.3897 1.7115 -1.7347 0.9582
7.8189 2.7851 -1.3674 0.9669
4.8993 4.1269 -1.0553 0.9744
3.9028 4.7111 -1.0078 0.9755
3.3129 4.8179 -0.9632 0.9766
2.8509 5.0622 -0.9571 0.9767
1.9586 5.6449 -0.9843 0.9761
0.4029 6.1349 -1.0128 0.9754
-0.1507 6.3105 -1.0399 0.9747
-0.7367 6.4724 -1.0731 0.9739
-1.2086 5.8775 -0.9885 0.9760
-4.3609 14.4936 -2.4934 0.9405
-5.4929 13.6835 -2.4290 0.9420
-7.9925 12.7296 -2.4762 0.9409
-8.8403 11.6258 -2.4060 0.9425
-9.5624 10.4813 -2.3373 0.9441
-11.4337 4.6185 -2.0314 0.9512
-11.4812 2.3868 -1.9318 0.9536
-11.2045 0.2918 -1.8464 0.9556
-10.9595 -0.6960 -1.8091 0.9565
-9.3848 -4.2054 -1.6942 0.9592
-8.8636 -4.9666 -1.6738 0.9596
-7.6924 -6.3445 -1.6426 0.9604
-6.3675 -7.5261 -1.6241 0.9608
-3.3273 -9.2777 -1.6237 0.9608
-1.6412 -9.8310 -1.6420 0.9604
-0.7627 -10.0219 -1.6558 0.9601
0.1371 -10.1530 -1.6727 0.9597
1.9926 -10.2268 -1.7164 0.9586
2.9436 -10.1642 -1.7432 0.9580
4.8780 -9.8253 -1.8071 0.9565
5.8543 -9.5425 -1.8443 0.9556
10.6250 -6.8582 -2.0833 0.9500
12.1814 -3.8323 -2.1037 0.9495
11.5995 0.6160 -1.9136 0.9540
8.0832 2.6916 -1.4035 0.9661
5.5617 3.7226 -1.1025 0.9732
5.0212 4.0546 -1.0632 0.9742
4.4075 4.2632 -1.0102 0.9754
4.0241 4.6575 -1.0140 0.9754
3.5101 4.8846 -0.9909 0.9759
2.9619 5.0132 -0.9593 0.9767
2.4856 5.2229 -0.9529 0.9768
2.0116 5.4312 -0.9541 0.9768
1.5671 5.7686 -0.9847 0.9761
0.5263 6.0811 -1.0055 0.9756
-0.5976 6.4354 -1.0647 0.9741
-1.1026 5.9889 -1.0032 0.9756
-5.2402 13.8800 -2.4441 0.9416
-7.7779 12.9779 -2.4925 0.9405
-8.6550 11.8860 -2.4222 0.9421
-10.0336 9.5841 -2.2858 0.9453
-2.4621 1.9628 -0.5187 0.9873
-10.9356 7.2204 -2.1588 0.9483
-11.2212 6.0444 -2.0997 0.9496
-11.4049 4.8844 -2.0439 0.9509
-11.4106 1.5643 -1.8973 0.9544
-11.0221 -0.4707 -1.8174 0.9563
-9.4990 -4.0221 -1.6994 0.9590
-5.0830 -8.4031 -1.6179 0.9610
-4.3139 -8.8276 -1.6186 0.9610
-2.6915 -9.5167 -1.6293 0.9607
-0.9684 -9.9829 -1.6523 0.9602
1.7742 -10.2316 -1.7107 0.9588
2.7220 -10.1848 -1.7367 0.9582
3.6824 -10.0686 -1.7661 0.9575
4.6522 -9.8798 -1.7990 0.9567
5.6278 -9.6151 -1.8354 0.9558
6.6048 -9.2710 -1.8752 0.9549
8.5425 -8.3309 -1.9657 0.9528
10.4150 -7.0329 -2.0703 0.9503
11.3067 -6.2427 -2.1277 0.9490
11.2807 -4.9702 -2.0308 0.9513
12.0883 0.3907 -1.9925 0.9522
11.1612 1.3659 -1.8524 0.9554
5.1442 3.9806 -1.0715 0.9740
4.1470 4.6031 -1.0207 0.9752
2.5955 5.1746 -0.9537 0.9768
2.1217 5.3828 -0.9532 0.9768
1.1821 5.9371 -0.9973 0.9758
0.1097 6.2334 -1.0270 0.9750
-0.4605 6.3980 -1.0567 0.9743
-6.0542 13.2110 -2.3940 0.9428
-8.4629 12.1437 -2.4384 0.9418
1.6452 5.4633 -1.0724 0.9770
1.1615 5.6419 -1.0827 0.9768
0.3441 3.0165 -0.5707 0.9877
-0.4134 6.3154 -1.1896 0.9746
-10.1233 3.6084 -2.0200 0.9572
-10.1524 1.6747 -1.9340 0.9590
-10.0569 0.7458 -1.8955 0.9598
-9.8944 -0.1528 -1.8600 0.9605
-9.3862 -1.8477 -1.7981 0.9618
-9.0488 -2.6396 -1.7717 0.9624
-8.6610 -3.3922 -1.7483 0.9628
-6.6709 -5.9838 -1.6844 0.9642
-6.0780 -6.5219 -1.6757 0.9644
-5.4518 -7.0142 -1.6698 0.9645
-4.7946 -7.4597 -1.6668 0.9646
-4.1085 -7.8574 -1.6666 0.9646
-0.3133 -9.0842 -1.7085 0.9637
0.5046 -9.1665 -1.7255 0.9633
2.1810 -9.1529 -1.7685 0.9624
3.0339 -9.0526 -1.7945 0.9619
3.8926 -8.8868 -1.8236 0.9613
7.3017 -7.5196 -1.9701 0.9582
8.1222 -6.9902 -2.0142 0.9573
9.6794 -5.6936 -2.1108 0.9553
9.6514 -4.5702 -2.0072 0.9575
10.2731 -3.7824 -2.0577 0.9564
10.8383 -2.9217 -2.1099 0.9553
11.7593 -0.9947 -2.2182 0.9531
10.0187 1.8645 -1.9155 0.9594
6.7525 3.2818 -1.4112 0.9699
3.7783 4.7584 -1.1421 0.9756
2.2269 5.2278 -1.0681 0.9771
1.7556 5.4204 -1.0709 0.9771
1.2748 5.6014 -1.0798 0.9769
-1.3742 6.0446 -1.1651 0.9751
-3.9334 12.1534 -2.4010 0.9493
-6.5390 9.9502 -2.2380 0.9527
-7.7806 9.8034 -2.3525 0.9503
-8.4118 8.8445 -2.2942 0.9515
-8.9410 7.8578 -2.2373 0.9527
-9.7041 5.8444 -2.1292 0.9549
-9.9456 4.8364 -2.0787 0.9560
-10.0996 3.8379 -2.0308 0.9570
-10.1709 2.8553 -1.9856 0.9579
-10.1645 1.8940 -1.9434 0.9588
-10.0852 0.9585 -1.9042 0.9596
-9.9378 0.0527 -1.8679 0.9604
-9.7269 -0.8206 -1.8348 0.9610
-8.7552 -3.2213 -1.7535 0.9627
-6.8034 -5.8526 -1.6868 0.9641
-6.2185 -6.4012 -1.6774 0.9643
-4.2701 -7.7695 -1.6664 0.9646
-3.5631 -8.1297 -1.6684 0.9645
2.8356 -9.0816 -1.7882 0.9620
3.6932 -8.9312 -1.8166 0.9614
4.5537 -8.7134 -1.8479 0.9608
8.7356 -6.5301 -2.0500 0.9566
10.2050 -5.0940 -2.1438 0.9546
2.3372 -0.9160 -0.4718 0.9898
10.7128 -3.1276 -2.0977 0.9556
12.0247 -0.1884 -2.2604 0.9522
10.3677 1.7078 -1.9750 0.9581
8.9962 2.3232 -1.7464 0.9629
7.9005 2.8142 -1.5764 0.9664
6.9639 3.2077 -1.4411 0.9693
5.3896 3.7715 -1.2364 0.9736
4.7739 4.0213 -1.1732 0.9749
4.2286 4.2634 -1.1287 0.9759
1.8656 5.3768 -1.0697 0.9771
1.3873 5.5604 -1.0772 0.9769
0.4460 2.8535 -0.5429 0.9883
-4.6776 11.6526 -2.3601 0.9502
-5.5687 10.9303 -2.3057 0.9513
-6.3673 10.1412 -2.2507 0.9524
-7.6196 10.0205 -2.3661 0.9501
-8.2746 9.0698 -2.3076 0.9513
-8.8273 8.0884 -2.2504 0.9524
-2.4942 1.9051 -0.5899 0.9873
-9.8976 5.0695 -2.0902 0.9557
-10.0714 4.0682 -2.0416 0.9568
-10.1615 3.0814 -1.9958 0.9577
-10.1098 1.1729 -1.9130 0.9594
-9.9778 0.2599 -1.8761 0.9602
-8.8469 -3.0482 -1.7588 0.9626
-8.4334 -3.7791 -1.7370 0.9631
-7.4740 -5.1155 -1.7024 0.9638
-6.9340 -5.7190 -1.6894 0.9641
-6.3572 -6.2780 -1.6794 0.9643
-5.7461 -6.7917 -1.6722 0.9644
-5.1031 -7.2590 -1.6678 0.9645
-3.7293 -8.0505 -1.6677 0.9645
-3.0027 -8.3725 -1.6718 0.9644
-2.2521 -8.6435 -1.6789 0.9643
-1.4795 -8.8621 -1.6888 0.9641
0.1234 -9.1355 -1.7173 0.9635
3.4939 -8.9719 -1.8097 0.9616
4.3541 -8.7700 -1.8404 0.9609
5.2140 -8.4988 -1.8741 0.9602
6.0692 -8.1558 -1.9109 0.9595
6.9146 -7.7388 -1.9506 0.9586
2.3221 -0.9661 -0.4727 0.9898
10.5839 -3.3297 -2.0855 0.9558
11.5738 -1.4646 -2.1928 0.9536
11.9503 -0.4353 -2.2477 0.9525
11.5884 0.6154 -2.1813 0.9539
9.2854 2.1935 -1.7933 0.9619
4.9068 3.9622 -1.1854 0.9747
4.3514 4.2089 -1.1379 0.9757
4.0192 4.6518 -1.1555 0.9753
3.5060 4.8788 -1.1292 0.9758
2.9080 4.9219 -1.0745 0.9770
1.9751 5.3326 -1.0689 0.9771
1.4992 5.5188 -1.0749 0.9770
-0.0192 6.1290 -1.1520 0.9754
-1.0765 5.8470 -1.1175 0.9761
-3.4605 12.4298 -2.4252 0.9488
-4.4583 11.8091 -2.3726 0.9499
-8.7082 8.3180 -2.2635 0.9522
-2.4631 1.9635 -0.5921 0.9873
-10.0387 4.2993 -2.0527 0.9565
-10.1478 3.3086 -2.0062 0.9575
-10.1768 2.3368 -1.9626 0.9584
-10.1307 1.3888 -1.9220 0.9592
-9.5891 -1.2746 -1.8182 0.9614
-9.2890 -2.0929 -1.7897 0.9620
-8.9359 -2.8730 -1.7643 0.9625
-8.5334 -3.6133 -1.7418 0.9630
-8.0850 -4.3124 -1.7223 0.9634
-7.0625 -5.5830 -1.6922 0.9640
-6.4940 -6.1524 -1.6814 0.9642
-5.8907 -6.6767 -1.6736 0.9644
-3.1733 -8.3023 -1.6706 0.9645
-1.6605 -8.8162 -1.6862 0.9641
-0.8724 -8.9934 -1.6983 0.9639
-0.0660 -9.1153 -1.7134 0.9636
0.7566 -9.1800 -1.7313 0.9632
1.5927 -9.1853 -1.7522 0.9628
3.2949 -9.0091 -1.8031 0.9617
5.0149 -8.5680 -1.8660 0.9604
8.3673 -6.8134 -2.0282 0.9570
9.1532 -6.1808 -2.0760 0.9560
9.9036 -5.4680 -2.1264 0.9550
9.8461 -4.3381 -2.0223 0.9572
10.9977 -2.6456 -2.1261 0.9550
11.8709 -0.6792 -2.2349 0.9528
11.1360 1.3628 -2.1087 0.9554
9.5907 2.0566 -1.8436 0.9609
8.3809 2.5990 -1.6493 0.9649
6.4885 3.3749 -1.3747 0.9707
5.7116 3.6536 -1.2744 0.9728
4.1419 4.5975 -1.1631 0.9751
3.6230 4.8271 -1.1344 0.9757
2.5512 5.0863 -1.0696 0.9771
1.6104 5.4767 -1.0730 0.9770
0.3271 3.0429 -0.5752 0.9876
0.1069 6.0741 -1.1419 0.9756
-0.4562 6.3375 -1.1943 0.9745
-0.9619 5.9110 -1.1257 0.9759
-4.2344 11.9610 -2.3849 0.9497
-5.1667 11.2744 -2.3311 0.9508
-6.7566 9.6954 -2.2212 0.9530
1.1600 5.6348 -1.2161 0.9768
-0.4211 6.4328 -1.3627 0.9740
-0.9326 5.9752 -1.2783 0.9756
-3.6156 10.4278 -2.3330 0.9559
-5.8763 8.5500 -2.1930 0.9585
-7.5324 7.5978 -2.2615 0.9572
-8.0018 6.7434 -2.2120 0.9581
-8.6858 4.9886 -2.1173 0.9599
-8.9054 4.1044 -2.0727 0.9607
-9.1149 1.5035 -1.9527 0.9629
-9.0476 0.6709 -1.9177 0.9636
-8.9181 -0.1377 -1.8853 0.9642
-8.4879 -1.6709 -1.8286 0.9653
-8.1943 -2.3904 -1.8043 0.9657
-7.8529 -3.0757 -1.7827 0.9661
-7.4668 -3.7252 -1.7639 0.9665
-7.0390 -4.3372 -1.7477 0.9668
-3.0917 -7.4720 -1.7093 0.9675
-2.4190 -7.7415 -1.7144 0.9674
-1.7255 -7.9627 -1.7222 0.9672
-1.0133 -8.1341 -1.7327 0.9670
7.9526 -5.6915 -2.0672 0.9608
8.6098 -5.0644 -2.1114 0.9600
8.5616 -4.0541 -2.0024 0.9620
9.5592 -2.5769 -2.0928 0.9603
10.7442 1.0188 -2.2813 0.9568
9.9980 1.8607 -2.1497 0.9593
8.7056 2.4418 -1.9112 0.9637
7.6629 2.9100 -1.7326 0.9670
6.0356 3.6331 -1.4891 0.9716
4.1833 4.3965 -1.2828 0.9755
3.7737 4.7527 -1.2828 0.9755
3.1256 4.7538 -1.2026 0.9770
2.6555 4.9527 -1.1879 0.9773
1.2703 5.5819 -1.2101 0.9769
0.3831 2.8354 -0.6048 0.9884
-0.2840 6.3609 -1.3459 0.9743
-0.9018 6.6855 -1.4260 0.9728
-1.3484 5.9313 -1.2857 0.9754
-4.2582 10.0026 -2.2980 0.9565
-6.8776 7.2314 -2.1095 0.9600
-2.5684 1.8787 -0.6726 0.9871
-8.6235 5.1935 -2.1279 0.9597
-8.8615 4.3092 -2.0829 0.9605
-9.0213 3.4281 -2.0400 0.9613
-9.0688 0.8620 -1.9256 0.9634
-8.7789 -0.7406 -1.8623 0.9646
-8.2668 -2.2265 -1.8097 0.9656
-7.9362 -2.9199 -1.7875 0.9660
-7.5602 -3.5779 -1.7680 0.9664
-7.1418 -4.1987 -1.7512 0.9667
-6.1890 -5.3240 -1.7257 0.9672
-5.6597 -5.8260 -1.7169 0.9673
-4.5074 -6.7029 -1.7074 0.9675
-3.2445 -7.4028 -1.7085 0.9675
-1.1800 -8.0989 -1.7300 0.9671
1.0366 -8.3360 -1.7756 0.9662
1.7978 -8.3053 -1.7962 0.9659
7.7951 -5.8270 -2.0572 0.9610
8.4329 -4.2094 -1.9923 0.9622
2.3372 -0.9160 -0.5306 0.9898
9.4550 -2.7604 -2.0820 0.9605
9.8801 -1.9473 -2.1286 0.9597
10.2370 -1.0802 -2.1759 0.9588
10.5170 -0.1648 -2.2233 0.9579
10.3457 1.7042 -2.2163 0.9580
7.8871 2.8094 -1.7698 0.9663
5.4937 3.8444 -1.4174 0.9730
4.8445 4.0808 -1.3389 0.9744
4.2643 4.2995 -1.2800 0.9755
3.2371 4.7076 -1.2077 0.9769
2.3018 5.1071 -1.1841 0.9774
1.8437 5.3135 -1.1889 0.9773
-0.1503 6.2913 -1.3302 0.9746
-0.7522 6.6081 -1.4058 0.9732
-3.2081 10.6624 -2.3536 0.9555
-4.0686 10.1355 -2.3086 0.9563
-4.8582 9.5358 -2.2622 0.9572
-5.5720 8.8745 -2.2150 0.9581
-6.2067 8.1625 -2.1675 0.9589
-6.7607 7.4104 -2.1204 0.9598
-7.7949 7.1424 -2.2348 0.9577
-2.4927 1.9040 -0.6630 0.9873
-8.5568 5.3983 -2.1386 0.9595
-8.8134 4.5142 -2.0931 0.9603
-8.9910 3.6318 -2.0497 0.9611
-9.1239 1.8967 -1.9698 0.9626
-9.0867 1.0542 -1.9336 0.9633
-8.9856 0.2340 -1.9000 0.9639
-8.6069 -1.3262 -1.8408 0.9650
-8.0170 -2.7623 -1.7924 0.9659
-7.6512 -3.4286 -1.7723 0.9663
-7.2424 -4.0582 -1.7548 0.9666
-6.7934 -4.6497 -1.7401 0.9669
-6.3069 -5.2018 -1.7281 0.9671
-5.7854 -5.7133 -1.7187 0.9673
-5.2313 -6.1831 -1.7120 0.9674
-4.6469 -6.6101 -1.7080 0.9675
-4.0345 -6.9931 -1.7066 0.9675
-3.3960 -7.3310 -1.7078 0.9675
-2.7337 -7.6225 -1.7117 0.9674
-1.3457 -8.0609 -1.7275 0.9671
0.1121 -8.2969 -1.7540 0.9666
0.8613 -8.3350 -1.7712 0.9663
2.3871 -8.2426 -1.8139 0.9655
3.1576 -8.1083 -1.8393 0.9651
3.9286 -7.9129 -1.8674 0.9645
4.6961 -7.6545 -1.8982 0.9640
5.4557 -7.3313 -1.9317 0.9633
6.9313 -6.4846 -2.0064 0.9619
8.3098 -5.3638 -2.0907 0.9604
9.7873 -2.1408 -2.1178 0.9599
10.4593 -0.3810 -2.2124 0.9581
10.7157 1.5376 -2.2883 0.9567
9.2675 2.1893 -2.0129 0.9618
8.1212 2.7043 -1.8093 0.9656
6.3706 3.4834 -1.5348 0.9708
4.9881 4.0279 -1.3552 0.9741
4.3938 4.2500 -1.2922 0.9753
4.0143 4.6461 -1.2979 0.9752
3.5018 4.8730 -1.2684 0.9758
2.8716 4.8603 -1.1933 0.9772
1.9501 5.2650 -1.1868 0.9773
1.4883 5.4786 -1.2000 0.9771
-0.0195 6.2236 -1.3155 0.9749
-2.9992 10.7729 -2.3638 0.9553
-3.8752 10.2646 -2.3192 0.9561
-4.6818 9.6808 -2.2731 0.9570
-5.4135 9.0327 -2.2260 0.9579
-6.0667 8.3315 -2.1785 0.9587
-6.6395 7.5878 -2.1312 0.9596
-7.6845 7.3402 -2.2463 0.9575
-2.4640 1.9643 -0.6661 0.9872
-8.4857 5.6028 -2.1494 0.9593
-8.7610 4.7192 -2.1035 0.9601
-8.9567 3.8359 -2.0596 0.9609
-9.1012 1.2477 -1.9418 0.9631
-9.0146 0.4220 -1.9076 0.9638
-8.6622 -1.1514 -1.8471 0.9649
-8.4038 -1.8935 -1.8209 0.9654
-8.0953 -2.6027 -1.7975 0.9658
-6.9009 -4.5160 -1.7433 0.9668
-5.9093 -5.5984 -1.7207 0.9673
-5.3625 -6.0780 -1.7133 0.9674
-4.1789 -6.9083 -1.7067 0.9675
-3.5462 -7.2568 -1.7073 0.9675
-2.8893 -7.5591 -1.7106 0.9675
-1.5106 -8.0202 -1.7251 0.9672
0.6866 -8.3311 -1.7670 0.9664
1.4438 -8.3266 -1.7863 0.9660
2.2089 -8.2651 -1.8084 0.9656
2.9788 -8.1448 -1.8332 0.9652
4.5187 -7.7201 -1.8909 0.9641
7.4750 -6.0869 -2.0377 0.9614
9.2370 -3.1180 -2.0607 0.9609
9.6910 -2.3313 -2.1069 0.9601
10.3972 -0.5949 -2.2014 0.9583
7.3821 3.0359 -1.6872 0.9679
6.5461 3.4049 -1.5597 0.9703
5.8254 3.7265 -1.4618 0.9721
2.9808 4.8143 -1.1969 0.9771
2.0563 5.2169 -1.1853 0.9773
0.3183 2.9618 -0.6297 0.9879
0.1084 6.1578 -1.3018 0.9751
-0.9621 5.9121 -1.2661 0.9758
-1.8137 7.0797 -1.5448 0.9706
-4.5013 9.8223 -2.2839 0.9568
-5.9224 8.4982 -2.1895 0.9585
1.6571 5.5028 -1.3507 0.9767
-0.9328 5.9763 -1.4216 0.9755
-1.7562 7.0455 -1.7065 0.9706
-3.1916 9.2052 -2.2898 0.9608
-3.9319 8.7291 -2.2501 0.9614
-5.2240 7.6009 -2.1676 0.9628
-6.2440 6.2983 -2.0844 0.9642
-7.1635 6.0369 -2.2017 0.9622
-7.5252 5.2685 -2.1590 0.9630
-8.2488 2.1322 -2.0024 0.9656
-8.1102 -0.1253 -1.9063 0.9672
-7.9509 -0.8372 -1.8790 0.9677
-7.7401 -1.5237 -1.8540 0.9681
-7.4812 -2.1823 -1.8315 0.9685
-6.4440 -3.9706 -1.7789 0.9694
-6.0206 -4.4984 -1.7663 0.9696
-3.4320 -6.5636 -1.7408 0.9700
-2.8357 -6.8531 -1.7431 0.9700
-2.2181 -7.0985 -1.7479 0.9699
0.4191 -7.6128 -1.7919 0.9692
1.1081 -7.6174 -1.8091 0.9689
3.8977 -7.0957 -1.9027 0.9673
4.5859 -6.8230 -1.9321 0.9668
5.2623 -6.4910 -1.9639 0.9662
5.9219 -6.0986 -1.9979 0.9657
6.5596 -5.6454 -2.0340 0.9651
7.1695 -5.1311 -2.0721 0.9644
7.7457 -4.5561 -2.1120 0.9637
8.1388 -2.9965 -2.0383 0.9650
8.5415 -2.3026 -2.0791 0.9643
8.8867 -1.5607 -2.1206 0.9636
9.1676 -0.7755 -2.1623 0.9629
9.5574 1.7787 -2.2848 0.9608
5.3661 3.9233 -1.5623 0.9731
4.7692 4.1895 -1.4919 0.9743
4.2110 4.4256 -1.4357 0.9752
3.7691 4.7469 -1.4245 0.9754
2.6996 5.0350 -1.3427 0.9768
2.2320 5.2397 -1.3385 0.9769
0.3802 2.8140 -0.6674 0.9884
0.2767 6.1662 -1.4507 0.9750
-0.2862 6.4104 -1.5081 0.9740
-0.9006 6.6763 -1.5833 0.9727
-1.3455 5.9181 -1.4264 0.9754
-3.0118 9.3058 -2.2988 0.9606
-5.0879 7.7420 -2.1773 0.9626
-5.6488 7.1174 -2.1356 0.9634
-6.5612 5.7663 -2.0529 0.9647
-2.5620 1.8741 -0.7460 0.9870
-7.9830 3.8820 -2.0862 0.9642
-8.1436 3.0946 -2.0475 0.9648
-8.2366 2.3123 -2.0106 0.9655
-8.1395 0.0431 -1.9130 0.9671
-7.7934 -1.3669 -1.8596 0.9680
-7.2513 -2.6680 -1.8159 0.9688
-6.5370 -3.8431 -1.7822 0.9693
-6.1220 -4.3793 -1.7690 0.9695
-5.6718 -4.8792 -1.7584 0.9697
-5.1890 -5.3414 -1.7502 0.9699
-4.6758 -5.7649 -1.7445 0.9700
-4.1344 -6.1483 -1.7413 0.9700
-3.5670 -6.4903 -1.7406 0.9700
-1.7307 -7.2563 -1.7532 0.9698
-1.0811 -7.4206 -1.7624 0.9697
0.9477 -7.6210 -1.8049 0.9689
5.1068 -6.5733 -1.9563 0.9664
7.0309 -5.2557 -2.0631 0.9646
2.3377 -0.9162 -0.5901 0.9897
8.4530 -2.4679 -2.0696 0.9645
9.1086 -0.9611 -2.1526 0.9631
8.9623 2.3145 -2.1754 0.9627
6.9641 3.2078 -1.8020 0.9690
5.5129 3.8578 -1.5814 0.9727
4.3408 4.3766 -1.4487 0.9750
3.8885 4.6939 -1.4326 0.9753
3.2918 4.7872 -1.3654 0.9764
2.8092 4.9882 -1.3455 0.9768
2.3399 5.1917 -1.3384 0.9769
1.8743 5.4019 -1.3438 0.9768
0.4403 2.8169 -0.6701 0.9884
-0.7527 6.6124 -1.5641 0.9730
-1.2036 5.8531 -1.4044 0.9757
-2.8290 9.4024 -2.3076 0.9605
-4.9480 7.8807 -2.1869 0.9625
-6.4698 5.9283 -2.0624 0.9646
-2.4922 1.9036 -0.7370 0.9872
-7.9358 4.0647 -2.0955 0.9640
-8.1125 3.2769 -2.0563 0.9647
-8.2444 0.9565 -1.9506 0.9665
-7.8440 -1.2087 -1.8653 0.9679
-7.6071 -1.8805 -1.8417 0.9683
-7.3234 -2.5233 -1.8205 0.9687
-6.9961 -3.1350 -1.8018 0.9690
-6.2214 -4.2582 -1.7719 0.9695
-4.7974 -5.6702 -1.7456 0.9699
-2.5070 -6.9903 -1.7453 0.9699
-1.2332 -7.3867 -1.7601 0.9697
0.1026 -7.5932 -1.7848 0.9693
1.4805 -7.5984 -1.8194 0.9687
2.1784 -7.5217 -1.8404 0.9683
4.9504 -6.6524 -1.9489 0.9665
5.6184 -6.2881 -1.9818 0.9659
6.2670 -5.8631 -2.0170 0.9654
6.8905 -5.3771 -2.0542 0.9647
7.4832 -4.8302 -2.0933 0.9641
8.0176 -4.2121 -2.1285 0.9635
2.3172 -0.9641 -0.5899 0.9897
8.3615 -2.6305 -2.0601 0.9646
8.7343 -1.9104 -2.1013 0.9639
9.0458 -1.1447 -2.1429 0.9632
9.4580 0.5023 -2.2260 0.9618
9.5457 1.3697 -2.2664 0.9611
9.2495 2.1850 -2.2337 0.9617
8.1070 2.6996 -2.0082 0.9655
7.1602 3.1198 -1.8356 0.9684
6.3611 3.4782 -1.7039 0.9706
4.0093 4.6404 -1.4413 0.9751
3.4975 4.8671 -1.4086 0.9757
2.9196 4.9415 -1.3489 0.9767
2.4481 5.1441 -1.3389 0.9769
1.5133 5.5706 -1.3567 0.9766
0.5151 2.9001 -0.6923 0.9880
-0.0197 6.2949 -1.4795 0.9745
-1.0745 5.8363 -1.3947 0.9759
-3.4232 9.0673 -2.2778 0.9610
-4.1453 8.5715 -2.2377 0.9616
-4.8046 8.0167 -2.1966 0.9623
-5.9211 6.7667 -2.1132 0.9637
-6.3747 6.0891 -2.0719 0.9644
-2.4650 1.9651 -0.7409 0.9871
-7.6203 5.0314 -2.1461 0.9632
-8.2017 2.6741 -2.0275 0.9652
-8.0673 -0.3445 -1.8977 0.9674
-7.6662 -1.7273 -1.8469 0.9682
-7.0757 -2.9961 -1.8059 0.9689
-6.7168 -3.5826 -1.7891 0.9692
-6.3189 -4.1351 -1.7748 0.9694
-5.4168 -5.1318 -1.7537 0.9698
-4.9174 -5.5735 -1.7468 0.9699
-4.3888 -5.9755 -1.7425 0.9700
-3.8332 -6.3369 -1.7406 0.9700
-2.6498 -6.9325 -1.7443 0.9700
-2.0262 -7.1643 -1.7498 0.9699
0.6280 -7.6197 -1.7969 0.9691
1.3193 -7.6085 -1.8149 0.9688
2.0163 -7.5443 -1.8353 0.9684
2.7158 -7.4256 -1.8582 0.9680
3.4143 -7.2509 -1.8836 0.9676
4.1082 -7.0189 -1.9114 0.9671
5.4651 -6.3779 -1.9740 0.9661
6.7485 -5.4952 -2.0454 0.9649
7.3488 -4.9624 -2.0841 0.9642
7.8284 -3.4491 -2.0105 0.9655
8.2671 -2.7906 -2.0507 0.9648
8.9794 -1.3260 -2.1332 0.9634
9.4259 0.3047 -2.2165 0.9620
9.5524 2.0484 -2.2961 0.9607
8.3511 2.5897 -2.0549 0.9647
7.3701 3.0309 -1.8729 0.9678
6.5362 3.3997 -1.7315 0.9702
5.1785 4.0071 -1.5389 0.9735
4.1316 4.5861 -1.4507 0.9750
3.0307 4.8949 -1.3531 0.9766
2.0904 5.3034 -1.3397 0.9768
1.6229 5.5188 -1.3520 0.9766
0.5881 2.9536 -0.7078 0.9877
0.1098 6.2387 -1.4665 0.9747
-0.9623 5.9132 -1.4080 0.9757
-3.2474 9.1729 -2.2869 0.9608
-4.6575 8.1501 -2.2062 0.9622
-5.2659 7.5563 -2.1646 0.9629
1.6714 5.5505 -1.5009 0.9763
1.1863 5.7625 -1.5233 0.9760
0.3252 2.8514 -0.7431 0.9882
-0.9329 5.9774 -1.5664 0.9753
-2.8535 8.2299 -2.2553 0.9646
-5.6361 5.6851 -2.0727 0.9675
-6.0129 5.0673 -2.0360 0.9680
-7.4424 2.6528 -2.0457 0.9679
-7.5251 1.9451 -2.0124 0.9684
-7.5489 1.2452 -1.9810 0.9689
-7.5163 0.5574 -1.9514 0.9693
-7.2928 -0.7679 -1.8987 0.9702
-7.1073 -1.3991 -1.8755 0.9705
-6.8763 -2.0059 -1.8546 0.9708
-6.6025 -2.5860 -1.8360 0.9711
-5.9368 -3.6581 -1.8055 0.9716
-5.1300 -4.6016 -1.7843 0.9719
-4.6796 -5.0214 -1.7772 0.9720
-4.2009 -5.4048 -1.7724 0.9721
-3.1672 -6.0572 -1.7698 0.9722
-2.0463 -6.5488 -1.7765 0.9720
-1.4586 -6.7312 -1.7833 0.9719
-0.8558 -6.8696 -1.7924 0.9718
-0.2401 -6.9629 -1.8039 0.9716
0.3858 -7.0096 -1.8177 0.9714
1.6580 -6.9584 -1.8521 0.9709
4.8087 -5.9315 -1.9771 0.9689
5.4034 -5.5647 -2.0083 0.9685
6.5206 -4.6667 -2.0761 0.9674
7.0324 -4.1365 -2.1124 0.9669
6.9650 -3.2981 -1.9953 0.9687
7.3622 -2.7106 -2.0313 0.9681
8.4172 0.0427 -2.1794 0.9658
6.7644 3.2875 -1.9473 0.9694
6.0181 3.6226 -1.8187 0.9714
4.7630 4.1840 -1.6415 0.9741
4.2138 4.4286 -1.5828 0.9751
3.7645 4.7410 -1.5674 0.9753
1.7821 5.5020 -1.4974 0.9764
-0.8993 6.6670 -1.7418 0.9726
-1.3432 5.9081 -1.5687 0.9753
-3.3714 7.9194 -2.2285 0.9651
-3.9998 7.4640 -2.1926 0.9656
-4.5726 6.9580 -2.1558 0.9662
-5.5398 5.8248 -2.0813 0.9673
-5.9310 5.2125 -2.0444 0.9679
-7.0335 4.2360 -2.1259 0.9666
-7.2560 3.5285 -2.0890 0.9672
-7.5113 2.1087 -2.0200 0.9683
-7.5485 1.4066 -1.9881 0.9688
-7.4547 0.0395 -1.9302 0.9697
-7.1544 -1.2549 -1.8807 0.9704
-6.9338 -1.8675 -1.8593 0.9708
-5.2302 -4.4992 -1.7863 0.9719
-3.2919 -5.9896 -1.7696 0.9722
-2.7461 -6.2656 -1.7712 0.9721
-2.1802 -6.5004 -1.7752 0.9721
-1.5963 -6.6928 -1.7815 0.9720
-0.9968 -6.8415 -1.7901 0.9718
0.2399 -7.0030 -1.8143 0.9715
3.4250 -6.5537 -1.9146 0.9699
4.0526 -6.3083 -1.9413 0.9695
5.2674 -5.6546 -2.0009 0.9686
5.8454 -5.2456 -2.0335 0.9681
6.3971 -4.7819 -2.0679 0.9675
8.3833 -0.1314 -2.1709 0.9659
7.8600 2.7997 -2.1603 0.9661
4.8964 4.1245 -1.6576 0.9739
2.3646 5.2464 -1.4900 0.9765
1.4131 5.6635 -1.5113 0.9762
0.4375 2.7991 -0.7335 0.9884
0.4009 6.1043 -1.5839 0.9750
-0.1515 6.3438 -1.6430 0.9741
-0.7516 6.6033 -1.7207 0.9729
-1.2020 5.8456 -1.5452 0.9756
-2.5272 8.3993 -2.2711 0.9644
-4.4449 7.0794 -2.1643 0.9661
-5.8459 5.3566 -2.0529 0.9678
-7.3833 2.9824 -2.0617 0.9676
-7.4942 2.2726 -2.0276 0.9682
-7.5450 1.5685 -1.9953 0.9687
-7.5383 0.8746 -1.9649 0.9691
-6.9889 -1.7277 -1.8640 0.9707
-6.4390 -2.8853 -1.8269 0.9713
-5.7335 -3.9242 -1.7989 0.9717
-4.8921 -4.8312 -1.7802 0.9720
-3.4153 -5.9199 -1.7696 0.9722
-2.8745 -6.2052 -1.7707 0.9721
-2.3131 -6.4497 -1.7741 0.9721
0.7249 -7.0150 -1.8260 0.9713
4.5267 -6.0830 -1.9633 0.9692
5.1301 -5.7416 -1.9936 0.9687
6.2718 -4.8943 -2.0598 0.9677
7.2686 -3.8186 -2.1259 0.9666
7.5559 -2.3771 -2.0509 0.9678
7.8776 -1.7230 -2.0879 0.9672
8.3457 -0.3040 -2.1623 0.9661
8.4810 0.4504 -2.1990 0.9655
8.5436 1.2259 -2.2348 0.9650
8.5294 2.0149 -2.2692 0.9644
8.0927 2.6948 -2.2085 0.9654
5.6553 3.7852 -1.7620 0.9723
4.4636 4.3175 -1.6079 0.9747
3.4933 4.8612 -1.5499 0.9756
2.4739 5.1984 -1.4906 0.9765
1.5252 5.6145 -1.5064 0.9762
0.2586 2.9887 -0.7767 0.9877
-0.0197 6.2867 -1.6277 0.9744
-1.0735 5.8308 -1.5351 0.9758
-2.3605 8.4787 -2.2788 0.9643
-3.0622 8.1112 -2.2448 0.9648
-5.3374 6.0996 -2.0986 0.9671
-5.7574 5.4995 -2.0615 0.9676
-2.4662 1.9660 -0.8166 0.9871
-7.1609 3.8573 -2.1060 0.9670
-7.4740 2.4368 -2.0354 0.9680
-7.5448 1.0343 -1.9718 0.9690
-7.4956 0.3509 -1.9429 0.9695
-7.3935 -0.3158 -1.9161 0.9699
-7.0417 -1.5866 -1.8689 0.9706
-6.7974 -2.1854 -1.8487 0.9709
-6.1853 -3.2992 -1.8151 0.9715
-5.8226 -3.8103 -1.8017 0.9717
-5.4254 -4.2888 -1.7906 0.9718
-4.9960 -4.7332 -1.7819 0.9720
-4.0499 -5.5141 -1.7714 0.9721
-3.5375 -5.8481 -1.7696 0.9722
-3.0018 -6.1427 -1.7702 0.9721
-1.2766 -6.7780 -1.7858 0.9719
-0.6696 -6.9029 -1.7957 0.9718
-0.0505 -6.9821 -1.8078 0.9716
1.2135 -6.9985 -1.8391 0.9711
2.4933 -6.8172 -1.8794 0.9705
3.1311 -6.6494 -1.9030 0.9701
3.7628 -6.4288 -1.9287 0.9697
4.3845 -6.1544 -1.9565 0.9693
4.9919 -5.8256 -1.9864 0.9688
7.4739 -2.5228 -2.0424 0.9679
7.8079 -1.8783 -2.0793 0.9674
6.5262 3.3946 -1.9047 0.9701
5.8094 3.7162 -1.7856 0.9719
4.5915 4.2605 -1.6218 0.9745
4.1265 4.5803 -1.5962 0.9748
3.0589 4.9405 -1.5045 0.9763
2.5833 5.1502 -1.4918 0.9765
2.1117 5.3575 -1.4910 0.9765
-2.9037 8.2021 -2.2528 0.9647
-3.5683 7.7865 -2.2177 0.9652
-4.1803 7.3150 -2.1814 0.9658
-4.7354 6.7951 -2.1445 0.9664
1.6694 5.5438 -1.6390 0.9762
1.1848 5.7554 -1.6635 0.9759
0.3216 2.8196 -0.8034 0.9883
-0.4223 6.4525 -1.8306 0.9735
-0.9332 5.9790 -1.7130 0.9752
-4.2622 6.2015 -2.1302 0.9692
-5.7782 4.0454 -1.9968 0.9711
-6.4853 3.7247 -2.1172 0.9694
-6.6849 3.0810 -2.0838 0.9699
-6.8265 2.4333 -2.0516 0.9703
-6.9423 1.1452 -1.9919 0.9712
-6.9207 0.5132 -1.9646 0.9716
-6.8488 -0.1058 -1.9391 0.9719
-6.3564 -1.8542 -1.8744 0.9728
-6.1079 -2.3922 -1.8570 0.9731
-5.4989 -3.3883 -1.8285 0.9735
-4.3395 -4.6564 -1.8019 0.9739
-0.2224 -6.4497 -1.8270 0.9735
0.3572 -6.4893 -1.8399 0.9733
1.5328 -6.4329 -1.8721 0.9729
2.1231 -6.3347 -1.8914 0.9726
2.7107 -6.1887 -1.9127 0.9723
3.2924 -5.9939 -1.9360 0.9720
3.8645 -5.7497 -1.9612 0.9716
4.4230 -5.4558 -1.9883 0.9712
5.4822 -4.7182 -2.0476 0.9704
5.9737 -4.2752 -2.0796 0.9699
6.3617 -3.0124 -1.9927 0.9712
7.0216 -1.8929 -2.0587 0.9702
7.4830 -0.6330 -2.1260 0.9693
7.7077 0.7308 -2.1918 0.9683
7.6636 2.1496 -2.2532 0.9675
6.7537 3.2824 -2.1258 0.9693
5.3513 3.9125 -1.8766 0.9728
4.7566 4.1785 -1.7923 0.9740
3.2018 4.8697 -1.6499 0.9761
2.2526 5.2881 -1.6272 0.9764
1.7799 5.4954 -1.6353 0.9763
-0.8981 6.6576 -1.9018 0.9725
-1.3409 5.8981 -1.7123 0.9752
-3.0485 7.1609 -2.2033 0.9682
-3.6223 6.7596 -2.1710 0.9686
-4.1477 6.3114 -2.1380 0.9691
-5.0412 5.3005 -2.0708 0.9700
-5.4058 4.7509 -2.0374 0.9705
-2.5554 1.8692 -0.8963 0.9869
-6.4306 3.8729 -2.1251 0.9693
-6.8968 1.9362 -2.0279 0.9707
-6.9302 0.6587 -1.9707 0.9715
-5.8910 -2.7879 -1.8450 0.9733
-5.5767 -3.2786 -1.8314 0.9735
-5.2283 -3.7400 -1.8198 0.9736
-4.8482 -4.1706 -1.8104 0.9738
-4.4385 -4.5689 -1.8033 0.9739
-4.0014 -4.9334 -1.7982 0.9739
-2.0219 -6.0284 -1.8000 0.9739
-1.4800 -6.2052 -1.8059 0.9738
-0.9238 -6.3409 -1.8140 0.9737
0.8069 -6.4894 -1.8512 0.9732
1.3960 -6.4489 -1.8679 0.9729
1.9863 -6.3617 -1.8867 0.9727
2.5749 -6.2268 -1.9075 0.9724
4.8402 -5.1961 -2.0103 0.9709
5.3642 -4.8139 -2.0404 0.9705
5.8624 -4.3823 -2.0720 0.9700
2.3405 -0.9173 -0.7117 0.9896
6.9545 -2.0304 -2.0510 0.9703
7.2245 -1.4239 -2.0845 0.9699
7.4410 -0.7852 -2.1182 0.9694
7.6949 0.5689 -2.1843 0.9684
7.7240 1.2723 -2.2161 0.9680
6.1731 3.5436 -2.0150 0.9708
5.4975 3.8470 -1.8995 0.9725
4.8898 4.1190 -1.8099 0.9738
4.3321 4.3679 -1.7416 0.9747
3.8789 4.6823 -1.7213 0.9750
3.3142 4.8199 -1.6559 0.9760
1.3352 3.8480 -1.1531 0.9832
0.4348 2.7816 -0.7970 0.9884
-2.9089 7.2466 -2.2106 0.9681
-3.4935 6.8571 -2.1786 0.9685
-4.9487 5.4243 -2.0786 0.9699
-6.7679 2.7338 -2.0664 0.9701
-6.9348 1.4416 -2.0052 0.9710
-6.6463 -1.0241 -1.9037 0.9724
-6.2280 -2.1459 -1.8648 0.9730
-4.9391 -4.0736 -1.8124 0.9737
-4.5360 -4.4795 -1.8047 0.9738
-4.1050 -4.8519 -1.7992 0.9739
-3.1680 -5.4913 -1.7947 0.9740
-1.0540 -6.3132 -1.8119 0.9737
-0.4883 -6.4164 -1.8217 0.9736
1.2592 -6.4624 -1.8639 0.9730
1.8495 -6.3862 -1.8822 0.9727
3.0237 -6.0903 -1.9249 0.9721
3.6007 -5.8691 -1.9493 0.9718
4.1660 -5.5983 -1.9755 0.9714
5.2449 -4.9069 -2.0333 0.9706
2.3139 -0.9627 -0.7095 0.9896
7.7233 1.1082 -2.2088 0.9681
6.3420 3.4677 -2.0462 0.9704
4.4578 4.3119 -1.7557 0.9745
2.9443 4.9835 -1.6386 0.9762
0.5172 2.9116 -0.8372 0.9878
0.2572 2.9717 -0.8444 0.9877
-0.6066 6.5320 -1.8571 0.9731
-1.0724 5.8252 -1.6768 0.9757
-2.7670 7.3292 -2.2178 0.9680
-3.3621 6.9519 -2.1861 0.9684
-3.9103 6.5246 -2.1534 0.9689
-4.4083 6.0539 -2.1200 0.9693
-2.4691 1.9684 -0.8939 0.9870
-6.5523 3.5295 -2.1069 0.9695
-6.7341 2.8840 -2.0738 0.9700
-6.8583 2.2361 -2.0421 0.9705
-6.9040 0.3232 -1.9566 0.9717
-6.8174 -0.2912 -1.9317 0.9720
-6.2849 -2.0207 -1.8689 0.9729
-6.0246 -2.5510 -1.8521 0.9732
-5.7269 -3.0546 -1.8374 0.9734
-5.0283 -3.9749 -1.8145 0.9737
-4.6320 -4.3883 -1.8063 0.9738
-4.2073 -4.7686 -1.8003 0.9739
-3.7564 -5.1145 -1.7964 0.9740
-2.7844 -5.6978 -1.7953 0.9740
-2.2676 -5.9327 -1.7980 0.9739
-1.1834 -6.2832 -1.8100 0.9738
1.1225 -6.4734 -1.8599 0.9731
1.7126 -6.4080 -1.8777 0.9728
2.3024 -6.2954 -1.8976 0.9725
2.8886 -6.1345 -1.9195 0.9722
3.4678 -5.9248 -1.9434 0.9719
4.0362 -5.6655 -1.9693 0.9715
4.5898 -5.3564 -1.9969 0.9711
6.5508 -3.6168 -2.1184 0.9694
6.8126 -2.2996 -2.0355 0.9706
7.1057 -1.7094 -2.0690 0.9701
7.3476 -1.0850 -2.1026 0.9696
7.5334 -0.4310 -2.1361 0.9691
7.7190 0.9447 -2.2015 0.9682
7.7110 1.6535 -2.2326 0.9677
7.6318 2.3667 -2.2620 0.9673
5.8010 3.7108 -1.9495 0.9718
4.5855 4.2549 -1.7709 0.9743
3.6053 4.8036 -1.7003 0.9753
3.0552 4.9345 -1.6430 0.9762
1.4989 3.8027 -1.1571 0.9832
1.6346 5.5589 -1.6403 0.9762
1.1490 5.7710 -1.6658 0.9758
0.3136 2.9180 -0.8308 0.9879
0.1096 6.2225 -1.7618 0.9745
-0.9627 5.9155 -1.6967 0.9754
-2.6229 7.4089 -2.2250 0.9679
-3.2281 7.0441 -2.1936 0.9683
-3.7876 6.6278 -2.1611 0.9688
0.3312 2.9042 -0.8991 0.9878
-1.0477 6.7130 -2.0898 0.9720
-1.7482 7.0135 -2.2232 0.9702
-3.8967 5.6697 -2.1160 0.9716
-4.3244 5.2224 -2.0855 0.9720
-4.7035 4.7444 -2.0548 0.9724
-5.0327 4.2412 -2.0243 0.9728
-6.3845 1.6503 -2.0283 0.9728
-6.4199 1.0590 -2.0013 0.9731
-6.4064 0.4751 -1.9759 0.9735
-6.3461 -0.0980 -1.9521 0.9738
-6.2408 -0.6571 -1.9302 0.9741
-6.0928 -1.1994 -1.9100 0.9743
-5.9042 -1.7223 -1.8917 0.9746
-5.6772 -2.2235 -1.8753 0.9748
-5.4139 -2.7010 -1.8609 0.9750
-2.2609 -5.4642 -1.8189 0.9756
-1.7676 -5.6567 -1.8228 0.9755
2.5143 -5.7401 -1.9275 0.9741
3.5778 -5.3232 -1.9728 0.9735
5.0590 -4.3539 -2.0530 0.9725
5.9144 -3.4790 -2.1105 0.9717
6.1643 -2.2696 -2.0204 0.9729
6.4381 -1.7355 -2.0509 0.9725
6.6656 -1.1706 -2.0816 0.9721
6.8426 -0.5788 -2.1121 0.9717
6.9651 0.0353 -2.1423 0.9713
6.9719 1.9556 -2.2272 0.9702
6.0003 3.6119 -2.1541 0.9711
4.7503 4.1729 -1.9448 0.9739
4.2030 4.4172 -1.8754 0.9748
3.7551 4.7291 -1.8574 0.9750
3.1978 4.8637 -1.7903 0.9759
2.2499 5.2816 -1.7658 0.9763
1.7777 5.4886 -1.7745 0.9761
1.2969 5.6987 -1.7976 0.9758
0.3741 2.7687 -0.8593 0.9884
-0.2851 6.3847 -1.9657 0.9736
-0.8968 6.6481 -2.0633 0.9723
-1.3387 5.8885 -1.8574 0.9750
-2.7789 6.5277 -2.1822 0.9707
-3.7908 5.7684 -2.1231 0.9715
-4.6200 4.8576 -2.0619 0.9723
-2.5521 1.8668 -0.9726 0.9869
-5.9085 3.5584 -2.1215 0.9715
-6.2712 2.3831 -2.0635 0.9723
-6.4138 0.6096 -1.9816 0.9734
-6.2691 -0.5289 -1.9351 0.9740
-5.4781 -2.5925 -1.8641 0.9750
-5.1885 -3.0504 -1.8512 0.9751
-4.8665 -3.4812 -1.8404 0.9753
-4.5143 -3.8834 -1.8316 0.9754
-4.1339 -4.2554 -1.8248 0.9755
-3.7275 -4.5957 -1.8201 0.9755
-1.3783 -5.7788 -1.8273 0.9754
0.2067 -6.0315 -1.8563 0.9751
2.3887 -5.7766 -1.9227 0.9742
3.4568 -5.3809 -1.9672 0.9736
3.9733 -5.1143 -1.9920 0.9733
4.9515 -4.4434 -2.0463 0.9725
5.8276 -3.5926 -2.1057 0.9718
2.3420 -0.9179 -0.7737 0.9895
6.3786 -1.8622 -2.0438 0.9726
7.0198 0.5190 -2.1650 0.9710
7.0374 1.1592 -2.1937 0.9706
6.9918 1.8056 -2.2211 0.9702
6.8811 2.4510 -2.2467 0.9699
6.1638 3.5383 -2.1860 0.9707
4.8832 4.1134 -1.9638 0.9736
3.8739 4.6763 -1.8678 0.9749
3.3101 4.8139 -1.7969 0.9758
0.3999 6.0886 -1.8767 0.9748
-0.1511 6.3269 -1.9466 0.9739
-0.7496 6.5848 -2.0384 0.9726
-1.1989 5.8305 -1.8308 0.9754
-2.0762 6.9002 -2.2164 0.9703
-2.6509 6.6039 -2.1887 0.9707
-3.1877 6.2569 -2.1599 0.9710
-4.5338 4.9695 -2.0691 0.9722
-2.4914 1.9029 -0.9642 0.9870
-5.4399 3.4319 -1.9783 0.9734
-6.3510 1.9259 -2.0413 0.9726
-6.4097 1.3325 -2.0136 0.9730
-6.4186 0.7447 -1.9875 0.9733
-6.2951 -0.3998 -1.9401 0.9739
-6.1666 -0.9502 -1.9191 0.9742
-5.9966 -1.4824 -1.8999 0.9745
-5.5404 -2.4827 -1.8674 0.9749
-4.9440 -3.3838 -1.8427 0.9752
-4.2245 -4.1719 -1.8262 0.9755
-3.8239 -4.5197 -1.8210 0.9755
-3.3990 -4.8349 -1.8178 0.9756
-2.9516 -5.1162 -1.8167 0.9756
-2.4840 -5.3623 -1.8177 0.9756
-1.9983 -5.5721 -1.8207 0.9755
-0.4545 -5.9719 -1.8422 0.9752
0.0814 -6.0251 -1.8534 0.9751
0.6238 -6.0365 -1.8666 0.9749
1.7174 -5.9301 -1.8989 0.9745
2.8032 -5.6462 -1.9389 0.9740
3.3351 -5.4362 -1.9616 0.9737
3.8549 -5.1802 -1.9861 0.9733
4.3587 -4.8782 -2.0121 0.9730
4.8426 -4.5305 -2.0397 0.9726
5.3022 -4.1377 -2.0687 0.9722
5.7331 -3.7006 -2.0988 0.9718
5.6893 -2.9889 -1.9767 0.9735
6.3166 -1.9872 -2.0367 0.9727
6.7671 -0.8563 -2.0980 0.9719
6.9153 -0.2519 -2.1284 0.9715
7.0389 1.0100 -2.1872 0.9707
7.0081 1.6555 -2.2149 0.9703
6.9126 2.3018 -2.2409 0.9700
6.3323 3.4624 -2.2198 0.9702
5.0188 4.0527 -1.9841 0.9734
4.4519 4.3062 -1.9051 0.9744
3.4846 4.8491 -1.8367 0.9753
2.4679 5.1858 -1.7664 0.9763
1.3785 3.7217 -1.2207 0.9835
1.5215 5.6007 -1.7851 0.9760
0.2566 2.9649 -0.9154 0.9876
-1.9380 6.9612 -2.2225 0.9702
-2.5209 6.6773 -2.1953 0.9706
-3.5717 5.9596 -2.1370 0.9713
-4.0320 5.5371 -2.1068 0.9717
-2.4721 1.9708 -0.9724 0.9869
-5.3861 3.5563 -1.9852 0.9734
-6.0330 3.2497 -2.1077 0.9717
-6.2080 2.6587 -2.0772 0.9721
-6.3301 2.0639 -2.0479 0.9725
-6.4209 0.8803 -1.9934 0.9732
-6.2002 -0.8241 -1.9238 0.9742
-6.0396 -1.3608 -1.9042 0.9744
-5.3269 -2.8413 -1.8570 0.9751
-4.6812 -3.7006 -1.8354 0.9753
-4.3136 -4.0867 -1.8277 0.9754
-3.9191 -4.4419 -1.8220 0.9755
-3.4995 -4.7648 -1.8184 0.9756
-2.5941 -5.3084 -1.8173 0.9756
-2.1125 -5.5267 -1.8198 0.9755
-1.1019 -5.8505 -1.8311 0.9754
-0.5775 -5.9538 -1.8398 0.9753
-0.0435 -6.0165 -1.8506 0.9751
1.0432 -6.0163 -1.8781 0.9748
3.2127 -5.4890 -1.9562 0.9737
4.7324 -4.6152 -2.0332 0.9727
5.1980 -4.2327 -2.0618 0.9723
5.6360 -3.8058 -2.0917 0.9719
6.0252 -3.3266 -2.1169 0.9716
5.9489 -2.6211 -1.9995 0.9732
6.7250 -0.9931 -2.0909 0.9720
6.9910 0.2260 -2.1514 0.9712
7.0209 1.5056 -2.2086 0.9704
6.7945 2.7942 -2.2597 0.9697
4.1159 4.5687 -1.8914 0.9746
3.6008 4.7976 -1.8450 0.9752
1.4869 3.7723 -1.2472 0.9832
1.1476 5.7638 -1.8076 0.9757
0.3131 2.9135 -0.9013 0.9878
-0.9629 5.9166 -1.8438 0.9752
-1.7981 7.0191 -2.2286 0.9701
-2.9438 6.4237 -2.1734 0.9709
-3.4585 6.0520 -2.1440 0.9713
0.1492 6.1887 -2.0578 0.9742
-0.4212 6.4347 -2.1435 0.9732
-1.6067 6.4458 -2.2082 0.9724
-3.5850 5.2162 -2.1039 0.9737
-4.6462 3.9156 -2.0197 0.9747
-4.9091 3.4369 -1.9920 0.9751
-5.5103 3.1648 -2.1123 0.9736
-5.9576 0.4418 -1.9858 0.9751
-5.9065 -0.0912 -1.9636 0.9754
-5.6792 -1.1180 -1.9240 0.9759
-5.5070 -1.6065 -1.9069 0.9761
-5.0553 -2.5220 -1.8779 0.9765
-4.7798 -2.9452 -1.8662 0.9766
-4.4739 -3.3428 -1.8564 0.9767
-4.1397 -3.7133 -1.8485 0.9768
-3.3943 -4.3671 -1.8386 0.9770
-2.9872 -4.6476 -1.8365 0.9770
-2.1143 -5.1098 -1.8382 0.9770
-0.6900 -5.5386 -1.8553 0.9767
0.8183 -5.6255 -1.8896 0.9763
1.3282 -5.5742 -1.9048 0.9761
1.8372 -5.4817 -1.9217 0.9759
4.2572 -4.3842 -2.0313 0.9746
6.1405 -1.0784 -2.0724 0.9741
6.2962 -0.5326 -2.1004 0.9737
6.4535 0.6119 -2.1548 0.9730
6.2661 2.3796 -2.2280 0.9721
6.0850 2.9574 -2.2489 0.9719
5.8445 3.5181 -2.2676 0.9717
5.3361 3.9014 -2.1973 0.9725
4.7438 4.1672 -2.0989 0.9737
2.2471 5.2751 -1.9059 0.9761
1.7755 5.4818 -1.9154 0.9760
0.3733 2.7627 -0.9267 0.9883
0.2753 6.1343 -2.0411 0.9744
-0.8955 6.6385 -2.2267 0.9722
-2.5503 5.9906 -2.1643 0.9729
-3.4867 5.3056 -2.1104 0.9736
-2.5487 1.8643 -1.0497 0.9868
-5.0795 3.0592 -1.9710 0.9753
-5.6684 2.7564 -2.0952 0.9738
-5.9106 1.6593 -2.0407 0.9745
-5.9633 0.5668 -1.9911 0.9751
-5.8384 -0.4926 -1.9476 0.9756
-5.7137 -1.0022 -1.9283 0.9758
-4.8464 -2.8493 -1.8688 0.9766
-4.2196 -3.6299 -1.8502 0.9768
-3.4856 -4.2975 -1.8393 0.9769
-2.6606 -4.8411 -1.8362 0.9770
-2.2191 -5.0632 -1.8376 0.9770
-1.7611 -5.2507 -1.8409 0.9769
-0.3092 -5.5945 -1.8625 0.9767
0.1930 -5.6328 -1.8735 0.9765
1.2100 -5.5898 -1.9011 0.9762
1.7194 -5.5068 -1.9177 0.9760
3.2156 -5.0055 -1.9776 0.9752
4.1532 -4.4586 -2.0254 0.9746
5.3913 -3.3236 -2.1053 0.9737
6.0975 -1.2017 -2.0658 0.9741
6.2645 -0.6610 -2.0939 0.9738
6.3818 -0.1000 -2.1216 0.9735
6.4555 1.0634 -2.1748 0.9728
6.2996 2.2439 -2.2229 0.9722
5.9055 3.3900 -2.2635 0.9717
5.4817 3.8360 -2.2240 0.9722
4.8765 4.1078 -2.1194 0.9735
3.8009 4.5881 -1.9805 0.9752
2.8270 5.0198 -1.9150 0.9760
1.4078 5.6425 -1.9331 0.9758
-0.1509 6.3182 -2.1008 0.9737
-0.7485 6.5754 -2.1998 0.9725
-1.1973 5.8227 -1.9760 0.9753
-1.9029 6.3243 -2.1953 0.9725
-2.9279 5.7470 -2.1440 0.9732
-4.5087 4.1313 -2.0327 0.9746
-2.4910 1.9027 -1.0419 0.9869
-5.0309 3.1739 -1.9773 0.9752
-5.6262 2.8817 -2.1012 0.9737
-5.7844 2.3365 -2.0737 0.9740
-5.8924 1.7868 -2.0467 0.9744
-5.9526 1.2375 -2.0210 0.9747
-5.9355 0.1546 -1.9737 0.9753
-5.7462 -0.8854 -1.9326 0.9758
-5.5915 -1.3823 -1.9146 0.9760
-4.6194 -3.1617 -1.8607 0.9767
-4.2981 -3.5450 -1.8520 0.9768
-3.5757 -4.2263 -1.8402 0.9769
-3.1786 -4.5215 -1.8372 0.9770
-2.7604 -4.7847 -1.8362 0.9770
-2.3230 -5.0147 -1.8371 0.9770
-1.8686 -5.2104 -1.8400 0.9769
-1.3993 -5.3705 -1.8448 0.9769
-0.9172 -5.4940 -1.8515 0.9768
0.0760 -5.6274 -1.8708 0.9766
1.0917 -5.6031 -1.8975 0.9762
2.6103 -5.2576 -1.9512 0.9756
3.1030 -5.0579 -1.9724 0.9753
4.0481 -4.5306 -2.0196 0.9747
4.4932 -4.2036 -2.0453 0.9744
2.3117 -0.9618 -0.8323 0.9895
6.1764 2.6911 -2.2395 0.9720
5.9633 3.2607 -2.2592 0.9718
5.6309 3.7689 -2.2523 0.9718
5.0118 4.0471 -2.1413 0.9732
4.4460 4.3005 -2.0561 0.9743
3.9188 4.5356 -1.9925 0.9751
2.4648 5.1794 -1.9067 0.9761
1.3438 3.6282 -1.2861 0.9838
1.5196 5.5937 -1.9268 0.9759
-0.0196 6.2616 -2.0814 0.9740
-1.0706 5.8153 -1.9655 0.9754
-1.7759 6.3787 -2.2010 0.9725
-3.2834 5.4786 -2.1231 0.9734
-4.0956 4.6806 -2.0674 0.9741
-4.9799 3.2881 -1.9836 0.9752
-5.7525 2.4636 -2.0801 0.9740
-5.9429 1.3646 -2.0268 0.9746
-5.9466 0.2784 -1.9789 0.9752
-5.8824 -0.2512 -1.9571 0.9755
-5.4473 -1.7514 -1.9020 0.9762
-5.2279 -2.2136 -1.8871 0.9764
-4.6898 -3.0690 -1.8630 0.9767
-4.3751 -3.4585 -1.8538 0.9768
-3.6645 -4.1534 -1.8412 0.9769
-3.2726 -4.4559 -1.8377 0.9770
-1.5093 -5.3366 -1.8435 0.9769
-1.0300 -5.4687 -1.8498 0.9768
-0.5397 -5.5635 -1.8580 0.9767
-0.0406 -5.6199 -1.8681 0.9766
1.9915 -5.4452 -1.9273 0.9759
3.4734 -4.8755 -1.9899 0.9751
3.9420 -4.6005 -2.0138 0.9748
4.8192 -3.9242 -2.0658 0.9741
5.2197 -3.5247 -2.0936 0.9738
5.4973 -2.4221 -1.9968 0.9750
5.7711 -1.9480 -2.0247 0.9747
6.3338 -0.3624 -2.1088 0.9736
6.4584 0.7904 -2.1628 0.9729
6.4368 1.3803 -2.1883 0.9726
6.3568 1.9713 -2.2123 0.9723
6.2173 2.5569 -2.2346 0.9721
6.0180 3.1302 -2.2548 0.9718
5.1500 3.9851 -2.1646 0.9729
4.5732 4.2435 -2.0738 0.9740
4.0382 4.4824 -2.0055 0.9749
3.5330 4.7072 -1.9564 0.9755
2.5739 5.1314 -1.9082 0.9761
1.4809 3.7571 -1.3424 0.9831
1.6306 5.5452 -1.9213 0.9759
1.1461 5.7565 -1.9510 0.9756
0.3019 2.8092 -0.9392 0.9882
0.1093 6.2060 -2.0632 0.9742
-0.4645 6.4533 -2.1507 0.9731
-0.9630 5.9177 -1.9930 0.9750
-1.6473 6.4303 -2.2065 0.9724
-2.7025 5.8971 -2.1563 0.9730
-3.6154 5.1878 -2.1019 0.9737
1.6632 5.5231 -2.0627 0.9758
-0.9529 6.1053 -2.2097 0.9741
-1.4806 5.9397 -2.1891 0.9743
-3.3158 4.8245 -2.0935 0.9754
-3.6876 4.4535 -2.0677 0.9757
-4.5586 3.1916 -1.9900 0.9766
-4.7643 2.7363 -1.9647 0.9769
-5.4390 1.9387 -2.0649 0.9758
-5.5237 1.4278 -2.0402 0.9761
-5.5643 0.9179 -2.0167 0.9763
-4.9622 -1.9435 -1.9058 0.9776
-4.7367 -2.3631 -1.8930 0.9778
-4.4803 -2.7606 -1.8819 0.9779
-3.5452 -3.8042 -1.8596 0.9782
-2.4019 -4.5935 -1.8537 0.9782
-1.5504 -4.9618 -1.8590 0.9782
-1.1041 -5.0952 -1.8644 0.9781
-0.6470 -5.1936 -1.8716 0.9780
1.7188 -5.1287 -1.9343 0.9773
3.1069 -4.6225 -1.9917 0.9766
3.9685 -4.0869 -2.0372 0.9761
4.7464 -3.3969 -2.0873 0.9755
5.0836 -2.9902 -2.1091 0.9753
5.2809 -1.9443 -2.0124 0.9764
5.6857 -0.9986 -2.0644 0.9758
5.9581 0.5649 -2.1402 0.9749
5.5991 2.7212 -2.2262 0.9739
3.4797 4.3824 -2.0011 0.9765
3.1898 4.8514 -2.0763 0.9756
2.7140 5.0618 -2.0539 0.9759
2.2443 5.2685 -2.0479 0.9760
1.2936 5.6843 -2.0847 0.9755
0.3748 2.7740 -1.0010 0.9882
-0.2785 6.2369 -2.2326 0.9738
-0.8277 6.1363 -2.2142 0.9740
-1.8703 5.7789 -2.1721 0.9745
-2.8061 5.2365 -2.1245 0.9751
-3.6049 4.5421 -2.0737 0.9757
-4.2466 3.7321 -2.0218 0.9763
-2.5453 1.8618 -1.1277 0.9867
-4.7204 2.8429 -1.9706 0.9769
-5.4130 2.0570 -2.0708 0.9757
-5.5080 1.5463 -2.0459 0.9760
-5.5587 1.0358 -2.0221 0.9763
-5.1948 -1.3991 -1.9239 0.9774
-4.5424 -2.6705 -1.8843 0.9779
-3.9574 -3.4043 -1.8668 0.9781
-3.6256 -3.7321 -1.8607 0.9781
-3.2702 -4.0319 -1.8565 0.9782
-2.4965 -4.5424 -1.8535 0.9782
-2.0821 -4.7506 -1.8548 0.9782
-1.6521 -4.9259 -1.8580 0.9782
-1.2086 -5.0674 -1.8630 0.9781
0.6560 -5.2752 -1.9010 0.9777
1.1329 -5.2335 -1.9149 0.9775
1.6089 -5.1529 -1.9305 0.9773
2.0813 -5.0331 -1.9477 0.9771
2.5470 -4.8737 -1.9665 0.9769
3.0030 -4.6744 -1.9868 0.9767
3.4459 -4.4354 -2.0086 0.9764
5.0106 -3.0889 -2.1049 0.9753
4.9561 -2.4739 -1.9809 0.9767
5.6473 -1.1130 -2.0584 0.9758
5.7961 -0.6116 -2.0842 0.9755
5.8988 -0.0924 -2.1097 0.9752
5.9557 0.9811 -2.1585 0.9747
5.9058 1.5251 -2.1812 0.9744
5.6435 2.5995 -2.2220 0.9740
5.4311 3.1177 -2.2394 0.9737
5.1657 3.6148 -2.2547 0.9736
4.3150 4.3506 -2.1912 0.9743
3.5846 4.3271 -2.0094 0.9764
3.3018 4.8018 -2.0839 0.9755
2.8234 5.0134 -2.0576 0.9759
1.3194 3.8027 -1.4394 0.9830
1.4060 5.6353 -2.0770 0.9756
0.3988 6.0725 -2.1762 0.9745
-0.1493 6.2524 -2.2365 0.9738
-0.7017 6.1644 -2.2187 0.9740
-1.7543 5.8304 -2.1773 0.9745
-3.1304 4.9858 -2.1053 0.9753
-5.2242 2.6758 -2.0990 0.9754
-5.3845 2.1750 -2.0767 0.9756
-5.3742 -0.8281 -1.9445 0.9772
-4.8452 -2.1712 -1.8987 0.9777
-4.6029 -2.5792 -1.8868 0.9778
-4.3308 -2.9642 -1.8767 0.9780
-4.0307 -3.3245 -1.8684 0.9780
-3.7047 -3.6586 -1.8620 0.9781
-2.9824 -4.2424 -1.8545 0.9782
-2.5901 -4.4895 -1.8535 0.9782
-1.7531 -4.8883 -1.8571 0.9782
-1.3126 -5.0377 -1.8616 0.9781
-0.3981 -5.2315 -1.8762 0.9780
0.0712 -5.2741 -1.8862 0.9778
0.5456 -5.2794 -1.8980 0.9777
1.0223 -5.2466 -1.9115 0.9775
1.9722 -5.0644 -1.9436 0.9772
2.8983 -4.7242 -1.9820 0.9767
3.7751 -4.2251 -2.0262 0.9762
4.1865 -3.9167 -2.0502 0.9759
4.5750 -3.5702 -2.0753 0.9756
4.9357 -3.1859 -2.1008 0.9754
2.3106 -0.9613 -0.8950 0.9894
5.4052 -1.7005 -2.0263 0.9762
5.6065 -1.2263 -2.0523 0.9759
5.7656 -0.7296 -2.0783 0.9756
5.8793 -0.2142 -2.1039 0.9753
5.9448 0.3157 -2.1289 0.9750
5.9597 0.8552 -2.1531 0.9747
5.9221 1.3990 -2.1761 0.9745
5.6851 2.4771 -2.2176 0.9740
5.4851 2.9992 -2.2356 0.9738
4.4400 4.2946 -2.2090 0.9741
3.6899 4.2707 -2.0183 0.9763
3.2526 4.5263 -1.9932 0.9766
1.5176 5.5866 -2.0702 0.9757
0.2562 2.9607 -1.0627 0.9875
-1.6368 5.8793 -2.1824 0.9744
-2.1332 5.6503 -2.1598 0.9747
-2.6004 5.3770 -2.1359 0.9749
-3.0348 5.0637 -2.1111 0.9752
-3.7930 4.3347 -2.0598 0.9758
-4.1126 3.9283 -2.0338 0.9761
-2.4783 1.9757 -1.1334 0.9866
-5.5407 1.2723 -2.0329 0.9761
-5.5681 0.7633 -2.0098 0.9764
-5.5531 0.2600 -1.9880 0.9767
-5.4017 -0.7180 -1.9487 0.9771
-4.8969 -2.0735 -1.9017 0.9777
-4.6618 -2.4866 -1.8894 0.9778
-4.3964 -2.8770 -1.8789 0.9779
-4.1027 -3.2432 -1.8702 0.9780
-3.7825 -3.5835 -1.8633 0.9781
-3.4378 -3.8965 -1.8582 0.9782
-3.0706 -4.1807 -1.8550 0.9782
-2.2763 -4.6581 -1.8540 0.9782
-1.4158 -5.0061 -1.8604 0.9781
-0.5060 -5.2164 -1.8742 0.9780
0.4353 -5.2815 -1.8951 0.9777
1.3884 -5.1951 -1.9230 0.9774
2.7929 -4.7717 -1.9772 0.9768
3.2423 -4.5512 -1.9983 0.9765
3.6769 -4.2910 -2.0208 0.9763
5.1766 -2.8581 -2.1146 0.9752
2.3361 -1.0293 -0.9129 0.9892
5.3528 -1.8069 -2.0203 0.9763
5.8571 -0.3351 -2.0980 0.9754
5.9340 0.1918 -2.1231 0.9751
5.9608 0.7295 -2.1475 0.9748
5.9356 1.2728 -2.1709 0.9745
5.7237 2.3539 -2.2132 0.9741
5.5363 2.8796 -2.2316 0.9738
5.2952 3.3873 -2.2479 0.9737
4.5670 4.2378 -2.2280 0.9739
3.8008 4.2189 -2.0306 0.9762
3.3445 4.4561 -1.9924 0.9766
1.4934 3.7889 -1.4564 0.9828
1.6286 5.5382 -2.0644 0.9758
1.1447 5.7491 -2.0963 0.9754
-2.0206 5.7075 -2.1652 0.9746
-2.4949 5.4441 -2.1416 0.9749
