ply
format ascii 1.0
element vertex 1586
property float32 x
property float32 y
property float32 z
property float32 I
end_header
-2.0652 7.0203 0.4538 0.9711
11.3639 -1.6356 0.7119 0.9550
11.7620 -0.6323 0.7304 0.9539
12.1862 0.4331 0.7561 0.9523
11.6616 1.4625 0.7288 0.9540
10.1340 2.2024 0.6431 0.9593
7.6659 3.1733 0.5145 0.9673
6.7497 3.5286 0.4723 0.9699
6.0285 3.8721 0.4443 0.9717
4.6723 4.3476 0.3958 0.9747
3.6450 4.8660 0.3770 0.9759
0.6413 5.9434 0.3707 0.9763
-0.4535 6.3786 0.3965 0.9747
-1.1033 6.8269 0.4288 0.9727
-1.7572 6.8976 0.4414 0.9719
-2.5560 1.7768 0.1930 0.9876
2.3651 -0.8850 0.1566 0.9899
11.5960 -1.0507 0.7220 0.9544
9.2860 2.5358 0.5969 0.9622
8.1673 3.0352 0.5403 0.9657
7.1049 3.3888 0.4881 0.9689
4.2572 4.4010 0.3797 0.9758
3.8621 4.7802 0.3811 0.9757
3.3409 4.9862 0.3722 0.9762
1.3806 5.8079 0.3702 0.9764
0.3334 6.0657 0.3767 0.9759
-0.2158 6.2840 0.3899 0.9751
-0.8346 6.7199 0.4199 0.9732
-1.2587 6.8801 0.2758 0.9724
-1.9265 6.9562 0.2846 0.9715
14.5059 -2.3242 0.5793 0.9429
10.6366 2.1348 0.4278 0.9575
8.9674 2.6497 0.3687 0.9633
7.8329 3.0972 0.3321 0.9668
4.7718 4.3004 0.2533 0.9746
4.1731 4.4968 0.2419 0.9757
3.7343 4.8232 0.2405 0.9759
3.1412 4.9050 0.2297 0.9770
2.1940 5.3204 0.2269 0.9772
1.2689 5.8766 0.2371 0.9762
0.2089 6.1077 0.2410 0.9758
-1.6262 6.8368 0.2771 0.9723
-2.5387 1.8254 0.1233 0.9876
2.3485 -0.9217 0.0995 0.9900
11.9301 -0.2035 0.4705 0.9534
8.3497 2.9526 0.3492 0.9652
7.2616 3.3226 0.3149 0.9685
5.0209 4.2020 0.2582 0.9741
4.4297 4.4357 0.2472 0.9752
2.8724 5.0517 0.2291 0.9770
2.3860 5.2331 0.2268 0.9772
-0.1148 6.2362 0.2459 0.9753
-1.3718 6.8775 0.2765 0.9723
11.6498 1.4611 0.4630 0.9541
10.1132 2.1979 0.4081 0.9594
8.7467 2.7367 0.3614 0.9640
6.7395 3.5233 0.2999 0.9700
6.0200 3.8666 0.2821 0.9718
5.2802 4.0995 0.2636 0.9736
4.6664 4.3421 0.2513 0.9748
4.0296 4.4835 0.2377 0.9762
3.6406 4.8602 0.2394 0.9760
3.0536 4.9397 0.2290 0.9770
2.5874 5.1646 0.2278 0.9771
1.1784 5.9125 0.2377 0.9762
0.6406 5.9363 0.2354 0.9764
-0.4529 6.3705 0.2518 0.9748
-1.7548 6.8879 0.2803 0.9719
-2.5558 1.7766 0.1227 0.9876
2.3655 -0.8852 0.0996 0.9899
11.8459 -2.1507 0.4747 0.9529
11.6041 -1.0514 0.4594 0.9544
11.0320 1.9772 0.4419 0.9561
7.0938 3.3835 0.3099 0.9690
6.3288 3.7447 0.2900 0.9710
4.9115 4.2452 0.2560 0.9743
3.8575 4.7744 0.2420 0.9757
2.3049 5.2764 0.2270 0.9772
1.8272 5.4657 0.2272 0.9772
0.8496 5.8534 0.2332 0.9766
0.3330 6.0584 0.2393 0.9760
-0.8335 6.7112 0.2667 0.9733
-1.4632 6.7720 0.2732 0.9726
-2.6103 1.7354 0.0529 0.9875
14.9461 0.2930 0.2525 0.9419
11.6612 1.2742 0.1982 0.9542
10.6345 2.1344 0.1832 0.9575
6.8801 3.4584 0.1301 0.9697
5.3892 4.0482 0.1139 0.9734
4.1679 4.4913 0.1035 0.9758
2.6703 5.1246 0.0976 0.9771
2.1915 5.3143 0.0971 0.9773
1.7531 5.6297 0.0996 0.9767
1.2674 5.8698 0.1014 0.9763
0.7310 5.8932 0.1003 0.9765
0.2086 6.1003 0.1031 0.9759
-0.3484 6.3212 0.1069 0.9750
-1.6240 6.8273 0.1185 0.9723
-2.5398 1.8262 0.0528 0.9876
15.4213 -0.2630 0.2605 0.9402
12.1046 0.8753 0.2050 0.9526
9.4927 2.4305 0.1655 0.9616
8.3352 2.9475 0.1493 0.9652
6.3977 3.6492 0.1244 0.9710
5.8384 4.0597 0.1201 0.9720
3.4241 4.9385 0.1015 0.9762
2.8691 5.0459 0.0981 0.9770
2.3783 5.2162 0.0968 0.9773
1.4737 5.7881 0.1009 0.9764
0.4267 6.0138 0.1018 0.9762
-0.1146 6.2285 0.1052 0.9754
-0.7194 6.6576 0.1131 0.9736
-2.0592 7.0000 0.1233 0.9712
18.1025 -0.9732 0.3062 0.9300
11.6477 1.4608 0.1983 0.9541
10.0925 2.1934 0.1745 0.9595
6.1368 3.9417 0.1232 0.9712
3.6363 4.8545 0.1025 0.9760
2.5844 5.1587 0.0975 0.9772
1.6780 5.7071 0.1005 0.9765
1.1770 5.9056 0.1017 0.9762
0.6398 5.9293 0.1007 0.9764
-0.4524 6.3625 0.1077 0.9748
-1.7523 6.8782 0.1199 0.9720
2.3667 -0.8856 0.0427 0.9899
11.6437 1.0286 0.1974 0.9543
9.2507 2.5262 0.1620 0.9624
8.1394 3.0249 0.1467 0.9659
7.0827 3.3782 0.1326 0.9691
6.4031 3.7887 0.1257 0.9707
4.9052 4.2398 0.1095 0.9744
4.2468 4.3901 0.1032 0.9759
3.8528 4.7687 0.1036 0.9758
3.3331 4.9746 0.1011 0.9763
2.3023 5.2704 0.0972 0.9773
1.8251 5.4595 0.0972 0.9772
1.3837 5.8210 0.1011 0.9763
-0.2153 6.2684 0.1059 0.9752
-0.8324 6.7025 0.1141 0.9733
-1.4612 6.7627 0.1169 0.9727
-1.9210 6.9363 -0.0405 0.9716
18.9203 -1.3196 -0.1068 0.9269
14.9435 0.2929 -0.0842 0.9420
8.9343 2.6399 -0.0525 0.9634
5.3820 4.0428 -0.0379 0.9734
3.7254 4.8117 -0.0343 0.9760
2.1890 5.3083 -0.0323 0.9773
1.7511 5.6233 -0.0332 0.9767
1.2659 5.8631 -0.0338 0.9763
-0.3479 6.3133 -0.0356 0.9750
-1.6217 6.8178 -0.0395 0.9724
14.2339 -2.8191 -0.0817 0.9436
12.1024 0.8751 -0.0683 0.9526
11.0531 1.7998 -0.0631 0.9562
9.4744 2.4258 -0.0551 0.9616
7.2387 3.3122 -0.0448 0.9687
6.3884 3.6439 -0.0414 0.9710
1.9082 5.4195 -0.0323 0.9773
0.9630 5.9646 -0.0340 0.9761
0.4262 6.0067 -0.0339 0.9762
-1.3692 6.8648 -0.0394 0.9724
18.0378 -0.9697 -0.1017 0.9303
14.7473 0.5242 -0.0831 0.9427
11.6455 1.4605 -0.0661 0.9541
10.0719 2.1889 -0.0580 0.9596
6.7193 3.5127 -0.0427 0.9701
6.1282 3.9361 -0.0410 0.9713
4.0199 4.4726 -0.0339 0.9762
3.0465 4.9283 -0.0326 0.9771
2.1040 5.3420 -0.0323 0.9773
0.6390 5.9223 -0.0335 0.9765
-2.5555 1.7764 -0.0175 0.9876
11.0481 1.9801 -0.0632 0.9561
9.2332 2.5214 -0.0539 0.9624
7.0717 3.3730 -0.0441 0.9691
6.3939 3.7832 -0.0418 0.9707
5.7055 4.1037 -0.0396 0.9723
4.2415 4.3847 -0.0343 0.9759
2.7793 5.0744 -0.0326 0.9771
2.2997 5.2644 -0.0323 0.9773
1.3827 5.8168 -0.0337 0.9764
0.3322 6.0439 -0.0341 0.9761
-0.2150 6.2606 -0.0353 0.9753
-0.8313 6.6938 -0.0380 0.9734
-1.2536 6.8525 -0.1962 0.9725
-1.9183 6.9264 -0.2024 0.9716
-2.6040 1.7312 -0.0880 0.9876
11.5058 -1.8435 -0.3281 0.9544
11.6570 1.2737 -0.3302 0.9542
10.6304 2.1336 -0.3053 0.9575
7.7939 3.0818 -0.2360 0.9670
6.2536 3.8774 -0.2072 0.9710
5.3749 4.0375 -0.1893 0.9735
3.7210 4.8061 -0.1711 0.9760
2.1865 5.3023 -0.1615 0.9773
1.7491 5.6169 -0.1656 0.9767
1.2645 5.8563 -0.1687 0.9763
0.2081 6.0856 -0.1715 0.9759
-0.3475 6.3054 -0.1778 0.9750
-0.9726 6.6940 -0.1905 0.9733
-1.6195 6.8083 -0.1971 0.9724
2.3452 -0.9204 -0.0709 0.9900
15.3222 -0.2613 -0.4315 0.9405
8.4793 2.9984 -0.2532 0.9647
7.2273 3.3070 -0.2238 0.9687
6.3791 3.6386 -0.2068 0.9710
5.8225 4.0487 -0.1997 0.9720
4.4133 4.4192 -0.1759 0.9753
3.4161 4.9270 -0.1688 0.9763
2.8625 5.0343 -0.1631 0.9771
1.4703 5.7748 -0.1678 0.9764
-0.7175 6.6405 -0.1881 0.9736
-5.2379 13.2933 -0.4023 0.9444
10.0514 2.1844 -0.2896 0.9597
7.6158 3.1526 -0.2321 0.9676
6.7092 3.5075 -0.2132 0.9702
5.2593 4.0833 -0.1875 0.9737
4.6488 4.3257 -0.1788 0.9749
3.0430 4.9226 -0.1630 0.9771
2.1016 5.3359 -0.1615 0.9773
1.6742 5.6941 -0.1671 0.9765
1.1743 5.8920 -0.1692 0.9762
-0.4512 6.3464 -0.1792 0.9749
-1.0974 6.7907 -0.1937 0.9728
-2.5553 1.7763 -0.0876 0.9876
2.3691 -0.8865 -0.0712 0.9899
14.9647 -0.0169 -0.4214 0.9419
11.5862 1.0235 -0.3275 0.9545
9.2157 2.5167 -0.2690 0.9625
8.2807 3.0774 -0.2487 0.9653
7.0608 3.3678 -0.2203 0.9692
6.3847 3.7778 -0.2089 0.9707
5.6978 4.0981 -0.1976 0.9723
4.8926 4.2289 -0.1821 0.9745
3.3253 4.9630 -0.1682 0.9764
2.7761 5.0686 -0.1627 0.9771
2.2971 5.2584 -0.1616 0.9773
1.8209 5.4471 -0.1617 0.9773
-0.2147 6.2529 -0.1762 0.9753
-1.4572 6.7442 -0.1943 0.9728
-2.1917 7.0345 -0.2075 0.9709
-1.9156 6.9166 -0.3640 0.9717
-2.6016 1.7296 -0.1584 0.9876
18.7792 -1.3098 -0.9547 0.9274
10.6245 2.1324 -0.5496 0.9575
6.2448 3.8719 -0.3726 0.9710
5.3677 4.0321 -0.3405 0.9735
1.7471 5.6105 -0.2980 0.9767
1.2630 5.8496 -0.3035 0.9763
0.7285 5.8724 -0.3001 0.9766
-0.3471 6.2975 -0.3199 0.9751
-0.9714 6.6852 -0.3426 0.9733
-1.6172 6.7989 -0.3544 0.9724
2.3441 -0.9200 -0.1277 0.9900
15.2730 -0.2605 -0.7747 0.9407
11.9487 0.8640 -0.6076 0.9532
9.4378 2.4164 -0.4941 0.9617
8.4647 2.9932 -0.4553 0.9647
4.9950 4.1803 -0.3303 0.9743
2.8593 5.0285 -0.2934 0.9771
0.9636 5.9680 -0.3066 0.9761
0.4252 5.9923 -0.3047 0.9762
-2.0504 6.9697 -0.3684 0.9713
-5.2304 13.2744 -0.7236 0.9445
17.9747 -0.9663 -0.9129 0.9304
8.6867 2.7179 -0.4616 0.9642
7.6034 3.1474 -0.4173 0.9676
6.6991 3.5022 -0.3834 0.9702
6.1111 3.9251 -0.3683 0.9713
5.2524 4.0779 -0.3372 0.9737
4.0102 4.4617 -0.3042 0.9763
3.6235 4.8373 -0.3065 0.9761
2.5756 5.1410 -0.2916 0.9772
1.6723 5.6876 -0.3007 0.9765
1.1729 5.8852 -0.3043 0.9763
0.6375 5.9084 -0.3014 0.9765
-0.4507 6.3384 -0.3223 0.9749
-2.5551 1.7762 -0.1578 0.9876
11.5750 1.0225 -0.5893 0.9545
9.1983 2.5119 -0.4836 0.9625
8.2666 3.0722 -0.4473 0.9653
5.6901 4.0926 -0.3555 0.9723
4.2311 4.3740 -0.3086 0.9759
3.3215 4.9572 -0.3026 0.9764
2.7730 5.0628 -0.2927 0.9771
1.8189 5.4409 -0.2909 0.9773
1.3795 5.8035 -0.3025 0.9764
0.8457 5.8261 -0.2986 0.9767
-0.2144 6.2451 -0.3169 0.9753
-0.8292 6.6765 -0.3412 0.9734
-1.4574 6.7451 -0.3500 0.9727
-1.2503 6.8342 -0.5094 0.9725
-1.9128 6.9067 -0.5255 0.9717
-18.2276 -5.7512 -1.4014 0.9262
-14.9970 -9.6835 -1.3089 0.9309
-13.8508 -10.8071 -1.2881 0.9320
-10.2070 -13.6946 -1.2523 0.9338
-8.9207 -14.5086 -1.2488 0.9340
-7.5956 -15.2526 -1.2494 0.9339
-4.8184 -16.5346 -1.2628 0.9333
-1.8502 -17.5408 -1.2933 0.9317
-0.2844 -17.9366 -1.3153 0.9306
1.3421 -18.2570 -1.3423 0.9292
3.0348 -18.4974 -1.3744 0.9276
6.6428 -18.7140 -1.4560 0.9234
14.9357 0.2928 -1.0953 0.9418
7.7681 3.0716 -0.6125 0.9671
6.8383 3.4374 -0.5612 0.9698
6.2359 3.8665 -0.5380 0.9710
5.3605 4.0267 -0.4916 0.9735
4.7416 4.2732 -0.4680 0.9747
3.7122 4.7947 -0.4446 0.9760
2.6581 5.1013 -0.4218 0.9772
1.7452 5.6041 -0.4304 0.9767
0.7276 5.8655 -0.4334 0.9766
0.2076 6.0709 -0.4454 0.9759
-0.3466 6.2896 -0.4619 0.9751
-0.9703 6.6778 -0.4948 0.9733
-2.5504 1.8338 -0.2303 0.9875
-17.6187 -6.5959 -1.3794 0.9273
-15.4579 -9.1966 -1.3188 0.9304
-14.3257 -10.3559 -1.2961 0.9316
-9.4537 -14.1829 -1.2498 0.9339
-5.4035 -16.2936 -1.2587 0.9335
-2.4769 -17.3571 -1.2856 0.9321
-0.9346 -17.7830 -1.3057 0.9311
0.6663 -18.1348 -1.3306 0.9298
4.0656 -18.5994 -1.3959 0.9265
2.3430 -0.9196 -0.1846 0.9900
11.9176 0.8617 -0.8761 0.9532
11.0060 1.7922 -0.8176 0.9563
9.4196 2.4118 -0.7129 0.9618
7.2046 3.2966 -0.5809 0.9687
6.3605 3.6280 -0.5369 0.9711
4.9886 4.1749 -0.4770 0.9742
4.4023 4.4083 -0.4568 0.9753
3.9296 4.7083 -0.4497 0.9757
2.8560 5.0228 -0.4237 0.9771
2.3479 5.1496 -0.4150 0.9776
0.9624 5.9611 -0.4427 0.9761
0.4247 5.9852 -0.4400 0.9762
-0.7157 6.6235 -0.4885 0.9736
-1.3705 6.8709 -0.5137 0.9723
-2.0474 6.9597 -0.5319 0.9713
-5.2247 13.2599 -1.0450 0.9444
-19.0535 -4.5080 -1.4356 0.9245
-14.7949 -9.8904 -1.3049 0.9311
-9.9802 -13.8451 -1.2514 0.9338
-7.3548 -15.3782 -1.2499 0.9339
-4.5617 -16.6357 -1.2648 0.9332
3.3443 -18.5315 -1.3807 0.9273
17.3238 -0.9313 -1.2721 0.9328
11.6391 1.4597 -0.8601 0.9540
10.0105 2.1756 -0.7511 0.9597
8.6849 2.7174 -0.6672 0.9642
7.5910 3.1423 -0.6024 0.9676
6.1025 3.9196 -0.5318 0.9713
3.0360 4.9112 -0.4234 0.9771
2.0968 5.3238 -0.4195 0.9773
1.1716 5.8784 -0.4395 0.9762
0.6368 5.9014 -0.4352 0.9765
0.1115 6.1088 -0.4480 0.9758
-1.0945 6.7728 -0.5030 0.9729
-18.4639 -5.4076 -1.4107 0.9257
-17.4317 -6.8444 -1.3731 0.9276
-16.3626 -8.1759 -1.3412 0.9293
-12.9479 -11.6127 -1.2753 0.9326
-10.5005 -13.4953 -1.2538 0.9337
-9.2229 -14.3259 -1.2493 0.9339
-7.9070 -15.0860 -1.2489 0.9340
-6.5504 -15.7771 -1.2526 0.9338
-5.1502 -16.3998 -1.2604 0.9334
-3.7033 -16.9539 -1.2724 0.9328
-0.6533 -17.8513 -1.3098 0.9309
2.6354 -18.4490 -1.3664 0.9280
4.3829 -18.6242 -1.4029 0.9261
2.3715 -0.8874 -0.1857 0.9899
10.9956 1.9707 -0.8191 0.9562
6.3763 3.7728 -0.5432 0.9707
5.6825 4.0871 -0.5132 0.9723
4.8801 4.2181 -0.4730 0.9745
4.2279 4.3707 -0.4459 0.9759
3.3176 4.9515 -0.4370 0.9764
1.3780 5.7968 -0.4369 0.9764
0.8447 5.8193 -0.4312 0.9767
0.3310 6.0222 -0.4422 0.9761
-0.2142 6.2374 -0.4576 0.9753
-1.4578 6.7471 -0.5061 0.9727
-18.8764 -4.7848 -1.4278 0.9249
-15.7161 -8.9144 -1.3248 0.9301
-13.4335 -11.1876 -1.2818 0.9323
-12.2413 -12.1991 -1.2672 0.9330
-11.0146 -13.1332 -1.2568 0.9336
-7.1127 -15.5015 -1.2505 0.9339
-4.3035 -16.7346 -1.2669 0.9330
-2.8272 -17.2479 -1.2815 0.9323
-1.9101 6.8969 -0.6871 0.9717
-18.6496 4.3624 -1.8388 0.9259
-18.2541 2.5825 -1.7699 0.9286
-17.7695 0.9125 -1.7082 0.9310
-16.5740 -2.1190 -1.6041 0.9351
-15.1293 -4.7736 -1.5231 0.9382
-14.3283 -5.9715 -1.4903 0.9395
-13.4804 -7.0886 -1.4622 0.9406
-11.6567 -9.0951 -1.4194 0.9423
-7.0282 -11.4307 -1.2882 0.9475
-5.9838 -12.0160 -1.2887 0.9475
-4.9045 -12.5407 -1.2928 0.9473
-3.7897 -13.0044 -1.3004 0.9470
-2.6384 -13.4060 -1.3117 0.9466
-0.2222 -14.0162 -1.3458 0.9452
1.0453 -14.2196 -1.3688 0.9443
2.3545 -14.3505 -1.3961 0.9432
3.7065 -14.4044 -1.4279 0.9420
7.0251 -15.3047 -1.6167 0.9346
8.6226 -15.0750 -1.6673 0.9326
11.9681 -14.2659 -1.7877 0.9279
13.7147 -13.6634 -1.8586 0.9252
18.6396 -1.3001 -1.7938 0.9277
10.5802 2.1235 -1.0360 0.9576
8.8687 2.6206 -0.8878 0.9635
6.8279 3.4322 -0.7337 0.9698
6.1805 3.8321 -0.6982 0.9712
4.7356 4.2678 -0.6120 0.9747
4.1426 4.4640 -0.5847 0.9758
3.1194 4.8710 -0.5553 0.9770
2.1791 5.2842 -0.5487 0.9773
1.7432 5.5977 -0.5629 0.9767
1.2601 5.8361 -0.5732 0.9763
0.7267 5.8586 -0.5668 0.9766
-1.6127 6.7800 -0.6691 0.9724
-2.5533 1.8359 -0.3019 0.9874
-18.4280 3.3000 -1.7973 0.9275
-17.9786 1.5855 -1.7327 0.9300
-17.4467 -0.0222 -1.6750 0.9323
-15.4439 -4.2573 -1.5380 0.9377
-13.8341 -6.6393 -1.4732 0.9402
-12.9603 -7.7106 -1.4478 0.9412
-11.0888 -9.6311 -1.4101 0.9427
-9.1520 -9.5066 -1.2669 0.9484
-8.4430 -10.5015 -1.2936 0.9473
-7.4472 -11.1727 -1.2891 0.9475
-3.1158 -13.2486 -1.3066 0.9468
-1.9426 -13.6130 -1.3202 0.9462
0.5197 -14.1446 -1.3589 0.9447
7.9604 -15.1825 -1.6458 0.9334
11.2648 -14.4732 -1.7608 0.9290
12.9915 -13.9282 -1.8286 0.9263
15.0884 -0.2573 -1.4488 0.9412
11.8865 0.8595 -1.1442 0.9532
11.0039 1.7918 -1.0703 0.9562
9.4014 2.4071 -0.9317 0.9618
7.1933 3.2914 -0.7594 0.9687
6.3546 3.6246 -0.7023 0.9710
4.9821 4.1695 -0.6237 0.9742
4.3969 4.4028 -0.5974 0.9753
3.9249 4.7026 -0.5881 0.9757
3.4042 4.9097 -0.5736 0.9763
2.8527 5.0170 -0.5541 0.9771
2.3412 5.1350 -0.5418 0.9776
1.4652 5.7550 -0.5701 0.9764
0.9613 5.9541 -0.5790 0.9761
-5.2197 13.2472 -1.3670 0.9444
-18.8990 5.9102 -1.9010 0.9235
-18.1738 2.2766 -1.7584 0.9290
-17.0985 -0.9217 -1.6439 0.9335
-16.4544 -2.3707 -1.5960 0.9354
-14.9899 -4.9935 -1.5169 0.9385
-14.1803 -6.1767 -1.4849 0.9397
-13.3245 -7.2798 -1.4577 0.9408
-12.4257 -8.3066 -1.4349 0.9417
-11.4861 -9.2601 -1.4165 0.9424
-9.7889 -9.4493 -1.3062 0.9468
-5.7937 -12.1141 -1.2892 0.9475
-2.4290 -13.4711 -1.3141 0.9465
-1.2335 -13.7975 -1.3299 0.9459
0.0010 -14.0576 -1.3496 0.9451
2.5926 -14.3659 -1.4015 0.9430
5.7500 -15.4156 -1.5796 0.9360
10.5697 -14.6585 -1.7350 0.9300
12.2763 -14.1687 -1.7998 0.9274
14.0314 -13.5405 -1.8720 0.9246
11.6112 1.4562 -1.1235 0.9541
9.9901 2.1711 -0.9815 0.9598
6.0484 3.8849 -0.6901 0.9715
5.2385 4.0672 -0.6367 0.9737
3.6150 4.8259 -0.5789 0.9761
2.5697 5.1293 -0.5508 0.9772
1.6684 5.6746 -0.5678 0.9765
1.1702 5.8716 -0.5748 0.9762
0.3251 3.0124 -0.2909 0.9879
0.1114 6.1014 -0.5859 0.9758
-0.4495 6.3224 -0.6085 0.9749
-1.7400 6.8300 -0.6767 0.9721
-2.5549 1.7760 -0.2987 0.9876
-18.3544 2.9860 -1.7853 0.9280
-17.8894 1.2909 -1.7219 0.9305
-16.0461 -3.1805 -1.5705 0.9364
-14.5186 -5.7006 -1.4975 0.9392
-12.7999 -7.8938 -1.4438 0.9414
-11.8768 -8.8771 -1.4235 0.9422
-8.2678 -10.6258 -1.2926 0.9473
-5.1583 -12.4242 -1.2915 0.9474
-4.0518 -12.9021 -1.2983 0.9471
-2.9091 -13.3183 -1.3088 0.9467
-0.5109 -13.9590 -1.3410 0.9454
3.3885 -14.3990 -1.4201 0.9423
4.7745 -14.3901 -1.4556 0.9409
6.6612 -15.3430 -1.6058 0.9350
8.2471 -15.1381 -1.6550 0.9331
9.1636 2.5024 -0.9120 0.9625
8.2386 3.0617 -0.8438 0.9653
4.8738 4.2127 -0.6185 0.9744
4.2261 4.3688 -0.5835 0.9759
3.8300 4.7404 -0.5851 0.9758
3.3137 4.9457 -0.5715 0.9764
2.7666 5.0511 -0.5529 0.9771
2.2892 5.2405 -0.5490 0.9773
1.8147 5.4285 -0.5495 0.9773
0.1660 3.0202 -0.2904 0.9879
-1.4583 6.7491 -0.6629 0.9726
-18.8510 5.5672 -1.8871 0.9241
-18.5194 3.7141 -1.8134 0.9269
-18.0908 1.9741 -1.7471 0.9295
-17.5770 0.3420 -1.6878 0.9318
-16.9883 -1.1874 -1.6349 0.9339
-15.6179 -3.9589 -1.5468 0.9373
-14.0308 -6.3793 -1.4797 0.9399
-13.1671 -7.4686 -1.4533 0.9410
-11.3142 -9.4227 -1.4136 0.9425
-9.4541 -9.4215 -1.2814 0.9478
-8.6693 -10.3368 -1.2952 0.9472
-7.6816 -11.0222 -1.2898 0.9474
-5.6026 -12.2103 -1.2898 0.9474
-4.5106 -12.7132 -1.2951 0.9472
-2.2185 -13.5341 -1.3167 0.9464
-1.2469 6.8158 -0.8231 0.9725
-1.9074 6.8870 -0.8489 0.9716
-14.9063 11.9549 -2.2698 0.9259
-2.5974 1.7268 -0.3705 0.9875
-15.4628 3.6169 -1.8863 0.9380
-14.5168 -0.5508 -1.7256 0.9432
-13.5151 -2.9712 -1.6437 0.9458
-12.9232 -4.0776 -1.6097 0.9469
-12.2775 -5.1168 -1.5800 0.9478
-10.8410 -7.0000 -1.5329 0.9493
-10.0567 -7.8467 -1.5152 0.9499
-9.0600 -8.4711 -1.4733 0.9513
-5.1806 -10.4030 -1.3805 0.9543
-4.2444 -10.8527 -1.3842 0.9541
-3.2770 -11.2450 -1.3913 0.9539
-1.2501 -11.8521 -1.4157 0.9531
0.9007 -12.2519 -1.4593 0.9517
2.0850 -12.7085 -1.5298 0.9494
3.3953 -13.1948 -1.6184 0.9466
4.6569 -13.1193 -1.6537 0.9455
5.9474 -12.9569 -1.6935 0.9442
9.9703 -11.8845 -1.8427 0.9394
16.8781 -7.6709 -2.2022 0.9280
16.9174 -5.9338 -2.1296 0.9303
14.9304 0.2927 -1.7739 0.9416
11.6484 1.2728 -1.3919 0.9539
8.8012 2.6006 -1.0901 0.9637
7.7423 3.0614 -0.9890 0.9670
6.8174 3.4269 -0.9064 0.9697
6.2182 3.8555 -0.8691 0.9710
5.3462 4.0159 -0.7943 0.9734
4.7295 4.2624 -0.7563 0.9747
3.7034 4.7833 -0.7186 0.9759
2.6520 5.0896 -0.6817 0.9771
2.1766 5.2781 -0.6782 0.9773
1.7412 5.5913 -0.6956 0.9767
0.2071 6.0562 -0.7198 0.9759
-0.3457 6.2738 -0.7464 0.9750
-1.6105 6.7706 -0.8267 0.9724
-14.7025 12.7043 -2.3081 0.9247
-2.5562 1.8380 -0.3740 0.9874
-15.4428 9.1344 -2.1313 0.9303
-15.5943 7.4352 -2.0522 0.9328
-15.6190 5.8019 -1.9792 0.9351
-14.6890 -0.0187 -1.7448 0.9425
-13.1731 -3.6313 -1.6231 0.9464
-12.5489 -4.6980 -1.5917 0.9475
-11.8736 -5.6983 -1.5644 0.9483
-9.5754 -8.3167 -1.5066 0.9502
-6.4473 -9.6726 -1.3808 0.9543
-5.5560 -10.2019 -1.3799 0.9543
-2.6925 -11.4488 -1.3971 0.9537
-1.6763 -11.7472 -1.4095 0.9533
-0.6298 -11.9841 -1.4255 0.9528
1.5849 -12.5156 -1.4986 0.9505
4.1351 -13.1606 -1.6386 0.9459
6.7207 -12.8180 -1.7192 0.9434
10.7818 -11.5591 -1.8776 0.9383
13.5625 -10.1339 -2.0111 0.9341
2.3422 -0.9193 -0.2989 0.9899
17.6280 -5.1600 -2.1818 0.9287
11.8594 0.8575 -1.4124 0.9532
10.6568 1.7353 -1.2826 0.9574
9.1973 2.3549 -1.1278 0.9625
8.3581 2.9555 -1.0531 0.9649
6.3530 3.6237 -0.8688 0.9710
5.7907 4.0266 -0.8378 0.9720
4.9756 4.1641 -0.7707 0.9742
4.3914 4.3973 -0.7382 0.9753
2.8494 5.0112 -0.6848 0.9770
2.3386 5.1291 -0.6696 0.9775
1.8974 5.3887 -0.6786 0.9773
-0.1138 6.1825 -0.7345 0.9754
-1.3690 6.8637 -0.8314 0.9722
-2.0415 6.9396 -0.8593 0.9713
-2.6724 1.7159 -0.3773 0.9873
-15.4285 3.3507 -1.8754 0.9384
-14.8487 0.5256 -1.7649 0.9419
-13.9576 -2.0109 -1.6751 0.9448
-12.1569 -5.2953 -1.5751 0.9480
-9.9124 -7.9913 -1.5124 0.9500
-7.6855 -8.8728 -1.3944 0.9538
-6.8040 -9.4389 -1.3821 0.9542
-5.9260 -9.9913 -1.3799 0.9543
-4.0740 -10.9270 -1.3853 0.9541
-3.1011 -11.3089 -1.3929 0.9539
-1.0633 -11.8944 -1.4185 0.9530
2.3091 -12.7948 -1.5444 0.9490
3.6183 -13.1875 -1.6244 0.9464
6.1807 -12.9182 -1.7011 0.9439
8.8490 -12.2720 -1.7972 0.9409
10.2155 -11.7902 -1.8531 0.9391
11.5979 -11.1921 -1.9145 0.9371
12.9897 -10.4691 -1.9818 0.9350
17.0793 -7.4365 -2.2127 0.9277
17.1345 -5.7051 -2.1452 0.9298
19.4329 -2.7969 -2.3321 0.9240
16.1392 -0.8676 -1.9199 0.9370
14.5403 0.5168 -1.7283 0.9431
9.6780 2.1033 -1.1764 0.9609
8.6360 2.7021 -1.0749 0.9642
3.9955 4.4455 -0.7100 0.9762
3.6107 4.8202 -0.7154 0.9760
2.0920 5.3116 -0.6781 0.9773
1.1689 5.8648 -0.7104 0.9762
-1.0916 6.7548 -0.8128 0.9728
-1.7376 6.8204 -0.8360 0.9720
-2.5560 1.7768 -0.3698 0.9875
-15.2940 2.4881 -1.8406 0.9395
-14.9953 1.0821 -1.7859 0.9412
-13.6443 -2.7044 -1.6523 0.9455
-12.4320 -4.8813 -1.5865 0.9476
-11.0171 -6.7944 -1.5375 0.9492
-10.2426 -7.6556 -1.5190 0.9498
-9.4269 -8.4548 -1.5042 0.9503
-8.1138 -8.7013 -1.4132 0.9532
-7.1551 -9.1958 -1.3840 0.9542
-5.3935 -10.2905 -1.3801 0.9543
-3.5044 -11.1591 -1.3894 0.9540
-1.4918 -11.7941 -1.4121 0.9532
-0.4399 -12.0197 -1.4287 0.9527
1.7997 -12.5985 -1.5117 0.9500
4.3612 -13.1444 -1.6451 0.9457
5.6451 -13.0026 -1.6838 0.9445
8.2933 -12.4381 -1.7758 0.9416
9.6520 -12.0017 -1.8295 0.9398
12.4173 -10.7818 -1.9534 0.9359
13.8113 -9.9810 -2.0242 0.9337
16.5767 -7.9524 -2.1839 0.9286
2.3752 -0.8888 -0.3012 0.9898
18.9851 -3.4469 -2.2920 0.9252
14.8213 -0.0167 -1.7606 0.9420
10.3138 1.8485 -1.2447 0.9587
7.0170 3.3469 -0.9235 0.9692
6.3729 3.7708 -0.8796 0.9706
3.8254 4.7347 -0.7230 0.9758
3.3099 4.9399 -0.7063 0.9763
2.2866 5.2345 -0.6785 0.9773
1.8126 5.4223 -0.6791 0.9772
0.8427 5.8056 -0.6969 0.9766
-0.2137 6.2219 -0.7395 0.9752
-1.4587 6.7510 -0.8204 0.9726
-15.0609 11.3100 -2.2373 0.9269
-15.3880 9.5379 -2.1505 0.9297
-15.6239 6.1752 -1.9956 0.9346
-14.3573 -1.0035 -1.7096 0.9437
-13.8650 -2.2236 -1.6680 0.9450
-12.0348 -5.4718 -1.5704 0.9481
-11.3228 -6.4224 -1.5463 0.9489
-10.5658 -7.3094 -1.5261 0.9496
-7.5062 -8.9499 -1.3875 0.9540
-1.2360 6.7558 -0.9731 0.9726
-8.1451 16.9198 -2.6607 0.9269
-9.3022 15.5930 -2.5726 0.9293
-10.2965 14.2075 -2.4861 0.9316
-11.1319 12.7857 -2.4020 0.9338
-11.8147 11.3468 -2.3210 0.9360
-12.3528 9.9070 -2.2436 0.9380
-2.5960 1.7258 -0.4417 0.9875
-13.2425 4.3740 -1.9760 0.9452
-13.1958 3.0867 -1.9202 0.9467
-13.0589 1.8475 -1.8687 0.9481
-12.8397 0.6594 -1.8216 0.9494
-12.1818 -1.5575 -1.7401 0.9516
-11.7553 -2.5843 -1.7054 0.9525
-10.7331 -4.4731 -1.6475 0.9541
-10.1459 -5.3352 -1.6242 0.9547
-7.3678 -8.2372 -1.5659 0.9563
-6.5786 -8.8263 -1.5597 0.9565
-4.0129 -10.2608 -1.5611 0.9565
-1.1787 -11.1754 -1.5922 0.9556
-0.1801 -11.3573 -1.6094 0.9551
1.8905 -11.5225 -1.6544 0.9539
4.0473 -11.4021 -1.7143 0.9523
8.5375 -10.1766 -1.8821 0.9477
9.6735 -9.6374 -1.9348 0.9463
10.8033 -8.9946 -1.9918 0.9448
14.0382 -6.3802 -2.1849 0.9396
11.6463 1.2726 -1.6600 0.9538
10.1916 2.0455 -1.4728 0.9589
8.6208 2.5473 -1.2737 0.9643
7.5031 2.9668 -1.1432 0.9679
6.7696 3.4029 -1.0735 0.9699
6.1629 3.8212 -1.0275 0.9711
3.1121 4.8596 -0.8177 0.9770
2.1741 5.2721 -0.8080 0.9772
1.2572 5.8225 -0.8440 0.9762
0.2068 6.0488 -0.8576 0.9758
-0.3453 6.2659 -0.8892 0.9750
-2.3166 6.9263 -1.0348 0.9709
-8.8468 16.1464 -2.6087 0.9283
-9.9076 14.7822 -2.5214 0.9306
-10.8076 13.3728 -2.4362 0.9329
-12.1487 10.4976 -2.2749 0.9372
-2.5592 1.8401 -0.4466 0.9873
-12.9326 7.6496 -2.1290 0.9411
-13.2263 3.6098 -1.9426 0.9461
-13.1255 2.3505 -1.8893 0.9476
-12.6748 -0.0161 -1.7959 0.9501
-11.9377 -2.1692 -1.7191 0.9522
-11.4765 -3.1636 -1.6868 0.9530
-9.7783 -5.8175 -1.6121 0.9551
-9.1198 -6.5926 -1.5944 0.9556
-8.4201 -7.3133 -1.5802 0.9559
-7.6818 -7.9794 -1.5694 0.9562
-6.9070 -8.5910 -1.5619 0.9564
-6.0975 -9.1477 -1.5577 0.9566
-4.3808 -10.0944 -1.5591 0.9565
-3.4763 -10.4826 -1.5648 0.9564
-2.5428 -10.8125 -1.5738 0.9561
-1.5815 -11.0824 -1.5862 0.9558
-0.5934 -11.2903 -1.6019 0.9554
1.4577 -11.5110 -1.6440 0.9542
2.5177 -11.5180 -1.6705 0.9535
3.5981 -11.4516 -1.7008 0.9527
5.8108 -11.0827 -1.7731 0.9507
6.9368 -10.7715 -1.8153 0.9496
10.3405 -9.2715 -1.9678 0.9454
11.4630 -8.5651 -2.0275 0.9438
13.6390 -6.8125 -2.1602 0.9403
2.3421 -0.9192 -0.3565 0.9899
14.5191 -4.2500 -2.1435 0.9407
16.1126 -1.7191 -2.2959 0.9366
7.9180 2.7999 -1.1900 0.9666
5.7827 4.0210 -0.9980 0.9719
4.9691 4.1586 -0.9181 0.9742
4.3859 4.3918 -0.8794 0.9752
3.9154 4.6913 -0.8658 0.9756
3.3962 4.8982 -0.8445 0.9762
2.3359 5.1232 -0.7978 0.9775
1.8952 5.3825 -0.8085 0.9772
0.2084 2.9368 -0.4172 0.9882
-0.1136 6.1749 -0.8751 0.9754
-1.3569 6.8032 -0.9829 0.9724
-2.0202 6.8674 -1.0143 0.9715
-11.2647 12.5296 -2.3873 0.9342
-12.4343 9.6510 -2.2302 0.9384
-13.0680 6.8293 -2.0892 0.9422
-13.2075 5.4650 -2.0252 0.9439
-13.0257 1.6317 -1.8600 0.9483
-12.7925 0.4528 -1.8137 0.9496
-12.4852 -0.6730 -1.7716 0.9507
-12.1101 -1.7448 -1.7336 0.9518
-11.6729 -2.7618 -1.6996 0.9527
-10.6318 -4.6310 -1.6431 0.9542
-9.3954 -6.2808 -1.6013 0.9554
-8.7123 -7.0239 -1.5856 0.9558
-5.6049 -9.4499 -1.5567 0.9566
-2.9297 -10.6841 -1.5697 0.9562
-1.0024 -11.2126 -1.5950 0.9555
4.2434 -11.3765 -1.7204 0.9521
5.3516 -11.1854 -1.7569 0.9511
6.4731 -10.9101 -1.7975 0.9500
9.8759 -9.5304 -1.9446 0.9461
11.0037 -8.8685 -2.0024 0.9445
13.2266 -5.7590 -2.0440 0.9434
15.0222 -3.5519 -2.1872 0.9395
15.8136 -2.2760 -2.2637 0.9375
16.0818 -0.8646 -2.2819 0.9370
7.3586 3.0461 -1.1284 0.9683
6.0768 3.9031 -1.0233 0.9712
4.6195 4.2985 -0.8941 0.9748
3.9907 4.4401 -0.8459 0.9762
3.6064 4.8145 -0.8523 0.9760
3.0254 4.8941 -0.8152 0.9770
2.0896 5.3055 -0.8079 0.9772
0.3181 2.9477 -0.4201 0.9881
-1.0901 6.7458 -0.9682 0.9728
-1.7344 6.8080 -0.9954 0.9720
-6.4945 18.4365 -2.7696 0.9241
-9.0481 15.9073 -2.5930 0.9287
-10.0799 14.5333 -2.5060 0.9310
-11.6693 11.6816 -2.3395 0.9355
-12.9779 7.4000 -2.1168 0.9414
-13.1635 6.0208 -2.0510 0.9432
-13.2150 3.3815 -1.9327 0.9464
-12.2720 -1.3111 -1.7487 0.9514
-11.3883 -3.3354 -1.6814 0.9532
-10.2865 -5.1398 -1.6293 0.9546
-7.5461 -8.0926 -1.5678 0.9563
-5.9495 -9.2413 -1.5573 0.9566
-5.1012 -9.7327 -1.5570 0.9566
-3.3119 -10.5458 -1.5662 0.9563
-0.4143 -11.3208 -1.6051 0.9553
0.6036 -11.4528 -1.6250 0.9547
2.7091 -11.5116 -1.6756 0.9533
6.0110 -11.0336 -1.7803 0.9505
10.5418 -9.1534 -1.9781 0.9452
12.7600 -7.5889 -2.1035 0.9418
2.3787 -0.8901 -0.3599 0.9898
14.6741 -4.0428 -2.1566 0.9404
15.4989 -2.8139 -2.2319 0.9383
16.2373 -1.4712 -2.3101 0.9363
11.5462 1.0200 -1.6423 0.9543
10.6002 1.8999 -1.5259 0.9574
8.9457 2.4429 -1.3139 0.9632
7.7336 2.8741 -1.1690 0.9672
6.9302 3.3055 -1.0879 0.9695
6.3389 3.7507 -1.0436 0.9707
4.8613 4.2018 -0.9104 0.9744
3.8208 4.7290 -0.8614 0.9757
3.3060 4.9341 -0.8415 0.9763
2.7602 5.0395 -0.8141 0.9771
1.3732 5.7767 -0.8413 0.9763
0.8417 5.7988 -0.8302 0.9766
-0.2134 6.2141 -0.8810 0.9752
-0.8249 6.6418 -0.9483 0.9733
-1.4591 6.7530 -0.9789 0.9725
-2.1476 6.8930 -1.0230 0.9713
-8.5770 16.4544 -2.6291 0.9278
-10.6127 13.7031 -2.4558 0.9324
-12.0229 10.8321 -2.2929 0.9367
-13.1011 6.5831 -2.0775 0.9425
-13.2210 5.2255 -2.0143 0.9442
-12.7429 0.2479 -1.8059 0.9498
-12.4230 -0.8683 -1.7645 0.9509
-12.0365 -1.9303 -1.7272 0.9519
-11.5888 -2.9375 -1.6939 0.9528
-11.0848 -3.8898 -1.6645 0.9536
-10.5289 -4.7871 -1.6388 0.9543
-8.5861 -7.1507 -1.5832 0.9559
-7.0901 -8.4538 -1.5633 0.9564
-4.5866 -9.9960 -1.5583 0.9565
-3.6891 -10.3976 -1.5632 0.9564
-1.6129 5.8237 -0.9955 0.9758
-7.7669 13.0193 -2.4974 0.9404
-10.0265 9.6294 -2.2901 0.9452
-10.5363 8.4502 -2.2250 0.9467
-11.2199 6.0929 -2.1033 0.9496
-11.4192 1.6156 -1.8999 0.9543
-11.2631 0.5784 -1.8579 0.9553
-11.0366 -0.4188 -1.8195 0.9562
-10.7451 -1.3738 -1.7845 0.9570
-9.5270 -3.9705 -1.7003 0.9590
-8.4688 -5.4683 -1.6607 0.9600
-5.8745 -7.8817 -1.6194 0.9609
-5.1403 -8.3602 -1.6168 0.9610
-3.5831 -9.1618 -1.6206 0.9609
-1.0503 -9.9572 -1.6494 0.9602
-0.1602 -10.1074 -1.6653 0.9598
1.6773 -10.2229 -1.7066 0.9589
3.5762 -10.0749 -1.7612 0.9576
6.4877 -9.3062 -1.8689 0.9551
7.4588 -8.8908 -1.9118 0.9540
9.3693 -7.8006 -2.0084 0.9518
10.2947 -7.1196 -2.0620 0.9505
11.1889 -6.3443 -2.1189 0.9492
11.9193 -4.1807 -2.0809 0.9501
11.4538 -1.8351 -1.9110 0.9541
11.6441 1.2723 -1.9297 0.9536
10.2017 2.0475 -1.7141 0.9587
7.5989 3.0047 -1.3462 0.9674
6.5991 3.3171 -1.2167 0.9705
5.8400 3.6210 -1.1320 0.9725
5.2566 3.9486 -1.0831 0.9737
4.0991 4.4171 -0.9927 0.9759
2.1715 5.2660 -0.9384 0.9772
1.7371 5.5784 -0.9625 0.9766
0.2066 6.0414 -0.9958 0.9758
-0.9220 6.3455 -1.0563 0.9743
-2.3001 6.8771 -1.1946 0.9710
-10.3410 8.9355 -2.2515 0.9461
-11.1143 6.5741 -2.1273 0.9490
-11.4706 4.2609 -2.0158 0.9516
-10.8724 -0.9867 -1.7985 0.9567
-10.5448 -1.9161 -1.7656 0.9575
-10.1597 -2.8006 -1.7361 0.9582
-9.2339 -4.4315 -1.6873 0.9593
-5.4456 -8.1698 -1.6175 0.9610
-3.9121 -9.0144 -1.6188 0.9609
-2.2685 -9.6460 -1.6324 0.9606
-0.5283 -10.0529 -1.6584 0.9600
2.2312 -10.2077 -1.7213 0.9585
3.1822 -10.1279 -1.7489 0.9579
5.1141 -9.7538 -1.8143 0.9563
6.0877 -9.4529 -1.8523 0.9554
7.0606 -9.0716 -1.8937 0.9545
8.9823 -8.0537 -1.9874 0.9523
12.3306 -3.6094 -2.1166 0.9492
14.0101 -0.2389 -2.3083 0.9448
11.8551 0.8572 -1.9581 0.9530
10.8828 1.7721 -1.8164 0.9563
9.3466 2.3931 -1.5894 0.9616
8.0752 2.8555 -1.4110 0.9659
6.1381 3.5011 -1.1641 0.9718
5.4873 3.8156 -1.1010 0.9733
4.9342 4.1294 -1.0600 0.9743
4.3804 4.3863 -1.0212 0.9752
3.9106 4.6856 -1.0054 0.9756
3.3922 4.8924 -0.9807 0.9762
2.8428 4.9995 -0.9475 0.9770
2.3658 5.1889 -0.9395 0.9771
1.4602 5.7350 -0.9749 0.9763
0.2032 2.8644 -0.4731 0.9884
-1.2859 6.4471 -1.0830 0.9737
-1.9772 6.7212 -1.1542 0.9720
-5.1436 13.0539 -2.3114 0.9447
-6.4506 12.8711 -2.3718 0.9433
-10.1261 9.4196 -2.2783 0.9455
-10.6152 8.2391 -2.2137 0.9470
-2.6571 1.7061 -0.5202 0.9873
-11.2603 5.8846 -2.0931 0.9498
-11.4907 2.4955 -1.9371 0.9535
-11.3967 1.4276 -1.8922 0.9545
-11.2277 0.3974 -1.8508 0.9555
-10.9892 -0.5924 -1.8130 0.9564
-8.3660 -5.5927 -1.6578 0.9600
-7.7661 -6.2610 -1.6434 0.9604
-7.1278 -6.8805 -1.6321 0.9606
-6.4537 -7.4507 -1.6238 0.9608
-3.4387 -9.2230 -1.6216 0.9609
-2.6144 -9.5341 -1.6286 0.9607
-1.7652 -9.7898 -1.6388 0.9605
-0.8929 -9.9883 -1.6520 0.9602
1.8445 -10.2207 -1.7110 0.9588
3.7480 -10.0482 -1.7667 0.9575
5.6876 -9.5861 -1.8362 0.9558
7.6314 -8.8078 -1.9199 0.9539
10.4568 -6.9882 -2.0719 0.9503
11.3445 -6.1959 -2.1295 0.9489
11.3121 -4.9254 -2.0325 0.9512
12.0462 -4.0109 -2.0916 0.9498
12.7188 -3.0073 -2.1531 0.9484
13.3174 -1.9167 -2.2165 0.9469
13.8287 -0.7434 -2.2814 0.9454
14.2386 0.5061 -2.3471 0.9439
11.6512 1.4612 -1.9344 0.9535
9.9288 2.1578 -1.6739 0.9596
8.6025 2.6916 -1.4849 0.9641
7.4058 3.0656 -1.3204 0.9680
5.7235 3.6762 -1.1206 0.9728
3.9858 4.4346 -0.9823 0.9761
3.6021 4.8087 -0.9898 0.9759
3.0219 4.8884 -0.9468 0.9770
2.5608 5.1116 -0.9418 0.9771
1.6627 5.6550 -0.9710 0.9764
1.1661 5.8510 -0.9829 0.9761
0.1110 6.0790 -1.0016 0.9757
-1.0293 6.3692 -1.0629 0.9742
-1.4649 5.7500 -0.9775 0.9762
-4.9694 14.1071 -2.4640 0.9412
-6.0426 13.2481 -2.3988 0.9427
-7.5448 13.2644 -2.5139 0.9400
-8.4523 12.1866 -2.4432 0.9416
-9.2337 11.0603 -2.3736 0.9433
-10.4283 8.7248 -2.2399 0.9464
-11.4838 4.0590 -2.0065 0.9518
-11.5061 2.9442 -1.9566 0.9530
-11.4448 1.8619 -1.9102 0.9541
-11.3059 0.8158 -1.8674 0.9551
-11.0952 -0.1909 -1.8281 0.9560
-10.8183 -1.1558 -1.7923 0.9569
-10.4801 -2.0773 -1.7601 0.9576
-10.0853 -2.9537 -1.7312 0.9583
-9.1420 -4.5679 -1.6836 0.9594
-8.6007 -5.3042 -1.6646 0.9599
-8.0173 -5.9923 -1.6489 0.9602
-5.3136 -8.2536 -1.6171 0.9610
-4.5561 -8.6927 -1.6168 0.9610
-3.7697 -9.0796 -1.6196 0.9609
-2.1169 -9.6916 -1.6342 0.9606
-0.3688 -10.0778 -1.6613 0.9599
2.4000 -10.1985 -1.7260 0.9584
3.3532 -10.1064 -1.7542 0.9578
5.2877 -9.7059 -1.8208 0.9562
11.8374 -5.6789 -2.1629 0.9482
2.3822 -0.8914 -0.4190 0.9897
13.6301 -1.2350 -2.2546 0.9460
14.0834 -0.0159 -2.3201 0.9445
10.5771 1.8957 -1.7702 0.9574
9.1113 2.4881 -1.5560 0.9624
7.8625 2.9220 -1.3818 0.9666
6.8117 3.2490 -1.2433 0.9699
6.0065 3.5540 -1.1497 0.9721
4.8383 4.1820 -1.0535 0.9744
2.7570 5.0336 -0.9455 0.9770
2.2813 5.2225 -0.9388 0.9772
1.3716 5.7700 -0.9770 0.9762
0.8407 5.7919 -0.9642 0.9766
0.3294 5.9931 -0.9888 0.9760
-0.7842 6.3144 -1.0482 0.9745
-1.2875 5.9587 -1.0043 0.9756
-5.4111 13.1165 -2.3374 0.9441
-6.6218 12.7035 -2.3600 0.9436
-10.2219 9.2095 -2.2666 0.9458
-11.0469 6.8472 -2.1411 0.9487
-11.2976 5.6769 -2.0829 0.9500
-11.4797 2.3023 -1.9288 0.9536
-11.3719 1.2409 -1.8845 0.9547
-11.1901 0.2177 -1.8438 0.9556
-10.9398 -0.7646 -1.8066 0.9565
-10.6262 -1.7041 -1.7729 0.9573
-10.2541 -2.5992 -1.7427 0.9580
-8.8283 -5.0075 -1.6720 0.9597
-7.0101 -6.9859 -1.6304 0.9607
-6.3297 -7.5472 -1.6227 0.9609
-5.6160 -8.0583 -1.6181 0.9610
-4.8708 -8.5186 -1.6166 0.9610
-2.4646 -9.5839 -1.6302 0.9607
-1.6112 -9.8295 -1.6409 0.9604
-4.4473 11.8360 -2.3766 0.9498
-6.9067 9.5301 -2.2122 0.9532
-8.1224 9.3291 -2.3250 0.9509
-9.1768 7.3598 -2.2111 0.9532
-9.8416 5.3445 -2.1050 0.9554
-10.1490 3.3522 -2.0090 0.9574
-10.1804 2.3813 -1.9652 0.9583
-10.1369 1.4341 -1.9243 0.9592
-10.0232 0.5147 -1.8865 0.9600
-9.8441 -0.3735 -1.8516 0.9607
-9.6039 -1.2279 -1.8199 0.9614
-8.1132 -4.2663 -1.7230 0.9634
-7.6256 -4.9239 -1.7062 0.9637
-5.9344 -6.6347 -1.6731 0.9644
-4.6408 -7.5477 -1.6654 0.9646
-2.4933 -8.5557 -1.6750 0.9644
-0.1443 -9.0985 -1.7104 0.9636
0.6740 -9.1685 -1.7280 0.9633
1.5061 -9.1798 -1.7485 0.9628
2.3494 -9.1302 -1.7720 0.9624
3.2009 -9.0175 -1.7986 0.9618
4.0574 -8.8393 -1.8281 0.9612
5.7697 -8.2764 -1.8963 0.9598
6.6166 -7.8868 -1.9350 0.9590
7.4501 -7.4222 -1.9767 0.9581
8.2642 -6.8805 -2.0212 0.9572
9.8055 -5.5599 -2.1187 0.9552
10.3710 -3.6376 -2.0658 0.9563
11.4113 -1.8283 -2.1722 0.9541
11.8196 -0.8244 -2.2270 0.9529
12.1394 0.2380 -2.2822 0.9518
11.6419 1.2721 -2.2012 0.9535
7.7033 3.0460 -1.5570 0.9668
6.7439 3.3899 -1.4187 0.9697
5.8964 3.6560 -1.3040 0.9722
5.1767 3.8886 -1.2170 0.9740
3.6901 4.7661 -1.1330 0.9758
2.6076 5.0043 -1.0607 0.9773
1.6715 5.3674 -1.0566 0.9774
1.1940 5.5300 -1.0634 0.9772
-0.9193 6.3271 -1.2017 0.9743
-1.3608 5.7208 -1.1053 0.9764
-4.9954 11.4309 -2.3448 0.9505
-8.4750 8.7586 -2.2908 0.9516
-10.1132 3.7567 -2.0278 0.9570
-10.1768 2.7775 -1.9828 0.9580
-10.1635 1.8200 -1.9407 0.9588
-10.0781 0.8888 -1.9016 0.9597
-9.9253 -0.0126 -1.8656 0.9604
-9.7097 -0.8812 -1.8325 0.9611
-8.7277 -3.2674 -1.7517 0.9628
-7.8309 -4.6589 -1.7127 0.9636
-6.1846 -6.4242 -1.6761 0.9644
-4.9162 -7.3755 -1.6661 0.9646
-3.5314 -8.1373 -1.6673 0.9645
-2.0461 -8.7003 -1.6799 0.9643
-0.4758 -9.0532 -1.7040 0.9638
0.3361 -9.1467 -1.7204 0.9634
2.8503 -9.0716 -1.7873 0.9620
5.4193 -8.4151 -1.8813 0.9601
6.2700 -8.0558 -1.9188 0.9593
7.1097 -7.6223 -1.9592 0.9585
7.9326 -7.1125 -2.0026 0.9576
9.5006 -5.8572 -2.0978 0.9556
2.3418 -0.9191 -0.4729 0.9898
12.0195 -0.2050 -2.2595 0.9523
11.8529 0.8571 -2.2337 0.9528
10.8583 1.7681 -2.0678 0.9562
9.3282 2.3884 -1.8099 0.9616
8.1281 2.8742 -1.6205 0.9655
3.9059 4.6799 -1.1457 0.9755
2.3330 5.1170 -1.0571 0.9774
1.8651 5.2972 -1.0556 0.9774
0.9075 5.6207 -1.0701 0.9771
0.2001 2.8202 -0.5314 0.9886
-0.1100 5.9789 -1.1240 0.9760
-2.0183 6.8609 -1.3442 0.9713
-4.6165 11.7162 -2.3670 0.9500
-5.5125 10.9994 -2.3126 0.9512
-6.3167 10.2152 -2.2575 0.9523
-8.7923 8.1789 -2.2571 0.9523
-9.2516 7.1807 -2.2013 0.9535
-9.8830 5.1649 -2.0960 0.9556
-10.1603 3.1774 -2.0009 0.9576
-10.1780 2.2104 -1.9577 0.9585
-9.8056 -0.5286 -1.8457 0.9608
-9.2483 -2.1881 -1.7863 0.9621
-8.8894 -2.9613 -1.7611 0.9626
-8.0292 -4.3868 -1.7197 0.9634
-7.0001 -5.6435 -1.6901 0.9641
-6.4292 -6.2061 -1.6796 0.9643
-5.8240 -6.7237 -1.6720 0.9644
-5.1867 -7.1953 -1.6672 0.9645
-3.8246 -7.9967 -1.6661 0.9646
-2.3586 -8.6014 -1.6764 0.9644
-1.5916 -8.8267 -1.6858 0.9642
0.0007 -9.1152 -1.7133 0.9636
0.8216 -9.1749 -1.7314 0.9632
4.2105 -8.8004 -1.8337 0.9611
5.0680 -8.5417 -1.8668 0.9604
6.7665 -7.8095 -1.9422 0.9588
7.5970 -7.3313 -1.9844 0.9579
9.1891 -6.1410 -2.0774 0.9560
9.9358 -5.4265 -2.1279 0.9550
9.8724 -4.2985 -2.0239 0.9571
10.4744 -3.4876 -2.0750 0.9561
11.8835 -0.6389 -2.2369 0.9527
11.6233 1.4577 -2.2018 0.9534
9.9083 2.1533 -1.9058 0.9596
6.5811 3.4405 -1.3958 0.9702
5.7599 3.6996 -1.2867 0.9725
3.9816 4.4299 -1.1195 0.9760
2.0578 5.2248 -1.0555 0.9774
1.1077 5.5579 -1.0652 0.9772
0.3043 2.8198 -0.5331 0.9885
-1.0311 6.3805 -1.2148 0.9740
-1.5607 6.1262 -1.1883 0.9746
-6.7464 9.7270 -2.2250 0.9530
-7.3996 8.8634 -2.1702 0.9541
-8.5748 8.5838 -2.2805 0.9518
-9.0749 7.5924 -2.2240 0.9530
-2.5592 1.7790 -0.5858 0.9874
-9.7834 5.5785 -2.1168 0.9552
-9.9998 4.5738 -2.0669 0.9562
-9.8913 -0.1701 -1.8594 0.9605
-9.6649 -1.0326 -1.8270 0.9612
-9.3808 -1.8594 -1.7975 0.9618
-8.2205 -4.1075 -1.7273 0.9633
-7.7425 -4.7749 -1.7098 0.9637
-7.2242 -5.3995 -1.6952 0.9640
-6.6680 -5.9804 -1.6836 0.9642
-5.4522 -7.0072 -1.6688 0.9645
-4.7971 -7.4513 -1.6657 0.9646
-3.4027 -8.1958 -1.6680 0.9645
-2.6674 -8.4938 -1.6734 0.9644
-1.1301 -8.9345 -1.6927 0.9640
0.4826 -9.1574 -1.7236 0.9634
6.4208 -7.9840 -1.9258 0.9592
7.2580 -7.5370 -1.9667 0.9583
9.6339 -5.7297 -2.1069 0.9554
11.7323 -1.0630 -2.2142 0.9532
12.0736 -0.0136 -2.2694 0.9520
9.0938 2.4833 -1.7719 0.9624
6.0802 3.5976 -1.3279 0.9717
5.3346 3.8369 -1.2351 0.9736
4.7065 4.0680 -1.1693 0.9750
3.2981 4.9224 -1.1137 0.9762
1.3058 5.4933 -1.0613 0.9773
0.4455 3.0690 -0.5829 0.9875
0.1656 3.0122 -0.5670 0.9878
-0.2066 6.0168 -1.1316 0.9758
-2.1594 6.9307 -1.3645 0.9709
-4.7830 11.5939 -2.3574 0.9502
-5.6629 10.8640 -2.3028 0.9514
-6.4504 10.0691 -2.2476 0.9525
-7.1429 9.2229 -2.1926 0.9536
-9.6686 5.9929 -2.1381 0.9548
-9.9216 4.9855 -2.0871 0.9558
-10.0869 3.9868 -2.0387 0.9568
-10.1732 2.0402 -1.9502 0.9586
-10.1041 1.1026 -1.9104 0.9595
-9.9665 0.1939 -1.8737 0.9602
-8.8201 -3.0951 -1.7570 0.9627
-8.4044 -3.8212 -1.7353 0.9631
-7.9439 -4.5059 -1.7166 0.9635
-7.4418 -5.1482 -1.7009 0.9638
-5.7125 -6.8113 -1.6709 0.9645
-4.3975 -7.6908 -1.6652 0.9646
-3.6977 -8.0588 -1.6666 0.9646
-2.9723 -8.3775 -1.6708 0.9645
-2.2233 -8.6455 -1.6779 0.9643
-3.8648 10.2858 -2.3226 0.9561
-5.4032 9.0571 -2.2293 0.9578
-6.0569 8.3576 -2.1818 0.9587
-6.6304 7.6155 -2.1344 0.9596
-9.0759 2.9978 -2.0204 0.9617
-9.1056 1.2882 -1.9439 0.9631
-8.8767 -0.3368 -1.8777 0.9643
-8.1141 -2.5602 -1.7985 0.9658
-7.3663 -3.8735 -1.7592 0.9665
-6.9298 -4.4746 -1.7436 0.9668
-4.8287 -6.4786 -1.7080 0.9675
-4.2265 -6.8740 -1.7057 0.9675
-1.5740 -7.9977 -1.7230 0.9672
1.3656 -8.3233 -1.7829 0.9661
2.1275 -8.2680 -1.8046 0.9657
3.6632 -7.9806 -1.8562 0.9647
5.1904 -7.4454 -1.9185 0.9636
5.9401 -7.0805 -1.9536 0.9629
6.6737 -6.6488 -1.9913 0.9622
7.3856 -6.1491 -2.0314 0.9615
8.7184 -4.9435 -2.1185 0.9599
8.6537 -3.9330 -2.0093 0.9619
9.1697 -3.2163 -2.0541 0.9611
9.6311 -2.4398 -2.1001 0.9602
10.6046 0.2079 -2.2420 0.9576
10.7647 1.1762 -2.2890 0.9567
10.1583 2.0388 -2.1901 0.9585
5.2768 3.9638 -1.3951 0.9734
4.6306 4.1732 -1.3177 0.9748
3.6856 4.7603 -1.2726 0.9757
3.0302 4.7317 -1.1877 0.9773
2.5624 4.9175 -1.1721 0.9776
1.1814 5.4714 -1.1832 0.9774
0.3569 2.8775 -0.6129 0.9882
0.2020 5.9077 -1.2495 0.9761
-0.9369 6.4480 -1.3773 0.9737
-1.4380 6.0456 -1.3136 0.9749
-3.5131 10.5037 -2.3412 0.9557
-4.3487 9.9511 -2.2956 0.9566
-5.7980 8.6506 -2.2013 0.9583
-6.9305 7.1624 -2.1067 0.9601
-7.9480 6.8677 -2.2204 0.9580
-2.5814 1.8561 -0.6721 0.9871
-8.8826 4.2351 -2.0801 0.9606
-9.0637 0.7993 -1.9233 0.9635
-8.9433 -0.0114 -1.8905 0.9641
-8.7644 -0.7954 -1.8602 0.9647
-8.5306 -1.5501 -1.8327 0.9652
-8.2454 -2.2729 -1.8079 0.9656
-7.9121 -2.9620 -1.7858 0.9660
-7.1138 -4.2323 -1.7497 0.9667
-6.6547 -4.8106 -1.7357 0.9670
-6.1590 -5.3494 -1.7244 0.9672
-5.0680 -6.3036 -1.7097 0.9675
-4.4772 -6.7169 -1.7063 0.9675
-3.8591 -7.0862 -1.7056 0.9675
-3.2159 -7.4102 -1.7075 0.9675
-2.5495 -7.6877 -1.7121 0.9674
-1.8620 -7.9175 -1.7193 0.9673
-1.1556 -8.0981 -1.7291 0.9671
0.3052 -8.3058 -1.7569 0.9666
4.1155 -7.8494 -1.8734 0.9644
4.8791 -7.5763 -1.9048 0.9638
5.6338 -7.2384 -1.9389 0.9632
6.3747 -6.8343 -1.9755 0.9625
7.0962 -6.3626 -2.0147 0.9618
7.7924 -5.8225 -2.0562 0.9610
9.4487 -2.7658 -2.0811 0.9605
9.8741 -1.9556 -2.1277 0.9597
10.2316 -1.0916 -2.1750 0.9588
10.5130 -0.1793 -2.2226 0.9579
10.7100 0.7744 -2.2698 0.9570
10.8149 1.7610 -2.3162 0.9562
8.1137 2.8691 -1.8191 0.9654
7.1360 3.2652 -1.6588 0.9684
5.5681 3.8718 -1.4336 0.9727
2.7530 4.8416 -1.1773 0.9775
1.3723 5.3898 -1.1756 0.9775
0.9029 5.5924 -1.1974 0.9771
-0.1114 6.0532 -1.2797 0.9756
-0.6835 6.3251 -1.3448 0.9743
-4.0140 10.1871 -2.3145 0.9562
-7.7598 7.2185 -2.2403 0.9576
-8.1905 6.3571 -2.1916 0.9585
-2.6467 1.6995 -0.6649 0.9872
-8.7978 4.5977 -2.0983 0.9602
-8.9815 3.7164 -2.0546 0.9610
-9.0899 2.8426 -2.0132 0.9618
-9.0953 1.1393 -1.9376 0.9632
-8.8448 -0.4768 -1.8723 0.9644
-8.3685 -1.9800 -1.8178 0.9655
-8.0546 -2.6832 -1.7946 0.9659
-7.6945 -3.3516 -1.7741 0.9663
-7.2913 -3.9836 -1.7563 0.9666
-6.8478 -4.5778 -1.7411 0.9669
-6.3668 -5.1329 -1.7287 0.9671
-5.8508 -5.6478 -1.7190 0.9673
-2.1468 -7.8290 -1.7160 0.9674
-0.7314 -8.1810 -1.7362 0.9670
4.5663 -7.6962 -1.8916 0.9641
6.8026 -6.5646 -1.9983 0.9621
8.7494 -3.8096 -2.0172 0.9617
9.7071 -2.2952 -2.1085 0.9600
10.7834 1.3524 -2.2973 0.9565
8.5736 2.6826 -1.8989 0.9639
7.5161 3.1113 -1.7195 0.9673
5.8711 3.7710 -1.4750 0.9719
4.5231 4.2088 -1.3060 0.9751
2.9456 4.7650 -1.1841 0.9774
2.0213 5.1322 -1.1659 0.9777
-0.4415 6.2092 -1.3158 0.9749
-1.5342 6.0223 -1.3137 0.9749
-3.6673 10.4106 -2.3331 0.9559
-4.4904 9.8449 -2.2873 0.9567
-6.5044 7.7911 -2.1454 0.9594
-7.0159 7.0233 -2.0984 0.9602
-2.5603 1.7798 -0.6591 0.9873
-8.6996 4.9605 -2.1169 0.9599
-9.1161 1.4830 -1.9523 0.9629
-9.0467 0.6528 -1.9173 0.9636
-8.9156 -0.1534 -1.8849 0.9642
-8.7266 -0.9324 -1.8551 0.9648
-8.4834 -1.6815 -1.8281 0.9653
-8.1893 -2.3985 -1.8038 0.9657
-7.8478 -3.0813 -1.7822 0.9661
-7.4619 -3.7285 -1.7632 0.9665
-5.5314 -5.9319 -1.7144 0.9674
-4.3688 -6.7861 -1.7060 0.9675
-1.0277 -8.1251 -1.7312 0.9671
0.4382 -8.3140 -1.7599 0.9665
1.9499 -8.2859 -1.7993 0.9658
2.7161 -8.1861 -1.8231 0.9654
3.4847 -8.0265 -1.8496 0.9649
4.2523 -7.8053 -1.8788 0.9643
5.0146 -7.5208 -1.9107 0.9637
5.7672 -7.1712 -1.9452 0.9631
7.9135 -5.7189 -2.0638 0.9609
2.3893 -0.8941 -0.5393 0.9896
9.5292 -2.6253 -2.0893 0.9604
10.5546 -0.0119 -2.2310 0.9578
9.0762 2.4785 -1.9888 0.9623
6.9729 3.3259 -1.6330 0.9689
6.1696 3.6505 -1.5153 0.9711
4.7738 4.1262 -1.3338 0.9745
3.2942 4.9165 -1.2510 0.9761
1.7514 5.2390 -1.1677 0.9777
1.2896 5.4250 -1.1787 0.9775
0.4256 2.9321 -0.6263 0.9880
-0.2095 6.0992 -1.2900 0.9754
-0.7921 6.3776 -1.3585 0.9741
-2.1660 6.9520 -1.5392 0.9707
-7.8442 7.0673 -2.2318 0.9578
-8.2581 6.2014 -2.1830 0.9587
-9.1015 2.6879 -2.0060 0.9619
-9.0829 0.9911 -1.9313 0.9633
-8.9767 0.1747 -1.8978 0.9640
-8.5896 -1.3775 -1.8389 0.9651
-7.9936 -2.8051 -1.7907 0.9660
-7.6256 -3.4671 -1.7707 0.9663
-7.2150 -4.0925 -1.7534 0.9667
-6.7647 -4.6798 -1.7387 0.9669
-5.2011 -6.2014 -1.7109 0.9675
-4.6169 -6.6248 -1.7069 0.9675
-3.3674 -7.3390 -1.7068 0.9675
-2.7062 -7.6275 -1.7108 0.9675
-2.0235 -7.8685 -1.7174 0.9673
-1.2016 6.5682 -1.5693 0.9729
-1.6043 5.7927 -1.4127 0.9756
-4.1353 8.5903 -2.2407 0.9616
-4.7947 8.0371 -2.1995 0.9623
-5.9121 6.7904 -2.1160 0.9637
-6.3665 6.1144 -2.0746 0.9644
-6.7509 5.4142 -2.0338 0.9651
-2.5902 1.7220 -0.7310 0.9873
-7.8799 4.2791 -2.1074 0.9638
-8.0746 3.4927 -2.0676 0.9645
-8.2605 1.9322 -1.9938 0.9657
-7.9030 -1.0104 -1.8725 0.9678
-6.7398 -3.5441 -1.7897 0.9692
-6.3453 -4.0971 -1.7751 0.9694
-5.9145 -4.6148 -1.7631 0.9696
-5.4500 -5.0957 -1.7535 0.9698
-4.9541 -5.5387 -1.7465 0.9699
-4.4291 -5.9424 -1.7419 0.9700
-3.8771 -6.3057 -1.7397 0.9700
-1.4427 -7.3305 -1.7559 0.9698
1.9423 -7.5483 -1.8318 0.9685
2.6395 -7.4358 -1.8544 0.9681
3.3361 -7.2679 -1.8795 0.9677
5.3844 -6.4181 -1.9689 0.9662
6.0385 -6.0159 -2.0033 0.9656
6.6698 -5.5531 -2.0397 0.9650
7.2726 -5.0296 -2.0782 0.9643
7.7654 -3.5293 -2.0047 0.9656
9.2066 -0.6421 -2.1690 0.9628
9.4043 0.1844 -2.2106 0.9621
9.5236 1.0406 -2.2516 0.9614
9.5590 1.9185 -2.2914 0.9607
7.6770 3.0356 -1.9402 0.9666
3.6811 4.7544 -1.4132 0.9756
3.0815 4.8118 -1.3429 0.9768
1.2013 5.5636 -1.3377 0.9769
-0.9396 6.4662 -1.5357 0.9735
-1.3581 5.7095 -1.3793 0.9762
-3.8461 8.8010 -2.2573 0.9613
-4.5317 8.2709 -2.2165 0.9620
-5.1523 7.6873 -2.1750 0.9627
-7.4835 5.3808 -2.1662 0.9628
-7.7794 4.6015 -2.1242 0.9635
-8.1570 3.0300 -2.0451 0.9649
-8.2437 2.2499 -2.0083 0.9655
-8.2662 1.4803 -1.9737 0.9661
-8.2277 0.7256 -1.9412 0.9666
-7.2299 -2.7067 -1.8144 0.9688
-6.8908 -3.3070 -1.7964 0.9691
-5.1614 -5.3614 -1.7491 0.9699
-4.6481 -5.7814 -1.7434 0.9700
-4.1069 -6.1615 -1.7403 0.9700
-2.9498 -6.7970 -1.7414 0.9700
-0.3960 -7.5348 -1.7733 0.9695
0.2793 -7.6003 -1.7875 0.9692
2.3530 -7.4887 -1.8448 0.9683
3.0502 -7.3437 -1.8689 0.9679
5.1103 -6.5658 -1.9554 0.9664
6.4136 -5.7505 -2.0245 0.9652
7.6120 -4.6929 -2.1017 0.9639
8.1396 -4.0656 -2.1383 0.9633
2.3415 -0.9190 -0.5912 0.9897
8.8072 -1.7443 -2.1101 0.9638
9.4845 0.6858 -2.2349 0.9617
9.5550 1.5559 -2.2752 0.9610
9.2912 2.3789 -2.2541 0.9614
6.2950 3.5906 -1.7032 0.9707
5.5797 3.8798 -1.5972 0.9725
4.9429 4.1366 -1.5148 0.9739
3.3799 4.8748 -1.3941 0.9759
2.7962 4.9177 -1.3295 0.9770
0.1971 2.7774 -0.6544 0.9886
-0.1131 6.1437 -1.4442 0.9751
-1.1707 5.8697 -1.4067 0.9757
-3.5466 9.0011 -2.2738 0.9610
-4.2577 8.4956 -2.2334 0.9617
-4.9054 7.9329 -2.1921 0.9624
-5.4864 7.3220 -2.1503 0.9631
-5.9983 6.6718 -2.1086 0.9638
-6.4402 5.9909 -2.0672 0.9645
-7.3354 5.6934 -2.1823 0.9626
-7.9198 4.1389 -2.1002 0.9639
-8.2160 2.5693 -2.0232 0.9652
-8.2645 1.7948 -1.9876 0.9658
-8.2507 1.0335 -1.9543 0.9664
-8.0486 -0.4339 -1.8944 0.9674
-7.8668 -1.1334 -1.8680 0.9679
-7.6353 -1.8065 -1.8440 0.9683
-7.0351 -3.0644 -1.8035 0.9690
-6.6722 -3.6453 -1.7869 0.9692
-6.2710 -4.1922 -1.7728 0.9695
-4.8625 -5.6137 -1.7455 0.9699
-4.3325 -6.0103 -1.7413 0.9700
-3.7759 -6.3662 -1.7396 0.9700
-3.1950 -6.6804 -1.7404 0.9700
-2.5918 -6.9515 -1.7436 0.9700
-1.9684 -7.1782 -1.7493 0.9699
-1.3270 -7.3594 -1.7575 0.9697
-0.6699 -7.4936 -1.7682 0.9696
2.7639 -7.4100 -1.8587 0.9680
4.1514 -6.9969 -1.9121 0.9671
4.8337 -6.7035 -1.9423 0.9666
5.5025 -6.3507 -1.9749 0.9661
7.3768 -4.9298 -2.0852 0.9642
7.9381 -4.3354 -2.1257 0.9635
7.8481 -3.4171 -2.0118 0.9654
8.2838 -2.7582 -2.0520 0.9648
8.9902 -1.2939 -2.1347 0.9634
9.2474 -0.4971 -2.1765 0.9627
9.4315 0.3352 -2.2180 0.9620
9.5560 2.0768 -2.2983 0.9606
8.5576 2.6776 -2.1074 0.9638
7.5035 3.1060 -1.9086 0.9672
6.6180 3.4598 -1.7551 0.9698
5.8626 3.7655 -1.6376 0.9718
5.1964 4.0345 -1.5462 0.9733
4.5957 4.2763 -1.4754 0.9745
3.5890 4.7912 -1.4069 0.9757
2.5170 5.0241 -1.3207 0.9772
2.0511 5.2078 -1.3155 0.9773
1.5873 5.3987 -1.3225 0.9771
0.3001 2.7809 -0.6574 0.9886
-1.0520 6.5100 -1.5499 0.9733
-4.6473 8.1704 -2.2091 0.9621
-6.2672 6.2738 -2.0841 0.9642
-6.6678 5.5786 -2.0432 0.9649
-8.0356 3.6754 -2.0767 0.9643
-8.2523 2.1116 -2.0020 0.9656
-8.2146 0.5928 -1.9356 0.9667
-8.1082 -0.1395 -1.9059 0.9672
-7.1725 -2.8162 -1.8110 0.9688
-6.0177 -4.4978 -1.7657 0.9696
-5.5608 -4.9874 -1.7555 0.9698
-5.0720 -5.4393 -1.7479 0.9699
-4.5535 -5.8522 -1.7427 0.9700
-1.5925 -7.2906 -1.7539 0.9698
-0.2763 -7.5501 -1.7756 0.9694
1.0875 -7.6128 -1.8073 0.9689
1.7807 -7.5666 -1.8269 0.9686
2.4774 -7.4668 -1.8490 0.9682
3.1745 -7.3119 -1.8734 0.9678
3.8683 -7.1005 -1.9004 0.9673
4.5548 -6.8312 -1.9296 0.9668
5.2297 -6.5029 -1.9612 0.9663
6.5255 -5.6660 -2.0311 0.9651
7.1354 -5.1566 -2.0691 0.9645
7.7122 -4.5868 -2.1089 0.9638
8.2226 -3.9447 -2.1434 0.9632
8.5163 -2.3463 -2.0761 0.9644
8.8650 -1.6095 -2.1175 0.9637
9.5032 0.8395 -2.2422 0.9616
9.0585 2.4737 -2.2069 0.9622
7.9116 2.9402 -1.9837 0.9659
6.1604 3.6451 -1.6823 0.9710
4.8358 4.1797 -1.5022 0.9741
4.2580 4.4018 -1.4393 0.9751
3.8021 4.7060 -1.4219 0.9754
3.2902 4.9106 -1.3892 0.9760
2.7111 4.9498 -1.3264 0.9771
2.2417 5.1317 -1.3161 0.9773
1.7782 5.3192 -1.3181 0.9772
0.4196 2.8907 -0.6865 0.9881
0.1583 2.8803 -0.6780 0.9882
-0.7961 6.4103 -1.5182 0.9738
-6.0823 6.5523 -2.1012 0.9639
-6.5117 5.8668 -2.0599 0.9646
-7.9575 3.9985 -2.0930 0.9641
-8.2294 2.4303 -2.0167 0.9654
-8.2419 0.8994 -1.9485 0.9665
-8.0199 -0.5605 -1.8895 0.9675
-7.3027 -2.5626 -1.8189 0.9687
-6.6033 -3.7455 -1.7842 0.9693
-6.1955 -4.2860 -1.7706 0.9695
-4.7699 -5.6874 -1.7445 0.9700
-4.2350 -6.0768 -1.7408 0.9700
-3.0889 -6.7319 -1.7408 0.9700
-2.4819 -6.9952 -1.7444 0.9700
-1.8552 -7.2139 -1.7506 0.9699
-1.2108 -7.3868 -1.7592 0.9697
-1.6015 5.7826 -1.5536 0.9755
-3.0531 8.1255 -2.2474 0.9648
-3.7057 7.6977 -2.2120 0.9653
-4.3047 7.2158 -2.1755 0.9659
-4.8465 6.6874 -2.1384 0.9665
-5.3286 6.1202 -2.1011 0.9670
-6.1080 4.8986 -2.0273 0.9682
-2.5887 1.7210 -0.8049 0.9872
-7.3452 3.1772 -2.0721 0.9675
-7.5387 1.7634 -2.0046 0.9685
-7.5472 1.0677 -1.9736 0.9690
-7.2509 -0.9271 -1.8927 0.9702
-6.8126 -2.1495 -1.8496 0.9709
-6.5292 -2.7211 -1.8315 0.9712
-6.2064 -3.2636 -1.8156 0.9714
-5.0267 -4.6999 -1.7818 0.9720
-4.5707 -5.1101 -1.7751 0.9721
-4.0872 -5.4837 -1.7708 0.9721
-3.0458 -6.1163 -1.7691 0.9722
-2.4924 -6.3729 -1.7718 0.9721
-0.7266 -6.8889 -1.7935 0.9718
0.5153 -7.0089 -1.8196 0.9714
1.1481 -6.9979 -1.8361 0.9711
1.7853 -6.9380 -1.8549 0.9708
2.4236 -6.8278 -1.8759 0.9705
3.6906 -6.4522 -1.9246 0.9698
6.0747 -5.0577 -2.0466 0.9679
7.0355 -3.1976 -2.0009 0.9686
7.7645 -1.9670 -2.0739 0.9674
8.0509 -1.2899 -2.1111 0.9669
8.2775 -0.5773 -2.1484 0.9663
8.4389 0.1654 -2.1854 0.9657
6.7539 3.3950 -1.9572 0.9692
5.3025 3.9831 -1.7171 0.9730
