ply
format ascii 1.0
element vertex 1594
property float32 x
property float32 y
property float32 z
property float32 I
end_header
-5.0971 9.3404 -2.2492 0.9574
-6.3955 7.9340 -2.1541 0.9592
-6.9238 7.1704 -2.1069 0.9601
-7.9428 6.8746 -2.2205 0.9580
-8.6505 5.1212 -2.1249 0.9597
-8.8812 4.2363 -2.0799 0.9606
-9.1126 2.4844 -1.9965 0.9621
-9.1207 1.6287 -1.9584 0.9628
-9.0623 0.7928 -1.9229 0.9635
-8.9412 -0.0197 -1.8900 0.9641
-8.5262 -1.5613 -1.8322 0.9652
-7.5248 -3.6300 -1.7660 0.9664
-6.6416 -4.8260 -1.7354 0.9670
-5.0480 -6.3190 -1.7096 0.9675
-4.4548 -6.7318 -1.7063 0.9675
-3.8343 -7.1003 -1.7057 0.9675
-3.1884 -7.4233 -1.7077 0.9675
-2.5194 -7.6995 -1.7124 0.9674
-1.1203 -8.1064 -1.7298 0.9671
-0.3945 -8.2341 -1.7425 0.9669
0.3457 -8.3092 -1.7579 0.9666
1.0978 -8.3300 -1.7760 0.9662
1.8592 -8.2948 -1.7968 0.9658
4.9321 -7.5558 -1.9073 0.9638
5.6879 -7.2125 -1.9416 0.9631
7.1511 -6.3244 -2.0179 0.9617
7.8468 -5.7775 -2.0598 0.9609
9.1154 -4.4681 -2.1458 0.9593
9.9101 -1.8791 -2.1321 0.9596
10.7248 0.8703 -2.2745 0.9570
8.0092 2.9176 -1.8018 0.9658
7.0392 3.3035 -1.6437 0.9687
6.2236 3.6319 -1.5232 0.9710
5.4883 3.8991 -1.4231 0.9729
4.8141 4.1141 -1.3386 0.9744
3.3212 4.9041 -1.2520 0.9761
2.6935 4.8629 -1.1751 0.9775
2.2314 5.0457 -1.1662 0.9777
1.3097 5.4113 -1.1769 0.9775
0.1697 2.8959 -0.6132 0.9882
-0.1880 6.0812 -1.2861 0.9754
-0.7689 6.3574 -1.3536 0.9742
-1.2255 5.7548 -1.2437 0.9762
-2.1384 6.9310 -1.5332 0.9708
-4.1368 10.1005 -2.3072 0.9564
-5.6289 8.8278 -2.2131 0.9581
-6.2574 8.1112 -2.1655 0.9590
-7.8355 7.0802 -2.2323 0.9577
-8.2518 6.2127 -2.1834 0.9587
-9.1004 2.6912 -2.0060 0.9619
-9.1250 1.8314 -1.9673 0.9627
-9.0821 0.9904 -1.9311 0.9633
-8.9756 0.1720 -1.8976 0.9640
-8.8094 -0.6202 -1.8667 0.9645
-8.5872 -1.3835 -1.8386 0.9651
-7.2072 -4.1033 -1.7531 0.9667
-6.7551 -4.6914 -1.7385 0.9669
-6.2658 -5.2399 -1.7266 0.9672
-5.7418 -5.7479 -1.7173 0.9673
-4.5991 -6.6372 -1.7069 0.9675
-3.9848 -7.0164 -1.7056 0.9675
-3.3448 -7.3503 -1.7070 0.9675
-1.9959 -7.8777 -1.7178 0.9673
-1.2912 -8.0683 -1.7272 0.9671
-0.5692 -8.2083 -1.7392 0.9669
0.1678 -8.2962 -1.7540 0.9666
0.9173 -8.3301 -1.7715 0.9663
2.4430 -8.2292 -1.8145 0.9655
4.7500 -7.6281 -1.8995 0.9639
5.5085 -7.3005 -1.9332 0.9633
8.9863 -4.6455 -2.1383 0.9595
2.3295 -0.9512 -0.5319 0.9898
0.1231 -7.5903 -1.7841 0.9693
0.8080 -7.6172 -1.8003 0.9690
1.5006 -7.5923 -1.8189 0.9687
4.2861 -6.9448 -1.9180 0.9670
4.9678 -6.6390 -1.9488 0.9665
5.6351 -6.2733 -1.9819 0.9659
6.9055 -5.3597 -2.0544 0.9647
7.4972 -4.8116 -2.0937 0.9641
8.3713 -2.6099 -2.0609 0.9646
8.7429 -1.8887 -2.1022 0.9639
9.2952 -0.3147 -2.1858 0.9625
9.4624 0.5267 -2.2273 0.9618
9.5481 2.2811 -2.3072 0.9605
8.3024 2.7880 -2.0583 0.9647
7.2893 3.1979 -1.8708 0.9678
6.4328 3.5383 -1.7255 0.9703
5.0467 4.0960 -1.5276 0.9736
4.4568 4.3324 -1.4608 0.9748
3.4608 4.8411 -1.3986 0.9758
2.3965 5.0676 -1.3175 0.9772
-0.0338 6.1058 -1.4350 0.9752
-0.6029 6.3272 -1.4938 0.9742
-1.2255 6.5687 -1.5704 0.9729
-3.4459 9.0626 -2.2787 0.9609
-4.8245 8.0073 -2.1971 0.9623
-2.6019 1.7094 -0.7317 0.9873
-7.8935 4.2286 -2.1046 0.9639
-8.2059 2.6548 -2.0270 0.9652
-8.1872 0.3648 -1.9261 0.9669
-8.0635 -0.3625 -1.8970 0.9674
-7.6591 -1.7436 -1.8461 0.9682
-7.3845 -2.3923 -1.8243 0.9686
-7.0658 -3.0102 -1.8050 0.9689
-5.4029 -5.1409 -1.7528 0.9698
-3.8177 -6.3419 -1.7397 0.9700
-3.2370 -6.6599 -1.7403 0.9700
-2.6337 -6.9347 -1.7434 0.9700
-2.0101 -7.1651 -1.7490 0.9699
-0.7104 -7.4873 -1.7676 0.9696
-0.0390 -7.5763 -1.7806 0.9693
0.6436 -7.6154 -1.7962 0.9691
1.3346 -7.6030 -1.8142 0.9688
2.0312 -7.5377 -1.8347 0.9684
3.4283 -7.2421 -1.8831 0.9676
4.1217 -7.0091 -1.9110 0.9671
4.8062 -6.7174 -1.9412 0.9666
5.4773 -6.3661 -1.9738 0.9661
6.7594 -5.4817 -2.0453 0.9649
7.9229 -4.3539 -2.1247 0.9635
9.2439 -0.5109 -2.1759 0.9627
9.5356 1.1856 -2.2583 0.9613
9.5562 2.0683 -2.2979 0.9606
8.5756 2.6773 -2.1114 0.9638
7.5143 3.1069 -1.9110 0.9671
5.8648 3.7672 -1.6382 0.9718
5.1960 4.0361 -1.5463 0.9733
4.0216 4.4806 -1.4150 0.9756
3.5831 4.7924 -1.4063 0.9757
2.9871 4.8443 -1.3376 0.9769
2.5087 5.0242 -1.3198 0.9772
2.0417 5.2077 -1.3146 0.9773
1.1045 5.6001 -1.3415 0.9768
0.0958 6.0553 -1.4233 0.9754
-1.0710 6.5088 -1.5503 0.9733
-1.4771 5.7240 -1.3894 0.9760
-3.2650 9.1718 -2.2881 0.9608
-8.2616 1.2938 -1.9653 0.9662
-7.9334 -0.9004 -1.8765 0.9677
-7.1458 -2.8655 -1.8094 0.9689
-6.7952 -3.4589 -1.7920 0.9692
-5.9787 -4.5426 -1.7647 0.9696
-4.5025 -5.8899 -1.7424 0.9700
-3.9528 -6.2597 -1.7399 0.9700
-2.7797 -6.8731 -1.7424 0.9700
-2.1608 -7.1142 -1.7474 0.9699
-1.5231 -7.3099 -1.7549 0.9698
-0.8688 -7.4588 -1.7648 0.9696
3.9567 -7.0700 -1.9041 0.9673
5.3185 -6.4555 -1.9658 0.9662
5.9762 -6.0582 -2.0000 0.9656
7.7918 -4.5012 -2.1149 0.9637
7.7248 -3.5839 -2.0014 0.9656
8.9130 -1.4936 -2.1240 0.9635
9.3923 0.1210 -2.2076 0.9621
9.5178 0.9774 -2.2487 0.9614
6.0368 3.6979 -1.6638 0.9713
5.3489 3.9747 -1.5662 0.9730
4.7321 4.2222 -1.4905 0.9743
4.1558 4.4357 -1.4286 0.9753
3.1042 4.8015 -1.3438 0.9768
2.6215 4.9811 -1.3229 0.9771
1.6881 5.3519 -1.3189 0.9772
1.2185 5.5506 -1.3356 0.9769
-0.3254 6.2193 -1.4637 0.9747
-1.3427 5.7041 -1.3772 0.9762
-6.1822 6.4024 -2.0917 0.9641
-6.5970 5.7099 -2.0506 0.9648
-7.7773 4.6043 -2.1241 0.9635
-7.2233 -2.7190 -1.8139 0.9688
-6.5019 -3.8879 -1.7804 0.9694
-6.0838 -4.4207 -1.7674 0.9696
-5.6308 -4.9171 -1.7569 0.9698
-5.1454 -5.3758 -1.7489 0.9699
-4.6299 -5.7955 -1.7433 0.9700
-4.0864 -6.1751 -1.7403 0.9700
-3.5173 -6.5133 -1.7397 0.9700
-2.9245 -6.8089 -1.7416 0.9700
-2.3104 -7.0607 -1.7460 0.9699
-1.6769 -7.2674 -1.7529 0.9698
0.3163 -7.6031 -1.7884 0.9692
1.0037 -7.6154 -1.8053 0.9689
1.6980 -7.5756 -1.8246 0.9686
3.0952 -7.3331 -1.8707 0.9678
3.7913 -7.1276 -1.8974 0.9674
5.8210 -6.1586 -1.9916 0.9658
8.1800 -4.0096 -2.1410 0.9633
2.3588 -0.9049 -0.5938 0.9897
8.8374 -1.6757 -2.1140 0.9637
9.1290 -0.8969 -2.1559 0.9630
9.4953 0.7705 -2.2389 0.9616
9.5573 1.6448 -2.2792 0.9609
9.1671 2.4375 -2.2293 0.9618
5.5059 3.9116 -1.5873 0.9726
4.8740 4.1653 -1.5068 0.9740
4.2930 4.3903 -1.4431 0.9751
3.8321 4.6932 -1.4240 0.9754
2.7352 4.9381 -1.3267 0.9771
2.2639 5.1194 -1.3156 0.9773
1.7992 5.3061 -1.3168 0.9772
1.3316 5.5020 -1.3304 0.9770
0.4323 2.8994 -0.6890 0.9880
-0.7732 6.3933 -1.5135 0.9739
-1.2258 5.7563 -1.3832 0.9761
-2.1352 6.9205 -1.7021 0.9707
-3.6565 8.9278 -2.2674 0.9611
-4.3599 8.4120 -2.2268 0.9618
-4.9990 7.8400 -2.1853 0.9625
-7.9547 4.0051 -2.0931 0.9641
-8.2283 2.4333 -2.0166 0.9654
-8.1577 0.1564 -1.9176 0.9670
-7.5859 -1.9305 -1.8397 0.9683
-6.9677 -3.1796 -1.8000 0.9690
-5.7420 -4.8019 -1.7592 0.9697
-5.2642 -5.2697 -1.7506 0.9699
-4.7556 -5.6989 -1.7444 0.9700
-4.2186 -6.0882 -1.7408 0.9700
-3.6554 -6.4364 -1.7396 0.9700
-3.0681 -6.7423 -1.7409 0.9700
-1.1832 -7.3936 -1.7598 0.9697
0.1535 -7.5926 -1.7848 0.9693
0.8388 -7.6172 -1.8010 0.9690
1.5317 -7.5899 -1.8198 0.9687
3.6256 -7.1819 -1.8908 0.9675
4.3168 -6.9324 -1.9193 0.9670
4.9980 -6.6239 -1.9502 0.9665
5.6645 -6.2555 -1.9834 0.9659
7.5228 -4.7856 -2.0955 0.9640
8.0670 -4.1703 -2.1343 0.9634
-0.5080 -6.9243 -1.7976 0.9717
0.1134 -6.9912 -1.8104 0.9715
0.7436 -7.0110 -1.8255 0.9713
1.3800 -6.9824 -1.8428 0.9710
2.0196 -6.9040 -1.8625 0.9707
2.6592 -6.7747 -1.8844 0.9704
3.2954 -6.5934 -1.9085 0.9700
3.9246 -6.3590 -1.9348 0.9696
5.1454 -5.7281 -1.9936 0.9687
5.7279 -5.3306 -2.0259 0.9682
7.2921 -3.8067 -2.1298 0.9666
7.5646 -2.3584 -2.0516 0.9678
8.4844 0.4723 -2.2002 0.9655
8.5455 1.2484 -2.2361 0.9649
8.5296 2.0378 -2.2706 0.9644
7.2771 3.1925 -2.0575 0.9677
5.0398 4.0905 -1.6806 0.9735
3.9780 4.6272 -1.5799 0.9751
3.4566 4.8352 -1.5389 0.9757
2.9045 4.9437 -1.4846 0.9766
2.4070 5.0900 -1.4578 0.9770
1.4813 5.5057 -1.4762 0.9767
0.9974 5.6955 -1.4971 0.9764
0.2297 2.7305 -0.7095 0.9887
-0.0338 6.0980 -1.5789 0.9751
-1.2238 6.5595 -1.7277 0.9728
-1.6260 5.7871 -1.5564 0.9755
-4.3320 7.1898 -2.1734 0.9659
-5.3521 6.0878 -2.0988 0.9671
-5.7704 5.4863 -2.0616 0.9676
-2.6004 1.7084 -0.8056 0.9872
-7.1689 3.8404 -2.1057 0.9670
-7.3548 3.1299 -2.0696 0.9675
-7.4780 2.4193 -2.0350 0.9680
-7.5406 1.7135 -2.0022 0.9686
-7.5450 1.0170 -1.9712 0.9690
-7.2364 -0.9783 -1.8907 0.9703
-6.7897 -2.1996 -1.8479 0.9709
-6.1752 -3.3113 -1.8142 0.9715
-5.8116 -3.8213 -1.8009 0.9717
-5.4135 -4.2986 -1.7898 0.9718
-4.5235 -5.1494 -1.7746 0.9721
-4.0361 -5.5202 -1.7706 0.9721
-2.9873 -6.1462 -1.7694 0.9722
-1.2618 -6.7779 -1.7851 0.9719
-0.6548 -6.9015 -1.7949 0.9718
1.8667 -6.9273 -1.8576 0.9708
3.7752 -6.4199 -1.9283 0.9697
5.5909 -5.4305 -2.0180 0.9683
6.1548 -4.9914 -2.0518 0.9678
6.6895 -4.4978 -2.0871 0.9672
7.4803 -2.5086 -2.0428 0.9679
8.0914 -1.1788 -2.1171 0.9668
8.5378 1.0615 -2.2276 0.9651
7.5015 3.1016 -2.1017 0.9670
6.6135 3.4558 -1.9320 0.9696
5.8562 3.7617 -1.8022 0.9717
5.1888 4.0306 -1.7012 0.9732
4.5871 4.2723 -1.6230 0.9744
2.5405 5.0880 -1.4725 0.9768
2.0680 5.2747 -1.4669 0.9769
0.2909 2.7529 -0.7167 0.9886
-0.4621 6.2644 -1.6264 0.9744
-1.0695 6.4998 -1.7056 0.9731
-4.7485 6.7889 -2.1451 0.9663
-2.5675 1.7664 -0.8069 0.9872
-7.1150 4.0095 -2.1146 0.9668
-7.4542 2.5887 -2.0431 0.9679
-7.5310 1.8813 -2.0098 0.9684
-7.5491 1.1823 -1.9784 0.9689
-7.4197 -0.1749 -1.9216 0.9698
-7.2775 -0.8260 -1.8964 0.9702
-6.8522 -2.0592 -1.8525 0.9709
-6.5745 -2.6365 -1.8340 0.9712
-5.5116 -4.1877 -1.7922 0.9718
-4.6359 -5.0554 -1.7760 0.9721
-4.1549 -5.4351 -1.7713 0.9721
-3.6479 -5.7770 -1.7690 0.9722
-3.1173 -6.0798 -1.7690 0.9722
-2.5651 -6.3424 -1.7714 0.9721
-1.9935 -6.5634 -1.7760 0.9721
-0.1847 -6.9651 -1.8040 0.9716
0.4417 -7.0076 -1.8180 0.9714
2.3539 -6.8429 -1.8736 0.9705
3.6252 -6.4777 -1.9220 0.9698
4.2491 -6.2152 -1.9494 0.9694
4.8597 -5.8986 -1.9788 0.9689
5.4525 -5.5273 -2.0103 0.9684
6.0226 -5.1012 -2.0435 0.9679
6.5647 -4.6206 -2.0785 0.9674
7.0734 -4.0862 -2.1151 0.9668
6.9998 -3.2476 -1.9979 0.9686
7.3932 -2.6564 -2.0341 0.9681
8.0304 -1.3457 -2.1082 0.9669
8.2624 -0.6339 -2.1456 0.9663
8.5257 0.8755 -2.2191 0.9652
8.5471 1.6596 -2.2543 0.9647
8.4895 2.4526 -2.2880 0.9641
7.7358 3.0066 -2.1489 0.9663
6.8112 3.3759 -1.9683 0.9691
6.0279 3.6925 -1.8303 0.9712
5.3415 3.9692 -1.7230 0.9729
3.1365 4.8515 -1.4958 0.9764
1.2303 5.6043 -1.4856 0.9766
0.1086 2.9192 -0.7564 0.9880
-0.3249 6.2112 -1.6104 0.9746
-0.9191 6.4416 -1.6847 0.9735
-2.7535 8.2914 -2.2621 0.9645
-3.4294 7.8885 -2.2271 0.9651
-4.6215 6.9174 -2.1540 0.9662
-5.5784 5.7770 -2.0793 0.9674
-5.9642 5.1621 -2.0423 0.9679
-6.2876 4.5267 -2.0060 0.9685
-7.5500 1.3482 -1.9857 0.9688
-7.5251 0.6583 -1.9558 0.9693
-5.6078 -4.0748 -1.7948 0.9718
-4.7467 -4.9592 -1.7774 0.9720
-4.2722 -5.3478 -1.7722 0.9721
-3.2461 -6.0111 -1.7688 0.9722
-2.6988 -6.2834 -1.7706 0.9721
-2.1316 -6.5145 -1.7747 0.9721
-1.5467 -6.7031 -1.7812 0.9720
-0.9464 -6.8480 -1.7899 0.9718
0.9236 -7.0079 -1.8302 0.9712
1.5612 -6.9652 -1.8482 0.9709
2.8401 -6.7286 -1.8910 0.9703
5.3128 -5.6210 -2.0026 0.9685
5.8888 -5.2079 -2.0354 0.9680
6.9553 -4.2186 -2.1062 0.9669
7.4114 -3.6329 -2.1371 0.9665
2.3601 -0.9054 -0.6545 0.9896
8.2127 -0.8069 -2.1367 0.9665
8.3957 -0.0712 -2.1739 0.9659
8.5093 0.6905 -2.2105 0.9653
8.5490 1.4712 -2.2460 0.9648
8.5106 2.2629 -2.2801 0.9643
7.0164 3.2928 -2.0068 0.9685
5.4981 3.9061 -1.7462 0.9725
4.8675 4.1597 -1.6578 0.9739
4.2928 4.3902 -1.5898 0.9749
3.3132 4.8922 -1.5298 0.9759
2.7682 4.9978 -1.4792 0.9767
2.2933 5.1858 -1.4681 0.9768
1.3454 5.5591 -1.4809 0.9766
0.4332 2.9053 -0.7606 0.9879
-3.9094 7.5428 -2.1997 0.9655
-5.0144 6.5000 -2.1256 0.9666
-5.4770 5.9201 -2.0882 0.9672
-5.8777 5.3111 -2.0511 0.9678
-6.2160 4.6800 -2.0146 0.9684
-7.2281 3.6393 -2.0953 0.9671
-7.5018 2.2185 -2.0255 0.9682
-7.5476 1.5149 -1.9932 0.9687
-7.5361 0.8218 -1.9628 0.9692
-6.9701 -1.7738 -1.8622 0.9707
-6.0758 -3.4591 -1.8102 0.9715
-5.7021 -3.9600 -1.7975 0.9717
-5.2947 -4.4278 -1.7871 0.9719
-4.3880 -5.2583 -1.7732 0.9721
-3.8932 -5.6184 -1.7698 0.9722
-3.3736 -5.9401 -1.7687 0.9722
-1.6879 -6.6620 -1.7794 0.9720
-1.0910 -6.8175 -1.7876 0.9719
1.4086 -6.9799 -1.8437 0.9710
3.3237 -6.5841 -1.9096 0.9700
3.9525 -6.3473 -1.9360 0.9696
4.5700 -6.0567 -1.9645 0.9691
6.8350 -4.3481 -2.0974 0.9671
2.3272 -0.9503 -0.6509 0.9897
-0.4707 -6.4156 -1.8211 0.9736
0.1050 -6.4743 -1.8331 0.9734
0.6882 -6.4886 -1.8472 0.9732
3.0396 -6.0815 -1.9247 0.9721
4.1807 -5.5871 -1.9754 0.9714
4.7295 -5.2652 -2.0036 0.9710
5.2581 -4.8934 -2.0334 0.9706
5.7619 -4.4721 -2.0648 0.9701
2.3240 -0.9598 -0.7118 0.9896
6.8925 -2.1488 -2.0439 0.9704
7.1731 -1.5496 -2.0775 0.9700
7.4012 -0.9172 -2.1113 0.9695
7.6812 0.4276 -2.1779 0.9685
7.6012 2.5525 -2.2699 0.9672
7.2649 3.1872 -2.2458 0.9676
4.4452 4.3211 -1.7550 0.9746
3.9729 4.6213 -1.7253 0.9750
2.4042 5.0838 -1.5920 0.9769
1.9531 5.3127 -1.6024 0.9767
1.4795 5.4991 -1.6121 0.9766
0.9962 5.6885 -1.6349 0.9763
0.2279 2.7096 -0.7698 0.9888
-0.6012 6.3102 -1.7945 0.9740
-1.2221 6.5502 -1.8863 0.9727
-1.6230 5.7765 -1.6986 0.9754
-2.7852 7.3249 -2.2185 0.9679
-4.4231 6.0445 -2.1204 0.9693
-4.8667 5.5357 -2.0866 0.9698
-5.2555 4.9967 -2.0529 0.9703
-2.5989 1.7074 -0.8803 0.9872
-6.7397 2.8682 -2.0735 0.9700
-6.8621 2.2200 -2.0417 0.9705
-6.9287 1.5744 -2.0115 0.9709
-6.9415 0.9357 -1.9829 0.9713
-6.9027 0.3076 -1.9560 0.9717
-6.8146 -0.3063 -1.9311 0.9720
-5.7177 -3.0659 -1.8367 0.9734
-5.3840 -3.5401 -1.8241 0.9736
-4.6204 -4.3964 -1.8055 0.9738
-4.1952 -4.7756 -1.7995 0.9739
-3.7437 -5.1203 -1.7957 0.9740
-3.2683 -5.4293 -1.7940 0.9740
-2.7711 -5.7013 -1.7945 0.9740
-1.7195 -6.1294 -1.8022 0.9739
-0.6068 -6.3952 -1.8186 0.9736
1.7254 -6.4027 -1.8772 0.9728
3.4793 -5.9167 -1.9431 0.9719
4.6001 -5.3466 -1.9967 0.9711
5.1340 -4.9867 -2.0261 0.9707
6.5681 -3.6094 -2.1216 0.9693
6.8184 -2.2866 -2.0359 0.9705
7.3517 -1.0710 -2.1032 0.9696
7.6610 0.2624 -2.1701 0.9686
7.7114 1.6691 -2.2336 0.9677
6.6031 3.4504 -2.1091 0.9695
3.5743 4.7805 -1.6898 0.9755
3.0164 4.8918 -1.6269 0.9764
2.5374 5.0818 -1.6080 0.9767
2.0655 5.2684 -1.6020 0.9767
1.1129 5.6428 -1.6282 0.9764
0.2890 2.7354 -0.7787 0.9886
-0.4615 6.2561 -1.7759 0.9743
-1.0680 6.4907 -1.8622 0.9730
-1.4730 5.7084 -1.6690 0.9758
-4.3092 6.1608 -2.1284 0.9692
-4.7657 5.6602 -2.0947 0.9697
-5.1677 5.1278 -2.0609 0.9702
-2.5686 1.7672 -0.8826 0.9871
-6.5064 3.6665 -2.1142 0.9694
-6.7020 3.0228 -2.0813 0.9699
-6.8380 2.3748 -2.0492 0.9704
-6.9178 1.7282 -2.0186 0.9708
-6.9433 1.0874 -1.9895 0.9712
-6.9166 0.4564 -1.9623 0.9716
-6.3347 -1.9036 -1.8725 0.9729
-6.0825 -2.4392 -1.8552 0.9731
-5.7924 -2.9484 -1.8400 0.9733
-5.1078 -3.8809 -1.8160 0.9737
-4.7179 -4.3009 -1.8073 0.9738
-4.2992 -4.6882 -1.8007 0.9739
-3.3839 -5.3589 -1.7942 0.9740
-1.8487 -6.0867 -1.8008 0.9739
-1.3023 -6.2502 -1.8074 0.9738
-0.7423 -6.3723 -1.8162 0.9737
-0.1711 -6.4517 -1.8271 0.9735
0.9950 -6.4781 -1.8554 0.9731
1.5844 -6.4229 -1.8728 0.9729
2.1742 -6.3206 -1.8922 0.9726
3.3419 -5.9715 -1.9372 0.9720
3.9127 -5.7232 -1.9626 0.9716
5.5247 -4.6795 -2.0496 0.9703
6.0135 -4.2326 -2.0818 0.9699
6.4699 -3.7375 -2.1152 0.9694
7.6371 0.0984 -2.1622 0.9687
7.5210 2.9232 -2.2843 0.9670
6.0188 3.6869 -1.9982 0.9711
4.7195 4.2109 -1.7906 0.9740
4.1567 4.4367 -1.7211 0.9750
3.6976 4.7313 -1.6999 0.9753
2.1780 5.2240 -1.6023 0.9767
0.3627 2.8489 -0.8130 0.9881
-0.3245 6.2030 -1.7584 0.9745
-1.3400 5.6931 -1.6557 0.9760
-4.6615 5.7829 -2.1027 0.9696
-5.4365 4.7054 -2.0354 0.9706
-5.7404 4.1327 -2.0024 0.9710
-6.4447 3.8154 -2.1202 0.9693
-6.6610 3.1773 -2.0892 0.9698
-6.9420 1.2396 -1.9963 0.9711
-6.8627 -0.0151 -1.9428 0.9719
-6.5910 -1.2069 -1.8969 0.9725
-6.3890 -1.7721 -1.8770 0.9728
-5.8650 -2.8293 -1.8434 0.9733
-5.5476 -3.3173 -1.8298 0.9735
-4.8137 -4.2036 -1.8092 0.9738
-3.9625 -4.9601 -1.7972 0.9740
-3.0111 -5.5761 -1.7940 0.9740
-2.5033 -5.8283 -1.7957 0.9740
-1.9769 -6.0416 -1.7996 0.9739
-1.4341 -6.2149 -1.8056 0.9738
-0.3084 -6.4367 -1.8243 0.9736
0.2697 -6.4829 -1.8369 0.9734
0.8546 -6.4845 -1.8516 0.9732
1.4435 -6.4403 -1.8684 0.9729
2.6214 -6.2107 -1.9084 0.9724
3.2040 -6.0234 -1.9314 0.9720
3.7775 -5.7870 -1.9564 0.9717
4.3381 -5.5009 -1.9832 0.9713
5.4037 -4.7789 -2.0422 0.9705
5.8995 -4.3437 -2.0740 0.9700
6.9771 -1.9825 -2.0534 0.9703
7.4557 -0.7325 -2.1208 0.9693
7.7004 0.6249 -2.1871 0.9684
7.7245 1.3293 -2.2189 0.9679
7.6785 2.0417 -2.2493 0.9675
7.5601 2.7540 -2.2778 0.9671
5.4902 3.9005 -1.9066 0.9724
4.2872 4.3844 -1.7360 0.9748
3.3091 4.8862 -1.6706 0.9758
2.2905 5.1795 -1.6033 0.9767
1.2758 3.7624 -1.1247 0.9836
1.3438 5.5523 -1.6172 0.9765
-0.1901 6.1508 -1.7421 0.9747
-2.9582 7.2228 -2.2096 0.9681
-3.5394 6.8289 -2.1774 0.9685
-4.0725 6.3869 -2.1444 0.9690
-4.9825 5.3856 -2.0770 0.9700
-5.3556 4.8394 -2.0434 0.9704
-5.6729 4.2711 -2.0102 0.9709
-5.9343 3.6866 -1.9777 0.9714
-6.7802 2.6844 -2.0644 0.9701
-6.9377 1.3924 -2.0032 0.9710
-6.9357 0.7563 -1.9751 0.9714
-6.7809 -0.4774 -1.9244 0.9721
-6.6329 -1.0687 -1.9019 0.9725
-5.9355 -2.7086 -1.8470 0.9732
-5.6265 -3.2034 -1.8329 0.9734
-4.9079 -4.1043 -1.8112 0.9738
-4.0697 -4.8769 -1.7982 0.9739
-3.1294 -5.5103 -1.7939 0.9740
-2.6264 -5.7715 -1.7951 0.9740
-2.1042 -5.9942 -1.7984 0.9739
-1.0113 -6.3192 -1.8117 0.9737
0.1310 -6.4759 -1.8337 0.9734
0.7145 -6.4882 -1.8479 0.9732
1.3026 -6.4550 -1.8642 0.9730
1.8927 -6.3754 -1.8827 0.9727
2.4814 -6.2482 -1.9032 0.9724
3.0656 -6.0726 -1.9257 0.9721
4.7536 -5.2496 -2.0049 0.9710
5.2812 -4.8756 -2.0348 0.9706
5.7837 -4.4521 -2.0662 0.9701
6.2563 -3.9799 -2.0991 0.9696
6.6781 -3.4523 -2.1282 0.9692
2.3261 -0.9498 -0.7113 0.9896
2.2781 -5.8038 -1.9177 0.9742
3.3493 -5.4269 -1.9615 0.9737
4.3717 -4.8668 -2.0122 0.9730
4.8548 -4.5181 -2.0398 0.9726
2.3228 -0.9593 -0.7730 0.9895
6.3235 -1.9714 -2.0373 0.9727
6.7718 -0.8392 -2.0988 0.9718
6.9188 -0.2343 -2.1293 0.9714
6.9106 2.3206 -2.2422 0.9700
6.7477 2.9603 -2.2664 0.9696
4.4392 4.3153 -1.9042 0.9744
1.4777 5.4923 -1.7494 0.9765
0.9950 5.6815 -1.7741 0.9762
-0.0337 6.0821 -1.8708 0.9749
-0.6004 6.3016 -1.9470 0.9739
-2.5374 6.6731 -2.1959 0.9706
-4.4572 5.0699 -2.0763 0.9721
-5.1323 4.0720 -2.0151 0.9730
-2.5974 1.7064 -0.9559 0.9871
-6.0302 3.2304 -2.1041 0.9718
-6.2133 2.6442 -2.0769 0.9721
-6.4026 1.4549 -2.0195 0.9729
-6.4213 0.8655 -1.9929 0.9732
-6.3919 0.2848 -1.9680 0.9736
-6.3162 -0.2839 -1.9447 0.9739
-6.1964 -0.8377 -1.9232 0.9742
-6.0345 -1.3738 -1.9036 0.9744
-5.8328 -1.8896 -1.8858 0.9747
-5.5935 -2.3830 -1.8701 0.9749
-5.0105 -3.2946 -1.8444 0.9752
-4.6713 -3.7093 -1.8347 0.9753
-3.9079 -4.4486 -1.8212 0.9755
-2.0999 -5.5291 -1.8191 0.9756
-1.6016 -5.7091 -1.8238 0.9755
-1.0892 -5.8507 -1.8305 0.9754
-0.5648 -5.9529 -1.8392 0.9753
-0.0309 -6.0146 -1.8500 0.9751
0.5100 -6.0347 -1.8628 0.9750
1.0554 -6.0124 -1.8776 0.9748
1.6024 -5.9467 -1.8943 0.9746
3.7458 -5.2354 -1.9800 0.9734
4.2532 -4.9433 -2.0058 0.9731
4.7415 -4.6055 -2.0331 0.9727
5.6438 -3.7947 -2.0918 0.9719
6.0400 -3.3192 -2.1198 0.9716
5.9548 -2.6096 -1.9997 0.9732
6.2575 -2.0985 -2.0300 0.9728
6.5169 -1.5543 -2.0607 0.9724
6.8887 -0.3807 -2.1220 0.9715
6.9929 0.2396 -2.1521 0.9711
7.0210 1.5196 -2.2095 0.9704
6.9397 2.1665 -2.2361 0.9700
6.5793 3.4379 -2.2833 0.9694
5.8389 3.7505 -2.1345 0.9714
4.5748 4.2608 -1.9229 0.9742
3.0127 4.8858 -1.7655 0.9763
2.5343 5.0756 -1.7449 0.9765
0.0955 6.0320 -1.8555 0.9751
-1.0665 6.4816 -2.0204 0.9729
-1.4711 5.7010 -1.8109 0.9757
-2.4016 6.7463 -2.2026 0.9705
-2.9560 6.4208 -2.1741 0.9709
-3.4700 6.0478 -2.1446 0.9712
-2.5698 1.7680 -0.9594 0.9870
-6.3097 2.1913 -2.0544 0.9724
-6.3907 1.5965 -2.0261 0.9728
-6.4213 1.0056 -1.9991 0.9732
-6.4032 0.4225 -1.9738 0.9735
-6.3384 -0.1494 -1.9501 0.9738
-6.2289 -0.7070 -1.9282 0.9741
-6.0769 -1.2475 -1.9081 0.9744
-5.0870 -3.1914 -1.8471 0.9752
-4.7550 -3.6129 -1.8368 0.9753
-4.3935 -4.0052 -1.8286 0.9754
-2.6942 -5.2546 -1.8163 0.9756
-1.2127 -5.8204 -1.8287 0.9754
-0.6910 -5.9321 -1.8369 0.9753
-0.1592 -6.0036 -1.8472 0.9752
0.3803 -6.0338 -1.8595 0.9750
1.4718 -5.9663 -1.8901 0.9746
2.5610 -5.7229 -1.9285 0.9741
3.0968 -5.5335 -1.9504 0.9738
4.1336 -5.0173 -1.9995 0.9732
4.6268 -4.6903 -2.0264 0.9728
5.0978 -4.3179 -2.0548 0.9724
5.9534 -3.4392 -2.1147 0.9716
6.1890 -2.2237 -2.0227 0.9729
6.8554 -0.5260 -2.1148 0.9716
6.0097 3.6813 -2.1677 0.9709
4.7130 4.2052 -1.9428 0.9739
4.1513 4.4309 -1.8675 0.9749
1.1857 3.7590 -1.2123 0.9836
0.3639 2.8583 -0.8862 0.9880
0.1078 2.8979 -0.8919 0.9879
-0.3241 6.1947 -1.9080 0.9744
-0.9165 6.4237 -1.9958 0.9732
-1.3388 5.6876 -1.7972 0.9758
-2.2636 6.8164 -2.2092 0.9704
-3.3511 6.1409 -2.1517 0.9711
-4.2666 5.2929 -2.0910 0.9720
-4.6529 4.8186 -2.0603 0.9724
-4.9894 4.3184 -2.0296 0.9728
-5.5106 3.2623 -1.9697 0.9736
-6.1371 2.9274 -2.0914 0.9719
-6.3761 1.7383 -2.0327 0.9727
-6.3580 -0.0140 -1.9556 0.9737
-6.2590 -0.5753 -1.9332 0.9740
-5.9340 -1.6459 -1.8941 0.9746
-5.7123 -2.1503 -1.8773 0.9748
-5.4542 -2.6311 -1.8626 0.9750
-5.1617 -3.0866 -1.8498 0.9751
-4.4824 -3.9142 -1.8304 0.9754
-4.0998 -4.2834 -1.8237 0.9755
-1.8415 -5.6278 -1.8213 0.9755
-1.3356 -5.7879 -1.8270 0.9754
-0.2870 -5.9902 -1.8446 0.9752
4.0130 -5.0886 -1.9933 0.9732
4.5109 -4.7725 -2.0199 0.9729
4.9876 -4.4109 -2.0479 0.9725
5.8597 -3.5541 -2.1079 0.9717
5.7963 -2.8412 -1.9855 0.9733
2.3649 -0.9072 -0.7791 0.9895
6.6338 -1.2579 -2.0768 0.9721
6.8190 -0.6700 -2.1075 0.9717
7.0241 0.5700 -2.1676 0.9709
7.0370 1.2110 -2.1963 0.9706
6.9867 1.8577 -2.2236 0.9702
6.8711 2.5030 -2.2493 0.9699
6.6894 3.1394 -2.2728 0.9695
6.1859 3.6099 -2.2029 0.9705
4.2816 4.3787 -1.8836 0.9747
3.8176 4.6755 -1.8566 0.9751
2.7615 4.9856 -1.7530 0.9764
2.2877 5.1732 -1.7398 0.9766
1.3422 5.5455 -1.7549 0.9764
0.4664 3.1280 -0.9727 0.9869
0.1670 2.8488 -0.8777 0.9881
-1.2268 5.7609 -1.8117 0.9757
-2.6959 6.5825 -2.1879 0.9707
-3.2298 6.2315 -2.1588 0.9711
-4.1671 5.4017 -2.0984 0.9719
-4.5651 4.9344 -2.0676 0.9723
-4.9136 4.4399 -2.0369 0.9727
-5.2117 3.9238 -2.0065 0.9731
-6.0917 3.0671 -2.0978 0.9719
-6.4129 1.2871 -2.0118 0.9730
-6.3751 0.1222 -1.9612 0.9737
-6.1547 -0.9916 -1.9175 0.9742
-5.9813 -1.5222 -1.8984 0.9745
-5.2346 -2.9802 -1.8527 0.9751
-4.9174 -3.4151 -1.8415 0.9753
-4.5697 -3.8215 -1.8323 0.9754
-3.7912 -4.5432 -1.8200 0.9755
-2.9157 -5.1340 -1.8160 0.9756
-1.9602 -5.5839 -1.8202 0.9755
-1.4577 -5.7532 -1.8255 0.9755
-0.4143 -5.9746 -1.8421 0.9752
0.1218 -6.0246 -1.8534 0.9751
0.6643 -6.0328 -1.8668 0.9749
1.2105 -5.9982 -1.8821 0.9747
1.7575 -5.9200 -1.8994 0.9745
4.3937 -4.8522 -2.0134 0.9730
4.8759 -4.5014 -2.0411 0.9726
5.3335 -4.1055 -2.0702 0.9722
5.7621 -3.6656 -2.1005 0.9718
6.1396 -3.1739 -2.1258 0.9715
0.5974 -5.6325 -1.8828 0.9764
2.1229 -5.4084 -1.9313 0.9758
4.5045 -4.1920 -2.0454 0.9744
4.9251 -3.8226 -2.0724 0.9741
5.3180 -3.4130 -2.1005 0.9737
5.6615 -2.9555 -2.1229 0.9734
2.3216 -0.9588 -0.8349 0.9895
6.3622 -0.2154 -2.1160 0.9735
6.4228 1.5345 -2.1950 0.9725
5.9584 3.2774 -2.2605 0.9717
5.6646 3.8120 -2.2696 0.9716
3.3820 4.7309 -1.9331 0.9758
2.8938 4.9254 -1.8989 0.9762
2.3983 5.0714 -1.8647 0.9766
1.9483 5.2997 -1.8769 0.9765
-0.0336 6.0741 -2.0191 0.9747
-1.2185 6.5313 -2.2085 0.9724
-3.2969 5.4718 -2.1235 0.9734
-4.1069 4.6714 -2.0676 0.9741
-4.4462 4.2273 -2.0393 0.9745
-4.7399 3.7607 -2.0112 0.9748
-2.5964 1.7058 -1.0327 0.9870
-5.1882 2.7793 -1.9564 0.9755
-5.9448 1.3509 -2.0265 0.9746
-5.9679 0.8044 -2.0017 0.9749
-5.8802 -0.2643 -1.9566 0.9755
-5.4416 -1.7628 -1.9013 0.9762
-5.2212 -2.2244 -1.8865 0.9764
-4.6813 -3.0781 -1.8624 0.9767
-3.2618 -4.4612 -1.8370 0.9770
-2.8479 -4.7310 -1.8356 0.9770
-2.4145 -4.9678 -1.8360 0.9770
-1.9637 -5.1705 -1.8385 0.9770
-1.0181 -5.4690 -1.8492 0.9768
-0.5278 -5.5628 -1.8574 0.9767
-0.0289 -5.6183 -1.8676 0.9766
0.9849 -5.6107 -1.8936 0.9763
1.4945 -5.5461 -1.9093 0.9761
2.0022 -5.4399 -1.9269 0.9759
3.4829 -4.8679 -1.9896 0.9751
4.4004 -4.2741 -2.0391 0.9745
5.2269 -3.5144 -2.0937 0.9738
5.5847 -3.0690 -2.1182 0.9735
5.5027 -2.4115 -1.9971 0.9750
5.7758 -1.9370 -2.0250 0.9746
6.4248 0.2201 -2.1369 0.9733
6.0150 3.1431 -2.2559 0.9718
5.1668 4.0135 -2.1748 0.9728
4.0178 4.4764 -1.9995 0.9750
3.0089 4.8796 -1.9056 0.9761
1.1192 3.8315 -1.3268 0.9833
1.1102 5.6288 -1.9071 0.9761
-0.4602 6.2391 -2.0795 0.9740
-1.0650 6.4723 -2.1804 0.9727
-2.2023 6.1864 -2.1828 0.9727
-3.6251 5.1828 -2.1024 0.9737
-4.0192 4.7736 -2.0743 0.9740
-4.3693 4.3356 -2.0461 0.9744
-2.5710 1.7688 -1.0373 0.9869
-5.7192 2.5795 -2.0855 0.9739
-5.8514 2.0321 -2.0590 0.9742
-5.9551 0.3930 -1.9838 0.9752
-5.8023 -0.6586 -1.9411 0.9757
-5.4890 -1.6495 -1.9052 0.9761
-5.2770 -2.1161 -1.8899 0.9763
-5.0307 -2.5607 -1.8764 0.9765
-4.7524 -2.9814 -1.8648 0.9766
-4.4438 -3.3764 -1.8552 0.9767
-4.1071 -3.7442 -1.8474 0.9768
-3.3575 -4.3921 -1.8377 0.9770
-2.5197 -4.9143 -1.8357 0.9770
-1.1337 -5.4411 -1.8475 0.9768
-0.1487 -5.6086 -1.8650 0.9766
2.8825 -5.1505 -1.9619 0.9754
3.8408 -4.6619 -2.0078 0.9749
4.2950 -4.3539 -2.0329 0.9746
5.5057 -3.1805 -2.1135 0.9736
5.4320 -2.5202 -1.9905 0.9751
5.9566 -1.5558 -2.0464 0.9744
6.3074 -0.4839 -2.1028 0.9737
6.4085 0.0825 -2.1304 0.9733
6.4560 0.6630 -2.1573 0.9730
6.4473 1.2519 -2.1832 0.9727
6.3805 1.8433 -2.2076 0.9724
6.2543 2.4308 -2.2305 0.9721
5.8229 3.5669 -2.2698 0.9716
5.3186 3.9522 -2.2026 0.9725
3.6223 4.6349 -1.9554 0.9755
3.1249 4.8335 -1.9132 0.9760
2.6444 5.0245 -1.8874 0.9764
2.1727 5.2112 -1.8768 0.9765
0.3671 2.8831 -0.9661 0.9878
0.1089 2.9268 -0.9736 0.9877
-1.3375 5.6821 -1.9404 0.9757
-3.0789 5.6421 -2.1365 0.9733
-4.6053 3.9860 -2.0246 0.9747
-4.8749 3.5096 -1.9967 0.9750
-5.6759 2.7074 -2.0904 0.9738
-5.9174 1.6133 -2.0388 0.9745
-5.9626 1.0648 -2.0134 0.9748
-5.7012 -1.0440 -1.9266 0.9759
-5.5343 -1.5350 -1.9091 0.9761
-4.8216 -2.8832 -1.8674 0.9766
-4.5201 -3.2845 -1.8573 0.9767
-3.8333 -4.0049 -1.8428 0.9769
-3.4520 -4.3211 -1.8384 0.9770
-3.0482 -4.6062 -1.8360 0.9770
-2.6238 -4.8589 -1.8356 0.9770
-0.7632 -5.5227 -1.8532 0.9768
0.2343 -5.6317 -1.8736 0.9765
1.2512 -5.5821 -1.9016 0.9762
2.7646 -5.1975 -1.9569 0.9755
3.2538 -4.9846 -1.9787 0.9752
4.6263 -4.0914 -2.0529 0.9743
5.0395 -3.7105 -2.0802 0.9740
5.3591 -2.6269 -1.9839 0.9752
2.3686 -0.9086 -0.8433 0.9894
5.9025 -1.6772 -2.0397 0.9745
6.1122 -1.1590 -2.0679 0.9741
6.3891 -0.0542 -2.1239 0.9734
6.2899 2.2912 -2.2252 0.9722
6.1181 2.8712 -2.2465 0.9719
5.4742 3.8891 -2.2321 0.9721
4.2759 4.3728 -2.0330 0.9745
3.7446 4.5860 -1.9680 0.9754
3.2418 4.7869 -1.9217 0.9759
2.2849 5.1668 -1.8779 0.9765
1.2323 3.6341 -1.2756 0.9840
0.4706 3.1565 -1.0609 0.9866
0.1596 2.7229 -0.9067 0.9886
-1.9465 6.3091 -2.1947 0.9726
-3.8364 4.9730 -2.0878 0.9739
-4.5341 4.0971 -2.0313 0.9746
-5.0489 3.1366 -1.9758 0.9753
-5.6298 2.8346 -2.0952 0.9738
-5.9560 1.1954 -2.0193 0.9747
-5.8540 -0.4121 -1.9507 0.9756
-5.5776 -1.4194 -1.9131 0.9760
-4.8892 -2.7836 -1.8701 0.9766
-4.2713 -3.5720 -1.8509 0.9768
-2.7269 -4.8015 -1.8355 0.9770
-2.2884 -5.0288 -1.8365 0.9770
-1.8330 -5.2216 -1.8395 0.9769
-1.3628 -5.3788 -1.8444 0.9769
-0.3871 -5.5825 -1.8601 0.9767
1.1294 -5.5966 -1.8978 0.9762
4.5238 -4.1764 -2.0466 0.9744
5.6756 -2.9341 -2.1238 0.9734
2.3237 -0.9488 -0.8343 0.9895
0.0855 -5.2726 -1.8858 0.9778
1.0362 -5.2428 -1.9111 0.9776
1.5124 -5.1703 -1.9264 0.9774
1.9856 -5.0585 -1.9433 0.9772
2.4527 -4.9072 -1.9618 0.9770
3.3564 -4.4854 -2.0034 0.9765
4.1970 -3.9059 -2.0503 0.9759
4.5848 -3.5585 -2.0755 0.9756
5.2583 -2.7450 -2.1212 0.9751
2.3204 -0.9583 -0.8978 0.9894
5.4109 -1.6869 -2.0268 0.9762
5.9462 0.3310 -2.1297 0.9750
5.9212 1.4146 -2.1771 0.9745
5.2258 3.5166 -2.2525 0.9736
4.9197 3.9929 -2.2659 0.9734
4.4272 4.3036 -2.2079 0.9741
3.2432 4.5367 -1.9943 0.9766
2.8901 4.9192 -2.0403 0.9761
1.9458 5.2931 -2.0167 0.9763
0.9925 5.6671 -2.0574 0.9759
0.2284 2.7149 -0.9743 0.9885
-1.6143 5.7456 -2.1342 0.9750
-3.0471 5.0574 -2.1115 0.9752
-3.4446 4.7073 -2.0859 0.9755
-3.8034 4.3262 -2.0600 0.9758
-4.8240 2.5842 -1.9570 0.9770
-5.4728 1.7706 -2.0570 0.9759
-5.5426 1.2595 -2.0326 0.9761
-5.4952 -0.2470 -1.9671 0.9769
-5.2646 -1.1985 -1.9308 0.9773
-5.0946 -1.6504 -1.9151 0.9775
-4.3886 -2.8857 -1.8783 0.9779
-4.0942 -3.2510 -1.8695 0.9780
-3.7734 -3.5904 -1.8626 0.9781
-3.4282 -3.9025 -1.8576 0.9782
-2.6723 -4.4392 -1.8529 0.9782
-2.2656 -4.6613 -1.8534 0.9782
-1.4048 -5.0074 -1.8598 0.9781
-0.4949 -5.2159 -1.8736 0.9780
0.4462 -5.2792 -1.8946 0.9777
0.9223 -5.2544 -1.9078 0.9776
1.3989 -5.1911 -1.9226 0.9774
1.8730 -5.0888 -1.9391 0.9772
2.3418 -4.9469 -1.9573 0.9770
3.2512 -4.5441 -1.9981 0.9765
3.6853 -4.2833 -2.0206 0.9763
4.1009 -3.9833 -2.0444 0.9760
4.4945 -3.6449 -2.0694 0.9757
4.8623 -3.2693 -2.0953 0.9754
5.1090 -2.2390 -1.9948 0.9766
5.3571 -1.7966 -2.0206 0.9763
5.5671 -1.3277 -2.0467 0.9760
5.7356 -0.8356 -2.0727 0.9757
5.8593 -0.3238 -2.0985 0.9754
5.9354 0.2033 -2.1238 0.9751
5.9614 0.7412 -2.1483 0.9748
5.9353 1.2846 -2.1717 0.9745
5.5333 2.8914 -2.2326 0.9738
5.2913 3.3988 -2.2490 0.9736
4.5622 4.2491 -2.2295 0.9739
3.3380 4.4646 -1.9935 0.9766
3.0051 4.8735 -2.0475 0.9760
2.5280 5.0630 -2.0237 0.9762
2.0579 5.2489 -2.0162 0.9763
1.1111 3.8040 -1.4172 0.9833
1.1088 5.6216 -2.0491 0.9760
-0.4583 6.2138 -2.2281 0.9739
-1.0030 6.0956 -2.2091 0.9741
-1.4672 5.6858 -2.0999 0.9754
-2.5722 1.7696 -1.1165 0.9868
-4.7822 2.6949 -1.9630 0.9770
-5.3132 2.3964 -2.0844 0.9755
-5.5664 0.8717 -2.0148 0.9763
-5.5600 0.3669 -1.9926 0.9766
-5.5125 -0.1299 -1.9718 0.9768
-5.1384 -1.5441 -1.9187 0.9775
-4.7140 -2.3995 -1.8916 0.9778
-4.4548 -2.7947 -1.8806 0.9779
-3.5127 -3.8305 -1.8586 0.9782
-1.9448 -4.8087 -1.8550 0.9782
-1.0633 -5.1034 -1.8642 0.9781
-0.6055 -5.1985 -1.8716 0.9780
0.3328 -5.2795 -1.8917 0.9778
1.7601 -5.1168 -1.9350 0.9773
2.2305 -4.9844 -1.9528 0.9771
2.6932 -4.8124 -1.9721 0.9768
3.1452 -4.6006 -1.9929 0.9766
4.0035 -4.0584 -2.0386 0.9761
4.7770 -3.3623 -2.0890 0.9755
5.0445 -2.3404 -1.9886 0.9767
5.3012 -1.9048 -2.0144 0.9764
5.5206 -1.4419 -2.0405 0.9761
5.8340 -0.4476 -2.0924 0.9755
5.9217 0.0763 -2.1178 0.9752
5.9464 1.1546 -2.1662 0.9746
5.8796 1.6986 -2.1886 0.9743
5.5832 2.7673 -2.2284 0.9739
4.1402 4.4191 -2.1655 0.9746
3.4310 4.3902 -1.9925 0.9766
3.1209 4.8273 -2.0556 0.9759
0.3654 2.8699 -1.0346 0.9878
0.1079 2.9005 -1.0380 0.9877
-0.3232 6.1778 -2.2123 0.9741
-2.8444 5.2123 -2.1234 0.9751
-3.2594 4.8786 -2.0982 0.9754
-3.6370 4.5118 -2.0724 0.9757
-3.9749 4.1164 -2.0463 0.9760
-5.4237 2.0144 -2.0690 0.9757
-5.5616 0.9931 -2.0203 0.9763
-5.5654 0.4869 -1.9978 0.9765
-5.5275 -0.0122 -1.9767 0.9768
-5.4496 -0.5009 -1.9570 0.9770
-5.1801 -1.4368 -1.9224 0.9774
-4.9923 -1.8792 -1.9076 0.9776
-4.5194 -2.7025 -1.8831 0.9779
-4.2382 -3.0796 -1.8735 0.9780
-3.5960 -3.7570 -1.8598 0.9781
-2.8601 -4.3220 -1.8534 0.9782
-2.0464 -4.7645 -1.8543 0.9782
-1.6155 -4.9370 -1.8576 0.9782
-0.2514 -5.2467 -1.8784 0.9779
1.6470 -5.1426 -1.9310 0.9773
2.1187 -5.0196 -1.9484 0.9771
3.0385 -4.6548 -1.9878 0.9767
3.4800 -4.4128 -2.0097 0.9764
4.6901 -3.4533 -2.0828 0.9756
5.0405 -3.0572 -2.1082 0.9753
5.4718 -1.5548 -2.0342 0.9761
5.8060 -0.5705 -2.0863 0.9755
5.9051 -0.0501 -2.1118 0.9752
5.9544 1.0247 -2.1606 0.9747
5.7925 2.1100 -2.2046 0.9742
5.4135 3.1591 -2.2414 0.9737
4.8239 4.1224 -2.2692 0.9734
3.5349 4.3292 -1.9987 0.9765
1.3388 5.5316 -2.0353 0.9761
0.1585 2.7037 -0.9685 0.9886
-0.1894 6.1261 -2.1918 0.9743
-0.7449 6.1587 -2.2185 0.9740
-1.2274 5.7641 -2.1075 0.9753
-1.7946 5.8164 -2.1767 0.9745
-3.1636 4.9615 -2.1043 0.9753
-3.8979 4.2132 -2.0526 0.9759
-4.2045 3.7992 -2.0265 0.9762
-5.5683 0.6072 -2.0031 0.9765
-5.2199 -1.3284 -1.9262 0.9774
-4.5823 -2.6089 -1.8856 0.9778
-4.3079 -2.9918 -1.8756 0.9780
-3.6779 -3.6818 -1.8610 0.9781
-3.3261 -3.9858 -1.8564 0.9782
-1.2783 -5.0455 -1.8613 0.9781
0.1067 -5.2736 -1.8863 0.9778
0.5810 -5.2760 -1.8982 0.9777
2.4734 -4.8995 -1.9627 0.9770
3.3760 -4.4742 -2.0044 0.9765
3.8051 -4.2021 -2.0273 0.9762
4.2149 -3.8912 -2.0514 0.9759
4.6016 -3.5421 -2.0766 0.9756
4.9614 -3.1562 -2.1028 0.9753
4.9097 -2.5381 -1.9765 0.9768
0.0804 -4.9564 -1.8996 0.9790
0.9733 -4.9245 -1.9236 0.9787
1.4199 -4.8539 -1.9381 0.9786
1.8631 -4.7465 -1.9540 0.9784
2.7278 -4.4198 -1.9904 0.9780
3.1433 -4.2007 -2.0106 0.9778
3.5434 -3.9448 -2.0320 0.9775
3.9248 -3.6526 -2.0546 0.9773
4.6176 -2.9635 -2.1026 0.9768
2.3192 -0.9578 -0.9616 0.9893
5.2206 -1.1278 -2.0468 0.9774
5.5261 0.8073 -2.1402 0.9764
5.4858 1.3106 -2.1614 0.9761
5.3961 1.8120 -2.1814 0.9759
5.2565 2.3061 -2.1997 0.9757
4.5444 3.6883 -2.2429 0.9752
3.6546 4.2510 -2.1483 0.9763
2.8864 4.9129 -2.1836 0.9759
2.3922 5.0586 -2.1444 0.9763
1.3811 3.7568 -1.5339 0.9830
0.2374 2.8222 -1.0853 0.9879
-0.5456 5.7263 -2.2044 0.9757
-1.5295 5.4438 -2.1670 0.9761
-2.8294 4.6959 -2.1010 0.9768
-3.2012 4.3746 -2.0773 0.9770
-4.0985 3.2518 -2.0049 0.9778
-4.9929 2.1248 -2.0794 0.9770
-5.1167 1.6554 -2.0609 0.9772
-5.1860 1.1784 -2.0380 0.9775
-5.0649 -0.6847 -1.9586 0.9783
-4.9418 -1.1250 -1.9422 0.9785
-4.5952 -1.9577 -1.9141 0.9788
-3.8506 -3.0576 -1.8843 0.9792
-3.2255 -3.6718 -1.8729 0.9793
-2.5146 -4.1773 -1.8685 0.9793
-2.1319 -4.3863 -1.8689 0.9793
-1.7336 -4.5645 -1.8711 0.9793
-1.3216 -4.7110 -1.8750 0.9793
-0.8982 -4.8248 -1.8807 0.9792
-0.0255 -4.9507 -1.8972 0.9790
2.1964 -4.6397 -1.9672 0.9783
3.0454 -4.2564 -2.0056 0.9778
3.8356 -3.7256 -2.0491 0.9774
4.2005 -3.4064 -2.0725 0.9771
5.5089 0.1887 -2.1123 0.9767
5.4221 1.6927 -2.1767 0.9760
5.1169 2.6738 -2.2124 0.9756
3.2882 4.3979 -2.1043 0.9768
1.1202 3.8349 -1.5310 0.9830
1.1074 5.6144 -2.1930 0.9758
0.2986 2.8256 -1.0888 0.9879
0.0918 5.8023 -2.2238 0.9754
-0.9283 5.6413 -2.1909 0.9758
-1.4160 5.4874 -2.1718 0.9760
-1.8825 5.2883 -2.1511 0.9762
-2.3236 5.0472 -2.1293 0.9765
-3.1155 4.4542 -2.0830 0.9770
-3.4607 4.1102 -2.0591 0.9772
-4.0397 3.3482 -2.0107 0.9778
-4.6148 2.0814 -1.9401 0.9785
-5.2112 0.8161 -2.0214 0.9777
-5.1678 -0.1218 -1.9809 0.9781
-5.0891 -0.5776 -1.9627 0.9783
-4.9743 -1.0212 -1.9460 0.9785
-4.4304 -2.2552 -1.9051 0.9789
-3.9188 -2.9775 -1.8861 0.9791
-3.6238 -3.3035 -1.8791 0.9792
-3.3049 -3.6039 -1.8739 0.9793
-2.9642 -3.8775 -1.8704 0.9793
-1.8300 -4.5248 -1.8704 0.9793
-1.4211 -4.6790 -1.8739 0.9793
-0.5695 -4.8889 -1.8862 0.9791
-0.1311 -4.9429 -1.8949 0.9790
1.2068 -4.8922 -1.9310 0.9786
2.5248 -4.5114 -1.9812 0.9781
2.9466 -4.3100 -2.0008 0.9779
4.7713 -2.7563 -2.1116 0.9767
4.9386 -1.7744 -2.0110 0.9778
5.1384 -1.3421 -2.0352 0.9775
5.3000 -0.8881 -2.0594 0.9772
5.4205 -0.4159 -2.0833 0.9770
5.4973 0.0708 -2.1068 0.9767
5.5281 0.5677 -2.1296 0.9765
5.4452 1.5731 -2.1720 0.9760
5.3294 2.0714 -2.1912 0.9758
4.6862 3.4822 -2.2373 0.9753
3.9786 4.2467 -2.2300 0.9754
3.4016 4.3525 -2.1169 0.9766
2.6377 5.0118 -2.1704 0.9760
1.1586 3.6731 -1.4760 0.9836
-0.3016 5.7649 -2.2122 0.9756
-1.7733 5.3398 -2.1562 0.9762
-2.2208 5.1084 -2.1346 0.9764
-2.6400 4.8379 -2.1120 0.9767
-3.0278 4.5320 -2.0887 0.9769
-3.3815 4.1949 -2.0648 0.9772
-3.9786 3.4436 -2.0165 0.9777
-2.8279 1.6742 -1.2594 0.9860
-4.5822 2.1857 -1.9455 0.9785
-5.1581 1.4063 -2.0488 0.9774
-5.2058 0.9296 -2.0265 0.9776
-5.2130 0.4560 -2.0054 0.9778
-5.0049 -0.9165 -1.9499 0.9784
-4.8638 -1.3490 -1.9343 0.9786
-4.6896 -1.7653 -1.9203 0.9788
-4.4840 -2.1631 -1.9079 0.9789
-4.2487 -2.5406 -1.8971 0.9790
-3.9856 -2.8961 -1.8880 0.9791
-3.6965 -3.2279 -1.8806 0.9792
-3.0475 -3.8147 -1.8711 0.9793
-1.1017 -4.7746 -1.8778 0.9792
-0.6731 -4.8709 -1.8844 0.9792
-0.2363 -4.9332 -1.8927 0.9791
0.2064 -4.9606 -1.9026 0.9790
1.5460 -4.8272 -1.9424 0.9785
2.4224 -4.5540 -1.9767 0.9781
4.7023 -2.8521 -2.1075 0.9767
2.3763 -0.9116 -0.9754 0.9892
5.2651 -0.9984 -2.0536 0.9773
5.3956 -0.5301 -2.0777 0.9770
5.5250 0.4483 -2.1242 0.9765
5.5196 0.9499 -2.1463 0.9763
5.3616 1.9531 -2.1867 0.9759
4.7531 3.3768 -2.2344 0.9753
3.0444 4.4954 -2.0806 0.9770
1.2607 3.7179 -1.5045 0.9833
0.8519 5.7140 -2.2139 0.9756
0.1580 2.6960 -1.0349 0.9885
-0.6891 5.6979 -2.1995 0.9757
-1.6626 5.3888 -2.1612 0.9761
-2.1164 5.1674 -2.1399 0.9764
-2.5427 4.9058 -2.1175 0.9766
-2.9382 4.6080 -2.0943 0.9769
-3.3003 4.2780 -2.0706 0.9771
-3.9153 3.5379 -2.0222 0.9776
-4.1655 3.1361 -1.9981 0.9779
-2.6886 1.6703 -1.2130 0.9865
-4.5472 2.2895 -1.9510 0.9784
-5.0335 1.9929 -2.0746 0.9771
-5.1981 1.0433 -2.0317 0.9775
-5.1312 -0.3613 -1.9712 0.9782
-5.0335 -0.8110 -1.9538 0.9784
-4.9006 -1.2471 -1.9379 0.9786
-4.7342 -1.6675 -1.9235 0.9787
-4.5359 -2.0699 -1.9107 0.9789
-3.1295 -3.7503 -1.8718 0.9793
-2.4078 -4.2396 -1.8684 0.9793
-2.0205 -4.4400 -1.8694 0.9793
-1.2026 -4.7467 -1.8765 0.9792
-0.7763 -4.8510 -1.8826 0.9792
-0.3413 -4.9215 -1.8905 0.9791
0.5459 -4.9577 -1.9114 0.9789
0.9933 -4.9221 -1.9243 0.9787
1.4398 -4.8499 -1.9387 0.9786
3.9414 -3.6387 -2.0556 0.9773
4.2995 -3.3096 -2.0793 0.9770
4.6314 -2.9462 -2.1035 0.9768
2.3223 -0.9482 -0.9613 0.9893
-0.3402 -4.6375 -1.9031 0.9801
0.0758 -4.6714 -1.9121 0.9800
0.4955 -4.6717 -1.9227 0.9799
1.7531 -4.4662 -1.9637 0.9795
2.1631 -4.3278 -1.9802 0.9793
2.5639 -4.1543 -1.9980 0.9791
3.6818 -3.4265 -2.0585 0.9785
4.0160 -3.1170 -2.0806 0.9783
4.3234 -2.7747 -2.1025 0.9780
4.8752 -1.0532 -2.0413 0.9787
5.0042 -0.6202 -2.0638 0.9784
5.1450 0.7516 -2.1281 0.9778
5.0173 1.6848 -2.1661 0.9774
4.4831 3.0169 -2.2116 0.9769
4.2170 3.4226 -2.2228 0.9768
3.9101 3.8010 -2.2318 0.9767
3.5593 4.1401 -2.2346 0.9767
3.1489 4.4048 -2.2161 0.9769
2.7777 4.7278 -2.2442 0.9766
2.3432 4.9550 -2.2433 0.9766
0.9380 5.3561 -2.2255 0.9768
0.2375 2.8231 -1.1595 0.9878
-0.0298 5.3804 -2.2021 0.9770
-0.5069 5.3204 -2.1874 0.9772
-0.9728 5.2142 -2.1709 0.9773
-1.4228 5.0641 -2.1528 0.9775
-2.2587 4.6426 -2.1130 0.9779
-2.9864 4.0812 -2.0698 0.9784
-3.8326 3.0408 -2.0023 0.9791
-4.2170 2.2591 -1.9580 0.9795
-4.3538 1.8528 -1.9365 0.9798
-4.7971 1.5520 -2.0635 0.9784
-1.9491 0.2627 -0.8049 0.9915
-1.9375 -0.0871 -0.7938 0.9917
-1.9490 -0.2635 -0.8049 0.9915
-3.8900 -2.5578 -1.9054 0.9801
-3.6309 -2.8831 -1.8976 0.9802
-3.3478 -3.1855 -1.8913 0.9802
-3.0425 -3.4634 -1.8867 0.9803
-2.3723 -3.9408 -1.8826 0.9803
-1.6353 -4.3058 -1.8851 0.9803
-0.4388 -4.6245 -1.9012 0.9801
-0.0240 -4.6664 -1.9098 0.9800
0.8161 -4.6491 -1.9319 0.9798
1.2366 -4.5890 -1.9452 0.9797
1.6541 -4.4940 -1.9599 0.9795
2.0658 -4.3640 -1.9761 0.9793
3.2386 -3.7642 -2.0323 0.9788
3.9383 -3.1938 -2.0753 0.9783
4.2540 -2.8603 -2.0980 0.9781
4.5280 -2.4883 -2.1146 0.9779
4.6641 -1.5642 -2.0134 0.9790
4.9769 -0.7251 -2.0584 0.9785
5.1336 0.1759 -2.1023 0.9780
5.0422 1.5741 -2.1619 0.9774
4.9205 2.0345 -2.1792 0.9773
4.7529 2.4836 -2.1948 0.9771
4.5404 2.9165 -2.2086 0.9769
3.9870 3.7134 -2.2299 0.9767
3.6510 4.0678 -2.2371 0.9767
1.0533 5.3402 -2.2277 0.9767
0.0853 5.3877 -2.2053 0.9770
-0.3938 5.3390 -2.1910 0.9771
-1.3170 5.1038 -2.1573 0.9775
-1.7521 4.9219 -2.1382 0.9777
-2.5497 4.4439 -2.0969 0.9781
-2.9060 4.1547 -2.0751 0.9783
-3.2305 3.8368 -2.0528 0.9786
-3.5212 3.4941 -2.0303 0.9788
-2.5363 1.7450 -1.2600 0.9868
-4.1789 2.3549 -1.9632 0.9795
-4.7714 1.6571 -2.0672 0.9784
-4.8546 1.2127 -2.0479 0.9786
-2.0103 0.3148 -0.8328 0.9912
-1.9499 0.1287 -0.7998 0.9916
-1.9208 -0.0453 -0.7864 0.9917
-1.9559 -0.2220 -0.8056 0.9915
-3.9481 -2.4769 -1.9075 0.9801
-3.6950 -2.8075 -1.8993 0.9801
-3.4175 -3.1155 -1.8927 0.9802
-3.1173 -3.3994 -1.8877 0.9803
-1.3404 -4.4133 -1.8877 0.9803
-0.9433 -4.5274 -1.8927 0.9802
1.5548 -4.5199 -1.9563 0.9796
1.9682 -4.3983 -1.9721 0.9794
2.3738 -4.2415 -1.9893 0.9792
3.5145 -3.5627 -2.0482 0.9786
3.8592 -3.2688 -2.0699 0.9784
4.4658 -2.5798 -2.1108 0.9780
4.8003 -1.2538 -2.0306 0.9788
5.0560 -0.3879 -2.0754 0.9783
5.1237 0.0660 -2.0972 0.9781
5.1292 0.9960 -2.1385 0.9777
5.0645 1.4631 -2.1575 0.9775
4.9537 1.9253 -2.1752 0.9773
4.7971 2.3776 -2.1912 0.9771
4.5952 2.8148 -2.2055 0.9770
3.3317 4.2631 -2.2144 0.9769
2.9413 4.5494 -2.2172 0.9769
2.5536 4.8520 -2.2440 0.9766
2.1078 5.0556 -2.2418 0.9766
1.1587 3.6733 -1.5764 0.9835
1.1682 5.3214 -2.2298 0.9767
0.3656 2.8711 -1.1846 0.9876
-0.7520 5.2706 -2.1790 0.9773
-1.6501 4.9690 -2.1429 0.9776
-3.1560 3.9151 -2.0581 0.9785
-2.5157 1.8112 -1.2687 0.9867
-2.7189 1.6096 -1.2932 0.9864
-1.9577 0.1713 -0.8043 0.9915
-1.9001 -0.0042 -0.7777 0.9918
-1.9579 -0.1800 -0.8047 0.9915
-2.1812 -0.3994 -0.9075 0.9905
-4.5794 -1.2701 -1.9450 0.9797
-4.4172 -1.6627 -1.9317 0.9798
-4.2251 -2.0382 -1.9199 0.9799
-3.1910 -3.3338 -1.8887 0.9803
-2.8747 -3.5985 -1.8850 0.9803
-2.5390 -3.8367 -1.8830 0.9803
-1.8165 -4.2293 -1.8839 0.9803
-1.4337 -4.3815 -1.8868 0.9803
-1.0391 -4.5030 -1.8914 0.9802
0.6149 -4.6656 -1.9260 0.9799
1.0360 -4.6220 -1.9386 0.9797
2.2777 -4.2821 -1.9851 0.9793
2.6755 -4.0987 -2.0033 0.9791
3.0603 -3.8805 -2.0227 0.9789
3.4291 -3.6280 -2.0432 0.9787
4.1064 -3.0235 -2.0871 0.9782
4.4017 -2.6698 -2.1070 0.9780
4.3446 -2.1296 -1.9803 0.9793
2.3861 -0.9153 -1.0459 0.9890
4.7598 -1.3525 -2.0252 0.9788
4.9157 -0.9321 -2.0477 0.9786
5.1113 -0.0434 -2.0920 0.9782
5.1380 0.8842 -2.1338 0.9777
4.9844 1.8157 -2.1711 0.9773
4.8386 2.2708 -2.1876 0.9772
4.4120 3.1344 -2.2150 0.9769
4.1340 3.5329 -2.2256 0.9768
3.8161 3.9026 -2.2339 0.9767
3.4247 4.1943 -2.2162 0.9769
3.0372 4.4847 -2.2168 0.9769
2.2161 5.0112 -2.2426 0.9766
1.2591 3.7132 -1.6047 0.9832
0.8009 5.3715 -2.2227 0.9768
0.1581 2.6975 -1.1059 0.9884
-1.1022 5.1760 -2.1659 0.9774
-1.5469 5.0138 -2.1475 0.9776
-1.9704 4.8111 -2.1278 0.9778
-2.3690 4.5709 -2.1071 0.9780
-3.0796 3.9920 -2.0635 0.9784
-3.3867 3.6606 -2.0410 0.9787
-3.8960 2.9333 -1.9960 0.9791
-4.7133 1.8661 -2.0748 0.9783
-4.8797 0.9794 -2.0370 0.9787
-1.9567 0.2134 -0.8056 0.9915
-2.0463 -0.3297 -0.8483 0.9911
-4.6135 -1.1741 -1.9484 0.9796
-4.2736 -1.9502 -1.9226 0.9799
-4.0598 -2.3114 -1.9120 0.9800
-1.9060 -4.1885 -1.8834 0.9803
-1.1343 -4.4768 -1.8902 0.9802
-0.3217 -4.6398 -1.9035 0.9801
0.0945 -4.6722 -1.9126 0.9800
0.5143 -4.6710 -1.9233 0.9799
1.7715 -4.4607 -1.9644 0.9795
2.1812 -4.3208 -1.9809 0.9793
3.3427 -3.6914 -2.0382 0.9787
4.2866 -2.2160 -1.9750 0.9794
0.0716 -4.4129 -1.9235 0.9809
0.8654 -4.3784 -1.9451 0.9807
1.2614 -4.3121 -1.9580 0.9806
2.0393 -4.0803 -1.9880 0.9803
4.0596 -2.6054 -2.1023 0.9792
2.3166 -0.9568 -1.0923 0.9891
4.6851 -0.5806 -2.0574 0.9796
4.8067 0.2676 -2.0981 0.9792
4.8073 0.7023 -2.1173 0.9790
4.5563 1.9989 -2.1684 0.9785
4.3878 2.4135 -2.1825 0.9784
4.1781 2.8116 -2.1948 0.9783
3.6418 3.5402 -2.2135 0.9781
3.3202 3.8620 -2.2196 0.9780
2.9670 4.1503 -2.2234 0.9780
2.5861 4.4017 -2.2249 0.9780
2.1817 4.6134 -2.2241 0.9780
1.7583 4.7829 -2.2209 0.9780
0.8738 4.9896 -2.2076 0.9781
0.2377 2.8265 -1.2362 0.9877
-0.9078 4.8656 -2.1571 0.9786
-1.3284 4.7281 -2.1404 0.9788
-1.7308 4.5519 -2.1224 0.9790
-2.1115 4.3399 -2.1034 0.9792
-2.7954 3.8202 -2.0631 0.9796
-3.5950 2.8523 -2.0000 0.9802
-1.5841 0.5125 -0.7256 0.9928
-1.5180 0.2046 -0.6676 0.9933
-1.5291 -0.0687 -0.6671 0.9933
-1.5179 -0.2052 -0.6675 0.9933
-4.0879 -1.7416 -1.9365 0.9808
-3.8948 -2.0885 -1.9261 0.9809
-3.4314 -2.7248 -1.9096 0.9811
-3.1644 -3.0111 -1.9037 0.9811
-2.8762 -3.2742 -1.8993 0.9812
-2.5684 -3.5129 -1.8965 0.9812
-1.9015 -3.9122 -1.8957 0.9812
-1.5460 -4.0707 -1.8977 0.9812
-1.1784 -4.2004 -1.9013 0.9811
-0.8006 -4.3004 -1.9064 0.9811
-0.0227 -4.4084 -1.9213 0.9809
0.3731 -4.4151 -1.9310 0.9809
1.9479 -4.1149 -1.9841 0.9803
2.3270 -3.9572 -2.0007 0.9802
3.3858 -3.2887 -2.0571 0.9796
3.7029 -3.0029 -2.0778 0.9794
3.9963 -2.6870 -2.0988 0.9792
3.9654 -2.1791 -1.9719 0.9805
4.3734 -1.4667 -2.0103 0.9801
4.7497 -0.2625 -2.0732 0.9795
4.7064 1.4693 -2.1487 0.9787
3.9918 3.1008 -2.2029 0.9782
3.4000 3.7880 -2.2183 0.9780
2.6793 4.3452 -2.2248 0.9780
2.2802 4.5666 -2.2245 0.9780
0.9811 4.9744 -2.2097 0.9781
0.0795 5.0221 -2.1890 0.9783
-0.8050 4.8924 -2.1609 0.9786
-2.3847 4.1562 -2.0883 0.9793
-2.7197 3.8883 -2.0680 0.9795
-3.0255 3.5933 -2.0472 0.9797
-3.5421 2.9358 -2.0050 0.9801
-4.0640 1.8330 -1.9430 0.9807
-1.5449 0.3859 -0.6940 0.9931
-1.5236 -0.1729 -0.6683 0.9933
-1.5741 -0.4730 -0.7163 0.9929
-4.1300 -1.6562 -1.9392 0.9808
-3.7301 -2.3401 -1.9191 0.9810
-3.2302 -2.9447 -1.9050 0.9811
-2.9469 -3.2135 -1.9002 0.9812
-2.3222 -3.6775 -1.8955 0.9812
-1.9844 -3.8702 -1.8955 0.9812
-1.2672 -4.1721 -1.9003 0.9812
-0.8916 -4.2793 -1.9050 0.9811
-0.5074 -4.3562 -1.9113 0.9810
-0.1167 -4.4021 -1.9192 0.9810
0.2784 -4.4164 -1.9286 0.9809
1.4669 -4.2644 -1.9654 0.9805
1.8561 -4.1477 -1.9804 0.9804
2.2374 -3.9979 -1.9966 0.9802
2.6082 -3.8151 -2.0141 0.9800
2.9657 -3.5998 -2.0327 0.9799
3.9291 -2.7655 -2.0940 0.9793
4.1923 -2.4218 -2.1100 0.9791
4.1302 -1.9162 -1.9843 0.9803
4.3302 -1.5559 -2.0053 0.9801
4.6334 -0.7764 -2.0475 0.9797
4.7920 0.0617 -2.0886 0.9793
4.7911 0.9303 -2.1270 0.9789
4.2833 2.6238 -2.1892 0.9783
3.7834 3.3757 -2.2098 0.9781
3.4779 3.7122 -2.2170 0.9780
2.3775 4.5174 -2.2248 0.9780
1.0881 4.9566 -2.2116 0.9781
-0.7015 4.9169 -2.1646 0.9786
-1.1295 4.7987 -2.1485 0.9787
-1.5411 4.6407 -2.1311 0.9789
-1.9326 4.4455 -2.1126 0.9791
-2.9552 3.6661 -2.0522 0.9797
-3.2374 3.3527 -2.0312 0.9799
-3.4873 3.0184 -2.0101 0.9801
-2.4826 1.7873 -1.3332 0.9867
-4.0339 1.9241 -1.9478 0.9807
-1.5981 0.5935 -0.7430 0.9926
-1.5010 0.2680 -0.6645 0.9934
-1.5280 0.1337 -0.6685 0.9933
-1.5275 -0.1404 -0.6685 0.9933
-1.5619 -0.4332 -0.7064 0.9930
-3.7834 -2.2624 -1.9212 0.9809
-2.7178 -3.4020 -1.8977 0.9812
-2.0664 -3.8267 -1.8954 0.9812
-0.5999 -4.3406 -1.9097 0.9811
0.1837 -4.4159 -1.9262 0.9809
0.9779 -4.3629 -1.9486 0.9807
1.7637 -4.1786 -1.9767 0.9804
3.2271 -3.4143 -2.0475 0.9797
4.1327 -2.5066 -2.1065 0.9791
4.0780 -1.9989 -1.9793 0.9804
4.4615 -1.2677 -2.0214 0.9800
4.7812 -0.0406 -2.0838 0.9794
4.8110 0.3904 -2.1036 0.9792
4.7467 1.2621 -2.1406 0.9788
4.6510 1.6943 -2.1573 0.9786
4.3325 2.5283 -2.1862 0.9784
3.5540 3.6346 -2.2155 0.9781
3.2231 3.9473 -2.2209 0.9780
2.8616 4.2255 -2.2241 0.9780
1.1947 4.9362 -2.2134 0.9781
0.1651 2.8169 -1.2297 0.9878
-0.5973 4.9390 -2.1682 0.9785
-1.0287 4.8306 -2.1525 0.9787
-2.2150 4.2736 -2.0978 0.9792
-2.8832 3.7374 -2.0572 0.9796
-3.4306 3.0999 -2.0151 0.9800
-3.6552 2.7520 -1.9940 0.9802
-2.5611 1.5911 -1.3140 0.9869
-1.5717 0.4648 -0.7143 0.9929
-1.5076 0.3026 -0.6701 0.9933
-1.5261 0.0293 -0.6652 0.9934
-1.5087 -0.2431 -0.6660 0.9934
-1.5936 -0.5613 -0.7363 0.9927
-3.8352 -2.1835 -1.9234 0.9809
-2.7909 -3.3444 -1.8984 0.9812
-2.4779 -3.5760 -1.8960 0.9812
-1.8020 -3.9600 -1.8961 0.9812
-1.0722 -4.2318 -1.9026 0.9811
-0.6919 -4.3233 -1.9081 0.9811
-0.3040 -4.3841 -1.9153 0.9810
0.4857 -4.4111 -1.9340 0.9808
0.8831 -4.3761 -1.9456 0.9807
2.4326 -3.9065 -2.0056 0.9801
2.7968 -3.7067 -2.0237 0.9799
3.4779 -3.2108 -2.0629 0.9796
3.7888 -2.9165 -2.0838 0.9794
2.3219 -0.9481 -1.0930 0.9891
-0.3044 -4.1490 -1.9257 0.9818
0.4428 -4.1750 -1.9434 0.9817
1.1929 -4.0779 -1.9667 0.9814
1.9270 -3.8554 -1.9951 0.9812
2.6250 -3.5081 -2.0281 0.9809
2.9540 -3.2885 -2.0462 0.9807
3.2659 -3.0394 -2.0651 0.9805
3.5579 -2.7615 -2.0848 0.9803
3.8219 -2.4528 -2.1021 0.9802
4.1504 -1.2939 -2.0123 0.9810
4.2912 -0.9270 -2.0322 0.9808
4.3841 1.4722 -2.1407 0.9798
4.2640 1.8706 -2.1553 0.9797
2.0384 4.3103 -2.2070 0.9792
1.3965 3.7988 -1.8735 0.9823
1.2342 4.5874 -2.1990 0.9793
0.8168 4.6641 -2.1918 0.9793
0.2388 2.8392 -1.3189 0.9875
-0.0260 4.6916 -2.1717 0.9795
-0.4424 4.6432 -2.1590 0.9797
-1.6220 4.2657 -2.1125 0.9801
-1.9798 4.0693 -2.0947 0.9803
-2.3148 3.8418 -2.0762 0.9804
-2.6243 3.5863 -2.0570 0.9806
-2.9063 3.3058 -2.0375 0.9808
-3.1590 3.0035 -2.0177 0.9810
-3.3812 2.6827 -1.9979 0.9812
-2.5240 1.6582 -1.3979 0.9868
-3.7301 1.9982 -1.9588 0.9815
-1.3238 0.5633 -0.6659 0.9937
-1.3308 0.4306 -0.6475 0.9939
-1.3381 -0.0602 -0.6200 0.9941
-1.3294 -0.1797 -0.6210 0.9941
-1.3309 -0.4312 -0.6476 0.9939
-3.6865 -1.9768 -1.9363 0.9817
-3.4797 -2.2880 -1.9277 0.9818
-2.4331 -3.3277 -1.9082 0.9820
-2.1248 -3.5297 -1.9070 0.9820
-1.4645 -3.8560 -1.9093 0.9820
-1.1161 -3.9785 -1.9127 0.9820
-0.7582 -4.0727 -1.9176 0.9819
0.3531 -4.1784 -1.9410 0.9817
0.7290 -4.1527 -1.9516 0.9816
1.1038 -4.0960 -1.9636 0.9815
1.8408 -3.8886 -1.9915 0.9812
2.1980 -3.7378 -2.0072 0.9811
2.8769 -3.3437 -2.0418 0.9807
3.1931 -3.1015 -2.0605 0.9806
3.4902 -2.8304 -2.0800 0.9804
4.1121 -1.3790 -2.0076 0.9811
4.5097 0.5607 -2.1035 0.9802
4.4781 0.9692 -2.1208 0.9800
4.4070 1.3758 -2.1370 0.9799
4.2963 1.7764 -2.1520 0.9797
4.1462 2.1666 -2.1654 0.9796
3.9576 2.5421 -2.1773 0.9795
3.4709 3.2327 -2.1956 0.9793
3.1772 3.5398 -2.2017 0.9793
2.5033 4.0597 -2.2077 0.9792
1.3328 4.5629 -2.2004 0.9793
0.9171 4.6496 -2.1937 0.9793
0.3155 2.9857 -1.3897 0.9869
