ply
format ascii 1.0
element vertex 1588
property float32 x
property float32 y
property float32 z
property float32 I
end_header
7.3445 -10.6501 -1.8330 0.9491
11.8752 -8.2887 -2.0519 0.9432
12.9711 -7.4258 -2.1177 0.9414
13.0224 -5.9804 -2.0304 0.9438
14.8466 -3.8173 -2.1720 0.9399
15.6566 -2.5626 -2.2479 0.9379
15.0621 -1.0986 -2.1398 0.9408
11.9994 0.1994 -1.7004 0.9527
11.1263 1.1843 -1.5854 0.9558
9.5103 1.8830 -1.3737 0.9616
6.6411 3.3214 -1.0521 0.9704
5.2957 3.9643 -0.9373 0.9736
3.7387 4.8180 -0.8641 0.9757
3.1858 4.9649 -0.8358 0.9764
2.7090 5.1900 -0.8295 0.9766
1.8102 5.8064 -0.8618 0.9757
1.2717 5.8861 -0.8532 0.9760
0.7573 6.1079 -0.8720 0.9754
0.2160 6.3615 -0.9019 0.9746
-0.3796 6.8328 -0.9696 0.9727
-1.0121 6.9354 -0.9931 0.9721
-6.2413 18.5986 -2.7797 0.9238
-2.3981 2.0632 -0.4482 0.9873
-12.6039 9.0179 -2.1959 0.9393
-13.1337 6.2183 -2.0589 0.9430
-13.2177 3.5635 -1.9397 0.9462
-12.9266 1.0947 -1.8381 0.9489
-12.6600 -0.0625 -1.7938 0.9501
-11.9181 -2.2155 -1.7176 0.9522
-11.4543 -3.2098 -1.6855 0.9531
-10.9351 -4.1491 -1.6572 0.9538
-10.3648 -5.0333 -1.6326 0.9545
-9.7471 -5.8626 -1.6116 0.9551
-9.0853 -6.6371 -1.5942 0.9556
-7.6403 -8.0221 -1.5697 0.9562
-6.8616 -8.6325 -1.5625 0.9564
-5.1668 -9.6232 -1.5476 0.9568
0.5022 -11.4535 -1.6244 0.9547
2.6099 -11.5265 -1.6745 0.9534
3.6954 -11.4535 -1.7052 0.9525
4.7989 -11.3025 -1.7398 0.9516
5.9176 -11.0691 -1.7784 0.9506
7.0479 -10.7487 -1.8212 0.9494
10.4610 -9.2148 -1.9753 0.9452
11.5848 -8.4950 -2.0355 0.9436
12.7689 -6.2291 -2.0130 0.9442
2.3561 -0.8988 -0.3573 0.9899
14.6224 -4.1259 -2.1527 0.9405
15.4531 -2.9013 -2.2278 0.9385
15.5407 -1.4990 -2.2122 0.9389
14.2024 -0.0957 -2.0124 0.9442
11.5928 0.9608 -1.6482 0.9541
9.9187 1.7242 -1.4265 0.9601
6.8069 3.2078 -1.0662 0.9701
6.2447 3.6574 -1.0254 0.9712
5.4553 3.8884 -0.9492 0.9733
4.3943 4.5074 -0.8919 0.9749
3.8712 4.7553 -0.8688 0.9755
3.2542 4.8200 -0.8240 0.9768
1.4392 5.9808 -0.8716 0.9755
0.3609 6.2936 -0.8932 0.9749
-0.2172 6.7570 -0.9579 0.9731
-0.8560 7.0070 -1.0002 0.9719
-7.2813 17.7214 -2.7146 0.9255
-8.5476 16.4476 -2.6264 0.9279
-9.6500 15.0986 -2.5389 0.9302
-10.5905 13.6987 -2.4534 0.9324
-12.4979 9.3909 -2.2150 0.9388
-13.0914 6.5767 -2.0758 0.9425
-13.2295 3.9002 -1.9542 0.9458
-12.9836 1.4056 -1.8504 0.9486
-12.4166 -0.8833 -1.7638 0.9510
-12.0295 -1.9468 -1.7266 0.9520
-11.5809 -2.9555 -1.6935 0.9529
-11.0757 -3.9091 -1.6642 0.9537
-10.5184 -4.8077 -1.6386 0.9544
-9.2622 -6.4402 -1.5984 0.9554
-7.8376 -7.8537 -1.5721 0.9562
-2.7234 -10.7638 -1.5732 0.9561
-0.7782 -11.2670 -1.6002 0.9554
3.4101 -11.4800 -1.6968 0.9528
4.5091 -11.3497 -1.7304 0.9519
11.2930 -8.6936 -2.0193 0.9441
12.4023 -7.8909 -2.0828 0.9423
13.4482 -6.9538 -2.1451 0.9407
14.3934 -4.4266 -2.1337 0.9410
14.9406 -0.4496 -2.1179 0.9414
11.7660 0.6990 -1.6701 0.9535
10.3578 1.5524 -1.4840 0.9586
-3.2254 -9.3173 -1.6243 0.9608
-2.3921 -9.6150 -1.6322 0.9606
1.1694 -10.2252 -1.6955 0.9591
2.1072 -10.2219 -1.7194 0.9586
4.0230 -10.0098 -1.7772 0.9572
4.9949 -9.7949 -1.8113 0.9564
5.9711 -9.5029 -1.8489 0.9555
6.9471 -9.1304 -1.8900 0.9546
7.9177 -8.6739 -1.9347 0.9535
8.8768 -8.1301 -1.9830 0.9524
10.7734 -5.5165 -1.9939 0.9521
2.3197 -0.9368 -0.4121 0.9899
12.2629 -3.7181 -2.1110 0.9494
13.4885 -1.5654 -2.2370 0.9464
11.7813 0.7470 -1.9447 0.9533
10.2700 1.5810 -1.7118 0.9588
7.7995 2.6854 -1.3589 0.9671
6.8274 3.0573 -1.2324 0.9701
4.9539 4.0828 -1.0576 0.9743
4.3505 4.2928 -1.0069 0.9755
3.9775 4.6970 -1.0140 0.9754
3.3913 4.8191 -0.9708 0.9764
2.9325 5.0770 -0.9659 0.9765
2.4590 5.3005 -0.9626 0.9766
1.5357 5.8791 -1.0010 0.9757
0.4778 6.2202 -1.0277 0.9750
-5.3587 13.7967 -2.4383 0.9418
-6.8871 13.9043 -2.5562 0.9390
-8.7402 11.7697 -2.4151 0.9423
-9.4778 10.6296 -2.3461 0.9439
-10.0923 9.4623 -2.2791 0.9455
-10.5879 8.2814 -2.2144 0.9470
-10.9699 7.0988 -2.1526 0.9484
-11.2445 5.9244 -2.0938 0.9498
-11.4180 4.7668 -2.0383 0.9511
-11.2308 0.4245 -1.8515 0.9555
-10.9945 -0.5683 -1.8136 0.9564
-10.3329 -2.4248 -1.7485 0.9579
-9.9170 -3.2855 -1.7210 0.9585
-9.4497 -4.0998 -1.6969 0.9591
-8.9348 -4.8669 -1.6761 0.9596
-8.3757 -5.5862 -1.6585 0.9600
-7.7752 -6.2571 -1.6441 0.9603
-6.4608 -7.4514 -1.6247 0.9608
-5.7515 -7.9736 -1.6196 0.9609
-5.0102 -8.4448 -1.6176 0.9610
-4.2386 -8.8641 -1.6186 0.9610
-0.8855 -9.9979 -1.6535 0.9601
0.0111 -10.1374 -1.6700 0.9597
0.9272 -10.2153 -1.6898 0.9593
1.8608 -10.2292 -1.7128 0.9587
2.8095 -10.1763 -1.7391 0.9581
4.7405 -9.8583 -1.8021 0.9566
5.7160 -9.5868 -1.8387 0.9558
9.5740 -7.6702 -2.0210 0.9515
11.3692 -6.1608 -2.1303 0.9489
2.3467 -1.0120 -0.4210 0.9897
12.0813 -3.9733 -2.0951 0.9497
12.7518 -2.9630 -2.1567 0.9483
13.3471 -1.8657 -2.2202 0.9468
13.8538 -0.6857 -2.2851 0.9453
11.6550 0.4661 -1.9216 0.9538
8.0873 2.5749 -1.3982 0.9662
6.2551 3.3131 -1.1661 0.9717
5.6192 3.6537 -1.1042 0.9732
5.0888 3.9982 -1.0661 0.9741
4.4889 4.2271 -1.0158 0.9753
4.1128 4.6329 -1.0206 0.9752
3.4789 4.7062 -0.9641 0.9766
3.0570 5.0182 -0.9680 0.9765
2.1091 5.4653 -0.9651 0.9765
1.6725 5.8411 -1.0009 0.9757
0.0673 6.3571 -1.0473 0.9746
-1.0137 5.9674 -0.9971 0.9758
-5.0687 14.0107 -2.4545 0.9414
-6.6080 14.1630 -2.5747 0.9386
-7.6306 13.1444 -2.5038 0.9402
-9.9435 9.7689 -2.2964 0.9451
-10.8808 7.4072 -2.1684 0.9480
-11.1828 6.2298 -2.1088 0.9494
-11.4983 2.8137 -1.9501 0.9531
-11.4283 1.7338 -1.9042 0.9542
-11.2812 0.6905 -1.8619 0.9552
-10.4326 -2.1925 -1.7562 0.9577
-10.0307 -3.0652 -1.7279 0.9584
-9.5764 -3.8917 -1.7029 0.9590
-8.5258 -5.4030 -1.6628 0.9599
-5.2067 -8.3267 -1.6178 0.9610
-4.4429 -8.7597 -1.6181 0.9610
-1.1161 -9.9516 -1.6497 0.9602
2.5604 -10.1967 -1.7319 0.9583
3.5185 -10.0926 -1.7608 0.9576
4.4865 -9.9165 -1.7931 0.9568
6.4377 -9.3352 -1.8681 0.9551
11.1557 -6.3865 -2.1176 0.9492
12.5834 -3.2354 -2.1404 0.9487
13.1997 -2.1604 -2.2034 0.9472
13.7308 -1.0015 -2.2680 0.9457
11.9682 0.1989 -1.9719 0.9526
11.1017 1.1817 -1.8392 0.9557
9.6025 1.9013 -1.6126 0.9611
8.3932 2.4580 -1.4408 0.9652
5.7619 3.5578 -1.1156 0.9729
5.2250 3.9114 -1.0752 0.9739
3.1821 4.9591 -0.9707 0.9764
2.7059 5.1840 -0.9633 0.9766
2.2329 5.4070 -0.9637 0.9766
1.8081 5.7996 -1.0008 0.9757
1.2723 5.8885 -0.9925 0.9759
0.7564 6.1004 -1.0127 0.9754
-0.3606 6.4912 -1.0710 0.9740
-4.5556 13.5754 -2.3590 0.9436
-6.3205 14.4159 -2.5931 0.9382
-8.3051 12.3492 -2.4517 0.9415
-10.7842 7.7160 -2.1845 0.9477
-11.4671 4.2218 -2.0130 0.9517
-11.4543 2.0124 -1.9159 0.9539
-11.3267 0.9592 -1.8726 0.9550
-11.1263 -0.0550 -1.8330 0.9559
-10.5285 -1.9571 -1.7642 0.9575
-10.1409 -2.8417 -1.7349 0.9582
-8.6730 -5.2166 -1.6673 0.9598
-7.4746 -6.5604 -1.6384 0.9605
-6.1261 -7.7072 -1.6219 0.9609
-5.4012 -8.2051 -1.6183 0.9610
-3.8599 -9.0458 -1.6202 0.9609
-3.0470 -9.3864 -1.6257 0.9608
-2.2082 -9.6721 -1.6344 0.9606
0.4464 -10.1824 -1.6791 0.9595
2.3123 -10.2124 -1.7250 0.9584
4.2330 -9.9696 -1.7843 0.9570
5.2061 -9.7383 -1.8191 0.9562
10.9446 -5.3391 -2.0061 0.9518
8.7070 2.3307 -1.4849 0.9641
6.6420 3.1301 -1.2096 0.9707
5.3628 3.8225 -1.0849 0.9737
4.8430 4.1516 -1.0509 0.9745
4.3889 4.5018 -1.0357 0.9748
3.2504 4.8144 -0.9569 0.9767
2.8066 5.0840 -0.9567 0.9767
1.9373 5.7389 -0.9978 0.9757
1.4270 5.9302 -1.0048 0.9756
0.8921 6.0369 -1.0053 0.9756
-0.2072 6.4441 -1.0621 0.9742
-1.4925 6.9684 -1.1740 0.9715
-4.2183 13.6164 -2.3483 0.9439
-5.5909 13.6073 -2.4235 0.9421
-7.1122 13.6857 -2.5408 0.9394
-8.0747 12.6338 -2.4701 0.9410
-10.6801 8.0250 -2.2008 0.9473
-11.0383 6.8433 -2.1396 0.9487
-11.2904 5.6720 -2.0815 0.9501
-11.4429 4.5190 -2.0268 0.9513
-11.4749 2.2934 -1.9278 0.9537
-11.3673 1.2306 -1.8836 0.9547
-11.1854 0.2059 -1.8430 0.9557
-10.2474 -2.6151 -1.7422 0.9580
-9.3421 -4.2700 -1.6921 0.9592
-8.8174 -5.0268 -1.6720 0.9597
-8.2490 -5.7357 -1.6552 0.9601
-7.6400 -6.3960 -1.6414 0.9604
-6.9929 -7.0072 -1.6308 0.9607
-6.3100 -7.5688 -1.6234 0.9608
-5.5935 -8.0800 -1.6189 0.9609
-3.2619 -9.3028 -1.6240 0.9608
-2.4297 -9.6029 -1.6318 0.9606
-1.5728 -9.8470 -1.6427 0.9604
1.1281 -10.2238 -1.6945 0.9592
2.0651 -10.2235 -1.7182 0.9586
4.9515 -9.8061 -1.8097 0.9564
7.8748 -8.6961 -1.9327 0.9536
10.6912 -6.8022 -2.0875 0.9499
2.3170 -0.9464 -0.4123 0.9899
11.3718 -2.4112 -1.9151 0.9540
-1.3828 -8.8844 -1.6900 0.9641
0.2236 -9.1440 -1.7192 0.9635
1.0508 -9.1880 -1.7382 0.9631
1.8907 -9.1719 -1.7602 0.9626
6.1706 -8.1098 -1.9154 0.9594
7.0142 -7.6841 -1.9555 0.9585
8.6460 -6.6013 -2.0446 0.9567
9.4202 -5.9410 -2.0934 0.9557
10.6499 -3.2290 -2.0917 0.9557
11.1730 -2.3226 -2.1450 0.9546
8.9382 2.2079 -1.7305 0.9632
7.8835 2.7144 -1.5672 0.9666
6.9746 3.1232 -1.4364 0.9694
6.1464 3.4417 -1.3241 0.9717
5.4396 3.7204 -1.2387 0.9735
4.8329 3.9831 -1.1771 0.9748
3.9727 4.6914 -1.1555 0.9753
1.9431 5.4079 -1.0801 0.9769
0.4886 2.9149 -0.5555 0.9880
-0.6805 6.6361 -1.2539 0.9732
-3.5711 12.3700 -2.4200 0.9489
-5.4617 11.0267 -2.3129 0.9512
-6.2719 10.2454 -2.2579 0.9523
-7.5295 10.1393 -2.3738 0.9499
-8.7626 8.2156 -2.2577 0.9523
-9.5948 6.2089 -2.1481 0.9546
-10.1540 3.2086 -2.0016 0.9576
-10.1750 2.2394 -1.9583 0.9585
-10.1215 1.2945 -1.9179 0.9593
-9.9982 0.3780 -1.8806 0.9601
-8.4904 -3.6836 -1.7396 0.9630
-8.0378 -4.3783 -1.7204 0.9634
-7.0080 -5.6397 -1.6908 0.9641
-5.1916 -7.1974 -1.6680 0.9645
-3.8263 -8.0017 -1.6671 0.9645
-3.1034 -8.3304 -1.6709 0.9645
-1.5871 -8.8342 -1.6871 0.9641
1.6703 -9.1820 -1.7542 0.9627
2.5179 -9.1202 -1.7784 0.9622
4.2327 -8.8021 -1.8358 0.9610
5.9484 -8.2087 -1.9054 0.9596
6.7952 -7.8025 -1.9448 0.9588
8.4385 -6.7605 -2.0323 0.9569
9.2214 -6.1212 -2.0804 0.9560
10.5025 -3.4541 -2.0781 0.9560
11.5131 -1.6094 -2.1851 0.9538
11.9024 -0.5892 -2.2399 0.9527
10.6481 1.3855 -2.0183 0.9572
8.1394 2.5915 -1.6056 0.9658
4.9802 3.9129 -1.1904 0.9746
3.4573 4.6769 -1.0932 0.9766
2.5335 5.1429 -1.0776 0.9769
2.0663 5.3546 -1.0788 0.9769
0.5593 2.9168 -0.5582 0.9880
0.0660 6.2311 -1.1713 0.9750
-1.0110 5.9513 -1.1346 0.9757
-3.2995 12.5193 -2.4335 0.9487
-4.3097 11.9128 -2.3812 0.9497
-8.0328 9.4440 -2.3304 0.9508
-8.6248 8.4734 -2.2726 0.9520
-9.5080 6.4726 -2.1619 0.9543
-9.8059 5.4627 -2.1098 0.9553
-10.0136 4.4579 -2.0602 0.9564
-10.1356 3.4651 -2.0133 0.9573
-10.1769 2.4903 -1.9693 0.9583
-10.1424 1.5387 -1.9282 0.9591
-10.0369 0.6144 -1.8901 0.9599
-9.6315 -1.1391 -1.8230 0.9613
-8.9957 -2.7489 -1.7680 0.9624
-8.6012 -3.4954 -1.7451 0.9629
-8.1602 -4.2009 -1.7251 0.9633
-7.1513 -5.4849 -1.6940 0.9640
-5.3613 -7.0783 -1.6690 0.9645
-4.7004 -7.5170 -1.6664 0.9646
-3.2946 -8.2494 -1.6697 0.9645
-2.5537 -8.5408 -1.6756 0.9644
-1.0056 -8.9667 -1.6959 0.9639
-0.2025 -9.0980 -1.7105 0.9636
1.4507 -9.1879 -1.7484 0.9628
3.1493 -9.0335 -1.7982 0.9618
5.7255 -8.3025 -1.8956 0.9598
8.2291 -6.9143 -2.0203 0.9572
9.7363 -4.4714 -2.0138 0.9573
10.3511 -3.6742 -2.0645 0.9563
10.9082 -2.8046 -2.1170 0.9552
11.3977 -1.8655 -2.1708 0.9541
11.0770 1.1791 -2.0938 0.9557
9.5838 1.8976 -1.8363 0.9610
5.7960 3.5789 -1.2804 0.9727
4.5713 4.1077 -1.1552 0.9753
2.1890 5.3005 -1.0779 0.9769
0.7339 5.9190 -1.1210 0.9760
-0.3587 6.4579 -1.2157 0.9740
-1.7253 7.2272 -1.3966 0.9702
-5.0018 11.4084 -2.3414 0.9506
-5.8605 10.6611 -2.2867 0.9517
-2.3974 2.0626 -0.5944 0.9872
-9.4148 6.7362 -2.1759 0.9540
-9.7370 5.7263 -2.1232 0.9551
-9.9678 4.7194 -2.0729 0.9561
-10.1117 3.7228 -2.0253 0.9571
-10.1736 2.7428 -1.9805 0.9580
-10.1584 1.7847 -1.9386 0.9589
-10.0710 0.8529 -1.8997 0.9597
-9.9161 -0.0490 -1.8639 0.9604
-9.0907 -2.5475 -1.7745 0.9623
-8.7088 -3.3044 -1.7508 0.9628
-8.2796 -4.0207 -1.7300 0.9632
-7.8064 -4.6953 -1.7123 0.9636
-5.5290 -6.9560 -1.6702 0.9645
-4.1935 -7.8104 -1.6663 0.9646
-3.4841 -8.1650 -1.6686 0.9645
-2.7494 -8.4696 -1.6737 0.9644
-1.9915 -8.7229 -1.6817 0.9642
-0.4139 -9.0691 -1.7064 0.9637
2.0741 -9.1603 -1.7654 0.9625
2.9258 -9.0682 -1.7910 0.9620
3.7835 -8.9110 -1.8196 0.9614
4.6437 -8.6862 -1.8513 0.9607
5.5022 -8.3913 -1.8861 0.9600
6.3544 -8.0240 -1.9238 0.9592
8.0179 -7.0628 -2.0084 0.9574
8.8165 -6.4650 -2.0550 0.9565
9.5832 -5.7874 -2.1043 0.9555
10.7689 -3.0386 -2.1032 0.9555
11.2770 -2.1172 -2.1567 0.9544
11.7099 -1.1295 -2.2112 0.9532
12.0567 -0.0812 -2.2662 0.9521
11.5394 0.9564 -2.1764 0.9540
9.9374 1.7275 -1.8959 0.9598
8.6914 2.3265 -1.6912 0.9640
7.6801 2.8119 -1.5373 0.9673
6.7826 3.1964 -1.4093 0.9699
4.3835 4.4963 -1.1803 0.9748
3.8619 4.7439 -1.1498 0.9754
3.2367 4.7941 -1.0872 0.9767
2.3111 5.2456 -1.0774 0.9769
-0.2049 6.3735 -1.1986 0.9744
-1.5231 7.1114 -1.3670 0.9708
-5.6452 10.8627 -2.3010 0.9514
-7.6829 9.9377 -2.3610 0.9502
-8.3284 8.9839 -2.3026 0.9514
-10.1696 2.0325 -1.9493 0.9587
-9.9628 0.1834 -1.8729 0.9603
-9.7609 -0.6944 -1.8393 0.9610
-9.4994 -1.5373 -1.8087 0.9616
-8.8132 -3.1106 -1.7567 0.9627
-8.3961 -3.8376 -1.7352 0.9631
-7.9341 -4.5232 -1.7166 0.9635
-6.8872 -5.7658 -1.6883 0.9641
-5.6945 -6.8305 -1.6715 0.9645
-5.0493 -7.2938 -1.6674 0.9645
-3.6718 -8.0772 -1.6677 0.9645
-2.9436 -8.3950 -1.6721 0.9644
-2.1916 -8.6618 -1.6794 0.9643
-1.4177 -8.8761 -1.6895 0.9641
-0.6242 -9.0364 -1.7025 0.9638
0.1871 -9.1407 -1.7185 0.9635
1.8531 -9.1739 -1.7592 0.9626
2.7027 -9.0984 -1.7840 0.9621
3.5591 -8.9584 -1.8119 0.9615
4.4190 -8.7515 -1.8428 0.9609
6.1328 -8.1270 -1.9137 0.9594
6.9769 -7.7046 -1.9537 0.9586
9.3865 -5.9721 -2.0911 0.9557
10.6251 -3.2677 -2.0894 0.9558
11.1512 -2.3644 -2.1426 0.9547
11.7635 0.6989 -2.2150 0.9532
10.3148 1.5459 -1.9604 0.9584
8.9903 2.1829 -1.7389 0.9630
-2.6498 -7.6545 -1.7122 0.9674
-1.9635 -7.8922 -1.7191 0.9673
0.2030 -8.3038 -1.7558 0.9666
0.9533 -8.3353 -1.7734 0.9663
1.7132 -8.3109 -1.7937 0.9659
2.4801 -8.2290 -1.8167 0.9655
3.2505 -8.0876 -1.8425 0.9650
4.7874 -7.6190 -1.9020 0.9639
5.5455 -7.2882 -1.9358 0.9633
7.0162 -6.4259 -2.0111 0.9618
7.7173 -5.8922 -2.0524 0.9611
8.3869 -5.2894 -2.0960 0.9603
2.3181 -0.9361 -0.5284 0.9898
9.8351 -2.0445 -2.1234 0.9598
10.2003 -1.1837 -2.1706 0.9589
10.4897 -0.2739 -2.2181 0.9580
10.6952 0.6781 -2.2653 0.9571
6.2331 3.4902 -1.5100 0.9712
5.5435 3.7915 -1.4197 0.9729
4.9064 4.0436 -1.3439 0.9743
2.8463 4.9278 -1.2029 0.9770
2.3861 5.1433 -1.1985 0.9771
1.4624 5.5982 -1.2231 0.9766
0.4847 2.8915 -0.6197 0.9881
0.4700 6.1187 -1.2972 0.9752
-0.0820 6.4208 -1.3573 0.9741
-0.6933 6.7602 -1.4365 0.9726
-3.0959 10.7241 -2.3594 0.9554
-5.4863 8.9620 -2.2212 0.9579
-8.7847 4.6284 -2.0989 0.9602
-9.0839 2.8704 -2.0137 0.9618
-9.1235 2.0080 -1.9747 0.9625
-9.0019 0.3403 -1.9042 0.9638
-7.7019 -3.3415 -1.7746 0.9663
-7.2988 -3.9757 -1.7569 0.9666
-6.3738 -5.1293 -1.7294 0.9671
-5.8571 -5.6461 -1.7197 0.9673
-4.1191 -6.9429 -1.7064 0.9675
-2.8256 -7.5845 -1.7109 0.9675
-2.1446 -7.8348 -1.7171 0.9673
0.7563 -8.3324 -1.7685 0.9664
1.5140 -8.3228 -1.7881 0.9660
2.2794 -8.2561 -1.8105 0.9656
3.0491 -8.1304 -1.8355 0.9651
3.8199 -7.9439 -1.8632 0.9646
5.3486 -7.3810 -1.9268 0.9634
6.0973 -7.0012 -1.9625 0.9628
7.5370 -6.0383 -2.0414 0.9613
9.7283 -2.2605 -2.1111 0.9600
9.2338 2.0534 -1.9995 0.9621
8.1254 2.5871 -1.8025 0.9657
6.4202 3.4006 -1.5357 0.9707
5.0655 3.9799 -1.3617 0.9740
4.4788 4.2177 -1.3004 0.9752
2.5057 5.0866 -1.1986 0.9771
2.0477 5.3065 -1.2023 0.9770
0.5554 2.8966 -0.6234 0.9880
0.0671 6.3384 -1.3399 0.9744
-0.5270 6.6700 -1.4143 0.9730
-1.0633 6.2591 -1.3420 0.9744
-2.8584 10.8455 -2.3708 0.9552
-3.7442 10.3498 -2.3265 0.9560
-5.9703 8.4447 -2.1861 0.9586
-6.5555 7.7071 -2.1387 0.9595
-8.4348 5.7420 -2.1569 0.9591
-9.1199 2.2317 -1.9846 0.9623
-9.1087 1.3819 -1.9474 0.9630
-9.0321 0.5529 -1.9128 0.9637
-8.8941 -0.2517 -1.8808 0.9643
-8.1479 -2.4899 -1.8009 0.9658
-7.8001 -3.1698 -1.7797 0.9662
-7.4081 -3.8137 -1.7612 0.9665
-6.5030 -4.9876 -1.7324 0.9670
-5.9953 -5.5151 -1.7219 0.9672
-4.8818 -6.4452 -1.7091 0.9675
-2.3245 -7.7741 -1.7152 0.9674
-1.6286 -7.9885 -1.7233 0.9672
0.5601 -8.3257 -1.7639 0.9665
1.3153 -8.3307 -1.7828 0.9661
4.3878 -7.7659 -1.8855 0.9642
5.1509 -7.4692 -1.9179 0.9636
7.3546 -6.1796 -2.0305 0.9615
8.0416 -5.6128 -2.0729 0.9607
8.6868 -4.9731 -2.1158 0.9599
8.6337 -3.9650 -2.0082 0.9619
9.6171 -2.4727 -2.0990 0.9602
10.5989 0.1761 -2.2407 0.9576
10.7613 1.1455 -2.2876 0.9567
9.5650 1.8938 -2.0611 0.9609
7.4330 2.9200 -1.6881 0.9679
6.6138 3.3077 -1.5631 0.9702
5.9060 3.6468 -1.4672 0.9720
5.2295 3.9148 -1.3808 0.9736
3.7253 4.8008 -1.2845 0.9755
3.0905 4.8163 -1.2096 0.9769
2.6256 5.0302 -1.1994 0.9771
2.1674 5.2483 -1.2003 0.9771
1.7069 5.4749 -1.2122 0.9768
0.3813 3.0750 -0.6550 0.9874
0.2125 6.2586 -1.3237 0.9747
-3.5192 10.4871 -2.3383 0.9558
-5.8042 8.6305 -2.1985 0.9584
-6.4105 7.9034 -2.1511 0.9592
-8.3460 5.9715 -2.1692 0.9589
-9.0348 3.3263 -2.0351 0.9614
-9.0582 0.7671 -1.9216 0.9635
-8.9359 -0.0441 -1.8889 0.9641
-8.5187 -1.5835 -1.8315 0.9652
-7.8953 -2.9957 -1.7850 0.9661
-5.0342 -6.3334 -1.7102 0.9675
-3.8190 -7.1129 -1.7065 0.9675
-3.1725 -7.4349 -1.7087 0.9675
-2.5029 -7.7101 -1.7135 0.9674
-0.3761 -8.2414 -1.7439 0.9668
0.3646 -8.3153 -1.7594 0.9665
3.4175 -8.0490 -1.8484 0.9649
4.1874 -7.8327 -1.8774 0.9643
5.7081 -7.2079 -1.9435 0.9631
7.1704 -6.3162 -2.0199 0.9617
7.8653 -5.7675 -2.0617 0.9609
8.5272 -5.1497 -2.1057 0.9601
9.9202 -1.8625 -2.1336 0.9596
10.2697 -0.9906 -2.1809 0.9587
10.5416 -0.0710 -2.2283 0.9578
8.6757 2.3223 -1.8984 0.9639
6.8145 3.2114 -1.5924 0.9697
6.0825 3.5624 -1.4900 0.9716
5.3988 3.8481 -1.4014 0.9733
4.3781 4.4907 -1.3257 0.9747
3.2141 4.7607 -1.2142 0.9768
2.2869 5.1907 -1.1990 0.9771
1.8279 5.4147 -1.2080 0.9769
0.4432 2.9994 -0.6409 0.9877
-0.2087 6.4913 -1.3728 0.9738
-1.5312 7.1492 -1.5455 0.9706
-3.2897 10.6190 -2.3499 0.9556
-4.9263 9.4794 -2.2582 0.9573
-6.2600 8.0972 -2.1634 0.9590
-7.3344 7.9118 -2.2805 0.9569
-8.2515 6.2002 -2.1817 0.9587
-9.0800 0.9830 -1.9306 0.9633
-8.9736 0.1652 -1.8972 0.9640
-8.3109 -2.1210 -1.8131 0.9655
-7.9874 -2.8191 -1.7905 0.9660
-7.6181 -3.4820 -1.7706 0.9663
-6.7540 -4.6962 -1.7389 0.9669
-6.2648 -5.2447 -1.7270 0.9671
-5.7408 -5.7526 -1.7179 0.9673
-4.5980 -6.6420 -1.7076 0.9675
-2.6798 -7.6428 -1.7120 0.9674
-1.9944 -7.8827 -1.7187 0.9673
-0.5673 -8.2134 -1.7403 0.9669
0.1699 -8.3012 -1.7551 0.9666
1.6793 -8.3132 -1.7927 0.9659
2.4459 -8.2339 -1.8156 0.9655
3.2162 -8.0952 -1.8413 0.9650
4.7534 -7.6322 -1.9006 0.9639
6.2574 -6.9101 -1.9705 0.9626
7.6867 -5.9174 -2.0505 0.9611
2.3151 -0.9457 -0.5286 0.9898
9.3819 -2.8853 -2.0748 0.9607
10.1856 -1.2231 -2.1685 0.9589
8.9736 2.1788 -1.9519 0.9630
-2.4300 -7.0195 -1.7458 0.9699
-1.8000 -7.2351 -1.7522 0.9698
-1.1525 -7.4044 -1.7612 0.9697
-0.4898 -7.5262 -1.7726 0.9695
0.1858 -7.5989 -1.7865 0.9692
0.8716 -7.6212 -1.8028 0.9690
1.5649 -7.5915 -1.8217 0.9687
2.2629 -7.5083 -1.8430 0.9683
2.9621 -7.3702 -1.8668 0.9679
4.3502 -6.9233 -1.9217 0.9670
5.6966 -6.2407 -1.9859 0.9659
6.3423 -5.8087 -2.0213 0.9653
2.3181 -0.9361 -0.5876 0.9898
9.0784 -1.0536 -2.1480 0.9631
9.3136 -0.2432 -2.1897 0.9624
9.4734 0.6006 -2.2309 0.9617
6.9760 3.1239 -1.7964 0.9691
6.2240 3.4851 -1.6765 0.9711
4.4109 4.3524 -1.4564 0.9749
3.9630 4.6799 -1.4413 0.9751
3.3735 4.7938 -1.3777 0.9762
2.8936 5.0097 -1.3597 0.9765
2.4256 5.2285 -1.3546 0.9766
1.9599 5.4547 -1.3622 0.9765
1.4871 5.6929 -1.3829 0.9761
0.4808 2.8685 -0.6836 0.9881
0.4768 6.2071 -1.4631 0.9747
-1.1655 6.0080 -1.4383 0.9752
-2.7293 9.4542 -2.3127 0.9604
-3.5029 9.0188 -2.2739 0.9610
-4.2183 8.5163 -2.2336 0.9617
-4.8704 7.9559 -2.1924 0.9624
-5.9720 6.6977 -2.1090 0.9638
-6.9084 6.4772 -2.2257 0.9618
-7.6510 4.9510 -2.1418 0.9632
-7.9078 4.1664 -2.1007 0.9639
-8.0934 3.3789 -2.0612 0.9646
-8.2104 2.5944 -2.0237 0.9652
-8.2616 1.8183 -1.9881 0.9658
-7.6406 -1.7930 -1.8445 0.9683
-7.3631 -2.4394 -1.8230 0.9686
-6.6788 -3.6380 -1.7874 0.9692
-6.2775 -4.1868 -1.7734 0.9695
-5.8402 -4.6998 -1.7618 0.9697
-4.3362 -6.0115 -1.7420 0.9700
-3.1961 -6.6839 -1.7412 0.9700
-1.9663 -7.1832 -1.7503 0.9699
-1.3231 -7.3647 -1.7586 0.9697
2.0803 -7.5353 -1.8372 0.9684
2.7796 -7.4116 -1.8604 0.9680
4.8544 -6.6990 -1.9443 0.9666
5.5245 -6.3435 -1.9770 0.9660
2.3209 -1.0009 -0.5940 0.9897
9.0054 -1.2588 -2.1370 0.9633
9.4393 0.3775 -2.2202 0.9619
8.1114 2.5826 -2.0007 0.9656
5.1131 4.0173 -1.5282 0.9736
4.5510 4.2856 -1.4692 0.9746
4.0977 4.6159 -1.4506 0.9750
3.0174 4.9532 -1.3631 0.9765
2.5472 5.1708 -1.3547 0.9766
1.5111 3.9159 -0.9865 0.9829
0.0677 6.3976 -1.5037 0.9741
-2.5184 9.5557 -2.3225 0.9602
-3.3063 9.1393 -2.2842 0.9609
-4.7065 8.1073 -2.2032 0.9622
-5.3095 7.5100 -2.1616 0.9629
-5.8439 6.8706 -2.1198 0.9636
-7.5719 5.1546 -2.1528 0.9631
-8.0516 3.5844 -2.0714 0.9644
-8.1863 2.7986 -2.0333 0.9651
-8.2590 1.2530 -1.9633 0.9663
-7.4400 -2.2735 -1.8284 0.9685
-6.7774 -3.4891 -1.7915 0.9692
-6.3859 -4.0469 -1.7768 0.9694
-5.9577 -4.5694 -1.7646 0.9696
-5.0012 -5.5029 -1.7476 0.9699
-4.4775 -5.9114 -1.7429 0.9700
-3.9265 -6.2794 -1.7406 0.9700
-3.3504 -6.6057 -1.7408 0.9700
-2.1313 -7.1282 -1.7486 0.9699
-1.4927 -7.3218 -1.7562 0.9698
1.2021 -7.6136 -1.8115 0.9688
2.5970 -7.4493 -1.8541 0.9681
3.2956 -7.2843 -1.8791 0.9677
4.6770 -6.7820 -1.9362 0.9667
6.0079 -6.0419 -2.0025 0.9656
7.7478 -3.5581 -2.0038 0.9656
8.1949 -2.9089 -2.0437 0.9649
9.1998 -0.6710 -2.1679 0.9628
9.3997 0.1562 -2.2095 0.9621
8.3786 2.4538 -2.0519 0.9648
6.6039 3.3027 -1.7353 0.9701
5.8977 3.6417 -1.6290 0.9719
5.2677 3.9434 -1.5465 0.9733
1.5934 3.8583 -0.9811 0.9830
1.7355 5.5667 -1.3704 0.9763
0.6415 2.9691 -0.7139 0.9876
0.3774 3.0441 -0.7209 0.9875
0.2149 6.3291 -1.4883 0.9743
-3.8523 8.7865 -2.2548 0.9613
-4.5380 8.2553 -2.2140 0.9620
-5.1586 7.6704 -2.1725 0.9627
-2.3991 2.0641 -0.7438 0.9871
-7.7827 4.5769 -2.1220 0.9636
-8.0052 3.7901 -2.0816 0.9643
-8.1577 3.0034 -2.0430 0.9649
-8.1250 -0.0401 -1.9096 0.9672
-7.9719 -0.7545 -1.8819 0.9676
-7.7671 -1.4438 -1.8567 0.9681
-7.2149 -2.7375 -1.8136 0.9688
-6.0729 -4.4364 -1.7676 0.9696
-5.6192 -4.9319 -1.7572 0.9697
-4.0729 -6.1873 -1.7409 0.9700
-2.9098 -6.8193 -1.7425 0.9700
-2.2951 -7.0701 -1.7470 0.9699
-1.6611 -7.2757 -1.7540 0.9698
-0.3444 -7.5461 -1.7754 0.9694
1.0213 -7.6192 -1.8067 0.9689
2.4143 -7.4831 -1.8480 0.9682
3.1134 -7.3329 -1.8723 0.9678
3.8095 -7.1259 -1.8991 0.9673
4.4987 -6.8609 -1.9282 0.9669
5.8384 -6.1523 -1.9934 0.9657
6.4790 -5.7071 -2.0292 0.9651
7.0927 -5.2010 -2.0671 0.9645
7.6235 -3.7190 -1.9935 0.9657
8.8457 -1.6607 -2.1153 0.9637
9.3548 -0.0630 -2.1987 0.9623
8.6599 2.3180 -2.1069 0.9638
7.6548 2.8026 -1.9158 0.9671
4.3726 4.4851 -1.4721 0.9746
2.7916 5.0567 -1.3575 0.9765
2.3248 5.2767 -1.3552 0.9766
1.8584 5.5051 -1.3656 0.9764
1.3828 5.7466 -1.3891 0.9760
-0.2098 6.5268 -1.5347 0.9735
-0.8327 6.8160 -1.6138 0.9722
-1.5289 7.1386 -1.7158 0.9704
-2.9015 9.3660 -2.3044 0.9605
-3.6631 8.9153 -2.2653 0.9612
-4.3651 8.3995 -2.2247 0.9619
-5.0030 7.8278 -2.1834 0.9625
-6.0746 6.5527 -2.1000 0.9640
-7.0100 6.3218 -2.2185 0.9620
-7.3987 5.5593 -2.1750 0.9627
-7.9539 3.9958 -2.0920 0.9641
-8.2269 2.4254 -2.0158 0.9654
-8.2643 1.6517 -1.9807 0.9660
-8.2396 0.8920 -1.9478 0.9665
-8.1561 0.1502 -1.9172 0.9670
-7.8254 -1.2664 -1.8631 0.9680
-7.5844 -1.9356 -1.8396 0.9683
-7.2971 -2.5755 -1.8187 0.9687
-6.5951 -3.7599 -1.7842 0.9693
-6.1857 -4.3010 -1.7707 0.9695
-5.7409 -4.8062 -1.7597 0.9697
-5.2631 -5.2739 -1.7511 0.9698
-4.7546 -5.7031 -1.7450 0.9700
-3.6543 -6.4406 -1.7404 0.9700
-1.8284 -7.2264 -1.7519 0.9698
-1.1816 -7.3979 -1.7607 0.9697
0.1555 -7.5967 -1.7858 0.9693
0.8409 -7.6213 -1.8020 0.9690
1.5340 -7.5939 -1.8208 0.9687
2.2318 -7.5132 -1.8420 0.9683
5.6674 -6.2585 -1.9844 0.9659
7.5254 -4.7880 -2.0963 0.9640
7.4962 -3.8761 -1.9834 0.9659
2.3141 -0.9453 -0.5875 0.9898
8.3907 -2.5805 -2.0632 0.9646
9.0663 -1.0887 -2.1461 0.9632
9.3047 -0.2800 -2.1878 0.9625
9.4680 0.5625 -2.2291 0.9618
8.9568 2.1747 -2.1662 0.9628
-2.2420 -6.4765 -1.7745 0.9721
-1.0626 -6.8270 -1.7889 0.9719
-0.4513 -6.9357 -1.7996 0.9717
0.1711 -6.9985 -1.8126 0.9715
1.4390 -6.9808 -1.8455 0.9710
2.7184 -6.7638 -1.8874 0.9703
3.3542 -6.5776 -1.9117 0.9700
3.9826 -6.3383 -1.9382 0.9695
4.5996 -6.0451 -1.9667 0.9691
5.2006 -5.6973 -1.9973 0.9686
5.7811 -5.2948 -2.0298 0.9681
6.3359 -4.8375 -2.0640 0.9676
6.8596 -4.3261 -2.0998 0.9670
7.5966 -2.3032 -2.0553 0.9677
8.1702 -0.9482 -2.1296 0.9666
8.4929 0.5385 -2.2034 0.9654
8.5238 2.1055 -2.2733 0.9644
5.5529 3.7979 -1.7419 0.9726
4.9555 4.0841 -1.6627 0.9738
4.4053 4.3469 -1.6024 0.9748
3.3966 4.8267 -1.5281 0.9759
2.9186 5.0530 -1.5109 0.9762
1.4950 5.7231 -1.5315 0.9759
-0.0825 6.4590 -1.6725 0.9737
-0.6913 6.7415 -1.7546 0.9724
-3.7813 7.6339 -2.2057 0.9654
-4.9093 6.6110 -2.1321 0.9665
-5.3843 6.0387 -2.0948 0.9671
-6.6241 5.1811 -2.1774 0.9658
-6.9374 4.4893 -2.1395 0.9664
-7.3644 3.0745 -2.0663 0.9676
-7.5415 1.6598 -1.9994 0.9686
-7.4873 0.2830 -1.9400 0.9695
-7.3801 -0.3815 -1.9134 0.9699
-7.2230 -1.0258 -1.8889 0.9703
-6.4802 -2.8115 -1.8289 0.9712
-5.7848 -3.8582 -1.8004 0.9717
-4.9524 -4.7740 -1.7810 0.9720
-4.4906 -5.1791 -1.7748 0.9721
-4.0014 -5.5474 -1.7710 0.9721
-2.9494 -6.1681 -1.7702 0.9721
-0.6121 -6.9117 -1.7966 0.9717
1.2723 -6.9942 -1.8406 0.9711
2.5516 -6.8038 -1.8814 0.9704
4.4398 -6.1269 -1.9591 0.9692
5.6318 -5.4052 -2.0211 0.9683
6.1938 -4.9622 -2.0549 0.9677
6.7262 -4.4648 -2.0903 0.9672
8.1086 -1.1335 -2.1199 0.9667
8.3210 -0.4119 -2.1571 0.9662
8.4665 0.3386 -2.1939 0.9656
5.7187 3.7184 -1.7662 0.9722
3.0425 4.9944 -1.5142 0.9761
2.5702 5.2176 -1.5059 0.9763
0.6155 6.1342 -1.5962 0.9748
0.0676 6.3892 -1.6544 0.9739
-0.5266 6.6651 -1.7311 0.9728
-1.0070 5.9276 -1.5568 0.9755
-2.2482 8.5304 -2.2841 0.9642
-3.6173 7.7531 -2.2151 0.9653
-4.2248 7.2776 -2.1788 0.9658
-4.7753 6.7545 -2.1418 0.9664
-5.2662 6.1913 -2.1045 0.9670
-6.8624 4.6716 -2.1494 0.9663
-7.1252 3.9693 -2.1118 0.9669
-7.5473 1.1450 -1.9765 0.9690
-7.4130 -0.2098 -1.9201 0.9698
-7.2687 -0.8596 -1.8951 0.9702
-7.0766 -1.4872 -1.8723 0.9706
-6.8394 -2.0900 -1.8517 0.9709
-6.5599 -2.6658 -1.8334 0.9712
-5.8838 -3.7287 -1.8036 0.9716
-5.4923 -4.2124 -1.7921 0.9718
-5.0682 -4.6622 -1.7830 0.9719
-4.1317 -5.4548 -1.7718 0.9721
-3.6236 -5.7950 -1.7696 0.9722
-3.0919 -6.0961 -1.7698 0.9722
-2.5387 -6.3568 -1.7723 0.9721
-1.3766 -6.7523 -1.7843 0.9719
-0.7721 -6.8846 -1.7937 0.9718
1.1059 -7.0042 -1.8360 0.9711
1.7445 -6.9474 -1.8547 0.9708
3.0229 -6.6814 -1.8988 0.9702
3.6556 -6.4700 -1.9241 0.9698
6.0497 -5.0831 -2.0459 0.9679
6.5903 -4.5999 -2.0809 0.9673
7.0199 -3.2239 -2.0001 0.9686
7.7540 -1.9937 -2.0729 0.9675
8.0428 -1.3164 -2.1101 0.9669
8.5281 0.9077 -2.2206 0.9652
8.3636 2.4494 -2.2564 0.9646
7.4088 2.9105 -2.0610 0.9676
5.2606 3.9380 -1.7014 0.9732
4.6876 4.2121 -1.6317 0.9743
4.2288 4.5453 -1.6074 0.9747
0.3756 3.0296 -0.7904 0.9875
0.2146 6.3209 -1.6375 0.9742
-0.3661 6.5907 -1.7091 0.9731
-0.8643 5.9221 -1.5496 0.9756
-3.4498 7.8684 -2.2245 0.9651
-4.0715 7.4066 -2.1884 0.9657
-4.6372 6.8952 -2.1515 0.9662
-5.1439 6.3418 -2.1142 0.9668
-5.5895 5.7540 -2.0770 0.9674
-6.7829 4.8531 -2.1595 0.9661
-7.4288 2.7350 -2.0497 0.9678
-7.5184 2.0269 -2.0161 0.9683
-6.9056 -1.9351 -1.8568 0.9708
-6.3276 -3.0728 -1.8213 0.9714
-5.9804 -3.5970 -1.8069 0.9716
-4.7354 -4.9720 -1.7778 0.9720
-4.2602 -5.3597 -1.7727 0.9721
-3.2329 -6.0213 -1.7695 0.9722
-2.6851 -6.2927 -1.7714 0.9721
-2.1174 -6.5228 -1.7756 0.9721
-0.3174 -6.9533 -1.8022 0.9716
0.3072 -7.0059 -1.8157 0.9714
0.9397 -7.0109 -1.8315 0.9712
1.5775 -6.9671 -1.8496 0.9709
3.4911 -6.5303 -1.9173 0.9699
5.9037 -5.2003 -2.0370 0.9680
6.4522 -4.7313 -2.0716 0.9675
6.9105 -3.3712 -1.9908 0.9687
7.9730 -1.4969 -2.1004 0.9670
8.2181 -0.7927 -2.1377 0.9665
8.5110 0.7054 -2.2112 0.9653
6.0650 3.5521 -1.8198 0.9714
4.8327 4.1428 -1.6481 0.9740
4.3670 4.4794 -1.6198 0.9745
3.8478 4.7266 -1.5780 0.9751
3.2921 4.8762 -1.5233 0.9760
0.4280 2.8964 -0.7581 0.9880
-0.8315 6.8064 -1.7754 0.9721
-2.5924 8.3681 -2.2682 0.9645
-3.2787 7.9798 -2.2337 0.9650
-3.9144 7.5323 -2.1979 0.9655
-4.4951 7.0331 -2.1612 0.9661
-5.4791 5.9104 -2.0867 0.9672
-5.8790 5.3018 -2.0497 0.9678
-6.6989 5.0336 -2.1695 0.9660
-7.2278 3.6310 -2.0943 0.9671
-7.4685 0.1375 -1.9340 0.9696
-7.1827 -1.1624 -1.8839 0.9704
-6.9687 -1.7784 -1.8622 0.9707
-6.7110 -2.3686 -1.8426 0.9710
-6.4121 -2.9308 -1.8254 0.9713
-6.0746 -3.4631 -1.8105 0.9715
-5.2936 -4.4316 -1.7875 0.9719
-2.8302 -6.2257 -1.7707 0.9721
-1.0895 -6.8211 -1.7885 0.9719
-0.4788 -6.9319 -1.7991 0.9717
0.1432 -6.9967 -1.8119 0.9715
2.0504 -6.9025 -1.8644 0.9707
2.6900 -6.7708 -1.8864 0.9703
3.9549 -6.3501 -1.9370 0.9696
4.5724 -6.0593 -1.9654 0.9691
5.1743 -5.7140 -1.9959 0.9687
6.3118 -4.8590 -2.0624 0.9676
6.8371 -4.3500 -2.0982 0.9671
6.7984 -3.5153 -1.9816 0.9689
-2.0793 -6.0064 -1.7994 0.9739
-0.4181 -6.4257 -1.8229 0.9736
0.1584 -6.4804 -1.8351 0.9734
4.7796 -5.2361 -2.0070 0.9710
6.2782 -3.9595 -2.1013 0.9696
6.2305 -3.1903 -1.9816 0.9713
7.4193 -0.8610 -2.1144 0.9694
7.6878 0.4874 -2.1807 0.9685
7.6927 1.9002 -2.2432 0.9676
7.5884 2.6128 -2.2720 0.9672
6.9540 3.1140 -2.1570 0.9688
4.9488 4.0787 -1.8155 0.9737
4.3996 4.3413 -1.7498 0.9746
2.9151 5.0469 -1.6499 0.9761
2.4444 5.2691 -1.6443 0.9761
1.9729 5.4910 -1.6518 0.9760
-0.6904 6.7320 -1.9158 0.9723
-1.1617 5.9881 -1.7268 0.9750
-2.1997 7.6196 -2.2451 0.9676
-2.8324 7.2924 -2.2147 0.9680
-3.9654 6.4775 -2.1501 0.9689
-4.8968 5.4919 -2.0830 0.9699
-6.3392 4.1022 -2.1376 0.9691
-6.5736 3.4635 -2.1034 0.9696
-6.7493 2.8177 -2.0705 0.9701
-6.8676 2.1701 -2.0389 0.9705
-6.9304 1.5253 -2.0089 0.9709
-6.8972 0.2607 -1.9539 0.9717
-6.8057 -0.3518 -1.9292 0.9721
-6.6675 -0.9469 -1.9065 0.9724
-6.2605 -2.0741 -1.8670 0.9730
-5.6953 -3.1023 -1.8360 0.9734
-5.3593 -3.5744 -1.8237 0.9736
-4.1646 -4.8031 -1.7997 0.9739
-3.2345 -5.4520 -1.7946 0.9740
-2.2176 -5.9525 -1.7983 0.9739
-1.6818 -6.1442 -1.8034 0.9739
-1.1310 -6.2952 -1.8106 0.9738
-0.5672 -6.4043 -1.8201 0.9736
0.0071 -6.4704 -1.8317 0.9735
1.1768 -6.4690 -1.8614 0.9730
1.7668 -6.3994 -1.8794 0.9728
2.9416 -6.1173 -1.9216 0.9722
3.5197 -5.9032 -1.9457 0.9718
4.6385 -5.3262 -1.9994 0.9711
5.1709 -4.9628 -2.0290 0.9706
6.1584 -4.0880 -2.0925 0.9697
6.8405 -2.2497 -2.0385 0.9705
7.1292 -1.6566 -2.0720 0.9700
7.3665 -1.0297 -2.1057 0.9696
7.5473 -0.3736 -2.1392 0.9691
7.6671 0.3066 -2.1722 0.9686
7.7219 1.0048 -2.2044 0.9681
7.6227 2.4270 -2.2647 0.9673
7.1677 3.0108 -2.2009 0.9682
5.7106 3.7131 -1.9283 0.9721
5.0994 4.0065 -1.8359 0.9734
4.5393 4.2746 -1.7651 0.9744
4.0874 4.6044 -1.7430 0.9747
3.0388 4.9883 -1.6536 0.9760
2.5671 5.2113 -1.6446 0.9761
1.4823 3.8410 -1.1655 0.9830
0.5442 2.8380 -0.8181 0.9881
-2.0281 7.6951 -2.2528 0.9675
-4.3341 6.1304 -2.1254 0.9693
-6.2682 4.2671 -2.1466 0.9690
-6.5181 3.6312 -2.1122 0.9695
-6.7090 2.9867 -2.0790 0.9699
-6.9131 0.4232 -1.9607 0.9716
-6.8342 -0.1934 -1.9355 0.9720
-6.3230 -1.9322 -1.8717 0.9729
-6.0691 -2.4664 -1.8546 0.9731
-5.7774 -2.9743 -1.8396 0.9733
-5.4503 -3.4540 -1.8267 0.9735
-5.0900 -3.9039 -1.8159 0.9737
-2.8680 -5.6547 -1.7949 0.9740
-2.3547 -5.8959 -1.7973 0.9740
-1.2762 -6.2597 -1.8085 0.9738
-0.7155 -6.3799 -1.8174 0.9737
0.4366 -6.4909 -1.8417 0.9733
1.0230 -6.4795 -1.8570 0.9731
1.6126 -6.4221 -1.8745 0.9728
2.2025 -6.3176 -1.8940 0.9726
2.7893 -6.1651 -1.9156 0.9723
3.3697 -5.9639 -1.9392 0.9719
3.9400 -5.7132 -1.9647 0.9716
5.0340 -5.0625 -2.0211 0.9708
5.5490 -4.6624 -2.0518 0.9703
6.0363 -4.2132 -2.0839 0.9699
6.4751 -3.7069 -2.1122 0.9695
6.7572 -2.3985 -2.0299 0.9706
7.3098 -1.1964 -2.0969 0.9697
7.6520 2.2410 -2.2572 0.9674
3.7116 4.7832 -1.7139 0.9751
3.1631 4.9295 -1.6581 0.9759
0.6470 2.9946 -0.8673 0.9873
0.3742 3.0180 -0.8609 0.9874
-0.3656 6.5816 -1.8661 0.9730
-0.8635 5.9170 -1.6928 0.9754
-1.7207 7.2076 -2.0978 0.9697
-3.1199 7.1161 -2.1996 0.9682
-3.6879 6.7089 -2.1673 0.9687
-4.6742 5.7628 -2.1006 0.9696
-2.4009 2.0656 -0.8966 0.9869
-6.8129 2.5083 -2.0552 0.9703
-6.9256 0.5865 -1.9676 0.9715
-6.8595 -0.0339 -1.9419 0.9719
-6.7454 -0.6384 -1.9181 0.9722
-6.3828 -1.7886 -1.8765 0.9728
-5.8571 -2.8443 -1.8433 0.9733
-4.3911 -4.6105 -1.8025 0.9739
-3.9512 -4.9711 -1.7977 0.9739
-3.4865 -5.2964 -1.7951 0.9740
-2.9989 -5.5854 -1.7947 0.9740
0.2844 -6.4864 -1.8380 0.9734
0.8695 -6.4869 -1.8528 0.9732
1.4585 -6.4416 -1.8697 0.9729
2.0486 -6.3495 -1.8887 0.9726
3.7922 -5.7835 -1.9578 0.9717
4.3525 -5.4961 -1.9847 0.9713
5.4170 -4.7717 -2.0436 0.9704
5.9120 -4.3352 -2.0754 0.9700
6.6708 -2.5448 -2.0212 0.9708
7.4602 -0.7196 -2.1217 0.9693
7.6124 -0.0513 -2.1551 0.9688
7.6763 2.0547 -2.2496 0.9675
7.5562 2.7665 -2.2780 0.9671
6.7830 3.1966 -2.1228 0.9693
5.4112 3.8570 -1.8812 0.9728
4.3615 4.4737 -1.7687 0.9744
2.7900 5.0538 -1.6342 0.9763
2.3426 5.3171 -1.6448 0.9761
1.8700 5.5394 -1.6551 0.9760
1.3874 5.7656 -1.6788 0.9756
0.4238 2.8677 -0.8207 0.9880
-0.8303 6.7967 -1.9384 0.9719
-2.9640 7.2140 -2.2079 0.9681
-3.5442 6.8199 -2.1758 0.9686
-4.9848 5.3771 -2.0757 0.9700
-5.3571 4.8312 -2.0422 0.9705
-6.3950 3.9647 -2.1301 0.9692
-6.6166 3.3240 -2.0962 0.9697
-6.7797 2.6774 -2.0635 0.9702
-6.8859 2.0300 -2.0323 0.9706
-6.9346 0.7507 -1.9746 0.9714
-6.6317 -1.0732 -1.9018 0.9725
-6.4398 -1.6435 -1.8815 0.9727
-5.9343 -2.7124 -1.8471 0.9732
-5.6254 -3.2071 -1.8331 0.9734
-5.2821 -3.6727 -1.8213 0.9736
-4.5015 -4.5108 -1.8041 0.9739
-3.1283 -5.5135 -1.7946 0.9740
-2.6252 -5.7748 -1.7958 0.9740
0.1326 -6.4789 -1.8345 0.9734
0.7162 -6.4912 -1.8488 0.9732
3.0676 -6.0751 -1.9266 0.9721
3.6436 -5.8503 -1.9511 0.9718
4.2077 -5.5759 -1.9775 0.9714
4.7557 -5.2517 -2.0057 0.9710
5.2832 -4.8775 -2.0356 0.9706
5.7856 -4.4539 -2.0670 0.9701
6.2580 -3.9816 -2.0998 0.9696
6.2133 -3.2127 -1.9802 0.9713
2.3122 -0.9445 -0.7071 0.9897
6.9071 -2.1243 -2.0457 0.9704
7.1852 -1.5235 -2.0793 0.9699
7.4106 -0.8899 -2.1130 0.9694
7.5786 -0.2281 -2.1464 0.9690
7.6846 0.4565 -2.1793 0.9685
7.7248 1.1577 -2.2113 0.9680
-1.9369 -5.5951 -1.8211 0.9755
-1.4336 -5.7626 -1.8265 0.9755
-0.9170 -5.8914 -1.8339 0.9754
-0.3892 -5.9803 -1.8433 0.9752
0.6902 -6.0347 -1.8682 0.9749
1.7835 -5.9178 -1.9011 0.9745
2.3283 -5.7931 -1.9204 0.9742
3.9159 -5.1465 -1.9891 0.9733
4.4174 -4.8393 -2.0153 0.9730
5.3548 -4.0884 -2.0722 0.9722
5.7305 -2.9343 -1.9802 0.9734
2.3182 -0.9362 -0.7690 0.9896
6.3484 -1.9248 -2.0404 0.9726
6.7875 -0.7877 -2.1017 0.9718
7.0144 0.4447 -2.1618 0.9710
7.0393 1.0836 -2.1906 0.9706
6.1965 3.4697 -2.1843 0.9707
5.5373 3.7873 -2.0634 0.9723
4.3939 4.3357 -1.8986 0.9745
3.9482 4.6624 -1.8791 0.9748
3.3882 4.8148 -1.8109 0.9757
2.4414 5.2627 -1.7844 0.9760
0.4726 2.8192 -0.8792 0.9881
0.4749 6.1830 -1.9074 0.9744
-0.0822 6.4416 -1.9814 0.9734
-0.6894 6.7224 -2.0785 0.9721
-1.1598 5.9784 -1.8731 0.9748
-2.5808 6.6446 -2.1925 0.9706
-5.8232 3.7682 -2.1334 0.9714
-6.2229 2.5980 -2.0741 0.9722
-6.3396 2.0032 -2.0449 0.9726
-6.4047 1.4096 -2.0171 0.9729
-6.4200 0.8211 -1.9907 0.9733
-6.3873 0.2415 -1.9660 0.9736
-6.3085 -0.3261 -1.9430 0.9739
-6.1857 -0.8785 -1.9217 0.9742
-6.0211 -1.4129 -1.9023 0.9744
-4.6464 -3.7392 -1.8344 0.9753
-4.2763 -4.1222 -1.8269 0.9754
-3.8794 -4.4742 -1.8214 0.9755
-3.0136 -5.0795 -1.8166 0.9756
-1.0531 -5.8615 -1.8317 0.9754
-0.5279 -5.9610 -1.8407 0.9753
1.0936 -6.0118 -1.8795 0.9748
2.1864 -5.8300 -1.9151 0.9743
2.7275 -5.6720 -1.9358 0.9740
3.2605 -5.4685 -1.9583 0.9737
3.7821 -5.2192 -1.9825 0.9734
4.2882 -4.9239 -2.0083 0.9730
4.7750 -4.5829 -2.0357 0.9727
5.2382 -4.1966 -2.0645 0.9723
5.6734 -3.7660 -2.0945 0.9719
5.6385 -3.0554 -1.9726 0.9735
2.3078 -0.9953 -0.7730 0.9895
6.5333 -1.5181 -2.0630 0.9723
6.8977 -0.3414 -2.1242 0.9715
6.9979 0.2798 -2.1541 0.9711
6.9316 2.2070 -2.2375 0.9700
6.7801 2.8480 -2.2619 0.9697
6.3818 3.3802 -2.2213 0.9702
5.7025 3.7078 -2.0921 0.9719
4.0822 4.5985 -1.8913 0.9746
2.5640 5.2049 -1.7846 0.9760
0.5677 2.9605 -0.9272 0.9875
0.6140 6.1184 -1.8913 0.9746
0.0675 6.3722 -1.9601 0.9737
-0.5251 6.6465 -2.0507 0.9725
-1.0046 5.9134 -1.8449 0.9752
-3.4961 6.0224 -2.1419 0.9713
-3.9633 5.6059 -2.1117 0.9717
-5.7496 3.9141 -2.1393 0.9713
-6.0003 3.3427 -2.1126 0.9717
-6.1838 2.7529 -2.0820 0.9721
-6.3141 2.1586 -2.0524 0.9725
-6.3926 1.5643 -2.0242 0.9728
-6.4207 0.9741 -1.9975 0.9732
-6.3334 -0.1792 -1.9488 0.9738
-6.2219 -0.7358 -1.9271 0.9741
-6.0680 -1.2752 -1.9072 0.9744
-5.6416 -2.2927 -1.8731 0.9748
-5.3735 -2.7664 -1.8590 0.9750
-5.0718 -3.2141 -1.8468 0.9752
-4.3756 -4.0251 -1.8287 0.9754
-3.9855 -4.3853 -1.8227 0.9755
-3.5702 -4.7135 -1.8187 0.9756
-3.1317 -5.0082 -1.8168 0.9756
-1.6983 -5.6799 -1.8234 0.9755
-1.1883 -5.8290 -1.8298 0.9754
-0.6661 -5.9389 -1.8381 0.9753
0.4061 -6.0367 -1.8610 0.9750
0.9509 -6.0226 -1.8754 0.9748
1.4979 -5.9653 -1.8917 0.9746
2.5868 -5.7176 -1.9302 0.9741
3.6472 -5.2887 -1.9760 0.9735
4.1578 -5.0055 -2.0014 0.9731
5.5627 -3.8827 -2.0865 0.9720
5.9572 -3.4104 -2.1113 0.9717
5.8925 -2.7061 -1.9944 0.9732
6.2029 -2.2018 -2.0245 0.9728
6.8621 -0.5005 -2.1163 0.9716
6.9773 0.1159 -2.1464 0.9712
7.0340 0.7487 -2.1757 0.9708
4.2180 4.5337 -1.9047 0.9744
2.6866 5.1470 -1.7858 0.9760
1.7431 5.5910 -1.8013 0.9758
0.3742 3.0176 -0.9353 0.9874
0.2140 6.3042 -1.9402 0.9739
-0.3651 6.5725 -2.0247 0.9728
-1.6862 7.0634 -2.2336 0.9701
-2.2828 6.8026 -2.2070 0.9704
-2.8445 6.4878 -2.1789 0.9708
-3.8457 5.7183 -2.1196 0.9716
-4.6630 4.8002 -2.0584 0.9724
-5.2821 3.7792 -1.9977 0.9732
-6.1411 2.9075 -2.0899 0.9720
-6.3770 1.7192 -2.0315 0.9727
-6.2552 -0.5920 -1.9326 0.9740
-6.1122 -1.1362 -1.9122 0.9743
-5.9283 -1.6613 -1.8937 0.9746
-5.4469 -2.6451 -1.8624 0.9750
-5.1537 -3.0998 -1.8498 0.9751
-4.8284 -3.5273 -1.8392 0.9753
-3.6809 -4.6310 -1.8195 0.9755
-3.2483 -4.9345 -1.8171 0.9756
-1.8291 -5.6346 -1.8221 0.9755
-0.8035 -5.9141 -1.8357 0.9753
-0.2736 -5.9943 -1.8456 0.9752
0.2645 -6.0334 -1.8575 0.9750
1.9018 -5.8946 -1.9051 0.9744
2.4457 -5.7602 -1.9248 0.9742
2.9834 -5.5805 -1.9463 0.9739
3.5114 -5.3551 -1.9696 0.9736
4.0260 -5.0838 -1.9946 0.9732
4.5235 -4.7667 -2.0212 0.9729
5.4499 -3.9964 -2.0787 0.9721
5.8050 -2.8319 -1.9866 0.9733
6.1258 -2.3369 -2.0166 0.9729
6.6390 -1.2465 -2.0777 0.9721
6.8229 -0.6581 -2.1083 0.9717
7.0250 0.5822 -2.1681 0.9709
7.0364 1.2232 -2.1967 0.9706
6.6843 3.1501 -2.2728 0.9695
3.2840 4.8642 -1.8052 0.9757
2.3397 5.3106 -1.7849 0.9760
0.4238 2.8678 -0.8917 0.9879
-0.2090 6.5003 -2.0004 0.9731
-0.8291 6.7869 -2.1030 0.9718
-3.2344 6.2238 -2.1574 0.9711
-3.7250 5.8282 -2.1275 0.9715
-4.1701 5.3940 -2.0971 0.9719
-4.5674 4.9269 -2.0664 0.9723
-4.9152 4.4327 -2.0358 0.9727
-6.3580 1.8744 -2.0388 0.9726
-6.4122 1.2816 -2.0113 0.9730
-6.4169 0.6947 -1.9852 0.9734
-6.3741 0.1174 -1.9609 0.9737
-6.1535 -0.9958 -1.9173 0.9743
-5.5179 -2.5221 -1.8661 0.9749
-5.2334 -2.9836 -1.8529 0.9751
-4.9163 -3.4184 -1.8418 0.9753
-4.5686 -3.8247 -1.8326 0.9754
-4.1925 -4.2011 -1.8255 0.9755
-3.7901 -4.5462 -1.8205 0.9755
-3.3634 -4.8585 -1.8175 0.9756
-2.4457 -5.3800 -1.8177 0.9756
-1.4563 -5.7560 -1.8262 0.9755
-0.9402 -5.8865 -1.8335 0.9754
-0.4128 -5.9772 -1.8429 0.9752
0.1234 -6.0272 -1.8542 0.9751
1.2121 -6.0007 -1.8830 0.9747
1.7592 -5.9224 -1.9003 0.9745
2.3041 -5.7996 -1.9195 0.9742
2.8438 -5.6318 -1.9405 0.9739
5.3350 -4.1071 -2.0709 0.9722
5.7616 -3.6658 -2.1004 0.9718
2.3122 -0.9445 -0.7682 0.9896
6.3365 -1.9487 -2.0390 0.9726
6.9242 -0.2084 -2.1307 0.9714
7.0119 0.4166 -2.1605 0.9710
-1.8111 -5.2318 -1.8403 0.9769
-1.3403 -5.3874 -1.8454 0.9769
-0.3636 -5.5876 -1.8613 0.9767
2.1694 -5.3979 -1.9338 0.9758
4.1022 -4.4940 -2.0226 0.9747
4.5444 -4.1621 -2.0484 0.9744
5.2994 -2.7135 -1.9791 0.9752
6.0755 -1.2630 -2.0627 0.9742
6.2480 -0.7251 -2.0908 0.9738
6.3713 -0.1664 -2.1186 0.9735
6.4422 0.4085 -2.1457 0.9732
6.4165 1.5850 -2.1970 0.9725
6.3161 2.1747 -2.2205 0.9722
5.9363 3.3240 -2.2616 0.9717
4.3881 4.3299 -2.0492 0.9743
3.8744 4.5753 -1.9929 0.9750
3.3840 4.8087 -1.9546 0.9755
2.4384 5.2562 -1.9260 0.9759
1.9681 5.4774 -1.9347 0.9758
1.4894 5.7018 -1.9589 0.9755
0.4724 2.8182 -0.9499 0.9880
-0.0821 6.4327 -2.1384 0.9732
-0.6884 6.7127 -2.2430 0.9720
-1.8345 6.3546 -2.1986 0.9725
-2.3675 6.0955 -2.1736 0.9728
-2.8675 5.7892 -2.1475 0.9731
-3.7533 5.0542 -2.0926 0.9738
-4.4691 4.1901 -2.0364 0.9745
-5.6037 2.9525 -2.1054 0.9737
-5.7668 2.4076 -2.0773 0.9740
-5.9473 1.3089 -2.0242 0.9747
-5.8734 -0.3036 -1.9550 0.9755
-5.4268 -1.7979 -1.9003 0.9762
-4.9478 -2.6952 -1.8729 0.9765
-4.6600 -3.1080 -1.8619 0.9767
-4.3427 -3.4947 -1.8529 0.9768
-3.9978 -3.8538 -1.8458 0.9769
-3.6275 -4.1836 -1.8406 0.9769
-2.3837 -4.9850 -1.8367 0.9770
-1.9317 -5.1853 -1.8393 0.9769
-0.4933 -5.5701 -1.8588 0.9767
0.0062 -5.6229 -1.8691 0.9766
1.0205 -5.6098 -1.8953 0.9763
2.0376 -5.4333 -1.9289 0.9758
3.9832 -4.5737 -2.0161 0.9748
4.4311 -4.2528 -2.0416 0.9744
4.8560 -3.8904 -2.0683 0.9741
5.2538 -3.4875 -2.0961 0.9738
5.2158 -2.8264 -1.9720 0.9753
2.3054 -0.9942 -0.8345 0.9895
6.2075 -0.8677 -2.0835 0.9739
6.3440 -0.3140 -2.1114 0.9736
6.4289 0.2571 -2.1387 0.9732
6.4594 0.8405 -2.1652 0.9729
6.2036 2.6058 -2.2366 0.9720
5.9994 3.1777 -2.2567 0.9718
5.6942 3.7024 -2.2577 0.9718
4.5273 4.2633 -2.0671 0.9741
4.0059 4.5126 -2.0058 0.9749
3.5103 4.7487 -1.9629 0.9754
3.0313 4.9760 -1.9368 0.9757
1.4143 3.6650 -1.3058 0.9836
1.6156 5.6427 -1.9510 0.9756
0.5708 2.9771 -1.0076 0.9873
0.6131 6.1103 -2.0413 0.9744
-0.5244 6.6371 -2.2131 0.9723
-1.6904 6.4140 -2.2048 0.9724
-2.2313 6.1679 -2.1803 0.9727
-2.7404 5.8734 -2.1544 0.9730
-3.2133 5.5353 -2.1275 0.9734
-3.6469 5.1584 -2.0999 0.9737
-4.0384 4.7478 -2.0719 0.9741
-4.3858 4.3088 -2.0437 0.9744
-5.8559 2.0019 -2.0571 0.9743
-5.9345 1.4522 -2.0309 0.9746
-5.9663 0.9051 -2.0059 0.9749
-5.9527 0.3644 -1.9824 0.9752
-5.8954 -0.1668 -1.9604 0.9754
-5.6567 -1.1888 -1.9214 0.9759
-5.4792 -1.6744 -1.9045 0.9761
-5.2656 -2.1398 -1.8893 0.9763
-4.7381 -3.0027 -1.8646 0.9766
-4.4283 -3.3964 -1.8551 0.9768
-4.0904 -3.7628 -1.8475 0.9768
-2.4990 -4.9270 -1.8364 0.9770
-1.5879 -5.3107 -1.8425 0.9769
-1.1108 -5.4489 -1.8485 0.9768
0.3792 -5.6368 -1.8779 0.9765
0.8874 -5.6207 -1.8915 0.9763
1.3971 -5.5639 -1.9069 0.9761
1.9055 -5.4658 -1.9241 0.9759
2.4095 -5.3257 -1.9430 0.9757
3.3917 -4.9182 -1.9859 0.9751
3.8630 -4.6506 -2.0096 0.9748
4.3162 -4.3406 -2.0348 0.9745
5.1528 -3.5965 -2.0888 0.9739
5.4462 -2.5012 -1.9921 0.9751
5.7266 -2.0327 -2.0199 0.9747
5.9670 -1.5342 -2.0480 0.9744
6.4119 0.1065 -2.1316 0.9733
6.4455 1.2762 -2.1841 0.9727
6.3759 1.8673 -2.2084 0.9724
6.2471 2.4541 -2.2310 0.9721
6.0585 3.0300 -2.2517 0.9719
5.8106 3.5879 -2.2700 0.9716
3.6378 4.6880 -1.9725 0.9753
3.1552 4.9173 -1.9421 0.9757
1.7409 5.5840 -1.9443 0.9756
0.6636 3.0713 -1.0445 0.9868
0.3744 3.0194 -1.0114 0.9873
-0.3646 6.5633 -2.1850 0.9727
-1.5445 6.4697 -2.2110 0.9724
-3.0935 5.6275 -2.1346 0.9733
-3.5377 5.2602 -2.1072 0.9736
-3.9403 4.8580 -2.0792 0.9740
-4.2994 4.4259 -2.0511 0.9743
-2.4027 2.0672 -1.0536 0.9867
-4.8814 3.4926 -1.9952 0.9750
-5.6878 2.6930 -2.0919 0.9738
-5.8274 2.1455 -2.0642 0.9742
-5.8259 -0.5514 -1.9452 0.9756
-5.5291 -1.5494 -1.9087 0.9761
-5.0857 -2.4697 -1.8793 0.9765
-4.5120 -3.2961 -1.8574 0.9767
-4.1812 -3.6698 -1.8493 0.9768
-3.8239 -4.0151 -1.8431 0.9769
-2.1698 -5.0850 -1.8377 0.9770
-1.7103 -5.2686 -1.8413 0.9769
-1.2366 -5.4163 -1.8467 0.9769
-0.7509 -5.5272 -1.8541 0.9768
0.7545 -5.6288 -1.8878 0.9763
1.2641 -5.5827 -1.9027 0.9762
1.7730 -5.4954 -1.9194 0.9760
2.2785 -5.3663 -1.9379 0.9757
4.1998 -4.4256 -2.0281 0.9746
5.0497 -3.7029 -2.0815 0.9740
5.3670 -2.6182 -1.9850 0.9751
6.1169 -1.1484 -2.0688 0.9741
6.3912 -0.0430 -2.1245 0.9734
6.4504 0.5346 -2.1515 0.9731
6.4540 1.1219 -2.1775 0.9728
6.3998 1.7131 -2.2022 0.9725
6.2865 2.3017 -2.2253 0.9722
5.8810 3.4444 -2.2655 0.9717
5.3960 3.8461 -2.2027 0.9725
3.7665 4.6267 -1.9831 0.9752
3.2799 4.8581 -1.9485 0.9756
2.7831 5.0414 -1.9142 0.9760
2.3368 5.3040 -1.9266 0.9759
1.8654 5.5257 -1.9386 0.9757
0.4185 2.8321 -0.9516 0.9880
0.3572 6.2292 -2.0740 0.9740
-0.8168 6.6859 -2.2390 0.9720
-1.3968 6.5217 -2.2170 0.9723
-4.8159 3.6187 -2.0024 0.9749
-5.4297 3.3662 -2.1236 0.9734
-5.6433 2.8350 -2.0993 0.9737
-5.7957 2.2888 -2.0713 0.9741
-5.8994 1.7392 -2.0444 0.9744
-5.9555 1.1903 -2.0188 0.9747
-5.9654 0.6458 -1.9945 0.9750
-5.8530 -0.4164 -1.9505 0.9756
-5.7343 -0.9280 -1.9309 0.9758
-5.5765 -1.4231 -1.9131 0.9760
-5.1514 -2.3546 -1.8827 0.9764
-4.8881 -2.7867 -1.8703 0.9766
-4.5937 -3.1941 -1.8598 0.9767
-4.2702 -3.5749 -1.8512 0.9768
-3.5441 -4.2511 -1.8397 0.9769
-0.8788 -5.5019 -1.8520 0.9768
0.6216 -5.6341 -1.8842 0.9764
1.1309 -5.5987 -1.8986 0.9762
3.1396 -5.0410 -1.9741 0.9753
4.0820 -4.5077 -2.0215 0.9747
5.2853 -2.7329 -1.9778 0.9752
5.8467 -1.7981 -2.0333 0.9745
6.2413 -0.7495 -2.0896 0.9739
6.4585 0.9680 -2.1708 0.9728
-1.6991 -4.9083 -1.8575 0.9782
-1.2572 -5.0534 -1.8622 0.9781
0.6035 -5.2772 -1.8995 0.9777
1.0801 -5.2398 -1.9132 0.9775
1.5562 -5.1636 -1.9286 0.9774
2.0289 -5.0483 -1.9456 0.9772
2.9524 -4.6987 -1.9844 0.9767
4.6193 -3.5269 -2.0783 0.9756
4.9703 -3.1346 -2.1014 0.9753
4.9234 -2.5210 -1.9780 0.9768
5.4310 -1.6466 -2.0295 0.9762
5.6275 -1.1698 -2.0555 0.9759
5.7815 -0.6709 -2.0814 0.9756
5.8897 -0.1538 -2.1069 0.9753
5.9496 0.3772 -2.1319 0.9750
5.9150 1.4611 -2.1788 0.9744
5.8176 2.0030 -2.2003 0.9742
5.6658 2.5371 -2.2200 0.9740
5.2008 3.5571 -2.2532 0.9736
4.8904 4.0305 -2.2663 0.9734
2.9043 5.0281 -2.0765 0.9756
2.4354 5.2496 -2.0695 0.9757
1.4056 3.9121 -1.4866 0.9825
1.4875 5.6945 -2.1047 0.9753
0.4755 2.8368 -1.0286 0.9879
0.4737 6.1666 -2.2117 0.9741
-0.0799 6.2600 -2.2388 0.9738
-0.6336 6.1789 -2.2212 0.9740
-1.1561 5.9592 -2.1708 0.9745
-1.6910 5.8576 -2.1803 0.9744
-2.1843 5.6238 -2.1575 0.9747
-2.6480 5.3461 -2.1335 0.9750
-3.0786 5.0289 -2.1086 0.9753
-3.4728 4.6766 -2.0831 0.9756
-3.8284 4.2937 -2.0572 0.9759
-4.4168 3.4547 -2.0053 0.9765
-4.6477 3.0076 -1.9797 0.9768
-5.5453 1.2205 -2.0305 0.9762
-5.5684 0.7122 -2.0075 0.9764
-5.2533 -1.2328 -1.9297 0.9773
-3.4031 -3.9249 -1.8577 0.9782
-3.0340 -4.2062 -1.8546 0.9782
-2.2366 -4.6773 -1.8540 0.9782
-1.8123 -4.8648 -1.8565 0.9782
-0.9231 -5.1384 -1.8669 0.9781
-0.4625 -5.2224 -1.8749 0.9780
0.0058 -5.2701 -1.8846 0.9779
0.4793 -5.2807 -1.8962 0.9777
1.9060 -5.0822 -1.9410 0.9772
3.2821 -4.5293 -2.0003 0.9765
3.7150 -4.2657 -2.0229 0.9763
4.1292 -3.9631 -2.0467 0.9760
4.5211 -3.6221 -2.0717 0.9757
4.8849 -3.2426 -2.0967 0.9754
2.3028 -0.9931 -0.8968 0.9894
5.3730 -1.7671 -2.0227 0.9763
5.5802 -1.2966 -2.0487 0.9760
5.8661 -0.2904 -2.1003 0.9754
5.9388 0.2375 -2.1254 0.9751
5.2734 3.4289 -2.2494 0.9736
3.4656 4.6881 -2.0848 0.9755
3.0275 4.9697 -2.0810 0.9756
-0.4902 6.2054 -2.2260 0.9739
-1.0021 5.8990 -2.1397 0.9749
-1.5579 5.9110 -2.1860 0.9744
-2.0582 5.6892 -2.1636 0.9746
-2.5300 5.4226 -2.1398 0.9749
-2.9695 5.1153 -2.1152 0.9752
-4.0652 3.9938 -2.0379 0.9761
-2.4418 2.0035 -1.1295 0.9867
-4.5915 3.1257 -1.9863 0.9767
-5.1538 2.8711 -2.1097 0.9752
-5.3310 2.3733 -2.0868 0.9755
-5.4541 1.8646 -2.0612 0.9758
-5.5665 0.8445 -2.0134 0.9764
-5.5086 -0.1559 -1.9707 0.9769
-5.1294 -1.5674 -1.9180 0.9775
-4.9319 -2.0042 -1.9038 0.9776
-4.7020 -2.4206 -1.8912 0.9778
-4.4415 -2.8147 -1.8804 0.9779
-4.1524 -3.1848 -1.8714 0.9780
-3.4959 -3.8467 -1.8588 0.9782
-0.5836 -5.2040 -1.8726 0.9780
-0.1171 -5.2613 -1.8819 0.9779
0.3553 -5.2816 -1.8930 0.9778
0.8311 -5.2641 -1.9058 0.9776
1.7827 -5.1134 -1.9365 0.9773
3.1665 -4.5916 -1.9946 0.9766
4.4211 -3.7148 -2.0650 0.9758
5.0574 -2.3226 -1.9902 0.9766
5.5300 -1.4218 -2.0419 0.9760
5.8391 -0.4259 -2.0936 0.9754
5.9245 0.0984 -2.1189 0.9751
5.9603 0.6344 -2.1435 0.9749
5.8752 1.7206 -2.1893 0.9743
5.0587 3.7869 -2.2598 0.9735
4.6626 4.1897 -2.2417 0.9737
3.4365 4.4286 -2.0046 0.9765
0.6559 3.0358 -1.1107 0.9869
0.3735 3.0124 -1.0855 0.9872
-0.8616 5.9038 -2.1336 0.9750
-3.2716 4.8647 -2.0965 0.9754
-2.4036 2.0680 -1.1339 0.9866
-5.0973 2.9977 -2.1147 0.9752
-5.2914 2.5053 -2.0936 0.9754
-5.5617 0.9771 -2.0194 0.9763
-5.5643 0.4712 -1.9970 0.9766
-5.5254 -0.0273 -1.9760 0.9768
-5.3292 -0.9907 -1.9384 0.9772
-4.7650 -2.3140 -1.8943 0.9777
-4.2306 -3.0906 -1.8736 0.9780
-3.9215 -3.4419 -1.8659 0.9781
-3.2295 -4.0630 -1.8560 0.9782
-2.8503 -4.3300 -1.8538 0.9782
-2.4518 -4.5664 -1.8535 0.9782
-1.6045 -4.9427 -1.8583 0.9782
-0.7042 -5.1830 -1.8705 0.9780
-0.2396 -5.2498 -1.8793 0.9779
0.2315 -5.2799 -1.8899 0.9778
1.1834 -5.2266 -1.9164 0.9775
1.6590 -5.1420 -1.9321 0.9773
4.3195 -3.8049 -2.0585 0.9758
5.0394 -3.0433 -2.1052 0.9753
4.9851 -2.4319 -1.9835 0.9767
5.4770 -1.5454 -2.0351 0.9761
5.8089 -0.5603 -2.0870 0.9755
5.9069 -0.0398 -2.1124 0.9752
5.9559 0.4936 -2.1372 0.9749
5.9537 1.0350 -2.1610 0.9747
5.4082 3.1674 -2.2413 0.9737
