ply
format ascii 1.0
element vertex 1581
property float32 x
property float32 y
property float32 z
property float32 I
end_header
2.3611 -0.9661 -0.0144 0.9898
14.4300 0.8391 -0.0814 0.9438
7.4536 3.2864 -0.0459 0.9679
5.9237 3.9995 -0.0402 0.9718
5.1160 4.1639 -0.0371 0.9740
4.5085 4.3933 -0.0354 0.9751
3.9723 4.6304 -0.0343 0.9759
3.4890 4.8898 -0.0338 0.9763
2.4088 5.1012 -0.0318 0.9777
1.5332 5.7044 -0.0333 0.9766
0.4973 5.9075 -0.0334 0.9766
-1.2569 6.7572 -0.0387 0.9729
14.1270 0.9365 -0.3987 0.9449
9.7045 2.4241 -0.2817 0.9608
8.6624 3.0067 -0.2582 0.9640
5.8940 4.0493 -0.2014 0.9718
3.9677 4.7016 -0.1732 0.9757
2.8275 4.9116 -0.1596 0.9776
1.9200 5.3636 -0.1604 0.9775
1.4864 5.7149 -0.1663 0.9766
-0.6529 6.3338 -0.1793 0.9748
-1.3165 6.7713 -0.1942 0.9728
11.5158 -1.6800 -0.3277 0.9545
11.6284 1.4378 -0.3299 0.9542
8.8420 2.7508 -0.2607 0.9636
7.7126 3.1785 -0.2349 0.9672
6.7741 3.5284 -0.2151 0.9699
6.1646 3.9469 -0.2061 0.9711
3.6273 4.8303 -0.1701 0.9761
2.5709 5.1179 -0.1613 0.9773
2.0930 5.2983 -0.1604 0.9775
1.6537 5.6046 -0.1645 0.9769
1.1684 5.8349 -0.1676 0.9765
0.1151 6.0444 -0.1702 0.9761
-0.4401 6.2536 -0.1765 0.9752
2.3756 -0.8832 -0.0714 0.9899
15.1353 0.0190 -0.4262 0.9412
10.9930 1.9987 -0.3146 0.9563
8.3458 3.1266 -0.2510 0.9650
7.1006 3.4102 -0.2218 0.9690
5.6988 4.1232 -0.1981 0.9722
3.8202 4.7574 -0.1718 0.9759
2.7465 5.0516 -0.1619 0.9773
1.7901 5.4127 -0.1605 0.9774
1.3507 5.7661 -0.1668 0.9766
0.8380 5.9123 -0.1681 0.9764
0.3078 5.9717 -0.1684 0.9764
-0.8424 6.5928 -0.1871 0.9738
-1.4946 6.7992 -0.1960 0.9725
-2.6758 1.6433 -0.0884 0.9875
2.3562 -0.9641 -0.0717 0.9899
11.5696 1.7176 -0.3293 0.9543
8.6738 2.9321 -0.2578 0.9640
6.5458 3.6149 -0.2106 0.9705
5.9155 3.9939 -0.2010 0.9718
5.1093 4.1585 -0.1855 0.9740
4.5029 4.3878 -0.1770 0.9752
3.4850 4.8841 -0.1689 0.9763
2.4061 5.0955 -0.1587 0.9777
1.5314 5.6979 -0.1661 0.9767
1.0304 5.8869 -0.1683 0.9764
-0.0325 6.1000 -0.1718 0.9759
-1.2553 6.7483 -0.1933 0.9729
-2.5887 1.7080 -0.0873 0.9877
2.3447 -0.9373 -0.1281 0.9899
15.5553 -0.3594 -0.7891 0.9396
11.3644 1.7814 -0.5834 0.9550
9.6853 2.4193 -0.5063 0.9608
8.6472 3.0014 -0.4642 0.9640
7.3427 3.3088 -0.4084 0.9683
5.0452 4.1748 -0.3321 0.9741
2.3605 5.1059 -0.2853 0.9777
0.9830 5.8976 -0.3032 0.9763
0.4493 5.9112 -0.3006 0.9765
-0.0821 6.1113 -0.3100 0.9758
-0.6521 6.3258 -0.3225 0.9749
-1.9713 6.8217 -0.3601 0.9720
11.5007 -1.6778 -0.5894 0.9545
14.9222 0.5034 -0.7572 0.9420
10.5575 2.2758 -0.5477 0.9577
6.7639 3.5231 -0.3868 0.9699
4.6570 4.3219 -0.3222 0.9749
2.5680 5.1121 -0.2901 0.9773
0.1150 6.0371 -0.3062 0.9761
-0.4395 6.2458 -0.3175 0.9752
-9.0771 -9.7506 -0.6756 0.9480
9.3006 2.5655 -0.4893 0.9621
7.0895 3.4049 -0.3989 0.9690
6.3122 3.7583 -0.3726 0.9710
5.6911 4.1176 -0.3562 0.9723
4.8759 4.2389 -0.3277 0.9745
3.8157 4.7517 -0.3091 0.9759
3.2942 4.9490 -0.3015 0.9765
1.7880 5.4065 -0.2888 0.9775
-0.2332 6.1682 -0.3130 0.9756
-1.4951 6.8015 -0.3532 0.9725
-2.1771 6.8990 -0.3669 0.9714
-2.6726 1.6414 -0.1591 0.9875
2.3513 -0.9621 -0.1288 0.9899
9.8194 2.3684 -0.5123 0.9604
8.6718 2.9314 -0.4642 0.9640
5.1026 4.1530 -0.3337 0.9740
4.4973 4.3823 -0.3185 0.9752
3.9681 4.6255 -0.3091 0.9759
3.4809 4.8784 -0.3039 0.9763
2.9012 4.9463 -0.2908 0.9773
2.4033 5.0897 -0.2854 0.9777
1.9610 5.3413 -0.2886 0.9775
1.0292 5.8802 -0.3027 0.9764
-0.0324 6.0926 -0.3090 0.9759
-1.9045 6.7966 -0.3580 0.9721
-1.0619 -17.7859 -1.3064 0.9310
3.9354 -18.6232 -1.3957 0.9265
5.7440 -18.7313 -1.4365 0.9244
9.6661 2.4146 -0.7305 0.9608
7.3310 3.3035 -0.5896 0.9683
3.9582 4.6904 -0.4500 0.9757
2.8211 4.9004 -0.4146 0.9776
-0.0820 6.1039 -0.4476 0.9758
-0.6513 6.3178 -0.4657 0.9748
-1.3130 6.7534 -0.5044 0.9728
-1.9686 6.8121 -0.5199 0.9720
-2.6010 1.6860 -0.2273 0.9876
-17.0599 -7.3569 -1.3622 0.9282
-15.9775 -8.6548 -1.3323 0.9297
-12.5219 -12.0051 -1.2719 0.9328
-11.3010 -12.9587 -1.2607 0.9334
-7.4163 -15.3810 -1.2520 0.9338
-6.0406 -16.0487 -1.2573 0.9335
-1.6290 -17.6369 -1.2987 0.9314
3.2969 -18.5614 -1.3823 0.9272
11.4883 -1.6760 -0.8513 0.9545
11.6237 1.4372 -0.8588 0.9541
10.5356 2.2711 -0.7902 0.9577
8.8097 2.7407 -0.6765 0.9637
7.6872 3.1680 -0.6096 0.9672
6.7536 3.5178 -0.5583 0.9699
6.1472 3.9359 -0.5352 0.9711
4.6511 4.3164 -0.4653 0.9749
2.0883 5.2864 -0.4168 0.9775
1.6128 5.4658 -0.4178 0.9774
0.1148 6.0299 -0.4422 0.9761
-0.4390 6.2381 -0.4585 0.9752
-1.0722 6.6630 -0.4948 0.9733
-19.4671 -3.8669 -1.4553 0.9235
-16.3752 -8.1942 -1.3426 0.9292
-9.0593 -9.7315 -0.9749 0.9481
-7.9060 -15.1212 -1.2511 0.9339
-6.5459 -15.8139 -1.2549 0.9337
-2.1886 -17.4782 -1.2915 0.9318
-0.6313 -17.8913 -1.3126 0.9307
0.9857 -18.2293 -1.3386 0.9294
2.6680 -18.4880 -1.3696 0.9278
15.1012 0.0190 -1.1073 0.9412
9.2828 2.5606 -0.7061 0.9621
6.3104 3.7572 -0.5385 0.9710
4.8697 4.2335 -0.4731 0.9745
4.2847 4.4554 -0.4532 0.9755
2.2611 5.2211 -0.4172 0.9774
0.8365 5.9019 -0.4371 0.9764
0.3071 5.9576 -0.4374 0.9764
-0.2329 6.1606 -0.4520 0.9756
-0.8402 6.5759 -0.4861 0.9738
-1.4956 6.8038 -0.5108 0.9724
-2.1740 6.8891 -0.5297 0.9714
-18.8412 -4.8694 -1.4269 0.9249
-17.8240 -6.3493 -1.3873 0.9269
-16.7682 -7.7208 -1.3535 0.9286
-15.6761 -8.9922 -1.3251 0.9301
-14.5492 -10.1708 -1.3016 0.9313
-13.3879 -11.2626 -1.2828 0.9322
-10.9618 -13.2058 -1.2584 0.9335
-8.3902 -14.8522 -1.2507 0.9339
-7.0453 -15.5700 -1.2531 0.9338
-5.6576 -16.2190 -1.2595 0.9334
-2.7409 -17.3100 -1.2850 0.9321
-1.2042 -17.7496 -1.3044 0.9311
5.5765 -18.7253 -1.4326 0.9246
2.3481 -0.9608 -0.1860 0.9899
15.8618 -0.4952 -1.1636 0.9383
14.3107 0.8322 -1.0511 0.9441
5.8992 3.9829 -0.5219 0.9719
5.0960 4.1476 -0.4818 0.9740
4.4917 4.3769 -0.4598 0.9752
3.4768 4.8727 -0.4389 0.9763
2.8978 4.9407 -0.4200 0.9773
1.9588 5.3352 -0.4167 0.9775
1.0280 5.8734 -0.4372 0.9764
-0.0324 6.0852 -0.4462 0.9759
-0.5976 6.2977 -0.4638 0.9749
-1.2520 6.7305 -0.5020 0.9729
-10.1598 -13.7608 -1.2542 0.9337
-8.8691 -14.5740 -1.2509 0.9339
-6.1673 -15.9909 -1.2567 0.9336
-3.2861 -17.1324 -1.2791 0.9324
-1.7694 -17.5982 -1.2968 0.9315
-0.1963 -17.9911 -1.3192 0.9304
6.7650 -18.7496 -1.4615 0.9232
1.7114 -14.3186 -1.3844 0.9437
3.0452 -14.4107 -1.4141 0.9425
6.2743 -15.4019 -1.5966 0.9354
9.4766 -14.9343 -1.6981 0.9314
11.1527 -14.5274 -1.7583 0.9290
14.6504 -13.3093 -1.9003 0.9235
2.3424 -0.9364 -0.2422 0.9899
9.6470 2.4098 -0.9546 0.9608
5.0321 4.1639 -0.6271 0.9741
3.4260 4.8847 -0.5728 0.9763
2.3552 5.0943 -0.5388 0.9777
1.9135 5.3455 -0.5451 0.9774
0.2231 2.9354 -0.2826 0.9882
-0.0819 6.0965 -0.5853 0.9758
-1.3112 6.7444 -0.6596 0.9728
-2.6009 1.6859 -0.2976 0.9876
-18.6008 4.1191 -1.8290 0.9263
-18.1959 2.3536 -1.7614 0.9289
-17.7029 0.6967 -1.7009 0.9313
-16.4927 -2.3117 -1.5989 0.9353
-15.7916 -3.6734 -1.5565 0.9369
-14.2277 -6.1355 -1.4875 0.9396
-13.3737 -7.2444 -1.4602 0.9407
-12.4762 -8.2767 -1.4374 0.9416
-9.8372 -9.4312 -1.3083 0.9467
-7.9085 -10.8952 -1.2925 0.9473
-6.8919 -11.5346 -1.2900 0.9474
-5.8406 -12.1130 -1.2910 0.9474
1.2370 -14.2663 -1.3748 0.9441
2.5553 -14.3862 -1.4028 0.9430
5.3228 -14.3859 -1.4726 0.9402
12.2451 -14.2013 -1.8002 0.9274
11.4845 -1.6754 -1.1142 0.9544
14.9164 0.5032 -1.4329 0.9418
11.6213 1.4369 -1.1242 0.9540
8.7935 2.7357 -0.8841 0.9637
7.6744 3.1628 -0.7969 0.9672
6.0924 3.9007 -0.6945 0.9713
4.6452 4.3110 -0.6084 0.9749
4.0517 4.4965 -0.5811 0.9760
3.0273 4.8847 -0.5517 0.9772
2.5622 5.1005 -0.5480 0.9773
0.1147 6.0227 -0.5783 0.9761
-18.3539 2.9827 -1.7852 0.9280
-17.8917 1.2869 -1.7221 0.9305
-16.7327 -1.7937 -1.6156 0.9346
-16.0532 -3.1888 -1.5713 0.9363
-14.5268 -5.7127 -1.4986 0.9392
-13.6894 -6.8502 -1.4696 0.9403
-12.8074 -7.9100 -1.4452 0.9413
-11.8834 -8.8952 -1.4251 0.9421
-10.9194 -9.8086 -1.4092 0.9427
-7.2656 -11.3092 -1.2905 0.9474
-4.0439 -12.9281 -1.3005 0.9470
-2.8983 -13.3447 -1.3110 0.9466
3.4167 -14.4222 -1.4229 0.9422
4.8063 -14.4113 -1.4585 0.9408
6.6994 -15.3632 -1.6091 0.9349
8.2891 -15.1550 -1.6584 0.9329
9.9289 -14.8355 -1.7138 0.9308
11.6185 -14.3943 -1.7759 0.9284
13.3569 -13.8192 -1.8451 0.9257
2.3803 -0.8849 -0.2438 0.9898
15.0915 0.0190 -1.4489 0.9412
11.8585 1.0768 -1.1432 0.9533
9.2650 2.5557 -0.9227 0.9621
8.2407 3.0872 -0.8448 0.9653
7.0674 3.3943 -0.7527 0.9690
6.3085 3.7561 -0.7049 0.9709
5.6330 4.0756 -0.6675 0.9724
2.7371 5.0343 -0.5501 0.9772
1.7840 5.3943 -0.5455 0.9774
0.1521 2.9511 -0.2837 0.9882
-0.2326 6.1531 -0.5911 0.9756
-0.8328 6.5181 -0.6309 0.9739
-2.6662 1.6374 -0.3004 0.9875
-18.8329 5.4739 -1.8829 0.9242
-17.5545 0.2629 -1.6855 0.9319
-16.9643 -1.2631 -1.6332 0.9339
-15.5905 -4.0293 -1.5459 0.9373
-11.2745 -9.4847 -1.4145 0.9425
-9.5824 -9.6457 -1.3053 0.9468
-8.6259 -10.3918 -1.2966 0.9472
-6.6086 -11.6984 -1.2899 0.9474
-5.5477 -12.2603 -1.2919 0.9474
-4.4514 -12.7612 -1.2975 0.9471
-3.3191 -13.2005 -1.3068 0.9468
-0.9422 -13.8884 -1.3364 0.9456
1.5924 -14.3065 -1.3820 0.9438
4.2959 -14.4251 -1.4450 0.9413
6.1337 -15.4131 -1.5926 0.9355
7.7053 -15.2431 -1.6398 0.9337
10.9985 -14.5695 -1.7525 0.9293
14.4876 -13.3774 -1.8931 0.9238
2.3455 -0.9597 -0.2433 0.9899
15.8070 -0.4935 -1.5183 0.9384
14.2711 0.8299 -1.3724 0.9442
4.4861 4.3714 -0.6013 0.9751
2.8945 4.9350 -0.5493 0.9773
2.3979 5.0782 -0.5391 0.9777
1.9566 5.3292 -0.5450 0.9774
1.5262 5.6785 -0.5645 0.9766
0.2479 2.9456 -0.2838 0.9882
-0.0323 6.0779 -0.5835 0.9759
-0.5969 6.2897 -0.6066 0.9749
-1.2503 6.7216 -0.6564 0.9729
-1.8992 6.7776 -0.6757 0.9721
-2.5921 1.7102 -0.2981 0.9876
-18.6328 4.2849 -1.8355 0.9260
-17.1870 -0.7197 -1.6515 0.9332
-16.5534 -2.1835 -1.6030 0.9351
-14.3029 -6.0310 -1.4902 0.9395
-13.4531 -7.1469 -1.4625 0.9406
-11.6244 -9.1514 -1.4203 0.9423
-8.8761 -10.0130 -1.2846 0.9477
-4.8541 -12.5861 -1.2951 0.9472
-1.3858 -13.7828 -1.3299 0.9459
-0.1533 -14.0519 -1.3491 0.9451
1.1194 -14.2517 -1.3725 0.9442
2.4338 -14.3785 -1.4000 0.9431
3.7914 -14.4275 -1.4321 0.9418
7.1281 -15.3169 -1.6219 0.9344
1.4842 -12.4174 -1.4855 0.9509
2.7199 -12.8710 -1.5627 0.9484
4.0429 -13.1840 -1.6381 0.9460
7.9613 -12.5463 -1.7650 0.9419
9.3165 -12.1356 -1.8174 0.9402
10.6905 -11.6137 -1.8750 0.9384
12.0779 -10.9723 -1.9383 0.9364
13.4720 -10.2027 -2.0074 0.9342
2.3412 -0.9359 -0.2995 0.9899
17.5476 -5.2554 -2.1759 0.9289
18.7076 -3.8252 -2.2682 0.9260
12.6269 0.8370 -1.5032 0.9503
7.3075 3.2930 -0.9521 0.9682
6.4338 3.6214 -0.8770 0.9707
5.0256 4.1585 -0.7748 0.9741
4.4284 4.3857 -0.7403 0.9752
3.9487 4.6791 -0.7273 0.9756
2.8146 4.8891 -0.6701 0.9775
-1.3095 6.7354 -0.8151 0.9727
-1.9630 6.7929 -0.8399 0.9719
-14.4219 13.5355 -2.3494 0.9234
-2.6008 1.6858 -0.3682 0.9876
-15.5799 4.9430 -1.9416 0.9363
-15.4362 3.4183 -1.8780 0.9383
-14.8683 0.5852 -1.7675 0.9418
-13.4457 -3.1277 -1.6398 0.9459
-12.8468 -4.2266 -1.6065 0.9470
-12.1944 -5.2587 -1.5775 0.9479
-11.4927 -6.2254 -1.5526 0.9487
-10.7450 -7.1282 -1.5317 0.9494
-9.0217 -8.6493 -1.4846 0.9509
-5.9660 -9.9848 -1.3816 0.9542
-5.0553 -10.4844 -1.3826 0.9542
-3.1392 -11.3122 -1.3945 0.9538
-1.0994 -11.9031 -1.4199 0.9530
-0.0340 -12.1052 -1.4379 0.9524
2.2559 -12.7009 -1.5323 0.9494
3.5795 -13.1856 -1.6230 0.9465
6.1504 -12.9408 -1.7020 0.9439
7.4740 -12.6696 -1.7473 0.9425
8.8214 -12.2974 -1.7977 0.9409
14.3588 -9.6420 -2.0545 0.9327
15.7444 -8.6431 -2.1335 0.9302
18.2937 -4.3637 -2.2340 0.9270
18.5928 -1.0343 -2.2120 0.9277
14.9134 0.5031 -1.7725 0.9417
11.6189 1.4366 -1.3907 0.9539
8.7430 2.7200 -1.0876 0.9638
6.7332 3.5071 -0.9018 0.9699
6.1299 3.9247 -0.8646 0.9711
5.2574 4.0702 -0.7898 0.9736
4.6393 4.3055 -0.7518 0.9748
4.0467 4.4910 -0.7181 0.9759
3.6103 4.8076 -0.7142 0.9761
3.0238 4.8791 -0.6818 0.9771
1.6091 5.4534 -0.6754 0.9774
1.1630 5.8082 -0.7036 0.9764
0.1145 6.0154 -0.7147 0.9761
-0.4379 6.2225 -0.7410 0.9752
-14.7774 12.3681 -2.2890 0.9253
-15.4690 8.8217 -2.1153 0.9308
-15.2937 2.4853 -1.8405 0.9395
-14.1671 -1.5186 -1.6925 0.9442
-13.0710 -3.8349 -1.6181 0.9466
-12.4375 -4.8911 -1.5875 0.9476
-11.7533 -5.8814 -1.5612 0.9484
-11.0220 -6.8073 -1.5388 0.9492
-9.4300 -8.4707 -1.5057 0.9502
-7.1552 -9.2129 -1.3857 0.9541
-3.4968 -11.1789 -1.3913 0.9539
-2.5034 -11.5265 -1.4011 0.9536
-1.4793 -11.8139 -1.4143 0.9532
6.9898 -12.7795 -1.7303 0.9430
9.6897 -12.0046 -1.8325 0.9397
11.0679 -11.4509 -1.8917 0.9379
12.4578 -10.7754 -1.9566 0.9358
13.8523 -9.9693 -2.0273 0.9336
2.3836 -0.8861 -0.3021 0.9898
17.8706 -4.8810 -2.2005 0.9281
10.4901 1.9073 -1.2665 0.9580
7.0564 3.3890 -0.9299 0.9690
6.3067 3.7550 -0.8719 0.9709
5.6680 4.1009 -0.8310 0.9722
3.8021 4.7348 -0.7213 0.9758
3.2827 4.9318 -0.7037 0.9764
2.2560 5.2093 -0.6743 0.9774
1.7820 5.3882 -0.6741 0.9774
0.8379 5.9118 -0.7093 0.9762
-0.8381 6.5591 -0.7855 0.9737
-2.1677 6.8693 -0.8556 0.9714
-5.4633 13.1053 -1.6866 0.9444
-14.5829 13.0333 -2.3232 0.9242
-15.0647 11.2174 -2.2311 0.9271
-2.6630 1.6354 -0.3712 0.9875
-15.5674 7.7411 -2.0652 0.9324
-15.5509 4.5200 -1.9237 0.9368
-15.1146 1.5818 -1.8052 0.9406
-14.7650 0.2211 -1.7541 0.9423
-14.3393 -1.0676 -1.7080 0.9437
-12.6740 -4.5147 -1.5982 0.9472
-12.0077 -5.5289 -1.5703 0.9481
-11.2931 -6.4780 -1.5465 0.9489
-10.5335 -7.3635 -1.5266 0.9495
-8.6274 -8.6844 -1.4541 0.9519
-4.8013 -10.6109 -1.3835 0.9542
-3.8503 -11.0380 -1.3886 0.9540
-0.8117 -11.9646 -1.4245 0.9528
0.2619 -12.1490 -1.4435 0.9522
1.3778 -12.3783 -1.4794 0.9511
3.9283 -13.1906 -1.6349 0.9461
6.5090 -12.8764 -1.7138 0.9435
7.8393 -12.5784 -1.7606 0.9420
9.1926 -12.1774 -1.8124 0.9404
10.5651 -11.6659 -1.8696 0.9386
13.3453 -10.2781 -2.0009 0.9344
14.7381 -9.3841 -2.0754 0.9320
2.3429 -0.9586 -0.3007 0.9899
17.4392 -5.3773 -2.1678 0.9291
19.6949 -2.3849 -2.3566 0.9232
15.7572 -0.4919 -1.8726 0.9385
14.2317 0.8276 -1.6934 0.9442
11.2504 1.6702 -1.3510 0.9552
5.8828 3.9719 -0.8432 0.9718
2.3952 5.0724 -0.6663 0.9777
-0.0323 6.0705 -0.7211 0.9758
-1.8965 6.7680 -0.8349 0.9721
-14.3654 13.7032 -2.3583 0.9231
-2.5932 1.7110 -0.3690 0.9876
-15.5178 8.3554 -2.0935 0.9315
-15.6133 6.6866 -2.0176 0.9339
-14.0321 -1.8509 -1.6813 0.9446
-13.4973 -3.0245 -1.6430 0.9458
-12.9035 -4.1296 -1.6093 0.9469
-12.2558 -5.1677 -1.5799 0.9478
-11.5583 -6.1403 -1.5547 0.9486
-10.8147 -7.0489 -1.5334 0.9493
-9.1783 -8.6577 -1.4988 0.9504
-7.8916 -8.9025 -1.4132 0.9532
-4.1997 -10.8893 -1.3864 0.9541
-2.2270 -11.6109 -1.4044 0.9535
-1.1946 -11.8816 -1.4185 0.9530
0.9608 -12.2319 -1.4575 0.9518
3.4528 -13.1393 -1.6138 0.9467
4.7371 -13.1293 -1.6580 0.9453
6.0316 -12.9606 -1.6981 0.9440
0.3394 -11.4389 -1.6215 0.9548
5.7319 -11.1144 -1.7719 0.9507
9.1311 -9.9197 -1.9103 0.9470
11.3896 -8.6257 -2.0243 0.9439
16.0605 -1.8128 -2.2901 0.9368
12.5904 0.8346 -1.7878 0.9503
11.2609 1.7652 -1.6150 0.9550
9.4848 2.3693 -1.3852 0.9613
7.1544 3.2240 -1.1119 0.9688
5.8534 4.0215 -1.0062 0.9717
5.0190 4.1530 -0.9230 0.9740
3.9439 4.6735 -0.8665 0.9756
2.8113 4.8835 -0.7984 0.9775
2.3498 5.0827 -0.7934 0.9776
0.9785 5.8703 -0.8432 0.9762
-0.0817 6.0816 -0.8618 0.9757
-1.2979 6.6759 -0.9636 0.9729
-1.9520 6.7548 -0.9963 0.9720
-8.2859 16.7278 -2.6450 0.9274
-9.4227 15.3963 -2.5576 0.9297
-11.2144 12.5869 -2.3886 0.9342
-11.8798 11.1497 -2.3085 0.9363
-13.1984 5.5262 -2.0274 0.9438
-13.1815 2.9190 -1.9129 0.9469
-12.8066 0.5040 -1.8160 0.9495
-12.1324 -1.7005 -1.7358 0.9517
-11.6985 -2.7213 -1.7018 0.9526
-8.7477 -7.0023 -1.5876 0.9557
-7.2662 -8.3321 -1.5664 0.9563
-6.4710 -8.9148 -1.5608 0.9565
-4.7802 -9.9139 -1.5595 0.9565
-3.8877 -10.3288 -1.5637 0.9564
-2.9653 -10.6857 -1.5713 0.9562
-1.0362 -11.2194 -1.5964 0.9555
3.1228 -11.5033 -1.6889 0.9530
4.2156 -11.3936 -1.7213 0.9521
6.4478 -10.9301 -1.7981 0.9500
7.5802 -10.5672 -1.8426 0.9488
9.8539 -9.5538 -1.9447 0.9461
10.9826 -8.8929 -2.0023 0.9445
15.0040 -3.5790 -2.1856 0.9396
11.4768 -1.6743 -1.6434 0.9542
16.4924 -0.9174 -2.3404 0.9354
11.6165 1.4363 -1.6585 0.9538
10.1136 2.1802 -1.4659 0.9591
7.4263 3.0605 -1.1381 0.9681
6.6966 3.4881 -1.0698 0.9700
6.1053 3.9090 -1.0272 0.9711
5.2504 4.0647 -0.9408 0.9735
4.0418 4.4855 -0.8555 0.9759
1.6073 5.4471 -0.8047 0.9773
1.1617 5.8014 -0.8383 0.9764
0.6323 5.8139 -0.8286 0.9767
0.1144 6.0081 -0.8514 0.9760
-0.4373 6.2147 -0.8827 0.9751
-1.0680 6.6369 -0.9525 0.9732
-2.4045 6.8377 -1.0270 0.9711
-7.8320 17.1933 -2.6769 0.9265
-10.9353 13.1066 -2.4185 0.9334
-12.2280 10.2344 -2.2593 0.9376
-12.6634 8.8052 -2.1854 0.9396
-12.9702 7.3967 -2.1156 0.9415
-12.8986 0.9278 -1.8323 0.9491
-12.2749 -1.3158 -1.7492 0.9513
-11.8632 -2.3565 -1.7137 0.9523
-11.3921 -3.3423 -1.6822 0.9532
-10.8664 -4.2732 -1.6544 0.9539
-9.6671 -5.9705 -1.6099 0.9551
-6.7641 -8.7093 -1.5625 0.9564
-4.2157 -10.1846 -1.5618 0.9564
-3.3041 -10.5627 -1.5681 0.9563
-2.3634 -10.8820 -1.5778 0.9560
-1.3950 -11.1407 -1.5908 0.9557
0.6201 -11.4681 -1.6273 0.9547
1.6641 -11.5316 -1.6508 0.9540
2.7301 -11.5243 -1.6781 0.9533
4.9199 -11.2824 -1.7440 0.9515
8.3038 -10.2876 -1.8732 0.9480
9.4412 -9.7679 -1.9248 0.9466
2.3869 -0.8874 -0.3608 0.9898
15.5174 -2.7810 -2.2337 0.9383
16.2509 -1.4344 -2.3115 0.9362
15.0855 0.0190 -2.1375 0.9409
11.6716 1.0598 -1.6605 0.9538
10.7626 1.9568 -1.5499 0.9568
6.3048 3.7539 -1.0397 0.9708
5.6603 4.0953 -0.9899 0.9722
4.8509 4.2171 -0.9107 0.9744
3.7975 4.7291 -0.8594 0.9758
3.2789 4.9260 -0.8384 0.9764
2.7308 5.0228 -0.8101 0.9772
1.7799 5.3820 -0.8032 0.9774
0.1499 2.9077 -0.4125 0.9883
-0.2320 6.1379 -0.8703 0.9755
-0.8370 6.5506 -0.9357 0.9737
-1.4827 6.7448 -0.9785 0.9725
-2.1429 6.7906 -1.0089 0.9716
-5.4050 12.9653 -1.9903 0.9448
-9.7046 15.0224 -2.5340 0.9303
-10.6358 13.6234 -2.4489 0.9326
-11.4106 12.1956 -2.3664 0.9348
-12.0361 10.7571 -2.2872 0.9369
-12.5205 9.3230 -2.2118 0.9389
-2.6597 1.6335 -0.4423 0.9875
-13.1028 6.5156 -2.0734 0.9426
-13.2196 5.1603 -2.0107 0.9443
-13.2325 3.8461 -1.9525 0.9459
-12.9804 1.3584 -1.8492 0.9486
-12.4089 -0.9239 -1.7631 0.9510
-12.0200 -1.9844 -1.7262 0.9520
-11.0636 -3.9411 -1.6641 0.9537
-10.5053 -4.8371 -1.6387 0.9544
-9.8988 -5.6782 -1.6169 0.9549
-9.2476 -6.4647 -1.5987 0.9554
-8.5546 -7.1965 -1.5840 0.9558
-7.8222 -7.8738 -1.5726 0.9562
-7.0527 -8.4965 -1.5646 0.9564
-5.4099 -9.5766 -1.5584 0.9565
-3.6389 -10.4320 -1.5654 0.9563
-1.7503 -11.0538 -1.5857 0.9558
-0.7648 -11.2729 -1.6009 0.9554
2.3401 -11.5353 -1.6677 0.9536
3.4191 -11.4811 -1.6974 0.9528
6.7560 -10.8402 -1.8098 0.9497
7.8902 -10.4521 -1.8555 0.9485
9.0279 -9.9685 -1.9056 0.9471
11.2882 -8.6938 -2.0188 0.9441
2.3402 -0.9576 -0.3583 0.9898
15.2281 -3.2426 -2.2060 0.9390
15.9954 -1.9369 -2.2829 0.9370
14.1922 0.8253 -2.0143 0.9442
5.8746 3.9663 -1.0043 0.9718
3.4646 4.8555 -0.8452 0.9762
2.4262 5.1380 -0.8051 0.9773
1.9521 5.3171 -0.8025 0.9774
1.5227 5.6656 -0.8312 0.9766
-1.2446 6.6906 -0.9642 0.9729
-1.8895 6.7429 -0.9922 0.9721
-9.3262 15.5199 -2.5655 0.9295
-10.3156 14.1364 -2.4796 0.9317
-11.1466 12.7169 -2.3960 0.9340
-11.8254 11.2803 -2.3156 0.9361
-2.5944 1.7117 -0.4404 0.9875
-13.0328 7.0174 -2.0973 0.9420
-13.2393 4.3189 -1.9732 0.9453
-12.5341 -0.5249 -1.7775 0.9506
-12.1688 -1.6051 -1.7391 0.9516
-11.7404 -2.6308 -1.7047 0.9526
-11.2539 -3.6017 -1.6742 0.9534
-10.1247 -5.3787 -1.6244 0.9547
-8.0929 -7.6339 -1.5763 0.9560
-7.3367 -8.2764 -1.5671 0.9563
-5.7184 -9.3967 -1.5586 0.9565
-0.1242 -11.3792 -1.6124 0.9551
0.9027 -11.4923 -1.6333 0.9545
3.0245 -11.5095 -1.6861 0.9531
4.1157 -11.4068 -1.7182 0.9522
-0.6001 -10.0519 -1.6589 0.9600
0.3018 -10.1715 -1.6764 0.9596
5.0450 -9.7824 -1.8132 0.9564
6.9938 -9.1101 -1.8921 0.9545
8.9188 -8.1024 -1.9850 0.9523
11.6409 -5.9071 -2.1505 0.9485
12.2843 -3.6790 -2.1125 0.9493
13.5004 -1.5238 -2.2382 0.9464
12.5560 0.8323 -2.0730 0.9503
11.2350 1.7611 -1.8734 0.9549
9.5894 2.3954 -1.6283 0.9607
7.1255 3.2110 -1.2875 0.9688
4.4172 4.3747 -1.0242 0.9751
3.9391 4.6678 -1.0062 0.9755
3.4139 4.8675 -0.9794 0.9762
2.3602 5.1052 -0.9266 0.9775
1.9070 5.3272 -0.9321 0.9773
1.4763 5.6759 -0.9661 0.9765
-0.6399 6.2070 -1.0279 0.9750
-1.2306 6.3299 -1.0623 0.9742
-1.6532 5.7209 -0.9810 0.9761
-5.3578 13.7885 -2.4370 0.9418
-7.8750 12.8674 -2.4852 0.9407
-9.4752 10.6349 -2.3465 0.9439
-11.2447 5.9375 -2.0948 0.9498
-11.4194 4.7813 -2.0395 0.9511
-11.4997 3.6485 -1.9875 0.9523
-11.4030 1.4749 -1.8942 0.9545
-11.2383 0.4423 -1.8528 0.9554
-11.0037 -0.5502 -1.8150 0.9563
-8.9526 -4.8495 -1.6773 0.9596
-8.3952 -5.5693 -1.6597 0.9600
-7.7965 -6.2409 -1.6452 0.9603
-7.1591 -6.8636 -1.6338 0.9606
-5.0384 -8.4324 -1.6182 0.9610
-4.2687 -8.8530 -1.6191 0.9609
-3.4706 -9.2208 -1.6231 0.9608
-1.7961 -9.7926 -1.6401 0.9604
-0.9230 -9.9934 -1.6533 0.9601
-0.0284 -10.1351 -1.6697 0.9597
1.8174 -10.2319 -1.7120 0.9587
3.7232 -10.0626 -1.7675 0.9574
5.6651 -9.6032 -1.8368 0.9558
6.6400 -9.2565 -1.8767 0.9549
7.6112 -8.8271 -1.9201 0.9538
8.5728 -8.3117 -1.9671 0.9527
9.5181 -7.7071 -2.0176 0.9516
10.4394 -7.0102 -2.0716 0.9503
12.1359 -5.3144 -2.1826 0.9477
12.7048 -3.0306 -2.1517 0.9484
11.4809 -1.6749 -1.9114 0.9541
7.5117 3.0957 -1.3384 0.9676
5.7548 3.6846 -1.1257 0.9727
5.1764 4.0075 -1.0784 0.9738
4.0320 4.4747 -0.9923 0.9759
1.6054 5.4409 -0.9345 0.9773
1.1604 5.7947 -0.9736 0.9763
0.6316 5.8070 -0.9623 0.9766
-1.0115 6.2860 -1.0489 0.9745
-1.4691 5.7812 -0.9827 0.9761
-7.5300 13.2515 -2.5109 0.9401
-8.4386 12.1764 -2.4406 0.9417
-9.8804 9.8957 -2.3037 0.9449
-10.4191 8.7204 -2.2383 0.9464
-10.8425 7.5391 -2.1755 0.9479
-11.3671 5.1993 -2.0592 0.9506
-11.4810 4.0573 -2.0060 0.9518
-11.5047 2.9425 -1.9563 0.9530
-11.4445 1.8598 -1.9101 0.9541
-11.3066 0.8133 -1.8675 0.9551
-11.0968 -0.1941 -1.8284 0.9560
-10.8205 -1.1599 -1.7928 0.9568
-10.0881 -2.9597 -1.7319 0.9583
-8.6028 -5.3132 -1.6657 0.9598
-8.0188 -6.0023 -1.6501 0.9602
-5.3109 -8.2666 -1.6187 0.9610
-4.5519 -8.7062 -1.6184 0.9610
-3.7640 -9.0933 -1.6213 0.9609
-2.9487 -9.4268 -1.6272 0.9607
-2.1078 -9.7053 -1.6361 0.9605
-1.2430 -9.9271 -1.6482 0.9603
-0.3561 -10.0906 -1.6633 0.9599
0.5512 -10.1934 -1.6817 0.9595
1.4768 -10.2334 -1.7033 0.9590
2.4183 -10.2079 -1.7282 0.9584
3.3732 -10.1142 -1.7564 0.9577
4.3385 -9.9491 -1.7881 0.9570
5.3107 -9.7095 -1.8232 0.9561
7.2588 -8.9930 -1.9039 0.9542
8.2247 -8.5093 -1.9496 0.9532
10.1078 -7.2744 -2.0515 0.9508
11.0092 -6.5175 -2.1076 0.9495
11.8717 -5.6649 -2.1670 0.9481
12.4680 -3.4054 -2.1292 0.9490
13.0953 -2.3469 -2.1917 0.9475
13.6401 -1.2039 -2.2558 0.9460
11.6412 1.0571 -1.9257 0.9537
7.9316 2.9714 -1.3953 0.9662
6.8481 3.2889 -1.2515 0.9697
6.0185 3.5835 -1.1539 0.9720
4.8262 4.1957 -1.0535 0.9744
1.3414 5.7266 -0.9689 0.9764
0.8366 5.9021 -0.9820 0.9761
-1.4046 6.3895 -1.0777 0.9738
-6.6524 12.6459 -2.3539 0.9437
-8.9513 11.4657 -2.3963 0.9427
-9.6549 10.3191 -2.3280 0.9443
-2.6565 1.6315 -0.5136 0.9874
-11.3021 5.6201 -2.0794 0.9501
-11.5061 3.3443 -1.9740 0.9526
-11.4757 2.2495 -1.9265 0.9537
-10.2379 -2.6459 -1.7420 0.9580
-9.8092 -3.4943 -1.7154 0.9587
-8.8048 -5.0507 -1.6722 0.9597
-7.6263 -6.4156 -1.6418 0.9604
-6.9789 -7.0249 -1.6313 0.9607
-5.5793 -8.0940 -1.6195 0.9609
-3.2482 -9.3118 -1.6247 0.9608
-2.4164 -9.6105 -1.6325 0.9606
-1.5601 -9.8531 -1.6434 0.9604
1.1383 -10.2263 -1.6951 0.9591
4.9566 -9.8054 -1.8100 0.9564
6.9056 -9.1477 -1.8882 0.9546
9.7722 -7.5262 -2.0320 0.9512
2.3376 -0.9565 -0.4161 0.9898
11.4095 1.6938 -1.9002 0.9543
9.7210 2.3447 -1.6474 0.9603
8.3909 2.8364 -1.4591 0.9647
5.5918 3.7754 -1.1115 0.9730
5.0249 4.0897 -1.0673 0.9741
4.4691 4.3549 -1.0280 0.9750
3.4605 4.8498 -0.9815 0.9761
2.4234 5.1321 -0.9350 0.9773
1.5210 5.6590 -0.9654 0.9765
0.2354 2.7962 -0.4623 0.9887
-0.0322 6.0556 -0.9976 0.9757
-1.5960 5.6957 -0.9744 0.9763
-6.3014 12.9852 -2.3777 0.9432
-11.2239 6.0434 -2.1000 0.9496
-11.4963 2.6438 -1.9433 0.9533
-11.4143 1.5706 -1.8981 0.9544
-11.2563 0.5344 -1.8564 0.9553
-11.0278 -0.4618 -1.8183 0.9562
-9.5100 -4.0100 -1.7003 0.9590
-7.8525 -6.1819 -1.6464 0.9603
-6.5481 -7.3869 -1.6262 0.9608
-4.3398 -8.8170 -1.6189 0.9609
-2.7218 -9.5082 -1.6293 0.9607
-1.8742 -9.7715 -1.6391 0.9605
-0.1105 -10.1247 -1.6680 0.9598
2.6776 -10.1893 -1.7356 0.9582
3.6356 -10.0764 -1.7647 0.9575
4.6032 -9.8913 -1.7973 0.9567
1.0985 -9.1904 -1.7397 0.9630
1.9379 -9.1706 -1.7618 0.9626
3.6428 -8.9421 -1.8149 0.9615
4.5015 -8.7286 -1.8460 0.9608
6.2113 -8.0908 -1.9172 0.9593
7.0528 -7.6618 -1.9574 0.9585
7.8776 -7.1565 -2.0004 0.9576
8.6792 -6.5730 -2.0464 0.9567
2.3377 -0.9345 -0.4732 0.9898
10.6674 -3.1948 -2.0930 0.9557
11.1865 -2.2873 -2.1461 0.9546
11.9945 -0.2771 -2.2551 0.9523
12.2623 0.8129 -2.3099 0.9512
9.5701 2.3906 -1.8541 0.9606
8.3000 2.8809 -1.6514 0.9649
7.2721 3.2770 -1.4992 0.9681
5.5313 3.8002 -1.2614 0.9731
4.8581 4.0199 -1.1852 0.9747
4.2815 4.2403 -1.1326 0.9758
3.4098 4.8617 -1.1162 0.9761
2.8163 4.8921 -1.0610 0.9773
1.8812 5.2553 -1.0492 0.9775
1.4088 5.4164 -1.0519 0.9775
-0.0791 5.8876 -1.1067 0.9763
-0.6281 6.0925 -1.1512 0.9754
-1.7090 5.9138 -1.1570 0.9753
-4.5604 11.7364 -2.3667 0.9500
-8.7602 8.2218 -2.2582 0.9523
-10.0541 4.2096 -2.0487 0.9566
-10.1557 3.2221 -2.0026 0.9576
-9.8173 -0.4909 -1.8476 0.9608
-9.2660 -2.1554 -1.7881 0.9620
-8.9095 -2.9313 -1.7629 0.9625
-8.5042 -3.6673 -1.7407 0.9630
-7.0267 -5.6247 -1.6918 0.9640
-5.8521 -6.7105 -1.6736 0.9644
-5.2153 -7.1849 -1.6687 0.9645
-3.8533 -7.9915 -1.6676 0.9645
-2.3868 -8.6009 -1.6777 0.9643
-0.0256 -9.1210 -1.7144 0.9636
0.7962 -9.1826 -1.7324 0.9632
1.6314 -9.1849 -1.7534 0.9627
3.3311 -9.0030 -1.8043 0.9617
4.1892 -8.8141 -1.8343 0.9611
9.9215 -5.4466 -2.1274 0.9550
11.4794 -1.6747 -2.1805 0.9539
12.1765 0.4108 -2.2900 0.9516
10.1143 2.1803 -1.9448 0.9588
8.7286 2.7155 -1.7182 0.9635
6.6537 3.4657 -1.4101 0.9699
5.0857 3.9372 -1.2089 0.9742
3.9419 4.3747 -1.1068 0.9763
2.9868 4.8194 -1.0657 0.9772
2.0516 5.1935 -1.0496 0.9775
1.5813 5.3593 -1.0503 0.9775
0.1108 5.8167 -1.0935 0.9766
-1.4385 5.6610 -1.0979 0.9765
-4.2111 11.9753 -2.3860 0.9496
-5.1440 11.2924 -2.3324 0.9507
-6.7364 9.7203 -2.2229 0.9530
-9.4706 6.5852 -2.1681 0.9541
-9.9965 4.5724 -2.0662 0.9562
-10.1282 3.5792 -2.0191 0.9572
-10.1788 2.6034 -1.9748 0.9581
-10.1532 1.6500 -1.9334 0.9590
-10.0562 0.7233 -1.8950 0.9598
-9.8925 -0.1730 -1.8597 0.9605
-9.6666 -1.0362 -1.8273 0.9612
-9.3827 -1.8638 -1.7980 0.9618
-7.7439 -4.7827 -1.7108 0.9636
-7.2250 -5.4081 -1.6963 0.9639
-5.4504 -7.0178 -1.6702 0.9645
-4.7942 -7.4623 -1.6671 0.9645
-1.9008 -8.7518 -1.6834 0.9642
2.1687 -9.1545 -1.7683 0.9624
3.0200 -9.0552 -1.7942 0.9619
3.8769 -8.8906 -1.8231 0.9613
5.5924 -8.3561 -1.8899 0.9599
6.4422 -7.9812 -1.9279 0.9591
7.2797 -7.5316 -1.9688 0.9583
8.0989 -7.0051 -2.0127 0.9574
8.8930 -6.4001 -2.0594 0.9564
10.3657 -4.9463 -2.1588 0.9543
2.3937 -0.8899 -0.4800 0.9897
10.8157 -2.9541 -2.1074 0.9554
11.7399 -1.0362 -2.2152 0.9532
10.7149 1.9481 -2.0470 0.9566
7.0112 3.3672 -1.4619 0.9688
5.3353 3.8601 -1.2378 0.9736
4.1326 4.2972 -1.1206 0.9760
2.2217 5.1300 -1.0508 0.9775
1.7530 5.3005 -1.0494 0.9775
0.1429 2.7714 -0.5216 0.9888
-0.7874 6.1628 -1.1678 0.9750
-1.2770 5.8094 -1.1180 0.9761
-4.8150 11.5499 -2.3520 0.9503
-5.6911 10.8187 -2.2977 0.9515
-8.8969 7.9515 -2.2428 0.9526
-2.6533 1.6295 -0.5852 0.9874
-9.9275 4.9366 -2.0840 0.9559
-10.1710 1.9937 -1.9481 0.9587
-9.9594 0.1492 -1.8722 0.9603
-9.7556 -0.7264 -1.8388 0.9610
-9.4924 -1.5671 -1.8083 0.9616
-8.8036 -3.1360 -1.7566 0.9627
-7.4182 -5.1857 -1.7012 0.9638
-6.8748 -5.7834 -1.6886 0.9641
-6.2951 -6.3366 -1.6789 0.9643
-5.0362 -7.3062 -1.6679 0.9645
-4.3614 -7.7205 -1.6667 0.9646
-3.6591 -8.0864 -1.6683 0.9645
-1.4063 -8.8813 -1.6901 0.9641
1.0228 -9.1892 -1.7379 0.9631
3.5649 -8.9581 -1.8122 0.9615
4.4235 -8.7508 -1.8430 0.9609
6.9769 -7.7039 -1.9536 0.9586
7.8035 -7.2055 -1.9964 0.9577
8.6076 -6.6293 -2.0421 0.9567
11.5952 -1.4041 -2.1954 0.9536
11.9654 -0.3736 -2.2501 0.9524
12.2422 0.7119 -2.3049 0.9513
7.3577 3.2441 -1.5114 0.9678
5.5984 3.7798 -1.2697 0.9729
3.9553 4.6106 -1.1418 0.9756
3.4563 4.8440 -1.1185 0.9761
2.8589 4.8742 -1.0621 0.9773
2.3915 5.0645 -1.0527 0.9775
0.2322 2.7584 -0.5203 0.9888
-1.1797 6.3421 -1.2125 0.9741
-1.6865 6.0185 -1.1748 0.9749
-4.4742 11.7971 -2.3715 0.9499
-5.3831 11.0927 -2.3175 0.9511
-6.2008 10.3188 -2.2628 0.9522
-6.9244 9.4892 -2.2080 0.9533
-2.5967 1.7132 -0.5847 0.9874
-9.8470 5.3020 -2.1021 0.9555
-10.0407 4.3000 -2.0530 0.9565
-10.1336 1.3944 -1.9227 0.9592
-10.0179 0.4756 -1.8851 0.9600
-9.8368 -0.4119 -1.8506 0.9607
-9.2958 -2.0830 -1.7906 0.9620
-8.9439 -2.8624 -1.7651 0.9625
-8.5429 -3.6022 -1.7426 0.9630
-8.0959 -4.3009 -1.7231 0.9634
-7.0767 -5.5712 -1.6929 0.9640
-6.5099 -6.1407 -1.6821 0.9642
-4.6100 -7.5754 -1.6668 0.9646
-3.9175 -7.9590 -1.6674 0.9645
-0.0994 -9.1126 -1.7129 0.9636
0.7210 -9.1794 -1.7307 0.9632
1.5551 -9.1872 -1.7514 0.9628
3.2533 -9.0168 -1.8018 0.9617
4.1112 -8.8341 -1.8315 0.9611
0.2465 -8.3087 -1.7571 0.9666
0.9964 -8.3367 -1.7748 0.9663
1.7559 -8.3090 -1.7952 0.9659
4.0604 -7.8732 -1.8725 0.9644
4.8253 -7.6042 -1.9037 0.9638
7.0478 -6.4026 -2.0127 0.9618
9.4173 -2.8204 -2.0780 0.9606
10.4937 -0.2425 -2.2188 0.9580
10.6955 0.7090 -2.2658 0.9571
10.8054 1.6938 -2.3119 0.9563
9.5508 2.3857 -2.0809 0.9606
8.2850 2.8757 -1.8538 0.9648
4.9399 4.0876 -1.3553 0.9741
4.3214 4.2798 -1.2856 0.9754
3.9295 4.6563 -1.2879 0.9754
3.4057 4.8558 -1.2537 0.9760
2.3047 4.9850 -1.1609 0.9778
-0.0799 5.9495 -1.2577 0.9760
-1.2625 6.4936 -1.3983 0.9733
-4.7626 9.6149 -2.2681 0.9571
-7.1759 6.7348 -2.0803 0.9606
-2.6023 1.6868 -0.6555 0.9874
-8.7838 4.6381 -2.0997 0.9602
-9.0849 2.8824 -2.0147 0.9618
-9.1257 2.0208 -1.9757 0.9625
-9.0983 1.1768 -1.9392 0.9632
-8.6456 -1.2118 -1.8454 0.9649
-8.3837 -1.9502 -1.8195 0.9654
-8.0720 -2.6557 -1.7962 0.9659
-7.3123 -3.9610 -1.7579 0.9666
-5.8753 -5.6328 -1.7205 0.9673
-2.1723 -7.8280 -1.7172 0.9673
-1.4730 -8.0310 -1.7259 0.9672
0.7225 -8.3329 -1.7680 0.9664
3.0113 -8.1387 -1.8343 0.9651
4.5479 -7.7094 -1.8920 0.9641
5.3078 -7.3994 -1.9249 0.9635
6.0561 -7.0236 -1.9603 0.9628
6.7873 -6.5806 -1.9983 0.9621
7.4956 -6.0694 -2.0387 0.9613
8.1747 -5.4894 -2.0814 0.9605
8.8175 -4.8405 -2.1262 0.9597
8.7386 -3.8267 -2.0165 0.9617
9.2462 -3.0996 -2.0614 0.9609
9.6977 -2.3133 -2.1074 0.9601
10.0848 -1.4712 -2.1543 0.9592
10.3991 -0.5785 -2.2016 0.9583
10.0928 2.1757 -2.1824 0.9587
8.7122 2.7104 -1.9286 0.9634
5.9126 3.7856 -1.4840 0.9717
4.5381 4.2116 -1.3087 0.9750
3.5930 4.7846 -1.2648 0.9758
1.5545 5.2681 -1.1610 0.9778
1.0907 5.4468 -1.1742 0.9775
-0.4298 6.1071 -1.2941 0.9753
-1.4373 5.6559 -1.2335 0.9764
-3.6577 10.4014 -2.3306 0.9559
-4.4811 9.8372 -2.2850 0.9568
-5.2313 9.2062 -2.2382 0.9576
-5.9041 8.5193 -2.1910 0.9585
-6.4972 7.7873 -2.1438 0.9594
-7.0096 7.0204 -2.0970 0.9603
-8.6959 4.9592 -2.1160 0.9599
-9.0525 3.1990 -2.0295 0.9615
-9.1189 2.3323 -1.9896 0.9622
-9.0471 0.6507 -1.9173 0.9636
-8.9165 -0.1560 -1.8851 0.9642
-8.4848 -1.6854 -1.8286 0.9653
-7.8492 -3.0867 -1.7829 0.9661
-7.0355 -4.3452 -1.7479 0.9668
-6.5691 -4.9172 -1.7345 0.9670
-6.0665 -5.4494 -1.7237 0.9672
-3.7420 -7.1570 -1.7072 0.9675
-3.0933 -7.4729 -1.7096 0.9675
-2.4217 -7.7420 -1.7147 0.9674
-1.7294 -7.9629 -1.7224 0.9672
-1.0185 -8.1342 -1.7328 0.9670
-0.2913 -8.2544 -1.7459 0.9668
2.7316 -8.1903 -1.8250 0.9653
4.2696 -7.8062 -1.8808 0.9643
7.2411 -6.2632 -2.0237 0.9616
7.9316 -5.7082 -2.0656 0.9608
10.5574 0.0133 -2.2316 0.9578
9.1757 2.5310 -2.0120 0.9618
7.0117 3.3675 -1.6442 0.9687
5.4413 3.9368 -1.4196 0.9729
4.7639 4.1415 -1.3343 0.9745
3.2672 4.9085 -1.2464 0.9762
2.6410 4.8576 -1.1687 0.9776
2.1794 5.0323 -1.1592 0.9778
1.7215 5.2052 -1.1589 0.9778
1.2600 5.3789 -1.1678 0.9777
-0.2274 6.0156 -1.2725 0.9757
-0.8022 6.2781 -1.3379 0.9745
-4.1899 10.0507 -2.3017 0.9565
-4.9673 9.4427 -2.2553 0.9573
-5.6686 8.7748 -2.2082 0.9582
-6.8326 7.3027 -2.1139 0.9599
-8.2704 6.1583 -2.1796 0.9587
-9.1030 2.6459 -2.0038 0.9620
-9.0795 0.9502 -1.9297 0.9634
-8.8030 -0.6554 -1.8659 0.9646
-8.5793 -1.4164 -1.8380 0.9651
-8.3034 -2.1460 -1.8128 0.9655
-7.9788 -2.8422 -1.7904 0.9660
-7.6085 -3.5033 -1.7706 0.9663
-6.7430 -4.7138 -1.7391 0.9669
-6.2533 -5.2606 -1.7273 0.9671
-3.3319 -7.3634 -1.7084 0.9675
-2.6684 -7.6497 -1.7125 0.9674
-1.9834 -7.8883 -1.7193 0.9673
-1.2790 -8.0777 -1.7287 0.9671
-0.5574 -8.2167 -1.7408 0.9669
1.6866 -8.3139 -1.7932 0.9659
3.2213 -8.0948 -1.8416 0.9650
3.9906 -7.8945 -1.8698 0.9645
4.7561 -7.6313 -1.9007 0.9639
5.5133 -7.3034 -1.9343 0.9633
6.2575 -6.9094 -1.9704 0.9626
7.6841 -5.9180 -2.0501 0.9611
8.3540 -5.3192 -2.0934 0.9603
2.3326 -0.9545 -0.5328 0.9897
9.3753 -2.8908 -2.0738 0.9607
9.8100 -2.0889 -2.1201 0.9598
10.6808 0.6211 -2.2615 0.9572
10.7994 1.6033 -2.3078 0.9563
9.6814 2.3351 -2.1051 0.9601
8.3886 2.8356 -1.8717 0.9644
6.4679 3.5719 -1.5618 0.9702
5.7125 3.8568 -1.4570 0.9722
4.9998 4.0693 -1.3627 0.9740
4.3747 4.2629 -1.2912 0.9753
2.3464 4.9692 -1.1616 0.9778
1.8880 5.1424 -1.1579 0.9779
1.4286 5.3155 -1.1635 0.9777
0.2309 2.7433 -0.5819 0.9888
-0.5863 6.1786 -1.3119 0.9749
-1.2027 6.4654 -1.3901 0.9735
-3.8893 10.2547 -2.3183 0.9562
-5.4226 9.0239 -2.2254 0.9579
-6.0739 8.3236 -2.1781 0.9587
-7.1353 6.8064 -2.0844 0.9605
-8.1308 6.4750 -2.1971 0.9584
-8.9583 3.8365 -2.0599 0.9609
-9.1248 2.0984 -1.9791 0.9624
-9.1035 1.2526 -1.9424 0.9631
-8.8707 -0.3715 -1.8767 0.9644
-7.7482 -3.2671 -1.7775 0.9662
-6.9120 -4.5051 -1.7440 0.9668
-5.9235 -5.5875 -1.7213 0.9673
-4.8026 -6.5048 -1.7091 0.9675
-2.2348 -7.8071 -1.7165 0.9673
-0.0903 -8.2781 -1.7499 0.9667
0.6543 -8.3308 -1.7664 0.9664
2.9414 -8.1523 -1.8320 0.9652
3.7111 -7.9745 -1.8592 0.9647
-0.4498 -7.5334 -1.7737 0.9695
1.6037 -7.5892 -1.8230 0.9686
2.9990 -7.3619 -1.8683 0.9679
5.0632 -6.5953 -1.9541 0.9664
5.7269 -6.2215 -1.9874 0.9659
7.5737 -4.7365 -2.0994 0.9640
8.7839 -1.7961 -2.1071 0.9638
9.3168 -0.2153 -2.1902 0.9624
9.4734 0.6280 -2.2314 0.9617
9.5486 1.4968 -2.2715 0.9611
7.2482 3.2662 -1.8685 0.9679
6.3856 3.5943 -1.7222 0.9703
4.9923 4.1309 -1.5229 0.9737
3.4016 4.8500 -1.3923 0.9760
2.8115 4.8838 -1.3244 0.9771
1.8728 5.2318 -1.3060 0.9774
1.4086 5.4158 -1.3152 0.9773
0.9353 5.6113 -1.3370 0.9769
0.2064 2.7150 -0.6399 0.9889
-0.0813 6.0514 -1.4223 0.9754
-0.6455 6.2613 -1.4793 0.9745
-1.2617 6.4899 -1.5538 0.9732
-3.5036 9.0167 -2.2735 0.9610
-4.2179 8.5154 -2.2334 0.9617
-4.8693 7.9562 -2.1923 0.9624
-5.4540 7.3483 -2.1507 0.9631
-5.9700 6.7006 -2.1092 0.9638
-6.7920 5.3194 -2.0276 0.9652
-8.0930 3.3885 -2.0620 0.9646
-8.2109 2.6051 -2.0245 0.9652
-8.2631 1.8298 -1.9891 0.9658
-8.2527 1.0675 -1.9557 0.9664
-7.6484 -1.7791 -1.8455 0.9682
-7.0522 -3.0412 -1.8050 0.9689
-6.6909 -3.6244 -1.7884 0.9692
-5.3858 -5.1634 -1.7535 0.9698
-4.8851 -5.6017 -1.7468 0.9699
-4.3556 -6.0006 -1.7426 0.9700
-3.7993 -6.3587 -1.7409 0.9700
-0.0213 -7.5834 -1.7823 0.9693
2.0471 -7.5406 -1.8364 0.9684
2.7452 -7.4196 -1.8593 0.9680
3.4423 -7.2428 -1.8847 0.9676
6.7667 -5.4792 -2.0463 0.9649
7.3648 -4.9455 -2.0849 0.9642
7.9270 -4.3517 -2.1253 0.9635
7.8387 -3.4326 -2.0112 0.9654
8.2750 -2.7741 -2.0512 0.9648
8.6588 -2.0654 -2.0921 0.9641
8.9830 -1.3105 -2.1336 0.9634
9.2408 -0.5140 -2.1752 0.9627
9.4256 0.3180 -2.2165 0.9620
8.6957 2.7053 -2.1403 0.9633
7.5975 3.1311 -1.9313 0.9668
4.6095 4.2778 -1.4780 0.9745
2.9882 4.8217 -1.3332 0.9770
2.0412 5.1671 -1.3057 0.9774
1.1091 5.5386 -1.3275 0.9771
0.3048 2.8028 -0.6626 0.9885
-3.2292 9.1829 -2.2877 0.9608
-4.6400 8.1656 -2.2073 0.9621
-6.2619 6.2716 -2.0829 0.9642
-7.8215 4.4605 -2.1161 0.9637
-8.2515 2.1104 -2.0017 0.9656
-8.2635 1.3429 -1.9676 0.9662
-8.1089 -0.1418 -1.9061 0.9672
-7.9487 -0.8521 -1.8788 0.9677
-7.7373 -1.5369 -1.8540 0.9681
-6.4407 -3.9778 -1.7791 0.9694
-5.5601 -4.9945 -1.7566 0.9698
-4.0046 -6.2333 -1.7412 0.9700
-3.4324 -6.5649 -1.7411 0.9700
-2.8370 -6.8538 -1.7434 0.9700
-1.5852 -7.2987 -1.7553 0.9698
-0.9331 -7.4519 -1.7651 0.9696
-0.2667 -7.5572 -1.7772 0.9694
3.8837 -7.1006 -1.9021 0.9673
4.5707 -6.8295 -1.9314 0.9668
6.5416 -5.6582 -2.0328 0.9651
7.1511 -5.1465 -2.0707 0.9644
7.7271 -4.5745 -2.1104 0.9638
8.2424 -3.9331 -2.1464 0.9632
8.1221 -3.0195 -2.0365 0.9650
9.5542 1.7371 -2.2823 0.9609
9.1576 2.5260 -2.2326 0.9617
6.9943 3.3591 -1.8236 0.9686
5.4607 3.9509 -1.5841 0.9727
4.8254 4.1950 -1.5027 0.9741
3.2633 4.9026 -1.3841 0.9761
2.2101 5.1032 -1.3070 0.9774
1.7466 5.2811 -1.3073 0.9774
0.1401 2.7175 -0.6395 0.9889
-1.2778 5.8128 -1.3988 0.9758
-3.7045 8.8862 -2.2627 0.9612
-4.4021 8.3682 -2.2222 0.9619
-5.0355 7.7948 -2.1810 0.9626
-6.0986 6.5182 -2.0979 0.9640
-7.4099 5.5176 -2.1713 0.9628
-2.6500 1.6275 -0.7309 0.9873
-7.9645 3.9604 -2.0905 0.9641
-8.1319 3.1743 -2.0516 0.9648
-8.2663 1.6204 -1.9798 0.9660
-8.2394 0.8623 -1.9470 0.9665
-7.8199 -1.2910 -1.8627 0.9680
-7.2892 -2.5966 -1.8186 0.9687
-6.9576 -3.2036 -1.8002 0.9690
-6.5855 -3.7776 -1.7843 0.9693
-6.1756 -4.3171 -1.7709 0.9695
-5.7303 -4.8206 -1.7599 0.9697
-5.2522 -5.2868 -1.7515 0.9698
-4.7435 -5.7145 -1.7454 0.9699
-4.2064 -6.1023 -1.7419 0.9700
-3.6432 -6.4492 -1.7408 0.9700
-3.0560 -6.7538 -1.7422 0.9700
-2.4470 -7.0149 -1.7461 0.9699
-1.8182 -7.2313 -1.7524 0.9698
-0.5105 -7.5246 -1.7725 0.9695
0.1638 -7.5986 -1.7863 0.9693
1.5406 -7.5944 -1.8212 0.9687
2.2374 -7.5131 -1.8424 0.9683
5.6674 -6.2579 -1.9843 0.9659
8.0718 -4.1786 -2.1362 0.9633
9.2987 -0.2903 -2.1865 0.9625
9.4625 0.5503 -2.2277 0.9618
9.5453 1.4171 -2.2679 0.9611
5.7097 3.8550 -1.6191 0.9721
5.0488 4.1092 -1.5299 0.9736
2.8554 4.8683 -1.3264 0.9771
0.9789 5.5930 -1.3345 0.9769
-0.5923 6.2415 -1.4735 0.9746
-1.5898 5.6734 -1.3847 0.9761
-3.4358 9.0590 -2.2771 0.9610
-4.1556 8.5634 -2.2371 0.9616
-5.9260 6.7609 -2.1129 0.9637
-6.3784 6.0844 -2.0717 0.9644
-2.5992 1.7149 -0.7318 0.9873
-7.8863 4.2463 -2.1051 0.9639
-8.0790 3.4599 -2.0655 0.9645
-8.2029 2.6759 -2.0279 0.9652
-8.2610 1.8997 -1.9922 0.9658
-8.1915 0.3889 -1.9274 0.9669
-8.0704 -0.3380 -1.8984 0.9674
-7.8959 -1.0415 -1.8718 0.9678
-7.6712 -1.7190 -1.8476 0.9682
-7.3992 -2.3681 -1.8259 0.9686
-6.7253 -3.5728 -1.7898 0.9692
-5.4297 -5.1217 -1.7542 0.9698
-3.8509 -6.3279 -1.7409 0.9700
-2.6708 -6.9251 -1.7444 0.9700
-1.4088 -7.3452 -1.7578 0.9697
-0.7526 -7.4855 -1.7681 0.9696
-0.0827 -7.5775 -1.7810 0.9693
0.5985 -7.6197 -1.7963 0.9691
1.2882 -7.6107 -1.8141 0.9688
2.6818 -7.4329 -1.8571 0.9681
3.3792 -7.2612 -1.8823 0.9676
1.4746 -6.9783 -1.8467 0.9710
3.3867 -6.5669 -1.9131 0.9699
5.2280 -5.6794 -1.9987 0.9686
6.3588 -4.8157 -2.0653 0.9676
2.3354 -0.9336 -0.6512 0.9897
7.6076 -2.2784 -2.0562 0.9677
7.9202 -1.6195 -2.0931 0.9671
8.1757 -0.9228 -2.1303 0.9666
8.3683 -0.1934 -2.1673 0.9660
8.5184 2.1279 -2.2733 0.9644
6.3758 3.5888 -1.8944 0.9702
5.6384 3.8737 -1.7712 0.9721
4.9855 4.1253 -1.6755 0.9736
3.3975 4.8441 -1.5319 0.9758
0.9436 5.6611 -1.4860 0.9766
0.2052 2.6991 -0.7009 0.9889
-0.0812 6.0437 -1.5650 0.9753
-0.6446 6.2530 -1.6276 0.9744
-1.6432 5.6862 -1.5325 0.9758
-3.1348 8.0675 -2.2410 0.9649
-4.3731 7.1455 -2.1691 0.9660
-4.9078 6.6124 -2.1321 0.9665
-5.7957 5.4395 -2.0580 0.9677
-2.6047 1.6884 -0.8037 0.9873
-7.3638 3.0832 -2.0670 0.9676
-7.4833 2.3742 -2.0327 0.9681
-7.4905 0.2948 -1.9409 0.9695
-6.4896 -2.7986 -1.8299 0.9712
-6.1617 -3.3377 -1.8144 0.9715
-5.3982 -4.3211 -1.7903 0.9718
-3.5062 -5.8681 -1.7699 0.9722
-2.4130 -6.4109 -1.7736 0.9721
-0.6381 -6.9088 -1.7964 0.9717
-0.0196 -6.9855 -1.8087 0.9715
1.2428 -6.9970 -1.8400 0.9711
3.1566 -6.6416 -1.9040 0.9701
3.7868 -6.4192 -1.9297 0.9697
5.0123 -5.8130 -1.9873 0.9688
5.5987 -5.4282 -2.0191 0.9683
6.1612 -4.9889 -2.0526 0.9678
7.0997 -3.1090 -2.0068 0.9685
7.4809 -2.5078 -2.0429 0.9679
8.3059 -0.4620 -2.1539 0.9662
6.6708 3.4746 -1.9474 0.9694
4.6034 4.2722 -1.6261 0.9744
4.0431 4.4870 -1.5638 0.9754
2.5414 5.0591 -1.4659 0.9769
0.0547 2.8716 -0.7436 0.9882
-0.4346 6.1751 -1.6028 0.9747
-1.0292 6.3955 -1.6772 0.9736
-3.5520 7.7976 -2.2185 0.9652
-4.7202 6.8110 -2.1456 0.9663
-6.3383 4.4072 -1.9988 0.9686
-7.3050 3.3413 -2.0798 0.9674
-7.5162 0.5406 -1.9511 0.9693
-6.8733 -2.0166 -1.8546 0.9708
-6.5993 -2.5952 -1.8361 0.9711
-5.1276 -4.6060 -1.7846 0.9719
-4.1996 -5.4073 -1.7727 0.9721
-2.6178 -6.3243 -1.7722 0.9721
-2.0486 -6.5490 -1.7767 0.9720
-0.8602 -6.8696 -1.7926 0.9718
2.2880 -6.8602 -1.8724 0.9706
2.9257 -6.7094 -1.8952 0.9702
4.1827 -6.2498 -1.9471 0.9694
4.7940 -5.9394 -1.9763 0.9690
5.3880 -5.5745 -2.0073 0.9685
5.9598 -5.1549 -2.0402 0.9680
6.5043 -4.6810 -2.0749 0.9674
7.0160 -4.1535 -2.1110 0.9669
7.3477 -2.7316 -2.0297 0.9681
7.6983 -2.1026 -2.0662 0.9676
7.9958 -1.4330 -2.1032 0.9670
8.2347 -0.7268 -2.1404 0.9664
8.4092 0.0106 -2.1773 0.9659
8.5142 0.7731 -2.2135 0.9653
8.4976 2.3440 -2.2823 0.9642
7.9570 2.9809 -2.2000 0.9655
6.9829 3.3537 -2.0057 0.9685
6.1646 3.6705 -1.8576 0.9708
5.4530 3.9453 -1.7427 0.9726
4.8189 4.1894 -1.6533 0.9740
4.2419 4.4109 -1.5845 0.9750
3.7744 4.7002 -1.5608 0.9754
1.2550 3.7946 -1.0348 0.9836
1.2952 5.5293 -1.4704 0.9768
0.4316 3.0450 -0.7963 0.9874
-3.9480 7.5051 -2.1957 0.9656
-5.0433 6.4600 -2.1220 0.9667
-5.5013 5.8798 -2.0848 0.9673
-2.6485 1.6266 -0.8048 0.9872
-7.5053 2.1815 -2.0237 0.9682
-7.5348 0.7885 -1.9616 0.9692
-7.1778 -1.1850 -1.8836 0.9704
-6.9626 -1.7994 -1.8620 0.9707
-6.7037 -2.3880 -1.8426 0.9710
-6.4039 -2.9486 -1.8254 0.9713
-6.0657 -3.4794 -1.8106 0.9715
-4.8447 -4.8766 -1.7798 0.9720
-4.3766 -5.2725 -1.7742 0.9721
-3.8817 -5.6312 -1.7709 0.9721
-3.3621 -5.9516 -1.7699 0.9722
-1.0806 -6.8244 -1.7890 0.9719
0.1509 -6.9983 -1.8124 0.9715
0.7808 -7.0151 -1.8276 0.9713
3.3293 -6.5862 -1.9108 0.9700
3.9571 -6.3492 -1.9371 0.9696
5.1743 -5.7134 -1.9958 0.9687
8.1550 -0.9875 -2.1269 0.9666
8.3535 -0.2608 -2.1639 0.9661
8.4844 0.4934 -2.2005 0.9655
8.5426 1.2682 -2.2361 0.9649
7.3210 3.2279 -2.0716 0.9675
5.7015 3.8494 -1.7812 0.9720
4.4462 4.3326 -1.6074 0.9747
3.4438 4.8264 -1.5351 0.9758
2.8898 4.9269 -1.4789 0.9767
2.4120 5.1081 -1.4626 0.9769
1.9408 5.2862 -1.4580 0.9770
0.2290 2.7205 -0.7069 0.9888
-0.5915 6.2333 -1.6212 0.9745
-3.0736 8.1040 -2.2441 0.9648
-3.7245 7.6749 -2.2088 0.9654
-4.8617 6.6624 -2.1355 0.9665
-5.3419 6.0944 -2.0983 0.9671
-6.1176 4.8718 -2.0249 0.9682
-2.6023 1.7169 -0.8072 0.9872
-7.1622 3.8564 -2.1062 0.9669
-7.4749 2.4384 -2.0358 0.9680
-7.5396 1.7339 -2.0031 0.9685
-7.5463 1.0384 -1.9723 0.9690
-7.4976 0.3560 -1.9434 0.9695
-7.3961 -0.3097 -1.9167 0.9699
-7.2447 -0.9556 -1.8920 0.9703
-6.8027 -2.1771 -1.8494 0.9709
-6.1930 -3.2900 -1.8157 0.9714
-5.4357 -4.2793 -1.7912 0.9718
-4.5500 -5.1328 -1.7760 0.9721
-4.0646 -5.5052 -1.7718 0.9721
-3.5538 -5.8396 -1.7700 0.9721
-3.0196 -6.1349 -1.7704 0.9721
-1.2992 -6.7734 -1.7857 0.9719
-0.0762 -6.9804 -1.8075 0.9716
1.1850 -7.0007 -1.8384 0.9711
1.8231 -6.9377 -1.8573 0.9708
3.0990 -6.6592 -1.9018 0.9701
-0.3840 -6.4313 -1.8239 0.9736
0.1924 -6.4832 -1.8361 0.9734
0.7758 -6.4907 -1.8505 0.9732
1.3636 -6.4527 -1.8671 0.9730
2.5405 -6.2362 -1.9063 0.9724
5.8279 -4.4136 -2.0696 0.9701
6.2965 -3.9378 -2.1024 0.9696
6.7151 -3.4075 -2.1317 0.9692
6.9304 -2.0756 -2.0480 0.9704
7.4240 -0.8380 -2.1150 0.9694
7.7223 1.2105 -2.2128 0.9680
7.2239 3.2553 -2.2431 0.9676
5.6302 3.8681 -1.9338 0.9720
4.3889 4.3466 -1.7487 0.9746
2.3464 5.0753 -1.5829 0.9770
1.4237 5.4737 -1.6011 0.9768
0.2041 2.6849 -0.7623 0.9889
-0.0811 6.0359 -1.7089 0.9752
-1.2582 6.4718 -1.8664 0.9730
-1.6407 5.6775 -1.6730 0.9757
-3.4222 6.9089 -2.1827 0.9685
-4.4562 6.0040 -2.1167 0.9694
-4.8951 5.4942 -2.0831 0.9699
-5.2793 4.9549 -2.0497 0.9703
-2.6059 1.6891 -0.8791 0.9872
-6.5723 3.4704 -2.1040 0.9696
-6.7486 2.8256 -2.0712 0.9700
-6.8094 -0.3405 -1.9301 0.9721
-6.0050 -2.5896 -1.8513 0.9732
-5.3704 -3.5627 -1.8244 0.9736
-4.1797 -4.7928 -1.8003 0.9739
-3.7280 -5.1359 -1.7966 0.9740
-3.2523 -5.4432 -1.7950 0.9740
-2.7549 -5.7136 -1.7957 0.9740
-2.2379 -5.9458 -1.7985 0.9739
-1.7035 -6.1386 -1.8035 0.9739
-1.1538 -6.2910 -1.8106 0.9738
1.1495 -6.4718 -1.8608 0.9730
4.6083 -5.3445 -1.9978 0.9711
5.6498 -4.5747 -2.0580 0.9702
6.1300 -4.1163 -2.0903 0.9698
6.5750 -3.6095 -2.1234 0.9693
6.8189 -2.2859 -2.0360 0.9705
7.5346 -0.4191 -2.1363 0.9691
7.6584 0.2584 -2.1693 0.9686
7.7175 0.9542 -2.2014 0.9682
7.6286 2.3733 -2.2617 0.9673
6.6601 3.4691 -2.1259 0.9693
5.8865 3.7690 -1.9787 0.9714
5.2074 4.0315 -1.8643 0.9730
3.0186 4.8706 -1.6222 0.9765
2.5383 5.0530 -1.6008 0.9768
1.1112 3.7658 -1.1115 0.9838
0.3051 2.8049 -0.7987 0.9883
0.0544 2.8588 -0.8095 0.9882
-1.4331 5.6396 -1.6473 0.9761
-3.7730 6.6398 -2.1619 0.9688
-4.7418 5.6833 -2.0953 0.9697
-5.4950 4.5991 -2.0286 0.9707
-5.7884 4.0248 -1.9959 0.9711
-6.4839 3.6977 -2.1130 0.9694
-6.6912 3.0605 -2.0830 0.9699
-6.8308 2.4139 -2.0510 0.9703
-6.9143 1.7684 -2.0204 0.9708
-6.9435 1.1284 -1.9915 0.9712
-6.9206 0.4978 -1.9642 0.9716
-6.5619 -1.3034 -1.8939 0.9726
-6.1050 -2.4008 -1.8571 0.9731
-5.8183 -2.9115 -1.8418 0.9733
-5.4960 -3.3944 -1.8287 0.9735
-5.1403 -3.8477 -1.8177 0.9737
-4.7534 -4.2699 -1.8089 0.9738
-3.8951 -5.0152 -1.7977 0.9739
-3.4279 -5.3356 -1.7953 0.9740
-1.8997 -6.0731 -1.8014 0.9739
-1.3553 -6.2404 -1.8078 0.9738
-0.7972 -6.3663 -1.8163 0.9737
-0.2276 -6.4498 -1.8270 0.9735
0.9358 -6.4849 -1.8548 0.9731
2.7001 -6.1918 -1.9123 0.9723
4.4097 -5.4632 -1.9875 0.9712
4.9498 -5.1211 -2.0162 0.9708
5.9590 -4.2886 -2.0784 0.9699
6.4184 -3.7997 -2.1115 0.9695
6.7013 -2.4913 -2.0239 0.9707
7.0099 -1.9146 -2.0571 0.9702
7.4743 -0.6597 -2.1242 0.9693
7.7037 0.6995 -2.1898 0.9684
7.7199 1.4036 -2.2213 0.9679
7.5399 2.8246 -2.2794 0.9671
4.8124 4.1837 -1.8052 0.9738
4.2364 4.4052 -1.7302 0.9749
3.7696 4.6943 -1.7044 0.9753
3.2554 4.8907 -1.6632 0.9759
2.2377 5.1669 -1.5940 0.9769
1.2936 5.5226 -1.6057 0.9767
0.4318 3.0462 -0.8710 0.9873
-0.2303 6.0914 -1.7257 0.9750
-0.8056 6.3046 -1.7993 0.9739
-1.4372 6.5378 -1.8950 0.9726
-2.1454 6.7986 -2.0182 0.9708
-2.9982 7.1920 -2.2058 0.9681
-3.5750 6.7959 -2.1738 0.9686
-2.6471 1.6257 -0.8794 0.9872
-6.6262 3.2949 -2.0949 0.9697
-6.8903 2.0027 -2.0313 0.9706
-6.9391 1.3602 -2.0018 0.9710
-6.9349 0.7257 -1.9739 0.9714
-6.8799 0.1030 -1.9479 0.9718
-6.6272 -1.0941 -1.9015 0.9725
-6.1999 -2.2085 -1.8632 0.9730
-5.9268 -2.7289 -1.8471 0.9732
-5.6172 -3.2221 -1.8332 0.9734
-4.4920 -4.5217 -1.8044 0.9739
-4.0590 -4.8899 -1.7991 0.9739
-3.6005 -5.2233 -1.7959 0.9740
-3.1187 -5.5207 -1.7950 0.9740
-2.6157 -5.7807 -1.7962 0.9740
-1.0016 -6.3253 -1.8130 0.9737
3.6456 -5.8495 -1.9512 0.9718
4.2087 -5.5752 -1.9775 0.9714
4.7557 -5.2512 -2.0056 0.9710
5.2823 -4.8775 -2.0354 0.9706
6.2554 -3.9829 -2.0993 0.9696
6.6807 -3.4584 -2.1296 0.9692
6.9031 -2.1285 -2.0450 0.9704
7.7220 1.1464 -2.2100 0.9681
7.5942 2.5671 -2.2694 0.9672
7.3085 3.2224 -2.2612 0.9673
5.6931 3.8438 -1.9446 0.9718
5.0350 4.0980 -1.8378 0.9734
4.4403 4.3268 -1.7551 0.9746
3.9465 4.6003 -1.7159 0.9751
3.4395 4.8204 -1.6764 0.9757
2.4091 5.1020 -1.5973 0.9768
1.9385 5.2799 -1.5923 0.9769
1.4668 5.4575 -1.5998 0.9768
0.9867 5.6377 -1.6202 0.9765
0.2290 2.7203 -0.7728 0.9887
-0.0320 6.0177 -1.7036 0.9753
-1.1999 6.4503 -1.8574 0.9731
-2.7774 7.3230 -2.2172 0.9680
-3.3706 6.9457 -2.1856 0.9684
-3.9172 6.5187 -2.1530 0.9689
-4.4137 6.0486 -2.1197 0.9694
-4.8575 5.5418 -2.0862 0.9698
-5.5806 4.4441 -2.0196 0.9708
-6.5511 3.5274 -2.1063 0.9695
-6.8196 -0.2856 -1.9323 0.9720
-6.6867 -0.8820 -1.9094 0.9724
-6.0304 -2.5428 -1.8527 0.9732
-5.7338 -3.0461 -1.8380 0.9734
-5.4022 -3.5210 -1.8255 0.9735
-4.6428 -4.3795 -1.8068 0.9738
-2.2856 -5.9263 -1.7981 0.9739
-1.2043 -6.2789 -1.8099 0.9738
-0.6428 -6.3933 -1.8190 0.9736
0.5100 -6.4928 -1.8437 0.9733
1.0961 -6.4757 -1.8593 0.9731
1.6851 -6.4124 -1.8769 0.9728
2.8592 -6.1439 -1.9184 0.9722
-0.3573 -5.9853 -1.8442 0.9752
0.1789 -6.0308 -1.8557 0.9751
0.7212 -6.0344 -1.8693 0.9749
1.2669 -5.9954 -1.8848 0.9747
2.3569 -5.7856 -1.9215 0.9742
2.8950 -5.6135 -1.9427 0.9739
3.9403 -5.1326 -1.9903 0.9733
4.4401 -4.8236 -2.0165 0.9729
4.9193 -4.4690 -2.0442 0.9726
5.7985 -3.6263 -2.1035 0.9718
6.1727 -3.1323 -2.1290 0.9714
2.3350 -0.9334 -0.7734 0.9895
6.5989 -1.3493 -2.0717 0.9722
6.7916 -0.7666 -2.1022 0.9718
7.0140 0.4650 -2.1621 0.9710
6.9968 1.7478 -2.2182 0.9703
6.3559 3.5776 -2.2434 0.9699
5.6219 3.8624 -2.0980 0.9719
4.3830 4.3408 -1.8974 0.9745
3.9097 4.6329 -1.8646 0.9749
3.3890 4.8320 -1.8153 0.9756
2.8390 4.9315 -1.7502 0.9765
2.3435 5.0691 -1.7177 0.9769
1.8935 5.2896 -1.7281 0.9768
0.9413 5.6473 -1.7609 0.9763
0.2039 2.6823 -0.8274 0.9888
-1.2564 6.4627 -2.0250 0.9728
-1.6382 5.6690 -1.8150 0.9756
-4.0764 5.4922 -2.1037 0.9718
-4.4838 5.0326 -2.0732 0.9722
-2.6071 1.6899 -0.9556 0.9871
-6.2220 2.6052 -2.0747 0.9722
-6.3393 2.0113 -2.0456 0.9726
-6.4052 1.4184 -2.0178 0.9729
