ply
format ascii 1.0
element vertex 1594
property float32 x
property float32 y
property float32 z
property float32 I
end_header
10.7195 -6.7736 -2.0889 0.9499
12.2513 -3.7343 -2.1099 0.9494
12.9044 -2.7051 -2.1721 0.9480
13.9636 -0.3935 -2.3013 0.9449
10.2823 1.5570 -1.7132 0.9587
8.9704 2.1905 -1.5212 0.9633
6.8478 3.0413 -1.2344 0.9701
6.0929 3.3857 -1.1483 0.9721
4.3737 4.2826 -1.0084 0.9755
4.0022 4.6875 -1.0154 0.9753
3.4163 4.8111 -0.9721 0.9764
2.9586 5.0700 -0.9670 0.9765
1.5663 5.8747 -1.0016 0.9757
0.5118 6.2205 -1.0282 0.9750
-0.6368 6.5882 -1.0904 0.9735
-5.2888 13.8804 -2.4470 0.9416
-7.8120 12.9589 -2.4927 0.9405
-10.0510 9.5648 -2.2857 0.9453
-10.9445 7.2043 -2.1585 0.9483
-11.2267 6.0306 -2.0994 0.9496
-11.4941 3.7387 -1.9912 0.9522
-11.4922 2.6333 -1.9423 0.9533
-11.4085 1.5614 -1.8969 0.9544
-11.2490 0.5267 -1.8552 0.9554
-10.3708 -2.3288 -1.7510 0.9578
-9.9611 -3.1921 -1.7232 0.9585
-9.5001 -4.0093 -1.6987 0.9591
1.6531 5.5378 -1.0863 0.9768
0.6683 5.9620 -1.1276 0.9759
0.1392 6.2109 -1.1677 0.9750
-4.1758 12.0142 -2.3907 0.9495
-7.9396 9.5921 -2.3404 0.9506
-9.4558 6.6327 -2.1710 0.9541
-9.7670 5.6242 -2.1184 0.9552
-10.1755 2.6501 -1.9764 0.9581
-10.0584 0.7692 -1.8961 0.9598
-9.8974 -0.1277 -1.8605 0.9605
-9.6742 -0.9915 -1.8279 0.9612
-9.3930 -1.8197 -1.7983 0.9618
-8.6727 -3.3620 -1.7483 0.9628
-7.2490 -5.3691 -1.6956 0.9640
-6.1055 -6.4905 -1.6749 0.9644
-5.4830 -6.9835 -1.6689 0.9645
-1.9473 -8.7298 -1.6812 0.9643
-1.1693 -8.9266 -1.6922 0.9640
0.4417 -9.1556 -1.7229 0.9634
1.2702 -9.1839 -1.7427 0.9630
2.1107 -9.1520 -1.7654 0.9625
4.6740 -8.6717 -1.8516 0.9607
5.5302 -8.3754 -1.8865 0.9600
7.2183 -7.5637 -1.9652 0.9583
2.3728 -0.9002 -0.4770 0.9897
11.2854 -2.1022 -2.1577 0.9544
11.7172 -1.1158 -2.2123 0.9532
11.4834 0.9613 -2.1660 0.9542
9.9018 1.7277 -1.8893 0.9599
8.6688 2.3244 -1.6869 0.9641
7.6663 2.8089 -1.5346 0.9673
6.7733 3.1923 -1.4074 0.9700
4.3887 4.4948 -1.1808 0.9748
3.8689 4.7432 -1.1505 0.9754
2.7849 5.0286 -1.0804 0.9769
0.4474 2.9835 -0.5671 0.9878
-0.1889 6.3807 -1.1999 0.9744
-0.7264 6.0842 -1.1517 0.9754
-1.5032 7.1208 -1.3679 0.9708
-3.7600 12.2732 -2.4127 0.9491
-5.6162 10.9010 -2.3049 0.9513
-6.4082 10.1095 -2.2498 0.9525
-7.6566 9.9847 -2.3650 0.9501
-8.3050 9.0333 -2.3064 0.9513
-9.9063 5.0379 -2.0889 0.9558
-9.9723 0.2426 -1.8750 0.9602
-9.7746 -0.6353 -1.8411 0.9609
-9.5171 -1.4786 -1.8103 0.9616
-8.4264 -3.7813 -1.7360 0.9631
-7.4691 -5.1128 -1.7013 0.9638
-6.9306 -5.7142 -1.6884 0.9641
-6.3556 -6.2713 -1.6783 0.9643
-5.7466 -6.7834 -1.6710 0.9645
-3.7373 -8.0393 -1.6664 0.9646
-3.0135 -8.3609 -1.6705 0.9645
-2.2659 -8.6320 -1.6774 0.9643
-1.4964 -8.8510 -1.6873 0.9641
-0.7070 -9.0164 -1.6999 0.9639
0.9229 -9.1793 -1.7341 0.9631
1.7587 -9.1728 -1.7555 0.9627
2.6049 -9.1047 -1.7800 0.9622
3.4585 -8.9728 -1.8075 0.9616
6.0266 -8.1695 -1.9082 0.9595
6.8703 -7.7578 -1.9478 0.9587
7.6990 -7.2703 -1.9904 0.9578
8.5063 -6.7052 -2.0359 0.9569
9.9980 -5.3210 -2.1288 0.9549
2.3156 -0.9786 -0.4725 0.9898
10.5475 -3.3859 -2.0822 0.9559
11.9299 -0.5126 -2.2444 0.9526
11.7047 0.5421 -2.2024 0.9534
10.5101 1.4330 -1.9938 0.9577
8.0619 2.6178 -1.5932 0.9661
7.1475 3.0489 -1.4606 0.9689
6.2955 3.3776 -1.3428 0.9713
5.5719 3.6637 -1.2534 0.9732
4.9479 3.9271 -1.1873 0.9746
4.4048 4.1874 -1.1423 0.9756
4.0826 4.6411 -1.1618 0.9752
3.4372 4.6922 -1.0933 0.9766
2.5157 5.1580 -1.0787 0.9769
2.0492 5.3699 -1.0803 0.9769
1.5735 5.5702 -1.0879 0.9767
0.5485 2.9136 -0.5573 0.9880
0.5832 6.0020 -1.1335 0.9758
0.0478 6.2539 -1.1755 0.9749
-4.3367 11.9071 -2.3819 0.9497
-9.5138 6.4659 -2.1621 0.9543
-10.0362 0.6186 -1.8900 0.9599
-9.6315 -1.1311 -1.8228 0.9613
-9.3412 -1.9532 -1.7938 0.9619
-7.6825 -4.8491 -1.7076 0.9637
-7.1599 -5.4686 -1.6934 0.9640
-6.0047 -6.5753 -1.6737 0.9644
-5.3769 -7.0606 -1.6681 0.9645
-4.7187 -7.4993 -1.6654 0.9646
-4.0319 -7.8904 -1.6655 0.9646
-3.3185 -8.2328 -1.6684 0.9645
-2.5806 -8.5251 -1.6742 0.9644
-1.8200 -8.7660 -1.6828 0.9642
0.5779 -9.1644 -1.7260 0.9633
1.4086 -9.1829 -1.7462 0.9629
2.2508 -9.1408 -1.7694 0.9624
3.1016 -9.0358 -1.7956 0.9619
8.1725 -6.9505 -2.0165 0.9573
11.3624 -1.9434 -2.1667 0.9542
12.0706 0.1093 -2.2689 0.9521
11.1904 1.1034 -2.1136 0.9553
6.6326 3.2465 -1.3880 0.9704
5.8609 3.5485 -1.2878 0.9725
5.1942 3.8163 -1.2115 0.9741
4.6264 4.0813 -1.1596 0.9752
4.3007 4.5368 -1.1750 0.9749
3.1690 4.8345 -1.0865 0.9767
0.4207 3.1188 -0.5915 0.9873
0.2760 6.1466 -1.1565 0.9753
-0.8012 5.9620 -1.1307 0.9758
-1.6299 7.1936 -1.3864 0.9704
-3.9267 12.1724 -2.4040 0.9493
-4.8844 11.5119 -2.3505 0.9504
-5.7537 10.7741 -2.2958 0.9515
-8.4025 8.8727 -2.2969 0.9515
-2.3828 2.1042 -0.5975 0.9871
-9.3627 6.8863 -2.1846 0.9538
-9.6974 5.8781 -2.1314 0.9549
-10.1695 2.8940 -1.9874 0.9579
-9.4690 -1.6147 -1.8055 0.9617
-9.1472 -2.4150 -1.7782 0.9622
-8.7742 -3.1765 -1.7540 0.9627
-7.8888 -4.5779 -1.7144 0.9636
-6.2571 -6.3592 -1.6769 0.9643
-4.9969 -7.3220 -1.6662 0.9646
-4.3218 -7.7331 -1.6651 0.9646
-3.6193 -8.0959 -1.6669 0.9646
-2.1400 -8.6718 -1.6789 0.9643
-1.3670 -8.8821 -1.6892 0.9641
-0.5746 -9.0385 -1.7023 0.9638
0.2353 -9.1393 -1.7184 0.9635
1.0604 -9.1824 -1.7374 0.9631
3.6002 -8.9447 -1.8123 0.9615
4.4579 -8.7353 -1.8433 0.9609
6.1670 -8.1065 -1.9145 0.9594
7.0087 -7.6824 -1.9546 0.9586
7.8343 -7.1822 -1.9977 0.9577
8.6374 -6.6040 -2.0437 0.9567
9.4106 -5.9465 -2.0924 0.9557
9.4155 -4.8340 -1.9894 0.9578
2.3173 -0.9392 -0.4700 0.9899
11.6161 -1.3701 -2.1985 0.9535
8.9539 2.1865 -1.7324 0.9632
6.9955 3.1069 -1.4387 0.9693
4.8550 3.9716 -1.1790 0.9748
3.3610 4.7332 -1.0911 0.9766
2.9009 4.9711 -1.0818 0.9768
2.4389 5.1940 -1.0785 0.9769
1.9712 5.4038 -1.0812 0.9769
1.4936 5.6023 -1.0898 0.9767
0.5038 2.9116 -0.5554 0.9880
0.4972 6.0425 -1.1396 0.9756
-0.0449 6.3017 -1.1845 0.9747
-1.1631 6.1951 -1.1848 0.9747
-3.5023 12.4217 -2.4258 0.9488
-4.4952 11.7977 -2.3730 0.9499
-5.4021 11.0905 -2.3187 0.9510
-6.2177 10.3142 -2.2637 0.9522
-7.4772 10.2180 -2.3799 0.9498
-8.7234 8.3014 -2.2634 0.9522
-9.5692 6.2990 -2.1533 0.9544
-10.1486 3.3010 -2.0059 0.9575
-10.1762 2.3317 -1.9623 0.9584
-9.8302 -0.4174 -1.8493 0.9607
-9.5873 -1.2697 -1.8178 0.9614
-8.0880 -4.2993 -1.7217 0.9634
0.6057 2.9751 -0.6418 0.9877
0.6750 6.0219 -1.2809 0.9755
-0.9347 5.9409 -1.2712 0.9757
-5.2049 9.2406 -2.2418 0.9576
-6.4761 7.8239 -2.1469 0.9593
-7.5334 7.6053 -2.2628 0.9572
-8.9038 4.1184 -2.0737 0.9607
-9.0462 3.2408 -2.0312 0.9615
-9.1153 2.3740 -1.9911 0.9622
-8.9206 -0.1151 -1.8858 0.9642
-8.4940 -1.6455 -1.8289 0.9652
-6.0913 -5.4154 -1.7229 0.9672
-5.5577 -5.9081 -1.7146 0.9674
-3.7772 -7.1302 -1.7056 0.9675
-1.0634 -8.1182 -1.7307 0.9671
-0.3383 -8.2417 -1.7436 0.9668
0.4011 -8.3127 -1.7592 0.9665
1.1521 -8.3296 -1.7775 0.9662
2.6781 -8.1939 -1.8222 0.9654
4.2147 -7.8196 -1.8777 0.9643
5.7310 -7.1923 -1.9439 0.9631
6.4700 -6.7796 -1.9809 0.9624
7.1889 -6.2992 -2.0204 0.9617
8.5414 -5.1325 -2.1064 0.9601
8.5015 -4.1261 -1.9975 0.9621
2.3800 -0.9030 -0.5381 0.9896
9.5097 -2.6667 -2.0877 0.9604
9.9270 -1.8492 -2.1345 0.9596
10.7324 0.8984 -2.2765 0.9569
8.6531 2.3202 -1.8937 0.9640
6.8069 3.2081 -1.5906 0.9697
6.0794 3.5592 -1.4891 0.9716
4.3832 4.4892 -1.3262 0.9747
3.2224 4.7610 -1.2152 0.9768
2.7555 4.9754 -1.2022 0.9770
2.2975 5.1930 -1.2003 0.9771
1.8395 5.4179 -1.2094 0.9769
1.3724 5.6548 -1.2300 0.9765
0.4419 2.9468 -0.6299 0.9879
0.3694 6.1875 -1.3102 0.9750
-1.5114 7.1593 -1.5467 0.9705
-3.2610 10.6445 -2.3533 0.9555
-5.6081 8.8472 -2.2142 0.9581
-6.2373 8.1338 -2.1666 0.9590
-7.8168 7.1109 -2.2337 0.9577
-8.5692 5.3688 -2.1375 0.9595
-8.8217 4.4863 -2.0920 0.9603
-8.9959 3.6060 -2.0486 0.9612
-9.0951 2.7340 -2.0075 0.9619
-9.0840 1.0360 -1.9326 0.9633
-8.9813 0.2185 -1.8990 0.9639
-8.6008 -1.3362 -1.8398 0.9650
-8.3302 -2.0682 -1.8143 0.9655
-8.0106 -2.7670 -1.7915 0.9659
-7.2373 -4.0581 -1.7539 0.9666
-6.3042 -5.1977 -1.7271 0.9671
-5.7843 -5.7076 -1.7177 0.9673
-5.2321 -6.1760 -1.7110 0.9674
-3.4035 -7.3213 -1.7066 0.9675
-2.7437 -7.6125 -1.7105 0.9675
-1.3612 -8.0515 -1.7261 0.9672
0.0910 -8.2896 -1.7524 0.9667
1.5940 -8.3138 -1.7894 0.9660
2.3579 -8.2414 -1.8120 0.9656
3.8946 -7.9181 -1.8652 0.9646
5.4181 -7.3447 -1.9292 0.9634
8.2706 -5.3987 -2.0877 0.9604
8.8776 -4.7247 -2.1258 0.9597
2.3133 -0.9776 -0.5309 0.9898
9.3172 -2.9910 -2.0685 0.9608
9.7608 -2.1970 -2.1149 0.9599
10.1390 -1.3479 -2.1620 0.9590
10.6658 0.4940 -2.2569 0.9573
9.1325 2.0877 -1.9802 0.9624
8.0481 2.6133 -1.7886 0.9660
7.1416 3.0464 -1.6412 0.9688
6.3714 3.4183 -1.5284 0.9709
5.0298 3.9921 -1.3574 0.9741
4.4492 4.2297 -1.2976 0.9752
3.4220 4.6715 -1.2240 0.9766
2.9487 4.8858 -1.2063 0.9769
2.4881 5.1015 -1.1998 0.9771
2.0312 5.3229 -1.2043 0.9770
1.5690 5.5542 -1.2200 0.9767
0.5896 6.0679 -1.2887 0.9754
-2.8848 10.8421 -2.3715 0.9552
-4.5818 9.7703 -2.2811 0.9568
-5.3220 9.1307 -2.2340 0.9577
-5.9845 8.4368 -2.1865 0.9586
-6.5669 7.6993 -2.1390 0.9595
-7.6169 7.4658 -2.2545 0.9573
-2.4656 2.0190 -0.6736 0.9871
-8.4398 5.7360 -2.1570 0.9591
-8.7261 4.8547 -2.1108 0.9600
-9.0626 3.0965 -2.0244 0.9616
-9.0316 0.5567 -1.9127 0.9637
-8.6984 -1.0215 -1.8513 0.9648
-8.4492 -1.7667 -1.8246 0.9653
-8.1497 -2.4796 -1.8007 0.9658
-7.8031 -3.1582 -1.7794 0.9662
-6.9809 -4.4063 -1.7450 0.9668
-6.5110 -4.9730 -1.7318 0.9671
-6.0053 -5.4998 -1.7213 0.9673
-5.4663 -5.9857 -1.7135 0.9674
-4.8963 -6.4294 -1.7083 0.9675
-4.2975 -6.8299 -1.7057 0.9675
-3.6719 -7.1861 -1.7058 0.9675
-3.0218 -7.4967 -1.7085 0.9675
-2.3491 -7.7605 -1.7139 0.9674
-1.6560 -7.9761 -1.7219 0.9672
-0.9445 -8.1422 -1.7326 0.9670
-0.2168 -8.2571 -1.7460 0.9668
0.5246 -8.3193 -1.7620 0.9665
2.8052 -8.1721 -1.8264 0.9653
5.1030 -7.4857 -1.9150 0.9636
7.3055 -6.2131 -2.0272 0.9615
8.6431 -5.0214 -2.1129 0.9600
9.9897 -1.7086 -2.1423 0.9594
10.3259 -0.8296 -2.1897 0.9585
10.7543 1.0604 -2.2843 0.9568
6.6797 3.2696 -1.5720 0.9701
5.9676 3.6131 -1.4746 0.9719
5.2911 3.8875 -1.3879 0.9735
4.2954 4.5312 -1.3198 0.9748
3.7807 4.7774 -1.2878 0.9754
3.1441 4.7964 -1.2123 0.9768
2.6793 5.0111 -1.2011 0.9770
2.2220 5.2296 -1.2011 0.9770
1.7631 5.4561 -1.2120 0.9768
0.6872 3.0260 -0.6559 0.9874
-0.2909 6.5540 -1.3868 0.9735
-0.8007 5.9584 -1.2708 0.9757
-5.0225 9.4048 -2.2537 0.9573
-5.7177 8.7323 -2.2063 0.9582
-6.3337 8.0117 -2.1588 0.9591
-8.2961 6.1018 -2.1769 0.9588
-8.6165 5.2229 -2.1298 0.9596
-9.0174 3.4610 -2.0417 0.9613
-9.1046 2.5909 -2.0009 0.9620
-9.1213 1.7354 -1.9626 0.9628
-9.0712 0.8991 -1.9269 0.9634
-8.5595 -1.4596 -1.8354 0.9651
-6.2205 -5.2849 -1.7254 0.9672
-5.6951 -5.7880 -1.7164 0.9673
-5.1377 -6.2494 -1.7101 0.9675
-3.2959 -7.3727 -1.7071 0.9675
-1.9475 -7.8921 -1.7183 0.9673
-1.2434 -8.0790 -1.7278 0.9671
-0.5222 -8.2155 -1.7401 0.9669
1.7200 -8.3058 -1.7929 0.9659
2.4848 -8.2238 -1.8160 0.9655
3.2532 -8.0826 -1.8417 0.9650
4.0217 -7.8803 -1.8701 0.9645
4.7862 -7.6153 -1.9012 0.9639
5.5425 -7.2856 -1.9350 0.9633
7.0101 -6.4266 -2.0103 0.9619
7.7100 -5.8950 -2.0515 0.9611
8.3788 -5.2945 -2.0951 0.9603
8.3607 -4.2924 -1.9866 0.9623
2.3163 -0.9389 -0.5283 0.9898
10.1947 -1.2024 -2.1699 0.9589
10.6941 0.6537 -2.2647 0.9571
8.9373 2.1824 -1.9447 0.9631
7.0064 3.1117 -1.6205 0.9691
6.2538 3.4751 -1.5123 0.9712
3.3424 4.7070 -1.2203 0.9767
2.8718 4.9213 -1.2044 0.9770
1.9553 5.3603 -1.2061 0.9769
-0.6532 6.7583 -1.4352 0.9726
-4.7096 9.6687 -2.2733 0.9570
-6.6555 7.5737 -2.1312 0.9596
-8.1378 6.4656 -2.1970 0.9584
-8.4929 5.5905 -2.1492 0.9593
-8.9593 3.8271 -2.0594 0.9610
-9.0770 2.9525 -2.0176 0.9617
-9.1000 1.2455 -1.9415 0.9631
-8.6608 -1.1470 -1.8467 0.9649
-8.0955 -2.5943 -1.7969 0.9658
-7.3439 -3.9037 -1.7580 0.9666
1.6739 5.6076 -1.3754 0.9762
-0.4452 6.6521 -1.5669 0.9730
-3.2006 9.2085 -2.2912 0.9607
-4.6157 8.1947 -2.2105 0.9621
-5.2273 7.6049 -2.1688 0.9628
-8.0246 3.7117 -2.0779 0.9643
-8.1695 2.9267 -2.0395 0.9650
-8.2621 1.3804 -1.9687 0.9662
-8.2159 0.6283 -1.9366 0.9667
-8.1124 -0.1047 -1.9067 0.9672
-7.9545 -0.8152 -1.8793 0.9677
-7.4887 -2.1582 -1.8316 0.9685
-7.1867 -2.7859 -1.8115 0.9688
-6.8425 -3.3820 -1.7938 0.9691
-5.5831 -4.9636 -1.7557 0.9698
-4.5792 -5.8323 -1.7427 0.9700
-4.0348 -6.2072 -1.7399 0.9700
-3.4650 -6.5408 -1.7396 0.9700
-2.8719 -6.8320 -1.7418 0.9700
-1.6244 -7.2819 -1.7535 0.9698
-0.9743 -7.4380 -1.7630 0.9696
3.1401 -7.3223 -1.8725 0.9678
3.8343 -7.1139 -1.8993 0.9673
4.5214 -6.8476 -1.9285 0.9668
5.1972 -6.5224 -1.9601 0.9663
7.6853 -4.6181 -2.1072 0.9638
7.6334 -3.7048 -1.9942 0.9657
8.0912 -3.0698 -2.0339 0.9651
8.4995 -2.3834 -2.0746 0.9644
9.1401 -0.8704 -2.1579 0.9630
9.5606 1.6682 -2.2809 0.9609
8.6373 2.3160 -2.1017 0.9639
7.6410 2.7996 -1.9126 0.9671
5.4264 3.8649 -1.5657 0.9730
4.3777 4.4835 -1.4727 0.9746
2.8012 5.0579 -1.3589 0.9765
2.3356 5.2790 -1.3567 0.9766
1.3957 5.7508 -1.3908 0.9760
0.4373 2.9158 -0.6930 0.9880
0.3742 6.2682 -1.4758 0.9745
-0.8148 6.8248 -1.6154 0.9722
-2.8758 9.3869 -2.3073 0.9605
-3.6379 8.9390 -2.2682 0.9611
-5.5524 7.2406 -2.1445 0.9632
-6.9914 6.3601 -2.2213 0.9619
-7.3828 5.5999 -2.1778 0.9626
-7.6997 4.8240 -2.1354 0.9634
-8.2230 2.4719 -2.0180 0.9653
-8.1624 0.1986 -1.9189 0.9670
-8.0268 -0.5217 -1.8905 0.9675
-7.6015 -1.8873 -1.8408 0.9683
-6.9911 -3.1372 -1.8009 0.9690
-6.2180 -4.2564 -1.7710 0.9695
-5.7770 -4.7631 -1.7597 0.9697
-3.7057 -6.4067 -1.7395 0.9700
-3.1220 -6.7157 -1.7406 0.9700
-2.5163 -6.9816 -1.7442 0.9700
-0.5886 -7.5071 -1.7698 0.9695
0.7658 -7.6171 -1.7992 0.9690
1.4564 -7.5957 -1.8177 0.9687
2.1519 -7.5213 -1.8386 0.9684
2.8494 -7.3925 -1.8620 0.9680
4.2358 -6.9658 -1.9160 0.9671
6.2320 -5.8850 -2.0145 0.9654
6.8556 -5.4040 -2.0516 0.9648
8.7119 -1.9609 -2.0987 0.9640
9.2765 -0.3986 -2.1822 0.9626
9.4514 0.4378 -2.2237 0.9619
9.1152 2.0837 -2.1975 0.9623
8.0343 2.6088 -1.9853 0.9659
6.3621 3.4133 -1.6968 0.9708
5.6869 3.7393 -1.5996 0.9724
5.0798 4.0318 -1.5242 0.9737
4.5226 4.2995 -1.4666 0.9747
4.0725 4.6297 -1.4492 0.9750
3.4798 4.7504 -1.3840 0.9761
2.9978 4.9671 -1.3635 0.9764
1.5954 5.6477 -1.3793 0.9762
0.5405 2.8709 -0.6866 0.9881
0.5988 6.1628 -1.4552 0.9749
-0.5479 6.7001 -1.5799 0.9728
-2.5416 9.5524 -2.3231 0.9602
-3.3268 9.1343 -2.2847 0.9608
-5.3220 7.5029 -2.1619 0.9629
-5.8540 6.8635 -2.1201 0.9636
-6.3162 6.1909 -2.0786 0.9643
-2.4624 2.0165 -0.7480 0.9870
-7.5764 5.1492 -2.1529 0.9631
-7.8506 4.3676 -2.1114 0.9638
-8.0533 3.5816 -2.0715 0.9644
-8.1870 2.7973 -2.0333 0.9651
-8.2544 2.0201 -1.9972 0.9657
-8.2027 0.5056 -1.9315 0.9668
-7.9234 -0.9305 -1.8750 0.9678
-7.7063 -1.6113 -1.8503 0.9682
-6.7816 -3.4774 -1.7912 0.9692
-5.5047 -5.0413 -1.7543 0.9698
-5.0125 -5.4888 -1.7470 0.9699
-3.3684 -6.5920 -1.7398 0.9700
-2.1541 -7.1161 -1.7474 0.9699
-1.5179 -7.3110 -1.7549 0.9698
-0.8652 -7.4593 -1.7649 0.9696
-0.1985 -7.5597 -1.7773 0.9694
1.1675 -7.6110 -1.8097 0.9689
1.8613 -7.5589 -1.8296 0.9685
3.2553 -7.2918 -1.8768 0.9677
5.9643 -6.0677 -1.9996 0.9656
7.2055 -5.0957 -2.0741 0.9644
7.7123 -3.6034 -2.0007 0.9656
8.1624 -2.9597 -2.0406 0.9650
8.5618 -2.2651 -2.0814 0.9643
9.1813 -0.7377 -2.1648 0.9629
9.5167 0.9383 -2.2475 0.9615
8.4590 2.4026 -2.0667 0.9645
7.4928 2.8715 -1.8859 0.9676
4.2900 4.5256 -1.4656 0.9747
2.7237 5.0941 -1.3576 0.9765
2.2588 5.3162 -1.3575 0.9765
1.7926 5.5474 -1.3701 0.9763
0.2834 6.3109 -1.4847 0.9744
-0.2921 6.5805 -1.5481 0.9733
-0.8002 5.9547 -1.4121 0.9756
-2.3850 2.1061 -0.7478 0.9870
-7.7450 4.6946 -2.1285 0.9635
-7.9992 -0.6386 -1.8860 0.9676
-7.8029 -1.3305 -1.8603 0.9680
-7.5577 -1.9953 -1.8371 0.9684
-7.2668 -2.6308 -1.8163 0.9687
-6.9330 -3.2350 -1.7981 0.9691
-6.5590 -3.8061 -1.7823 0.9693
-5.2216 -5.3068 -1.7497 0.9699
-4.7120 -5.7316 -1.7438 0.9700
-3.6107 -6.4608 -1.7395 0.9700
-1.7855 -7.2352 -1.7515 0.9698
-1.1394 -7.4032 -1.7604 0.9697
0.1956 -7.5956 -1.7857 0.9693
0.8797 -7.6172 -1.8021 0.9690
1.5712 -7.5871 -1.8210 0.9687
2.2673 -7.5038 -1.8423 0.9683
2.9647 -7.3658 -1.8661 0.9679
3.6600 -7.1717 -1.8923 0.9675
4.3493 -6.9201 -1.9209 0.9670
5.6927 -6.2399 -1.9851 0.9659
6.3371 -5.8096 -2.0205 0.9653
6.9561 -5.3185 -2.0579 0.9647
7.5438 -4.7669 -2.0973 0.9640
7.5112 -3.8563 -1.9844 0.9659
2.3157 -0.9386 -0.5872 0.9898
9.3107 -0.2624 -2.1891 0.9625
9.5537 1.4466 -2.2709 0.9611
7.8748 2.6862 -1.9555 0.9664
6.2447 3.4700 -1.6790 0.9711
5.5823 3.7898 -1.5857 0.9727
4.4342 4.3419 -1.4586 0.9748
3.9876 4.6704 -1.4433 0.9751
3.3987 4.7863 -1.3796 0.9762
0.4958 2.8656 -0.6835 0.9881
-0.0461 6.4653 -1.5195 0.9738
-0.6523 6.7489 -1.5935 0.9725
-1.1271 6.0035 -1.4356 0.9752
-2.6752 9.4883 -2.3169 0.9603
-4.1699 8.5607 -2.2380 0.9616
-4.8256 8.0048 -2.1967 0.9623
-5.4148 7.3997 -2.1550 0.9630
-5.9353 6.7542 -2.1132 0.9637
-7.2914 5.7931 -2.1887 0.9625
-7.8890 4.2377 -2.1047 0.9639
-8.2594 1.8925 -1.9914 0.9658
-8.0660 -0.3425 -1.8974 0.9674
-7.6657 -1.7214 -1.8465 0.9682
1.6846 5.6434 -1.5249 0.9760
0.6018 2.9558 -0.7810 0.9876
0.1427 6.3684 -1.6493 0.9740
-3.5278 7.8211 -2.2215 0.9652
-4.1419 7.3536 -2.1852 0.9657
-4.6998 6.8375 -2.1482 0.9663
-5.6363 5.6901 -2.0737 0.9674
-7.4407 2.6657 -2.0464 0.9679
-7.5239 1.9595 -2.0131 0.9684
-7.5484 1.2612 -1.9815 0.9689
-7.5168 0.5748 -1.9519 0.9693
-7.4318 -0.0959 -1.9244 0.9698
-7.2960 -0.7478 -1.8990 0.9702
-7.1123 -1.3779 -1.8757 0.9705
-6.8832 -1.9837 -1.8547 0.9708
-6.2998 -3.1137 -1.8195 0.9714
-5.9505 -3.6341 -1.8053 0.9716
-5.5661 -4.1226 -1.7934 0.9718
-5.1490 -4.5776 -1.7838 0.9719
-4.7014 -4.9978 -1.7766 0.9720
-3.7236 -5.7285 -1.7690 0.9722
-2.6502 -6.3046 -1.7707 0.9721
-1.4982 -6.7163 -1.7817 0.9720
-0.8982 -6.8574 -1.7907 0.9718
-0.2854 -6.9537 -1.8020 0.9717
1.6054 -6.9608 -1.8496 0.9709
4.1382 -6.2672 -1.9445 0.9694
4.7501 -5.9613 -1.9736 0.9690
5.3452 -5.6010 -2.0046 0.9685
6.4652 -4.7170 -2.0721 0.9675
6.9743 -4.1909 -2.1067 0.9669
7.6754 -2.1523 -2.0640 0.9676
7.9778 -1.4861 -2.1011 0.9670
8.5137 0.7127 -2.2121 0.9653
7.6282 2.7949 -2.1035 0.9670
6.0619 3.5490 -1.8187 0.9714
4.8357 4.1406 -1.6483 0.9740
3.3005 4.8764 -1.5246 0.9760
2.3562 5.3256 -1.5078 0.9762
1.8841 5.5491 -1.5173 0.9761
1.4020 5.7768 -1.5391 0.9757
0.4330 2.8870 -0.7558 0.9880
-0.1932 6.5255 -1.6903 0.9734
-0.8136 6.8151 -1.7771 0.9720
-3.2558 8.0000 -2.2363 0.9649
-4.9978 6.5174 -2.1265 0.9666
-5.4611 5.9400 -2.0892 0.9672
-5.8629 5.3335 -2.0522 0.9678
-7.2177 3.6706 -2.0966 0.9671
-7.3881 2.9615 -2.0609 0.9676
-7.5367 0.8595 -1.9640 0.9691
-7.1946 -1.1178 -1.8852 0.9704
-6.4346 -2.8875 -1.8261 0.9713
-6.1006 -3.4208 -1.8109 0.9715
-5.7306 -3.9228 -1.7981 0.9717
-4.8917 -4.8268 -1.7793 0.9720
-4.4274 -5.2261 -1.7734 0.9721
-3.9361 -5.5885 -1.7698 0.9722
-3.4200 -5.9128 -1.7686 0.9722
-2.3219 -6.4420 -1.7730 0.9721
-1.1503 -6.8039 -1.7867 0.9719
-0.5425 -6.9191 -1.7970 0.9717
0.0767 -6.9886 -1.8096 0.9715
0.7049 -7.0113 -1.8245 0.9713
1.9773 -6.9111 -1.8612 0.9707
2.6155 -6.7857 -1.8829 0.9704
3.2506 -6.6086 -1.9069 0.9700
3.8789 -6.3788 -1.9330 0.9696
6.2408 -4.9193 -2.0575 0.9677
6.7395 -3.5868 -1.9767 0.9689
7.8584 -1.7688 -2.0856 0.9673
8.1275 -1.0805 -2.1229 0.9667
8.3352 -0.3582 -2.1601 0.9661
8.4760 0.3926 -2.1969 0.9655
8.0203 2.6043 -2.1833 0.9658
7.1190 3.0367 -2.0039 0.9685
4.0675 4.6239 -1.5945 0.9749
3.5017 4.7803 -1.5343 0.9758
2.5521 5.2326 -1.5074 0.9762
1.4819 3.8833 -1.0762 0.9830
0.5365 2.8499 -0.7508 0.9881
-0.5471 6.6908 -1.7382 0.9726
-1.0259 5.9473 -1.5626 0.9754
-3.6332 7.7474 -2.2156 0.9653
-5.2752 6.1849 -2.1047 0.9670
-7.1279 3.9655 -2.1119 0.9669
-7.3246 3.2576 -2.0756 0.9674
-7.4586 2.5484 -2.0408 0.9680
-7.5470 1.1467 -1.9765 0.9690
-7.4128 -0.2052 -1.9200 0.9698
-6.8411 -2.0814 -1.8515 0.9709
-6.5626 -2.6561 -1.8331 0.9712
-5.4993 -4.2003 -1.7917 0.9718
-4.6245 -5.0639 -1.7756 0.9721
-3.6382 -5.7822 -1.7688 0.9722
-3.1086 -6.0837 -1.7689 0.9722
-1.9873 -6.5652 -1.7760 0.9721
-0.7976 -6.8765 -1.7924 0.9718
-0.1829 -6.9652 -1.8040 0.9716
0.4419 -7.0076 -1.8180 0.9714
2.9862 -6.6889 -1.8966 0.9702
5.4417 -5.5361 -2.0099 0.9684
6.0111 -5.1122 -2.0431 0.9679
7.0492 -4.0954 -2.1108 0.9669
7.3828 -2.6770 -2.0333 0.9681
8.0224 -1.3722 -2.1073 0.9669
8.4437 2.3982 -2.2727 0.9644
6.6594 3.2596 -1.9197 0.9698
5.9505 3.6028 -1.8011 0.9717
5.3189 3.9079 -1.7089 0.9731
4.7438 4.1849 -1.6379 0.9742
3.7715 4.7657 -1.5736 0.9752
3.2212 4.9142 -1.5214 0.9760
2.7480 5.1395 -1.5090 0.9762
1.8052 5.5864 -1.5201 0.9760
0.6845 3.0141 -0.8003 0.9873
0.4050 3.0023 -0.7844 0.9876
0.2830 6.3027 -1.6335 0.9743
-3.3647 7.9302 -2.2305 0.9650
-3.9925 7.4761 -2.1944 0.9656
-4.5648 6.9716 -2.1576 0.9662
-5.5319 5.8415 -2.0830 0.9673
-2.3878 2.1086 -0.8248 0.9869
-7.4102 2.8441 -2.0551 0.9677
-7.5086 2.1367 -2.0213 0.9683
-7.5477 1.4360 -1.9893 0.9688
-7.4581 0.0713 -1.9311 0.9697
-6.0418 -3.5061 -1.8086 0.9715
-5.6660 -4.0027 -1.7962 0.9717
-3.3323 -5.9627 -1.7686 0.9722
-2.2275 -6.4784 -1.7738 0.9721
-1.0506 -6.8261 -1.7882 0.9719
0.1801 -6.9957 -1.8119 0.9715
1.4448 -6.9770 -1.8448 0.9710
2.0830 -6.8939 -1.8646 0.9707
2.7209 -6.7600 -1.8867 0.9703
3.3551 -6.5743 -1.9111 0.9700
4.5975 -6.0434 -1.9661 0.9691
5.1972 -5.6968 -1.9966 0.9686
6.3304 -4.8402 -2.0633 0.9676
6.8535 -4.3307 -2.0991 0.9671
6.8117 -3.4972 -1.9825 0.9689
2.3157 -0.9386 -0.6470 0.9897
7.5908 -2.3137 -2.0547 0.9677
8.5490 1.2945 -2.2387 0.9649
8.5286 2.0826 -2.2731 0.9644
7.8613 2.6816 -2.1506 0.9663
6.9844 3.1020 -1.9787 0.9689
6.2355 3.4649 -1.8470 0.9710
4.9779 4.0722 -1.6652 0.9738
4.4286 4.3363 -1.6048 0.9747
2.4744 5.2695 -1.5073 0.9762
2.0036 5.4926 -1.5138 0.9761
0.5099 6.1963 -1.6098 0.9746
-1.1253 5.9940 -1.5791 0.9751
-2.3888 8.4725 -2.2792 0.9643
-3.7371 7.6722 -2.2096 0.9654
-4.8715 6.6573 -2.1359 0.9665
-6.5949 5.2397 -2.1809 0.9658
-7.1648 3.8487 -2.1058 0.9670
-7.3511 3.1401 -2.0697 0.9675
-7.5384 1.7273 -2.0024 0.9686
-7.4945 0.3509 -1.9426 0.9695
-7.2404 -0.9589 -1.8910 0.9703
-7.0413 -1.5812 -1.8685 0.9706
-6.1882 -3.2894 -1.8145 0.9715
1.6825 5.6365 -1.6652 0.9758
0.6038 2.9656 -0.8568 0.9875
-0.4440 6.6337 -1.8822 0.9727
-0.9313 5.9195 -1.6964 0.9754
-2.5842 7.4350 -2.2283 0.9678
-4.2645 6.2041 -2.1312 0.9692
-6.8247 2.4450 -2.0523 0.9703
-6.9418 1.1598 -1.9924 0.9712
-6.9210 0.5293 -1.9650 0.9716
-6.3627 -1.8337 -1.8746 0.9728
-6.1163 -2.3710 -1.8570 0.9731
-5.8318 -2.8824 -1.8416 0.9733
-4.7734 -4.2438 -1.8081 0.9738
-3.4541 -5.3139 -1.7942 0.9740
-1.9317 -6.0574 -1.7999 0.9739
-0.8325 -6.3555 -1.8146 0.9737
-0.2644 -6.4418 -1.8252 0.9736
0.3129 -6.4846 -1.8379 0.9734
1.4843 -6.4358 -1.8698 0.9729
2.0728 -6.3420 -1.8888 0.9726
3.8113 -5.7722 -1.9581 0.9717
4.3698 -5.4839 -1.9851 0.9713
4.9110 -5.1460 -2.0137 0.9709
5.4306 -4.7585 -2.0441 0.9704
6.3774 -3.8322 -2.1063 0.9695
6.9898 -1.9601 -2.0551 0.9703
7.4635 -0.7107 -2.1224 0.9693
7.7260 1.3481 -2.2202 0.9679
7.6784 2.0589 -2.2505 0.9675
6.7754 3.1933 -2.1204 0.9693
6.0530 3.5438 -1.9856 0.9713
5.4115 3.8542 -1.8808 0.9728
4.3666 4.4721 -1.7694 0.9744
3.8499 4.7199 -1.7243 0.9750
2.7995 5.0549 -1.6358 0.9763
2.3534 5.3191 -1.6466 0.9761
1.8818 5.5424 -1.6570 0.9760
-0.8125 6.8054 -1.9402 0.9719
-1.5046 7.1271 -2.0621 0.9702
-4.5390 5.9192 -2.1116 0.9695
-6.6068 3.3599 -2.0983 0.9697
-6.9359 0.7910 -1.9762 0.9714
-6.6424 -1.0320 -1.9030 0.9724
-5.3095 -3.6345 -1.8215 0.9736
-4.9376 -4.0710 -1.8116 0.9737
-4.5358 -4.4756 -1.8039 0.9739
-4.1062 -4.8470 -1.7984 0.9739
-3.6511 -5.1839 -1.7950 0.9740
-3.1725 -5.4850 -1.7938 0.9740
-2.1535 -5.9748 -1.7979 0.9739
-0.5027 -6.4110 -1.8205 0.9736
0.0711 -6.4721 -1.8323 0.9735
1.2388 -6.4611 -1.8624 0.9730
4.1386 -5.6102 -1.9736 0.9714
4.6875 -5.2931 -2.0016 0.9710
6.1972 -4.0453 -2.0951 0.9697
2.3062 -0.9746 -0.7088 0.9896
6.8651 -2.2038 -2.0411 0.9705
7.6747 0.3555 -2.1750 0.9686
7.7251 1.0533 -2.2072 0.9681
7.7069 1.7618 -2.2381 0.9677
7.6175 2.4735 -2.2673 0.9673
7.1075 3.0318 -2.1875 0.9684
5.0661 4.0210 -1.8310 0.9735
4.5109 4.2884 -1.7620 0.9745
4.0624 4.6181 -1.7412 0.9748
2.5490 5.2263 -1.6461 0.9761
1.4749 3.8651 -1.1711 0.9829
1.6029 5.6741 -1.6692 0.9758
0.5327 2.8293 -0.8150 0.9881
0.5973 6.1470 -1.7484 0.9747
0.0489 6.4037 -1.8129 0.9737
-0.5464 6.6815 -1.8978 0.9725
-2.0466 7.6921 -2.2533 0.9675
-4.3442 6.1244 -2.1257 0.9693
-4.7955 5.6225 -2.0920 0.9697
-5.1925 5.0896 -2.0583 0.9702
-6.2719 4.2626 -2.1468 0.9690
-6.5205 3.6276 -2.1124 0.9695
-6.9193 1.6934 -2.0166 0.9708
-6.9127 0.4261 -1.9607 0.9716
-6.8341 -0.1892 -1.9354 0.9720
-6.7082 -0.7878 -1.9121 0.9723
-6.5376 -1.3670 -1.8908 0.9726
-6.3247 -1.9243 -1.8715 0.9729
-5.0965 -3.8927 -1.8155 0.9737
-4.7069 -4.3107 -1.8069 0.9738
-2.8836 -5.6434 -1.7941 0.9740
-2.3723 -5.8853 -1.7963 0.9740
-1.8430 -6.0883 -1.8008 0.9739
-0.1694 -6.4519 -1.8271 0.9735
0.9937 -6.4784 -1.8554 0.9731
3.3351 -5.9748 -1.9371 0.9720
3.9047 -5.7279 -1.9625 0.9716
5.5142 -4.6897 -2.0492 0.9704
6.0026 -4.2450 -2.0813 0.9699
6.3829 -2.9822 -1.9945 0.9711
6.7322 -2.4411 -2.0273 0.9707
7.2921 -1.2473 -2.0943 0.9697
7.4927 -0.6020 -2.1280 0.9692
7.6342 0.0691 -2.1613 0.9688
7.7122 0.7604 -2.1939 0.9683
7.7230 1.4654 -2.2253 0.9678
7.6636 2.1767 -2.2553 0.9674
7.4679 2.8620 -2.2641 0.9673
6.6491 3.2546 -2.0957 0.9697
5.9419 3.5976 -1.9664 0.9715
4.7375 4.1793 -1.7884 0.9741
3.7668 4.7597 -1.7183 0.9751
2.7447 5.1333 -1.6479 0.9761
1.6174 3.8067 -1.1709 0.9830
1.8030 5.5796 -1.6600 0.9759
0.4041 2.9955 -0.8557 0.9875
-0.2913 6.5626 -1.8596 0.9731
-0.7992 5.9472 -1.6987 0.9754
-2.4249 7.5170 -2.2360 0.9677
-3.0422 7.1702 -2.2050 0.9681
-3.6154 6.7701 -2.1727 0.9686
-5.0336 5.3153 -2.0724 0.9700
-2.3906 2.1111 -0.9029 0.9868
-6.8940 1.9618 -2.0291 0.9706
-6.8728 0.0657 -1.9457 0.9718
-6.6141 -1.1278 -1.8994 0.9725
-6.4185 -1.6946 -1.8793 0.9728
-6.1820 -2.2381 -1.8612 0.9730
-5.9069 -2.7562 -1.8453 0.9733
-5.2502 -3.7089 -1.8197 0.9736
-4.0326 -4.9052 -1.7976 0.9739
-2.5880 -5.7890 -1.7951 0.9740
-2.0658 -6.0084 -1.7987 0.9739
0.1668 -6.4780 -1.8345 0.9734
0.7492 -6.4877 -1.8488 0.9732
1.9247 -6.3700 -1.8838 0.9727
3.6685 -5.8369 -1.9516 0.9717
4.7766 -5.2358 -2.0064 0.9710
6.2727 -3.9637 -2.1006 0.9696
6.2252 -3.1960 -1.9810 0.9713
2.3158 -0.9386 -0.7074 0.9897
6.9155 -2.1079 -2.0467 0.9704
7.1920 -1.5076 -2.0803 0.9699
7.4160 -0.8747 -2.1140 0.9694
6.2263 3.4598 -2.0165 0.9708
5.5667 3.7792 -1.9047 0.9724
2.4714 5.2631 -1.6460 0.9761
1.5228 5.7118 -1.6735 0.9757
0.4881 2.8209 -0.8104 0.9882
-0.0460 6.4480 -1.8254 0.9735
-2.7898 7.3217 -2.2181 0.9680
-3.9274 6.5149 -2.1535 0.9689
-4.4226 6.0438 -2.1201 0.9693
-4.8650 5.5363 -2.0864 0.9698
-6.3171 4.1583 -2.1410 0.9690
-6.8592 2.2311 -2.0419 0.9705
-6.9267 1.5872 -2.0117 0.9709
-6.8164 -0.2894 -1.9314 0.9720
-6.6830 -0.8850 -1.9084 0.9724
-6.0262 -2.5432 -1.8517 0.9732
1.6804 5.6295 -1.8070 0.9757
0.3460 3.0864 -0.9553 0.9871
-0.4433 6.6245 -2.0421 0.9726
-1.7618 7.0382 -2.2316 0.9701
-2.3533 6.7708 -2.2048 0.9704
-2.9095 6.4503 -2.1765 0.9708
-4.3252 5.2253 -2.0863 0.9720
-4.7033 4.7482 -2.0556 0.9724
-2.4148 2.0378 -0.9719 0.9869
-5.9671 3.4361 -2.1179 0.9716
-6.4193 1.0725 -2.0018 0.9731
-6.4067 0.4899 -1.9763 0.9735
-6.3474 -0.0819 -1.9525 0.9738
-6.2435 -0.6399 -1.9304 0.9741
-5.9101 -1.7032 -1.8918 0.9746
-5.6849 -2.2038 -1.8754 0.9748
-5.4237 -2.6807 -1.8609 0.9750
-4.8016 -3.5564 -1.8379 0.9753
-2.7638 -5.2173 -1.8160 0.9756
-2.2902 -5.4482 -1.8178 0.9756
-1.7994 -5.6425 -1.8216 0.9755
0.2910 -6.0317 -1.8574 0.9750
0.8336 -6.0268 -1.8714 0.9749
1.3789 -5.9791 -1.8873 0.9746
2.4666 -5.7518 -1.9249 0.9741
3.5290 -5.3446 -1.9699 0.9736
4.0420 -5.0725 -1.9950 0.9732
5.0120 -4.3918 -2.0497 0.9725
5.4607 -3.9841 -2.0791 0.9721
5.8687 -3.5265 -2.1059 0.9718
6.1316 -2.3263 -2.0171 0.9729
6.6427 -1.2374 -2.0783 0.9721
6.8257 -0.6500 -2.1089 0.9717
6.9862 1.8732 -2.2247 0.9702
5.4039 3.8488 -2.0406 0.9726
4.3609 4.4663 -1.9200 0.9742
3.8451 4.7139 -1.8711 0.9749
3.2923 4.8644 -1.8067 0.9757
2.7961 5.0487 -1.7751 0.9761
2.3505 5.3126 -1.7868 0.9760
1.8795 5.5355 -1.7981 0.9758
1.3985 5.7624 -1.8238 0.9755
0.4285 2.8575 -0.8887 0.9880
0.3728 6.2437 -1.9238 0.9742
-0.1927 6.5077 -2.0025 0.9731
-1.5023 7.1161 -2.2370 0.9700
-3.2155 6.2412 -2.1595 0.9710
-3.7068 5.8478 -2.1296 0.9714
-5.2000 3.9442 -2.0074 0.9731
-6.0852 3.0946 -2.0998 0.9718
-6.3534 1.9098 -2.0405 0.9726
-6.4102 1.3180 -2.0129 0.9730
-6.4177 0.7319 -1.9868 0.9733
-6.3777 0.1552 -1.9622 0.9737
-5.7834 -1.9977 -1.8820 0.9747
-5.2557 -2.9470 -1.8533 0.9751
-3.8252 -4.5153 -1.8202 0.9755
-3.4016 -4.8297 -1.8170 0.9756
-2.4900 -5.3562 -1.8168 0.9756
-1.5063 -5.7384 -1.8248 0.9755
0.6067 -6.0340 -1.8653 0.9749
1.1512 -6.0042 -1.8804 0.9747
1.6969 -5.9311 -1.8975 0.9745
2.2409 -5.8139 -1.9165 0.9743
3.3108 -5.4446 -1.9599 0.9737
3.8298 -5.1916 -1.9843 0.9734
5.2769 -4.1596 -2.0667 0.9723
5.7086 -3.7263 -2.0968 0.9719
5.6678 -3.0165 -1.9748 0.9735
6.5514 -1.4746 -2.0655 0.9723
6.7557 -0.8981 -2.0962 0.9719
6.9078 -0.2968 -2.1267 0.9715
7.0040 0.3244 -2.1566 0.9711
7.0409 0.9600 -2.1857 0.9707
7.0157 1.6038 -2.2135 0.9703
6.9262 2.2490 -2.2398 0.9700
6.3335 3.3980 -2.2107 0.9704
5.0592 4.0155 -1.9867 0.9733
4.0572 4.6122 -1.8894 0.9746
1.4666 3.8433 -1.2653 0.9829
0.5377 2.8559 -0.8938 0.9879
-0.5456 6.6720 -2.0590 0.9724
-1.0232 5.9317 -1.8514 0.9751
-2.9978 6.3926 -2.1717 0.9709
-3.5071 6.0170 -2.1421 0.9713
-4.7611 4.6667 -2.0506 0.9725
-6.1850 2.7507 -2.0820 0.9721
-6.3146 2.1576 -2.0525 0.9725
-6.4205 0.9755 -1.9975 0.9732
-6.2222 -0.7307 -1.9270 0.9741
-5.8754 -1.7876 -1.8890 0.9746
-5.6442 -2.2844 -1.8728 0.9748
-5.3772 -2.7572 -1.8587 0.9750
-5.0766 -3.2043 -1.8465 0.9752
-3.1445 -4.9975 -1.8161 0.9756
-1.2086 -5.8213 -1.8287 0.9754
-0.6881 -5.9325 -1.8370 0.9753
2.5558 -5.7250 -1.9284 0.9741
3.0905 -5.5366 -1.9503 0.9738
3.6149 -5.3027 -1.9739 0.9735
4.1253 -5.0231 -1.9993 0.9732
5.9299 -3.4451 -2.1094 0.9717
5.8677 -2.7415 -1.9920 0.9733
6.1806 -2.2411 -2.0221 0.9729
6.4517 -1.7068 -2.0527 0.9725
6.8509 -0.5504 -2.1140 0.9716
6.9709 0.0631 -2.1442 0.9712
7.0329 0.6934 -2.1737 0.9709
6.8438 2.6228 -2.2543 0.9698
6.6387 3.2495 -2.2734 0.9695
5.3042 3.8971 -2.0244 0.9728
4.2737 4.5083 -1.9107 0.9743
3.2133 4.9021 -1.8028 0.9758
2.7413 5.1270 -1.7882 0.9760
1.5943 3.7522 -1.2540 0.9831
1.3174 5.8006 -1.8296 0.9754
0.4040 2.9945 -0.9294 0.9874
-0.2909 6.5535 -2.0177 0.9729
-0.7990 5.9456 -1.8452 0.9752
-2.2076 6.8434 -2.2117 0.9704
-2.7731 6.5357 -2.1837 0.9707
-3.7839 5.7788 -2.1246 0.9715
-5.2446 3.8574 -2.0025 0.9731
-6.4148 1.2205 -2.0085 0.9730
-6.4143 0.6357 -1.9826 0.9734
-6.1378 -1.0466 -1.9151 0.9743
-5.9609 -1.5737 -1.8963 0.9745
-5.4928 -2.5630 -1.8643 0.9750
-5.2060 -3.0210 -1.8513 0.9751
-4.1601 -4.2280 -1.8244 0.9755
-3.7567 -4.5696 -1.8195 0.9755
-2.4111 -5.3935 -1.8171 0.9756
-1.4222 -5.7633 -1.8258 0.9755
0.1552 -6.0263 -1.8542 0.9751
0.6966 -6.0320 -1.8677 0.9749
2.8685 -5.6207 -1.9409 0.9739
3.3976 -5.4059 -1.9639 0.9736
4.4147 -4.8391 -2.0147 0.9730
4.8948 -4.4874 -2.0425 0.9726
6.3439 -1.9337 -2.0399 0.9726
6.7845 -0.8002 -2.1012 0.9718
6.9277 -0.1952 -2.1317 0.9714
7.0143 0.4288 -2.1615 0.9710
7.0411 1.0662 -2.1904 0.9706
6.7391 2.9930 -2.2680 0.9696
6.2169 3.4546 -2.1876 0.9707
5.5588 3.7738 -2.0665 0.9723
4.9645 4.0612 -1.9728 0.9735
3.9726 4.6528 -1.8818 0.9747
3.4131 4.8066 -1.8132 0.9756
1.9987 5.4792 -1.7939 0.9759
1.5210 5.7047 -1.8159 0.9756
0.4875 2.8174 -0.8795 0.9881
-0.6496 6.7204 -2.0767 0.9721
-1.1218 5.9752 -1.8700 0.9749
-3.0850 6.3335 -2.1669 0.9709
-5.8010 3.8186 -2.1361 0.9714
-6.2101 2.6527 -2.0771 0.9721
-6.3310 2.0593 -2.0477 0.9725
-6.4006 1.4666 -2.0197 0.9729
-6.4204 0.8787 -1.9932 0.9732
-6.3922 0.2993 -1.9682 0.9736
-6.1997 -0.8210 -1.9235 0.9742
-6.0395 -1.3562 -1.9039 0.9744
0.3449 3.0768 -1.0291 0.9870
0.1421 6.3428 -2.1089 0.9736
-3.1481 5.5891 -2.1323 0.9733
-3.5867 5.2181 -2.1048 0.9737
-3.9837 4.8128 -2.0767 0.9740
-2.4145 2.0375 -1.0502 0.9868
-4.9077 3.4424 -1.9926 0.9750
-5.7046 2.6386 -2.0893 0.9739
-5.8388 2.0918 -2.0616 0.9742
-5.9249 1.5431 -2.0352 0.9745
-5.9641 0.9965 -2.0100 0.9748
-5.5125 -1.5886 -1.9070 0.9761
-5.3056 -2.0567 -1.8915 0.9763
-5.0644 -2.5031 -1.8778 0.9765
-4.7909 -2.9260 -1.8660 0.9766
-4.4872 -3.3235 -1.8561 0.9767
-4.1552 -3.6942 -1.8482 0.9768
-3.7970 -4.0364 -1.8421 0.9769
-3.4145 -4.3489 -1.8379 0.9770
-3.0098 -4.6304 -1.8357 0.9770
-2.5849 -4.8795 -1.8355 0.9770
-1.6825 -5.2761 -1.8408 0.9769
-1.2093 -5.4213 -1.8464 0.9769
-0.2299 -5.6007 -1.8633 0.9766
0.2718 -5.6328 -1.8746 0.9765
2.2980 -5.3585 -1.9381 0.9757
2.7952 -5.1860 -1.9583 0.9755
4.2129 -4.4146 -2.0284 0.9746
4.6487 -4.0734 -2.0546 0.9743
5.0597 -3.6915 -2.0819 0.9739
5.6623 -2.1483 -2.0131 0.9748
6.1201 -1.1400 -2.0694 0.9741
6.4519 0.5401 -2.1522 0.9731
6.4553 1.1263 -2.1782 0.9728
6.1156 2.8823 -2.2473 0.9719
5.8838 3.4447 -2.2663 0.9717
5.3962 3.8434 -2.2022 0.9725
4.8163 4.1240 -2.1077 0.9736
4.2245 4.3267 -2.0101 0.9748
2.3476 5.3060 -1.9287 0.9758
1.8771 5.5286 -1.9408 0.9757
0.4243 2.8292 -0.9509 0.9880
-0.7991 6.6935 -2.2407 0.9720
-1.3788 6.5312 -2.2189 0.9723
-1.9344 6.3142 -2.1952 0.9725
-4.8038 3.6437 -2.0042 0.9749
-5.4183 3.3947 -2.1254 0.9734
-5.6341 2.8652 -2.1011 0.9737
-5.8947 1.7720 -2.0461 0.9744
-5.9533 1.2241 -2.0203 0.9747
-5.9658 0.6804 -1.9959 0.9750
-5.9338 0.1444 -1.9730 0.9753
-5.8590 -0.3808 -1.9517 0.9756
-5.1691 -2.3196 -1.8833 0.9764
-4.9088 -2.7525 -1.8707 0.9766
-4.2971 -3.5429 -1.8513 0.9768
-3.9495 -3.8972 -1.8444 0.9769
-3.1812 -4.5168 -1.8364 0.9770
-2.7645 -4.7795 -1.8354 0.9770
-1.8760 -5.2048 -1.8391 0.9769
-0.9280 -5.4891 -1.8505 0.9768
-0.4372 -5.5758 -1.8591 0.9767
0.0618 -5.6242 -1.8696 0.9766
1.0742 -5.6026 -1.8962 0.9762
2.0883 -5.4180 -1.9301 0.9758
3.0806 -5.0660 -1.9709 0.9753
4.4697 -4.2208 -2.0435 0.9744
4.8915 -3.8557 -2.0704 0.9741
5.2424 -2.7901 -1.9740 0.9753
2.3015 -0.9727 -0.8306 0.9895
6.2200 -0.8269 -2.0857 0.9739
6.3425 2.0595 -2.2166 0.9723
5.6546 3.7181 -2.2495 0.9719
3.9814 4.5261 -2.0038 0.9749
3.4886 4.7624 -1.9624 0.9754
0.5601 2.9749 -1.0062 0.9873
0.5957 6.1309 -2.0475 0.9744
0.0488 6.3863 -2.1229 0.9734
-0.5448 6.6625 -2.2220 0.9722
-1.7058 6.4112 -2.2053 0.9724
-2.2450 6.1641 -2.1807 0.9727
-3.6553 5.1532 -2.1001 0.9737
-2.4518 2.0078 -1.0534 0.9867
-4.9466 3.3619 -1.9881 0.9751
-5.5550 3.0905 -2.1130 0.9736
-5.9661 0.9065 -2.0059 0.9749
-5.7963 -0.6807 -1.9400 0.9757
-5.4807 -1.6675 -1.9043 0.9761
-5.2680 -2.1321 -1.8891 0.9763
-5.0213 -2.5748 -1.8758 0.9765
-4.4342 -3.3868 -1.8547 0.9768
-4.0977 -3.7528 -1.8470 0.9769
-3.7353 -4.0902 -1.8413 0.9769
-3.3490 -4.3977 -1.8374 0.9770
-2.9408 -4.6738 -1.8356 0.9770
-2.5127 -4.9175 -1.8356 0.9770
-1.1298 -5.4419 -1.8475 0.9768
-0.6431 -5.5442 -1.8553 0.9767
-0.1473 -5.6087 -1.8650 0.9766
0.3553 -5.6344 -1.8766 0.9765
1.3705 -5.5658 -1.9054 0.9761
2.8766 -5.1534 -1.9618 0.9754
3.8331 -4.6673 -2.0076 0.9749
4.7186 -4.0130 -2.0590 0.9742
5.1250 -3.6244 -2.0865 0.9739
5.4855 -3.1869 -2.1088 0.9736
5.7065 -2.0692 -2.0177 0.9747
6.1501 -1.0519 -2.0740 0.9740
6.3034 -0.5064 -2.1021 0.9737
6.3865 1.8140 -2.2069 0.9724
6.0813 2.9767 -2.2506 0.9719
5.2967 3.8916 -2.1848 0.9727
4.1629 4.3914 -2.0114 0.9748
3.6919 4.6651 -1.9775 0.9752
3.2093 4.8959 -1.9459 0.9756
1.6028 3.7723 -1.3624 0.9829
1.3157 5.7932 -1.9747 0.9753
0.2818 6.2776 -2.0888 0.9739
-0.7990 5.9458 -1.9942 0.9750
-1.4725 6.4990 -2.2151 0.9723
-2.0237 6.2733 -2.1911 0.9726
-3.8878 4.9178 -2.0838 0.9739
-4.2523 4.4902 -2.0557 0.9743
-4.8459 3.5642 -1.9996 0.9750
-5.4590 3.3089 -2.1219 0.9735
-5.8096 2.2298 -2.0685 0.9741
-5.9585 1.1337 -2.0162 0.9748
-5.7201 -0.9754 -1.9288 0.9758
-5.5590 -1.4676 -1.9111 0.9761
-5.1283 -2.3929 -1.8811 0.9764
-4.8627 -2.8218 -1.8688 0.9766
-3.5130 -4.2731 -1.8388 0.9770
-3.1137 -4.5625 -1.8361 0.9770
-0.8474 -5.5061 -1.8518 0.9768
-0.3551 -5.5865 -1.8607 0.9767
0.1449 -5.6284 -1.8715 0.9765
0.6503 -5.6311 -1.8842 0.9764
1.1583 -5.5936 -1.8988 0.9762
1.6664 -5.5152 -1.9151 0.9760
3.6384 -4.7827 -1.9976 0.9750
4.5412 -4.1632 -2.0479 0.9744
5.3425 -3.3759 -2.1007 0.9737
2.3158 -0.9387 -0.8306 0.9895
5.8534 -1.7841 -2.0341 0.9745
6.0721 -1.2728 -2.0623 0.9742
6.2454 -0.7366 -2.0904 0.9738
6.3698 -0.1795 -2.1182 0.9735
6.4422 0.3938 -2.1454 0.9732
6.3222 2.1566 -2.2204 0.9722
5.9477 3.3050 -2.2618 0.9717
4.9577 4.0556 -2.1291 0.9734
4.4113 4.3194 -2.0522 0.9743
2.4653 5.2501 -1.9280 0.9758
1.4331 3.9287 -1.3901 0.9825
1.5190 5.6975 -1.9600 0.9755
0.4884 2.8230 -0.9523 0.9880
0.5078 6.1720 -2.0585 0.9742
-1.1201 5.9658 -2.0177 0.9747
-1.7971 6.3738 -2.2013 0.9725
-2.8328 5.8157 -2.1503 0.9731
-3.2977 5.4704 -2.1232 0.9734
-3.7228 5.0875 -2.0955 0.9738
-4.1056 4.6720 -2.0674 0.9741
-4.4441 4.2291 -2.0392 0.9745
-4.9843 3.2810 -1.9836 0.9752
-5.5874 3.0013 -2.1083 0.9736
-5.7544 2.4581 -2.0800 0.9740
-5.8726 1.9102 -2.0527 0.9743
-5.9460 0.2784 -1.9786 0.9752
-5.8817 -0.2497 -1.9569 0.9755
-5.7760 -0.7649 -1.9367 0.9757
-5.4479 -1.7458 -1.9016 0.9762
-5.2295 -2.2070 -1.8868 0.9764
1.6762 5.6153 -2.0956 0.9754
0.3452 3.0794 -1.1081 0.9869
-0.9282 5.8999 -2.1358 0.9749
-1.4871 5.9407 -2.1900 0.9743
-1.9901 5.7257 -2.1677 0.9746
-3.3173 4.8261 -2.0942 0.9754
-3.6881 4.4557 -2.0684 0.9757
-4.0193 4.0576 -2.0424 0.9760
-2.4141 2.0371 -1.1296 0.9867
-4.5572 3.1966 -1.9906 0.9766
-5.3075 2.4549 -2.0912 0.9755
-5.4373 1.9479 -2.0654 0.9758
-5.5224 1.4383 -2.0407 0.9760
-5.5622 0.4254 -1.9949 0.9766
-5.3168 -1.0300 -1.9367 0.9773
-4.9690 -1.9262 -1.9058 0.9776
-4.7453 -2.3454 -1.8929 0.9778
-3.8973 -3.4648 -1.8648 0.9781
-2.4254 -4.5785 -1.8529 0.9782
-1.5785 -4.9498 -1.8579 0.9782
-0.2155 -5.2503 -1.8791 0.9779
0.2547 -5.2785 -1.8898 0.9778
0.7288 -5.2692 -1.9022 0.9777
1.2043 -5.2219 -1.9164 0.9775
1.6786 -5.1359 -1.9322 0.9773
2.1488 -5.0107 -1.9497 0.9771
3.0651 -4.6420 -1.9892 0.9766
3.9276 -4.1156 -2.0344 0.9761
4.3301 -3.7943 -2.0589 0.9758
4.9911 -2.4224 -1.9840 0.9767
5.9085 -0.0337 -2.1130 0.9752
5.9548 1.0390 -2.1616 0.9746
5.6276 2.6523 -2.2248 0.9739
5.4106 3.1677 -2.2421 0.9737
4.8097 4.1183 -2.2643 0.9735
3.5595 4.3639 -2.0139 0.9764
3.2840 4.8521 -2.0952 0.9754
1.8748 5.5216 -2.0853 0.9755
0.4225 2.8175 -1.0188 0.9880
0.3718 6.2269 -2.2307 0.9738
-1.7833 5.8211 -2.1772 0.9745
-2.2706 5.5793 -2.1541 0.9747
-3.5381 4.6139 -2.0792 0.9756
-4.1934 3.8147 -2.0272 0.9762
-4.4589 3.3821 -2.0014 0.9765
-4.6821 2.9334 -1.9758 0.9768
-5.2398 2.6647 -2.1022 0.9753
-5.5517 1.1415 -2.0268 0.9762
-5.5678 0.6350 -2.0040 0.9765
-5.5422 0.1349 -1.9825 0.9767
-5.3715 -0.8345 -1.9439 0.9772
-5.2298 -1.2984 -1.9270 0.9774
-4.3291 -2.9634 -1.8761 0.9780
-3.3559 -3.9613 -1.8566 0.9782
-2.1850 -4.7002 -1.8536 0.9782
-1.7600 -4.8832 -1.8562 0.9782
-0.8703 -5.1480 -1.8671 0.9781
0.5306 -5.2777 -1.8968 0.9777
1.9533 -5.0677 -1.9422 0.9772
2.8775 -4.7320 -1.9805 0.9767
4.9124 -3.2066 -2.0978 0.9754
4.8714 -2.5926 -1.9734 0.9768
2.3005 -0.9722 -0.8931 0.9894
5.3909 -1.7306 -2.0247 0.9762
5.5947 -1.2593 -2.0508 0.9759
5.8737 -0.2524 -2.1024 0.9753
5.9621 0.8129 -2.1518 0.9748
5.9291 1.3554 -2.1750 0.9745
5.7022 2.4324 -2.2169 0.9740
5.5076 2.9549 -2.2351 0.9738
5.2598 3.4585 -2.2511 0.9736
3.4842 4.7563 -2.1084 0.9753
3.0079 4.9839 -2.0817 0.9756
2.5395 5.2068 -2.0717 0.9757
1.4584 3.8217 -1.4628 0.9828
0.0479 6.2739 -2.2436 0.9737
-1.5720 5.9084 -2.1864 0.9744
-2.5410 5.4184 -2.1401 0.9749
-3.7457 4.3916 -2.0641 0.9758
-2.4502 2.0064 -1.1325 0.9866
-5.1566 2.8688 -2.1102 0.9752
-5.4545 1.8637 -2.0613 0.9758
-5.5322 1.3539 -2.0367 0.9761
-5.5085 -0.1525 -1.9706 0.9769
-5.4198 -0.6365 -1.9515 0.9771
-4.9342 -1.9970 -1.9035 0.9776
-4.4459 -2.8062 -1.8801 0.9779
-3.1423 -4.1262 -1.8547 0.9782
-1.9392 -4.8108 -1.8549 0.9782
-0.6030 -5.1988 -1.8716 0.9780
-0.1381 -5.2575 -1.8808 0.9779
1.7568 -5.1179 -1.9350 0.9773
2.2260 -4.9862 -1.9527 0.9771
3.1389 -4.6044 -1.9928 0.9766
3.5760 -4.3543 -2.0149 0.9763
4.7687 -3.3724 -2.0887 0.9755
5.0976 -2.9616 -2.1083 0.9753
5.0370 -2.3534 -1.9882 0.9767
5.5145 -1.4589 -2.0399 0.9761
5.6943 -0.9740 -2.0659 0.9758
5.9603 0.5877 -2.1418 0.9749
5.9493 1.1288 -2.1655 0.9746
5.8853 1.6716 -2.1879 0.9743
5.7674 2.2103 -2.2087 0.9741
4.7184 4.1624 -2.2501 0.9736
3.9500 4.1668 -2.0532 0.9759
2.7344 5.1142 -2.0739 0.9757
0.3835 2.8428 -1.0258 0.9879
0.2815 6.2690 -2.2441 0.9737
-0.2770 6.2408 -2.2339 0.9738
-1.3566 5.9872 -2.1953 0.9743
-2.3485 5.5351 -2.1502 0.9748
-2.8003 5.2437 -2.1258 0.9751
-3.9397 4.1602 -2.0490 0.9760
-2.3994 2.1188 -1.1447 0.9865
-4.7149 2.8579 -1.9717 0.9769
-5.2676 2.5817 -2.0978 0.9754
-5.4089 2.0760 -2.0718 0.9757
-5.5340 0.0529 -1.9791 0.9768
-5.4615 -0.4360 -1.9593 0.9770
-4.8046 -2.2419 -1.8960 0.9777
-3.2960 -4.0091 -1.8560 0.9782
-2.9216 -4.2810 -1.8534 0.9782
-2.5275 -4.5226 -1.8527 0.9782
-2.1158 -4.7327 -1.8539 0.9782
-1.6883 -4.9103 -1.8569 0.9782
-1.2473 -5.0543 -1.8617 0.9781
-0.7947 -5.1636 -1.8683 0.9781
0.1358 -5.2749 -1.8870 0.9778
1.0846 -5.2374 -1.9127 0.9775
1.5595 -5.1612 -1.9281 0.9774
2.0310 -5.0459 -1.9451 0.9772
2.4962 -4.8913 -1.9638 0.9769
2.9521 -4.6971 -1.9839 0.9767
3.3955 -4.4634 -2.0055 0.9765
4.2309 -3.8788 -2.0526 0.9759
4.9662 -3.1381 -2.1008 0.9754
4.9195 -2.5257 -1.9776 0.9768
2.3159 -0.9387 -0.8936 0.9894
5.9603 0.9025 -2.1557 0.9747
5.8232 1.9864 -2.2002 0.9742
5.6737 2.5199 -2.2201 0.9740
5.2138 3.5396 -2.2536 0.9736
4.9062 4.0135 -2.2667 0.9734
3.4045 4.7944 -2.1028 0.9753
2.9300 5.0210 -2.0789 0.9756
2.4622 5.2435 -2.0716 0.9757
1.4188 3.8895 -1.4806 0.9826
1.5171 5.6902 -2.1059 0.9753
0.5072 6.1637 -2.2116 0.9741
-1.1183 5.9567 -2.1674 0.9746
-3.0480 5.0561 -2.1112 0.9752
-3.4443 4.7068 -2.0857 0.9755
-4.1199 3.9206 -2.0338 0.9761
-4.6299 3.0477 -1.9822 0.9767
-5.5678 0.7620 -2.0096 0.9764
-5.4014 -0.7153 -1.9484 0.9771
-5.1006 -1.6345 -1.9154 0.9775
-4.6644 -2.4794 -1.8890 0.9778
0.6077 2.9847 -1.1673 0.9870
0.1301 5.8045 -2.2249 0.9754
-0.3850 5.7531 -2.2096 0.9756
-0.8891 5.6513 -2.1923 0.9758
-2.2866 5.0693 -2.1311 0.9765
-3.0820 4.4838 -2.0850 0.9770
-4.2489 2.9804 -1.9889 0.9780
-4.9568 2.2927 -2.0929 0.9769
-5.0822 1.8207 -2.0688 0.9771
-5.2082 0.8702 -2.0235 0.9776
-5.0999 -0.5227 -1.9646 0.9783
-4.9898 -0.9667 -1.9477 0.9785
-4.6681 -1.8096 -1.9186 0.9788
-4.4597 -2.2043 -1.9064 0.9789
-4.2221 -2.5785 -1.8959 0.9790
-3.3512 -3.5626 -1.8744 0.9793
-2.6576 -4.0884 -1.8687 0.9793
-1.8909 -4.4983 -1.8700 0.9793
-1.0671 -4.7836 -1.8782 0.9792
-0.6388 -4.8770 -1.8849 0.9792
0.2394 -4.9613 -1.9035 0.9789
1.1310 -4.9040 -1.9286 0.9787
2.8718 -4.3493 -1.9973 0.9779
4.0482 -3.5472 -2.0626 0.9772
4.3985 -3.2091 -2.0865 0.9769
4.6545 -2.2590 -1.9827 0.9781
5.2714 -0.9819 -2.0548 0.9773
5.5265 0.4626 -2.1253 0.9765
5.5198 0.9631 -2.1472 0.9763
5.4645 1.4652 -2.1681 0.9761
5.3598 1.9638 -2.1875 0.9758
5.0018 2.9283 -2.2211 0.9755
4.7502 3.3832 -2.2349 0.9753
4.4526 3.8125 -2.2463 0.9752
4.0251 4.1224 -2.2079 0.9756
3.5494 4.3514 -2.1519 0.9762
1.6689 3.7720 -1.5807 0.9825
0.4224 2.8167 -1.0915 0.9879
0.3469 5.8107 -2.2307 0.9754
-0.1711 5.7807 -2.2163 0.9755
-1.1758 5.5697 -2.1814 0.9759
-2.9267 4.6171 -2.0949 0.9769
-2.6518 2.0114 -1.2755 0.9858
-4.8855 2.4846 -2.1004 0.9768
-5.0350 2.0183 -2.0788 0.9770
-5.1954 1.0682 -2.0326 0.9775
-5.2143 0.5947 -2.0112 0.9778
-5.1939 0.1264 -1.9910 0.9780
-5.1353 -0.3337 -1.9721 0.9782
-5.0400 -0.7830 -1.9546 0.9784
-4.7459 -1.6393 -1.9242 0.9787
-4.5503 -2.0419 -1.9113 0.9789
-4.3247 -2.4249 -1.9001 0.9790
-4.0708 -2.7866 -1.8905 0.9791
-3.7904 -3.1251 -1.8826 0.9792
-3.4854 -3.4392 -1.8764 0.9792
-3.1576 -3.7272 -1.8720 0.9793
-2.4410 -4.2202 -1.8683 0.9793
-1.6560 -4.5947 -1.8716 0.9793
-1.2429 -4.7348 -1.8759 0.9792
-0.3855 -4.9159 -1.8896 0.9791
1.3905 -4.8599 -1.9371 0.9786
1.8329 -4.7553 -1.9530 0.9784
4.2553 -3.3543 -2.0764 0.9771
2.2995 -0.9718 -0.9567 0.9894
5.2055 -1.1717 -2.0448 0.9774
5.4556 -0.2344 -2.0926 0.9769
5.5284 0.7538 -2.1382 0.9764
5.0927 2.7323 -2.2147 0.9755
4.5822 3.6369 -2.2419 0.9753
4.2085 4.0008 -2.2252 0.9754
3.4502 4.7100 -2.2374 0.9753
3.0040 4.9775 -2.2279 0.9754
0.5572 2.9595 -1.1541 0.9872
0.5643 5.8077 -2.2361 0.9753
-1.4560 5.4722 -2.1700 0.9760
-1.9194 5.2700 -2.1493 0.9763
-3.7887 3.7135 -2.0330 0.9775
-4.8064 2.6740 -2.1077 0.9767
-5.0841 -0.5970 -1.9617 0.9783
-4.9683 -1.0388 -1.9451 0.9785
-4.8182 -1.4660 -1.9300 0.9787
-4.4224 -2.2676 -1.9045 0.9789
-3.9105 -2.9868 -1.8857 0.9791
-3.6155 -3.3112 -1.8788 0.9792
-2.9568 -3.8826 -1.8702 0.9793
-1.4167 -4.6802 -1.8739 0.9793
-0.5671 -4.8892 -1.8862 0.9791
-0.1298 -4.9430 -1.8949 0.9790
0.3129 -4.9620 -1.9053 0.9789
1.2047 -4.8927 -1.9310 0.9786
3.7380 -3.8028 -2.0435 0.9774
4.1078 -3.4936 -2.0665 0.9772
4.4540 -3.1498 -2.0905 0.9769
4.9322 -1.7884 -2.0105 0.9778
5.2955 -0.9058 -2.0588 0.9772
5.4174 -0.4353 -2.0827 0.9770
5.4959 0.0498 -2.1062 0.9767
5.5287 0.5451 -2.1290 0.9765
5.5140 1.0462 -2.1508 0.9762
5.4506 1.5481 -2.1714 0.9760
5.1751 2.5331 -2.2080 0.9756
4.9635 3.0052 -2.2236 0.9755
4.7041 3.4562 -2.2369 0.9753
4.3990 3.8807 -2.2480 0.9752
3.9447 4.1612 -2.1973 0.9757
3.2011 4.8834 -2.2376 0.9753
1.5951 3.7541 -1.5631 0.9827
1.3011 5.7288 -2.2513 0.9751
0.2608 5.8093 -2.2285 0.9754
-1.7289 5.3596 -2.1581 0.9762
-2.1778 5.1328 -2.1367 0.9764
-2.5989 4.8666 -2.1142 0.9766
-3.6659 3.8711 -2.0431 0.9774
-2.4031 2.1221 -1.2286 0.9864
-4.1935 3.0843 -1.9949 0.9779
-4.9149 2.4088 -2.0975 0.9768
-5.1486 1.4652 -2.0514 0.9773
-5.2013 0.9896 -2.0290 0.9776
-4.7157 -1.7072 -1.9219 0.9787
-4.5150 -2.1067 -1.9093 0.9789
-4.2846 -2.4863 -1.8984 0.9790
-4.0261 -2.8442 -1.8891 0.9791
-1.5885 -4.6201 -1.8722 0.9793
0.5724 -4.9567 -1.9121 0.9789
1.0187 -4.9191 -1.9251 0.9787
1.9056 -4.7344 -1.9558 0.9784
3.5775 -3.9214 -2.0341 0.9775
3.9562 -3.6269 -2.0568 0.9773
4.5887 -2.3559 -1.9767 0.9781
5.0536 -1.5404 -2.0246 0.9776
5.3717 -0.6336 -2.0728 0.9771
5.5207 0.3375 -2.1196 0.9766
5.4831 1.3389 -2.1630 0.9761
5.2489 2.3312 -2.2010 0.9757
5.0577 2.8104 -2.2173 0.9755
4.8180 3.2709 -2.2316 0.9754
3.6670 4.2949 -2.1642 0.9761
2.4591 5.2368 -2.2171 0.9755
1.9911 5.4584 -2.2266 0.9754
1.5151 5.6828 -2.2538 0.9751
0.5110 2.9533 -1.1486 0.9872
-0.0413 5.7932 -2.2201 0.9755
-0.5534 5.7249 -2.2041 0.9757
-1.9937 5.2324 -2.1458 0.9763
-2.4268 4.9822 -2.1237 0.9765
-2.8302 4.6948 -2.1008 0.9768
-3.5367 4.0246 -2.0532 0.9773
-3.8355 3.6500 -2.0290 0.9776
-2.5104 1.9946 -1.2287 0.9864
-4.8386 2.5991 -2.1048 0.9767
-5.1843 1.1879 -2.0382 0.9775
-5.1535 -0.2188 -1.9767 0.9781
-5.0674 -0.6711 -1.9589 0.9783
-4.6024 -1.9423 -1.9144 0.9788
0.1208 5.3895 -2.2063 0.9770
-0.3577 5.3444 -2.1922 0.9771
-0.8264 5.2528 -2.1763 0.9773
-1.2808 5.1166 -2.1587 0.9775
-1.7165 4.9384 -2.1398 0.9777
-2.8746 4.1820 -2.0769 0.9783
-3.2012 3.8674 -2.0547 0.9785
-3.4944 3.5278 -2.0323 0.9788
-2.3812 2.0094 -1.2752 0.9866
-3.9753 2.7884 -1.9873 0.9792
-4.6399 2.1461 -2.0923 0.9781
-4.8473 1.2624 -2.0501 0.9786
-1.9545 0.1495 -0.8023 0.9916
-1.9109 -0.0247 -0.7822 0.9918
-1.9575 -0.2006 -0.8054 0.9915
-4.3971 -1.7045 -1.9301 0.9798
-3.4573 -3.0737 -1.8933 0.9802
-3.1610 -3.3603 -1.8881 0.9803
-2.5071 -3.8569 -1.8827 0.9803
-2.1532 -4.0645 -1.8825 0.9803
-1.0064 -4.5115 -1.8918 0.9802
-0.1910 -4.6535 -1.9062 0.9801
0.6450 -4.6638 -1.9269 0.9799
3.7967 -3.3268 -2.0660 0.9784
4.1222 -3.0075 -2.0884 0.9782
4.4082 -2.6489 -2.1048 0.9780
4.7672 -1.3368 -2.0263 0.9788
5.0377 -0.4797 -2.0711 0.9784
5.1139 -0.0292 -2.0930 0.9781
5.1479 0.4309 -2.1143 0.9779
5.0831 1.3630 -2.1539 0.9775
4.9826 1.8256 -2.1718 0.9773
4.4092 3.1403 -2.2155 0.9769
3.8138 3.9060 -2.2343 0.9767
3.4594 4.2412 -2.2400 0.9766
2.6568 4.7973 -2.2444 0.9766
1.7585 5.1792 -2.2385 0.9766
-0.1589 5.3689 -2.1983 0.9771
-0.6323 5.2965 -2.1831 0.9772
-1.0932 5.1787 -2.1662 0.9774
-1.5372 5.0177 -2.1478 0.9776
-2.3584 4.5776 -2.1075 0.9780
-3.3762 3.6723 -2.0416 0.9787
-2.3346 2.1238 -1.2917 0.9865
-2.5591 1.9411 -1.3146 0.9862
-4.0881 2.5613 -1.9744 0.9794
-4.5715 2.3249 -2.0991 0.9781
-1.9494 -0.1267 -0.7995 0.9916
-4.6219 -1.1475 -1.9491 0.9796
-4.4697 -1.5439 -1.9354 0.9798
-4.2871 -1.9238 -1.9232 0.9799
-3.8378 -2.6271 -1.9034 0.9801
-3.5743 -2.9470 -1.8960 0.9802
-3.2873 -3.2437 -1.8901 0.9802
-2.6497 -3.7621 -1.8833 0.9803
-2.3028 -3.9813 -1.8824 0.9803
-1.9397 -4.1724 -1.8832 0.9803
-1.5621 -4.3341 -1.8856 0.9803
-0.3634 -4.6346 -1.9027 0.9801
0.0513 -4.6704 -1.9116 0.9800
1.3090 -4.5753 -1.9477 0.9796
2.1342 -4.3391 -1.9791 0.9793
2.9237 -3.9634 -2.0157 0.9789
3.2978 -3.7238 -2.0358 0.9787
3.6540 -3.4506 -2.0569 0.9785
4.2540 -2.2640 -1.9723 0.9794
2.2984 -0.9714 -1.0213 0.9893
4.6922 -1.5063 -2.0169 0.9789
4.8615 -1.0943 -2.0395 0.9787
4.9939 -0.6639 -2.0619 0.9785
5.0871 -0.2186 -2.0840 0.9782
