ply
format ascii 1.0
element vertex 1592
property float32 x
property float32 y
property float32 z
property float32 I
end_header
4.4597 -6.8758 -1.9261 0.9669
5.1382 -6.5552 -1.9575 0.9664
5.8010 -6.1745 -1.9911 0.9658
6.4430 -5.7331 -2.0269 0.9652
7.0585 -5.2306 -2.0647 0.9645
8.1853 -4.0444 -2.1458 0.9632
8.4712 -2.4367 -2.0717 0.9644
9.1219 -0.9268 -2.1549 0.9630
9.3458 -0.1107 -2.1966 0.9623
9.4933 0.7379 -2.2379 0.9616
9.5583 1.6111 -2.2781 0.9610
8.3657 3.0141 -2.0898 0.9641
7.2840 3.3868 -1.8879 0.9675
6.3800 3.6923 -1.7324 0.9702
5.6114 3.9559 -1.6136 0.9722
4.9360 4.1869 -1.5212 0.9738
4.3256 4.3909 -1.4486 0.9750
3.7432 4.5493 -1.3846 0.9761
3.3106 4.8486 -1.3798 0.9762
2.2359 5.0034 -1.2880 0.9777
0.8413 5.4917 -1.3057 0.9774
-0.0774 2.8853 -0.6784 0.9882
-0.7100 6.0813 -1.4390 0.9752
-4.9666 7.8641 -2.1860 0.9625
-5.5410 7.2479 -2.1442 0.9632
-6.0460 6.5933 -2.1024 0.9639
-6.4808 5.9087 -2.0612 0.9646
-7.6947 4.8288 -2.1350 0.9634
-2.8022 1.4270 -0.7390 0.9872
-8.2618 1.6986 -1.9823 0.9659
-8.2407 0.9381 -1.9493 0.9665
-8.0246 -0.5262 -1.8900 0.9675
-7.5982 -1.8941 -1.8404 0.9683
-7.3137 -2.5355 -1.8193 0.9687
-6.9857 -3.1459 -1.8006 0.9690
-6.6170 -3.7234 -1.7844 0.9693
-6.2101 -4.2664 -1.7708 0.9695
-4.7856 -5.6749 -1.7447 0.9700
-4.2507 -6.0665 -1.7409 0.9700
-3.6893 -6.4172 -1.7397 0.9700
-3.1037 -6.7257 -1.7409 0.9700
-2.4960 -6.9908 -1.7446 0.9700
-1.8684 -7.2112 -1.7508 0.9699
0.1117 -7.5909 -1.7842 0.9693
1.4886 -7.5950 -1.8190 0.9687
5.6235 -6.2835 -1.9818 0.9659
6.2717 -5.8585 -2.0170 0.9653
2.3463 -0.9746 -0.5971 0.9896
8.7374 -1.9068 -2.1018 0.9639
9.4613 0.5055 -2.2268 0.9618
9.5492 1.3729 -2.2674 0.9611
9.5506 2.2585 -2.3065 0.9605
8.6999 2.8987 -2.1552 0.9630
6.6082 3.6140 -1.7702 0.9695
5.1111 4.1271 -1.5439 0.9734
4.4874 4.3399 -1.4672 0.9747
3.4513 4.8010 -1.3896 0.9760
2.9401 4.9738 -1.3579 0.9765
2.3631 4.9622 -1.2917 0.9777
1.8966 5.1158 -1.2823 0.9778
0.9693 5.4440 -1.2996 0.9775
0.2426 2.7883 -0.6578 0.9886
-1.5522 5.5895 -1.3634 0.9764
-2.5137 6.6726 -1.6758 0.9711
-4.7995 8.0231 -2.1972 0.9623
-5.9163 6.7737 -2.1137 0.9637
-6.3701 6.0964 -2.0723 0.9644
-2.7071 1.4621 -0.7231 0.9874
-8.0741 3.4689 -2.0653 0.9645
-8.2523 1.1423 -1.9580 0.9663
-8.0667 -0.3332 -1.8975 0.9674
-7.3951 -2.3650 -1.8247 0.9686
-6.7206 -3.5705 -1.7886 0.9692
-5.8907 -4.6400 -1.7624 0.9697
-5.4238 -5.1201 -1.7530 0.9698
-4.9256 -5.5620 -1.7461 0.9699
-3.2644 -6.6465 -1.7403 0.9700
-2.6625 -6.9234 -1.7433 0.9700
-1.3993 -7.3431 -1.7568 0.9698
-0.7424 -7.4830 -1.7673 0.9696
1.9970 -7.5441 -1.8341 0.9684
2.6959 -7.4272 -1.8570 0.9681
3.3940 -7.2545 -1.8824 0.9676
4.7727 -6.7361 -1.9402 0.9666
5.4446 -6.3880 -1.9727 0.9661
6.0985 -5.9795 -2.0073 0.9655
6.7291 -5.5101 -2.0440 0.9649
7.3304 -4.9797 -2.0827 0.9642
7.8963 -4.3889 -2.1232 0.9636
8.2543 -2.8132 -2.0495 0.9648
8.6423 -2.1063 -2.0906 0.9641
8.9711 -1.3525 -2.1322 0.9634
9.2337 -0.5568 -2.1741 0.9627
9.4234 0.2751 -2.2157 0.9620
7.8420 3.1946 -1.9901 0.9658
6.8528 3.5351 -1.8122 0.9688
2.4914 4.9213 -1.2964 0.9776
2.0220 5.0738 -1.2837 0.9778
0.6213 5.5750 -1.3184 0.9772
0.0574 2.6593 -0.6251 0.9891
-0.9783 6.1696 -1.4681 0.9747
-1.6054 6.3754 -1.5451 0.9733
-4.6276 8.1784 -2.2085 0.9621
-5.2387 7.5866 -2.1668 0.9628
-5.7814 6.9517 -2.1250 0.9635
-6.6568 5.5867 -2.0425 0.9649
-6.9895 4.8727 -2.0025 0.9656
-2.6891 1.5375 -0.7280 0.9874
-8.0287 3.6819 -2.0759 0.9644
-8.1715 2.8958 -2.0375 0.9650
-8.2475 2.1160 -2.0011 0.9656
-8.2596 1.3476 -1.9669 0.9662
-8.1049 -0.1386 -1.9051 0.9672
-7.9445 -0.8494 -1.8778 0.9677
-7.4732 -2.1922 -1.8304 0.9685
-6.8214 -3.4151 -1.7929 0.9691
-6.4348 -3.9770 -1.7779 0.9694
-6.0113 -4.5037 -1.7653 0.9696
-5.5534 -4.9939 -1.7553 0.9698
-4.5435 -5.8596 -1.7426 0.9700
-3.9962 -6.2326 -1.7400 0.9700
-3.4235 -6.5641 -1.7399 0.9700
-2.2104 -7.0976 -1.7471 0.9699
-1.5743 -7.2971 -1.7544 0.9698
-0.9216 -7.4499 -1.7642 0.9696
0.4247 -7.6100 -1.7913 0.9692
-7.0836 -1.4600 -1.8726 0.9706
-6.8484 -2.0637 -1.8519 0.9709
-6.5706 -2.6404 -1.8335 0.9712
-6.2530 -3.1882 -1.8173 0.9714
-5.5082 -4.1903 -1.7919 0.9718
-4.1521 -5.4368 -1.7713 0.9721
-3.6454 -5.7785 -1.7690 0.9722
-3.1150 -6.0812 -1.7691 0.9722
-2.5630 -6.3437 -1.7715 0.9721
-1.9916 -6.5647 -1.7762 0.9721
-0.1834 -6.9663 -1.8043 0.9716
0.4428 -7.0089 -1.8183 0.9714
1.0765 -7.0036 -1.8346 0.9711
2.3547 -6.8445 -1.8741 0.9705
2.9929 -6.6883 -1.8972 0.9702
4.2497 -6.2173 -1.9499 0.9694
5.4530 -5.5297 -2.0108 0.9684
6.0231 -5.1038 -2.0441 0.9679
6.5653 -4.6234 -2.0791 0.9674
7.5283 -3.4958 -2.1491 0.9663
7.3938 -2.6597 -2.0345 0.9681
7.7393 -2.0249 -2.0713 0.9675
8.4302 0.1041 -2.1829 0.9658
7.0139 3.4699 -2.0261 0.9682
5.4129 4.0154 -1.7450 0.9725
4.7594 4.2392 -1.6502 0.9740
4.1682 4.4410 -1.5770 0.9751
2.6199 4.9658 -1.4537 0.9771
2.1252 5.0823 -1.4263 0.9775
1.6730 5.2838 -1.4350 0.9774
1.2010 5.4414 -1.4428 0.9772
0.1016 2.6446 -0.6852 0.9891
-0.3032 5.9398 -1.5399 0.9757
-1.8228 5.5144 -1.5038 0.9763
-4.0415 7.4318 -2.1903 0.9656
-4.6099 6.9225 -2.1534 0.9662
-5.1194 6.3709 -2.1161 0.9668
-5.5680 5.7846 -2.0788 0.9674
-6.5417 3.8879 -1.9703 0.9690
-7.2669 3.4819 -2.0864 0.9673
-7.4211 2.7714 -2.0511 0.9678
-7.5136 2.0632 -2.0174 0.9683
-7.5469 1.3622 -1.9856 0.9688
-7.4459 -0.0019 -1.9279 0.9697
-7.1396 -1.2924 -1.8786 0.9705
-6.6498 -2.4871 -1.8382 0.9711
-6.3428 -3.0430 -1.8215 0.9714
-5.6170 -4.0624 -1.7948 0.9718
-5.2031 -4.5228 -1.7850 0.9719
-3.7849 -5.6899 -1.7694 0.9722
-3.2607 -6.0032 -1.7688 0.9722
-2.1480 -6.5091 -1.7747 0.9721
-0.9641 -6.8454 -1.7899 0.9718
-0.3511 -6.9468 -1.8009 0.9717
0.2726 -7.0020 -1.8143 0.9715
0.9045 -7.0098 -1.8300 0.9712
1.5418 -6.9688 -1.8480 0.9709
2.8206 -6.7357 -1.8907 0.9703
3.4553 -6.5413 -1.9154 0.9699
4.0821 -6.2936 -1.9423 0.9695
5.8714 -5.2244 -2.0349 0.9680
6.4217 -4.7587 -2.0694 0.9675
6.9400 -4.2390 -2.1056 0.9670
7.4174 -3.6649 -2.1421 0.9664
8.3918 -0.0994 -2.1729 0.9659
8.5502 1.4412 -2.2450 0.9648
8.5146 2.2323 -2.2791 0.9643
5.6032 3.9501 -1.7751 0.9721
4.9292 4.1811 -1.6736 0.9736
4.3230 4.3882 -1.5949 0.9749
3.7666 4.5777 -1.5349 0.9758
2.7508 4.9216 -1.4598 0.9770
2.2715 5.0831 -1.4415 0.9773
0.8514 5.5577 -1.4558 0.9770
-1.3078 6.2699 -1.6583 0.9739
-1.6717 5.5003 -1.4884 0.9765
-2.7931 1.4224 -0.8116 0.9871
-7.5352 0.8578 -1.9636 0.9692
-7.3568 -0.4824 -1.9089 0.9700
-6.7260 -2.3318 -1.8432 0.9710
-5.7233 -3.9320 -1.7979 0.9717
-5.3182 -4.4016 -1.7874 0.9719
-4.4156 -5.2361 -1.7734 0.9721
-2.3031 -6.4503 -1.7734 0.9721
0.7329 -7.0125 -1.8255 0.9713
1.3690 -6.9848 -1.8429 0.9710
2.0084 -6.9075 -1.8625 0.9707
2.6480 -6.7793 -1.8844 0.9704
3.2842 -6.5991 -1.9085 0.9700
6.2757 -4.8901 -2.0599 0.9677
7.2946 -3.8265 -2.1328 0.9665
7.8802 -1.7197 -2.0883 0.9672
8.3483 -0.3010 -2.1629 0.9661
8.4836 0.4533 -2.1997 0.9655
8.5463 1.2287 -2.2355 0.9650
5.8003 3.8825 -1.8072 0.9716
5.1040 4.1213 -1.6985 0.9733
3.9130 4.5278 -1.5495 0.9756
3.4470 4.7951 -1.5290 0.9759
2.4001 5.0398 -1.4453 0.9772
1.0108 3.7156 -0.9970 0.9842
0.9818 5.5143 -1.4502 0.9771
-0.5559 6.0230 -1.5661 0.9753
-1.1403 6.2149 -1.6360 0.9742
-1.5527 5.5916 -1.5026 0.9763
-2.5099 6.6625 -1.8434 0.9710
-4.8512 6.6742 -2.1363 0.9665
-5.7531 5.5059 -2.0618 0.9676
-2.7071 1.4621 -0.7966 0.9874
-7.4711 2.4458 -2.0354 0.9680
-7.4944 0.3610 -1.9427 0.9695
-7.3930 -0.3054 -1.9158 0.9699
-7.2415 -0.9519 -1.8911 0.9703
-6.5138 -2.7458 -1.8303 0.9712
-5.8272 -3.7993 -1.8011 0.9717
-4.0586 -5.5041 -1.7706 0.9721
-3.5472 -5.8386 -1.7688 0.9722
-1.8820 -6.6016 -1.7774 0.9720
0.5617 -7.0116 -1.8212 0.9714
1.1965 -6.9971 -1.8380 0.9711
1.8353 -6.9334 -1.8570 0.9708
3.7442 -6.4343 -1.9275 0.9697
4.3659 -6.1619 -1.9553 0.9693
4.9734 -5.8351 -1.9851 0.9688
7.1656 -3.9827 -2.1226 0.9667
7.7985 -1.9006 -2.0783 0.9674
8.0795 -1.2181 -2.1156 0.9668
8.4539 0.2468 -2.1898 0.9657
8.4713 2.5966 -2.2941 0.9641
7.8279 3.1889 -2.1885 0.9657
6.8416 3.5294 -1.9932 0.9687
6.0046 3.8122 -1.8416 0.9710
3.5895 4.7467 -1.5409 0.9757
3.0724 4.9219 -1.5023 0.9763
2.0547 5.1559 -1.4370 0.9773
-0.4059 5.9736 -1.5502 0.9756
-1.9431 5.5622 -1.5255 0.9759
-3.5389 7.8087 -2.2198 0.9652
-4.7105 6.8216 -2.1464 0.9663
-5.6455 5.6708 -2.0718 0.9675
-6.0204 5.0526 -2.0350 0.9680
-6.3331 4.4151 -1.9989 0.9686
-7.4432 2.6376 -2.0446 0.9679
-6.8693 -2.0150 -1.8535 0.9709
-5.9286 -3.6641 -1.8045 0.9716
-5.1216 -4.6056 -1.7834 0.9719
-4.6712 -5.0245 -1.7763 0.9721
-4.1926 -5.4070 -1.7715 0.9721
-2.6091 -6.3237 -1.7712 0.9721
-2.0392 -6.5481 -1.7757 0.9721
-0.2344 -6.9608 -1.8033 0.9716
-6.0790 -2.4428 -1.8547 0.9731
-5.7890 -2.9516 -1.8396 0.9733
-5.1047 -3.8834 -1.8157 0.9737
-4.2964 -4.6900 -1.8006 0.9739
-3.3816 -5.3603 -1.7942 0.9740
-2.8895 -5.6410 -1.7943 0.9740
-2.3773 -5.8839 -1.7965 0.9740
-0.7409 -6.3733 -1.8164 0.9737
-0.1698 -6.4528 -1.8274 0.9735
0.4100 -6.4885 -1.8405 0.9733
2.1749 -6.3219 -1.8926 0.9726
3.3424 -5.9731 -1.9377 0.9719
4.4700 -5.4270 -1.9904 0.9712
5.0088 -5.0792 -2.0194 0.9708
5.5250 -4.6817 -2.0501 0.9703
6.7418 -2.4252 -2.0283 0.9707
7.0456 -1.8434 -2.0617 0.9702
7.4984 -0.5790 -2.1291 0.9692
7.5228 2.9178 -2.2842 0.9670
7.0021 3.4641 -2.2116 0.9680
6.1421 3.7559 -2.0381 0.9705
4.7528 4.2334 -1.8018 0.9739
2.1227 5.0763 -1.5576 0.9774
1.6710 5.2775 -1.5671 0.9772
1.1996 5.4348 -1.5756 0.9771
0.7190 5.5946 -1.5968 0.9768
0.1009 2.6266 -0.7441 0.9891
-0.3028 5.9322 -1.6816 0.9756
-0.8646 6.1167 -1.7488 0.9746
-1.4781 6.3175 -1.8367 0.9734
-1.8203 5.5069 -1.6419 0.9762
-3.6604 6.7311 -2.1690 0.9686
-4.1819 6.2798 -2.1359 0.9691
-4.6515 5.7887 -2.1023 0.9696
-5.0673 5.2644 -2.0685 0.9701
-5.7325 4.1416 -2.0020 0.9710
-5.9815 3.5550 -1.9698 0.9715
-6.8054 2.5414 -2.0565 0.9703
-6.8624 -0.0017 -1.9427 0.9719
-6.5933 -1.1935 -1.8968 0.9725
-5.8711 -2.8167 -1.8434 0.9733
-5.5549 -3.3052 -1.8299 0.9735
-5.2049 -3.7644 -1.8185 0.9736
-4.8233 -4.1927 -1.8092 0.9738
-3.5109 -5.2780 -1.7945 0.9740
-3.0247 -5.5688 -1.7940 0.9740
-2.5177 -5.8220 -1.7957 0.9740
-1.4499 -6.2111 -1.8056 0.9738
-0.8935 -6.3445 -1.8138 0.9737
0.2524 -6.4832 -1.8367 0.9734
1.4256 -6.4436 -1.8683 0.9729
2.6035 -6.2172 -1.9081 0.9724
3.1862 -6.0317 -1.9311 0.9720
4.8651 -5.1783 -2.0114 0.9709
6.3502 -3.8788 -2.1065 0.9695
2.3574 -0.9130 -0.7157 0.9895
6.9682 -2.0044 -2.0526 0.9703
7.6062 -0.0901 -2.1534 0.9689
7.6993 0.5984 -2.1862 0.9684
7.7258 1.3022 -2.2180 0.9680
7.6824 2.0141 -2.2483 0.9675
7.5667 2.7262 -2.2769 0.9671
7.2591 3.3752 -2.2663 0.9673
6.3599 3.6807 -2.0802 0.9699
5.5950 3.9443 -1.9379 0.9719
4.9224 4.1753 -1.8273 0.9735
3.7618 4.5718 -1.6761 0.9757
1.7980 5.2350 -1.5670 0.9773
0.8504 5.5510 -1.5898 0.9769
-0.0759 2.8281 -0.8009 0.9883
-0.7082 6.0654 -1.7287 0.9749
-1.3060 6.2612 -1.8107 0.9738
-1.6702 5.4953 -1.6259 0.9764
-2.9280 7.2366 -2.2100 0.9681
-3.5108 6.8454 -2.1779 0.9685
-4.0458 6.4061 -2.1449 0.9690
-4.5297 5.9251 -2.1114 0.9695
-4.9602 5.4092 -2.0777 0.9700
-5.3357 4.8647 -2.0441 0.9704
-6.7702 2.7167 -2.0652 0.9701
-6.8844 0.1648 -1.9495 0.9718
-6.7855 -0.4449 -1.9250 0.9721
-5.9505 -2.6797 -1.8475 0.9732
-5.3028 -3.6431 -1.8213 0.9736
-4.9296 -4.0799 -1.8115 0.9737
-4.5263 -4.4848 -1.8038 0.9739
-4.0953 -4.8562 -1.7983 0.9739
-3.6386 -5.1930 -1.7951 0.9740
-3.1584 -5.4937 -1.7939 0.9740
-2.1360 -5.9824 -1.7983 0.9739
-0.4801 -6.4152 -1.8212 0.9736
0.0953 -6.4747 -1.8331 0.9734
0.6783 -6.4899 -1.8472 0.9732
1.2661 -6.4597 -1.8635 0.9730
1.8560 -6.3831 -1.8818 0.9727
3.6058 -5.8653 -1.9491 0.9718
5.2488 -4.9030 -2.0333 0.9706
6.8871 -2.1628 -2.0436 0.9704
7.1686 -1.5644 -2.0772 0.9700
7.5700 -0.2729 -2.1444 0.9690
7.6052 2.5340 -2.2694 0.9672
5.7916 3.8767 -1.9730 0.9714
5.0968 4.1155 -1.8545 0.9731
3.4427 4.7891 -1.6697 0.9758
2.9330 4.9617 -1.6317 0.9763
-0.0070 2.6646 -0.7543 0.9890
-0.5552 6.0152 -1.7101 0.9752
-1.5533 5.5937 -1.6435 0.9762
-2.5061 6.6523 -2.0124 0.9709
-3.3577 6.9563 -2.1867 0.9684
-4.4040 6.0590 -2.1205 0.9693
-4.8491 5.5519 -2.0868 0.9698
-5.2396 5.0145 -2.0531 0.9703
-2.7071 1.4621 -0.8710 0.9873
-6.7309 2.8918 -2.0739 0.9700
-6.9244 1.5991 -2.0119 0.9709
-6.8169 -0.2816 -1.9315 0.9720
-6.6840 -0.8786 -1.9085 0.9724
-6.5064 -1.4557 -1.8875 0.9727
-6.2867 -2.0105 -1.8685 0.9729
-6.0272 -2.5407 -1.8517 0.9732
-5.7303 -3.0444 -1.8369 0.9734
-5.3983 -3.5196 -1.8244 0.9736
-5.0336 -3.9649 -1.8139 0.9737
-4.2145 -4.7591 -1.7996 0.9739
-3.7646 -5.1054 -1.7957 0.9740
-3.2905 -5.4160 -1.7940 0.9740
-2.7945 -5.6897 -1.7945 0.9740
-2.2787 -5.9253 -1.7972 0.9740
-1.7452 -6.1217 -1.8020 0.9739
-1.1962 -6.2775 -1.8091 0.9738
-0.6341 -6.3916 -1.8183 0.9737
-0.0612 -6.4629 -1.8297 0.9735
0.5200 -6.4902 -1.8432 0.9733
1.1068 -6.4724 -1.8589 0.9731
1.6964 -6.4085 -1.8767 0.9728
3.4508 -5.9301 -1.9423 0.9719
4.5730 -5.3654 -1.9957 0.9711
5.6193 -4.6013 -2.0560 0.9703
6.1024 -4.1455 -2.0884 0.9698
6.4619 -2.8693 -2.0016 0.9710
7.0974 -1.7297 -2.0680 0.9701
7.5294 -0.4540 -2.1354 0.9691
7.6570 0.2236 -2.1686 0.9687
7.7200 0.9199 -2.2009 0.9682
7.7147 1.6284 -2.2321 0.9678
7.4890 3.0508 -2.2892 0.9669
6.8242 3.5204 -2.1738 0.9686
5.9955 3.8064 -2.0105 0.9709
4.0571 4.4712 -1.7092 0.9752
3.5850 4.7408 -1.6826 0.9756
2.5263 4.9903 -1.5834 0.9770
1.1125 3.7308 -1.1021 0.9839
0.6269 5.6252 -1.6023 0.9767
-0.9757 6.1531 -1.7637 0.9744
-1.6009 6.3576 -1.8560 0.9731
-1.9397 5.5524 -1.6650 0.9758
-3.2011 7.0635 -2.1954 0.9683
-3.7625 6.6494 -2.1629 0.9687
-4.2744 6.1901 -2.1296 0.9692
-4.7340 5.6923 -2.0959 0.9697
-5.1394 5.1625 -2.0622 0.9702
-5.4894 4.6070 -2.0288 0.9706
-5.7836 4.0320 -1.9959 0.9711
-6.8274 2.4194 -2.0506 0.9703
-6.9112 1.7732 -2.0199 0.9708
-6.9178 0.5012 -1.9635 0.9716
-6.8449 -0.1170 -1.9380 0.9719
-6.5587 -1.3017 -1.8929 0.9726
-6.3502 -1.8628 -1.8734 0.9729
-6.1012 -2.3998 -1.8560 0.9731
-5.8142 -2.9108 -1.8407 0.9733
-5.4915 -3.3940 -1.8276 0.9735
-5.1354 -3.8474 -1.8165 0.9737
-4.7481 -4.2698 -1.8077 0.9738
-4.3318 -4.6595 -1.8010 0.9739
-3.8888 -5.0152 -1.7966 0.9740
-3.4210 -5.3355 -1.7943 0.9740
-2.4201 -5.8654 -1.7962 0.9740
-1.8911 -6.0725 -1.8005 0.9739
-1.3461 -6.2394 -1.8070 0.9738
-0.7874 -6.3649 -1.8156 0.9737
0.3620 -6.4872 -1.8393 0.9734
-6.0738 -1.2519 -1.9074 0.9744
-5.8814 -1.7723 -1.8893 0.9746
-5.3843 -2.7453 -1.8589 0.9750
-5.0840 -3.1940 -1.8467 0.9752
-4.3908 -4.0072 -1.8284 0.9754
-3.5879 -4.6980 -1.8182 0.9756
-3.1506 -4.9942 -1.8162 0.9756
-2.6921 -5.2557 -1.8163 0.9756
-2.2147 -5.4816 -1.8184 0.9756
-1.7203 -5.6705 -1.8226 0.9755
-1.2112 -5.8213 -1.8289 0.9754
0.3813 -6.0347 -1.8598 0.9750
0.9257 -6.0226 -1.8742 0.9748
2.5615 -5.7241 -1.9289 0.9741
3.0972 -5.5349 -1.9508 0.9738
5.5422 -3.9030 -2.0850 0.9720
5.9554 -3.4426 -2.1158 0.9716
6.3122 -2.9311 -2.1406 0.9713
6.1891 -2.2264 -2.0231 0.9728
6.4593 -1.6900 -2.0536 0.9724
6.8558 -0.5294 -2.1150 0.9716
7.0335 0.7182 -2.1746 0.9708
7.0318 1.3609 -2.2030 0.9705
6.9663 2.0076 -2.2299 0.9701
5.3972 4.0037 -2.0670 0.9723
4.7463 4.2276 -1.9550 0.9738
4.1572 4.4293 -1.8684 0.9749
3.6807 4.7006 -1.8363 0.9753
2.6136 4.9537 -1.7227 0.9768
2.1202 5.0701 -1.6903 0.9773
1.6690 5.2711 -1.7006 0.9771
0.7181 5.5877 -1.7328 0.9767
0.1003 2.6107 -0.8036 0.9891
-0.8634 6.1085 -1.8975 0.9745
-1.4760 6.3085 -1.9928 0.9733
-3.3413 6.1443 -2.1512 0.9712
-3.8224 5.7400 -2.1211 0.9716
-4.9814 4.3257 -2.0292 0.9728
-5.2681 3.8061 -1.9990 0.9732
-5.5042 3.2712 -1.9694 0.9736
-6.2779 2.3444 -2.0612 0.9723
-6.4159 1.1581 -2.0053 0.9731
-6.3577 -0.0016 -1.9555 0.9737
-6.2599 -0.5628 -1.9332 0.9740
-6.1190 -1.1077 -1.9127 0.9743
-5.9373 -1.6336 -1.8940 0.9746
-5.1685 -3.0752 -1.8498 0.9751
-4.4913 -3.9041 -1.8304 0.9754
-3.2711 -4.9174 -1.8166 0.9756
-2.8181 -5.1884 -1.8161 0.9756
-1.8556 -5.6231 -1.8213 0.9755
-0.8319 -5.9067 -1.8347 0.9753
-0.3027 -5.9892 -1.8445 0.9752
0.2348 -6.0306 -1.8563 0.9751
0.7781 -6.0301 -1.8701 0.9749
1.3245 -5.9866 -1.8859 0.9747
1.8712 -5.8994 -1.9036 0.9744
2.4152 -5.7675 -1.9232 0.9742
2.9531 -5.5906 -1.9447 0.9739
3.4817 -5.3679 -1.9679 0.9736
3.9971 -5.0994 -1.9929 0.9732
4.9730 -4.4250 -2.0474 0.9725
5.4249 -4.0201 -2.0768 0.9721
6.2225 -3.0745 -2.1348 0.9714
2.3585 -0.9134 -0.7779 0.9895
6.3906 -1.8383 -2.0453 0.9726
6.6273 -1.2792 -2.0760 0.9721
6.8142 -0.6924 -2.1067 0.9717
7.0233 0.5459 -2.1667 0.9709
6.8773 2.4778 -2.2484 0.9699
3.2983 4.8306 -1.7991 0.9758
0.9211 3.7407 -1.1849 0.9840
0.8493 5.5442 -1.7252 0.9768
-0.0754 2.8131 -0.8656 0.9883
-0.7072 6.0574 -1.8758 0.9748
-1.3042 6.2525 -1.9645 0.9736
-1.6687 5.4903 -1.7650 0.9763
-4.1445 5.4212 -2.0989 0.9718
-4.5445 4.9558 -2.0682 0.9723
-4.8952 4.4630 -2.0375 0.9727
-5.1956 3.9484 -2.0071 0.9731
-6.3518 1.9106 -2.0401 0.9726
-6.3765 0.1527 -1.9618 0.9737
-5.9904 -1.4933 -1.8989 0.9745
-5.7802 -2.0039 -1.8817 0.9747
-5.5328 -2.4916 -1.8664 0.9749
-5.2506 -2.9545 -1.8531 0.9751
-3.8150 -4.5238 -1.8201 0.9755
-3.3900 -4.8381 -1.8170 0.9756
-2.4753 -5.3639 -1.8170 0.9756
-0.4468 -5.9709 -1.8416 0.9753
0.0887 -6.0235 -1.8529 0.9751
1.7235 -5.9273 -1.8986 0.9745
2.8084 -5.6429 -1.9387 0.9740
3.8592 -5.1766 -1.9860 0.9733
4.3626 -4.8746 -2.0121 0.9730
5.3054 -4.1340 -2.0687 0.9722
5.7360 -3.6970 -2.0990 0.9718
6.1296 -3.2154 -2.1290 0.9714
2.3374 -0.9709 -0.7785 0.9895
6.7688 -0.8536 -2.0984 0.9719
7.0087 0.3745 -2.1588 0.9711
6.9144 2.3038 -2.2417 0.9700
6.7531 2.9434 -2.2658 0.9696
6.5257 3.5688 -2.2877 0.9694
5.0895 4.1096 -2.0121 0.9730
4.4694 4.3225 -1.9124 0.9743
3.9029 4.5161 -1.8359 0.9753
2.9294 4.9556 -1.7706 0.9762
2.3943 5.0277 -1.7128 0.9770
1.9227 5.1861 -1.7012 0.9771
0.9795 5.5010 -1.7186 0.9769
0.2447 2.8123 -0.8683 0.9883
-0.0069 2.6411 -0.8124 0.9890
-1.1372 6.1980 -1.9382 0.9740
-3.0628 6.3454 -2.1672 0.9709
-3.5676 5.9638 -2.1375 0.9713
-4.0279 5.5416 -2.1072 0.9717
-4.4411 5.0847 -2.0765 0.9721
-5.1193 4.0895 -2.0153 0.9730
-5.3827 3.5622 -1.9853 0.9733
-6.1978 2.6628 -2.0748 0.9722
-6.3919 0.3079 -1.9683 0.9736
-6.0406 -1.3515 -1.9039 0.9744
-5.6033 -2.3620 -1.8703 0.9749
-5.3303 -2.8318 -1.8565 0.9751
-4.6862 -3.6913 -1.8348 0.9753
-3.5072 -4.7564 -1.8177 0.9756
-3.0658 -5.0461 -1.8161 0.9756
-2.6036 -5.3010 -1.8165 0.9756
-1.1139 -5.8454 -1.8303 0.9754
-0.5903 -5.9496 -1.8389 0.9753
1.5756 -5.9521 -1.8938 0.9746
2.6630 -5.6920 -1.9329 0.9740
3.7201 -5.2504 -1.9792 0.9734
4.2282 -4.9608 -2.0049 0.9731
5.9386 -2.6369 -1.9986 0.9732
6.5051 -1.5854 -2.0594 0.9724
6.7195 -1.0131 -2.0901 0.9720
6.8823 -0.4150 -2.1207 0.9716
7.0380 0.8387 -2.1800 0.9708
7.0244 1.4826 -2.2082 0.9704
6.9466 2.1293 -2.2348 0.9701
5.2689 4.0479 -2.0437 0.9726
4.6311 4.2670 -1.9369 0.9740
3.0649 4.9098 -1.7802 0.9761
1.1012 3.6929 -1.1853 0.9840
1.1086 5.4580 -1.7131 0.9770
0.6261 5.6182 -1.7387 0.9766
0.0561 2.5996 -0.7998 0.9892
-0.4049 5.9582 -1.8368 0.9753
-0.9744 6.1448 -1.9136 0.9743
-2.9190 6.4409 -2.1750 0.9708
-3.4353 6.0712 -2.1456 0.9712
-4.7116 4.7328 -2.0541 0.9724
-5.0393 4.2293 -2.0235 0.9728
-5.7192 2.6228 -1.9353 0.9740
-6.2996 2.2324 -2.0557 0.9724
-6.4185 1.0472 -2.0003 0.9732
-6.4040 0.4640 -1.9749 0.9735
-6.2366 -0.6668 -1.9292 0.9741
-6.0879 -1.2082 -1.9090 0.9744
-5.8986 -1.7303 -1.8907 0.9746
-5.1099 -3.1581 -1.8477 0.9752
-4.4215 -3.9761 -1.8290 0.9754
-4.0349 -4.3401 -1.8227 0.9755
-3.6228 -4.6722 -1.8185 0.9756
-2.7306 -5.2356 -1.8162 0.9756
-1.2536 -5.8104 -1.8283 0.9754
-0.2021 -6.0001 -1.8466 0.9752
-5.6620 -1.1670 -1.9216 0.9759
-5.4861 -1.6532 -1.9046 0.9761
-5.2741 -2.1194 -1.8894 0.9763
-4.4411 -3.3785 -1.8549 0.9768
-2.9465 -4.6707 -1.8357 0.9770
-2.0711 -5.1261 -1.8378 0.9770
-1.6085 -5.3020 -1.8417 0.9769
-1.1323 -5.4418 -1.8476 0.9768
-0.6445 -5.5446 -1.8555 0.9767
-0.1476 -5.6093 -1.8652 0.9766
0.3560 -5.6350 -1.8769 0.9765
0.8640 -5.6209 -1.8904 0.9763
1.3735 -5.5661 -1.9057 0.9761
1.8818 -5.4700 -1.9228 0.9759
2.3860 -5.3320 -1.9417 0.9757
4.7274 -4.0059 -2.0597 0.9742
5.5108 -3.1856 -2.1159 0.9735
6.2557 2.4264 -2.2304 0.9721
6.0700 3.0030 -2.2511 0.9719
5.3892 3.9978 -2.2305 0.9721
4.7396 4.2216 -2.1098 0.9736
3.1214 4.8178 -1.9082 0.9761
2.6103 4.9476 -1.8595 0.9767
2.1176 5.0639 -1.8245 0.9771
1.6670 5.2647 -1.8356 0.9770
1.1967 5.4216 -1.8455 0.9769
0.7173 5.5808 -1.8703 0.9766
0.1012 2.6334 -0.8760 0.9890
-0.3021 5.9168 -1.9693 0.9753
-3.0699 5.6453 -2.1360 0.9733
-3.5160 5.2798 -2.1086 0.9736
-4.5981 3.9928 -2.0243 0.9747
-5.2697 2.5249 -1.9423 0.9757
-5.8146 2.1714 -2.0632 0.9742
-5.9601 1.0758 -2.0132 0.9748
-4.8279 -2.8726 -1.8674 0.9766
-4.5274 -3.2744 -1.8573 0.9767
-3.8425 -3.9960 -1.8428 0.9769
-3.0592 -4.5988 -1.8360 0.9770
-2.6356 -4.8524 -1.8355 0.9770
-1.2624 -5.4076 -1.8458 0.9769
-0.2828 -5.5956 -1.8624 0.9767
0.2192 -5.6320 -1.8735 0.9765
0.7263 -5.6287 -1.8865 0.9764
1.2357 -5.5850 -1.9014 0.9762
1.7446 -5.5001 -1.9180 0.9760
2.2502 -5.3735 -1.9365 0.9757
2.7493 -5.2046 -1.9566 0.9755
3.2387 -4.9932 -1.9783 0.9752
3.7148 -4.7393 -2.0016 0.9749
4.6128 -4.1046 -2.0525 0.9743
5.0268 -3.7251 -2.0797 0.9740
5.4120 -3.3057 -2.1080 0.9736
5.7499 -2.8410 -2.1319 0.9733
2.3596 -0.9138 -0.8411 0.9894
5.8952 -1.6957 -2.0391 0.9745
6.3867 -0.0756 -2.1231 0.9734
6.4561 1.0882 -2.1763 0.9728
6.2956 2.2683 -2.2244 0.9722
4.9085 4.1635 -2.1395 0.9732
1.7937 5.2223 -1.8354 0.9770
0.9153 3.7172 -1.2725 0.9840
-1.3024 6.2437 -2.1201 0.9735
-1.6671 5.4852 -1.9057 0.9761
-2.4482 6.0509 -2.1697 0.9729
-2.9425 5.7374 -2.1433 0.9732
-3.8154 4.9907 -2.0882 0.9739
-4.5170 4.1183 -2.0319 0.9746
-4.7997 3.6476 -2.0039 0.9749
-5.0361 3.1604 -1.9764 0.9752
-5.7752 2.3174 -2.0685 0.9741
-5.8933 1.7727 -2.0457 0.9744
-5.9522 1.2237 -2.0199 0.9747
-5.9327 0.1421 -1.9726 0.9753
-5.5859 -1.3925 -1.9136 0.9760
-4.6117 -3.1683 -1.8598 0.9767
-4.2900 -3.5507 -1.8511 0.9768
-3.5674 -4.2302 -1.8394 0.9769
-3.1703 -4.5246 -1.8365 0.9770
-2.7521 -4.7871 -1.8355 0.9770
-2.3149 -5.0163 -1.8364 0.9770
-1.8607 -5.2112 -1.8393 0.9769
-1.3915 -5.3707 -1.8442 0.9769
-0.4175 -5.5791 -1.8597 0.9767
1.0978 -5.6009 -1.8972 0.9762
1.6071 -5.5272 -1.9134 0.9760
2.1139 -5.4119 -1.9313 0.9758
2.6150 -5.2545 -1.9510 0.9756
3.5875 -4.8122 -1.9952 0.9750
4.0518 -4.5272 -2.0196 0.9747
4.9175 -3.8318 -2.0723 0.9741
2.3344 -0.9697 -0.8402 0.9894
5.8306 -1.8310 -2.0314 0.9746
6.0537 -1.3211 -2.0596 0.9742
6.3606 -0.2293 -2.1157 0.9735
6.4376 0.3440 -2.1430 0.9732
6.3312 2.1095 -2.2183 0.9723
6.1779 2.6927 -2.2402 0.9720
5.6932 3.8108 -2.2773 0.9715
5.0822 4.1037 -2.1713 0.9728
4.4632 4.3166 -2.0639 0.9742
3.8978 4.5102 -1.9815 0.9752
3.3713 4.6897 -1.9199 0.9759
2.9219 4.9430 -1.9087 0.9761
1.9204 5.1798 -1.8363 0.9770
0.9637 3.5425 -1.2203 0.9846
-0.0069 2.6325 -0.8751 0.9890
-0.5537 5.9993 -2.0027 0.9749
-1.1356 6.1894 -2.0917 0.9738
-1.5545 5.5981 -1.9312 0.9758
-4.0919 4.6849 -2.0677 0.9741
-2.7071 1.4621 -1.0227 0.9871
-5.3358 2.2924 -1.9304 0.9758
-5.9457 0.2864 -1.9787 0.9752
-5.8821 -0.2430 -1.9569 0.9755
-5.6317 -1.2600 -1.9183 0.9760
-5.2303 -2.2048 -1.8867 0.9764
-4.9779 -2.6446 -1.8737 0.9765
-4.6937 -3.0602 -1.8625 0.9767
-4.3798 -3.4499 -1.8533 0.9768
-4.0382 -3.8121 -1.8459 0.9769
-3.6709 -4.1452 -1.8405 0.9769
-3.2799 -4.4481 -1.8371 0.9770
-2.4349 -4.9576 -1.8360 0.9770
-1.9851 -5.1620 -1.8384 0.9770
-1.5198 -5.3311 -1.8427 0.9769
-0.5516 -5.5597 -1.8572 0.9767
-0.0532 -5.6172 -1.8673 0.9766
0.9599 -5.6137 -1.8931 0.9763
1.4694 -5.5512 -1.9088 0.9761
1.9772 -5.4472 -1.9263 0.9759
3.4590 -4.8820 -1.9888 0.9751
4.8061 -3.9355 -2.0648 0.9742
5.2074 -3.5375 -2.0926 0.9738
5.5776 -3.1001 -2.1212 0.9735
5.4879 -2.4368 -1.9960 0.9750
5.9976 -1.4617 -2.0520 0.9743
6.3307 -0.3817 -2.1082 0.9736
6.4401 1.3593 -2.1879 0.9726
6.3624 1.9502 -2.2120 0.9723
6.0284 3.1098 -2.2548 0.9718
5.2612 4.0420 -2.2054 0.9724
4.6247 4.2611 -2.0903 0.9738
4.0464 4.4594 -2.0016 0.9749
3.5106 4.6423 -1.9347 0.9758
2.5201 4.9781 -1.8547 0.9768
2.0472 5.1372 -1.8382 0.9770
1.0937 3.6675 -1.2721 0.9840
0.0561 2.5984 -0.8639 0.9891
-0.4043 5.9503 -1.9825 0.9752
-1.5963 6.3393 -2.1730 0.9728
-2.6795 5.9125 -2.1578 0.9730
-3.9921 4.8002 -2.0753 0.9740
-4.3449 4.3644 -2.0471 0.9744
-4.9140 3.4257 -1.9912 0.9751
-2.7025 1.5452 -1.0348 0.9870
-5.2980 2.4296 -1.9374 0.9757
-5.8398 2.0695 -2.0595 0.9742
-5.9262 1.5205 -2.0337 0.9745
-5.9636 0.9730 -2.0086 0.9749
-5.9035 -0.1009 -1.9626 0.9754
-5.8092 -0.6211 -1.9420 0.9757
-5.6748 -1.1263 -1.9231 0.9759
-5.5020 -1.6139 -1.9059 0.9761
-5.2928 -2.0819 -1.8906 0.9763
-4.7736 -2.9503 -1.8654 0.9766
-4.1333 -3.7169 -1.8477 0.9768
-2.1084 -5.1101 -1.8375 0.9770
-1.6471 -5.2889 -1.8413 0.9769
-1.1719 -5.4317 -1.8471 0.9768
-0.6850 -5.5376 -1.8547 0.9768
0.3144 -5.6344 -1.8758 0.9765
-5.2974 -1.0919 -1.9342 0.9773
-5.1358 -1.5476 -1.9182 0.9775
-4.1645 -3.1681 -1.8712 0.9780
-3.8499 -3.5136 -1.8639 0.9781
-3.1481 -4.1221 -1.8548 0.9782
-1.5090 -4.9739 -1.8588 0.9782
-1.0620 -5.1041 -1.8643 0.9781
-0.1384 -5.2581 -1.8810 0.9779
0.3336 -5.2801 -1.8920 0.9778
0.8092 -5.2645 -1.9047 0.9776
2.6935 -4.8133 -1.9725 0.9768
3.5832 -4.3504 -2.0155 0.9763
4.0035 -4.0598 -2.0390 0.9761
4.4027 -3.7307 -2.0637 0.9758
4.7769 -3.3640 -2.0894 0.9755
5.1226 -2.9612 -2.1159 0.9752
5.0443 -2.3424 -1.9889 0.9767
5.3011 -1.9069 -2.0147 0.9764
5.5206 -1.4444 -2.0407 0.9761
5.6993 -0.9577 -2.0667 0.9757
5.8341 -0.4505 -2.0925 0.9754
5.9470 1.1510 -2.1662 0.9746
5.8806 1.6947 -2.1885 0.9743
5.5848 2.7629 -2.2282 0.9739
5.3560 3.2752 -2.2450 0.9737
5.0746 3.7645 -2.2595 0.9735
4.7329 4.2156 -2.2666 0.9734
4.1460 4.4174 -2.1665 0.9746
3.0335 4.6821 -1.9951 0.9766
2.1149 5.0577 -1.9604 0.9770
1.1952 5.4149 -1.9830 0.9767
0.1052 2.7382 -0.9799 0.9884
-0.8611 6.0918 -2.2001 0.9742
-1.3970 5.9708 -2.1929 0.9743
-2.8362 5.2153 -2.1230 0.9751
-3.6293 4.5165 -2.0720 0.9757
-4.2649 3.7035 -2.0199 0.9763
-4.5200 3.2656 -1.9941 0.9766
-4.7325 2.8126 -1.9687 0.9769
-5.0294 1.8782 -1.9199 0.9775
-5.5115 1.5134 -2.0439 0.9760
-5.5641 0.4974 -1.9977 0.9765
-5.5272 -0.0014 -1.9766 0.9768
-5.3350 -0.9657 -1.9388 0.9772
-5.1830 -1.4260 -1.9223 0.9774
-4.9961 -1.8686 -1.9075 0.9776
-4.2450 -3.0702 -1.8735 0.9780
-3.9375 -3.4227 -1.8657 0.9781
-3.2483 -4.0465 -1.8556 0.9782
-2.8704 -4.3151 -1.8533 0.9782
-2.0582 -4.7594 -1.8543 0.9782
-0.7291 -5.1769 -1.8696 0.9780
-0.2652 -5.2457 -1.8783 0.9779
0.2054 -5.2778 -1.8888 0.9778
0.6803 -5.2725 -1.9011 0.9777
1.1569 -5.2289 -1.9151 0.9775
3.0244 -4.6629 -1.9875 0.9767
5.4651 -1.5720 -2.0336 0.9761
5.6552 -1.0916 -2.0597 0.9758
5.9030 -0.0699 -2.1111 0.9752
5.9550 0.4628 -2.1360 0.9749
5.7979 2.0889 -2.2038 0.9742
5.4231 3.1386 -2.2407 0.9737
5.1558 3.6347 -2.2559 0.9736
4.8376 4.1034 -2.2685 0.9734
4.2997 4.3646 -2.1910 0.9743
3.5404 4.3028 -1.9927 0.9766
2.7373 4.8974 -2.0063 0.9764
1.7915 5.2158 -1.9722 0.9768
0.9072 3.6846 -1.3570 0.9840
0.8472 5.5304 -2.0008 0.9765
0.1733 2.7652 -0.9908 0.9883
-0.0756 2.8169 -1.0077 0.9881
-0.7053 6.0409 -2.1750 0.9745
-2.7177 5.2991 -2.1297 0.9750
-3.1426 4.9760 -2.1046 0.9753
-4.1886 3.8188 -2.0270 0.9762
-4.4552 3.3857 -2.0010 0.9765
-4.6792 2.9364 -1.9755 0.9768
-2.7711 1.4112 -1.1121 0.9869
-4.9991 2.0060 -1.9263 0.9774
-5.4909 1.6516 -2.0505 0.9759
-5.5669 0.6337 -2.0036 0.9765
-5.5412 0.1327 -1.9821 0.9767
-5.4750 -0.3590 -1.9621 0.9770
-5.2276 -1.3031 -1.9266 0.9774
-5.0500 -1.7507 -1.9114 0.9776
-4.5961 -2.5863 -1.8860 0.9778
-3.6971 -3.6631 -1.8612 0.9781
-3.3469 -3.9688 -1.8566 0.9782
-2.9747 -4.2454 -1.8538 0.9782
-1.3053 -5.0379 -1.8611 0.9781
-0.8532 -5.1521 -1.8675 0.9781
0.0776 -5.2728 -1.8858 0.9778
2.4443 -4.9113 -1.9618 0.9770
3.3483 -4.4912 -2.0033 0.9765
3.7785 -4.2219 -2.0261 0.9762
4.5777 -3.5670 -2.0753 0.9756
4.9394 -3.1836 -2.1015 0.9753
5.6079 -1.2238 -2.0526 0.9759
5.7668 -0.7273 -2.0786 0.9756
5.8804 -0.2120 -2.1042 0.9753
5.8319 1.9431 -2.1983 0.9742
5.6863 2.4784 -2.2182 0.9740
5.2333 3.5029 -2.2520 0.9736
4.4570 4.3106 -2.2173 0.9740
2.8395 4.8037 -1.9955 0.9766
1.9180 5.1734 -1.9731 0.9768
0.9570 3.5179 -1.3037 0.9846
0.9770 5.4873 -1.9932 0.9766
-1.1123 6.0624 -2.2041 0.9742
-1.5552 5.6003 -2.0785 0.9756
-2.5968 5.3800 -2.1363 0.9749
-3.4296 4.7184 -2.0860 0.9755
-4.6228 3.0593 -1.9824 0.9767
-2.7071 1.4621 -1.1002 0.9870
-4.9658 2.1335 -1.9328 0.9773
-5.5388 1.2791 -2.0329 0.9761
-5.5667 0.7705 -2.0097 0.9764
-5.5522 0.2674 -1.9878 0.9767
-5.4021 -0.7101 -1.9484 0.9771
-5.2697 -1.1790 -1.9311 0.9773
-2.6904 -4.4282 -1.8529 0.9782
-2.2847 -4.6518 -1.8533 0.9782
-1.4257 -5.0011 -1.8597 0.9782
-0.9766 -5.1247 -1.8656 0.9781
-0.0499 -5.2651 -1.8829 0.9779
0.4230 -5.2801 -1.8942 0.9777
1.3754 -5.1960 -1.9221 0.9774
1.8496 -5.0957 -1.9386 0.9772
2.3186 -4.9559 -1.9566 0.9770
2.7795 -4.7765 -1.9763 0.9768
4.0804 -4.0007 -2.0436 0.9760
4.4752 -3.6645 -2.0684 0.9757
4.8444 -3.2909 -2.0943 0.9754
5.3454 -1.8218 -2.0195 0.9763
5.5575 -1.3544 -2.0456 0.9760
5.7282 -0.8636 -2.0716 0.9757
5.9386 1.2535 -2.1705 0.9745
5.5458 2.8609 -2.2316 0.9738
5.3069 3.3693 -2.2480 0.9736
4.0409 4.4534 -2.1505 0.9748
3.3614 4.4450 -1.9929 0.9766
2.9546 4.7331 -1.9953 0.9766
2.5170 4.9718 -1.9928 0.9766
2.0447 5.1309 -1.9752 0.9768
1.1211 3.7594 -1.4029 0.9835
1.1059 5.4445 -1.9868 0.9767
0.6245 5.6041 -2.0165 0.9763
0.0562 2.6042 -0.9315 0.9890
-0.9677 6.1025 -2.2096 0.9741
-1.9296 5.5234 -2.0923 0.9755
-4.3162 3.6223 -2.0150 0.9763
-2.7064 1.5474 -1.1149 0.9868
-5.4300 1.9242 -2.0601 0.9758
-5.5238 1.4172 -2.0393 0.9761
-5.5634 0.9077 -2.0158 0.9763
-5.5157 -0.0943 -1.9728 0.9768
-5.3091 -1.0537 -1.9356 0.9773
-4.7313 -2.3687 -1.8921 0.9778
-4.1892 -3.1385 -1.8719 0.9780
-3.1787 -4.0994 -1.8550 0.9782
-2.7970 -4.3623 -1.8531 0.9782
-1.0992 -5.0947 -1.8638 0.9781
-0.6423 -5.1926 -1.8711 0.9780
-0.1770 -5.2546 -1.8801 0.9779
-4.9720 -1.0248 -1.9454 0.9785
-4.8228 -1.4533 -1.9303 0.9787
-3.3028 -3.6053 -1.8737 0.9793
-1.8284 -4.5255 -1.8705 0.9793
-0.5684 -4.8895 -1.8863 0.9791
-0.1301 -4.9435 -1.8951 0.9790
0.3135 -4.9625 -1.9055 0.9789
0.7602 -4.9458 -1.9176 0.9788
1.2074 -4.8928 -1.9312 0.9786
2.0925 -4.6763 -1.9633 0.9783
2.5250 -4.5122 -1.9815 0.9781
2.9467 -4.3109 -2.0011 0.9779
3.3545 -4.0727 -2.0220 0.9777
4.1153 -3.4872 -2.0671 0.9772
4.4616 -3.1419 -2.0912 0.9769
4.7774 -2.7617 -2.1147 0.9766
4.7033 -2.1840 -1.9872 0.9780
5.3000 -0.8906 -2.0595 0.9772
5.4975 0.0679 -2.1069 0.9767
5.5118 1.0667 -2.1514 0.9762
5.4460 1.5695 -2.1720 0.9760
5.1652 2.5554 -2.2084 0.9756
4.3804 3.9017 -2.2480 0.9752
2.9058 4.4849 -2.0479 0.9774
2.1123 5.0513 -2.0982 0.9768
1.1937 5.4080 -2.1223 0.9766
0.1048 2.7269 -1.0458 0.9884
-0.2943 5.7639 -2.2117 0.9756
-1.2936 5.5288 -2.1760 0.9760
-1.7655 5.3410 -2.1557 0.9762
-2.2130 5.1104 -2.1341 0.9764
-2.6324 4.8407 -2.1116 0.9767
-3.3744 4.1993 -2.0644 0.9772
-4.4155 2.6243 -1.9684 0.9782
-4.7004 1.7553 -1.9228 0.9787
-5.1523 1.4148 -2.0476 0.9774
-5.0066 -0.9063 -1.9498 0.9784
-4.8665 -1.3389 -1.9342 0.9786
-4.6932 -1.7553 -1.9202 0.9788
-4.2542 -2.5313 -1.8971 0.9790
-3.9920 -2.8872 -1.8880 0.9791
-3.7037 -3.2195 -1.8806 0.9792
-3.3913 -3.5267 -1.8750 0.9793
-3.0564 -3.8075 -1.8710 0.9793
-2.3272 -4.2845 -1.8685 0.9793
-1.9367 -4.4784 -1.8698 0.9793
-1.5316 -4.6411 -1.8729 0.9793
-1.1139 -4.7716 -1.8777 0.9792
-0.2493 -4.9323 -1.8926 0.9791
0.6392 -4.9538 -1.9141 0.9788
1.0865 -4.9107 -1.9274 0.9787
1.5323 -4.8310 -1.9422 0.9785
2.8338 -4.3691 -1.9957 0.9779
3.2457 -4.1408 -2.0162 0.9777
3.6413 -3.8757 -2.0379 0.9775
4.6970 -2.8690 -2.1092 0.9767
5.0879 -1.4635 -2.0288 0.9776
5.5248 0.4294 -2.1236 0.9765
5.4687 1.4337 -2.1665 0.9761
5.2148 2.4247 -2.2039 0.9757
4.4681 3.7900 -2.2453 0.9752
0.8462 5.5234 -2.1413 0.9763
-0.0756 2.8187 -1.0806 0.9880
-0.6656 5.7008 -2.1995 0.9757
-1.1623 5.5719 -2.1812 0.9759
-2.0946 5.1768 -2.1401 0.9764
-2.5219 4.9173 -2.1178 0.9766
-2.9187 4.6214 -2.0946 0.9769
-3.9004 3.5560 -2.0227 0.9776
-4.1522 3.1555 -1.9986 0.9779
-4.6711 1.8744 -1.9288 0.9787
-5.1275 1.5423 -2.0519 0.9773
-5.1945 1.0680 -2.0323 0.9775
-5.1930 0.1243 -1.9906 0.9780
-4.9077 -1.2234 -1.9383 0.9786
-4.5469 -2.0476 -1.9110 0.9789
-4.0656 -2.7931 -1.8903 0.9791
-3.1491 -3.7342 -1.8719 0.9793
-2.7991 -3.9949 -1.8693 0.9793
-1.6425 -4.6002 -1.8719 0.9793
0.0730 -4.9566 -1.8997 0.9790
0.5183 -4.9593 -1.9108 0.9789
0.9655 -4.9260 -1.9236 0.9787
1.8552 -4.7495 -1.9540 0.9784
2.2921 -4.6056 -1.9715 0.9782
3.1357 -4.2062 -2.0105 0.9778
3.9178 -3.6597 -2.0545 0.9773
4.2774 -3.3330 -2.0781 0.9770
4.6115 -2.9723 -2.1025 0.9768
4.9048 -2.5729 -2.1225 0.9766
2.3307 -0.9681 -0.9672 0.9892
5.0347 -1.5811 -2.0223 0.9776
5.2175 -1.1386 -2.0465 0.9774
5.4615 -0.1969 -2.0943 0.9769
5.5268 0.7946 -2.1398 0.9764
5.4877 1.2977 -2.1610 0.9761
5.0729 2.7743 -2.2157 0.9755
4.5526 3.6761 -2.2424 0.9752
4.2245 4.0857 -2.2522 0.9751
3.8095 4.4080 -2.2326 0.9754
3.1615 4.3979 -2.0756 0.9771
2.8016 4.7395 -2.1099 0.9767
2.3854 5.0089 -2.1260 0.9765
1.9156 5.1669 -2.1117 0.9767
0.9958 3.6606 -1.4538 0.9839
0.9758 5.4804 -2.1332 0.9764
-0.5286 5.7273 -2.2041 0.9757
-1.0295 5.6115 -2.1863 0.9759
-2.4092 4.9913 -2.1239 0.9765
-4.0880 3.2656 -2.0051 0.9778
-4.3112 2.8531 -1.9812 0.9781
-2.7071 1.4620 -1.1790 0.9869
-4.6389 1.9930 -1.9348 0.9786
-5.0997 1.6695 -2.0563 0.9773
-5.2024 0.2506 -1.9959 0.9779
-5.0680 -0.6662 -1.9588 0.9783
-4.9465 -1.1067 -1.9425 0.9785
-4.3846 -2.3294 -1.9027 0.9790
-4.1372 -2.6974 -1.8927 0.9791
-3.2402 -3.6589 -1.8730 0.9793
-2.1499 -4.3773 -1.8689 0.9793
-1.3413 -4.7050 -1.8749 0.9793
1.7357 -4.7820 -1.9495 0.9784
2.1747 -4.6482 -1.9666 0.9783
3.4295 -4.0237 -2.0260 0.9776
3.8165 -3.7420 -2.0483 0.9774
4.5238 -3.0731 -2.0958 0.9768
4.7502 -2.1092 -1.9917 0.9780
5.1718 -1.2604 -2.0399 0.9775
5.3259 -0.8030 -2.0641 0.9772
4.3175 3.9780 -2.2498 0.9752
3.9589 4.3630 -2.2577 0.9751
2.8182 4.5147 -2.0395 0.9775
2.5138 4.9655 -2.1328 0.9764
2.0397 5.1183 -2.1115 0.9767
1.0958 3.6748 -1.4695 0.9837
0.6237 5.5969 -2.1581 0.9762
-1.8518 5.3007 -2.1517 0.9762
-2.2943 5.0625 -2.1300 0.9765
-3.0897 4.4745 -2.0838 0.9770
-3.4371 4.1328 -2.0599 0.9772
-3.7479 3.7647 -2.0357 0.9775
-4.0208 3.3744 -2.0116 0.9778
-4.6039 2.1113 -1.9410 0.9785
-5.2089 0.3774 -2.0014 0.9779
-5.1706 -0.0884 -1.9818 0.9781
-4.4467 -2.2262 -1.9057 0.9789
-3.3298 -3.5817 -1.8741 0.9793
-2.9910 -3.8573 -1.8705 0.9793
-1.4538 -4.6682 -1.8737 0.9793
-0.6041 -4.8835 -1.8857 0.9791
-0.1664 -4.9403 -1.8943 0.9790
-4.6796 -0.9645 -1.9555 0.9796
-4.3717 -1.7568 -1.9283 0.9798
-4.1727 -2.1276 -1.9170 0.9800
-3.9459 -2.4790 -1.9072 0.9801
-3.6928 -2.8093 -1.8990 0.9801
-3.4154 -3.1170 -1.8925 0.9802
-3.1153 -3.4007 -1.8875 0.9803
-2.7943 -3.6589 -1.8843 0.9803
-2.4544 -3.8905 -1.8827 0.9803
-1.3391 -4.4139 -1.8878 0.9803
-0.9421 -4.5279 -1.8928 0.9802
-0.5359 -4.6101 -1.8995 0.9801
-0.1227 -4.6598 -1.9078 0.9801
1.1368 -4.6070 -1.9421 0.9797
1.5551 -4.5204 -1.9565 0.9796
1.9684 -4.3989 -1.9724 0.9794
2.7687 -4.0506 -2.0081 0.9790
3.5144 -3.5638 -2.0485 0.9786
3.8591 -3.2701 -2.0702 0.9784
4.4006 -2.0434 -1.9858 0.9792
4.6170 -1.6609 -2.0082 0.9790
4.9473 -0.8313 -2.0532 0.9786
5.1238 0.0633 -2.0972 0.9781
5.1298 0.9928 -2.1384 0.9777
4.7984 2.3739 -2.1911 0.9771
4.5969 2.8110 -2.2053 0.9770
4.3515 3.2280 -2.2175 0.9769
4.0642 3.6200 -2.2275 0.9768
3.7376 3.9822 -2.2352 0.9767
0.6914 5.3793 -2.2197 0.9768
0.1045 2.7206 -1.1143 0.9883
-0.2733 5.3540 -2.1941 0.9771
-1.2030 5.1416 -2.1611 0.9774
-1.6429 4.9701 -2.1424 0.9776
-3.1493 3.9192 -2.0578 0.9785
-3.4487 3.5828 -2.0353 0.9787
-3.7132 3.2244 -2.0127 0.9790
-2.6292 1.5626 -1.2518 0.9869
-4.4071 1.6458 -1.9254 0.9799
-2.1707 0.3918 -0.9028 0.9905
-1.9579 -0.1760 -0.8045 0.9915
-4.5818 -1.2606 -1.9449 0.9797
-4.4206 -1.6534 -1.9316 0.9798
-4.2294 -2.0291 -1.9199 0.9799
-3.7638 -2.7221 -1.9011 0.9801
-3.1986 -3.3264 -1.8887 0.9803
-1.8269 -4.2247 -1.8838 0.9803
-1.0505 -4.5002 -1.8913 0.9802
-0.6466 -4.5911 -1.8976 0.9802
-0.2350 -4.6496 -1.9054 0.9801
1.0231 -4.6244 -1.9384 0.9797
1.8573 -4.4352 -1.9680 0.9794
2.6631 -4.1059 -2.0030 0.9791
3.0483 -3.8889 -2.0223 0.9789
4.3979 -2.6863 -2.1092 0.9780
4.3367 -2.1428 -1.9798 0.9793
4.9112 -0.9479 -2.0471 0.9786
5.1096 -0.0605 -2.0914 0.9782
5.0872 1.3337 -2.1524 0.9775
4.9892 1.7976 -2.1704 0.9773
4.4221 3.1175 -2.2144 0.9769
3.8296 3.8874 -2.2334 0.9767
3.4353 4.1751 -2.2128 0.9769
3.0287 4.4358 -2.1983 0.9771
1.7764 5.1718 -2.2381 0.9766
0.8967 3.6417 -1.5350 0.9839
0.1720 2.7447 -1.1255 0.9882
-0.0701 2.6132 -1.0699 0.9888
-0.6185 5.2975 -2.1829 0.9772
-1.5259 5.0206 -2.1476 0.9776
-2.3497 4.5815 -2.1073 0.9780
-3.6452 3.3234 -2.0188 0.9789
-3.8836 2.9513 -1.9964 0.9791
-4.3788 1.7571 -1.9310 0.9798
-1.9212 0.0460 -0.7865 0.9917
-1.9497 -0.1278 -0.7997 0.9916
-2.0066 -0.3133 -0.8312 0.9913
-4.6201 -1.1517 -1.9487 0.9796
-3.8329 -2.6333 -1.9032 0.9801
-3.5684 -2.9534 -1.8958 0.9802
-2.9705 -3.5224 -1.8858 0.9803
-2.6406 -3.7686 -1.8833 0.9803
-1.9281 -4.1781 -1.8833 0.9803
-1.5493 -4.3393 -1.8858 0.9803
-1.1582 -4.4701 -1.8899 0.9802
-0.7567 -4.5696 -1.8957 0.9802
-0.3470 -4.6370 -1.9031 0.9801
1.3293 -4.5716 -1.9485 0.9796
2.1556 -4.3313 -1.9801 0.9793
2.5566 -4.1586 -1.9979 0.9791
3.6752 -3.4331 -2.0584 0.9785
2.3292 -0.9675 -1.0323 0.9892
4.7054 -1.4776 -2.0185 0.9789
4.8723 -1.0633 -2.0411 0.9787
5.0923 -0.1836 -2.0855 0.9782
5.1457 0.7398 -2.1277 0.9778
5.1058 1.2074 -2.1473 0.9776
5.0203 1.6727 -2.1657 0.9774
3.1572 4.3920 -2.2138 0.9769
2.7567 4.6636 -2.2172 0.9769
0.9530 5.3527 -2.2252 0.9768
-0.4912 5.3213 -2.1871 0.9772
-0.9571 5.2167 -2.1707 0.9773
-1.4074 5.0680 -2.1527 0.9775
-1.8376 4.8780 -2.1334 0.9777
-2.2442 4.6495 -2.1130 0.9779
-2.9734 4.0908 -2.0698 0.9784
-4.0346 2.6700 -1.9801 0.9793
-2.6702 1.4422 -1.2421 0.9870
-4.3478 1.8679 -1.9367 0.9798
-4.8625 1.1229 -2.0425 0.9787
-1.9476 0.2696 -0.8047 0.9915
-1.9397 0.0934 -0.7948 0.9916
-1.9505 -0.2564 -0.8052 0.9915
-4.5117 -1.4428 -1.9386 0.9797
-3.9002 -2.5428 -1.9055 0.9801
-3.3605 -3.1723 -1.8914 0.9802
-3.0564 -3.4513 -1.8868 0.9803
-2.3883 -3.9310 -1.8825 0.9803
-2.0282 -4.1294 -1.8829 0.9803
-1.6531 -4.2987 -1.8849 0.9803
-1.2651 -4.4378 -1.8886 0.9803
-0.8662 -4.5458 -1.8940 0.9802
-0.4586 -4.6220 -1.9010 0.9801
-0.0442 -4.6655 -1.9095 0.9800
0.3746 -4.6756 -1.9197 0.9799
1.2159 -4.5934 -1.9447 0.9797
1.6335 -4.5002 -1.9594 0.9795
3.2199 -3.7778 -2.0316 0.9788
3.5809 -3.5110 -2.0525 0.9786
3.9215 -3.2111 -2.0744 0.9783
4.5201 -2.5123 -2.1165 0.9779
4.8307 -1.1773 -2.0350 0.9787
5.0719 -0.3058 -2.0796 0.9783
5.1319 0.1498 -2.1013 0.9781
5.0479 1.5473 -2.1609 0.9774
4.7639 2.4575 -2.1939 0.9771
4.3005 3.3039 -2.2195 0.9768
3.2640 4.3162 -2.2147 0.9769
2.8145 4.5087 -2.1753 0.9773
2.4757 4.8903 -2.2434 0.9766
1.0834 5.3340 -2.2276 0.9768
-0.3630 5.3418 -2.1913 0.9771
-1.2874 5.1125 -2.1577 0.9775
-1.7234 4.9333 -2.1387 0.9777
-2.8819 4.1735 -2.0758 0.9783
-3.2083 3.8577 -2.0535 0.9785
-3.5012 3.5169 -2.0310 0.9788
-2.6575 1.5195 -1.2529 0.9869
-4.8433 1.2426 -2.0465 0.9786
-1.9529 0.1415 -0.8014 0.9916
-1.9150 -0.0327 -0.7839 0.9918
-4.6896 -0.9307 -1.9567 0.9795
-4.5538 -1.3358 -1.9423 0.9797
-4.3868 -1.7255 -1.9293 0.9798
-4.1902 -2.0978 -1.9178 0.9800
-3.9655 -2.4508 -1.9079 0.9801
-3.7146 -2.7830 -1.8996 0.9801
-3.4391 -3.0926 -1.8929 0.9802
-3.1408 -3.3783 -1.8879 0.9803
-2.4830 -3.8725 -1.8827 0.9803
-0.1568 -4.6570 -1.9071 0.9801
0.2610 -4.6762 -1.9168 0.9800
-1.5121 -0.3117 -0.6729 0.9933
-1.5745 -0.4744 -0.7167 0.9929
-2.9450 -3.2148 -1.9001 0.9812
-2.6418 -3.4592 -1.8970 0.9812
-2.3205 -3.6783 -1.8954 0.9812
-1.2659 -4.1726 -1.9003 0.9812
-0.1159 -4.4025 -1.9193 0.9810
0.2791 -4.4168 -1.9287 0.9809
1.0730 -4.3483 -1.9519 0.9806
1.4672 -4.2648 -1.9656 0.9805
1.8562 -4.1482 -1.9806 0.9804
2.9656 -3.6006 -2.0330 0.9799
3.3069 -3.3534 -2.0525 0.9797
4.4986 -1.1770 -2.0266 0.9799
4.6333 -0.7786 -2.0476 0.9797
4.7318 -0.3654 -2.0683 0.9795
4.7921 0.0592 -2.0886 0.9793
4.7915 0.9273 -2.1270 0.9789
4.4748 2.2138 -2.1758 0.9785
4.2850 2.6202 -2.1889 0.9783
4.0547 3.0078 -2.2002 0.9782
3.7858 3.3720 -2.2095 0.9781
3.4807 3.7085 -2.2166 0.9781
3.1426 4.0134 -2.2215 0.9780
2.3816 4.5141 -2.2243 0.9780
1.5362 4.8515 -2.2178 0.9780
-1.5344 4.6418 -2.1307 0.9789
-1.9259 4.4473 -2.1121 0.9791
-2.6358 3.9581 -2.0725 0.9795
-3.2315 3.3573 -2.0308 0.9799
-3.4819 3.0235 -2.0097 0.9801
-2.6031 1.5471 -1.3197 0.9869
-2.7094 1.2982 -1.3093 0.9870
-1.5001 0.2708 -0.6643 0.9934
-1.5278 0.1366 -0.6685 0.9933
-1.5222 -0.0004 -0.6634 0.9934
-1.5277 -0.1374 -0.6685 0.9933
-1.4999 -0.2715 -0.6643 0.9934
-1.5606 -0.4294 -0.7054 0.9930
-1.5986 -0.5979 -0.7438 0.9926
-3.7883 -2.2540 -1.9211 0.9809
-3.5566 -2.5723 -1.9129 0.9810
-3.0237 -3.1444 -1.9012 0.9811
-2.7257 -3.3955 -1.8976 0.9812
-2.4091 -3.6216 -1.8957 0.9812
-2.0757 -3.8215 -1.8953 0.9812
-1.7273 -3.9942 -1.8965 0.9812
-0.6111 -4.3388 -1.9096 0.9811
0.5686 -4.4069 -1.9365 0.9808
0.9658 -4.3652 -1.9484 0.9807
2.1353 -4.0423 -1.9924 0.9803
2.8704 -3.6620 -2.0278 0.9799
3.2163 -3.4234 -2.0471 0.9797
3.8501 -2.8531 -2.0884 0.9793
4.1286 -2.5218 -2.1084 0.9791
2.3656 -0.9162 -1.1056 0.9890
4.6003 -0.8879 -2.0419 0.9798
4.7796 -0.0566 -2.0832 0.9794
4.8013 0.8093 -2.1220 0.9790
4.7497 1.2452 -2.1400 0.9788
4.3404 2.5120 -2.1856 0.9784
3.8622 3.2761 -2.2072 0.9781
3.5667 3.6205 -2.2149 0.9781
2.4903 4.4555 -2.2245 0.9780
1.6541 4.8160 -2.2192 0.9780
0.8912 3.6192 -1.6244 0.9839
0.7661 5.0008 -2.2049 0.9782
0.1752 2.7956 -1.2208 0.9879
-0.5769 4.9414 -2.1682 0.9785
-1.4249 4.6882 -2.1355 0.9788
-1.8221 4.5034 -2.1172 0.9790
-2.5461 4.0314 -2.0780 0.9794
-2.8672 3.7505 -2.0575 0.9796
-3.1582 3.4441 -2.0365 0.9798
-3.4174 3.1157 -2.0154 0.9800
-2.6670 1.3582 -1.3044 0.9870
-4.1164 1.6518 -1.9330 0.9808
-1.5269 0.0366 -0.6656 0.9934
-1.5295 -0.1003 -0.6680 0.9933
-1.5106 -0.2359 -0.6663 0.9934
-1.5920 -0.5519 -0.7343 0.9927
-4.0457 -1.8219 -1.9337 0.9808
-3.8466 -2.1645 -1.9236 0.9809
-2.8082 -3.3300 -1.8984 0.9812
-2.1675 -3.7701 -1.8953 0.9812
-1.8229 -3.9502 -1.8960 0.9812
-1.4647 -4.1023 -1.8984 0.9812
-1.0948 -4.2255 -1.9023 0.9811
-0.7152 -4.3188 -1.9078 0.9811
0.4612 -4.4126 -1.9335 0.9808
0.8584 -4.3797 -1.9451 0.9807
1.6465 -4.2154 -1.9723 0.9804
2.0323 -4.0836 -1.9879 0.9803
2.4091 -3.9188 -2.0048 0.9801
2.7741 -3.7211 -2.0228 0.9800
3.1244 -3.4911 -2.0418 0.9798
3.4572 -3.2295 -2.0618 0.9796
4.0582 -2.6157 -2.1042 0.9792
4.3064 -2.2590 -2.1193 0.9790
2.3278 -0.9669 -1.0985 0.9891
4.4114 -1.3853 -2.0151 0.9800
4.6831 -0.5906 -2.0571 0.9796
4.8064 0.2568 -2.0977 0.9792
4.8080 0.6913 -2.1170 0.9790
4.6853 1.5611 -2.1523 0.9787
4.5601 1.9876 -2.1680 0.9785
4.3928 2.4024 -2.1820 0.9784
4.1842 2.8007 -2.1944 0.9783
3.6501 3.5302 -2.2130 0.9781
2.5973 4.3940 -2.2245 0.9780
1.7711 4.7773 -2.2205 0.9780
0.9908 3.6419 -1.6449 0.9837
0.8878 4.9864 -2.2073 0.9781
-0.8931 4.8679 -2.1569 0.9786
-1.3140 4.7318 -2.1402 0.9788
-2.4543 4.1026 -2.0835 0.9794
-2.7832 3.8291 -2.0631 0.9796
-3.3505 3.2065 -2.0212 0.9800
-3.7870 2.5062 -1.9791 0.9804
-2.6436 1.4278 -1.3094 0.9870
-1.5855 0.5191 -0.7271 0.9927
-1.5317 0.3537 -0.6851 0.9932
-1.5289 -0.0632 -0.6669 0.9933
-1.5263 -0.3415 -0.6816 0.9932
-4.0948 -1.7262 -1.9367 0.9808
-3.4423 -2.7114 -1.9097 0.9811
-3.1765 -2.9986 -1.9037 0.9811
-2.8894 -3.2627 -1.8994 0.9812
-2.2581 -3.7167 -1.8953 0.9812
-1.5629 -4.0640 -1.8976 0.9812
-1.1959 -4.1951 -1.9011 0.9811
-0.4333 -4.3676 -1.9128 0.9810
-0.0417 -4.4076 -1.9210 0.9810
0.3538 -4.4159 -1.9307 0.9809
1.5410 -4.2454 -1.9683 0.9805
2.3082 -3.9666 -2.0001 0.9802
2.6767 -3.7778 -2.0178 0.9800
3.3691 -3.3033 -2.0563 0.9796
3.6872 -3.0193 -2.0770 0.9794
3.9826 -2.7055 -2.0983 0.9792
4.2423 -2.3580 -2.1153 0.9790
4.1699 -1.8516 -1.9884 0.9803
4.3642 -1.4874 -2.0094 0.9801
4.5266 -1.1032 -2.0305 0.9799
4.6547 -0.7018 -2.0515 0.9797
4.7990 0.1401 -2.0924 0.9793
4.7829 1.0095 -2.1304 0.9789
4.7118 1.4443 -2.1478 0.9787
4.5982 1.8732 -2.1639 0.9786
4.4422 2.2916 -2.1784 0.9784
4.2446 2.6948 -2.1912 0.9783
3.4195 3.7685 -2.2177 0.9780
2.3050 4.5531 -2.2241 0.9780
1.4535 4.8742 -2.2167 0.9781
0.0585 2.7137 -1.1830 0.9882
-0.3385 4.9814 -2.1760 0.9784
-2.3604 4.1716 -2.0889 0.9793
-3.2812 3.2959 -2.0269 0.9799
-2.6198 1.4979 -1.3152 0.9869
-2.9263 1.3420 -1.4030 0.9861
-1.5493 0.3975 -0.6971 0.9930
-1.5078 0.2460 -0.6658 0.9934
-1.5293 0.1108 -0.6682 0.9933
-1.5258 -0.0261 -0.6651 0.9934
-1.5057 -0.2988 -0.6690 0.9933
-1.5705 -0.4607 -0.7133 0.9929
-4.1420 -1.6292 -1.9398 0.9808
-3.2506 -2.9231 -1.9052 0.9811
-2.6674 -3.4401 -1.8972 0.9812
-2.3475 -3.6613 -1.8955 0.9812
-2.0111 -3.8562 -1.8954 0.9812
-1.6601 -4.0235 -1.8969 0.9812
-1.2963 -4.1625 -1.9000 0.9812
-0.9217 -4.2721 -1.9047 0.9811
-1.3061 -0.2692 -0.6173 0.9941
-1.3260 -0.3996 -0.6411 0.9939
-1.3286 -0.5339 -0.6628 0.9937
-2.7895 -3.0450 -1.9115 0.9820
-2.5025 -3.2768 -1.9085 0.9820
-2.1983 -3.4846 -1.9071 0.9820
-1.8784 -3.6670 -1.9071 0.9820
-1.5447 -3.8232 -1.9087 0.9820
-1.1990 -3.9522 -1.9118 0.9820
-0.8433 -4.0532 -1.9163 0.9819
-0.4796 -4.1252 -1.9224 0.9819
0.6397 -4.1620 -1.9491 0.9816
1.0149 -4.1128 -1.9608 0.9815
1.3872 -4.0323 -1.9738 0.9814
1.7543 -3.9204 -1.9881 0.9812
2.1137 -3.7772 -2.0035 0.9811
2.4627 -3.6029 -2.0201 0.9809
2.7987 -3.3979 -2.0377 0.9808
3.1190 -3.1629 -2.0562 0.9806
3.4209 -2.8988 -2.0755 0.9804
3.9493 -2.2830 -2.1115 0.9801
4.0718 -1.4647 -2.0030 0.9811
4.3516 -0.7312 -2.0425 0.9807
4.4413 -0.3430 -2.0620 0.9806
4.4952 0.0555 -2.0809 0.9804
4.5117 0.4607 -2.0993 0.9802
4.4282 1.2762 -2.1332 0.9799
4.3272 1.6784 -2.1484 0.9798
4.1868 2.0713 -2.1622 0.9796
3.2528 3.4657 -2.2001 0.9793
2.9364 3.7500 -2.2047 0.9792
2.5926 4.0016 -2.2071 0.9792
2.2251 4.2175 -2.2073 0.9792
1.8380 4.3955 -2.2053 0.9792
1.4355 4.5336 -2.2012 0.9793
1.0221 4.6306 -2.1950 0.9793
0.6022 4.6857 -2.1868 0.9794
-0.2384 4.6707 -2.1648 0.9796
-0.6505 4.6019 -2.1513 0.9797
-1.0514 4.4940 -2.1364 0.9799
-1.4375 4.3489 -2.1202 0.9800
-2.7694 3.4464 -2.0465 0.9807
-3.2738 2.8429 -2.0070 0.9811
-3.4800 2.5142 -1.9873 0.9813
-2.5948 1.5422 -1.3972 0.9868
-2.6930 1.2903 -1.3823 0.9869
-1.3160 0.2375 -0.6190 0.9941
-1.3158 -0.2382 -0.6190 0.9941
-1.3186 -0.3628 -0.6330 0.9940
-1.3323 -0.4983 -0.6584 0.9937
-3.7803 -1.8136 -1.9408 0.9817
-3.1263 -2.7176 -1.9174 0.9819
-2.8639 -2.9783 -1.9126 0.9820
-2.2822 -3.4308 -1.9073 0.9820
-1.2936 -3.9201 -1.9108 0.9820
-0.5787 -4.1086 -1.9206 0.9819
0.9136 -4.1292 -1.9575 0.9815
1.2869 -4.0571 -1.9702 0.9814
2.0174 -3.8190 -1.9992 0.9811
2.3694 -3.6531 -2.0155 0.9810
2.7092 -3.4564 -2.0328 0.9808
3.0341 -3.2294 -2.0511 0.9807
3.6278 -2.6883 -2.0901 0.9803
2.3691 -0.9175 -1.1760 0.9889
4.3213 -0.8341 -2.0372 0.9808
4.4205 -0.4491 -2.0567 0.9806
4.4843 -0.0531 -2.0759 0.9804
4.5110 0.3506 -2.0944 0.9803
4.4994 0.7584 -2.1121 0.9801
4.4487 1.1663 -2.1288 0.9799
4.3584 1.5703 -2.1444 0.9798
4.0598 2.3496 -2.1713 0.9795
3.3332 3.3835 -2.1985 0.9793
3.0248 3.6762 -2.2036 0.9792
2.6881 3.9369 -2.2066 0.9792
1.9444 4.3512 -2.2061 0.9792
1.5457 4.5002 -2.2025 0.9792
1.1347 4.6084 -2.1969 0.9793
-0.5399 4.6244 -2.1551 0.9797
-0.9443 4.5269 -2.1405 0.9798
-1.3348 4.3917 -2.1247 0.9800
-1.7078 4.2209 -2.1077 0.9801
-2.0602 4.0170 -2.0897 0.9803
-2.9672 3.2357 -2.0322 0.9808
-3.6103 2.2656 -1.9730 0.9814
-2.6587 1.3539 -1.3810 0.9869
-1.3287 0.5332 -0.6627 0.9937
-1.3064 0.2686 -0.6173 0.9941
-1.3385 -0.0878 -0.6209 0.9941
-1.3094 -0.3264 -0.6246 0.9941
-1.3170 -0.5931 -0.6686 0.9937
-3.6411 -2.0489 -1.9339 0.9818
-3.1938 -2.6433 -1.9190 0.9819
-2.9369 -2.9099 -1.9137 0.9819
-2.6601 -3.1543 -1.9100 0.9820
-1.7268 -3.7420 -1.9077 0.9820
-1.0369 -4.0021 -1.9137 0.9819
0.0615 -4.1773 -1.9338 0.9818
0.4364 -4.1757 -1.9434 0.9817
0.8121 -4.1433 -1.9543 0.9816
1.5565 -3.9848 -1.9802 0.9813
2.9478 -3.2938 -2.0461 0.9807
3.2600 -3.0452 -2.0650 0.9805
3.8204 -2.4624 -2.1039 0.9802
4.1472 -1.3023 -2.0121 0.9810
4.2886 -0.9359 -2.0319 0.9808
4.4706 -0.1612 -2.0707 0.9805
4.5075 0.2408 -2.0894 0.9803
4.3868 1.4616 -2.1403 0.9798
4.1093 2.2473 -2.1680 0.9796
3.6794 2.9710 -2.1891 0.9794
3.1112 3.6000 -2.2025 0.9792
2.7818 3.8697 -2.2060 0.9792
2.4267 4.1052 -2.2074 0.9792
1.6549 4.4639 -2.2037 0.9792
-0.0071 2.7140 -1.2563 0.9881
-0.4286 4.6441 -2.1588 0.9797
-1.9671 4.0753 -2.0946 0.9803
-2.6128 3.5947 -2.0570 0.9806
-2.8956 3.3152 -2.0375 0.9808
-3.1493 3.0139 -2.0177 0.9810
-3.3724 2.6940 -1.9979 0.9812
-2.6352 1.4233 -1.3863 0.9869
-1.3228 0.5683 -0.6664 0.9937
-1.3315 0.4359 -0.6485 0.9938
-1.3017 0.3006 -0.6184 0.9941
-1.3287 0.1839 -0.6209 0.9941
-1.3383 0.0645 -0.6202 0.9941
-1.3303 -0.1749 -0.6211 0.9941
-1.2985 -0.2905 -0.6159 0.9942
-1.3247 -0.5584 -0.6654 0.9937
-3.6943 -1.9627 -1.9364 0.9817
-3.4888 -2.2746 -1.9278 0.9818
-3.0084 -2.8399 -1.9150 0.9819
-2.4465 -3.3179 -1.9082 0.9820
