ply
format ascii 1.0
element vertex 1585
property float32 x
property float32 y
property float32 z
property float32 I
end_header
8.2354 -12.4536 -1.7735 0.9416
9.5942 -12.0221 -1.8271 0.9399
10.9712 -11.4778 -1.8861 0.9380
13.7560 -10.0171 -2.0214 0.9338
15.1481 -9.0827 -2.0980 0.9313
2.3647 -0.8943 -0.3003 0.9899
14.8225 -0.0657 -1.7607 0.9420
8.2380 3.0323 -1.0427 0.9653
6.3929 3.7565 -0.8808 0.9706
4.2489 4.3670 -0.7238 0.9758
3.8437 4.7299 -0.7240 0.9757
3.3283 4.9375 -0.7073 0.9763
2.3047 5.2371 -0.6797 0.9772
1.8304 5.4272 -0.6804 0.9772
1.3926 5.7908 -0.7075 0.9763
-0.1987 6.2378 -0.7413 0.9752
-0.8119 6.6700 -0.7982 0.9733
-1.4389 6.7377 -0.8184 0.9726
-2.1694 7.0211 -0.8729 0.9708
-15.3793 9.5749 -2.1520 0.9296
-15.5649 7.8590 -2.0712 0.9322
-15.3910 3.1156 -1.8653 0.9387
-15.1296 1.6779 -1.8082 0.9405
-14.7835 0.3130 -1.7565 0.9422
-14.3610 -0.9797 -1.7099 0.9437
-13.3159 -3.3530 -1.6311 0.9462
-12.7050 -4.4365 -1.5985 0.9472
-11.3305 -6.4052 -1.5461 0.9489
-4.8602 -10.5610 -1.3810 0.9543
-3.9131 -10.9913 -1.3859 0.9541
-2.9349 -11.3637 -1.3941 0.9538
1.3013 -12.4212 -1.4835 0.9509
9.0823 -12.1967 -1.8064 0.9406
16.0116 -8.4239 -2.1491 0.9297
19.6277 -2.5100 -2.3505 0.9234
15.4566 -0.5862 -1.8374 0.9396
12.5949 0.6476 -1.4981 0.9505
7.3768 3.1930 -0.9548 0.9681
6.5117 3.5387 -0.8803 0.9706
5.9468 3.9565 -0.8485 0.9716
4.5202 4.3449 -0.7448 0.9751
1.0779 5.9167 -0.7144 0.9761
0.2676 2.9356 -0.3502 0.9882
-0.5608 6.3820 -0.7610 0.9745
-1.8836 6.9076 -0.8505 0.9716
-14.8851 12.0276 -2.2732 0.9258
-15.4653 3.6735 -1.8882 0.9380
-15.2381 2.2085 -1.8290 0.9399
-14.5279 -0.5034 -1.7267 0.9431
-14.0616 -1.7514 -1.6832 0.9445
-12.9405 -4.0381 -1.6102 0.9469
-11.6028 -6.0559 -1.5547 0.9486
-10.8629 -6.9677 -1.5330 0.9493
-9.0645 -8.4256 -1.4700 0.9514
-7.8849 -8.7643 -1.4004 0.9536
-5.2073 -10.3849 -1.3800 0.9543
-1.2798 -11.8420 -1.4149 0.9532
-0.2216 -12.0551 -1.4322 0.9526
3.3614 -13.1935 -1.6173 0.9466
7.2308 -12.7080 -1.7368 0.9428
8.5732 -12.3559 -1.7864 0.9412
14.1048 -9.7969 -2.0400 0.9332
15.4944 -8.8262 -2.1182 0.9307
16.8957 -5.9620 -2.1283 0.9304
14.9459 0.2675 -1.7756 0.9416
11.6654 1.2551 -1.3937 0.9538
9.9265 1.9756 -1.2023 0.9601
5.3519 4.0086 -0.7943 0.9734
4.1459 4.4559 -0.7230 0.9758
3.7126 4.7827 -0.7192 0.9759
2.6617 5.0937 -0.6827 0.9771
0.2134 6.0736 -0.7219 0.9758
-0.3413 6.2946 -0.7488 0.9749
-1.6117 6.7997 -0.8301 0.9722
-14.6977 12.7125 -2.3083 0.9247
-15.5903 7.4399 -2.0520 0.9328
-15.6151 5.8058 -1.9789 0.9351
-15.5257 4.2416 -1.9118 0.9372
-14.6847 -0.0170 -1.7443 0.9426
-14.2444 -1.2917 -1.6990 0.9440
-13.1683 -3.6303 -1.6226 0.9465
-11.8685 -5.6975 -1.5638 0.9484
-11.1455 -6.6332 -1.5407 0.9491
-10.3784 -7.5056 -1.5214 0.9497
-9.5698 -8.3159 -1.5060 0.9502
-8.2818 -8.6077 -1.4189 0.9530
-7.3002 -9.0864 -1.3845 0.9541
-6.4414 -9.6717 -1.3803 0.9543
-5.5498 -10.2010 -1.3795 0.9543
-4.6263 -10.6739 -1.3819 0.9542
-3.6714 -11.0899 -1.3876 0.9540
-2.6855 -11.4477 -1.3967 0.9537
1.5971 -12.5368 -1.5012 0.9504
6.7337 -12.8141 -1.7195 0.9434
8.0672 -12.5000 -1.7672 0.9418
13.5817 -10.1239 -2.0122 0.9340
16.3548 -8.1436 -2.1702 0.9290
18.8095 -3.6984 -2.2771 0.9257
15.1049 -0.2354 -1.7945 0.9410
6.3931 3.6614 -0.8751 0.9708
5.7705 4.0278 -0.8359 0.9721
4.9605 4.1669 -0.7695 0.9742
3.9099 4.7032 -0.7265 0.9757
3.3915 4.9121 -0.7090 0.9762
2.8418 5.0213 -0.6854 0.9770
2.3640 5.2133 -0.6800 0.9772
1.8898 5.4035 -0.6800 0.9772
-0.7330 6.6387 -0.7934 0.9735
-1.3832 6.8498 -0.8301 0.9722
-14.4862 13.4029 -2.3443 0.9236
-14.9971 11.5744 -2.2503 0.9265
-15.3463 9.7935 -2.1625 0.9293
-15.5718 4.8198 -1.9363 0.9364
-15.4173 3.3004 -1.8728 0.9385
-15.1671 1.8535 -1.8150 0.9403
-14.8310 0.4795 -1.7626 0.9420
-14.4177 -0.8221 -1.7154 0.9435
-13.3883 -3.2128 -1.6355 0.9460
-12.7843 -4.3048 -1.6024 0.9471
2.5990 5.1118 -0.8125 0.9771
2.1245 5.3023 -0.8093 0.9772
1.7003 5.6604 -0.8374 0.9764
1.2031 5.8592 -0.8475 0.9761
0.3342 2.9386 -0.4191 0.9881
-0.4131 6.3153 -0.8967 0.9748
-10.0221 14.6177 -2.5112 0.9309
-2.5479 1.7909 -0.4413 0.9875
-12.9613 7.4795 -2.1203 0.9413
-13.1037 2.1988 -1.8826 0.9477
-12.2889 -1.2527 -1.7502 0.9513
-10.8881 -4.2160 -1.6543 0.9539
-10.3145 -5.0938 -1.6300 0.9546
-7.5821 -8.0584 -1.5677 0.9563
-6.8026 -8.6631 -1.5607 0.9565
-5.9886 -9.2129 -1.5569 0.9566
-4.2635 -10.1454 -1.5593 0.9565
-3.3550 -10.5263 -1.5654 0.9563
-2.4176 -10.8487 -1.5748 0.9561
3.7442 -11.4353 -1.7049 0.9526
4.8456 -11.2812 -1.7396 0.9516
5.9621 -11.0449 -1.7784 0.9506
8.2255 -10.3070 -1.8684 0.9481
2.3659 -0.8948 -0.3584 0.9898
14.6441 -4.0888 -2.1543 0.9404
15.4730 -2.8635 -2.2296 0.9384
16.2162 -1.5241 -2.3078 0.9363
14.8097 -0.0656 -2.0984 0.9419
11.5542 0.9828 -1.6430 0.9542
10.6076 1.8660 -1.5261 0.9574
8.9581 2.4158 -1.3146 0.9632
7.7470 2.8516 -1.1697 0.9672
4.8788 4.1920 -0.9114 0.9743
3.3244 4.9317 -0.8427 0.9763
1.8283 5.4210 -0.8106 0.9772
-0.1984 6.2300 -0.8832 0.9751
-1.4393 6.7396 -0.9765 0.9725
-7.2805 17.7639 -2.7201 0.9254
-8.5475 16.4886 -2.6315 0.9277
-10.5915 13.7372 -2.4578 0.9323
-12.0086 10.8646 -2.2945 0.9367
-12.5002 9.4268 -2.2183 0.9387
-12.8590 8.0058 -2.1462 0.9406
-12.4260 -0.8477 -1.7647 0.9509
-12.0404 -1.9109 -1.7273 0.9519
-11.0904 -3.8727 -1.6644 0.9537
-9.9320 -5.6146 -1.6166 0.9550
-7.8651 -7.8175 -1.5712 0.9562
-7.0990 -8.4428 -1.5629 0.9564
-5.4631 -9.5284 -1.5562 0.9566
0.1722 -11.4030 -1.6159 0.9550
3.3357 -11.4728 -1.6929 0.9529
7.7992 -10.4736 -1.8502 0.9486
12.3083 -7.9519 -2.0762 0.9425
13.3906 -7.0449 -2.1439 0.9407
15.1713 -3.3364 -2.2010 0.9392
15.9487 -2.0395 -2.2782 0.9371
15.4540 -0.5861 -2.1912 0.9394
12.5607 0.6459 -1.7821 0.9505
7.2143 3.1227 -1.1138 0.9687
6.5020 3.5334 -1.0485 0.9705
5.9385 3.9509 -1.0106 0.9716
4.5145 4.3394 -0.8872 0.9750
2.9066 4.8784 -0.8046 0.9773
1.5770 5.7097 -0.8393 0.9764
1.0766 5.9097 -0.8511 0.9760
0.2671 2.9301 -0.4169 0.9882
0.0101 6.1470 -0.8710 0.9755
-1.8710 6.8615 -1.0077 0.9717
-6.7634 18.2172 -2.7533 0.9245
-8.0916 16.9770 -2.6647 0.9268
-11.0993 12.8452 -2.4054 0.9337
-11.7882 11.4055 -2.3241 0.9359
-12.3319 9.9646 -2.2464 0.9380
-2.5958 1.7393 -0.4427 0.9875
-13.1837 5.7579 -2.0384 0.9435
-13.2393 4.4240 -1.9778 0.9452
-12.8457 0.7027 -1.8228 0.9494
-11.7680 -2.5476 -1.7060 0.9525
-10.7492 -4.4407 -1.6479 0.9541
-8.8576 -6.8688 -1.5882 0.9557
-7.3905 -8.2147 -1.5657 0.9563
-4.0391 -10.2461 -1.5605 0.9565
-3.1233 -10.6125 -1.5674 0.9563
-1.2069 -11.1667 -1.5914 0.9556
5.1235 -11.2300 -1.7489 0.9514
6.2433 -10.9724 -1.7887 0.9503
8.5099 -10.1883 -1.8809 0.9478
11.8949 -8.2619 -2.0520 0.9432
12.9887 -7.3988 -2.1180 0.9414
14.0152 -6.4025 -2.1832 0.9396
16.3865 -1.1718 -2.3277 0.9358
14.9433 0.2674 -2.1176 0.9414
11.6633 1.2548 -1.6621 0.9537
5.3447 4.0032 -0.9462 0.9734
4.1407 4.4504 -0.8613 0.9757
3.7081 4.7770 -0.8568 0.9759
3.1216 4.8615 -0.8186 0.9769
2.1836 5.2785 -0.8094 0.9772
1.2659 5.8341 -0.8459 0.9762
0.3711 2.9680 -0.4238 0.9880
-1.6094 6.7901 -0.9887 0.9722
-2.3199 6.9535 -1.0386 0.9708
-7.6126 17.4534 -2.6980 0.9260
-10.8019 13.3814 -2.4367 0.9329
-12.9292 7.6544 -2.1289 0.9411
-13.2233 3.6126 -1.9423 0.9461
-13.1225 2.3527 -1.8890 0.9476
-12.9361 1.1430 -1.8400 0.9489
-12.6716 -0.0146 -1.7954 0.9501
-12.3356 -1.1186 -1.7550 0.9512
-9.7740 -5.8170 -1.6116 0.9551
-8.4155 -7.3129 -1.5797 0.9560
-6.9019 -8.5906 -1.5614 0.9565
-5.2493 -9.6486 -1.5563 0.9566
-4.3749 -10.0938 -1.5587 0.9565
-2.5363 -10.8117 -1.5735 0.9561
-1.5745 -11.0814 -1.5859 0.9558
-0.5859 -11.2892 -1.6017 0.9554
0.4281 -11.4327 -1.6210 0.9548
1.4662 -11.5093 -1.6439 0.9542
2.5267 -11.5159 -1.6705 0.9535
3.6078 -11.4490 -1.7008 0.9527
4.7072 -11.3048 -1.7351 0.9517
5.8220 -11.0790 -1.7733 0.9507
6.9488 -10.7671 -1.8157 0.9495
8.0834 -10.3640 -1.8623 0.9483
9.2208 -9.8646 -1.9133 0.9469
11.4782 -8.5559 -2.0284 0.9438
12.5819 -7.7361 -2.0927 0.9421
2.3432 -0.9162 -0.3565 0.9899
14.5354 -4.2337 -2.1451 0.9407
15.1023 -0.2354 -2.1401 0.9408
9.1414 2.3562 -1.3376 0.9626
7.8751 2.7994 -1.1842 0.9668
7.0310 3.2316 -1.0964 0.9692
5.7626 4.0223 -0.9957 0.9720
2.8385 5.0155 -0.8166 0.9770
2.3612 5.2073 -0.8101 0.9772
1.8876 5.3972 -0.8102 0.9772
1.4531 5.7592 -0.8416 0.9763
0.9419 5.9162 -0.8488 0.9761
-0.1283 6.2021 -0.8790 0.9753
-1.3813 6.8404 -0.9888 0.9722
-2.0475 6.8984 -1.0196 0.9713
-8.3982 16.6526 -2.6426 0.9274
-9.5217 15.3102 -2.5546 0.9298
-10.4826 13.9142 -2.4684 0.9320
-13.2073 5.4204 -2.0228 0.9440
-13.2374 4.0972 -1.9634 0.9456
-13.1707 2.8194 -1.9084 0.9470
-12.4696 -0.7110 -1.7697 0.9508
-12.0920 -1.7810 -1.7318 0.9518
-10.6073 -4.6619 -1.6417 0.9543
2.5960 5.1058 -0.9436 0.9770
1.6983 5.6538 -0.9725 0.9764
0.1458 6.0853 -1.0028 0.9756
-0.4084 6.2434 -1.0307 0.9750
-0.9946 6.3818 -1.0640 0.9742
-1.4345 5.7649 -0.9787 0.9762
-4.8998 14.1587 -2.4682 0.9411
-5.9803 13.3041 -2.4030 0.9426
-7.4856 13.3284 -2.5183 0.9399
-9.1901 11.1284 -2.3776 0.9432
-9.8548 9.9703 -2.3094 0.9448
-11.1454 6.4316 -2.1199 0.9492
-10.8321 -1.1042 -1.7937 0.9568
-10.4969 -2.0283 -1.7612 0.9576
-9.6601 -3.7405 -1.7065 0.9589
-8.6273 -5.2657 -1.6651 0.9599
-8.0459 -5.9565 -1.6492 0.9602
-7.4249 -6.5988 -1.6364 0.9605
-6.0741 -7.7354 -1.6202 0.9609
-3.8073 -9.0599 -1.6189 0.9609
-2.9948 -9.3961 -1.6246 0.9608
-2.1566 -9.6775 -1.6334 0.9606
-1.2945 -9.9026 -1.6452 0.9603
-0.4101 -10.0696 -1.6602 0.9600
0.4947 -10.1763 -1.6784 0.9595
2.3574 -10.1996 -1.7246 0.9584
3.3105 -10.1107 -1.7526 0.9578
5.2453 -9.7170 -1.8191 0.9562
9.1124 -7.9710 -1.9945 0.9521
10.0455 -7.3151 -2.0472 0.9509
11.8056 -5.7150 -2.1607 0.9482
2.3672 -0.8952 -0.4169 0.9898
12.4273 -3.4698 -2.1256 0.9490
13.0616 -2.4172 -2.1883 0.9476
14.0723 -0.0623 -2.3183 0.9445
9.1223 2.4601 -1.5565 0.9624
7.8770 2.8994 -1.3828 0.9665
6.8275 3.2308 -1.2443 0.9698
6.0225 3.5389 -1.1507 0.9721
4.8546 4.1712 -1.0544 0.9744
3.3205 4.9258 -0.9786 0.9762
2.7752 5.0338 -0.9469 0.9770
2.2994 5.2250 -0.9404 0.9771
1.8262 5.4147 -0.9414 0.9771
1.3894 5.7773 -0.9789 0.9762
0.8574 5.8019 -0.9662 0.9765
0.3454 6.0060 -0.9911 0.9759
-0.7706 6.3307 -1.0506 0.9745
-2.1063 6.8167 -1.1754 0.9715
-8.9089 11.5549 -2.4036 0.9426
-9.6199 10.4075 -2.3348 0.9442
-10.2087 9.2361 -2.2679 0.9457
-11.4445 4.5485 -2.0288 0.9513
-11.5047 3.4208 -1.9773 0.9525
-10.2583 -2.5831 -1.7427 0.9580
-9.8328 -3.4335 -1.7158 0.9587
-9.3570 -4.2375 -1.6922 0.9592
-8.8346 -4.9942 -1.6719 0.9597
-8.2687 -5.7031 -1.6548 0.9601
-7.6622 -6.3637 -1.6408 0.9604
-4.1050 -8.9200 -1.6176 0.9610
-2.4738 -9.5785 -1.6297 0.9607
-1.6205 -9.8249 -1.6404 0.9604
0.1532 -10.1435 -1.6712 0.9597
1.0698 -10.2114 -1.6914 0.9592
2.0034 -10.2152 -1.7149 0.9587
3.9118 -10.0194 -1.7719 0.9573
4.8806 -9.8136 -1.8056 0.9565
5.8542 -9.5316 -1.8427 0.9557
7.7979 -8.7249 -1.9277 0.9537
8.7569 -8.1933 -1.9756 0.9525
9.6985 -7.5719 -2.0270 0.9513
10.6147 -6.8577 -2.0819 0.9501
11.4966 -6.0485 -2.1401 0.9487
2.3356 -0.9738 -0.4169 0.9898
12.1712 -3.8418 -2.1026 0.9496
11.2440 1.5920 -1.8708 0.9550
8.3343 2.7547 -1.4460 0.9650
5.6146 3.7354 -1.1110 0.9730
4.5088 4.3339 -1.0303 0.9750
4.0341 4.6378 -1.0126 0.9754
2.0038 5.3436 -0.9402 0.9771
1.5752 5.7030 -0.9747 0.9763
1.0753 5.9027 -0.9884 0.9760
0.0100 6.1350 -1.0107 0.9754
-0.5517 6.2786 -1.0383 0.9748
-1.1477 6.4190 -1.0742 0.9739
-1.5948 5.8486 -0.9987 0.9757
-5.1804 13.9536 -2.4520 0.9414
-6.2328 13.0771 -2.3865 0.9430
-7.7264 13.0651 -2.5005 0.9403
-8.6101 11.9759 -2.4299 0.9420
-9.3678 10.8413 -2.3604 0.9436
-10.0019 9.6773 -2.2927 0.9451
-10.5165 8.4977 -2.2274 0.9467
-2.5944 1.7384 -0.5145 0.9874
-11.2085 6.1386 -2.1053 0.9495
-11.3983 4.9781 -2.0490 0.9508
-11.4926 3.8403 -1.9962 0.9521
-10.4040 -2.2523 -1.7537 0.9578
-9.9984 -3.1200 -1.7255 0.9584
-9.5411 -3.9415 -1.7006 0.9590
-9.0357 -4.7161 -1.6791 0.9595
-8.4858 -5.4430 -1.6608 0.9600
-7.8942 -6.1217 -1.6457 0.9603
-7.2637 -6.7518 -1.6337 0.9606
-5.8957 -7.8635 -1.6191 0.9609
-5.1624 -8.3438 -1.6164 0.9610
-4.3988 -8.7726 -1.6167 0.9610
-3.6066 -9.1490 -1.6201 0.9609
-2.7875 -9.4716 -1.6265 0.9608
-1.0753 -9.9499 -1.6487 0.9602
-0.1857 -10.1020 -1.6645 0.9599
0.7240 -10.1933 -1.6835 0.9594
2.5946 -10.1838 -1.7313 0.9583
7.4353 -8.9017 -1.9107 0.9541
8.3990 -8.4030 -1.9572 0.9530
10.2747 -7.1366 -2.0609 0.9506
11.1706 -6.3632 -2.1179 0.9492
12.5928 -3.2148 -2.1411 0.9487
14.1703 0.2536 -2.3348 0.9442
11.6612 1.2546 -1.9321 0.9536
10.1824 2.0266 -1.7103 0.9588
8.8094 2.5880 -1.5126 0.9635
7.5943 2.9895 -1.3445 0.9675
6.5993 3.3051 -1.2159 0.9705
4.7218 4.2439 -1.0459 0.9746
3.7037 4.7713 -0.9950 0.9758
2.6555 5.0819 -0.9446 0.9770
2.1811 5.2724 -0.9400 0.9771
1.7465 5.5872 -0.9644 0.9765
0.2128 6.0587 -0.9987 0.9757
-0.3376 6.2256 -1.0271 0.9750
-2.3069 6.9147 -1.2009 0.9709
-5.8515 13.4157 -2.4112 0.9424
-8.2935 12.3906 -2.4563 0.9413
-9.7784 10.1163 -2.3178 0.9446
-10.3373 8.9410 -2.2516 0.9461
-2.5448 1.8315 -0.5165 0.9874
-11.1114 6.5782 -2.1272 0.9490
-11.3387 5.4110 -2.0697 0.9503
-11.4680 4.2639 -2.0156 0.9516
-11.1353 -0.0129 -1.8344 0.9559
-10.1568 -2.8000 -1.7356 0.9582
-8.1207 -5.8729 -1.6510 0.9602
-7.5045 -6.5213 -1.6378 0.9605
-5.4410 -8.1697 -1.6170 0.9610
-4.6886 -8.6179 -1.6162 0.9610
-2.2627 -9.6454 -1.6321 0.9606
0.3807 -10.1664 -1.6760 0.9596
2.2393 -10.2058 -1.7213 0.9585
4.1534 -9.9749 -1.7800 0.9571
5.1238 -9.7504 -1.8145 0.9563
7.0715 -9.0665 -1.8942 0.9545
12.9865 -2.5534 -2.1804 0.9478
11.6785 0.8622 -1.9291 0.9536
10.7963 1.7753 -1.8025 0.9566
9.2856 2.3934 -1.5797 0.9619
6.9459 3.1924 -1.2593 0.9695
6.1141 3.5016 -1.1607 0.9718
5.4722 3.8196 -1.0994 0.9733
4.9216 4.1342 -1.0589 0.9743
4.3684 4.3908 -1.0203 0.9752
3.9005 4.6918 -1.0051 0.9756
2.3585 5.2012 -0.9408 0.9771
1.4515 5.7525 -0.9774 0.9762
0.9407 5.9092 -0.9857 0.9760
-0.1277 6.1716 -1.0169 0.9753
-0.6971 6.3134 -1.0464 0.9746
-1.2186 6.0348 -1.0142 0.9754
-7.9592 12.7980 -2.4828 0.9407
-8.8113 11.6958 -2.4124 0.9424
-10.1417 9.3833 -2.2761 0.9455
-10.6271 8.2018 -2.2115 0.9470
-11.2653 5.8467 -2.0909 0.9498
-11.4863 2.4589 -1.9351 0.9535
-11.3895 1.3919 -1.8903 0.9545
-10.9768 -0.6259 -1.8113 0.9564
-10.6719 -1.5719 -1.7770 0.9572
-9.8887 -3.3298 -1.7189 0.9586
-9.4191 -4.1397 -1.6949 0.9591
2.5583 5.0318 -1.0610 0.9773
2.0917 5.2203 -1.0570 0.9774
1.6207 5.3955 -1.0589 0.9773
1.1414 5.5588 -1.0666 0.9772
0.3187 2.8023 -0.5301 0.9886
0.1414 5.9000 -1.1093 0.9763
-0.4000 6.1149 -1.1518 0.9754
-0.9961 6.3918 -1.2159 0.9740
-4.1626 12.0285 -2.3924 0.9495
-5.9492 10.5927 -2.2835 0.9518
-7.3629 8.9158 -2.1734 0.9540
-8.5414 8.6415 -2.2838 0.9518
-2.5501 1.7924 -0.5859 0.9874
-10.1772 2.6588 -1.9771 0.9581
-10.0606 0.7759 -1.8966 0.9598
-9.8996 -0.1219 -1.8609 0.9605
-9.6764 -0.9864 -1.8282 0.9612
-9.0599 -2.6067 -1.7720 0.9624
-8.6744 -3.3589 -1.7484 0.9628
-7.2498 -5.3672 -1.6955 0.9640
-6.1055 -6.4891 -1.6747 0.9644
-5.4827 -6.9822 -1.6686 0.9645
-1.1667 -8.9249 -1.6918 0.9640
-0.3693 -9.0673 -1.7057 0.9637
0.4450 -9.1534 -1.7225 0.9634
1.2738 -9.1813 -1.7423 0.9630
2.1146 -9.1490 -1.7650 0.9625
3.8204 -8.8943 -1.8195 0.9614
5.5351 -8.3702 -1.8862 0.9600
7.2235 -7.5571 -1.9650 0.9583
8.0442 -7.0366 -2.0088 0.9574
8.8405 -6.4376 -2.0555 0.9565
9.6049 -5.7590 -2.1050 0.9554
10.7828 -3.0107 -2.1043 0.9555
11.5501 0.9824 -2.1788 0.9539
10.5614 1.8579 -2.0156 0.9573
6.0971 3.5827 -1.3292 0.9716
3.3165 4.9200 -1.1153 0.9761
2.7330 4.9573 -1.0640 0.9772
2.2669 5.1513 -1.0578 0.9774
1.7981 5.3313 -1.0575 0.9774
0.4531 3.0659 -0.5825 0.9875
-1.2277 5.7487 -1.1049 0.9764
-2.1508 6.9607 -1.3694 0.9708
-6.4320 10.0895 -2.2490 0.9525
-7.1270 9.2437 -2.1939 0.9536
-8.3256 9.0072 -2.3055 0.9513
-9.3132 7.0234 -2.1925 0.9536
-9.9155 5.0066 -2.0878 0.9558
-10.1663 3.0228 -1.9935 0.9578
-10.1718 2.0591 -1.9507 0.9586
-9.9675 0.2110 -1.8739 0.9602
-9.5071 -1.5088 -1.8093 0.9616
-8.8246 -3.0815 -1.7569 0.9627
-8.4095 -3.8084 -1.7352 0.9631
-7.9496 -4.4940 -1.7164 0.9635
-6.9075 -5.7369 -1.6877 0.9641
-5.0775 -7.2668 -1.6663 0.9646
-3.7058 -8.0527 -1.6662 0.9646
-2.9806 -8.3721 -1.6704 0.9645
-1.4609 -8.8575 -1.6874 0.9641
0.9615 -9.1778 -1.7345 0.9631
1.7981 -9.1683 -1.7561 0.9627
3.4990 -8.9620 -1.8083 0.9616
5.2144 -8.4899 -1.8727 0.9603
7.7389 -7.2408 -1.9920 0.9578
8.5452 -6.6715 -2.0377 0.9568
9.3225 -6.0229 -2.0861 0.9558
2.3330 -0.9727 -0.4751 0.9898
10.5757 -3.3382 -2.0845 0.9559
11.1075 -2.4427 -2.1377 0.9548
11.5680 -1.4793 -2.1920 0.9536
11.9467 -0.4531 -2.2471 0.9525
8.3564 2.7620 -1.6543 0.9648
4.9448 3.9689 -1.1918 0.9745
4.0291 4.6321 -1.1539 0.9753
2.9079 4.8806 -1.0678 0.9771
2.4418 5.0803 -1.0595 0.9773
1.9745 5.2653 -1.0570 0.9774
1.5018 5.4374 -1.0603 0.9773
0.2563 2.8112 -0.5306 0.9886
0.0097 5.9523 -1.1188 0.9761
-0.5425 6.1745 -1.1650 0.9751
-1.5973 5.8577 -1.1412 0.9756
-4.4054 11.8660 -2.3791 0.9498
-8.0955 9.3689 -2.3273 0.9509
-8.6773 8.3956 -2.2694 0.9520
-9.8305 5.3839 -2.1067 0.9554
-10.0299 4.3805 -2.0572 0.9564
-9.3162 -2.0168 -1.7917 0.9619
-8.9681 -2.7985 -1.7658 0.9625
-7.6408 -4.9010 -1.7062 0.9637
-7.1146 -5.5171 -1.6922 0.9640
-5.9528 -6.6167 -1.6729 0.9644
-4.6608 -7.5330 -1.6650 0.9646
-2.5151 -8.5461 -1.6745 0.9644
-1.7523 -8.7825 -1.6833 0.9642
-0.9690 -8.9657 -1.6950 0.9640
-0.1672 -9.0941 -1.7096 0.9637
0.6510 -9.1659 -1.7272 0.9633
1.4830 -9.1790 -1.7477 0.9629
2.3264 -9.1312 -1.7711 0.9624
4.0349 -8.8439 -1.8272 0.9612
4.8931 -8.5996 -1.8597 0.9605
5.7484 -8.2847 -1.8953 0.9598
6.5961 -7.8970 -1.9340 0.9590
7.4306 -7.4342 -1.9757 0.9581
10.3600 -3.6558 -2.0650 0.9563
11.4044 -1.8483 -2.1715 0.9541
11.8150 -0.8449 -2.2264 0.9529
12.1371 0.2172 -2.2817 0.9518
10.1609 2.0223 -1.9473 0.9587
8.7930 2.5832 -1.7226 0.9634
7.6995 3.0309 -1.5553 0.9669
6.7437 3.3774 -1.4176 0.9698
5.8997 3.6463 -1.3036 0.9722
5.1824 3.8816 -1.2170 0.9740
4.5805 4.1169 -1.1576 0.9752
4.0359 4.3377 -1.1136 0.9762
3.6992 4.7655 -1.1339 0.9757
3.0831 4.8016 -1.0725 0.9770
2.6165 5.0072 -1.0619 0.9773
2.1501 5.1975 -1.0572 0.9774
1.6799 5.3743 -1.0584 0.9773
1.2019 5.5390 -1.0653 0.9772
-0.3300 6.0871 -1.1458 0.9755
-0.9178 6.3540 -1.2067 0.9742
-4.0394 12.1077 -2.3991 0.9494
-5.8483 10.6906 -2.2904 0.9516
-6.6147 9.8824 -2.2352 0.9528
-7.2858 9.0256 -2.1802 0.9539
-8.4711 8.7638 -2.2910 0.9516
-10.1110 3.7594 -2.0276 0.9570
-10.1748 2.7797 -1.9825 0.9580
-10.0761 0.8903 -1.9013 0.9597
-5.5622 -6.9231 -1.6692 0.9645
-4.9122 -7.3756 -1.6656 0.9646
-2.7955 -8.4441 -1.6719 0.9644
-2.0409 -8.7000 -1.6796 0.9643
-1.2650 -8.9033 -1.6903 0.9641
2.0090 -9.1564 -1.7620 0.9626
2.8580 -9.0695 -1.7873 0.9620
3.7133 -8.9179 -1.8157 0.9614
5.4284 -8.4112 -1.8816 0.9601
6.2795 -8.0511 -1.9191 0.9593
9.5114 -5.8482 -2.0987 0.9556
10.2322 -5.0949 -2.1485 0.9545
2.3430 -0.9161 -0.4729 0.9898
10.7148 -3.1209 -2.0977 0.9556
11.6479 0.8600 -2.1953 0.9536
10.7722 1.7714 -2.0519 0.9565
6.1989 3.5501 -1.3427 0.9713
5.4392 3.7966 -1.2468 0.9734
4.7965 4.0292 -1.1774 0.9748
4.2353 4.2569 -1.1287 0.9759
3.8957 4.6860 -1.1454 0.9755
2.3252 5.1278 -1.0583 0.9773
0.4960 3.1154 -0.5929 0.9872
-0.1243 6.0055 -1.1290 0.9758
-0.6895 6.2444 -1.1808 0.9748
-1.1731 5.8094 -1.1140 0.9762
-5.5366 10.9785 -2.3111 0.9512
-6.3384 10.1918 -2.2559 0.9523
-8.2506 9.1282 -2.3127 0.9512
-9.6224 6.1407 -2.1455 0.9546
-9.8886 5.1322 -2.0941 0.9557
-10.0663 4.1313 -2.0452 0.9567
-10.1752 2.1782 -1.9559 0.9585
-8.8732 -2.9879 -1.7598 0.9626
-8.4639 -3.7198 -1.7377 0.9631
2.5141 4.9449 -1.1726 0.9776
1.5960 5.3132 -1.1727 0.9776
1.1314 5.5097 -1.1889 0.9773
0.3163 2.7810 -0.5916 0.9886
0.1428 5.9574 -1.2596 0.9759
-0.4067 6.2181 -1.3172 0.9748
-1.0154 6.5151 -1.3938 0.9734
-3.6142 10.4439 -2.3361 0.9558
-5.1966 9.2528 -2.2432 0.9575
-2.5511 1.7932 -0.6591 0.9873
-8.6836 5.0110 -2.1192 0.9598
-8.9038 4.1277 -2.0745 0.9607
-9.0469 3.2493 -2.0319 0.9615
-9.1164 2.3816 -1.9917 0.9622
-9.1163 1.5297 -1.9539 0.9629
-9.0503 0.6980 -1.9187 0.9636
-8.2043 -2.3605 -1.8046 0.9657
-7.4814 -3.6947 -1.7637 0.9665
-6.0917 -5.4140 -1.7227 0.9672
-5.5577 -5.9069 -1.7144 0.9674
-3.7762 -7.1292 -1.7053 0.9676
1.1554 -8.3274 -1.7771 0.9662
2.6819 -8.1909 -1.8218 0.9654
6.4747 -6.7737 -1.9807 0.9624
7.8864 -5.7429 -2.0622 0.9609
8.5461 -5.1242 -2.1063 0.9601
2.3733 -0.8975 -0.5364 0.9897
9.5133 -2.6562 -2.0878 0.9604
9.9301 -1.8377 -2.1347 0.9596
10.7331 0.9129 -2.2769 0.9569
10.5382 1.8538 -2.2618 0.9572
9.0872 2.4506 -1.9895 0.9623
5.4572 3.9004 -1.4179 0.9729
4.2004 4.3172 -1.2732 0.9757
2.2269 5.0603 -1.1686 0.9777
1.3067 5.4335 -1.1813 0.9774
0.4296 2.9068 -0.6211 0.9881
-0.7788 6.3987 -1.3625 0.9740
-1.2271 5.7457 -1.2419 0.9763
-6.8032 7.3602 -2.1186 0.9599
-7.8330 7.0867 -2.2328 0.9577
-8.2488 6.2207 -2.1839 0.9586
-8.5805 5.3420 -2.1365 0.9595
-8.8305 4.4587 -2.0910 0.9604
-9.0825 1.0073 -1.9316 0.9633
-8.9774 0.1901 -1.8981 0.9640
-8.8127 -0.6012 -1.8672 0.9645
-8.5922 -1.3636 -1.8389 0.9651
-8.3194 -2.0948 -1.8134 0.9655
-7.6303 -3.4555 -1.7706 0.9663
-7.2202 -4.0817 -1.7532 0.9667
-6.7704 -4.6697 -1.7385 0.9669
-6.2834 -5.2186 -1.7265 0.9672
-5.7618 -5.7269 -1.7172 0.9673
-5.2079 -6.1937 -1.7105 0.9675
-4.6240 -6.6178 -1.7065 0.9675
-4.0123 -6.9982 -1.7052 0.9676
-3.3749 -7.3335 -1.7064 0.9675
-2.7138 -7.6227 -1.7104 0.9675
-2.0311 -7.8644 -1.7169 0.9673
-0.6094 -8.1999 -1.7381 0.9669
0.1252 -8.2906 -1.7527 0.9667
0.8724 -8.3277 -1.7699 0.9663
3.1624 -8.0999 -1.8380 0.9651
4.6968 -7.6471 -1.8970 0.9640
5.4545 -7.3248 -1.9305 0.9634
6.1996 -6.9366 -1.9665 0.9627
6.9268 -6.4810 -2.0052 0.9620
8.3030 -5.3642 -2.0895 0.9604
8.9385 -4.7026 -2.1349 0.9595
9.3409 -2.9485 -2.0705 0.9607
9.7815 -2.1511 -2.1170 0.9599
10.4565 -0.3966 -2.2119 0.9581
10.8016 1.5294 -2.3060 0.9564
9.5886 2.2445 -2.0816 0.9605
8.3414 2.7570 -1.8570 0.9647
6.4727 3.5174 -1.5572 0.9703
5.7314 3.8131 -1.4551 0.9722
5.0313 4.0383 -1.3637 0.9740
4.4150 4.2438 -1.2945 0.9753
3.5021 4.8376 -1.2624 0.9759
1.9406 5.1752 -1.1683 0.9777
1.4803 5.3594 -1.1753 0.9775
0.2542 2.7886 -0.5919 0.9886
0.0098 6.0197 -1.2724 0.9757
-1.5884 5.8253 -1.2763 0.9756
-3.8278 10.3104 -2.3248 0.9560
-4.6378 9.7306 -2.2785 0.9569
-2.5915 1.7364 -0.6594 0.9873
-8.9467 3.9074 -2.0636 0.9609
-9.0710 3.0312 -2.0216 0.9617
-9.1228 2.1670 -1.9820 0.9624
-9.1058 1.3197 -1.9449 0.9631
-8.6812 -1.0813 -1.8492 0.9649
-8.4276 -1.8245 -1.8227 0.9654
-8.1238 -2.5351 -1.7989 0.9658
-7.7732 -3.2112 -1.7778 0.9662
-5.9613 -5.5411 -1.7204 0.9673
-4.2448 -6.8607 -1.7054 0.9676
-3.6168 -7.2131 -1.7056 0.9675
-2.9644 -7.5198 -1.7086 0.9675
-2.2895 -7.7795 -1.7142 0.9674
-0.8811 -8.1524 -1.7333 0.9670
-0.1519 -8.2627 -1.7469 0.9668
0.5909 -8.3201 -1.7631 0.9665
1.3447 -8.3229 -1.7821 0.9661
2.1068 -8.2693 -1.8038 0.9657
2.8741 -8.1573 -1.8282 0.9653
3.6432 -7.9853 -1.8553 0.9648
4.4104 -7.7512 -1.8851 0.9642
5.9220 -7.0900 -1.9527 0.9629
6.6566 -6.6598 -1.9904 0.9622
7.3696 -6.1616 -2.0305 0.9615
8.0547 -5.5946 -2.0730 0.9607
8.6427 -3.9482 -2.0085 0.9619
9.1604 -3.2324 -2.0533 0.9611
10.0239 -1.6245 -2.1465 0.9593
10.7650 1.1582 -2.2886 0.9567
10.1393 2.0180 -2.1853 0.9586
8.7764 2.5783 -1.9336 0.9633
6.0023 3.7097 -1.4915 0.9716
4.0615 4.3653 -1.2604 0.9759
3.6947 4.7597 -1.2736 0.9757
3.0399 4.7343 -1.1893 0.9773
2.5718 4.9217 -1.1738 0.9776
2.1124 5.1063 -1.1681 0.9777
1.6536 5.2901 -1.1716 0.9776
0.3505 2.8030 -0.5971 0.9885
-1.4364 6.0603 -1.3165 0.9749
-3.5060 10.5088 -2.3417 0.9557
-4.3426 9.9562 -2.2960 0.9566
-6.9273 7.1666 -2.1069 0.9601
-7.9450 6.8718 -2.2204 0.9580
-2.5508 1.8358 -0.6643 0.9872
-8.6505 5.1213 -2.1250 0.9597
-9.1116 2.4893 -1.9966 0.9621
-8.9417 -0.0103 -1.8901 0.9641
-8.7627 -0.7946 -1.8599 0.9647
-8.2434 -2.2726 -1.8075 0.9656
-7.9100 -2.9618 -1.7854 0.9661
-6.6520 -4.8107 -1.7353 0.9670
-6.1561 -5.3495 -1.7239 0.9672
-5.6262 -5.8476 -1.7153 0.9674
-5.0647 -6.3038 -1.7093 0.9675
-3.2117 -7.4102 -1.7072 0.9675
-2.5450 -7.6877 -1.7118 0.9674
-1.8573 -7.9173 -1.7190 0.9673
-1.1506 -8.0977 -1.7289 0.9671
0.3110 -8.3049 -1.7567 0.9666
2.5859 -8.2062 -1.8187 0.9654
3.3548 -8.0569 -1.8448 0.9649
4.1232 -7.8463 -1.8736 0.9644
5.6422 -7.2340 -1.9392 0.9632
6.3834 -6.8290 -1.9760 0.9625
7.8015 -5.8153 -2.0568 0.9610
2.3428 -0.9160 -0.5317 0.9898
9.8817 -1.9430 -2.1288 0.9597
10.5191 -0.1640 -2.2238 0.9579
10.7150 0.7911 -2.2711 0.9570
10.7481 1.7674 -2.3024 0.9564
9.2493 2.3840 -2.0190 0.9617
8.0696 2.8685 -1.8103 0.9656
6.2796 3.5964 -1.5297 0.9708
3.3754 4.8887 -1.2558 0.9760
2.2842 5.0373 -1.1691 0.9776
0.4714 2.9610 -0.6338 0.9878
-0.1259 6.0839 -1.2863 0.9754
-1.1734 5.8109 -1.2531 0.9761
-2.0603 6.9415 -1.5306 0.9708
-5.5451 8.9162 -2.2195 0.9580
-6.7393 7.4562 -2.1245 0.9597
-8.9848 3.6875 -2.0529 0.9611
-9.1248 1.9533 -1.9725 0.9626
-8.8364 -0.5038 -1.8709 0.9645
-8.3562 -2.0053 -1.8165 0.9655
-8.0404 -2.7074 -1.7933 0.9659
-7.6786 -3.3747 -1.7729 0.9663
0.1453 6.0625 -1.4252 0.9754
-1.4285 5.7407 -1.3903 0.9760
-3.1900 9.2179 -2.2925 0.9607
-3.9297 8.7422 -2.2527 0.9614
-4.6081 8.2049 -2.2117 0.9621
-5.2211 7.6151 -2.1700 0.9628
-5.7658 6.9819 -2.1281 0.9635
-2.5522 1.7939 -0.7332 0.9873
-7.8092 4.5064 -2.1190 0.9636
-8.1698 2.9343 -2.0402 0.9650
-8.2485 2.1549 -2.0036 0.9656
-8.2173 0.6338 -1.9370 0.9667
-8.1138 -0.0999 -1.9071 0.9672
-7.4902 -2.1551 -1.8318 0.9685
-7.1880 -2.7833 -1.8116 0.9688
-6.8436 -3.3797 -1.7939 0.9691
-6.4597 -3.9427 -1.7786 0.9694
-6.0388 -4.4707 -1.7659 0.9696
-5.0962 -5.4163 -1.7478 0.9699
-4.5790 -5.8313 -1.7425 0.9700
-4.0343 -6.2063 -1.7397 0.9700
-2.2561 -7.0785 -1.7461 0.9699
-0.9721 -7.4369 -1.7627 0.9697
1.7494 -7.5690 -1.8258 0.9686
3.8382 -7.1103 -1.8990 0.9673
4.5256 -6.8435 -1.9283 0.9668
6.9766 3.3013 -1.8140 0.9688
6.1765 3.6294 -1.6837 0.9710
2.7295 4.9510 -1.3287 0.9770
1.3286 5.5247 -1.3354 0.9769
-0.1974 6.1983 -1.4575 0.9748
-0.7826 6.4294 -1.5222 0.9737
-1.2264 5.7427 -1.3801 0.9762
-3.6592 8.9283 -2.2678 0.9611
-4.3612 8.4130 -2.2271 0.9618
-6.0709 6.5679 -2.1020 0.9639
-7.9520 4.0151 -2.0936 0.9641
-8.2650 1.6731 -1.9819 0.9659
-8.2415 0.9140 -1.9488 0.9665
-8.1592 0.1728 -1.9180 0.9670
-7.8313 -1.2429 -1.8636 0.9679
-6.9775 -3.1599 -1.8002 0.9690
-6.6081 -3.7356 -1.7840 0.9693
-5.2825 -5.2506 -1.7505 0.9699
-4.7763 -5.6804 -1.7442 0.9700
-3.6807 -6.4198 -1.7392 0.9701
-1.8622 -7.2104 -1.7502 0.9699
-1.2179 -7.3839 -1.7588 0.9697
2.8825 -7.3830 -1.8627 0.9680
6.2633 -5.8602 -2.0159 0.9654
7.4775 -4.8309 -2.0923 0.9641
8.0258 -4.2225 -2.1314 0.9634
8.3559 -2.6375 -2.0593 0.9646
9.5481 1.3519 -2.2664 0.9612
8.3262 2.7520 -2.0610 0.9646
7.3168 3.1670 -1.8738 0.9678
6.4628 3.5121 -1.7287 0.9702
5.7299 3.8121 -1.6175 0.9721
4.0191 4.6206 -1.4393 0.9752
3.4978 4.8317 -1.4019 0.9758
2.9091 4.8826 -1.3358 0.9769
0.2522 2.7662 -0.6528 0.9887
0.0100 6.1161 -1.4374 0.9752
-0.5571 6.3404 -1.4959 0.9742
-1.5854 5.8143 -1.4164 0.9755
-4.7676 8.0620 -2.2013 0.9622
-5.8912 6.8178 -2.1177 0.9637
-6.3486 6.1425 -2.0761 0.9644
-2.5900 1.7354 -0.7327 0.9873
-7.8697 4.3100 -2.1088 0.9638
-8.0671 3.5232 -2.0689 0.9645
-8.1956 2.7386 -2.0309 0.9651
-8.1967 0.4484 -1.9293 0.9668
-8.0794 -0.2799 -1.9000 0.9673
-7.1058 -2.9355 -1.8069 0.9689
-6.7512 -3.5237 -1.7898 0.9692
-5.4646 -5.0794 -1.7534 0.9698
-4.9695 -5.5238 -1.7463 0.9699
-3.8940 -6.2937 -1.7394 0.9700
-3.3178 -6.6168 -1.7397 0.9700
-0.8072 -7.4685 -1.7655 0.9696
-0.1390 -7.5646 -1.7781 0.9694
1.2290 -7.6067 -1.8109 0.9688
4.0109 -7.0491 -1.9061 0.9672
6.0232 -6.0261 -2.0024 0.9656
7.2596 -5.0424 -2.0774 0.9643
7.8291 -4.4598 -2.1176 0.9637
7.7792 -3.5537 -2.0100 0.9655
8.2016 -2.8941 -2.0441 0.9649
8.9323 -1.4476 -2.1267 0.9635
9.4029 0.1683 -2.2102 0.9621
9.5611 1.9029 -2.2912 0.9607
8.7598 2.5734 -2.1458 0.9632
7.6732 3.0206 -1.9381 0.9667
4.7061 4.2298 -1.4871 0.9743
4.1344 4.4435 -1.4265 0.9754
3.6901 4.7538 -1.4144 0.9756
2.1437 5.1821 -1.3180 0.9772
0.3479 2.7825 -0.6590 0.9885
-0.9375 6.4905 -1.5413 0.9734
-1.3573 5.7265 -1.3832 0.9761
-3.8406 8.8052 -2.2577 0.9613
-4.5269 8.2751 -2.2168 0.9620
-6.1853 6.3990 -2.0916 0.9641
-7.7773 4.6044 -2.1242 0.9635
-8.0013 3.8183 -2.0836 0.9642
-8.2648 1.4818 -1.9734 0.9661
-6.8889 -3.3070 -1.7959 0.9691
-6.0933 -4.4067 -1.7673 0.9696
-5.6422 -4.9029 -1.7568 0.9698
-4.6452 -5.7817 -1.7431 0.9700
-3.5366 -6.5006 -1.7393 0.9700
-2.9460 -6.7971 -1.7411 0.9700
-0.3910 -7.5343 -1.7731 0.9695
0.2846 -7.5996 -1.7873 0.9692
0.9700 -7.6144 -1.8040 0.9690
1.6625 -7.5773 -1.8232 0.9686
2.3592 -7.4868 -1.8449 0.9683
4.4402 -6.8801 -1.9245 0.9669
5.1178 -6.5617 -1.9558 0.9664
6.4215 -5.7448 -2.0250 0.9652
7.6200 -4.6852 -2.1023 0.9639
8.1449 -4.0556 -2.1384 0.9633
2.3427 -0.9160 -0.5912 0.9897
9.3369 -0.1455 -2.1947 0.9624
9.4881 0.7005 -2.2360 0.9617
9.5574 1.5716 -2.2764 0.9610
9.2309 2.3793 -2.2404 0.9616
4.9279 4.1395 -1.5126 0.9739
3.8861 4.6745 -1.4287 0.9753
3.3713 4.8828 -1.3945 0.9759
2.3180 5.1120 -1.3192 0.9772
1.8540 5.3011 -1.3199 0.9772
1.3875 5.4991 -1.3329 0.9770
0.4628 2.9074 -0.6919 0.9880
-1.1737 5.8123 -1.3936 0.9759
-2.0572 6.9310 -1.6992 0.9707
-3.5673 8.9883 -2.2727 0.9610
-4.2769 8.4806 -2.2323 0.9617
-5.5021 7.3033 -2.1490 0.9631
-6.0121 6.6517 -2.1072 0.9638
-6.4520 5.9695 -2.0659 0.9645
-7.6748 4.8978 -2.1398 0.9633
-7.9257 4.1134 -2.0986 0.9640
-8.1056 3.3266 -2.0592 0.9646
-7.8578 -1.1574 -1.8667 0.9679
-7.6245 -1.8297 -1.8428 0.9683
2.1121 5.2712 -1.4703 0.9768
0.3115 2.7389 -0.7137 0.9887
0.1451 6.0548 -1.5682 0.9753
-0.4104 6.2744 -1.6280 0.9744
-3.5194 7.8295 -2.2226 0.9652
-4.6939 6.8463 -2.1492 0.9663
-5.6326 5.6987 -2.0746 0.9674
-6.0095 5.0817 -2.0377 0.9680
-7.0879 4.0902 -2.1188 0.9668
-7.2960 3.3823 -2.0822 0.9673
-7.5244 1.9657 -2.0136 0.9684
-7.5180 0.5798 -1.9523 0.9693
-7.4331 -0.0915 -1.9247 0.9698
-5.1494 -4.5765 -1.7837 0.9719
-3.1970 -6.0358 -1.7685 0.9722
-1.4965 -6.7155 -1.7814 0.9720
0.9719 -7.0050 -1.8311 0.9712
1.6084 -6.9588 -1.8493 0.9709
3.5174 -6.5161 -1.9172 0.9699
4.7540 -5.9571 -1.9733 0.9690
5.3492 -5.5962 -2.0044 0.9685
5.9226 -5.1807 -2.0374 0.9680
6.4692 -4.7109 -2.0720 0.9675
6.9227 -3.3512 -1.9914 0.9687
2.3806 -0.9003 -0.6590 0.9895
8.2237 -0.7729 -2.1387 0.9664
8.4034 -0.0372 -2.1758 0.9659
6.9654 3.2960 -1.9952 0.9687
5.4701 3.9096 -1.7409 0.9726
4.8467 4.1644 -1.6545 0.9739
4.2774 4.3963 -1.5882 0.9750
3.8156 4.6952 -1.5665 0.9753
1.3418 5.5794 -1.4858 0.9766
-0.7815 6.4207 -1.6747 0.9736
-1.2258 5.7397 -1.5196 0.9760
-3.2749 7.9906 -2.2359 0.9649
-3.9105 7.5436 -2.2000 0.9655
-5.0134 6.5025 -2.1259 0.9666
-5.4753 5.9236 -2.0886 0.9672
-6.9932 4.3539 -2.1329 0.9665
-7.2255 3.6483 -2.0958 0.9671
-7.5467 1.5277 -1.9936 0.9687
-7.1880 -1.1408 -1.8844 0.9704
-6.9756 -1.7565 -1.8625 0.9707
-6.7195 -2.3464 -1.8428 0.9710
-6.4223 -2.9085 -1.8254 0.9713
-5.3096 -4.4098 -1.7870 0.9719
-4.8729 -4.8434 -1.7789 0.9720
-4.4071 -5.2413 -1.7730 0.9721
-1.7178 -6.6513 -1.7786 0.9720
-0.5144 -6.9219 -1.7971 0.9717
0.1056 -6.9893 -1.8098 0.9715
2.0075 -6.9047 -1.8618 0.9707
2.6458 -6.7767 -1.8836 0.9704
3.2809 -6.5970 -1.9077 0.9700
3.9090 -6.3645 -1.9339 0.9696
4.5263 -6.0783 -1.9622 0.9692
7.2748 -3.8274 -2.1284 0.9666
7.5512 -2.3835 -2.0502 0.9678
8.1396 -1.0409 -2.1246 0.9667
8.5457 1.2100 -2.2347 0.9650
8.5340 1.9976 -2.2693 0.9644
6.4529 3.5066 -1.9015 0.9701
5.7216 3.8066 -1.7793 0.9720
5.0732 4.0719 -1.6843 0.9735
4.0140 4.6147 -1.5836 0.9750
2.9417 4.9375 -1.4881 0.9765
2.4449 5.0867 -1.4613 0.9770
1.9944 5.3184 -1.4707 0.9768
1.0384 5.7002 -1.5002 0.9763
0.2502 2.7439 -0.7134 0.9887
0.0100 6.1083 -1.5816 0.9751
-0.5564 6.3320 -1.6458 0.9741
-1.5826 5.8039 -1.5576 0.9754
-3.0233 8.1433 -2.2491 0.9647
-4.8246 6.7106 -2.1399 0.9664
-6.0940 4.9242 -2.0286 0.9681
-2.5885 1.7344 -0.8068 0.9872
-7.1460 3.9137 -2.1095 0.9669
-7.3380 3.2048 -2.0732 0.9675
-7.5360 1.7901 -2.0055 0.9685
-7.5466 1.0938 -1.9744 0.9690
-7.5017 0.4104 -1.9452 0.9694
-7.4038 -0.2565 -1.9181 0.9699
-7.2558 -0.9037 -1.8932 0.9702
-7.0605 -1.5285 -1.8704 0.9706
-6.8204 -2.1283 -1.8499 0.9709
-6.5384 -2.7011 -1.8317 0.9712
-6.2168 -3.2448 -1.8157 0.9714
-5.8584 -3.7577 -1.8021 0.9717
-5.4654 -4.2382 -1.7907 0.9718
-5.0401 -4.6849 -1.7817 0.9720
-4.5850 -5.0964 -1.7750 0.9721
-3.0620 -6.1066 -1.7687 0.9722
-2.5090 -6.3646 -1.7713 0.9721
-1.9368 -6.5811 -1.7762 0.9721
-0.1281 -6.9694 -1.8048 0.9716
0.4977 -7.0076 -1.8190 0.9714
1.7680 -6.9395 -1.8542 0.9708
2.4067 -6.8307 -1.8752 0.9705
3.0434 -6.6706 -1.8984 0.9702
4.9046 -5.8719 -1.9809 0.9689
5.4948 -5.4974 -2.0125 0.9684
6.0620 -5.0683 -2.0459 0.9679
6.6010 -4.5849 -2.0810 0.9673
7.0271 -3.2101 -2.0003 0.9686
7.7588 -1.9808 -2.0733 0.9675
8.0467 -1.3041 -2.1106 0.9669
8.2749 -0.5917 -2.1480 0.9663
8.4377 0.1510 -2.1850 0.9657
8.5302 0.9178 -2.2214 0.9652
8.4862 2.4931 -2.2901 0.9641
6.7544 3.3827 -1.9559 0.9693
5.9846 3.6988 -1.8216 0.9713
4.6999 4.2242 -1.6362 0.9742
3.6856 4.7479 -1.5562 0.9755
2.6430 5.0579 -1.4776 0.9767
0.3454 2.7622 -0.7207 0.9886
-0.3387 6.2461 -1.6196 0.9745
-1.3558 5.7199 -1.5220 0.9760
-4.6273 6.9132 -2.1539 0.9662
-7.0574 4.1782 -2.1235 0.9667
-7.5172 2.0537 -2.0177 0.9683
-7.5493 1.3535 -1.9858 0.9688
-7.4465 -0.0086 -1.9280 0.9697
-6.9155 -1.9065 -1.8573 0.9708
-6.3419 -3.0444 -1.8214 0.9714
-5.9970 -3.5691 -1.8069 0.9716
-5.6166 -4.0619 -1.7947 0.9718
-4.7590 -4.9463 -1.7772 0.9720
-3.7873 -5.6865 -1.7690 0.9722
-2.1535 -6.5048 -1.7741 0.9721
-1.5705 -6.6948 -1.7805 0.9720
-0.9720 -6.8413 -1.7891 0.9719
-0.3604 -6.9430 -1.8001 0.9717
0.2621 -6.9988 -1.8134 0.9715
0.8927 -7.0073 -1.8290 0.9712
2.8051 -6.7367 -1.8894 0.9703
4.0646 -6.2980 -1.9408 0.9695
4.6784 -5.9983 -1.9696 0.9691
5.2759 -5.6443 -2.0004 0.9686
6.4026 -4.7725 -2.0676 0.9675
7.3804 -3.6750 -2.1347 0.9665
2.3431 -0.9161 -0.6514 0.9897
7.6367 -2.2243 -2.0594 0.9677
7.9455 -1.5623 -2.0966 0.9671
8.3847 -0.1307 -2.1712 0.9659
8.5041 0.6279 -2.2079 0.9654
8.5502 1.4060 -2.2435 0.9648
8.5187 2.1957 -2.2777 0.9643
7.0740 3.2513 -2.0158 0.9683
5.5527 3.8758 -1.7533 0.9724
4.3461 4.3683 -1.5955 0.9749
3.8812 4.6686 -1.5720 0.9752
3.3672 4.8768 -1.5344 0.9758
2.8217 4.9859 -1.4833 0.9766
2.3474 5.1768 -1.4717 0.9768
1.4017 5.5554 -1.4835 0.9766
0.1969 2.8657 -0.7437 0.9882
-0.7056 6.3908 -1.6647 0.9738
-1.1740 5.8138 -1.5357 0.9758
-3.1919 8.0424 -2.2403 0.9649
-4.4217 7.1098 -2.1678 0.9660
-4.9515 6.5724 -2.1306 0.9666
-5.8289 5.3930 -2.0561 0.9677
-6.1747 4.7655 -2.0195 0.9683
-7.2000 3.7368 -2.1003 0.9670
-7.5440 1.6149 -1.9975 0.9686
-7.4820 0.2419 -1.9382 0.9695
-7.3714 -0.4203 -1.9117 0.9700
-7.2113 -1.0622 -1.8873 0.9703
-7.0046 -1.6809 -1.8651 0.9707
-6.4616 -2.8398 -1.8275 0.9713
2.5806 5.0756 -1.6119 0.9766
2.1095 5.2649 -1.6056 0.9767
-0.4099 6.2660 -1.7777 0.9742
-2.5753 7.4418 -2.2293 0.9678
-3.7457 6.6693 -2.1654 0.9687
-4.2589 6.2118 -2.1321 0.9692
-4.7201 5.7156 -2.0985 0.9697
-5.1271 5.1872 -2.0647 0.9701
-5.4789 4.6331 -2.0312 0.9706
-6.4798 3.7392 -2.1179 0.9694
-6.6823 3.0979 -2.0851 0.9698
-6.8246 2.4512 -2.0528 0.9703
-6.9107 1.8054 -2.0220 0.9707
-6.9219 0.5339 -1.9654 0.9716
-6.8515 -0.0843 -1.9398 0.9719
-6.7334 -0.6864 -1.9161 0.9723
-6.5701 -1.2695 -1.8943 0.9726
-6.3639 -1.8310 -1.8747 0.9728
-6.1173 -2.3687 -1.8571 0.9731
-5.8328 -2.8805 -1.8416 0.9733
-4.7738 -4.2427 -1.8080 0.9738
-3.9192 -4.9911 -1.7965 0.9740
-3.4538 -5.3133 -1.7940 0.9740
-2.4572 -5.8473 -1.7956 0.9740
-1.3875 -6.2263 -1.8059 0.9738
-0.8307 -6.3547 -1.8143 0.9737
0.3152 -6.4834 -1.8376 0.9734
0.8992 -6.4816 -1.8525 0.9732
2.0758 -6.3399 -1.8885 0.9726
3.8148 -5.7688 -1.9579 0.9717
5.9275 -4.3164 -2.0758 0.9700
6.3894 -3.8310 -2.1090 0.9695
2.3845 -0.9018 -0.7217 0.9895
7.6159 -0.0337 -2.1560 0.9688
7.6766 2.0702 -2.2508 0.9675
7.5558 2.7812 -2.2793 0.9671
6.9540 3.2906 -2.1779 0.9685
6.1578 3.6184 -2.0219 0.9707
5.4623 3.9040 -1.9007 0.9725
4.8401 4.1587 -1.8065 0.9738
3.8108 4.6893 -1.7106 0.9752
2.7587 5.0039 -1.6176 0.9765
1.2713 3.7694 -1.1261 0.9836
1.3401 5.5726 -1.6225 0.9765
0.4263 2.8844 -0.8254 0.9880
0.1657 2.8819 -0.8172 0.9881
-0.1969 6.1821 -1.7510 0.9746
-0.7805 6.4119 -1.8286 0.9735
-2.1467 6.9473 -2.0585 0.9702
-3.5403 6.8295 -2.1777 0.9685
-4.0724 6.3882 -2.1447 0.9690
-4.9809 5.3887 -2.0774 0.9700
-5.3535 4.8435 -2.0438 0.9704
-5.6705 4.2763 -2.0106 0.9709
-5.9318 3.6930 -1.9781 0.9714
-6.8849 2.0471 -2.0334 0.9706
-6.8836 0.1457 -1.9491 0.9718
-6.4461 -1.6231 -1.8818 0.9727
-6.2144 -2.1700 -1.8634 0.9730
-4.5184 -4.4910 -1.8035 0.9739
-3.1512 -5.4963 -1.7935 0.9740
-2.6502 -5.7587 -1.7946 0.9740
-1.0410 -6.3114 -1.8109 0.9738
0.6797 -6.4876 -1.8466 0.9732
1.2664 -6.4573 -1.8628 0.9730
1.8552 -6.3807 -1.8811 0.9728
2.4429 -6.2570 -1.9015 0.9725
3.0263 -6.0850 -1.9239 0.9721
5.2423 -4.9049 -2.0324 0.9706
6.2202 -4.0186 -2.0964 0.9697
2.3225 -0.9684 -0.7123 0.9896
6.8807 -2.1719 -2.0426 0.9704
7.5665 -0.2870 -2.1436 0.9690
7.6785 0.3948 -2.1766 0.9685
7.7253 1.0938 -2.2088 0.9681
7.7032 1.8031 -2.2397 0.9676
7.6097 2.5152 -2.2689 0.9672
5.0662 4.0663 -1.8390 0.9734
4.4796 4.3059 -1.7590 0.9745
1.5194 5.5010 -1.6156 0.9766
1.0372 5.6932 -1.6382 0.9762
0.2481 2.7218 -0.7737 0.9887
0.0100 6.1004 -1.7270 0.9750
-2.7313 7.3569 -2.2216 0.9679
-3.3282 6.9830 -2.1899 0.9684
-5.2203 5.0508 -2.0563 0.9703
-5.5582 4.4912 -2.0230 0.9707
-2.5870 1.7334 -0.8816 0.9871
-6.5377 3.5805 -2.1102 0.9695
-6.7233 2.9363 -2.0769 0.9700
-6.8513 2.2894 -2.0450 0.9704
-6.9421 1.0061 -1.9858 0.9713
-6.9089 0.3779 -1.9588 0.9716
-6.6967 -0.8341 -1.9104 0.9723
-6.5224 -1.4120 -1.8892 0.9726
-6.3060 -1.9678 -1.8701 0.9729
-6.0497 -2.4992 -1.8530 0.9732
-5.7559 -3.0042 -1.8381 0.9734
-5.0653 -3.9280 -1.8146 0.9737
-4.6729 -4.3436 -1.8061 0.9738
-4.2521 -4.7264 -1.7998 0.9739
-3.8050 -5.0750 -1.7957 0.9740
-3.3338 -5.3882 -1.7937 0.9740
-1.2495 -6.2623 -1.8078 0.9738
-0.6895 -6.3802 -1.8167 0.9737
0.4607 -6.4872 -1.8411 0.9733
1.0460 -6.4740 -1.8565 0.9731
2.2229 -6.3090 -1.8936 0.9726
3.9559 -5.7013 -1.9645 0.9716
5.0468 -5.0493 -2.0210 0.9708
5.5603 -4.6489 -2.0518 0.9703
6.4171 -2.9315 -1.9972 0.9711
7.6440 0.1368 -2.1643 0.9687
7.7197 1.5364 -2.2283 0.9678
7.5141 2.9579 -2.2861 0.9670
4.1364 4.4457 -1.7191 0.9751
3.6809 4.7420 -1.6994 0.9754
2.1682 5.2413 -1.6057 0.9767
0.3429 2.7420 -0.7823 0.9886
0.1045 2.9745 -0.8426 0.9877
-0.3382 6.2378 -1.7685 0.9744
-0.9349 6.4726 -1.8514 0.9732
-4.1976 6.2712 -2.1363 0.9691
-4.6654 5.7795 -2.1027 0.9696
-5.0793 5.2548 -2.0689 0.9701
-5.4380 4.7035 -2.0354 0.9706
-2.5601 1.8425 -0.8929 0.9870
-6.4472 3.8169 -2.1210 0.9693
-6.8100 2.5320 -2.0568 0.9702
-6.9029 1.8859 -2.0258 0.9707
-6.9414 1.2445 -1.9964 0.9711
-6.9273 0.6121 -1.9687 0.9715
-6.8629 -0.0079 -1.9428 0.9719
-6.7506 -0.6122 -1.9189 0.9722
-6.5929 -1.1978 -1.8969 0.9725
-6.1503 -2.3029 -1.8592 0.9731
-5.5543 -3.3057 -1.8298 0.9735
-5.2047 -3.7640 -1.8183 0.9737
-4.4131 -4.5868 -1.8019 0.9739
-3.9756 -4.9484 -1.7970 0.9740
-3.5132 -5.2750 -1.7942 0.9740
-3.0279 -5.5654 -1.7936 0.9740
-1.4562 -6.2073 -1.8050 0.9738
-0.9009 -6.3409 -1.8131 0.9737
-0.3338 -6.4324 -1.8234 0.9736
0.2426 -6.4805 -1.8359 0.9734
1.4136 -6.4425 -1.8672 0.9730
3.1711 -6.0345 -1.9298 0.9721
3.7441 -5.8014 -1.9547 0.9717
4.8482 -5.1867 -2.0099 0.9709
5.8675 -4.3737 -2.0717 0.9700
6.7404 -3.3563 -2.1316 0.9692
2.3444 -0.9166 -0.7126 0.9896
6.9559 -2.0260 -2.0510 0.9703
7.2255 -1.4207 -2.0847 0.9699
7.6004 -0.1185 -2.1519 0.9689
7.6965 0.5682 -2.1848 0.9684
7.7263 1.2705 -2.2166 0.9680
7.6866 1.9812 -2.2471 0.9675
7.5749 2.6927 -2.2759 0.9671
5.5447 3.8702 -1.9142 0.9723
3.8763 4.6627 -1.7165 0.9751
2.8183 4.9798 -1.6199 0.9765
2.3446 5.1705 -1.6072 0.9767
0.4714 2.9612 -0.8488 0.9876
0.1965 2.8599 -0.8115 0.9882
-0.1273 6.1546 -1.7427 0.9747
-2.0510 6.9099 -2.0405 0.9705
-3.4704 6.8814 -2.1818 0.9685
-4.4962 5.9681 -2.1153 0.9694
-4.9305 5.4550 -2.0816 0.9699
-5.3100 4.9129 -2.0479 0.9704
-5.6339 4.3481 -2.0147 0.9708
-6.5896 3.4200 -2.1017 0.9696
-6.7606 2.7746 -2.0688 0.9701
-6.8928 0.2229 -1.9523 0.9717
-6.2455 -2.1030 -1.8656 0.9730
-5.9796 -2.6280 -1.8491 0.9732
2.5774 5.0694 -1.7492 0.9765
1.1547 3.8441 -1.2346 0.9833
1.1576 5.6377 -1.7702 0.9762
0.1447 6.0392 -1.8581 0.9750
-1.4230 5.7185 -1.8125 0.9756
-5.0292 4.2527 -2.0258 0.9728
-2.5556 1.7963 -0.9608 0.9870
-5.5363 3.1948 -1.9660 0.9736
-6.1577 2.8547 -2.0876 0.9720
-6.2965 2.2615 -2.0578 0.9724
-6.3834 1.6676 -2.0293 0.9728
-6.4074 0.4942 -1.9766 0.9735
-6.2445 -0.6366 -1.9306 0.9741
-5.9112 -1.7008 -1.8919 0.9746
-5.4246 -2.6789 -1.8609 0.9750
-5.1293 -3.1307 -1.8483 0.9752
-4.8022 -3.5552 -1.8378 0.9753
-4.0611 -4.3162 -1.8228 0.9755
-3.2179 -4.9504 -1.8161 0.9756
-2.7632 -5.2168 -1.8158 0.9756
-2.2893 -5.4477 -1.8175 0.9756
-1.2922 -5.7985 -1.8272 0.9754
0.2932 -6.0307 -1.8571 0.9750
0.8360 -6.0255 -1.8711 0.9749
1.3816 -5.9775 -1.8870 0.9747
1.9271 -5.8858 -1.9049 0.9744
2.4697 -5.7496 -1.9247 0.9742
3.0058 -5.5683 -1.9463 0.9739
4.5411 -4.7508 -2.0214 0.9729
5.4641 -3.9790 -2.0790 0.9721
5.8150 -2.8150 -1.9871 0.9733
2.3991 -0.9073 -0.7889 0.9893
6.4121 -1.7903 -2.0477 0.9725
6.6445 -1.2297 -2.0784 0.9721
6.9557 -0.0308 -2.1394 0.9713
7.0373 1.2380 -2.1978 0.9705
6.9845 1.8836 -2.2250 0.9702
6.8668 2.5276 -2.2506 0.9698
6.6831 3.1624 -2.2741 0.9695
5.4544 3.8984 -2.0621 0.9723
4.8335 4.1530 -1.9601 0.9737
3.2963 4.8900 -1.8139 0.9756
2.7553 4.9977 -1.7553 0.9764
1.2528 3.7145 -1.2057 0.9837
1.3385 5.5657 -1.7607 0.9763
0.4292 2.9043 -0.9030 0.9878
0.1653 2.8743 -0.8855 0.9880
-0.7794 6.4030 -1.9840 0.9734
-1.2243 5.7327 -1.8030 0.9758
-2.1269 6.8833 -2.2159 0.9703
-4.1662 5.4036 -2.0987 0.9718
-4.5635 4.9372 -2.0679 0.9723
-4.9116 4.4436 -2.0372 0.9727
-6.0912 3.0756 -2.0988 0.9718
-6.4119 1.2980 -2.0122 0.9730
-6.3759 0.1350 -1.9615 0.9737
-6.2886 -0.4290 -1.9387 0.9740
-6.1579 -0.9773 -1.9177 0.9742
-5.9859 -1.5073 -1.8986 0.9745
-5.7747 -2.0165 -1.8814 0.9747
-5.5267 -2.5029 -1.8661 0.9749
-4.9285 -3.3993 -1.8415 0.9753
-4.5826 -3.8060 -1.8322 0.9754
-4.2083 -4.1828 -1.8250 0.9755
-3.8077 -4.5285 -1.8198 0.9755
-3.3830 -4.8417 -1.8167 0.9756
-2.9361 -5.1210 -1.8156 0.9756
-2.4692 -5.3653 -1.8166 0.9756
-1.4835 -5.7443 -1.8248 0.9755
-0.9692 -5.8767 -1.8320 0.9754
0.0909 -6.0217 -1.8524 0.9751
2.2668 -5.8059 -1.9171 0.9743
3.3363 -5.4319 -1.9607 0.9737
5.2992 -4.1372 -2.0678 0.9723
6.1104 -3.2148 -2.1237 0.9715
6.3130 -1.9927 -2.0362 0.9727
6.5630 -1.4433 -2.0669 0.9723
6.7647 -0.8651 -2.0976 0.9719
6.9140 -0.2622 -2.1281 0.9715
7.0071 0.3603 -2.1581 0.9711
7.0118 1.6413 -2.2150 0.9703
6.9186 2.2867 -2.2412 0.9700
6.7597 2.9259 -2.2656 0.9696
5.0591 4.0606 -1.9953 0.9732
4.0037 4.6029 -1.8764 0.9748
3.4848 4.8137 -1.8278 0.9754
2.9345 4.9254 -1.7634 0.9763
1.9895 5.3055 -1.7428 0.9766
1.5175 5.4943 -1.7532 0.9764
0.0100 6.0924 -1.8739 0.9748
-1.1724 6.5571 -2.0488 0.9725
-1.5770 5.7835 -1.8438 0.9752
-2.4880 6.7015 -2.1987 0.9705
-3.0356 6.3690 -2.1701 0.9709
-3.5424 5.9900 -2.1405 0.9713
-4.4203 5.1155 -2.0795 0.9721
-4.7869 4.6315 -2.0487 0.9725
-5.1036 4.1239 -2.0182 0.9729
-2.5855 1.7324 -0.9573 0.9871
-6.1974 2.7067 -2.0800 0.9721
-6.3230 2.1129 -2.0505 0.9725
-6.3971 1.5195 -2.0224 0.9729
-6.4212 0.9306 -1.9956 0.9732
-6.3970 0.3499 -1.9705 0.9735
-5.8584 -1.8281 -1.8876 0.9746
-3.9609 -4.4026 -1.8215 0.9755
-3.5450 -4.7281 -1.8176 0.9756
-3.1061 -5.0203 -1.8158 0.9756
-0.6419 -5.9394 -1.8375 0.9753
-0.1104 -6.0070 -1.8479 0.9752
0.4285 -6.0334 -1.8604 0.9750
0.9723 -6.0176 -1.8749 0.9748
1.5181 -5.9587 -1.8913 0.9746
2.0632 -5.8559 -1.9097 0.9744
2.6044 -5.7085 -1.9299 0.9741
3.6620 -5.2777 -1.9758 0.9735
4.1711 -4.9938 -2.0013 0.9731
4.6619 -4.6642 -2.0283 0.9728
5.1302 -4.2893 -2.0568 0.9724
6.4747 -1.6529 -2.0553 0.9724
6.6950 -1.0850 -2.0861 0.9720
6.8644 -0.4909 -2.1167 0.9716
7.0352 0.7569 -2.1764 0.9708
7.0301 1.3992 -2.2047 0.9704
6.8270 2.6875 -2.2567 0.9698
6.6268 3.3188 -2.2796 0.9695
4.1310 4.4399 -1.8653 0.9749
3.6763 4.7360 -1.8441 0.9752
3.1156 4.8522 -1.7736 0.9762
2.6365 5.0456 -1.7510 0.9765
1.1838 3.7870 -1.2204 0.9835
0.3561 2.8478 -0.8827 0.9881
0.1040 2.9611 -0.9113 0.9877
-0.3378 6.2294 -1.9188 0.9742
-1.3528 5.7074 -1.8041 0.9758
-2.2730 6.8131 -2.2091 0.9704
-3.3574 6.1372 -2.1517 0.9711
-4.6552 4.8161 -2.0602 0.9724
-4.9908 4.3167 -2.0296 0.9728
-2.5678 1.8480 -0.9731 0.9868
-6.1367 2.9285 -2.0914 0.9719
-6.4116 0.5665 -1.9797 0.9734
-6.3582 -0.0073 -1.9557 0.9737
-6.1186 -1.1116 -1.9128 0.9743
-5.9367 -1.6366 -1.8941 0.9746
-5.7161 -2.1404 -1.8774 0.9748
-5.4592 -2.6207 -1.8626 0.9750
-4.4915 -3.9031 -1.8302 0.9754
-4.1105 -4.2723 -1.8235 0.9755
-3.2732 -4.9147 -1.8162 0.9756
-1.8604 -5.6197 -1.8208 0.9755
-0.8388 -5.9036 -1.8341 0.9754
0.2257 -6.0284 -1.8555 0.9751
0.7680 -6.0285 -1.8692 0.9749
1.3134 -5.9859 -1.8849 0.9747
1.8591 -5.8996 -1.9026 0.9744
2.9393 -5.5934 -1.9435 0.9739
3.4672 -5.3724 -1.9667 0.9736
3.9821 -5.1056 -1.9915 0.9733
4.4803 -4.7931 -2.0180 0.9729
4.9575 -4.4351 -2.0460 0.9725
5.8321 -3.5859 -2.1058 0.9718
5.7724 -2.8743 -1.9834 0.9734
2.3457 -0.9171 -0.7747 0.9895
6.3798 -1.8582 -2.0438 0.9726
6.8071 -0.7164 -2.1053 0.9718
6.9427 -0.1082 -2.1357 0.9714
6.8851 2.4475 -2.2475 0.9699
6.7096 3.0839 -2.2713 0.9696
4.3347 4.3569 -1.8903 0.9746
3.8713 4.6567 -1.8626 0.9750
3.3588 4.8647 -1.8183 0.9756
2.8148 4.9737 -1.7578 0.9764
1.3092 3.7433 -1.2198 0.9835
1.3983 5.5418 -1.7580 0.9764
0.1961 2.8550 -0.8802 0.9881
-0.7037 6.3733 -1.9722 0.9735
-1.1746 5.8168 -1.8252 0.9755
-4.1132 5.4596 -2.1025 0.9718
-4.5166 4.9970 -2.0718 0.9722
-4.8708 4.5066 -2.0410 0.9726
-5.1749 3.9939 -2.0106 0.9730
-2.6802 1.7104 -0.9780 0.9868
-6.0646 3.1475 -2.1016 0.9718
-6.4078 1.3717 -2.0155 0.9729
-6.4196 0.7845 -1.9892 0.9733
-6.3836 0.2064 -1.9645 0.9736
-6.1765 -0.9097 -1.9203 0.9742
-6.0095 -1.4421 -1.9009 0.9745
-5.8032 -1.9541 -1.8834 0.9747
-5.5596 -2.4434 -1.8679 0.9749
2.1043 5.2520 -1.8807 0.9764
1.1562 5.6306 -1.9107 0.9761
0.1446 6.0312 -2.0054 0.9749
-0.4088 6.2490 -2.0816 0.9739
-1.0107 6.4850 -2.1817 0.9727
-2.1503 6.2136 -2.1856 0.9727
-3.1423 5.5951 -2.1331 0.9733
-3.5818 5.2242 -2.1055 0.9737
-3.9796 4.8190 -2.0775 0.9740
-5.7003 2.6426 -2.0885 0.9739
-5.9644 1.0008 -2.0103 0.9748
-5.9584 0.4595 -1.9865 0.9751
-5.9085 -0.0727 -1.9642 0.9754
-5.8164 -0.5929 -1.9434 0.9757
-5.5135 -1.5863 -1.9071 0.9761
-5.3065 -2.0548 -1.8915 0.9763
-5.0652 -2.5015 -1.8778 0.9765
-4.4878 -3.3224 -1.8561 0.9767
-4.1556 -3.6933 -1.8480 0.9768
-3.4145 -4.3483 -1.8378 0.9770
-3.0095 -4.6298 -1.8355 0.9770
-0.2281 -5.5999 -1.8630 0.9767
0.7803 -5.6243 -1.8875 0.9763
1.2889 -5.5763 -1.9025 0.9762
1.7967 -5.4872 -1.9193 0.9760
2.3008 -5.3565 -1.9378 0.9757
2.7982 -5.1837 -1.9581 0.9755
3.2855 -4.9684 -1.9800 0.9752
4.2162 -4.4109 -2.0283 0.9746
4.6519 -4.0692 -2.0545 0.9743
5.4429 -3.2636 -2.1096 0.9736
5.3761 -2.6025 -1.9854 0.9751
6.2826 -0.5905 -2.0976 0.9738
6.3937 -0.0283 -2.1253 0.9734
6.4518 0.5488 -2.1524 0.9731
6.4545 1.1354 -2.1784 0.9728
6.3995 1.7258 -2.2032 0.9724
5.8792 3.4547 -2.2667 0.9717
5.4464 3.8927 -2.2253 0.9722
3.2335 4.7968 -1.9229 0.9759
2.7519 4.9915 -1.8946 0.9763
2.2802 5.1814 -1.8817 0.9764
0.4716 3.1914 -1.0724 0.9865
0.1663 2.8914 -0.9627 0.9879
-0.1964 6.1655 -2.0505 0.9743
-0.7783 6.3940 -2.1411 0.9732
-2.9674 5.7242 -2.1432 0.9732
-3.8355 4.9746 -2.0880 0.9739
-4.2062 4.5505 -2.0598 0.9742
-4.5322 4.1004 -2.0316 0.9746
-4.8126 3.6293 -2.0036 0.9749
-5.0467 3.1420 -1.9761 0.9753
-5.7936 2.3026 -2.0724 0.9741
-5.9322 0.1256 -1.9723 0.9753
-5.8557 -0.3995 -1.9510 0.9756
-5.7383 -0.9107 -1.9313 0.9758
-5.3882 -1.8815 -1.8971 0.9762
-5.1596 -2.3366 -1.8828 0.9764
-4.8979 -2.7688 -1.8702 0.9766
-4.6051 -3.1763 -1.8596 0.9767
-3.5607 -4.2347 -1.8391 0.9769
-3.1638 -4.5280 -1.8362 0.9770
-0.9060 -5.4930 -1.8506 0.9768
-0.4145 -5.5779 -1.8592 0.9767
0.5900 -5.6318 -1.8823 0.9764
1.0981 -5.5991 -1.8966 0.9762
2.3186 -0.9667 -0.8350 0.9895
6.2280 -0.7964 -2.0871 0.9739
6.3581 -0.2411 -2.1150 0.9735
6.4270 1.5044 -2.1941 0.9726
6.3352 2.0939 -2.2179 0.9723
6.1841 2.6768 -2.2399 0.9720
5.9734 3.2461 -2.2598 0.9718
5.6963 3.7898 -2.2743 0.9716
5.0519 4.0548 -2.1533 0.9731
3.4183 4.7218 -1.9377 0.9757
1.9871 5.2990 -1.8812 0.9764
1.0346 5.6790 -1.9188 0.9760
-1.1707 6.5476 -2.2110 0.9724
-1.5742 5.7732 -1.9891 0.9751
-2.2819 6.1463 -2.1793 0.9727
-2.7871 5.8476 -2.1533 0.9731
-3.2560 5.5058 -2.1262 0.9734
-3.6852 5.1259 -2.0985 0.9737
-4.0723 4.7129 -2.0704 0.9741
-4.4153 4.2720 -2.0422 0.9744
-4.7128 3.8081 -2.0141 0.9748
-2.5840 1.7314 -1.0339 0.9870
-5.1695 2.8312 -1.9592 0.9755
-5.7420 2.5078 -2.0828 0.9739
-5.8646 1.9597 -2.0554 0.9743
-5.9671 0.8648 -2.0042 0.9749
-5.8893 -0.2040 -1.9588 0.9755
-5.7870 -0.7208 -1.9385 0.9757
-5.2493 -2.1686 -1.8879 0.9763
