ply
format ascii 1.0
element vertex 1593
property float32 x
property float32 y
property float32 z
property float32 I
end_header
-6.8739 9.5730 -2.2152 0.9532
-7.5115 8.6995 -2.1604 0.9543
-9.1608 7.4007 -2.2135 0.9532
-9.8346 5.3790 -2.1070 0.9554
-10.0341 4.3728 -2.0573 0.9564
-10.1482 3.3795 -2.0104 0.9574
-10.1817 2.4050 -1.9664 0.9583
-10.1397 1.4541 -1.9254 0.9592
-10.0269 0.5312 -1.8873 0.9600
-9.6081 -1.2181 -1.8204 0.9613
-9.3107 -2.0392 -1.7915 0.9619
-8.9601 -2.8221 -1.7657 0.9625
-7.6243 -4.9265 -1.7062 0.9637
-7.0950 -5.5427 -1.6923 0.9640
-6.5283 -6.1147 -1.6813 0.9642
-5.9267 -6.6415 -1.6731 0.9644
-3.9350 -7.9413 -1.6659 0.9646
-3.2156 -8.2776 -1.6691 0.9645
-1.7056 -8.7970 -1.6843 0.9642
-0.9188 -8.9771 -1.6962 0.9639
1.5430 -9.1787 -1.7494 0.9628
2.3893 -9.1260 -1.7732 0.9623
4.1029 -8.8274 -1.8297 0.9612
4.9632 -8.5766 -1.8625 0.9605
5.8201 -8.2547 -1.8984 0.9597
6.6688 -7.8594 -1.9374 0.9589
7.5037 -7.3884 -1.9794 0.9580
8.3187 -6.8397 -2.0243 0.9571
9.1066 -6.2118 -2.0720 0.9561
10.5389 -4.7013 -2.1691 0.9541
10.9676 -2.6906 -2.1226 0.9551
11.8512 -0.7303 -2.2318 0.9528
12.1632 0.3403 -2.2871 0.9517
10.2645 2.1556 -1.9714 0.9582
6.7190 3.4599 -1.4205 0.9697
5.8536 3.7113 -1.3028 0.9722
4.5122 4.1539 -1.1528 0.9753
3.9635 4.3652 -1.1082 0.9763
3.6160 4.7795 -1.1265 0.9759
2.5332 5.0034 -1.0541 0.9774
2.0646 5.1819 -1.0484 0.9776
-0.9909 6.2222 -1.1843 0.9747
-5.1413 11.3157 -2.3362 0.9507
-7.3962 8.8706 -2.1709 0.9541
-9.0756 7.5941 -2.2243 0.9530
-9.7860 5.5736 -2.1168 0.9552
-10.0025 4.5658 -2.0667 0.9562
-10.1812 2.5909 -1.9747 0.9581
-10.1534 1.6352 -1.9330 0.9590
-10.0539 0.7066 -1.8944 0.9598
-9.6589 -1.0557 -1.8263 0.9612
-9.3722 -1.8840 -1.7969 0.9618
-8.6406 -3.4252 -1.7471 0.9629
-7.7218 -4.8028 -1.7092 0.9637
-7.1999 -5.4275 -1.6947 0.9640
-6.6402 -6.0081 -1.6832 0.9642
-6.0452 -6.5436 -1.6745 0.9644
-3.3561 -8.2167 -1.6683 0.9645
-1.8548 -8.7561 -1.6823 0.9642
-1.0718 -8.9467 -1.6937 0.9640
-0.2700 -9.0824 -1.7079 0.9637
1.3812 -9.1817 -1.7452 0.9629
2.2256 -9.1410 -1.7683 0.9624
3.0787 -9.0372 -1.7945 0.9619
4.7976 -8.6303 -1.8560 0.9606
5.6555 -8.3223 -1.8913 0.9599
6.5062 -7.9413 -1.9297 0.9591
7.3443 -7.4851 -1.9710 0.9582
10.4228 -4.8667 -2.1621 0.9543
10.8666 -2.8653 -2.1123 0.9553
11.3622 -1.9305 -2.1662 0.9542
11.7804 -0.9300 -2.2211 0.9530
12.1106 0.1299 -2.2764 0.9519
11.4935 1.1560 -2.1712 0.9541
10.5857 2.0332 -2.0261 0.9571
3.3135 4.8855 -1.2478 0.9762
0.8274 5.5340 -1.1828 0.9774
-0.7511 6.2220 -1.3247 0.9747
-1.3858 6.5131 -1.4076 0.9731
-4.1374 10.1035 -2.3078 0.9563
-4.9224 9.4970 -2.2611 0.9572
-5.6309 8.8296 -2.2136 0.9581
-6.2599 8.1124 -2.1660 0.9590
-6.8079 7.3559 -2.1186 0.9599
-7.2745 6.5700 -2.0720 0.9607
-8.2551 6.2112 -2.1837 0.9586
-8.8363 4.4443 -2.0908 0.9604
-9.0071 3.5611 -2.0473 0.9612
-9.1026 2.6865 -2.0062 0.9619
-9.1267 1.8261 -1.9674 0.9627
-8.9760 0.1656 -1.8977 0.9640
-8.8090 -0.6271 -1.8668 0.9645
-8.3106 -2.1229 -1.8131 0.9655
-7.2026 -4.1109 -1.7530 0.9667
-5.7344 -5.7548 -1.7173 0.9673
-5.1771 -6.2205 -1.7107 0.9675
-4.5899 -6.6433 -1.7068 0.9675
-3.9747 -7.0219 -1.7056 0.9675
-2.6694 -7.6421 -1.7111 0.9674
-0.5551 -8.2098 -1.7394 0.9669
0.1825 -8.2965 -1.7541 0.9666
0.9327 -8.3293 -1.7716 0.9663
1.6927 -8.3063 -1.7919 0.9659
4.0007 -7.8844 -1.8689 0.9645
4.7675 -7.6198 -1.9000 0.9639
6.9982 -6.4308 -2.0090 0.9619
9.8261 -2.0543 -2.1220 0.9598
10.4845 -0.2839 -2.2170 0.9580
9.6509 2.3768 -2.1010 0.9602
6.4317 3.5978 -1.5578 0.9703
5.6715 3.8762 -1.4521 0.9723
4.9592 4.0850 -1.3581 0.9741
3.9390 4.6507 -1.2883 0.9754
2.7720 4.8000 -1.1717 0.9776
1.8470 5.1449 -1.1555 0.9779
0.9189 5.4963 -1.1779 0.9775
-0.6371 6.1702 -1.3112 0.9750
-1.7113 5.9085 -1.3003 0.9752
-3.9779 10.2124 -2.3167 0.9562
-5.5006 8.9624 -2.2228 0.9579
-6.1450 8.2539 -2.1751 0.9588
-6.7087 7.5041 -2.1277 0.9597
-8.1816 6.3797 -2.1931 0.9585
-9.1274 1.9905 -1.9747 0.9625
-8.8457 -0.4766 -1.8725 0.9644
-7.6904 -3.3597 -1.7740 0.9663
-7.2853 -3.9932 -1.7561 0.9666
-5.8381 -5.6602 -1.7188 0.9673
-4.7052 -6.5653 -1.7074 0.9675
-4.0953 -6.9525 -1.7056 0.9675
-3.4592 -7.2946 -1.7065 0.9675
-2.7991 -7.5905 -1.7101 0.9675
-2.1170 -7.8388 -1.7163 0.9673
-1.4151 -8.0381 -1.7252 0.9672
-0.6955 -8.1871 -1.7368 0.9670
0.7874 -8.3273 -1.7681 0.9664
3.0815 -8.1174 -1.8353 0.9651
7.5673 -6.0063 -2.0422 0.9613
8.2446 -5.4180 -2.0854 0.9605
9.7475 -2.2139 -2.1129 0.9600
10.1281 -1.3635 -2.1602 0.9591
10.7926 1.4629 -2.3022 0.9564
8.5822 2.7846 -1.9072 0.9638
4.4491 4.2398 -1.2991 0.9752
3.8764 4.4200 -1.2427 0.9763
3.5113 4.8113 -1.2591 0.9759
2.3953 4.9407 -1.1606 0.9778
-0.5255 6.1197 -1.2983 0.9752
-1.6160 5.9623 -1.3058 0.9751
-3.8157 10.3184 -2.3255 0.9560
-4.6289 9.7385 -2.2792 0.9569
-5.3673 9.0932 -2.2320 0.9577
-6.6064 7.6512 -2.1368 0.9595
-8.1049 6.5477 -2.2024 0.9583
-8.4689 5.6705 -2.1544 0.9592
-8.9504 3.9006 -2.0638 0.9609
-9.1256 2.1555 -1.9820 0.9624
-8.8802 -0.3250 -1.8784 0.9643
-8.6783 -1.1002 -1.8491 0.9649
-8.4227 -1.8447 -1.8226 0.9654
-6.9286 -4.4770 -1.7437 0.9668
-6.4524 -5.0407 -1.7308 0.9671
-5.3955 -6.0462 -1.7129 0.9674
-4.8195 -6.4856 -1.7080 0.9675
-4.2148 -6.8814 -1.7057 0.9675
-2.9280 -7.5372 -1.7092 0.9675
-0.1032 -8.2694 -1.7481 0.9668
0.6424 -8.3232 -1.7646 0.9664
1.3990 -8.3219 -1.7838 0.9661
2.1635 -8.2637 -1.8057 0.9657
2.9330 -8.1468 -1.8303 0.9652
3.7041 -7.9693 -1.8576 0.9647
4.4729 -7.7293 -1.8877 0.9641
8.1168 -5.5367 -2.0769 0.9606
10.6225 0.2972 -2.2463 0.9575
10.7742 1.2716 -2.2933 0.9566
10.2423 2.1509 -2.2122 0.9581
8.8190 2.6943 -1.9492 0.9630
5.9581 3.7775 -1.4912 0.9716
5.2215 4.0072 -1.3913 0.9734
4.5664 4.2038 -1.3120 0.9749
2.4846 4.9074 -1.1627 0.9778
2.0237 5.0792 -1.1557 0.9779
1.5645 5.2498 -1.1579 0.9779
0.3174 2.8580 -0.6078 0.9883
-0.4160 6.0705 -1.2862 0.9754
-1.0098 6.3406 -1.3572 0.9741
-3.6509 10.4217 -2.3342 0.9559
-4.4779 9.8556 -2.2882 0.9567
-5.2311 9.2220 -2.2411 0.9576
-7.0148 7.0271 -2.0988 0.9602
-8.0251 6.7151 -2.2119 0.9581
-8.4053 5.8402 -2.1635 0.9590
-8.7019 4.9562 -2.1168 0.9599
-9.0564 3.1904 -2.0296 0.9615
-9.1212 2.3212 -1.9895 0.9623
-9.1163 1.4682 -1.9518 0.9630
-8.9126 -0.1725 -1.8843 0.9642
-8.7215 -0.9532 -1.8545 0.9648
-7.4463 -3.7536 -1.7627 0.9665
-6.5469 -4.9352 -1.7330 0.9670
-4.9327 -6.4043 -1.7087 0.9675
-4.3334 -6.8086 -1.7060 0.9675
-3.0561 -7.4821 -1.7084 0.9675
-2.3822 -7.7489 -1.7136 0.9674
-1.6877 -7.9672 -1.7215 0.9673
-0.2453 -8.2529 -1.7453 0.9668
0.4979 -8.3171 -1.7612 0.9665
1.2525 -8.3265 -1.7799 0.9662
2.0158 -8.2794 -1.8012 0.9658
4.3252 -7.7805 -1.8817 0.9643
5.0891 -7.4888 -1.9139 0.9637
5.8427 -7.1315 -1.9488 0.9630
7.9877 -5.6528 -2.0685 0.9608
8.6431 -5.0219 -2.1130 0.9600
9.5829 -2.5268 -2.0949 0.9603
9.9898 -1.6973 -2.1419 0.9594
10.3259 -0.8152 -2.1895 0.9585
10.5828 0.1136 -2.2371 0.9577
10.5622 2.0287 -2.2734 0.9570
9.0664 2.5999 -1.9937 0.9622
3.8304 4.6839 -1.4221 0.9754
3.3095 4.8796 -1.3857 0.9761
2.2480 5.0754 -1.3046 0.9774
1.3176 5.4330 -1.3139 0.9773
-0.7575 6.2752 -1.4855 0.9744
-1.7662 5.7267 -1.4085 0.9757
-4.3610 8.4139 -2.2273 0.9618
-5.5727 7.2219 -2.1439 0.9632
-6.0751 6.5641 -2.1020 0.9639
-6.5070 5.8768 -2.0607 0.9646
-6.8685 5.1679 -2.0201 0.9653
-2.6298 1.6324 -0.7274 0.9874
-7.9573 4.0023 -2.0934 0.9641
-8.1279 3.2135 -2.0541 0.9647
-8.2303 2.4291 -2.0168 0.9654
-8.2673 1.6541 -1.9815 0.9659
-8.2422 0.8933 -1.9484 0.9665
-7.8259 -1.2676 -1.8632 0.9679
-7.5841 -1.9373 -1.8397 0.9683
-5.2574 -5.2761 -1.7505 0.9699
-3.6462 -6.4415 -1.7396 0.9700
-2.4481 -7.0085 -1.7448 0.9700
-0.5084 -7.5189 -1.7711 0.9695
1.5463 -7.5880 -1.8200 0.9687
2.9438 -7.3692 -1.8650 0.9679
3.6412 -7.1758 -1.8912 0.9675
5.0138 -6.6147 -1.9507 0.9665
6.3267 -5.8138 -2.0194 0.9653
7.5372 -4.7691 -2.0962 0.9640
8.0877 -4.1556 -2.1370 0.9633
8.3996 -2.5579 -2.0636 0.9646
9.0727 -1.0625 -2.1469 0.9632
9.4709 0.5922 -2.2302 0.9618
9.5507 1.4626 -2.2708 0.9611
9.5435 2.3504 -2.3100 0.9604
7.2983 3.2636 -1.8790 0.9677
4.4137 4.3537 -1.4571 0.9748
2.3382 5.0424 -1.3063 0.9774
1.8725 5.2159 -1.3025 0.9775
1.4078 5.3970 -1.3109 0.9773
0.2078 2.7241 -0.6421 0.9888
-0.0806 6.0272 -1.4167 0.9755
-1.2582 6.4581 -1.5463 0.9733
-1.6394 5.6602 -1.3849 0.9761
-5.9838 6.6934 -2.1101 0.9638
-6.4293 6.0111 -2.0686 0.9645
-2.6119 1.6844 -0.7304 0.9873
-8.2157 2.5795 -2.0238 0.9652
-8.2517 1.0386 -1.9546 0.9664
-7.6343 -1.8105 -1.8440 0.9683
-6.6668 -3.6542 -1.7868 0.9692
-6.2637 -4.2021 -1.7727 0.9695
-5.3520 -5.1890 -1.7520 0.9698
-4.3159 -6.0220 -1.7413 0.9700
-3.7567 -6.3778 -1.7396 0.9700
-1.2969 -7.3667 -1.7580 0.9697
0.0361 -7.5825 -1.7821 0.9693
0.7201 -7.6159 -1.7979 0.9691
1.4123 -7.5975 -1.8162 0.9687
2.1097 -7.5260 -1.8370 0.9684
2.8091 -7.3999 -1.8602 0.9680
5.5533 -6.3206 -1.9774 0.9660
7.4264 -4.8803 -2.0885 0.9641
7.9859 -4.2788 -2.1293 0.9635
2.3499 -1.0001 -0.6002 0.9896
8.7009 -1.9762 -2.0970 0.9640
9.0190 -1.2142 -2.1388 0.9633
9.2696 -0.4110 -2.1807 0.9626
9.5420 1.2934 -2.2631 0.9612
8.5661 2.7794 -2.1166 0.9637
7.4837 3.1929 -1.9122 0.9671
6.5788 3.5325 -1.7550 0.9698
5.1329 4.0817 -1.5413 0.9734
3.9458 4.4992 -1.4064 0.9757
2.9077 4.8405 -1.3271 0.9771
2.4287 5.0095 -1.3084 0.9774
1.9619 5.1820 -1.3023 0.9775
1.4977 5.3614 -1.3083 0.9774
1.0267 5.5513 -1.3268 0.9771
0.0114 2.9468 -0.6926 0.9880
-1.1350 6.4132 -1.5307 0.9736
-1.5270 5.6339 -1.3719 0.9763
-3.3696 9.1121 -2.2833 0.9609
-4.7622 8.0680 -2.2018 0.9622
-5.8899 6.8214 -2.1181 0.9636
-7.6034 5.0910 -2.1506 0.9631
-7.8729 4.3060 -2.1090 0.9638
-8.2590 1.1844 -1.9609 0.9663
-8.1973 0.4343 -1.9292 0.9668
-8.0785 -0.2957 -1.8999 0.9673
-7.9060 -1.0023 -1.8730 0.9678
-7.6829 -1.6827 -1.8485 0.9682
-7.4122 -2.3346 -1.8264 0.9686
-7.0970 -2.9558 -1.8068 0.9689
-5.9118 -4.6184 -1.7631 0.9696
-5.4455 -5.1005 -1.7536 0.9698
-4.4206 -5.9488 -1.7419 0.9700
-3.8664 -6.3125 -1.7398 0.9700
-3.2873 -6.6343 -1.7401 0.9700
-2.6855 -6.9129 -1.7430 0.9700
-0.7653 -7.4772 -1.7665 0.9696
-0.0945 -7.5703 -1.7793 0.9694
0.5877 -7.6134 -1.7946 0.9691
1.2785 -7.6052 -1.8125 0.9688
1.9751 -7.5440 -1.8328 0.9685
2.6744 -7.4285 -1.8556 0.9681
6.7119 -5.5186 -2.0422 0.9649
7.3143 -4.9892 -2.0809 0.9643
7.8813 -4.3993 -2.1213 0.9636
7.8012 -3.4801 -2.0076 0.9655
6.7404 3.4710 -1.7819 0.9693
5.2573 4.0346 -1.5575 0.9731
3.6072 4.7678 -1.4051 0.9757
2.0513 5.1484 -1.3025 0.9775
1.5873 5.3261 -1.3062 0.9774
0.0600 2.8425 -0.6682 0.9884
-1.4243 5.6380 -1.3667 0.9764
-3.9618 8.7197 -2.2509 0.9614
-5.2506 7.5850 -2.1681 0.9628
-5.7934 6.9483 -2.1262 0.9635
-6.2661 6.2770 -2.0845 0.9642
-7.5431 5.2412 -2.1587 0.9630
-7.8266 4.4577 -2.1169 0.9637
-8.0379 3.6690 -2.0766 0.9643
-8.1793 2.8814 -2.0381 0.9650
-8.2537 2.1004 -2.0016 0.9656
-8.2641 1.3309 -1.9673 0.9662
-8.2137 0.5773 -1.9352 0.9667
-8.1056 -0.1569 -1.9054 0.9672
-7.9432 -0.8682 -1.8780 0.9677
-7.7296 -1.5538 -1.8530 0.9681
-7.4679 -2.2114 -1.8305 0.9685
-7.1610 -2.8387 -1.8104 0.9688
-5.0459 -5.4620 -1.7476 0.9699
-3.4007 -6.5756 -1.7399 0.9700
-0.8929 -7.4537 -1.7643 0.9696
-0.2246 -7.5562 -1.7767 0.9694
0.4555 -7.6090 -1.7915 0.9692
1.1449 -7.6108 -1.8088 0.9689
3.2387 -7.2945 -1.8758 0.9677
6.5923 -5.6135 -2.0350 0.9650
8.2851 -3.8685 -2.1490 0.9631
8.1618 -2.9545 -2.0400 0.9650
8.9041 -1.5128 -2.1226 0.9636
9.1815 -0.7248 -2.1646 0.9629
9.3872 0.1007 -2.2063 0.9622
9.5586 1.8359 -2.2875 0.9608
9.0486 2.5948 -2.2123 0.9621
3.8256 4.6780 -1.5647 0.9753
2.7565 4.9692 -1.4713 0.9768
2.2606 5.1039 -1.4453 0.9772
0.1586 2.6896 -0.6976 0.9889
-0.1855 6.0580 -1.5693 0.9753
-0.7565 6.2669 -1.6344 0.9743
-1.3819 6.4949 -1.7193 0.9729
-1.7628 5.7158 -1.5487 0.9756
-3.2729 7.9922 -2.2361 0.9649
-3.9103 7.5444 -2.2002 0.9655
-4.4925 7.0446 -2.1633 0.9661
-5.4791 5.9202 -2.0886 0.9672
-6.2184 4.6788 -2.0149 0.9684
-7.2305 3.6367 -2.0956 0.9671
-7.3981 2.9249 -2.0598 0.9677
-7.5035 2.2146 -2.0256 0.9682
-7.5490 1.5104 -1.9933 0.9687
-7.4702 0.1378 -1.9345 0.9696
-7.3513 -0.5233 -1.9082 0.9700
-6.9684 -1.7800 -1.8622 0.9707
-6.7099 -2.3706 -1.8426 0.9710
-6.4102 -2.9330 -1.8252 0.9713
-4.8497 -4.8670 -1.7790 0.9720
-4.3810 -5.2639 -1.7732 0.9721
-3.8854 -5.6237 -1.7698 0.9722
-3.3651 -5.9448 -1.7687 0.9722
-2.8222 -6.2262 -1.7700 0.9721
-2.2588 -6.4667 -1.7735 0.9721
-0.4685 -6.9295 -1.7983 0.9717
0.1539 -6.9934 -1.8112 0.9715
2.0620 -6.8963 -1.8637 0.9707
4.5844 -6.0481 -1.9650 0.9691
5.1861 -5.7014 -1.9955 0.9687
5.7674 -5.2998 -2.0280 0.9682
6.8478 -4.3329 -2.0982 0.9671
2.3328 -0.9456 -0.6517 0.9897
8.4910 0.5309 -2.2028 0.9655
8.5245 2.0994 -2.2731 0.9644
5.6645 3.8714 -1.7765 0.9720
5.0043 4.1222 -1.6787 0.9736
4.4079 4.3480 -1.6031 0.9747
2.8495 4.9344 -1.4753 0.9767
2.3710 5.1132 -1.4593 0.9770
1.8988 5.2890 -1.4550 0.9770
1.4254 5.4647 -1.4622 0.9769
0.9434 5.6429 -1.4813 0.9766
0.2071 2.7144 -0.7048 0.9888
-1.2564 6.4492 -1.7012 0.9732
-3.1441 8.0719 -2.2429 0.9648
-4.3849 7.1445 -2.1705 0.9660
-2.6131 1.6851 -0.8051 0.9872
-7.3708 3.0621 -2.0666 0.9676
-7.4880 2.3510 -2.0321 0.9681
-7.3781 -0.3975 -1.9131 0.9699
-6.7630 -2.2590 -1.8462 0.9710
-6.4710 -2.8270 -1.8284 0.9712
-6.1399 -3.3654 -1.8129 0.9715
-5.7723 -3.8724 -1.7997 0.9717
-2.9284 -6.1752 -1.7695 0.9722
-1.7906 -6.6300 -1.7781 0.9720
-1.1960 -6.7932 -1.7859 0.9719
-0.5872 -6.9118 -1.7960 0.9717
0.0332 -6.9847 -1.8085 0.9716
0.6629 -7.0106 -1.8233 0.9713
2.5788 -6.7930 -1.8813 0.9704
5.6573 -5.3814 -2.0216 0.9683
6.7495 -4.4354 -2.0911 0.9672
7.2451 -3.8819 -2.1282 0.9666
2.3447 -0.9978 -0.6598 0.9895
7.8491 -1.7827 -2.0840 0.9673
8.1202 -1.0932 -2.1214 0.9667
8.3296 -0.3693 -2.1588 0.9661
8.4718 0.3832 -2.1957 0.9656
8.5417 1.1578 -2.2318 0.9650
8.5349 1.9466 -2.2666 0.9645
8.4480 2.7411 -2.2996 0.9640
6.5684 3.5270 -1.9303 0.9697
4.5187 4.3061 -1.6161 0.9745
3.5027 4.7995 -1.5384 0.9757
2.9431 4.8994 -1.4798 0.9767
2.4624 5.0791 -1.4615 0.9769
1.0373 5.6083 -1.4767 0.9767
0.0112 2.9049 -0.7521 0.9881
-0.5310 6.1845 -1.6072 0.9747
-3.6711 7.7235 -2.2141 0.9653
-4.8216 6.7149 -2.1404 0.9664
-5.7330 5.5483 -2.0657 0.9676
-6.0954 4.9243 -2.0289 0.9681
-7.3410 3.1992 -2.0734 0.9675
-7.4702 2.4877 -2.0386 0.9680
-7.0565 -1.5455 -1.8704 0.9706
-6.8145 -2.1463 -1.8498 0.9709
-6.2066 -3.2641 -1.8157 0.9714
-5.8458 -3.7773 -1.8021 0.9717
-2.4781 -6.3790 -1.7719 0.9721
-1.3116 -6.7652 -1.7842 0.9719
2.4556 -6.8207 -1.8770 0.9705
3.0936 -6.6559 -1.9004 0.9701
4.3482 -6.1670 -1.9537 0.9693
5.5462 -5.4610 -2.0153 0.9684
6.1124 -5.0257 -2.0489 0.9678
6.6498 -4.5359 -2.0842 0.9673
8.0726 -1.2288 -2.1142 0.9668
8.2943 -0.5111 -2.1516 0.9662
8.4498 0.2364 -2.1887 0.9657
8.5424 1.7939 -2.2600 0.9646
8.4711 2.5881 -2.2934 0.9641
7.6624 3.1141 -2.1415 0.9664
5.2499 4.0290 -1.7134 0.9730
4.6313 4.2635 -1.6299 0.9743
4.0654 4.4774 -1.5658 0.9753
3.0372 4.8641 -1.4848 0.9766
2.5541 5.0448 -1.4641 0.9769
1.1306 5.5738 -1.4725 0.9768
0.0597 2.8314 -0.7333 0.9884
-0.4210 6.1442 -1.5946 0.9749
-1.4233 5.6341 -1.5046 0.9763
-3.5485 7.8100 -2.2211 0.9652
-4.1631 7.3392 -2.1847 0.9657
-6.0305 5.0461 -2.0359 0.9680
-6.3426 4.4070 -1.9997 0.9686
-7.1044 4.0463 -2.1169 0.9668
-7.5299 1.9162 -2.0118 0.9684
-7.5508 1.2160 -1.9802 0.9689
-7.2861 -0.7963 -1.8977 0.9702
-7.0980 -1.4268 -1.8746 0.9705
-6.8645 -2.0327 -1.8536 0.9709
-6.5882 -2.6116 -1.8350 0.9711
-6.2719 -3.1616 -1.8186 0.9714
-5.9180 -3.6810 -1.8045 0.9716
-4.6552 -5.0390 -1.7762 0.9721
-4.1749 -5.4204 -1.7715 0.9721
-3.6686 -5.7640 -1.7691 0.9722
-2.5867 -6.3328 -1.7712 0.9721
-2.0154 -6.5556 -1.7758 0.9721
-0.8232 -6.8715 -1.7919 0.9718
-0.2070 -6.9622 -1.8034 0.9716
1.6920 -6.9497 -1.8520 0.9709
2.3324 -6.8464 -1.8727 0.9706
3.6047 -6.4844 -1.9209 0.9698
4.2293 -6.2235 -1.9482 0.9694
4.8406 -5.9084 -1.9776 0.9689
6.5488 -4.6345 -2.0772 0.9674
7.5038 -3.5037 -2.1442 0.9664
8.0228 -1.3631 -2.1070 0.9669
8.2566 -0.6518 -2.1444 0.9664
8.4253 0.0904 -2.1816 0.9658
8.5236 0.8573 -2.2180 0.9652
8.5468 1.6416 -2.2534 0.9647
1.8058 5.3164 -1.5895 0.9769
0.8478 5.6708 -1.6232 0.9764
-0.1853 6.0502 -1.7136 0.9752
-0.7555 6.2584 -1.7846 0.9741
-1.3800 6.4857 -1.8772 0.9728
-2.9585 7.2245 -2.2100 0.9681
-4.0737 6.3879 -2.1448 0.9690
-4.5559 5.9041 -2.1112 0.9695
-4.9844 5.3856 -2.0774 0.9700
-5.3576 4.8388 -2.0437 0.9704
-6.6188 3.3290 -2.0974 0.9697
-6.7820 2.6814 -2.0646 0.9701
-6.7806 -0.4827 -1.9244 0.9721
-5.6230 -3.2093 -1.8329 0.9734
-5.2790 -3.6750 -1.8209 0.9736
-4.9029 -4.1101 -1.8111 0.9738
-3.6041 -5.2165 -1.7949 0.9740
-2.6178 -5.7754 -1.7951 0.9740
-1.5552 -6.1798 -1.8040 0.9739
-1.0008 -6.3212 -1.8118 0.9737
-0.4341 -6.4203 -1.8217 0.9736
0.7265 -6.4875 -1.8480 0.9732
1.3150 -6.4533 -1.8644 0.9730
1.9054 -6.3725 -1.8829 0.9727
2.4944 -6.2441 -1.9035 0.9724
3.6548 -5.8414 -1.9506 0.9718
6.2679 -3.9660 -2.0998 0.9696
7.1912 -1.5034 -2.0798 0.9699
7.4154 -0.8684 -2.1136 0.9694
7.7246 1.1830 -2.2123 0.9680
7.6934 1.8947 -2.2430 0.9676
7.5901 2.6082 -2.2720 0.9672
7.2736 3.2526 -2.2556 0.9674
4.9974 4.1165 -1.8329 0.9734
3.3994 4.8307 -1.6722 0.9757
2.8461 4.9284 -1.6111 0.9766
1.8965 5.2827 -1.5889 0.9769
1.4237 5.4581 -1.5969 0.9768
-0.0805 6.0118 -1.7021 0.9753
-0.6419 6.2170 -1.7694 0.9744
-1.2546 6.4401 -1.8574 0.9731
-1.6348 5.6445 -1.6636 0.9759
-2.8412 7.2943 -2.2161 0.9680
-3.4317 6.9101 -2.1842 0.9684
-4.4672 6.0002 -2.1177 0.9694
-4.9061 5.4879 -2.0839 0.9699
-2.6154 1.6866 -0.8810 0.9871
-6.9334 1.5120 -2.0089 0.9709
-6.9410 0.8736 -1.9804 0.9713
-6.8040 -0.3666 -1.9290 0.9721
-5.9882 -2.6160 -1.8499 0.9732
-5.6854 -3.1162 -1.8354 0.9734
-4.1488 -4.8137 -1.7990 0.9739
-3.6944 -5.1549 -1.7954 0.9740
-3.2162 -5.4601 -1.7939 0.9740
-0.5441 -6.4045 -1.8196 0.9736
0.6135 -6.4888 -1.8451 0.9733
1.2015 -6.4635 -1.8611 0.9730
2.9667 -6.1052 -1.9216 0.9722
5.7014 -4.5254 -2.0607 0.9702
6.1796 -4.0609 -2.0933 0.9697
6.6191 -3.5465 -2.1258 0.9693
2.3395 -0.9956 -0.7198 0.9895
6.8552 -2.2174 -2.0397 0.9705
7.5545 -0.3349 -2.1407 0.9691
7.7226 1.0467 -2.2062 0.9681
7.7050 1.7573 -2.2372 0.9677
7.6157 2.4710 -2.2666 0.9673
7.4530 3.1798 -2.2939 0.9669
5.7922 3.8138 -1.9633 0.9716
5.1187 4.0703 -1.8514 0.9732
3.4984 4.7935 -1.6800 0.9756
2.9395 4.8934 -1.6160 0.9765
1.0564 3.7816 -1.1115 0.9838
0.2614 2.7919 -0.7938 0.9884
0.0111 2.8833 -0.8163 0.9881
-1.1319 6.3955 -1.8387 0.9734
-1.5235 5.6209 -1.6487 0.9761
-5.2205 5.0523 -2.0567 0.9702
-5.5594 4.4913 -2.0232 0.9707
-6.7260 2.9312 -2.0770 0.9700
-6.9095 0.3660 -1.9588 0.9716
-6.8256 -0.2498 -1.9336 0.9720
-6.0423 -2.5166 -1.8530 0.9732
-5.4154 -3.4992 -1.8253 0.9736
-4.2334 -4.7440 -1.8000 0.9739
-2.2985 -5.9166 -1.7969 0.9740
-1.7650 -6.1144 -1.8016 0.9739
0.5008 -6.4884 -1.8423 0.9733
1.0880 -6.4719 -1.8579 0.9731
1.6780 -6.4092 -1.8755 0.9728
2.2679 -6.2992 -1.8953 0.9726
4.0032 -5.6778 -1.9667 0.9715
4.5578 -5.3715 -1.9943 0.9711
5.0935 -5.0152 -2.0236 0.9707
5.6059 -4.6092 -2.0545 0.9703
6.7945 -2.3279 -2.0332 0.9706
7.3356 -1.1166 -2.1006 0.9696
7.5249 -0.4637 -2.1343 0.9691
7.7179 0.9109 -2.2001 0.9682
5.2425 4.0233 -1.8708 0.9729
4.6250 4.2578 -1.7797 0.9742
2.5511 5.0388 -1.5988 0.9768
1.1196 3.7567 -1.1097 0.9838
0.3140 2.8268 -0.8052 0.9882
0.0596 2.8244 -0.7997 0.9883
-0.4205 6.1362 -1.7412 0.9748
-1.0115 6.3517 -1.8208 0.9736
-2.4018 6.8560 -2.0565 0.9703
-3.2097 7.0643 -2.1966 0.9683
-3.7716 6.6489 -2.1640 0.9687
-5.1488 5.1578 -2.0631 0.9702
-5.7922 4.0246 -1.9967 0.9711
-6.6948 3.0559 -2.0834 0.9699
-6.9163 1.7601 -2.0203 0.9708
-6.8455 -0.1325 -1.9383 0.9719
-6.5560 -1.3179 -1.8931 0.9726
-6.3457 -1.8791 -1.8735 0.9729
-5.4818 -3.4096 -1.8276 0.9735
-5.1240 -3.8626 -1.8165 0.9737
-4.7350 -4.2842 -1.8077 0.9738
-1.3228 -6.2446 -1.8070 0.9738
-0.7629 -6.3682 -1.8157 0.9737
-0.1917 -6.4492 -1.8265 0.9735
0.3883 -6.4864 -1.8395 0.9733
0.9746 -6.4787 -1.8547 0.9731
2.1544 -6.3241 -1.8914 0.9726
3.8946 -5.7311 -1.9616 0.9716
4.4523 -5.4344 -1.9888 0.9712
4.9920 -5.0877 -2.0178 0.9708
5.5092 -4.6912 -2.0485 0.9704
5.9992 -4.2455 -2.0806 0.9699
6.4568 -3.7516 -2.1140 0.9694
6.7321 -2.4370 -2.0268 0.9707
7.0373 -1.8556 -2.0603 0.9702
7.2926 -1.2390 -2.0941 0.9697
7.4930 -0.5915 -2.1278 0.9692
7.7201 1.4828 -2.2255 0.9678
3.8159 4.6661 -1.8540 0.9751
3.2973 4.8615 -1.8068 0.9757
0.1570 2.6626 -0.8204 0.9889
-0.7545 6.2499 -1.9363 0.9740
-3.2304 6.2327 -2.1592 0.9710
-4.5667 4.9344 -2.0679 0.9723
-6.0859 3.0610 -2.0953 0.9719
-6.4185 0.6957 -1.9858 0.9733
-6.3753 0.1176 -1.9612 0.9737
-5.2313 -2.9857 -1.8527 0.9751
-4.5651 -3.8269 -1.8322 0.9754
-4.1883 -4.2032 -1.8251 0.9755
-3.7852 -4.5480 -1.8200 0.9755
-3.3579 -4.8601 -1.8169 0.9756
-2.9084 -5.1381 -1.8160 0.9756
-2.4390 -5.3808 -1.8171 0.9756
-1.9516 -5.5870 -1.8203 0.9755
-0.4040 -5.9756 -1.8422 0.9752
0.6754 -6.0321 -1.8669 0.9749
2.3144 -5.7936 -1.9189 0.9742
3.9035 -5.1498 -1.9876 0.9733
4.4057 -4.8434 -2.0138 0.9730
4.8875 -4.4913 -2.0416 0.9726
5.7727 -3.6526 -2.1011 0.9718
6.1530 -3.1615 -2.1277 0.9715
2.3303 -0.9446 -0.7734 0.9895
6.7841 -0.7945 -2.1009 0.9718
7.0132 0.4385 -2.1613 0.9710
7.0020 1.7245 -2.2180 0.9703
6.3917 3.5754 -2.2526 0.9698
4.9904 4.1107 -1.9886 0.9733
4.3962 4.3364 -1.8993 0.9745
3.9190 4.6272 -1.8651 0.9749
3.3952 4.8247 -1.8146 0.9756
1.8942 5.2763 -1.7243 0.9768
0.9411 5.6291 -1.7554 0.9764
0.2123 2.7833 -0.8586 0.9884
-1.2529 6.4310 -2.0152 0.9730
-1.6325 5.6365 -1.8049 0.9757
-2.5887 6.6460 -2.1938 0.9706
-3.1307 6.3040 -2.1649 0.9710
-3.6310 5.9162 -2.1351 0.9714
-4.0862 5.4885 -2.1046 0.9718
-4.4939 5.0267 -2.0739 0.9722
-4.8522 4.5365 -2.0431 0.9726
-5.1601 4.0236 -2.0126 0.9730
-2.6186 1.6887 -0.9584 0.9870
-5.6236 2.9510 -1.9534 0.9738
-6.2282 2.5874 -2.0744 0.9722
-6.4075 1.3973 -2.0171 0.9729
-6.4214 0.8082 -1.9907 0.9733
-6.1827 -0.8924 -1.9214 0.9742
-6.0165 -1.4269 -1.9019 0.9745
-5.8107 -1.9409 -1.8843 0.9747
-5.5674 -2.4322 -1.8687 0.9749
-4.9771 -3.3390 -1.8434 0.9752
-3.8648 -4.4841 -1.8208 0.9755
-3.4420 -4.8026 -1.8174 0.9756
-2.9966 -5.0873 -1.8160 0.9756
-1.5465 -5.7262 -1.8243 0.9755
-0.5065 -5.9614 -1.8402 0.9753
0.0287 -6.0185 -1.8512 0.9751
0.5705 -6.0340 -1.8642 0.9750
1.1166 -6.0067 -1.8792 0.9748
1.6639 -5.9360 -1.8962 0.9745
2.2097 -5.8209 -1.9150 0.9743
2.7507 -5.6608 -1.9358 0.9740
3.2836 -5.4551 -1.9584 0.9737
3.8048 -5.2035 -1.9827 0.9734
4.7965 -4.5626 -2.0361 0.9727
5.6927 -3.7410 -2.0952 0.9719
6.5445 -1.4864 -2.0642 0.9723
7.0012 0.3167 -2.1556 0.9711
6.9247 2.2468 -2.2392 0.9700
6.7694 2.8881 -2.2637 0.9697
6.5474 3.5157 -2.2858 0.9694
5.1115 4.0646 -2.0087 0.9730
4.5066 4.2946 -1.9147 0.9743
3.4940 4.7875 -1.8230 0.9755
2.9359 4.8873 -1.7536 0.9764
1.9848 5.2426 -1.7242 0.9768
1.0576 3.7860 -1.2091 0.9837
0.2623 2.8008 -0.8652 0.9883
0.0111 2.8695 -0.8826 0.9881
-1.1303 6.3865 -1.9949 0.9732
-2.4798 6.7061 -2.1992 0.9705
-3.0295 6.3735 -2.1705 0.9709
-3.5381 5.9942 -2.1409 0.9713
-4.4192 5.1180 -2.0798 0.9721
-4.7871 4.6329 -2.0490 0.9725
-5.3716 3.5966 -1.9883 0.9733
-5.5877 3.0562 -1.9589 0.9737
-6.1999 2.7019 -2.0802 0.9721
-6.3255 2.1065 -2.0506 0.9725
-6.4225 0.9211 -1.9957 0.9732
-6.3975 0.3389 -1.9705 0.9735
-6.3259 -0.2315 -1.9470 0.9739
-6.2100 -0.7873 -1.9253 0.9741
-5.0396 -3.2564 -1.8455 0.9752
-4.7027 -3.6739 -1.8355 0.9753
-4.3366 -4.0619 -1.8276 0.9754
-3.9434 -4.4190 -1.8217 0.9755
-2.6220 -5.2916 -1.8164 0.9756
-1.6440 -5.6952 -1.8233 0.9755
-1.1323 -5.8402 -1.8298 0.9754
-0.0750 -6.0107 -1.8489 0.9752
1.0112 -6.0153 -1.8762 0.9748
3.1818 -5.4983 -1.9539 0.9738
3.7055 -5.2555 -1.9779 0.9734
4.2144 -4.9668 -2.0035 0.9731
4.7046 -4.6323 -2.0307 0.9727
5.9304 -2.6455 -1.9973 0.9732
6.2363 -2.1367 -2.0276 0.9728
6.4992 -1.5944 -2.0583 0.9724
6.5955 3.3964 -2.2818 0.9694
5.9226 3.7550 -2.1569 0.9711
4.0548 4.4658 -1.8553 0.9751
3.0297 4.8521 -1.7595 0.9763
2.0754 5.2089 -1.7246 0.9768
1.1122 3.7319 -1.1977 0.9838
0.3159 2.8443 -0.8802 0.9881
-2.9267 6.4414 -2.1762 0.9708
-3.9164 5.6576 -2.1164 0.9716
-4.3426 5.2083 -2.0857 0.9720
-4.7201 4.7283 -2.0549 0.9724
-5.3242 3.6994 -1.9941 0.9732
-5.5500 3.1611 -1.9645 0.9736
-6.1695 2.8161 -2.0859 0.9720
-6.4219 1.0342 -2.0007 0.9731
-6.2357 -0.6815 -1.9294 0.9741
-5.8946 -1.7455 -1.8909 0.9746
-5.6654 -2.2458 -1.8745 0.9748
-5.4001 -2.7222 -1.8601 0.9750
-5.1009 -3.1727 -1.8477 0.9752
-4.4093 -3.9895 -1.8290 0.9754
-3.6076 -4.6839 -1.8184 0.9756
-3.1707 -4.9817 -1.8163 0.9756
-2.7125 -5.2450 -1.8162 0.9756
-0.7102 -5.9285 -1.8365 0.9753
0.9059 -6.0223 -1.8732 0.9748
1.4531 -5.9684 -1.8894 0.9746
1.9999 -5.8705 -1.9075 0.9744
2.5431 -5.7278 -1.9276 0.9741
3.6057 -5.3059 -1.9731 0.9735
4.1177 -5.0260 -1.9985 0.9732
4.6118 -4.7002 -2.0254 0.9728
5.5292 -3.9129 -2.0834 0.9721
5.9435 -3.4533 -2.1143 0.9716
6.4521 -1.7013 -2.0524 0.9725
6.8512 -0.5409 -2.1138 0.9716
6.9706 0.0748 -2.1441 0.9712
7.0312 1.3505 -2.2022 0.9705
6.9669 1.9979 -2.2292 0.9701
3.7423 4.5761 -1.9650 0.9754
2.7464 4.9509 -1.8820 0.9764
2.2524 5.0853 -1.8488 0.9768
1.2678 3.7325 -1.3103 0.9835
0.8457 5.6567 -1.9012 0.9762
0.1580 2.6793 -0.8922 0.9888
-0.1848 6.0343 -2.0068 0.9749
-0.7534 6.2413 -2.0897 0.9738
-1.7528 5.6831 -1.9769 0.9752
-2.4737 6.0408 -2.1698 0.9729
-2.9672 5.7248 -2.1434 0.9732
-4.2091 4.5480 -2.0599 0.9742
-4.8164 3.6239 -2.0036 0.9749
-5.7973 2.2920 -2.0722 0.9741
-5.9668 0.6467 -1.9950 0.9750
-5.9318 0.1094 -1.9721 0.9753
-5.5763 -1.4244 -1.9131 0.9760
-5.3808 -1.9010 -1.8969 0.9762
-4.8861 -2.7888 -1.8701 0.9766
-4.2670 -3.5770 -1.8508 0.9768
-3.9158 -3.9297 -1.8441 0.9769
-2.7201 -4.8054 -1.8355 0.9770
-1.8249 -5.2245 -1.8395 0.9769
-1.3542 -5.3811 -1.8445 0.9769
-0.8710 -5.5011 -1.8514 0.9768
-0.3775 -5.5834 -1.8602 0.9767
0.1238 -5.6271 -1.8709 0.9766
0.6306 -5.6312 -1.8836 0.9764
1.1401 -5.5950 -1.8980 0.9762
2.1566 -5.3986 -1.9324 0.9758
4.5345 -4.1669 -2.0471 0.9744
4.9536 -3.7944 -2.0742 0.9740
5.6875 -2.9223 -2.1255 0.9734
2.3292 -0.9442 -0.8354 0.9895
6.2451 -0.7314 -2.0901 0.9738
6.3694 -0.1724 -2.1180 0.9735
6.4413 0.4028 -2.1453 0.9732
6.4579 0.9890 -2.1717 0.9728
6.4172 1.5804 -2.1969 0.9725
6.1580 2.7537 -2.2423 0.9720
4.9833 4.1049 -2.1461 0.9732
4.3902 4.3306 -2.0498 0.9743
3.8434 4.5379 -1.9767 0.9752
3.3298 4.7317 -1.9233 0.9759
2.3623 5.0946 -1.8667 0.9766
1.4202 5.4447 -1.8704 0.9766
0.9399 5.6220 -1.8947 0.9763
-0.0802 5.9961 -1.9933 0.9750
-0.6402 6.2001 -2.0719 0.9741
-1.6302 5.6285 -1.9479 0.9756
-2.8750 5.7891 -2.1486 0.9731
-3.3382 5.4391 -2.1213 0.9735
-3.7610 5.0517 -2.0935 0.9738
-4.1410 4.6321 -2.0653 0.9742
-2.6219 1.6908 -1.0370 0.9869
-5.2058 2.7318 -1.9542 0.9755
-5.8848 1.8477 -2.0503 0.9743
-5.9499 1.2975 -2.0243 0.9747
-5.8721 -0.3164 -1.9547 0.9755
-5.6098 -1.3304 -1.9164 0.9760
-5.4212 -1.8108 -1.8999 0.9762
-4.9394 -2.7074 -1.8724 0.9765
-4.6503 -3.1197 -1.8614 0.9767
-2.3669 -4.9911 -1.8362 0.9770
-1.4459 -5.3538 -1.8434 0.9769
-0.4733 -5.5705 -1.8584 0.9767
1.0419 -5.6052 -1.8951 0.9763
2.0594 -5.4248 -1.9288 0.9758
2.5617 -5.2717 -1.9483 0.9756
4.4509 -4.2339 -2.0420 0.9744
4.8749 -3.8693 -2.0688 0.9741
5.2716 -3.4643 -2.0968 0.9738
5.8054 -1.8779 -2.0282 0.9746
6.4316 0.2910 -2.1401 0.9732
6.4592 0.8755 -2.1667 0.9729
6.4296 1.4664 -2.1921 0.9726
3.9458 4.4991 -1.9892 0.9751
2.9322 4.8812 -1.8928 0.9763
2.4534 5.0605 -1.8694 0.9766
1.0520 3.7661 -1.2998 0.9837
0.2636 2.8147 -0.9397 0.9882
0.0112 2.9118 -0.9679 0.9878
-0.5289 6.1596 -2.0550 0.9743
-2.2744 6.1504 -2.1797 0.9727
-3.2521 5.5096 -2.1266 0.9734
-3.6829 5.1290 -2.0989 0.9737
-4.0713 4.7152 -2.0708 0.9741
-4.7138 3.8081 -2.0143 0.9748
-4.9659 3.3250 -1.9866 0.9751
-5.7375 2.5004 -2.0804 0.9740
-5.7853 -0.7334 -1.9385 0.9757
-5.6418 -1.2357 -1.9198 0.9759
-5.4604 -1.7198 -1.9030 0.9762
-3.6873 -4.1320 -1.8409 0.9769
-3.2967 -4.4364 -1.8373 0.9770
-2.8843 -4.7091 -1.8356 0.9770
-2.4522 -4.9488 -1.8359 0.9770
-2.0024 -5.1546 -1.8381 0.9770
-1.5371 -5.3251 -1.8424 0.9769
-1.0585 -5.4593 -1.8485 0.9768
3.4457 -4.8870 -1.9876 0.9751
3.9153 -4.6144 -2.0116 0.9748
4.7953 -3.9427 -2.0636 0.9742
5.5634 -3.1055 -2.1179 0.9735
5.4807 -2.4449 -1.9949 0.9750
5.9924 -1.4701 -2.0510 0.9743
6.4200 0.1796 -2.1349 0.9733
6.4582 0.7622 -2.1616 0.9730
6.4398 1.3524 -2.1873 0.9726
6.3630 1.9440 -2.2116 0.9723
6.2265 2.5306 -2.2341 0.9721
4.6124 4.2461 -2.0839 0.9739
3.0259 4.8460 -1.8991 0.9762
2.5448 5.0264 -1.8727 0.9765
2.0728 5.2025 -1.8615 0.9767
1.0739 3.6033 -1.2498 0.9843
0.3206 2.8867 -0.9655 0.9878
-2.1729 6.2026 -2.1846 0.9727
-2.6865 5.9128 -2.1588 0.9730
-3.1644 5.5786 -2.1319 0.9733
-3.9999 4.7972 -2.0762 0.9740
-4.6599 3.8993 -2.0197 0.9747
-5.7042 2.6038 -2.0843 0.9739
-5.9304 1.5092 -2.0341 0.9745
-5.9040 -0.1142 -1.9629 0.9754
-5.6725 -1.1403 -1.9233 0.9759
-5.4982 -1.6281 -1.9061 0.9761
-4.7653 -2.9639 -1.8654 0.9766
-4.4577 -3.3603 -1.8556 0.9767
-3.7599 -4.0699 -1.8418 0.9769
-2.9653 -4.6591 -1.8358 0.9770
-2.5368 -4.9053 -1.8357 0.9770
-2.0903 -5.1176 -1.8376 0.9770
-0.6637 -5.5405 -1.8549 0.9768
-0.1667 -5.6066 -1.8645 0.9766
0.8455 -5.6209 -1.8894 0.9763
1.3555 -5.5674 -1.9047 0.9761
1.8643 -5.4725 -1.9218 0.9759
2.3690 -5.3357 -1.9406 0.9757
4.2812 -4.3633 -2.0320 0.9746
4.7146 -4.0146 -2.0584 0.9742
5.4232 -2.5322 -1.9895 0.9751
6.1506 -1.0450 -2.0738 0.9740
6.3038 -0.4977 -2.1019 0.9737
6.4063 0.0687 -2.1296 0.9734
6.3824 1.8303 -2.2071 0.9724
1.3270 5.4717 -2.0134 0.9764
-0.1846 6.0262 -2.1560 0.9747
-0.7436 6.1600 -2.2188 0.9740
-1.2796 6.0141 -2.1988 0.9742
-1.7496 5.6728 -2.1229 0.9751
-2.7405 5.2875 -2.1297 0.9750
-3.5514 4.6024 -2.0789 0.9756
-4.2060 3.7987 -2.0267 0.9762
-4.4708 3.3639 -2.0008 0.9765
-5.3895 2.1308 -2.0725 0.9757
-5.5553 1.1115 -2.0260 0.9762
-5.5689 0.6036 -2.0032 0.9765
-5.4716 -0.3895 -1.9616 0.9770
-5.3637 -0.8688 -1.9431 0.9772
-5.2188 -1.3331 -1.9262 0.9774
-5.0385 -1.7801 -1.9109 0.9776
-4.0018 -3.3547 -1.8674 0.9781
-3.6732 -3.6863 -1.8610 0.9781
-3.3208 -3.9901 -1.8564 0.9782
-1.7121 -4.9016 -1.8567 0.9782
-1.2703 -5.0477 -1.8614 0.9781
-0.3540 -5.2347 -1.8762 0.9780
0.1160 -5.2738 -1.8864 0.9778
0.5907 -5.2754 -1.8983 0.9777
2.9414 -4.7012 -1.9831 0.9767
3.3864 -4.4676 -2.0047 0.9765
4.6111 -3.5321 -2.0771 0.9756
4.9703 -3.1449 -2.1034 0.9753
5.2818 -2.7138 -2.1236 0.9751
2.3290 -0.9441 -0.8987 0.9894
5.4266 -1.6526 -2.0286 0.9762
5.6241 -1.1758 -2.0547 0.9759
5.8881 -0.1594 -2.1064 0.9753
5.9488 0.3720 -2.1315 0.9750
5.9586 0.9125 -2.1557 0.9747
5.4620 3.0553 -2.2381 0.9738
5.2031 3.5560 -2.2537 0.9736
4.8928 4.0304 -2.2669 0.9734
4.3842 4.3246 -2.2022 0.9742
3.6226 4.2771 -2.0044 0.9765
3.2100 4.5615 -1.9947 0.9766
2.8354 4.9100 -2.0276 0.9762
2.3594 5.0882 -2.0057 0.9765
1.8895 5.2632 -1.9998 0.9765
1.0057 3.8553 -1.4248 0.9832
0.9387 5.6149 -2.0358 0.9761
0.2128 2.7904 -1.0008 0.9882
-0.6383 6.1820 -2.2225 0.9739
-1.6279 5.6204 -2.0925 0.9754
-3.0856 5.0275 -2.1095 0.9753
-3.8354 4.2901 -2.0579 0.9759
-4.1502 3.8802 -2.0318 0.9762
-4.4231 3.4490 -2.0058 0.9765
-5.5478 1.2098 -2.0305 0.9762
-5.5696 0.7010 -2.0074 0.9764
-5.5492 0.1981 -1.9857 0.9767
-5.4879 -0.2957 -1.9654 0.9769
-5.2495 -1.2449 -1.9293 0.9773
-5.0759 -1.6954 -1.9138 0.9775
-4.8684 -2.1269 -1.8999 0.9777
-4.3597 -2.9248 -1.8774 0.9779
-4.0621 -3.2877 -1.8688 0.9780
-3.3905 -3.9338 -1.8572 0.9782
-3.0202 -4.2142 -1.8541 0.9782
-2.6297 -4.4644 -1.8529 0.9782
-1.7957 -4.8695 -1.8560 0.9782
-0.9050 -5.1404 -1.8665 0.9781
-0.4437 -5.2230 -1.8745 0.9780
2.3946 -4.9279 -1.9593 0.9770
2.8542 -4.7417 -1.9791 0.9768
3.3018 -4.5157 -2.0005 0.9765
4.1476 -3.9454 -2.0471 0.9760
2.3271 -0.9904 -0.9044 0.9893
5.5893 -1.2695 -2.0497 0.9759
5.9608 0.8079 -2.1511 0.9748
5.9281 1.3520 -2.1744 0.9745
5.8418 1.8955 -2.1963 0.9742
5.7010 2.4323 -2.2165 0.9740
5.2570 3.4615 -2.2509 0.9736
4.4942 4.2828 -2.2200 0.9740
2.4504 5.0542 -2.0086 0.9764
1.9799 5.2296 -1.9997 0.9765
1.0321 5.5805 -2.0295 0.9762
0.0111 2.8872 -1.0325 0.9878
-0.5282 6.1512 -2.2078 0.9741
-2.0979 5.6732 -2.1631 0.9746
-2.5680 5.4027 -2.1392 0.9749
-3.0054 5.0917 -2.1144 0.9752
-4.0928 3.9610 -2.0368 0.9761
-4.6124 3.0883 -1.9850 0.9767
-4.9608 2.1619 -1.9352 0.9773
-5.4646 1.8198 -2.0597 0.9758
-5.5386 1.3082 -2.0351 0.9761
-5.5563 0.2944 -1.9898 0.9766
-5.5028 -0.2014 -1.9692 0.9769
-5.4098 -0.6858 -1.9500 0.9771
-5.2789 -1.1562 -1.9325 0.9773
-5.1120 -1.6101 -1.9166 0.9775
-4.6776 -2.4600 -1.8899 0.9778
-4.4138 -2.8520 -1.8792 0.9779
-4.1215 -3.2198 -1.8703 0.9780
-3.8027 -3.5618 -1.8632 0.9781
-1.4420 -4.9955 -1.8594 0.9782
-0.5332 -5.2099 -1.8728 0.9780
1.3607 -5.1973 -1.9212 0.9774
2.7665 -4.7806 -1.9752 0.9768
5.3399 -1.8296 -2.0186 0.9763
5.5529 -1.3623 -2.0447 0.9760
5.8517 -0.3606 -2.0966 0.9754
5.9313 0.1659 -2.1219 0.9751
5.9386 1.2471 -2.1700 0.9746
5.5476 2.8567 -2.2314 0.9738
4.6059 4.2402 -2.2388 0.9738
3.0221 4.8399 -2.0405 0.9761
2.0703 5.1960 -2.0002 0.9765
1.0653 3.5747 -1.3339 0.9843
1.1250 5.5463 -2.0238 0.9762
0.3180 2.8629 -1.0301 0.9878
-0.9722 6.1048 -2.2106 0.9741
-1.4189 5.6168 -2.0717 0.9757
-2.0039 5.7203 -2.1675 0.9746
-3.3325 4.8141 -2.0938 0.9754
-3.7032 4.4414 -2.0679 0.9757
-4.5698 3.1752 -1.9899 0.9766
-5.4452 1.9182 -2.0645 0.9758
-5.5278 1.4067 -2.0398 0.9761
-5.5620 0.3909 -1.9939 0.9766
-5.5162 -0.1067 -1.9730 0.9768
-5.4307 -0.5935 -1.9536 0.9771
-5.3069 -1.0668 -1.9358 0.9773
-5.1469 -1.5241 -1.9196 0.9775
-4.9522 -1.9631 -1.9050 0.9776
-4.4669 -2.7783 -1.8812 0.9779
-3.1654 -4.1097 -1.8551 0.9782
-2.3804 -4.6027 -1.8530 0.9782
-0.1562 -5.2557 -1.8803 0.9779
0.3160 -5.2791 -1.8912 0.9778
0.7919 -5.2647 -1.9039 0.9776
1.2689 -5.2119 -1.9183 0.9775
1.7443 -5.1201 -1.9343 0.9773
2.2151 -4.9890 -1.9520 0.9771
2.6784 -4.8181 -1.9713 0.9769
3.1310 -4.6074 -1.9921 0.9766
3.5697 -4.3570 -2.0143 0.9764
4.7663 -3.3730 -2.0881 0.9755
5.0365 -2.3517 -1.9878 0.9767
5.2944 -1.9166 -2.0136 0.9764
5.5150 -1.4542 -2.0396 0.9761
5.8308 -0.4603 -2.0916 0.9755
5.9198 0.0635 -2.1171 0.9752
5.9593 0.5994 -2.1418 0.9749
5.9470 1.1422 -2.1656 0.9746
5.8815 1.6866 -2.1880 0.9743
3.0353 4.4752 -2.0722 0.9771
2.2467 5.0725 -2.1260 0.9765
-0.6879 5.6990 -2.1998 0.9757
-1.1847 5.5678 -2.1815 0.9759
-1.6623 5.3899 -2.1615 0.9761
-2.1164 5.1683 -2.1402 0.9764
-2.5431 4.9066 -2.1178 0.9766
-2.9390 4.6085 -2.0946 0.9769
-3.3013 4.2782 -2.0708 0.9771
-3.6277 3.9198 -2.0467 0.9774
-3.9167 3.5374 -2.0225 0.9776
-4.1669 3.1352 -1.9983 0.9779
-5.0292 1.9883 -2.0724 0.9771
-5.1418 1.5175 -2.0544 0.9773
-5.2155 0.5653 -2.0104 0.9778
-5.1311 -0.3653 -1.9713 0.9782
-5.0329 -0.8152 -1.9538 0.9784
-4.8995 -1.2515 -1.9379 0.9786
-4.7326 -1.6720 -1.9235 0.9787
-3.7640 -3.1553 -1.8822 0.9792
-3.4557 -3.4680 -1.8762 0.9792
-2.7727 -4.0131 -1.8693 0.9793
-2.4018 -4.2431 -1.8684 0.9793
-2.0139 -4.4430 -1.8694 0.9793
-1.6110 -4.6119 -1.8721 0.9793
-1.1951 -4.7487 -1.8765 0.9792
-0.7683 -4.8525 -1.8827 0.9792
1.8925 -4.7376 -1.9550 0.9784
2.7565 -4.4057 -1.9916 0.9780
3.1713 -4.1839 -2.0119 0.9778
3.5705 -3.9252 -2.0334 0.9775
4.3083 -3.3002 -2.0797 0.9770
2.3287 -0.9440 -0.9630 0.9893
5.2322 -1.0939 -2.0484 0.9774
5.3716 -0.6291 -2.0726 0.9771
5.4683 -0.1480 -2.0963 0.9768
5.5199 0.3452 -2.1195 0.9766
5.5245 0.8460 -2.1418 0.9763
5.4805 1.3497 -2.1630 0.9761
5.3869 1.8511 -2.1828 0.9759
5.0500 2.8249 -2.2175 0.9755
4.5194 3.7227 -2.2438 0.9752
3.6072 4.2590 -2.1388 0.9764
3.1254 4.4412 -2.0811 0.9770
2.8318 4.9037 -2.1700 0.9760
1.8871 5.2566 -2.1403 0.9764
0.2121 2.7802 -1.0685 0.9881
-2.0310 5.2142 -2.1444 0.9763
-2.4632 4.9599 -2.1222 0.9766
-2.8653 4.6686 -2.0992 0.9768
-3.2342 4.3441 -2.0755 0.9771
-3.8640 3.6127 -2.0271 0.9776
-4.1217 3.2140 -2.0030 0.9779
-4.6576 1.9349 -1.9328 0.9786
-5.1912 1.1321 -2.0361 0.9775
-5.1458 -0.2772 -1.9748 0.9782
-5.0546 -0.7295 -1.9571 0.9784
-4.9279 -1.1687 -1.9408 0.9785
-3.8206 -3.0922 -1.8836 0.9792
-3.1901 -3.7013 -1.8725 0.9793
-0.8512 -4.8351 -1.8814 0.9792
0.9165 -4.9305 -1.9218 0.9787
3.0925 -4.2294 -2.0079 0.9778
3.4950 -3.9778 -2.0292 0.9776
3.8790 -3.6899 -2.0516 0.9773
4.2413 -3.3664 -2.0751 0.9771
4.8729 -2.6109 -2.1185 0.9766
2.3242 -0.9891 -0.9680 0.9892
5.0142 -1.6219 -2.0195 0.9777
5.3480 -0.7200 -2.0679 0.9771
5.4531 -0.2418 -2.0918 0.9769
5.5136 0.2494 -2.1151 0.9766
5.4928 1.2527 -2.1590 0.9762
5.2748 2.2505 -2.1977 0.9757
4.2538 4.0537 -2.2518 0.9751
3.2162 4.4069 -2.0907 0.9769
2.9247 4.8688 -2.1766 0.9760
1.9774 5.2230 -2.1402 0.9764
0.2620 2.7974 -1.0767 0.9880
0.0104 2.6854 -1.0291 0.9886
-0.4926 5.7365 -2.2064 0.9756
-1.4809 5.4638 -2.1694 0.9760
-1.9446 5.2586 -2.1486 0.9763
-2.7903 4.7274 -2.1037 0.9768
-3.1659 4.4090 -2.0801 0.9770
-3.8099 3.6872 -2.0318 0.9775
-4.0751 3.2922 -2.0076 0.9778
-4.6339 2.0194 -1.9371 0.9786
-5.2139 0.7477 -2.0185 0.9777
-5.0750 -0.6434 -1.9604 0.9783
-4.8008 -1.5121 -1.9288 0.9787
-4.6140 -1.9217 -1.9154 0.9788
-4.1500 -2.6815 -1.8935 0.9791
-2.5468 -4.1580 -1.8685 0.9793
-0.5015 -4.8995 -1.8874 0.9791
-0.0618 -4.9480 -1.8963 0.9790
0.3830 -4.9614 -1.9070 0.9789
0.8303 -4.9390 -1.9193 0.9788
3.0132 -4.2737 -2.0039 0.9778
3.4188 -4.0291 -2.0250 0.9776
4.1734 -3.4314 -2.0705 0.9771
4.5157 -3.0802 -2.0947 0.9769
4.8197 -2.6903 -2.1153 0.9766
4.7443 -2.1164 -1.9908 0.9780
4.9739 -1.7042 -2.0149 0.9777
5.1678 -1.2678 -2.0391 0.9775
5.3228 -0.8102 -2.0633 0.9772
5.5033 1.1557 -2.1550 0.9762
4.9069 3.1110 -2.2265 0.9754
4.6360 3.5578 -2.2395 0.9753
3.9141 4.3108 -2.2313 0.9754
3.0182 4.8336 -2.1838 0.9759
2.0676 5.1894 -2.1407 0.9764
1.0884 3.6520 -1.4604 0.9838
0.0562 2.6639 -1.0211 0.9887
-3.0962 4.4728 -2.0846 0.9770
-3.7544 3.7610 -2.0365 0.9775
-4.0271 3.3697 -2.0123 0.9778
-5.0833 1.7907 -2.0653 0.9772
-5.1710 1.3159 -2.0448 0.9774
-5.2109 0.8392 -2.0226 0.9776
-4.9808 -1.0012 -1.9469 0.9785
-4.6524 -1.8442 -1.9179 0.9788
-3.6367 -3.2905 -1.8794 0.9792
-3.3186 -3.5922 -1.8741 0.9793
-2.9784 -3.8671 -1.8705 0.9793
-2.6183 -4.1138 -1.8687 0.9793
-2.2399 -4.3312 -1.8686 0.9793
-1.8455 -4.5182 -1.8703 0.9793
-0.1469 -4.9414 -1.8945 0.9790
0.2970 -4.9616 -1.9048 0.9789
0.7440 -4.9461 -1.9168 0.9788
1.1916 -4.8943 -1.9304 0.9787
2.5110 -4.5169 -1.9804 0.9781
4.1046 -3.4952 -2.0660 0.9772
4.4518 -3.1505 -2.0900 0.9769
4.9324 -1.7855 -2.0102 0.9778
5.2961 -0.8998 -2.0587 0.9773
5.4957 0.0590 -2.1062 0.9767
5.5277 0.5560 -2.1290 0.9765
5.4470 1.5620 -2.1715 0.9760
2.6601 4.7954 -2.2444 0.9766
2.2192 5.0104 -2.2428 0.9766
1.2853 5.2999 -2.2320 0.9767
-0.1644 5.3690 -2.1984 0.9771
-0.6393 5.2958 -2.1832 0.9772
-1.9705 4.8119 -2.1281 0.9778
-3.6605 3.3060 -2.0187 0.9789
-3.8973 2.9324 -1.9962 0.9791
-4.2608 2.1431 -1.9520 0.9796
-4.3870 1.7345 -1.9307 0.9798
-4.8805 0.9765 -2.0371 0.9787
-1.9568 0.2121 -0.8056 0.9915
-2.0533 -0.3326 -0.8513 0.9911
-4.6125 -1.1782 -1.9484 0.9796
-4.4572 -1.5747 -1.9347 0.9798
-4.2716 -1.9545 -1.9226 0.9799
-4.0573 -2.3157 -1.9120 0.9800
-3.8160 -2.6566 -1.9030 0.9801
-3.5494 -2.9755 -1.8956 0.9802
-3.2593 -3.2709 -1.8898 0.9802
-2.9474 -3.5414 -1.8857 0.9803
-2.6156 -3.7858 -1.8833 0.9803
-2.2658 -4.0029 -1.8825 0.9803
-1.5196 -4.3503 -1.8860 0.9803
-1.1271 -4.4788 -1.8902 0.9802
-0.3138 -4.6405 -1.9036 0.9801
1.3645 -4.5634 -1.9494 0.9796
2.1904 -4.3168 -1.9812 0.9793
2.9788 -3.9299 -2.0183 0.9789
3.3516 -3.6846 -2.0385 0.9787
3.7059 -3.4054 -2.0599 0.9785
4.3450 -2.7493 -2.1044 0.9780
4.7222 -1.4380 -2.0203 0.9789
5.0121 -0.5870 -2.0653 0.9784
5.0984 -0.1380 -2.0874 0.9782
5.1433 0.7876 -2.1296 0.9778
4.6901 2.6235 -2.1994 0.9770
3.8835 3.8307 -2.2325 0.9767
3.1166 4.4288 -2.2164 0.9769
2.3058 4.9725 -2.2433 0.9766
1.3774 5.2804 -2.2335 0.9767
-0.0720 5.3777 -2.2012 0.9770
-0.5487 5.3136 -2.1863 0.9772
-1.8907 4.8540 -2.1320 0.9777
-2.2947 4.6206 -2.1114 0.9779
-3.0175 4.0530 -2.0680 0.9784
-3.3312 3.7262 -2.0456 0.9786
-2.5813 1.6646 -1.2571 0.9868
-4.2323 2.2209 -1.9562 0.9796
-4.8023 1.5078 -2.0600 0.9785
-4.8726 1.0626 -2.0411 0.9787
-1.9525 0.2457 -0.8054 0.9915
-4.6387 -1.1001 -1.9512 0.9796
-4.4895 -1.4996 -1.9372 0.9798
-4.1008 -2.2477 -1.9139 0.9800
-3.8645 -2.5926 -1.9046 0.9801
-3.6027 -2.9158 -1.8969 0.9802
-3.0091 -3.4913 -1.8864 0.9803
-1.9715 -4.1573 -1.8831 0.9803
-1.5938 -4.3221 -1.8854 0.9803
-1.2036 -4.4564 -1.8893 0.9802
-0.8027 -4.5596 -1.8948 0.9802
0.0222 -4.6687 -1.9108 0.9800
0.4419 -4.6734 -1.9212 0.9799
0.8632 -4.6439 -1.9332 0.9798
1.2838 -4.5798 -1.9466 0.9797
1.7010 -4.4808 -1.9616 0.9795
2.5146 -4.1774 -1.9956 0.9791
2.9052 -3.9732 -2.0145 0.9790
3.2811 -3.7345 -2.0346 0.9787
4.5599 -2.4432 -2.1172 0.9779
2.3212 -0.9879 -1.0325 0.9892
4.6866 -1.5160 -2.0160 0.9789
5.0850 -0.2254 -2.0832 0.9782
5.1109 1.1657 -2.1455 0.9776
5.0295 1.6319 -2.1641 0.9774
4.7287 2.5391 -2.1967 0.9771
4.5104 2.9699 -2.2102 0.9769
4.2489 3.3787 -2.2218 0.9768
3.9462 3.7606 -2.2310 0.9767
2.3915 4.9329 -2.2437 0.9766
0.9895 5.3500 -2.2267 0.9768
0.0103 2.6693 -1.0925 0.9885
-0.4576 5.3295 -2.1893 0.9771
-0.9253 5.2280 -2.1730 0.9773
-1.8100 4.8947 -2.1358 0.9777
-3.2734 3.7911 -2.0500 0.9786
-4.8632 1.1487 -2.0451 0.9786
-1.9451 0.2790 -0.8042 0.9915
-1.9522 -0.2475 -0.8054 0.9915
-4.5207 -1.4239 -1.9398 0.9797
-4.1432 -2.1789 -1.9159 0.9800
-3.6550 -2.8553 -1.8983 0.9802
-3.3737 -3.1600 -1.8919 0.9802
-0.4728 -4.6195 -1.9005 0.9801
0.3609 -4.6751 -1.9191 0.9799
1.2030 -4.5948 -1.9439 0.9797
1.6210 -4.5026 -1.9586 0.9795
2.0336 -4.3752 -1.9746 0.9794
2.4379 -4.2128 -1.9921 0.9792
3.2100 -3.7831 -2.0306 0.9788
3.5718 -3.5169 -2.0515 0.9786
3.9132 -3.2175 -2.0734 0.9783
4.2310 -2.8861 -2.0961 0.9781
4.5105 -2.5177 -2.1142 0.9779
4.4385 -1.9800 -1.9891 0.9792
4.6497 -1.5931 -2.0116 0.9790
4.8271 -1.1842 -2.0342 0.9787
5.1307 0.1435 -2.1007 0.9781
5.1213 1.0755 -2.1418 0.9776
5.0487 1.5425 -2.1606 0.9774
4.9301 2.0037 -2.1780 0.9773
3.6739 4.0462 -2.2368 0.9767
0.3172 2.8564 -1.1762 0.9877
-0.3662 5.3438 -2.1922 0.9771
-1.2918 5.1136 -2.1586 0.9775
-2.5297 4.4596 -2.0984 0.9781
-2.8879 4.1718 -2.0766 0.9783
-3.2144 3.8551 -2.0543 0.9785
-3.5072 3.5133 -2.0318 0.9788
-3.9864 2.7699 -1.9867 0.9792
-4.7613 1.6773 -2.0660 0.9784
-4.8523 1.2348 -2.0492 0.9786
-1.9519 0.1372 -0.8008 0.9916
-4.5507 -1.3475 -1.9424 0.9797
-4.3825 -1.7372 -1.9294 0.9798
-3.9586 -2.4622 -1.9080 0.9801
-3.7065 -2.7940 -1.8997 0.9801
-3.1302 -3.3882 -1.8879 0.9803
-2.8097 -3.6479 -1.8845 0.9803
-2.4700 -3.8809 -1.8828 0.9803
-1.7409 -4.2621 -1.8843 0.9803
-1.3552 -4.4083 -1.8876 0.9803
-0.5519 -4.6071 -1.8991 0.9801
-0.1385 -4.6580 -1.9072 0.9801
0.2799 -4.6756 -1.9170 0.9800
0.7009 -4.6593 -1.9284 0.9798
1.5409 -4.5231 -1.9556 0.9796
2.3608 -4.2468 -1.9886 0.9792
3.1383 -3.8305 -2.0267 0.9788
4.3942 -2.0518 -1.9848 0.9793
4.7957 -1.2645 -2.0299 0.9788
5.0535 -0.3990 -2.0747 0.9783
5.1484 0.5178 -2.1177 0.9779
5.0663 1.4528 -2.1571 0.9775
3.2261 3.9450 -2.2210 0.9780
2.4766 4.4646 -2.2251 0.9780
2.0662 4.6650 -2.2236 0.9780
-0.5963 4.9399 -2.1685 0.9785
-1.4442 4.6828 -2.1357 0.9788
-2.2153 4.2742 -2.0981 0.9792
-2.8841 3.7375 -2.0574 0.9796
-3.1739 3.4294 -2.0365 0.9798
-3.4318 3.0994 -2.0153 0.9800
-4.0029 2.0133 -1.9528 0.9806
-4.1242 1.6305 -1.9328 0.9808
-1.5714 0.4638 -0.7141 0.9929
-1.5260 0.0282 -0.6652 0.9934
-1.5083 -0.2443 -0.6659 0.9934
-1.5486 -0.3956 -0.6966 0.9931
-1.5939 -0.5631 -0.7367 0.9927
-4.0341 -1.8458 -1.9334 0.9808
-3.0809 -3.0919 -1.9023 0.9811
-2.7865 -3.3480 -1.8984 0.9812
-2.4730 -3.5793 -1.8960 0.9812
-2.1423 -3.7846 -1.8953 0.9812
-1.4366 -4.1127 -1.8986 0.9812
-0.6847 -4.3246 -1.9082 0.9811
-0.2965 -4.3848 -1.9154 0.9810
0.4939 -4.4105 -1.9342 0.9808
2.0651 -4.0698 -1.9890 0.9803
3.7964 -2.9081 -2.0842 0.9793
4.0796 -2.5814 -2.1040 0.9792
4.0304 -2.0708 -1.9748 0.9804
2.3283 -0.9438 -1.0949 0.9891
4.6922 -0.5495 -2.0589 0.9796
4.7698 -0.1291 -2.0795 0.9794
4.7611 1.1725 -2.1369 0.9788
4.5445 2.0322 -2.1696 0.9785
4.3726 2.4460 -2.1836 0.9784
4.1596 2.8428 -2.1958 0.9783
3.2924 3.8873 -2.2201 0.9780
2.5532 4.4213 -2.2251 0.9780
2.1468 4.6297 -2.2241 0.9780
1.7217 4.7958 -2.2207 0.9780
-0.9460 4.8556 -2.1559 0.9786
-2.8247 3.7940 -2.0614 0.9796
-3.1205 3.4905 -2.0405 0.9798
-3.3847 3.1645 -2.0194 0.9800
-2.5499 1.6444 -1.3223 0.9868
-1.5802 0.4961 -0.7218 0.9928
-1.5218 0.3319 -0.6788 0.9932
-1.5206 0.1914 -0.6679 0.9933
-1.5295 -0.0824 -0.6676 0.9933
-1.5879 -0.5304 -0.7296 0.9927
-3.8737 -2.1232 -1.9252 0.9809
-3.4048 -2.7557 -1.9090 0.9811
-3.1353 -3.0398 -1.9032 0.9811
-2.8447 -3.3006 -1.8990 0.9812
-2.5348 -3.5368 -1.8964 0.9812
-2.2072 -3.7472 -1.8953 0.9812
-1.8639 -3.9306 -1.8959 0.9812
-1.5068 -4.0861 -1.8980 0.9812
-1.1377 -4.2127 -1.9017 0.9811
-0.7587 -4.3094 -1.9070 0.9811
-0.3717 -4.3757 -1.9139 0.9810
0.4173 -4.4136 -1.9321 0.9808
0.8150 -4.3842 -1.9435 0.9807
1.6046 -4.2268 -1.9704 0.9805
2.3697 -3.9368 -2.0026 0.9802
2.7363 -3.7423 -2.0204 0.9800
3.4236 -3.2567 -2.0593 0.9796
4.0291 -2.6477 -2.1011 0.9792
3.9860 -2.1357 -1.9708 0.9805
4.3942 -1.4214 -2.0128 0.9801
4.6729 -0.6291 -2.0549 0.9796
4.8038 0.2173 -2.0957 0.9792
4.8092 0.6519 -2.1151 0.9790
4.7729 1.0886 -2.1335 0.9789
4.6942 1.5231 -2.1508 0.9787
4.5727 1.9509 -2.1667 0.9785
4.4090 2.3674 -2.1810 0.9784
4.2038 2.7679 -2.1936 0.9783
3.9586 3.1478 -2.2042 0.9782
3.0073 4.1207 -2.2233 0.9780
2.2266 4.5928 -2.2245 0.9780
1.8048 4.7672 -2.2215 0.9780
1.0519 3.7657 -1.7040 0.9831
0.9217 4.9837 -2.2088 0.9781
0.2796 2.9855 -1.3068 0.9870
-1.2860 4.7447 -2.1424 0.9788
-2.0741 4.3636 -2.1056 0.9791
-3.0660 3.5509 -2.0446 0.9797
-3.5739 2.8872 -2.0023 0.9802
-2.6696 1.4601 -1.3261 0.9868
-1.5355 0.3627 -0.6876 0.9931
-1.5295 0.0810 -0.6675 0.9933
-1.5285 -0.0559 -0.6666 0.9933
-1.5226 -0.3335 -0.6793 0.9932
-1.5806 -0.4978 -0.7222 0.9928
-4.1043 -1.7094 -1.9377 0.9808
-3.9135 -2.0581 -1.9271 0.9809
-3.6962 -2.3883 -1.9179 0.9810
-3.4542 -2.6984 -1.9103 0.9811
-3.1889 -2.9869 -1.9042 0.9811
-2.9022 -3.2523 -1.8997 0.9812
-2.5959 -3.4933 -1.8968 0.9812
-1.9312 -3.8974 -1.8956 0.9812
-1.5766 -4.0584 -1.8975 0.9812
-1.2096 -4.1906 -1.9009 0.9811
1.5293 -4.2477 -1.9676 0.9805
2.2977 -3.9705 -1.9993 0.9802
3.0220 -3.5616 -2.0357 0.9798
3.3606 -3.3090 -2.0554 0.9796
3.6795 -3.0253 -2.0760 0.9794
3.9757 -2.7119 -2.0974 0.9792
4.2339 -2.3633 -2.1132 0.9791
4.1651 -1.8580 -1.9876 0.9803
4.6522 -0.7082 -2.0509 0.9797
4.7444 -0.2924 -2.0716 0.9795
4.7980 0.1342 -2.0919 0.9793
4.8114 0.5679 -2.1114 0.9791
4.7832 1.0045 -2.1301 0.9789
4.7126 1.4398 -2.1476 0.9787
4.4438 2.2883 -2.1784 0.9784
4.2464 2.6923 -2.1913 0.9783
3.7329 3.4365 -2.2113 0.9781
3.0770 4.0671 -2.2226 0.9780
2.3058 4.5543 -2.2247 0.9780
1.1019 3.6975 -1.6815 0.9833
0.5575 5.0199 -2.2012 0.9782
0.0588 2.7858 -1.2144 0.9879
-0.7802 4.8992 -2.1621 0.9786
-1.2059 4.7735 -2.1457 0.9787
-2.7026 3.9042 -2.0694 0.9795
-3.0102 3.6103 -2.0486 0.9797
-2.6111 1.4871 -1.3096 0.9870
-4.0584 1.8525 -1.9443 0.9807
-1.5936 0.5614 -0.7364 0.9927
-1.5087 0.2430 -0.6660 0.9934
-1.5294 0.1075 -0.6682 0.9933
-1.5262 -0.0295 -0.6653 0.9934
-1.5245 -0.1666 -0.6684 0.9933
-1.5719 -0.4655 -0.7145 0.9929
-3.2417 -2.9331 -1.9053 0.9811
-2.6563 -3.4488 -1.8972 0.9812
-2.3353 -3.6693 -1.8955 0.9812
-0.9057 -4.2757 -1.9048 0.9811
-0.5216 -4.3538 -1.9110 0.9810
-0.1308 -4.4009 -1.9188 0.9810
0.2644 -4.4163 -1.9281 0.9809
0.6618 -4.3994 -1.9389 0.9808
1.0591 -4.3499 -1.9511 0.9807
2.2252 -4.0029 -1.9960 0.9802
2.5967 -3.8211 -2.0134 0.9800
3.6198 -3.0823 -2.0720 0.9795
4.1240 -1.9256 -1.9836 0.9803
4.3250 -1.5656 -2.0046 0.9801
4.4946 -1.1851 -2.0258 0.9799
4.7908 0.0514 -2.0880 0.9793
4.7295 1.3563 -2.1443 0.9788
3.0145 3.6862 -2.2042 0.9792
2.3139 4.1712 -2.2080 0.9792
1.9305 4.3587 -2.2066 0.9792
0.1649 2.7959 -1.2964 0.9877
-0.1434 4.6827 -2.1686 0.9796
-0.9625 4.5237 -2.1408 0.9798
-2.7079 3.5093 -2.0518 0.9807
-2.9820 3.2220 -2.0321 0.9808
-3.4396 2.5880 -1.9925 0.9812
-3.7702 1.8963 -1.9535 0.9816
-1.3245 0.3909 -0.6392 0.9939
-1.3349 0.1447 -0.6215 0.9941
-1.3384 -0.0953 -0.6211 0.9941
-1.3148 -0.6016 -0.6693 0.9936
-2.9181 -2.9285 -1.9136 0.9819
-2.0294 -3.5853 -1.9070 0.9820
-1.7015 -3.7539 -1.9078 0.9820
-1.3608 -3.8957 -1.9101 0.9820
-1.0091 -4.0098 -1.9140 0.9819
-0.6484 -4.0953 -1.9193 0.9819
0.0919 -4.1779 -1.9343 0.9817
0.4673 -4.1737 -1.9440 0.9817
1.2176 -4.0723 -1.9675 0.9814
1.5877 -3.9746 -1.9811 0.9813
1.9513 -3.8454 -1.9960 0.9812
2.3056 -3.6850 -2.0121 0.9810
2.9762 -3.2719 -2.0473 0.9807
3.2870 -3.0205 -2.0663 0.9805
3.7935 -1.9492 -1.9742 0.9814
4.1616 -1.2673 -2.0137 0.9810
4.4055 -0.5159 -2.0532 0.9806
4.5038 0.6897 -2.1091 0.9801
4.4598 1.0984 -2.1261 0.9800
4.3761 1.5038 -2.1419 0.9798
4.2528 1.9017 -2.1564 0.9797
4.0903 2.2880 -2.1694 0.9796
3.0764 3.6323 -2.2034 0.9792
2.7436 3.8988 -2.2068 0.9792
2.3855 4.1308 -2.2080 0.9792
2.0058 4.3256 -2.2070 0.9792
1.1989 4.5961 -2.1986 0.9793
0.7806 4.6692 -2.1913 0.9793
0.2243 2.9403 -1.3650 0.9871
