ply
format ascii 1.0
element vertex 1593
property float32 x
property float32 y
property float32 z
property float32 I
end_header
10.8093 1.3875 0.9225 0.9572
9.3907 2.0704 0.8140 0.9621
7.3255 3.0600 0.6720 0.9686
6.5930 3.4746 0.6309 0.9705
5.8378 3.7779 0.5886 0.9725
4.1863 4.6930 0.5324 0.9751
3.1206 5.0930 0.5056 0.9763
0.6507 6.2944 0.5357 0.9749
0.0898 6.5680 0.5561 0.9740
-0.5360 7.0699 0.6002 0.9719
-1.1985 7.1973 0.6177 0.9711
12.6809 -1.0207 1.0769 0.9502
12.2778 0.1108 1.0394 0.9519
7.6195 2.9237 0.6909 0.9678
3.8385 4.8614 0.5244 0.9754
3.2793 5.0160 0.5073 0.9762
1.3425 5.9573 0.5169 0.9758
0.8263 6.2088 0.5302 0.9752
0.2784 6.4760 0.5487 0.9743
-0.3233 6.9660 0.5903 0.9724
-0.9674 7.0843 0.6053 0.9717
-2.3990 2.1056 0.2702 0.9873
11.9120 -0.9763 0.7411 0.9532
11.3660 1.1049 0.7081 0.9553
9.8207 1.8506 0.6197 0.9607
7.6222 2.9120 0.5060 0.9678
6.7825 3.3121 0.4681 0.9702
5.4156 3.9732 0.4165 0.9734
3.8423 4.8517 0.3838 0.9755
3.2834 5.0063 0.3713 0.9763
2.8025 5.2398 0.3685 0.9765
2.3250 5.4717 0.3687 0.9765
0.8339 6.1970 0.3877 0.9753
-0.9548 7.0690 0.4423 0.9718
2.3294 -0.9279 0.1555 0.9900
11.2735 -2.2900 0.7133 0.9549
12.2571 -0.2664 0.7602 0.9521
11.8029 0.7993 0.7336 0.9537
10.2832 1.6274 0.6456 0.9591
8.9783 2.2572 0.5741 0.9636
7.9265 2.7650 0.5206 0.9669
7.0418 3.1868 0.4793 0.9695
5.6193 3.8747 0.4233 0.9730
5.0170 4.1661 0.4044 0.9742
3.4214 4.8977 0.3705 0.9763
2.4816 5.3956 0.3683 0.9765
2.0616 5.7959 0.3815 0.9756
1.5579 6.0408 0.3868 0.9753
1.0058 6.1134 0.3842 0.9755
-0.7551 7.1676 0.4469 0.9715
-2.3373 2.1822 0.1983 0.9873
11.5906 -1.6376 0.7259 0.9542
8.3258 2.6334 0.5415 0.9656
6.5835 3.4696 0.4615 0.9706
4.6104 4.3214 0.3918 0.9750
3.5420 4.7666 0.3683 0.9765
3.1170 5.0871 0.3700 0.9764
2.6381 5.3196 0.3682 0.9765
1.7247 5.9597 0.3847 0.9754
1.1747 6.0312 0.3810 0.9757
0.0897 6.5596 0.4068 0.9741
-1.1968 7.1871 0.4518 0.9712
12.5913 -3.3360 0.8077 0.9491
12.2459 0.1105 0.7594 0.9521
8.6724 2.4661 0.5591 0.9645
7.6075 2.9191 0.5053 0.9679
5.4057 3.9780 0.4162 0.9735
4.8214 4.2608 0.3990 0.9745
4.3550 4.6032 0.3929 0.9749
1.3409 5.9503 0.3782 0.9759
0.8253 6.2012 0.3879 0.9752
-0.9660 7.0745 0.4428 0.9718
12.7285 -3.3922 0.5194 0.9486
11.9110 -0.9762 0.4712 0.9533
12.2504 0.0927 0.4831 0.9521
9.8017 1.8470 0.3933 0.9609
7.6101 2.9074 0.3212 0.9679
6.7726 3.3073 0.2972 0.9703
2.3223 5.4654 0.2342 0.9765
1.3475 5.9392 0.2401 0.9759
0.8329 6.1895 0.2463 0.9753
0.2870 6.4552 0.2548 0.9745
-2.3918 2.1054 0.1256 0.9873
14.4953 -2.9445 0.5832 0.9425
12.2560 -0.2663 0.4834 0.9521
11.8019 0.7992 0.4664 0.9538
8.9622 2.2531 0.3644 0.9637
7.9136 2.7606 0.3305 0.9670
6.3359 3.5801 0.2870 0.9713
3.4174 4.8920 0.2353 0.9764
2.4788 5.3894 0.2339 0.9765
2.0592 5.7892 0.2423 0.9757
1.0046 6.1060 0.2440 0.9755
0.4702 6.3660 0.2517 0.9748
-0.1069 6.8428 0.2699 0.9730
-0.7541 7.1579 0.2838 0.9716
11.6221 -1.6421 0.4628 0.9541
12.0855 -0.6171 0.4772 0.9527
11.7224 0.4494 0.4626 0.9541
11.0832 1.4227 0.4406 0.9563
8.3118 2.6290 0.3437 0.9657
6.5741 3.4647 0.2930 0.9707
5.8220 3.7677 0.2734 0.9726
5.2019 4.0682 0.2604 0.9739
4.1763 4.6817 0.2474 0.9752
2.6351 5.3135 0.2339 0.9765
2.2216 5.7102 0.2416 0.9758
1.1733 6.0240 0.2420 0.9757
-0.5345 7.0510 0.2788 0.9721
-1.1951 7.1769 0.2869 0.9713
11.9192 -0.9594 0.4715 0.9533
12.2141 0.1103 0.4816 0.9523
11.3122 1.1164 0.4482 0.9555
9.7797 1.8576 0.3925 0.9609
8.6574 2.4618 0.3549 0.9646
7.5955 2.9145 0.3208 0.9680
6.0960 3.6963 0.2811 0.9719
5.3986 3.9728 0.2643 0.9735
3.8295 4.8500 0.2437 0.9756
2.7915 5.2375 0.2340 0.9765
1.8876 5.8726 0.2432 0.9756
-0.3224 6.9477 0.2743 0.9725
-0.9647 7.0647 0.2812 0.9719
-2.3960 2.1029 0.1257 0.9873
14.0151 -3.7352 0.2450 0.9436
15.4520 -1.2664 0.2619 0.9399
12.2187 0.0925 0.2064 0.9523
11.3160 1.1001 0.1920 0.9555
8.6602 2.4490 0.1520 0.9646
7.5982 2.9028 0.1374 0.9680
6.7627 3.3025 0.1271 0.9703
6.2221 3.7603 0.1228 0.9713
5.4016 3.9629 0.1132 0.9736
4.8185 4.2458 0.1085 0.9746
4.3532 4.5879 0.1068 0.9750
0.8319 6.1821 0.1054 0.9754
0.2866 6.4471 0.1090 0.9745
-0.3116 6.9336 0.1172 0.9726
-2.3903 2.1041 0.0538 0.9873
2.3276 -0.9272 0.0423 0.9900
16.1177 -1.7975 0.2740 0.9372
11.8008 0.7991 0.1998 0.9538
10.2419 1.6209 0.1752 0.9594
8.9462 2.2491 0.1558 0.9638
7.9008 2.7561 0.1413 0.9671
7.0208 3.1773 0.1302 0.9696
5.0044 4.1556 0.1099 0.9743
4.4154 4.3885 0.1052 0.9754
4.0010 4.7588 0.1050 0.9754
3.4135 4.8863 0.1007 0.9764
2.9130 5.0827 0.0990 0.9768
1.5543 6.0266 0.1051 0.9754
0.4696 6.3582 0.1077 0.9748
-0.7531 7.1483 0.1214 0.9717
19.1738 -2.7091 0.3271 0.9255
14.9293 -0.7624 0.2525 0.9419
8.2980 2.6247 0.1470 0.9658
7.2918 3.0459 0.1335 0.9689
6.6975 3.5297 0.1279 0.9702
5.8142 3.7627 0.1170 0.9727
4.1713 4.6761 0.1058 0.9752
3.5338 4.7555 0.1001 0.9766
3.1098 5.0754 0.1005 0.9765
2.6321 5.3074 0.1001 0.9766
2.2191 5.7037 0.1034 0.9758
1.7207 5.9458 0.1046 0.9755
1.1719 6.0168 0.1035 0.9758
-0.5338 7.0417 0.1193 0.9721
-1.1934 7.1668 0.1227 0.9714
15.3959 -1.2392 0.2609 0.9401
12.1826 0.1100 0.2058 0.9524
11.2874 1.1139 0.1916 0.9556
9.7609 1.8540 0.1678 0.9610
8.6425 2.4576 0.1518 0.9647
6.7502 3.3086 0.1270 0.9704
6.2107 3.7658 0.1227 0.9714
5.3916 3.9677 0.1131 0.9736
3.2679 4.9986 0.1009 0.9764
2.3118 5.4629 0.1002 0.9765
1.8854 5.8658 0.1041 0.9757
1.3377 5.9362 0.1028 0.9760
-0.3220 6.9387 0.1173 0.9726
-0.9634 7.0549 0.1203 0.9719
9.7640 1.8399 -0.0559 0.9610
6.2136 3.7552 -0.0409 0.9714
5.3946 3.9578 -0.0377 0.9736
4.3480 4.5823 -0.0356 0.9750
3.8288 4.8346 -0.0347 0.9756
2.7928 5.2217 -0.0333 0.9766
2.3170 5.4529 -0.0334 0.9766
-0.3112 6.9246 -0.0390 0.9727
-0.9508 7.0398 -0.0400 0.9720
-2.3889 2.1029 -0.0179 0.9874
16.0625 -1.7914 -0.0910 0.9374
11.7998 0.7991 -0.0666 0.9538
10.2214 1.6176 -0.0583 0.9595
7.0103 3.1726 -0.0433 0.9697
5.5971 3.8593 -0.0383 0.9732
4.9981 4.1504 -0.0366 0.9743
3.4095 4.8806 -0.0335 0.9765
2.9097 5.0768 -0.0329 0.9769
2.0545 5.7758 -0.0345 0.9758
1.5525 6.0196 -0.0350 0.9754
1.0022 6.0914 -0.0348 0.9756
0.4690 6.3504 -0.0359 0.9749
-0.1066 6.8253 -0.0384 0.9731
-2.3424 2.1870 -0.0180 0.9873
19.1023 -2.6990 -0.1086 0.9257
14.9281 -0.7623 -0.0842 0.9420
11.7203 0.4493 -0.0660 0.9542
9.3212 2.0551 -0.0537 0.9625
8.2842 2.6203 -0.0489 0.9658
7.2806 3.0412 -0.0444 0.9689
6.6880 3.5247 -0.0426 0.9702
3.5297 4.7500 -0.0333 0.9766
3.1062 5.0695 -0.0335 0.9765
2.6291 5.3013 -0.0333 0.9766
1.7187 5.9389 -0.0348 0.9756
-1.1918 7.1568 -0.0408 0.9714
12.1770 0.1099 -0.0686 0.9525
11.2627 1.1115 -0.0637 0.9557
9.7422 1.8505 -0.0558 0.9611
8.6276 2.4534 -0.0505 0.9648
7.5717 2.9054 -0.0457 0.9681
6.7404 3.3038 -0.0423 0.9704
5.3847 3.9626 -0.0376 0.9736
4.8034 4.2450 -0.0361 0.9747
3.8205 4.8386 -0.0347 0.9756
2.7851 5.2255 -0.0333 0.9766
2.3092 5.4567 -0.0334 0.9766
1.8832 5.8590 -0.0346 0.9757
1.3362 5.9292 -0.0342 0.9760
0.8223 6.1788 -0.0351 0.9754
-0.3216 6.9296 -0.0391 0.9726
-0.9620 7.0452 -0.0400 0.9720
-2.3931 2.1004 -0.0179 0.9873
14.0162 -3.7354 -0.4084 0.9436
12.1673 0.0921 -0.3426 0.9525
8.8048 2.4899 -0.2576 0.9640
6.2051 3.7501 -0.2042 0.9714
5.3876 3.9526 -0.1882 0.9736
4.8066 4.2353 -0.1804 0.9747
3.8243 4.8289 -0.1734 0.9757
2.7896 5.2158 -0.1666 0.9766
1.8892 5.8483 -0.1731 0.9757
1.3428 5.9183 -0.1709 0.9760
0.8299 6.1672 -0.1752 0.9754
0.2859 6.4311 -0.1813 0.9746
-0.3108 6.9156 -0.1949 0.9727
-0.9496 7.0301 -0.1998 0.9720
-2.3874 2.1016 -0.0896 0.9874
14.5647 -0.3165 -0.4102 0.9434
4.9918 4.1452 -0.1827 0.9744
4.4133 4.3864 -0.1752 0.9754
3.9916 4.7476 -0.1747 0.9755
2.9064 5.0710 -0.1646 0.9769
2.4703 5.3709 -0.1665 0.9766
1.5507 6.0126 -0.1748 0.9755
0.4684 6.3425 -0.1791 0.9749
-0.1065 6.8165 -0.1920 0.9731
-1.4292 7.2626 -0.2084 0.9708
-2.3450 2.1894 -0.0903 0.9872
11.7193 0.4493 -0.3302 0.9542
9.3040 2.0513 -0.2683 0.9626
7.2695 3.0366 -0.2218 0.9690
6.6785 3.5197 -0.2126 0.9702
5.1820 4.0527 -0.1852 0.9740
2.2140 5.6906 -0.1719 0.9759
1.1691 6.0026 -0.1722 0.9758
-0.5324 7.0230 -0.1983 0.9722
15.2992 -1.2314 -0.4322 0.9404
12.1760 0.1099 -0.3429 0.9524
9.7236 1.8469 -0.2787 0.9612
8.7868 2.4986 -0.2572 0.9641
6.7306 3.2990 -0.2111 0.9705
3.8160 4.8329 -0.1734 0.9757
3.2604 4.9871 -0.1678 0.9764
2.3065 5.4504 -0.1666 0.9766
0.8213 6.1713 -0.1753 0.9754
0.2767 6.4355 -0.1814 0.9746
-0.3211 6.9206 -0.1951 0.9727
-0.9607 7.0355 -0.1999 0.9720
15.3063 -1.2544 -0.7788 0.9403
11.2418 1.0929 -0.5728 0.9558
9.7267 1.8328 -0.5020 0.9611
8.7897 2.4856 -0.4632 0.9641
6.1967 3.7450 -0.3672 0.9714
5.3806 3.9475 -0.3384 0.9736
4.8006 4.2300 -0.3245 0.9747
4.3375 4.5714 -0.3196 0.9751
3.2645 4.9775 -0.3019 0.9764
2.3117 5.4404 -0.2998 0.9766
1.3412 5.9113 -0.3074 0.9760
0.8289 6.1597 -0.3152 0.9754
0.2856 6.4231 -0.3261 0.9746
-0.9482 7.0205 -0.3593 0.9720
-2.3859 2.1003 -0.1612 0.9873
2.3249 -0.9262 -0.1269 0.9900
11.7976 0.7989 -0.5997 0.9537
8.9308 2.2452 -0.4670 0.9638
7.8626 2.7428 -0.4223 0.9672
5.5824 3.8492 -0.3439 0.9732
4.4122 4.3854 -0.3155 0.9754
3.9869 4.7420 -0.3142 0.9755
2.9030 5.0652 -0.2961 0.9769
2.4674 5.3648 -0.2995 0.9766
2.0497 5.7625 -0.3102 0.9758
0.9998 6.0769 -0.3123 0.9756
0.4679 6.3347 -0.3221 0.9749
-0.1063 6.8078 -0.3453 0.9731
-0.7500 7.1194 -0.3631 0.9717
-1.4271 7.2522 -0.3748 0.9708
-2.3476 2.1919 -0.1629 0.9872
14.9256 -0.7622 -0.7579 0.9419
10.9909 1.4108 -0.5620 0.9566
9.2869 2.0475 -0.4823 0.9626
8.4235 2.6644 -0.4480 0.9652
6.6690 3.5147 -0.3823 0.9703
5.1754 4.0475 -0.3332 0.9740
4.5822 4.2949 -0.3185 0.9752
4.1565 4.6595 -0.3167 0.9753
3.5214 4.7389 -0.2994 0.9766
3.0991 5.0579 -0.3008 0.9765
2.6230 5.2892 -0.2994 0.9766
2.2114 5.6840 -0.3093 0.9759
1.7147 5.9251 -0.3128 0.9756
1.1677 5.9955 -0.3098 0.9758
0.6460 6.2484 -0.3186 0.9752
0.0891 6.5182 -0.3306 0.9742
-1.1884 7.1367 -0.3669 0.9714
9.7050 1.8434 -0.5010 0.9612
8.7718 2.4944 -0.4625 0.9641
7.5480 2.8963 -0.4100 0.9681
6.7208 3.2942 -0.3796 0.9705
6.1854 3.7505 -0.3668 0.9714
5.3708 3.9523 -0.3382 0.9736
4.7915 4.2345 -0.3243 0.9747
4.3289 4.5756 -0.3194 0.9751
3.2566 4.9813 -0.3018 0.9764
1.8789 5.8455 -0.3114 0.9757
1.3330 5.9153 -0.3075 0.9760
0.8203 6.1639 -0.3154 0.9754
0.2764 6.4275 -0.3263 0.9746
-0.3207 6.9116 -0.3509 0.9727
-0.9594 7.0259 -0.3596 0.9720
-2.3902 2.0978 -0.1613 0.9873
-9.1359 -14.3850 -1.2495 0.9339
-7.8158 -15.1424 -1.2494 0.9339
-6.4545 -15.8307 -1.2535 0.9337
-5.0492 -16.4505 -1.2617 0.9333
-0.5329 -17.8919 -1.3125 0.9307
1.0869 -18.2259 -1.3387 0.9294
2.7724 -18.4805 -1.3702 0.9278
4.5293 -18.6502 -1.4072 0.9259
6.3643 -18.7279 -1.4503 0.9237
18.0472 -8.4773 -1.4620 0.9231
11.2172 1.0905 -0.8263 0.9558
9.7080 1.8293 -0.7243 0.9612
8.7110 2.4634 -0.6638 0.9643
5.3737 3.9424 -0.4887 0.9736
3.8153 4.8176 -0.4506 0.9757
2.7833 5.2038 -0.4327 0.9766
0.8279 6.1523 -0.4552 0.9754
-0.3100 6.8976 -0.5063 0.9727
-0.9469 7.0108 -0.5187 0.9720
-2.3845 2.0990 -0.2329 0.9873
-18.7280 -5.0010 -1.4213 0.9252
-15.5530 -9.0912 -1.3209 0.9303
-12.0621 -12.3451 -1.2655 0.9331
-9.5602 -14.1214 -1.2504 0.9339
-8.2530 -14.9017 -1.2490 0.9340
-4.0782 -16.8285 -1.2696 0.9329
-1.0507 -17.7658 -1.3049 0.9311
2.2121 -18.4061 -1.3593 0.9283
3.9450 -18.6044 -1.3944 0.9266
2.3241 -0.9258 -0.1834 0.9900
14.4852 -0.3148 -1.0623 0.9435
11.7966 0.7989 -0.8669 0.9537
10.1603 1.6079 -0.7542 0.9596
8.9299 2.2450 -0.6751 0.9637
7.8499 2.7383 -0.6096 0.9672
5.5751 3.8441 -0.4965 0.9732
4.9793 4.1348 -0.4746 0.9744
3.3977 4.8637 -0.4350 0.9765
2.0474 5.7559 -0.4479 0.9758
1.5471 5.9985 -0.4542 0.9755
0.4673 6.3269 -0.4652 0.9749
-0.1062 6.7990 -0.4986 0.9731
-1.4251 7.2418 -0.5412 0.9708
-2.3502 2.1943 -0.2358 0.9872
-19.0540 -4.4946 -1.4354 0.9245
-16.9992 -7.3951 -1.3593 0.9283
-15.9158 -8.6882 -1.3295 0.9299
-14.7976 -9.8867 -1.3049 0.9311
-13.6452 -10.9973 -1.2850 0.9321
-11.2374 -12.9750 -1.2586 0.9335
-7.3520 -15.3871 -1.2504 0.9339
-5.9759 -16.0518 -1.2559 0.9336
-1.5621 -17.6318 -1.2979 0.9315
0.0175 -18.0155 -1.3209 0.9303
1.6594 -18.3228 -1.3490 0.9289
3.3687 -18.5488 -1.3823 0.9272
18.6163 -2.6303 -1.3785 0.9274
14.9243 -0.7621 -1.0957 0.9418
11.7172 0.4492 -0.8598 0.9541
9.2698 2.0438 -0.6960 0.9626
6.6596 3.5097 -0.5520 0.9703
5.7832 3.7426 -0.5051 0.9728
4.5765 4.2896 -0.4599 0.9752
4.1515 4.6539 -0.4573 0.9753
3.0955 5.0521 -0.4344 0.9765
1.1663 5.9884 -0.4473 0.9758
0.0890 6.5100 -0.4774 0.9742
-0.5310 7.0044 -0.5151 0.9722
-19.3755 -3.9751 -1.4502 0.9237
-18.3810 -5.5191 -1.4072 0.9259
-16.2750 -8.2749 -1.3387 0.9294
-10.3966 -13.5713 -1.2535 0.9337
-7.7939 -15.1542 -1.2495 0.9339
-6.4319 -15.8414 -1.2536 0.9337
-5.0258 -16.4601 -1.2619 0.9333
-0.5070 -17.8979 -1.3128 0.9307
1.1138 -18.2307 -1.3392 0.9294
6.3950 -18.7284 -1.4510 0.9237
15.2035 -1.2237 -1.1184 0.9407
12.1738 0.1099 -0.8926 0.9523
11.1891 1.1042 -0.8244 0.9559
6.7111 3.2894 -0.5480 0.9705
6.1770 3.7454 -0.5297 0.9714
4.3237 4.5701 -0.4613 0.9751
3.8071 4.8216 -0.4505 0.9757
3.2528 4.9755 -0.4359 0.9764
2.3013 5.4379 -0.4330 0.9766
1.8767 5.8387 -0.4497 0.9757
1.3315 5.9084 -0.4441 0.9760
0.8193 6.1565 -0.4554 0.9754
-0.9581 7.0162 -0.5192 0.9720
-2.3887 2.0966 -0.2330 0.9873
-16.6303 -7.8513 -1.3484 0.9289
-13.2406 -11.3602 -1.2792 0.9324
-12.0422 -12.3608 -1.2653 0.9331
-8.2314 -14.9139 -1.2490 0.9340
-4.0543 -16.8373 -1.2698 0.9329
-2.5668 -17.3404 -1.2853 0.9321
-8.2023 -10.6747 -1.2924 0.9473
-6.1572 -11.9290 -1.2888 0.9475
-3.9716 -12.9399 -1.2995 0.9471
-2.8246 -13.3528 -1.3103 0.9466
2.1519 -14.3447 -1.3926 0.9434
5.2514 -15.4530 -1.5669 0.9365
6.7949 -15.3421 -1.6109 0.9348
8.3883 -15.1285 -1.6607 0.9328
10.0322 -14.8031 -1.7168 0.9307
11.7265 -14.3551 -1.7795 0.9282
15.3566 -4.0927 -1.5258 0.9381
12.1641 0.0921 -1.1678 0.9523
9.6894 1.8258 -0.9466 0.9612
8.7595 2.4771 -0.8739 0.9641
4.7887 4.2195 -0.6128 0.9747
2.7800 5.1979 -0.5659 0.9766
1.3380 5.8974 -0.5806 0.9760
0.8269 6.1449 -0.5953 0.9754
-0.3074 6.8387 -0.6572 0.9729
-18.7983 5.3060 -1.8752 0.9245
-18.0144 1.7424 -1.7375 0.9299
-14.7314 -5.3822 -1.5057 0.9389
-9.9750 -8.5332 -1.2602 0.9486
-7.5305 -11.1234 -1.2896 0.9475
-5.4386 -12.2959 -1.2908 0.9474
-4.3398 -12.7909 -1.2967 0.9472
-3.2048 -13.2243 -1.3063 0.9468
1.7193 -14.3059 -1.3833 0.9437
4.7560 -15.4684 -1.5537 0.9370
7.8603 -15.2104 -1.6437 0.9335
9.4876 -14.9227 -1.6977 0.9314
11.1654 -14.5162 -1.7582 0.9291
14.6683 -13.2984 -1.9008 0.9235
2.3232 -0.9255 -0.2401 0.9900
15.9322 -1.7769 -1.5391 0.9376
14.4457 -0.3139 -1.3872 0.9436
6.9687 3.1538 -0.7344 0.9697
6.4102 3.6221 -0.7069 0.9708
5.5677 3.8391 -0.6493 0.9732
4.4101 4.3833 -0.5969 0.9753
3.9775 4.7308 -0.5934 0.9755
2.4618 5.3525 -0.5656 0.9766
2.0450 5.7492 -0.5858 0.9758
1.5452 5.9915 -0.5940 0.9754
0.4667 6.3191 -0.6083 0.9749
-0.1053 6.7410 -0.6473 0.9733
-2.3528 2.1967 -0.3090 0.9871
-17.6711 0.6431 -1.6976 0.9314
-15.7503 -3.7153 -1.5536 0.9370
-10.7025 -8.6257 -1.3197 0.9463
-4.7040 -12.6354 -1.2944 0.9473
-3.5810 -13.0891 -1.3028 0.9469
-2.4211 -13.4804 -1.3149 0.9465
0.0137 -14.0681 -1.3506 0.9450
1.2913 -14.2591 -1.3745 0.9441
2.6110 -14.3766 -1.4028 0.9430
3.9742 -14.4158 -1.4356 0.9417
5.7771 -15.4259 -1.5814 0.9360
7.3377 -15.2806 -1.6274 0.9342
8.9485 -15.0297 -1.6793 0.9321
10.6098 -14.6633 -1.7376 0.9299
18.8206 -2.6592 -1.8248 0.9265
14.9230 -0.7620 -1.4345 0.9417
9.2527 2.0400 -0.9096 0.9626
7.2363 3.0227 -0.7529 0.9690
6.6501 3.5047 -0.7217 0.9702
5.7754 3.7376 -0.6604 0.9727
4.5709 4.2844 -0.6015 0.9751
4.1466 4.6484 -0.5980 0.9753
3.0919 5.0462 -0.5682 0.9765
2.2063 5.6710 -0.5842 0.9758
1.7107 5.9113 -0.5908 0.9756
0.6104 3.1342 -0.3066 0.9873
0.6444 6.2332 -0.6016 0.9751
-0.5303 6.9951 -0.6735 0.9722
-1.1851 7.1167 -0.6926 0.9714
-18.6914 4.6604 -1.8494 0.9255
-18.3129 2.8616 -1.7795 0.9282
-17.8431 1.1734 -1.7167 0.9307
-15.2460 -4.5778 -1.5283 0.9380
-14.4529 -5.7901 -1.4948 0.9394
-13.6122 -6.9210 -1.4661 0.9405
-12.7272 -7.9744 -1.4419 0.9414
-9.1573 -9.9677 -1.2995 0.9471
-8.1862 -10.6859 -1.2923 0.9473
-7.1804 -11.3425 -1.2888 0.9475
-2.8055 -13.3590 -1.3105 0.9466
-0.3963 -13.9902 -1.3437 0.9453
0.8678 -14.2044 -1.3662 0.9444
2.1736 -14.3464 -1.3930 0.9434
5.2762 -15.4520 -1.5676 0.9365
6.8205 -15.3394 -1.6117 0.9348
10.0595 -14.7968 -1.7178 0.9306
11.7545 -14.3467 -1.7806 0.9282
13.4988 -13.7618 -1.8507 0.9255
15.3373 -4.0636 -1.5233 0.9382
15.0762 -1.2134 -1.4521 0.9410
12.0272 0.1086 -1.1547 0.9528
9.6678 1.8364 -0.9448 0.9612
7.5243 2.8872 -0.7737 0.9681
6.7013 3.2846 -0.7165 0.9705
5.3569 3.9421 -0.6385 0.9736
4.7796 4.2240 -0.6124 0.9747
2.2986 5.4317 -0.5662 0.9766
1.8745 5.8319 -0.5881 0.9757
1.3299 5.9014 -0.5808 0.9760
0.8184 6.1490 -0.5955 0.9754
0.2757 6.4115 -0.6161 0.9745
-0.9568 7.0065 -0.6789 0.9720
-2.3873 2.0953 -0.3049 0.9873
-16.8829 -1.4168 -1.6265 0.9342
-16.2184 -2.8352 -1.5807 0.9360
-15.4951 -4.1619 -1.5403 0.9376
-14.7183 -5.4018 -1.5052 0.9389
-9.9562 -8.5423 -1.2594 0.9486
-7.5140 -11.1340 -1.2896 0.9475
-5.4209 -12.3045 -1.2909 0.9474
-4.3215 -12.7985 -1.2969 0.9472
-3.1859 -13.2309 -1.3065 0.9468
-2.0131 -13.6003 -1.3199 0.9463
-7.0985 -9.2382 -1.3839 0.9542
-6.2309 -9.8110 -1.3806 0.9543
-5.3306 -10.3276 -1.3806 0.9543
-3.4346 -11.1903 -1.3905 0.9539
-2.4399 -11.5345 -1.4005 0.9536
-1.4145 -11.8184 -1.4139 0.9532
1.9538 -13.0243 -1.5644 0.9483
3.2074 -13.2069 -1.6144 0.9467
4.4669 -13.1445 -1.6491 0.9456
7.0719 -12.7544 -1.7323 0.9429
13.9463 -9.9106 -2.0323 0.9334
15.5109 -7.2859 -2.0356 0.9333
16.7592 -6.1137 -2.1191 0.9307
15.0645 -1.2346 -1.7955 0.9409
10.9548 1.0650 -1.3074 0.9566
9.3961 1.7706 -1.1358 0.9622
4.7827 4.2143 -0.7572 0.9746
3.8064 4.8063 -0.7283 0.9756
3.2531 4.9602 -0.7046 0.9764
2.7768 5.1919 -0.6994 0.9766
2.3037 5.4217 -0.6997 0.9766
0.8259 6.1374 -0.7356 0.9754
0.2845 6.3990 -0.7609 0.9745
-0.3092 6.8796 -0.8180 0.9726
-15.0990 11.0661 -2.2237 0.9274
-15.4075 9.3013 -2.1378 0.9301
-15.5735 7.5957 -2.0582 0.9326
-15.5334 4.3844 -1.9172 0.9371
-14.7202 0.1042 -1.7486 0.9424
-14.2872 -1.1780 -1.7029 0.9439
-10.4509 -7.4344 -1.5235 0.9496
-8.1985 -8.3909 -1.3935 0.9538
-7.3758 -9.0382 -1.3857 0.9541
-3.7541 -11.0647 -1.3879 0.9540
-2.7695 -11.4282 -1.3968 0.9537
-0.7082 -11.9745 -1.4249 0.9528
0.3717 -12.2756 -1.4588 0.9517
4.0506 -13.1742 -1.6372 0.9460
5.3300 -13.0543 -1.6749 0.9448
6.6374 -12.8440 -1.7174 0.9434
7.9709 -12.5371 -1.7647 0.9419
9.3273 -12.1265 -1.8173 0.9402
10.7028 -11.6045 -1.8752 0.9384
2.3232 -0.9255 -0.2971 0.9900
18.7379 -3.8063 -2.2713 0.9259
14.4061 -0.3130 -1.7117 0.9436
11.6284 0.7875 -1.3845 0.9541
6.9583 3.1490 -0.9072 0.9697
6.4013 3.6170 -0.8734 0.9708
5.5603 3.8340 -0.8023 0.9732
4.9667 4.1244 -0.7669 0.9743
4.4091 4.3822 -0.7384 0.9753
2.0426 5.7426 -0.7240 0.9757
0.4661 6.3113 -0.7517 0.9748
-15.5708 4.8917 -1.9387 0.9364
-15.4223 3.3687 -1.8751 0.9384
-15.1775 1.9181 -1.8172 0.9402
-14.8462 0.5403 -1.7647 0.9419
-14.4370 -0.7654 -1.7173 0.9434
-12.1587 -5.2894 -1.5750 0.9480
-10.7060 -7.1530 -1.5295 0.9495
-7.6493 -8.8321 -1.3879 0.9540
-6.8036 -9.4417 -1.3824 0.9542
-5.0133 -10.4924 -1.3813 0.9542
-3.0957 -11.3155 -1.3935 0.9538
-2.0904 -11.6391 -1.4047 0.9535
-1.0545 -11.9019 -1.4193 0.9530
1.1449 -12.6419 -1.5078 0.9502
2.3979 -13.2034 -1.5940 0.9474
3.6376 -13.1949 -1.6258 0.9464
4.9073 -13.1033 -1.6621 0.9452
7.5310 -12.6488 -1.7486 0.9424
8.8803 -12.2730 -1.7995 0.9408
13.0302 -10.4598 -1.9848 0.9349
15.9445 -6.8994 -2.0637 0.9324
18.3638 -4.2940 -2.2402 0.9268
14.9217 -0.7620 -1.7748 0.9416
8.3208 2.6319 -1.0367 0.9655
5.7677 3.7325 -0.8161 0.9727
4.1416 4.6428 -0.7390 0.9752
3.0884 5.0404 -0.7022 0.9765
2.6140 5.2710 -0.6989 0.9766
1.7087 5.9044 -0.7301 0.9755
0.0888 6.4935 -0.7714 0.9742
-0.5296 6.9858 -0.8322 0.9722
-1.1834 7.1066 -0.8558 0.9714
-15.2222 10.4525 -2.1934 0.9283
-15.4799 8.7072 -2.1097 0.9310
-15.4821 3.8602 -1.8954 0.9377
-15.2677 2.3858 -1.8356 0.9397
-14.5793 -0.3452 -1.7323 0.9429
-13.5992 -2.7901 -1.6490 0.9456
-12.3789 -4.9592 -1.5841 0.9477
-10.9565 -6.8649 -1.5358 0.9493
-10.0228 -7.6046 -1.4945 0.9506
-7.9192 -8.6200 -1.3904 0.9539
-7.0847 -9.2480 -1.3838 0.9542
-6.2165 -9.8199 -1.3805 0.9543
-5.3156 -10.3356 -1.3806 0.9543
-4.3828 -10.7947 -1.3839 0.9542
-2.4234 -11.5396 -1.4006 0.9536
1.9748 -13.0342 -1.5659 0.9483
3.2277 -13.2065 -1.6149 0.9467
5.7770 -12.9924 -1.6890 0.9443
9.7989 -11.9598 -1.8366 0.9396
11.1797 -11.3975 -1.8965 0.9377
15.3610 -8.9389 -2.1111 0.9309
16.7792 -6.0933 -2.1205 0.9306
8.6067 2.4474 -1.0629 0.9646
7.5125 2.8827 -0.9558 0.9681
6.1601 3.7351 -0.8557 0.9714
5.3499 3.9370 -0.7890 0.9736
3.7981 4.8103 -0.7280 0.9756
3.2453 4.9640 -0.7045 0.9764
2.7691 5.1956 -0.6994 0.9766
2.2960 5.4254 -0.6998 0.9765
1.8723 5.8251 -0.7268 0.9757
1.3283 5.8944 -0.7177 0.9760
0.2753 6.4034 -0.7613 0.9745
-0.3195 6.8845 -0.8187 0.9726
-0.9554 6.9969 -0.8388 0.9720
-2.3858 2.0940 -0.3771 0.9873
-15.5751 7.5684 -2.0570 0.9326
-15.6107 5.9292 -1.9836 0.9349
-15.5312 4.3594 -1.9162 0.9371
-15.0727 1.4357 -1.7985 0.9408
-14.2796 -1.1983 -1.7022 0.9439
-13.7775 -2.4085 -1.6614 0.9452
-9.0414 -7.7574 -1.4151 0.9531
-8.1853 -8.4019 -1.3933 0.9538
-6.5048 -9.6385 -1.3813 0.9542
-1.7373 -11.7365 -1.4093 0.9533
-6.7116 -8.7346 -1.5608 0.9565
-5.8718 -9.2455 -1.5518 0.9567
-4.1159 -10.0949 -1.5447 0.9569
-3.2292 -10.5211 -1.5594 0.9565
-1.3339 -11.1454 -1.5905 0.9557
0.6837 -11.4656 -1.6274 0.9547
2.7963 -11.5140 -1.6788 0.9533
6.1082 -11.0163 -1.7848 0.9504
7.2389 -10.6813 -1.8282 0.9492
9.5146 -9.7283 -1.9281 0.9465
10.6479 -9.0997 -1.9846 0.9450
11.7681 -8.3627 -2.0455 0.9433
12.9282 -6.0727 -2.0238 0.9439
15.5819 -2.6926 -2.2405 0.9381
15.0633 -1.2345 -2.1415 0.9408
12.0002 0.0908 -1.7003 0.9527
6.6851 3.2646 -1.0541 0.9704
6.1628 3.7245 -1.0203 0.9713
4.7768 4.2090 -0.9021 0.9746
4.3166 4.5493 -0.8886 0.9750
3.8018 4.8006 -0.8677 0.9756
2.7736 5.1859 -0.8333 0.9765
2.3010 5.4154 -0.8337 0.9765
1.8783 5.8144 -0.8658 0.9756
1.3349 5.8835 -0.8548 0.9759
0.8249 6.1300 -0.8764 0.9753
0.2841 6.3909 -0.9064 0.9745
-0.3088 6.8705 -0.9745 0.9726
-0.9430 6.9818 -0.9982 0.9719
-1.6452 7.2348 -1.0513 0.9705
-6.0671 18.7504 -2.7924 0.9235
-7.4722 17.5617 -2.7042 0.9258
-8.7149 16.2751 -2.6158 0.9281
-9.7937 14.9170 -2.5284 0.9304
-2.3816 2.0964 -0.4495 0.9873
-12.5561 9.2024 -2.2057 0.9390
-12.8965 7.7855 -2.1344 0.9410
-13.1150 6.3966 -2.0675 0.9428
-13.2242 3.7327 -1.9469 0.9460
-12.9549 1.2530 -1.8441 0.9488
-12.3689 -1.0198 -1.7585 0.9511
-11.5179 -3.0757 -1.6892 0.9530
-11.0064 -4.0212 -1.6603 0.9538
-10.4434 -4.9118 -1.6352 0.9544
-9.8326 -5.7475 -1.6137 0.9550
-9.1775 -6.5285 -1.5958 0.9555
-6.1633 -9.1038 -1.5577 0.9566
-5.2795 -9.5328 -1.5440 0.9569
-4.4037 -9.9562 -1.5425 0.9570
-1.6549 -11.0685 -1.5857 0.9558
-0.6672 -11.2819 -1.6013 0.9554
2.4440 -11.5257 -1.6694 0.9535
5.7397 -11.1068 -1.7714 0.9507
8.0028 -10.4044 -1.8598 0.9484
11.4027 -8.6166 -2.0251 0.9439
12.6082 -6.3797 -2.0021 0.9445
2.3233 -0.9255 -0.3543 0.9899
14.4790 -4.3168 -2.1407 0.9408
15.7374 -1.7551 -2.2436 0.9380
14.3666 -0.3122 -2.0361 0.9436
10.0615 1.5923 -1.4434 0.9597
7.5900 2.6477 -1.1390 0.9680
6.8919 3.1190 -1.0719 0.9699
6.3459 3.5857 -1.0328 0.9710
5.5530 3.8289 -0.9557 0.9731
4.9604 4.1191 -0.9136 0.9743
4.4080 4.3812 -0.8806 0.9752
3.9680 4.7195 -0.8737 0.9754
3.3858 4.8467 -0.8377 0.9764
2.0403 5.7359 -0.8626 0.9757
0.4655 6.3034 -0.8956 0.9748
-0.1058 6.7728 -0.9597 0.9730
-1.4103 7.1666 -1.0349 0.9709
-8.3255 16.7061 -2.6447 0.9274
-10.4278 13.9762 -2.4707 0.9320
-11.2396 12.5505 -2.3871 0.9342
-13.0562 6.8484 -2.0890 0.9422
-12.7905 0.4654 -1.8135 0.9496
-11.1800 -3.7172 -1.6694 0.9535
-10.6334 -4.6258 -1.6430 0.9542
-10.0379 -5.4795 -1.6204 0.9548
-9.3970 -6.2784 -1.6013 0.9554
-8.7137 -7.0228 -1.5857 0.9558
-7.9905 -7.7126 -1.5735 0.9561
-6.4336 -8.9281 -1.5592 0.9565
-4.6908 -9.8175 -1.5417 0.9570
-2.9191 -10.6697 -1.5673 0.9563
-0.9940 -11.2189 -1.5958 0.9555
0.0111 -11.3894 -1.6138 0.9550
1.0409 -11.4939 -1.6352 0.9544
2.0940 -11.5296 -1.6603 0.9538
3.1684 -11.4930 -1.6892 0.9530
4.2621 -11.3806 -1.7219 0.9521
5.3725 -11.1881 -1.7585 0.9511
7.6298 -10.5449 -1.8442 0.9488
9.9056 -9.5238 -1.9470 0.9460
11.0354 -8.8585 -2.0051 0.9444
12.1491 -8.0830 -2.0676 0.9428
13.2592 -5.7374 -2.0470 0.9433
15.8441 -2.2386 -2.2672 0.9374
14.9204 -0.7619 -2.1168 0.9414
9.0566 1.9967 -1.3140 0.9632
4.5596 4.2738 -0.8855 0.9751
3.5088 4.7219 -0.8335 0.9765
3.0848 5.0345 -0.8366 0.9764
2.2012 5.6579 -0.8602 0.9758
1.7067 5.8975 -0.8699 0.9755
0.0887 6.4852 -0.9190 0.9741
-0.5289 6.9765 -0.9913 0.9721
-1.1817 7.0966 -1.0194 0.9714
-7.9185 17.1285 -2.6737 0.9266
-11.6995 11.5831 -2.3327 0.9357
-12.9850 7.3038 -2.1109 0.9416
-13.1638 5.9266 -2.0455 0.9433
-13.2335 4.5875 -1.9845 0.9450
-13.2030 3.2919 -1.9280 0.9465
-13.0809 2.0441 -1.8759 0.9479
-12.2401 -1.3892 -1.7454 0.9515
-11.3479 -3.4074 -1.6788 0.9533
-10.2384 -5.2056 -1.6274 0.9547
-9.6120 -6.0225 -1.6072 0.9552
-8.2319 -7.4924 -1.5771 0.9560
-7.4833 -8.1455 -1.5672 0.9563
-5.8573 -9.2525 -1.5516 0.9567
-4.9779 -9.6788 -1.5421 0.9570
-3.2146 -10.5281 -1.5597 0.9565
-1.3179 -11.1490 -1.5907 0.9557
-0.3213 -11.3406 -1.6075 0.9552
3.9015 -11.4261 -1.7107 0.9524
7.2574 -10.6751 -1.8290 0.9492
10.6663 -9.0886 -1.9855 0.9450
13.8889 -5.0437 -2.0937 0.9421
14.7776 -3.9153 -2.1661 0.9401
15.5946 -2.6714 -2.2418 0.9381
15.0736 -1.2132 -2.1427 0.9407
7.3270 2.8115 -1.1120 0.9688
6.6749 3.2717 -1.0533 0.9704
6.1516 3.7300 -1.0193 0.9714
4.7677 4.2134 -0.9015 0.9746
4.3080 4.5535 -0.8882 0.9750
3.7936 4.8046 -0.8674 0.9756
1.8701 5.8183 -0.8659 0.9756
-1.6571 7.2382 -1.0521 0.9704
-6.0913 18.7320 -2.7909 0.9235
-7.4938 17.5414 -2.7027 0.9258
-12.5627 9.1791 -2.2045 0.9391
-12.9010 7.7625 -2.1333 0.9410
-13.2221 5.0220 -2.0040 0.9445
-13.2235 3.7117 -1.9460 0.9460
-12.6932 0.0713 -1.7985 0.9500
-12.3630 -1.0375 -1.7579 0.9511
-11.5100 -3.0916 -1.6887 0.9530
-10.9976 -4.0362 -1.6599 0.9538
-9.8223 -5.7607 -1.6134 0.9550
-7.7328 -7.9374 -1.5701 0.9562
-6.9597 -8.5537 -1.5625 0.9564
-5.2652 -9.5397 -1.5439 0.9569
-4.3894 -9.9630 -1.5426 0.9570
-5.9928 -7.7992 -1.6203 0.9609
-4.5026 -8.7234 -1.6172 0.9610
-3.7133 -9.1074 -1.6203 0.9609
-2.8967 -9.4377 -1.6263 0.9608
-2.0546 -9.7130 -1.6355 0.9606
-1.1887 -9.9316 -1.6478 0.9603
0.6077 -10.1911 -1.6819 0.9595
4.3986 -9.9316 -1.7894 0.9569
6.3472 -9.3656 -1.8638 0.9552
9.2389 -7.8957 -2.0021 0.9519
10.1696 -7.2268 -2.0553 0.9507
11.0727 -5.2011 -2.0153 0.9516
11.8250 -4.3137 -2.0736 0.9503
12.5194 -3.3365 -2.1344 0.9488
13.6842 -1.1215 -2.2619 0.9459
11.9691 0.0906 -1.9719 0.9526
11.1189 1.0809 -1.8404 0.9557
9.6333 1.8153 -1.6149 0.9610
8.4381 2.3862 -1.4446 0.9651
7.3639 2.8134 -1.2986 0.9685
5.8091 3.5108 -1.1182 0.9729
4.7651 4.1988 -1.0463 0.9746
4.3114 4.5438 -1.0319 0.9749
3.7973 4.7949 -1.0076 0.9755
2.2984 5.4091 -0.9682 0.9765
1.8755 5.8060 -1.0051 0.9756
-0.2933 6.5256 -1.0761 0.9739
-4.4240 13.6723 -2.3673 0.9434
-6.1867 14.5403 -2.6032 0.9379
-9.7110 10.2245 -2.3230 0.9444
-11.0793 6.6884 -2.1320 0.9489
-11.3171 5.5197 -2.0743 0.9502
-11.4648 2.1545 -1.9218 0.9538
-10.1947 -2.7223 -1.7383 0.9581
-9.7610 -3.5662 -1.7120 0.9587
-9.2776 -4.3635 -1.6890 0.9593
-8.7479 -5.1134 -1.6693 0.9598
-8.1750 -5.8154 -1.6527 0.9601
-7.5619 -6.4689 -1.6394 0.9605
-6.9112 -7.0734 -1.6291 0.9607
-5.5058 -8.1327 -1.6179 0.9610
-4.7552 -8.5861 -1.6169 0.9610
-3.9752 -8.9874 -1.6189 0.9609
-3.1674 -9.3354 -1.6240 0.9608
5.0520 -9.7761 -1.8128 0.9564
6.0272 -9.4800 -1.8506 0.9555
10.7789 -6.7244 -2.0929 0.9498
12.2988 -3.6668 -2.1142 0.9493
12.9474 -2.6301 -2.1765 0.9478
13.5170 -1.5075 -2.2406 0.9464
10.0789 1.5951 -1.6811 0.9595
8.8194 2.2172 -1.4981 0.9638
7.6904 2.6827 -1.3418 0.9675
5.4483 3.7568 -1.0902 0.9735
4.4069 4.3801 -1.0236 0.9751
3.3818 4.8410 -0.9728 0.9763
2.4533 5.3339 -0.9672 0.9765
2.0379 5.7292 -1.0018 0.9757
1.5286 5.9270 -1.0084 0.9755
0.4632 6.2722 -1.0361 0.9748
-0.1010 6.4637 -1.0650 0.9741
-5.3910 13.7770 -2.4372 0.9418
-6.9193 13.8844 -2.5556 0.9390
-9.4974 10.6051 -2.3453 0.9439
-11.4210 4.7447 -2.0374 0.9511
-11.4976 3.6121 -1.9854 0.9523
-11.2261 0.4085 -1.8506 0.9555
-10.6868 -1.5312 -1.7785 0.9572
-8.9265 -4.8728 -1.6754 0.9596
-7.7672 -6.2600 -1.6434 0.9604
-6.4538 -7.4518 -1.6240 0.9608
-5.7452 -7.9729 -1.6189 0.9609
-5.0047 -8.4431 -1.6169 0.9610
-4.2341 -8.8616 -1.6179 0.9610
-2.6097 -9.5388 -1.6292 0.9607
-1.7592 -9.7947 -1.6394 0.9605
-0.8854 -9.9934 -1.6528 0.9601
0.0099 -10.1329 -1.6693 0.9598
0.9247 -10.2109 -1.6890 0.9593
4.7329 -9.8562 -1.8012 0.9566
5.7073 -9.5858 -1.8379 0.9558
6.6828 -9.2360 -1.8781 0.9548
7.6545 -8.8034 -1.9218 0.9538
8.6165 -8.2844 -1.9691 0.9527
9.5621 -7.6759 -2.0200 0.9515
11.3473 -6.1656 -2.1275 0.9490
2.3455 -1.0149 -0.4210 0.9897
12.0712 -3.9875 -2.0943 0.9498
12.7428 -2.9796 -2.1559 0.9483
13.3398 -1.8848 -2.2194 0.9468
13.8485 -0.7072 -2.2844 0.9453
11.7130 0.4491 -1.9310 0.9536
10.5629 1.3559 -1.7544 0.9577
9.2013 2.0287 -1.5522 0.9625
8.0408 2.5433 -1.3893 0.9664
5.6229 3.6388 -1.1034 0.9732
4.5036 4.2213 -1.0169 0.9753
4.1316 4.6316 -1.0225 0.9752
3.0812 5.0287 -0.9716 0.9764
1.6923 5.8478 -1.0029 0.9756
0.5795 2.9754 -0.4994 0.9878
0.6418 6.2083 -1.0282 0.9750
-0.4996 6.5900 -1.0888 0.9736
-1.0025 6.0204 -1.0055 0.9756
-5.0287 14.0506 -2.4585 0.9413
-6.5689 14.2092 -2.5788 0.9385
-8.4962 12.1119 -2.4373 0.9418
-9.2706 10.9829 -2.3677 0.9434
-10.4515 8.6446 -2.2344 0.9465
-11.1727 6.2844 -2.1118 0.9494
-11.4824 3.9805 -2.0020 0.9519
-11.0738 -0.2622 -1.8248 0.9561
-10.7925 -1.2249 -1.7894 0.9569
-10.0513 -3.0180 -1.7289 0.9583
-9.6001 -3.8460 -1.7037 0.9589
-8.5554 -5.3605 -1.6632 0.9599
-7.9684 -6.0459 -1.6478 0.9603
-7.3421 -6.6825 -1.6355 0.9606
-6.6789 -7.2700 -1.6263 0.9608
-5.9812 -7.8076 -1.6203 0.9609
-5.2509 -8.2946 -1.6172 0.9610
-4.4900 -8.7301 -1.6173 0.9610
-3.7001 -9.1132 -1.6203 0.9609
-1.1744 -9.9347 -1.6480 0.9603
-0.2859 -10.0938 -1.6635 0.9599
0.6227 -10.1922 -1.6822 0.9594
2.4923 -10.1973 -1.7293 0.9583
4.4145 -9.9282 -1.7900 0.9569
5.3874 -9.6831 -1.8255 0.9561
6.3631 -9.3597 -1.8645 0.9552
7.3366 -8.9546 -1.9071 0.9542
8.3025 -8.4643 -1.9532 0.9531
10.1846 -7.2151 -2.0562 0.9507
11.8369 -4.2985 -2.0746 0.9502
13.1531 -2.2532 -2.1984 0.9473
13.6923 -1.1021 -2.2629 0.9458
11.9354 0.1077 -1.9663 0.9528
11.0913 1.0946 -1.8360 0.9558
7.3483 2.8197 -1.2966 0.9686
6.4823 3.1772 -1.1893 0.9712
4.7569 4.2039 -1.0458 0.9746
2.2906 5.4128 -0.9683 0.9765
0.8154 6.1266 -1.0182 0.9753
-0.8360 6.1221 -1.0179 0.9753
-6.2051 14.5249 -2.6020 0.9380
-7.2727 13.5344 -2.5312 0.9396
-8.2148 12.4725 -2.4603 0.9413
-9.7213 10.2055 -2.3219 0.9445
-2.3840 2.0924 -0.5225 0.9872
-10.7429 7.8494 -2.1919 0.9475
-11.0840 6.6693 -2.1310 0.9489
-11.4577 4.3518 -2.0191 0.9515
-11.5033 3.2288 -1.9683 0.9527
-11.3444 1.0805 -1.8773 0.9549
-11.1520 0.0627 -1.8372 0.9558
-10.8917 -0.9140 -1.8006 0.9567
-10.5689 -1.8476 -1.7675 0.9574
-10.1880 -2.7365 -1.7379 0.9581
-9.2693 -4.3761 -1.6886 0.9593
-7.5516 -6.4792 -1.6392 0.9605
-6.9003 -7.0828 -1.6290 0.9607
-6.2137 -7.6368 -1.6219 0.9609
-5.4938 -8.1405 -1.6179 0.9610
-4.7427 -8.5930 -1.6169 0.9610
-3.9622 -8.9935 -1.6190 0.9609
-3.1540 -9.3407 -1.6241 0.9608
-2.3196 -9.6332 -1.6323 0.9606
-1.4609 -9.8697 -1.6436 0.9604
-5.4092 -7.0397 -1.6687 0.9645
-4.7514 -7.4814 -1.6658 0.9646
-3.3517 -8.2206 -1.6686 0.9645
-2.6137 -8.5156 -1.6743 0.9644
-0.2706 -9.0855 -1.7085 0.9637
0.5465 -9.1648 -1.7257 0.9633
1.3780 -9.1855 -1.7458 0.9629
2.2211 -9.1456 -1.7690 0.9624
3.9304 -8.8743 -1.8243 0.9613
4.7896 -8.6381 -1.8565 0.9606
8.9454 -6.3569 -2.0627 0.9563
11.7736 -0.9649 -2.2204 0.9531
11.0942 1.0785 -2.0951 0.9556
6.6154 3.2306 -1.3838 0.9705
5.1928 3.8097 -1.2105 0.9741
4.6292 4.0790 -1.1597 0.9752
4.3061 4.5382 -1.1759 0.9749
3.1759 4.8424 -1.0885 0.9767
2.7158 5.0776 -1.0823 0.9768
2.2515 5.2989 -1.0822 0.9768
1.7793 5.5081 -1.0880 0.9767
0.7995 5.9411 -1.1268 0.9759
-0.2920 6.4971 -1.2224 0.9739
-0.8061 5.9682 -1.1320 0.9758
-3.9353 12.1620 -2.4027 0.9493
-4.8932 11.5003 -2.3491 0.9504
-6.5385 9.9590 -2.2393 0.9527
-8.4102 8.8549 -2.2954 0.9515
-9.3685 6.8662 -2.1832 0.9538
-9.7021 5.8570 -2.1301 0.9549
-9.9437 4.8499 -2.0795 0.9560
-10.0981 3.8523 -2.0315 0.9570
-10.1699 2.8706 -1.9862 0.9579
-10.0858 0.9755 -1.9046 0.9596
-9.9394 0.0704 -1.8683 0.9604
-9.7296 -0.8022 -1.8350 0.9610
-9.4609 -1.6397 -1.8048 0.9617
-7.8729 -4.6019 -1.7141 0.9636
-6.8178 -5.8323 -1.6864 0.9641
-5.6183 -6.8847 -1.6703 0.9645
-4.9704 -7.3418 -1.6665 0.9646
-4.2930 -7.7516 -1.6655 0.9646
-3.5884 -8.1129 -1.6674 0.9645
-2.8583 -8.4245 -1.6721 0.9644
-2.1047 -8.6851 -1.6797 0.9643
-1.3296 -8.8932 -1.6901 0.9641
-0.5351 -9.0471 -1.7035 0.9638
0.2769 -9.1452 -1.7197 0.9634
1.1039 -9.1853 -1.7389 0.9630
1.9435 -9.1655 -1.7611 0.9626
2.7929 -9.0835 -1.7862 0.9621
6.2187 -8.0849 -1.9172 0.9593
8.6886 -6.5657 -2.0470 0.9566
9.4605 -5.9020 -2.0959 0.9556
9.4599 -4.7867 -1.9928 0.9578
12.0073 -0.2609 -2.2574 0.9523
11.6748 0.7906 -2.1994 0.9535
6.8944 3.1201 -1.4224 0.9697
6.0900 3.4411 -1.3148 0.9719
4.8071 3.9918 -1.1745 0.9749
2.8669 5.0022 -1.0837 0.9768
1.9353 5.4407 -1.0854 0.9768
1.4553 5.6427 -1.0953 0.9766
0.4512 6.1089 -1.1514 0.9754
-4.5886 11.7265 -2.3669 0.9500
-7.5502 10.1194 -2.3731 0.9499
-8.2147 9.1728 -2.3144 0.9511
-8.7767 8.1945 -2.2569 0.9523
-9.2385 7.1962 -2.2011 0.9535
-9.6030 6.1881 -2.1473 0.9546
-10.0568 4.1779 -2.0469 0.9566
-10.1551 3.1903 -2.0007 0.9576
-10.1192 1.2789 -1.9171 0.9593
-9.2491 -2.1817 -1.7862 0.9621
-8.0306 -4.3838 -1.7197 0.9634
-7.5356 -5.0348 -1.7035 0.9638
-6.4298 -6.2062 -1.6797 0.9643
-5.1862 -7.1971 -1.6674 0.9645
-4.5182 -7.6225 -1.6655 0.9646
-2.3543 -8.6053 -1.6769 0.9643
-0.7976 -9.0027 -1.6988 0.9639
9.9305 -5.3958 -2.1243 0.9550
2.3329 -1.0095 -0.4778 0.9897
10.4943 -3.4666 -2.0774 0.9560
11.0358 -2.5805 -2.1303 0.9549
11.5074 -1.6259 -2.1844 0.9538
11.8984 -0.6076 -2.2393 0.9527
11.7119 0.4490 -2.2030 0.9534
10.5405 1.3530 -1.9975 0.9577
8.0988 2.5617 -1.5966 0.9660
6.3392 3.3408 -1.3469 0.9713
5.6159 3.6343 -1.2573 0.9731
4.9896 3.9022 -1.1906 0.9745
4.4471 4.1683 -1.1457 0.9755
3.0177 4.9251 -1.0857 0.9768
2.0901 5.3722 -1.0835 0.9768
0.5728 2.9410 -0.5632 0.9879
0.6230 6.0261 -1.1387 0.9756
-0.5016 6.6160 -1.2471 0.9734
-1.0582 6.3548 -1.2109 0.9741
-3.2620 12.5471 -2.4368 0.9486
-4.2746 11.9439 -2.3844 0.9497
-5.2026 11.2539 -2.3304 0.9508
-9.0979 7.5250 -2.2192 0.9531
-9.4940 6.5191 -2.1647 0.9542
-9.7954 5.5097 -2.1124 0.9553
-10.1319 3.5123 -2.0156 0.9573
-10.1765 2.5373 -1.9713 0.9582
-10.1452 1.5853 -1.9300 0.9591
-10.0428 0.6604 -1.8917 0.9599
-9.8741 -0.2338 -1.8565 0.9606
-9.6436 -1.0945 -1.8243 0.9613
-8.1839 -4.1611 -1.7257 0.9633
-7.7024 -4.8260 -1.7085 0.9637
-5.3988 -7.0473 -1.6686 0.9645
-4.7404 -7.4882 -1.6658 0.9646
-2.6014 -8.5200 -1.6744 0.9644
-1.8403 -8.7627 -1.6830 0.9642
-1.0582 -8.9523 -1.6944 0.9640
-0.2574 -9.0873 -1.7087 0.9637
0.5600 -9.1656 -1.7260 0.9633
1.3916 -9.1854 -1.7462 0.9629
2.2349 -9.1444 -1.7694 0.9624
3.0869 -9.0404 -1.7956 0.9619
4.8036 -8.6337 -1.8571 0.9606
6.5100 -7.9456 -1.9307 0.9591
8.1654 -6.9576 -2.0164 0.9573
10.8655 -2.8788 -2.1127 0.9553
11.7797 -0.9481 -2.2213 0.9530
11.9035 0.1074 -2.2375 0.9527
9.5933 1.8222 -1.8354 0.9610
8.4309 2.3974 -1.6475 0.9650
6.6020 3.2359 -1.3820 0.9705
5.8415 3.5420 -1.2840 0.9726
5.1827 3.8139 -1.2095 0.9742
4.6205 4.0833 -1.1590 0.9752
3.7846 4.7931 -1.1479 0.9755
2.7082 5.0814 -1.0823 0.9768
0.6991 3.1022 -0.5977 0.9871
-0.3017 6.5026 -1.2236 0.9739
-0.8150 5.9682 -1.1322 0.9758
-3.9516 12.1519 -2.4018 0.9493
-5.7758 10.7487 -2.2935 0.9515
-6.5504 9.9454 -2.2384 0.9527
-9.9469 4.8335 -2.0787 0.9560
-10.1704 2.8547 -1.9855 0.9579
-9.9365 0.0559 -1.8677 0.9604
-9.7257 -0.8162 -1.8345 0.9611
-9.4560 -1.6530 -1.8043 0.9617
-9.1314 -2.4527 -1.7772 0.9622
-7.3560 -5.2489 -1.6985 0.9639
-6.8085 -5.8416 -1.6862 0.9641
-6.2251 -6.3898 -1.6768 0.9643
-4.2818 -7.7578 -1.6655 0.9646
-2.8462 -8.4291 -1.6722 0.9644
-2.0922 -8.6889 -1.6798 0.9643
-1.3168 -8.8961 -1.6903 0.9641
-4.9255 -6.4102 -1.7088 0.9675
-3.7020 -7.1723 -1.7061 0.9675
-3.0520 -7.4855 -1.7087 0.9675
-2.3792 -7.7518 -1.7140 0.9674
-0.2459 -8.2554 -1.7458 0.9668
0.4961 -8.3198 -1.7618 0.9665
2.0117 -8.2832 -1.8018 0.9658
2.7793 -8.1786 -1.8259 0.9653
4.3178 -7.7873 -1.8822 0.9643
5.0808 -7.4970 -1.9143 0.9637
6.5711 -6.7187 -1.9865 0.9623
7.2877 -6.2281 -2.0264 0.9616
7.9771 -5.6687 -2.0686 0.9608
9.1044 -3.3213 -2.0486 0.9612
9.9826 -1.7250 -2.1414 0.9594
10.7515 1.0452 -2.2834 0.9568
7.4790 2.8573 -1.6923 0.9678
5.9601 3.6020 -1.4720 0.9719
4.6873 4.1302 -1.3206 0.9748
4.3008 4.5326 -1.3208 0.9748
3.1540 4.8091 -1.2157 0.9768
2.2322 5.2533 -1.2065 0.9769
0.6850 3.0190 -0.6544 0.9874
0.2797 6.2905 -1.3310 0.9746
-0.8054 5.9627 -1.2718 0.9757
-2.5053 11.0173 -2.3883 0.9549
-4.2587 10.0092 -2.2993 0.9565
-5.7254 8.7206 -2.2051 0.9582
-6.3410 7.9988 -2.1576 0.9591
-2.3804 2.0954 -0.6704 0.9871
-9.0197 3.4409 -2.0406 0.9613
-9.1055 2.5701 -1.9999 0.9621
-9.1207 1.7140 -1.9617 0.9628
-9.0692 0.8772 -1.9260 0.9634
-8.9548 0.0634 -1.8929 0.9641
-8.5525 -1.4822 -1.8348 0.9651
-8.2718 -2.2088 -1.8098 0.9656
-7.5682 -3.5595 -1.7679 0.9664
-7.1514 -4.1802 -1.7510 0.9667
-6.6952 -4.7627 -1.7368 0.9670
-6.2022 -5.3057 -1.7253 0.9672
-4.5264 -6.6861 -1.7067 0.9675
-1.9154 -7.9037 -1.7190 0.9673
-1.2093 -8.0886 -1.7288 0.9671
1.0015 -8.3326 -1.7740 0.9663
2.5272 -8.2194 -1.8177 0.9655
3.2968 -8.0746 -1.8436 0.9650
4.0662 -7.8685 -1.8722 0.9644
4.8315 -7.5993 -1.9035 0.9639
7.7544 -5.8597 -2.0545 0.9610
8.4217 -5.2539 -2.0982 0.9602
8.3986 -4.2496 -1.9896 0.9622
2.3234 -0.9256 -0.5287 0.9898
9.4268 -2.8105 -2.0793 0.9606
9.8561 -2.0021 -2.1259 0.9597
10.2178 -1.1396 -2.1732 0.9588
10.5036 -0.2282 -2.2208 0.9580
8.7874 2.2092 -1.9153 0.9636
5.5021 3.7938 -1.4127 0.9730
4.8776 4.0504 -1.3402 0.9744
3.3093 4.7372 -1.2215 0.9767
2.3821 5.1791 -1.2050 0.9770
1.9239 5.4086 -1.2134 0.9768
-1.4127 7.1790 -1.5466 0.9705
-3.9897 10.1960 -2.3144 0.9562
-5.5062 8.9473 -2.2207 0.9580
-6.1480 8.2401 -2.1732 0.9588
-7.2299 8.0731 -2.2908 0.9567
-7.7476 7.2336 -2.2405 0.9576
-8.1789 6.3709 -2.1915 0.9585
-8.9755 3.7287 -2.0544 0.9610
-9.0853 2.8543 -2.0130 0.9618
-9.0932 1.1492 -1.9374 0.9632
-8.9990 0.3275 -1.9035 0.9639
-8.8445 -0.4689 -1.8722 0.9644
-8.6334 -1.2370 -1.8436 0.9650
-8.3693 -1.9742 -1.8177 0.9655
-7.6957 -3.3479 -1.7740 0.9663
-7.2926 -3.9809 -1.7562 0.9666
-5.3023 -6.1222 -1.7120 0.9674
-4.7227 -6.5539 -1.7076 0.9675
-2.8229 -7.5825 -1.7103 0.9675
-0.7251 -8.1844 -1.7368 0.9670
0.7543 -8.3295 -1.7679 0.9664
1.5111 -8.3201 -1.7875 0.9660
5.3413 -7.3820 -1.9260 0.9634
6.0895 -7.0034 -1.9617 0.9628
6.8204 -6.5576 -2.0000 0.9621
7.5284 -6.0433 -2.0406 0.9613
8.8199 -4.7923 -2.1218 0.9598
2.3225 -1.0050 -0.5349 0.9897
9.2727 -3.0630 -2.0642 0.9609
9.7224 -2.2734 -2.1105 0.9600
10.1072 -1.4280 -2.1577 0.9591
10.6488 0.4083 -2.2526 0.9574
9.1667 2.0210 -1.9842 0.9623
8.0850 2.5573 -1.7925 0.9659
7.1805 2.9994 -1.6449 0.9687
4.4940 4.2123 -1.3020 0.9751
4.1216 4.6203 -1.3088 0.9750
2.9929 4.8846 -1.2109 0.9769
2.5320 5.1056 -1.2046 0.9770
1.6117 5.5692 -1.2255 0.9766
0.5682 2.9173 -0.6282 0.9879
0.6302 6.0954 -1.2953 0.9753
0.0875 6.3989 -1.3527 0.9742
-1.0441 6.2701 -1.3436 0.9743
-2.8254 10.8677 -2.3736 0.9551
-3.7132 10.3750 -2.3293 0.9559
-5.2785 9.1685 -2.2363 0.9577
-5.9464 8.4770 -2.1888 0.9585
-6.5343 7.7411 -2.1413 0.9594
-7.5874 7.5119 -2.2569 0.9573
-2.5248 2.0883 -0.6926 0.9867
-8.7122 4.9005 -2.1129 0.9600
-8.9232 4.0174 -2.0685 0.9608
-9.0574 3.1398 -2.0263 0.9616
-9.1103 1.4236 -1.9491 0.9630
-8.9015 -0.2108 -1.8821 0.9643
-8.7086 -0.9884 -1.8526 0.9648
-8.1638 -2.4513 -1.8018 0.9658
-7.8187 -3.1323 -1.7804 0.9662
-6.9987 -4.3851 -1.7458 0.9668
-6.5295 -4.9542 -1.7325 0.9670
-4.9160 -6.4171 -1.7087 0.9675
-4.3172 -6.8197 -1.7061 0.9675
-3.0412 -7.4902 -1.7088 0.9675
-2.3681 -7.7557 -1.7141 0.9674
-0.9623 -8.1406 -1.7327 0.9670
0.5084 -8.3204 -1.7621 0.9665
1.2620 -8.3294 -1.7808 0.9661
2.0241 -8.2820 -1.8022 0.9657
2.7919 -8.1763 -1.8263 0.9653
4.3303 -7.7830 -1.8827 0.9642
5.0932 -7.4917 -1.9149 0.9636
5.8458 -7.1349 -1.9497 0.9630
7.2992 -6.2195 -2.0270 0.9616
8.6347 -5.0247 -2.1117 0.9600
9.1126 -3.3092 -2.0493 0.9611
9.5817 -2.5386 -2.0953 0.9603
10.5829 0.0955 -2.2371 0.9577
9.5745 1.8186 -2.0601 0.9609
8.4161 2.3932 -1.8495 0.9649
4.6780 4.1342 -1.3196 0.9748
4.2922 4.5368 -1.3202 0.9748
2.6823 5.0327 -1.2055 0.9770
2.2247 5.2571 -1.2066 0.9769
0.4109 3.0876 -0.6584 0.9873
-0.8142 5.9627 -1.2721 0.9757
-2.5206 11.0105 -2.3876 0.9549
-3.4292 10.5456 -2.3440 0.9557
-5.0424 9.3838 -2.2518 0.9574
-5.7361 8.7091 -2.2044 0.9583
-6.3504 7.9867 -2.1568 0.9591
-2.3832 2.0918 -0.6703 0.9871
-8.3077 6.0701 -2.1749 0.9588
-8.8627 4.3066 -2.0829 0.9605
-9.1063 2.5560 -1.9993 0.9621
-9.1204 1.7002 -1.9611 0.9628
-9.0678 0.8637 -1.9254 0.9634
-8.9524 0.0503 -1.8924 0.9641
-8.7780 -0.7366 -1.8620 0.9646
-8.5483 -1.4943 -1.8343 0.9651
-8.2668 -2.2204 -1.8094 0.9656
-7.9369 -2.9129 -1.7871 0.9660
-7.5617 -3.5699 -1.7676 0.9664
-7.1443 -4.1901 -1.7507 0.9667
-6.6875 -4.7719 -1.7366 0.9670
-6.1939 -5.3142 -1.7251 0.9672
-5.1061 -6.2756 -1.7102 0.9675
-4.5166 -6.6925 -1.7067 0.9675
-3.8995 -7.0653 -1.7058 0.9675
-1.1977 -8.0912 -1.7289 0.9671
-4.5177 -5.8794 -1.7426 0.9700
-3.9694 -6.2501 -1.7401 0.9700
-3.3958 -6.5792 -1.7401 0.9700
-1.5453 -7.3052 -1.7549 0.9698
-0.8923 -7.4558 -1.7648 0.9696
-0.2251 -7.5583 -1.7772 0.9694
1.1421 -7.6135 -1.8094 0.9689
1.8368 -7.5632 -1.8292 0.9685
2.5348 -7.4590 -1.8515 0.9681
4.6141 -6.8084 -1.9330 0.9668
5.2889 -6.4745 -1.9648 0.9662
7.1912 -5.1102 -2.0734 0.9644
8.1535 -2.9744 -2.0398 0.9650
8.5544 -2.2798 -2.0807 0.9643
9.1768 -0.7521 -2.1640 0.9629
9.5146 0.9250 -2.2467 0.9615
8.4182 2.3806 -2.0560 0.9647
4.7525 4.1876 -1.4887 0.9743
4.2954 4.5270 -1.4667 0.9747
3.2067 4.8895 -1.3742 0.9763
1.6429 3.8664 -0.9873 0.9829
0.6796 2.9951 -0.7218 0.9875
0.4110 3.0543 -0.7243 0.9874
0.2827 6.3583 -1.4958 0.9742
-0.8047 5.9576 -1.4129 0.9756
-4.4586 8.3265 -2.2198 0.9619
-5.0868 7.7479 -2.1783 0.9626
-5.6473 7.1237 -2.1365 0.9633
-2.3801 2.0951 -0.7452 0.9871
-7.4459 5.4571 -2.1696 0.9628
-7.7497 4.6784 -2.1275 0.9635
-7.9809 3.8925 -2.0869 0.9642
-8.2353 2.3245 -2.0111 0.9654
-8.2642 1.5531 -1.9763 0.9660
-7.7967 -1.3512 -1.8597 0.9680
-7.5499 -2.0161 -1.8366 0.9684
-6.9217 -3.2554 -1.7977 0.9691
-5.2030 -5.3251 -1.7497 0.9699
-4.6916 -5.7490 -1.7440 0.9700
-4.1520 -6.1330 -1.7407 0.9700
-3.5866 -6.4759 -1.7398 0.9700
0.9156 -7.6185 -1.8034 0.9690
1.6085 -7.5856 -1.8224 0.9686
3.7002 -7.1602 -1.8942 0.9674
6.3772 -5.7816 -2.0230 0.9652
7.5440 -3.8173 -1.9871 0.9659
9.3247 -0.2026 -2.1920 0.9624
9.4809 0.6420 -2.2333 0.9617
6.1726 3.4878 -1.6663 0.9713
5.5231 3.8083 -1.5767 0.9728
3.9489 4.6967 -1.4421 0.9751
3.3648 4.8167 -1.3809 0.9761
2.4215 5.2649 -1.3620 0.9765
1.9559 5.4988 -1.3717 0.9763
1.4819 5.7457 -1.3946 0.9759
0.4771 2.9000 -0.6907 0.9880
0.4632 6.2717 -1.4780 0.9745
-0.1022 6.5429 -1.5379 0.9735
-0.7205 6.8388 -1.6162 0.9721
-1.4106 7.1683 -1.7170 0.9704
-3.5252 9.0090 -2.2737 0.9610
-4.8882 7.9431 -2.1920 0.9624
-5.4711 7.3328 -2.1502 0.9631
-5.9850 6.6831 -2.1085 0.9638
-7.3302 5.7098 -2.1837 0.9625
-7.6582 4.9349 -2.1412 0.9633
-8.0967 3.3636 -2.0606 0.9646
-8.2120 2.5799 -2.0230 0.9652
-8.2617 1.8046 -1.9875 0.9658
-8.2488 1.0425 -1.9541 0.9664
-8.1767 0.2976 -1.9230 0.9669
-8.0484 -0.4267 -1.8942 0.9674
-7.0363 -3.0610 -1.8034 0.9690
-6.2720 -4.1905 -1.7728 0.9695
-4.3319 -6.0116 -1.7415 0.9700
-2.5889 -6.9541 -1.7440 0.9700
-1.9646 -7.1811 -1.7497 0.9699
0.0074 -7.5822 -1.7820 0.9693
0.6899 -7.6179 -1.7977 0.9691
1.3807 -7.6022 -1.8159 0.9688
2.0768 -7.5335 -1.8366 0.9684
2.7752 -7.4104 -1.8597 0.9680
3.4725 -7.2313 -1.8853 0.9676
4.8480 -6.7002 -1.9437 0.9666
5.5176 -6.3457 -1.9763 0.9660
6.1686 -5.9309 -2.0112 0.9654
6.7957 -5.4552 -2.0481 0.9648
7.3930 -4.9187 -2.0869 0.9642
7.3982 -4.0198 -1.9788 0.9660
8.6795 -2.0295 -2.0949 0.9640
9.2567 -0.4727 -2.1784 0.9626
9.4384 0.3619 -2.2199 0.9619
9.5404 1.2246 -2.2606 0.9612
9.1493 2.0172 -2.2019 0.9622
7.1692 2.9947 -1.8260 0.9686
6.4024 3.3742 -1.7009 0.9707
5.1221 4.0058 -1.5282 0.9736
4.5656 4.2794 -1.4707 0.9746
3.5251 4.7438 -1.3890 0.9760
2.5739 5.1901 -1.3616 0.9765
1.6388 5.6630 -1.3855 0.9761
0.5636 2.8937 -0.6929 0.9880
0.0882 6.4516 -1.5164 0.9738
-0.5109 6.7386 -1.5883 0.9726
-2.4890 9.5739 -2.3249 0.9602
-4.0113 8.6769 -2.2467 0.9615
-8.1815 2.8362 -2.0351 0.9650
-8.2524 2.0576 -1.9989 0.9657
-8.2598 1.2907 -1.9648 0.9662
-8.2067 0.5397 -1.9329 0.9668
-8.0964 -0.1917 -1.9034 0.9673
-7.9322 -0.9003 -1.8762 0.9677
-6.7967 -3.4558 -1.7920 0.9692
-5.9820 -4.5387 -1.7648 0.9696
-5.0303 -5.4754 -1.7475 0.9699
-3.3863 -6.5842 -1.7401 0.9700
-1.5348 -7.3081 -1.7550 0.9698
-0.2141 -7.5596 -1.7774 0.9694
0.4651 -7.6118 -1.7923 0.9692
1.1534 -7.6131 -1.8097 0.9689
3.9385 -7.0789 -1.9039 0.9673
4.6252 -6.8034 -1.9335 0.9668
5.9575 -6.0736 -1.9995 0.9656
6.5931 -5.6179 -2.0358 0.9650
7.2008 -5.1013 -2.0740 0.9644
7.7624 -4.5171 -2.1107 0.9638
7.7097 -3.6078 -2.0005 0.9656
8.5605 -2.2681 -2.0813 0.9643
9.1808 -0.7389 -2.1647 0.9629
9.3873 0.0847 -2.2063 0.9622
9.5161 0.9391 -2.2474 0.9615
9.5556 1.8151 -2.2859 0.9608
6.6421 3.2556 -1.7385 0.9701
5.9409 3.6022 -1.6329 0.9719
4.7435 4.1920 -1.4878 0.9743
3.7754 4.7815 -1.4318 0.9753
3.1989 4.8931 -1.3739 0.9763
2.7267 5.1161 -1.3625 0.9765
1.6358 3.8654 -0.9865 0.9829
0.6742 2.9917 -0.7208 0.9875
0.4073 3.0604 -0.7256 0.9874
0.2736 6.3627 -1.4968 0.9742
-0.3082 6.6416 -1.5626 0.9731
-0.8134 5.9569 -1.4130 0.9756
-2.2190 9.6929 -2.3370 0.9600
-3.7776 8.8425 -2.2599 0.9613
-5.0965 7.7380 -2.1776 0.9626
-5.6559 7.1132 -2.1358 0.9633
-6.1457 6.4519 -2.0942 0.9640
-7.4515 5.4445 -2.1689 0.9628
-7.9841 3.8797 -2.0863 0.9642
-8.1440 3.0932 -2.0474 0.9648
-8.2363 2.3118 -2.0105 0.9655
-8.2642 1.5406 -1.9757 0.9660
-8.1387 0.0457 -1.9128 0.9671
-7.9918 -0.6706 -1.8849 0.9676
-7.7930 -1.3623 -1.8593 0.9680
-7.5455 -2.0267 -1.8362 0.9684
-7.2521 -2.6616 -1.8156 0.9688
-6.1254 -4.3709 -1.7686 0.9696
-5.6765 -4.8703 -1.7578 0.9697
-5.1949 -5.3323 -1.7496 0.9699
-4.6830 -5.7556 -1.7439 0.9700
-3.5771 -6.4812 -1.7398 0.9700
-2.9875 -6.7811 -1.7415 0.9700
-2.3762 -7.0373 -1.7457 0.9699
-1.0974 -7.4139 -1.7614 0.9697
-4.1688 -5.4253 -1.7715 0.9721
-2.5831 -6.3355 -1.7715 0.9721
-1.4252 -6.7374 -1.7830 0.9719
-0.8226 -6.8732 -1.7923 0.9718
-0.2074 -6.9639 -1.8039 0.9716
1.0508 -7.0048 -1.8340 0.9712
1.6885 -6.9525 -1.8524 0.9709
3.5984 -6.4897 -1.9213 0.9698
4.8329 -5.9163 -1.9780 0.9689
6.5400 -4.6474 -2.0773 0.9674
7.0360 -4.1081 -2.1095 0.9669
8.0173 -1.3854 -2.1066 0.9669
8.2526 -0.6764 -2.1439 0.9664
8.4231 0.0637 -2.1810 0.9658
8.5495 1.6110 -2.2526 0.9647
7.4546 2.8480 -2.0662 0.9676
6.6442 3.2446 -1.9145 0.9699
5.3172 3.9010 -1.7075 0.9731
3.2301 4.9250 -1.5250 0.9760
2.7573 5.1553 -1.5137 0.9761
1.6382 3.8554 -1.0846 0.9828
1.8132 5.6131 -1.5273 0.9759
0.6820 3.0059 -0.7981 0.9873
0.4097 3.0441 -0.7953 0.9874
0.2823 6.3500 -1.6458 0.9741
-2.6923 8.3206 -2.2643 0.9645
-3.9992 7.4686 -2.1935 0.9656
-5.0851 6.4145 -2.1194 0.9667
-5.5380 5.8308 -2.0821 0.9673
-7.2539 3.5380 -2.0896 0.9672
-7.5100 2.1198 -2.0205 0.9683
-7.5478 1.4184 -1.9885 0.9688
-7.3309 -0.6044 -1.9045 0.9701
-6.6751 -2.4388 -1.8401 0.9711
-6.3716 -2.9967 -1.8231 0.9713
-6.0298 -3.5247 -1.8084 0.9716
-5.2415 -4.4839 -1.7860 0.9719
-4.7997 -4.9123 -1.7782 0.9720
-4.3290 -5.3047 -1.7728 0.9721
-3.8317 -5.6599 -1.7697 0.9722
-3.3100 -5.9766 -1.7689 0.9722
-2.7660 -6.2535 -1.7705 0.9721
-1.6196 -6.6833 -1.7805 0.9720
-1.0217 -6.8336 -1.7890 0.9719
-0.4104 -6.9393 -1.7998 0.9717
0.2119 -6.9989 -1.8130 0.9715
0.8427 -7.0113 -1.8284 0.9712
4.0189 -6.3211 -1.9394 0.9695
4.6344 -6.0251 -1.9681 0.9691
5.2338 -5.6747 -1.9988 0.9686
6.3652 -4.8100 -2.0657 0.9676
8.3747 -0.1820 -2.1689 0.9660
8.5229 2.1427 -2.2754 0.9643
7.7473 2.7026 -2.1245 0.9667
6.8949 3.1203 -1.9595 0.9692
3.9440 4.6909 -1.5868 0.9750
3.3870 4.8485 -1.5313 0.9759
2.9116 5.0802 -1.5161 0.9761
1.9697 5.5374 -1.5217 0.9760
0.4626 6.2636 -1.6262 0.9744
-0.7194 6.8291 -1.7780 0.9720
-2.4594 8.4368 -2.2754 0.9643
-4.9233 6.5986 -2.1316 0.9666
-5.3962 6.0256 -2.0943 0.9671
-6.9441 4.4747 -2.1389 0.9664
-7.1880 3.7703 -2.1016 0.9670
-7.3676 3.0607 -2.0657 0.9676
-7.5418 1.6474 -1.9988 0.9686
-7.5412 0.9531 -1.9681 0.9691
-7.4854 0.2724 -1.9394 0.9695
-7.2195 -1.0344 -1.8884 0.9703
-7.0148 -1.6547 -1.8661 0.9707
-6.7659 -2.2496 -1.8461 0.9710
-6.1460 -3.3550 -1.8130 0.9715
