ply
format ascii 1.0
element vertex 1594
property float32 x
property float32 y
property float32 z
property float32 I
end_header
-8.8929 -4.9122 -1.6737 0.9597
-8.3306 -5.6279 -1.6562 0.9601
-6.4076 -7.4818 -1.6228 0.9609
-5.6961 -8.0001 -1.6179 0.9610
-4.9527 -8.4674 -1.6160 0.9610
-3.3778 -9.2451 -1.6215 0.9609
-2.5496 -9.5531 -1.6289 0.9607
-1.6965 -9.8053 -1.6393 0.9605
-0.8203 -9.9999 -1.6529 0.9601
0.0774 -10.1351 -1.6697 0.9597
3.8401 -10.0327 -1.7697 0.9574
5.7865 -9.5552 -1.8403 0.9557
6.7633 -9.1984 -1.8809 0.9548
7.7357 -8.7583 -1.9250 0.9537
2.3176 -0.9796 -0.4145 0.9899
12.1382 -3.8939 -2.1000 0.9496
13.3958 -1.7713 -2.2260 0.9467
13.8969 -0.5838 -2.2914 0.9452
11.7221 0.5572 -1.9333 0.9535
5.5699 3.6842 -1.1002 0.9733
3.0174 5.0452 -0.9685 0.9765
2.5433 5.2714 -0.9642 0.9766
2.1311 5.6609 -0.9965 0.9758
1.6256 5.8609 -1.0020 0.9756
0.5702 6.2069 -1.0268 0.9750
0.0136 6.3952 -1.0535 0.9744
-0.5762 6.5787 -1.0879 0.9736
-1.0735 6.0071 -1.0053 0.9756
-4.0193 14.7335 -2.5159 0.9400
-5.1839 13.9495 -2.4516 0.9415
-10.5222 8.4761 -2.2259 0.9467
-11.3991 4.9499 -2.0473 0.9509
-11.4149 1.6229 -1.8994 0.9543
-10.7398 -1.3737 -1.7837 0.9571
-9.9785 -3.1544 -1.7240 0.9585
-9.5182 -3.9756 -1.6993 0.9590
-9.0099 -4.7497 -1.6779 0.9596
-5.8541 -7.8914 -1.6187 0.9610
-4.3505 -8.7966 -1.6167 0.9610
-2.7324 -9.4906 -1.6270 0.9608
-0.1202 -10.1108 -1.6658 0.9598
0.7929 -10.1979 -1.6851 0.9594
1.7238 -10.2214 -1.7076 0.9588
2.6702 -10.1786 -1.7336 0.9582
3.6295 -10.0666 -1.7629 0.9575
4.5984 -9.8823 -1.7956 0.9568
5.5734 -9.6223 -1.8319 0.9559
8.4894 -8.3539 -1.9621 0.9529
9.4391 -7.7567 -2.0127 0.9517
11.2562 -6.2801 -2.1234 0.9491
11.2415 -5.0124 -2.0277 0.9513
11.9839 -4.1041 -2.0868 0.9499
13.2741 -2.0196 -2.2119 0.9470
11.6370 0.3256 -1.9178 0.9539
10.8338 1.2784 -1.7971 0.9567
9.4006 1.9736 -1.5824 0.9618
6.3399 3.2635 -1.1747 0.9715
5.6881 3.6048 -1.1094 0.9731
5.1563 3.9553 -1.0706 0.9740
4.5584 4.1943 -1.0205 0.9752
4.1817 4.6028 -1.0245 0.9751
3.6702 4.8479 -1.0017 0.9757
2.1732 5.4477 -0.9662 0.9765
5.1283 3.8418 -1.2044 0.9743
2.6554 5.0950 -1.0799 0.9769
2.1895 5.3120 -1.0799 0.9769
0.6604 3.0680 -0.5899 0.9873
0.2046 6.1885 -1.1638 0.9751
-0.8738 5.9454 -1.1295 0.9758
-4.0710 12.0867 -2.3972 0.9494
-5.8774 10.6610 -2.2882 0.9517
-6.6418 9.8487 -2.2328 0.9528
-2.4020 2.0606 -0.5948 0.9872
-9.9732 4.7024 -2.0725 0.9561
-10.0667 0.8341 -1.8986 0.9597
-9.9095 -0.0675 -1.8626 0.9605
-9.4110 -1.7688 -1.7999 0.9618
-9.0781 -2.5639 -1.7731 0.9623
-8.6945 -3.3198 -1.7493 0.9628
-8.2637 -4.0349 -1.7285 0.9633
-4.8531 -7.4124 -1.6653 0.9646
-3.4601 -8.1672 -1.6672 0.9645
-2.7249 -8.4702 -1.6724 0.9644
-1.1870 -8.9204 -1.6915 0.9640
1.2579 -9.1817 -1.7419 0.9630
2.1005 -9.1506 -1.7647 0.9625
2.9523 -9.0566 -1.7905 0.9620
3.8102 -8.8975 -1.8193 0.9614
5.5290 -8.3739 -1.8861 0.9600
7.2218 -7.5600 -1.9651 0.9583
8.0446 -7.0385 -2.0091 0.9574
9.6093 -5.7579 -2.1056 0.9554
9.5912 -4.6372 -2.0024 0.9576
2.3978 -0.9049 -0.4817 0.9896
10.7910 -3.0026 -2.1053 0.9554
11.7291 -1.0872 -2.2141 0.9532
12.0739 -0.0356 -2.2694 0.9520
11.3993 0.9889 -2.1507 0.9545
7.6210 2.8250 -1.5277 0.9675
5.9424 3.5133 -1.2976 0.9723
3.8398 4.7587 -1.1493 0.9754
3.2179 4.8117 -1.0880 0.9767
0.3227 6.1327 -1.1543 0.9753
-0.2370 6.4172 -1.2070 0.9742
-0.7621 5.9972 -1.1363 0.9757
-1.5732 7.1738 -1.3804 0.9706
-5.6981 10.8304 -2.3002 0.9514
-6.4831 10.0305 -2.2449 0.9526
-8.3685 8.9333 -2.3008 0.9514
-2.3769 2.1210 -0.5988 0.9871
-9.9310 4.9216 -2.0833 0.9559
-10.0910 3.9212 -2.0349 0.9569
-10.0922 1.0349 -1.9069 0.9595
-9.7426 -0.7495 -1.8366 0.9610
-9.4765 -1.5902 -1.8061 0.9616
-9.1551 -2.3937 -1.7787 0.9622
-8.7823 -3.1583 -1.7542 0.9627
-8.3615 -3.8824 -1.7328 0.9632
-7.8961 -4.5650 -1.7143 0.9636
-7.3892 -5.2048 -1.6988 0.9639
-6.2615 -6.3526 -1.6766 0.9643
-4.3215 -7.7307 -1.6647 0.9646
-1.3587 -8.8817 -1.6888 0.9641
2.7658 -9.0826 -1.7846 0.9621
4.4828 -8.7262 -1.8439 0.9609
5.3421 -8.4448 -1.8782 0.9601
6.1961 -8.0913 -1.9156 0.9594
7.0397 -7.6634 -1.9559 0.9585
7.8670 -7.1589 -1.9993 0.9576
8.6713 -6.5760 -2.0455 0.9567
9.4453 -5.9132 -2.0946 0.9557
11.1934 -2.2856 -2.1473 0.9546
11.6420 -1.3087 -2.2020 0.9534
12.0066 -0.2698 -2.2573 0.9523
10.1425 1.6004 -1.9300 0.9591
7.8225 2.7272 -1.5571 0.9668
6.9196 3.1312 -1.4276 0.9696
6.1034 3.4495 -1.3178 0.9719
5.4051 3.7289 -1.2343 0.9736
3.9509 4.7054 -1.1549 0.9753
3.3185 4.7585 -1.0904 0.9767
2.8572 4.9961 -1.0818 0.9768
2.3936 5.2189 -1.0792 0.9769
1.9236 5.4288 -1.0826 0.9768
1.4432 5.6275 -1.0920 0.9766
0.4775 2.9299 -0.5580 0.9880
0.4389 6.0779 -1.1454 0.9755
-0.7173 6.6855 -1.2638 0.9730
-1.2156 6.1108 -1.1711 0.9750
-3.6306 12.3539 -2.4202 0.9489
-7.5758 10.0955 -2.3724 0.9499
-9.2556 7.1625 -2.1998 0.9535
-9.6168 6.1520 -2.1458 0.9546
-9.8846 5.1413 -2.0942 0.9557
-10.1579 3.1497 -1.9990 0.9576
-9.9861 0.3219 -1.8780 0.9602
-8.0013 -4.4197 -1.7181 0.9635
-6.9656 -5.6747 -1.6887 0.9641
-6.3914 -6.2361 -1.6784 0.9643
-3.0486 -8.3442 -1.6698 0.9645
-2.3001 -8.6184 -1.6766 0.9643
-1.5296 -8.8404 -1.6863 0.9641
2.5797 -9.1055 -1.7788 0.9622
3.4353 -8.9751 -1.8063 0.9616
6.8569 -7.7632 -1.9469 0.9587
8.4981 -6.7099 -2.0352 0.9569
9.2794 -6.0646 -2.0836 0.9559
10.5488 -3.3840 -2.0823 0.9559
11.0854 -2.4899 -2.1355 0.9548
11.5510 -1.5274 -2.1900 0.9537
10.4667 1.4427 -1.9859 0.9579
9.1145 2.1001 -1.7581 0.9626
6.2700 3.3839 -1.3392 0.9714
4.0631 4.6516 -1.1609 0.9752
2.9579 4.9456 -1.0832 0.9768
1.5491 5.5851 -1.0894 0.9767
0.5335 2.9140 -0.5568 0.9880
0.5533 6.0238 -1.1370 0.9757
-0.5787 6.6076 -1.2467 0.9734
-1.1244 6.2920 -1.2014 0.9743
-3.4047 12.4807 -2.4316 0.9487
-6.1523 10.3866 -2.2690 0.9521
-8.6837 8.3798 -2.2682 0.9521
-9.1640 7.3820 -2.2118 0.9532
-9.5462 6.3728 -2.1574 0.9544
-9.8339 5.3614 -2.1052 0.9554
-10.0317 4.3561 -2.0557 0.9565
-10.1442 3.3638 -2.0088 0.9574
-10.1765 2.3903 -1.9648 0.9583
-10.1334 1.4407 -1.9238 0.9592
-10.0198 0.5189 -1.8858 0.9600
-9.8404 -0.3715 -1.8509 0.9607
-9.5997 -1.2279 -1.8191 0.9614
-8.9511 -2.8296 -1.7645 0.9625
-7.6153 -4.9310 -1.7052 0.9637
-7.0861 -5.5463 -1.6914 0.9640
-5.9184 -6.6436 -1.6724 0.9644
-5.2845 -7.1236 -1.6672 0.9645
-3.9277 -7.9418 -1.6653 0.9646
-3.2088 -8.2776 -1.6687 0.9645
-2.4654 -8.5630 -1.6749 0.9644
-0.1082 -9.1014 -1.7108 0.9636
0.7129 -9.1692 -1.7286 0.9633
2.3939 -9.1253 -1.7732 0.9623
4.9675 -8.5762 -1.8629 0.9605
6.6733 -7.8594 -1.9379 0.9589
7.5085 -7.3886 -1.9800 0.9580
9.1118 -6.2123 -2.0728 0.9561
9.8529 -5.4972 -2.1207 0.9551
10.4233 -3.5696 -2.0709 0.9561
11.4560 -1.7430 -2.1781 0.9539
11.8586 -0.7303 -2.2332 0.9528
9.3826 1.9698 -1.8020 0.9617
8.2502 2.5198 -1.6214 0.9655
7.3104 2.9700 -1.4831 0.9684
6.4426 3.3163 -1.3620 0.9709
4.5010 4.1415 -1.1496 0.9754
4.1766 4.5972 -1.1674 0.9750
3.0585 4.8944 -1.0848 0.9768
2.1297 5.3387 -1.0804 0.9769
4.6230 4.1574 -1.3142 0.9749
3.0911 4.8234 -1.2110 0.9769
2.1683 5.2605 -1.2027 0.9770
0.6442 2.9929 -0.6471 0.9876
0.3816 3.0990 -0.6600 0.9873
0.2078 6.2854 -1.3293 0.9746
-0.8730 5.9400 -1.2691 0.9758
-4.3698 9.9352 -2.2943 0.9566
-5.8179 8.6271 -2.1995 0.9584
-6.4232 7.8976 -2.1518 0.9592
-7.4862 7.6852 -2.2678 0.9571
-2.4017 2.0602 -0.6689 0.9871
-8.6625 5.0763 -2.1223 0.9598
-8.8890 4.1912 -2.0773 0.9606
-9.0377 3.3104 -2.0345 0.9614
-9.1124 2.4400 -1.9940 0.9622
-9.1168 1.5851 -1.9560 0.9629
-8.5096 -1.5993 -1.8303 0.9652
-8.2203 -2.3216 -1.8056 0.9657
-7.8829 -3.0099 -1.7836 0.9661
-7.5006 -3.6624 -1.7644 0.9664
-7.0765 -4.2776 -1.7479 0.9668
-6.1136 -5.3909 -1.7229 0.9672
-5.5799 -5.8867 -1.7145 0.9674
-5.0146 -6.3404 -1.7087 0.9675
-3.7980 -7.1169 -1.7052 0.9676
-2.4807 -7.7112 -1.7123 0.9674
-1.7895 -7.9368 -1.7198 0.9673
-0.3529 -8.2378 -1.7429 0.9669
1.1410 -8.3279 -1.7768 0.9662
1.9028 -8.2896 -1.7978 0.9658
2.6708 -8.1933 -1.8216 0.9654
6.4731 -6.7763 -1.9809 0.9624
7.8885 -5.7433 -2.0626 0.9609
8.5498 -5.1231 -2.1069 0.9601
8.5105 -4.1147 -1.9982 0.9621
9.0416 -3.4123 -2.0428 0.9613
9.9372 -1.8278 -2.1358 0.9595
10.2850 -0.9533 -2.1834 0.9587
10.5548 -0.0311 -2.2311 0.9578
10.7385 0.9316 -2.2784 0.9569
7.6085 2.8203 -1.7152 0.9674
6.7675 3.2230 -1.5845 0.9698
5.3636 3.8569 -1.3965 0.9734
3.8351 4.7529 -1.2910 0.9753
2.2682 5.2118 -1.2015 0.9770
0.3272 6.2196 -1.3165 0.9749
-4.1934 10.0629 -2.3044 0.9564
-5.6752 8.7804 -2.2099 0.9582
-6.2981 8.0602 -2.1622 0.9590
-8.2769 6.1506 -2.1797 0.9587
-8.6025 5.2694 -2.1324 0.9596
-8.8464 4.3841 -2.0870 0.9604
-9.0739 0.9305 -1.9281 0.9634
-8.9628 0.1139 -1.8947 0.9640
-8.5660 -1.4374 -1.8360 0.9651
-7.9604 -2.8627 -1.7882 0.9660
-7.1725 -4.1466 -1.7512 0.9667
-6.7175 -4.7317 -1.7368 0.9670
-6.2256 -5.2773 -1.7251 0.9672
-5.6991 -5.7821 -1.7161 0.9674
-5.1406 -6.2450 -1.7098 0.9675
-4.5521 -6.6650 -1.7061 0.9675
-3.2941 -7.3715 -1.7067 0.9675
-1.2359 -8.0787 -1.7275 0.9671
0.2254 -8.2989 -1.7549 0.9666
1.7360 -8.3029 -1.7930 0.9659
2.5030 -8.2193 -1.8162 0.9655
3.2734 -8.0763 -1.8421 0.9650
4.0439 -7.8719 -1.8707 0.9645
4.8104 -7.6042 -1.9020 0.9639
5.5684 -7.2716 -1.9360 0.9632
6.3130 -6.8723 -1.9726 0.9626
8.3884 -4.2596 -1.9887 0.9623
9.4205 -2.8205 -2.0786 0.9606
10.1216 1.5971 -2.1660 0.9590
6.1942 3.5008 -1.5040 0.9713
5.5078 3.7997 -1.4144 0.9730
4.8770 4.0530 -1.3404 0.9744
4.3231 4.3013 -1.2891 0.9754
3.9461 4.6997 -1.2972 0.9752
3.2981 4.7293 -1.2188 0.9767
2.3681 5.1634 -1.2008 0.9770
0.4734 2.9049 -0.6221 0.9880
-0.1125 6.4638 -1.3665 0.9739
-0.7300 6.8044 -1.4466 0.9724
-1.2131 6.0984 -1.3143 0.9749
-4.0137 10.1871 -2.3145 0.9562
-5.5286 8.9314 -2.2204 0.9580
-6.1691 8.2210 -2.1726 0.9588
-8.1947 6.3415 -2.1903 0.9585
-8.5385 5.4622 -2.1426 0.9594
-8.9822 3.6937 -2.0529 0.9611
-8.6199 -1.2740 -1.8419 0.9650
-7.6728 -3.3822 -1.7724 0.9663
-6.3359 -5.1617 -1.7275 0.9671
-4.6829 -6.5771 -1.7067 0.9675
-3.4362 -7.3033 -1.7061 0.9675
-1.3915 -8.0422 -1.7252 0.9672
-0.6718 -8.1896 -1.7369 0.9670
2.3352 -8.2426 -1.8109 0.9656
3.8760 -7.9218 -1.8642 0.9646
4.6437 -7.6681 -1.8949 0.9640
6.1520 -6.9652 -1.9644 0.9627
6.8823 -6.5130 -2.0029 0.9620
8.8743 -4.7265 -2.1253 0.9597
9.3183 -2.9893 -2.0686 0.9608
10.6695 0.5071 -2.2579 0.9573
10.4444 1.4397 -2.2286 0.9578
9.0973 2.0961 -1.9734 0.9626
8.0184 2.6211 -1.7832 0.9661
7.1158 3.0541 -1.6368 0.9688
6.3483 3.4262 -1.5249 0.9709
5.6562 3.7413 -1.4335 0.9727
4.0581 4.6459 -1.3039 0.9751
3.4030 4.6821 -1.2235 0.9766
2.9294 4.8979 -1.2064 0.9769
2.0098 5.3386 -1.2058 0.9769
-2.9498 10.8132 -2.3692 0.9552
-4.6419 9.7264 -2.2781 0.9569
-5.3783 9.0800 -2.2308 0.9578
-6.0362 8.3798 -2.1830 0.9587
-7.6610 7.3929 -2.2504 0.9574
-8.1085 6.5318 -2.2009 0.9583
-8.4706 5.6548 -2.1528 0.9592
-8.7498 4.7704 -2.1066 0.9601
-8.9490 3.8860 -2.0623 0.9609
-9.1217 2.1426 -1.9806 0.9624
-9.1027 1.2942 -1.9435 0.9631
-9.0188 0.4671 -1.9089 0.9638
-8.8737 -0.3350 -1.8771 0.9643
-8.6714 -1.1091 -1.8479 0.9649
-8.1090 -2.5634 -1.7977 0.9658
-7.3587 -3.8792 -1.7584 0.9666
-6.4446 -5.0442 -1.7299 0.9671
-5.9329 -5.5669 -1.7197 0.9673
-4.8124 -6.4871 -1.7074 0.9675
-4.2080 -6.8824 -1.7052 0.9676
-1.5462 -8.0033 -1.7230 0.9672
-0.8302 -8.1619 -1.7342 0.9670
0.6471 -8.3225 -1.7645 0.9664
4.4767 -7.7289 -1.8880 0.9641
5.9901 -7.0548 -1.9563 0.9629
8.1211 -5.5368 -2.0776 0.9606
9.2133 -3.1552 -2.0585 0.9610
9.6714 -2.3715 -2.1049 0.9601
10.0656 -1.5314 -2.1522 0.9592
10.7802 1.2723 -2.2946 0.9566
9.3645 1.9660 -2.0226 0.9616
5.8090 3.6814 -1.4537 0.9723
4.5508 4.1873 -1.3072 0.9750
4.1714 4.5915 -1.3113 0.9750
3.6614 4.8363 -1.2822 0.9755
3.0313 4.8508 -1.2091 0.9769
3.7206 4.7998 -1.4273 0.9754
2.6701 5.1232 -1.3578 0.9765
1.5911 3.8601 -0.9812 0.9830
0.3773 3.0640 -0.7256 0.9874
0.2100 6.3537 -1.4941 0.9742
-2.3162 9.6572 -2.3340 0.9600
-3.8649 8.7875 -2.2562 0.9613
-4.5504 8.2540 -2.2151 0.9620
-5.7222 7.0357 -2.1314 0.9634
-6.2040 6.3689 -2.0896 0.9641
-2.4013 2.0599 -0.7436 0.9871
-7.4959 5.3463 -2.1639 0.9629
-8.0099 3.7767 -2.0813 0.9643
-8.1606 2.9891 -2.0425 0.9649
-8.2629 1.4366 -1.9711 0.9661
-8.1206 -0.0553 -1.9086 0.9672
-7.7593 -1.4583 -1.8555 0.9681
-7.5044 -2.1195 -1.8327 0.9685
-6.8611 -3.3501 -1.7945 0.9691
-4.5994 -5.8154 -1.7425 0.9700
-4.0546 -6.1928 -1.7396 0.9700
-3.4841 -6.5287 -1.7392 0.9701
-2.8902 -6.8220 -1.7413 0.9700
-2.2749 -7.0715 -1.7458 0.9699
-1.6405 -7.2757 -1.7529 0.9698
-0.9891 -7.4334 -1.7624 0.9697
-0.3231 -7.5432 -1.7744 0.9695
1.0431 -7.6133 -1.8060 0.9689
2.4364 -7.4740 -1.8475 0.9682
6.5001 -5.6871 -2.0299 0.9651
7.1133 -5.1789 -2.0679 0.9645
7.6914 -4.6087 -2.1073 0.9638
7.6412 -3.6944 -1.9948 0.9657
8.0996 -3.0568 -2.0347 0.9651
8.5082 -2.3674 -2.0756 0.9644
9.1479 -0.8479 -2.1592 0.9630
9.3653 -0.0276 -2.2011 0.9622
9.5626 1.7008 -2.2827 0.9609
7.5959 2.8157 -1.9039 0.9673
6.7572 3.2181 -1.7590 0.9697
6.0355 3.5683 -1.6479 0.9716
5.3942 3.8789 -1.5615 0.9731
4.8118 4.1602 -1.4950 0.9742
1.8387 5.5299 -1.3696 0.9763
0.4284 2.9959 -0.7113 0.9876
0.3313 6.2966 -1.4819 0.9744
-0.2425 6.5665 -1.5443 0.9734
-1.5772 7.1922 -1.7305 0.9702
-4.4064 8.3752 -2.2242 0.9619
-5.0410 7.7992 -2.1825 0.9626
-6.1049 6.5169 -2.0987 0.9640
-7.4221 5.5154 -2.1733 0.9627
-7.7314 4.7358 -2.1309 0.9634
-8.2350 0.8444 -1.9456 0.9666
-8.1472 0.1035 -1.9149 0.9671
-7.5640 -1.9777 -1.8375 0.9684
-6.1529 -4.3340 -1.7688 0.9695
-5.7056 -4.8365 -1.7579 0.9697
-4.1757 -6.1139 -1.7401 0.9700
-3.0216 -6.7618 -1.7406 0.9700
-0.4695 -7.5234 -1.7716 0.9695
2.9831 -7.3600 -1.8665 0.9679
4.3711 -6.9098 -1.9216 0.9670
5.7172 -6.2237 -1.9862 0.9659
6.3625 -5.7899 -2.0218 0.9653
6.9821 -5.2950 -2.0595 0.9646
2.3225 -0.9287 -0.5879 0.9898
8.4237 -2.5220 -2.0666 0.9645
8.7883 -1.7945 -2.1081 0.9638
9.4818 0.6364 -2.2335 0.9617
7.7963 2.7181 -1.9405 0.9666
6.1852 3.4957 -1.6698 0.9712
5.5284 3.8140 -1.5785 0.9728
3.9412 4.6939 -1.4405 0.9751
2.8749 5.0271 -1.3611 0.9765
1.9411 5.4783 -1.3660 0.9764
1.4670 5.7204 -1.3879 0.9760
0.4694 2.8803 -0.6859 0.9881
-0.7290 6.7949 -1.6061 0.9723
-1.2105 6.0854 -1.4582 0.9748
-2.7748 9.4416 -2.3128 0.9604
-5.4900 7.3160 -2.1497 0.9631
-6.0024 6.6636 -2.1078 0.9638
-8.2156 2.5474 -2.0216 0.9653
-8.2623 1.7713 -1.9860 0.9659
-8.2465 1.0086 -1.9525 0.9664
-8.1712 0.2634 -1.9214 0.9670
-8.0398 -0.4608 -1.8926 0.9675
-7.8555 -1.1610 -1.8663 0.9679
-7.3405 -2.4791 -1.8209 0.9687
-6.6500 -3.6733 -1.7855 0.9693
-6.2459 -4.2196 -1.7715 0.9695
-4.8285 -5.6380 -1.7446 0.9700
-4.2956 -6.0331 -1.7406 0.9700
-3.7360 -6.3873 -1.7391 0.9701
-1.2753 -7.3704 -1.7580 0.9697
-0.6153 -7.5013 -1.7689 0.9695
0.0579 -7.5834 -1.7823 0.9693
0.7419 -7.6154 -1.7983 0.9690
2.8306 -7.3953 -1.8610 0.9680
4.2211 -6.9703 -1.9151 0.9671
6.2237 -5.8898 -2.0139 0.9654
6.8495 -5.4082 -2.0511 0.9648
7.4448 -4.8656 -2.0902 0.9641
7.4273 -3.9558 -1.9777 0.9660
8.3365 -2.6743 -2.0576 0.9647
8.7139 -1.9573 -2.0990 0.9640
9.4542 0.4494 -2.2245 0.9619
9.5482 1.3161 -2.2653 0.9612
5.6656 3.7475 -1.5965 0.9725
4.0531 4.6402 -1.4480 0.9750
2.9781 4.9794 -1.3636 0.9764
2.5088 5.2000 -1.3569 0.9766
2.0432 5.4274 -1.3630 0.9765
1.5716 5.6663 -1.3820 0.9761
0.5681 6.1849 -1.4597 0.9748
-0.5894 6.7294 -1.5876 0.9726
-2.5992 9.5280 -2.3211 0.9602
-5.3690 7.4534 -2.1589 0.9630
-2.5206 2.0304 -0.7607 0.9868
-7.6056 5.0773 -2.1492 0.9631
-7.8735 4.2926 -2.1076 0.9638
-8.0698 3.5042 -2.0677 0.9645
-8.1968 2.7180 -2.0296 0.9651
-8.2551 1.1736 -1.9596 0.9663
-8.0731 -0.3048 -1.8987 0.9673
-7.9001 -1.0105 -1.8718 0.9678
-7.6765 -1.6900 -1.8474 0.9682
-7.4056 -2.3411 -1.8254 0.9686
-6.3372 -4.1034 -1.7744 0.9695
-5.9049 -4.6218 -1.7623 0.9697
-4.9411 -5.5465 -1.7458 0.9699
-3.8602 -6.3136 -1.7392 0.9701
-3.2814 -6.6350 -1.7397 0.9700
-2.6799 -6.9133 -1.7426 0.9700
-0.7605 -7.4768 -1.7663 0.9696
0.5919 -7.6128 -1.7946 0.9691
1.2825 -7.6045 -1.8125 0.9688
1.9789 -7.5433 -1.8328 0.9685
2.6781 -7.4278 -1.8557 0.9681
4.0707 -7.0279 -1.9088 0.9672
4.7563 -6.7407 -1.9389 0.9667
7.3178 -4.9892 -2.0815 0.9643
7.8656 -4.3885 -2.1169 0.9637
7.8049 -3.4801 -2.0084 0.9655
8.2468 -2.8242 -2.0487 0.9648
8.9670 -1.3643 -2.1317 0.9634
9.5349 1.1251 -2.2565 0.9613
9.3462 1.9622 -2.2445 0.9615
8.2214 2.5110 -2.0203 0.9653
5.8060 3.6795 -1.6155 0.9722
5.1872 3.9790 -1.5365 0.9735
4.6212 4.2521 -1.4759 0.9745
4.1662 4.5858 -1.4561 0.9749
2.6106 5.1514 -1.3573 0.9765
3.1675 4.9425 -1.5200 0.9760
1.5828 3.8401 -1.0754 0.9830
1.7474 5.6192 -1.5236 0.9760
0.2098 6.3453 -1.6438 0.9741
-2.7871 8.2750 -2.2608 0.9646
-4.0825 7.4051 -2.1894 0.9657
-5.5986 5.7474 -2.0774 0.9674
-7.2821 3.4335 -2.0845 0.9673
-7.5205 0.6231 -1.9539 0.9693
-7.1244 -1.3390 -1.8769 0.9705
-6.3167 -3.0843 -1.8201 0.9714
-5.5846 -4.0991 -1.7936 0.9718
-4.2442 -5.3663 -1.7715 0.9721
-3.7419 -5.7153 -1.7687 0.9722
-1.5131 -6.7108 -1.7812 0.9720
-0.2977 -6.9509 -1.8014 0.9717
0.9598 -7.0056 -1.8308 0.9712
2.2378 -6.8649 -1.8695 0.9706
4.7511 -5.9596 -1.9734 0.9690
6.4707 -4.7111 -2.0724 0.9675
7.9850 -1.4688 -2.1021 0.9670
8.2285 -0.7627 -2.1396 0.9664
8.4076 -0.0248 -2.1769 0.9659
7.5833 2.8110 -2.0940 0.9671
5.3868 3.8736 -1.7179 0.9730
4.8055 4.1548 -1.6448 0.9741
4.3426 4.4926 -1.6178 0.9745
3.8257 4.7413 -1.5774 0.9751
3.2719 4.8926 -1.5239 0.9760
2.3259 5.3443 -1.5091 0.9762
0.7741 3.2836 -0.8735 0.9862
0.4276 2.9901 -0.7821 0.9876
-0.2422 6.5576 -1.6990 0.9733
-0.7624 5.9994 -1.5658 0.9753
-1.5748 7.1813 -1.9035 0.9701
-2.6338 8.3553 -2.2683 0.9644
-3.3182 7.9625 -2.2335 0.9650
-3.9515 7.5108 -2.1974 0.9655
-2.3852 2.1284 -0.8277 0.9869
-6.7207 4.9942 -2.1680 0.9660
-7.4043 2.8772 -2.0568 0.9677
-7.5055 2.1676 -2.0227 0.9682
-7.5470 1.4645 -1.9905 0.9687
-7.5313 0.7723 -1.9602 0.9692
-7.3391 -0.5646 -1.9058 0.9700
-7.1680 -1.2028 -1.8819 0.9704
-6.9506 -1.8173 -1.8601 0.9708
-6.0474 -3.4962 -1.8086 0.9715
-5.6712 -3.9947 -1.7961 0.9717
-5.2614 -4.4599 -1.7858 0.9719
-4.8204 -4.8905 -1.7779 0.9720
-3.8537 -5.6424 -1.7691 0.9722
-3.3323 -5.9612 -1.7682 0.9722
-1.6423 -6.6738 -1.7795 0.9720
-1.0443 -6.8260 -1.7879 0.9719
0.8212 -7.0090 -1.8272 0.9713
1.4583 -6.9745 -1.8449 0.9710
3.3735 -6.5669 -1.9115 0.9700
4.6185 -6.0312 -1.9669 0.9691
5.2193 -5.6818 -1.9976 0.9686
5.7994 -5.2775 -2.0302 0.9681
6.3537 -4.8184 -2.0647 0.9676
6.8768 -4.3052 -2.1007 0.9670
2.3226 -0.9287 -0.6477 0.9897
8.3743 -0.1882 -2.1688 0.9660
8.5512 1.3493 -2.2414 0.9649
6.9172 3.1301 -1.9658 0.9691
5.5208 3.8087 -1.7366 0.9727
4.9282 4.0955 -1.6591 0.9739
0.4500 6.2323 -1.6179 0.9745
-0.7280 6.7854 -1.7669 0.9722
-1.2079 6.0724 -1.6030 0.9747
-3.8180 7.6139 -2.2054 0.9654
-5.8219 5.4028 -2.0565 0.9677
-6.6479 5.1445 -2.1765 0.9659
-6.9554 4.4495 -2.1379 0.9665
-7.1970 3.7434 -2.1004 0.9670
-7.3740 3.0324 -2.0644 0.9676
-7.4886 2.3220 -2.0300 0.9681
-7.5429 1.6171 -1.9974 0.9686
-7.4809 0.2412 -1.9379 0.9695
-7.0019 -1.6854 -1.8647 0.9707
-6.7502 -2.2797 -1.8447 0.9710
-6.4570 -2.8463 -1.8270 0.9713
-5.7562 -3.8887 -1.7986 0.9717
-5.3535 -4.3614 -1.7879 0.9719
-4.9191 -4.7996 -1.7795 0.9720
-3.9642 -5.5677 -1.7696 0.9722
-3.4480 -5.8950 -1.7682 0.9722
-2.3491 -6.4297 -1.7724 0.9721
-1.7707 -6.6348 -1.7780 0.9720
-1.1760 -6.7966 -1.7859 0.9719
-0.5672 -6.9139 -1.7962 0.9717
0.0533 -6.9855 -1.8087 0.9715
4.4852 -6.1002 -1.9604 0.9692
6.2353 -4.9232 -2.0570 0.9677
2.3081 -0.9756 -0.6488 0.9897
8.1298 -1.0750 -2.1233 0.9667
8.4782 0.4030 -2.1976 0.9655
8.5464 1.1780 -2.2337 0.9650
8.5378 1.9672 -2.2685 0.9644
7.9908 2.6121 -2.1767 0.9659
6.3296 3.4161 -1.8623 0.9707
5.6577 3.7423 -1.7563 0.9724
4.0481 4.6344 -1.5932 0.9749
3.0031 5.0212 -1.5149 0.9761
0.5213 2.8472 -0.7495 0.9881
0.0137 6.4375 -1.6668 0.9738
-2.3205 8.5063 -2.2829 0.9642
-3.0255 8.1416 -2.2488 0.9647
-3.6818 7.7146 -2.2133 0.9653
-4.2843 7.2330 -2.1766 0.9659
-4.8294 6.7044 -2.1394 0.9664
-5.3144 6.1366 -2.1019 0.9670
-5.7378 5.5370 -2.0646 0.9676
-7.3408 3.1877 -2.0721 0.9675
-7.4688 2.4766 -2.0374 0.9680
-7.5361 1.7701 -2.0043 0.9685
-7.2485 -0.9271 -1.8921 0.9703
-7.0510 -1.5523 -1.8693 0.9706
-6.2005 -3.2687 -1.8148 0.9715
-5.8396 -3.7812 -1.8013 0.9717
-5.0165 -4.7070 -1.7811 0.9720
-4.5589 -5.1175 -1.7745 0.9721
-3.5627 -5.8269 -1.7683 0.9722
-3.0284 -6.1234 -1.7688 0.9722
-1.8984 -6.5937 -1.7766 0.9720
-0.7010 -6.8922 -1.7937 0.9718
0.5449 -7.0087 -1.8202 0.9714
1.8188 -6.9331 -1.8558 0.9708
2.4589 -6.8200 -1.8771 0.9705
3.0968 -6.6553 -1.9006 0.9701
3.7289 -6.4377 -1.9263 0.9697
6.1154 -5.0254 -2.0494 0.9678
6.6528 -4.5357 -2.0848 0.9673
7.1350 -3.9808 -2.1154 0.9668
7.0700 -3.1524 -2.0043 0.9685
7.4563 -2.5535 -2.0406 0.9680
7.7936 -1.9111 -2.0777 0.9674
8.0760 -1.2287 -2.1151 0.9668
8.4536 0.2366 -2.1896 0.9657
8.5379 1.0075 -2.2260 0.9651
8.2069 2.5065 -2.2218 0.9652
7.2752 2.9557 -2.0332 0.9681
6.4873 3.3394 -1.8892 0.9703
5.7978 3.6743 -1.7772 0.9720
4.1610 4.5801 -1.6022 0.9748
3.6525 4.8245 -1.5667 0.9753
2.6339 5.1975 -1.5087 0.9762
5.2484 3.9317 -1.8565 0.9731
4.6787 4.2075 -1.7813 0.9742
4.2222 4.5423 -1.7556 0.9745
3.1637 4.9365 -1.6598 0.9759
0.3737 3.0348 -0.8656 0.9874
-0.8704 5.9227 -1.6947 0.9754
-1.8635 7.7694 -2.2618 0.9673
-2.5167 7.4722 -2.2321 0.9678
-3.1298 7.1160 -2.2007 0.9682
-4.2165 6.2524 -2.1349 0.9691
-6.1953 4.4187 -2.1542 0.9689
-6.9411 1.2068 -1.9945 0.9711
-6.7408 -0.6511 -1.9172 0.9722
-6.1306 -2.3408 -1.8577 0.9731
-5.8473 -2.8551 -1.8421 0.9733
-5.5281 -3.3416 -1.8287 0.9735
-5.1752 -3.7986 -1.8174 0.9737
-4.7908 -4.2245 -1.8082 0.9738
-4.3773 -4.6179 -1.8013 0.9739
-3.4712 -5.3017 -1.7939 0.9740
-1.9466 -6.0509 -1.7994 0.9739
-0.8452 -6.3519 -1.8140 0.9737
-0.2758 -6.4393 -1.8246 0.9736
0.3028 -6.4831 -1.8373 0.9734
2.6553 -6.2007 -1.9095 0.9723
3.8107 -5.7715 -1.9579 0.9717
4.3707 -5.4825 -1.9849 0.9713
4.9134 -5.1435 -2.0137 0.9709
6.3824 -3.8244 -2.1064 0.9695
6.6839 -2.5225 -2.0224 0.9707
7.4690 -0.6923 -2.1235 0.9693
7.6193 -0.0224 -2.1570 0.9688
7.7064 0.6686 -2.1898 0.9684
7.7264 1.3742 -2.2216 0.9679
7.5531 2.7999 -2.2804 0.9671
6.7363 3.2081 -2.1122 0.9695
6.0180 3.5580 -1.9791 0.9714
5.3794 3.8682 -1.8757 0.9728
4.7991 4.1493 -1.7960 0.9740
3.2679 4.8866 -1.6642 0.9759
2.7707 5.0721 -1.6361 0.9763
0.3304 6.2801 -1.7803 0.9742
-0.2419 6.5487 -1.8551 0.9731
-0.7625 6.0001 -1.7123 0.9752
-2.9998 7.1984 -2.2077 0.9681
-4.1076 6.3552 -2.1422 0.9690
-4.5859 5.8689 -2.1085 0.9695
-2.3881 2.1309 -0.9061 0.9868
-6.4115 3.9273 -2.1285 0.9692
-6.9379 1.3463 -2.0007 0.9710
-6.9320 0.7108 -1.9727 0.9714
-6.8753 0.0874 -1.9465 0.9718
-6.7700 -0.5208 -1.9222 0.9722
-6.6187 -1.1107 -1.8999 0.9725
-6.4237 -1.6795 -1.8796 0.9728
-6.1874 -2.2251 -1.8614 0.9730
-5.9123 -2.7452 -1.8454 0.9733
-5.6007 -3.2379 -1.8314 0.9735
-5.2549 -3.7015 -1.8196 0.9736
-4.8773 -4.1343 -1.8100 0.9738
-3.5747 -5.2340 -1.7943 0.9740
-1.5228 -6.1881 -1.8041 0.9739
-0.4009 -6.4239 -1.8221 0.9736
1.9387 -6.3664 -1.8840 0.9727
3.1112 -6.0563 -1.9275 0.9721
3.6867 -5.8279 -1.9522 0.9717
4.7967 -5.2217 -2.0073 0.9710
5.3228 -4.8438 -2.0374 0.9705
5.8235 -4.4163 -2.0690 0.9701
6.2917 -3.9389 -2.1014 0.9696
2.3226 -0.9287 -0.7081 0.9897
6.9322 -2.0755 -2.0485 0.9704
7.2067 -1.4716 -2.0823 0.9699
7.4282 -0.8350 -2.1161 0.9694
7.5918 -0.1706 -2.1497 0.9689
7.6930 0.5163 -2.1827 0.9685
7.6932 1.9315 -2.2455 0.9676
6.1670 3.4855 -2.0054 0.9710
4.9216 4.0900 -1.8116 0.9737
3.9314 4.6822 -1.7308 0.9749
3.3728 4.8363 -1.6692 0.9758
1.9536 5.5135 -1.6559 0.9760
1.4724 5.7416 -1.6780 0.9757
0.4494 6.2242 -1.7666 0.9744
-0.1129 6.4882 -1.8370 0.9734
-2.8676 7.2783 -2.2146 0.9680
-3.4558 6.8916 -2.1825 0.9685
-3.9964 6.4561 -2.1495 0.9689
-4.9223 5.4645 -2.0820 0.9699
-5.3036 4.9217 -2.0483 0.9704
-6.3561 4.0661 -2.1361 0.9691
-6.5868 3.4260 -2.1018 0.9696
-6.8733 2.1312 -2.0372 0.9705
-6.9323 1.4862 -2.0071 0.9710
-6.9377 0.8486 -1.9787 0.9714
-6.8919 0.2222 -1.9521 0.9717
-6.6555 -0.9837 -1.9046 0.9724
-5.6717 -3.1329 -1.8343 0.9734
-5.3332 -3.6029 -1.8220 0.9736
-4.9623 -4.0426 -1.8119 0.9737
-4.5612 -4.4504 -1.8040 0.9739
-3.1986 -5.4685 -1.7935 0.9740
-2.6984 -5.7352 -1.7943 0.9740
-2.1788 -5.9636 -1.7974 0.9740
-1.0901 -6.3004 -1.8101 0.9738
-0.5255 -6.4064 -1.8197 0.9736
0.0494 -6.4694 -1.8315 0.9735
0.6321 -6.4882 -1.8455 0.9733
1.2199 -6.4616 -1.8615 0.9730
1.8100 -6.3886 -1.8798 0.9728
2.9845 -6.0996 -1.9224 0.9722
3.5620 -5.8819 -1.9467 0.9718
4.6791 -5.2976 -2.0009 0.9710
6.1592 -3.2804 -1.9755 0.9714
2.3057 -0.9746 -0.7086 0.9896
7.3847 -0.9765 -2.1087 0.9695
7.6765 0.3649 -2.1756 0.9686
7.7069 1.7757 -2.2389 0.9677
7.6159 2.4895 -2.2683 0.9672
7.0818 3.0395 -2.1817 0.9685
6.3201 3.4109 -2.0331 0.9706
5.0462 4.0297 -1.8281 0.9735
2.5282 5.2401 -1.6471 0.9761
1.4671 3.8972 -1.1789 0.9828
1.5786 5.6913 -1.6720 0.9757
0.5174 2.8257 -0.8132 0.9881
0.5667 6.1690 -1.7538 0.9746
-2.0934 7.6737 -2.2518 0.9675
-2.7334 7.3555 -2.2214 0.9679
-3.8827 6.5549 -2.1568 0.9688
-4.3837 6.0857 -2.1232 0.9693
-5.2252 5.0423 -2.0556 0.9703
-2.5052 2.0180 -0.9107 0.9867
-6.2979 4.2043 -2.1437 0.9690
-6.5415 3.5664 -2.1092 0.9695
-6.7261 2.9207 -2.0759 0.9700
-6.9240 1.6264 -2.0135 0.9709
-6.9410 0.9868 -1.9847 0.9713
-6.8217 -0.2575 -1.9326 0.9720
-6.6902 -0.8557 -1.9094 0.9724
-6.2954 -1.9901 -1.8691 0.9729
-6.0369 -2.5216 -1.8521 0.9732
-5.0458 -3.9494 -1.8140 0.9737
-4.2280 -4.7460 -1.7994 0.9739
-0.6496 -6.3869 -1.8174 0.9737
-0.0768 -6.4594 -1.8287 0.9735
1.6812 -6.4085 -1.8756 0.9728
3.4369 -5.9336 -1.9412 0.9719
4.0059 -5.6773 -1.9670 0.9715
5.0961 -5.0148 -2.0240 0.9707
6.0926 -4.1538 -2.0875 0.9698
6.7971 -2.3278 -2.0339 0.9706
7.3384 -1.1165 -2.1014 0.9696
7.5278 -0.4636 -2.1351 0.9691
7.6568 0.2143 -2.1684 0.9687
7.7171 1.6202 -2.2323 0.9678
7.2633 2.9509 -2.2194 0.9679
6.4774 3.3343 -2.0624 0.9702
5.7895 3.6691 -1.9404 0.9719
4.6092 4.2411 -1.7732 0.9743
3.6479 4.8185 -1.7109 0.9752
3.1030 4.9655 -1.6576 0.9760
2.6307 5.1912 -1.6475 0.9761
5.2412 3.9263 -2.0142 0.9730
4.6725 4.2019 -1.9328 0.9740
4.2167 4.5364 -1.9050 0.9744
3.7068 4.7820 -1.8610 0.9750
3.1597 4.9304 -1.8012 0.9758
2.6874 5.1563 -1.7884 0.9760
0.6482 3.0115 -0.9475 0.9872
0.3739 3.0361 -0.9409 0.9873
-0.3729 6.6011 -2.0336 0.9727
-1.6947 7.0658 -2.2349 0.9700
-2.2916 6.8036 -2.2082 0.9704
-3.8542 5.7152 -2.1203 0.9716
-2.4002 2.0590 -0.9727 0.9869
-5.9486 3.4860 -2.1207 0.9716
-6.2878 2.3031 -2.0596 0.9724
-6.3783 1.7079 -2.0309 0.9727
-6.3526 -0.0433 -1.9540 0.9738
-6.1069 -1.1478 -1.9112 0.9743
-5.9218 -1.6725 -1.8927 0.9746
-5.6981 -2.1757 -1.8760 0.9748
-5.4381 -2.6553 -1.8614 0.9750
-4.8175 -3.5360 -1.8381 0.9753
-4.4613 -3.9339 -1.8295 0.9754
-3.2341 -4.9397 -1.8160 0.9756
-2.3049 -5.4406 -1.8174 0.9756
-0.7869 -5.9136 -1.8349 0.9753
-0.2567 -5.9926 -1.8449 0.9752
0.2817 -6.0304 -1.8569 0.9751
2.4631 -5.7519 -1.9246 0.9742
3.0007 -5.5708 -1.9462 0.9739
3.5285 -5.3440 -1.9697 0.9736
4.0429 -5.0712 -1.9948 0.9732
4.5399 -4.7525 -2.0216 0.9729
5.0155 -4.3882 -2.0498 0.9725
5.4652 -3.9790 -2.0793 0.9721
5.8733 -3.5193 -2.1060 0.9718
5.8177 -2.8128 -1.9876 0.9733
6.1374 -2.3162 -2.0177 0.9729
7.0381 1.2518 -2.1987 0.9705
6.9838 1.8990 -2.2261 0.9702
6.8641 2.5444 -2.2516 0.9698
6.6782 3.1804 -2.2751 0.9695
4.3314 4.4811 -1.9169 0.9743
2.7673 5.0659 -1.7755 0.9761
1.6501 3.7914 -1.2718 0.9828
1.8474 5.5559 -1.8009 0.9758
1.3638 5.7849 -1.8281 0.9754
0.4269 2.9851 -0.9275 0.9875
0.3300 6.2718 -1.9317 0.9741
-0.2415 6.5396 -2.0128 0.9730
-0.7626 6.0009 -1.8606 0.9750
-1.5604 7.1153 -2.2405 0.9700
-3.2652 6.2062 -2.1570 0.9711
-4.5909 4.9008 -2.0655 0.9723
-5.2303 3.8867 -2.0043 0.9731
-6.2611 2.4330 -2.0661 0.9723
-6.3630 1.8376 -2.0371 0.9727
-6.4150 0.6578 -1.9835 0.9734
-6.2771 -0.4829 -1.9364 0.9740
-6.1419 -1.0307 -1.9155 0.9743
-4.1633 -4.2239 -1.8242 0.9755
-3.3306 -4.8765 -1.8164 0.9756
-2.8802 -5.1524 -1.8156 0.9756
-1.4183 -5.7634 -1.8256 0.9755
-0.9012 -5.8910 -1.8330 0.9754
-0.3731 -5.9788 -1.8425 0.9752
0.1637 -6.0257 -1.8541 0.9751
0.7066 -6.0308 -1.8676 0.9749
2.3449 -5.7854 -1.9201 0.9742
3.4144 -5.3974 -1.9644 0.9736
3.9320 -5.1347 -1.9892 0.9733
4.4332 -4.8260 -2.0156 0.9729
4.9138 -4.4716 -2.0435 0.9726
5.3696 -4.0721 -2.0728 0.9722
5.7909 -3.6254 -2.1014 0.9718
5.7429 -2.9163 -1.9811 0.9734
2.3227 -0.9288 -0.7694 0.9896
6.6016 -1.3480 -2.0724 0.9722
6.7951 -0.7639 -2.1032 0.9718
7.0186 0.4711 -2.1636 0.9710
7.0414 1.1111 -2.1926 0.9706
7.0011 1.7577 -2.2202 0.9702
3.9264 4.6763 -1.8781 0.9748
3.3686 4.8303 -1.8113 0.9757
2.8927 5.0582 -1.7922 0.9759
0.4608 2.8270 -0.8810 0.9881
0.4489 6.2160 -1.9169 0.9743
-0.7259 6.7660 -2.0930 0.9719
-1.2029 6.0471 -1.8964 0.9745
-2.6129 6.6317 -2.1924 0.9706
-4.1038 5.4687 -2.1030 0.9718
-4.5090 5.0057 -2.0722 0.9722
-4.8649 4.5146 -2.0414 0.9726
-5.1704 4.0011 -2.0109 0.9730
-5.8421 3.7373 -2.1331 0.9714
-6.0659 3.1551 -2.1030 0.9718
-6.2320 2.5628 -2.0726 0.9722
-6.4069 1.3735 -2.0154 0.9730
-6.4189 0.7851 -1.9890 0.9733
-6.3828 0.2058 -1.9642 0.9736
-6.3008 -0.3612 -1.9412 0.9739
-6.1750 -0.9127 -1.9199 0.9742
-6.0074 -1.4461 -1.9005 0.9745
-5.8003 -1.9589 -1.8831 0.9747
-5.2763 -2.9144 -1.8540 0.9751
-4.9637 -3.3533 -1.8425 0.9752
-4.6202 -3.7640 -1.8330 0.9754
-3.4260 -4.8118 -1.8168 0.9756
-1.0150 -5.8665 -1.8312 0.9754
0.0460 -6.0191 -1.8514 0.9751
0.5878 -6.0333 -1.8645 0.9750
1.1337 -6.0049 -1.8796 0.9748
1.6809 -5.9330 -1.8967 0.9745
2.2264 -5.8167 -1.9157 0.9743
3.8204 -5.1959 -1.9836 0.9734
4.8109 -4.5528 -2.0373 0.9727
5.6664 -3.0179 -1.9746 0.9735
2.3033 -0.9736 -0.7691 0.9896
6.2997 -2.0209 -2.0349 0.9727
6.5526 -1.4718 -2.0657 0.9723
6.7573 -0.8935 -2.0965 0.9719
5.6416 3.7317 -2.0805 0.9721
4.4858 4.2922 -1.9096 0.9744
4.0378 4.6227 -1.8879 0.9746
0.5180 2.8290 -0.8846 0.9880
0.5660 6.1609 -1.9030 0.9744
0.0136 6.4201 -1.9747 0.9735
-4.7916 4.6239 -2.0481 0.9725
-5.7816 3.8597 -2.1381 0.9713
-6.0226 3.2835 -2.1098 0.9717
-6.2003 2.6924 -2.0791 0.9721
-6.3249 2.0973 -2.0496 0.9725
-6.4204 0.9128 -1.9946 0.9732
-6.0474 -1.3314 -1.9046 0.9744
-5.8488 -1.8489 -1.8867 0.9747
-5.6123 -2.3442 -1.8707 0.9749
-5.0346 -3.2599 -1.8448 0.9752
-4.6977 -3.6769 -1.8349 0.9753
-3.9384 -4.4210 -1.8211 0.9755
-3.0793 -5.0363 -1.8157 0.9756
-2.6174 -5.2924 -1.8160 0.9756
-1.1283 -5.8402 -1.8295 0.9754
1.5616 -5.9524 -1.8928 0.9746
2.6497 -5.6945 -1.9318 0.9741
3.1843 -5.4976 -1.9541 0.9738
5.1741 -4.2519 -2.0598 0.9724
5.9800 -3.3364 -2.1062 0.9717
5.9326 -2.6453 -1.9979 0.9732
6.2385 -2.1365 -2.0282 0.9728
6.8810 -0.4238 -2.1205 0.9716
6.9896 0.1956 -2.1507 0.9712
6.9499 2.1226 -2.2351 0.9700
6.8073 2.7656 -2.2600 0.9697
5.7811 3.6638 -2.1052 0.9718
5.1660 3.9628 -2.0026 0.9731
4.6031 4.2355 -1.9240 0.9742
2.6275 5.1848 -1.7878 0.9760
1.4852 3.7232 -1.2329 0.9834
5.2338 3.9208 -2.1738 0.9728
3.6377 4.6928 -1.9737 0.9753
3.1558 4.9242 -1.9441 0.9756
2.6840 5.1499 -1.9304 0.9758
1.5036 3.6480 -1.3116 0.9835
1.7409 5.5983 -1.9488 0.9756
0.6554 3.0452 -1.0354 0.9870
-0.3724 6.5917 -2.1946 0.9726
-0.8689 5.9123 -1.9864 0.9751
-1.5522 6.4716 -2.2122 0.9723
-2.6188 5.9542 -2.1622 0.9730
-2.3998 2.0586 -1.0510 0.9868
-5.4993 3.2226 -2.1187 0.9735
-5.6915 2.6835 -2.0916 0.9738
-5.8300 2.1354 -2.0638 0.9742
-5.9626 1.0367 -2.0117 0.9748
-5.8224 -0.5624 -1.9444 0.9756
-5.5232 -1.5599 -1.9078 0.9761
-4.5020 -3.3045 -1.8563 0.9767
-3.8123 -4.0218 -1.8420 0.9769
-3.0247 -4.6198 -1.8355 0.9770
-1.6956 -5.2705 -1.8404 0.9769
-0.2398 -5.5988 -1.8628 0.9767
0.2631 -5.6317 -1.8741 0.9765
1.2803 -5.5777 -1.9023 0.9762
2.2947 -5.3587 -1.9377 0.9757
2.7934 -5.1860 -1.9580 0.9755
3.2820 -4.9707 -1.9800 0.9752
3.7571 -4.7128 -2.0035 0.9749
4.2150 -4.4124 -2.0284 0.9746
4.6519 -4.0701 -2.0547 0.9743
5.4338 -3.2559 -2.1057 0.9737
5.6676 -2.1389 -2.0136 0.9748
6.1250 -1.1266 -2.0701 0.9741
6.3986 1.7399 -2.2041 0.9724
6.2829 2.3290 -2.2273 0.9722
6.1073 2.9086 -2.2486 0.9719
5.8722 3.4718 -2.2676 0.9717
5.3642 3.8574 -2.1962 0.9725
4.7862 4.1381 -2.1032 0.9737
3.7450 4.6412 -1.9824 0.9752
3.2598 4.8744 -1.9492 0.9756
1.8451 5.5490 -1.9438 0.9757
-0.2412 6.5305 -2.1722 0.9728
-0.7627 6.0016 -2.0110 0.9748
-1.4288 6.5156 -2.2173 0.9723
-1.9837 6.2931 -2.1933 0.9726
-2.5087 6.0201 -2.1679 0.9729
-2.9994 5.7010 -2.1413 0.9732
-3.4520 5.3408 -2.1139 0.9736
-3.8636 4.9446 -2.0859 0.9739
-2.3947 2.1368 -1.0668 0.9866
-4.8324 3.5909 -2.0013 0.9749
-5.4471 3.3366 -2.1233 0.9734
-5.6548 2.8024 -2.0978 0.9737
-5.9573 1.1560 -2.0172 0.9747
-5.9640 0.6116 -1.9929 0.9750
-5.9261 0.0753 -1.9700 0.9753
-5.8455 -0.4497 -1.9488 0.9756
-5.3656 -1.9296 -1.8954 0.9763
-5.1329 -2.3833 -1.8812 0.9764
-4.8673 -2.8139 -1.8688 0.9766
-4.2450 -3.5984 -1.8498 0.9768
-3.8925 -3.9492 -1.8432 0.9769
-3.5151 -4.2704 -1.8386 0.9770
-2.6937 -4.8188 -1.8351 0.9770
-2.2538 -5.0435 -1.8363 0.9770
-1.7972 -5.2337 -1.8394 0.9769
-1.3260 -5.3883 -1.8445 0.9769
-0.8424 -5.5062 -1.8516 0.9768
0.1529 -5.6279 -1.8714 0.9765
0.6596 -5.6299 -1.8842 0.9764
1.6785 -5.5120 -1.9153 0.9760
2.1850 -5.3908 -1.9335 0.9758
2.6853 -5.2273 -1.9535 0.9755
3.1765 -5.0213 -1.9750 0.9753
3.6548 -4.7727 -1.9982 0.9750
4.1168 -4.4816 -2.0228 0.9747
2.3229 -0.9288 -0.8316 0.9895
6.2547 -0.7031 -2.0922 0.9738
6.4159 1.6108 -2.1989 0.9725
6.3132 2.2010 -2.2224 0.9722
6.1507 2.7833 -2.2441 0.9719
5.9285 3.3507 -2.2636 0.9717
5.4974 3.7925 -2.2200 0.9722
4.9082 4.0789 -2.1214 0.9735
4.2847 4.2630 -2.0091 0.9748
3.8532 4.5891 -1.9919 0.9751
2.8891 5.0519 -1.9345 0.9758
1.9487 5.4998 -1.9395 0.9757
1.4688 5.7271 -1.9653 0.9754
0.4595 2.8194 -0.9496 0.9880
-0.1126 6.4704 -2.1511 0.9731
-1.8650 6.3461 -2.1987 0.9725
-2.3970 6.0837 -2.1736 0.9728
-4.1553 4.6130 -2.0637 0.9742
-4.7758 3.6958 -2.0073 0.9749
-5.6156 2.9209 -2.1041 0.9737
-5.7756 2.3751 -2.0758 0.9740
-5.9497 1.2755 -2.0227 0.9747
-5.8666 -0.3363 -1.9533 0.9755
-5.7538 -0.8504 -1.9334 0.9758
-5.6015 -1.3484 -1.9152 0.9760
-5.4118 -1.8277 -1.8987 0.9762
-4.3184 -3.5181 -1.8515 0.9768
-2.7873 -4.7653 -1.8351 0.9770
-1.4299 -5.3577 -1.8433 0.9769
-0.4571 -5.5721 -1.8584 0.9767
1.0579 -5.6034 -1.8955 0.9763
2.0748 -5.4208 -1.9294 0.9758
2.5769 -5.2666 -1.9490 0.9756
3.5517 -4.8306 -1.9930 0.9750
4.0176 -4.5487 -2.0173 0.9747
4.4642 -4.2246 -2.0430 0.9744
5.2813 -3.4517 -2.0972 0.9738
5.2430 -2.7924 -1.9746 0.9753
6.2214 -0.8227 -2.0860 0.9739
6.3543 -0.2669 -2.1141 0.9735
6.4613 0.8906 -2.1681 0.9729
6.4304 1.4816 -2.1935 0.9726
6.3407 2.0727 -2.2174 0.9723
6.1913 2.6573 -2.2396 0.9720
5.9820 3.2285 -2.2596 0.9718
5.6335 3.7263 -2.2452 0.9719
3.4695 4.7737 -1.9616 0.9754
2.5220 5.2272 -1.9292 0.9758
-1.0630 5.9482 -2.0085 0.9749
-1.7450 6.3967 -2.2040 0.9724
-2.2836 6.1451 -2.1792 0.9727
-3.2594 5.5027 -2.1259 0.9734
-2.4911 2.0067 -1.0633 0.9866
-5.5742 3.0390 -2.1104 0.9736
-5.8665 1.9453 -2.0545 0.9743
-5.9667 0.8483 -2.0033 0.9749
-5.7819 -0.7396 -1.9376 0.9757
-4.9871 -2.6290 -1.8740 0.9765
-4.7037 -3.0457 -1.8627 0.9767
-4.3905 -3.4365 -1.8533 0.9768
-3.2922 -4.4379 -1.8368 0.9770
-2.4479 -4.9497 -1.8355 0.9770
-1.9983 -5.1551 -1.8378 0.9770
-1.5332 -5.3253 -1.8421 0.9769
-0.5651 -5.5561 -1.8564 0.9767
0.9467 -5.6133 -1.8922 0.9763
1.9646 -5.4488 -1.9253 0.9759
2.9635 -5.1164 -1.9654 0.9754
3.4479 -4.8864 -1.9879 0.9751
5.1995 -3.5449 -2.0918 0.9738
5.4826 -2.4446 -1.9954 0.9750
5.7586 -1.9721 -2.0233 0.9747
5.9944 -1.4699 -2.0516 0.9743
6.1859 -0.9411 -2.0799 0.9740
6.4221 0.1797 -2.1356 0.9733
6.4604 0.7623 -2.1624 0.9730
6.4421 1.3525 -2.1881 0.9726
6.3653 1.9441 -2.2124 0.9723
6.0327 3.1054 -2.2554 0.9718
4.5970 4.2298 -2.0765 0.9740
3.5755 4.7228 -1.9690 0.9753
3.0953 4.9532 -1.9415 0.9757
2.6242 5.1784 -1.9297 0.9758
1.4555 3.6488 -1.3058 0.9836
5.0605 3.7909 -2.2611 0.9735
4.6598 4.1906 -2.2411 0.9737
3.8976 4.1931 -2.0472 0.9760
3.4367 4.4335 -2.0060 0.9765
3.1518 4.9180 -2.0889 0.9755
1.7387 5.5912 -2.0939 0.9754
0.3733 3.0318 -1.0924 0.9871
-0.3521 6.2316 -2.2320 0.9738
-0.8681 5.9071 -2.1351 0.9750
-1.9374 5.7521 -2.1705 0.9745
-2.4172 5.4957 -2.1470 0.9748
-2.8654 5.1975 -2.1224 0.9751
-3.2787 4.8618 -2.0970 0.9754
-3.6544 4.4932 -2.0711 0.9757
-3.9903 4.0964 -2.0450 0.9760
-2.3994 2.0583 -1.1305 0.9867
-4.5374 3.2362 -1.9930 0.9766
-5.1033 2.9906 -2.1153 0.9752
-5.2949 2.4965 -2.0934 0.9754
-5.5174 1.4774 -2.0426 0.9760
-5.5619 0.9670 -2.0188 0.9763
-5.5234 -0.0376 -1.9753 0.9768
-5.3250 -1.0008 -1.9376 0.9772
-4.9803 -1.9016 -1.9064 0.9776
-4.7577 -2.3230 -1.8934 0.9778
-4.2214 -3.0985 -1.8726 0.9780
-3.5763 -3.7730 -1.8591 0.9782
-2.8382 -4.3348 -1.8529 0.9782
-2.0225 -4.7740 -1.8541 0.9782
-1.5907 -4.9447 -1.8575 0.9782
-0.6897 -5.1829 -1.8698 0.9780
0.2465 -5.2775 -1.8893 0.9778
1.1987 -5.2219 -1.9160 0.9775
2.6104 -4.8462 -1.9684 0.9769
3.0647 -4.6416 -1.9890 0.9766
3.5056 -4.3973 -2.0111 0.9764
5.0502 -3.0261 -2.1054 0.9753
4.9957 -2.4153 -1.9843 0.9767
5.4855 -1.5264 -2.0362 0.9761
5.6718 -1.0433 -2.0623 0.9758
5.8147 -0.5390 -2.0883 0.9755
5.9111 -0.0174 -2.1139 0.9752
5.9584 0.5169 -2.1388 0.9749
5.9542 1.0590 -2.1627 0.9746
5.7856 2.1446 -2.2065 0.9741
5.6197 2.6763 -2.2259 0.9739
4.7796 4.1324 -2.2595 0.9735
3.5340 4.3797 -2.0125 0.9764
2.7604 5.0532 -2.0591 0.9758
1.6535 3.7994 -1.4818 0.9826
0.4044 2.8281 -1.0216 0.9879
0.3291 6.2548 -2.2399 0.9737
-0.2307 6.2479 -2.2358 0.9738
-0.7628 6.0024 -2.1638 0.9746
-2.7705 5.2659 -2.1278 0.9750
-3.5758 4.5762 -2.0768 0.9756
-2.4040 2.1451 -1.1522 0.9864
-4.7049 2.8819 -1.9731 0.9768
-5.4034 2.0997 -2.0731 0.9757
-5.5019 1.5889 -2.0479 0.9760
-5.5559 1.0781 -2.0239 0.9762
-5.5667 0.5708 -2.0011 0.9765
-5.4641 -0.4203 -1.9598 0.9770
-5.0246 -1.8069 -1.9095 0.9776
-4.8090 -2.2329 -1.8961 0.9777
-4.5619 -2.6374 -1.8844 0.9779
-3.9813 -3.3748 -1.8664 0.9781
-3.6515 -3.7047 -1.8602 0.9781
-2.9227 -4.2794 -1.8532 0.9782
-1.6861 -4.9103 -1.8566 0.9782
-1.2438 -5.0544 -1.8614 0.9781
-0.7900 -5.1638 -1.8681 0.9781
-0.3269 -5.2374 -1.8766 0.9780
0.1433 -5.2744 -1.8869 0.9778
0.6179 -5.2740 -1.8989 0.9777
1.0947 -5.2355 -1.9127 0.9775
2.5098 -4.8855 -1.9641 0.9769
2.9666 -4.6896 -1.9844 0.9767
3.8387 -4.1788 -2.0292 0.9762
4.2470 -3.8648 -2.0535 0.9759
4.6319 -3.5127 -2.0789 0.9756
4.9337 -2.5053 -1.9788 0.9768
2.3245 -0.9295 -0.8953 0.9894
5.4394 -1.6286 -2.0305 0.9762
5.6348 -1.1506 -2.0566 0.9759
5.7874 -0.6506 -2.0827 0.9756
5.8942 -0.1324 -2.1083 0.9753
5.9524 0.3995 -2.1334 0.9750
5.8145 2.0272 -2.2021 0.9742
5.1908 3.5810 -2.2551 0.9736
4.8780 4.0538 -2.2682 0.9734
3.6315 4.3251 -2.0196 0.9763
3.3600 4.8180 -2.1006 0.9754
2.4166 5.2692 -2.0730 0.9757
1.9463 5.4928 -2.0839 0.9755
0.4601 2.8230 -1.0228 0.9879
0.4476 6.1993 -2.2227 0.9739
-0.1089 6.2615 -2.2395 0.9737
-0.6627 6.1773 -2.2217 0.9740
-1.7192 5.8498 -2.1804 0.9744
-2.2115 5.6129 -2.1574 0.9747
-2.6739 5.3324 -2.1332 0.9750
-3.1028 5.0126 -2.1082 0.9753
-3.4953 4.6578 -2.0825 0.9756
-3.8488 4.2727 -2.0564 0.9759
-4.4325 3.4301 -2.0043 0.9765
-5.2209 2.7156 -2.1045 0.9753
-5.5479 1.1894 -2.0290 0.9762
-5.5459 0.1788 -1.9843 0.9767
-5.4831 -0.3143 -1.9640 0.9769
-5.3812 -0.7953 -1.9453 0.9772
-5.2420 -1.2618 -1.9281 0.9774
-5.0672 -1.7113 -1.9126 0.9775
-4.6184 -2.5511 -1.8868 0.9778
-4.3482 -2.9375 -1.8765 0.9780
-4.0499 -3.2993 -1.8680 0.9781
-3.7255 -3.6350 -1.8614 0.9781
-3.0063 -4.2224 -1.8536 0.9782
-2.2062 -4.6891 -1.8532 0.9782
-1.3413 -5.0259 -1.8602 0.9781
-0.4286 -5.2244 -1.8746 0.9780
0.0402 -5.2695 -1.8845 0.9779
1.4671 -5.1784 -1.9247 0.9774
1.9408 -5.0704 -1.9415 0.9772
2.4088 -4.9230 -1.9599 0.9770
4.5501 -3.5927 -2.0732 0.9757
4.9099 -3.2089 -2.0975 0.9754
4.8702 -2.5939 -1.9732 0.9768
2.3001 -0.9722 -0.8930 0.9894
5.3914 -1.7295 -2.0248 0.9762
5.7579 -0.7614 -2.0770 0.9756
5.9440 0.2825 -2.1280 0.9750
5.8409 1.9093 -2.1975 0.9742
5.6988 2.4459 -2.2177 0.9740
3.7323 4.2729 -2.0289 0.9762
2.9882 4.9963 -2.0819 0.9756
2.5188 5.2206 -2.0728 0.9757
1.4466 3.8427 -1.4683 0.9827
1.5726 5.6698 -2.1041 0.9753
0.5644 6.1445 -2.2066 0.9741
0.0133 6.2725 -2.2431 0.9737
-0.5430 6.2003 -2.2258 0.9739
-1.6082 5.8953 -2.1852 0.9744
-2.5758 5.3971 -2.1386 0.9749
-3.0123 5.0855 -2.1137 0.9752
-3.7751 4.3591 -2.0621 0.9758
-4.6146 3.0806 -1.9842 0.9767
-5.5672 0.7915 -2.0109 0.9764
-5.5542 0.2877 -1.9889 0.9767
-5.2755 -1.1614 -1.9317 0.9773
-5.1083 -1.6148 -1.9159 0.9775
-4.9070 -2.0496 -1.9017 0.9777
-3.4550 -3.8784 -1.8575 0.9782
-2.7023 -4.4198 -1.8526 0.9782
-2.2969 -4.6444 -1.8529 0.9782
-1.4383 -4.9958 -1.8591 0.9782
-0.5299 -5.2097 -1.8727 0.9780
0.4104 -5.2788 -1.8934 0.9778
1.3633 -5.1967 -1.9213 0.9774
1.8378 -5.0973 -1.9377 0.9772
2.7687 -4.7800 -1.9754 0.9768
4.0715 -4.0065 -2.0427 0.9760
4.8052 -2.6809 -1.9677 0.9769
5.0906 -2.2698 -1.9932 0.9766
5.3416 -1.8293 -2.0191 0.9763
5.5546 -1.3620 -2.0452 0.9760
5.7263 -0.8712 -2.0713 0.9757
5.9331 0.1660 -2.1226 0.9751
5.9628 0.7036 -2.1472 0.9748
5.9405 1.2472 -2.1707 0.9745
5.5497 2.8567 -2.2321 0.9738
5.3113 3.3660 -2.2487 0.9736
5.0206 3.8512 -2.2628 0.9735
4.5907 4.2241 -2.2309 0.9738
3.8363 4.2227 -2.0402 0.9761
3.3921 4.4806 -2.0097 0.9764
3.0913 4.9469 -2.0861 0.9755
2.6209 5.1718 -2.0734 0.9757
1.5013 3.7636 -1.4490 0.9829
4.6751 3.5023 -2.2386 0.9753
3.8923 4.1874 -2.1909 0.9758
3.4220 4.4145 -2.1405 0.9764
1.5529 3.7676 -1.5616 0.9827
1.7364 5.5840 -2.2410 0.9753
0.3518 2.8565 -1.1029 0.9877
-0.3256 5.7627 -2.2119 0.9756
-0.8327 5.6663 -2.1947 0.9758
-1.3242 5.5212 -2.1758 0.9760
-1.7953 5.3303 -2.1554 0.9762
-2.2417 5.0968 -2.1337 0.9764
-3.0459 4.5165 -2.0876 0.9769
-3.7135 3.8122 -2.0395 0.9775
-2.4003 2.0591 -1.2119 0.9865
-4.4293 2.5956 -1.9674 0.9782
-5.1608 1.3819 -2.0474 0.9774
-5.2115 0.4318 -2.0040 0.9778
-5.1775 -0.0353 -1.9841 0.9781
-4.9974 -0.9392 -1.9486 0.9785
-4.4713 -2.1832 -1.9068 0.9789
-3.6794 -3.2444 -1.8799 0.9792
-3.3647 -3.5497 -1.8743 0.9793
-3.0279 -3.8284 -1.8705 0.9793
-1.0778 -4.7801 -1.8778 0.9792
-0.2114 -4.9350 -1.8929 0.9791
0.2317 -4.9605 -1.9030 0.9790
2.0131 -4.7010 -1.9597 0.9783
2.4474 -4.5436 -1.9777 0.9781
2.8715 -4.3490 -1.9971 0.9779
3.2823 -4.1172 -2.0178 0.9777
4.0510 -3.5443 -2.0627 0.9772
4.4020 -3.2049 -2.0867 0.9769
4.7121 -2.8235 -2.1051 0.9767
5.1065 -1.4209 -2.0312 0.9776
5.2753 -0.9703 -2.0555 0.9773
5.4034 -0.5008 -2.0796 0.9770
5.4882 -0.0162 -2.1032 0.9768
5.5274 0.4795 -2.1262 0.9765
4.9915 2.9511 -2.2221 0.9755
3.9981 4.1363 -2.2045 0.9757
3.5228 4.3659 -2.1498 0.9763
3.2514 4.8619 -2.2414 0.9753
2.7568 5.0467 -2.2037 0.9757
1.6350 3.7569 -1.5701 0.9826
1.3488 5.7211 -2.2525 0.9751
-0.7232 5.6915 -2.1986 0.9757
-1.2186 5.5569 -2.1801 0.9759
-1.6945 5.3757 -2.1600 0.9761
-3.3241 4.2541 -2.0689 0.9771
-3.6478 3.8940 -2.0448 0.9774
-2.4136 2.1537 -1.2396 0.9862
-4.3892 2.6886 -1.9725 0.9782
-5.0493 1.9621 -2.0759 0.9771
-5.1999 1.0090 -2.0299 0.9776
-5.1244 -0.3942 -1.9696 0.9782
-5.0240 -0.8431 -1.9522 0.9784
-4.5191 -2.0983 -1.9094 0.9789
-4.2886 -2.4793 -1.8983 0.9790
-4.0299 -2.8386 -1.8890 0.9791
-3.7448 -3.1744 -1.8813 0.9792
-3.1032 -3.7699 -1.8712 0.9793
-2.7503 -4.0269 -1.8688 0.9793
-2.3786 -4.2550 -1.8681 0.9793
-1.9900 -4.4531 -1.8692 0.9793
-1.5865 -4.6201 -1.8720 0.9793
-1.1701 -4.7550 -1.8766 0.9792
0.1347 -4.9580 -1.9007 0.9790
1.4746 -4.8423 -1.9398 0.9786
1.9173 -4.7304 -1.9560 0.9784
2.3534 -4.5811 -1.9737 0.9782
3.1940 -4.1709 -2.0132 0.9777
3.5921 -3.9104 -2.0348 0.9775
3.9711 -3.6137 -2.0576 0.9773
4.6018 -2.3368 -1.9778 0.9781
5.0645 -1.5163 -2.0259 0.9776
5.2418 -1.0704 -2.0502 0.9773
5.4735 -0.1230 -2.0981 0.9768
5.3825 1.8765 -2.1844 0.9759
5.0407 2.8489 -2.2189 0.9755
4.1052 4.0844 -2.2192 0.9755
2.4135 5.2625 -2.2187 0.9755
1.9438 5.4858 -2.2303 0.9754
1.4614 5.6983 -2.2544 0.9751
0.4826 2.9608 -1.1496 0.9872
-0.1007 5.7889 -2.2188 0.9755
-3.8748 3.5958 -2.0258 0.9776
-4.3472 2.7810 -1.9777 0.9781
-4.8673 2.5317 -2.1025 0.9768
-5.0227 2.0655 -2.0812 0.9770
-5.1280 1.5900 -2.0574 0.9773
-5.1915 1.1130 -2.0347 0.9775
-5.2142 0.6377 -2.0130 0.9777
-5.1415 -0.2947 -1.9735 0.9782
-4.5655 -2.0125 -1.9120 0.9789
-4.3413 -2.3980 -1.9006 0.9790
-3.8092 -3.1032 -1.8828 0.9792
-2.8290 -3.9733 -1.8691 0.9793
-1.6757 -4.5864 -1.8712 0.9793
-1.2619 -4.7284 -1.8754 0.9793
0.9305 -4.9288 -1.9222 0.9787
1.3774 -4.8618 -1.9365 0.9786
1.8212 -4.7580 -1.9523 0.9784
2.2590 -4.6169 -1.9697 0.9782
3.1049 -4.2229 -2.0086 0.9778
3.8903 -3.6815 -2.0526 0.9773
4.2519 -3.3572 -2.0761 0.9771
4.5434 -2.4198 -1.9727 0.9782
5.4567 -0.2292 -2.0930 0.9769
5.5161 0.2622 -2.1162 0.9766
5.5287 0.7621 -2.1387 0.9764
5.4929 1.2656 -2.1601 0.9761
4.8538 3.2105 -2.2302 0.9754
4.1968 4.0157 -2.2259 0.9754
3.4334 4.7240 -2.2380 0.9753
2.9844 4.9899 -2.2281 0.9754
2.5156 5.2139 -2.2185 0.9755
0.5418 2.9593 -1.1529 0.9872
-0.5023 5.7350 -2.2062 0.9756
-1.4896 5.4603 -2.1689 0.9760
-2.7968 4.7217 -2.1030 0.9768
-3.5111 4.0543 -2.0553 0.9773
-2.4838 2.0008 -1.2223 0.9864
-4.3034 2.8728 -1.9828 0.9781
-5.2126 0.7411 -2.0177 0.9777
-5.0722 -0.6488 -1.9596 0.9783
-4.9519 -1.0902 -1.9431 0.9785
-4.7974 -1.5165 -1.9281 0.9787
-4.3927 -2.3157 -1.9029 0.9790
-4.1461 -2.6846 -1.8928 0.9791
-3.5733 -3.3528 -1.8778 0.9792
-2.9067 -3.9183 -1.8696 0.9793
-2.5429 -4.1591 -1.8682 0.9793
-2.1615 -4.3704 -1.8685 0.9793
-1.7642 -4.5511 -1.8705 0.9793
-0.9305 -4.8165 -1.8799 0.9792
-0.4983 -4.8994 -1.8872 0.9791
0.3857 -4.9611 -1.9069 0.9789
0.8329 -4.9385 -1.9193 0.9788
1.2801 -4.8796 -1.9332 0.9786
2.1641 -4.6508 -1.9658 0.9783
2.5952 -4.4806 -1.9843 0.9781
3.4206 -4.0285 -2.0253 0.9776
3.8084 -3.7476 -2.0475 0.9774
4.1751 -3.4309 -2.0709 0.9771
4.5152 -3.0783 -2.0942 0.9769
5.3243 -0.8101 -2.0638 0.9772
5.5300 0.6526 -2.1339 0.9764
5.4305 1.6586 -2.1760 0.9760
5.3063 2.1558 -2.1949 0.9758
4.9089 3.1110 -2.2271 0.9754
4.6380 3.5577 -2.2401 0.9753
4.2707 3.9296 -2.2240 0.9754
3.8312 4.2170 -2.1834 0.9759
3.3905 4.4784 -2.1526 0.9762
1.5131 3.7930 -1.5649 0.9827
4.3390 3.2504 -2.2189 0.9768
3.3353 4.3027 -2.2281 0.9767
0.3497 2.8400 -1.1711 0.9877
0.1783 5.3926 -2.2083 0.9769
-0.3024 5.3529 -2.1943 0.9771
-1.2315 5.1346 -2.1611 0.9774
-1.6707 4.9603 -2.1422 0.9776
-2.0875 4.7463 -2.1221 0.9778
-2.4785 4.4958 -2.1011 0.9781
-3.4687 3.5609 -2.0345 0.9787
-4.1469 2.4301 -1.9672 0.9794
-4.7575 1.7426 -2.0736 0.9783
-4.8424 1.2966 -2.0517 0.9786
-1.9568 0.1621 -0.8036 0.9915
-1.9049 -0.0130 -0.7796 0.9918
-4.5707 -1.2909 -1.9439 0.9797
-4.2133 -2.0572 -1.9190 0.9799
-3.4699 -3.0597 -1.8934 0.9802
-3.1737 -3.3482 -1.8881 0.9803
-2.1653 -4.0574 -1.8822 0.9803
-1.7953 -4.2378 -1.8836 0.9803
-1.4118 -4.3883 -1.8867 0.9803
-1.0165 -4.5082 -1.8914 0.9802
-0.1993 -4.6522 -1.9058 0.9801
0.2184 -4.6748 -1.9154 0.9800
1.0601 -4.6181 -1.9392 0.9797
1.4792 -4.5379 -1.9534 0.9796
1.8939 -4.4226 -1.9690 0.9794
2.3012 -4.2723 -1.9860 0.9792
3.4505 -3.6121 -2.0445 0.9786
3.7992 -3.3241 -2.0661 0.9784
4.4117 -2.6435 -2.1049 0.9780
4.9249 -0.9059 -2.0495 0.9786
5.0406 -0.4672 -2.0718 0.9784
5.1158 -0.0151 -2.0938 0.9781
5.1486 0.4467 -2.1151 0.9779
5.1372 0.9137 -2.1355 0.9777
4.9778 1.8452 -2.1728 0.9773
4.6350 2.7404 -2.2038 0.9770
4.3967 3.1616 -2.2164 0.9769
4.1159 3.5586 -2.2269 0.9768
3.7953 3.9265 -2.2350 0.9767
3.4336 4.2553 -2.2379 0.9766
1.2512 5.3073 -2.2317 0.9767
0.2838 5.3949 -2.2110 0.9769
-0.1982 5.3656 -2.1975 0.9771
-0.6721 5.2891 -2.1821 0.9772
-1.1331 5.1670 -2.1650 0.9774
-1.5767 5.0018 -2.1464 0.9776
-2.7642 4.2767 -2.0841 0.9782
-3.4068 3.6367 -2.0395 0.9787
-2.6721 1.9856 -1.3625 0.9857
-4.1087 2.5168 -1.9720 0.9794
-4.8272 1.3941 -2.0564 0.9785
-4.8817 0.9473 -2.0352 0.9787
-1.9547 -0.1504 -0.8024 0.9916
-2.1015 -0.3526 -0.8721 0.9908
-4.4453 -1.5986 -1.9334 0.9798
-3.5315 -2.9935 -1.8947 0.9802
-1.1036 -4.4847 -1.8902 0.9802
0.1269 -4.6727 -1.9131 0.9800
0.5471 -4.6689 -1.9240 0.9799
0.9683 -4.6310 -1.9363 0.9798
2.2131 -4.3080 -1.9822 0.9793
2.6128 -4.1303 -2.0002 0.9791
3.0000 -3.9176 -2.0195 0.9789
3.7250 -3.3897 -2.0613 0.9785
4.0564 -3.0762 -2.0836 0.9782
2.3278 -0.9308 -1.0261 0.9892
5.0188 -0.5642 -2.0670 0.9784
5.1435 0.8116 -2.1311 0.9777
5.0042 1.7446 -2.1690 0.9774
4.8655 2.2017 -2.1857 0.9772
4.4524 3.0716 -2.2138 0.9769
3.1357 4.4964 -2.2436 0.9766
1.8277 5.1582 -2.2397 0.9766
0.4823 2.9589 -1.2270 0.9871
0.3896 5.3948 -2.2137 0.9769
-0.0935 5.3761 -2.2006 0.9770
-0.5697 5.3097 -2.1856 0.9772
-1.9087 4.8443 -2.1310 0.9777
-3.0311 4.0392 -2.0668 0.9784
-2.3117 2.1452 -1.2907 0.9865
-2.5131 1.9447 -1.3005 0.9864
-1.9281 0.0622 -0.7895 0.9917
-1.9428 -0.2871 -0.8038 0.9915
-4.4822 -1.5137 -1.9362 0.9798
-4.3013 -1.8960 -1.9239 0.9799
-4.0916 -2.2601 -1.9131 0.9800
-3.8545 -2.6040 -1.9038 0.9801
-3.5920 -2.9263 -1.8962 0.9802
-2.9973 -3.4998 -1.8859 0.9803
-2.6687 -3.7483 -1.8832 0.9803
-2.3219 -3.9696 -1.8822 0.9803
-1.5807 -4.3264 -1.8852 0.9803
-0.7893 -4.5619 -1.8948 0.9802
1.2968 -4.5772 -1.9470 0.9796
1.7137 -4.4772 -1.9621 0.9795
2.1246 -4.3422 -1.9785 0.9793
