ply
format ascii 1.0
element vertex 1594
property float32 x
property float32 y
property float32 z
property float32 I
end_header
2.4875 5.3692 0.6354 0.9765
1.5638 5.9973 0.6655 0.9754
1.0134 6.0605 0.6598 0.9756
-0.0862 6.5778 0.7064 0.9739
-1.3981 7.1964 0.7872 0.9709
12.3843 -2.8961 1.3657 0.9501
14.6942 -0.7492 1.5799 0.9425
11.8621 0.4563 1.2747 0.9534
11.0123 1.4155 1.1922 0.9563
8.3550 2.6453 0.9411 0.9654
6.6331 3.4989 0.8053 0.9703
5.2264 4.0914 0.7127 0.9737
4.1820 4.6935 0.6750 0.9750
3.6629 4.9357 0.6600 0.9756
3.1074 5.0792 0.6394 0.9763
1.7104 5.9285 0.6626 0.9755
0.6389 6.2365 0.6732 0.9751
0.0825 6.4983 0.6979 0.9742
-2.4691 2.0361 0.3437 0.9872
13.0618 0.1651 1.4027 0.9488
9.9174 1.9220 1.0848 0.9602
8.6682 2.5002 0.9688 0.9644
6.1139 3.7400 0.7696 0.9716
5.4031 4.0093 0.7225 0.9733
4.8099 4.2852 0.6917 0.9744
4.3367 4.6214 0.6805 0.9748
3.8104 4.8668 0.6637 0.9754
2.7270 5.1690 0.6276 0.9768
2.2849 5.4640 0.6360 0.9765
0.7927 6.1642 0.6674 0.9753
-2.3913 2.0779 0.3402 0.9873
12.7723 -2.4822 1.3972 0.9490
18.1092 -1.8638 1.9549 0.9294
13.2492 -0.1745 1.4228 0.9481
11.8313 0.9036 1.2742 0.9534
10.3371 1.7278 1.1254 0.9587
7.9273 2.8434 0.9043 0.9667
7.0272 3.2551 0.8316 0.9693
6.3190 3.6447 0.7833 0.9711
5.5849 3.9248 0.7330 0.9729
4.9760 4.2079 0.6998 0.9741
4.3389 4.3909 0.6629 0.9755
3.9597 4.7972 0.6679 0.9753
2.4233 5.3992 0.6355 0.9765
2.0002 5.7926 0.6581 0.9756
0.4086 6.3449 0.6827 0.9747
-0.1709 6.8130 0.7318 0.9730
-1.4974 7.2433 0.7942 0.9707
-2.3940 2.1912 0.3485 0.9870
14.0808 -0.5491 1.5132 0.9449
11.7124 0.5910 1.2593 0.9539
10.7897 1.5184 1.1700 0.9571
7.2702 3.1425 0.8505 0.9686
6.5316 3.5460 0.7981 0.9705
4.1110 4.7266 0.6727 0.9751
3.0425 5.1095 0.6386 0.9764
2.5616 5.3345 0.6354 0.9765
2.1439 5.7253 0.6565 0.9757
1.6425 5.9604 0.6639 0.9754
0.5666 6.2705 0.6761 0.9750
0.0048 6.5350 0.7017 0.9741
-0.6247 7.0268 0.7575 0.9720
-1.2855 7.1433 0.7794 0.9712
3.4296 4.8796 0.5049 0.9763
1.0122 6.0532 0.5195 0.9757
0.4817 6.3024 0.5351 0.9749
-0.0861 6.5694 0.5562 0.9740
-0.7268 7.0659 0.6013 0.9719
-1.3961 7.1861 0.6197 0.9710
11.6773 -2.7308 1.0152 0.9530
9.5088 2.0987 0.8243 0.9617
4.5610 4.2796 0.5294 0.9752
4.1769 4.6878 0.5315 0.9751
3.1038 5.0733 0.5035 0.9764
2.6228 5.2983 0.5005 0.9765
2.1437 5.5226 0.5015 0.9765
1.1600 5.9838 0.5160 0.9758
-9.6937 -8.8631 1.1119 0.9486
12.6228 -0.9707 1.0717 0.9504
13.2159 0.1671 1.1189 0.9483
9.8979 1.9182 0.8535 0.9603
8.7338 2.5191 0.7695 0.9642
2.7239 5.1630 0.4942 0.9768
0.7917 6.1567 0.5255 0.9754
-0.3508 6.8889 0.5839 0.9727
-0.9875 6.9936 0.5979 0.9720
2.3392 -0.9092 0.2125 0.9900
11.4940 -2.2337 0.9912 0.9541
12.3484 -1.2709 1.0508 0.9514
13.3647 -0.1760 1.1315 0.9478
10.3159 1.7243 0.8854 0.9589
8.9843 2.3420 0.7860 0.9634
7.9142 2.8388 0.7118 0.9668
7.0166 3.2502 0.6546 0.9694
3.9549 4.7914 0.5259 0.9754
3.3640 4.9102 0.5039 0.9764
2.8607 5.0990 0.4949 0.9768
2.4205 5.3929 0.5004 0.9765
1.9833 5.7436 0.5144 0.9759
1.4826 5.9784 0.5214 0.9756
0.9428 6.0858 0.5213 0.9756
0.4081 6.3370 0.5376 0.9748
-0.1707 6.8042 0.5762 0.9730
-1.4953 7.2328 0.6252 0.9708
11.7112 0.5910 0.9926 0.9540
9.3371 2.1783 0.8116 0.9622
6.5222 3.5409 0.6282 0.9706
4.5387 4.3620 0.5329 0.9750
4.1061 4.7209 0.5297 0.9752
3.4667 4.7901 0.5006 0.9765
3.0390 5.1036 0.5028 0.9764
2.1258 5.6769 0.5132 0.9760
0.0048 6.5266 0.5525 0.9741
-0.6238 7.0174 0.5964 0.9721
-1.2837 7.1331 0.6135 0.9713
2.0622 5.7480 0.3787 0.9758
1.5601 5.9833 0.3834 0.9755
1.0109 6.0460 0.3801 0.9757
0.4811 6.2946 0.3915 0.9750
-0.0860 6.5610 0.4069 0.9740
-1.3941 7.1759 0.4533 0.9711
11.6115 -2.7154 0.7395 0.9533
9.4908 2.0947 0.6027 0.9618
8.4044 2.6609 0.5467 0.9653
7.3700 3.0814 0.4954 0.9685
5.8997 3.8216 0.4359 0.9722
5.2129 4.0808 0.4105 0.9738
4.5553 4.2743 0.3874 0.9753
3.1002 5.0674 0.3684 0.9765
2.6197 5.2922 0.3662 0.9766
2.1412 5.5162 0.3669 0.9766
-0.5314 6.9161 0.4301 0.9726
13.1775 -3.4425 0.8446 0.9469
9.8785 1.9144 0.6240 0.9605
8.7185 2.5147 0.5627 0.9643
7.6291 2.9608 0.5075 0.9677
6.7746 3.3531 0.4687 0.9702
5.3890 3.9988 0.4161 0.9735
3.8013 4.8553 0.3824 0.9756
3.2404 5.0019 0.3696 0.9764
2.2796 5.4514 0.3664 0.9766
1.8515 5.8467 0.3803 0.9757
1.3336 6.0405 0.3836 0.9755
0.2467 6.4047 0.3975 0.9746
-0.9862 6.9840 0.4374 0.9721
-2.3906 2.0773 0.1964 0.9874
11.7426 -1.2085 0.7320 0.9538
10.2950 1.7208 0.6472 0.9590
8.9681 2.3378 0.5747 0.9635
7.9013 2.8341 0.5205 0.9669
7.0061 3.2453 0.4788 0.9695
6.3012 3.6345 0.4511 0.9713
4.9633 4.1972 0.4031 0.9743
4.3283 4.3802 0.3819 0.9756
3.9503 4.7857 0.3848 0.9754
3.3601 4.9045 0.3687 0.9765
2.4177 5.3867 0.3661 0.9766
1.9956 5.7792 0.3791 0.9758
-0.1705 6.7954 0.4215 0.9731
11.1575 -2.4687 0.7086 0.9552
11.6069 -1.4981 0.7257 0.9542
9.3197 2.1743 0.5934 0.9624
6.5129 3.5358 0.4595 0.9707
5.7565 3.8274 0.4287 0.9727
5.1328 4.1182 0.4081 0.9740
4.1012 4.7153 0.3875 0.9753
3.4626 4.7845 0.3662 0.9766
3.0355 5.0977 0.3679 0.9765
2.5557 5.3222 0.3661 0.9766
1.6387 5.9464 0.3825 0.9756
0.5652 6.2552 0.3895 0.9751
-0.6230 7.0081 0.4363 0.9722
2.9574 5.1267 0.2334 0.9766
2.0598 5.7414 0.2405 0.9759
1.0097 6.0388 0.2414 0.9758
0.4805 6.2869 0.2486 0.9751
-0.7248 7.0469 0.2793 0.9720
-1.3922 7.1657 0.2878 0.9712
12.2401 -2.8624 0.4957 0.9509
11.5790 -1.6357 0.4611 0.9543
12.0203 -0.6129 0.4746 0.9530
11.7727 0.4529 0.4646 0.9539
9.4729 2.0908 0.3825 0.9619
7.3586 3.0766 0.3145 0.9686
5.2062 4.0756 0.2607 0.9739
4.5497 4.2690 0.2460 0.9753
4.1669 4.6766 0.2470 0.9752
3.6499 4.9183 0.2415 0.9758
2.6167 5.2861 0.2326 0.9767
0.6366 6.2138 0.2463 0.9753
0.0822 6.4737 0.2553 0.9744
-1.1848 7.0684 0.2826 0.9717
-9.7161 -8.8836 0.5191 0.9487
13.1022 -3.4229 0.5340 0.9472
14.6607 -2.4584 0.5862 0.9422
12.3807 0.1565 0.4882 0.9516
3.7969 4.8496 0.2429 0.9756
3.2366 4.9961 0.2347 0.9765
1.8493 5.8400 0.2415 0.9758
1.3320 6.0334 0.2436 0.9756
0.2464 6.3967 0.2524 0.9747
-0.3499 6.8710 0.2713 0.9728
-0.9862 6.9843 0.2781 0.9722
-2.3903 2.0770 0.1249 0.9874
2.3379 -0.9088 0.0989 0.9900
14.5021 -2.8183 0.5825 0.9426
12.2320 -0.1611 0.4824 0.9522
6.9956 3.2404 0.3040 0.9696
6.2924 3.6294 0.2864 0.9713
4.9571 4.1920 0.2560 0.9743
4.3231 4.3749 0.2425 0.9757
3.9456 4.7801 0.2444 0.9755
3.3562 4.8988 0.2342 0.9765
2.4150 5.3806 0.2326 0.9767
1.9933 5.7726 0.2408 0.9758
-0.1702 6.7867 0.2677 0.9732
14.3453 -3.1741 0.5793 0.9429
11.7087 0.5908 0.4623 0.9542
11.0415 1.5539 0.4397 0.9563
9.3024 2.1702 0.3767 0.9625
8.2508 2.7213 0.3426 0.9658
7.2367 3.1280 0.3109 0.9689
6.5036 3.5308 0.2918 0.9708
5.7488 3.8223 0.2722 0.9727
5.1263 4.1129 0.2592 0.9740
4.0963 4.7096 0.2461 0.9753
3.4586 4.7789 0.2326 0.9767
3.0320 5.0918 0.2337 0.9766
2.1365 5.7055 0.2402 0.9759
1.0891 6.0016 0.2405 0.9759
-0.6222 6.9988 0.2771 0.9723
-1.2801 7.1131 0.2850 0.9715
3.4176 4.8626 0.1004 0.9765
2.9540 5.1208 0.0999 0.9766
2.4760 5.3445 0.0995 0.9767
0.4799 6.2793 0.1064 0.9751
-0.0858 6.5443 0.1106 0.9742
-0.7239 7.0376 0.1195 0.9721
-1.3902 7.1556 0.1231 0.9713
11.7433 0.4517 0.1985 0.9541
11.1896 1.4383 0.1906 0.9559
9.4551 2.0868 0.1636 0.9620
8.3760 2.6519 0.1484 0.9655
6.6799 3.5237 0.1276 0.9702
4.5441 4.2637 0.1053 0.9754
4.1620 4.6710 0.1057 0.9753
3.6457 4.9126 0.1033 0.9758
2.6137 5.2801 0.0995 0.9767
0.6358 6.2062 0.1054 0.9754
-0.5300 6.8979 0.1169 0.9727
-1.1832 7.0586 0.1209 0.9718
-2.4571 2.0262 0.0538 0.9873
-9.7273 -8.8939 0.2226 0.9486
15.5180 -1.1934 0.2629 0.9396
9.8401 1.9070 0.1693 0.9607
7.6049 2.9515 0.1378 0.9679
5.3750 3.9884 0.1131 0.9736
4.3158 4.5991 0.1065 0.9751
3.7924 4.8439 0.1039 0.9757
3.2329 4.9903 0.1004 0.9765
2.2744 5.4389 0.0996 0.9767
1.8472 5.8332 0.1034 0.9758
1.3305 6.0263 0.1042 0.9756
0.7889 6.1345 0.1045 0.9756
0.2461 6.3888 0.1080 0.9747
-0.3495 6.8621 0.1161 0.9729
-1.7077 7.3044 0.1267 0.9704
2.3379 -0.9088 0.0424 0.9900
17.9665 -1.8491 0.3051 0.9303
14.7534 -0.1943 0.2492 0.9427
8.9359 2.3294 0.1560 0.9637
7.8756 2.8249 0.1413 0.9671
6.9851 3.2356 0.1300 0.9697
6.4114 3.6980 0.1250 0.9708
4.3215 4.3733 0.1038 0.9757
3.9409 4.7744 0.1046 0.9755
3.3523 4.8931 0.1002 0.9766
2.8508 5.0815 0.0984 0.9770
1.9910 5.7659 0.1030 0.9759
0.9395 6.0640 0.1037 0.9758
2.3569 -0.9869 0.0432 0.9898
19.2379 -2.4831 0.3277 0.9253
14.9291 -0.5821 0.2524 0.9420
8.2371 2.7168 0.1465 0.9659
5.7411 3.8172 0.1165 0.9728
5.1198 4.1077 0.1109 0.9741
4.5220 4.3459 0.1059 0.9752
4.0914 4.7040 0.1053 0.9754
3.4546 4.7734 0.0995 0.9767
2.5499 5.3100 0.0995 0.9767
2.1340 5.6990 0.1028 0.9759
1.0878 5.9945 0.1029 0.9759
0.5639 6.2399 0.1058 0.9752
0.0047 6.5019 0.1098 0.9743
-0.6213 6.9895 0.1185 0.9723
-1.2783 7.1031 0.1219 0.9715
3.4136 4.8569 -0.0334 0.9765
2.9507 5.1149 -0.0332 0.9767
2.0551 5.7283 -0.0343 0.9760
1.5547 5.9624 -0.0347 0.9757
1.0073 6.0245 -0.0344 0.9759
0.4794 6.2716 -0.0354 0.9752
-0.7229 7.0282 -0.0398 0.9721
14.9722 -0.7634 -0.0844 0.9418
11.1883 1.4381 -0.0635 0.9559
6.6704 3.5186 -0.0425 0.9703
5.9954 3.8835 -0.0402 0.9718
4.5389 4.2589 -0.0350 0.9754
3.0895 5.0499 -0.0333 0.9766
2.1339 5.4973 -0.0332 0.9767
1.7005 5.8942 -0.0345 0.9758
0.6350 6.1987 -0.0351 0.9754
0.0820 6.4575 -0.0364 0.9745
-1.1816 7.0488 -0.0402 0.9718
-9.7260 -8.8927 -0.0742 0.9487
15.5164 -1.1932 -0.0876 0.9396
12.3430 0.1560 -0.0695 0.9518
11.3939 1.1666 -0.0645 0.9552
7.5929 2.9468 -0.0459 0.9679
3.7880 4.8382 -0.0346 0.9757
3.2292 4.9846 -0.0334 0.9765
1.8451 5.8265 -0.0344 0.9758
1.3289 6.0193 -0.0347 0.9756
0.2458 6.3809 -0.0360 0.9748
-0.3490 6.8533 -0.0386 0.9729
-0.9866 6.9868 -0.0397 0.9722
14.7126 -0.1937 -0.0828 0.9428
10.2328 1.7104 -0.0584 0.9593
8.9200 2.3253 -0.0519 0.9638
7.8629 2.8204 -0.0470 0.9671
6.9747 3.2308 -0.0433 0.9697
6.4024 3.6929 -0.0416 0.9709
3.3484 4.8875 -0.0334 0.9766
2.4094 5.3683 -0.0331 0.9767
1.9887 5.7593 -0.0343 0.9759
0.9384 6.0568 -0.0345 0.9758
-0.1649 6.5731 -0.0370 0.9740
-0.8129 7.0703 -0.0401 0.9719
-1.4867 7.1915 -0.0413 0.9711
11.7061 0.5907 -0.0660 0.9542
9.2681 2.1622 -0.0536 0.9626
5.7335 3.8121 -0.0388 0.9728
3.4506 4.7678 -0.0331 0.9767
2.1316 5.6925 -0.0342 0.9760
0.5632 6.2324 -0.0352 0.9753
0.0047 6.4937 -0.0366 0.9744
3.4097 4.8513 -0.1670 0.9766
2.4704 5.3323 -0.1655 0.9768
-0.0856 6.5277 -0.1838 0.9742
-0.7220 7.0189 -0.1987 0.9722
-1.3863 7.1354 -0.2047 0.9713
11.6850 0.4495 -0.3293 0.9543
11.1871 1.4380 -0.3176 0.9559
9.4198 2.0791 -0.2716 0.9621
7.3184 3.0598 -0.2234 0.9688
5.9873 3.8783 -0.2009 0.9719
4.1521 4.6599 -0.1757 0.9753
3.0860 5.0442 -0.1665 0.9766
2.1314 5.4910 -0.1659 0.9767
1.1532 5.9486 -0.1706 0.9760
-2.4512 2.0213 -0.0895 0.9874
15.5148 -1.1931 -0.4382 0.9396
12.3107 0.1556 -0.3467 0.9519
8.8341 2.5481 -0.2589 0.9639
7.5809 2.9422 -0.2290 0.9680
6.1870 3.7846 -0.2042 0.9714
5.3610 3.9780 -0.1880 0.9736
4.7740 4.2532 -0.1800 0.9747
4.3055 4.5880 -0.1772 0.9751
3.7836 4.8326 -0.1728 0.9757
3.2255 4.9788 -0.1670 0.9765
2.7083 5.1335 -0.1634 0.9770
2.2692 5.4265 -0.1656 0.9767
0.7870 6.1199 -0.1737 0.9756
0.2455 6.3730 -0.1796 0.9748
-0.3486 6.8444 -0.1930 0.9729
-1.7028 7.2832 -0.2106 0.9705
10.2123 1.7070 -0.2915 0.9594
8.9041 2.3211 -0.2591 0.9638
7.8502 2.8158 -0.2348 0.9672
6.3935 3.6878 -0.2078 0.9709
5.5407 3.8938 -0.1907 0.9733
4.3190 4.3708 -0.1730 0.9757
3.3446 4.8818 -0.1666 0.9766
2.4067 5.3622 -0.1655 0.9768
1.4848 5.9873 -0.1737 0.9756
-0.1647 6.5647 -0.1849 0.9741
2.3388 -0.9793 -0.0714 0.9899
19.0944 -2.4646 -0.5421 0.9259
14.9260 -0.5820 -0.4206 0.9420
11.7049 0.5906 -0.3300 0.9542
8.3765 2.7628 -0.2484 0.9653
7.2037 3.1137 -0.2210 0.9691
5.7258 3.8070 -0.1936 0.9729
5.1067 4.0973 -0.1844 0.9741
4.5109 4.3353 -0.1762 0.9753
3.4466 4.7623 -0.1655 0.9768
2.5441 5.2979 -0.1655 0.9768
2.1291 5.6859 -0.1710 0.9760
1.6311 5.9189 -0.1729 0.9757
1.0852 5.9804 -0.1711 0.9760
0.0047 6.4855 -0.1826 0.9744
-0.6197 6.9711 -0.1971 0.9724
-1.2747 7.0833 -0.2027 0.9716
-2.5148 2.0237 -0.0909 0.9872
3.4058 4.8457 -0.3004 0.9766
2.4676 5.3263 -0.2977 0.9768
2.0504 5.7151 -0.3079 0.9760
1.5511 5.9486 -0.3118 0.9757
1.0050 6.0103 -0.3090 0.9759
0.4782 6.2563 -0.3182 0.9752
-1.3843 7.1253 -0.3681 0.9713
11.6633 0.4486 -0.5919 0.9543
9.4022 2.0752 -0.4883 0.9622
8.5031 2.6921 -0.4523 0.9649
6.6513 3.5086 -0.3814 0.9703
5.9793 3.8731 -0.3613 0.9719
5.1796 4.0548 -0.3336 0.9740
4.1471 4.6544 -0.3161 0.9753
3.6330 4.8954 -0.3092 0.9759
2.1290 5.4847 -0.2984 0.9767
0.0818 6.4414 -0.3267 0.9745
-1.1783 7.0293 -0.3615 0.9719
-2.4484 2.0191 -0.1609 0.9874
14.0607 -3.6733 -0.7370 0.9435
15.5133 -1.1930 -0.7891 0.9396
11.3435 1.1614 -0.5783 0.9554
6.1785 3.7795 -0.3673 0.9714
5.3541 3.9729 -0.3381 0.9737
4.7681 4.2480 -0.3239 0.9747
3.7791 4.8269 -0.3109 0.9757
2.7052 5.1277 -0.2940 0.9770
2.2666 5.4203 -0.2980 0.9767
1.8408 5.8131 -0.3092 0.9759
-0.3481 6.8356 -0.3471 0.9730
-1.7003 7.2726 -0.3788 0.9705
-2.3919 2.0784 -0.1607 0.9874
2.3380 -0.9088 -0.1272 0.9900
16.1337 -1.6604 -0.8225 0.9371
14.6316 -0.1927 -0.7421 0.9431
11.7577 0.8980 -0.5980 0.9539
7.8375 2.8113 -0.4223 0.9672
6.3847 3.6826 -0.3738 0.9709
5.5335 3.8887 -0.3430 0.9733
4.3178 4.3695 -0.3115 0.9757
3.3407 4.8762 -0.2998 0.9766
2.8411 5.0641 -0.2945 0.9770
2.4039 5.3561 -0.2977 0.9768
-0.8107 7.0514 -0.3600 0.9720
-1.4825 7.1711 -0.3714 0.9711
2.3346 -0.9775 -0.1284 0.9899
19.0233 -2.4554 -0.9728 0.9261
14.9245 -0.5820 -0.7575 0.9419
11.7036 0.5906 -0.5943 0.9542
10.9496 1.5409 -0.5608 0.9567
9.2340 2.1543 -0.4809 0.9627
8.3626 2.7582 -0.4466 0.9653
7.1927 3.1089 -0.3974 0.9691
6.5983 3.5822 -0.3808 0.9704
5.7182 3.8019 -0.3482 0.9729
4.5054 4.3300 -0.3169 0.9753
2.5412 5.2918 -0.2977 0.9768
2.1267 5.6794 -0.3076 0.9760
1.0840 5.9734 -0.3079 0.9760
0.5618 6.2173 -0.3166 0.9753
0.0047 6.4774 -0.3285 0.9744
-1.2729 7.0734 -0.3645 0.9716
-2.5082 2.0184 -0.1633 0.9872
-9.6181 -9.0078 -0.6683 0.9486
3.4018 4.8401 -0.4338 0.9766
2.9405 5.0974 -0.4315 0.9767
2.4648 5.3202 -0.4299 0.9768
1.0038 6.0031 -0.4463 0.9759
0.4776 6.2487 -0.4595 0.9752
-19.0851 -4.4713 -1.4373 0.9244
-14.8284 -9.8791 -1.3064 0.9310
-13.6752 -10.9929 -1.2865 0.9320
-12.4877 -12.0239 -1.2711 0.9328
-11.2653 -12.9765 -1.2600 0.9334
-10.0069 -13.8543 -1.2531 0.9338
-7.3754 -15.3956 -1.2517 0.9338
-5.9975 -16.0622 -1.2571 0.9335
-3.1026 -17.1886 -1.2807 0.9323
-1.5781 -17.6465 -1.2990 0.9314
0.0037 -18.0311 -1.3221 0.9302
3.3589 -18.5655 -1.3834 0.9271
19.4703 -2.7505 -1.4418 0.9242
11.1486 1.4330 -0.8242 0.9559
4.1422 4.6488 -0.4565 0.9753
2.1266 5.4785 -0.4309 0.9767
1.6946 5.8738 -0.4482 0.9758
0.0817 6.4333 -0.4717 0.9745
-19.3682 -4.0134 -1.4503 0.9237
-17.3369 -6.9871 -1.3705 0.9278
-16.2637 -8.3126 -1.3392 0.9294
-14.0117 -10.6801 -1.2918 0.9318
-9.6863 -8.8564 -0.9623 0.9487
-9.0891 -14.4346 -1.2507 0.9339
-3.5327 -17.0432 -1.2762 0.9326
15.5117 -1.1929 -1.1407 0.9395
9.7642 1.8923 -0.7292 0.9609
8.7394 2.5208 -0.6669 0.9642
7.5571 2.9329 -0.5944 0.9680
6.7155 3.3238 -0.5494 0.9704
6.1701 3.7743 -0.5303 0.9714
4.7622 4.2427 -0.4677 0.9747
2.7021 5.1218 -0.4246 0.9770
2.2640 5.4141 -0.4303 0.9767
1.3242 5.9982 -0.4504 0.9757
-0.9871 6.9904 -0.5176 0.9721
-1.6978 7.2621 -0.5468 0.9705
-2.3927 2.0791 -0.2324 0.9874
-17.6398 -6.5854 -1.3806 0.9273
-16.5772 -7.9402 -1.3477 0.9289
-14.3452 -10.3603 -1.2975 0.9315
-9.4639 -14.2034 -1.2514 0.9338
-8.1515 -14.9793 -1.2504 0.9339
-6.7984 -15.6857 -1.2535 0.9337
-3.9586 -16.8920 -1.2721 0.9328
-2.4650 -17.3909 -1.2879 0.9320
2.3622 -18.4450 -1.3635 0.9281
4.1039 -18.6354 -1.3991 0.9263
5.9221 -18.7353 -1.4407 0.9242
2.3380 -0.9088 -0.1839 0.9900
16.0781 -1.6547 -1.1852 0.9372
14.5912 -0.1921 -1.0700 0.9432
8.8744 2.3134 -0.6724 0.9639
7.8248 2.8067 -0.6095 0.9672
6.9436 3.2164 -0.5611 0.9698
5.5262 3.8835 -0.4952 0.9733
4.9260 4.1657 -0.4730 0.9745
1.9819 5.7395 -0.4452 0.9759
1.4814 5.9734 -0.4513 0.9756
-0.1642 6.5480 -0.4803 0.9741
-1.4804 7.1609 -0.5362 0.9711
-17.9396 -6.1747 -1.3911 0.9267
-14.6760 -10.0332 -1.3035 0.9312
-12.3260 -12.1559 -1.2693 0.9329
-11.0989 -13.0983 -1.2588 0.9335
-8.5345 -14.7625 -1.2503 0.9339
-7.1933 -15.4888 -1.2522 0.9338
-5.8096 -16.1462 -1.2582 0.9335
-4.3802 -16.7349 -1.2684 0.9330
-2.9016 -17.2541 -1.2829 0.9322
1.8727 -18.3742 -1.3542 0.9286
3.5936 -18.5894 -1.3882 0.9269
2.3304 -0.9758 -0.1852 0.9899
18.6555 -2.4079 -1.3792 0.9273
14.9229 -0.5819 -1.0950 0.9419
10.9268 1.5377 -0.8091 0.9567
8.3488 2.7536 -0.6446 0.9654
6.5890 3.5771 -0.5497 0.9704
3.4386 4.7513 -0.4300 0.9768
2.1087 5.6315 -0.4409 0.9762
0.5611 6.2097 -0.4572 0.9753
-0.6181 6.9527 -0.5118 0.9724
-2.5017 2.0132 -0.2354 0.9872
-19.2373 -4.2271 -1.4442 0.9240
-18.2362 -5.7550 -1.4021 0.9262
-17.1953 -7.1705 -1.3660 0.9280
-15.0039 -9.6989 -1.3100 0.9309
-13.8560 -10.8261 -1.2893 0.9319
-9.5603 -8.9537 -0.9604 0.9488
-10.2041 -13.7232 -1.2539 0.9337
-8.9141 -14.5399 -1.2505 0.9339
-4.7978 -16.5720 -1.2650 0.9331
-0.2451 -17.9765 -1.3182 0.9304
1.3888 -18.2966 -1.3454 0.9290
4.8626 -18.6891 -1.4159 0.9255
3.3979 4.8345 -0.5673 0.9765
2.9372 5.0916 -0.5643 0.9767
2.4620 5.3141 -0.5623 0.9767
-0.0852 6.5029 -0.6244 0.9742
-0.7191 6.9909 -0.6747 0.9722
-1.3804 7.1052 -0.6949 0.9713
-18.8960 5.9741 -1.9026 0.9235
-18.5899 4.0951 -1.8275 0.9264
-18.1832 2.3297 -1.7599 0.9290
-17.6885 0.6732 -1.6994 0.9313
-16.4752 -2.3342 -1.5975 0.9353
-14.2057 -6.1559 -1.4864 0.9397
-13.3504 -7.2640 -1.4591 0.9408
-9.6113 -9.2544 -1.2809 0.9478
-8.8631 -10.2094 -1.2980 0.9471
-6.8616 -11.5477 -1.2896 0.9475
-2.4348 -13.4889 -1.3159 0.9464
-1.2356 -13.8170 -1.3318 0.9458
1.2819 -14.2698 -1.3755 0.9441
5.7715 -15.4378 -1.5823 0.9359
7.3335 -15.2922 -1.6282 0.9341
8.9454 -15.0407 -1.6801 0.9321
12.3199 -14.1797 -1.8034 0.9273
14.0804 -13.5464 -1.8758 0.9245
19.5746 -2.7652 -1.8979 0.9236
14.8470 -0.7570 -1.4272 0.9420
11.0439 1.4196 -1.0690 0.9562
8.4745 2.6831 -0.8534 0.9649
6.6323 3.4985 -0.7199 0.9703
4.5343 4.2545 -0.5969 0.9753
4.1372 4.6433 -0.5971 0.9753
3.0754 5.0268 -0.5657 0.9766
2.5989 5.2500 -0.5624 0.9767
1.6926 5.8670 -0.5862 0.9758
1.1491 5.9276 -0.5797 0.9760
0.6320 6.1688 -0.5953 0.9754
-2.4455 2.0167 -0.3043 0.9873
-18.3102 2.8280 -1.7787 0.9283
-17.8397 1.1406 -1.7162 0.9307
-17.2889 -0.4417 -1.6604 0.9329
-16.6669 -1.9241 -1.6107 0.9348
-15.9813 -3.3116 -1.5669 0.9365
-11.7868 -8.9842 -1.4228 0.9422
-9.6378 -8.8121 -1.2537 0.9489
-9.1405 -9.9958 -1.3004 0.9470
-8.1672 -10.7136 -1.2933 0.9473
-6.1162 -11.9646 -1.2900 0.9474
-3.9243 -12.9716 -1.3011 0.9470
-1.5858 -13.7290 -1.3268 0.9460
5.3298 -15.4614 -1.5701 0.9364
8.4749 -15.1248 -1.6645 0.9327
13.5673 -13.7444 -1.8541 0.9253
18.0461 -8.3707 -1.9098 0.9232
15.3155 -1.1778 -1.4747 0.9401
9.7452 1.8886 -0.9530 0.9609
8.7883 2.5349 -0.8781 0.9639
7.5451 2.9283 -0.7770 0.9680
5.3402 3.9626 -0.6384 0.9736
4.7563 4.2374 -0.6116 0.9747
2.6990 5.1159 -0.5553 0.9770
2.2614 5.4079 -0.5628 0.9767
0.2446 6.3493 -0.6100 0.9748
-2.3935 2.0799 -0.3044 0.9873
-18.7798 5.1658 -1.8699 0.9247
-18.4295 3.3354 -1.7981 0.9275
-17.9843 1.6167 -1.7335 0.9300
-17.4556 0.0046 -1.6758 0.9323
-16.1854 -2.9205 -1.5790 0.9360
-14.6786 -5.4799 -1.5042 0.9390
-12.0589 -8.7091 -1.4281 0.9420
-10.3428 -8.9778 -1.3149 0.9465
-7.4537 -11.1865 -1.2905 0.9474
-6.4209 -11.7991 -1.2896 0.9475
-4.2496 -12.8414 -1.2986 0.9471
-3.1098 -13.2701 -1.3085 0.9467
-0.7171 -13.9358 -1.3397 0.9455
1.8350 -14.3289 -1.3869 0.9436
3.1743 -14.4141 -1.4170 0.9424
4.8922 -15.4770 -1.5583 0.9369
8.0086 -15.1994 -1.6494 0.9333
9.6418 -14.9003 -1.7039 0.9312
11.3253 -14.4810 -1.7649 0.9288
14.8382 -13.2335 -1.9088 0.9232
16.0228 -1.6490 -1.5464 0.9373
14.5510 -0.1916 -1.3971 0.9432
11.6204 0.8875 -1.1189 0.9542
7.8122 2.8022 -0.7968 0.9672
6.9332 3.2116 -0.7336 0.9698
4.3154 4.3671 -0.5894 0.9756
3.9178 4.7464 -0.5909 0.9756
2.8346 5.0525 -0.5562 0.9770
1.9796 5.7329 -0.5823 0.9759
1.4797 5.9665 -0.5902 0.9756
-0.1641 6.5396 -0.6280 0.9741
-0.8085 7.0325 -0.6796 0.9720
-18.8613 5.7157 -1.8921 0.9239
-18.1218 2.1017 -1.7514 0.9293
-16.3845 -2.5217 -1.5915 0.9356
-15.6741 -3.8707 -1.5500 0.9372
-14.0938 -6.3089 -1.4825 0.9398
-10.6040 -8.7351 -1.3190 0.9463
-9.6865 -9.5528 -1.3061 0.9468
-8.7335 -10.3067 -1.2970 0.9472
-7.7454 -10.9983 -1.2915 0.9474
-6.7226 -11.6285 -1.2895 0.9475
-5.6649 -12.1978 -1.2912 0.9474
-2.2764 -13.5367 -1.3178 0.9463
0.1717 -14.1081 -1.3545 0.9449
2.7832 -14.3976 -1.4078 0.9428
4.1537 -14.4260 -1.4412 0.9415
5.9778 -15.4241 -1.5881 0.9357
7.5464 -15.2649 -1.6348 0.9339
10.8342 -14.6151 -1.7466 0.9295
14.3196 -13.4503 -1.8861 0.9241
2.3261 -0.9740 -0.2421 0.9899
18.8822 -2.4372 -1.8278 0.9263
14.9214 -0.5818 -1.4336 0.9418
10.8246 1.5233 -1.0495 0.9570
9.2000 2.1464 -0.9070 0.9627
7.1708 3.0995 -0.7500 0.9691
6.5796 3.5721 -0.7188 0.9704
5.7029 3.7918 -0.6575 0.9729
5.0873 4.0817 -0.6262 0.9741
3.4361 4.7479 -0.5627 0.9767
3.0112 5.0569 -0.5650 0.9766
2.5353 5.2798 -0.5623 0.9767
2.1063 5.6250 -0.5767 0.9762
1.6254 5.8984 -0.5874 0.9757
0.5621 3.0975 -0.3022 0.9874
-0.6172 6.9435 -0.6692 0.9724
-1.2694 7.0536 -0.6881 0.9716
-2.4952 2.0079 -0.3075 0.9872
-18.6442 4.3783 -1.8386 0.9259
-18.2522 2.5957 -1.7699 0.9286
-14.3341 -5.9773 -1.4910 0.9395
-13.4856 -7.0976 -1.4631 0.9406
-12.5933 -8.1407 -1.4396 0.9415
-8.0342 -10.8050 -1.2927 0.9473
-7.0215 -11.4529 -1.2897 0.9474
-5.9739 -12.0397 -1.2903 0.9474
-3.7724 -13.0302 -1.3023 0.9469
-2.6170 -13.4324 -1.3138 0.9465
2.3958 -14.3744 -1.3990 0.9431
3.7535 -14.4262 -1.4311 0.9419
5.5342 -15.4514 -1.5757 0.9362
7.0885 -15.3215 -1.6207 0.9344
8.6926 -15.0869 -1.6716 0.9324
10.3472 -14.7384 -1.7288 0.9302
13.8049 -13.6541 -1.8641 0.9249
3.3939 4.8288 -0.7011 0.9765
2.9338 5.0857 -0.6974 0.9766
2.0433 5.6955 -0.7188 0.9759
-0.7181 6.9815 -0.8337 0.9721
-1.3784 7.0952 -0.8586 0.9713
-15.3139 9.9108 -2.1668 0.9292
-15.5297 8.1838 -2.0852 0.9317
-15.5747 4.9241 -1.9403 0.9363
-14.4511 -0.7427 -1.7189 0.9434
-12.8309 -4.2452 -1.6054 0.9470
-12.1771 -5.2768 -1.5764 0.9479
-9.6635 -7.7681 -1.4728 0.9513
-8.4777 -8.1628 -1.3980 0.9537
-4.0838 -10.9369 -1.3868 0.9541
-3.1084 -11.3207 -1.3945 0.9538
-1.0650 -11.9088 -1.4202 0.9530
0.0025 -12.1092 -1.4384 0.9524
1.1293 -12.5713 -1.4993 0.9504
2.3772 -13.1397 -1.5861 0.9476
4.9021 -13.1123 -1.6628 0.9452
6.2017 -12.9321 -1.7037 0.9439
8.8780 -12.2808 -1.8001 0.9408
13.0293 -10.4650 -1.9851 0.9349
14.4256 -9.6022 -2.0585 0.9326
15.8130 -8.5956 -2.1379 0.9301
18.3590 -4.2933 -2.2396 0.9269
14.8380 -0.7566 -1.7648 0.9419
10.5119 1.3512 -1.2589 0.9582
7.2734 3.0410 -0.9365 0.9687
6.6269 3.4957 -0.8900 0.9703
4.5331 4.2534 -0.7384 0.9753
4.1323 4.6377 -0.7379 0.9753
3.6203 4.8783 -0.7216 0.9758
3.0718 5.0210 -0.6992 0.9766
2.5959 5.2440 -0.6951 0.9767
0.5990 3.0897 -0.3738 0.9874
0.6312 6.1613 -0.7357 0.9754
-0.5263 6.8486 -0.8159 0.9727
-15.2248 10.4202 -2.1915 0.9284
-15.4817 8.6762 -2.1081 0.9310
-15.6013 6.9935 -2.0309 0.9334
-15.5971 5.3776 -1.9597 0.9357
-15.4817 3.8318 -1.8945 0.9378
-15.2665 2.3579 -1.8350 0.9397
-14.9617 0.9566 -1.7809 0.9414
-14.1180 -1.6298 -1.6882 0.9444
-13.5939 -2.8169 -1.6491 0.9456
-13.0099 -3.9350 -1.6145 0.9467
-11.6817 -5.9707 -1.5584 0.9485
-10.9455 -6.8911 -1.5364 0.9492
-10.1656 -7.7485 -1.5183 0.9498
-4.3595 -10.8153 -1.3851 0.9541
-3.3932 -11.2159 -1.3919 0.9539
-1.3675 -11.8391 -1.4157 0.9531
0.7932 -12.4179 -1.4781 0.9511
3.2699 -13.2147 -1.6171 0.9466
4.5322 -13.1476 -1.6519 0.9455
7.1424 -12.7467 -1.7356 0.9428
8.4860 -12.4003 -1.7849 0.9413
9.8510 -11.9473 -1.8394 0.9395
14.0229 -9.8657 -2.0367 0.9333
15.4141 -8.9015 -2.1144 0.9308
15.5793 -7.2265 -2.0400 0.9332
16.8245 -6.0448 -2.1236 0.9305
14.0083 -3.6596 -1.7198 0.9433
12.1827 0.1540 -1.4472 0.9521
11.0629 1.1327 -1.3210 0.9562
9.4486 1.8311 -1.1432 0.9620
8.6024 2.4812 -1.0635 0.9646
6.6958 3.3141 -0.8875 0.9704
6.1532 3.7640 -0.8568 0.9714
4.7504 4.2321 -0.7557 0.9747
4.2848 4.5660 -0.7438 0.9751
3.7658 4.8100 -0.7256 0.9757
2.6959 5.1101 -0.6863 0.9770
1.8345 5.7930 -0.7218 0.9758
-0.3468 6.8091 -0.8099 0.9729
-0.9874 6.9928 -0.8389 0.9720
-1.6929 7.2409 -0.8833 0.9705
-15.1230 10.9340 -2.2167 0.9276
-15.4223 9.1737 -2.1315 0.9303
-15.5801 7.4727 -2.0526 0.9328
-15.5258 4.2707 -1.9127 0.9372
-15.3383 2.7760 -1.8516 0.9391
-15.0584 1.3537 -1.7959 0.9409
-14.6953 0.0039 -1.7456 0.9425
-14.2573 -1.2741 -1.7003 0.9440
-13.1843 -3.6192 -1.6241 0.9464
-11.8857 -5.6930 -1.5654 0.9483
-10.3951 -7.5074 -1.5231 0.9497
-9.0710 -7.8738 -1.4268 0.9528
-8.1389 -8.4519 -1.3938 0.9538
-6.4520 -9.6831 -1.3822 0.9542
-2.6868 -11.4652 -1.3988 0.9537
-0.6175 -12.0014 -1.4275 0.9527
2.9110 -13.2186 -1.6078 0.9469
4.1647 -13.1757 -1.6414 0.9459
8.0957 -12.5109 -1.7701 0.9417
9.4549 -12.0894 -1.8231 0.9400
12.2231 -10.9012 -1.9455 0.9362
13.6198 -10.1173 -2.0154 0.9339
15.0136 -9.1949 -2.0913 0.9315
15.2137 -7.5399 -2.0169 0.9339
2.3381 -0.9088 -0.2980 0.9899
17.6835 -5.1106 -2.1865 0.9285
18.8387 -3.6611 -2.2796 0.9256
14.5109 -0.1911 -1.7238 0.9432
11.6728 0.8915 -1.3906 0.9539
9.8412 1.6449 -1.1852 0.9606
8.7825 2.2894 -1.0781 0.9641
6.9229 3.2068 -0.9063 0.9697
5.5116 3.8733 -0.8002 0.9732
4.9136 4.1552 -0.7644 0.9744
3.9131 4.7408 -0.7302 0.9755
3.3291 4.8592 -0.6997 0.9766
2.8313 5.0467 -0.6874 0.9770
1.9773 5.7263 -0.7196 0.9759
1.4780 5.9595 -0.7293 0.9756
0.4741 3.0605 -0.3679 0.9876
0.4036 6.2673 -0.7460 0.9750
-1.4762 7.1405 -0.8661 0.9711
-14.5043 13.2756 -2.3356 0.9239
-15.3511 9.6761 -2.1555 0.9295
-15.5482 7.9572 -2.0747 0.9321
-15.6139 6.3023 -2.0001 0.9344
-15.5612 4.7157 -1.9315 0.9366
-14.8082 0.3861 -1.7596 0.9421
-13.9042 -2.1400 -1.6711 0.9449
-12.7463 -4.3872 -1.6013 0.9471
-11.3761 -6.3674 -1.5486 0.9488
-10.6211 -7.2611 -1.5283 0.9495
-9.4524 -7.7865 -1.4547 0.9519
-8.3710 -8.2555 -1.3966 0.9537
-5.8197 -10.0667 -1.3812 0.9542
-3.9550 -10.9917 -1.3876 0.9540
-2.9754 -11.3676 -1.3958 0.9538
-1.9649 -11.6841 -1.4074 0.9534
0.1477 -12.1311 -1.4411 0.9523
2.5548 -13.2159 -1.5989 0.9472
5.0745 -13.0935 -1.6680 0.9450
6.3778 -12.9010 -1.7095 0.9437
7.7074 -12.6129 -1.7558 0.9422
9.0605 -12.2223 -1.8073 0.9406
11.8207 -11.1031 -1.9264 0.9368
13.2164 -10.3575 -1.9946 0.9346
17.3380 -5.4993 -2.1606 0.9294
18.5125 -4.0961 -2.2522 0.9265
10.2738 1.4458 -1.2324 0.9591
9.0382 2.1086 -1.1024 0.9633
6.5703 3.5670 -0.8881 0.9703
5.6953 3.7867 -0.8124 0.9728
3.4344 4.7455 -0.6958 0.9767
3.0077 5.0510 -0.6983 0.9766
0.5551 3.0592 -0.3693 0.9876
-0.6164 6.9343 -0.8269 0.9723
-2.4899 2.0037 -0.3796 0.9872
-15.5054 8.4471 -2.0974 0.9313
-15.5878 5.1665 -1.9507 0.9360
-15.4585 3.6302 -1.8862 0.9380
-15.2307 2.1660 -1.8274 0.9399
-14.9146 0.7744 -1.7740 0.9416
-14.5189 -0.5449 -1.7259 0.9432
-14.0515 -1.7929 -1.6827 0.9445
-13.5191 -2.9706 -1.6442 0.9458
-12.2816 -5.1215 -1.5806 0.9478
-11.5857 -6.0977 -1.5552 0.9486
-9.9627 -7.7841 -1.5018 0.9503
-6.9529 -9.3507 -1.3841 0.9541
-1.2275 -11.8721 -1.4178 0.9531
0.9479 -12.4886 -1.4877 0.9508
2.1746 -13.0475 -1.5712 0.9481
3.4372 -13.2105 -1.6215 0.9465
7.3210 -12.7062 -1.7419 0.9426
11.4190 -11.2943 -1.9078 0.9374
12.8131 -10.5863 -1.9743 0.9352
14.2098 -9.7450 -2.0467 0.9329
3.3899 4.8232 -0.8353 0.9765
2.9304 5.0798 -0.8309 0.9766
2.0410 5.6889 -0.8564 0.9759
0.5092 3.0453 -0.4375 0.9876
0.4758 6.2257 -0.8847 0.9751
-0.0850 6.4863 -0.9191 0.9741
-0.7142 6.9435 -0.9890 0.9722
-6.9875 17.9797 -2.7331 0.9250
-8.2885 16.7266 -2.6450 0.9274
-9.4258 15.3928 -2.5574 0.9297
-10.4007 14.0030 -2.4715 0.9320
-11.8822 11.1400 -2.3078 0.9363
-12.4034 9.7017 -2.2312 0.9384
-12.7899 8.2773 -2.1586 0.9403
-13.2357 4.1846 -1.9669 0.9455
-13.1771 2.9027 -1.9118 0.9469
-12.7994 0.4871 -1.8149 0.9496
-11.6871 -2.7381 -1.7008 0.9527
-9.4125 -6.2708 -1.6025 0.9553
-8.7292 -7.0170 -1.5869 0.9558
-8.0059 -7.7085 -1.5747 0.9561
-7.2448 -8.3454 -1.5659 0.9563
-6.4482 -8.9273 -1.5603 0.9565
-5.6024 -9.4285 -1.5540 0.9567
-3.8291 -10.2548 -1.5510 0.9567
-1.9837 -10.9898 -1.5823 0.9559
-1.0038 -11.2245 -1.5967 0.9555
0.0023 -11.3956 -1.6146 0.9550
1.0331 -11.5006 -1.6361 0.9544
2.0872 -11.5366 -1.6611 0.9537
3.1627 -11.5002 -1.6899 0.9530
4.2574 -11.3877 -1.7226 0.9521
6.4933 -10.9178 -1.7999 0.9500
7.6275 -10.5511 -1.8447 0.9488
11.0343 -8.8627 -2.0053 0.9444
13.2358 -7.1947 -2.1345 0.9410
15.0509 -3.5197 -2.1901 0.9395
14.8365 -0.7565 -2.1049 0.9417
11.6317 0.4474 -1.6493 0.9541
10.7564 1.3826 -1.5366 0.9571
7.9669 2.5224 -1.1840 0.9668
7.1389 2.9848 -1.0963 0.9692
6.5972 3.4800 -1.0568 0.9703
5.9471 3.8522 -1.0040 0.9718
5.1531 4.0340 -0.9273 0.9739
4.1273 4.6322 -0.8791 0.9752
3.0682 5.0152 -0.8330 0.9765
2.1192 5.4596 -0.8298 0.9766
0.5966 3.0776 -0.4442 0.9874
0.0814 6.4091 -0.9082 0.9744
-6.5818 18.3226 -2.7585 0.9244
-7.9297 17.0978 -2.6704 0.9267
-9.1143 15.7847 -2.5826 0.9290
-10.1358 14.4086 -2.4961 0.9313
-10.9975 12.9925 -2.4118 0.9335
-12.9881 7.2787 -2.1095 0.9416
-13.2349 4.5632 -1.9836 0.9450
-13.0805 2.0203 -1.8753 0.9479
-12.2366 -1.4126 -1.7453 0.9515
-11.8188 -2.4491 -1.7102 0.9524
-11.3421 -3.4306 -1.6790 0.9533
-10.8111 -4.3571 -1.6515 0.9540
-9.6020 -6.0452 -1.6077 0.9552
-8.2186 -7.5145 -1.5779 0.9560
-6.6817 -8.7649 -1.5616 0.9565
-5.8607 -9.3075 -1.5584 0.9565
-4.0856 -10.1357 -1.5484 0.9568
-2.2615 -10.9106 -1.5788 0.9560
-1.2894 -11.1632 -1.5922 0.9556
-0.2908 -11.3529 -1.6091 0.9552
0.7331 -11.4772 -1.6295 0.9546
1.7806 -11.5335 -1.6535 0.9539
2.8501 -11.5183 -1.6812 0.9532
5.0463 -11.2592 -1.7482 0.9514
6.1675 -11.0068 -1.7877 0.9503
9.5764 -9.7013 -1.9315 0.9464
11.8288 -8.3220 -2.0492 0.9432
12.9251 -7.4642 -2.1148 0.9415
13.9229 -5.0023 -2.0962 0.9420
14.0007 -3.6576 -2.0503 0.9432
15.6208 -2.6194 -2.2442 0.9380
15.2085 -1.1696 -2.1612 0.9402
12.1507 0.1536 -1.7218 0.9521
9.6084 1.8621 -1.3867 0.9612
8.2648 2.3839 -1.2188 0.9658
4.7444 4.2268 -0.9003 0.9747
4.2796 4.5605 -0.8861 0.9751
2.6928 5.1042 -0.8177 0.9770
2.2562 5.3955 -0.8286 0.9767
1.8324 5.7863 -0.8600 0.9758
1.3196 5.9771 -0.8673 0.9756
0.2440 6.3335 -0.8981 0.9747
-4.4884 13.5869 -2.0274 0.9438
-8.7891 16.1713 -2.6079 0.9283
-10.7648 13.4042 -2.4359 0.9329
-2.3953 2.0813 -0.4496 0.9873
-12.5827 9.0973 -2.2000 0.9392
-12.9151 7.6823 -2.1292 0.9411
-13.2257 4.9454 -2.0007 0.9446
-13.2224 3.6371 -1.9431 0.9461
-13.1250 2.3754 -1.8899 0.9475
-12.9416 1.1634 -1.8411 0.9489
-12.6795 0.0034 -1.7966 0.9501
-11.9458 -2.1555 -1.7199 0.9521
-11.4855 -3.1529 -1.6876 0.9530
-10.9697 -4.0953 -1.6591 0.9538
-10.4025 -4.9826 -1.6343 0.9545
-9.7878 -5.8151 -1.6131 0.9550
-9.1287 -6.5928 -1.5955 0.9555
-7.6887 -7.9843 -1.5706 0.9562
-5.2265 -9.6043 -1.5493 0.9568
-3.4515 -10.4298 -1.5566 0.9566
-1.5728 -11.0966 -1.5880 0.9557
0.4350 -11.4482 -1.6233 0.9548
1.4759 -11.5244 -1.6462 0.9541
3.6231 -11.4621 -1.7033 0.9526
5.8426 -11.0885 -1.7759 0.9506
8.1086 -10.3680 -1.8649 0.9482
10.3833 -9.2604 -1.9713 0.9453
12.6998 -6.2941 -2.0083 0.9443
2.3385 -0.9090 -0.3555 0.9899
15.3946 -2.9918 -2.2221 0.9386
14.4707 -0.1905 -2.0505 0.9432
11.7731 0.8991 -1.6730 0.9534
10.0720 1.6835 -1.4469 0.9596
7.5644 2.7133 -1.1387 0.9681
6.8605 3.1779 -1.0713 0.9699
6.3027 3.6354 -1.0309 0.9710
3.9085 4.7351 -0.8699 0.9755
3.3252 4.8536 -0.8336 0.9765
2.8280 5.0408 -0.8190 0.9769
2.3929 5.3316 -0.8280 0.9767
1.9750 5.7197 -0.8574 0.9759
1.4762 5.9525 -0.8690 0.9755
0.4734 3.0557 -0.4381 0.9876
-0.1636 6.5228 -0.9245 0.9740
-0.8005 6.9624 -0.9930 0.9721
-7.1712 17.8175 -2.7214 0.9253
-10.5191 13.8138 -2.4601 0.9323
-11.3150 12.3868 -2.3771 0.9345
-11.9601 10.9470 -2.2973 0.9366
-12.4628 9.5099 -2.2212 0.9386
-13.0772 6.6926 -2.0815 0.9424
-13.2079 5.3311 -2.0181 0.9441
-13.2333 4.0102 -1.9592 0.9457
-13.0029 1.5080 -1.8547 0.9485
-12.7628 0.3328 -1.8090 0.9497
-11.1240 -3.8289 -1.6669 0.9536
-9.9700 -5.5804 -1.6189 0.9549
-7.9061 -7.7970 -1.5733 0.9561
-7.1402 -8.4265 -1.5649 0.9564
-6.3388 -9.0010 -1.5599 0.9565
-5.4831 -9.4844 -1.5522 0.9567
-3.7097 -10.3101 -1.5525 0.9567
-2.8078 -10.7274 -1.5712 0.9562
-1.8540 -11.0249 -1.5840 0.9558
-0.8705 -11.2512 -1.5989 0.9554
1.1730 -11.5095 -1.6392 0.9543
4.4053 -11.3667 -1.7273 0.9519
6.6448 -10.8740 -1.8056 0.9498
7.7799 -10.4949 -1.8510 0.9486
8.9191 -10.0206 -1.9008 0.9472
10.0563 -9.4458 -1.9549 0.9458
11.1846 -8.7652 -2.0134 0.9442
12.2955 -7.9737 -2.0764 0.9425
13.3620 -7.0574 -2.1411 0.9408
2.3203 -0.9716 -0.3564 0.9899
11.6986 0.5903 -1.6597 0.9538
10.5437 1.4838 -1.5086 0.9579
7.8359 2.5845 -1.1691 0.9672
7.0496 3.0471 -1.0882 0.9694
6.5130 3.5359 -1.0501 0.9705
4.0575 4.6650 -0.8760 0.9753
3.0042 5.0452 -0.8320 0.9766
2.5295 5.2676 -0.8280 0.9767
2.1015 5.6121 -0.8491 0.9761
1.6217 5.8846 -0.8649 0.9756
-1.2658 7.0338 -1.0126 0.9715
-10.2603 14.2208 -2.4846 0.9316
-11.1011 12.8009 -2.4008 0.9338
-11.7889 11.3630 -2.3200 0.9360
-2.4868 2.0012 -0.4523 0.9872
-12.8400 0.6667 -1.8217 0.9494
-12.5468 -0.4709 -1.7790 0.9505
-12.1843 -1.5546 -1.7404 0.9516
-11.2740 -3.5579 -1.6751 0.9534
-10.7360 -4.4770 -1.6481 0.9541
-8.8376 -6.9051 -1.5891 0.9557
-7.3650 -8.2504 -1.5670 0.9563
-6.5737 -8.8408 -1.5610 0.9565
-3.9667 -10.1909 -1.5495 0.9568
-3.0705 -10.6060 -1.5645 0.9564
-1.1572 -11.1923 -1.5943 0.9556
2.9949 -11.5107 -1.6852 0.9531
6.3186 -10.9664 -1.7933 0.9502
7.4515 -10.6139 -1.8375 0.9490
9.7286 -9.6224 -1.9388 0.9462
10.8603 -8.9729 -1.9961 0.9447
11.9771 -8.2139 -2.0578 0.9430
2.9270 5.0739 -0.9650 0.9765
2.4535 5.2958 -0.9615 0.9766
2.0386 5.6823 -0.9945 0.9758
1.5308 5.8708 -0.9995 0.9757
-0.6759 6.5707 -1.0882 0.9736
-4.2146 14.5864 -2.5013 0.9403
-5.3590 13.7894 -2.4372 0.9418
-6.8884 13.9012 -2.5558 0.9390
-7.8777 12.8647 -2.4851 0.9407
-8.7407 11.7681 -2.4149 0.9423
-10.9703 7.0997 -2.1527 0.9484
-11.4187 4.7687 -2.0386 0.9511
-11.4892 2.5309 -1.9381 0.9534
-11.2329 0.4275 -1.8518 0.9555
-10.9970 -0.5652 -1.8140 0.9563
-9.9206 -3.2823 -1.7214 0.9585
-8.3805 -5.5833 -1.6589 0.9600
-7.7804 -6.2543 -1.6445 0.9603
-6.4667 -7.4490 -1.6251 0.9608
-5.7578 -7.9715 -1.6200 0.9609
-5.0168 -8.4430 -1.6179 0.9610
-4.2457 -8.8626 -1.6189 0.9609
-3.4461 -9.2292 -1.6230 0.9608
-2.6199 -9.5417 -1.6301 0.9607
0.9178 -10.2162 -1.6898 0.9593
1.8509 -10.2307 -1.7128 0.9587
3.7597 -10.0566 -1.7687 0.9574
4.7293 -9.8619 -1.8018 0.9566
5.7044 -9.5913 -1.8384 0.9558
7.6528 -8.8080 -1.9222 0.9538
9.5611 -7.6793 -2.0202 0.9515
11.3604 -6.1753 -2.1301 0.9489
11.3362 -4.9070 -2.0350 0.9512
13.3365 -1.8840 -2.2189 0.9469
11.6304 0.4474 -1.9174 0.9539
10.7333 1.3797 -1.7828 0.9571
9.3142 2.0558 -1.5713 0.9621
6.2745 3.3098 -1.1687 0.9717
4.4995 4.2219 -1.0164 0.9753
3.0647 5.0093 -0.9674 0.9765
2.5899 5.2319 -0.9617 0.9766
1.6841 5.8375 -1.0009 0.9757
0.5738 2.9600 -0.4967 0.9879
0.0805 6.3406 -1.0446 0.9746
-5.0397 14.0297 -2.4558 0.9414
-6.5795 14.1867 -2.5762 0.9386
-8.5046 12.0898 -2.4351 0.9418
-11.1764 6.2634 -2.1106 0.9494
-11.4330 1.7658 -1.9058 0.9542
-11.0720 -0.2829 -1.8246 0.9561
-10.7896 -1.2456 -1.7893 0.9569
-9.5936 -3.8664 -1.7040 0.9589
-9.0925 -4.6473 -1.6822 0.9594
-8.5462 -5.3806 -1.6637 0.9599
-7.9577 -6.0656 -1.6484 0.9602
-6.6652 -7.2889 -1.6271 0.9608
-3.6798 -9.1289 -1.6215 0.9609
-2.8611 -9.4571 -1.6277 0.9607
-1.1488 -9.9463 -1.6494 0.9602
-0.2588 -10.1036 -1.6650 0.9599
0.6515 -10.2000 -1.6838 0.9594
2.5240 -10.2005 -1.7311 0.9583
4.4487 -9.9258 -1.7919 0.9569
7.3729 -8.9418 -1.9092 0.9541
9.2902 -7.8646 -2.0052 0.9519
11.1146 -5.1556 -2.0184 0.9515
11.8637 -4.2625 -2.0767 0.9502
12.5539 -3.2796 -2.1375 0.9488
13.1729 -2.2089 -2.2004 0.9473
13.7075 -1.0541 -2.2648 0.9458
12.1188 0.1532 -1.9966 0.9521
8.4688 2.4427 -1.4520 0.9649
6.4852 3.2098 -1.1921 0.9711
5.2510 3.8964 -1.0772 0.9738
3.7569 4.7986 -1.0040 0.9756
1.3180 5.9700 -1.0072 0.9755
0.2422 6.2879 -1.0366 0.9748
-0.8700 6.1612 -1.0251 0.9751
-1.6435 7.0299 -1.1893 0.9712
-4.4670 13.5222 -2.3460 0.9439
-8.2579 12.4075 -2.4553 0.9414
-9.7525 10.1381 -2.3175 0.9446
-10.7631 7.7818 -2.1880 0.9476
-11.4634 4.2864 -2.0162 0.9516
-11.3376 1.0192 -1.8753 0.9549
-11.1414 0.0029 -1.8354 0.9558
-10.8776 -0.9721 -1.7991 0.9567
-10.5513 -1.9039 -1.7663 0.9575
-9.7293 -3.6322 -1.7109 0.9588
-8.7083 -5.1738 -1.6687 0.9598
-8.1318 -5.8728 -1.6525 0.9602
-7.5151 -6.5232 -1.6394 0.9605
-6.8607 -7.1245 -1.6294 0.9607
-6.1712 -7.6760 -1.6225 0.9609
-5.4484 -8.1770 -1.6187 0.9609
-4.6945 -8.6267 -1.6180 0.9610
-3.9111 -9.0241 -1.6202 0.9609
-3.1001 -9.3680 -1.6256 0.9608
-0.5179 -10.0643 -1.6602 0.9600
2.2500 -10.2169 -1.7235 0.9585
4.1686 -9.9834 -1.7823 0.9571
5.1410 -9.7570 -1.8168 0.9563
6.1171 -9.4532 -1.8549 0.9554
8.0611 -8.5992 -1.9417 0.9533
9.0174 -8.0422 -1.9905 0.9522
12.3614 -3.5725 -2.1197 0.9492
13.0023 -2.5269 -2.1821 0.9477
10.0896 1.6865 -1.6852 0.9594
8.8089 2.2963 -1.4997 0.9638
7.6633 2.7488 -1.3412 0.9675
6.7135 3.1098 -1.2189 0.9705
5.9802 3.4493 -1.1373 0.9724
5.4041 3.7977 -1.0881 0.9736
4.8817 4.1282 -1.0532 0.9744
3.9038 4.7295 -1.0103 0.9754
2.8633 5.1038 -0.9641 0.9766
1.9727 5.7130 -0.9957 0.9758
1.4637 5.9021 -1.0018 0.9757
-0.1610 6.4169 -1.0574 0.9743
-4.3740 14.4857 -2.4928 0.9405
-5.5040 13.6752 -2.4285 0.9420
-7.0282 13.7666 -2.5463 0.9393
-8.0006 12.7209 -2.4756 0.9409
-8.8467 11.6176 -2.4056 0.9425
-9.5674 10.4737 -2.3369 0.9441
-10.6457 8.1234 -2.2060 0.9472
-11.4817 2.3855 -1.9319 0.9536
-11.2052 0.2922 -1.8466 0.9556
-10.9604 -0.6950 -1.8092 0.9565
-10.6516 -1.6394 -1.7754 0.9573
-9.8610 -3.3941 -1.7180 0.9586
-6.3737 -7.5219 -1.6242 0.9608
-4.1402 -8.9148 -1.6193 0.9609
-3.3370 -9.2743 -1.6237 0.9608
1.9771 -10.2276 -1.7161 0.9586
3.8891 -10.0348 -1.7729 0.9573
5.8352 -9.5491 -1.8436 0.9556
8.7430 -8.2122 -1.9760 0.9525
9.6861 -7.5908 -2.0273 0.9513
10.6037 -6.8765 -2.0820 0.9501
2.3180 -0.9706 -0.4140 0.9899
12.8249 -2.8377 -2.1639 0.9481
13.4099 -1.7309 -2.2275 0.9467
11.6973 0.5903 -1.9295 0.9536
7.9743 2.6301 -1.3833 0.9665
6.1795 3.3548 -1.1584 0.9719
5.5592 3.6962 -1.0998 0.9733
2.0990 5.6056 -0.9861 0.9760
1.6121 5.8498 -0.9996 0.9757
0.0046 6.3649 -1.0485 0.9745
-0.5817 6.5434 -1.0822 0.9737
-5.1890 13.9192 -2.4472 0.9416
-7.7328 13.0295 -2.4960 0.9404
-10.0052 9.6438 -2.2893 0.9452
-10.9183 7.2823 -2.1621 0.9482
-11.4916 3.8088 -1.9944 0.9521
-11.2633 0.5848 -1.8580 0.9553
-10.3957 -2.2843 -1.7534 0.9578
-9.9884 -3.1521 -1.7255 0.9584
-9.5292 -3.9737 -1.7009 0.9590
-9.0219 -4.7483 -1.6795 0.9595
-7.8759 -6.1537 -1.6465 0.9603
-5.1335 -8.3733 -1.6180 0.9610
-4.3669 -8.8011 -1.6185 0.9610
-2.7495 -9.4969 -1.6288 0.9607
-1.9020 -9.7624 -1.6385 0.9605
-1.0309 -9.9708 -1.6513 0.9602
-0.1380 -10.1201 -1.6673 0.9598
2.6515 -10.1910 -1.7347 0.9582
5.5533 -9.6383 -1.8325 0.9559
8.4672 -8.3747 -1.9619 0.9529
2.4071 5.1958 -1.0763 0.9770
1.4598 5.5984 -1.0875 0.9767
0.4864 2.9089 -0.5543 0.9881
0.4611 6.0327 -1.1372 0.9757
-0.0824 6.2893 -1.1822 0.9747
-0.6806 6.6164 -1.2502 0.9733
-7.5300 10.1380 -2.3737 0.9499
-8.7627 8.2154 -2.2577 0.9523
-9.9999 0.3806 -1.8810 0.9601
-9.5633 -1.3549 -1.8155 0.9615
-8.9004 -2.9448 -1.7621 0.9626
-8.4938 -3.6807 -1.7400 0.9630
-8.0416 -4.3755 -1.7208 0.9634
-7.5469 -5.0279 -1.7045 0.9638
-5.8354 -6.7217 -1.6731 0.9644
-5.1972 -7.1954 -1.6683 0.9645
-3.1101 -8.3292 -1.6711 0.9645
-2.3634 -8.6075 -1.6777 0.9643
-1.5945 -8.8337 -1.6872 0.9641
1.6615 -9.1834 -1.7541 0.9627
3.3636 -8.9970 -1.8054 0.9617
4.2228 -8.8055 -1.8356 0.9610
5.0823 -8.5453 -1.8688 0.9603
5.9379 -8.2138 -1.9050 0.9596
7.6165 -7.3276 -1.9866 0.9579
8.4275 -6.7689 -2.0317 0.9570
9.9401 -5.4032 -2.1265 0.9550
10.4930 -3.4670 -2.0771 0.9560
11.0340 -2.5804 -2.1299 0.9549
11.5049 -1.6252 -2.1839 0.9538
10.7102 1.3767 -2.0297 0.9570
9.2965 2.0518 -1.7894 0.9620
7.2394 3.0268 -1.4749 0.9686
5.6317 3.6480 -1.2612 0.9731
4.4427 4.1686 -1.1451 0.9755
4.1173 4.6209 -1.1633 0.9751
3.0035 4.9094 -1.0818 0.9768
2.5412 5.1337 -1.0767 0.9770
2.0745 5.3443 -1.0775 0.9769
1.5992 5.5430 -1.0844 0.9768
0.6109 5.9632 -1.1267 0.9759
0.0789 6.2100 -1.1673 0.9750
-0.5008 6.5173 -1.2286 0.9737
-3.2730 12.5316 -2.4345 0.9487
-5.2119 11.2378 -2.3284 0.9508
-6.0485 10.4753 -2.2736 0.9520
-8.0154 9.4694 -2.3319 0.9508
-8.6100 8.5001 -2.2741 0.9519
-2.4396 2.0118 -0.5944 0.9872
-9.7993 5.4916 -2.1114 0.9553
-10.0095 4.4869 -2.0618 0.9563
-10.1341 3.4941 -2.0148 0.9573
-10.1456 1.5670 -1.9296 0.9591
-10.0423 0.6420 -1.8914 0.9599
-9.8726 -0.2522 -1.8563 0.9606
-9.3518 -1.9379 -1.7951 0.9619
-8.6160 -3.4724 -1.7461 0.9629
-7.6939 -4.8440 -1.7089 0.9637
-7.1707 -5.4657 -1.6947 0.9640
-6.6098 -6.0435 -1.6834 0.9642
-5.3846 -7.0634 -1.6694 0.9645
-4.7248 -7.5037 -1.6667 0.9646
-3.3212 -8.2394 -1.6698 0.9645
-2.5813 -8.5324 -1.6755 0.9644
-1.8186 -8.7738 -1.6842 0.9642
-0.2329 -9.0953 -1.7101 0.9636
1.4187 -9.1895 -1.7477 0.9629
3.1162 -9.0399 -1.7973 0.9618
4.8344 -8.6276 -1.8589 0.9605
5.6916 -8.3169 -1.8943 0.9598
7.3781 -7.4744 -1.9741 0.9582
8.1959 -6.9383 -2.0184 0.9572
9.7458 -5.6282 -2.1154 0.9552
10.3252 -3.7097 -2.0622 0.9563
11.3768 -1.9077 -2.1682 0.9541
11.7914 -0.9068 -2.2229 0.9530
11.1929 1.1460 -2.1148 0.9552
7.4972 2.9096 -1.5116 0.9678
6.6080 3.2706 -1.3858 0.9704
5.8340 3.5687 -1.2855 0.9725
4.5971 4.0956 -1.1573 0.9753
4.2692 4.5494 -1.1726 0.9749
3.1367 4.8418 -1.0844 0.9768
2.6750 5.0704 -1.0775 0.9769
0.6984 3.1633 -0.6089 0.9869
0.2364 6.1369 -1.1544 0.9753
-1.6778 7.1763 -1.3852 0.9704
-4.9533 11.4451 -2.3441 0.9505
-5.8165 10.7020 -2.2895 0.9516
-6.5866 9.8965 -2.2345 0.9528
-2.3970 2.0828 -0.5969 0.9872
-9.7220 5.7829 -2.1262 0.9550
-9.9578 4.7761 -2.0758 0.9560
-10.1066 3.7791 -2.0281 0.9570
-10.1732 2.7984 -1.9832 0.9580
-10.0791 0.9060 -1.9021 0.9596
-9.9281 0.0026 -1.8661 0.9604
-9.4410 -1.7035 -1.8032 0.9617
-9.1132 -2.5016 -1.7763 0.9623
-8.3081 -3.9794 -1.7315 0.9632
-7.3258 -5.2907 -1.6985 0.9639
-6.1893 -6.4272 -1.6771 0.9643
-5.5695 -6.9276 -1.6707 0.9645
-4.9183 -7.3814 -1.6672 0.9645
-4.2379 -7.7877 -1.6665 0.9646
-2.0410 -8.7095 -1.6814 0.9642
-1.2634 -8.9132 -1.6921 0.9640
2.0184 -9.1652 -1.7640 0.9625
3.7264 -8.9243 -1.8178 0.9614
5.4446 -8.4140 -1.8837 0.9600
6.2971 -8.0517 -1.9213 0.9593
7.9621 -7.1011 -2.0053 0.9575
9.5214 -4.7188 -1.9974 0.9577
11.2422 -2.1848 -2.1526 0.9545
12.0333 -0.1585 -2.2620 0.9522
11.7180 0.8949 -2.2089 0.9533
10.0690 1.6830 -1.9188 0.9593
8.7929 2.2921 -1.7079 0.9637
7.7612 2.7839 -1.5498 0.9670
6.8569 3.1762 -1.4204 0.9697
6.0450 3.4867 -1.3117 0.9720
3.2699 4.7729 -1.0875 0.9767
2.8085 5.0059 -1.0789 0.9769
2.3448 5.2242 -1.0763 0.9770
1.3947 5.6238 -1.0891 0.9767
-0.1588 6.3306 -1.1903 0.9746
-0.7661 6.6638 -1.2608 0.9731
-1.2568 6.0794 -1.1668 0.9750
-3.7104 12.2880 -2.4127 0.9491
-4.6873 11.6460 -2.3596 0.9502
-5.5768 10.9236 -2.3053 0.9513
-6.3740 10.1346 -2.2503 0.9524
-8.2792 9.0634 -2.3073 0.9513
-9.2823 7.0830 -2.1946 0.9536
-10.1621 3.0795 -1.9959 0.9577
-10.1103 1.1725 -1.9131 0.9594
-9.9784 0.2602 -1.8762 0.9602
-9.5256 -1.4661 -1.8115 0.9615
-9.2132 -2.2752 -1.7837 0.9621
-8.4358 -3.7762 -1.7372 0.9631
-7.4776 -5.1120 -1.7025 0.9638
-6.3621 -6.2743 -1.6795 0.9643
-5.1094 -7.2552 -1.6679 0.9645
-3.7373 -8.0472 -1.6677 0.9645
-0.6983 -9.0251 -1.7014 0.9638
0.1112 -9.1347 -1.7171 0.9635
0.9363 -9.1866 -1.7357 0.9631
2.6228 -9.1092 -1.7817 0.9622
3.4785 -8.9753 -1.8093 0.9616
4.3379 -8.7747 -1.8398 0.9609
6.0519 -8.1638 -1.9101 0.9595
6.8969 -7.7487 -1.9498 0.9587
7.7264 -7.2574 -1.9924 0.9578
9.3127 -6.0393 -2.0863 0.9558
11.5621 -1.4924 -2.1913 0.9537
10.4992 1.4775 -1.9929 0.9578
9.1318 2.1305 -1.7625 0.9626
7.1196 3.0773 -1.4579 0.9689
2.9417 4.9403 -1.0807 0.9769
2.4791 5.1626 -1.0764 0.9770
2.0114 5.3715 -1.0781 0.9769
0.5269 2.9038 -0.5547 0.9881
0.5418 5.9953 -1.1315 0.9758
0.0046 6.2444 -1.1737 0.9749
-0.5834 6.5628 -1.2384 0.9735
-1.2476 6.9328 -1.3240 0.9717
-4.4140 11.8403 -2.3751 0.9499
-5.3294 11.1396 -2.3211 0.9510
-6.1535 10.3684 -2.2662 0.9521
-8.6819 8.3683 -2.2665 0.9521
-2.4807 1.9962 -0.5985 0.9871
-9.5444 6.3659 -2.1564 0.9544
-9.8326 5.3567 -2.1046 0.9555
-10.0311 4.3531 -2.0553 0.9565
-10.1445 3.3623 -2.0088 0.9574
-10.0233 0.5204 -1.8865 0.9600
-8.1144 -4.2707 -1.7235 0.9634
-6.5320 -6.1175 -1.6821 0.9642
-5.9313 -6.6443 -1.6741 0.9644
-5.2980 -7.1251 -1.6689 0.9645
-3.2235 -8.2815 -1.6704 0.9645
-2.4805 -8.5678 -1.6765 0.9643
-1.7149 -8.8021 -1.6856 0.9642
-0.9288 -8.9831 -1.6975 0.9639
1.5312 -9.1873 -1.7507 0.9628
3.2309 -9.0207 -1.8010 0.9618
4.9494 -8.5902 -1.8634 0.9605
6.6542 -7.8762 -1.9380 0.9589
7.4889 -7.4071 -1.9798 0.9580
9.0913 -6.2348 -2.0721 0.9561
2.3804 5.1380 -1.1970 0.9771
1.9223 5.3582 -1.2033 0.9770
-0.0839 6.4041 -1.3538 0.9742
-0.6935 6.7424 -1.4327 0.9727
-3.0980 10.7218 -2.3591 0.9554
-3.9661 10.2052 -2.3144 0.9562
-4.7642 9.6144 -2.2681 0.9571
-6.1314 8.2550 -2.1736 0.9588
-6.6952 7.5080 -2.1264 0.9597
-7.7350 7.2518 -2.2412 0.9576
-8.5181 5.5127 -2.1447 0.9594
-8.7850 4.6295 -2.0990 0.9602
-8.9726 3.7472 -2.0554 0.9610
-9.1243 2.0100 -1.9749 0.9625
-8.8500 -0.4548 -1.8732 0.9644
-8.6401 -1.2241 -1.8446 0.9650
-7.3021 -3.9731 -1.7572 0.9666
-6.8588 -4.5695 -1.7421 0.9669
-3.4901 -7.2853 -1.7076 0.9675
-1.4505 -8.0357 -1.7260 0.9672
0.0017 -8.2869 -1.7517 0.9667
2.2710 -8.2579 -1.8104 0.9656
6.0878 -7.0068 -1.9621 0.9628
6.8192 -6.5606 -2.0002 0.9621
7.5274 -6.0459 -2.0408 0.9613
2.3351 -1.0108 -0.5378 0.9897
10.6456 0.4095 -2.2519 0.9574
10.6870 1.3737 -2.2776 0.9569
7.2280 3.0220 -1.6560 0.9685
6.4403 3.3972 -1.5391 0.9707
4.1123 4.6153 -1.3067 0.9750
2.9751 4.8630 -1.2051 0.9770
1.5928 5.5210 -1.2146 0.9768
0.5629 2.9039 -0.6252 0.9880
-1.0487 6.2561 -1.3409 0.9744
-2.8353 10.8556 -2.3716 0.9552
-3.7224 10.3624 -2.3274 0.9560
-5.2863 9.1552 -2.2347 0.9577
-6.5408 7.7273 -2.1400 0.9595
-2.4381 2.0106 -0.6680 0.9872
-8.7162 4.8847 -2.1120 0.9600
-9.0598 3.1237 -2.0257 0.9616
-9.1200 2.2572 -1.9860 0.9623
-9.1109 1.4072 -1.9487 0.9630
-8.7063 -1.0051 -1.8526 0.9648
-8.1594 -2.4679 -1.8019 0.9657
-7.8132 -3.1489 -1.7806 0.9661
-6.5204 -4.9700 -1.7330 0.9670
-1.6546 -7.9826 -1.7232 0.9672
0.5318 -8.3254 -1.7634 0.9665
1.2864 -8.3324 -1.7822 0.9661
2.0496 -8.2830 -1.8037 0.9657
2.8181 -8.1751 -1.8278 0.9653
3.5887 -8.0070 -1.8547 0.9648
8.0135 -5.6378 -2.0711 0.9607
9.1311 -3.2807 -2.0509 0.9611
9.5975 -2.5073 -2.0968 0.9603
10.0015 -1.6771 -2.1436 0.9594
10.5883 0.1338 -2.2383 0.9576
10.7546 1.1011 -2.2852 0.9568
9.6502 1.8702 -2.0778 0.9606
8.4590 2.4399 -1.8610 0.9646
7.4850 2.9049 -1.6972 0.9677
6.6562 3.2945 -1.5699 0.9701
5.9415 3.6345 -1.4723 0.9719
3.7479 4.7870 -1.2851 0.9755
3.1109 4.8019 -1.2094 0.9769
2.1871 5.2300 -1.1983 0.9771
0.3910 3.0403 -0.6479 0.9875
0.2399 6.2271 -1.3173 0.9748
-1.6829 7.1983 -1.5626 0.9702
-3.4730 10.5132 -2.3404 0.9557
-5.7691 8.6681 -2.2010 0.9583
-6.3795 7.9437 -2.1536 0.9592
-7.4451 7.7395 -2.2700 0.9570
-2.3982 2.0839 -0.6716 0.9871
-8.6407 5.1398 -2.1252 0.9597
-8.8737 4.2561 -2.0803 0.9606
-9.1099 2.5059 -1.9972 0.9621
-9.0644 0.8148 -1.9238 0.9635
-8.9457 0.0024 -1.8909 0.9641
-8.7680 -0.7836 -1.8608 0.9646
-8.5352 -1.5401 -1.8333 0.9652
-8.2506 -2.2649 -1.8085 0.9656
-7.1196 -4.2299 -1.7505 0.9667
-6.1637 -5.3503 -1.7253 0.9672
-5.6332 -5.8498 -1.7167 0.9673
-5.0709 -6.3074 -1.7107 0.9675
-3.8594 -7.0921 -1.7067 0.9675
-2.5465 -7.6951 -1.7133 0.9674
-1.8572 -7.9253 -1.7206 0.9673
-1.1490 -8.1060 -1.7306 0.9671
-0.4238 -8.2358 -1.7432 0.9668
0.3159 -8.3131 -1.7585 0.9666
1.8286 -8.3032 -1.7972 0.9658
2.5959 -8.2124 -1.8206 0.9654
3.3662 -8.0619 -1.8467 0.9649
6.3993 -6.8265 -1.9779 0.9625
7.8182 -5.8077 -2.0587 0.9610
8.4822 -5.1948 -2.1025 0.9602
8.4509 -4.1883 -1.9937 0.9622
9.8918 -1.9224 -2.1300 0.9596
10.2462 -1.0545 -2.1773 0.9588
10.5237 -0.1386 -2.2247 0.9579
10.0484 1.6796 -2.1535 0.9592
8.7768 2.2880 -1.9172 0.9636
7.7484 2.7793 -1.7400 0.9669
6.8810 3.1874 -1.6030 0.9695
5.4513 3.8309 -1.4084 0.9731
4.3091 4.3608 -1.2959 0.9752
3.8944 4.7180 -1.2932 0.9753
3.2480 4.7408 -1.2147 0.9768
2.7785 4.9526 -1.2004 0.9771
0.4505 2.9081 -0.6220 0.9880
0.3956 6.1430 -1.3012 0.9751
-0.7798 6.7822 -1.4431 0.9725
-3.2180 10.6573 -2.3532 0.9555
-7.2885 7.9789 -2.2843 0.9568
-8.2205 6.2728 -2.1858 0.9586
-8.8146 4.5111 -2.0931 0.9603
-9.0939 2.7558 -2.0086 0.9619
-8.0186 -2.7600 -1.7926 0.9659
-7.6533 -3.4259 -1.7724 0.9663
-7.2450 -4.0552 -1.7550 0.9666
-5.7898 -5.7099 -1.7189 0.9673
-5.2364 -6.1797 -1.7121 0.9674
-4.6527 -6.6067 -1.7081 0.9675
-3.4032 -7.3279 -1.7079 0.9675
-2.0583 -7.8638 -1.7183 0.9673
-1.3553 -8.0590 -1.7274 0.9671
-0.6347 -8.2037 -1.7393 0.9669
0.1010 -8.2963 -1.7538 0.9666
0.8495 -8.3352 -1.7710 0.9663
1.6081 -8.3185 -1.7909 0.9660
3.1437 -8.1115 -1.8389 0.9651
3.9141 -7.9174 -1.8669 0.9645
6.1869 -6.9510 -1.9670 0.9627
6.9155 -6.4957 -2.0055 0.9620
7.6201 -5.9718 -2.0464 0.9612
8.9011 -4.7013 -2.1278 0.9597
