ply
format ascii 1.0
element vertex 1595
property float32 x
property float32 y
property float32 z
property float32 I
end_header
7.0421 1.1294 -2.1937 0.9706
7.0003 1.7755 -2.2213 0.9702
6.8937 2.4212 -2.2473 0.9699
6.7210 3.0591 -2.2713 0.9696
5.6699 3.9279 -2.1215 0.9715
4.9835 4.1570 -1.9961 0.9732
3.8060 4.5477 -1.8240 0.9755
2.3041 5.0408 -1.7047 0.9771
-0.6461 5.9892 -1.8528 0.9751
-1.2313 6.1745 -1.9365 0.9740
-1.6260 5.5255 -1.7716 0.9762
-3.6518 5.8992 -2.1340 0.9714
-4.1041 5.4703 -2.1034 0.9718
-5.1695 4.0040 -2.0112 0.9730
-6.3440 1.9733 -2.0435 0.9726
-6.4060 1.3801 -2.0155 0.9729
-6.4182 0.7923 -1.9891 0.9733
-6.3827 0.2137 -1.9643 0.9736
-6.0093 -1.4365 -1.9004 0.9745
-5.8031 -1.9489 -1.8829 0.9747
-5.5596 -2.4387 -1.8673 0.9749
-4.9696 -3.3426 -1.8421 0.9752
-4.2563 -4.1342 -1.8250 0.9755
-3.4368 -4.8016 -1.8162 0.9756
-2.9924 -5.0855 -1.8149 0.9756
-2.5276 -5.3344 -1.8156 0.9756
-1.5455 -5.7229 -1.8233 0.9755
-0.5078 -5.9581 -1.8392 0.9753
0.0261 -6.0154 -1.8502 0.9751
0.5669 -6.0313 -1.8633 0.9750
2.2029 -5.8205 -1.9142 0.9743
2.7431 -5.6615 -1.9350 0.9740
3.2752 -5.4571 -1.9576 0.9737
3.7958 -5.2070 -1.9819 0.9734
4.7869 -4.5694 -2.0355 0.9727
5.6835 -3.7515 -2.0946 0.9719
6.2841 -2.0499 -2.0331 0.9727
6.5395 -1.5033 -2.0639 0.9723
6.7470 -0.9273 -2.0948 0.9719
6.9025 -0.3262 -2.1254 0.9715
7.0020 0.2953 -2.1556 0.9711
5.8994 3.8512 -2.1669 0.9709
5.1861 4.0895 -2.0314 0.9727
4.5515 4.3007 -1.9260 0.9741
3.9745 4.4920 -1.8448 0.9752
1.9779 5.1470 -1.6960 0.9772
1.0440 3.6649 -1.1721 0.9842
0.5556 5.6061 -1.7327 0.9767
0.0245 2.6063 -0.8017 0.9892
-0.4755 5.9351 -1.8313 0.9754
-1.6705 6.3130 -2.0086 0.9730
-3.5034 6.0235 -2.1433 0.9713
-3.9698 5.6062 -2.1129 0.9717
-4.3894 5.1533 -2.0821 0.9721
-4.7602 4.6707 -2.0512 0.9725
-5.7399 2.5526 -1.9322 0.9741
-6.3146 2.1564 -2.0524 0.9725
-6.3923 1.5623 -2.0240 0.9728
-6.4197 0.9725 -1.9971 0.9732
-6.3311 -0.1798 -1.9481 0.9738
-6.2192 -0.7358 -1.9262 0.9741
-5.8707 -1.7935 -1.8881 0.9746
-5.6384 -2.2905 -1.8719 0.9749
-5.3704 -2.7634 -1.8577 0.9750
-4.3735 -4.0201 -1.8271 0.9754
-3.9839 -4.3798 -1.8211 0.9755
-3.5692 -4.7074 -1.8170 0.9756
-1.7007 -5.6729 -1.8216 0.9755
-0.6704 -5.9322 -1.8362 0.9753
-0.1391 -6.0021 -1.8466 0.9752
0.3998 -6.0309 -1.8590 0.9750
0.9437 -6.0174 -1.8735 0.9748
1.4899 -5.9609 -1.8898 0.9746
2.0355 -5.8604 -1.9082 0.9744
3.1124 -5.5249 -1.9504 0.9738
4.1474 -5.0070 -1.9998 0.9732
4.6397 -4.6794 -2.0268 0.9728
5.1097 -4.3064 -2.0554 0.9724
5.5531 -3.8888 -2.0852 0.9720
6.3225 -2.9165 -2.1416 0.9713
6.9775 0.1021 -2.1464 0.9712
7.0363 0.7345 -2.1760 0.9708
7.0336 1.3773 -2.2045 0.9705
6.8352 2.6677 -2.2568 0.9698
4.7399 4.2381 -1.9557 0.9737
2.1226 5.0999 -1.6991 0.9771
1.1838 5.4041 -1.7016 0.9771
0.7057 5.5579 -1.7232 0.9768
-1.4712 6.2502 -1.9750 0.9735
-3.3507 6.1440 -2.1525 0.9711
-4.6513 4.8221 -2.0607 0.9724
-4.9875 4.3222 -2.0300 0.9728
-5.2733 3.8021 -1.9996 0.9732
-5.6931 2.7217 -1.9409 0.9739
-6.2804 2.3395 -2.0614 0.9723
-6.3738 1.7449 -2.0326 0.9727
-6.4165 1.1534 -2.0052 0.9731
-6.1168 -1.1106 -1.9122 0.9743
-5.4566 -2.6205 -1.8618 0.9750
-4.4880 -3.9032 -1.8294 0.9754
-4.1066 -4.2724 -1.8227 0.9755
-3.6994 -4.6100 -1.8180 0.9756
-2.8161 -5.1853 -1.8149 0.9756
-2.3440 -5.4206 -1.8165 0.9756
-1.8546 -5.6193 -1.8201 0.9755
-1.3498 -5.7803 -1.8257 0.9755
-0.3036 -5.9850 -1.8432 0.9752
0.2333 -6.0265 -1.8550 0.9751
0.7759 -6.0261 -1.8688 0.9749
1.3217 -5.9829 -1.8846 0.9747
3.9920 -5.0987 -1.9917 0.9733
4.4903 -4.7851 -2.0183 0.9729
4.9676 -4.4260 -2.0464 0.9725
5.4197 -4.0221 -2.0759 0.9722
5.8420 -3.5743 -2.1065 0.9717
6.3877 -1.8435 -2.0449 0.9726
6.6252 -1.2852 -2.0757 0.9722
6.9475 -0.0894 -2.1371 0.9713
6.9945 1.8250 -2.2234 0.9702
6.8828 2.4703 -2.2492 0.9699
6.3898 3.6868 -2.2691 0.9696
5.6143 3.9465 -2.1108 0.9717
4.9342 4.1734 -1.9877 0.9733
4.3239 4.3763 -1.8922 0.9746
3.7647 4.5614 -1.8191 0.9756
3.3033 4.8218 -1.7977 0.9758
2.2679 5.0526 -1.7034 0.9771
0.9131 3.6809 -1.1665 0.9843
0.8542 5.5102 -1.7151 0.9769
-0.0691 2.7705 -0.8524 0.9885
-1.2783 6.1893 -1.9439 0.9739
-1.6543 5.4830 -1.7615 0.9763
-2.6578 6.6081 -2.1908 0.9706
-3.6880 5.8677 -2.1317 0.9714
-4.8894 4.4785 -2.0394 0.9726
-6.2359 2.5204 -2.0688 0.9722
-6.4086 1.3349 -2.0135 0.9730
-6.4172 0.7477 -1.9871 0.9733
-6.2933 -0.3953 -1.9395 0.9740
-6.1648 -0.9450 -1.9183 0.9742
-5.9949 -1.4764 -1.8990 0.9745
-5.7858 -1.9872 -1.8816 0.9747
-5.5395 -2.4752 -1.8662 0.9749
-5.2584 -2.9383 -1.8527 0.9751
-3.4036 -4.8245 -1.8160 0.9756
-2.9575 -5.1057 -1.8149 0.9756
-2.0070 -5.5621 -1.8187 0.9756
-0.9927 -5.8691 -1.8309 0.9754
-0.4673 -5.9639 -1.8400 0.9753
0.0673 -6.0181 -1.8512 0.9751
1.1535 -6.0008 -1.8795 0.9748
1.6998 -5.9275 -1.8967 0.9745
4.8232 -4.5414 -2.0376 0.9727
2.3448 -0.9854 -0.7823 0.9894
6.3052 -2.0092 -2.0354 0.9727
6.7608 -0.8822 -2.0971 0.9719
6.9121 -0.2793 -2.1278 0.9715
-0.8151 -5.5096 -1.8513 0.9768
0.6855 -5.6269 -1.8843 0.9764
2.2082 -5.3823 -1.9338 0.9758
2.7074 -5.2172 -1.9538 0.9755
3.1973 -5.0097 -1.9755 0.9753
3.6744 -4.7597 -1.9987 0.9750
4.1350 -4.4673 -2.0234 0.9747
4.5753 -4.1329 -2.0495 0.9743
5.3793 -3.3419 -2.1051 0.9737
2.3469 -0.9297 -0.8391 0.9894
5.8746 -1.7390 -2.0365 0.9745
6.0899 -1.2246 -2.0648 0.9742
6.3797 -0.1257 -2.1210 0.9735
6.4598 1.0360 -2.1747 0.9728
5.9241 3.3644 -2.2646 0.9717
4.9763 4.1510 -2.1541 0.9731
3.8010 4.5418 -1.9686 0.9753
3.2782 4.7158 -1.9091 0.9761
2.7806 4.8779 -1.8664 0.9766
2.3013 5.0346 -1.8401 0.9769
1.8313 5.1875 -1.8287 0.9771
0.8898 5.4916 -1.8492 0.9768
0.2046 2.8665 -0.9553 0.9880
-2.8968 5.7751 -2.1476 0.9731
-3.3574 5.4236 -2.1203 0.9735
-3.7776 5.0351 -2.0924 0.9738
-4.1550 4.6147 -2.0641 0.9742
-4.4878 4.1674 -2.0358 0.9745
-5.0157 3.2125 -1.9799 0.9752
-2.7246 1.4195 -1.0212 0.9871
-5.3586 2.2085 -1.9266 0.9759
-5.9380 0.1988 -1.9749 0.9753
-5.6033 -1.3394 -1.9151 0.9760
-5.1901 -2.2766 -1.8839 0.9764
-4.6434 -3.1232 -1.8602 0.9767
-3.9794 -3.8652 -1.8440 0.9769
-3.6084 -4.1932 -1.8389 0.9770
-3.2142 -4.4906 -1.8357 0.9770
-2.7987 -4.7563 -1.8344 0.9770
-2.3639 -4.9890 -1.8351 0.9770
1.5464 -5.5347 -1.9102 0.9761
4.4422 -4.2403 -2.0413 0.9744
5.7997 -1.8919 -2.0278 0.9746
6.0283 -1.3858 -2.0561 0.9743
6.2124 -0.8538 -2.0844 0.9739
6.3481 -0.3000 -2.1125 0.9736
6.4323 0.2713 -2.1400 0.9732
6.4620 0.8548 -2.1667 0.9729
6.3493 2.0356 -2.2163 0.9723
6.2041 2.6202 -2.2386 0.9720
5.9991 3.1920 -2.2589 0.9718
4.5451 4.2948 -2.0786 0.9740
3.4352 4.6626 -1.9251 0.9759
2.9824 4.9126 -1.9103 0.9761
2.4475 4.9869 -1.8465 0.9769
0.5549 5.5990 -1.8703 0.9766
0.0245 2.6040 -0.8656 0.9891
-0.4749 5.9272 -1.9765 0.9752
-1.0441 6.1073 -2.0596 0.9742
-1.6681 6.3039 -2.1676 0.9729
-1.9930 5.4929 -1.9423 0.9757
-3.2198 5.5360 -2.1288 0.9734
-4.0435 4.7472 -2.0728 0.9741
-4.6914 3.8448 -2.0163 0.9748
-4.9465 3.3636 -1.9884 0.9751
-2.7454 1.5277 -1.0444 0.9868
-5.3177 2.3648 -1.9346 0.9758
-5.8538 1.9990 -2.0562 0.9743
-5.9343 1.4504 -2.0306 0.9746
-5.8934 -0.1674 -1.9598 0.9755
-5.7937 -0.6854 -1.9393 0.9757
-5.6541 -1.1881 -1.9205 0.9759
-5.4764 -1.6730 -1.9034 0.9762
-4.7356 -2.9994 -1.8633 0.9766
-4.0886 -3.7583 -1.8460 0.9769
-2.9288 -4.6780 -1.8346 0.9770
-2.4997 -4.9210 -1.8347 0.9770
-2.0528 -5.1302 -1.8368 0.9770
-1.5902 -5.3045 -1.8408 0.9769
-1.1141 -5.4428 -1.8467 0.9769
0.3734 -5.6317 -1.8761 0.9765
2.8970 -5.1425 -1.9620 0.9754
5.1441 -3.6024 -2.0875 0.9739
5.9625 -1.5445 -2.0474 0.9744
6.3117 -0.4725 -2.1039 0.9737
6.4589 0.6742 -2.1586 0.9730
6.3820 1.8541 -2.2091 0.9724
6.0686 3.0178 -2.2529 0.9718
5.8227 3.5766 -2.2715 0.9716
3.1158 4.8277 -1.9100 0.9761
2.1200 5.0937 -1.8340 0.9770
1.1824 5.3974 -1.8367 0.9770
0.1015 2.7472 -0.9138 0.9885
-0.3083 5.8743 -1.9553 0.9755
-2.5945 5.9709 -2.1640 0.9729
-3.0784 5.6448 -2.1372 0.9733
-3.5238 5.2784 -2.1096 0.9736
-4.8729 3.5134 -1.9969 0.9750
-5.2726 2.5207 -1.9426 0.9757
-5.8136 2.1656 -2.0622 0.9742
-5.8287 -0.5275 -1.9454 0.9756
-5.7012 -1.0352 -1.9261 0.9759
-5.3323 -1.9970 -1.8927 0.9763
-4.1954 -3.6487 -1.8482 0.9768
-3.8397 -3.9948 -1.8418 0.9769
-3.4596 -4.3112 -1.8374 0.9770
-2.6338 -4.8497 -1.8345 0.9770
-1.7342 -5.2546 -1.8393 0.9769
-1.2620 -5.4041 -1.8447 0.9769
0.2179 -5.6284 -1.8723 0.9765
0.7243 -5.6253 -1.8853 0.9764
1.2331 -5.5818 -1.9002 0.9762
2.7453 -5.2028 -1.9554 0.9755
4.1694 -4.4432 -2.0254 0.9746
5.7479 -2.8457 -2.1320 0.9733
6.1046 -1.1842 -2.0670 0.9741
6.4503 0.4944 -2.1504 0.9731
6.4585 1.0811 -2.1767 0.9728
6.4090 1.6722 -2.2017 0.9725
5.9046 3.4069 -2.2660 0.9717
4.9271 4.1674 -2.1451 0.9732
4.3180 4.3703 -2.0422 0.9744
3.2463 4.7386 -1.9093 0.9761
2.7434 4.8900 -1.8638 0.9766
0.8792 3.5442 -1.2138 0.9847
0.1813 2.8099 -0.9360 0.9882
-1.2765 6.1806 -2.0978 0.9737
-1.6533 5.4797 -1.9026 0.9762
-2.4383 6.0624 -2.1721 0.9728
-2.9334 5.7497 -2.1456 0.9732
-3.3910 5.3952 -2.1182 0.9735
-3.8080 5.0040 -2.0902 0.9738
-4.5114 4.1323 -2.0336 0.9745
-2.7349 1.4012 -1.0215 0.9871
-5.3680 2.1696 -1.9246 0.9759
-5.8919 1.7886 -2.0468 0.9744
-5.9652 0.6951 -1.9963 0.9750
-5.9340 0.1581 -1.9732 0.9753
-5.8599 -0.3681 -1.9517 0.9756
-5.7446 -0.8806 -1.9319 0.9758
-5.3985 -1.8542 -1.8974 0.9762
-5.1715 -2.3107 -1.8828 0.9764
-4.6201 -3.1536 -1.8594 0.9767
-4.2996 -3.5364 -1.8505 0.9768
-3.9519 -3.8913 -1.8436 0.9769
-3.5791 -4.2170 -1.8386 0.9770
-2.3300 -5.0054 -1.8353 0.9770
-1.8768 -5.2014 -1.8381 0.9770
-1.4087 -5.3619 -1.8428 0.9769
-0.9279 -5.4861 -1.8495 0.9768
-0.4366 -5.5729 -1.8581 0.9767
0.0628 -5.6213 -1.8687 0.9766
0.5680 -5.6305 -1.8811 0.9764
1.5852 -5.5278 -1.9115 0.9761
2.0916 -5.4145 -1.9294 0.9758
4.8975 -3.8479 -2.0703 0.9741
5.2923 -3.4416 -2.0984 0.9737
5.6511 -2.9941 -2.1258 0.9734
5.8186 -1.8542 -2.0300 0.9746
1.1181 -5.2309 -1.9129 0.9775
1.5934 -5.1518 -1.9284 0.9774
2.0651 -5.0337 -1.9457 0.9772
3.8556 -4.1654 -2.0298 0.9762
4.2625 -3.8503 -2.0541 0.9759
4.6459 -3.4973 -2.0795 0.9756
5.0021 -3.1076 -2.1059 0.9753
5.3147 -2.6766 -2.1280 0.9750
2.3466 -0.9296 -0.9026 0.9893
5.6572 2.5749 -2.2227 0.9739
5.4480 3.0940 -2.2405 0.9737
5.1857 3.5925 -2.2560 0.9736
4.8723 4.0643 -2.2690 0.9734
3.7959 4.5357 -2.1151 0.9752
3.1858 4.5828 -1.9959 0.9766
0.8887 5.4847 -1.9869 0.9767
0.2202 3.0845 -1.1058 0.9869
-0.0474 2.6190 -0.9367 0.9889
-1.6273 5.5300 -2.0614 0.9758
-3.1035 5.0134 -2.1085 0.9753
-3.8484 4.2742 -2.0568 0.9759
-4.1609 3.8638 -2.0306 0.9762
-4.6597 2.9845 -1.9788 0.9768
-4.9877 2.0557 -1.9292 0.9773
-5.5469 1.1950 -2.0291 0.9762
-5.5674 0.6873 -2.0060 0.9765
-5.2437 -1.2535 -1.9280 0.9774
-5.0697 -1.7026 -1.9125 0.9775
-2.6262 -4.4631 -1.8518 0.9782
-2.2181 -4.6814 -1.8525 0.9782
-0.9052 -5.1377 -1.8656 0.9781
0.0229 -5.2667 -1.8834 0.9779
1.4473 -5.1803 -1.9235 0.9774
1.9205 -5.0742 -1.9402 0.9772
2.3880 -4.9288 -1.9585 0.9770
3.2942 -4.5189 -1.9998 0.9765
4.5306 -3.6100 -2.0716 0.9757
5.2250 -2.8142 -2.1223 0.9751
5.3787 -1.7545 -2.0232 0.9763
5.5852 -1.2839 -2.0494 0.9759
5.8696 -0.2774 -2.1014 0.9753
5.5181 2.9361 -2.2353 0.9738
5.2720 3.4416 -2.2515 0.9736
4.5387 4.2887 -2.2331 0.9738
3.9638 4.4800 -2.1391 0.9749
3.3091 4.4914 -1.9950 0.9766
2.8981 4.7738 -1.9971 0.9766
2.4444 4.9806 -1.9840 0.9767
0.5542 5.5919 -2.0095 0.9764
-0.4743 5.9193 -2.1236 0.9751
-1.9896 5.4836 -2.0861 0.9755
-2.5364 5.4238 -2.1412 0.9749
-2.9754 5.1157 -2.1163 0.9752
-4.3527 3.5672 -2.0125 0.9764
-4.5940 3.1239 -1.9867 0.9767
-4.7925 2.6670 -1.9613 0.9770
-5.5656 0.8431 -2.0130 0.9764
-5.5568 0.3392 -1.9908 0.9766
-5.1269 -1.5663 -1.9171 0.9775
-4.4393 -2.8117 -1.8792 0.9779
-3.4949 -3.8422 -1.8574 0.9782
-2.7482 -4.3896 -1.8520 0.9782
-1.9261 -4.8135 -1.8541 0.9782
-0.5875 -5.1987 -1.8709 0.9780
-0.1218 -5.2564 -1.8802 0.9779
0.3498 -5.2771 -1.8913 0.9778
0.8250 -5.2602 -1.9041 0.9776
1.3010 -5.2051 -1.9186 0.9775
1.7752 -5.1111 -1.9349 0.9773
2.2449 -4.9778 -1.9527 0.9771
2.7068 -4.8049 -1.9721 0.9768
3.1580 -4.5923 -1.9931 0.9766
3.5950 -4.3402 -2.0154 0.9763
4.4128 -3.7191 -2.0638 0.9758
4.7862 -3.3518 -2.0896 0.9755
5.0513 -2.3301 -1.9893 0.9766
5.3073 -1.8943 -2.0152 0.9763
5.5259 -1.4314 -2.0413 0.9760
5.7591 2.2477 -2.2108 0.9741
5.3534 3.2884 -2.2467 0.9737
5.0712 3.7773 -2.2613 0.9735
4.7264 4.2261 -2.2673 0.9734
4.1357 4.4229 -2.1654 0.9746
3.0278 4.6914 -1.9967 0.9766
1.6496 5.2393 -1.9643 0.9769
0.8268 3.7744 -1.3818 0.9837
0.7039 5.5440 -1.9985 0.9765
0.1018 2.7567 -0.9865 0.9883
-1.8052 5.4374 -2.0488 0.9760
-2.3945 5.5107 -2.1487 0.9748
-2.8439 5.2146 -2.1241 0.9751
-3.2585 4.8810 -2.0987 0.9754
-3.6358 4.5144 -2.0728 0.9757
-4.5243 3.2620 -1.9946 0.9766
-4.9049 2.3449 -1.9442 0.9772
-5.0314 1.8742 -1.9200 0.9774
-5.4491 -0.4931 -1.9566 0.9770
-5.3333 -0.9684 -1.9384 0.9772
-4.9938 -1.8703 -1.9069 0.9776
-4.2424 -3.0702 -1.8727 0.9780
-3.9349 -3.4221 -1.8649 0.9781
-3.6021 -3.7476 -1.8589 0.9782
-3.2460 -4.0450 -1.8547 0.9782
-2.4714 -4.5507 -1.8519 0.9782
-1.6270 -4.9299 -1.8565 0.9782
-0.2659 -5.2425 -1.8772 0.9779
0.2042 -5.2747 -1.8877 0.9778
0.6785 -5.2695 -1.9000 0.9777
2.5656 -4.8623 -1.9660 0.9769
3.0204 -4.6620 -1.9865 0.9767
3.4622 -4.4220 -2.0084 0.9764
4.2926 -3.8247 -2.0560 0.9759
4.6742 -3.4688 -2.0815 0.9756
5.0282 -3.0764 -2.1080 0.9753
5.3364 -2.6420 -2.1294 0.9750
2.3591 -0.9159 -0.9050 0.9893
5.6536 -1.0967 -2.0594 0.9758
5.9560 0.4565 -2.1362 0.9749
5.9071 1.5413 -2.1831 0.9744
5.8023 2.0825 -2.2045 0.9742
5.1635 3.6296 -2.2571 0.9735
3.5475 4.2983 -1.9930 0.9766
2.7400 4.8838 -2.0026 0.9765
0.8521 5.4964 -1.9890 0.9766
-1.2448 6.0271 -2.2008 0.9742
-1.6523 5.4763 -2.0456 0.9760
-2.7091 5.3100 -2.1317 0.9750
-3.5238 4.6305 -2.0808 0.9756
-3.8738 4.2437 -2.0548 0.9759
-4.9969 2.0196 -1.9274 0.9774
-5.5672 0.6487 -2.0043 0.9765
-5.5424 0.1476 -1.9827 0.9767
-5.3729 -0.8236 -1.9438 0.9772
-4.3316 -2.9567 -1.8755 0.9780
-1.3215 -5.0300 -1.8598 0.9781
0.0589 -5.2687 -1.8843 0.9779
0.5322 -5.2751 -1.8960 0.9777
1.0080 -5.2436 -1.9095 0.9776
1.4836 -5.1736 -1.9247 0.9774
1.9564 -5.0645 -1.9415 0.9772
2.8816 -4.7279 -1.9800 0.9768
4.1703 -3.9267 -2.0484 0.9760
4.9223 -3.2010 -2.0997 0.9754
5.3959 -1.7195 -2.0252 0.9762
5.5993 -1.2469 -2.0514 0.9759
5.7606 -0.7517 -2.0775 0.9756
5.8768 -0.2375 -2.1033 0.9753
-0.7190 -4.8599 -1.8827 0.9792
0.1580 -4.9571 -1.9006 0.9790
0.6034 -4.9530 -1.9121 0.9789
1.4958 -4.8363 -1.9400 0.9785
2.3727 -4.5721 -1.9740 0.9782
3.2110 -4.1594 -2.0136 0.9777
3.6078 -3.8978 -2.0354 0.9775
3.9855 -3.6002 -2.0582 0.9773
4.3406 -3.2675 -2.0820 0.9770
4.6695 -2.9010 -2.1066 0.9767
4.9545 -2.4952 -2.1259 0.9765
2.3462 -0.9294 -0.9671 0.9892
5.0710 -1.5011 -2.0267 0.9776
5.3828 -0.5895 -2.0751 0.9771
5.4759 -0.1079 -2.0989 0.9768
5.5249 0.8861 -2.1443 0.9763
5.4773 1.3892 -2.1655 0.9761
5.3802 1.8896 -2.1852 0.9759
5.2331 2.3818 -2.2034 0.9757
5.0366 2.8604 -2.2197 0.9755
4.7916 3.3195 -2.2338 0.9753
4.5001 3.7538 -2.2457 0.9752
4.1645 4.1579 -2.2552 0.9751
3.7435 4.4730 -2.2352 0.9753
2.7735 4.8654 -2.1462 0.9763
2.2955 5.0219 -2.1160 0.9766
1.8268 5.1745 -2.1029 0.9768
0.8876 5.4777 -2.1265 0.9765
-0.6166 5.7153 -2.2029 0.9757
-2.8819 4.6555 -2.0983 0.9768
-3.2487 4.3301 -2.0745 0.9771
-3.8741 3.5975 -2.0260 0.9776
-4.1298 3.1987 -2.0018 0.9779
-4.3461 2.7837 -1.9779 0.9781
-2.7247 1.4195 -1.1774 0.9869
-4.6600 1.9206 -1.9315 0.9786
-5.1151 1.5910 -2.0528 0.9773
-5.2136 0.6436 -2.0131 0.9777
-5.1418 -0.2877 -1.9735 0.9782
-4.9226 -1.1767 -1.9396 0.9786
-4.7616 -1.5991 -1.9249 0.9787
-4.5686 -2.0040 -1.9118 0.9789
-4.3453 -2.3893 -1.9003 0.9790
-3.1855 -3.7017 -1.8715 0.9793
-2.8380 -3.9651 -1.8686 0.9793
-2.0873 -4.4053 -1.8681 0.9793
-0.8514 -4.8327 -1.8805 0.9792
-0.4184 -4.9092 -1.8881 0.9791
0.0215 -4.9512 -1.8974 0.9790
0.4660 -4.9581 -1.9084 0.9789
0.9126 -4.9291 -1.9210 0.9788
1.3589 -4.8638 -1.9353 0.9786
1.8022 -4.7617 -1.9511 0.9784
2.6684 -4.4461 -1.9871 0.9780
3.0854 -4.2325 -2.0072 0.9778
3.8715 -3.6956 -2.0510 0.9773
4.2339 -3.3735 -2.0746 0.9771
4.5712 -3.0173 -2.0990 0.9768
2.3452 -1.0045 -0.9777 0.9891
5.1969 -1.1946 -2.0435 0.9774
5.3454 -0.7347 -2.0677 0.9772
5.4520 -0.2576 -2.0916 0.9769
5.5297 0.7315 -2.1376 0.9764
5.4972 1.2344 -2.1591 0.9762
5.4154 1.7362 -2.1793 0.9759
5.2837 2.2315 -2.1980 0.9757
5.1023 2.7149 -2.2149 0.9755
4.8721 3.1806 -2.2297 0.9754
3.2206 4.3712 -2.0807 0.9770
1.0413 3.6555 -1.4566 0.9839
0.0248 2.6382 -1.0110 0.9888
-0.4602 5.7437 -2.2082 0.9756
-1.9139 5.2749 -2.1504 0.9762
-2.3527 5.0311 -2.1284 0.9765
-3.1395 4.4335 -2.0819 0.9770
-3.4819 4.0879 -2.0578 0.9773
-2.7587 1.5352 -1.2099 0.9866
-4.6220 2.0554 -1.9385 0.9786
-5.2108 0.7894 -2.0196 0.9777
-5.1628 -0.1466 -1.9793 0.9781
-4.8147 -1.4709 -1.9292 0.9787
-3.2883 -3.6150 -1.8727 0.9793
-1.8125 -4.5294 -1.8696 0.9793
-0.5525 -4.8893 -1.8856 0.9791
-0.1145 -4.9420 -1.8944 0.9790
0.3288 -4.9598 -1.9048 0.9789
0.7750 -4.9419 -1.9170 0.9788
2.1057 -4.6693 -1.9629 0.9783
2.9585 -4.3022 -2.0009 0.9779
4.4702 -3.1305 -2.0914 0.9769
4.7858 -2.7501 -2.1152 0.9766
5.4238 -0.4061 -2.0843 0.9770
4.9481 3.0394 -2.2254 0.9754
4.0246 4.3040 -2.2581 0.9751
3.3711 4.3214 -2.1003 0.9768
1.6475 5.2327 -2.1023 0.9768
0.8215 3.7502 -1.4712 0.9837
0.7030 5.5369 -2.1389 0.9764
0.1014 2.7451 -1.0527 0.9883
-0.3027 5.7674 -2.2132 0.9756
-2.2206 5.1104 -2.1353 0.9764
-2.6395 4.8399 -2.1126 0.9767
-4.4188 2.6207 -1.9688 0.9782
-2.8251 1.3506 -1.2000 0.9867
-4.7022 1.7516 -1.9229 0.9787
-5.1509 1.4102 -2.0466 0.9774
-5.2042 0.9355 -2.0263 0.9776
-5.2118 0.4624 -2.0051 0.9778
-5.1802 -0.0046 -1.9851 0.9781
-5.1108 -0.4625 -1.9665 0.9783
-4.8646 -1.3410 -1.9337 0.9786
-4.4863 -2.1545 -1.9072 0.9789
-4.2518 -2.5318 -1.8964 0.9790
-3.7014 -3.2191 -1.8798 0.9792
-2.6993 -4.0588 -1.8680 0.9793
-1.9356 -4.4761 -1.8688 0.9793
-1.5309 -4.6385 -1.8719 0.9793
0.1919 -4.9581 -1.9014 0.9790
1.9711 -4.7126 -1.9576 0.9784
4.9745 -2.4628 -2.1272 0.9765
2.3602 -0.9164 -0.9703 0.9892
5.3914 -0.5532 -2.0769 0.9771
5.4812 -0.0706 -2.1007 0.9768
5.5257 0.4235 -2.1238 0.9765
5.5230 0.9245 -2.1460 0.9763
5.3707 1.9276 -2.1867 0.9759
4.7710 3.3537 -2.2348 0.9753
4.4760 3.7858 -2.2465 0.9752
4.1372 4.1874 -2.2558 0.9751
3.5246 4.2705 -2.1219 0.9766
3.0363 4.4321 -2.0588 0.9772
2.7365 4.8776 -2.1432 0.9763
2.2594 5.0337 -2.1144 0.9766
0.8947 3.6064 -1.4239 0.9842
0.8510 5.4894 -2.1288 0.9765
0.1810 2.8047 -1.0770 0.9880
-0.0651 2.6101 -1.0006 0.9889
-0.6552 5.7075 -2.2016 0.9757
-1.6306 5.4046 -2.1633 0.9761
-2.5137 4.9271 -2.1197 0.9766
-3.2753 4.3040 -2.0726 0.9771
-3.6038 3.9479 -2.0485 0.9774
-3.8950 3.5677 -2.0242 0.9776
-2.7349 1.4012 -1.1776 0.9869
-4.6688 1.8870 -1.9298 0.9787
-5.2137 0.6075 -2.0115 0.9778
-5.1361 -0.3226 -1.9721 0.9782
-5.0414 -0.7728 -1.9545 0.9784
-4.9115 -1.2096 -1.9384 0.9786
-4.7480 -1.6307 -1.9238 0.9787
-4.5526 -2.0342 -1.9109 0.9789
-4.3271 -2.4179 -1.8995 0.9790
-4.0732 -2.7803 -1.8899 0.9791
-3.4876 -3.4341 -1.8757 0.9793
-2.8106 -3.9840 -1.8685 0.9793
-2.4426 -4.2167 -1.8675 0.9793
-1.2433 -4.7322 -1.8750 0.9793
-0.8186 -4.8398 -1.8810 0.9792
0.0553 -4.9530 -1.8982 0.9790
1.8358 -4.7524 -1.9524 0.9784
2.2728 -4.6103 -1.9698 0.9782
2.7007 -4.4311 -1.9886 0.9780
3.1167 -4.2147 -2.0088 0.9778
4.8926 -2.5922 -2.1219 0.9766
5.0249 -1.6012 -2.0210 0.9777
5.2097 -1.1602 -2.0453 0.9774
5.4583 -0.2206 -2.0934 0.9769
-0.6780 -4.5828 -1.8960 0.9802
-0.2674 -4.6438 -1.9037 0.9801
0.1489 -4.6719 -1.9131 0.9800
2.2312 -4.2995 -1.9825 0.9793
2.6298 -4.1205 -2.0006 0.9791
3.0159 -3.9067 -2.0199 0.9789
3.3865 -3.6586 -2.0404 0.9787
3.7384 -3.3769 -2.0618 0.9785
4.3735 -2.7171 -2.1073 0.9780
4.7386 -1.4028 -2.0226 0.9789
4.8992 -0.9851 -2.0452 0.9786
5.0221 -0.5500 -2.0677 0.9784
5.1051 -0.1006 -2.0898 0.9782
5.1432 0.8249 -2.1319 0.9777
5.0954 1.2924 -2.1515 0.9775
5.0018 1.7567 -2.1697 0.9773
4.6773 2.6563 -2.2015 0.9770
4.4478 3.0813 -2.2145 0.9769
4.1756 3.4831 -2.2255 0.9768
3.8630 3.8568 -2.2341 0.9767
2.6849 4.7100 -2.2189 0.9768
2.2795 4.9869 -2.2441 0.9766
0.8696 5.3669 -2.2252 0.9768
0.3852 5.3963 -2.2142 0.9769
-0.0470 2.5951 -1.0623 0.9888
-1.0365 5.1979 -2.1693 0.9774
-1.9102 4.8447 -2.1314 0.9777
-2.3123 4.6098 -2.1107 0.9780
-3.3428 3.7126 -2.0446 0.9786
-2.6875 1.4002 -1.2403 0.9870
-4.3680 1.8002 -1.9336 0.9798
-4.4629 1.3882 -1.9129 0.9800
-1.9533 0.2411 -0.8055 0.9915
-1.9445 -0.1088 -0.7971 0.9916
-1.9436 -0.2844 -0.8039 0.9915
-4.4844 -1.5060 -1.9361 0.9798
-4.0954 -2.2519 -1.9128 0.9800
-3.5976 -2.9180 -1.8958 0.9802
-3.3122 -3.2171 -1.8898 0.9802
-3.0048 -3.4918 -1.8854 0.9803
-2.6773 -3.7406 -1.8827 0.9803
-2.3315 -3.9623 -1.8816 0.9803
-1.2029 -4.4544 -1.8884 0.9803
-0.8029 -4.5574 -1.8940 0.9802
-0.3945 -4.6285 -1.9012 0.9801
0.0203 -4.6668 -1.9100 0.9800
0.8596 -4.6427 -1.9324 0.9798
1.6959 -4.4809 -1.9609 0.9795
2.5083 -4.1793 -1.9949 0.9792
2.8986 -3.9762 -2.0139 0.9790
3.2742 -3.7386 -2.0340 0.9787
3.6322 -3.4672 -2.0551 0.9785
4.2825 -2.8267 -2.1001 0.9781
4.5583 -2.4551 -2.1190 0.9779
2.3391 -1.0019 -1.0414 0.9891
4.8536 -1.1157 -2.0383 0.9787
5.0839 -0.2402 -2.0830 0.9782
5.1488 0.6811 -2.1256 0.9778
4.9102 2.0738 -2.1815 0.9772
4.7390 2.5216 -2.1970 0.9771
3.6211 4.0926 -2.2365 0.9767
3.2127 4.3606 -2.2168 0.9769
1.9648 5.1128 -2.2417 0.9766
1.0317 3.6219 -1.5413 0.9839
0.5344 5.3925 -2.2178 0.9769
-0.4275 5.3359 -2.1909 0.9771
-0.8954 5.2373 -2.1746 0.9773
-1.3480 5.0943 -2.1567 0.9775
-1.7813 4.9095 -2.1375 0.9777
-2.1913 4.6859 -2.1172 0.9779
-3.7915 3.1073 -2.0063 0.9790
-2.9366 1.3059 -1.3154 0.9862
-4.8507 1.1856 -2.0437 0.9786
-1.9704 0.2985 -0.8156 0.9914
-1.9250 -0.0547 -0.7882 0.9917
-4.6736 -0.9821 -1.9546 0.9796
-4.3629 -1.7723 -1.9273 0.9799
-4.1627 -2.1419 -1.9160 0.9800
-3.9347 -2.4921 -1.9062 0.9801
-3.6807 -2.8212 -1.8980 0.9802
-3.1017 -3.4099 -1.8866 0.9803
-0.5210 -4.6101 -1.8988 0.9801
0.3099 -4.6738 -1.9171 0.9800
1.1504 -4.6024 -1.9416 0.9797
1.9809 -4.3924 -1.9720 0.9794
2.3857 -4.2349 -1.9893 0.9792
3.1603 -3.8154 -2.0277 0.9788
3.5241 -3.5543 -2.0485 0.9786
3.8680 -3.2599 -2.0703 0.9784
4.1888 -2.9335 -2.0930 0.9781
4.4785 -2.5735 -2.1140 0.9779
4.6222 -1.6498 -2.0087 0.9790
4.9510 -0.8198 -2.0539 0.9785
5.1259 0.0750 -2.0981 0.9781
5.1502 0.5376 -2.1193 0.9779
5.1302 1.0046 -2.1395 0.9777
4.9537 1.9333 -2.1763 0.9773
4.7966 2.3852 -2.1924 0.9771
4.0601 3.6303 -2.2291 0.9767
2.1058 5.0596 -2.2429 0.9766
1.1664 5.3245 -2.2309 0.9767
-0.2812 5.3570 -2.1955 0.9771
-1.2106 5.1429 -2.1624 0.9774
-1.6502 4.9707 -2.1436 0.9776
-2.0678 4.7587 -2.1235 0.9778
-2.4596 4.5101 -2.1025 0.9780
-2.8228 4.2284 -2.0808 0.9783
-3.9455 2.8447 -1.9908 0.9792
-4.1369 2.4535 -1.9685 0.9794
-2.7229 1.3017 -1.2352 0.9870
-4.8271 1.3215 -2.0483 0.9786
-2.1676 0.3896 -0.9014 0.9905
-1.9578 0.1737 -0.8044 0.9915
-1.8987 -0.0017 -0.7771 0.9918
-1.9579 -0.1772 -0.8046 0.9915
-4.5802 -1.2626 -1.9445 0.9797
-4.4187 -1.6549 -1.9311 0.9798
-4.2273 -2.0301 -1.9193 0.9799
-4.0077 -2.3865 -1.9090 0.9800
-2.8813 -3.5905 -1.8842 0.9803
-2.5465 -3.8290 -1.8821 0.9803
-2.1941 -4.0401 -1.8816 0.9803
-1.0503 -4.4978 -1.8903 0.9802
-0.6468 -4.5886 -1.8966 0.9802
-0.2357 -4.6471 -1.9044 0.9801
0.1808 -4.6727 -1.9138 0.9800
0.6006 -4.6646 -1.9249 0.9799
1.0211 -4.6224 -1.9374 0.9797
1.8545 -4.4338 -1.9670 0.9794
2.2621 -4.2871 -1.9839 0.9793
2.6598 -4.1054 -2.0020 0.9791
3.7644 -3.3540 -2.0635 0.9784
4.3957 -2.6894 -2.1091 0.9780
4.9099 -0.9525 -2.0470 0.9786
5.1097 -0.0658 -2.0914 0.9782
5.1474 0.3945 -2.1129 0.9779
5.0899 1.3280 -2.1529 0.9775
4.9928 1.7920 -2.1711 0.9773
4.8498 2.2475 -2.1877 0.9772
4.4284 3.1129 -2.2154 0.9769
3.8376 3.8841 -2.2347 0.9767
3.4438 4.1726 -2.2143 0.9769
1.7865 5.1730 -2.2399 0.9766
0.1811 2.8062 -1.1509 0.9879
-0.0647 2.5962 -1.0629 0.9888
-1.9418 4.8280 -2.1298 0.9778
-3.0561 4.0159 -2.0654 0.9784
-3.3652 3.6866 -2.0429 0.9787
-3.6400 3.3341 -2.0203 0.9789
-3.8792 2.9625 -1.9977 0.9791
-2.6972 1.3819 -1.2404 0.9870
-4.4686 1.3566 -1.9113 0.9800
-1.9483 -0.1224 -0.7990 0.9916
-4.6236 -1.1387 -1.9489 0.9796
-4.4717 -1.5358 -1.9351 0.9798
-4.0782 -2.2789 -1.9120 0.9800
-3.8401 -2.6212 -1.9029 0.9801
-3.2895 -3.2390 -1.8894 0.9802
-2.9805 -3.5117 -1.8851 0.9803
-1.5630 -4.3316 -1.8847 0.9803
-1.1727 -4.4634 -1.8888 0.9803
-0.7720 -4.5640 -1.8945 0.9802
0.0522 -4.6684 -1.9108 0.9800
0.4712 -4.6707 -1.9213 0.9799
1.7275 -4.4719 -1.9621 0.9795
2.5386 -4.1650 -1.9963 0.9791
3.3022 -3.7190 -2.0355 0.9787
3.9942 -3.1382 -2.0789 0.9783
4.5776 -2.4253 -2.1202 0.9779
2.3322 -0.9801 -1.0354 0.9891
4.9971 -0.6521 -2.0625 0.9785
5.0895 -0.2057 -2.0847 0.9782
-0.6408 -4.3312 -1.9082 0.9811
-0.2526 -4.3879 -1.9155 0.9810
1.3287 -4.2960 -1.9598 0.9806
1.7195 -4.1912 -1.9743 0.9804
2.1035 -4.0534 -1.9902 0.9803
2.4780 -3.8825 -2.0073 0.9801
3.1873 -3.4434 -2.0449 0.9797
3.5163 -3.1763 -2.0651 0.9795
4.1069 -2.5514 -2.1071 0.9791
4.0511 -2.0402 -1.9768 0.9804
2.3462 -0.9294 -1.0998 0.9890
4.4420 -1.3150 -2.0190 0.9800
4.5893 -0.9228 -2.0401 0.9798
4.7012 -0.5148 -2.0611 0.9796
4.8107 0.3357 -2.1017 0.9792
3.8898 3.2447 -2.2076 0.9781
3.5977 3.5919 -2.2156 0.9781
3.2713 3.9089 -2.2214 0.9780
2.9140 4.1918 -2.2249 0.9780
2.5295 4.4374 -2.2261 0.9780
2.1223 4.6430 -2.2248 0.9780
1.6967 4.8061 -2.2213 0.9780
0.9180 3.5953 -1.6172 0.9839
0.8101 4.9997 -2.2074 0.9781
0.3590 5.0288 -2.1972 0.9782
-0.9673 4.8506 -2.1556 0.9786
-1.7846 4.5262 -2.1204 0.9790
-2.5135 4.0603 -2.0812 0.9794
-3.1314 3.4779 -2.0396 0.9798
-3.6231 2.8062 -1.9972 0.9802
-3.8185 2.4457 -1.9762 0.9804
-2.6617 1.3867 -1.3080 0.9870
-4.1059 1.6922 -1.9354 0.9808
-1.5212 0.1878 -0.6680 0.9933
-1.5296 -0.0856 -0.6677 0.9933
-1.5142 -0.2215 -0.6670 0.9933
-1.5885 -0.5335 -0.7303 0.9927
-2.5314 -3.5366 -1.8954 0.9812
-2.2044 -3.7464 -1.8944 0.9812
-1.8618 -3.9294 -1.8950 0.9812
-1.5054 -4.0845 -1.8971 0.9812
-0.7589 -4.3075 -1.9062 0.9811
-0.3728 -4.3738 -1.9131 0.9810
0.0192 -4.4088 -1.9215 0.9809
0.4147 -4.4122 -1.9314 0.9808
0.8116 -4.3832 -1.9427 0.9807
1.2074 -4.3216 -1.9555 0.9806
1.5998 -4.2270 -1.9697 0.9805
3.0822 -3.5193 -2.0388 0.9798
3.7319 -2.9736 -2.0796 0.9794
4.2779 -2.3041 -2.1176 0.9790
4.3900 -1.4320 -2.0124 0.9801
4.6998 1.5068 -2.1509 0.9787
4.5803 1.9345 -2.1669 0.9785
2.6505 4.3660 -2.2260 0.9780
2.2498 4.5841 -2.2255 0.9780
1.8294 4.7605 -2.2226 0.9780
0.4980 5.0246 -2.2005 0.9782
-1.2584 4.7557 -2.1440 0.9788
-1.6639 4.5860 -2.1261 0.9789
-2.4080 4.1403 -2.0874 0.9793
-2.7408 3.8706 -2.0670 0.9795
-2.8600 1.2719 -1.3641 0.9864
-1.5413 0.3767 -0.6915 0.9931
-1.5124 0.2291 -0.6666 0.9933
-1.5296 0.0934 -0.6679 0.9933
-1.5764 -0.4816 -0.7184 0.9928
-4.1197 -1.6735 -1.9379 0.9808
-3.9319 -2.0232 -1.9271 0.9809
-3.7176 -2.3546 -1.9178 0.9810
-3.2161 -2.9563 -1.9038 0.9811
-2.6286 -3.4668 -1.8961 0.9812
-1.6165 -4.0398 -1.8963 0.9812
-0.4924 -4.3567 -1.9108 0.9811
0.6894 -4.3956 -1.9391 0.9808
1.0858 -4.3440 -1.9514 0.9807
1.8680 -4.1421 -1.9803 0.9804
2.2487 -3.9916 -1.9967 0.9802
3.6373 -3.0655 -2.0731 0.9795
3.9365 -2.7567 -2.0944 0.9792
4.1355 -1.9076 -1.9848 0.9803
4.3348 -1.5472 -2.0059 0.9801
4.7343 -0.3545 -2.0691 0.9795
4.7939 0.0702 -2.0895 0.9793
4.8135 0.5024 -2.1092 0.9791
4.7918 0.9383 -2.1280 0.9789
4.7280 1.3736 -2.1457 0.9787
4.6216 1.8038 -2.1621 0.9786
4.2823 2.6304 -2.1903 0.9783
4.0513 3.0177 -2.2016 0.9782
3.1374 4.0218 -2.2230 0.9780
2.7692 4.2908 -2.2256 0.9780
2.3755 4.5213 -2.2259 0.9780
1.9606 4.7108 -2.2238 0.9780
1.5293 4.8572 -2.2193 0.9780
0.1023 2.7700 -1.2080 0.9880
-0.2622 4.9950 -2.1799 0.9784
-1.5412 4.6422 -2.1317 0.9789
-1.9323 4.4470 -2.1131 0.9791
-2.3000 4.2174 -2.0936 0.9793
-2.6414 3.9566 -2.0733 0.9795
-2.9541 3.6680 -2.0525 0.9797
-3.2361 3.3549 -2.0315 0.9799
-3.4858 3.0208 -2.0103 0.9801
-3.7022 2.6693 -1.9891 0.9803
-3.8845 2.3038 -1.9683 0.9805
-2.6939 1.2879 -1.3013 0.9871
-1.5983 0.5954 -0.7433 0.9926
-1.5598 0.4270 -0.7048 0.9930
-1.5005 0.2697 -0.6644 0.9934
-1.5279 0.1356 -0.6685 0.9933
-1.5276 -0.1382 -0.6685 0.9933
-1.5987 -0.5987 -0.7440 0.9926
-3.9926 -1.9174 -1.9303 0.9809
-3.5546 -2.5725 -1.9123 0.9810
-3.2993 -2.8693 -1.9056 0.9811
-2.7240 -3.3946 -1.8969 0.9812
-2.4077 -3.6203 -1.8949 0.9812
-0.2227 -4.3910 -1.9161 0.9810
0.5672 -4.4049 -1.9356 0.9808
0.9639 -4.3634 -1.9475 0.9807
1.7491 -4.1818 -1.9755 0.9804
2.1325 -4.0415 -1.9915 0.9803
2.5061 -3.8681 -2.0087 0.9801
3.2131 -3.4240 -2.0464 0.9797
3.8469 -2.8549 -2.0878 0.9793
4.1265 -2.5247 -2.1083 0.9791
4.0682 -2.0141 -1.9784 0.9804
2.3625 -0.9172 -1.1045 0.9890
4.4545 -1.2856 -2.0206 0.9800
4.7082 -0.4831 -2.0627 0.9796
4.6589 1.6721 -2.1572 0.9786
4.5231 2.0961 -2.1726 0.9785
4.1266 2.9008 -2.1983 0.9782
3.8688 3.2722 -2.2083 0.9781
3.5739 3.6173 -2.2161 0.9781
3.2450 3.9317 -2.2218 0.9780
2.0903 4.6570 -2.2247 0.9780
0.8873 3.5766 -1.6060 0.9840
0.7757 5.0035 -2.2067 0.9781
-1.4165 4.6950 -2.1372 0.9788
-1.8143 4.5109 -2.1190 0.9790
-2.8610 3.7596 -2.0590 0.9796
-3.8320 2.4176 -1.9747 0.9804
-2.6682 1.3670 -1.3066 0.9870
-1.5755 0.4783 -0.7176 0.9928
-1.5139 0.3154 -0.6740 0.9933
-1.5229 0.1775 -0.6682 0.9933
-1.5910 -0.5465 -0.7332 0.9927
-3.8526 -2.1528 -1.9234 0.9809
-3.6286 -2.4768 -1.9147 0.9810
-3.1095 -3.0618 -1.9019 0.9811
-2.5069 -3.5535 -1.8953 0.9812
-2.1788 -3.7613 -1.8944 0.9812
-1.8351 -3.9422 -1.8951 0.9812
-1.4777 -4.0952 -1.8974 0.9812
-1.1085 -4.2193 -1.9012 0.9811
0.0493 -4.4102 -1.9222 0.9809
0.8419 -4.3796 -1.9437 0.9807
1.2376 -4.3155 -1.9566 0.9806
1.6296 -4.2184 -1.9708 0.9805
2.3923 -3.9250 -2.0033 0.9801
2.3289 -0.9788 -1.1010 0.9890
4.4032 -1.4031 -2.0141 0.9800
4.7619 -0.1924 -2.0770 0.9794
-0.6068 -4.1016 -1.9192 0.9819
0.8832 -4.1318 -1.9557 0.9815
1.2565 -4.0624 -1.9683 0.9814
2.6808 -3.4727 -2.0307 0.9808
3.6037 -2.7128 -2.0879 0.9803
3.8655 -2.4015 -2.1065 0.9801
4.1755 -1.2361 -2.0157 0.9810
4.4136 -0.4833 -2.0552 0.9806
4.4562 1.1302 -2.1280 0.9799
4.3697 1.5347 -2.1438 0.9798
4.0786 2.3163 -2.1711 0.9795
2.7225 3.9163 -2.2078 0.9792
2.3632 4.1457 -2.2089 0.9792
0.3357 4.7021 -2.1821 0.9794
-0.0473 2.6120 -1.2093 0.9886
-2.0270 4.0410 -2.0927 0.9803
-2.6639 3.5507 -2.0547 0.9806
-2.9418 3.2672 -2.0350 0.9808
-3.5939 2.3019 -1.9756 0.9814
-2.6534 1.3824 -1.3849 0.9869
-1.3321 0.1644 -0.6213 0.9941
-1.3374 0.0448 -0.6194 0.9941
-1.3385 -0.0749 -0.6205 0.9941
-1.3266 -0.1941 -0.6206 0.9941
-1.3052 -0.3120 -0.6212 0.9941
-1.3204 -0.5792 -0.6674 0.9937
-3.6619 -2.0136 -1.9344 0.9817
-3.4526 -2.3222 -1.9260 0.9818
-3.2199 -2.6116 -1.9191 0.9819
-2.9654 -2.8803 -1.9136 0.9819
-1.7638 -3.7224 -1.9067 0.9820
-1.4261 -3.8691 -1.9087 0.9820
-0.7187 -4.0794 -1.9174 0.9819
-0.3530 -4.1413 -1.9239 0.9818
0.0181 -4.1736 -1.9319 0.9818
0.3924 -4.1756 -1.9413 0.9817
1.1419 -4.0871 -1.9643 0.9815
1.8768 -3.8737 -1.9925 0.9812
2.2327 -3.7201 -2.0083 0.9811
2.5774 -3.5356 -2.0253 0.9809
3.5173 -2.8026 -2.0817 0.9804
3.7900 -2.5017 -2.1020 0.9802
2.3316 -0.9987 -1.1741 0.9889
4.1274 -1.3463 -2.0096 0.9810
4.4639 -0.2109 -2.0686 0.9805
4.5097 0.5965 -2.1056 0.9801
4.4748 1.0048 -2.1229 0.9800
4.1335 2.1994 -2.1673 0.9796
3.9420 2.5734 -2.1791 0.9795
3.7135 2.9283 -2.1891 0.9794
3.1539 3.5646 -2.2031 0.9792
1.0677 3.7482 -1.8040 0.9830
0.0257 2.7289 -1.2632 0.9880
-1.1786 4.4539 -2.1326 0.9799
-1.9202 4.1063 -2.0983 0.9802
-2.2590 3.8840 -2.0798 0.9804
-3.1169 3.0583 -2.0213 0.9809
-1.3187 0.5864 -0.6680 0.9937
-1.3336 0.4554 -0.6523 0.9938
-1.3370 -0.0380 -0.6191 0.9941
-1.3270 -0.4054 -0.6423 0.9939
-1.3279 -0.5394 -0.6634 0.9937
-3.0460 -2.7999 -1.9151 0.9819
-2.7775 -3.0535 -1.9107 0.9820
-2.4900 -3.2841 -1.9077 0.9820
-1.5313 -3.8269 -1.9079 0.9820
-1.1856 -3.9547 -1.9110 0.9820
-0.4662 -4.1254 -1.9217 0.9819
-0.0965 -4.1668 -1.9293 0.9818
0.2770 -4.1782 -1.9383 0.9817
1.0270 -4.1088 -1.9604 0.9815
2.1242 -3.7707 -2.0033 0.9811
2.8080 -3.3901 -2.0376 0.9808
3.9560 -2.2733 -2.1120 0.9801
3.8913 -1.7950 -1.9836 0.9813
4.3546 -0.7211 -2.0431 0.9807
4.5125 0.4710 -2.1001 0.9802
4.4897 0.8792 -2.1177 0.9800
4.4276 1.2863 -2.1342 0.9799
4.3259 1.6883 -2.1495 0.9797
4.1848 2.0810 -2.1634 0.9796
3.7877 2.8213 -2.1862 0.9794
3.5347 3.1606 -2.1948 0.9793
3.2483 3.4739 -2.2015 0.9793
2.5872 4.0087 -2.2085 0.9792
2.2193 4.2241 -2.2087 0.9792
1.8318 4.4014 -2.2067 0.9792
0.5954 4.6895 -2.1881 0.9794
0.1072 2.9025 -1.3444 0.9873
-0.2453 4.6730 -2.1660 0.9796
-1.4439 4.3491 -2.1212 0.9800
-3.0408 3.1524 -2.0274 0.9809
-3.2775 2.8403 -2.0075 0.9811
-3.4832 2.5114 -1.9877 0.9813
-1.3324 0.4963 -0.6582 0.9938
-1.3334 -0.0012 -0.6172 0.9941
-1.3156 -0.2389 -0.6189 0.9941
-1.3188 -0.3635 -0.6332 0.9940
-1.3322 -0.4989 -0.6585 0.9937
-3.5843 -2.1344 -1.9310 0.9818
-3.3658 -2.4358 -1.9232 0.9819
-2.8622 -2.9778 -1.9119 0.9820
-2.2809 -3.4297 -1.9066 0.9820
-1.9653 -3.6188 -1.9062 0.9820
-0.9404 -4.0268 -1.9141 0.9819
-0.5789 -4.1067 -1.9197 0.9819
-0.2109 -4.1573 -1.9268 0.9818
0.9118 -4.1276 -1.9566 0.9815
1.2848 -4.0558 -1.9693 0.9814
2.3667 -3.6529 -2.0147 0.9810
2.7063 -3.4566 -2.0321 0.9808
3.6249 -2.6901 -2.0895 0.9803
2.3645 -0.9180 -1.1741 0.9889
4.1870 -1.2084 -2.0172 0.9810
4.3203 -0.8381 -2.0371 0.9808
4.4844 -0.0577 -2.0759 0.9804
4.5118 0.3458 -2.0946 0.9803
4.3615 1.5654 -2.1449 0.9798
4.2324 1.9614 -2.1593 0.9796
3.8585 2.7123 -2.1831 0.9794
3.3399 3.3804 -2.1997 0.9793
3.0321 3.6737 -2.2049 0.9792
2.6958 3.9351 -2.2080 0.9792
1.9530 4.3509 -2.2076 0.9792
1.5544 4.5008 -2.2041 0.9792
0.9044 3.6457 -1.7387 0.9836
-0.0644 2.5843 -1.1966 0.9887
-0.5314 4.6291 -2.1568 0.9797
-0.9360 4.5323 -2.1422 0.9798
-1.3269 4.3978 -2.1263 0.9800
-1.7003 4.2277 -2.1093 0.9801
-2.0532 4.0244 -2.0913 0.9803
-2.6862 3.5298 -2.0532 0.9806
-3.2079 2.9383 -2.0137 0.9810
-3.4232 2.6142 -1.9938 0.9812
-2.6598 1.3627 -1.3834 0.9869
-1.3282 0.5368 -0.6631 0.9937
-1.3266 0.4027 -0.6417 0.9939
-1.3335 0.1554 -0.6214 0.9941
-1.3368 0.0356 -0.6190 0.9941
-1.3082 -0.3222 -0.6236 0.9941
-1.3181 -0.5889 -0.6683 0.9937
-2.9451 -2.9000 -1.9132 0.9819
-2.6692 -3.1449 -1.9093 0.9820
-2.3749 -3.3664 -1.9070 0.9820
-1.7384 -3.7346 -1.9068 0.9820
-1.0500 -3.9964 -1.9126 0.9820
0.0467 -4.1748 -1.9326 0.9818
0.7965 -4.1434 -1.9530 0.9816
1.1704 -4.0812 -1.9653 0.9815
1.5405 -3.9878 -1.9788 0.9813
2.2595 -3.7071 -2.0096 0.9810
2.6032 -3.5203 -2.0266 0.9809
2.9329 -3.3030 -2.0446 0.9807
3.5390 -2.7805 -2.0833 0.9804
3.8091 -2.4771 -2.1032 0.9802
4.0421 -2.1416 -2.1174 0.9800
4.1396 -1.3191 -2.0111 0.9810
4.3930 -0.5732 -2.0507 0.9807
4.4684 -0.1806 -2.0701 0.9805
0.1262 -3.9613 -1.9441 0.9825
1.5393 -3.7520 -1.9893 0.9821
1.8814 -3.6255 -2.0036 0.9820
3.5968 -1.8114 -1.9754 0.9822
3.9345 -1.1647 -2.0127 0.9819
4.1541 -0.4549 -2.0499 0.9816
4.1855 1.0616 -2.1181 0.9809
3.9824 1.8126 -2.1463 0.9807
3.8261 2.1729 -2.1583 0.9806
3.4090 2.8436 -2.1776 0.9804
2.8647 3.4230 -2.1895 0.9803
1.4858 4.2088 -2.1894 0.9803
0.9324 3.6514 -1.8485 0.9834
0.3148 4.4097 -2.1686 0.9805
-0.8502 4.2634 -2.1325 0.9808
-1.2188 4.1416 -2.1177 0.9809
-1.5717 3.9862 -2.1018 0.9811
-2.5073 3.3420 -2.0494 0.9816
-2.7704 3.0769 -2.0309 0.9817
-1.1223 0.5847 -0.6207 0.9944
-1.1701 0.2521 -0.5871 0.9947
-1.1577 -0.3888 -0.5990 0.9946
-1.1096 -0.6101 -0.6211 0.9944
-3.2747 -2.2026 -1.9358 0.9826
-2.2756 -3.1793 -1.9178 0.9827
-1.6738 -3.5324 -1.9174 0.9827
-1.3532 -3.6715 -1.9194 0.9827
-0.3348 -3.9282 -1.9338 0.9826
0.3721 -3.9588 -1.9504 0.9824
0.7277 -3.9304 -1.9607 0.9823
1.4325 -3.7849 -1.9851 0.9821
1.7770 -3.6676 -1.9991 0.9820
3.0453 -2.9069 -2.0651 0.9814
3.3222 -2.6472 -2.0837 0.9813
3.8898 -1.2689 -2.0070 0.9819
4.0247 -0.9252 -2.0257 0.9818
4.1286 -0.5674 -2.0442 0.9816
4.2384 0.5607 -2.0972 0.9811
4.2036 0.9439 -2.1133 0.9810
4.1319 1.3247 -2.1284 0.9809
4.0233 1.6992 -2.1423 0.9807
3.6971 2.4135 -2.1658 0.9805
3.4819 2.7456 -2.1751 0.9804
3.2340 3.0559 -2.1825 0.9804
2.9560 3.3409 -2.1882 0.9803
1.0473 3.6767 -1.8752 0.9831
-0.3500 4.3688 -2.1498 0.9807
-1.1068 4.1827 -2.1223 0.9809
-1.8051 3.8601 -2.0903 0.9812
-2.1246 3.6531 -2.0729 0.9813
-2.4211 3.4190 -2.0550 0.9815
-2.6923 3.1608 -2.0366 0.9817
-3.1524 2.5835 -1.9993 0.9820
-1.1065 0.6158 -0.6212 0.9944
-1.1573 0.3952 -0.5999 0.9946
-1.1852 0.1795 -0.5880 0.9947
-1.1959 0.0730 -0.5877 0.9947
-1.1907 -0.1409 -0.5881 0.9947
-1.1250 -0.5789 -0.6206 0.9944
-3.3380 -2.1142 -1.9382 0.9826
-3.1246 -2.3949 -1.9311 0.9826
-2.8899 -2.6564 -1.9255 0.9827
-2.0738 -3.3125 -1.9170 0.9827
-1.7700 -3.4845 -1.9171 0.9827
-1.4531 -3.6314 -1.9186 0.9827
-0.4422 -3.9133 -1.9318 0.9826
0.6183 -3.9423 -1.9574 0.9824
0.9732 -3.8935 -1.9686 0.9823
1.3251 -3.8151 -1.9810 0.9822
2.0106 -3.5691 -2.0094 0.9819
2.9562 -2.9815 -2.0595 0.9815
3.7315 -2.1443 -2.1111 0.9810
2.4024 -1.1082 -1.2978 0.9883
3.9864 -1.0326 -2.0199 0.9818
4.1000 -0.6789 -2.0385 0.9817
4.0606 1.5848 -2.1382 0.9808
3.9266 1.9526 -2.1511 0.9807
3.7566 2.3075 -2.1626 0.9805
3.3137 2.9629 -2.1804 0.9804
3.0446 3.2560 -2.1866 0.9803
2.0797 3.9583 -2.1933 0.9803
0.9518 4.3450 -2.1819 0.9804
0.1069 2.8942 -1.4207 0.9872
-0.2301 4.3844 -2.1536 0.9806
-0.6169 4.3208 -2.1409 0.9807
-1.3564 4.0857 -2.1117 0.9810
-2.0286 3.7198 -2.0784 0.9813
-2.6116 3.2427 -2.0423 0.9816
-2.8643 2.9694 -2.0238 0.9818
-2.6042 1.5445 -1.4852 0.9866
-1.1544 0.4300 -0.6043 0.9945
-1.1587 0.3172 -0.5893 0.9947
-1.1793 0.2120 -0.5877 0.9947
-1.1939 -0.1080 -0.5880 0.9947
-1.1344 -0.5448 -0.6173 0.9944
-3.3992 -2.0241 -1.9406 0.9825
-3.1926 -2.3105 -1.9331 0.9826
-2.9643 -2.5780 -1.9270 0.9826
-2.7158 -2.8254 -1.9224 0.9827
-1.5520 -3.5889 -1.9180 0.9827
-1.2271 -3.7180 -1.9205 0.9827
0.1533 -3.9617 -1.9448 0.9825
0.5088 -3.9514 -1.9542 0.9824
0.8641 -3.9117 -1.9650 0.9823
1.2172 -3.8424 -1.9771 0.9822
1.5657 -3.7433 -1.9903 0.9821
1.9073 -3.6146 -2.0047 0.9820
2.2394 -3.4564 -2.0202 0.9818
2.5596 -3.2692 -2.0367 0.9817
3.1541 -2.8102 -2.0722 0.9814
3.6117 -1.7881 -1.9768 0.9822
4.0684 -0.7892 -2.0328 0.9817
4.2182 -0.0543 -2.0693 0.9814
4.2417 0.3251 -2.0868 0.9812
3.9718 1.8406 -2.1473 0.9807
3.1306 3.1686 -2.1849 0.9804
2.8416 3.4430 -2.1898 0.9803
2.1880 3.8999 -2.1935 0.9803
1.8302 4.0774 -2.1923 0.9803
0.6798 4.3852 -2.1767 0.9804
0.2846 4.4102 -2.1678 0.9805
-0.0642 2.5758 -1.2639 0.9886
-0.4987 4.3443 -2.1450 0.9807
-0.8788 4.2553 -2.1314 0.9808
-1.9305 3.7839 -2.0837 0.9813
-3.0229 2.7689 -2.0108 0.9819
-3.2276 2.4649 -1.9921 0.9821
-1.1501 0.4648 -0.6085 0.9945
-1.1589 0.3518 -0.5941 0.9946
-1.1964 0.0319 -0.5871 0.9947
-1.1958 -0.0751 -0.5877 0.9947
-1.1849 -0.1816 -0.5880 0.9947
-1.1605 -0.2858 -0.5863 0.9947
-1.1571 -0.3974 -0.6002 0.9946
-1.1422 -0.5103 -0.6136 0.9944
-3.0368 -2.4978 -1.9288 0.9826
-2.2537 -3.1945 -1.9177 0.9827
-1.6497 -3.5440 -1.9175 0.9827
-1.3282 -3.6810 -1.9196 0.9827
-0.9962 -3.7918 -1.9231 0.9827
-0.6555 -3.8755 -1.9280 0.9826
0.0442 -3.9590 -1.9421 0.9825
0.3993 -3.9577 -1.9512 0.9824
0.7549 -3.9271 -1.9616 0.9823
1.1089 -3.8669 -1.9732 0.9822
1.4591 -3.7770 -1.9861 0.9821
2.1383 -3.5083 -2.0153 0.9819
2.4625 -3.3299 -2.0315 0.9817
2.7729 -3.1229 -2.0486 0.9816
3.0672 -2.8880 -2.0665 0.9814
3.5509 -1.8813 -1.9711 0.9823
2.3256 -0.9774 -1.2374 0.9888
4.1353 -0.5396 -2.0456 0.9816
4.2039 -0.1699 -2.0638 0.9814
-0.5469 -3.6969 -1.9387 0.9833
-0.2155 -3.7432 -1.9451 0.9832
0.1199 -3.7622 -1.9528 0.9832
0.4573 -3.7537 -1.9617 0.9831
1.1296 -3.6523 -1.9833 0.9829
1.4602 -3.5593 -1.9958 0.9828
1.7842 -3.4381 -2.0095 0.9827
2.9656 -2.6788 -2.0732 0.9822
3.2202 -2.4241 -2.0910 0.9820
3.4473 -2.1417 -2.1054 0.9819
3.3999 -1.7122 -1.9748 0.9830
3.7152 -1.0998 -2.0101 0.9827
3.9186 -0.4291 -2.0450 0.9824
3.9740 -0.0783 -2.0620 0.9822
3.9859 0.6393 -2.0942 0.9820
3.8609 1.3560 -2.1229 0.9817
3.7467 1.7053 -2.1355 0.9816
3.5984 2.0436 -2.1468 0.9815
2.9618 2.9571 -2.1712 0.9813
2.3972 3.4484 -2.1787 0.9813
2.0807 3.6501 -2.1797 0.9812
1.7459 3.8195 -2.1787 0.9813
1.3962 3.9549 -2.1758 0.9813
0.9336 3.6563 -1.9577 0.9831
0.6674 4.1187 -2.1646 0.9814
0.2960 4.1461 -2.1564 0.9814
-0.0493 2.7214 -1.4120 0.9878
-0.4415 4.0921 -2.1352 0.9816
-0.8001 4.0125 -2.1226 0.9817
-1.1475 3.8994 -2.1087 0.9818
-1.4804 3.7548 -2.0938 0.9820
-1.7960 3.5805 -2.0781 0.9821
-2.0917 3.3789 -2.0616 0.9823
-2.3652 3.1525 -2.0446 0.9824
-2.8386 2.6359 -2.0096 0.9827
-0.9705 0.6216 -0.5979 0.9948
-1.0219 0.5324 -0.5978 0.9948
-1.0630 0.3306 -0.5775 0.9950
-1.0820 0.2331 -0.5742 0.9950
-1.1066 0.0370 -0.5744 0.9950
-1.0970 -0.1605 -0.5752 0.9950
-1.0753 -0.2570 -0.5736 0.9950
-1.0614 -0.3565 -0.5809 0.9950
-1.0468 -0.4592 -0.5930 0.9949
-1.0102 -0.5555 -0.5981 0.9948
-3.1108 -2.0924 -1.9449 0.9832
-2.9022 -2.3540 -1.9386 0.9833
-2.6736 -2.5969 -1.9336 0.9833
-2.1627 -3.0216 -1.9277 0.9834
-1.8836 -3.2011 -1.9268 0.9834
-1.5908 -3.3573 -1.9273 0.9834
-1.2860 -3.4892 -1.9292 0.9834
-0.6478 -3.6772 -1.9370 0.9833
0.6909 -3.7314 -1.9686 0.9830
3.6736 -1.1983 -2.0046 0.9827
3.7990 -0.8733 -2.0223 0.9826
3.8952 -0.5353 -2.0397 0.9824
3.9604 -0.1871 -2.0569 0.9823
3.9929 0.5282 -2.0895 0.9820
3.6476 1.9408 -2.1435 0.9816
3.4764 2.2694 -2.1537 0.9815
3.2731 2.5810 -2.1624 0.9814
3.0395 2.8721 -2.1694 0.9813
2.1803 3.5914 -2.1796 0.9812
1.8507 3.7709 -2.1792 0.9812
0.7812 4.1030 -2.1668 0.9814
0.0259 2.7538 -1.4287 0.9877
-0.3293 4.1097 -2.1389 0.9816
-0.6908 4.0406 -2.1266 0.9817
-1.3796 3.8026 -2.0985 0.9819
-1.7009 3.6372 -2.0830 0.9821
-2.0029 3.4437 -2.0667 0.9822
-2.2835 3.2247 -2.0499 0.9824
-2.5406 2.9827 -2.0326 0.9825
-2.7725 2.7203 -2.0150 0.9826
-2.9779 2.4405 -1.9974 0.9828
-1.0456 0.4650 -0.5936 0.9949
-1.0961 0.1660 -0.5751 0.9950
-1.1060 0.0675 -0.5748 0.9950
-1.1011 -0.1303 -0.5752 0.9950
-1.0834 -0.2277 -0.5743 0.9950
-1.0633 -0.3248 -0.5768 0.9950
-1.0528 -0.4277 -0.5895 0.9949
-1.0244 -0.5271 -0.5977 0.9948
-0.9738 -0.6168 -0.5980 0.9948
-2.9686 -2.2754 -1.9404 0.9833
-2.7460 -2.5242 -1.9350 0.9833
-2.2457 -2.9618 -1.9282 0.9834
-1.9710 -3.1483 -1.9269 0.9834
-1.0691 -3.5659 -1.9313 0.9834
-0.7482 -3.6550 -1.9355 0.9833
-0.0870 -3.7537 -1.9479 0.9832
0.2494 -3.7622 -1.9561 0.9832
0.5870 -3.7429 -1.9655 0.9831
0.9237 -3.6955 -1.9762 0.9830
1.2573 -3.6199 -1.9880 0.9829
1.9064 -3.3840 -2.0150 0.9826
2.2172 -3.2242 -2.0300 0.9825
2.5156 -3.0371 -2.0459 0.9824
3.0658 -2.5838 -2.0800 0.9821
3.5269 -2.0267 -2.1103 0.9818
2.2489 -1.0374 -1.2848 0.9889
2.4717 -0.8822 -1.3615 0.9882
3.7635 -0.9749 -2.0168 0.9826
3.8688 -0.6406 -2.0344 0.9825
3.9437 -0.2953 -2.0516 0.9823
3.9867 0.0584 -2.0684 0.9822
3.9966 0.4172 -2.0846 0.9821
3.9726 0.7779 -2.1001 0.9819
3.9142 1.1371 -2.1145 0.9818
3.8211 1.4913 -2.1279 0.9817
3.6937 1.8368 -2.1400 0.9816
3.5326 2.1699 -2.1508 0.9815
2.8612 3.0599 -2.1733 0.9813
2.5814 3.3090 -2.1772 0.9813
1.9540 3.7192 -2.1795 0.9812
1.2586 3.9976 -2.1742 0.9813
0.1067 2.8873 -1.4989 0.9871
-1.2773 3.8475 -2.1031 0.9819
-1.6039 3.6912 -2.0879 0.9820
-2.1995 3.2947 -2.0551 0.9823
-2.4640 3.0595 -2.0379 0.9825
-2.7038 2.8031 -2.0204 0.9826
-2.9175 2.5283 -2.0028 0.9828
-3.1039 2.2380 -1.9852 0.9829
-0.9918 0.5882 -0.5982 0.9948
-1.0380 0.4963 -0.5969 0.9948
-1.0906 0.1960 -0.5749 0.9950
-1.1043 0.0980 -0.5751 0.9950
-1.1058 -0.0010 -0.5737 0.9950
-1.1041 -0.0999 -0.5751 0.9950
-1.0638 -0.2933 -0.5725 0.9950
-1.0373 -0.4981 -0.5970 0.9948
-0.9907 -0.5900 -0.5982 0.9948
-2.8166 -2.4496 -1.9365 0.9833
-2.3271 -2.8999 -1.9289 0.9834
-1.1661 -3.5333 -1.9303 0.9834
-0.5218 -3.7014 -1.9392 0.9833
-0.1900 -3.7456 -1.9456 0.9832
0.1456 -3.7626 -1.9534 0.9832
1.4853 -3.5510 -1.9968 0.9828
2.4252 -3.0975 -2.0409 0.9824
3.2389 -2.4036 -2.0924 0.9820
3.4634 -2.1190 -2.1064 0.9819
3.4138 -1.6901 -1.9762 0.9830
3.8395 -0.7448 -2.0290 0.9825
3.9240 -0.4026 -2.0464 0.9824
3.9769 -0.0512 -2.0633 0.9822
3.9359 1.0269 -2.1102 0.9818
3.7365 1.7316 -2.1365 0.9816
3.4020 2.3914 -2.1573 0.9814
2.6702 3.2352 -2.1762 0.9813
2.3737 3.4649 -2.1789 0.9813
1.7196 3.8311 -2.1785 0.9813
1.3690 3.9638 -2.1755 0.9813
0.2676 4.1466 -2.1557 0.9814
-0.4692 4.0872 -2.1343 0.9816
-1.1735 3.8895 -2.1076 0.9819
-1.8193 3.5660 -2.0768 0.9821
-2.3851 3.1343 -2.0433 0.9824
-3.0495 2.3288 -1.9906 0.9829
-1.0252 0.5253 -0.5976 0.9948
-1.0531 0.4256 -0.5893 0.9949
-1.0633 0.3228 -0.5765 0.9950
-1.0839 0.2258 -0.5744 0.9950
-1.1014 0.1283 -0.5752 0.9950
-1.1059 -0.0695 -0.5749 0.9950
-1.0731 -0.2643 -0.5734 0.9950
-1.0608 -0.3643 -0.5819 0.9950
-1.0065 -0.5624 -0.5981 0.9948
-3.0956 -2.1130 -1.9444 0.9833
-2.8854 -2.3732 -1.9382 0.9833
-2.4070 -2.8360 -1.9297 0.9834
-2.1419 -3.0361 -1.9276 0.9834
-1.8616 -3.2138 -1.9268 0.9834
-1.5679 -3.3682 -1.9274 0.9834
-0.9467 -3.6033 -1.9327 0.9834
-0.6228 -3.6823 -1.9374 0.9833
-0.2926 -3.7349 -1.9435 0.9833
0.0420 -3.7603 -1.9509 0.9832
0.7166 -3.7281 -1.9694 0.9830
1.0524 -3.6698 -1.9806 0.9829
1.3842 -3.5833 -1.9928 0.9828
2.0271 -3.3259 -2.0206 0.9826
2.3335 -3.1555 -2.0360 0.9825
2.6265 -2.9580 -2.0522 0.9823
2.9039 -2.7343 -2.0692 0.9822
3.1631 -2.4852 -2.0868 0.9820
3.3975 -2.2094 -2.1025 0.9819
3.3568 -1.7785 -1.9708 0.9830
2.2877 -0.9615 -1.2874 0.9889
3.6842 -1.1740 -2.0060 0.9827
3.8074 -0.8479 -2.0236 0.9826
3.9012 -0.5091 -2.0410 0.9824
3.9641 -0.1602 -2.0581 0.9823
0.1140 -3.5782 -1.9608 0.9838
0.4348 -3.5693 -1.9693 0.9837
1.0735 -3.4710 -1.9899 0.9836
1.3873 -3.3815 -2.0019 0.9835
1.9928 -3.1224 -2.0288 0.9832
2.8120 -2.5401 -2.0755 0.9829
3.0521 -2.2976 -2.0924 0.9827
3.2645 -2.0281 -2.1049 0.9826
3.2194 -1.6214 -1.9743 0.9837
3.6233 -0.7286 -2.0242 0.9833
3.7742 0.2633 -2.0721 0.9829
3.7623 0.6034 -2.0870 0.9828
3.7182 0.9431 -2.1009 0.9827
3.6415 1.2790 -2.1139 0.9826
3.3918 1.9262 -2.1363 0.9824
3.2201 2.2308 -2.1455 0.9823
2.7899 2.7854 -2.1592 0.9822
2.2576 3.2476 -2.1663 0.9821
1.9595 3.4375 -2.1671 0.9821
1.6442 3.5971 -2.1662 0.9821
1.3150 3.7249 -2.1635 0.9821
0.9425 3.6910 -2.0864 0.9828
-0.0493 2.7250 -1.4927 0.9876
-0.7547 3.7845 -2.1136 0.9826
-1.3974 3.5442 -2.0866 0.9828
-1.6960 3.3811 -2.0717 0.9829
-2.2355 2.9796 -2.0402 0.9832
-2.6854 2.4937 -2.0072 0.9834
-0.8891 0.5694 -0.5783 0.9952
-0.9681 0.3990 -0.5735 0.9952
-1.0044 0.2164 -0.5628 0.9953
-1.0218 0.1261 -0.5639 0.9953
-1.0272 -0.0575 -0.5635 0.9953
-1.0186 -0.1490 -0.5638 0.9953
-0.9983 -0.2386 -0.5622 0.9953
-0.8755 -0.5888 -0.5779 0.9952
-2.7612 -2.2396 -1.9472 0.9839
-2.3092 -2.6834 -1.9390 0.9840
-1.7926 -3.0465 -1.9360 0.9840
-1.5139 -3.1951 -1.9365 0.9840
-0.3026 -3.5501 -1.9515 0.9839
0.3360 -3.5749 -1.9666 0.9838
0.6568 -3.5474 -1.9760 0.9837
1.2913 -3.4120 -1.9981 0.9835
1.6008 -3.3039 -2.0108 0.9834
1.9021 -3.1692 -2.0244 0.9833
2.1930 -3.0083 -2.0390 0.9832
2.7344 -2.6101 -2.0704 0.9829
2.2631 -0.9693 -1.3484 0.9888
3.6820 -0.5061 -2.0356 0.9832
3.7694 0.4986 -2.0825 0.9828
3.6686 1.1762 -2.1100 0.9826
3.5695 1.5076 -2.1223 0.9825
3.4384 1.8295 -2.1332 0.9824
3.2761 2.1387 -2.1429 0.9823
2.6163 2.9570 -2.1625 0.9822
2.0533 3.3821 -2.1671 0.9821
1.7429 3.5513 -2.1667 0.9821
1.4176 3.6890 -2.1645 0.9821
0.3867 3.9024 -2.1478 0.9823
0.0262 2.7809 -1.5232 0.9874
-2.1579 3.0474 -2.0452 0.9831
-2.6225 2.5732 -2.0123 0.9834
-0.9229 0.5136 -0.5785 0.9952
-1.0178 0.1542 -0.5638 0.9953
-1.0270 0.0627 -0.5635 0.9953
-1.0276 -0.0292 -0.5631 0.9953
-1.0057 -0.2113 -0.5629 0.9953
-0.9804 -0.2995 -0.5615 0.9953
-0.9691 -0.3937 -0.5729 0.9952
-0.9385 -0.4829 -0.5780 0.9952
-0.8920 -0.5650 -0.5783 0.9952
-2.8243 -2.1647 -1.9490 0.9839
-2.3833 -2.6201 -1.9399 0.9840
-2.1371 -2.8187 -1.9374 0.9840
-1.6010 -3.1518 -1.9362 0.9840
-1.3143 -3.2844 -1.9376 0.9840
-1.0173 -3.3933 -1.9403 0.9840
-0.3997 -3.5370 -1.9496 0.9839
0.5581 -3.5587 -1.9729 0.9837
1.5063 -3.3400 -2.0068 0.9834
1.8103 -3.2135 -2.0201 0.9833
2.3870 -2.8818 -2.0495 0.9831
2.6551 -2.6778 -2.0654 0.9829
2.9066 -2.4496 -2.0819 0.9828
3.3395 -1.9190 -2.1095 0.9826
2.2284 -1.0279 -1.3441 0.9889
2.3206 -0.8283 -1.3495 0.9888
3.6926 1.0728 -2.1061 0.9826
3.1462 2.3434 -2.1486 0.9823
2.9341 2.6235 -2.1557 0.9822
2.6950 2.8821 -2.1611 0.9822
1.5192 3.6501 -2.1654 0.9821
1.1855 3.7652 -2.1620 0.9822
0.4945 3.8946 -2.1502 0.9823
-0.8821 3.7477 -2.1087 0.9826
-1.2054 3.6308 -2.0953 0.9827
-1.8059 3.3114 -2.0659 0.9829
-2.3293 2.8922 -2.0339 0.9832
-2.5572 2.6511 -2.0174 0.9833
-0.9742 0.3629 -0.5694 0.9953
-1.0270 -0.0009 -0.5625 0.9953
-1.0121 -0.1838 -0.5634 0.9953
-0.9739 -0.3647 -0.5696 0.9953
-0.9503 -0.4564 -0.5774 0.9952
-2.6799 -2.3307 -1.9453 0.9839
-2.4558 -2.5550 -1.9410 0.9840
-2.2146 -2.7597 -1.9380 0.9840
-1.6869 -3.1063 -1.9360 0.9840
-1.4037 -3.2461 -1.9370 0.9840
-0.8067 -3.4544 -1.9429 0.9840
0.4594 -3.5675 -1.9700 0.9837
0.7798 -3.5298 -1.9799 0.9836
1.4111 -3.3736 -2.0028 0.9835
2.0152 -3.1104 -2.0299 0.9832
2.3015 -2.9395 -2.0448 0.9831
2.5742 -2.7433 -2.0604 0.9830
3.0697 -2.2781 -2.0937 0.9827
3.2325 -1.6004 -1.9755 0.9837
