ply
format ascii 1.0
element vertex 1593
property float32 x
property float32 y
property float32 z
property float32 I
end_header
8.5321 0.9242 -2.2220 0.9652
8.4873 2.5020 -2.2910 0.9641
8.0351 3.1726 -2.2367 0.9649
6.1295 3.7988 -1.8671 0.9706
4.7269 4.2609 -1.6477 0.9740
4.1327 4.4556 -1.5735 0.9752
2.5805 4.9608 -1.4478 0.9772
2.1041 5.1146 -1.4320 0.9774
1.6341 5.2658 -1.4276 0.9775
0.6836 5.5698 -1.4529 0.9771
-0.3341 5.8927 -1.5282 0.9759
-3.4612 7.8733 -2.2268 0.9651
-4.0825 7.4100 -2.1905 0.9656
-4.6475 6.8971 -2.1534 0.9662
-5.5981 5.7533 -2.0784 0.9674
-5.9807 5.1374 -2.0414 0.9679
-6.5597 3.8515 -1.9695 0.9691
-7.2820 3.4419 -2.0854 0.9673
-7.5495 1.3222 -1.9845 0.9688
-7.5222 0.6333 -1.9545 0.9693
-7.4411 -0.0401 -1.9267 0.9697
-6.9019 -1.9365 -1.8560 0.9708
-6.6327 -2.5188 -1.8370 0.9711
-5.9758 -3.5959 -1.8058 0.9716
-5.5931 -4.0873 -1.7936 0.9718
-5.1775 -4.5453 -1.7838 0.9719
-4.2563 -5.3553 -1.7712 0.9721
-3.7553 -5.7047 -1.7684 0.9722
-2.1162 -6.5160 -1.7739 0.9721
-1.5316 -6.7033 -1.7803 0.9720
-0.9317 -6.8471 -1.7892 0.9719
-0.3188 -6.9459 -1.8003 0.9717
0.3048 -6.9986 -1.8138 0.9715
0.9364 -7.0038 -1.8296 0.9712
3.4844 -6.5257 -1.9154 0.9699
4.1101 -6.2757 -1.9424 0.9695
4.7235 -5.9718 -1.9714 0.9690
5.3203 -5.6134 -2.0025 0.9685
6.4442 -4.7325 -2.0701 0.9675
6.9608 -4.2109 -2.1064 0.9669
7.4386 -3.6361 -2.1438 0.9664
7.6648 -2.1699 -2.0625 0.9676
8.2161 -0.8005 -2.1374 0.9665
8.3989 -0.0650 -2.1747 0.9659
8.5522 1.4772 -2.2471 0.9648
8.5139 2.2687 -2.2813 0.9642
8.3813 3.0576 -2.3100 0.9638
7.2839 3.4219 -2.0837 0.9673
4.9126 4.1999 -1.6734 0.9736
4.3017 4.4003 -1.5933 0.9749
3.7420 4.5833 -1.5320 0.9758
2.7228 4.9147 -1.4547 0.9771
2.2430 5.0699 -1.4354 0.9774
1.7718 5.2214 -1.4276 0.9775
0.9101 3.7556 -1.0005 0.9842
0.8258 5.5245 -1.4463 0.9772
-0.7240 6.0158 -1.5688 0.9753
-1.3166 6.2023 -1.6417 0.9741
-1.6835 5.4705 -1.4820 0.9766
-4.4876 7.0524 -2.1643 0.9661
-5.0111 6.5091 -2.1269 0.9666
-5.4739 5.9294 -2.0894 0.9672
-6.2134 4.6898 -2.0156 0.9683
-2.7455 1.3869 -0.7964 0.9874
-7.5005 2.2302 -2.0260 0.9682
-7.5359 0.8342 -1.9631 0.9692
-7.1861 -1.1443 -1.8841 0.9704
-6.4181 -2.9130 -1.8249 0.9713
-5.7090 -3.9464 -1.7970 0.9717
-5.3028 -4.4144 -1.7865 0.9719
-4.8652 -4.8478 -1.7783 0.9720
-4.3986 -5.2455 -1.7725 0.9721
-3.3867 -5.9283 -1.7678 0.9722
-2.8459 -6.2110 -1.7689 0.9722
-2.2846 -6.4529 -1.7724 0.9721
-1.7050 -6.6528 -1.7782 0.9720
-1.1094 -6.8094 -1.7863 0.9719
0.1207 -6.9880 -1.8096 0.9715
0.7502 -7.0073 -1.8247 0.9713
3.9275 -6.3547 -1.9342 0.9696
4.5450 -6.0667 -1.9627 0.9692
5.7291 -5.3272 -2.0256 0.9682
6.2862 -4.8755 -2.0598 0.9677
7.3033 -3.8106 -2.1329 0.9665
7.8858 -1.7035 -2.0889 0.9672
8.3522 -0.2839 -2.1638 0.9661
8.4867 0.4707 -2.2007 0.9655
8.5485 1.2465 -2.2368 0.9649
8.5334 2.0357 -2.2715 0.9644
4.4751 4.3435 -1.6147 0.9746
3.9019 4.5311 -1.5482 0.9756
3.4327 4.7926 -1.5264 0.9759
2.9201 4.9592 -1.4901 0.9765
-0.5595 5.9639 -1.5509 0.9756
-1.1369 6.1458 -1.6183 0.9745
-5.7635 5.5020 -2.0631 0.9676
-6.1204 4.8769 -2.0263 0.9682
-2.7149 1.4622 -0.7984 0.9873
-7.3514 3.1485 -2.0706 0.9675
-7.4756 2.4381 -2.0359 0.9680
-7.5449 1.0362 -1.9719 0.9690
-7.3925 -0.3127 -1.9158 0.9699
-7.2400 -0.9588 -1.8909 0.9703
-6.7959 -2.1802 -1.8479 0.9709
-6.5097 -2.7509 -1.8298 0.9712
-5.8221 -3.8027 -1.8005 0.9717
-4.5385 -5.1325 -1.7739 0.9721
-3.0069 -6.1321 -1.7683 0.9722
-1.2858 -6.7680 -1.7837 0.9719
-6.9336 1.4798 -2.0071 0.9710
-6.8919 0.2172 -1.9520 0.9717
-6.7965 -0.3939 -1.9273 0.9721
-6.6547 -0.9872 -1.9045 0.9724
-6.4687 -1.5601 -1.8838 0.9727
-6.2412 -2.1102 -1.8651 0.9730
-5.3323 -3.6028 -1.8218 0.9736
-4.9617 -4.0418 -1.8117 0.9737
-4.1324 -4.8229 -1.7980 0.9739
-3.2002 -5.4658 -1.7930 0.9740
-2.7007 -5.7323 -1.7939 0.9740
-2.1819 -5.9605 -1.7969 0.9740
-1.6458 -6.1492 -1.8021 0.9739
-1.0948 -6.2973 -1.8095 0.9738
-0.5311 -6.4036 -1.8190 0.9736
0.0429 -6.4669 -1.8308 0.9735
0.6247 -6.4861 -1.8447 0.9733
1.8008 -6.3878 -1.8788 0.9728
2.3893 -6.2684 -1.8991 0.9725
4.1165 -5.6183 -1.9717 0.9715
4.6669 -5.3027 -1.9997 0.9711
5.1976 -4.9371 -2.0294 0.9706
6.1817 -4.0583 -2.0934 0.9697
6.6251 -3.5469 -2.1274 0.9692
7.1429 -1.6227 -2.0736 0.9700
7.3778 -0.9946 -2.1075 0.9695
7.6734 0.3437 -2.1745 0.9686
7.7087 1.7524 -2.2380 0.9677
7.6205 2.4656 -2.2674 0.9673
5.8911 3.8687 -1.9952 0.9711
5.1763 4.1048 -1.8702 0.9729
4.5405 4.3142 -1.7731 0.9743
3.4911 4.7662 -1.6725 0.9757
2.9763 4.9337 -1.6312 0.9763
2.4366 5.0004 -1.5747 0.9771
1.0223 5.4548 -1.5711 0.9772
0.5394 5.6086 -1.5951 0.9768
0.0170 2.6230 -0.7426 0.9892
-0.4931 5.9355 -1.6861 0.9755
-1.0640 6.1151 -1.7572 0.9745
-3.8551 6.5823 -2.1595 0.9688
-5.5460 4.5165 -2.0248 0.9707
-6.9424 1.0289 -1.9868 0.9712
-6.8295 -0.2161 -1.9343 0.9720
-6.3122 -1.9511 -1.8703 0.9729
-6.0566 -2.4838 -1.8532 0.9732
-5.0737 -3.9161 -1.8144 0.9737
-4.2611 -4.7167 -1.7994 0.9739
-0.1266 -6.4528 -1.8271 0.9735
1.0389 -6.4725 -1.8558 0.9731
1.6277 -6.4139 -1.8733 0.9729
2.8028 -6.1550 -1.9146 0.9723
3.3823 -5.9529 -1.9383 0.9719
3.9517 -5.7016 -1.9639 0.9716
4.5071 -5.4005 -1.9913 0.9712
5.5582 -4.6491 -2.0514 0.9703
6.4987 -3.7019 -2.1173 0.9694
6.8973 -3.1500 -2.1466 0.9690
7.3145 -1.1823 -2.0975 0.9697
7.6456 0.1416 -2.1648 0.9687
7.7209 1.5433 -2.2290 0.9678
7.6540 2.2563 -2.2590 0.9674
6.1200 3.7929 -2.0383 0.9705
5.3769 4.0386 -1.9037 0.9724
4.1273 4.4498 -1.7181 0.9751
3.1249 4.8854 -1.6418 0.9762
1.6321 5.2596 -1.5590 0.9774
0.0865 2.6422 -0.7484 0.9891
-0.3337 5.8852 -1.6687 0.9758
-0.8914 6.0609 -1.7342 0.9749
-1.4995 6.2517 -1.8200 0.9736
-1.8339 5.4463 -1.6269 0.9764
-3.6976 6.7113 -2.1692 0.9686
-4.2161 6.2568 -2.1359 0.9691
-5.0948 5.2361 -2.0682 0.9701
-5.9983 3.5219 -1.9691 0.9715
-6.6602 3.1480 -2.0854 0.9698
-6.8156 2.5045 -2.0556 0.9703
-6.9061 1.8576 -2.0246 0.9707
-6.9419 1.2158 -1.9951 0.9711
-6.9253 0.5831 -1.9674 0.9715
-6.5831 -1.2262 -1.8957 0.9725
-6.3797 -1.7900 -1.8758 0.9728
-6.1356 -2.3300 -1.8580 0.9731
-5.8533 -2.8442 -1.8423 0.9733
-5.1831 -3.7877 -1.8174 0.9737
-4.7999 -4.2138 -1.8081 0.9738
-4.3874 -4.6074 -1.8011 0.9739
-3.9479 -4.9673 -1.7962 0.9740
-2.9965 -5.5804 -1.7931 0.9740
-2.4888 -5.8312 -1.7948 0.9740
-1.9626 -6.0432 -1.7988 0.9739
-0.8636 -6.3463 -1.8131 0.9737
-0.2953 -6.4350 -1.8236 0.9736
0.2822 -6.4802 -1.8362 0.9734
0.8665 -6.4809 -1.8510 0.9732
1.4547 -6.4359 -1.8679 0.9729
2.0440 -6.3443 -1.8869 0.9727
2.6312 -6.2051 -1.9080 0.9724
4.3457 -5.4941 -1.9831 0.9713
4.8885 -5.1578 -2.0118 0.9709
5.4099 -4.7718 -2.0421 0.9705
6.3691 -3.8529 -2.1073 0.9695
6.7902 -3.3192 -2.1396 0.9691
2.3681 -0.9056 -0.7178 0.9895
6.9805 -1.9762 -2.0538 0.9703
7.6122 -0.0589 -2.1550 0.9688
7.7271 1.3346 -2.2199 0.9679
7.2712 3.4160 -2.2743 0.9672
4.9057 4.1940 -1.8271 0.9735
3.7372 4.5774 -1.6729 0.9757
3.2755 4.8364 -1.6536 0.9760
2.7195 4.9088 -1.5886 0.9769
1.7698 5.2153 -1.5591 0.9774
0.8248 5.5178 -1.5794 0.9771
0.1637 2.7716 -0.7860 0.9885
-1.3148 6.1938 -1.7925 0.9740
-3.5358 6.8363 -2.1789 0.9685
-4.0691 6.3946 -2.1457 0.9690
-4.5511 5.9116 -2.1120 0.9695
-2.7440 1.3862 -0.8703 0.9873
-6.7784 2.6948 -2.0650 0.9701
-6.8830 0.1436 -1.9490 0.9718
-6.6348 -1.0565 -1.9019 0.9725
-6.2114 -2.1740 -1.8630 0.9730
-5.6321 -3.1908 -1.8325 0.9734
-4.9155 -4.0920 -1.8106 0.9738
-4.5114 -4.4953 -1.8029 0.9739
-3.6224 -5.2003 -1.7941 0.9740
-3.1418 -5.4995 -1.7930 0.9740
-1.0283 -6.3122 -1.8105 0.9738
0.6944 -6.4854 -1.8465 0.9732
1.8710 -6.3761 -1.8811 0.9728
2.4592 -6.2509 -1.9016 0.9725
4.7312 -5.2617 -2.0032 0.9710
5.2593 -4.8903 -2.0331 0.9706
6.6753 -3.4829 -2.1315 0.9692
2.3430 -0.9673 -0.7176 0.9895
6.8930 -2.1484 -2.0439 0.9704
7.1736 -1.5496 -2.0777 0.9700
7.5734 -0.2575 -2.1452 0.9690
7.7271 1.1267 -2.2106 0.9681
7.6052 2.5503 -2.2708 0.9672
7.4349 3.2575 -2.2979 0.9668
6.6093 3.6307 -2.1348 0.9691
5.8010 3.8985 -1.9786 0.9714
5.0970 4.1310 -1.8573 0.9731
4.4690 4.3376 -1.7631 0.9744
3.4284 4.7866 -1.6668 0.9758
2.3798 5.0187 -1.5724 0.9772
0.2612 3.0572 -0.8686 0.9873
-0.0109 2.6350 -0.7460 0.9891
-0.5587 5.9562 -1.6936 0.9754
-1.1353 6.1375 -1.7670 0.9744
-1.7693 6.3361 -1.8623 0.9730
-2.1041 5.5615 -1.6833 0.9756
-3.9177 6.5289 -2.1555 0.9688
-4.8593 5.5491 -2.0881 0.9698
-5.2489 5.0107 -2.0543 0.9703
-5.5828 4.4485 -2.0208 0.9708
-2.7174 1.4635 -0.8738 0.9873
-6.9274 1.5919 -2.0122 0.9709
-6.9413 0.9533 -1.9835 0.9713
-6.9036 0.3254 -1.9565 0.9717
-6.6827 -0.8850 -1.9083 0.9724
-6.5043 -1.4617 -1.8872 0.9727
-6.2838 -2.0159 -1.8682 0.9729
-5.3937 -3.5229 -1.8238 0.9736
-5.0286 -3.9674 -1.8133 0.9737
-3.2852 -5.4155 -1.7931 0.9740
-2.7894 -5.6885 -1.7936 0.9740
-2.2738 -5.9235 -1.7962 0.9740
-1.1920 -6.2744 -1.8080 0.9738
-0.6304 -6.3881 -1.8172 0.9737
-6.2273 2.5528 -2.0701 0.9722
-6.4082 1.3677 -2.0154 0.9730
-6.3004 -0.3651 -1.9411 0.9739
-6.0065 -1.4486 -1.9004 0.9745
-5.5548 -2.4502 -1.8674 0.9749
-5.2753 -2.9149 -1.8538 0.9751
-4.6198 -3.7632 -1.8327 0.9754
-4.2480 -4.1436 -1.8252 0.9755
-3.4269 -4.8097 -1.8165 0.9756
-2.9817 -5.0928 -1.8152 0.9756
-2.0327 -5.5529 -1.8188 0.9756
-1.5330 -5.7275 -1.8237 0.9755
-1.0195 -5.8638 -1.8306 0.9754
-0.4944 -5.9606 -1.8396 0.9753
0.0399 -6.0168 -1.8507 0.9751
0.5809 -6.0315 -1.8638 0.9750
1.1260 -6.0037 -1.8788 0.9748
2.2173 -5.8170 -1.9148 0.9743
2.7573 -5.6567 -1.9356 0.9740
3.8096 -5.1995 -1.9826 0.9734
5.6947 -3.7386 -2.0953 0.9719
6.0953 -3.2633 -2.1266 0.9715
2.3571 -1.0026 -0.7878 0.9893
6.5454 -1.4870 -2.0645 0.9723
6.7514 -0.9102 -2.0954 0.9719
6.9052 -0.3083 -2.1260 0.9715
7.0174 1.5953 -2.2135 0.9703
6.9289 2.2418 -2.2399 0.9700
6.7746 2.8826 -2.2645 0.9697
5.8820 3.8627 -2.1644 0.9710
5.1689 4.0989 -2.0290 0.9728
3.4867 4.7601 -1.8149 0.9756
2.4336 4.9943 -1.7088 0.9770
1.0306 3.6577 -1.1688 0.9842
0.5387 5.6017 -1.7309 0.9767
0.0169 2.6054 -0.8014 0.9892
-0.4925 5.9277 -1.8295 0.9754
-1.0626 6.1068 -1.9065 0.9744
-2.0107 5.4904 -1.7984 0.9758
-4.4037 5.1381 -2.0814 0.9721
-5.3606 3.6208 -1.9897 0.9733
-2.7502 1.5192 -0.9664 0.9869
-5.7462 2.5337 -1.9316 0.9741
-6.3196 2.1357 -2.0518 0.9725
-6.3955 1.5415 -2.0235 0.9728
-6.4212 0.9516 -1.9966 0.9732
-6.3293 -0.2003 -1.9477 0.9738
-5.8641 -1.8126 -1.8879 0.9746
-5.3609 -2.7811 -1.8576 0.9750
-5.0579 -3.2273 -1.8454 0.9752
-4.3600 -4.0351 -1.8272 0.9754
-2.6549 -5.2717 -1.8155 0.9756
1.5120 -5.9579 -1.8906 0.9746
2.0576 -5.8556 -1.9090 0.9744
3.1342 -5.5161 -1.9514 0.9738
5.5706 -3.8700 -2.0863 0.9720
5.9813 -3.4072 -2.1173 0.9716
6.4756 -1.6510 -2.0555 0.9724
7.0310 1.4054 -2.2054 0.9704
6.9616 2.0522 -2.2324 0.9701
6.8268 2.6955 -2.2575 0.9698
5.3690 4.0327 -2.0653 0.9723
4.7138 4.2491 -1.9520 0.9738
4.1218 4.4438 -1.8643 0.9750
3.6429 4.7091 -1.8312 0.9754
3.1210 4.8793 -1.7815 0.9761
2.5742 4.9487 -1.7157 0.9769
1.6302 5.2532 -1.6918 0.9772
0.6820 5.5562 -1.7218 0.9768
0.0861 2.6286 -0.8089 0.9891
-0.8902 6.0527 -1.8817 0.9747
-1.8318 5.4400 -1.7655 0.9763
-2.8534 6.4907 -2.1808 0.9708
-5.0036 4.2980 -2.0288 0.9728
-5.7021 2.6952 -1.9399 0.9740
-6.2876 2.3105 -2.0604 0.9724
-6.3785 1.7157 -2.0316 0.9727
-6.4100 0.5397 -1.9786 0.9734
-6.3543 -0.0343 -1.9545 0.9738
-6.2535 -0.5945 -1.9321 0.9741
-5.9256 -1.6626 -1.8930 0.9746
-5.7028 -2.1656 -1.8763 0.9748
-5.4436 -2.6451 -1.8615 0.9750
-5.1502 -3.0991 -1.8488 0.9752
-3.6780 -4.6277 -1.8182 0.9756
-3.2458 -4.9307 -1.8157 0.9756
-2.3188 -5.4328 -1.8169 0.9756
-1.3226 -5.7885 -1.8263 0.9755
-0.8040 -5.9086 -1.8341 0.9754
0.8055 -6.0252 -1.8697 0.9749
1.3515 -5.9796 -1.8856 0.9747
1.8977 -5.8902 -1.9034 0.9744
2.4410 -5.7563 -1.9231 0.9742
4.0200 -5.0823 -1.9931 0.9732
4.5173 -4.7661 -2.0198 0.9729
4.9933 -4.4044 -2.0479 0.9725
5.4438 -3.9978 -2.0774 0.9721
2.3692 -0.9061 -0.7802 0.9894
6.9526 -0.0538 -2.1385 0.9713
7.0262 0.5750 -2.1683 0.9709
6.3487 3.7077 -2.2613 0.9697
5.5765 3.9640 -2.1044 0.9718
3.7323 4.5715 -1.8152 0.9756
2.7161 4.9027 -1.7239 0.9768
2.2376 5.0576 -1.7011 0.9771
1.7676 5.2090 -1.6919 0.9772
0.8237 5.5111 -1.7139 0.9770
0.1643 2.7820 -0.8572 0.9884
-0.0843 2.7731 -0.8533 0.9885
-0.7221 6.0000 -1.8588 0.9750
-3.2263 6.2380 -2.1601 0.9710
-4.5621 4.9417 -2.0686 0.9722
-4.9108 4.4475 -2.0378 0.9727
-5.2091 3.9317 -2.0073 0.9731
-2.7426 1.3855 -0.9451 0.9872
-6.2463 2.4832 -2.0675 0.9723
-6.3571 1.8902 -2.0399 0.9726
-6.2877 -0.4315 -1.9385 0.9740
-5.5233 -2.5069 -1.8656 0.9749
-5.2398 -2.9685 -1.8523 0.9751
-4.9236 -3.4035 -1.8410 0.9753
-4.5769 -3.8101 -1.8317 0.9754
-4.2019 -4.1869 -1.8245 0.9755
-3.8006 -4.5323 -1.8193 0.9756
-1.9740 -5.5756 -1.8192 0.9756
-0.4312 -5.9694 -1.8409 0.9753
0.6456 -6.0305 -1.8654 0.9749
3.8706 -5.1665 -1.9856 0.9733
4.3733 -4.8637 -2.0118 0.9730
4.8560 -4.5153 -2.0395 0.9726
5.7442 -3.6842 -2.0990 0.9718
6.1389 -3.2030 -2.1298 0.9714
2.3400 -0.9660 -0.7786 0.9895
6.3239 -1.9710 -2.0374 0.9727
6.5725 -1.4198 -2.0682 0.9723
6.7725 -0.8398 -2.0990 0.9718
6.9199 -0.2352 -2.1296 0.9714
7.0418 1.0268 -2.1888 0.9707
6.9140 2.3185 -2.2430 0.9699
4.4629 4.3317 -1.9130 0.9743
3.8918 4.5193 -1.8344 0.9753
2.3769 5.0126 -1.7063 0.9771
0.9861 3.6481 -1.1624 0.9843
0.9643 5.4662 -1.7073 0.9770
-0.0109 2.6165 -0.8048 0.9891
-3.5782 5.9631 -2.1390 0.9713
-4.0378 5.5398 -2.1085 0.9717
-4.4502 5.0819 -2.0777 0.9721
-5.1267 4.0851 -2.0163 0.9729
-2.7208 1.4654 -0.9505 0.9872
-6.1981 2.6545 -2.0739 0.9722
-6.3313 2.0649 -2.0483 0.9725
-6.4012 1.4710 -2.0202 0.9729
-6.4210 0.8819 -1.9935 0.9732
-6.3926 0.3014 -1.9684 0.9736
-5.8382 -1.8729 -1.8858 0.9747
-5.6001 -2.3665 -1.8699 0.9749
-5.3265 -2.8357 -1.8560 0.9751
-5.0197 -3.2786 -1.8441 0.9752
-4.6818 -3.6938 -1.8342 0.9754
-2.5989 -5.3001 -1.8156 0.9756
-1.6213 -5.6998 -1.8227 0.9755
-5.3623 2.1982 -1.9264 0.9759
-5.8885 1.8193 -2.0486 0.9744
-5.9509 1.2701 -2.0227 0.9747
-5.8663 -0.3399 -1.9533 0.9755
-5.7531 -0.8534 -1.9333 0.9758
-5.6007 -1.3507 -1.9151 0.9760
-4.9271 -2.7225 -1.8712 0.9766
-4.6372 -3.1331 -1.8603 0.9767
-4.3180 -3.5175 -1.8513 0.9768
-3.9716 -3.8740 -1.8442 0.9769
-3.5999 -4.2014 -1.8391 0.9769
-3.2049 -4.4982 -1.8359 0.9770
-2.7887 -4.7631 -1.8347 0.9770
-1.9008 -5.1928 -1.8381 0.9770
1.0507 -5.6024 -1.8947 0.9763
1.5597 -5.5326 -1.9107 0.9761
3.0608 -5.0723 -1.9692 0.9753
3.5419 -4.8341 -1.9920 0.9751
4.4539 -4.2307 -2.0420 0.9744
4.8772 -3.8665 -2.0689 0.9741
5.2734 -3.4620 -2.0969 0.9738
5.6355 -3.0171 -2.1249 0.9734
6.0336 -1.3707 -2.0567 0.9743
6.2162 -0.8380 -2.0850 0.9739
6.4331 0.2881 -2.1406 0.9732
6.4612 0.8720 -2.1672 0.9729
6.4324 1.4623 -2.1927 0.9726
6.3450 2.0529 -2.2167 0.9723
4.5280 4.3022 -2.0762 0.9740
3.9521 4.4918 -1.9888 0.9751
3.4182 4.6667 -1.9229 0.9759
2.4306 4.9881 -1.8444 0.9769
1.9586 5.1405 -1.8286 0.9771
1.0198 5.4414 -1.8403 0.9769
-0.4918 5.9199 -1.9746 0.9753
-1.6853 6.2932 -2.1656 0.9729
-2.7642 5.8650 -2.1552 0.9730
-4.4021 4.2928 -2.0439 0.9744
-4.7019 3.8291 -2.0156 0.9748
-5.9374 1.4311 -2.0302 0.9746
-5.9670 0.8843 -2.0051 0.9749
-5.9512 0.3440 -1.9815 0.9752
-5.7905 -0.7042 -1.9390 0.9757
-5.6494 -1.2065 -1.9202 0.9759
-5.0063 -2.5972 -1.8747 0.9765
-4.4147 -3.4074 -1.8537 0.9768
-4.0760 -3.7723 -1.8461 0.9769
-0.6071 -5.5478 -1.8551 0.9767
0.3936 -5.6322 -1.8767 0.9765
0.9013 -5.6151 -1.8904 0.9763
1.4104 -5.5573 -1.9059 0.9761
1.9181 -5.4583 -1.9231 0.9759
2.9171 -5.1341 -1.9629 0.9754
3.8726 -4.6402 -2.0090 0.9748
4.3251 -4.3298 -2.0343 0.9745
4.7556 -3.9777 -2.0609 0.9742
5.7314 -2.0211 -2.0201 0.9747
5.9713 -1.5224 -2.0484 0.9744
6.1675 -0.9969 -2.0767 0.9740
6.4144 0.1188 -2.1326 0.9733
6.4469 1.2886 -2.1854 0.9727
6.3768 1.8798 -2.2099 0.9724
6.2473 2.4667 -2.2327 0.9721
5.8096 3.6006 -2.2720 0.9716
3.0960 4.8403 -1.9099 0.9761
2.0964 5.0961 -1.8317 0.9770
1.6282 5.2468 -1.8261 0.9771
0.6811 5.5493 -1.8585 0.9767
-0.3328 5.8699 -1.9543 0.9755
-0.8890 6.0445 -2.0308 0.9746
-2.6188 5.9569 -2.1630 0.9729
-3.1011 5.6288 -2.1362 0.9733
-3.5448 5.2606 -2.1086 0.9736
-3.9469 4.8575 -2.0805 0.9740
-4.8859 3.4903 -1.9959 0.9750
-5.1067 2.9984 -1.9685 0.9753
-5.9199 1.5924 -2.0378 0.9745
-5.9631 1.0444 -2.0123 0.9748
-5.9604 0.5018 -1.9883 0.9751
-5.9136 -0.0319 -1.9657 0.9754
-5.8245 -0.5537 -1.9448 0.9756
-5.6949 -1.0608 -1.9256 0.9759
-5.3220 -2.0211 -1.8923 0.9763
-4.8111 -2.8950 -1.8665 0.9766
-4.5089 -3.2950 -1.8563 0.9767
-3.0356 -4.6115 -1.8352 0.9770
-1.7096 -5.2641 -1.8398 0.9769
-1.2365 -5.4117 -1.8452 0.9769
-0.7515 -5.5224 -1.8526 0.9768
-0.2568 -5.5954 -1.8619 0.9767
1.2609 -5.5786 -1.9011 0.9762
1.7693 -5.4917 -1.9179 0.9760
2.2742 -5.3631 -1.9364 0.9757
3.2610 -4.9791 -1.9785 0.9752
3.7361 -4.7234 -2.0019 0.9749
4.1943 -4.4253 -2.0267 0.9746
5.0443 -3.7044 -2.0803 0.9740
5.7652 -2.8181 -2.1331 0.9733
2.3703 -0.9065 -0.8435 0.9894
5.9052 -1.6718 -2.0401 0.9745
6.4515 0.5279 -2.1517 0.9731
6.4035 1.7064 -2.2028 0.9725
6.2916 2.2952 -2.2262 0.9722
6.1199 2.8751 -2.2476 0.9719
5.8887 3.4390 -2.2668 0.9717
5.5680 3.9579 -2.2708 0.9716
2.7128 4.8966 -1.8608 0.9767
2.2348 5.0514 -1.8361 0.9770
1.7655 5.2027 -1.8263 0.9771
0.8586 3.5429 -1.2118 0.9848
0.8227 5.5042 -1.8500 0.9768
-0.0844 2.7770 -0.9235 0.9884
-0.7212 5.9919 -2.0061 0.9749
-1.3111 6.1765 -2.0989 0.9737
-1.6810 5.4624 -1.8998 0.9762
-2.4702 6.0450 -2.1707 0.9728
-2.9633 5.7295 -2.1442 0.9732
-5.0467 3.1441 -1.9765 0.9752
-5.3769 2.1376 -1.9234 0.9759
-5.9658 0.6604 -1.9952 0.9750
-5.8549 -0.4018 -1.9508 0.9756
-5.7370 -0.9135 -1.9310 0.9758
-5.3858 -1.8851 -1.8968 0.9762
-3.9286 -3.9146 -1.8435 0.9769
-3.5540 -4.2384 -1.8386 0.9770
-1.3768 -5.3721 -1.8434 0.9769
-0.8950 -5.4938 -1.8502 0.9768
-0.4029 -5.5779 -1.8590 0.9767
0.0972 -5.6237 -1.8696 0.9766
1.1114 -5.5962 -1.8965 0.9762
2.1265 -5.4052 -1.9308 0.9758
2.6271 -5.2469 -1.9505 0.9756
4.5056 -4.1895 -2.0451 0.9744
5.3185 -3.4112 -2.1003 0.9737
5.6736 -2.9603 -2.1272 0.9734
2.3375 -0.9650 -0.8406 0.9894
5.8355 -1.8188 -2.0318 0.9746
6.4394 0.3571 -2.1438 0.9732
6.4608 0.9420 -2.1703 0.9729
6.4251 1.5327 -2.1957 0.9725
6.3306 2.1229 -2.2195 0.9722
5.9627 3.2755 -2.2614 0.9717
5.6901 3.8240 -2.2789 0.9715
5.0822 4.1190 -2.1745 0.9728
4.4567 4.3257 -2.0645 0.9742
3.8866 4.5133 -1.9799 0.9752
3.3569 4.6868 -1.9163 0.9760
2.9092 4.9408 -1.9059 0.9761
1.9028 5.1585 -1.8276 0.9771
0.9615 3.5571 -1.2248 0.9846
-0.0108 2.6100 -0.8676 0.9891
-1.1322 6.1206 -2.0690 0.9741
-1.7642 6.3177 -2.1804 0.9727
-2.0941 5.5351 -1.9672 0.9754
-2.8223 5.8267 -2.1521 0.9731
-3.7159 5.0982 -2.0970 0.9738
-4.4402 4.2387 -2.0405 0.9745
-4.7345 3.7726 -2.0123 0.9748
-4.9826 3.2888 -1.9845 0.9751
-2.7243 1.4673 -1.0286 0.9870
-5.8725 1.9152 -2.0532 0.9743
-5.9434 1.3658 -2.0271 0.9746
-5.9674 0.8196 -2.0022 0.9749
-5.7758 -0.7649 -1.9367 0.9757
-5.6300 -1.2652 -1.9181 0.9760
-5.4466 -1.7473 -1.9014 0.9762
-3.2755 -4.4486 -1.8363 0.9770
-2.8628 -4.7192 -1.8348 0.9770
-2.4307 -4.9570 -1.8352 0.9770
-1.9810 -5.1608 -1.8375 0.9770
-1.5159 -5.3294 -1.8418 0.9769
-1.0377 -5.4619 -1.8480 0.9768
-0.5484 -5.5572 -1.8562 0.9767
-5.5685 0.6764 -2.0060 0.9765
-5.2412 -1.2640 -1.9280 0.9774
-5.0663 -1.7130 -1.9125 0.9775
-4.8579 -2.1428 -1.8987 0.9777
-4.6176 -2.5515 -1.8866 0.9778
-4.3476 -2.9374 -1.8763 0.9780
-3.7255 -3.6340 -1.8611 0.9781
-2.6168 -4.4695 -1.8521 0.9782
-2.2082 -4.6870 -1.8528 0.9782
-1.3446 -5.0237 -1.8597 0.9782
-0.8938 -5.1408 -1.8660 0.9781
-0.4332 -5.2225 -1.8740 0.9780
0.0349 -5.2678 -1.8839 0.9779
0.5082 -5.2760 -1.8955 0.9777
0.9840 -5.2464 -1.9089 0.9776
1.9329 -5.0710 -1.9407 0.9772
2.4004 -4.9244 -1.9591 0.9770
3.3060 -4.5122 -2.0004 0.9765
4.1504 -3.9424 -2.0471 0.9760
4.9051 -3.2202 -2.0983 0.9754
5.5899 -1.2699 -2.0499 0.9759
5.7533 -0.7756 -2.0760 0.9756
5.9423 0.2662 -2.1271 0.9750
5.9306 1.3482 -2.1749 0.9745
5.8450 1.8911 -2.1969 0.9742
5.5108 2.9513 -2.2355 0.9738
5.2631 3.4563 -2.2517 0.9736
3.9468 4.4857 -2.1367 0.9749
3.2965 4.5005 -1.9950 0.9766
2.8846 4.7818 -1.9970 0.9766
2.4275 4.9818 -1.9818 0.9767
1.0185 5.4346 -1.9773 0.9768
0.5374 5.5876 -2.0074 0.9764
-1.5821 5.9078 -2.1871 0.9744
-2.5520 5.4147 -2.1406 0.9749
-2.9900 5.1053 -2.1158 0.9752
-3.7564 4.3828 -2.0642 0.9758
-4.3626 3.5527 -2.0120 0.9764
-4.6025 3.1087 -1.9862 0.9767
-4.7996 2.6512 -1.9608 0.9770
-4.9540 2.1844 -1.9362 0.9773
-5.5350 1.3341 -2.0360 0.9761
-5.2859 -1.1289 -1.9329 0.9773
-5.1213 -1.5830 -1.9169 0.9775
-4.6914 -2.4338 -1.8900 0.9778
-4.1398 -3.1953 -1.8701 0.9780
-3.8233 -3.5384 -1.8629 0.9781
-3.1181 -4.1418 -1.8540 0.9782
-2.7334 -4.3996 -1.8523 0.9782
-2.3300 -4.6264 -1.8524 0.9782
-1.9097 -4.8211 -1.8544 0.9782
-1.0273 -5.1100 -1.8639 0.9781
-0.5693 -5.2022 -1.8715 0.9780
0.8441 -5.2591 -1.9048 0.9776
1.7945 -5.1066 -1.9356 0.9773
2.7255 -4.7970 -1.9730 0.9768
3.1762 -4.5827 -1.9939 0.9766
3.6126 -4.3288 -2.0163 0.9763
5.3169 -1.8750 -2.0161 0.9763
5.5339 -1.4109 -2.0423 0.9760
5.7099 -0.9230 -2.0684 0.9757
5.8418 -0.4147 -2.0943 0.9754
5.9620 0.6458 -2.1445 0.9748
5.9455 1.1884 -2.1682 0.9746
5.3413 3.3103 -2.2472 0.9737
3.4116 4.4100 -1.9939 0.9766
3.0086 4.7037 -1.9967 0.9766
2.5678 4.9364 -1.9898 0.9766
2.0938 5.0897 -1.9681 0.9769
1.6262 5.2403 -1.9621 0.9770
0.6802 5.5423 -1.9968 0.9766
0.0902 2.7541 -0.9854 0.9884
-0.8878 6.0362 -2.1818 0.9744
-2.4170 5.4980 -2.1477 0.9748
-3.2781 4.8647 -2.0978 0.9754
-4.5365 3.2407 -1.9937 0.9766
-5.5173 1.4841 -2.0432 0.9760
-5.5642 0.4685 -1.9968 0.9766
-5.4452 -0.5176 -1.9560 0.9770
-5.3275 -0.9923 -1.9379 0.9772
-5.1732 -1.4515 -1.9214 0.9774
-4.5097 -2.7137 -1.8822 0.9779
-4.2278 -3.0896 -1.8726 0.9780
-3.2272 -4.0605 -1.8548 0.9782
-2.8484 -4.3271 -1.8526 0.9782
-2.4503 -4.5631 -1.8522 0.9782
-1.1599 -5.0762 -1.8621 0.9781
-0.7047 -5.1788 -1.8691 0.9780
-0.2408 -5.2456 -1.8778 0.9779
1.6556 -5.1387 -1.9307 0.9773
2.5910 -4.8523 -1.9671 0.9769
3.0452 -4.6497 -1.9876 0.9767
4.3145 -3.8056 -2.0573 0.9759
5.0469 -3.0530 -2.1093 0.9753
5.3523 -2.6163 -2.1305 0.9750
2.3720 -0.9071 -0.9082 0.9893
5.4742 -1.5498 -2.0346 0.9761
5.6626 -1.0685 -2.0607 0.9758
5.9068 -0.0457 -2.1124 0.9752
5.9569 0.4875 -2.1373 0.9749
5.9018 1.5727 -2.1842 0.9744
5.4150 3.1624 -2.2425 0.9737
5.1457 3.6577 -2.2577 0.9735
4.8256 4.1255 -2.2703 0.9734
3.5238 4.3161 -1.9926 0.9766
2.7093 4.8904 -1.9993 0.9765
1.7633 5.1962 -1.9623 0.9770
0.8470 3.4952 -1.2861 0.9848
0.8217 5.4973 -1.9877 0.9767
0.1662 2.8134 -1.0079 0.9881
-0.7202 5.9837 -2.1553 0.9747
-1.2773 6.0171 -2.1997 0.9742
-1.6800 5.4591 -2.0426 0.9760
-3.1605 4.9668 -2.1053 0.9753
-3.8950 4.2191 -2.0534 0.9759
-4.2019 3.8055 -2.0273 0.9762
-4.4668 3.3714 -2.0013 0.9765
-5.0054 1.9899 -1.9262 0.9774
-5.4925 1.6331 -2.0491 0.9760
-5.5535 1.1236 -2.0262 0.9762
-5.5680 0.6163 -2.0033 0.9765
-4.3135 -2.9818 -1.8752 0.9780
-3.6853 -3.6721 -1.8605 0.9781
-2.1584 -4.7107 -1.8530 0.9782
-0.8394 -5.1524 -1.8668 0.9781
-0.3778 -5.2298 -1.8751 0.9780
0.5647 -5.2745 -1.8970 0.9777
1.0407 -5.2403 -1.9106 0.9776
1.9890 -5.0557 -1.9428 0.9772
2.4555 -4.9043 -1.9614 0.9770
4.1981 -3.9036 -2.0500 0.9759
4.9465 -3.1726 -2.1015 0.9753
5.6117 -1.2122 -2.0531 0.9759
5.8312 1.9554 -2.1994 0.9742
5.6847 2.4907 -2.2195 0.9740
4.9247 3.9914 -2.2669 0.9734
4.4505 4.3197 -2.2179 0.9740
3.2491 4.5362 -1.9954 0.9766
2.8336 4.8124 -1.9971 0.9766
0.9619 5.4527 -1.9800 0.9768
-0.0108 2.5989 -0.9294 0.9890
-0.5565 5.9325 -2.1308 0.9750
-2.0892 5.5220 -2.1113 0.9752
-2.6059 5.3799 -2.1377 0.9749
-3.4377 4.7165 -2.0871 0.9755
-2.7279 1.4692 -1.1080 0.9869
-5.4616 1.7812 -2.0543 0.9759
-5.5411 1.2733 -2.0332 0.9761
-5.5528 0.2618 -1.9879 0.9767
-5.0993 -1.6359 -1.9151 0.9775
-4.8966 -2.0692 -1.9010 0.9777
-3.7839 -3.5774 -1.8622 0.9781
-3.4399 -3.8901 -1.8570 0.9782
-1.8587 -4.8421 -1.8548 0.9782
-1.4221 -4.9996 -1.8588 0.9782
-0.9732 -5.1229 -1.8647 0.9781
-5.1174 1.5811 -2.0526 0.9773
-5.2146 0.6335 -2.0130 0.9777
-5.1412 -0.2979 -1.9735 0.9782
-5.0484 -0.7489 -1.9558 0.9784
-4.7585 -1.6089 -1.9249 0.9787
-4.5647 -2.0135 -1.9119 0.9789
-4.0881 -2.7621 -1.8907 0.9791
-3.8089 -3.1027 -1.8826 0.9792
-3.5049 -3.4188 -1.8763 0.9792
-2.8298 -3.9717 -1.8688 0.9793
-2.4625 -4.2060 -1.8677 0.9793
-2.0780 -4.4105 -1.8684 0.9793
-1.6781 -4.5843 -1.8708 0.9793
0.0328 -4.9522 -1.8978 0.9790
0.4775 -4.9581 -1.9088 0.9789
0.9243 -4.9282 -1.9215 0.9788
1.8139 -4.7586 -1.9516 0.9784
2.2512 -4.6183 -1.9689 0.9782
3.0965 -4.2262 -2.0078 0.9778
4.5800 -3.0068 -2.0996 0.9768
2.3402 -0.9954 -0.9746 0.9892
5.0147 -1.6217 -2.0197 0.9777
5.5147 0.2470 -2.1154 0.9766
5.5289 0.7462 -2.1380 0.9764
5.4116 1.7509 -2.1797 0.9759
5.0956 2.7290 -2.2151 0.9755
4.8639 3.1941 -2.2299 0.9754
4.2614 4.0489 -2.2526 0.9751
3.8960 4.4280 -2.2602 0.9751
3.2044 4.3748 -2.0781 0.9770
2.4244 4.9755 -2.1210 0.9766
1.9537 5.1277 -2.1028 0.9768
1.0288 3.6512 -1.4537 0.9839
1.0172 5.4278 -2.1162 0.9766
0.0170 2.6192 -1.0037 0.9888
-0.4770 5.7412 -2.2077 0.9756
-0.9797 5.6303 -2.1901 0.9758
-1.9292 5.2679 -2.1499 0.9763
-2.3673 5.0227 -2.1279 0.9765
-2.7759 4.7397 -2.1049 0.9767
-3.4935 4.0761 -2.0573 0.9773
-3.7981 3.7038 -2.0330 0.9775
-2.7630 1.5262 -1.2096 0.9866
-5.2063 0.3010 -1.9985 0.9779
-5.1615 -0.1634 -1.9790 0.9781
-4.8094 -1.4866 -1.9291 0.9787
-4.6248 -1.8966 -1.9155 0.9788
-4.1651 -2.6576 -1.8934 0.9791
-3.8935 -3.0052 -1.8848 0.9792
-3.2762 -3.6265 -1.8729 0.9793
-2.1926 -4.3536 -1.8680 0.9793
-1.3876 -4.6880 -1.8736 0.9793
-0.9663 -4.8069 -1.8790 0.9792
-0.5354 -4.8925 -1.8861 0.9791
0.7930 -4.9407 -1.9176 0.9788
1.2398 -4.8851 -1.9314 0.9786
1.6842 -4.7928 -1.9468 0.9785
2.1236 -4.6634 -1.9637 0.9783
2.9755 -4.2931 -2.0017 0.9779
4.4839 -3.1151 -2.0923 0.9769
4.7978 -2.7330 -2.1160 0.9766
4.7201 -2.1557 -1.9885 0.9780
5.4275 -0.3853 -2.0851 0.9770
5.5016 0.1019 -2.1087 0.9767
5.4412 1.6040 -2.1739 0.9760
4.0074 4.3205 -2.2583 0.9751
1.6241 5.2337 -2.1000 0.9768
0.6794 5.5352 -2.1371 0.9764
-0.3268 5.7644 -2.2126 0.9756
-0.8336 5.6679 -2.1954 0.9758
-2.2415 5.0988 -2.1344 0.9764
-3.3970 4.1808 -2.0644 0.9772
-3.7126 3.8155 -2.0401 0.9775
-3.9903 3.4276 -2.0158 0.9777
-4.2291 3.0211 -1.9917 0.9780
-4.4284 2.6002 -1.9680 0.9782
-2.8300 1.3376 -1.1995 0.9867
-4.7081 1.7301 -1.9222 0.9787
-5.1554 1.3867 -2.0459 0.9774
-5.2065 0.9119 -2.0256 0.9776
-4.9997 -0.9313 -1.9489 0.9785
-4.8575 -1.3629 -1.9334 0.9786
-4.2397 -2.5512 -1.8962 0.9790
-3.9760 -2.9056 -1.8872 0.9791
-3.3726 -3.5417 -1.8742 0.9793
-3.0367 -3.8207 -1.8703 0.9793
-1.5091 -4.6468 -1.8723 0.9793
-1.0911 -4.7754 -1.8772 0.9792
1.1087 -4.9052 -1.9272 0.9787
1.5541 -4.8237 -1.9421 0.9785
1.9952 -4.7052 -1.9585 0.9783
3.2643 -4.1269 -2.0164 0.9777
3.6588 -3.8604 -2.0383 0.9775
4.3855 -3.2206 -2.0851 0.9770
4.9892 -2.4388 -2.1281 0.9765
2.3753 -0.9084 -0.9746 0.9892
5.0963 -1.4428 -2.0297 0.9776
5.4845 -0.0424 -2.1018 0.9768
5.5263 0.4522 -2.1249 0.9765
5.4666 1.4567 -2.1680 0.9761
5.0058 2.9234 -2.2215 0.9755
4.4567 3.8102 -2.2470 0.9752
2.2292 5.0387 -2.1115 0.9767
1.7611 5.1897 -2.1002 0.9768
0.8207 5.4903 -2.1274 0.9765
-0.6862 5.7014 -2.2007 0.9757
-1.6596 5.3928 -2.1623 0.9761
-2.1133 5.1716 -2.1409 0.9764
-2.5397 4.9103 -2.1185 0.9766
-2.9353 4.6128 -2.0953 0.9769
-3.2974 4.2831 -2.0714 0.9771
-3.9127 3.5436 -2.0230 0.9776
-4.1631 3.1422 -1.9988 0.9779
-4.3740 2.7251 -1.9749 0.9782
-4.6770 1.8594 -1.9287 0.9787
-5.1973 1.0515 -2.0321 0.9775
-5.2146 0.5772 -2.0105 0.9778
-5.1321 -0.3522 -1.9713 0.9782
-5.0350 -0.8018 -1.9538 0.9784
-4.9028 -1.2378 -1.9378 0.9786
-4.7370 -1.6580 -1.9233 0.9787
-4.5395 -2.0604 -1.9104 0.9789
-4.0562 -2.8039 -1.8896 0.9791
-3.4671 -3.4547 -1.8757 0.9793
-2.0311 -4.4329 -1.8686 0.9793
-1.2150 -4.7410 -1.8756 0.9793
-0.7895 -4.8463 -1.8817 0.9792
0.0856 -4.9548 -1.8990 0.9790
0.5307 -4.9564 -1.9103 0.9789
1.8663 -4.7439 -1.9536 0.9784
2.7300 -4.4172 -1.9900 0.9780
4.2848 -3.3232 -2.0780 0.9770
4.6182 -2.9620 -2.1025 0.9768
4.9118 -2.5628 -2.1231 0.9765
5.0389 -1.5705 -2.0226 0.9776
5.3634 -0.6650 -2.0711 0.9771
5.4635 -0.1857 -2.0949 0.9769
5.5189 0.3061 -2.1182 0.9766
5.5274 0.8059 -2.1406 0.9764
5.4876 1.3091 -2.1620 0.9761
5.2592 2.3043 -2.2004 0.9757
5.0705 2.7854 -2.2170 0.9755
4.5488 3.6867 -2.2438 0.9752
4.2200 4.0960 -2.2537 0.9751
3.8043 4.4178 -2.2342 0.9753
3.1469 4.3936 -2.0710 0.9771
0.9837 3.6391 -1.4446 0.9840
0.9607 5.4457 -2.1191 0.9766
-0.0108 2.5977 -0.9955 0.9889
-0.5376 5.7306 -2.2057 0.9756
-1.0385 5.6139 -2.1878 0.9758
-3.5317 4.0330 -2.0544 0.9773
-3.8318 3.6579 -2.0301 0.9776
-2.7315 1.4711 -1.1889 0.9868
-4.6424 1.9882 -1.9353 0.9786
-4.7463 1.5479 -1.9131 0.9788
-5.1845 1.1914 -2.0386 0.9775
-5.2029 0.2453 -1.9961 0.9779
-4.7891 -1.5364 -1.9274 0.9787
-4.6007 -1.9442 -1.9140 0.9788
-4.1341 -2.7002 -1.8923 0.9791
-3.8595 -3.0450 -1.8839 0.9792
-3.5597 -3.3654 -1.8773 0.9792
-3.2365 -3.6602 -1.8724 0.9793
-2.8920 -3.9278 -1.8692 0.9793
-1.7489 -4.5562 -1.8703 0.9793
-0.9155 -4.8189 -1.8797 0.9792
-4.3712 1.7919 -1.9335 0.9798
-4.4653 1.3796 -1.9128 0.9800
-4.8721 1.0398 -2.0389 0.9787
-1.9457 -0.1127 -0.7976 0.9916
-1.9464 -0.2887 -0.8053 0.9915
-4.4814 -1.5152 -1.9361 0.9798
-4.3006 -1.8970 -1.9237 0.9799
-3.5917 -2.9258 -1.8960 0.9802
-2.6696 -3.7468 -1.8829 0.9803
-2.3232 -3.9679 -1.8818 0.9803
-1.1932 -4.4579 -1.8887 0.9803
-0.3840 -4.6303 -1.9016 0.9801
0.0310 -4.6677 -1.9104 0.9800
1.2904 -4.5772 -1.9464 0.9797
3.2842 -3.7316 -2.0345 0.9787
3.6416 -3.4591 -2.0557 0.9785
3.9782 -3.1538 -2.0778 0.9783
4.5654 -2.4442 -2.1194 0.9779
2.3370 -0.9940 -1.0394 0.9891
4.8576 -1.1036 -2.0388 0.9787
5.0856 -0.2271 -2.0835 0.9782
5.1128 1.1623 -2.1459 0.9776
4.9052 2.0872 -2.1818 0.9772
4.7327 2.5346 -2.1973 0.9771
3.6052 4.0975 -2.2337 0.9767
3.2001 4.3689 -2.2164 0.9769
2.4024 4.9304 -2.2447 0.9766
1.9500 5.1180 -2.2416 0.9766
0.5187 5.3932 -2.2175 0.9769
-2.5874 4.4179 -2.0954 0.9781
-2.9404 4.1256 -2.0735 0.9783
-4.0159 2.7125 -1.9834 0.9793
-2.9171 1.2862 -1.3048 0.9863
-4.8534 1.1698 -2.0433 0.9787
-1.9453 0.2883 -0.8049 0.9915
-1.9539 -0.2376 -0.8056 0.9915
-4.6699 -0.9973 -1.9544 0.9796
-4.3568 -1.7867 -1.9272 0.9799
-4.1554 -2.1557 -1.9159 0.9800
-3.9263 -2.5053 -1.9062 0.9801
-0.9113 -4.5333 -1.8925 0.9802
-0.5048 -4.6130 -1.8993 0.9801
-0.0914 -4.6602 -1.9077 0.9801
0.3266 -4.6740 -1.9176 0.9800
0.7470 -4.6541 -1.9292 0.9798
1.9976 -4.3867 -1.9728 0.9794
2.4021 -4.2277 -1.9901 0.9792
3.1757 -3.8052 -2.0285 0.9788
3.5387 -3.5426 -2.0493 0.9786
4.2016 -2.9190 -2.0939 0.9781
4.6304 -1.6329 -2.0095 0.9790
4.9560 -0.8011 -2.0547 0.9785
5.0622 -0.3594 -2.0770 0.9783
5.1274 0.0949 -2.0989 0.9781
5.1278 1.0250 -2.1402 0.9777
5.0605 1.4918 -2.1593 0.9775
4.9472 1.9534 -2.1769 0.9773
4.3357 3.2566 -2.2193 0.9768
4.0459 3.6470 -2.2293 0.9767
3.3125 4.2820 -2.2157 0.9769
2.0848 5.0677 -2.2427 0.9766
1.1441 5.3284 -2.2305 0.9767
0.6610 5.3857 -2.2208 0.9768
-0.3036 5.3544 -2.1949 0.9771
-1.2319 5.1361 -2.1617 0.9774
-2.0873 4.7481 -2.1228 0.9778
-2.8399 4.2146 -2.0800 0.9783
-4.8314 1.2996 -2.0477 0.9786
-1.9572 0.1648 -0.8039 0.9915
-1.9579 -0.1861 -0.8049 0.9915
-2.1939 -0.4087 -0.9134 0.9904
-4.5735 -1.2832 -1.9441 0.9797
-4.4104 -1.6749 -1.9308 0.9798
-3.1811 -3.3406 -1.8880 0.9803
-2.5287 -3.8414 -1.8823 0.9803
-1.8063 -4.2320 -1.8832 0.9803
-1.0291 -4.5039 -1.8908 0.9802
-0.6250 -4.5930 -1.8971 0.9802
0.2035 -4.6735 -1.9145 0.9800
1.0441 -4.6193 -1.9383 0.9797
1.4628 -4.5405 -1.9524 0.9796
2.2843 -4.2780 -1.9849 0.9793
2.6815 -4.0943 -2.0031 0.9791
3.0657 -3.8759 -2.0225 0.9789
3.4340 -3.6232 -2.0431 0.9787
3.7833 -3.3371 -2.0647 0.9784
4.1103 -3.0185 -2.0871 0.9782
2.3787 -0.9097 -1.0423 0.9891
4.9174 -0.9279 -2.0481 0.9786
5.0351 -0.4905 -2.0705 0.9784
5.1126 -0.0395 -2.0925 0.9781
5.1478 0.4213 -2.1139 0.9779
5.1390 0.8876 -2.1344 0.9777
5.0850 1.3550 -2.1538 0.9775
4.9853 1.8187 -2.1719 0.9773
4.4130 3.1369 -2.2159 0.9769
3.4218 4.1912 -2.2144 0.9769
3.0027 4.4336 -2.1916 0.9771
2.6272 4.7421 -2.2188 0.9768
2.2181 5.0134 -2.2437 0.9766
1.7583 5.1817 -2.2395 0.9766
0.8656 3.5719 -1.5042 0.9842
0.8033 5.3739 -2.2239 0.9768
-1.5441 5.0173 -2.1485 0.9776
-2.3662 4.5749 -2.1080 0.9780
-3.0768 3.9966 -2.0643 0.9784
-3.3840 3.6656 -2.0418 0.9787
-3.6567 3.3117 -2.0192 0.9789
-3.8937 2.9389 -1.9966 0.9791
-4.4741 1.3303 -1.9104 0.9800
-4.8787 0.9871 -2.0372 0.9787
-2.0312 -0.3234 -0.8418 0.9911
-4.6155 -1.1653 -1.9483 0.9796
-4.2771 -1.9412 -1.9224 0.9799
-4.0641 -2.3025 -1.9117 0.9800
-3.8241 -2.6435 -1.9027 0.9801
-2.6292 -3.7746 -1.8827 0.9803
-2.2808 -3.9924 -1.8818 0.9803
-1.9161 -4.1819 -1.8827 0.9803
-1.5372 -4.3420 -1.8851 0.9803
-0.3349 -4.6365 -1.9025 0.9801
0.0807 -4.6700 -1.9116 0.9800
1.7561 -4.4638 -1.9632 0.9795
2.9544 -3.9436 -2.0167 0.9789
3.3277 -3.7009 -2.0370 0.9787
4.0167 -3.1153 -2.0804 0.9783
4.5953 -2.3977 -2.1214 0.9778
5.0047 -0.6206 -2.0640 0.9784
5.0942 -0.1732 -2.0861 0.9782
5.1462 0.7504 -2.1285 0.9778
5.1056 1.2179 -2.1482 0.9776
5.0193 1.6832 -2.1667 0.9774
4.7092 2.5869 -2.1990 0.9770
3.1427 4.3877 -2.2089 0.9769
0.9452 5.3580 -2.2267 0.9768
0.4610 5.3951 -2.2161 0.9769
-0.0108 2.6116 -1.0689 0.9888
-2.2519 4.6490 -2.1142 0.9779
-2.6310 4.3847 -2.0928 0.9781
-2.9803 4.0889 -2.0708 0.9784
-3.8279 3.0501 -2.0032 0.9791
-4.0391 2.6661 -1.9808 0.9793
-2.6821 1.4445 -1.2468 0.9869
-4.3510 1.8634 -1.9372 0.9798
-4.8614 1.1171 -2.0415 0.9787
-4.6548 -1.0460 -1.9526 0.9796
-4.5099 -1.4468 -1.9384 0.9797
-4.3343 -1.8316 -1.9258 0.9799
-4.1295 -2.1984 -1.9147 0.9800
-3.8973 -2.5455 -1.9052 0.9801
-3.6393 -2.8712 -1.8972 0.9802
-2.3849 -3.9313 -1.8819 0.9803
-1.2620 -4.4368 -1.8879 0.9803
-0.8634 -4.5445 -1.8932 0.9802
-1.5780 0.4875 -0.7198 0.9928
-1.5181 0.3240 -0.6765 0.9932
-1.5279 0.0481 -0.6662 0.9934
-1.5296 -0.0886 -0.6677 0.9933
-1.5390 -0.3712 -0.6900 0.9931
-1.5893 -0.5374 -0.7312 0.9927
-4.0613 -1.7914 -1.9345 0.9808
-3.8645 -2.1354 -1.9242 0.9809
-3.6417 -2.4605 -1.9154 0.9810
-3.3946 -2.7652 -1.9081 0.9811
-2.5240 -3.5425 -1.8957 0.9812
-1.8535 -3.9340 -1.8953 0.9812
-0.3629 -4.3754 -1.9134 0.9810
0.0292 -4.4097 -1.9218 0.9809
0.8219 -4.3822 -1.9432 0.9807
1.2178 -4.3197 -1.9560 0.9806
1.9964 -4.0955 -1.9857 0.9803
3.0915 -3.5127 -2.0393 0.9798
3.4259 -3.2542 -2.0593 0.9796
3.7402 -2.9651 -2.0801 0.9794
4.2845 -2.2938 -2.1180 0.9790
2.3337 -0.9926 -1.1052 0.9890
4.3946 -1.4212 -2.0129 0.9800
4.6733 -0.6300 -2.0551 0.9796
4.7584 -0.2125 -2.0759 0.9794
4.8046 0.2152 -2.0960 0.9792
4.8104 0.6492 -2.1155 0.9790
4.5757 1.9470 -2.1672 0.9785
4.4127 2.3632 -2.1816 0.9784
3.6820 3.4984 -2.2135 0.9781
3.3647 3.8242 -2.2199 0.9780
2.6382 4.3733 -2.2259 0.9780
2.2367 4.5902 -2.2254 0.9780
1.8157 4.7654 -2.2225 0.9780
1.3798 4.8969 -2.2173 0.9780
0.9340 4.9838 -2.2098 0.9781
0.4833 5.0254 -2.2003 0.9782
-1.6773 4.5800 -2.1257 0.9789
-2.4200 4.1321 -2.0870 0.9793
-2.7520 3.8614 -2.0665 0.9795
-3.3258 3.2432 -2.0245 0.9799
-3.5643 2.9026 -2.0033 0.9801
-3.7691 2.5459 -1.9823 0.9803
-2.8408 1.2526 -1.3531 0.9865
-1.5279 -0.0484 -0.6662 0.9934
-1.5780 -0.4878 -0.7198 0.9928
-4.1139 -1.6871 -1.9378 0.9808
-3.7097 -2.3671 -1.9178 0.9810
-3.4696 -2.6779 -1.9101 0.9811
-2.6169 -3.4761 -1.8963 0.9812
-2.2944 -3.6930 -1.8948 0.9812
-1.9557 -3.8833 -1.8949 0.9812
-1.6027 -4.0460 -1.8966 0.9812
-0.4771 -4.3594 -1.9112 0.9810
0.3085 -4.4147 -1.9287 0.9809
0.7054 -4.3944 -1.9397 0.9808
2.2641 -3.9848 -1.9974 0.9802
2.9899 -3.5826 -2.0337 0.9798
3.3297 -3.3333 -2.0533 0.9797
3.9483 -2.7430 -2.0953 0.9792
4.1443 -1.8927 -1.9856 0.9803
4.6412 -0.7502 -2.0490 0.9797
4.8130 0.5213 -2.1098 0.9791
4.7895 0.9573 -2.1286 0.9789
4.7238 1.3925 -2.1463 0.9787
3.4613 3.7318 -2.2183 0.9780
3.1212 4.0346 -2.2231 0.9780
2.3568 4.5308 -2.2258 0.9780
1.9411 4.7184 -2.2236 0.9780
1.0657 4.9630 -2.2122 0.9781
-0.7228 4.9142 -2.1647 0.9786
-1.1499 4.7940 -2.1486 0.9787
-1.5604 4.6341 -2.1311 0.9789
-2.3173 4.2060 -2.0928 0.9793
-2.6575 3.9438 -2.0726 0.9795
-2.9689 3.6538 -2.0518 0.9797
-3.2494 3.3395 -2.0307 0.9799
-3.7125 2.6521 -1.9884 0.9803
-2.6989 1.2757 -1.3010 0.9871
-1.5973 0.5869 -0.7416 0.9926
-1.5284 0.1287 -0.6684 0.9933
-1.5234 -0.0082 -0.6639 0.9934
-1.5270 -0.1452 -0.6685 0.9933
-4.1641 -1.5813 -1.9412 0.9808
-3.2859 -2.8847 -1.9056 0.9811
-2.7083 -3.4075 -1.8970 0.9812
-2.3909 -3.6320 -1.8951 0.9812
-1.7077 -4.0012 -1.8960 0.9812
-1.3458 -4.1438 -1.8988 0.9812
-0.5907 -4.3407 -1.9092 0.9811
-0.2016 -4.3934 -1.9167 0.9810
3.2318 -3.4098 -2.0475 0.9797
3.8633 -2.8371 -2.0889 0.9793
4.0806 -1.9946 -1.9795 0.9804
4.4634 -1.2636 -2.0217 0.9800
4.6060 -0.8691 -2.0428 0.9798
4.8120 0.3938 -2.1042 0.9792
4.8007 0.8292 -2.1232 0.9790
4.6518 1.6970 -2.1580 0.9786
4.5135 2.1204 -2.1733 0.9785
4.3333 2.5307 -2.1870 0.9783
3.5551 3.6366 -2.2164 0.9781
3.2243 3.9492 -2.2219 0.9780
2.8630 4.2274 -2.2251 0.9780
2.0651 4.6677 -2.2245 0.9780
1.6373 4.8250 -2.2206 0.9780
-0.0787 2.5888 -1.1288 0.9888
-0.5948 4.9417 -2.1692 0.9785
-1.4418 4.6851 -2.1363 0.9788
-2.8805 3.7416 -2.0579 0.9796
-3.1703 3.4341 -2.0369 0.9798
-3.4282 3.1048 -2.0157 0.9800
-2.6745 1.3511 -1.3059 0.9870
-1.5725 0.4676 -0.7150 0.9929
-1.5090 0.3053 -0.6710 0.9933
-1.5264 0.0318 -0.6654 0.9934
-1.5294 -0.1050 -0.6681 0.9933
-1.5094 -0.2404 -0.6661 0.9934
-1.5467 -0.3905 -0.6952 0.9931
-1.5930 -0.5576 -0.7355 0.9927
-4.0392 -1.8333 -1.9332 0.9808
-3.6135 -2.4979 -1.9145 0.9810
-3.3636 -2.8000 -1.9074 0.9811
-3.0912 -3.0802 -1.9018 0.9811
-2.7981 -3.3368 -1.8979 0.9812
-2.1565 -3.7748 -1.8947 0.9812
-1.4533 -4.1049 -1.8978 0.9812
-1.0833 -4.2271 -1.9018 0.9811
1.2647 -4.3100 -1.9576 0.9806
2.0418 -4.0780 -1.9876 0.9803
2.4181 -3.9125 -2.0045 0.9801
2.7825 -3.7141 -2.0225 0.9800
3.1323 -3.4835 -2.0417 0.9798
3.4645 -3.2214 -2.0617 0.9796
4.5677 -0.9867 -2.0366 0.9798
4.7660 -0.1620 -2.0783 0.9794
4.8075 0.2666 -2.0984 0.9792
4.8084 0.7011 -2.1177 0.9790
4.6843 1.5708 -2.1532 0.9787
4.5585 1.9972 -2.1690 0.9785
4.3905 2.4118 -2.1832 0.9784
3.6459 3.5388 -2.2144 0.9781
3.3248 3.8608 -2.2205 0.9780
2.9720 4.1495 -2.2244 0.9780
2.1875 4.6133 -2.2251 0.9780
0.9824 3.6344 -1.6408 0.9837
0.4296 5.0273 -2.1990 0.9782
-1.3215 4.7327 -2.1415 0.9788
-2.4610 4.1014 -2.0846 0.9793
-3.5905 2.8610 -2.0008 0.9802
-3.7913 2.5025 -1.9798 0.9804
-2.6499 1.4272 -1.3117 0.9870
-4.0895 1.7514 -1.9388 0.9808
-1.5290 -0.0647 -0.6669 0.9933
-1.5187 -0.2011 -0.6677 0.9933
-1.5270 -0.3431 -0.6821 0.9932
-1.5830 -0.5078 -0.7245 0.9928
-4.0928 -1.7296 -1.9365 0.9808
-3.4394 -2.7135 -1.9093 0.9811
-3.1734 -3.0003 -1.9033 0.9811
-2.8862 -3.2640 -1.8989 0.9812
-2.5794 -3.5033 -1.8960 0.9812
-1.9144 -3.9041 -1.8950 0.9812
-1.5598 -4.0635 -1.8969 0.9812
-0.8160 -4.2954 -1.9055 0.9811
-1.3278 0.4102 -0.6433 0.9939
-1.3030 0.2781 -0.6167 0.9941
-1.3325 0.1619 -0.6213 0.9941
-1.3373 0.0421 -0.6193 0.9941
-1.3061 -0.3150 -0.6219 0.9941
-1.3197 -0.5821 -0.6677 0.9937
-3.6580 -2.0213 -1.9345 0.9817
-3.4479 -2.3296 -1.9261 0.9818
-3.2146 -2.6186 -1.9192 0.9819
-2.9596 -2.8869 -1.9138 0.9819
-2.3910 -3.3558 -1.9073 0.9820
-2.0809 -3.5541 -1.9064 0.9820
-1.4177 -3.8729 -1.9090 0.9820
-1.0683 -3.9914 -1.9126 0.9820
-0.7096 -4.0817 -1.9177 0.9819
0.7776 -4.1459 -1.9525 0.9816
2.2421 -3.7156 -2.0088 0.9811
2.5865 -3.5302 -2.0258 0.9809
2.9170 -3.3144 -2.0437 0.9807
3.5251 -2.7946 -2.0822 0.9804
3.7971 -2.4928 -2.1025 0.9802
4.1317 -1.3362 -2.0100 0.9810
4.4654 -0.1994 -2.0690 0.9805
4.5060 0.2018 -2.0879 0.9803
4.3974 1.4228 -2.1394 0.9798
4.1280 2.2108 -2.1676 0.9796
3.9353 2.5843 -2.1793 0.9795
3.4411 3.2696 -2.1972 0.9793
3.1441 3.5734 -2.2032 0.9792
2.8175 3.8465 -2.2070 0.9792
2.0897 4.2885 -2.2082 0.9792
1.0559 3.7475 -1.8022 0.9830
-0.7954 4.5710 -2.1476 0.9798
-2.5833 3.6246 -2.0603 0.9806
-3.5469 2.3957 -1.9812 0.9813
-2.6315 1.4536 -1.3916 0.9868
-1.3198 0.5819 -0.6677 0.9937
-1.3332 0.4506 -0.6514 0.9938
-1.3261 0.1965 -0.6205 0.9941
-1.3325 -0.1620 -0.6213 0.9941
-1.3030 -0.2783 -0.6167 0.9941
-3.7150 -1.9273 -1.9372 0.9817
-3.5121 -2.2410 -1.9284 0.9818
-3.2854 -2.5358 -1.9211 0.9819
-2.4790 -3.2929 -1.9079 0.9820
-1.8527 -3.6788 -1.9066 0.9820
-0.4517 -4.1279 -1.9222 0.9819
0.2920 -4.1783 -1.9388 0.9817
1.0421 -4.1063 -1.9610 0.9815
1.4139 -4.0236 -1.9741 0.9814
1.7803 -3.9095 -1.9885 0.9812
2.1387 -3.7642 -2.0040 0.9811
3.4408 -2.8780 -2.0764 0.9804
3.7197 -2.5842 -2.0965 0.9802
3.9656 -2.2590 -2.1126 0.9801
3.8996 -1.7809 -1.9844 0.9813
4.0833 -1.4400 -2.0042 0.9811
4.3589 -0.7046 -2.0439 0.9807
4.5120 0.4887 -2.1008 0.9802
4.4875 0.8970 -2.1183 0.9800
4.4237 1.3040 -2.1348 0.9799
4.1774 2.0980 -2.1638 0.9796
3.7769 2.8368 -2.1865 0.9794
3.2345 3.4872 -2.2016 0.9793
2.9163 3.7697 -2.2061 0.9792
1.8136 4.4085 -2.2066 0.9792
0.9960 4.6386 -2.1961 0.9793
0.5758 4.6911 -2.1877 0.9794
0.0950 2.8990 -1.3426 0.9873
-0.6765 4.5995 -2.1519 0.9797
-1.0768 4.4891 -2.1369 0.9799
-1.4619 4.3417 -2.1206 0.9800
-1.8285 4.1594 -2.1032 0.9802
-2.7880 3.4313 -2.0465 0.9807
-3.2888 2.8250 -2.0068 0.9811
-3.4930 2.4953 -1.9870 0.9813
-2.6905 1.2717 -1.3775 0.9870
-1.3328 0.4898 -0.6573 0.9938
-1.3178 0.2308 -0.6193 0.9941
-1.3379 0.1126 -0.6215 0.9941
-1.3342 -0.0072 -0.6176 0.9941
-1.3369 -0.1271 -0.6216 0.9941
-1.3203 -0.3704 -0.6347 0.9940
-3.1119 -2.7319 -1.9168 0.9819
-2.8484 -2.9912 -1.9119 0.9820
-2.2649 -3.4407 -1.9067 0.9820
-1.6178 -3.7903 -1.9076 0.9820
-0.1909 -4.1595 -1.9274 0.9818
0.1820 -4.1785 -1.9360 0.9817
0.5571 -4.1670 -1.9460 0.9816
0.9323 -4.1247 -1.9574 0.9815
1.3052 -4.0511 -1.9701 0.9814
1.6734 -3.9463 -1.9841 0.9813
2.0344 -3.8101 -1.9993 0.9811
2.3858 -3.6428 -2.0157 0.9810
3.0486 -3.2166 -2.0514 0.9807
3.6402 -2.6733 -2.0905 0.9803
3.8402 -1.8772 -1.9786 0.9813
4.1952 -1.1877 -2.0182 0.9810
4.3266 -0.8164 -2.0381 0.9808
4.4244 -0.4310 -2.0577 0.9806
4.4465 1.1849 -2.1300 0.9799
4.3547 1.5886 -2.1457 0.9798
3.8450 2.7331 -2.1836 0.9794
3.3223 3.3985 -2.1999 0.9793
3.0127 3.6900 -2.2050 0.9792
0.8837 3.6464 -1.7367 0.9836
0.6996 4.6800 -2.1904 0.9794
-0.0783 2.5753 -1.1926 0.9887
-0.5566 4.6245 -2.1561 0.9797
-0.9606 4.5254 -2.1414 0.9798
-1.3506 4.3887 -2.1255 0.9800
-1.7230 4.2164 -2.1084 0.9801
-2.4026 3.7757 -2.0716 0.9805
-2.9785 3.2264 -2.0325 0.9808
-3.2228 2.9188 -2.0127 0.9810
-2.6662 1.3469 -1.3827 0.9869
-1.3293 0.5285 -0.6622 0.9937
-1.3250 0.3940 -0.6399 0.9939
-1.3345 0.1477 -0.6215 0.9941
-1.3336 -0.4668 -0.6540 0.9938
-3.4213 -2.3650 -1.9252 0.9818
-3.1854 -2.6517 -1.9185 0.9819
-2.6505 -3.1608 -1.9094 0.9820
-1.3766 -3.8884 -1.9094 0.9820
-1.0261 -4.0037 -1.9131 0.9819
0.0721 -4.1760 -1.9333 0.9818
0.4469 -4.1736 -1.9429 0.9817
2.2838 -3.6952 -2.0107 0.9810
2.6266 -3.5061 -2.0278 0.9809
2.9553 -3.2867 -2.0459 0.9807
3.5587 -2.7600 -2.0846 0.9803
3.8265 -2.4542 -2.1042 0.9802
2.3301 -0.9620 -1.1669 0.9890
4.2914 -0.9270 -2.0323 0.9808
4.4721 -0.1520 -2.0713 0.9805
4.5067 0.6571 -2.1081 0.9801
4.4660 1.0654 -2.1252 0.9800
4.3858 1.4707 -2.1412 0.9798
3.9099 2.6276 -2.1806 0.9795
3.6760 2.9793 -2.1903 0.9794
3.1067 3.6076 -2.2038 0.9792
2.7768 3.8768 -2.2074 0.9792
2.4212 4.1119 -2.2088 0.9792
1.6487 4.4694 -2.2051 0.9792
1.0131 3.7479 -1.7971 0.9830
0.4016 4.7006 -2.1837 0.9794
-1.6157 4.2705 -2.1135 0.9801
-1.9737 4.0747 -2.0957 0.9802
-3.1543 3.0111 -2.0185 0.9810
-3.3769 2.6908 -1.9986 0.9811
-3.5680 2.3551 -1.9789 0.9813
-1.3313 0.4342 -0.6482 0.9938
-1.3289 0.1825 -0.6209 0.9941
-1.3380 -0.0566 -0.6199 0.9941
-1.2989 -0.2919 -0.6162 0.9941
-1.3245 -0.5597 -0.6656 0.9937
-3.6921 -1.9656 -1.9361 0.9817
-3.4863 -2.2771 -1.9275 0.9818
-3.2569 -2.5696 -1.9203 0.9819
-2.4435 -3.3187 -1.9076 0.9820
-2.1361 -3.5213 -1.9064 0.9820
-1.8136 -3.6985 -1.9067 0.9820
-1.1300 -3.9728 -1.9119 0.9820
-0.4080 -4.1343 -1.9230 0.9819
-1.1491 0.4711 -0.6092 0.9945
-1.1588 0.3580 -0.5949 0.9946
-1.1960 -0.0693 -0.5877 0.9947
-1.1858 -0.1759 -0.5880 0.9947
-1.1622 -0.2803 -0.5864 0.9947
-1.1575 -0.3914 -0.5994 0.9946
-1.1434 -0.5043 -0.6130 0.9944
-3.2703 -2.2096 -1.9360 0.9826
-3.0495 -2.4842 -1.9294 0.9826
-2.8080 -2.7390 -1.9242 0.9827
-2.2690 -3.1845 -1.9180 0.9827
-1.9747 -3.3728 -1.9171 0.9827
-1.6662 -3.5366 -1.9177 0.9827
-1.3453 -3.6750 -1.9197 0.9827
-0.6732 -3.8722 -1.9279 0.9826
-0.3259 -3.9296 -1.9342 0.9826
0.3813 -3.9587 -1.9508 0.9824
0.7370 -3.9295 -1.9611 0.9823
1.0912 -3.8708 -1.9727 0.9822
1.4417 -3.7823 -1.9855 0.9821
1.7861 -3.6642 -1.9995 0.9820
2.1219 -3.5164 -2.0146 0.9819
2.4467 -3.3394 -2.0307 0.9817
3.3295 -2.6395 -2.0842 0.9812
3.5410 -1.8958 -1.9702 0.9823
2.3269 -0.9897 -1.2404 0.9888
4.0279 -0.9151 -2.0261 0.9818
4.1309 -0.5569 -2.0446 0.9816
4.2012 -0.1876 -2.0628 0.9814
4.2017 0.9552 -2.1136 0.9810
4.1289 1.3359 -2.1287 0.9809
3.8729 2.0741 -2.1550 0.9806
3.2258 3.0649 -2.1827 0.9804
1.9583 4.0188 -2.1929 0.9803
1.5899 4.1728 -2.1904 0.9803
-0.3628 4.3671 -2.1496 0.9807
-1.4767 4.0324 -2.1064 0.9810
-1.8164 3.8540 -2.0899 0.9812
-2.1353 3.6459 -2.0726 0.9814
-2.4310 3.4110 -2.0546 0.9815
-2.7014 3.1519 -2.0363 0.9817
-3.3454 2.2597 -1.9803 0.9822
-1.1084 0.6123 -0.6211 0.9944
-1.1960 0.0691 -0.5877 0.9947
-1.1964 -0.0379 -0.5872 0.9947
-1.1706 -0.2500 -0.5872 0.9947
-1.1491 -0.4712 -0.6092 0.9945
-3.1166 -2.4055 -1.9312 0.9826
-2.3524 -3.1248 -1.9186 0.9827
-1.7582 -3.4911 -1.9174 0.9827
-0.7740 -3.8501 -1.9263 0.9827
-0.4285 -3.9157 -1.9322 0.9826
0.9875 -3.8911 -1.9692 0.9823
1.6857 -3.7019 -1.9953 0.9820
2.3526 -3.3944 -2.0259 0.9818
2.6682 -3.1971 -2.0426 0.9816
2.9683 -2.9716 -2.0603 0.9815
3.7406 -2.1308 -2.1116 0.9810
4.1040 -0.6634 -2.0392 0.9816
4.1840 -0.2970 -2.0575 0.9815
4.2413 0.4594 -2.0926 0.9812
4.2161 0.8427 -2.1090 0.9810
3.7480 2.3228 -2.1629 0.9805
3.3021 2.9765 -2.1807 0.9804
3.0317 3.2685 -2.1868 0.9803
2.7330 3.5328 -2.1910 0.9803
2.4091 3.7664 -2.1931 0.9803
1.6996 4.1315 -2.1914 0.9803
1.3217 4.2591 -2.1875 0.9803
0.9337 4.3483 -2.1816 0.9804
-0.2485 4.3824 -2.1531 0.9806
-0.6349 4.3171 -2.1404 0.9807
-1.0111 4.2153 -2.1264 0.9809
-1.3734 4.0788 -2.1111 0.9810
-1.7187 3.9095 -2.0948 0.9812
-2.0440 3.7099 -2.0777 0.9813
-2.6248 3.2303 -2.0417 0.9816
-2.8763 2.9560 -2.0231 0.9818
-3.2940 2.3532 -1.9857 0.9821
-1.1363 0.5371 -0.6165 0.9944
-1.1585 0.3116 -0.5885 0.9947
-1.1803 0.2067 -0.5878 0.9947
-1.1944 0.1006 -0.5880 0.9947
-1.1588 -0.3251 -0.5904 0.9947
-1.1535 -0.4381 -0.6053 0.9945
-1.1330 -0.5505 -0.6179 0.9944
-2.9523 -2.5918 -1.9270 0.9826
-2.7026 -2.8382 -1.9224 0.9827
-2.4345 -3.0630 -1.9192 0.9827
-2.1494 -3.2651 -1.9175 0.9827
-1.5352 -3.5968 -1.9183 0.9827
-0.8741 -3.8256 -1.9249 0.9827
0.1725 -3.9621 -1.9454 0.9825
2.5770 -3.2580 -2.0376 0.9817
2.8819 -3.0407 -2.0550 0.9815
3.1696 -2.7958 -2.0732 0.9813
3.4375 -2.5244 -2.0920 0.9812
3.6765 -2.2241 -2.1077 0.9810
2.3945 -0.9157 -1.2575 0.9886
4.1640 -0.4057 -2.0522 0.9815
4.2203 -0.0326 -2.0702 0.9814
3.9632 1.8619 -2.1479 0.9807
3.8020 2.2204 -2.1597 0.9806
3.1141 3.1855 -2.1852 0.9803
2.8235 3.4583 -2.1899 0.9803
1.8081 4.0869 -2.1921 0.9803
0.8936 3.6873 -1.8611 0.9832
0.6559 4.3879 -2.1763 0.9804
0.2605 4.4106 -2.1673 0.9805
-0.0778 2.5585 -1.2556 0.9887
-1.2686 4.1224 -2.1157 0.9810
-1.6192 3.9625 -2.0997 0.9811
-1.9507 3.7715 -2.0828 0.9813
-2.2603 3.5521 -2.0652 0.9814
-2.5458 3.3068 -2.0471 0.9816
-3.2400 2.4455 -1.9912 0.9821
-3.4133 2.1265 -1.9726 0.9822
-1.1279 0.5698 -0.6198 0.9944
-1.1511 0.4576 -0.6076 0.9945
-1.1590 0.3446 -0.5931 0.9946
-1.1736 0.2375 -0.5874 0.9947
-1.1917 0.1319 -0.5881 0.9947
-1.1837 -0.1885 -0.5880 0.9947
-1.1584 -0.2925 -0.5861 0.9947
-1.1566 -0.4048 -0.6011 0.9946
-3.4463 -1.9525 -1.9429 0.9825
-3.2451 -2.2432 -1.9351 0.9826
-1.9387 -3.3936 -1.9171 0.9827
-1.6286 -3.5544 -1.9178 0.9827
-1.3063 -3.6897 -1.9200 0.9827
-0.6322 -3.8805 -1.9286 0.9826
0.0684 -3.9601 -1.9428 0.9825
0.4236 -3.9567 -1.9520 0.9824
0.7793 -3.9241 -1.9624 0.9823
1.1332 -3.8618 -1.9742 0.9822
1.4831 -3.7698 -1.9871 0.9821
2.1612 -3.4969 -2.0165 0.9819
2.4846 -3.3164 -2.0327 0.9817
2.7941 -3.1074 -2.0498 0.9816
3.3610 -2.6068 -2.0864 0.9812
3.6101 -2.3154 -2.1038 0.9811
2.3286 -0.9613 -1.2357 0.9888
3.9114 -1.2191 -2.0096 0.9819
4.0418 -0.8731 -2.0283 0.9817
4.1410 -0.5135 -2.0468 0.9816
4.2391 0.2351 -2.0826 0.9813
4.2353 0.6175 -2.0995 0.9811
4.1950 1.0007 -2.1155 0.9810
4.0037 1.7541 -2.1441 0.9807
3.6669 2.4643 -2.1671 0.9805
3.1941 3.1002 -2.1834 0.9804
2.9117 3.3811 -2.1887 0.9803
2.2689 3.8532 -2.1934 0.9803
0.9921 3.6703 -1.8650 0.9832
0.3766 4.4080 -2.1701 0.9805
-0.0113 2.7179 -1.3332 0.9880
-0.4090 4.3600 -2.1481 0.9807
-0.7916 4.2795 -2.1348 0.9808
-1.8555 3.8307 -2.0879 0.9812
-2.1718 3.6193 -2.0705 0.9814
-2.7319 3.1196 -2.0341 0.9817
-2.9719 2.8371 -2.0154 0.9819
-3.1835 2.5367 -1.9967 0.9820
-3.3655 2.2215 -1.9781 0.9822
-1.1459 0.4908 -0.6115 0.9945
-1.1582 0.3777 -0.5976 0.9946
-1.1878 0.1631 -0.5881 0.9947
-1.1963 0.0564 -0.5875 0.9947
