ply
format ascii 1.0
element vertex 1596
property float32 x
property float32 y
property float32 z
property float32 I
end_header
-1.1927 6.1107 -1.3161 0.9749
-5.5003 8.9604 -2.2224 0.9579
-6.1443 8.2527 -2.1748 0.9588
-7.1895 6.7236 -2.0807 0.9606
-7.5911 5.9217 -2.0351 0.9614
-8.5277 5.5026 -2.1453 0.9594
-2.7201 1.4286 -0.6494 0.9875
-9.0891 2.8585 -2.0140 0.9618
-9.0969 1.1506 -1.9382 0.9632
-8.8474 -0.4700 -1.8728 0.9644
-8.3708 -1.9773 -1.8181 0.9654
-8.0563 -2.6823 -1.7948 0.9659
-7.2911 -3.9859 -1.7565 0.9666
-5.8465 -5.6535 -1.7191 0.9673
-4.1064 -6.9471 -1.7058 0.9675
-2.1307 -7.8355 -1.7164 0.9673
0.7706 -8.3281 -1.7679 0.9664
2.2933 -8.2494 -1.8099 0.9656
3.8333 -7.9348 -1.8627 0.9646
4.6008 -7.6843 -1.8932 0.9640
7.5477 -6.0233 -2.0412 0.9613
8.2255 -5.4373 -2.0843 0.9605
8.8665 -4.7824 -2.1294 0.9597
9.4472 -4.0523 -2.1729 0.9588
10.1167 -1.3934 -2.1587 0.9591
10.6524 0.4478 -2.2537 0.9573
10.5742 2.3747 -2.2908 0.9567
9.0067 2.8886 -1.9994 0.9621
7.7835 3.2889 -1.7861 0.9660
5.1762 4.0851 -1.3938 0.9734
4.4959 4.2524 -1.3081 0.9750
3.8949 4.4071 -1.2432 0.9762
3.5161 4.7787 -1.2541 0.9760
2.3802 4.8597 -1.1438 0.9781
1.4624 5.1523 -1.1321 0.9783
0.5338 5.4475 -1.1570 0.9779
-0.4742 5.8256 -1.2355 0.9764
-1.6793 6.3099 -1.3802 0.9737
-4.5871 9.7692 -2.2813 0.9568
-5.9926 8.4318 -2.1866 0.9586
-9.0688 3.0740 -2.0241 0.9616
-9.1243 2.2074 -1.9843 0.9623
-8.8911 -0.2754 -1.8803 0.9643
-8.6930 -1.0518 -1.8509 0.9648
-8.4410 -1.7978 -1.8243 0.9653
1.9460 5.0619 -1.2745 0.9780
1.4849 5.2115 -1.2736 0.9780
1.0222 5.3692 -1.2845 0.9778
0.5484 5.5384 -1.3080 0.9774
0.0246 2.6584 -0.6248 0.9891
-1.0466 6.1100 -1.4569 0.9748
-1.9935 5.4861 -1.3718 0.9763
-4.0519 8.6521 -2.2454 0.9615
-5.8563 6.8645 -2.1207 0.9636
-7.0359 4.7740 -1.9983 0.9657
-8.2581 2.0068 -1.9973 0.9657
-8.2611 1.2396 -1.9633 0.9663
-8.2038 0.4887 -1.9315 0.9668
-7.7017 -1.6322 -1.8503 0.9682
-7.4349 -2.2859 -1.8281 0.9685
-7.1233 -2.9091 -1.8084 0.9689
-6.7698 -3.5001 -1.7911 0.9692
-6.3772 -4.0572 -1.7764 0.9694
-5.4848 -5.0636 -1.7544 0.9698
-4.4653 -5.9178 -1.7423 0.9700
-3.9137 -6.2847 -1.7400 0.9700
-3.3370 -6.6098 -1.7402 0.9700
-2.1171 -7.1299 -1.7480 0.9699
-1.4781 -7.3223 -1.7556 0.9698
-0.1536 -7.5651 -1.7783 0.9694
0.5272 -7.6127 -1.7934 0.9691
1.9127 -7.5527 -1.8311 0.9685
2.6114 -7.4422 -1.8537 0.9681
4.0041 -7.0528 -1.9061 0.9672
4.6903 -6.7712 -1.9359 0.9667
7.2586 -5.0431 -2.0773 0.9643
8.3508 -3.8129 -2.1575 0.9630
8.2023 -2.8912 -2.0440 0.9649
8.5969 -2.1900 -2.0850 0.9642
9.2037 -0.6504 -2.1685 0.9628
9.3534 2.7630 -2.2922 0.9607
4.7293 4.2704 -1.4976 0.9742
4.1192 4.4492 -1.4250 0.9754
3.6503 4.7281 -1.4039 0.9758
3.1253 4.8972 -1.3654 0.9764
2.5328 4.8821 -1.2926 0.9777
1.1372 5.3292 -1.2807 0.9779
0.6671 5.4953 -1.3010 0.9775
0.0839 2.6758 -0.6292 0.9891
-0.3417 5.8761 -1.3834 0.9761
-0.9013 6.0646 -1.4410 0.9751
-1.8439 5.4466 -1.3514 0.9766
-3.8768 8.7786 -2.2554 0.9613
-6.2118 6.3596 -2.0893 0.9641
-6.6221 5.6656 -2.0482 0.9648
-6.9624 4.9524 -2.0081 0.9655
-7.7949 4.5549 -2.1218 0.9636
-8.1650 2.9798 -2.0428 0.9649
-8.2477 2.1984 -2.0061 0.9655
-8.2661 1.4279 -1.9715 0.9661
-8.1227 -0.0637 -1.9091 0.9672
-7.9674 -0.7775 -1.8814 0.9676
-7.2043 -2.7580 -1.8130 0.9688
-6.4778 -3.9227 -1.7798 0.9694
-4.5975 -5.8208 -1.7433 0.9700
-3.4817 -6.5334 -1.7399 0.9700
-0.9862 -7.4363 -1.7630 0.9696
-0.3202 -7.5457 -1.7750 0.9694
4.5217 -6.8463 -1.9283 0.9668
5.1989 -6.5200 -1.9599 0.9663
5.8599 -6.1335 -1.9937 0.9657
7.1120 -5.1781 -2.0676 0.9645
7.6915 -4.6092 -2.1074 0.9638
2.3766 -0.8972 -0.5970 0.9896
8.5045 -2.3678 -2.0748 0.9644
8.8557 -1.6307 -2.1163 0.9637
9.1433 -0.8496 -2.1581 0.9630
9.5003 0.8213 -2.2411 0.9616
7.2557 3.4514 -1.8884 0.9675
6.3417 3.7452 -1.7310 0.9702
5.5662 3.9982 -1.6107 0.9722
4.8859 4.2195 -1.5173 0.9738
3.2524 4.8563 -1.3737 0.9763
2.6522 4.8470 -1.2985 0.9776
2.1761 4.9900 -1.2794 0.9779
1.7125 5.1367 -1.2726 0.9780
1.2517 5.2900 -1.2776 0.9779
0.7846 5.4531 -1.2948 0.9776
0.1480 2.7653 -0.6508 0.9887
-0.1011 2.8087 -0.6605 0.9885
-0.7591 6.0202 -1.4261 0.9754
-1.7142 5.4581 -1.3446 0.9768
-4.3980 8.3821 -2.2247 0.9619
-5.0334 7.8073 -2.1832 0.9625
-5.6013 7.1861 -2.1413 0.9633
-6.0995 6.5272 -2.0996 0.9640
-6.5273 5.8392 -2.0583 0.9647
-7.7292 4.7487 -2.1320 0.9634
-2.7562 1.3707 -0.7235 0.9874
-8.2674 1.6170 -1.9798 0.9660
-8.2395 0.8576 -1.9469 0.9665
-8.1528 0.1163 -1.9163 0.9671
-7.5726 -1.9664 -1.8388 0.9684
-6.5760 -3.7861 -1.7834 0.9693
-5.7179 -4.8286 -1.7589 0.9697
-3.6251 -6.4544 -1.7398 0.9700
-3.0365 -6.7580 -1.7412 0.9700
-2.4262 -7.0179 -1.7452 0.9699
-1.7962 -7.2330 -1.7516 0.9698
-0.4861 -7.5232 -1.7718 0.9695
0.1894 -7.5955 -1.7857 0.9693
3.6617 -7.1704 -1.8922 0.9675
5.0328 -6.6062 -1.9518 0.9665
5.6983 -6.2347 -1.9851 0.9659
7.5517 -4.7555 -2.0974 0.9640
8.1020 -4.1414 -2.1385 0.9633
2.3468 -0.9458 -0.5947 0.9897
8.4087 -2.5427 -2.0646 0.9645
9.3136 -0.2359 -2.1896 0.9624
9.5513 1.4784 -2.2715 0.9611
9.5423 2.3656 -2.3106 0.9604
8.6612 2.9904 -2.1535 0.9630
6.5520 3.6765 -1.7657 0.9696
3.8240 4.5247 -1.3923 0.9760
3.3812 4.8149 -1.3828 0.9761
2.2923 4.9544 -1.2830 0.9778
0.9012 5.4117 -1.2894 0.9777
0.2146 2.8351 -0.6682 0.9884
-1.2021 6.1586 -1.4747 0.9745
-1.6232 5.5983 -1.3699 0.9763
-2.5657 6.5827 -1.6604 0.9714
-5.4673 7.3435 -2.1517 0.9631
-5.9829 6.6931 -2.1099 0.9638
-6.4281 6.0115 -2.0685 0.9645
-2.7215 1.4293 -0.7224 0.9874
-8.2648 1.8071 -1.9883 0.9658
-8.2519 1.0438 -1.9548 0.9664
-8.1795 0.2977 -1.9236 0.9669
-7.3585 -2.4500 -1.8228 0.9686
-6.6720 -3.6474 -1.7871 0.9692
-6.2697 -4.1955 -1.7730 0.9695
-4.3252 -6.0166 -1.7415 0.9700
-3.7669 -6.3728 -1.7398 0.9700
-3.1841 -6.6869 -1.7407 0.9700
-1.9536 -7.1841 -1.7497 0.9699
-1.3102 -7.3645 -1.7580 0.9697
0.0214 -7.5823 -1.7820 0.9693
0.7047 -7.6167 -1.7978 0.9691
2.7922 -7.4047 -1.8599 0.9680
3.4899 -7.2239 -1.8855 0.9676
4.1825 -6.9856 -1.9136 0.9671
4.8659 -6.6887 -1.9440 0.9666
5.5355 -6.3321 -1.9767 0.9660
6.8130 -5.4370 -2.0486 0.9648
7.4096 -4.8980 -2.0875 0.9642
8.3095 -2.7147 -2.0545 0.9647
8.6896 -2.0009 -2.0957 0.9640
9.2622 -0.4396 -2.1793 0.9626
9.4411 0.3969 -2.2208 0.9619
9.5399 1.2614 -2.2616 0.9612
8.9888 2.8828 -2.2186 0.9620
6.7709 3.6049 -1.8028 0.9690
5.9357 3.8777 -1.6663 0.9713
5.2122 4.1135 -1.5605 0.9731
4.5697 4.3222 -1.4783 0.9745
3.9664 4.4880 -1.4077 0.9757
0.5429 5.5404 -1.3084 0.9774
-0.4828 5.9318 -1.3987 0.9758
-1.0533 6.1121 -1.4577 0.9748
-1.6785 6.3070 -1.5339 0.9735
-2.0010 5.4894 -1.3732 0.9763
-4.7276 8.0978 -2.2038 0.9622
-5.8620 6.8571 -2.1202 0.9636
-7.0392 4.7657 -1.9979 0.9657
-7.8587 4.3516 -2.1112 0.9638
-8.2585 1.9980 -1.9969 0.9657
-8.2608 1.2310 -1.9629 0.9663
2.4539 4.9972 -1.4414 0.9773
1.9624 5.1047 -1.4160 0.9777
0.5545 5.6006 -1.4572 0.9770
0.0244 2.6378 -0.6830 0.9892
-0.4761 5.9243 -1.5388 0.9757
-1.0452 6.1020 -1.6029 0.9747
-1.6687 6.2959 -1.6864 0.9734
-1.9903 5.4774 -1.5089 0.9762
-5.7059 5.5890 -2.0680 0.9675
-6.3765 4.3266 -1.9952 0.9687
-7.4628 2.5381 -2.0409 0.9680
-7.5353 1.8311 -2.0078 0.9685
-7.5494 1.1328 -1.9765 0.9689
-7.4123 -0.2220 -1.9200 0.9698
-7.2666 -0.8717 -1.8949 0.9702
-6.8349 -2.1014 -1.8514 0.9709
-6.2337 -3.2229 -1.8170 0.9714
-5.0586 -4.6702 -1.7826 0.9720
-3.6119 -5.8000 -1.7691 0.9722
-2.5260 -6.3597 -1.7718 0.9721
-1.3632 -6.7530 -1.7837 0.9719
-0.7586 -6.8841 -1.7932 0.9718
-0.1415 -6.9699 -1.8050 0.9716
1.7581 -6.9423 -1.8542 0.9708
2.3980 -6.8339 -1.8752 0.9705
3.0359 -6.6739 -1.8984 0.9702
4.9008 -5.8749 -1.9809 0.9689
7.1062 -4.0478 -2.1175 0.9668
7.5597 -3.4517 -2.1517 0.9662
7.4177 -2.6146 -2.0364 0.9680
8.0474 -1.2986 -2.1106 0.9669
8.2751 -0.5848 -2.1479 0.9663
8.4373 0.1594 -2.1850 0.9657
8.5450 1.7124 -2.2564 0.9646
8.4820 2.5055 -2.2900 0.9641
7.0046 3.5239 -2.0302 0.9681
6.1300 3.8054 -1.8681 0.9706
5.3826 4.0496 -1.7440 0.9726
4.1273 4.4580 -1.5730 0.9752
3.6458 4.7222 -1.5447 0.9757
3.1215 4.8912 -1.5023 0.9763
2.5728 4.9591 -1.4465 0.9772
2.0960 5.1117 -1.4304 0.9774
1.6258 5.2615 -1.4258 0.9775
1.1547 5.4110 -1.4326 0.9774
0.6752 5.5626 -1.4508 0.9771
0.0834 2.6584 -0.6886 0.9891
-0.3421 5.8823 -1.5256 0.9759
-0.9001 6.0567 -1.5854 0.9750
-1.8418 5.4405 -1.4872 0.9765
-3.4717 7.8611 -2.2250 0.9651
-5.1617 6.3285 -2.1145 0.9668
-5.6057 5.7391 -2.0772 0.9674
-7.2866 3.4249 -2.0846 0.9673
-7.4406 -0.0583 -1.9266 0.9697
-6.6273 -2.5371 -1.8374 0.9711
-5.9677 -3.6138 -1.8064 0.9716
-4.7187 -4.9850 -1.7772 0.9720
-3.2133 -6.0296 -1.7690 0.9722
-2.6647 -6.2994 -1.7709 0.9721
-1.5105 -6.7137 -1.7818 0.9720
-0.9093 -6.8559 -1.7907 0.9718
0.3296 -7.0038 -1.8154 0.9714
1.6000 -6.9613 -1.8494 0.9709
2.8786 -6.7183 -1.8924 0.9703
3.5128 -6.5188 -1.9173 0.9699
4.1385 -6.2660 -1.9443 0.9694
4.7517 -5.9591 -1.9734 0.9690
5.3479 -5.5976 -2.0045 0.9685
5.9223 -5.1813 -2.0374 0.9680
2.3776 -0.8976 -0.6580 0.9896
7.6800 -2.1383 -2.0641 0.9676
7.9816 -1.4697 -2.1013 0.9670
8.4036 -0.0270 -2.1759 0.9659
8.5131 0.7359 -2.2124 0.9653
8.5482 1.5173 -2.2479 0.9648
8.3362 3.0861 -2.3015 0.9639
5.5581 3.9923 -1.7719 0.9721
4.2696 4.4118 -1.5896 0.9750
3.7107 4.5928 -1.5288 0.9759
3.2485 4.8504 -1.5115 0.9762
2.2129 5.0743 -1.4333 0.9774
1.7417 5.2243 -1.4259 0.9775
0.8895 3.7592 -1.0002 0.9842
0.7949 5.5248 -1.4452 0.9772
-0.1006 2.7932 -0.7237 0.9885
-1.3526 6.1977 -1.6425 0.9741
-2.7556 6.6327 -1.8596 0.9708
-5.0425 6.4692 -2.1237 0.9667
-5.8989 5.2771 -2.0493 0.9678
-6.5069 3.9977 -1.9773 0.9689
-2.7549 1.3700 -0.7966 0.9874
-7.4046 2.8894 -2.0580 0.9677
-7.5496 1.4766 -1.9918 0.9687
-7.5350 0.7843 -1.9615 0.9692
-7.3448 -0.5532 -1.9071 0.9700
-7.1746 -1.1919 -1.8831 0.9704
-6.9582 -1.8069 -1.8613 0.9707
-6.3969 -2.9566 -1.8246 0.9713
-6.0573 -3.4875 -1.8097 0.9715
-5.6817 -3.9866 -1.7971 0.9717
-4.8321 -4.8838 -1.7788 0.9720
-4.3626 -5.2792 -1.7732 0.9721
-3.8664 -5.6372 -1.7699 0.9722
-3.3455 -5.9567 -1.7689 0.9722
-2.8022 -6.2365 -1.7702 0.9721
-2.2386 -6.4753 -1.7739 0.9721
-1.0592 -6.8249 -1.7882 0.9719
-0.4479 -6.9332 -1.7989 0.9717
0.1744 -6.9956 -1.8118 0.9715
2.7210 -6.7595 -1.8866 0.9703
4.6015 -6.0400 -1.9660 0.9691
5.2023 -5.6921 -1.9966 0.9686
5.7826 -5.2893 -2.0291 0.9681
7.5971 -2.2973 -2.0550 0.9677
7.9123 -1.6386 -2.0921 0.9672
8.1704 -0.9418 -2.1295 0.9666
8.3657 -0.2119 -2.1667 0.9660
8.4927 0.5453 -2.2035 0.9654
8.5232 2.1130 -2.2736 0.9644
7.4933 3.3634 -2.1266 0.9666
5.7394 3.9331 -1.8015 0.9717
5.0398 4.1614 -1.6922 0.9734
3.8450 4.5494 -1.5423 0.9757
3.3770 4.8089 -1.5215 0.9760
2.8660 4.9734 -1.4862 0.9766
2.3304 5.0368 -1.4369 0.9773
1.8576 5.1870 -1.4265 0.9775
0.9583 3.6846 -0.9858 0.9844
0.9138 5.4872 -1.4403 0.9773
0.2142 2.8296 -0.7347 0.9883
-0.0372 2.6780 -0.6935 0.9890
-0.6189 5.9689 -1.5537 0.9755
-1.2005 6.1503 -1.6225 0.9744
-3.7923 7.6332 -2.2068 0.9654
-4.3849 7.1433 -2.1702 0.9660
-4.9196 6.6077 -2.1330 0.9665
-5.3939 6.0343 -2.0956 0.9671
-5.8066 5.4303 -2.0584 0.9677
-7.4873 2.3548 -2.0322 0.9681
-7.5438 0.9542 -1.9688 0.9691
-7.0158 -1.6572 -1.8665 0.9707
-6.7662 -2.2528 -1.8464 0.9710
-6.4750 -2.8207 -1.8287 0.9712
-6.1447 -3.3591 -1.8132 0.9715
-5.7777 -3.8663 -1.8000 0.9717
-5.3767 -4.3406 -1.7891 0.9719
-3.4765 -5.8814 -1.7689 0.9722
-2.9385 -6.1711 -1.7697 0.9722
-2.3796 -6.4201 -1.7728 0.9721
1.2843 -6.9900 -1.8401 0.9711
2.5632 -6.7975 -1.8810 0.9704
3.8305 -6.3977 -1.9307 0.9697
4.4504 -6.1176 -1.9588 0.9692
5.6414 -5.3939 -2.0209 0.9683
6.2028 -4.9500 -2.0547 0.9677
6.7345 -4.4517 -2.0902 0.9672
7.2308 -3.9001 -2.1272 0.9666
7.5110 -2.4538 -2.0459 0.9679
7.8395 -1.8051 -2.0829 0.9673
8.1122 -1.1173 -2.1202 0.9667
8.3236 -0.3951 -2.1575 0.9662
8.4680 0.3560 -2.1944 0.9656
8.5404 1.1292 -2.2305 0.9650
8.4525 2.7108 -2.2983 0.9640
7.7556 3.2771 -2.1800 0.9658
6.7599 3.5990 -1.9829 0.9689
5.9268 3.8719 -1.8330 0.9712
5.2048 4.1077 -1.7167 0.9730
4.5636 4.3164 -1.6264 0.9744
2.9902 4.9335 -1.4937 0.9764
2.4485 4.9990 -1.4412 0.9773
1.5044 5.3001 -1.4265 0.9775
1.0319 5.4499 -1.4361 0.9773
0.5490 5.6024 -1.4575 0.9770
-1.0519 6.1041 -1.6037 0.9747
-1.6762 6.2983 -1.6875 0.9734
-3.6373 7.7464 -2.2158 0.9653
-4.2437 7.2689 -2.1793 0.9658
-5.7104 5.5820 -2.0676 0.9675
-6.0761 4.9598 -2.0308 0.9681
-6.3796 4.3192 -1.9948 0.9687
-6.6216 3.6666 -1.9598 0.9692
-7.3312 3.2410 -2.0754 0.9674
-7.5358 1.8231 -2.0074 0.9685
-7.5066 0.4395 -1.9469 0.9694
-7.4109 -0.2295 -1.9197 0.9698
-7.2647 -0.8790 -1.8947 0.9702
-7.0708 -1.5060 -1.8718 0.9706
1.9601 5.0986 -1.5464 0.9775
1.0580 3.7133 -1.0930 0.9841
-0.4755 5.9167 -1.6804 0.9756
-1.0438 6.0938 -1.7502 0.9746
-1.9872 5.4688 -1.6472 0.9761
-3.2842 7.0129 -2.1922 0.9683
-3.8394 6.5918 -2.1595 0.9688
-5.1953 5.0888 -2.0588 0.9702
-5.8243 3.9519 -1.9925 0.9712
-6.0552 3.3610 -1.9605 0.9716
-6.9224 1.6822 -2.0167 0.9708
-6.9440 1.0420 -1.9878 0.9712
-6.5338 -1.3847 -1.8908 0.9726
-6.3189 -1.9428 -1.8715 0.9729
-6.0639 -2.4765 -1.8543 0.9731
-5.4431 -3.4629 -1.8263 0.9735
-5.0819 -3.9121 -1.8155 0.9737
-3.8220 -5.0652 -1.7963 0.9740
-1.2638 -6.2605 -1.8081 0.9738
-0.7030 -6.3796 -1.8170 0.9737
0.4493 -6.4885 -1.8412 0.9733
2.2148 -6.3119 -1.8937 0.9726
3.9513 -5.7043 -1.9644 0.9716
4.5071 -5.4029 -1.9918 0.9712
6.8985 -3.1499 -2.1469 0.9690
7.0637 -1.7994 -2.0635 0.9702
7.3138 -1.1803 -2.0973 0.9697
7.6437 0.1444 -2.1643 0.9687
6.1205 3.7995 -2.0394 0.9705
3.1176 4.8852 -1.6406 0.9762
2.0935 5.1056 -1.5621 0.9773
1.1533 5.4045 -1.5644 0.9773
0.6744 5.5559 -1.5844 0.9770
-0.3417 5.8748 -1.6659 0.9758
-1.8397 5.4343 -1.6242 0.9764
-3.1397 7.1094 -2.2001 0.9682
-6.0033 3.5079 -1.9684 0.9715
-6.6641 3.1323 -2.0846 0.9699
-6.8192 2.4887 -2.0550 0.9703
-6.9436 1.1994 -1.9948 0.9711
-6.5805 -1.2432 -1.8958 0.9725
-6.3759 -1.8070 -1.8760 0.9728
-5.8469 -2.8610 -1.8428 0.9733
-2.9807 -5.5932 -1.7942 0.9740
-2.4717 -5.8430 -1.7960 0.9740
-1.9442 -6.0539 -1.8000 0.9739
-0.8427 -6.3541 -1.8145 0.9737
-0.2733 -6.4411 -1.8251 0.9736
0.3052 -6.4846 -1.8378 0.9734
1.4794 -6.4363 -1.8696 0.9729
2.0692 -6.3424 -1.8886 0.9726
2.6569 -6.2008 -1.9098 0.9723
3.8117 -5.7712 -1.9580 0.9717
4.3712 -5.4820 -1.9849 0.9713
4.9135 -5.1430 -2.0136 0.9709
5.4340 -4.7541 -2.0440 0.9704
6.3904 -3.8296 -2.1091 0.9695
6.8087 -3.2926 -2.1411 0.9690
2.3804 -0.8987 -0.7203 0.9895
7.2569 -1.3363 -2.0889 0.9698
7.7031 0.6659 -2.1888 0.9684
7.7232 1.3709 -2.2206 0.9679
7.6730 2.0833 -2.2508 0.9675
7.5504 2.7952 -2.2792 0.9671
7.2308 3.4396 -2.2668 0.9673
5.5499 3.9865 -1.9344 0.9720
4.2639 4.4060 -1.7357 0.9748
3.7060 4.5869 -1.6694 0.9758
0.8806 3.7215 -1.0826 0.9842
-0.1002 2.7825 -0.7882 0.9885
-1.7119 5.4507 -1.6174 0.9765
-4.1013 6.3615 -2.1427 0.9690
-5.3754 4.8088 -2.0418 0.9705
-5.6896 4.2395 -2.0087 0.9709
-5.9479 3.6543 -1.9762 0.9714
-2.7535 1.3693 -0.8706 0.9873
-6.8918 2.0012 -2.0316 0.9706
-6.9400 1.3574 -2.0019 0.9710
-6.9351 0.7218 -1.9739 0.9714
-6.8793 0.0982 -1.9477 0.9718
-6.6245 -1.1005 -1.9010 0.9725
-6.1948 -2.2158 -1.8625 0.9730
-4.8874 -4.1273 -1.8109 0.9738
-4.0462 -4.8963 -1.7981 0.9739
-3.5865 -5.2290 -1.7950 0.9740
-2.5993 -5.7848 -1.7954 0.9740
-2.0761 -6.0054 -1.7988 0.9739
-1.5362 -6.1862 -1.8045 0.9738
-0.9817 -6.3260 -1.8123 0.9737
-0.4150 -6.4236 -1.8223 0.9736
0.1615 -6.4780 -1.8344 0.9734
0.7453 -6.4879 -1.8487 0.9732
1.3336 -6.4522 -1.8652 0.9730
1.9235 -6.3700 -1.8837 0.9727
2.5120 -6.2403 -1.9043 0.9724
3.6712 -5.8350 -1.9516 0.9717
5.8086 -4.4288 -2.0678 0.9701
6.2793 -3.9542 -2.1007 0.9696
6.7147 -3.4323 -2.1348 0.9691
2.3440 -0.9447 -0.7154 0.9895
7.4196 -0.8553 -2.1143 0.9694
7.6877 0.4936 -2.1808 0.9685
7.7246 1.1957 -2.2128 0.9680
7.5876 2.6198 -2.2724 0.9672
6.5309 3.6647 -2.1200 0.9693
5.7307 3.9272 -1.9667 0.9715
5.0326 4.1556 -1.8476 0.9732
4.4090 4.3588 -1.7551 0.9746
1.8556 5.1814 -1.5581 0.9774
0.9127 5.4807 -1.5729 0.9772
0.2176 2.8741 -0.8160 0.9881
-0.0368 2.6503 -0.7504 0.9890
-0.6181 5.9612 -1.6966 0.9754
-2.5579 6.5628 -1.9940 0.9711
-4.4668 5.9996 -2.1175 0.9694
-4.9054 5.4878 -2.0837 0.9699
-2.7243 1.4308 -0.8711 0.9873
-6.7542 2.8092 -2.0708 0.9700
-6.8714 2.1611 -2.0392 0.9705
-6.9411 0.8780 -1.9806 0.9713
-6.8977 0.2510 -1.9540 0.9717
-6.6658 -0.9565 -1.9064 0.9724
-6.2567 -2.0832 -1.8668 0.9730
-5.6897 -3.1104 -1.8357 0.9734
-5.3528 -3.5819 -1.8233 0.9736
-4.9834 -4.0231 -1.8131 0.9737
-4.1560 -4.8086 -1.7993 0.9739
-3.2249 -5.4558 -1.7941 0.9740
-2.7258 -5.7243 -1.7949 0.9740
-1.6711 -6.1453 -1.8029 0.9739
0.6005 -6.4896 -1.8450 0.9733
1.7777 -6.3947 -1.8790 0.9728
2.3669 -6.2768 -1.8991 0.9725
2.9521 -6.1107 -1.9212 0.9722
3.5299 -5.8957 -1.9453 0.9718
4.0965 -5.6312 -1.9713 0.9715
5.1797 -4.9525 -2.0288 0.9706
5.6874 -4.5387 -2.0599 0.9702
6.6107 -3.5656 -2.1263 0.9693
6.5109 -2.7928 -2.0056 0.9710
6.8454 -2.2363 -2.0387 0.9705
7.6683 0.3224 -2.1728 0.9686
7.7068 1.7307 -2.2361 0.9677
6.7487 3.5931 -2.1644 0.9687
5.9177 3.8660 -2.0011 0.9710
5.1973 4.1018 -1.8743 0.9729
4.5574 4.3105 -1.7758 0.9743
3.9764 4.4993 -1.6999 0.9753
2.4455 4.9929 -1.5739 0.9772
1.0524 3.7077 -1.0911 0.9841
1.0306 5.4434 -1.5684 0.9772
0.0215 2.6175 -0.7410 0.9892
-0.4817 5.9186 -1.6811 0.9756
-1.0505 6.0959 -1.7511 0.9746
-1.9945 5.4718 -1.6487 0.9761
-3.2907 7.0084 -2.1918 0.9683
-3.8454 6.5867 -2.1592 0.9688
-5.1995 5.0826 -2.0584 0.9702
-5.5413 4.5232 -2.0250 0.9707
-6.0575 3.3542 -1.9602 0.9716
-6.7146 2.9685 -2.0783 0.9699
-6.9229 1.6749 -2.0164 0.9708
-6.9131 0.4048 -1.9604 0.9716
-6.8324 -0.2116 -1.9351 0.9720
-6.7045 -0.8112 -1.9118 0.9723
1.9577 5.0924 -1.6781 0.9774
1.0442 3.6647 -1.1721 0.9842
0.5532 5.5870 -1.7268 0.9768
-1.0424 6.0856 -1.8990 0.9745
-1.6640 6.2782 -1.9977 0.9732
-4.3926 5.1489 -2.0817 0.9721
-5.7434 2.5461 -1.9323 0.9741
-6.3181 2.1488 -2.0526 0.9725
-6.3955 1.5541 -2.0243 0.9728
-6.4225 0.9637 -1.9975 0.9732
-6.0653 -1.2854 -1.9070 0.9744
-5.6369 -2.3021 -1.8728 0.9748
-4.3675 -4.0321 -1.8283 0.9754
-2.6616 -5.2720 -1.8165 0.9756
-1.1769 -5.8299 -1.8293 0.9754
-0.6544 -5.9388 -1.8377 0.9753
0.4179 -6.0346 -1.8605 0.9750
0.9627 -6.0194 -1.8750 0.9748
2.0558 -5.8587 -1.9097 0.9744
3.1333 -5.5189 -1.9520 0.9738
4.1679 -4.9963 -2.0013 0.9731
5.1288 -4.2907 -2.0568 0.9724
5.5711 -3.8707 -2.0865 0.9720
5.9818 -3.4073 -2.1174 0.9716
6.3372 -2.8935 -2.1428 0.9713
6.6956 -1.0805 -2.0861 0.9720
6.8647 -0.4851 -2.1167 0.9716
6.9787 0.1319 -2.1469 0.9712
7.0342 0.7651 -2.1763 0.9708
7.0280 1.4084 -2.2047 0.9704
6.8222 2.6986 -2.2566 0.9698
6.1108 3.7935 -2.2123 0.9703
3.6365 4.7102 -1.8303 0.9754
1.6219 5.2489 -1.6898 0.9773
1.1519 5.3980 -1.6977 0.9772
-0.3412 5.8673 -1.8077 0.9757
-0.8977 6.0406 -1.8784 0.9748
-1.5044 6.2288 -1.9709 0.9735
-1.8376 5.4281 -1.7626 0.9763
-2.8624 6.4816 -2.1793 0.9708
-3.3838 6.1166 -2.1500 0.9712
-4.2933 5.2638 -2.0893 0.9720
-4.6765 4.7878 -2.0585 0.9724
-5.0098 4.2862 -2.0279 0.9728
-5.2925 3.7646 -1.9977 0.9732
-5.5246 3.2282 -1.9681 0.9736
-5.7062 2.6820 -1.9393 0.9740
-6.2911 2.2960 -2.0598 0.9724
-6.4107 0.5243 -1.9784 0.9734
-6.1074 -1.1539 -1.9117 0.9743
-5.9220 -1.6784 -1.8932 0.9746
-5.1430 -3.1144 -1.8493 0.9752
-4.8164 -3.5409 -1.8387 0.9753
-4.4599 -3.9385 -1.8301 0.9754
-4.0757 -4.3057 -1.8235 0.9755
-3.2322 -4.9433 -1.8166 0.9756
-1.3042 -5.7969 -1.8276 0.9754
-0.7845 -5.9156 -1.8354 0.9753
-0.2544 -5.9942 -1.8453 0.9752
0.2839 -6.0317 -1.8573 0.9750
0.8277 -6.0272 -1.8712 0.9749
1.3744 -5.9796 -1.8871 0.9747
1.9210 -5.8881 -1.9050 0.9744
2.4646 -5.7520 -1.9248 0.9742
3.0019 -5.5707 -1.9464 0.9739
3.5293 -5.3437 -1.9697 0.9736
4.0434 -5.0708 -1.9948 0.9732
4.5400 -4.7520 -2.0215 0.9729
5.8835 -3.5258 -2.1097 0.9717
6.2561 -3.0254 -2.1374 0.9713
2.3836 -0.8999 -0.7836 0.9894
6.4136 -1.7857 -2.0477 0.9725
6.6458 -1.2238 -2.0785 0.9721
6.8279 -0.6345 -2.1092 0.9717
6.9559 -0.0224 -2.1395 0.9713
7.0354 1.2488 -2.1978 0.9705
6.9813 1.8955 -2.2250 0.9702
6.6764 3.1759 -2.2740 0.9695
5.5416 3.9805 -2.0986 0.9718
3.7012 4.5810 -1.8115 0.9757
1.7376 5.2121 -1.6899 0.9773
0.7930 5.5114 -1.7127 0.9770
0.1483 2.7719 -0.8538 0.9885
-0.0998 2.7733 -0.8535 0.9885
-1.3489 6.1806 -1.9458 0.9739
-1.7106 5.4466 -1.7559 0.9764
-3.7478 5.8132 -2.1274 0.9715
-5.2274 3.8951 -2.0051 0.9731
-5.4719 3.3619 -1.9753 0.9735
-2.7521 1.3686 -0.9454 0.9872
-6.2567 2.4415 -2.0657 0.9723
-6.4153 1.2548 -2.0106 0.9730
-6.1471 -1.0212 -1.9166 0.9743
-5.9715 -1.5506 -1.8976 0.9745
-5.7568 -2.0591 -1.8805 0.9747
-5.5052 -2.5445 -1.8654 0.9749
-5.2189 -3.0047 -1.8523 0.9751
-4.9000 -3.4381 -1.8411 0.9753
-4.1731 -4.2178 -1.8250 0.9755
-3.3414 -4.8718 -1.8170 0.9756
-2.8915 -5.1483 -1.8162 0.9756
-2.4217 -5.3895 -1.8174 0.9756
-0.9141 -5.8899 -1.8333 0.9754
-0.3863 -5.9786 -1.8427 0.9752
0.6929 -6.0323 -1.8676 0.9749
1.2391 -5.9954 -1.8830 0.9747
1.7861 -5.9148 -1.9004 0.9745
2.8698 -5.6198 -1.9409 0.9739
3.4001 -5.4041 -1.9638 0.9736
3.9178 -5.1425 -1.9885 0.9733
5.3561 -4.0839 -2.0717 0.9722
5.7830 -3.6417 -2.1020 0.9718
6.1722 -3.1550 -2.1321 0.9714
2.3426 -0.9441 -0.7769 0.9895
6.3490 -1.9199 -2.0402 0.9726
6.5929 -1.3654 -2.0709 0.9722
6.7878 -0.7824 -2.1016 0.9718
7.0007 1.7355 -2.2184 0.9703
6.8975 2.3815 -2.2444 0.9699
5.0255 4.1496 -2.0046 0.9731
3.8350 4.5376 -1.8274 0.9754
3.3686 4.7969 -1.8029 0.9758
2.3248 5.0246 -1.7029 0.9771
0.9473 3.6420 -1.1575 0.9844
-0.0365 2.6303 -0.8091 0.9891
-0.6173 5.9534 -1.8409 0.9753
-1.8357 6.3312 -2.0276 0.9728
-2.5540 6.5527 -2.1631 0.9710
-3.1313 6.3027 -2.1646 0.9710
-3.6311 5.9153 -2.1349 0.9714
-4.0859 5.4880 -2.1045 0.9718
-5.4162 3.4949 -1.9826 0.9734
-2.7257 1.4315 -0.9470 0.9872
-6.3430 1.9949 -2.0452 0.9726
-6.4215 0.8122 -1.9908 0.9733
-6.3080 -0.3351 -1.9429 0.9739
-6.1842 -0.8873 -1.9216 0.9742
-6.0186 -1.4216 -1.9021 0.9745
-5.8134 -1.9355 -1.8846 0.9747
-5.2928 -2.8934 -1.8553 0.9751
-4.9817 -3.3336 -1.8437 0.9752
-4.6398 -3.7457 -1.8341 0.9754
-3.8715 -4.4793 -1.8210 0.9755
-3.0047 -5.0832 -1.8162 0.9756
-2.5395 -5.3333 -1.8169 0.9756
-1.5565 -5.7237 -1.8244 0.9755
-1.0429 -5.8618 -1.8313 0.9754
-0.5176 -5.9604 -1.8402 0.9753
0.5584 -6.0347 -1.8641 0.9750
2.7373 -5.6660 -1.9355 0.9740
3.2700 -5.4617 -1.9580 0.9737
4.7833 -4.5735 -2.0355 0.9727
5.2459 -4.1864 -2.0643 0.9723
5.6805 -3.7550 -2.0944 0.9719
6.0823 -3.2807 -2.1256 0.9715
5.9827 -2.5662 -2.0023 0.9731
6.7444 -0.9289 -2.0940 0.9719
6.8996 -0.3275 -2.1246 0.9715
6.9988 0.2942 -2.1546 0.9711
7.0161 1.5756 -2.2118 0.9704
6.9292 2.2223 -2.2382 0.9700
5.9086 3.8600 -2.1708 0.9709
3.9712 4.4934 -1.8445 0.9752
2.4426 4.9869 -1.7080 0.9770
1.9525 5.0941 -1.6780 0.9774
1.0392 3.6613 -1.1706 0.9842
1.0294 5.4368 -1.7019 0.9771
-1.0491 6.0877 -1.9000 0.9745
-1.6714 6.2805 -1.9990 0.9732
-3.0012 6.3916 -2.1719 0.9709
-5.3574 3.6271 -1.9899 0.9733
-5.7450 2.5398 -1.9320 0.9741
-6.3193 2.1420 -2.0523 0.9725
-6.4005 0.3747 -1.9720 0.9735
-6.2188 -0.7524 -1.9267 0.9741
1.9554 5.0862 -1.8113 0.9773
1.0380 3.6431 -1.2592 0.9842
0.5525 5.5800 -1.8639 0.9766
-0.4743 5.9012 -1.9679 0.9754
-1.0410 6.0772 -2.0495 0.9743
-1.6616 6.2691 -2.1558 0.9730
-1.9810 5.4517 -1.9281 0.9758
-2.7497 5.8717 -2.1552 0.9730
-3.2224 5.5325 -2.1282 0.9734
-4.0466 4.7432 -2.0725 0.9741
-4.3934 4.3034 -2.0442 0.9744
-4.9499 3.3585 -1.9884 0.9751
-5.1585 2.8633 -1.9612 0.9754
-5.3210 2.3588 -1.9347 0.9758
-5.7946 -0.6951 -1.9400 0.9757
-5.6542 -1.1983 -1.9212 0.9759
-4.4214 -3.4036 -1.8547 0.9768
-4.0829 -3.7694 -1.8471 0.9768
-3.7183 -4.1063 -1.8414 0.9769
-2.9195 -4.6881 -1.8358 0.9770
-2.0412 -5.1391 -1.8381 0.9770
-1.5774 -5.3125 -1.8421 0.9769
-1.1001 -5.4498 -1.8481 0.9768
-0.6115 -5.5499 -1.8560 0.9767
-0.1140 -5.6119 -1.8658 0.9766
0.3902 -5.6348 -1.8775 0.9765
1.4081 -5.5601 -1.9066 0.9761
1.9162 -5.4610 -1.9238 0.9759
2.4200 -5.3200 -1.9428 0.9757
2.9162 -5.1366 -1.9634 0.9754
3.8724 -4.6421 -2.0095 0.9748
4.3252 -4.3313 -2.0347 0.9745
5.5350 -3.1528 -2.1174 0.9735
5.9712 -1.5211 -2.0483 0.9744
6.1671 -0.9952 -2.0765 0.9740
6.3155 -0.4463 -2.1045 0.9737
6.4131 0.1212 -2.1321 0.9733
6.4569 0.7023 -2.1590 0.9730
6.3736 1.8827 -2.2091 0.9724
6.2434 2.4696 -2.2318 0.9721
5.8042 3.6032 -2.2709 0.9716
5.3590 4.0318 -2.2292 0.9721
4.7033 4.2468 -2.1064 0.9736
3.5650 4.6177 -1.9392 0.9757
3.0891 4.8405 -1.9087 0.9761
2.5634 4.9410 -1.8503 0.9768
2.0884 5.0932 -1.8298 0.9771
1.6199 5.2425 -1.8239 0.9771
0.0860 2.7421 -0.9119 0.9885
-0.3408 5.8596 -1.9511 0.9756
-0.8965 6.0325 -2.0272 0.9746
-1.5022 6.2199 -2.1270 0.9734
-3.1092 5.6201 -2.1350 0.9733
-3.5524 5.2514 -2.1075 0.9736
-4.3118 4.4144 -2.0512 0.9743
-4.6245 3.9565 -2.0230 0.9747
-4.8911 3.4790 -1.9952 0.9750
-5.1113 2.9867 -1.9678 0.9754
-5.9224 1.5786 -2.0374 0.9745
-5.9647 1.0303 -2.0120 0.9748
-5.9133 -0.0464 -1.9657 0.9754
-5.8232 -0.5683 -1.9448 0.9756
-5.6925 -1.0755 -1.9257 0.9759
-5.5233 -1.5654 -1.9083 0.9761
-5.3175 -2.0357 -1.8927 0.9763
-3.8107 -4.0258 -1.8426 0.9769
-3.4280 -4.3401 -1.8384 0.9770
-1.6934 -5.2729 -1.8409 0.9769
-1.2192 -5.4193 -1.8464 0.9769
-0.7332 -5.5287 -1.8539 0.9768
-0.2376 -5.6002 -1.8632 0.9766
1.2821 -5.5782 -1.9026 0.9762
1.7909 -5.4894 -1.9194 0.9760
2.2961 -5.3588 -1.9379 0.9757
2.7945 -5.1859 -1.9582 0.9755
4.2152 -4.4120 -2.0283 0.9746
4.6517 -4.0697 -2.0545 0.9743
5.0632 -3.6864 -2.0819 0.9739
6.2834 -0.5839 -2.0976 0.9738
6.3939 -0.0205 -2.1254 0.9734
6.4528 1.1454 -2.1785 0.9728
6.3966 1.7367 -2.2032 0.9724
5.8713 3.4674 -2.2666 0.9717
5.5333 3.9745 -2.2646 0.9717
4.8586 4.1960 -2.1339 0.9733
3.1945 4.7698 -1.9083 0.9761
2.6827 4.9027 -1.8577 0.9767
1.7355 5.2057 -1.8240 0.9771
0.8395 3.5478 -1.2119 0.9848
-0.7551 5.9886 -2.0064 0.9749
-2.9935 5.7053 -2.1417 0.9732
-3.4466 5.3459 -2.1143 0.9735
-3.8587 4.9505 -2.0864 0.9739
-4.5515 4.0717 -2.0300 0.9746
-5.9585 1.1655 -2.0182 0.9747
-5.8493 -0.4405 -1.9498 0.9756
-5.3717 -1.9214 -1.8964 0.9762
-4.8746 -2.8066 -1.8697 0.9766
-4.5786 -3.2126 -1.8592 0.9767
-4.2536 -3.5921 -1.8506 0.9768
-3.9016 -3.9434 -1.8440 0.9769
-3.5247 -4.2652 -1.8393 0.9769
-3.1249 -4.5561 -1.8365 0.9770
-2.7042 -4.8149 -1.8357 0.9770
-1.8085 -5.2312 -1.8399 0.9769
-1.3376 -5.3865 -1.8449 0.9769
-0.8543 -5.5051 -1.8518 0.9768
0.6469 -5.6313 -1.8842 0.9764
1.1561 -5.5938 -1.8987 0.9762
1.6654 -5.5152 -1.9151 0.9760
2.1717 -5.3950 -1.9332 0.9758
2.6721 -5.2326 -1.9530 0.9755
3.1632 -5.0277 -1.9745 0.9753
3.6417 -4.7802 -1.9975 0.9750
4.9640 -3.7849 -2.0750 0.9740
5.3540 -3.3715 -2.1032 0.9737
5.7039 -2.9157 -2.1294 0.9734
2.3412 -0.9435 -0.8391 0.9894
5.8580 -1.7714 -2.0343 0.9745
6.3714 -0.1614 -2.1186 0.9735
6.4421 0.4137 -2.1458 0.9732
6.3152 2.1805 -2.2208 0.9722
6.1548 2.7626 -2.2425 0.9720
5.9348 3.3301 -2.2621 0.9717
5.6561 3.8761 -2.2792 0.9715
5.0182 4.1437 -2.1633 0.9729
0.9195 3.5354 -1.2143 0.9847
-1.1956 6.1251 -2.0744 0.9740
-2.8756 5.7880 -2.1483 0.9731
-3.3383 5.4383 -2.1211 0.9735
-2.7272 1.4323 -1.0239 0.9871
-5.8842 1.8506 -2.0504 0.9743
-5.9496 1.3009 -2.0244 0.9747
-5.8729 -0.3120 -1.9549 0.9755
-5.6116 -1.3255 -1.9167 0.9760
-4.6546 -3.1147 -1.8616 0.9767
-4.3365 -3.5009 -1.8526 0.9768
-3.9910 -3.8593 -1.8454 0.9769
-3.6201 -4.1885 -1.8402 0.9769
-3.2258 -4.4872 -1.8370 0.9770
-1.4552 -5.3515 -1.8435 0.9769
-0.4837 -5.5696 -1.8583 0.9767
1.0302 -5.6069 -1.8949 0.9763
3.0429 -5.0823 -1.9690 0.9753
3.5248 -4.8453 -1.9917 0.9751
3.9914 -4.5658 -2.0159 0.9748
4.4388 -4.2441 -2.0414 0.9744
5.2604 -3.4773 -2.0961 0.9738
2.3724 -1.0176 -0.8581 0.9892
6.0262 -1.3876 -2.0556 0.9743
6.3457 -0.3012 -2.1117 0.9736
6.4297 0.2703 -2.1392 0.9732
6.4317 1.4444 -2.1912 0.9726
4.5448 4.2986 -2.0794 0.9740
3.4298 4.6615 -1.9237 0.9759
2.4396 4.9807 -1.8436 0.9769
1.9501 5.0879 -1.8112 0.9773
1.0281 5.4301 -1.8371 0.9770
0.5469 5.5818 -1.8643 0.9766
0.0214 2.5985 -0.8638 0.9891
-0.4805 5.9032 -1.9687 0.9753
-1.0477 6.0793 -2.0506 0.9743
-1.6690 6.2714 -2.1572 0.9730
-1.9882 5.4544 -1.9298 0.9758
-2.7553 5.8681 -2.1549 0.9730
-3.2276 5.5284 -2.1279 0.9734
-4.0507 4.7384 -2.0722 0.9741
-5.8568 1.9853 -2.0556 0.9743
-5.9378 1.4365 -2.0307 0.9746
-5.9681 0.8893 -2.0057 0.9749
-5.7932 -0.7009 -1.9397 0.9757
1.9529 5.0799 -1.9462 0.9771
1.0322 5.4217 -1.9737 0.9768
0.0241 2.6053 -0.9317 0.9890
-1.0395 6.0688 -2.2019 0.9742
-1.5667 5.9111 -2.1868 0.9744
-1.9779 5.4433 -2.0711 0.9757
-2.5386 5.4208 -2.1406 0.9749
-2.9779 5.1126 -2.1158 0.9752
-3.3815 4.7681 -2.0904 0.9755
-4.3559 3.5630 -2.0124 0.9764
-4.5971 3.1192 -1.9867 0.9767
-4.7956 2.6618 -1.9614 0.9770
-4.9513 2.1949 -1.9368 0.9773
-5.4451 1.8519 -2.0567 0.9759
-5.5347 1.3449 -2.0368 0.9761
-5.5680 0.8355 -2.0134 0.9764
-5.5587 0.3311 -1.9913 0.9766
-5.5082 -0.1650 -1.9707 0.9769
-5.4182 -0.6500 -1.9515 0.9771
-5.1262 -1.5760 -1.9178 0.9775
-4.9279 -2.0125 -1.9035 0.9776
-4.6972 -2.4285 -1.8909 0.9778
-4.4359 -2.8221 -1.8801 0.9779
-3.4883 -3.8523 -1.8585 0.9782
-3.1242 -4.1405 -1.8549 0.9782
-1.9151 -4.8217 -1.8553 0.9782
-1.4798 -4.9837 -1.8591 0.9782
-1.0319 -5.1115 -1.8648 0.9781
0.3656 -5.2798 -1.8926 0.9778
2.2626 -4.9739 -1.9541 0.9771
3.1757 -4.5846 -1.9944 0.9766
4.0314 -4.0371 -2.0403 0.9761
4.8014 -3.3359 -2.0908 0.9755
5.1449 -2.9306 -2.1174 0.9752
5.7096 -0.9214 -2.0682 0.9757
5.9603 0.6483 -2.1440 0.9749
5.9433 1.1910 -2.1676 0.9746
5.8729 1.7348 -2.1899 0.9743
5.3366 3.3129 -2.2462 0.9737
3.4054 4.4109 -1.9928 0.9766
2.0858 5.0869 -1.9661 0.9769
0.6719 5.5352 -1.9940 0.9766
-0.8953 6.0242 -2.1780 0.9745
-1.4391 5.9588 -2.1922 0.9743
-1.8333 5.4153 -2.0445 0.9760
-2.4249 5.4909 -2.1465 0.9748
-3.6602 4.4876 -2.0709 0.9757
-3.9956 4.0906 -2.0449 0.9760
-4.2896 3.6700 -2.0188 0.9763
-4.5415 3.2303 -1.9930 0.9766
-2.8362 1.3331 -1.1207 0.9868
-5.0405 1.8396 -1.9188 0.9775
-5.5638 0.9611 -2.0191 0.9763
-5.1700 -1.4652 -1.9216 0.9774
-4.5032 -2.7270 -1.8826 0.9779
-3.9102 -3.4530 -1.8655 0.9781
-3.2162 -4.0720 -1.8556 0.9782
-2.8363 -4.3379 -1.8534 0.9782
-2.4371 -4.5731 -1.8531 0.9782
-1.5887 -4.9468 -1.8580 0.9782
-1.1436 -5.0832 -1.8632 0.9781
-0.6876 -5.1845 -1.8702 0.9780
-0.2228 -5.2499 -1.8791 0.9779
0.7237 -5.2696 -1.9021 0.9777
1.2003 -5.2224 -1.9163 0.9775
2.1471 -5.0110 -1.9495 0.9771
2.6114 -4.8461 -1.9686 0.9769
3.0655 -4.6413 -1.9891 0.9766
3.9297 -4.1132 -2.0343 0.9761
4.3329 -3.7908 -2.0588 0.9758
5.0629 -3.0340 -2.1107 0.9752
2.3900 -0.9023 -0.9136 0.9892
5.6701 -1.0441 -2.0618 0.9758
5.9524 1.0566 -2.1619 0.9746
5.6186 2.6727 -2.2250 0.9739
5.3991 3.1885 -2.2423 0.9737
5.1267 3.6825 -2.2573 0.9735
3.5002 4.3322 -1.9917 0.9766
0.8261 3.4911 -1.2829 0.9849
0.7910 5.4977 -1.9863 0.9767
-0.1000 2.7770 -0.9937 0.9883
-0.7541 5.9804 -2.1556 0.9747
-2.7650 5.2698 -2.1282 0.9750
-3.1866 4.9427 -2.1030 0.9753
-3.5712 4.5816 -2.0773 0.9756
-4.4832 3.3405 -1.9993 0.9765
-5.0139 1.9565 -1.9247 0.9774
-5.4992 1.5968 -2.0478 0.9760
-5.2117 -1.3533 -1.9255 0.9774
-5.0301 -1.7992 -1.9104 0.9776
-4.8151 -2.2255 -1.8970 0.9777
-4.2928 -3.0121 -1.8753 0.9780
-2.9321 -4.2750 -1.8538 0.9782
-2.5375 -4.5179 -1.8530 0.9782
-1.6967 -4.9078 -1.8570 0.9782
-1.2547 -5.0527 -1.8618 0.9781
-0.3384 -5.2371 -1.8767 0.9780
0.1315 -5.2749 -1.8869 0.9778
1.0825 -5.2377 -1.9126 0.9775
2.4974 -4.8905 -1.9637 0.9769
3.3986 -4.4610 -2.0055 0.9765
3.8268 -4.1870 -2.0285 0.9762
4.2354 -3.8741 -2.0526 0.9759
2.3403 -0.9432 -0.9023 0.9893
5.4316 -1.6425 -2.0293 0.9762
5.8899 -0.1492 -2.1069 0.9753
5.9495 0.3820 -2.1320 0.9750
5.8167 2.0084 -2.2006 0.9742
5.6646 2.5426 -2.2204 0.9740
5.4583 3.0628 -2.2382 0.9738
5.1988 3.5627 -2.2538 0.9736
4.8881 4.0362 -2.2669 0.9734
3.8248 4.5256 -2.1190 0.9751
3.2053 4.5644 -1.9945 0.9766
2.3190 5.0122 -1.9750 0.9768
1.8488 5.1625 -1.9610 0.9770
0.9093 5.4605 -1.9796 0.9768
-2.6554 5.3449 -2.1343 0.9750
-3.4797 4.6737 -2.0837 0.9756
-3.8349 4.2901 -2.0578 0.9759
-4.1495 3.8806 -2.0317 0.9762
-4.6526 3.0021 -1.9801 0.9768
-2.7287 1.4330 -1.1022 0.9870
-4.9846 2.0732 -1.9306 0.9773
-5.5474 1.2129 -2.0307 0.9762
-5.5696 0.7045 -2.0076 0.9764
-5.3887 -0.7732 -1.9468 0.9771
-5.2512 -1.2404 -1.9295 0.9773
-4.6325 -2.5325 -1.8880 0.9778
-4.3636 -2.9200 -1.8776 0.9779
-4.0667 -3.2831 -1.8690 0.9780
-3.3963 -3.9296 -1.8574 0.9782
-3.0267 -4.2102 -1.8543 0.9782
-2.6367 -4.4608 -1.8530 0.9782
-1.8039 -4.8668 -1.8561 0.9782
0.0149 -5.2690 -1.8843 0.9779
0.4884 -5.2788 -1.8958 0.9777
1.4411 -5.1838 -1.9241 0.9774
1.9148 -5.0779 -1.9407 0.9772
3.7226 -4.2584 -2.0227 0.9763
4.5278 -3.6133 -2.0716 0.9757
5.2237 -2.8175 -2.1225 0.9751
2.3557 -1.0104 -0.9166 0.9892
5.5833 -1.2856 -2.0489 0.9760
5.8676 -0.2785 -2.1007 0.9754
5.9394 0.2497 -2.1259 0.9751
5.9610 0.7882 -2.1502 0.9748
5.8459 1.8749 -2.1954 0.9743
5.7073 2.4116 -2.2157 0.9740
5.5143 2.9359 -2.2340 0.9738
5.2678 3.4414 -2.2502 0.9736
4.9695 3.9220 -2.2639 0.9735
4.5384 4.2926 -2.2339 0.9738
2.4365 4.9745 -1.9809 0.9767
1.9477 5.0816 -1.9461 0.9771
1.0268 5.4234 -1.9739 0.9768
0.5463 5.5747 -2.0031 0.9765
0.0214 2.6034 -0.9310 0.9890
-0.4798 5.8953 -2.1152 0.9752
-1.5725 5.9088 -2.1866 0.9744
-1.9851 5.4460 -2.0729 0.9757
-2.5438 5.4176 -2.1403 0.9749
-3.7508 4.3875 -2.0642 0.9758
-4.3588 3.5580 -2.0121 0.9764
-4.9528 2.1896 -1.9365 0.9773
-5.4464 1.8462 -2.0565 0.9759
-5.5353 1.3392 -2.0366 0.9761
-5.5681 0.8297 -2.0132 0.9764
-5.5583 0.3254 -1.9911 0.9766
-5.2886 -1.1264 -1.9336 0.9773
1.0309 5.4148 -2.1123 0.9767
0.5511 5.5659 -2.1434 0.9763
-0.9647 5.6319 -2.1897 0.9758
-1.4510 5.4747 -2.1704 0.9760
-2.7646 4.7465 -2.1050 0.9767
-3.7905 3.7128 -2.0333 0.9775
-4.0582 3.3195 -2.0092 0.9778
-5.1764 1.2579 -2.0414 0.9774
-5.2129 0.7822 -2.0201 0.9777
-5.1640 -0.1547 -1.9798 0.9781
-5.0827 -0.6097 -1.9617 0.9783
-4.9654 -1.0523 -1.9451 0.9785
-4.1707 -2.6533 -1.8943 0.9790
-3.6024 -3.3258 -1.8789 0.9792
-3.2820 -3.6244 -1.8738 0.9793
-2.9398 -3.8960 -1.8704 0.9793
-0.9706 -4.8082 -1.8798 0.9792
-0.5393 -4.8941 -1.8869 0.9791
0.7905 -4.9429 -1.9183 0.9788
2.5542 -4.4988 -1.9825 0.9781
2.9750 -4.2949 -2.0022 0.9779
3.7712 -3.7765 -2.0452 0.9774
4.1398 -3.4633 -2.0684 0.9771
4.4843 -3.1156 -2.0925 0.9769
4.7204 -2.1553 -1.9886 0.9780
4.9531 -1.7459 -2.0126 0.9778
5.3093 -0.8568 -2.0610 0.9772
5.5006 0.1039 -2.1083 0.9767
5.4388 1.6066 -2.1733 0.9760
5.3197 2.1042 -2.1923 0.9758
5.1508 2.5913 -2.2096 0.9756
4.9327 3.0621 -2.2249 0.9754
4.3555 3.9329 -2.2489 0.9752
3.3417 4.3284 -2.0955 0.9768
0.6711 5.5282 -2.1340 0.9764
-1.8032 5.3264 -2.1550 0.9762
-2.2490 5.0925 -2.1334 0.9764
-3.9956 3.4185 -2.0151 0.9777
-4.4326 2.5902 -1.9674 0.9782
-5.1573 1.3747 -2.0454 0.9774
-5.2128 0.4263 -2.0043 0.9778
-5.1784 -0.0406 -1.9845 0.9781
-4.9976 -0.9442 -1.9491 0.9784
-4.4707 -2.1875 -1.9073 0.9789
-3.6780 -3.2480 -1.8804 0.9792
-3.3633 -3.5531 -1.8749 0.9793
-2.6690 -4.0820 -1.8690 0.9793
-2.2933 -4.3034 -1.8687 0.9793
-1.4947 -4.6543 -1.8733 0.9793
-1.0758 -4.7818 -1.8783 0.9792
-0.2095 -4.9361 -1.8933 0.9791
1.5730 -4.8213 -1.9434 0.9785
2.8722 -4.3487 -1.9972 0.9779
3.6767 -3.8484 -2.0397 0.9775
4.0508 -3.5440 -2.0626 0.9772
4.4016 -3.2047 -2.0865 0.9769
4.7255 -2.8318 -2.1112 0.9767
5.0019 -2.4189 -2.1292 0.9765
5.1051 -1.4214 -2.0308 0.9776
5.2738 -0.9711 -2.0550 0.9773
5.4018 -0.5020 -2.0790 0.9770
5.4866 -0.0176 -2.1026 0.9768
5.3538 1.9820 -2.1877 0.9758
5.1971 2.4722 -2.2055 0.9756
4.0928 4.2292 -2.2554 0.9751
2.9780 4.4465 -2.0508 0.9773
2.6759 4.8902 -2.1362 0.9764
2.1994 5.0433 -2.1085 0.9767
1.7312 5.1928 -2.0977 0.9768
0.7900 5.4907 -2.1258 0.9765
0.1490 2.7840 -1.0684 0.9881
-0.7177 5.6921 -2.1986 0.9757
-1.2130 5.5582 -2.1801 0.9759
-2.9597 4.5908 -2.0932 0.9769
-3.6440 3.8996 -2.0453 0.9774
-3.9307 3.5164 -2.0211 0.9777
-4.3872 2.6954 -1.9732 0.9782
-2.7499 1.3675 -1.1769 0.9869
-5.2007 1.0172 -2.0308 0.9776
-5.2153 0.5428 -2.0094 0.9778
-5.1274 -0.3862 -1.9705 0.9782
-5.0278 -0.8352 -1.9531 0.9784
-3.7522 -3.1687 -1.8821 0.9792
-3.4432 -3.4801 -1.8761 0.9792
-2.7591 -4.0227 -1.8693 0.9793
-2.3878 -4.2514 -1.8686 0.9793
-1.5964 -4.6178 -1.8724 0.9793
-1.1804 -4.7533 -1.8769 0.9792
-0.7536 -4.8559 -1.8831 0.9792
0.1236 -4.9584 -1.9008 0.9790
1.0168 -4.9194 -1.9250 0.9787
2.3418 -4.5859 -1.9733 0.9782
2.7685 -4.4003 -1.9923 0.9780
3.1827 -4.1776 -2.0126 0.9778
3.5810 -3.9181 -2.0342 0.9775
4.3172 -3.2917 -2.0805 0.9770
4.9373 -2.5238 -2.1249 0.9765
2.3400 -0.9430 -0.9668 0.9893
5.0575 -1.5294 -2.0248 0.9776
5.2358 -1.0843 -2.0490 0.9774
5.5205 0.3545 -2.1199 0.9766
5.2405 2.3522 -2.2013 0.9757
4.8042 3.2923 -2.2319 0.9754
4.5150 3.7281 -2.2439 0.9752
4.1817 4.1341 -2.2534 0.9751
3.7623 4.4516 -2.2336 0.9753
3.0957 4.4083 -2.0643 0.9772
2.3161 5.0059 -2.1137 0.9766
1.8465 5.1561 -2.0988 0.9768
0.9441 3.6297 -1.4373 0.9841
0.4244 5.6056 -2.1543 0.9762
-1.0922 5.5958 -2.1849 0.9759
-1.5734 5.4266 -2.1652 0.9761
-3.5673 3.9908 -2.0513 0.9773
-3.8634 3.6130 -2.0271 0.9776
-4.1210 3.2148 -2.0029 0.9779
-4.7565 1.4959 -1.9108 0.9789
-5.1909 1.1350 -2.0362 0.9775
-5.1465 -0.2734 -1.9750 0.9782
-4.9295 -1.1644 -1.9410 0.9785
-4.3544 -2.3804 -1.9017 0.9790
-4.1030 -2.7456 -1.8919 0.9791
-2.8480 -3.9617 -1.8698 0.9793
-2.0970 -4.4039 -1.8692 0.9793
-1.6973 -4.5793 -1.8715 0.9793
-1.2843 -4.7229 -1.8756 0.9793
-0.8600 -4.8336 -1.8814 0.9792
-0.4265 -4.9107 -1.8890 0.9791
0.0140 -4.9533 -1.8982 0.9790
1.3530 -4.8670 -1.9359 0.9786
2.2348 -4.6260 -1.9688 0.9782
2.6641 -4.4497 -1.9875 0.9780
3.8686 -3.6989 -2.0511 0.9773
4.8705 -2.6271 -2.1207 0.9766
2.3496 -1.0078 -0.9797 0.9891
5.4502 -0.2587 -2.0910 0.9769
5.4949 1.2340 -2.1582 0.9762
5.4128 1.7359 -2.1783 0.9759
5.0991 2.7148 -2.2138 0.9756
3.9035 4.4168 -2.2589 0.9751
3.2150 4.3696 -2.0789 0.9770
2.7414 4.5230 -2.0268 0.9776
2.4334 4.9682 -2.1200 0.9766
0.0224 2.7268 -1.0450 0.9884
-0.4672 5.7403 -2.2070 0.9756
-0.9703 5.6304 -2.1895 0.9758
-3.1462 4.4268 -2.0812 0.9770
-3.7938 3.7085 -2.0331 0.9775
-4.2891 2.9038 -1.9849 0.9781
-2.9827 1.3186 -1.2497 0.9861
-5.1772 1.2525 -2.0412 0.9774
-5.2131 0.7768 -2.0198 0.9777
-5.1633 -0.1599 -1.9796 0.9781
-5.0815 -0.6148 -1.9615 0.9783
-4.9639 -1.0572 -1.9449 0.9785
2.4163 4.9207 -2.2436 0.9766
1.9480 5.0671 -2.2218 0.9768
1.0297 3.6138 -1.5379 0.9839
1.0177 5.3455 -2.2271 0.9768
0.5337 5.3901 -2.2168 0.9769
0.0252 2.7219 -1.1141 0.9883
-0.4287 5.3338 -2.1900 0.9771
-1.3497 5.0922 -2.1561 0.9775
-1.7831 4.9073 -2.1369 0.9777
-2.1934 4.6836 -2.1167 0.9779
-2.5769 4.4242 -2.0955 0.9781
-2.9309 4.1328 -2.0736 0.9783
-3.2530 3.8131 -2.0513 0.9786
-3.7943 3.1037 -2.0063 0.9790
-4.4400 1.5101 -1.9194 0.9799
-1.9594 0.2940 -0.8109 0.9915
-1.9466 0.1159 -0.7981 0.9916
-1.9263 -0.0577 -0.7887 0.9917
-4.3613 -1.7811 -1.9281 0.9798
-4.1603 -2.1509 -1.9168 0.9800
-3.9315 -2.5012 -1.9071 0.9801
-2.7732 -3.6753 -1.8844 0.9803
-2.4318 -3.9051 -1.8828 0.9803
-2.0734 -4.1070 -1.8829 0.9803
-1.3132 -4.4226 -1.8882 0.9803
-0.9154 -4.5344 -1.8933 0.9802
1.1654 -4.6018 -1.9429 0.9797
2.4013 -4.2295 -1.9906 0.9792
2.7953 -4.0354 -2.0091 0.9790
3.1754 -3.8066 -2.0288 0.9788
3.8819 -3.2476 -2.0714 0.9784
4.2019 -2.9194 -2.0941 0.9781
4.4902 -2.5577 -2.1150 0.9779
4.6306 -1.6322 -2.0095 0.9790
5.1266 0.0969 -2.0986 0.9781
5.1486 0.5600 -2.1196 0.9779
5.1262 1.0273 -2.1397 0.9777
5.0583 1.4942 -2.1587 0.9775
4.9445 1.9558 -2.1762 0.9773
4.5800 2.8432 -2.2063 0.9770
4.3314 3.2587 -2.2184 0.9768
4.0410 3.6489 -2.2284 0.9767
3.3068 4.2832 -2.2147 0.9769
2.5011 4.8209 -2.2228 0.9768
1.1368 5.3269 -2.2293 0.9767
0.6535 5.3837 -2.2196 0.9768
0.0858 2.7340 -1.1195 0.9882
-0.7823 5.2638 -2.1780 0.9773
-1.2394 5.1315 -2.1606 0.9774
-1.6780 4.9568 -2.1418 0.9776
-2.0943 4.7423 -2.1218 0.9778
-3.1765 3.8945 -2.0569 0.9785
-3.7351 3.1956 -2.0118 0.9790
-4.1501 2.4250 -1.9672 0.9794
-4.4172 1.6121 -1.9245 0.9799
-4.8333 1.2883 -2.0472 0.9786
-1.9564 0.1600 -0.8034 0.9916
-4.5706 -1.2954 -1.9443 0.9797
-4.4065 -1.6869 -1.9311 0.9798
-3.7419 -2.7510 -1.9008 0.9801
-3.1723 -3.3513 -1.8886 0.9803
-2.8548 -3.6143 -1.8850 0.9803
-1.7935 -4.2398 -1.8841 0.9803
-0.6098 -4.5977 -1.8982 0.9802
-0.1975 -4.6532 -1.9062 0.9801
0.2201 -4.6756 -1.9157 0.9800
1.0615 -4.6184 -1.9395 0.9797
1.4805 -4.5380 -1.9536 0.9796
3.4507 -3.6118 -2.0444 0.9786
3.7991 -3.3238 -2.0660 0.9784
4.3587 -2.1078 -1.9816 0.9793
5.0794 1.3791 -2.1541 0.9775
4.9769 1.8425 -2.1720 0.9773
4.8286 2.2969 -2.1884 0.9772
4.6348 2.7372 -2.2030 0.9770
4.1166 3.5551 -2.2261 0.9768
3.3991 4.2071 -2.2136 0.9769
2.9740 4.4406 -2.1874 0.9772
1.7290 5.1862 -2.2374 0.9766
0.8445 3.5689 -1.5010 0.9843
0.1487 2.7798 -1.1393 0.9880
-0.0935 2.5972 -1.0636 0.9888
-0.6670 5.2896 -2.1821 0.9772
-1.5715 5.0038 -2.1465 0.9776
-1.9937 4.7989 -2.1268 0.9778
-2.7598 4.2807 -2.0845 0.9782
-3.4031 3.6418 -2.0400 0.9787
-3.6737 3.2865 -2.0174 0.9789
-3.9085 2.9123 -1.9949 0.9792
-2.7118 1.3486 -1.2395 0.9870
-4.3922 1.7139 -1.9296 0.9798
-1.9123 0.0273 -0.7827 0.9918
-1.9540 -0.1472 -0.8020 0.9916
-2.0874 -0.3468 -0.8660 0.9909
-4.4499 -1.5917 -1.9342 0.9798
-4.0480 -2.3306 -1.9117 0.9800
-3.8057 -2.6703 -1.9028 0.9801
-3.5383 -2.9881 -1.8955 0.9802
-3.2475 -3.2823 -1.8898 0.9802
-2.2526 -4.0107 -1.8827 0.9803
-1.8863 -4.1980 -1.8836 0.9803
-0.7106 -4.5789 -1.8965 0.9802
-0.2999 -4.6425 -1.9040 0.9801
0.1165 -4.6732 -1.9132 0.9800
0.5365 -4.6701 -1.9239 0.9799
1.3773 -4.5611 -1.9500 0.9796
1.7931 -4.4544 -1.9652 0.9795
3.3614 -3.6779 -2.0392 0.9787
4.3538 -2.7417 -2.1058 0.9780
4.6189 -2.3611 -2.1231 0.9778
2.3396 -0.9429 -1.0324 0.9892
5.0143 -0.5780 -2.0658 0.9784
5.1431 0.3303 -2.1093 0.9780
5.1429 0.7960 -2.1299 0.9778
5.0976 1.2638 -2.1495 0.9776
4.8695 2.1857 -2.1845 0.9772
4.4597 3.0562 -2.2127 0.9769
3.4935 4.1336 -2.2151 0.9769
3.0916 4.4024 -2.2017 0.9770
2.3012 4.9741 -2.2431 0.9766
1.8442 5.1495 -2.2386 0.9766
0.4084 5.3937 -2.2138 0.9769
-0.0360 2.5921 -1.0610 0.9889
-1.4637 5.0483 -2.1512 0.9775
-1.8916 4.8531 -2.1318 0.9777
-2.2952 4.6198 -2.1113 0.9780
-2.6714 4.3518 -2.0899 0.9782
-3.3308 3.7263 -2.0455 0.9786
-3.6101 3.3762 -2.0230 0.9789
-3.8539 3.0064 -2.0005 0.9791
-2.6905 1.4130 -1.2438 0.9870
-4.3650 1.8154 -1.9348 0.9798
-1.9524 0.2469 -0.8054 0.9915
-1.9314 0.0703 -0.7910 0.9917
-1.9451 -0.2791 -0.8042 0.9915
-4.4915 -1.4954 -1.9375 0.9797
-4.3121 -1.8785 -1.9250 0.9799
-3.8680 -2.5883 -1.9048 0.9801
-3.6067 -2.9117 -1.8971 0.9802
-3.3215 -3.2119 -1.8910 0.9802
-3.0142 -3.4875 -1.8866 0.9803
-2.6867 -3.7373 -1.8838 0.9803
-2.3407 -3.9600 -1.8827 0.9803
-1.9782 -4.1545 -1.8832 0.9803
0.0132 -4.6687 -1.9108 0.9800
0.8535 -4.6453 -1.9331 0.9798
1.2738 -4.5821 -1.9465 0.9797
2.1019 -4.3509 -1.9776 0.9793
2.5043 -4.1827 -1.9952 0.9792
2.8950 -3.9795 -2.0141 0.9790
3.6295 -3.4703 -2.0552 0.9785
3.9670 -3.1658 -2.0772 0.9783
4.5571 -2.4580 -2.1191 0.9779
2.3434 -1.0052 -1.0436 0.9890
5.1471 0.6806 -2.1249 0.9778
5.1130 1.1482 -2.1448 0.9776
4.7362 2.5216 -2.1960 0.9771
4.5199 2.9528 -2.2097 0.9769
3.9595 3.7450 -2.2306 0.9767
3.2082 4.3603 -2.2156 0.9769
2.7378 4.5171 -2.1618 0.9774
1.9427 5.0688 -2.2217 0.9768
1.0122 5.3463 -2.2270 0.9768
0.5282 5.3904 -2.2167 0.9769
0.0224 2.7219 -1.1141 0.9883
-0.4341 5.3329 -2.1899 0.9771
-0.9020 5.2338 -2.1736 0.9773
-2.1979 4.6808 -2.1164 0.9779
-2.5811 4.4211 -2.0952 0.9781
-3.2565 3.8093 -2.0511 0.9786
-3.7970 3.0994 -2.0060 0.9790
-2.6755 1.4815 -1.2517 0.9869
-4.4410 1.5054 -1.9192 0.9799
-4.8527 1.1740 -2.0434 0.9787
-1.9541 -0.2364 -0.8056 0.9915
2.2497 4.5814 -2.2244 0.9780
1.3936 4.8911 -2.2165 0.9781
0.4973 5.0226 -2.1996 0.9782
0.0252 2.7247 -1.1875 0.9882
-1.2600 4.7539 -2.1434 0.9788
-1.6657 4.5840 -2.1256 0.9789
-3.7646 2.5543 -1.9827 0.9803
-2.7539 1.2208 -1.3128 0.9869
-1.5403 0.3743 -0.6908 0.9931
-1.5129 0.2270 -0.6667 0.9933
-1.5296 0.0911 -0.6678 0.9933
-1.5221 -0.1826 -0.6681 0.9933
-1.5169 -0.3215 -0.6758 0.9933
-4.1181 -1.6818 -1.9386 0.9808
-3.9296 -2.0316 -1.9279 0.9809
-3.7145 -2.3631 -1.9187 0.9810
-3.4745 -2.6747 -1.9109 0.9810
-2.9265 -3.2318 -1.9001 0.9812
-2.6219 -3.4747 -1.8971 0.9812
-2.2992 -3.6921 -1.8956 0.9812
-1.2414 -4.1808 -1.9007 0.9812
-0.8652 -4.2859 -1.9055 0.9811
-0.0894 -4.4044 -1.9199 0.9810
0.3058 -4.4164 -1.9293 0.9809
0.7031 -4.3962 -1.9403 0.9808
2.2633 -3.9865 -1.9978 0.9802
3.6503 -3.0538 -2.0742 0.9794
4.1446 -1.8924 -1.9857 0.9803
4.3426 -1.5307 -2.0067 0.9801
4.6411 -0.7490 -2.0488 0.9797
4.7369 -0.3347 -2.0696 0.9795
4.8119 0.5234 -2.1095 0.9791
4.7880 0.9595 -2.1282 0.9789
4.7219 1.3948 -2.1458 0.9787
4.2691 2.6502 -2.1899 0.9783
4.0359 3.0364 -2.2011 0.9782
3.4565 3.7334 -2.2173 0.9780
1.5024 4.8623 -2.2179 0.9780
1.0588 4.9619 -2.2111 0.9781
0.0867 2.7636 -1.2050 0.9880
-0.2902 4.9898 -2.1783 0.9784
-1.9573 4.4319 -2.1115 0.9791
-2.3236 4.2002 -2.0920 0.9793
-2.6635 3.9374 -2.0717 0.9795
-2.9746 3.6469 -2.0510 0.9797
-3.7169 2.6438 -1.9879 0.9803
-1.5968 0.5827 -0.7408 0.9926
-1.5266 -0.1490 -0.6685 0.9933
-1.5653 -0.4436 -0.7090 0.9929
-4.1604 -1.5927 -1.9415 0.9807
-3.9787 -1.9468 -1.9304 0.9809
-3.7700 -2.2830 -1.9208 0.9810
-3.5360 -2.5996 -1.9127 0.9810
-3.2784 -2.8951 -1.9061 0.9811
-2.9988 -3.1680 -1.9011 0.9811
-2.6989 -3.4170 -1.8977 0.9812
-2.3806 -3.6408 -1.8958 0.9812
-2.0455 -3.8384 -1.8955 0.9812
-1.6956 -4.0085 -1.8968 0.9812
-1.3329 -4.1502 -1.8997 0.9812
-0.5763 -4.3450 -1.9102 0.9811
-0.1866 -4.3965 -1.9178 0.9810
0.2079 -4.4164 -1.9269 0.9809
1.0020 -4.3594 -1.9495 0.9807
1.3969 -4.2818 -1.9629 0.9805
1.7872 -4.1710 -1.9776 0.9804
2.1701 -4.0271 -1.9937 0.9802
2.9030 -3.6406 -2.0293 0.9799
3.8771 -2.8228 -2.0901 0.9793
4.0911 -1.9784 -1.9805 0.9804
4.2965 -1.6221 -2.0015 0.9802
4.7168 -0.4383 -2.0645 0.9795
4.7839 -0.0154 -2.0849 0.9793
4.8114 0.4159 -2.1047 0.9791
4.7978 0.8516 -2.1237 0.9790
4.5033 2.1422 -2.1733 0.9785
3.8348 3.3117 -2.2082 0.9781
2.0392 4.6761 -2.2233 0.9780
0.2690 5.0272 -2.1941 0.9783
-0.0931 2.5862 -1.1278 0.9888
-1.8629 4.4841 -2.1162 0.9790
-2.2354 4.2605 -2.0969 0.9792
-2.5821 4.0051 -2.0768 0.9794
-2.9005 3.7211 -2.0562 0.9796
-3.1884 3.4120 -2.0352 0.9798
-3.4444 3.0813 -2.0141 0.9800
-4.1292 1.6113 -1.9317 0.9808
-1.5690 0.4556 -0.7120 0.9929
-1.5291 -0.1152 -0.6683 0.9933
-1.5066 -0.2503 -0.6656 0.9934
-1.5513 -0.4028 -0.6985 0.9930
-4.0262 -1.8609 -1.9330 0.9808
-3.0698 -3.1027 -1.9022 0.9811
-2.7748 -3.3578 -1.8984 0.9812
-2.1298 -3.7920 -1.8955 0.9812
-1.7834 -3.9690 -1.8964 0.9812
-1.4236 -4.1179 -1.8989 0.9812
-0.2834 -4.3867 -1.9158 0.9810
0.1101 -4.4145 -1.9245 0.9809
1.2997 -4.3040 -1.9594 0.9806
2.0763 -4.0658 -1.9896 0.9803
2.4519 -3.8970 -2.0066 0.9801
3.1638 -3.4616 -2.0438 0.9797
3.4944 -3.1963 -2.0639 0.9795
4.0898 -2.5755 -2.1064 0.9791
4.3343 -2.2155 -2.1214 0.9790
2.3392 -0.9427 -1.0991 0.9891
4.4308 -1.3398 -2.0174 0.9800
4.5801 -0.9485 -2.0385 0.9798
4.6943 -0.5411 -2.0594 0.9796
4.7709 -0.1208 -2.0799 0.9794
4.7599 1.1800 -2.1372 0.9788
4.6722 1.6132 -2.1542 0.9787
4.3696 2.4519 -2.1837 0.9784
4.1561 2.8482 -2.1958 0.9783
3.9032 3.2229 -2.2060 0.9782
3.6129 3.5718 -2.2141 0.9781
3.2881 3.8906 -2.2200 0.9780
2.1427 4.6311 -2.2239 0.9780
1.7178 4.7967 -2.2205 0.9780
0.9393 3.6114 -1.6263 0.9838
0.8318 4.9950 -2.2069 0.9781
0.3805 5.0264 -2.1969 0.9782
-0.0363 2.6128 -1.1388 0.9887
-0.9476 4.8548 -2.1557 0.9786
-1.3667 4.7136 -2.1389 0.9788
-2.8245 3.7938 -2.0613 0.9796
-3.6152 2.8202 -1.9982 0.9802
-3.8123 2.4599 -1.9773 0.9804
-1.5204 0.1923 -0.6679 0.9933
-1.5295 -0.0812 -0.6675 0.9933
-1.5152 -0.2174 -0.6671 0.9933
-1.5355 -0.3627 -0.6876 0.9931
-3.6548 -2.4456 -1.9165 0.9810
-3.4086 -2.7518 -1.9092 0.9811
-3.1396 -3.0360 -1.9034 0.9811
-2.5401 -3.5334 -1.8965 0.9812
-1.8703 -3.9279 -1.8960 0.9812
-0.7665 -4.3082 -1.9070 0.9811
0.4084 -4.4143 -1.9320 0.9808
0.8058 -4.3857 -1.9433 0.9807
1.5950 -4.2299 -1.9702 0.9805
1.9819 -4.1024 -1.9856 0.9803
2.3600 -3.9418 -2.0023 0.9802
2.7268 -3.7483 -2.0201 0.9800
3.0792 -3.5224 -2.0390 0.9798
3.4145 -3.2648 -2.0589 0.9796
3.7297 -2.9764 -2.0796 0.9794
4.0217 -2.6585 -2.1011 0.9792
4.3887 -1.4337 -2.0121 0.9801
4.6695 -0.6431 -2.0542 0.9796
4.7556 -0.2257 -2.0749 0.9794
4.8029 0.2019 -2.0950 0.9792
4.7750 1.0723 -2.1329 0.9789
4.6979 1.5067 -2.1501 0.9787
4.5781 1.9345 -2.1660 0.9785
4.2127 2.7521 -2.1930 0.9783
3.9692 3.1326 -2.2037 0.9782
3.0229 4.1085 -2.2230 0.9780
2.2450 4.5836 -2.2244 0.9780
1.8243 4.7598 -2.2215 0.9780
0.4922 5.0229 -2.1995 0.9782
0.0224 2.7220 -1.1863 0.9882
-0.8416 4.8834 -2.1597 0.9786
-1.6702 4.5819 -2.1254 0.9789
-2.7468 3.8649 -2.0664 0.9795
-3.0500 3.5678 -2.0456 0.9797
-3.5612 2.9069 -2.0034 0.9801
-2.6402 1.4619 -1.3152 0.9869
-2.7609 1.2206 -1.3156 0.9869
-1.5133 0.2255 -0.6668 0.9933
-1.5296 0.0896 -0.6678 0.9933
-1.5219 -0.1841 -0.6681 0.9933
-1.5178 -0.3233 -0.6763 0.9933
1.0713 3.7599 -1.8097 0.9829
0.8861 4.6545 -2.1932 0.9793
0.0253 2.7380 -1.2674 0.9880
-0.3741 4.6542 -2.1613 0.9796
-2.5750 3.6309 -2.0604 0.9806
