ply
format ascii 1.0
element vertex 355
property float32 x
property float32 y
property float32 z
property float32 I
end_header
2.1148 5.1879 0.9879 0.9775
1.1699 5.4661 0.9857 0.9776
0.6917 5.6075 0.9963 0.9773
0.1992 5.7535 1.0151 0.9769
-0.3163 5.9068 1.0430 0.9763
0.1990 5.7467 0.8809 0.9770
-0.3160 5.8996 0.9051 0.9764
-1.4594 6.2404 0.9818 0.9744
-2.1179 6.4372 1.0381 0.9729
-2.7390 1.3567 0.4683 0.9877
1.1950 5.5835 0.7436 0.9772
0.7120 5.7726 0.7574 0.9768
0.1988 5.7400 0.7479 0.9771
-0.3156 5.8925 0.7684 0.9765
-2.7393 1.3568 0.3981 0.9877
2.1076 5.1702 0.5995 0.9778
1.6362 5.3089 0.5965 0.9779
1.1937 5.5772 0.6125 0.9773
-0.3152 5.8855 0.6329 0.9766
-1.5019 6.4221 0.7082 0.9738
1.1923 5.5710 0.4823 0.9774
0.7104 5.7595 0.4913 0.9770
0.1983 5.7267 0.4851 0.9773
-0.8612 6.0404 0.5165 0.9758
-1.5000 6.4139 0.5576 0.9739
2.1029 5.1586 0.3454 0.9779
0.7096 5.7530 0.3594 0.9770
0.1981 5.7201 0.3549 0.9773
-0.8601 6.0330 0.3779 0.9759
-2.1063 6.4021 0.4179 0.9734
-2.7434 1.3589 0.1898 0.9878
1.6307 5.2912 0.2183 0.9781
1.1897 5.5586 0.2241 0.9775
0.7088 5.7465 0.2283 0.9771
0.1978 5.7136 0.2254 0.9774
-1.4961 6.3975 0.2591 0.9740
-2.8421 6.6119 0.2838 0.9716
-2.7448 1.3596 0.1208 0.9878
2.0982 5.1471 0.0939 0.9780
1.1884 5.5524 0.0959 0.9775
0.7080 5.7401 0.0977 0.9771
0.1976 5.7071 0.0965 0.9774
-2.8380 6.6024 0.1214 0.9717
2.0959 5.1414 -0.0313 0.9780
1.6271 5.2795 -0.0311 0.9781
1.1870 5.5463 -0.0319 0.9776
0.7072 5.7336 -0.0325 0.9772
0.1974 5.7005 -0.0321 0.9774
-0.3134 5.8509 -0.0330 0.9768
-0.8570 6.0110 -0.0342 0.9760
-2.1037 6.3942 -0.0379 0.9734
-2.7475 1.3609 -0.0173 0.9878
1.6253 5.2737 -0.1554 0.9782
0.7065 5.7272 -0.1625 0.9772
0.1972 5.6941 -0.1604 0.9775
-0.3130 5.8441 -0.1648 0.9769
-2.1047 6.3972 -0.1896 0.9734
-2.8299 6.5835 -0.2018 0.9717
-2.7489 1.3616 -0.0864 0.9878
2.0912 5.1300 -0.2810 0.9781
1.6235 5.2678 -0.2796 0.9782
1.1844 5.5340 -0.2870 0.9776
0.1969 5.6876 -0.2886 0.9775
-2.1057 6.4001 -0.3417 0.9734
-2.8258 6.5741 -0.3629 0.9717
1.6217 5.2620 -0.4037 0.9782
0.7049 5.7144 -0.4222 0.9772
-0.3122 5.8304 -0.4281 0.9769
-2.7517 1.3630 -0.2252 0.9878
0.7041 5.7080 -0.5521 0.9772
0.1965 5.6746 -0.5451 0.9774
-1.4848 6.3489 -0.6260 0.9741
-2.1076 6.4060 -0.6474 0.9733
-2.8177 6.5552 -0.6850 0.9717
-2.7531 1.3637 -0.2950 0.9877
-18.8611 5.4986 -1.8861 0.9241
-18.1193 1.9542 -1.7496 0.9294
-17.0397 -1.1741 -1.6398 0.9337
-15.6943 -3.9244 -1.5531 0.9371
1.6181 5.2504 -0.6526 0.9781
-0.8518 5.9746 -0.7169 0.9760
-2.1086 6.4090 -0.8014 0.9732
-2.8137 6.5458 -0.8463 0.9717
-14.6117 12.9257 -2.3173 0.9244
-15.0836 11.1400 -2.2274 0.9272
-2.7563 1.3653 -0.3654 0.9877
-15.6318 6.0951 -1.9930 0.9346
-15.5699 4.5391 -1.9265 0.9368
-15.4055 3.0516 -1.8655 0.9387
-13.3675 -3.3426 -1.6368 0.9460
2.0819 5.1072 -0.7814 0.9780
1.6164 5.2445 -0.7776 0.9781
1.1517 5.3812 -0.7797 0.9780
0.1960 5.6616 -0.8027 0.9774
-0.8508 5.9673 -0.8540 0.9759
-1.4810 6.3327 -0.9215 0.9741
-2.1096 6.4120 -0.9564 0.9731
-2.7641 6.4304 -0.9917 0.9721
-9.7915 14.8736 -2.5231 0.9306
-10.6986 13.4953 -2.4401 0.9328
-12.8864 7.8656 -2.1391 0.9408
-13.2306 5.1588 -2.0121 0.9442
-13.2461 3.8616 -1.9550 0.9458
-13.1684 2.6084 -1.9021 0.9472
-13.0054 1.4026 -1.8534 0.9485
-12.7641 0.2466 -1.8089 0.9497
-12.4512 -0.8580 -1.7684 0.9508
-12.0725 -1.9100 -1.7318 0.9518
2.0796 5.1014 -0.9076 0.9779
1.6145 5.2386 -0.9031 0.9780
1.1504 5.3752 -0.9056 0.9780
0.7017 5.6887 -0.9442 0.9770
-0.3108 5.8029 -0.9573 0.9767
-0.8459 5.9328 -0.9872 0.9760
-1.4052 6.0086 -1.0166 0.9753
-2.7297 6.3504 -1.1387 0.9724
-9.0095 11.3646 -2.3891 0.9429
-9.6964 10.2340 -2.3225 0.9445
-10.2654 9.0809 -2.2578 0.9460
-10.7206 7.9177 -2.1956 0.9474
-11.0674 6.7553 -2.1360 0.9488
-11.5163 3.3573 -1.9762 0.9525
-11.4894 2.2759 -1.9295 0.9536
-11.2066 0.2165 -1.8465 0.9556
-10.9618 -0.7553 -1.8101 0.9564
-10.6548 -1.6857 -1.7771 0.9572
1.6017 5.1971 -1.0222 0.9781
0.6697 5.4294 -1.0282 0.9780
-0.3009 5.6195 -1.0578 0.9774
-0.8228 5.7713 -1.0957 0.9766
-1.3919 5.9518 -1.1489 0.9754
-1.7841 5.4227 -1.0730 0.9770
-2.7884 6.4871 -1.3272 0.9717
-7.2137 9.0994 -2.1826 0.9538
-8.9240 7.8943 -2.2395 0.9527
-10.1774 2.9670 -1.9926 0.9578
-10.1815 2.0168 -1.9509 0.9586
-9.9798 0.1928 -1.8762 0.9602
-9.2179 -2.3050 -1.7859 0.9621
2.0117 4.9348 -1.1265 0.9784
0.6578 5.3331 -1.1359 0.9783
0.0950 2.7445 -0.5805 0.9888
-0.1459 2.7237 -0.5766 0.9889
-5.0443 9.3649 -2.2484 0.9574
-5.7290 8.7024 -2.2023 0.9583
-6.8662 7.2469 -2.1102 0.9600
-8.6086 5.2545 -2.1319 0.9596
-2.7694 1.3717 -0.6533 0.9874
-9.1093 2.6556 -2.0057 0.9620
-9.1330 1.8091 -1.9680 0.9627
-9.0912 0.9805 -1.9328 0.9633
-8.8256 -0.6081 -1.8700 0.9645
-8.3412 -2.0858 -1.8175 0.9655
2.0335 4.9885 -1.2661 0.9781
1.5787 5.1222 -1.2597 0.9782
1.1263 5.2624 -1.2648 0.9781
0.0932 2.6931 -0.6333 0.9890
-0.1434 2.6777 -0.6302 0.9890
-1.7855 5.4270 -1.3427 0.9768
-2.7932 6.4980 -1.6623 0.9714
-4.4719 8.3023 -2.2163 0.9620
-5.6440 7.1193 -2.1352 0.9634
-6.1299 6.4697 -2.0946 0.9640
-7.1804 4.3827 -1.9771 0.9660
-8.0322 -0.5535 -1.8922 0.9675
2.0685 5.0742 -1.4188 0.9776
1.6057 5.2098 -1.4115 0.9777
0.6769 5.4878 -1.4317 0.9774
0.0927 2.6768 -0.6935 0.9890
-0.8455 5.9301 -1.5509 0.9756
-1.4260 6.0975 -1.6213 0.9745
-1.7863 5.4294 -1.4799 0.9767
-2.7890 6.4883 -1.8286 0.9712
-4.5756 6.9505 -2.1545 0.9662
-5.5305 5.8371 -2.0820 0.9673
-6.5140 3.9760 -1.9759 0.9690
-2.7761 1.3751 -0.8021 0.9873
-7.4069 2.8881 -2.0584 0.9677
-7.5095 2.1892 -2.0253 0.9682
-7.5427 0.8135 -1.9643 0.9691
-6.9916 -1.7483 -1.8660 0.9707
2.0676 5.0721 -1.5506 0.9775
1.6053 5.2086 -1.5430 0.9776
0.6761 5.4813 -1.5635 0.9773
-0.1423 2.6566 -0.7531 0.9890
-2.7848 6.4785 -1.9963 0.9711
-4.6177 5.8247 -2.1042 0.9696
-5.0326 5.3116 -2.0714 0.9700
-5.3941 4.7717 -2.0388 0.9705
-6.8938 2.0097 -2.0328 0.9706
-6.9435 1.3754 -2.0038 0.9710
-6.6468 -1.0516 -1.9051 0.9724
-6.4600 -1.6153 -1.8851 0.9727
0.6753 5.4747 -1.6967 0.9772
0.0934 2.6976 -0.8302 0.9888
-1.7879 5.4342 -1.7596 0.9763
-2.7805 6.4686 -2.1656 0.9710
-3.3170 6.1580 -2.1514 0.9712
-3.7938 5.7629 -2.1222 0.9715
-4.9499 4.3787 -2.0327 0.9727
-2.7902 1.3821 -0.9577 0.9871
-6.3652 1.8557 -2.0393 0.9726
-6.1669 -0.9757 -1.9204 0.9742
1.6015 5.1962 -1.8074 0.9773
0.6745 5.4681 -1.8314 0.9770
-1.4202 6.0727 -2.0730 0.9741
-2.5686 5.9758 -2.1621 0.9730
-3.8917 4.9090 -2.0823 0.9739
-4.2518 4.4876 -2.0549 0.9743
-4.5684 4.0413 -2.0275 0.9746
-4.8405 3.5749 -2.0003 0.9750
-5.0676 3.0932 -1.9735 0.9753
-2.7986 1.3862 -1.0381 0.9869
-5.3873 2.1006 -1.9221 0.9759
-5.9706 0.6439 -1.9962 0.9750
-5.8616 -0.4039 -1.9530 0.9755
-5.7462 -0.9091 -1.9338 0.9758
-5.5927 -1.3985 -1.9163 0.9760
0.7377 3.4470 -1.2606 0.9851
-0.8411 5.8991 -2.1309 0.9750
-1.3952 5.9659 -2.1910 0.9743
-1.7895 5.4391 -2.0476 0.9760
-2.3709 5.5156 -2.1469 0.9748
-3.6023 4.5439 -2.0736 0.9757
-4.2370 3.7481 -2.0229 0.9763
-4.4937 3.3188 -1.9977 0.9765
-2.8072 1.3905 -1.1203 0.9868
-5.0154 1.9556 -1.9250 0.9774
-5.4931 1.6014 -2.0462 0.9760
-5.5723 0.6010 -2.0042 0.9765
-5.5451 0.1071 -1.9833 0.9767
-5.4785 -0.3775 -1.9638 0.9769
-5.3741 -0.8503 -1.9457 0.9772
-5.2336 -1.3087 -1.9292 0.9773
0.0944 2.7263 -1.0454 0.9884
-0.1344 2.5088 -0.9628 0.9893
-2.1988 5.1153 -2.1337 0.9764
-2.6133 4.8517 -2.1118 0.9767
-3.6658 3.8690 -2.0425 0.9774
-3.9460 3.4907 -2.0189 0.9777
-4.1887 3.0935 -1.9955 0.9779
-4.3931 2.6815 -1.9724 0.9782
-2.8124 1.3931 -1.2027 0.9866
-4.6865 1.8274 -1.9277 0.9787
-5.2185 0.5628 -2.0114 0.9778
-5.1965 0.1004 -1.9917 0.9780
-5.1373 -0.3540 -1.9734 0.9782
-5.0423 -0.7977 -1.9563 0.9784
-4.9130 -1.2285 -1.9407 0.9785
2.0550 5.0412 -2.2281 0.9767
1.5956 5.1770 -2.2172 0.9769
0.6631 5.3753 -2.2167 0.9769
0.0938 2.7097 -1.1097 0.9883
-0.1339 2.4993 -1.0244 0.9892
-0.7506 5.2646 -2.1765 0.9773
-2.0476 4.7636 -2.1221 0.9778
-2.4354 4.5213 -2.1018 0.9780
-2.7955 4.2465 -2.0808 0.9783
-3.9181 2.8937 -1.9935 0.9792
-2.9844 1.1637 -1.3110 0.9863
-1.9170 0.0370 -0.7847 0.9917
-1.9513 -0.1345 -0.8005 0.9916
1.4968 4.8566 -2.2148 0.9781
0.7526 3.5162 -1.5671 0.9844
-0.1338 2.4983 -1.0904 0.9891
-0.7003 4.9118 -2.1623 0.9786
-1.5273 4.6422 -2.1298 0.9789
-2.6159 3.9736 -2.0733 0.9795
-3.4583 3.0593 -2.0123 0.9801
-3.6763 2.7151 -1.9918 0.9803
-2.6921 1.3335 -1.3093 0.9870
-1.5054 0.2982 -0.6688 0.9933
-1.5248 0.1645 -0.6684 0.9933
-1.5295 -0.1054 -0.6681 0.9933
1.3989 4.5388 -2.1985 0.9793
0.5777 4.6833 -2.1843 0.9794
0.1626 4.6946 -2.1744 0.9795
-0.1347 2.5143 -1.1655 0.9890
-1.0504 4.4915 -2.1351 0.9799
-1.4310 4.3494 -2.1194 0.9800
-1.7939 4.1732 -2.1026 0.9802
-2.1361 3.9656 -2.0850 0.9803
-2.4550 3.7292 -2.0667 0.9805
-2.7484 3.4669 -2.0479 0.9807
-3.0144 3.1815 -2.0287 0.9809
-3.4585 2.5543 -1.9902 0.9812
-1.3094 0.2594 -0.6179 0.9941
-1.3350 0.1440 -0.6215 0.9941
-1.3361 0.0258 -0.6186 0.9941
-1.3233 -0.2094 -0.6201 0.9941
-1.3097 -0.3275 -0.6249 0.9941
1.6836 4.1300 -2.1877 0.9803
1.3113 4.2546 -2.1839 0.9804
0.7983 3.7301 -1.8711 0.9831
0.5417 4.3918 -2.1706 0.9805
0.1525 4.4037 -2.1614 0.9806
-0.1403 2.6207 -1.2873 0.9884
-0.6153 4.3157 -2.1383 0.9808
-0.9864 4.2178 -2.1248 0.9809
-1.3444 4.0862 -2.1101 0.9810
-2.0088 3.7294 -2.0778 0.9813
-2.8394 2.9968 -2.0250 0.9818
-3.4293 2.0932 -1.9707 0.9823
-1.1306 0.5600 -0.6189 0.9944
-1.1590 0.3379 -0.5922 0.9946
-1.1748 0.2327 -0.5874 0.9947
-1.1963 0.0231 -0.5869 0.9947
-1.1840 -0.1873 -0.5880 0.9947
-1.1593 -0.2899 -0.5862 0.9947
1.2324 3.9986 -2.1707 0.9813
0.7910 3.6956 -1.9606 0.9831
0.1434 4.1413 -2.1497 0.9815
-0.1407 2.6275 -1.3650 0.9882
-0.5790 4.0611 -2.1281 0.9817
-0.9286 3.9705 -2.1154 0.9818
-1.2661 3.8481 -2.1016 0.9819
-2.1783 3.3090 -2.0552 0.9823
-2.4412 3.0793 -2.0386 0.9824
-2.8941 2.5602 -2.0045 0.9827
-3.0816 2.2759 -1.9874 0.9829
-0.9842 0.6007 -0.5981 0.9948
-1.0317 0.5110 -0.5973 0.9948
-1.0637 0.3101 -0.5748 0.9950
-1.1024 0.1189 -0.5752 0.9950
-1.1065 0.0214 -0.5741 0.9950
-1.0720 -0.2681 -0.5732 0.9950
0.7879 3.6810 -2.0618 0.9830
0.4799 3.8908 -2.1471 0.9823
0.1352 3.9032 -2.1391 0.9823
-0.5460 3.8298 -2.1188 0.9825
-1.1948 3.6316 -2.0939 0.9827
-1.4998 3.4891 -2.0801 0.9828
-1.7884 3.3201 -2.0654 0.9829
-2.5348 2.6754 -2.0186 0.9833
-2.7384 2.4224 -2.0024 0.9835
-0.8468 0.6254 -0.5766 0.9952
-0.9015 0.5503 -0.5785 0.9952
-0.9717 0.3789 -0.5712 0.9953
-0.9827 0.2865 -0.5606 0.9953
-1.0086 0.1998 -0.5631 0.9953
-1.0236 0.1104 -0.5639 0.9953
-1.0275 0.0199 -0.5629 0.9953
-0.9953 -0.2489 -0.5619 0.9953
1.4064 3.4501 -2.1510 0.9829
-0.1421 2.6529 -1.5339 0.9878
-0.5159 3.6186 -2.1103 0.9833
-0.8279 3.5402 -2.0991 0.9833
-2.1852 2.7565 -2.0309 0.9839
-0.7876 0.5817 -0.5653 0.9955
-0.8987 0.3504 -0.5569 0.9956
-0.9157 0.2670 -0.5507 0.9956
-0.9395 0.1861 -0.5530 0.9956
-0.9575 0.0185 -0.5529 0.9956
-0.9566 -0.0659 -0.5536 0.9956
-0.9470 -0.1498 -0.5535 0.9956
