ply
format ascii 1.0
element vertex 1593
property float32 x
property float32 y
property float32 z
property float32 I
end_header
3.2672 4.9492 0.6368 0.9764
2.2132 5.1633 0.6032 0.9777
1.2871 5.5873 0.6157 0.9772
0.7984 5.7849 0.6271 0.9768
-1.4491 6.4826 0.7133 0.9736
-2.7612 1.3619 0.3306 0.9877
12.9023 -1.5351 1.3952 0.9491
11.6546 1.7541 1.2656 0.9537
10.4778 2.5491 1.1579 0.9575
9.0543 3.0802 1.0270 0.9623
7.8060 3.4596 0.9169 0.9662
6.7865 3.7645 0.8334 0.9693
3.8834 4.5429 0.6418 0.9762
2.9486 5.0470 0.6277 0.9768
2.4004 5.1057 0.6058 0.9776
1.4423 5.4009 0.6003 0.9778
-1.2012 6.4055 0.6998 0.9741
-2.5266 6.6336 0.7622 0.9718
-6.2142 12.7607 1.5241 0.9445
12.3903 -0.1836 1.0490 0.9515
13.1918 0.9839 1.1198 0.9483
6.6302 3.8031 0.6470 0.9698
5.8600 4.0961 0.6052 0.9717
5.0835 4.2758 0.5623 0.9737
4.4434 4.4718 0.5337 0.9750
3.8351 4.6189 0.5082 0.9762
3.3833 4.9065 0.5045 0.9764
1.8404 5.2715 0.4727 0.9778
0.3919 5.7472 0.4876 0.9771
-0.1246 5.8789 0.4978 0.9767
-0.6708 6.0483 0.5151 0.9759
-1.2967 6.4061 0.5533 0.9741
-1.9582 6.5866 0.5817 0.9728
-2.6477 6.6629 0.6069 0.9716
12.1159 -0.5984 1.0269 0.9525
11.0654 2.4564 0.9595 0.9555
9.3618 2.9753 0.8316 0.9613
8.1300 3.4084 0.7463 0.9652
6.1078 3.9626 0.6163 0.9712
4.0806 4.5829 0.5195 0.9757
3.0616 5.0054 0.4967 0.9767
2.4754 5.0002 0.4723 0.9779
1.9962 5.1402 0.4668 0.9781
-0.4549 5.9814 0.5078 0.9762
-1.0267 6.1588 0.5286 0.9752
-1.6915 6.5037 0.5689 0.9734
-2.3518 6.5708 0.5908 0.9724
2.3861 -0.8756 0.2152 0.9898
11.8578 -0.9970 1.0073 0.9534
13.3953 1.2716 1.1390 0.9474
9.9641 2.7918 0.8760 0.9593
8.5215 3.2314 0.7715 0.9641
6.4314 3.8638 0.6351 0.9703
5.6873 4.1489 0.5959 0.9721
4.9326 4.3220 0.5552 0.9740
4.3072 4.5135 0.5281 0.9753
3.7105 4.6572 0.5041 0.9764
1.2857 5.5810 0.4848 0.9773
-0.2450 5.9163 0.5013 0.9765
-2.0710 6.4834 0.5762 0.9730
12.2743 -0.3579 1.0395 0.9519
10.6352 2.5874 0.9266 0.9570
5.2444 4.2843 0.5733 0.9732
4.5418 4.4416 0.5378 0.9748
3.4694 4.8801 0.5069 0.9763
1.9169 5.2479 0.4730 0.9778
0.9915 5.7183 0.4913 0.9770
0.4853 5.8749 0.4990 0.9766
-0.5804 6.0203 0.5120 0.9760
-1.8461 6.5518 0.5762 0.9730
2.3716 -0.9250 0.1579 0.9898
11.4580 1.8928 0.7201 0.9545
8.8005 3.1353 0.5793 0.9633
7.6792 3.5360 0.5242 0.9667
6.6200 3.7972 0.4732 0.9699
5.8516 4.0902 0.4427 0.9718
4.4377 4.4661 0.3904 0.9751
2.8600 5.0605 0.3605 0.9770
1.3625 5.4124 0.3461 0.9779
-1.2996 6.4206 0.4062 0.9741
-2.6439 6.6533 0.4440 0.9717
13.2447 -1.8478 0.8293 0.9478
11.5268 -0.5693 0.7156 0.9548
11.8492 0.4732 0.7354 0.9536
8.1157 3.4024 0.5457 0.9653
4.6771 4.3926 0.3979 0.9746
4.0756 4.5773 0.3800 0.9757
3.5877 4.8367 0.3734 0.9762
2.4715 4.9923 0.3454 0.9779
0.6006 5.8323 0.3636 0.9768
-0.4544 5.9741 0.3715 0.9763
-2.3485 6.5615 0.4322 0.9725
2.3870 -0.8759 0.1577 0.9899
11.7223 0.0631 0.7269 0.9541
9.9433 2.7860 0.6403 0.9595
5.6793 4.1430 0.4359 0.9722
4.3018 4.5078 0.3864 0.9753
3.7061 4.6515 0.3688 0.9764
2.2082 5.1516 0.3476 0.9778
1.2842 5.5747 0.3547 0.9773
0.7966 5.7717 0.3613 0.9769
0.2754 5.7483 0.3569 0.9772
-0.2447 5.9092 0.3667 0.9766
-0.7990 6.0809 0.3803 0.9757
-2.0681 6.4745 0.4215 0.9731
11.7837 -1.4020 0.7359 0.9536
11.5982 -0.3382 0.7195 0.9546
11.9248 0.7177 0.7408 0.9533
6.7653 3.7528 0.4797 0.9695
4.5360 4.4359 0.3934 0.9749
3.8738 4.5318 0.3697 0.9764
2.9418 5.0353 0.3616 0.9769
2.3950 5.0941 0.3491 0.9777
0.4847 5.8681 0.3651 0.9767
-0.5797 6.0130 0.3746 0.9761
-1.1982 6.3892 0.4031 0.9743
-2.5193 6.6146 0.4389 0.9720
-2.7176 1.4592 0.1913 0.9877
2.3687 -0.9239 0.1003 0.9899
11.3661 -1.1873 0.4506 0.9553
11.6464 -0.1726 0.4593 0.9544
11.9760 0.8932 0.4735 0.9531
11.4548 1.8923 0.4578 0.9546
10.5470 2.7266 0.4296 0.9573
8.7840 3.1295 0.3677 0.9634
3.3754 4.8950 0.2345 0.9765
2.8568 5.0547 0.2289 0.9770
2.3146 5.1122 0.2213 0.9778
0.9092 5.7301 0.2288 0.9770
0.3927 5.7596 0.2276 0.9772
-0.1243 5.8651 0.2313 0.9768
-0.6691 6.0335 0.2394 0.9760
-1.9529 6.5689 0.2702 0.9729
-2.6401 6.6437 0.2819 0.9718
13.1510 -1.8347 0.5236 0.9482
11.5238 -0.5692 0.4549 0.9549
11.8461 0.4731 0.4675 0.9536
12.1096 1.5731 0.4815 0.9523
11.0152 2.4453 0.4449 0.9558
9.3249 2.9636 0.3858 0.9616
8.1015 3.3965 0.3464 0.9654
6.9723 3.6854 0.3110 0.9689
5.3891 4.2240 0.2700 0.9730
4.6711 4.3870 0.2527 0.9747
4.0705 4.5716 0.2414 0.9758
2.4676 4.9845 0.2193 0.9780
1.9917 5.1286 0.2169 0.9782
1.5450 5.3496 0.2196 0.9780
0.5999 5.8256 0.2309 0.9768
11.4228 -0.9604 0.4520 0.9551
11.7193 0.0631 0.4621 0.9542
12.0536 1.1443 0.4774 0.9527
11.5331 2.1453 0.4626 0.9541
7.3544 3.5681 0.3223 0.9678
4.2964 4.5022 0.2454 0.9754
3.7016 4.6459 0.2342 0.9765
3.2558 4.9318 0.2330 0.9766
2.6738 4.9624 0.2223 0.9777
1.7287 5.2929 0.2196 0.9780
1.2531 5.4396 0.2201 0.9779
0.2751 5.7416 0.2267 0.9773
-1.4434 6.4575 0.2609 0.9739
11.7851 -1.4021 0.4680 0.9536
11.9217 0.7175 0.4709 0.9533
11.5638 1.7404 0.4611 0.9543
9.0023 3.0625 0.3749 0.9627
7.8428 3.4759 0.3383 0.9662
5.9687 4.0459 0.2843 0.9715
4.5302 4.4303 0.2499 0.9750
3.8691 4.5262 0.2348 0.9764
3.4612 4.8686 0.2355 0.9764
0.4842 5.8614 0.2319 0.9767
-0.5790 6.0057 0.2379 0.9761
-1.1967 6.3811 0.2560 0.9743
-1.8554 6.5850 0.2698 0.9730
-2.5158 6.6052 0.2787 0.9721
-6.2107 12.7533 0.5593 0.9448
-2.7208 1.4608 0.1218 0.9877
-8.4323 -10.5200 0.2277 0.9475
14.7827 1.1026 0.2504 0.9424
11.4516 1.8917 0.1961 0.9546
10.6062 2.7419 0.1850 0.9571
8.7676 3.1236 0.1572 0.9634
5.0632 4.2587 0.1118 0.9739
4.4266 4.4548 0.1061 0.9752
3.8212 4.6021 0.1010 0.9764
2.3120 5.1065 0.0947 0.9778
-0.6683 6.0262 0.1024 0.9760
-2.6363 6.6342 0.1206 0.9718
12.0770 1.5689 0.2057 0.9524
10.9903 2.4397 0.1902 0.9560
9.3067 2.9578 0.1650 0.9617
8.0874 3.3906 0.1481 0.9655
6.0811 3.9453 0.1224 0.9714
5.4976 4.3090 0.1180 0.9724
4.6651 4.3814 0.1081 0.9747
3.0510 4.9880 0.0988 0.9769
1.9894 5.1229 0.0928 0.9783
1.5432 5.3436 0.0940 0.9780
0.0774 5.7959 0.0979 0.9771
-0.4533 5.9598 0.1010 0.9764
-1.6979 6.5283 0.1139 0.9734
2.3889 -0.8766 0.0430 0.9899
11.5167 2.1423 0.1979 0.9542
8.4750 3.2137 0.1531 0.9644
5.7854 4.2204 0.1210 0.9718
4.9132 4.3049 0.1103 0.9742
4.2910 4.4966 0.1050 0.9754
2.2032 5.1400 0.0945 0.9779
1.7268 5.2870 0.0939 0.9780
-0.2441 5.8952 0.0997 0.9767
-1.4416 6.4492 0.1116 0.9739
-2.0625 6.4569 0.1145 0.9732
-2.7561 1.3594 0.0519 0.9878
15.0731 0.9072 0.2551 0.9414
11.5341 1.7359 0.1970 0.9544
10.8156 2.6313 0.1880 0.9564
8.9851 3.0567 0.1603 0.9627
7.8294 3.4700 0.1447 0.9663
5.3357 4.3589 0.1164 0.9728
2.9351 5.0238 0.0983 0.9770
2.3896 5.0826 0.0949 0.9778
1.9105 5.2303 0.0941 0.9780
1.4358 5.3767 0.0940 0.9780
0.9881 5.6990 0.0977 0.9771
-0.0400 5.8322 0.0985 0.9769
-1.1952 6.3731 0.1095 0.9744
-1.8530 6.5762 0.1154 0.9730
-2.5122 6.5958 0.1192 0.9722
-8.4407 -10.5305 -0.0760 0.9474
2.3661 -0.9228 -0.0143 0.9899
11.4484 1.8912 -0.0653 0.9546
10.5837 2.7361 -0.0615 0.9572
5.9523 4.1606 -0.0409 0.9714
3.8166 4.5966 -0.0336 0.9764
2.3094 5.1007 -0.0315 0.9779
1.8321 5.2480 -0.0313 0.9780
0.9071 5.7172 -0.0326 0.9771
0.3936 5.7721 -0.0326 0.9771
-0.1240 5.8513 -0.0330 0.9769
-1.2947 6.3962 -0.0367 0.9742
-1.9477 6.5513 -0.0385 0.9730
15.4584 0.6173 -0.0871 0.9400
12.0447 1.5647 -0.0684 0.9526
8.0734 3.3847 -0.0493 0.9656
6.9503 3.6738 -0.0443 0.9690
6.0723 3.9395 -0.0408 0.9715
5.4902 4.3032 -0.0393 0.9725
3.0475 4.9823 -0.0329 0.9769
2.4599 4.9690 -0.0312 0.9781
1.9872 5.1172 -0.0309 0.9783
0.5985 5.8124 -0.0329 0.9769
0.0773 5.7892 -0.0326 0.9771
-0.4528 5.9527 -0.0336 0.9764
-1.0215 6.1280 -0.0350 0.9755
-1.6957 6.5198 -0.0379 0.9734
2.3898 -0.8769 -0.0143 0.9899
6.3929 3.8406 -0.0420 0.9706
5.7774 4.2146 -0.0403 0.9718
4.2857 4.4910 -0.0350 0.9755
2.6677 4.9511 -0.0317 0.9778
2.2008 5.1343 -0.0315 0.9779
1.2503 5.4275 -0.0314 0.9780
0.7939 5.7522 -0.0327 0.9770
-0.2438 5.8882 -0.0332 0.9767
-1.4397 6.4409 -0.0372 0.9739
-2.0597 6.4481 -0.0381 0.9733
2.3915 -0.9725 -0.0145 0.9897
15.0691 0.9070 -0.0850 0.9414
8.9681 3.0509 -0.0533 0.9628
6.7339 3.7353 -0.0434 0.9697
6.0328 4.0894 -0.0410 0.9713
5.3285 4.3531 -0.0387 0.9729
3.8597 4.5153 -0.0334 0.9765
3.4530 4.8572 -0.0336 0.9764
2.9317 5.0180 -0.0327 0.9770
2.3869 5.0769 -0.0316 0.9778
1.9084 5.2245 -0.0313 0.9780
1.4342 5.3707 -0.0313 0.9780
0.4831 5.8480 -0.0330 0.9768
-1.8505 6.5675 -0.0384 0.9731
-2.5086 6.5865 -0.0397 0.9722
-2.7271 1.4642 -0.0174 0.9877
-8.4491 -10.5410 -0.3804 0.9474
7.7921 3.5879 -0.2416 0.9663
6.5797 3.7741 -0.2136 0.9701
5.0498 4.2475 -0.1858 0.9739
2.8470 5.0374 -0.1629 0.9771
-0.1238 5.8444 -0.1646 0.9769
-0.6667 6.0116 -0.1703 0.9761
-1.9472 6.5496 -0.1924 0.9730
-2.6288 6.6152 -0.2004 0.9719
15.4543 0.6172 -0.4355 0.9400
12.0125 1.5605 -0.3411 0.9527
10.9410 2.4288 -0.3156 0.9561
9.2704 2.9462 -0.2739 0.9618
5.4828 4.2974 -0.1962 0.9725
4.6531 4.3701 -0.1797 0.9748
4.0556 4.5549 -0.1717 0.9759
3.5708 4.8138 -0.1688 0.9763
2.4561 4.9613 -0.1559 0.9781
1.5398 5.3317 -0.1563 0.9780
1.0980 5.6517 -0.1621 0.9772
-0.4522 5.9456 -0.1679 0.9764
-1.0203 6.1204 -0.1747 0.9755
-2.3355 6.5250 -0.1951 0.9726
2.3907 -0.8773 -0.0717 0.9899
18.4585 0.0994 -0.5198 0.9288
11.4616 2.1321 -0.3283 0.9544
7.3184 3.5507 -0.2290 0.9680
6.3833 3.8349 -0.2097 0.9706
5.7693 4.2087 -0.2011 0.9718
4.2804 4.4854 -0.1746 0.9755
3.6883 4.6293 -0.1667 0.9766
2.6647 4.9455 -0.1582 0.9778
2.1983 5.1285 -0.1571 0.9779
0.2742 5.7218 -0.1613 0.9773
-0.2435 5.8813 -0.1657 0.9767
-0.7951 6.0511 -0.1719 0.9759
-1.4379 6.4326 -0.1856 0.9740
-2.0569 6.4394 -0.1903 0.9733
-2.7536 1.3581 -0.0865 0.9878
2.3816 -0.9685 -0.0724 0.9898
15.0652 0.9067 -0.4250 0.9414
10.8065 2.6291 -0.3132 0.9565
7.9707 3.5326 -0.2455 0.9657
6.7235 3.7296 -0.2165 0.9697
6.0242 4.0836 -0.2049 0.9713
3.4490 4.8515 -0.1676 0.9765
2.9284 5.0123 -0.1635 0.9770
2.3842 5.0711 -0.1578 0.9778
0.9859 5.6862 -0.1625 0.9772
-0.0399 5.8186 -0.1638 0.9770
-1.1922 6.3570 -0.1821 0.9745
-2.5051 6.5772 -0.1982 0.9722
-8.3881 -10.4650 -0.6802 0.9477
14.7709 1.1017 -0.7512 0.9424
11.4421 1.8902 -0.5881 0.9546
10.5389 2.7245 -0.5520 0.9573
8.7188 3.1063 -0.4694 0.9636
5.9355 4.1488 -0.3673 0.9714
5.0431 4.2418 -0.3342 0.9740
4.4099 4.4380 -0.3173 0.9753
3.3597 4.8722 -0.3001 0.9766
2.8438 5.0317 -0.2931 0.9771
2.3043 5.0893 -0.2833 0.9779
1.8281 5.2363 -0.2813 0.9780
1.3549 5.3822 -0.2815 0.9780
0.9051 5.7044 -0.2929 0.9771
14.3428 -2.0010 -0.7344 0.9436
15.4502 0.6170 -0.7842 0.9399
11.9804 1.5563 -0.6127 0.9528
9.2524 2.9405 -0.4924 0.9619
8.2185 3.4455 -0.4519 0.9649
6.9285 3.6622 -0.3974 0.9691
6.0547 3.9281 -0.3660 0.9715
5.4753 4.2915 -0.3528 0.9725
3.5666 4.8082 -0.3036 0.9763
3.0405 4.9709 -0.2955 0.9769
1.5381 5.3258 -0.2811 0.9780
0.5972 5.7992 -0.2957 0.9769
0.0771 5.7758 -0.2929 0.9771
-0.4517 5.9384 -0.3020 0.9764
18.3904 0.0990 -0.9327 0.9290
14.7870 1.4038 -0.7533 0.9422
7.3065 3.5449 -0.4119 0.9680
6.3738 3.8291 -0.3771 0.9707
4.8939 4.2881 -0.3300 0.9743
4.2750 4.4798 -0.3140 0.9755
3.6839 4.6238 -0.2998 0.9766
2.6617 4.9399 -0.2846 0.9778
2.1958 5.1228 -0.2827 0.9779
0.7921 5.7392 -0.2938 0.9771
-2.0541 6.4306 -0.3424 0.9733
-2.7523 1.3575 -0.1556 0.9878
2.3761 -0.9662 -0.1301 0.9898
11.4456 1.7226 -0.5870 0.9547
10.8034 2.6283 -0.5639 0.9564
6.7132 3.7238 -0.3893 0.9697
6.0211 4.0815 -0.3689 0.9713
5.3143 4.3414 -0.3480 0.9729
4.5073 4.4079 -0.3197 0.9751
3.8504 4.5043 -0.3005 0.9765
3.4450 4.8458 -0.3015 0.9765
2.9250 5.0066 -0.2941 0.9770
2.3815 5.0655 -0.2839 0.9778
1.4310 5.3588 -0.2813 0.9780
0.4820 5.8347 -0.2969 0.9768
-0.0398 5.8118 -0.2947 0.9770
-1.1907 6.3490 -0.3276 0.9745
-1.8456 6.5501 -0.3451 0.9731
-2.5016 6.5679 -0.3564 0.9722
-2.7334 1.4676 -0.1573 0.9877
-8.3717 -10.4444 -0.9815 0.9477
-9.4576 -14.2352 -1.2531 0.9338
-8.1439 -15.0089 -1.2521 0.9338
-6.7899 -15.7130 -1.2551 0.9337
-5.3925 -16.3482 -1.2622 0.9333
-0.9071 -17.8354 -1.3094 0.9309
0.6995 -18.1854 -1.3344 0.9296
2.3701 -18.4567 -1.3644 0.9281
2.3621 -0.9213 -0.1859 0.9899
19.0452 -0.2822 -1.3966 0.9265
8.7026 3.1005 -0.6774 0.9636
7.7661 3.5760 -0.6269 0.9663
5.0364 4.2362 -0.4825 0.9740
4.4043 4.4325 -0.4582 0.9752
2.8405 5.0259 -0.4233 0.9771
2.3017 5.0836 -0.4092 0.9779
1.8260 5.2305 -0.4062 0.9780
0.3949 5.7908 -0.4256 0.9770
-0.1235 5.8307 -0.4276 0.9769
-0.6651 5.9970 -0.4424 0.9761
-1.2898 6.3719 -0.4767 0.9743
-2.6213 6.5964 -0.5204 0.9719
-19.0575 -4.5772 -1.4371 0.9244
-15.9099 -8.7644 -1.3318 0.9297
-14.7881 -9.9611 -1.3073 0.9310
-8.6568 -14.7179 -1.2520 0.9338
-5.9384 -16.1106 -1.2590 0.9335
-3.0391 -17.2272 -1.2826 0.9322
-1.5127 -17.6798 -1.3011 0.9313
1.7159 -18.3613 -1.3522 0.9287
5.2141 -18.7148 -1.4245 0.9250
14.3195 -1.9977 -1.0601 0.9437
15.4462 0.6169 -1.1334 0.9399
10.8919 2.4179 -0.8181 0.9562
9.2343 2.9348 -0.7105 0.9619
8.2042 3.4395 -0.6523 0.9649
6.9176 3.6565 -0.5737 0.9691
6.0459 3.9224 -0.5284 0.9715
4.6412 4.3590 -0.4669 0.9748
4.0457 4.5437 -0.4461 0.9759
3.5624 4.8025 -0.4384 0.9763
2.4485 4.9459 -0.4046 0.9781
1.9806 5.1001 -0.4012 0.9783
1.5364 5.3198 -0.4060 0.9780
0.0770 5.7691 -0.4230 0.9771
-0.4511 5.9313 -0.4362 0.9764
-1.0177 6.1052 -0.4538 0.9755
-2.3290 6.5069 -0.5067 0.9727
-17.4073 -6.9469 -1.3742 0.9276
-16.3346 -8.2765 -1.3427 0.9292
-14.0833 -10.6510 -1.2947 0.9316
-10.4475 -13.5878 -1.2567 0.9336
-9.1637 -14.4164 -1.2525 0.9338
-7.8412 -15.1743 -1.2524 0.9338
-5.0700 -16.4824 -1.2644 0.9332
-2.1097 -17.5133 -1.2934 0.9317
2.7575 -18.5067 -1.3719 0.9277
6.3479 -18.7497 -1.4514 0.9237
2.3926 -0.8779 -0.1869 0.9898
17.7684 0.0956 -1.3028 0.9312
14.7443 1.3997 -1.0859 0.9423
11.4266 2.1255 -0.8522 0.9545
8.4138 3.1905 -0.6598 0.9646
7.2946 3.5391 -0.5945 0.9680
5.7533 4.1970 -0.5222 0.9718
4.8875 4.2825 -0.4765 0.9743
4.2697 4.4742 -0.4535 0.9755
3.6795 4.6182 -0.4330 0.9766
3.2369 4.9033 -0.4308 0.9767
2.1934 5.1170 -0.4082 0.9779
1.2461 5.4093 -0.4070 0.9780
-0.2429 5.8674 -0.4306 0.9767
-2.0513 6.4219 -0.4943 0.9733
-18.8324 -4.9275 -1.4273 0.9249
-16.7539 -7.7740 -1.3542 0.9286
-15.6591 -9.0432 -1.3259 0.9300
-14.5295 -10.2195 -1.3025 0.9312
-13.3656 -11.3091 -1.2837 0.9322
-12.1674 -12.3172 -1.2695 0.9329
-8.5695 -10.3826 -0.9871 0.9474
-9.6648 -14.1044 -1.2537 0.9337
-8.3575 -14.8894 -1.2519 0.9338
-7.0101 -15.6046 -1.2543 0.9337
-2.6985 -17.3359 -1.2864 0.9321
2.0973 -18.4186 -1.3592 0.9283
3.8258 -18.6200 -1.3938 0.9266
5.6289 -18.7320 -1.4341 0.9246
14.9799 0.9016 -1.1003 0.9416
11.4164 1.7182 -0.8465 0.9548
10.8003 2.6275 -0.8150 0.9564
8.9172 3.0336 -0.6906 0.9629
7.9438 3.5206 -0.6371 0.9658
6.7028 3.7181 -0.5620 0.9697
5.3072 4.3356 -0.5025 0.9729
4.5016 4.4023 -0.4617 0.9751
2.3788 5.0598 -0.4099 0.9778
0.9837 5.6735 -0.4222 0.9772
0.4814 5.8280 -0.4288 0.9768
-0.0398 5.8050 -0.4256 0.9770
-1.1527 6.1466 -0.4585 0.9752
-1.8432 6.5414 -0.4983 0.9731
-2.4980 6.5587 -0.5146 0.9722
-18.2117 -5.8467 -1.4024 0.9262
-17.1678 -7.2567 -1.3666 0.9280
-14.9706 -9.7750 -1.3109 0.9308
-10.1603 -13.7816 -1.2554 0.9336
-7.5363 -15.3361 -1.2529 0.9338
-6.1630 -16.0090 -1.2578 0.9335
-4.7451 -16.6130 -1.2668 0.9331
-3.2792 -17.1478 -1.2801 0.9324
-1.7615 -17.6120 -1.2978 0.9315
-0.1876 -18.0032 -1.3201 0.9303
3.1486 -18.5523 -1.3797 0.9273
-9.4104 -9.8033 -1.3046 0.9469
-3.1017 -13.2858 -1.3098 0.9467
-1.9246 -13.6493 -1.3234 0.9461
5.9866 -14.3386 -1.4917 0.9395
8.0059 -15.2000 -1.6493 0.9333
11.3145 -14.4792 -1.7642 0.9288
13.0421 -13.9275 -1.8318 0.9262
14.8161 -13.2312 -1.9070 0.9233
19.4900 -0.2888 -1.8713 0.9247
10.4943 2.7130 -1.0406 0.9574
8.6865 3.0947 -0.8853 0.9636
5.8731 4.1052 -0.6879 0.9716
3.3518 4.8608 -0.5669 0.9766
2.8373 5.0202 -0.5536 0.9771
2.2991 5.0779 -0.5351 0.9779
1.3519 5.3702 -0.5317 0.9780
0.3953 5.7972 -0.5578 0.9769
-0.0599 2.8270 -0.2715 0.9887
-0.6643 5.9897 -0.5786 0.9761
-1.2782 6.3147 -0.6185 0.9744
-1.9499 6.5584 -0.6569 0.9729
-2.6175 6.5869 -0.6805 0.9719
-18.5916 3.9747 -1.8252 0.9264
-18.1791 2.2169 -1.7582 0.9291
-17.1022 -0.9790 -1.6446 0.9335
-16.4569 -2.4275 -1.5970 0.9353
-14.9887 -5.0501 -1.5185 0.9384
-13.3182 -7.3367 -1.4598 0.9407
-6.8177 -11.5912 -1.2910 0.9474
-5.7629 -12.1647 -1.2923 0.9473
-3.5470 -13.1281 -1.3055 0.9468
1.3349 -14.2839 -1.3773 0.9440
8.9991 -15.0294 -1.6818 0.9320
12.3681 -14.1573 -1.8048 0.9272
14.1245 -13.5186 -1.8770 0.9244
18.9111 -6.2072 -1.9109 0.9231
11.9165 1.5480 -1.1537 0.9529
10.8674 2.4125 -1.0687 0.9563
9.2163 2.9290 -0.9284 0.9619
4.6352 4.3534 -0.6105 0.9748
3.5581 4.7968 -0.5734 0.9763
1.9783 5.0943 -0.5247 0.9783
0.0381 2.8571 -0.2743 0.9886
-1.0165 6.0976 -0.5935 0.9755
-18.7252 4.6847 -1.8531 0.9254
-18.3496 2.8838 -1.7833 0.9281
-17.8822 1.1930 -1.7206 0.9305
-16.0305 -3.2693 -1.5707 0.9364
-9.1953 -9.9749 -1.3025 0.9469
-7.2165 -11.3530 -1.2915 0.9474
-5.0987 -12.4862 -1.2948 0.9472
-0.4290 -14.0057 -1.3452 0.9452
0.8349 -14.2201 -1.3676 0.9444
2.1400 -14.3623 -1.3941 0.9433
3.4877 -14.4279 -1.4250 0.9421
4.8792 -14.4115 -1.4607 0.9407
6.3157 -14.3069 -1.5014 0.9391
8.3703 -15.1419 -1.6610 0.9328
10.0111 -14.8153 -1.7166 0.9307
13.4395 -13.7831 -1.8482 0.9256
14.7017 1.3957 -1.4178 0.9424
11.4582 2.1314 -1.1189 0.9542
9.8011 2.7461 -0.9772 0.9599
8.3985 3.1847 -0.8623 0.9646
6.3547 3.8177 -0.7117 0.9706
5.7010 4.1588 -0.6775 0.9720
4.8811 4.2769 -0.6230 0.9743
3.2332 4.8976 -0.5634 0.9767
2.6556 4.9286 -0.5375 0.9778
2.1909 5.1113 -0.5339 0.9779
1.2447 5.4032 -0.5323 0.9780
0.7903 5.7262 -0.5550 0.9770
0.2732 5.7021 -0.5481 0.9773
-0.2427 5.8604 -0.5631 0.9767
-1.4324 6.4079 -0.6304 0.9740
-2.0485 6.4132 -0.6463 0.9733
-18.5065 3.5672 -1.8094 0.9271
-18.0732 1.8344 -1.7440 0.9296
-13.9864 -6.4899 -1.4803 0.9399
-13.1179 -7.5756 -1.4543 0.9409
-12.2065 -8.5857 -1.4327 0.9418
-8.5333 -10.3388 -1.2870 0.9476
-4.4212 -12.7846 -1.2987 0.9471
-3.2872 -13.2214 -1.3080 0.9467
0.3412 -14.1455 -1.3584 0.9447
1.6302 -14.3161 -1.3833 0.9437
4.3356 -14.4279 -1.4463 0.9413
5.7545 -14.3583 -1.4850 0.9397
9.3704 -14.9556 -1.6944 0.9315
11.0415 -14.5552 -1.7540 0.9292
12.7615 -14.0255 -1.8205 0.9266
14.5282 -13.3533 -1.8944 0.9238
14.9328 0.8988 -1.4362 0.9417
11.4032 1.7162 -1.1071 0.9547
10.7818 2.6230 -1.0653 0.9564
7.9303 3.5147 -0.8328 0.9657
5.9985 4.0661 -0.6957 0.9713
2.3762 5.0540 -0.5362 0.9778
1.8999 5.2012 -0.5316 0.9780
1.4278 5.3468 -0.5313 0.9780
0.4809 5.8214 -0.5608 0.9768
-0.0193 2.8217 -0.2709 0.9887
-0.5748 5.9623 -0.5751 0.9762
-1.8407 6.5327 -0.6516 0.9731
-2.4945 6.5494 -0.6728 0.9722
-2.7464 1.4746 -0.2993 0.9876
-18.2515 2.4918 -1.7685 0.9287
-17.7649 0.8252 -1.7074 0.9310
-17.1997 -0.7374 -1.6528 0.9332
-16.5648 -2.2013 -1.6043 0.9351
-15.8677 -3.5713 -1.5615 0.9367
-15.1145 -4.8524 -1.5240 0.9382
-14.3103 -6.0488 -1.4916 0.9395
-13.4591 -7.1647 -1.4638 0.9406
-11.6276 -9.1688 -1.4216 0.9422
-10.6516 -10.0627 -1.4068 0.9428
-8.9784 -10.1433 -1.3005 0.9470
-6.9839 -11.4935 -1.2912 0.9474
-5.9346 -12.0767 -1.2918 0.9474
-4.8502 -12.5990 -1.2961 0.9472
-2.5737 -13.4582 -1.3155 0.9464
-0.1465 -14.0603 -1.3499 0.9451
2.4412 -14.3840 -1.4007 0.9431
3.7987 -14.4316 -1.4327 0.9418
7.1348 -15.3175 -1.6223 0.9344
-6.4981 -9.7807 -1.3949 0.9538
-5.5544 -10.2365 -1.3834 0.9542
-4.6255 -10.7042 -1.3851 0.9541
-1.6603 -11.7747 -1.4125 0.9532
-0.6109 -12.0103 -1.4285 0.9527
4.1150 -13.0140 -1.6213 0.9465
10.8206 -11.5552 -1.8805 0.9382
12.2071 -10.9013 -1.9441 0.9362
14.9882 -9.1979 -2.0889 0.9316
16.3631 -8.1305 -2.1704 0.9290
2.3595 -0.9203 -0.3008 0.9899
18.7954 -3.6801 -2.2750 0.9258
7.5030 3.4548 -0.9812 0.9673
5.9103 4.1313 -0.8566 0.9714
5.0230 4.2250 -0.7797 0.9739
3.3478 4.8551 -0.7005 0.9765
2.8340 5.0144 -0.6842 0.9771
1.8219 5.2188 -0.6566 0.9780
0.3952 5.7949 -0.6899 0.9769
-0.0592 2.7922 -0.3317 0.9888
-0.6634 5.9824 -0.7150 0.9760
-1.2865 6.3557 -0.7703 0.9742
-1.9497 6.5580 -0.8127 0.9728
-14.4822 13.3895 -2.3429 0.9236
-15.4344 3.2997 -1.8748 0.9384
-14.8524 0.4767 -1.7652 0.9419
-13.4127 -3.2215 -1.6386 0.9460
-12.8089 -4.3157 -1.6056 0.9470
-11.4457 -6.3051 -1.5522 0.9487
-9.8992 -8.0387 -1.5148 0.9499
-6.9054 -9.6533 -1.4099 0.9533
-5.9012 -10.0330 -1.3826 0.9542
-4.9875 -10.5280 -1.3838 0.9542
-4.0421 -10.9660 -1.3883 0.9540
-3.0655 -11.3461 -1.3961 0.9538
-2.0582 -11.6669 -1.4073 0.9534
1.1451 -12.2536 -1.4619 0.9516
2.3011 -12.4721 -1.5065 0.9502
4.9492 -13.1098 -1.6645 0.9451
7.5719 -12.6459 -1.7508 0.9424
8.9198 -12.2651 -1.8015 0.9407
11.6696 -11.1690 -1.9188 0.9370
15.8337 -8.5614 -2.1382 0.9301
17.1934 -7.3997 -2.2235 0.9274
17.1832 -5.6400 -2.1483 0.9297
18.3587 -4.2576 -2.2386 0.9269
14.3001 -1.9950 -1.7151 0.9435
15.2567 0.6093 -1.8137 0.9403
11.9118 1.5474 -1.4268 0.9528
10.5321 2.3380 -1.2815 0.9575
9.0647 2.8809 -1.1298 0.9624
8.1757 3.4276 -1.0531 0.9649
6.8957 3.6449 -0.9265 0.9691
6.0283 3.9110 -0.8536 0.9715
5.4531 4.2741 -0.8230 0.9725
4.6293 4.3477 -0.7544 0.9747
3.5539 4.7911 -0.7086 0.9763
3.0300 4.9537 -0.6898 0.9769
1.9761 5.0886 -0.6484 0.9783
1.0931 5.6263 -0.6808 0.9772
0.5952 5.7794 -0.6901 0.9769
-15.2316 10.4701 -2.1955 0.9283
-15.4931 8.7263 -2.1122 0.9309
-15.6167 5.4263 -1.9638 0.9356
-15.5050 3.8791 -1.8985 0.9376
-14.9914 1.0002 -1.7847 0.9413
-14.6086 -0.3309 -1.7357 0.9428
-14.1529 -1.5906 -1.6917 0.9442
-13.6310 -2.7799 -1.6525 0.9455
-13.0491 -3.9004 -1.6178 0.9466
-12.4121 -4.9534 -1.5875 0.9476
-10.2116 -7.7229 -1.5208 0.9497
-8.5331 -9.2566 -1.4955 0.9506
-4.4116 -10.8034 -1.3862 0.9541
-3.4470 -11.2060 -1.3927 0.9539
-2.4515 -11.5499 -1.4025 0.9536
-1.4255 -11.8335 -1.4158 0.9531
-0.3692 -12.0548 -1.4326 0.9526
0.7170 -12.2112 -1.4530 0.9519
1.8379 -12.3348 -1.4814 0.9510
4.4387 -13.1104 -1.6442 0.9458
7.0566 -12.7656 -1.7326 0.9429
11.1335 -11.4181 -1.8944 0.9378
13.9141 -9.9226 -2.0300 0.9335
15.3010 -8.9696 -2.1068 0.9310
16.6709 -7.8677 -2.1897 0.9284
2.3982 -0.8800 -0.3035 0.9898
14.6592 1.3916 -1.7491 0.9424
11.4083 2.1221 -1.3784 0.9543
8.3892 3.1812 -1.0658 0.9645
7.2707 3.5275 -0.9599 0.9680
5.7373 4.1853 -0.8436 0.9718
3.6274 4.5528 -0.6915 0.9768
3.2294 4.8918 -0.6963 0.9767
2.6526 4.9230 -0.6643 0.9777
1.7152 5.2517 -0.6563 0.9780
1.2433 5.3972 -0.6579 0.9779
0.7894 5.7197 -0.6859 0.9770
0.2729 5.6955 -0.6773 0.9773
-0.7912 6.0215 -0.7214 0.9758
-1.4305 6.3996 -0.7789 0.9739
-14.6136 12.9735 -2.3212 0.9243
-15.0904 11.1594 -2.2294 0.9272
-15.4091 9.3941 -2.1437 0.9299
-2.7493 1.3560 -0.3641 0.9877
-15.6307 6.0437 -1.9907 0.9347
-15.3863 2.9658 -1.8613 0.9388
-15.1182 1.5345 -1.8051 0.9406
-14.7658 0.1755 -1.7541 0.9423
-14.3374 -1.1117 -1.7082 0.9437
-13.2810 -3.4750 -1.6307 0.9462
-11.9962 -5.5664 -1.5709 0.9481
-10.5177 -7.3978 -1.5274 0.9495
-7.7580 -9.3995 -1.4477 0.9521
-6.6661 -9.7282 -1.4008 0.9536
-2.8403 -11.4239 -1.3983 0.9537
-0.7814 -11.9768 -1.4257 0.9528
0.2933 -12.1586 -1.4447 0.9522
1.3976 -12.2737 -1.4674 0.9515
3.8906 -12.9472 -1.6059 0.9470
5.2406 -13.0760 -1.6733 0.9448
6.5450 -12.8705 -1.7152 0.9435
11.9839 -11.0147 -1.9335 0.9365
13.3756 -10.2532 -2.0019 0.9344
16.1438 -8.3122 -2.1569 0.9295
2.3625 -0.9607 -0.3030 0.9898
17.4544 -5.3410 -2.1682 0.9291
18.6156 -3.9227 -2.2598 0.9262
19.6998 -2.3438 -2.3566 0.9232
14.8857 0.8959 -1.7714 0.9417
10.1133 2.4604 -1.2364 0.9589
7.9168 3.5087 -1.0286 0.9657
6.6821 3.7066 -0.9077 0.9697
6.0139 4.0766 -0.8630 0.9712
5.1307 4.1914 -0.7870 0.9737
3.8363 4.4879 -0.7013 0.9765
3.4328 4.8287 -0.7038 0.9764
1.8977 5.1954 -0.6570 0.9780
1.4262 5.3408 -0.6566 0.9780
0.4803 5.8147 -0.6931 0.9768
-0.5741 5.9551 -0.7107 0.9762
-1.1498 6.1311 -0.7410 0.9752
-6.1873 12.7054 -1.6787 0.9447
-15.3036 10.0706 -2.1761 0.9289
-15.6273 6.6714 -2.0184 0.9338
-14.9116 0.6927 -1.7732 0.9416
-14.0404 -1.8658 -1.6825 0.9445
-12.9096 -4.1445 -1.6106 0.9468
-12.2608 -5.1825 -1.5812 0.9478
-11.5622 -6.1550 -1.5559 0.9486
-10.0296 -7.9087 -1.5172 0.9499
-9.2010 -8.6923 -1.5035 0.9503
-4.1960 -10.8995 -1.3873 0.9540
-2.2220 -11.6194 -1.4052 0.9535
-1.1891 -11.8892 -1.4193 0.9530
-0.1260 -12.0960 -1.4369 0.9524
0.9669 -12.2373 -1.4581 0.9518
3.3668 -12.7909 -1.5711 0.9481
6.0372 -12.9610 -1.6984 0.9440
-7.6830 -8.0038 -1.5720 0.9562
-6.9061 -8.6159 -1.5645 0.9564
-3.4660 -10.5075 -1.5677 0.9563
-2.5299 -10.8367 -1.5767 0.9560
-1.5660 -11.1055 -1.5891 0.9557
-0.5754 -11.3122 -1.6049 0.9553
2.5426 -11.5338 -1.6735 0.9534
3.6251 -11.4647 -1.7037 0.9526
5.8408 -11.0894 -1.7759 0.9506
6.9678 -10.7745 -1.8180 0.9495
8.1021 -10.3683 -1.8644 0.9482
9.2385 -9.8657 -1.9151 0.9469
2.3585 -0.9199 -0.3587 0.9898
14.5326 -4.2201 -2.1442 0.9407
14.7550 1.1005 -2.0964 0.9420
11.4293 1.8881 -1.6414 0.9543
10.0751 2.6046 -1.4745 0.9588
5.9019 4.1254 -1.0203 0.9713
5.0163 4.2193 -0.9288 0.9739
4.3877 4.4157 -0.8820 0.9752
3.7890 4.5633 -0.8404 0.9763
1.8199 5.2129 -0.7823 0.9779
0.9010 5.6787 -0.8147 0.9770
0.3947 5.7882 -0.8220 0.9768
-0.0590 2.7874 -0.3950 0.9888
-1.2848 6.3475 -0.9176 0.9742
-1.9321 6.4987 -0.9606 0.9730
-2.5787 6.4893 -0.9894 0.9722
-9.5148 15.2854 -2.5511 0.9298
-11.9356 11.0351 -2.3032 0.9364
-12.8244 8.1782 -2.1551 0.9404
-13.1835 2.8185 -1.9102 0.9470
-11.1750 -3.7652 -1.6708 0.9535
-10.6260 -4.6722 -1.6447 0.9542
-10.0282 -5.5243 -1.6222 0.9548
-7.9738 -7.7523 -1.5757 0.9561
-6.4124 -8.9641 -1.5616 0.9565
-2.8954 -10.7164 -1.5728 0.9561
1.0755 -11.5084 -1.6377 0.9544
3.2041 -11.5004 -1.6915 0.9529
4.2978 -11.3842 -1.7241 0.9520
5.4077 -11.1878 -1.7607 0.9510
7.6627 -10.5366 -1.8460 0.9487
8.7990 -10.0719 -1.8950 0.9474
9.9338 -9.5077 -1.9483 0.9460
11.0603 -8.8387 -2.0061 0.9444
12.1700 -8.0598 -2.0682 0.9427
13.2531 -7.1661 -2.1348 0.9409
14.2983 -6.1537 -2.2056 0.9390
14.1915 -4.6581 -2.1163 0.9414
15.2058 0.6073 -2.1562 0.9404
6.8175 3.6036 -1.0926 0.9693
6.0195 3.9053 -1.0167 0.9714
5.4456 4.2682 -0.9803 0.9724
4.6233 4.3421 -0.8987 0.9747
3.0265 4.9479 -0.8218 0.9768
1.9739 5.0829 -0.7726 0.9782
1.5312 5.3020 -0.7819 0.9780
0.0373 2.7956 -0.3961 0.9888
-1.0139 6.0823 -0.8737 0.9754
-7.9125 17.1180 -2.6720 0.9266
-9.0994 15.8098 -2.5846 0.9290
-12.6937 8.7256 -2.1825 0.9397
-12.9938 7.3186 -2.1130 0.9415
-13.1753 5.9420 -2.0479 0.9433
-13.2476 4.6031 -1.9871 0.9449
-11.8481 -2.4163 -1.7133 0.9523
-10.8444 -4.3278 -1.6544 0.9539
-10.2650 -5.2011 -1.6305 0.9546
-9.6389 -6.0196 -1.6102 0.9551
-8.9694 -6.7834 -1.5934 0.9556
-8.2590 -7.4926 -1.5800 0.9559
-7.5103 -8.1471 -1.5700 0.9562
-6.7254 -8.7468 -1.5633 0.9564
-5.0538 -9.7802 -1.5598 0.9565
-2.3142 -10.9028 -1.5792 0.9560
-0.3476 -11.3501 -1.6089 0.9552
0.6739 -11.4773 -1.6290 0.9546
1.7190 -11.5365 -1.6526 0.9540
3.8726 -11.4384 -1.7111 0.9524
4.9766 -11.2735 -1.7461 0.9514
10.6260 -9.1103 -1.9832 0.9450
11.7432 -8.3744 -2.0436 0.9434
12.8379 -7.5257 -2.1085 0.9417
13.8993 -6.5597 -2.1777 0.9398
2.4011 -0.8811 -0.3624 0.9897
14.7275 -3.9560 -2.1607 0.9403
15.5426 -2.7184 -2.2356 0.9382
16.2695 -1.3679 -2.3134 0.9362
8.1149 3.0772 -1.2297 0.9655
7.1140 3.4515 -1.1203 0.9686
6.3356 3.8062 -1.0472 0.9706
4.8683 4.2656 -0.9171 0.9742
4.2537 4.4575 -0.8730 0.9754
3.6230 4.5473 -0.8238 0.9768
3.2256 4.8861 -0.8296 0.9766
1.7133 5.2458 -0.7819 0.9780
0.7885 5.7132 -0.8172 0.9770
0.2726 5.6889 -0.8070 0.9773
-0.1177 2.8426 -0.4031 0.9886
-2.0429 6.3957 -0.9513 0.9732
-2.7393 6.5071 -1.0004 0.9719
-10.6725 13.5755 -2.4467 0.9326
-12.0635 10.7096 -2.2857 0.9369
-12.5437 9.2761 -2.2105 0.9389
-12.8922 7.8597 -2.1394 0.9408
-2.7494 1.3561 -0.4344 0.9877
-13.2320 5.1163 -2.0101 0.9443
-13.2417 3.8032 -1.9521 0.9459
-13.1563 2.5359 -1.8984 0.9473
-12.9839 1.3178 -1.8491 0.9486
-12.7320 0.1513 -1.8041 0.9499
-12.0161 -2.0212 -1.7265 0.9520
-8.5385 -7.2247 -1.5848 0.9558
-7.0332 -8.5213 -1.5655 0.9563
-6.2270 -9.0873 -1.5609 0.9565
-5.3873 -9.5977 -1.5595 0.9565
-3.6136 -10.4491 -1.5666 0.9563
-2.6821 -10.7878 -1.5751 0.9561
2.3707 -11.5380 -1.6690 0.9535
5.6608 -11.1318 -1.7695 0.9508
6.7862 -10.8311 -1.8110 0.9497
11.3132 -8.6722 -2.0197 0.9440
13.4934 -6.9476 -2.1504 0.9405
2.3596 -0.9595 -0.3609 0.9898
15.2368 -3.2107 -2.2063 0.9390
14.8387 0.8931 -2.1063 0.9417
8.6482 2.9421 -1.2943 0.9638
6.0115 4.0750 -1.0290 0.9711
5.1237 4.1857 -0.9374 0.9736
4.4844 4.3855 -0.8887 0.9750
3.4288 4.8230 -0.8385 0.9764
2.3708 5.0426 -0.7895 0.9777
1.8956 5.1895 -0.7828 0.9779
-0.0190 2.7798 -0.3939 0.9888
-0.5734 5.9478 -0.8466 0.9761
-1.8217 6.4651 -0.9517 0.9732
-6.1674 12.6644 -1.9959 0.9447
-10.3331 14.1213 -2.4793 0.9317
-11.1628 12.7023 -2.3960 0.9340
-11.8405 11.2662 -2.3158 0.9361
-12.7724 8.4050 -2.1664 0.9401
-13.2009 5.6355 -2.0337 0.9437
-11.2583 -3.6144 -1.6754 0.9534
-10.7176 -4.5302 -1.6486 0.9541
-10.1273 -5.3911 -1.6256 0.9547
-9.4911 -6.1972 -1.6061 0.9552
-8.8121 -6.9487 -1.5901 0.9557
-8.0929 -7.6455 -1.5775 0.9560
-7.3358 -8.2876 -1.5682 0.9563
-6.5429 -8.8749 -1.5623 0.9564
-5.7160 -9.4069 -1.5596 0.9565
-3.9661 -10.3024 -1.5642 0.9564
-1.1209 -11.2069 -1.5958 0.9555
1.9586 -11.5402 -1.6585 0.9538
3.0301 -11.5119 -1.6867 0.9530
5.2285 -11.2249 -1.7545 0.9512
-6.1650 -7.6914 -1.6239 0.9608
-5.4419 -8.1910 -1.6200 0.9609
-4.6877 -8.6393 -1.6192 0.9609
-1.3956 -9.8971 -1.6466 0.9603
0.3917 -10.1835 -1.6789 0.9595
3.2055 -10.1376 -1.7516 0.9578
4.1688 -9.9848 -1.7825 0.9571
6.1138 -9.4539 -1.8547 0.9554
9.0075 -8.0440 -1.9895 0.9522
10.8479 -6.6571 -2.0967 0.9497
2.3582 -0.9198 -0.4170 0.9898
12.3417 -3.5839 -2.1171 0.9492
12.9810 -2.5416 -2.1791 0.9478
13.5403 -1.4144 -2.2427 0.9463
11.4261 1.8875 -1.9078 0.9541
10.1078 2.6131 -1.7199 0.9586
8.6378 3.0774 -1.5106 0.9635
6.3221 3.6264 -1.2007 0.9709
4.9652 4.1763 -1.0688 0.9740
4.3820 4.4100 -1.0242 0.9751
3.7843 4.5578 -0.9759 0.9763
3.3399 4.8436 -0.9692 0.9764
2.8275 5.0029 -0.9467 0.9770
2.2913 5.0606 -0.9152 0.9777
-0.6606 5.9566 -0.9873 0.9760
-1.8278 6.1478 -1.0566 0.9743
-6.2601 12.4001 -2.2883 0.9452
-7.3828 11.8604 -2.3015 0.9449
-8.8081 11.6821 -2.4102 0.9424
-10.1410 9.3759 -2.2752 0.9455
-10.6282 8.1968 -2.2111 0.9470
-11.0026 7.0164 -2.1497 0.9485
-2.7322 1.4169 -0.5070 0.9876
-11.4963 2.4578 -1.9367 0.9535
-11.4009 1.3903 -1.8921 0.9545
-11.2304 0.3604 -1.8510 0.9555
-10.9904 -0.6291 -1.8135 0.9564
-9.9036 -3.3368 -1.7216 0.9585
-8.9168 -4.9120 -1.6771 0.9596
-6.4359 -7.4845 -1.6262 0.9608
0.9553 -10.2221 -1.6913 0.9592
1.8880 -10.2332 -1.7143 0.9587
3.7950 -10.0525 -1.7701 0.9574
4.7634 -9.8547 -1.8032 0.9566
5.7367 -9.5809 -1.8397 0.9557
12.2264 -5.2620 -2.1928 0.9475
12.0756 -3.9636 -2.0938 0.9498
13.3343 -1.8603 -2.2179 0.9469
13.8377 -0.6835 -2.2824 0.9454
14.2390 0.5687 -2.3476 0.9439
11.9052 1.5465 -1.9777 0.9525
9.1621 2.9118 -1.5838 0.9618
5.8286 3.7815 -1.1446 0.9722
3.0229 4.9422 -0.9544 0.9768
1.9830 5.1063 -0.9024 0.9780
1.5295 5.2960 -0.9081 0.9779
-0.4490 5.9028 -0.9752 0.9763
-1.0020 6.0111 -1.0039 0.9756
-6.0922 13.1800 -2.3920 0.9428
-8.4932 12.1128 -2.4371 0.9418
-9.9212 9.8293 -2.3007 0.9450
-10.4534 8.6537 -2.2356 0.9465
-11.4470 1.7990 -1.9089 0.9541
-11.3049 0.7542 -1.8665 0.9551
-11.0911 -0.2512 -1.8276 0.9560
-10.8111 -1.2150 -1.7922 0.9569
-9.1222 -4.6221 -1.6847 0.9594
-7.3649 -6.6815 -1.6382 0.9605
-6.7019 -7.2701 -1.6289 0.9607
-5.2739 -8.2969 -1.6196 0.9609
-4.5130 -8.7335 -1.6195 0.9609
-3.7232 -9.1175 -1.6224 0.9609
0.5989 -10.2005 -1.6833 0.9594
3.4226 -10.1094 -1.7583 0.9577
4.3879 -9.9400 -1.7900 0.9569
8.2708 -8.4822 -1.9517 0.9531
9.2209 -7.9056 -2.0009 0.9520
12.4927 -3.3557 -2.1310 0.9489
13.1150 -2.2939 -2.1934 0.9475
8.3190 3.1546 -1.4657 0.9646
4.2484 4.4518 -1.0137 0.9754
3.6186 4.5418 -0.9567 0.9767
2.6465 4.9117 -0.9191 0.9776
2.1835 5.0940 -0.9130 0.9778
1.7114 5.2399 -0.9081 0.9779
0.2723 5.6822 -0.9372 0.9772
-0.2418 5.8395 -0.9628 0.9766
-1.3550 6.0619 -1.0233 0.9751
-1.8022 5.6419 -0.9757 0.9763
-2.7109 6.4397 -1.1510 0.9721
-8.9837 11.4272 -2.3946 0.9428
-9.6833 10.2801 -2.3265 0.9444
-10.7226 7.9294 -2.1970 0.9474
-11.5147 3.3072 -1.9736 0.9526
-11.4816 2.2131 -1.9263 0.9537
-11.3687 1.1539 -1.8825 0.9547
-11.1820 0.1329 -1.8422 0.9557
-10.9270 -0.8472 -1.8055 0.9565
-9.8017 -3.5244 -1.7159 0.9587
-9.3209 -4.3250 -1.6928 0.9592
-8.7935 -5.0783 -1.6729 0.9597
-7.6117 -6.4405 -1.6426 0.9604
-6.2780 -7.6064 -1.6248 0.9608
-4.8109 -8.5708 -1.6192 0.9609
-3.2254 -9.3265 -1.6257 0.9608
-0.6555 -10.0466 -1.6586 0.9600
3.0517 -10.1555 -1.7469 0.9579
4.0135 -10.0142 -1.7773 0.9572
6.9309 -9.1365 -1.8892 0.9546
8.8555 -8.1393 -1.9815 0.9524
2.3567 -0.9583 -0.4191 0.9897
13.4564 -1.6010 -2.2324 0.9465
13.9380 -0.4064 -2.2971 0.9450
14.3142 0.8615 -2.3624 0.9435
10.3831 2.5260 -1.7604 0.9576
8.8494 3.0105 -1.5399 0.9628
6.4596 3.5831 -1.2169 0.9705
3.8269 4.4769 -0.9703 0.9764
2.3680 5.0368 -0.9169 0.9777
-0.0185 2.7074 -0.4460 0.9891
-2.0917 5.4918 -0.9681 0.9765
-6.1504 12.6296 -2.3142 0.9446
-7.2448 12.0194 -2.3120 0.9447
-9.4273 10.7274 -2.3527 0.9437
-10.5577 8.3865 -2.2212 0.9468
-11.2341 6.0319 -2.1006 0.9496
-11.4214 1.5593 -1.8990 0.9543
-10.7391 -1.4271 -1.7847 0.9570
-10.3846 -2.3373 -1.7535 0.9578
-7.2180 -6.8190 -1.6358 0.9605
-1.8698 -9.7775 -1.6399 0.9604
-0.9985 -9.9829 -1.6528 0.9601
0.8071 -10.2143 -1.6879 0.9593
1.7372 -10.2359 -1.7104 0.9588
2.6825 -10.1912 -1.7361 0.9582
4.6074 -9.8915 -1.7976 0.9567
-5.5635 -6.9410 -1.6720 0.9644
-4.9121 -7.3935 -1.6684 0.9645
-4.2316 -7.7986 -1.6677 0.9645
-2.7911 -8.4615 -1.6747 0.9644
0.3523 -9.1597 -1.7229 0.9634
2.8707 -9.0789 -1.7898 0.9620
3.7266 -8.9256 -1.8180 0.9614
5.4418 -8.4148 -1.8836 0.9600
6.2925 -8.0526 -1.9209 0.9593
9.5191 -5.8417 -2.0993 0.9556
2.3578 -0.9196 -0.4757 0.9898
10.7144 -3.1113 -2.0971 0.9556
12.0166 -0.1781 -2.2589 0.9523
12.2743 0.9155 -2.3135 0.9511
11.4228 1.8870 -2.1761 0.9540
7.4651 3.4373 -1.5447 0.9671
6.4473 3.6982 -1.3970 0.9702
5.5776 3.8987 -1.2791 0.9727
4.8513 4.0805 -1.1915 0.9745
4.2439 4.2710 -1.1317 0.9758
3.3360 4.8378 -1.1046 0.9764
2.8242 4.9970 -1.0789 0.9769
2.2711 5.0160 -1.0350 0.9778
-0.0570 2.6913 -0.5060 0.9891
-0.6410 5.7798 -1.0930 0.9766
-1.6646 5.5988 -1.0979 0.9765
-2.5844 6.5037 -1.3154 0.9719
-9.2644 7.1450 -2.1991 0.9535
-9.6250 6.1379 -2.1457 0.9546
-2.7347 1.4182 -0.5790 0.9875
-10.1670 3.1437 -2.0003 0.9576
-10.1833 2.1771 -1.9573 0.9585
-10.1254 1.2348 -1.9173 0.9593
-9.9983 0.3209 -1.8802 0.9601
-9.8064 -0.5614 -1.8462 0.9608
-9.5542 -1.4093 -1.8152 0.9615
-8.8852 -2.9937 -1.7623 0.9626
-8.4758 -3.7268 -1.7403 0.9630
-8.0212 -4.4187 -1.7213 0.9634
-7.5242 -5.0682 -1.7052 0.9637
-6.4147 -6.2365 -1.6816 0.9642
-5.8072 -6.7533 -1.6741 0.9644
-3.0774 -8.3489 -1.6725 0.9644
-2.3301 -8.6242 -1.6791 0.9643
0.8586 -9.1876 -1.7344 0.9631
3.3950 -8.9927 -1.8067 0.9616
5.1108 -8.5355 -1.8699 0.9603
5.9645 -8.2014 -1.9061 0.9596
7.6384 -7.3108 -1.9874 0.9579
9.9702 -5.3910 -2.1304 0.9549
10.6688 -4.5916 -2.1832 0.9538
11.5038 -1.6049 -2.1832 0.9538
11.8908 -0.5873 -2.2377 0.9527
11.9018 1.5461 -2.2559 0.9523
9.1440 2.9061 -1.8034 0.9617
6.8396 3.6153 -1.4541 0.9690
4.4716 4.1997 -1.1531 0.9753
3.9055 4.3863 -1.1039 0.9764
2.4528 4.9546 -1.0391 0.9777
1.9807 5.1004 -1.0284 0.9780
1.5157 5.2482 -1.0268 0.9780
-0.4348 5.7170 -1.0777 0.9769
-1.5883 6.1067 -1.1860 0.9746
-6.7815 9.6717 -2.2203 0.9531
-7.4304 8.8077 -2.1659 0.9542
-9.0991 7.5325 -2.2203 0.9531
-9.4968 6.5280 -2.1661 0.9542
-9.7999 5.5197 -2.1141 0.9553
-10.1860 2.5484 -1.9736 0.9582
-10.0554 0.6709 -1.8942 0.9598
-9.8880 -0.2240 -1.8590 0.9605
-9.6587 -1.0855 -1.8269 0.9612
-9.3715 -1.9112 -1.7977 0.9618
-8.6398 -3.4480 -1.7485 0.9628
-8.2022 -4.1559 -1.7283 0.9633
-7.7213 -4.8220 -1.7111 0.9636
-5.4188 -7.0475 -1.6709 0.9645
-4.7606 -7.4894 -1.6680 0.9645
-3.3602 -8.2287 -1.6707 0.9645
-2.6219 -8.5238 -1.6762 0.9644
-1.8609 -8.7673 -1.6846 0.9642
-0.2785 -9.0934 -1.7100 0.9636
0.5386 -9.1726 -1.7271 0.9633
2.2126 -9.1530 -1.7700 0.9624
3.9207 -8.8816 -1.8248 0.9613
4.7791 -8.6455 -1.8568 0.9606
6.4837 -7.9604 -1.9297 0.9591
7.3197 -7.5068 -1.9707 0.9582
9.6874 -5.6789 -2.1107 0.9553
10.4045 -4.9103 -2.1625 0.9543
2.4069 -0.8832 -0.4819 0.9896
11.7513 -0.9881 -2.2166 0.9531
12.0836 0.0650 -2.2713 0.9520
5.4014 3.9403 -1.2567 0.9732
3.5993 4.5175 -1.0857 0.9768
2.6353 4.8908 -1.0442 0.9776
1.2272 5.3272 -1.0275 0.9780
0.7517 5.4461 -1.0334 0.9779
-2.7694 6.5788 -1.3417 0.9714
-7.1907 9.1466 -2.1869 0.9538
-7.7811 8.2607 -2.1330 0.9549
-9.3544 6.9176 -2.1868 0.9538
-2.7495 1.3561 -0.5762 0.9876
-10.1005 3.9054 -2.0355 0.9569
-9.9603 0.1184 -1.8723 0.9603
-9.7544 -0.7563 -1.8390 0.9610
-8.3768 -3.8870 -1.7358 0.9631
-7.9123 -4.5694 -1.7174 0.9635
-6.8613 -5.8056 -1.6894 0.9641
-6.2802 -6.3575 -1.6797 0.9643
-5.6653 -6.8639 -1.6728 0.9644
-5.0187 -7.3240 -1.6688 0.9645
-4.3427 -7.7368 -1.6676 0.9645
-3.6393 -8.1011 -1.6693 0.9645
-1.3839 -8.8905 -1.6912 0.9640
-0.5903 -9.0475 -1.7042 0.9638
0.2207 -9.1488 -1.7201 0.9634
1.0467 -9.1923 -1.7389 0.9630
1.8854 -9.1759 -1.7607 0.9626
4.4471 -8.7450 -1.8441 0.9609
6.1566 -8.1157 -1.9147 0.9594
6.9981 -7.6913 -1.9545 0.9586
7.8234 -7.1907 -1.9973 0.9577
8.6259 -6.6123 -2.0429 0.9567
2.3538 -0.9572 -0.4776 0.9897
10.6259 -3.2515 -2.0887 0.9558
11.9661 -0.3489 -2.2501 0.9524
12.2398 0.7367 -2.3048 0.9513
11.3686 1.7110 -2.1609 0.9543
10.3603 2.5205 -2.0041 0.9575
8.8324 3.0047 -1.7536 0.9627
5.7068 3.8684 -1.2959 0.9723
4.9551 4.0480 -1.2026 0.9743
2.9048 4.9720 -1.0823 0.9768
1.8780 5.1414 -1.0288 0.9780
1.4094 5.2779 -1.0268 0.9780
0.4554 5.5132 -1.0398 0.9777
-0.0182 2.6592 -0.4998 0.9892
-0.5547 5.7535 -1.0865 0.9767
-2.1185 5.5622 -1.1187 0.9761
-5.3975 11.0835 -2.3172 0.9511
-6.9367 9.4797 -2.2079 0.9533
-8.0963 7.7036 -2.1006 0.9555
-9.1976 7.3060 -2.2078 0.9533
-9.8558 5.2918 -2.1026 0.9555
-10.0487 4.2899 -2.0537 0.9565
-10.1858 2.3308 -1.9640 0.9584
-9.5986 -1.2755 -1.8200 0.9614
-9.2990 -2.0929 -1.7916 0.9619
-8.9465 -2.8722 -1.7661 0.9625
-4.6076 -7.5828 -1.6678 0.9645
-3.9146 -7.9660 -1.6683 0.9645
-3.1952 -8.2999 -1.6717 0.9644
-1.6857 -8.8151 -1.6869 0.9641
-0.8995 -8.9933 -1.6988 0.9639
0.7255 -9.1824 -1.7313 0.9632
1.5596 -9.1895 -1.7520 0.9628
2.4046 -9.1353 -1.7756 0.9623
4.1149 -8.8342 -1.8318 0.9611
5.8279 -8.2600 -1.9001 0.9597
-5.6278 -5.8628 -1.7178 0.9673
-2.5407 -7.7024 -1.7144 0.9674
-1.8517 -7.9315 -1.7216 0.9672
0.3199 -8.3165 -1.7592 0.9665
3.3664 -8.0629 -1.8469 0.9649
4.1350 -7.8507 -1.8756 0.9644
6.3940 -6.8281 -1.9773 0.9625
7.1148 -6.3537 -2.0163 0.9618
2.3574 -0.9195 -0.5349 0.9897
9.4568 -2.7462 -2.0816 0.9605
9.8791 -1.9343 -2.1279 0.9597
4.9393 4.1545 -1.3643 0.9740
3.7014 4.4579 -1.2248 0.9766
3.3320 4.8320 -1.2407 0.9763
2.8209 4.9912 -1.2119 0.9768
2.2168 4.8961 -1.1361 0.9783
1.7587 5.0378 -1.1279 0.9784
1.3035 5.1782 -1.1287 0.9784
-1.2288 6.0710 -1.3093 0.9750
-2.5986 6.5393 -1.4874 0.9716
-4.8281 9.5636 -2.2646 0.9571
-5.5442 8.9068 -2.2177 0.9580
-6.1818 8.1988 -2.1705 0.9589
-6.7391 7.4504 -2.1235 0.9598
-7.2158 6.6714 -2.0773 0.9606
-8.9894 3.6862 -2.0537 0.9611
-9.0963 2.8126 -2.0126 0.9618
-9.0022 0.2889 -1.9039 0.9638
-8.3659 -2.0093 -1.8187 0.9654
-8.0503 -2.7124 -1.7957 0.9659
-6.8381 -4.6061 -1.7428 0.9669
-6.3551 -5.1607 -1.7305 0.9671
-5.2864 -6.1477 -1.7139 0.9674
-3.4609 -7.3056 -1.7088 0.9675
-2.1206 -7.8486 -1.7185 0.9673
-1.4197 -8.0476 -1.7274 0.9671
-0.7013 -8.1964 -1.7389 0.9669
0.0325 -8.2933 -1.7530 0.9667
1.5359 -8.3249 -1.7894 0.9660
2.3002 -8.2561 -1.8116 0.9656
3.0687 -8.1285 -1.8366 0.9651
5.3629 -7.3743 -1.9274 0.9634
7.5444 -6.0291 -2.0414 0.9613
8.2204 -5.4441 -2.0841 0.9605
8.8595 -4.7905 -2.1290 0.9597
9.7234 -2.2550 -2.1099 0.9600
10.1049 -1.4098 -2.1567 0.9591
10.7772 1.4000 -2.2972 0.9565
3.0158 4.9305 -1.2217 0.9766
2.3963 4.8404 -1.1417 0.9782
1.4798 5.1239 -1.1273 0.9784
0.5569 5.4074 -1.1491 0.9780
-0.4386 5.7660 -1.2223 0.9766
-0.9969 5.9800 -1.2815 0.9755
-1.6195 6.2266 -1.3600 0.9740
-2.0432 5.7084 -1.2816 0.9755
-4.5305 9.8017 -2.2825 0.9568
-7.4684 6.1826 -2.0494 0.9611
-8.4231 5.7900 -2.1606 0.9591
-8.7156 4.9090 -2.1144 0.9599
-9.1193 1.4332 -1.9513 0.9630
-9.0469 0.6036 -1.9166 0.9636
-8.9129 -0.2019 -1.8845 0.9642
-8.7211 -0.9801 -1.8551 0.9648
-8.4750 -1.7284 -1.8283 0.9653
-7.8337 -3.1263 -1.7829 0.9661
-7.4450 -3.7723 -1.7642 0.9665
-7.0150 -4.3809 -1.7482 0.9668
-6.0415 -5.4809 -1.7243 0.9672
-5.5032 -5.9698 -1.7163 0.9673
-4.9336 -6.4165 -1.7109 0.9675
-4.3351 -6.8199 -1.7082 0.9675
-3.0594 -7.4921 -1.7106 0.9675
-1.6931 -7.9765 -1.7236 0.9672
-0.2531 -8.2620 -1.7472 0.9668
0.4889 -8.3263 -1.7631 0.9665
1.2421 -8.3361 -1.7815 0.9661
2.7711 -8.1850 -1.8266 0.9653
3.5405 -8.0203 -1.8532 0.9648
5.0706 -7.5039 -1.9143 0.9637
6.5590 -6.7267 -1.9859 0.9623
7.9629 -5.6786 -2.0673 0.9608
2.4151 -0.8862 -0.5438 0.9895
9.9655 -1.7430 -2.1385 0.9595
10.7352 1.0191 -2.2794 0.9569
10.8140 2.0116 -2.3251 0.9560
8.3218 3.1556 -1.8813 0.9643
7.2226 3.5042 -1.6969 0.9677
5.5139 4.0223 -1.4427 0.9725
4.1468 4.3454 -1.2696 0.9757
3.2141 4.8688 -1.2332 0.9764
2.1125 4.9284 -1.1334 0.9783
1.2002 5.2100 -1.1301 0.9784
0.7386 5.3517 -1.1420 0.9782
0.1333 2.7809 -0.5885 0.9887
-0.1155 2.7896 -0.5902 0.9887
-0.7744 5.8939 -1.2566 0.9760
-1.3695 6.1267 -1.3270 0.9747
-2.7752 6.5925 -1.5120 0.9712
-4.9969 9.4200 -2.2540 0.9573
-5.6955 8.7507 -2.2070 0.9582
-6.3150 8.0327 -2.1598 0.9591
-8.2870 6.1283 -2.1787 0.9587
-2.7495 1.3562 -0.6480 0.9875
-9.1104 2.6166 -2.0036 0.9620
-9.1299 1.7598 -1.9654 0.9627
-8.9718 0.1066 -1.8966 0.9640
-8.2987 -2.1714 -1.8132 0.9655
-7.9724 -2.8667 -1.7908 0.9660
-6.7320 -4.7350 -1.7397 0.9669
-5.1575 -6.2488 -1.7127 0.9674
-1.9636 -7.8980 -1.7203 0.9673
-1.2586 -8.0857 -1.7297 0.9671
-0.5365 -8.2229 -1.7418 0.9669
0.2004 -8.3078 -1.7566 0.9666
0.9495 -8.3389 -1.7741 0.9663
1.7083 -8.3144 -1.7942 0.9659
2.4738 -8.2325 -1.8170 0.9655
4.0117 -7.8890 -1.8708 0.9645
4.7767 -7.6237 -1.9017 0.9639
5.5331 -7.2939 -1.9352 0.9633
7.0006 -6.4345 -2.0099 0.9619
7.7002 -5.9027 -2.0509 0.9611
8.3685 -5.3022 -2.0941 0.9603
9.3832 -2.8712 -2.0742 0.9607
10.4719 -0.3054 -2.2145 0.9581
10.6791 0.6427 -2.2614 0.9572
10.7951 1.6247 -2.3076 0.9563
8.8152 2.9989 -1.9682 0.9626
7.6215 3.3778 -1.7622 0.9665
5.8174 3.9434 -1.4856 0.9717
4.3838 4.2871 -1.2961 0.9752
3.7910 4.4349 -1.2333 0.9764
2.2911 4.8731 -1.1382 0.9782
1.3768 5.1556 -1.1280 0.9784
0.9184 5.2966 -1.1363 0.9783
-0.0181 2.6384 -0.5577 0.9893
-0.5604 5.8120 -1.2342 0.9764
-1.1313 6.0326 -1.2974 0.9752
-2.0912 5.4906 -1.2419 0.9763
-5.4345 9.0160 -2.2252 0.9579
-6.6551 7.5729 -2.1310 0.9596
-7.1447 6.7981 -2.0846 0.9605
-8.4965 5.5911 -2.1500 0.9593
-8.9653 3.8273 -2.0605 0.9609
-9.0840 2.9522 -2.0190 0.9617
-9.1085 1.2435 -1.9432 0.9631
-9.0219 0.4191 -1.9091 0.9637
-8.8745 -0.3805 -1.8776 0.9643
-8.6700 -1.1521 -1.8488 0.9649
-8.4121 -1.8933 -1.8226 0.9654
-8.1042 -2.6018 -1.7992 0.9658
-6.4351 -5.0743 -1.7323 0.9671
-5.3770 -6.0746 -1.7148 0.9674
-0.8177 -8.1759 -1.7369 0.9670
-0.0863 -8.2813 -1.7506 0.9667
0.6584 -8.3334 -1.7670 0.9664
2.1771 -8.2711 -1.8079 0.9656
2.9452 -8.1530 -1.8324 0.9652
5.2418 -7.4293 -1.9219 0.9635
-5.1596 -5.3750 -1.7511 0.9698
-4.6451 -5.7951 -1.7455 0.9699
-3.5345 -6.5139 -1.7418 0.9700
-2.3297 -7.0627 -1.7479 0.9699
-1.6973 -7.2703 -1.7546 0.9698
-0.3837 -7.5449 -1.7755 0.9694
0.9789 -7.6231 -1.8063 0.9689
2.3693 -7.4930 -1.8470 0.9682
3.0671 -7.3462 -1.8710 0.9678
3.7622 -7.1429 -1.8974 0.9674
4.4505 -6.8819 -1.9261 0.9669
7.6259 -4.6799 -2.1028 0.9639
8.1689 -4.0590 -2.1438 0.9632
8.4549 -2.4552 -2.0692 0.9645
8.8117 -1.7253 -2.1103 0.9638
9.1059 -0.9512 -2.1517 0.9631
8.5885 3.0598 -2.1428 0.9632
4.9892 4.1965 -1.5322 0.9736
4.3651 4.3929 -1.4555 0.9749
3.3279 4.8262 -1.3778 0.9762
2.2425 4.9529 -1.2778 0.9779
1.7782 5.0936 -1.2680 0.9781
-0.6593 5.9454 -1.4059 0.9757
-1.2390 6.1209 -1.4677 0.9747
-2.5948 6.5296 -1.6513 0.9715
-4.9228 7.9084 -2.1893 0.9624
-5.5020 7.2972 -2.1479 0.9631
-6.0123 6.6469 -2.1064 0.9638
-6.8232 5.2622 -2.0251 0.9652
-7.1245 4.5433 -1.9859 0.9659
-2.7413 1.4216 -0.7257 0.9874
-8.1095 3.3254 -2.0599 0.9646
-8.2692 1.7679 -1.9874 0.9659
-8.1795 0.2625 -1.9234 0.9669
-7.8657 -1.1602 -1.8686 0.9679
-7.0292 -3.0907 -1.8047 0.9689
-6.6646 -3.6713 -1.7883 0.9692
-5.8228 -4.7284 -1.7629 0.9696
-5.3507 -5.2020 -1.7539 0.9698
-4.8475 -5.6373 -1.7474 0.9699
-3.7572 -6.3878 -1.7417 0.9700
-3.1744 -6.7007 -1.7426 0.9700
-2.5693 -6.9703 -1.7459 0.9699
-1.9441 -7.1954 -1.7517 0.9698
-0.6423 -7.5068 -1.7707 0.9695
0.0297 -7.5903 -1.7839 0.9693
0.7125 -7.6239 -1.7996 0.9690
2.0993 -7.5350 -1.8383 0.9684
3.4939 -7.2283 -1.8869 0.9675
4.1853 -6.9898 -1.9147 0.9671
5.5355 -6.3363 -1.9774 0.9660
7.9639 -4.3061 -2.1278 0.9635
8.3016 -2.7248 -2.0535 0.9647
8.6808 -2.0132 -2.0943 0.9640
9.2524 -0.4570 -2.1772 0.9627
9.4314 0.3767 -2.2184 0.9620
9.5451 2.1189 -2.2979 0.9606
9.1074 2.8944 -2.2459 0.9615
5.2493 4.1144 -1.5675 0.9730
4.5990 4.3194 -1.4828 0.9744
3.9922 4.4836 -1.4109 0.9756
3.5325 4.7622 -1.3935 0.9759
3.0122 4.9246 -1.3567 0.9766
2.4255 4.8995 -1.2849 0.9778
1.9567 5.0386 -1.2703 0.9780
1.4967 5.1825 -1.2678 0.9781
1.0363 5.3340 -1.2771 0.9779
0.0350 2.6228 -0.6165 0.9893
-0.4465 5.8705 -1.3837 0.9761
-1.0088 6.0513 -1.4418 0.9751
-4.0097 8.6746 -2.2460 0.9615
-4.6806 8.1324 -2.2053 0.9622
-5.2860 7.5388 -2.1639 0.9629
-5.8232 6.9026 -2.1224 0.9636
-6.2907 6.2325 -2.0812 0.9643
-6.6881 5.5367 -2.0406 0.9650
-7.8399 4.4157 -2.1147 0.9637
-8.0478 3.6296 -2.0749 0.9644
-8.2671 1.2992 -1.9668 0.9662
-7.9427 -0.8926 -1.8785 0.9677
-7.4664 -2.2317 -1.8315 0.9685
-7.1594 -2.8572 -1.8117 0.9688
-6.8103 -3.4507 -1.7943 0.9691
-6.4219 -4.0105 -1.7794 0.9694
-5.9966 -4.5352 -1.7670 0.9696
-5.5371 -5.0233 -1.7571 0.9697
-5.0457 -5.4735 -1.7496 0.9699
-3.9762 -6.2555 -1.7420 0.9700
-3.4026 -6.5847 -1.7420 0.9700
-2.8059 -6.8712 -1.7443 0.9700
-2.1882 -7.1137 -1.7492 0.9699
-1.5518 -7.3108 -1.7565 0.9698
-0.2317 -7.5639 -1.7785 0.9694
1.1352 -7.6191 -1.8104 0.9688
2.5272 -7.4647 -1.8522 0.9681
3.2248 -7.3052 -1.8767 0.9677
5.2790 -6.4813 -1.9646 0.9662
5.9362 -6.0880 -1.9984 0.9657
7.1788 -5.1194 -2.0723 0.9644
7.7524 -4.5445 -2.1120 0.9637
8.2856 -3.9103 -2.1533 0.9631
2.4247 -0.8897 -0.6070 0.9894
9.1631 -0.7704 -2.1611 0.9629
9.3713 0.0504 -2.2025 0.9622
9.5022 0.9021 -2.2433 0.9615
9.5096 2.6645 -2.3210 0.9602
7.2105 3.4983 -1.8835 0.9676
4.8422 4.2428 -1.5131 0.9739
4.2249 4.4273 -1.4383 0.9752
3.6417 4.5708 -1.3735 0.9763
2.1365 4.9844 -1.2745 0.9780
1.2150 5.2743 -1.2721 0.9780
0.7497 5.4321 -1.2888 0.9777
0.1311 2.7361 -0.6438 0.9888
-1.3776 6.1629 -1.4842 0.9744
-5.0598 7.7740 -2.1800 0.9626
-5.6236 7.1532 -2.1385 0.9633
-7.7363 4.7164 -2.1295 0.9635
-8.1409 3.1477 -2.0513 0.9648
-8.2384 2.3662 -2.0145 0.9654
-8.2711 1.5943 -1.9797 0.9660
-8.2422 0.8366 -1.9471 0.9665
-8.1548 0.0969 -1.9167 0.9670
-6.9502 -3.2250 -1.8007 0.9690
-6.5766 -3.7980 -1.7849 0.9693
-5.2395 -5.3039 -1.7522 0.9698
-4.1915 -6.1169 -1.7427 0.9700
-3.6274 -6.4623 -1.7417 0.9700
-3.0393 -6.7655 -1.7431 0.9700
-0.4913 -7.5300 -1.7735 0.9695
0.1834 -7.6024 -1.7872 0.9692
0.8682 -7.6244 -1.8035 0.9690
2.2572 -7.5114 -1.8433 0.9683
2.9552 -7.3735 -1.8669 0.9679
3.6509 -7.1794 -1.8930 0.9674
5.6843 -6.2473 -1.9851 0.9659
6.3286 -5.8168 -2.0202 0.9653
6.9475 -5.3257 -2.0574 0.9647
8.3923 -2.5680 -2.0627 0.9646
8.7585 -1.8456 -2.1037 0.9639
9.2996 -0.2712 -2.1865 0.9625
9.4611 0.5694 -2.2276 0.9618
4.4611 4.3627 -1.4665 0.9747
3.8604 4.5161 -1.3963 0.9759
3.4123 4.7998 -1.3841 0.9761
2.8980 4.9602 -1.3501 0.9767
2.3181 4.9307 -1.2805 0.9779
1.3929 5.2160 -1.2688 0.9781
0.9311 5.3697 -1.2808 0.9779
0.4572 5.5351 -1.3053 0.9774
-0.0179 2.6179 -0.6153 0.9893
-0.5706 5.9184 -1.3974 0.9759
-1.7699 6.2813 -1.5337 0.9735
-2.0810 5.4637 -1.3741 0.9763
-4.1671 8.5569 -2.2369 0.9616
-4.8235 8.0023 -2.1960 0.9623
-5.9351 6.7536 -2.1131 0.9637
-6.7684 5.3764 -2.0315 0.9651
-7.8931 4.2380 -2.1056 0.9639
-8.0852 3.4516 -2.0661 0.9645
-8.2085 2.6676 -2.0285 0.9652
-8.1953 0.3807 -1.9282 0.9669
-8.0736 -0.3461 -1.8992 0.9673
-7.6733 -1.7270 -1.8485 0.9682
-7.4008 -2.3760 -1.8268 0.9686
-7.0840 -2.9943 -1.8075 0.9689
-6.3288 -4.1324 -1.7764 0.9694
-5.8956 -4.6489 -1.7645 0.9696
-5.4287 -5.1285 -1.7552 0.9698
-4.9303 -5.5700 -1.7483 0.9699
-2.6678 -6.9300 -1.7452 0.9699
-1.4054 -7.3490 -1.7585 0.9697
-0.7490 -7.4888 -1.7688 0.9695
0.6022 -7.6219 -1.7969 0.9691
1.2919 -7.6123 -1.8147 0.9688
4.0748 -7.0320 -1.9101 0.9672
4.7586 -6.7445 -1.9399 0.9667
-4.7594 -4.9581 -1.7795 0.9720
-1.5654 -6.7053 -1.7828 0.9720
-0.9661 -6.8512 -1.7914 0.9718
0.9008 -7.0147 -1.8311 0.9712
6.4090 -4.7687 -2.0684 0.9675
6.9265 -4.2506 -2.1042 0.9670
7.4064 -3.6801 -2.1413 0.9664
2.3567 -0.9192 -0.6550 0.9896
7.6372 -2.2178 -2.0591 0.9677
7.9443 -1.5555 -2.0960 0.9671
8.1937 -0.8559 -2.1330 0.9665
8.3798 -0.1242 -2.1699 0.9660
8.5416 1.4110 -2.2416 0.9649
