ply
format ascii 1.0
element vertex 1593
property float32 x
property float32 y
property float32 z
property float32 I
end_header
2.1581 5.1070 -0.9134 0.9778
1.6857 5.2544 -0.9091 0.9779
-1.3975 6.0817 -1.0280 0.9750
-2.7781 6.4867 -1.1625 0.9718
-10.3070 9.0259 -2.2570 0.9460
-10.7595 7.8423 -2.1934 0.9475
-11.1005 6.6609 -2.1326 0.9489
-2.7719 1.3426 -0.5074 0.9876
-11.5180 3.2163 -1.9701 0.9527
-11.3569 1.0654 -1.8791 0.9548
-11.1631 0.0464 -1.8390 0.9558
-10.5768 -1.8659 -1.7693 0.9574
-10.1941 -2.7556 -1.7396 0.9581
-9.7577 -3.5993 -1.7134 0.9587
-8.7389 -5.1456 -1.6707 0.9597
-7.5474 -6.4994 -1.6408 0.9604
-6.2051 -7.6560 -1.6235 0.9608
-5.4831 -8.1589 -1.6194 0.9609
-4.7299 -8.6103 -1.6184 0.9610
-3.9474 -9.0095 -1.6204 0.9609
-2.3011 -9.6461 -1.6337 0.9606
-1.4407 -9.8806 -1.6449 0.9603
-0.5578 -10.0569 -1.6593 0.9600
1.2681 -10.2269 -1.6977 0.9591
3.1594 -10.1368 -1.7492 0.9579
8.0115 -8.6160 -1.9382 0.9534
9.9035 -7.4194 -2.0386 0.9511
2.3551 -0.9265 -0.4169 0.9898
12.9611 -2.5740 -2.1769 0.9478
13.9948 -0.2418 -2.3058 0.9448
10.1151 2.5923 -1.7202 0.9586
7.3476 3.3666 -1.3314 0.9678
5.5699 3.8798 -1.1182 0.9729
4.9738 4.1707 -1.0693 0.9740
3.3478 4.8430 -0.9699 0.9764
2.8349 5.0039 -0.9474 0.9770
2.2981 5.0633 -0.9160 0.9777
1.8240 5.2113 -0.9096 0.9779
0.9045 5.6799 -0.9475 0.9770
0.3954 5.7610 -0.9513 0.9769
-10.1521 9.3723 -2.2762 0.9455
-10.6384 8.1902 -2.2118 0.9470
-2.7286 1.4113 -0.5061 0.9876
-11.2273 0.3414 -1.8504 0.9555
-10.6783 -1.5960 -1.7787 0.9572
-10.3123 -2.4990 -1.7480 0.9579
-9.8912 -3.3564 -1.7207 0.9585
-9.4192 -4.1671 -1.6968 0.9591
-8.8999 -4.9305 -1.6761 0.9596
-7.7323 -6.3128 -1.6444 0.9603
-7.0896 -6.9306 -1.6333 0.9606
-6.4109 -7.4987 -1.6253 0.9608
-5.6985 -8.0165 -1.6203 0.9609
-4.1802 -8.8978 -1.6195 0.9609
-2.5492 -9.5664 -1.6310 0.9607
0.0784 -10.1454 -1.6714 0.9597
0.9954 -10.2178 -1.6912 0.9592
1.9295 -10.2259 -1.7143 0.9587
3.8391 -10.0387 -1.7706 0.9574
4.8085 -9.8372 -1.8038 0.9566
9.6310 -7.6180 -2.0229 0.9514
10.5487 -6.9087 -2.0773 0.9502
11.4322 -6.1045 -2.1350 0.9488
12.1157 -3.9035 -2.0970 0.9497
13.3682 -1.7873 -2.2219 0.9468
14.2630 0.6545 -2.3522 0.9438
11.7149 1.5941 -1.9477 0.9532
10.6285 2.4284 -1.7961 0.9568
9.0389 2.9355 -1.5656 0.9622
6.5926 3.5400 -1.2327 0.9701
5.7660 3.7956 -1.1372 0.9724
5.1448 4.0890 -1.0826 0.9737
4.5681 4.3499 -1.0392 0.9748
3.5035 4.7941 -0.9782 0.9762
2.9831 4.9574 -0.9531 0.9768
2.4390 5.0193 -0.9193 0.9776
1.4913 5.3149 -0.9094 0.9779
0.5504 5.7896 -0.9581 0.9767
0.0146 2.7104 -0.4465 0.9891
-2.0111 5.4730 -0.9606 0.9766
-6.1944 13.1057 -2.3880 0.9429
-7.1380 12.1572 -2.3225 0.9445
-8.5821 12.0137 -2.4322 0.9419
-9.3465 10.8810 -2.3630 0.9435
-9.9870 9.7177 -2.2956 0.9451
-10.9133 7.3540 -2.1679 0.9480
-11.4043 5.0136 -2.0523 0.9508
-11.4368 1.6822 -1.9044 0.9542
-10.0203 -3.1094 -1.7284 0.9584
-9.5629 -3.9339 -1.7035 0.9589
-9.0571 -4.7113 -1.6819 0.9595
-7.9138 -6.1220 -1.6483 0.9603
-5.9111 -7.8697 -1.6214 0.9609
-5.1760 -8.3514 -1.6186 0.9610
-3.6163 -9.1587 -1.6222 0.9609
-2.7952 -9.4819 -1.6285 0.9607
-1.9489 -9.7497 -1.6379 0.9605
0.7242 -10.2031 -1.6851 0.9594
2.5983 -10.1916 -1.7327 0.9583
3.5559 -10.0839 -1.7615 0.9576
5.4964 -9.6492 -1.8294 0.9560
6.4717 -9.3156 -1.8686 0.9551
7.4440 -8.8999 -1.9114 0.9541
8.4078 -8.3986 -1.9577 0.9530
11.1769 -6.3506 -2.1177 0.9492
12.0303 -5.4784 -2.1777 0.9478
13.2041 -2.1195 -2.2031 0.9472
13.7308 -0.9597 -2.2675 0.9457
-0.0265 -9.1192 -1.7141 0.9636
1.6317 -9.1822 -1.7529 0.9628
2.4782 -9.1226 -1.7768 0.9623
3.3323 -8.9992 -1.8037 0.9617
4.1907 -8.8096 -1.8337 0.9611
5.0496 -8.5514 -1.8666 0.9604
6.7506 -7.8195 -1.9417 0.9588
10.6262 -4.6400 -2.1794 0.9539
10.4636 -3.4944 -2.0735 0.9561
11.0062 -2.6111 -2.1262 0.9550
11.8722 -0.6436 -2.2348 0.9528
12.1744 0.4290 -2.2897 0.9516
11.8988 1.4904 -2.2540 0.9524
4.4953 4.1904 -1.1551 0.9753
3.9268 4.3781 -1.1054 0.9763
3.0401 4.9326 -1.0891 0.9767
2.4720 4.9527 -1.0404 0.9777
1.5335 5.2499 -1.0280 0.9780
1.0611 5.3781 -1.0304 0.9779
0.5813 5.4942 -1.0384 0.9778
0.0428 2.6716 -0.5022 0.9892
-0.4207 5.7254 -1.0790 0.9769
-2.0645 5.8083 -1.1586 0.9752
-5.1835 11.2759 -2.3326 0.9507
-6.0247 10.5156 -2.2779 0.9519
-6.7720 9.6962 -2.2230 0.9530
-7.4236 8.8307 -2.1684 0.9541
-9.0965 7.5533 -2.2224 0.9530
-9.4958 6.5467 -2.1679 0.9541
-9.8002 5.5361 -2.1156 0.9552
-10.0139 4.5300 -2.0658 0.9563
-10.1416 3.5355 -2.0187 0.9572
-10.0573 0.6777 -1.8947 0.9598
-9.6597 -1.0814 -1.8270 0.9612
-9.3720 -1.9083 -1.7977 0.9618
-9.0304 -2.6973 -1.7714 0.9624
-8.6386 -3.4467 -1.7482 0.9629
-8.2003 -4.1554 -1.7279 0.9633
-7.1960 -5.4454 -1.6962 0.9639
-6.6358 -6.0249 -1.6847 0.9642
-6.0404 -6.5594 -1.6760 0.9644
-5.4120 -7.0479 -1.6702 0.9645
-4.7529 -7.4897 -1.6673 0.9645
-3.3506 -8.2283 -1.6699 0.9645
-1.0666 -8.9555 -1.6952 0.9640
-0.2651 -9.0903 -1.7094 0.9637
1.3850 -9.1880 -1.7465 0.9629
3.0809 -9.0422 -1.7955 0.9619
4.7976 -8.6345 -1.8566 0.9606
5.6542 -8.3264 -1.8918 0.9599
8.9495 -6.3450 -2.0620 0.9563
10.4250 -4.8818 -2.1637 0.9542
10.2925 -3.7403 -2.0584 0.9564
10.8537 -2.8778 -2.1106 0.9553
11.4046 2.1667 -2.1820 0.9539
8.2633 3.1719 -1.6637 0.9646
6.1830 3.7508 -1.3593 0.9710
1.2004 5.3418 -1.0291 0.9780
-1.3892 6.0456 -1.1660 0.9751
-5.7873 10.7456 -2.2941 0.9515
-7.8262 8.1983 -2.1304 0.9549
-8.9606 7.8469 -2.2388 0.9527
-2.7706 1.3420 -0.5786 0.9875
-10.1127 3.8260 -2.0323 0.9569
-10.1826 2.8434 -1.9871 0.9579
-10.1748 1.8822 -1.9449 0.9588
-9.4622 -1.6693 -1.8060 0.9616
-9.1360 -2.4696 -1.7788 0.9622
-8.7587 -3.2308 -1.7547 0.9627
-7.8642 -4.6306 -1.7154 0.9635
-6.8041 -5.8593 -1.6878 0.9641
-4.9495 -7.3649 -1.6679 0.9645
-4.2699 -7.7729 -1.6669 0.9645
-3.5630 -8.1322 -1.6688 0.9645
-1.2985 -8.9054 -1.6916 0.9640
0.3111 -9.1515 -1.7211 0.9634
1.1393 -9.1885 -1.7403 0.9630
1.9798 -9.1652 -1.7624 0.9626
3.6862 -8.9291 -1.8157 0.9614
4.5453 -8.7115 -1.8469 0.9608
6.2551 -8.0650 -1.9184 0.9593
7.9198 -7.1212 -2.0019 0.9576
10.6953 -3.1385 -2.0951 0.9556
11.2105 -2.2264 -2.1483 0.9545
11.5683 -1.2386 -2.1870 0.9538
12.0085 -0.2075 -2.2575 0.9523
12.2702 0.8863 -2.3123 0.9512
11.4299 1.8621 -2.1767 0.9540
10.0933 2.5867 -1.9584 0.9585
6.4557 3.6880 -1.3975 0.9702
4.2521 4.2673 -1.1323 0.9758
3.7197 4.4683 -1.0928 0.9766
2.2779 5.0188 -1.0360 0.9778
1.3392 5.3043 -1.0283 0.9780
0.8643 5.4274 -1.0330 0.9779
0.3802 5.5387 -1.0435 0.9777
-0.6412 5.7932 -1.0955 0.9766
-2.5953 6.5284 -1.3205 0.9718
-5.5418 10.9702 -2.3101 0.9512
-6.3446 10.1839 -2.2553 0.9523
-7.0525 9.3439 -2.2004 0.9535
-9.2730 7.1390 -2.1997 0.9535
-9.6327 6.1296 -2.1461 0.9546
-2.7300 1.4120 -0.5777 0.9876
-10.1848 2.1620 -1.9570 0.9585
-9.8020 -0.5788 -1.8456 0.9608
-8.8746 -3.0114 -1.7615 0.9626
-7.5076 -5.0845 -1.7043 0.9638
-4.4724 -7.6580 -1.6669 0.9645
-3.7733 -8.0318 -1.6680 0.9645
-3.0484 -8.3560 -1.6719 0.9644
-2.2996 -8.6294 -1.6786 0.9643
1.7319 -9.1784 -1.7556 0.9627
2.5794 -9.1113 -1.7799 0.9622
3.4343 -8.9802 -1.8071 0.9616
4.2929 -8.7826 -1.8374 0.9610
6.8505 -7.7666 -1.9465 0.9587
9.2671 -6.0693 -2.0822 0.9559
10.5315 -3.3931 -2.0797 0.9560
11.0664 -2.5014 -2.1325 0.9549
11.9131 -0.5189 -2.2413 0.9526
9.0212 2.9297 -1.7828 0.9621
7.7877 3.3238 -1.5915 0.9661
5.8250 3.8344 -1.3108 0.9720
5.0562 4.0186 -1.2140 0.9741
4.4242 4.2129 -1.1483 0.9754
3.8668 4.4045 -1.1016 0.9764
3.4992 4.7883 -1.1147 0.9762
2.9796 4.9516 -1.0862 0.9768
2.4160 4.9720 -1.0390 0.9778
1.9435 5.1177 -1.0290 0.9780
1.4775 5.2658 -1.0280 0.9780
0.5236 5.5072 -1.0398 0.9777
0.0144 2.6681 -0.5015 0.9892
-0.4836 5.7447 -1.0836 0.9768
-1.0358 5.9143 -1.1286 0.9759
-1.6541 6.1498 -1.1970 0.9744
-5.2884 11.1890 -2.3262 0.9509
-10.1885 2.4439 -1.9694 0.9583
-10.0408 0.5694 -1.8903 0.9599
-9.8654 -0.3230 -1.8553 0.9606
-9.6284 -1.1817 -1.8233 0.9613
-8.5889 -3.5332 -1.7456 0.9629
-6.5668 -6.0908 -1.6835 0.9642
-5.9673 -6.6199 -1.6752 0.9644
-5.3352 -7.1030 -1.6697 0.9645
-3.2639 -8.2660 -1.6704 0.9645
-2.5219 -8.5545 -1.6763 0.9644
-0.9722 -8.9744 -1.6967 0.9639
-0.1686 -9.1026 -1.7112 0.9636
4.0406 -8.8476 -1.8282 0.9612
10.5071 -4.7847 -2.1700 0.9541
11.8098 -0.8254 -2.2252 0.9530
2.2436 -8.2591 -1.8091 0.9656
3.0125 -8.1357 -1.8338 0.9652
3.7826 -7.9516 -1.8613 0.9646
4.5498 -7.7051 -1.8915 0.9641
6.0584 -7.0177 -1.9597 0.9628
8.1771 -5.4806 -2.0808 0.9606
9.4112 -4.1095 -2.1707 0.9589
9.2477 -3.0884 -2.0609 0.9609
9.6987 -2.3009 -2.1070 0.9601
10.6309 0.3746 -2.2486 0.9574
9.1698 2.8705 -2.0311 0.9615
6.0215 3.8726 -1.5133 0.9712
3.5586 4.7624 -1.2567 0.9760
1.9533 4.9833 -1.1314 0.9784
1.4971 5.1255 -1.1287 0.9784
1.0394 5.2677 -1.1350 0.9783
0.0425 2.6525 -0.5608 0.9892
-0.4243 5.7742 -1.2238 0.9766
-0.9835 5.9903 -1.2832 0.9755
-4.5156 9.8230 -2.2853 0.9568
-5.9353 8.4983 -2.1911 0.9585
-9.0648 3.1601 -2.0292 0.9615
-9.0485 0.6098 -1.9170 0.9636
-8.9143 -0.1970 -1.8848 0.9642
-8.7220 -0.9764 -1.8552 0.9648
-8.4754 -1.7257 -1.8283 0.9653
-7.8329 -3.1252 -1.7826 0.9661
-5.4981 -5.9705 -1.7157 0.9674
-4.9277 -6.4172 -1.7103 0.9675
-3.7019 -7.1792 -1.7074 0.9675
-3.0508 -7.4921 -1.7099 0.9675
-2.3770 -7.7580 -1.7151 0.9674
-0.9698 -8.1432 -1.7335 0.9670
-0.2409 -8.2595 -1.7466 0.9668
1.2559 -8.3317 -1.7811 0.9661
2.0185 -8.2841 -1.8023 0.9657
4.3250 -7.7841 -1.8823 0.9642
6.5771 -6.7112 -1.9863 0.9623
8.6352 -5.0287 -2.1123 0.9600
9.1042 -3.3085 -2.0476 0.9612
10.3146 -0.8312 -2.1874 0.9586
10.8172 2.0550 -2.3274 0.9560
8.2481 3.1661 -1.8675 0.9645
5.4693 4.0270 -1.4357 0.9726
4.1146 4.3521 -1.2660 0.9758
3.5935 4.5547 -1.2263 0.9766
0.1172 2.7702 -0.5861 0.9887
-0.1347 2.8573 -0.6046 0.9884
-0.8136 5.9239 -1.2639 0.9759
-1.7713 5.4312 -1.2076 0.9769
-5.0524 9.3811 -2.2523 0.9574
-5.7465 8.7061 -2.2050 0.9582
-6.3611 7.9832 -2.1577 0.9591
-7.3477 6.4344 -2.0645 0.9609
-8.6374 5.1829 -2.1293 0.9597
-2.7692 1.3414 -0.6504 0.9875
-9.0325 3.4173 -2.0414 0.9613
-9.1166 2.5457 -2.0008 0.9620
-9.1299 1.6889 -1.9626 0.9628
-9.0763 0.8514 -1.9270 0.9634
-8.9599 0.0372 -1.8940 0.9640
-8.5532 -1.5089 -1.8359 0.9651
-6.1894 -5.3300 -1.7266 0.9672
-5.0983 -6.2905 -1.7116 0.9674
-3.8885 -7.0785 -1.7072 0.9675
-2.5771 -7.6849 -1.7133 0.9674
-1.1810 -8.0992 -1.7301 0.9671
-0.4565 -8.2308 -1.7425 0.9669
0.2825 -8.3099 -1.7576 0.9666
1.0335 -8.3349 -1.7753 0.9662
1.7938 -8.3040 -1.7958 0.9659
3.3304 -8.0672 -1.8448 0.9649
6.3626 -6.8427 -1.9751 0.9625
7.7822 -5.8302 -2.0554 0.9610
2.3534 -0.9259 -0.5346 0.9897
10.2238 -1.0946 -2.1735 0.9588
10.8052 1.7603 -2.3141 0.9562
10.0714 2.5811 -2.1977 0.9584
8.6127 3.0492 -1.9313 0.9633
5.7042 3.9734 -1.4694 0.9720
3.7093 4.4558 -1.2255 0.9766
3.3398 4.8314 -1.2415 0.9763
2.6922 4.7520 -1.1545 0.9779
2.2235 4.8988 -1.1372 0.9782
0.3761 5.4789 -1.1608 0.9778
-0.0563 2.7011 -0.5711 0.9890
-1.2318 6.0884 -1.3130 0.9749
-1.6587 5.5786 -1.2302 0.9765
-2.6085 6.5614 -1.4925 0.9715
-4.8338 9.5686 -2.2660 0.9571
-6.1890 8.1998 -2.1716 0.9589
-6.7465 7.4493 -2.1244 0.9597
-8.5526 5.4424 -2.1428 0.9594
-9.0994 2.8004 -2.0125 0.9618
-9.1331 1.9387 -1.9736 0.9625
-9.0988 1.0952 -1.9372 0.9632
-9.0004 0.2737 -1.9034 0.9639
-8.6266 -1.2894 -1.8438 0.9650
-8.3586 -2.0256 -1.8180 0.9654
-7.6774 -3.3965 -1.7746 0.9663
-6.8233 -4.6210 -1.7419 0.9669
-5.8188 -5.6883 -1.7201 0.9673
-5.2664 -6.1600 -1.7131 0.9674
-4.0729 -6.9740 -1.7071 0.9675
-3.4361 -7.3139 -1.7081 0.9675
-1.3906 -8.0508 -1.7270 0.9671
0.0641 -8.2922 -1.7529 0.9667
1.5697 -8.3190 -1.7895 0.9660
2.3349 -8.2475 -1.8119 0.9656
3.8741 -7.9256 -1.8647 0.9646
5.3998 -7.3530 -1.9284 0.9634
6.1464 -6.9684 -1.9641 0.9627
7.5805 -5.9961 -2.0430 0.9613
8.2556 -5.4069 -2.0860 0.9605
8.8934 -4.7488 -2.1311 0.9596
9.4710 -4.0162 -2.1745 0.9588
9.3045 -2.9977 -2.0663 0.9608
9.7482 -2.2034 -2.1126 0.9600
10.4307 -0.4543 -2.2069 0.9582
10.7847 1.4675 -2.3007 0.9565
10.5805 2.4175 -2.2942 0.9566
7.7739 3.3179 -1.7867 0.9660
5.9282 3.9024 -1.5002 0.9714
4.4761 4.2623 -1.3065 0.9750
3.8744 4.4131 -1.2413 0.9763
3.4950 4.7825 -1.2521 0.9761
2.3597 4.8562 -1.1413 0.9782
0.5162 5.4297 -1.1529 0.9779
0.0143 2.6478 -0.5597 0.9892
-4.6087 9.7508 -2.2797 0.9569
-7.5112 6.1032 -2.0458 0.9612
-8.7447 4.8180 -2.1104 0.9600
-8.9487 3.9341 -2.0663 0.9608
-9.1157 1.3408 -1.9476 0.9630
-8.8944 -0.2912 -1.8811 0.9643
-8.6955 -1.0672 -1.8518 0.9648
-7.7888 -3.2041 -1.7803 0.9662
-6.9586 -4.4509 -1.7461 0.9668
-5.4319 -6.0259 -1.7149 0.9674
-3.6257 -7.2188 -1.7076 0.9675
-2.9718 -7.5262 -1.7104 0.9675
0.5910 -8.3269 -1.7646 0.9664
2.8780 -8.1616 -1.8293 0.9652
3.6481 -7.9883 -1.8563 0.9647
5.1779 -7.4533 -1.9184 0.9636
5.9287 -7.0883 -1.9533 0.9629
6.6634 -6.6562 -1.9909 0.9622
8.0609 -5.5871 -2.0732 0.9607
8.7104 -4.9492 -2.1177 0.9599
9.1629 -3.2200 -2.0530 0.9611
9.6243 -2.4426 -2.0989 0.9602
10.0226 -1.6088 -2.1457 0.9593
10.3495 -0.7233 -2.1930 0.9585
-0.0220 -7.5824 -1.7820 0.9693
1.3515 -7.6057 -1.8155 0.9688
2.0479 -7.5386 -1.8360 0.9684
3.4440 -7.2398 -1.8842 0.9676
4.8201 -6.7120 -1.9421 0.9666
5.4901 -6.3593 -1.9745 0.9661
6.7693 -5.4724 -2.0458 0.9649
8.6601 -2.0545 -2.0918 0.9641
8.9837 -1.2985 -2.1333 0.9634
9.4246 0.3321 -2.2164 0.9620
9.5483 2.0750 -2.2964 0.9606
9.1512 2.8647 -2.2537 0.9614
7.8921 3.2696 -2.0077 0.9655
5.2754 4.1020 -1.5706 0.9729
4.0155 4.4770 -1.4134 0.9756
3.0329 4.9209 -1.3585 0.9765
1.0531 5.3373 -1.2786 0.9779
0.5821 5.5013 -1.3001 0.9775
-0.9952 6.0616 -1.4437 0.9751
-5.2771 7.5559 -2.1660 0.9628
-7.0142 4.8358 -2.0023 0.9656
-8.2684 1.3061 -1.9674 0.9662
-8.2164 0.5537 -1.9354 0.9667
-8.1071 -0.1792 -1.9058 0.9672
-7.9435 -0.8893 -1.8786 0.9677
-7.7289 -1.5737 -1.8537 0.9681
-7.1587 -2.8563 -1.8114 0.9688
-6.8090 -3.4504 -1.7940 0.9691
-5.9938 -4.5357 -1.7666 0.9696
-5.0413 -5.4744 -1.7490 0.9699
-3.9701 -6.2562 -1.7414 0.9700
-3.3956 -6.5852 -1.7413 0.9700
-2.7980 -6.8714 -1.7437 0.9700
-2.1795 -7.1135 -1.7485 0.9699
-1.5423 -7.3101 -1.7559 0.9698
0.4591 -7.6140 -1.7927 0.9691
1.1479 -7.6152 -1.8100 0.9689
3.2395 -7.2978 -1.8765 0.9677
5.2950 -6.4691 -1.9648 0.9662
5.9525 -6.0739 -1.9987 0.9657
8.3011 -3.8872 -2.1543 0.9630
8.8952 -1.5251 -2.1211 0.9636
9.1726 -0.7392 -2.1628 0.9629
9.5070 0.9381 -2.2452 0.9615
9.5518 1.8146 -2.2850 0.9608
8.2327 3.1602 -2.0725 0.9644
6.2494 3.7911 -1.7179 0.9704
5.4819 4.0362 -1.5999 0.9724
4.8074 4.2510 -1.5082 0.9740
4.1918 4.4337 -1.4340 0.9752
3.6124 4.5786 -1.3707 0.9763
2.5859 4.8573 -1.2933 0.9776
2.1117 4.9971 -1.2750 0.9780
0.1155 2.7310 -0.6424 0.9888
-0.1314 2.7875 -0.6559 0.9886
-3.7861 8.8403 -2.2602 0.9613
-5.1056 7.7352 -2.1783 0.9626
-5.6653 7.1099 -2.1366 0.9633
-6.1553 6.4480 -2.0951 0.9640
-6.5750 5.7578 -2.0540 0.9647
-6.9247 5.0472 -2.0139 0.9654
-7.7641 4.6589 -2.1281 0.9635
-8.1533 3.0847 -2.0488 0.9648
-8.2722 1.5303 -1.9772 0.9660
-8.2378 0.7728 -1.9446 0.9666
-7.9970 -0.6833 -1.8863 0.9676
-7.7971 -1.3755 -1.8608 0.9680
-7.5482 -2.0404 -1.8377 0.9684
-7.2536 -2.6756 -1.8170 0.9687
-6.9159 -3.2793 -1.7989 0.9690
-5.6721 -4.8845 -1.7592 0.9697
-5.1890 -5.3461 -1.7510 0.9699
-4.1341 -6.1516 -1.7419 0.9700
-2.9758 -6.7919 -1.7427 0.9700
-1.7312 -7.2572 -1.7535 0.9698
-0.4180 -7.5370 -1.7741 0.9695
2.3361 -7.4952 -1.8451 0.9683
4.4199 -6.8914 -1.9241 0.9669
5.0985 -6.5737 -1.9552 0.9664
6.4038 -5.7581 -2.0240 0.9652
7.0200 -5.2592 -2.0615 0.9646
7.6039 -4.6996 -2.1009 0.9639
8.1492 -4.0803 -2.1419 0.9632
2.3530 -0.9257 -0.5943 0.9897
8.4417 -2.4772 -2.0677 0.9645
8.8012 -1.7479 -2.1089 0.9638
9.3259 -0.1611 -2.1921 0.9624
9.5476 1.5554 -2.2735 0.9610
9.5302 2.4424 -2.3122 0.9604
8.5962 3.0433 -2.1432 0.9632
7.4475 3.4124 -1.9253 0.9669
6.4973 3.7117 -1.7586 0.9697
4.3733 4.3890 -1.4562 0.9749
3.7767 4.5367 -1.3873 0.9760
3.3357 4.8255 -1.3787 0.9762
2.8249 4.9862 -1.3469 0.9767
2.2493 4.9557 -1.2791 0.9779
1.7844 5.0980 -1.2694 0.9781
0.8605 5.4034 -1.2859 0.9778
0.1929 2.8109 -0.6622 0.9885
-0.6595 5.9588 -1.4090 0.9757
-1.2416 6.1368 -1.4715 0.9746
-1.6594 5.5809 -1.3684 0.9764
-2.6046 6.5517 -1.6570 0.9714
-4.2815 8.4754 -2.2316 0.9617
-5.5081 7.2977 -2.1488 0.9631
-6.0187 6.6457 -2.1072 0.9638
-6.4591 5.9629 -2.0660 0.9645
-2.7327 1.4134 -0.7231 0.9874
-8.1136 3.3156 -2.0600 0.9646
-8.2250 2.5313 -2.0225 0.9653
-8.2708 1.7557 -1.9871 0.9659
-8.2541 0.9935 -1.9539 0.9664
-8.1781 0.2487 -1.9229 0.9669
-8.0460 -0.4751 -1.8943 0.9674
-7.0194 -3.1054 -1.8039 0.9690
-6.6530 -3.6857 -1.7875 0.9692
-6.2483 -4.2317 -1.7736 0.9695
-4.8294 -5.6488 -1.7467 0.9699
-4.2959 -6.0434 -1.7426 0.9700
-3.7360 -6.3971 -1.7411 0.9700
-3.1517 -6.7086 -1.7420 0.9700
-2.5452 -6.9767 -1.7454 0.9699
-1.2744 -7.3777 -1.7596 0.9697
-0.6144 -7.5080 -1.7704 0.9695
1.4341 -7.6005 -1.8178 0.9687
2.1309 -7.5271 -1.8386 0.9684
3.5267 -7.2149 -1.8874 0.9675
5.5687 -6.3134 -1.9785 0.9660
6.8421 -5.4120 -2.0503 0.9648
7.9935 -4.2683 -2.1297 0.9635
8.4863 -3.5987 -2.1664 0.9628
8.3253 -2.6823 -2.0557 0.9647
8.7018 -1.9669 -2.0967 0.9640
9.0179 -1.2057 -2.1383 0.9633
9.4413 0.4333 -2.2213 0.9619
9.5359 1.2976 -2.2618 0.9612
8.9854 2.9181 -2.2204 0.9619
7.7601 3.3120 -1.9830 0.9659
6.7634 3.6317 -1.8042 0.9689
5.1939 4.1280 -1.5593 0.9731
4.5502 4.3328 -1.4767 0.9745
3.4907 4.7766 -1.3904 0.9760
2.9725 4.9398 -1.3550 0.9766
1.4596 5.2020 -1.2698 0.9780
-1.0653 6.0830 -1.4514 0.9749
-1.6872 6.2728 -1.5266 0.9737
-2.0021 5.4486 -1.3643 0.9764
-5.8760 6.8407 -2.1194 0.9636
-6.3370 6.1661 -2.0781 0.9643
-7.8676 4.3347 -2.1111 0.9638
-8.0680 3.5469 -2.0713 0.9644
-8.1992 2.7610 -2.0333 0.9651
-8.2653 1.2157 -1.9634 0.9663
-8.0904 -0.2649 -1.9025 0.9673
-7.4320 -2.3062 -1.8289 0.9685
-7.1193 -2.9287 -1.8092 0.9689
-6.3710 -4.0750 -1.7774 0.9694
-5.9408 -4.5957 -1.7652 0.9696
-5.4766 -5.0796 -1.7555 0.9698
-4.9807 -5.5254 -1.7483 0.9699
-4.4554 -5.9317 -1.7436 0.9700
-3.9030 -6.2975 -1.7413 0.9700
-2.1046 -7.1393 -1.7493 0.9699
-1.4653 -7.3305 -1.7569 0.9698
-0.1402 -7.5707 -1.7796 0.9694
1.2303 -7.6119 -1.8122 0.9688
1.9260 -7.5542 -1.8322 0.9685
2.6244 -7.4424 -1.8547 0.9681
4.0160 -7.0503 -1.9070 0.9672
4.7015 -6.7675 -1.9367 0.9667
5.3742 -6.4253 -1.9687 0.9662
6.6616 -5.5596 -2.0392 0.9650
7.2652 -5.0356 -2.0775 0.9643
8.3565 -3.8054 -2.1580 0.9630
8.2042 -2.8831 -2.0438 0.9649
9.2009 -0.6431 -2.1677 0.9628
-0.0203 -6.9847 -1.8085 0.9716
1.2431 -6.9958 -1.8397 0.9711
2.5214 -6.8094 -1.8801 0.9704
3.1582 -6.6391 -1.9036 0.9701
3.7887 -6.4161 -1.9293 0.9697
5.0146 -5.8086 -1.9869 0.9688
6.6970 -4.4886 -2.0874 0.9672
7.1952 -3.9409 -2.1241 0.9667
7.4828 -2.4989 -2.0426 0.9679
7.8143 -1.8538 -2.0794 0.9674
8.3060 -0.4503 -2.1537 0.9662
8.4550 0.2979 -2.1905 0.9656
8.5342 1.8547 -2.2612 0.9646
8.4564 2.6472 -2.2943 0.9640
6.8613 3.5908 -2.0051 0.9685
5.2679 4.0962 -1.7278 0.9728
4.6170 4.3038 -1.6343 0.9743
1.9922 5.0826 -1.4135 0.9777
1.5401 5.2727 -1.4222 0.9776
1.0693 5.4193 -1.4302 0.9774
0.5891 5.5678 -1.4497 0.9771
0.0419 2.6151 -0.6772 0.9893
-0.4322 5.8819 -1.5270 0.9759
-1.9271 5.4219 -1.4899 0.9765
-3.5794 7.7864 -2.2189 0.9652
-4.1907 7.3145 -2.1827 0.9658
-4.7453 6.7944 -2.1458 0.9663
-5.2405 6.2337 -2.1086 0.9669
-6.6038 3.7305 -1.9638 0.9691
-7.3184 3.3106 -2.0797 0.9674
-7.5547 1.1934 -1.9803 0.9689
-7.5178 0.5066 -1.9509 0.9693
-7.4274 -0.1642 -1.9236 0.9698
-6.5859 -2.6277 -1.8359 0.9711
-5.9145 -3.6950 -1.8057 0.9716
-5.5251 -4.1810 -1.7940 0.9718
-5.1031 -4.6332 -1.7846 0.9719
-4.1702 -5.4307 -1.7728 0.9721
-3.6637 -5.7734 -1.7704 0.9721
-2.5819 -6.3406 -1.7726 0.9721
-2.0107 -6.5625 -1.7771 0.9720
-0.2032 -6.9670 -1.8047 0.9716
1.0561 -7.0063 -1.8346 0.9711
3.6044 -6.4871 -1.9215 0.9698
4.8385 -5.9114 -1.9779 0.9689
6.5438 -4.6393 -2.0769 0.9674
7.0529 -4.1072 -2.1132 0.9668
7.3757 -2.6804 -2.0319 0.9681
8.2494 -0.6648 -2.1428 0.9664
8.5175 0.8405 -2.2160 0.9653
8.5418 1.6228 -2.2512 0.9647
8.2173 3.1543 -2.2790 0.9643
6.2396 3.7852 -1.8896 0.9703
5.4739 4.0304 -1.7600 0.9723
3.6402 4.6139 -1.5217 0.9760
3.1793 4.8676 -1.5053 0.9763
2.6264 4.9335 -1.4471 0.9772
2.1479 5.0828 -1.4287 0.9775
1.2081 5.3762 -1.4267 0.9775
0.7315 5.5238 -1.4427 0.9772
0.1150 2.7186 -0.7045 0.9888
-0.8243 6.0018 -1.5686 0.9753
-1.4210 6.1838 -1.6428 0.9741
-1.7686 5.4230 -1.4769 0.9767
-3.3897 7.9147 -2.2293 0.9650
-4.0169 7.4585 -2.1934 0.9656
-5.5533 5.8174 -2.0823 0.9673
-5.9434 5.2047 -2.0455 0.9679
-7.4230 2.8084 -2.0549 0.9677
-7.5187 2.0996 -2.0212 0.9683
-7.5343 0.7068 -1.9593 0.9692
-7.4593 0.0310 -1.9314 0.9696
-6.9362 -1.8749 -1.8604 0.9707
-6.6715 -2.4609 -1.8411 0.9710
-6.3660 -3.0186 -1.8242 0.9713
-6.0224 -3.5461 -1.8095 0.9715
-5.6430 -4.0417 -1.7972 0.9717
-4.7866 -4.9315 -1.7794 0.9720
-4.3141 -5.3228 -1.7740 0.9721
-3.8150 -5.6768 -1.7709 0.9721
-3.2916 -5.9921 -1.7701 0.9721
-2.1803 -6.5017 -1.7755 0.9721
0.8695 -7.0126 -1.8296 0.9712
1.5065 -6.9738 -1.8473 0.9710
2.7847 -6.7455 -1.8895 0.9703
3.4194 -6.5535 -1.9139 0.9699
4.0461 -6.3085 -1.9405 0.9695
5.8366 -5.2481 -2.0323 0.9681
6.3877 -4.7855 -2.0665 0.9676
7.3893 -3.6998 -2.1396 0.9664
7.6259 -2.2378 -2.0577 0.9677
7.9353 -1.5759 -2.0947 0.9671
8.1872 -0.8766 -2.1319 0.9666
8.4960 0.6137 -2.2055 0.9654
8.5119 2.1814 -2.2751 0.9643
6.4869 3.7058 -1.9343 0.9696
5.6878 3.9619 -1.7947 0.9718
2.2874 5.0398 -1.4330 0.9774
0.9246 3.6621 -0.9779 0.9845
0.1923 2.8012 -0.7270 0.9885
-1.2399 6.1286 -1.6190 0.9745
-1.6600 5.5832 -1.5081 0.9762
-3.8383 7.5980 -2.2040 0.9654
-4.4266 7.1053 -2.1675 0.9660
-5.4270 5.9923 -2.0932 0.9671
-5.8353 5.3871 -2.0563 0.9677
-6.1814 4.7589 -2.0198 0.9683
-7.3833 3.0172 -2.0651 0.9676
-7.4969 2.3072 -2.0309 0.9681
-7.5461 0.9083 -1.9679 0.9691
-7.2139 -1.0782 -1.8886 0.9703
-7.0058 -1.6978 -1.8664 0.9707
-6.4598 -2.8579 -1.8289 0.9712
-5.7580 -3.8996 -1.8006 0.9717
-4.4557 -5.2117 -1.7753 0.9721
-2.9084 -6.1908 -1.7710 0.9721
-2.3484 -6.4372 -1.7742 0.9721
-0.5663 -6.9197 -1.7976 0.9717
0.0540 -6.9907 -1.8101 0.9715
2.5974 -6.7919 -1.8827 0.9704
3.2336 -6.6154 -1.9065 0.9700
3.8631 -6.3860 -1.9325 0.9696
4.4818 -6.1030 -1.9605 0.9692
6.7582 -4.4262 -2.0917 0.9672
7.5249 -2.4244 -2.0470 0.9679
8.1196 -1.0856 -2.1210 0.9667
8.3273 -0.3627 -2.1581 0.9661
8.4417 2.7415 -2.2981 0.9640
6.7524 3.6258 -1.9844 0.9688
5.1866 4.1222 -1.7154 0.9730
4.5441 4.3270 -1.6246 0.9744
3.9613 4.5122 -1.5546 0.9755
3.4864 4.7707 -1.5299 0.9759
2.9690 4.9339 -1.4909 0.9765
1.9367 5.0999 -1.4125 0.9777
1.4844 5.2904 -1.4227 0.9776
1.0128 5.4368 -1.4319 0.9774
-0.4968 5.9017 -1.5335 0.9758
-1.0639 6.0750 -1.5969 0.9748
-3.6550 7.7331 -2.2146 0.9653
-4.8074 6.7297 -2.1414 0.9664
-5.2953 6.1647 -2.1042 0.9670
-7.3382 3.2261 -2.0755 0.9674
-7.4699 2.5154 -2.0408 0.9680
-7.5408 1.8088 -2.0078 0.9685
-7.5098 0.4259 -1.9475 0.9694
-6.2287 -3.2400 -1.8179 0.9714
-5.4766 -4.2366 -1.7928 0.9718
-5.0508 -4.6847 -1.7837 0.9719
-4.5949 -5.0974 -1.7769 0.9720
-3.6019 -5.8116 -1.7703 0.9721
-3.0691 -6.1106 -1.7705 0.9721
-1.9416 -6.5861 -1.7778 0.9720
-1.3513 -6.7602 -1.7850 0.9719
0.4978 -7.0126 -1.8203 0.9714
1.7702 -6.9434 -1.8553 0.9708
3.6792 -6.4589 -1.9246 0.9698
4.9101 -5.8704 -1.9815 0.9689
5.5004 -5.4944 -2.0129 0.9684
6.6062 -4.5788 -2.0811 0.9673
7.5647 -3.4448 -2.1522 0.9662
7.4196 -2.6073 -2.0362 0.9680
7.7602 -1.9695 -2.0729 0.9675
-0.0188 -6.4688 -1.8313 0.9735
2.3284 -6.2881 -1.8982 0.9725
4.6107 -5.3407 -1.9974 0.9711
5.1434 -4.9798 -2.0267 0.9707
6.5790 -3.6034 -2.1235 0.9693
6.9645 -3.0411 -2.1514 0.9689
7.1116 -1.6871 -2.0691 0.9701
7.3513 -1.0625 -2.1027 0.9696
7.5349 -0.4085 -2.1362 0.9691
7.6580 0.2699 -2.1693 0.9686
7.7162 0.9665 -2.2015 0.9682
7.7062 1.6747 -2.2325 0.9677
7.4710 3.0952 -2.2893 0.9669
6.8498 3.5848 -2.1886 0.9684
5.2604 4.0903 -1.8864 0.9727
4.6107 4.2979 -1.7844 0.9741
3.0255 4.9089 -1.6324 0.9763
2.4817 4.9720 -1.5731 0.9772
1.5384 5.2668 -1.5533 0.9774
0.5884 5.5611 -1.5831 0.9770
-1.9247 5.4150 -1.6269 0.9764
-3.7969 6.6272 -2.1622 0.9687
-5.5131 4.5778 -2.0286 0.9706
-6.0402 3.4121 -1.9639 0.9716
-6.6964 3.0293 -2.0807 0.9699
-6.9480 1.0975 -1.9913 0.9712
-6.9223 0.4665 -1.9641 0.9716
-6.5551 -1.3347 -1.8938 0.9726
-5.8033 -2.9407 -1.8418 0.9733
-5.1201 -3.8745 -1.8177 0.9737
-4.3126 -4.6831 -1.8023 0.9739
-3.8678 -5.0370 -1.7978 0.9739
-3.3984 -5.3553 -1.7956 0.9740
-2.3947 -5.8809 -1.7976 0.9739
-1.3186 -6.2501 -1.8083 0.9738
-0.7590 -6.3731 -1.8169 0.9737
0.3914 -6.4901 -1.8406 0.9733
0.9771 -6.4819 -1.8557 0.9731
2.1556 -6.3268 -1.8922 0.9726
3.3229 -5.9804 -1.9368 0.9720
5.9947 -4.2501 -2.0803 0.9699
6.4517 -3.7571 -2.1135 0.9694
6.8603 -3.2125 -2.1445 0.9690
6.7263 -2.4444 -2.0260 0.9707
7.0313 -1.8643 -2.0593 0.9702
7.2865 -1.2492 -2.0929 0.9697
7.4871 -0.6033 -2.1264 0.9693
7.6283 0.0685 -2.1596 0.9688
7.7061 0.7604 -2.1921 0.9683
7.7164 1.4660 -2.2235 0.9679
7.6564 2.1779 -2.2535 0.9674
7.5239 2.8881 -2.2815 0.9671
5.4659 4.0245 -1.9215 0.9722
4.1901 4.4319 -1.7266 0.9750
3.6356 4.6080 -1.6616 0.9759
2.6233 4.9275 -1.5803 0.9771
2.1456 5.0773 -1.5604 0.9773
1.6759 5.2240 -1.5531 0.9775
0.7306 5.5172 -1.5755 0.9771
0.1153 2.7247 -0.7720 0.9887
-0.1300 2.7577 -0.7816 0.9886
-0.8232 5.9940 -1.7128 0.9752
-1.7675 5.4195 -1.6138 0.9766
-4.1620 6.3055 -2.1388 0.9691
-4.6346 5.8164 -2.1054 0.9696
-5.4169 4.7436 -2.0384 0.9705
-6.9351 0.6506 -1.9719 0.9715
-6.8739 0.0285 -1.9460 0.9718
-6.6091 -1.1659 -1.8999 0.9725
-6.4103 -1.7328 -1.8798 0.9728
-5.5773 -3.2840 -1.8323 0.9735
-5.2286 -3.7449 -1.8207 0.9736
-4.8482 -4.1750 -1.8113 0.9738
-3.5387 -5.2656 -1.7960 0.9740
-3.0533 -5.5582 -1.7953 0.9740
-2.0220 -6.0296 -1.8004 0.9739
-0.9246 -6.3413 -1.8142 0.9737
0.8046 -6.4891 -1.8511 0.9732
1.3930 -6.4485 -1.8676 0.9729
1.9827 -6.3614 -1.8863 0.9727
2.5705 -6.2266 -1.9070 0.9724
3.7272 -5.8112 -1.9544 0.9717
5.3566 -4.8164 -2.0393 0.9705
2.3523 -0.9254 -0.7156 0.9895
7.2170 -1.4333 -2.0830 0.9699
7.4341 -0.7960 -2.1166 0.9694
7.6901 0.5555 -2.1827 0.9685
7.7206 1.2578 -2.2144 0.9680
7.6815 1.9686 -2.2449 0.9676
3.7942 4.5577 -1.6788 0.9756
3.3275 4.8136 -1.6566 0.9760
0.1956 2.8504 -0.8088 0.9882
-0.6579 5.9435 -1.6928 0.9754
-1.2383 6.1204 -1.7677 0.9744
-3.4744 6.8777 -2.1814 0.9685
-4.0133 6.4419 -2.1486 0.9689
-4.5013 5.9638 -2.1152 0.9694
-4.9360 5.4502 -2.0816 0.9699
-5.6401 4.3421 -2.0150 0.9708
-6.7671 2.7654 -2.0695 0.9701
-6.8807 2.1176 -2.0380 0.9705
-6.9389 1.4730 -2.0081 0.9709
-6.9436 0.8357 -1.9799 0.9713
-6.8015 -0.4016 -1.9288 0.9721
-6.6593 -0.9953 -1.9062 0.9724
-6.4731 -1.5687 -1.8855 0.9727
-5.9777 -2.6446 -1.8505 0.9732
-5.6734 -3.1430 -1.8361 0.9734
-5.3344 -3.6127 -1.8239 0.9736
-4.5616 -4.4593 -1.8059 0.9738
-4.1322 -4.8334 -1.8002 0.9739
-3.1981 -5.4761 -1.7953 0.9740
-2.1780 -5.9702 -1.7991 0.9739
-1.6411 -6.1584 -1.8042 0.9739
-1.0892 -6.3059 -1.8116 0.9737
-0.5247 -6.4115 -1.8211 0.9736
0.6325 -6.4923 -1.8466 0.9732
1.2199 -6.4652 -1.8626 0.9730
1.8095 -6.3919 -1.8806 0.9728
2.3983 -6.2712 -1.9007 0.9725
2.9828 -6.1023 -1.9229 0.9722
4.1252 -5.6173 -1.9730 0.9714
4.6751 -5.3004 -2.0008 0.9710
5.2053 -4.9336 -2.0303 0.9706
5.7110 -4.5173 -2.0614 0.9702
6.6296 -3.5400 -2.1276 0.9692
6.8579 -2.2095 -2.0397 0.9705
7.5528 -0.3290 -2.1402 0.9691
7.6683 0.3519 -2.1731 0.9686
7.7187 1.0503 -2.2052 0.9681
7.7003 1.7594 -2.2361 0.9677
7.4477 3.1787 -2.2924 0.9669
6.7352 3.6166 -2.1642 0.9687
5.9015 3.8847 -2.0001 0.9711
5.1792 4.1163 -1.8729 0.9729
4.5379 4.3212 -1.7739 0.9743
3.9562 4.5063 -1.6976 0.9754
3.4820 4.7648 -1.6707 0.9758
2.4247 4.9899 -1.5705 0.9772
1.9345 5.0939 -1.5425 0.9776
1.4827 5.2841 -1.5537 0.9774
1.0116 5.4303 -1.5637 0.9773
0.5304 5.5790 -1.5865 0.9770
0.0140 2.5884 -0.7328 0.9893
-0.4962 5.8941 -1.6745 0.9757
-1.6825 6.2553 -1.8338 0.9734
-1.9962 5.4325 -1.6385 0.9762
-3.3070 6.9968 -2.1908 0.9683
-4.3634 6.1082 -2.1251 0.9693
-4.8140 5.6044 -2.0915 0.9698
-6.0646 3.3413 -1.9602 0.9716
-6.9274 1.6617 -2.0167 0.9708
-6.9476 1.0219 -1.9880 0.9712
-6.9158 0.3922 -1.9610 0.9716
-6.5322 -1.4025 -1.8914 0.9726
-6.3162 -1.9600 -1.8722 0.9729
-6.0602 -2.4930 -1.8551 0.9731
-5.7664 -2.9996 -1.8401 0.9733
-5.0754 -3.9262 -1.8165 0.9737
-4.2611 -4.7270 -1.8016 0.9739
-0.6917 -6.3849 -1.8181 0.9737
0.4608 -6.4915 -1.8423 0.9733
1.6364 -6.4183 -1.8751 0.9728
3.9606 -5.7010 -1.9651 0.9716
4.5155 -5.3986 -1.9924 0.9712
5.0519 -5.0465 -2.0215 0.9708
5.5653 -4.6447 -2.0521 0.9703
6.0509 -4.1939 -2.0842 0.9699
6.7650 -2.3773 -2.0299 0.9706
7.0644 -1.7929 -2.0633 0.9702
7.3133 -1.1739 -2.0969 0.9697
7.5071 -0.5247 -2.1304 0.9692
1.6154 -5.9468 -1.8954 0.9745
2.1608 -5.8356 -1.9140 0.9743
2.7017 -5.6795 -1.9345 0.9740
3.2348 -5.4780 -1.9568 0.9737
3.7564 -5.2309 -1.9808 0.9734
4.2629 -4.9378 -2.0064 0.9731
4.7502 -4.5991 -2.0336 0.9727
5.6501 -3.7869 -2.0921 0.9719
6.0539 -3.3158 -2.1230 0.9715
5.9584 -2.6018 -1.9998 0.9732
6.7285 -0.9725 -2.0911 0.9719
6.8873 -0.3734 -2.1215 0.9715
6.9905 0.2463 -2.1515 0.9712
7.0346 0.8811 -2.1806 0.9708
7.0167 1.5249 -2.2086 0.9704
6.9347 2.1708 -2.2350 0.9700
6.7871 2.8118 -2.2596 0.9697
6.5734 3.4402 -2.2820 0.9694
5.2527 4.0844 -2.0466 0.9725
4.6044 4.2920 -1.9361 0.9740
4.0175 4.4793 -1.8507 0.9751
3.0218 4.9029 -1.7714 0.9762
1.5365 5.2605 -1.6856 0.9773
0.5877 5.5543 -1.7179 0.9769
-0.9913 6.0376 -1.8819 0.9747
-1.9222 5.4081 -1.7654 0.9763
-2.9528 6.4233 -2.1744 0.9708
-3.4670 6.0513 -2.1451 0.9712
-4.3610 5.1875 -2.0845 0.9720
-4.7360 4.7074 -2.0539 0.9724
-5.3357 3.6786 -1.9934 0.9732
-5.7333 2.5936 -1.9355 0.9740
-6.3119 2.2004 -2.0560 0.9724
-6.4253 1.0150 -2.0008 0.9731
-6.4081 0.4318 -1.9755 0.9735
-6.3442 -0.1402 -1.9518 0.9738
-6.2356 -0.6981 -1.9299 0.9741
-6.0844 -1.2389 -1.9098 0.9743
-5.8929 -1.7601 -1.8916 0.9746
-5.3972 -2.7350 -1.8610 0.9750
-4.4053 -3.9997 -1.8301 0.9754
-2.7081 -5.2519 -1.8175 0.9756
-2.2309 -5.4786 -1.8194 0.9755
-1.7368 -5.6684 -1.8235 0.9755
-1.2279 -5.8201 -1.8296 0.9754
-0.7066 -5.9327 -1.8377 0.9753
0.3640 -6.0363 -1.8600 0.9750
0.9082 -6.0252 -1.8742 0.9748
1.4549 -5.9710 -1.8903 0.9746
2.5435 -5.7300 -1.9283 0.9741
4.1159 -5.0286 -1.9987 0.9732
5.0805 -4.3325 -2.0537 0.9724
5.9389 -3.4585 -2.1139 0.9716
6.3026 -2.9514 -2.1406 0.9713
7.0279 0.6935 -2.1721 0.9709
7.0285 1.3353 -2.2005 0.9705
6.8373 2.6245 -2.2526 0.9698
6.2199 3.7732 -2.2376 0.9700
5.4578 4.0185 -2.0847 0.9720
4.7876 4.2335 -1.9657 0.9736
3.1715 4.8556 -1.7838 0.9760
2.1430 5.0712 -1.6934 0.9772
1.6739 5.2177 -1.6854 0.9773
0.8248 3.6704 -1.1571 0.9844
0.1156 2.7330 -0.8414 0.9886
-0.8221 5.9861 -1.8585 0.9750
-3.8039 5.7630 -2.1239 0.9715
-4.6310 4.8512 -2.0628 0.9723
-5.2603 3.8341 -2.0021 0.9731
-5.4991 3.2998 -1.9725 0.9735
-6.2743 2.3738 -2.0633 0.9723
-6.4212 1.1879 -2.0085 0.9730
-6.1331 -1.0820 -1.9155 0.9743
-5.7344 -2.1152 -1.8799 0.9747
-4.5142 -3.8874 -1.8323 0.9754
-4.1337 -4.2589 -1.8255 0.9755
-3.7272 -4.5987 -1.8207 0.9755
-3.2968 -4.9057 -1.8180 0.9756
-2.8447 -5.1784 -1.8173 0.9756
-0.8608 -5.9038 -1.8351 0.9753
-0.3321 -5.9881 -1.8446 0.9752
0.2050 -6.0315 -1.8562 0.9751
0.7480 -6.0329 -1.8698 0.9749
2.3848 -5.7766 -1.9222 0.9742
3.4516 -5.3816 -1.9665 0.9736
3.9675 -5.1155 -1.9912 0.9733
4.9446 -4.4461 -2.0453 0.9726
5.3976 -4.0437 -2.0744 0.9722
5.8209 -3.5976 -2.1047 0.9718
2.3519 -0.9253 -0.7774 0.9895
6.3719 -1.8698 -2.0425 0.9726
6.6109 -1.3129 -2.0731 0.9722
6.8005 -0.7281 -2.1037 0.9718
6.9368 -0.1199 -2.1339 0.9714
7.0160 0.5068 -2.1636 0.9710
6.9907 1.7916 -2.2197 0.9703
6.4660 3.6939 -2.2904 0.9693
4.9765 4.1730 -1.9976 0.9732
4.3558 4.3714 -1.8981 0.9745
3.3233 4.8076 -1.7976 0.9758
2.2819 5.0277 -1.6982 0.9772
1.8113 5.1749 -1.6864 0.9773
0.8706 5.4670 -1.7027 0.9771
0.2073 3.0202 -0.9311 0.9874
-0.6570 5.9358 -1.8369 0.9753
-1.2366 6.1121 -1.9180 0.9742
-1.8748 6.3053 -2.0233 0.9728
-2.5928 6.5219 -2.1587 0.9711
-3.1701 6.2752 -2.1624 0.9710
-4.1179 5.4558 -2.1024 0.9718
-5.1806 3.9884 -2.0109 0.9730
-6.2288 2.5454 -2.0696 0.9722
-6.4240 0.7732 -1.9902 0.9733
-6.3047 -0.3723 -1.9426 0.9739
-6.1783 -0.9234 -1.9214 0.9742
-6.0101 -1.4565 -1.9021 0.9745
-5.8025 -1.9690 -1.8847 0.9747
-5.5576 -2.4587 -1.8692 0.9749
-4.9645 -3.3622 -1.8442 0.9752
-4.6207 -3.7725 -1.8347 0.9753
-2.9796 -5.1019 -1.8173 0.9756
-2.5133 -5.3498 -1.8180 0.9756
-1.5284 -5.7357 -1.8257 0.9755
-1.0142 -5.8714 -1.8327 0.9754
2.2255 -5.8194 -1.9163 0.9743
2.7656 -5.6579 -1.9370 0.9740
3.2975 -5.4510 -1.9595 0.9737
4.3219 -4.8999 -2.0096 0.9730
4.8066 -4.5557 -2.0370 0.9727
5.7000 -3.7331 -2.0957 0.9719
6.2929 -2.0275 -2.0335 0.9727
6.5456 -1.4795 -2.0641 0.9723
6.7502 -0.9025 -2.0947 0.9719
6.9989 0.3212 -2.1550 0.9711
6.9206 2.2475 -2.2381 0.9700
6.7651 2.8874 -2.2624 0.9697
5.8924 3.8788 -2.1698 0.9709
3.4776 4.7587 -1.8129 0.9756
2.9617 4.9218 -1.7668 0.9762
2.4218 4.9838 -1.7043 0.9771
1.9321 5.0878 -1.6739 0.9775
1.0279 3.6634 -1.1703 0.9842
1.0103 5.4238 -1.6969 0.9772
-1.6802 6.2465 -1.9896 0.9733
-1.9934 5.4248 -1.7776 0.9761
-3.0161 6.3814 -2.1710 0.9709
-4.4081 5.1319 -2.0808 0.9721
-6.3243 2.1296 -2.0525 0.9725
-6.4002 1.5352 -2.0244 0.9728
-6.4030 0.3631 -1.9726 0.9735
-6.3336 -0.2074 -1.9491 0.9738
-6.0637 -1.3020 -1.9076 0.9744
-5.8675 -1.8207 -1.8896 0.9746
-5.0598 -3.2363 -1.8474 0.9752
-4.3605 -4.0444 -1.8293 0.9754
-2.6522 -5.2807 -1.8176 0.9756
0.9732 -6.0210 -1.8760 0.9748
1.5199 -5.9616 -1.8923 0.9746
2.0658 -5.8582 -1.9106 0.9743
2.6077 -5.7100 -1.9308 0.9741
4.6666 -4.6615 -2.0288 0.9728
5.1349 -4.2854 -2.0571 0.9724
5.5762 -3.8649 -2.0868 0.9720
5.9859 -3.4011 -2.1176 0.9716
6.2102 -2.1823 -2.0246 0.9728
6.4762 -1.6436 -2.0551 0.9724
0.4887 -5.6369 -1.8808 0.9764
0.9972 -5.6119 -1.8946 0.9763
1.5066 -5.5460 -1.9103 0.9761
2.5162 -5.2894 -1.9470 0.9756
3.0102 -5.0978 -1.9679 0.9754
4.4084 -4.2682 -2.0397 0.9745
4.8340 -3.9079 -2.0663 0.9741
5.2328 -3.5072 -2.0940 0.9738
5.6006 -3.0675 -2.1226 0.9734
5.5061 -2.4043 -1.9971 0.9750
5.7780 -1.9296 -2.0249 0.9746
6.1963 -0.8956 -2.0811 0.9740
6.3352 -0.3435 -2.1090 0.9736
6.4563 0.8087 -2.1629 0.9729
6.4331 1.3980 -2.1883 0.9726
5.2450 4.0784 -2.2085 0.9724
4.5980 4.2861 -2.0894 0.9739
2.4756 4.9599 -1.8426 0.9769
1.0654 5.3998 -1.8295 0.9771
0.0415 2.5907 -0.8613 0.9891
-1.6008 6.2143 -2.1331 0.9733
-4.6727 3.8801 -2.0189 0.9747
-5.9350 1.4906 -2.0341 0.9745
-5.9049 -0.1305 -1.9633 0.9754
-5.8083 -0.6502 -1.9428 0.9757
-5.0397 -2.5538 -1.8780 0.9765
-4.7620 -2.9750 -1.8664 0.9766
-3.7558 -4.0784 -1.8430 0.9769
-3.3694 -4.3880 -1.8390 0.9769
-2.5326 -4.9116 -1.8369 0.9770
0.8477 -5.6234 -1.8904 0.9763
1.3571 -5.5697 -1.9055 0.9761
1.8653 -5.4746 -1.9225 0.9759
2.3694 -5.3377 -1.9412 0.9757
2.8662 -5.1585 -1.9616 0.9754
3.3524 -4.9368 -1.9836 0.9752
3.8245 -4.6726 -2.0071 0.9749
5.8227 -2.7267 -2.1372 0.9733
5.7022 -2.0722 -2.0167 0.9748
5.9459 -1.5765 -2.0447 0.9744
6.2996 -0.5076 -2.1008 0.9737
6.4459 1.2246 -2.1810 0.9727
6.3816 1.8152 -2.2054 0.9724
6.0751 2.9789 -2.2491 0.9719
4.1789 4.4201 -2.0220 0.9747
3.6262 4.5962 -1.9460 0.9756
3.1382 4.8047 -1.9076 0.9761
2.6168 4.9155 -1.8510 0.9768
2.1404 5.0650 -1.8278 0.9771
1.6719 5.2114 -1.8193 0.9772
0.7289 5.5037 -1.8454 0.9769
0.1161 2.7436 -0.9128 0.9885
-0.1296 2.7495 -0.9150 0.9885
-0.8210 5.9781 -2.0058 0.9749
-1.4151 6.1582 -2.1004 0.9737
-1.7650 5.4119 -1.8922 0.9763
-3.4986 5.3005 -2.1111 0.9736
-3.9056 4.9016 -2.0833 0.9739
-4.5879 4.0176 -2.0271 0.9746
-4.8606 3.5428 -1.9993 0.9750
-2.7623 1.3380 -1.0203 0.9871
-5.4010 2.0434 -1.9195 0.9760
-5.9159 1.6520 -2.0417 0.9744
-5.8409 -0.4990 -1.9486 0.9756
-5.7157 -1.0083 -1.9293 0.9758
-5.5517 -1.5007 -1.9117 0.9760
-4.8467 -2.8538 -1.8696 0.9766
-4.5475 -3.2571 -1.8593 0.9767
-3.0832 -4.5877 -1.8374 0.9770
-2.6604 -4.8429 -1.8367 0.9770
-0.8046 -5.5178 -1.8535 0.9768
0.1915 -5.6329 -1.8735 0.9765
0.6983 -5.6315 -1.8863 0.9764
2.7212 -5.2155 -1.9555 0.9755
4.1475 -4.4605 -2.0246 0.9747
4.5870 -4.1245 -2.0505 0.9743
5.0021 -3.7474 -2.0776 0.9740
5.3886 -3.3304 -2.1057 0.9737
5.7335 -2.8707 -2.1314 0.9733
2.3516 -0.9251 -0.8400 0.9894
5.8786 -1.7250 -2.0365 0.9745
6.0921 -1.2099 -2.0646 0.9742
6.2596 -0.6702 -2.0926 0.9738
6.4433 0.4654 -2.1474 0.9731
6.4537 1.0514 -2.1735 0.9728
6.4066 1.6419 -2.1984 0.9725
4.3499 4.3655 -2.0485 0.9744
3.7843 4.5459 -1.9661 0.9754
2.8112 4.9620 -1.8957 0.9762
0.8908 3.5285 -1.2097 0.9848
0.8695 5.4603 -1.8379 0.9770
0.3850 5.6096 -1.8690 0.9766
-2.9114 5.7633 -2.1463 0.9731
-3.7905 5.0221 -2.0915 0.9738
-4.1671 4.6012 -2.0635 0.9742
-4.4990 4.1535 -2.0354 0.9745
-2.7419 1.4182 -1.0261 0.9871
-5.3664 2.1930 -1.9270 0.9759
-5.9710 0.7187 -1.9991 0.9750
-5.9421 0.1807 -1.9761 0.9753
-5.8700 -0.3466 -1.9546 0.9755
-5.7566 -0.8604 -1.9348 0.9758
-4.9289 -2.7306 -1.8730 0.9765
-3.9716 -3.8825 -1.8462 0.9769
-2.7866 -4.7714 -1.8367 0.9770
-2.3504 -5.0031 -1.8374 0.9770
-1.8972 -5.2005 -1.8401 0.9769
-1.4290 -5.3625 -1.8447 0.9769
-0.4563 -5.5761 -1.8597 0.9767
0.5490 -5.6360 -1.8823 0.9764
2.5754 -5.2689 -1.9494 0.9756
3.0683 -5.0722 -1.9705 0.9753
3.5491 -4.8329 -1.9931 0.9750
5.2783 -3.4569 -2.0973 0.9738
5.6407 -3.0120 -2.1256 0.9734
2.3524 -0.9975 -0.8494 0.9893
5.8077 -1.8712 -2.0282 0.9746
6.2154 -0.8310 -2.0844 0.9739
6.4297 0.2951 -2.1395 0.9732
6.4565 0.8785 -2.1660 0.9729
6.4265 1.4683 -2.1912 0.9726
6.1899 2.6419 -2.2371 0.9720
5.9823 3.2123 -2.2571 0.9718
5.7159 3.7626 -2.2747 0.9716
5.1641 4.1044 -2.1927 0.9726
4.5255 4.3093 -2.0772 0.9740
3.9457 4.4945 -1.9880 0.9751
2.9580 4.9157 -1.9070 0.9761
1.9298 5.0816 -1.8068 0.9773
1.0091 5.4172 -1.8317 0.9770
0.0139 2.5699 -0.8542 0.9892
-1.6777 6.2376 -2.1471 0.9731
-1.9905 5.4171 -1.9184 0.9760
-2.7692 5.8589 -2.1541 0.9731
-4.7060 3.8239 -2.0156 0.9748
-5.1668 2.8467 -1.9609 0.9754
-5.3278 2.3422 -1.9346 0.9758
-5.8598 1.9732 -2.0553 0.9743
-5.9711 0.8782 -2.0062 0.9749
-5.8956 -0.1930 -1.9608 0.9754
-5.7941 -0.7111 -1.9404 0.9757
-5.6527 -1.2137 -1.9218 0.9759
-5.4732 -1.6984 -1.9049 0.9761
-5.2578 -2.1629 -1.8898 0.9763
-5.0083 -2.6052 -1.8765 0.9765
-4.7269 -3.0234 -1.8652 0.9766
-4.0762 -3.7807 -1.8481 0.9768
-3.7110 -4.1169 -1.8424 0.9769
-3.3220 -4.4227 -1.8387 0.9770
-2.9111 -4.6970 -1.8369 0.9770
-2.0320 -5.1461 -1.8391 0.9769
-1.5679 -5.3186 -1.8432 0.9769
-1.0904 -5.4550 -1.8491 0.9768
-0.1040 -5.6152 -1.8668 0.9766
0.9082 -5.6192 -1.8921 0.9763
1.4177 -5.5605 -1.9075 0.9761
1.9255 -5.4605 -1.9246 0.9759
2.9247 -5.1343 -1.9641 0.9754
3.4094 -4.9076 -1.9863 0.9751
3.8796 -4.6383 -2.0100 0.9748
5.9720 -1.5157 -2.0481 0.9744
6.1670 -0.9899 -2.0762 0.9740
0.4579 -5.2812 -1.8957 0.9777
0.9339 -5.2554 -1.9088 0.9776
1.8838 -5.0875 -1.9401 0.9772
2.3522 -4.9447 -1.9581 0.9770
3.2603 -4.5400 -1.9988 0.9765
4.1083 -3.9777 -2.0449 0.9760
5.1122 -2.2323 -1.9948 0.9766
5.5683 -1.3210 -2.0465 0.9760
5.8585 -0.3176 -2.0981 0.9754
5.5290 2.8936 -2.2316 0.9738
5.2870 3.4002 -2.2479 0.9736
4.9931 3.8825 -2.2618 0.9735
4.0068 4.4673 -2.1460 0.9748
3.3353 4.4635 -1.9926 0.9766
2.9270 4.7490 -1.9949 0.9766
2.4726 4.9537 -1.9799 0.9768
1.9826 5.0581 -1.9428 0.9772
1.0641 5.3931 -1.9658 0.9769
0.0436 2.7179 -0.9721 0.9885
-0.4300 5.8515 -2.0982 0.9754
-0.9886 6.0211 -2.1820 0.9744
-3.7192 4.4242 -2.0669 0.9757
-4.0478 4.0234 -2.0409 0.9760
-4.3350 3.5997 -2.0150 0.9763
-4.7822 2.7014 -1.9641 0.9769
-5.0586 1.7635 -1.9158 0.9775
-5.5321 1.3894 -2.0398 0.9761
-5.5693 0.8798 -2.0163 0.9763
-5.5638 0.3749 -1.9942 0.9766
-5.5170 -0.1219 -1.9734 0.9768
-5.4305 -0.6079 -1.9541 0.9771
-5.1452 -1.5368 -1.9203 0.9774
-4.9500 -1.9750 -1.9058 0.9776
-3.8623 -3.5067 -1.8655 0.9781
-3.5233 -3.8260 -1.8599 0.9781
-2.7783 -4.3781 -1.8543 0.9782
-2.3763 -4.6085 -1.8542 0.9782
-1.9573 -4.8068 -1.8560 0.9782
-1.0766 -5.1029 -1.8650 0.9781
-0.6192 -5.1988 -1.8723 0.9780
0.7939 -5.2669 -1.9048 0.9776
1.2704 -5.2139 -1.9191 0.9775
2.2154 -4.9908 -1.9527 0.9771
2.6781 -4.8199 -1.9718 0.9768
3.5681 -4.3593 -2.0145 0.9764
3.9887 -4.0700 -2.0379 0.9761
4.7630 -3.3768 -2.0879 0.9755
5.4049 -2.5310 -2.1343 0.9750
5.6911 -0.9757 -2.0649 0.9758
5.8273 -0.4696 -2.0906 0.9755
5.9167 0.0531 -2.1159 0.9752
5.9456 1.1295 -2.1642 0.9746
5.7627 2.2121 -2.2074 0.9741
5.3635 3.2537 -2.2434 0.9737
5.0846 3.7437 -2.2580 0.9735
4.7555 4.2051 -2.2701 0.9734
4.1732 4.4141 -2.1723 0.9745
3.0500 4.6696 -1.9945 0.9766
2.6136 4.9093 -1.9889 0.9767
1.6698 5.2050 -1.9548 0.9770
0.7819 3.4792 -1.2752 0.9850
0.7280 5.4969 -1.9829 0.9767
-0.1298 2.7532 -0.9856 0.9884
-0.8199 5.9700 -2.1550 0.9747
-1.3743 5.9808 -2.1945 0.9743
-2.8179 5.2323 -2.1252 0.9751
-3.2351 4.9013 -2.1001 0.9754
-3.6151 4.5369 -2.0745 0.9757
-4.2551 3.7262 -2.0226 0.9763
-4.5125 3.2890 -1.9969 0.9766
-4.7272 2.8366 -1.9715 0.9769
-5.3464 -0.9432 -1.9414 0.9772
-5.1961 -1.4046 -1.9248 0.9774
-4.2636 -3.0538 -1.8754 0.9780
-3.9572 -3.4077 -1.8675 0.9781
-2.0820 -4.7519 -1.8553 0.9782
-1.6522 -4.9269 -1.8583 0.9782
-1.2090 -5.0681 -1.8632 0.9781
-0.2909 -5.2449 -1.8785 0.9779
0.1794 -5.2788 -1.8888 0.9778
0.6541 -5.2752 -1.9009 0.9777
1.1305 -5.2335 -1.9147 0.9775
2.0779 -5.0334 -1.9473 0.9771
2.5432 -4.8742 -1.9660 0.9769
2.9986 -4.6753 -1.9863 0.9767
3.8672 -4.1590 -2.0309 0.9762
4.2733 -3.8424 -2.0551 0.9759
4.6557 -3.4879 -2.0803 0.9756
5.0108 -3.0969 -2.1065 0.9753
5.3231 -2.6653 -2.1289 0.9750
2.3512 -0.9250 -0.9035 0.9893
5.6426 -1.1206 -2.0572 0.9759
5.7920 -0.6201 -2.0831 0.9756
5.8955 -0.1019 -2.1086 0.9753
5.9056 1.5135 -2.1801 0.9744
5.4356 3.1052 -2.2386 0.9738
4.8572 4.0729 -2.2668 0.9734
4.3439 4.3594 -2.2008 0.9742
0.8684 5.4535 -1.9748 0.9768
0.3846 5.6025 -2.0082 0.9764
-0.0536 2.5695 -0.9191 0.9891
-0.6553 5.9200 -2.1300 0.9750
-1.2203 6.0316 -2.2006 0.9742
-2.2032 5.5420 -2.1327 0.9750
-2.6888 5.3225 -2.1324 0.9750
-3.1164 5.0022 -2.1076 0.9753
-3.5075 4.6471 -2.0821 0.9756
-3.8598 4.2619 -2.0562 0.9759
-4.4413 3.4192 -2.0044 0.9765
-2.7454 1.4200 -1.1053 0.9870
-4.9950 2.0412 -1.9296 0.9773
-5.2439 -1.2708 -1.9295 0.9773
-5.0687 -1.7200 -1.9141 0.9775
-4.8598 -2.1500 -1.9004 0.9777
-3.7253 -3.6418 -1.8630 0.9781
-3.3766 -3.9495 -1.8582 0.9782
-2.2053 -4.6942 -1.8547 0.9782
-0.4278 -5.2279 -1.8758 0.9780
1.4667 -5.1807 -1.9255 0.9774
2.8661 -4.7379 -1.9802 0.9768
3.7439 -4.2447 -2.0240 0.9762
4.5461 -3.5959 -2.0728 0.9757
4.9096 -3.2154 -2.0987 0.9754
5.2381 -2.7970 -2.1235 0.9751
5.3862 -1.7353 -2.0237 0.9762
5.7527 -0.7691 -2.0755 0.9756
5.9394 0.2726 -2.1262 0.9751
5.9255 1.3539 -2.1736 0.9745
5.8389 1.8962 -2.1954 0.9743
5.5030 2.9549 -2.2337 0.9738
5.2547 3.4590 -2.2497 0.9736
4.9548 3.9379 -2.2633 0.9735
4.5191 4.3032 -2.2315 0.9738
3.9405 4.4884 -2.1359 0.9749
3.2883 4.4997 -1.9930 0.9766
2.8765 4.7801 -1.9950 0.9766
1.9274 5.0753 -1.9414 0.9772
1.4773 5.2649 -1.9555 0.9770
-1.5876 5.9022 -2.1857 0.9744
-1.9876 5.4092 -2.0608 0.9758
-2.9944 5.1001 -2.1149 0.9752
-3.3966 4.7547 -2.0896 0.9755
-3.7604 4.3779 -2.0638 0.9758
-4.8034 2.6464 -1.9612 0.9770
-5.4492 1.8349 -2.0562 0.9759
-5.5709 0.8194 -2.0136 0.9764
-5.5604 0.3154 -1.9916 0.9766
-5.5088 -0.1804 -1.9710 0.9769
-5.4177 -0.6649 -1.9519 0.9771
-5.2887 -1.1356 -1.9344 0.9773
-5.1237 -1.5899 -1.9185 0.9775
-3.4814 -3.8621 -1.8594 0.9782
-3.1168 -4.1495 -1.8559 0.9782
-1.4708 -4.9893 -1.8601 0.9781
0.8506 -5.2626 -1.9064 0.9776
1.8014 -5.1084 -1.9371 0.9773
2.2709 -4.9725 -1.9549 0.9770
2.7325 -4.7970 -1.9742 0.9768
3.1830 -4.5817 -1.9950 0.9766
4.4342 -3.7006 -2.0654 0.9758
4.8058 -3.3309 -2.0910 0.9755
5.1484 -2.9253 -2.1175 0.9752
5.3188 -1.8691 -2.0161 0.9763
5.7096 -0.9165 -2.0679 0.9757
5.8404 -0.4082 -2.0937 0.9754
0.4303 -4.9630 -1.9091 0.9789
0.8772 -4.9366 -1.9214 0.9788
2.2061 -4.6376 -1.9680 0.9782
2.6358 -4.4636 -1.9865 0.9780
3.4572 -4.0046 -2.0274 0.9776
3.8426 -3.7203 -2.0496 0.9773
4.2065 -3.4006 -2.0729 0.9771
4.7657 -2.0810 -1.9928 0.9780
4.9917 -1.6670 -2.0168 0.9777
5.3329 -0.7708 -2.0649 0.9772
5.5075 0.1941 -2.1119 0.9767
5.5264 0.6922 -2.1344 0.9764
5.2909 2.1919 -2.1947 0.9758
4.8866 3.1427 -2.2265 0.9754
4.6128 3.5868 -2.2392 0.9753
4.2940 4.0027 -2.2496 0.9752
3.2532 4.3537 -2.0828 0.9770
2.7766 4.5050 -2.0280 0.9776
-0.4223 5.7465 -2.2081 0.9756
-0.9262 5.6413 -2.1908 0.9758
-2.3211 5.0492 -2.1296 0.9765
-3.1132 4.4576 -2.0836 0.9770
-4.2703 2.9441 -1.9877 0.9780
-4.4627 2.5210 -1.9642 0.9783
-5.2138 0.8236 -2.0228 0.9776
-5.0938 -0.5702 -1.9642 0.9783
-4.9798 -1.0140 -1.9475 0.9785
-4.8314 -1.4431 -1.9323 0.9786
-4.6502 -1.8554 -1.9186 0.9788
-4.1965 -2.6217 -1.8962 0.9790
-3.6330 -3.2985 -1.8805 0.9792
-2.9745 -3.8737 -1.8716 0.9793
0.2993 -4.9639 -1.9057 0.9789
0.7459 -4.9481 -1.9176 0.9788
1.6379 -4.8074 -1.9463 0.9785
2.0781 -4.6816 -1.9629 0.9783
2.5106 -4.5186 -1.9809 0.9781
2.9325 -4.3184 -2.0004 0.9779
4.1020 -3.4981 -2.0660 0.9772
4.4488 -3.1541 -2.0899 0.9769
4.6929 -2.1976 -1.9858 0.9780
4.9289 -1.7912 -2.0097 0.9778
5.2927 -0.9074 -2.0579 0.9773
5.4931 0.0493 -2.1051 0.9767
5.5258 0.5453 -2.1279 0.9765
5.5109 1.0470 -2.1496 0.9763
5.1705 2.5353 -2.2068 0.9756
4.9581 3.0078 -2.2223 0.9755
4.0433 4.2766 -2.2554 0.9751
2.6102 4.9031 -2.1286 0.9765
2.1351 5.0525 -2.1020 0.9768
0.7271 5.4899 -2.1222 0.9766
0.1162 2.7475 -1.0538 0.9883
-0.1294 2.7448 -1.0530 0.9883
-1.7456 5.3524 -2.1575 0.9762
-3.0051 4.5528 -2.0905 0.9769
-3.3609 4.2180 -2.0668 0.9772
-3.9629 3.4704 -2.0187 0.9777
-4.2063 3.0659 -1.9947 0.9779
-4.4103 2.6464 -1.9710 0.9782
-5.2066 0.9632 -2.0291 0.9776
-5.2168 0.4894 -2.0079 0.9778
-5.0170 -0.8851 -1.9523 0.9784
-4.8785 -1.3187 -1.9366 0.9786
-4.5034 -2.1354 -1.9100 0.9789
-4.2703 -2.5145 -1.8991 0.9790
-4.0093 -2.8716 -1.8899 0.9791
-3.7221 -3.2052 -1.8824 0.9792
-3.4106 -3.5138 -1.8766 0.9792
-2.3489 -4.2759 -1.8696 0.9793
-0.7096 -4.8666 -1.8847 0.9792
0.1687 -4.9618 -1.9025 0.9790
1.0618 -4.9152 -1.9270 0.9787
1.5076 -4.8372 -1.9417 0.9785
2.3846 -4.5703 -1.9755 0.9782
2.8099 -4.3810 -1.9945 0.9780
3.2223 -4.1547 -2.0149 0.9777
3.6186 -3.8917 -2.0364 0.9775
2.3508 -0.9248 -0.9681 0.9892
5.3833 -0.5764 -2.0748 0.9771
5.5203 0.8993 -2.1434 0.9763
5.4709 1.4021 -2.1643 0.9761
5.3721 1.9019 -2.1839 0.9759
5.2235 2.3934 -2.2019 0.9757
5.0255 2.8710 -2.2180 0.9755
4.7793 3.3290 -2.2320 0.9754
4.1500 4.1648 -2.2531 0.9751
3.0535 4.4173 -2.0578 0.9773
2.6807 4.7316 -2.0840 0.9770
2.2735 5.0090 -2.1080 0.9767
1.8046 5.1558 -2.0933 0.9769
-0.0534 2.5598 -0.9812 0.9891
-0.6319 5.7091 -2.2012 0.9757
-1.1297 5.5837 -2.1831 0.9759
-2.0654 5.1953 -2.1425 0.9763
-2.4949 4.9387 -2.1204 0.9766
-3.5907 3.9647 -2.0498 0.9773
-4.1389 3.1864 -2.0017 0.9779
-4.3545 2.7710 -1.9779 0.9781
-2.7490 1.4219 -1.1861 0.9868
-4.6668 1.9071 -1.9320 0.9786
-5.2179 0.6280 -2.0140 0.9777
-4.9227 -1.1929 -1.9411 0.9785
-3.8090 -3.1098 -1.8844 0.9792
-3.1769 -3.7160 -1.8735 0.9793
-2.0752 -4.4171 -1.8702 0.9793
-1.2610 -4.7322 -1.8768 0.9792
-0.8362 -4.8410 -1.8826 0.9792
-0.4023 -4.9160 -1.8902 0.9791
0.0383 -4.9565 -1.8995 0.9790
0.4834 -4.9618 -1.9104 0.9789
0.9304 -4.9311 -1.9230 0.9787
2.6862 -4.4405 -1.9888 0.9780
3.8871 -3.6841 -2.0523 0.9773
4.2482 -3.3603 -2.0757 0.9771
4.5842 -3.0023 -2.1000 0.9768
5.0163 -1.6161 -2.0196 0.9777
5.2019 -1.1758 -2.0437 0.9774
5.4524 -0.2375 -2.0915 0.9769
5.4905 1.2545 -2.1583 0.9762
5.4063 1.7557 -2.1783 0.9759
5.2723 2.2502 -2.1968 0.9757
4.8565 3.1969 -2.2281 0.9754
4.2532 4.0500 -2.2506 0.9752
3.8876 4.4282 -2.2582 0.9751
2.7214 4.5225 -2.0227 0.9776
2.4127 4.9653 -2.1155 0.9766
1.9250 5.0690 -2.0779 0.9770
1.0275 3.6620 -1.4575 0.9838
0.5277 5.5512 -2.1369 0.9764
-0.9852 5.6255 -2.1886 0.9758
-1.4704 5.4668 -2.1694 0.9760
-1.9340 5.2631 -2.1488 0.9763
-2.3717 5.0180 -2.1270 0.9765
-2.7801 4.7351 -2.1042 0.9768
-3.8018 3.6993 -2.0328 0.9775
-2.9070 1.2780 -1.2169 0.9865
-5.1792 1.2423 -2.0410 0.9774
-5.2095 0.2954 -1.9996 0.9779
-4.9640 -1.0658 -1.9456 0.9785
-4.6265 -1.9032 -1.9171 0.9788
-4.4107 -2.2944 -1.9053 0.9789
-4.1659 -2.6646 -1.8951 0.9790
-3.2754 -3.6336 -1.8747 0.9793
-2.5702 -4.1471 -1.8697 0.9793
-2.1900 -4.3603 -1.8698 0.9793
-1.3838 -4.6940 -1.8754 0.9793
-0.5305 -4.8975 -1.8878 0.9791
0.3523 -4.9639 -1.9071 0.9789
1.2461 -4.8875 -1.9329 0.9786
1.6906 -4.7943 -1.9482 0.9785
2.1300 -4.6641 -1.9649 0.9783
2.5614 -4.4967 -1.9832 0.9781
3.3879 -4.0505 -2.0236 0.9776
3.7767 -3.7726 -2.0457 0.9774
4.1446 -3.4590 -2.0688 0.9771
4.4883 -3.1109 -2.0928 0.9769
4.7227 -2.1506 -1.9887 0.9780
4.9547 -1.7411 -2.0126 0.9778
5.1513 -1.3074 -2.0367 0.9775
5.3094 -0.8523 -2.0607 0.9772
0.4054 -4.6763 -1.9211 0.9799
1.2465 -4.5887 -1.9461 0.9797
1.6636 -4.4928 -1.9608 0.9795
3.2459 -3.7598 -2.0329 0.9788
4.2588 -2.8544 -2.0983 0.9781
4.5390 -2.4861 -2.1181 0.9779
4.6661 -1.5583 -2.0134 0.9790
4.8400 -1.1482 -2.0359 0.9787
5.1463 0.6446 -2.1227 0.9778
5.0395 1.5776 -2.1612 0.9774
4.9174 2.0372 -2.1785 0.9773
4.7497 2.4857 -2.1940 0.9771
3.9839 3.7136 -2.2290 0.9767
