ply
format ascii 1.0
element vertex 1596
property float32 x
property float32 y
property float32 z
property float32 I
end_header
-1.6092 5.6121 -1.0974 0.9765
-2.5349 6.5604 -1.3219 0.9718
-5.4527 11.0558 -2.3171 0.9511
-6.2658 10.2733 -2.2618 0.9522
-10.0572 4.2142 -2.0496 0.9566
-10.1580 3.2239 -2.0032 0.9576
-10.1791 2.2532 -1.9596 0.9585
-10.1254 1.3070 -1.9190 0.9593
-9.8133 -0.4968 -1.8469 0.9608
-9.5640 -1.3483 -1.8154 0.9615
-8.0394 -4.3707 -1.7200 0.9634
-2.3576 -8.6002 -1.6761 0.9644
-1.5886 -8.8259 -1.6856 0.9642
0.0079 -9.1145 -1.7132 0.9636
1.6676 -9.1735 -1.7525 0.9628
2.5148 -9.1118 -1.7767 0.9623
4.2290 -8.7941 -1.8341 0.9611
7.6233 -7.3134 -1.9856 0.9579
8.4346 -6.7537 -2.0310 0.9570
9.2178 -6.1146 -2.0791 0.9560
10.6614 -4.5927 -2.1819 0.9539
10.5008 -3.4481 -2.0774 0.9560
11.5129 -1.6028 -2.1848 0.9538
11.9031 -0.5819 -2.2400 0.9527
10.6078 2.3674 -2.0429 0.9567
5.8492 3.8111 -1.3122 0.9720
3.0076 4.9505 -1.0888 0.9767
-0.0742 -8.2714 -1.7485 0.9667
2.9616 -8.1404 -1.8311 0.9652
3.7323 -7.9608 -1.8585 0.9647
5.2623 -7.4124 -1.9215 0.9635
6.0126 -7.0402 -1.9570 0.9629
7.4575 -6.0927 -2.0356 0.9614
8.7864 -4.8695 -2.1234 0.9598
9.3817 -4.1513 -2.1686 0.9589
10.3922 -0.6106 -2.2005 0.9583
10.7794 1.3026 -2.2951 0.9566
9.1683 2.8282 -2.0281 0.9615
7.9134 3.2407 -1.8076 0.9656
1.5184 5.1378 -1.1325 0.9783
1.0595 5.2841 -1.1392 0.9782
0.0508 2.6811 -0.5668 0.9891
-0.9732 6.0299 -1.2911 0.9753
-1.6018 6.2864 -1.3713 0.9738
-2.0152 5.7157 -1.2811 0.9755
-4.4960 9.8436 -2.2875 0.9567
-5.9203 8.5178 -2.1927 0.9585
-7.4554 6.2157 -2.0518 0.9611
-8.9208 4.0540 -2.0713 0.9607
-9.0577 3.1742 -2.0288 0.9615
-9.1148 1.4534 -1.9510 0.9630
-8.9088 -0.1856 -1.8836 0.9642
-8.4705 -1.7151 -1.8268 0.9653
-7.4392 -3.7621 -1.7621 0.9665
-7.0085 -4.3714 -1.7460 0.9668
-6.5392 -4.9419 -1.7326 0.9670
-6.0338 -5.4723 -1.7218 0.9672
-5.4949 -5.9615 -1.7138 0.9674
-4.3254 -6.8119 -1.7057 0.9675
-3.6992 -7.1709 -1.7056 0.9675
-2.3746 -7.7502 -1.7134 0.9674
-0.9675 -8.1359 -1.7319 0.9671
-0.2384 -8.2525 -1.7451 0.9668
0.5045 -8.3162 -1.7611 0.9665
1.2588 -8.3253 -1.7798 0.9662
3.5609 -8.0061 -1.8522 0.9648
5.8469 -7.1288 -1.9489 0.9630
7.9909 -5.6501 -2.0687 0.9608
9.1160 -3.2969 -2.0491 0.9611
9.5851 -2.5247 -2.0952 0.9603
10.3279 -0.8134 -2.1899 0.9585
10.5848 0.1151 -2.2376 0.9576
9.4909 2.7220 -2.0871 0.9604
8.1687 3.1569 -1.8512 0.9648
6.2163 3.7919 -1.5392 0.9707
5.4326 4.0213 -1.4287 0.9727
3.6781 4.6890 -1.2597 0.9759
3.1737 4.8899 -1.2322 0.9764
2.0776 4.9589 -1.1365 0.9783
1.1621 5.2515 -1.1369 0.9783
0.1055 2.7136 -0.5740 0.9890
-0.2920 5.7616 -1.2195 0.9767
-0.8431 5.9778 -1.2761 0.9756
-1.4550 6.2258 -1.3515 0.9742
-4.3186 9.9761 -2.2979 0.9565
-7.3665 6.3945 -2.0620 0.9609
-8.3351 6.0187 -2.1732 0.9588
-8.6481 5.1362 -2.1261 0.9597
-8.8799 4.2507 -2.0810 0.9605
-9.1131 2.4977 -1.9974 0.9621
-9.1220 1.6413 -1.9592 0.9628
-8.7644 -0.7945 -1.8602 0.9647
-8.5298 -1.5510 -1.8326 0.9652
-8.2436 -2.2757 -1.8077 0.9656
-7.9091 -2.9664 -1.7855 0.9661
-7.5295 -3.6214 -1.7661 0.9664
-7.1078 -4.2392 -1.7494 0.9667
-6.6468 -4.8184 -1.7353 0.9670
-3.8408 -7.0949 -1.7054 0.9676
-3.1951 -7.4184 -1.7074 0.9675
-2.5263 -7.6951 -1.7120 0.9674
-1.8364 -7.9237 -1.7193 0.9673
-1.1276 -8.1029 -1.7293 0.9671
2.6189 -8.2007 -1.8197 0.9654
4.1592 -7.8343 -1.8749 0.9644
7.8402 -5.7810 -2.0591 0.9610
2.3617 -0.9077 -0.5348 0.9897
9.9072 -1.8846 -2.1317 0.9596
10.7246 0.8646 -2.2743 0.9570
8.4367 3.0688 -1.8977 0.9640
6.4007 3.7316 -1.5661 0.9702
4.8692 4.1579 -1.3534 0.9742
4.2272 4.3199 -1.2776 0.9756
3.6536 4.4714 -1.2206 0.9767
3.2887 4.8528 -1.2392 0.9763
1.2644 5.2189 -1.1351 0.9783
-0.7159 5.9273 -1.2620 0.9759
-1.3125 6.1674 -1.3329 0.9746
-4.9223 9.4988 -2.2614 0.9572
-6.2593 8.1143 -2.1662 0.9590
-6.8071 7.3579 -2.1188 0.9598
-7.2736 6.5723 -2.0722 0.9607
-2.7481 1.3834 -0.6503 0.9875
-9.0827 0.9890 -1.9312 0.9633
-8.9758 0.1704 -1.8977 0.9640
-8.8092 -0.6220 -1.8667 0.9645
-8.5866 -1.3854 -1.8385 0.9651
-8.3116 -2.1173 -1.8130 0.9655
-7.6177 -3.4788 -1.7702 0.9663
-7.2051 -4.1050 -1.7529 0.9667
-6.2630 -5.2413 -1.7263 0.9672
-5.1821 -6.2149 -1.7105 0.9675
-4.5955 -6.6378 -1.7065 0.9675
-2.6771 -7.6376 -1.7107 0.9675
0.1723 -8.2945 -1.7537 0.9667
1.6813 -8.3060 -1.7913 0.9659
2.4477 -8.2264 -1.8142 0.9655
3.2178 -8.0875 -1.8399 0.9650
4.7548 -7.6241 -1.8993 0.9639
5.5132 -7.2961 -1.9330 0.9633
6.2586 -6.9016 -1.9694 0.9626
7.6879 -5.9086 -2.0496 0.9611
8.3592 -5.3085 -2.0932 0.9603
8.9922 -4.6394 -2.1388 0.9595
2.3481 -0.9565 -0.5359 0.9897
9.3836 -2.8756 -2.0746 0.9607
9.8191 -2.0712 -2.1212 0.9598
10.1877 -1.2121 -2.1687 0.9589
10.6902 0.6479 -2.2638 0.9572
10.8079 1.6335 -2.3105 0.9563
10.1964 2.4896 -2.2186 0.9580
8.7184 2.9762 -1.9473 0.9630
5.0239 4.1200 -1.3734 0.9738
4.3633 4.2849 -1.2927 0.9753
1.8233 5.0404 -1.1330 0.9783
1.3664 5.1864 -1.1337 0.9783
0.9052 5.3332 -1.1435 0.9781
-0.0296 2.7328 -0.5777 0.9889
-1.1738 6.1109 -1.3153 0.9749
-2.5483 6.5951 -1.4945 0.9715
-4.7542 9.6394 -2.2719 0.9570
-5.4798 8.9846 -2.2245 0.9579
-6.6922 7.5291 -2.1293 0.9597
-8.5190 5.5298 -2.1469 0.9593
-2.7172 1.4363 -0.6497 0.9875
-9.1266 2.0202 -1.9759 0.9625
-8.8513 -0.4481 -1.8734 0.9644
-8.3771 -1.9573 -1.8184 0.9654
-8.0637 -2.6633 -1.7951 0.9659
-7.7038 -3.3344 -1.7744 0.9663
-7.3005 -3.9689 -1.7565 0.9666
-6.8567 -4.5655 -1.7412 0.9669
-5.3086 -6.1149 -1.7117 0.9674
-4.7285 -6.5475 -1.7072 0.9675
-4.1201 -6.9363 -1.7053 0.9676
-3.4854 -7.2801 -1.7061 0.9675
-2.8267 -7.5778 -1.7096 0.9675
-1.4452 -8.0294 -1.7245 0.9672
-0.7268 -8.1805 -1.7360 0.9670
0.0072 -8.2797 -1.7502 0.9667
0.7542 -8.3254 -1.7670 0.9664
2.2767 -8.2492 -1.8089 0.9656
5.3454 -7.3748 -1.9253 0.9634
6.8257 -6.5482 -1.9994 0.9621
7.5341 -6.0327 -2.0402 0.9613
8.2129 -5.4480 -2.0833 0.9605
8.8550 -4.7942 -2.1285 0.9597
9.4375 -4.0654 -2.1721 0.9589
9.2784 -3.0467 -2.0643 0.9609
9.7277 -2.2551 -2.1108 0.9600
10.1119 -1.4077 -2.1581 0.9591
10.4226 -0.5095 -2.2057 0.9582
10.7901 1.4118 -2.3002 0.9565
10.5837 2.3620 -2.2922 0.9566
5.9521 3.8782 -1.5017 0.9714
4.5030 4.2494 -1.3088 0.9750
3.9018 4.4050 -1.2439 0.9762
-0.0679 -7.5719 -1.7796 0.9694
2.0013 -7.5399 -1.8334 0.9685
2.7004 -7.4224 -1.8563 0.9681
3.3986 -7.2490 -1.8816 0.9676
4.0923 -7.0185 -1.9094 0.9672
4.7773 -6.7293 -1.9396 0.9667
5.4492 -6.3805 -1.9720 0.9661
6.1030 -5.9713 -2.0067 0.9655
6.7334 -5.5011 -2.0435 0.9649
7.3345 -4.9700 -2.0823 0.9642
8.4087 -3.7208 -2.1611 0.9629
8.2574 -2.8018 -2.0493 0.9648
8.6450 -2.0940 -2.0905 0.9641
9.2353 -0.5426 -2.1743 0.9627
9.4242 0.2902 -2.2160 0.9620
7.8992 3.2349 -2.0061 0.9655
6.8853 3.5685 -1.8226 0.9686
4.6442 4.2970 -1.4870 0.9743
3.5773 4.7523 -1.3980 0.9759
2.4680 4.9034 -1.2902 0.9777
1.5362 5.1980 -1.2739 0.9780
-1.9290 5.4709 -1.3634 0.9764
-3.9780 8.7094 -2.2503 0.9614
-4.6536 8.1670 -2.2092 0.9621
-5.2633 7.5725 -2.1674 0.9628
-6.2752 6.2633 -2.0837 0.9642
-7.8312 4.4426 -2.1160 0.9637
-8.0409 3.6541 -2.0758 0.9644
-8.2631 1.3175 -1.9665 0.9662
-8.2116 0.5646 -1.9345 0.9667
-8.1025 -0.1688 -1.9047 0.9672
-7.4625 -2.2209 -1.8299 0.9685
-6.8056 -3.4417 -1.7924 0.9691
-6.4166 -4.0022 -1.7774 0.9694
-5.9908 -4.5275 -1.7648 0.9696
-5.5307 -5.0160 -1.7548 0.9698
-3.9678 -6.2488 -1.7397 0.9700
-3.3934 -6.5781 -1.7396 0.9700
-2.7959 -6.8645 -1.7420 0.9700
-0.8864 -7.4539 -1.7642 0.9696
-0.2183 -7.5559 -1.7765 0.9694
0.4616 -7.6083 -1.7914 0.9692
3.9385 -7.0748 -1.9030 0.9673
7.7777 -4.5151 -2.1136 0.9637
8.3084 -3.8759 -2.1547 0.9630
8.1637 -2.9525 -2.0403 0.9650
8.9058 -1.5111 -2.1230 0.9636
9.5165 0.9582 -2.2479 0.9615
9.5603 1.8369 -2.2880 0.9608
9.4711 2.7163 -2.3157 0.9603
8.1536 3.1510 -2.0544 0.9647
5.4498 4.0340 -1.5935 0.9725
4.7829 4.2518 -1.5040 0.9740
4.1708 4.4356 -1.4309 0.9753
2.5748 4.8716 -1.2950 0.9776
2.1014 5.0157 -1.2781 0.9779
1.6386 5.1641 -1.2733 0.9780
1.1772 5.3196 -1.2805 0.9779
0.7078 5.4855 -1.2999 0.9775
0.1049 2.6984 -0.6347 0.9890
-0.2973 5.8653 -1.3802 0.9762
-1.8002 5.4493 -1.3488 0.9767
-5.6900 7.0802 -2.1348 0.9634
-6.1766 6.4153 -2.0930 0.9641
-6.5926 5.7227 -2.0517 0.9648
-8.2664 1.4874 -1.9740 0.9661
-7.9801 -0.7234 -1.8832 0.9676
-7.7769 -1.4141 -1.8577 0.9680
-7.5249 -2.0773 -1.8347 0.9684
-7.2273 -2.7107 -1.8141 0.9688
-6.0886 -4.4137 -1.7674 0.9696
-5.6359 -4.9106 -1.7568 0.9698
-4.6355 -5.7899 -1.7431 0.9700
-4.0923 -6.1699 -1.7400 0.9700
-2.3168 -7.0568 -1.7456 0.9699
-1.6835 -7.2639 -1.7524 0.9698
-0.3680 -7.5374 -1.7736 0.9695
0.9967 -7.6139 -1.8047 0.9689
3.0882 -7.3332 -1.8701 0.9678
3.7844 -7.1282 -1.8968 0.9674
4.4738 -6.8653 -1.9259 0.9669
5.1521 -6.5432 -1.9573 0.9664
5.8146 -6.1609 -1.9910 0.9658
6.4561 -5.7179 -2.0269 0.9652
8.1963 -4.0243 -2.1460 0.9632
8.4794 -2.4150 -2.0721 0.9644
9.4952 0.7655 -2.2388 0.9616
9.5330 2.5298 -2.3180 0.9603
3.2847 4.8469 -1.3761 0.9762
2.6826 4.8398 -1.3005 0.9775
2.2054 4.9834 -1.2808 0.9779
1.2802 5.2842 -1.2778 0.9779
0.8134 5.4475 -1.2945 0.9776
0.1632 2.7746 -0.6532 0.9886
-0.0860 2.7991 -0.6582 0.9886
-1.3200 6.2028 -1.4904 0.9743
-1.6874 5.4713 -1.3457 0.9767
-2.7185 6.6394 -1.6862 0.9710
-4.3609 8.4153 -2.2276 0.9618
-5.0003 7.8429 -2.1860 0.9625
-5.5722 7.2235 -2.1441 0.9632
-6.0744 6.5659 -2.1022 0.9639
-6.5061 5.8788 -2.0608 0.9646
-6.8675 5.1701 -2.0203 0.9653
-7.7133 4.7913 -2.1341 0.9634
-8.1270 3.2167 -2.0542 0.9647
-8.2295 2.4326 -2.0168 0.9654
-8.1580 0.1549 -1.9177 0.9670
-8.0184 -0.5661 -1.8892 0.9675
-7.8264 -1.2627 -1.8632 0.9680
-7.5850 -1.9322 -1.8396 0.9683
-7.2973 -2.5724 -1.8185 0.9687
-5.2614 -5.2708 -1.7503 0.9699
-4.7526 -5.6998 -1.7442 0.9700
-4.2154 -6.0888 -1.7405 0.9700
-3.6520 -6.4368 -1.7393 0.9700
-3.0645 -6.7424 -1.7406 0.9700
-1.1792 -7.3929 -1.7595 0.9697
-0.5172 -7.5165 -1.7707 0.9695
0.8430 -7.6155 -1.8008 0.9690
2.9328 -7.3710 -1.8644 0.9679
3.6299 -7.1788 -1.8906 0.9675
4.3212 -6.9289 -1.9192 0.9670
5.0024 -6.6200 -1.9501 0.9665
5.6688 -6.2512 -1.9833 0.9659
6.3155 -5.8217 -2.0187 0.9653
8.0792 -4.1684 -2.1366 0.9633
2.3452 -0.9553 -0.5951 0.9896
9.0681 -1.0789 -2.1462 0.9632
9.3065 -0.2694 -2.1882 0.9625
9.4698 0.5739 -2.2297 0.9618
9.5464 2.3310 -2.3095 0.9604
3.4009 4.8093 -1.3844 0.9761
2.8884 4.9748 -1.3520 0.9766
0.2245 2.8477 -0.6714 0.9883
-0.0292 2.7010 -0.6348 0.9890
-1.1832 6.1599 -1.4742 0.9746
-1.6105 5.6166 -1.3732 0.9763
-4.8638 7.9747 -2.1953 0.9623
-5.9687 6.7151 -2.1115 0.9638
-6.4162 6.0338 -2.0700 0.9645
-6.7932 5.3293 -2.0292 0.9651
-2.7186 1.4371 -0.7227 0.9874
-8.0950 3.3920 -2.0628 0.9646
-8.2124 2.6064 -2.0250 0.9652
-8.2525 1.0652 -1.9556 0.9664
-8.1815 0.3184 -1.9243 0.9669
-8.0541 -0.4077 -1.8953 0.9674
-7.3652 -2.4326 -1.8230 0.9686
-7.0435 -3.0486 -1.8038 0.9690
-6.2790 -4.1808 -1.7729 0.9695
-5.8415 -4.6940 -1.7612 0.9697
-5.3705 -5.1701 -1.7520 0.9698
-4.8684 -5.6077 -1.7453 0.9699
-4.3373 -6.0058 -1.7411 0.9700
-1.9676 -7.1774 -1.7491 0.9699
1.3813 -7.5986 -1.8151 0.9688
2.0781 -7.5296 -1.8358 0.9684
2.7772 -7.4061 -1.8590 0.9680
3.4751 -7.2265 -1.8846 0.9676
4.1681 -6.9895 -1.9126 0.9671
4.8519 -6.6939 -1.9430 0.9666
5.5220 -6.3385 -1.9757 0.9660
7.3986 -4.9079 -2.0866 0.9642
7.9599 -4.3096 -2.1274 0.9635
9.0055 -1.2537 -2.1369 0.9633
9.5407 1.2483 -2.2614 0.9612
7.7777 3.2749 -1.9834 0.9659
5.9432 3.8724 -1.6671 0.9713
4.5768 4.3190 -1.4790 0.9745
3.9734 4.4858 -1.4084 0.9757
3.5185 4.7713 -1.3933 0.9759
0.5654 -7.0089 -1.8206 0.9714
1.8394 -6.9297 -1.8564 0.9708
2.4793 -6.8149 -1.8776 0.9705
3.1169 -6.6483 -1.9012 0.9701
3.7485 -6.4289 -1.9269 0.9697
4.3702 -6.1559 -1.9547 0.9693
5.5666 -5.4464 -2.0164 0.9683
6.1317 -5.0095 -2.0501 0.9678
6.6678 -4.5182 -2.0854 0.9673
7.6110 -3.3678 -2.1549 0.9662
8.0816 -1.2062 -2.1156 0.9668
8.5367 1.0316 -2.2264 0.9651
5.2870 4.0789 -1.7289 0.9728
3.0525 4.9147 -1.4980 0.9764
2.0146 5.0907 -1.4175 0.9776
1.5619 5.2851 -1.4269 0.9775
0.0500 2.6413 -0.6840 0.9891
-1.6009 6.2826 -1.6787 0.9736
-1.9263 5.4634 -1.4999 0.9763
-4.1762 7.3291 -2.1841 0.9657
-4.7325 6.8089 -2.1469 0.9663
-5.6644 5.6537 -2.0722 0.9675
-6.3481 4.3944 -1.9990 0.9686
-6.5971 3.7425 -1.9638 0.9691
-7.3120 3.3229 -2.0795 0.9674
-7.4518 2.6114 -2.0444 0.9679
-7.5303 1.9035 -2.0111 0.9684
-7.5501 1.2039 -1.9795 0.9689
-7.4235 -0.1547 -1.9225 0.9698
-7.2827 -0.8066 -1.8972 0.9702
-7.0939 -1.4364 -1.8740 0.9705
-6.5830 -2.6197 -1.8345 0.9711
-6.2662 -3.1689 -1.8181 0.9714
-5.5227 -4.1737 -1.7924 0.9718
-2.5801 -6.3346 -1.7710 0.9721
-1.4205 -6.7362 -1.7825 0.9720
-0.8171 -6.8717 -1.7917 0.9718
0.4250 -7.0056 -1.8172 0.9714
1.0587 -7.0015 -1.8334 0.9712
2.3370 -6.8449 -1.8727 0.9706
2.9754 -6.6899 -1.8957 0.9702
3.6087 -6.4824 -1.9209 0.9698
4.2330 -6.2214 -1.9483 0.9694
6.5513 -4.6322 -2.0774 0.9674
7.0610 -4.0991 -2.1140 0.9668
7.5223 -3.5092 -2.1492 0.9663
7.3841 -2.6705 -2.0331 0.9681
7.7310 -2.0363 -2.0700 0.9675
8.5249 0.8584 -2.2184 0.9652
8.5482 1.6425 -2.2538 0.9647
8.4926 2.4357 -2.2875 0.9642
8.1384 3.1452 -2.2591 0.9646
7.0827 3.4937 -2.0448 0.9679
4.7764 4.2460 -1.6547 0.9739
3.6728 4.6822 -1.5408 0.9757
3.1660 4.8780 -1.5057 0.9763
2.1371 5.1011 -1.4320 0.9774
-0.2977 5.8744 -1.5229 0.9760
-0.8531 6.0488 -1.5816 0.9751
-1.4579 6.2380 -1.6587 0.9739
-1.7984 5.4439 -1.4844 0.9766
-3.4193 7.8986 -2.2285 0.9651
-4.0446 7.4386 -2.1923 0.9656
-5.1240 6.3758 -2.1178 0.9668
-5.5730 5.7884 -2.0804 0.9673
-5.9598 5.1734 -2.0434 0.9679
-6.5470 3.8883 -1.9715 0.9690
-2.8280 1.3537 -0.8118 0.9871
-7.5180 2.0605 -2.0183 0.9683
-7.5264 0.6682 -1.9564 0.9693
-7.4481 -0.0069 -1.9284 0.9697
-5.6123 -4.0684 -1.7948 0.9718
-4.7517 -4.9537 -1.7773 0.9720
-2.7046 -6.2795 -1.7703 0.9721
-2.1376 -6.5110 -1.7743 0.9721
-0.9526 -6.8454 -1.7895 0.9718
-0.3392 -6.9458 -1.8005 0.9717
0.9172 -7.0067 -1.8296 0.9712
1.5547 -6.9645 -1.8476 0.9709
2.8337 -6.7289 -1.8904 0.9703
3.4684 -6.5331 -1.9152 0.9699
4.7094 -5.9810 -1.9710 0.9690
5.3071 -5.6233 -2.0020 0.9686
6.4331 -4.7435 -2.0695 0.9675
7.9639 -1.5150 -2.0990 0.9671
8.2114 -0.8115 -2.1364 0.9665
8.5094 0.6860 -2.2104 0.9653
8.5497 1.4669 -2.2460 0.9648
8.5120 2.2589 -2.2802 0.9643
7.3002 3.4220 -2.0875 0.9672
5.6012 3.9759 -1.7785 0.9720
4.9181 4.1997 -1.6745 0.9736
2.7230 4.9127 -1.4543 0.9771
1.7709 5.2181 -1.4267 0.9775
-1.6867 5.4689 -1.4818 0.9766
-2.7144 6.6293 -1.8547 0.9708
-5.4784 5.9217 -2.0887 0.9672
-5.8791 5.3123 -2.0516 0.9678
-6.4938 4.0338 -1.9793 0.9689
-2.7454 1.3820 -0.7958 0.9874
-7.3973 2.9279 -2.0599 0.9677
-7.5484 1.5139 -1.9933 0.9687
-7.5366 0.8207 -1.9629 0.9692
-7.3515 -0.5191 -1.9082 0.9700
-6.9693 -1.7754 -1.8621 0.9707
-6.4120 -2.9282 -1.8251 0.9713
-5.7002 -3.9614 -1.7973 0.9717
-5.2925 -4.4291 -1.7869 0.9719
-3.8903 -5.6192 -1.7696 0.9722
-3.3705 -5.9406 -1.7684 0.9722
-1.6844 -6.6617 -1.7791 0.9720
0.7759 -7.0094 -1.8259 0.9713
2.0522 -6.8972 -1.8632 0.9707
2.6918 -6.7653 -1.8852 0.9704
3.3278 -6.5813 -1.9095 0.9700
3.9565 -6.3442 -1.9359 0.9696
4.5740 -6.0531 -1.9644 0.9691
5.1758 -5.7076 -1.9949 0.9687
6.3134 -4.8522 -2.0616 0.9676
7.3274 -3.7805 -2.1348 0.9665
2.3438 -0.9548 -0.6553 0.9896
7.5829 -2.3238 -2.0535 0.9678
8.1617 -0.9710 -2.1281 0.9666
8.3599 -0.2420 -2.1654 0.9660
7.5269 3.3472 -2.1329 0.9665
6.5706 3.6573 -1.9470 0.9694
5.7652 3.9221 -1.8054 0.9716
5.0632 4.1522 -1.6954 0.9733
3.3967 4.8034 -1.5232 0.9760
2.8849 4.9688 -1.4876 0.9765
1.8753 5.1844 -1.4274 0.9775
0.9312 5.4860 -1.4407 0.9773
0.2242 2.8447 -0.7388 0.9883
-1.1816 6.1517 -1.6219 0.9744
-2.5406 6.5753 -1.8251 0.9713
-3.7730 7.6500 -2.2085 0.9654
-6.1476 4.8228 -2.0231 0.9682
-6.4377 4.1787 -1.9872 0.9688
-7.3654 3.0863 -2.0677 0.9675
-7.5440 0.9738 -1.9695 0.9691
-7.0209 -1.6404 -1.8668 0.9706
-6.1525 -3.3448 -1.8132 0.9715
-5.3860 -4.3280 -1.7890 0.9719
-4.9538 -4.7689 -1.7804 0.9720
-4.0026 -5.5424 -1.7701 0.9721
-2.9507 -6.1631 -1.7692 0.9722
-2.3923 -6.4131 -1.7722 0.9721
-1.2215 -6.7862 -1.7853 0.9719
-0.6136 -6.9068 -1.7953 0.9718
0.0060 -6.9817 -1.8077 0.9716
1.2705 -6.9894 -1.8393 0.9711
1.9098 -6.9196 -1.8586 0.9708
2.5496 -6.7991 -1.8801 0.9704
3.1867 -6.6268 -1.9039 0.9701
3.8174 -6.4016 -1.9298 0.9697
4.4378 -6.1226 -1.9579 0.9692
5.0435 -5.7892 -1.9880 0.9688
6.1921 -4.9581 -2.0539 0.9678
6.7247 -4.4608 -2.0894 0.9672
7.6539 -3.2971 -2.1578 0.9662
7.5050 -2.4644 -2.0453 0.9679
7.8347 -1.8163 -2.0823 0.9673
8.1088 -1.1289 -2.1198 0.9667
8.5412 1.1175 -2.2303 0.9650
8.5386 1.9056 -2.2652 0.9645
8.4561 2.6999 -2.2983 0.9640
7.7637 3.2690 -2.1811 0.9658
5.9342 3.8666 -1.8339 0.9712
4.5706 4.3132 -1.6272 0.9744
3.9885 4.5029 -1.5575 0.9755
2.9968 4.9327 -1.4944 0.9764
1.1104 -6.4698 -1.8583 0.9731
2.2897 -6.2937 -1.8960 0.9725
2.8758 -6.1340 -1.9179 0.9722
3.4549 -5.9254 -1.9418 0.9719
4.0234 -5.6674 -1.9676 0.9715
5.1120 -5.0017 -2.0246 0.9707
5.6232 -4.5941 -2.0556 0.9703
6.1062 -4.1376 -2.0881 0.9698
6.5557 -3.6332 -2.1218 0.9693
6.9445 -3.0729 -2.1498 0.9689
7.0999 -1.7197 -2.0680 0.9701
7.3433 -1.0960 -2.1019 0.9696
7.5308 -0.4425 -2.1356 0.9691
7.7199 0.9329 -2.2014 0.9682
7.4858 3.0656 -2.2900 0.9669
5.2794 4.0730 -1.8877 0.9727
4.6316 4.2854 -1.7863 0.9741
4.0448 4.4770 -1.7081 0.9752
3.5683 4.7404 -1.6797 0.9756
1.5601 5.2788 -1.5583 0.9774
1.0885 5.4290 -1.5675 0.9772
-0.4172 5.9046 -1.6757 0.9757
-3.2229 7.0563 -2.1961 0.9683
-3.7835 6.6399 -2.1635 0.9687
-5.1567 5.1468 -2.0625 0.9702
-6.8355 2.3954 -2.0505 0.9703
-6.9169 1.7484 -2.0197 0.9708
-6.7204 -0.7443 -1.9141 0.9723
-5.4763 -3.4157 -1.8271 0.9735
-5.1182 -3.8680 -1.8161 0.9737
-2.3932 -5.8757 -1.7960 0.9740
-1.3170 -6.2453 -1.8069 0.9738
-0.7573 -6.3685 -1.8156 0.9737
1.5689 -6.4237 -1.8720 0.9729
2.1588 -6.3227 -1.8914 0.9726
2.7459 -6.1737 -1.9128 0.9723
3.8980 -5.7291 -1.9617 0.9716
4.9948 -5.0856 -2.0179 0.9708
5.5118 -4.6891 -2.0486 0.9704
6.8651 -3.2027 -2.1445 0.9690
6.7335 -2.4353 -2.0270 0.9707
7.0386 -1.8540 -2.0605 0.9702
7.4941 -0.5902 -2.1281 0.9692
7.6349 0.0831 -2.1615 0.9688
7.7212 1.4836 -2.2258 0.9678
7.6599 2.1969 -2.2559 0.9674
7.0707 3.4878 -2.2319 0.9678
6.1874 3.7742 -2.0518 0.9703
5.4339 4.0223 -1.9139 0.9723
4.7698 4.2401 -1.8067 0.9738
4.1710 4.4358 -1.7237 0.9750
3.6701 4.6788 -1.6834 0.9756
3.1621 4.8720 -1.6443 0.9761
1.1940 5.3955 -1.5644 0.9773
0.7157 5.5473 -1.5834 0.9770
0.1039 2.6745 -0.7577 0.9889
-0.1448 2.8580 -0.8101 0.9882
-0.8520 6.0408 -1.7270 0.9750
-1.4559 6.2294 -1.8110 0.9738
-3.0918 7.1422 -2.2032 0.9682
-5.4323 4.7155 -2.0364 0.9705
-6.9424 1.2492 -1.9969 0.9711
-6.7517 -0.6120 -1.9192 0.9722
-6.5935 -1.1990 -1.8972 0.9725
-5.8686 -2.8226 -1.8435 0.9733
-4.8182 -4.1980 -1.8091 0.9738
-4.4064 -4.5936 -1.8020 0.9739
-3.9674 -4.9554 -1.7970 0.9740
-3.5033 -5.2820 -1.7943 0.9740
-2.5087 -5.8247 -1.7954 0.9740
0.2638 -6.4815 -1.8364 0.9734
1.4376 -6.4398 -1.8679 0.9729
2.6156 -6.2111 -1.9079 0.9724
2.3643 -0.9087 -0.7171 0.9895
6.9749 -1.9865 -2.0531 0.9703
7.2416 -1.3776 -2.0868 0.9698
7.7251 1.3254 -2.2189 0.9679
7.6798 2.0380 -2.2493 0.9675
7.5620 2.7506 -2.2780 0.9671
7.2875 3.4161 -2.2784 0.9671
6.3704 3.7139 -2.0875 0.9698
4.9112 4.1938 -1.8283 0.9735
3.2766 4.8349 -1.6534 0.9760
2.7197 4.9067 -1.5882 0.9769
0.8992 3.7115 -1.0811 0.9842
0.8232 5.5133 -1.5781 0.9771
0.1631 2.7735 -0.7865 0.9885
-0.7248 6.0010 -1.7112 0.9752
-1.3164 6.1859 -1.7904 0.9741
-1.6859 5.4665 -1.6195 0.9765
-2.7102 6.6190 -2.0248 0.9707
-3.5400 6.8312 -2.1781 0.9685
-4.0733 6.3890 -2.1450 0.9690
-4.9837 5.3870 -2.0775 0.9700
-5.9355 3.6869 -1.9781 0.9714
-2.7440 1.3813 -0.8697 0.9873
-6.7812 2.6841 -2.0646 0.9701
-6.8875 2.0359 -2.0332 0.9706
-6.9384 1.3916 -2.0033 0.9710
-6.8828 0.1307 -1.9488 0.9718
-6.6326 -1.0701 -1.9019 0.9725
-6.4404 -1.6407 -1.8815 0.9727
-5.9343 -2.7101 -1.8469 0.9732
-5.6251 -3.2048 -1.8327 0.9734
-5.2815 -3.6705 -1.8208 0.9736
-4.5004 -4.5085 -1.8034 0.9739
-4.0673 -4.8779 -1.7979 0.9739
-3.1266 -5.5108 -1.7937 0.9740
-2.1011 -5.9943 -1.7982 0.9739
-0.4417 -6.4185 -1.8213 0.9736
0.1345 -6.4749 -1.8334 0.9734
0.7181 -6.4870 -1.8476 0.9732
1.3063 -6.4535 -1.8640 0.9730
2.4851 -6.2460 -1.9030 0.9724
5.2848 -4.8717 -2.0348 0.9706
6.2596 -3.9752 -2.0992 0.9696
7.4121 -0.8818 -2.1131 0.9694
7.5799 -0.2194 -2.1467 0.9690
7.7256 1.1677 -2.2119 0.9680
7.6961 1.8792 -2.2427 0.9676
7.5945 2.5925 -2.2718 0.9672
7.4194 3.2994 -2.2987 0.9668
5.7565 3.9162 -1.9710 0.9715
5.0560 4.1463 -1.8511 0.9732
2.8814 4.9628 -1.6246 0.9764
2.3456 5.0272 -1.5705 0.9772
1.8733 5.1787 -1.5590 0.9774
-0.6000 5.9619 -1.6963 0.9754
-1.1800 6.1433 -1.7709 0.9743
-2.5368 6.5653 -1.9925 0.9712
-3.4146 6.9233 -2.1854 0.9684
-5.2787 4.9641 -2.0513 0.9703
-5.6084 4.3998 -2.0180 0.9708
-5.8822 3.8182 -1.9853 0.9713
-6.7499 2.8284 -2.0718 0.9700
-6.8687 2.1800 -2.0401 0.9705
-6.9318 1.5344 -2.0098 0.9709
-6.9411 0.8960 -1.9813 0.9713
-6.8990 0.2685 -1.9545 0.9717
-6.8076 -0.3446 -1.9297 0.9721
-6.6694 -0.9402 -1.9067 0.9724
-6.4869 -1.5156 -1.8858 0.9727
-6.2623 -2.0684 -1.8670 0.9730
-5.9982 -2.5962 -1.8503 0.9732
-5.3608 -3.5695 -1.8232 0.9736
-4.9921 -4.0115 -1.8130 0.9737
-4.5931 -4.4217 -1.8049 0.9738
-2.2188 -5.9482 -1.7972 0.9740
-1.6832 -6.1399 -1.8023 0.9739
-1.1323 -6.2909 -1.8095 0.9738
0.0056 -6.4662 -1.8305 0.9735
0.5877 -6.4882 -1.8443 0.9733
1.7651 -6.3954 -1.8782 0.9728
2.9399 -6.1135 -1.9204 0.9722
3.5180 -5.8995 -1.9445 0.9718
4.0851 -5.6360 -1.9705 0.9715
4.6370 -5.3226 -1.9984 0.9711
6.5046 -2.8020 -2.0050 0.9710
6.8402 -2.2461 -2.0381 0.9705
7.1292 -1.6527 -2.0718 0.9700
7.6678 0.3117 -2.1725 0.9686
7.6234 2.4340 -2.2655 0.9673
6.7564 3.5865 -2.1655 0.9687
5.9252 3.8607 -2.0020 0.9710
5.2046 4.0976 -1.8752 0.9728
4.5644 4.3073 -1.7767 0.9742
3.5098 4.7594 -1.6741 0.9757
0.4868 -6.0338 -1.8619 0.9750
1.0321 -6.0132 -1.8766 0.9748
2.1251 -5.8413 -1.9119 0.9743
4.2322 -4.9555 -2.0044 0.9731
5.1876 -4.2382 -2.0604 0.9724
5.6262 -3.8124 -2.0904 0.9720
6.0328 -3.3434 -2.1215 0.9715
6.2461 -2.1193 -2.0287 0.9728
6.7213 -1.0032 -2.0902 0.9720
6.9448 2.1423 -2.2354 0.9700
6.8003 2.7849 -2.2602 0.9697
5.2717 4.0671 -2.0479 0.9725
4.6252 4.2794 -1.9381 0.9740
3.0449 4.9026 -1.7751 0.9761
0.6067 5.5748 -1.7248 0.9768
0.0493 2.6053 -0.8015 0.9892
-0.4167 5.8969 -1.8183 0.9756
-0.9802 6.0731 -1.8921 0.9746
-2.9388 6.4343 -2.1757 0.9708
-3.9262 5.6488 -2.1159 0.9716
-4.3512 5.1988 -2.0852 0.9720
-4.7274 4.7184 -2.0544 0.9724
-5.0536 4.2133 -2.0237 0.9728
-5.5538 3.1506 -1.9640 0.9736
-5.7282 2.6032 -1.9353 0.9740
-6.3896 1.6152 -2.0271 0.9728
-6.4216 1.0239 -2.0001 0.9732
-6.4049 0.4403 -1.9746 0.9735
-6.3413 -0.1321 -1.9509 0.9738
-5.3954 -2.7286 -1.8597 0.9750
-3.1649 -4.9844 -1.8160 0.9756
-2.7068 -5.2471 -1.8160 0.9756
-1.2265 -5.8160 -1.8282 0.9754
0.3660 -6.0325 -1.8589 0.9750
0.9105 -6.0215 -1.8731 0.9748
2.0039 -5.8692 -1.9076 0.9744
3.0830 -5.5380 -1.9495 0.9738
4.1206 -5.0241 -1.9986 0.9732
4.6144 -4.6983 -2.0255 0.9728
5.0861 -4.3270 -2.0539 0.9724
6.3071 -2.9423 -2.1406 0.9713
6.8522 -0.5397 -2.1141 0.9716
7.0326 0.7081 -2.1740 0.9709
6.9679 1.9984 -2.2296 0.9701
6.8382 2.6427 -2.2549 0.9698
6.6421 3.2764 -2.2780 0.9695
6.1776 3.7683 -2.2257 0.9702
4.7631 4.2342 -1.9602 0.9737
3.6674 4.6754 -1.8277 0.9754
2.6086 4.9355 -1.7170 0.9769
2.1320 5.0888 -1.6970 0.9772
0.7148 5.5406 -1.7183 0.9769
0.1067 2.7453 -0.8450 0.9886
-1.4538 6.2207 -1.9649 0.9736
-1.7947 5.4328 -1.7598 0.9763
-3.3434 6.1491 -2.1528 0.9711
-4.2608 5.3018 -2.0921 0.9719
-4.6480 4.8276 -2.0612 0.9723
-5.2722 3.8070 -2.0002 0.9732
-5.5082 3.2714 -1.9705 0.9735
-6.2817 2.3428 -2.0621 0.9723
-6.3757 1.7474 -2.0333 0.9727
-6.4188 1.1550 -2.0060 0.9731
-6.4127 0.5693 -1.9802 0.9734
-6.1192 -1.1127 -1.9130 0.9743
-5.9367 -1.6389 -1.8943 0.9746
-5.4576 -2.6249 -1.8627 0.9750
-5.1654 -3.0807 -1.8499 0.9751
-4.4866 -3.9091 -1.8303 0.9754
-3.6960 -4.6164 -1.8189 0.9756
-3.2641 -4.9212 -1.8163 0.9756
-2.8105 -5.1917 -1.8158 0.9756
-1.8467 -5.6250 -1.8210 0.9755
-0.8220 -5.9071 -1.8344 0.9753
-0.2924 -5.9886 -1.8442 0.9752
0.2454 -6.0292 -1.8560 0.9751
0.7890 -6.0277 -1.8698 0.9749
1.8825 -5.8949 -1.9033 0.9744
3.4929 -5.3600 -1.9678 0.9736
4.0081 -5.0903 -1.9928 0.9733
4.5063 -4.7747 -2.0194 0.9729
5.4347 -4.0073 -2.0769 0.9721
5.8561 -3.5573 -2.1075 0.9717
6.2332 -3.0604 -2.1358 0.9714
6.3967 -1.8218 -2.0457 0.9725
6.8180 -0.6738 -2.1073 0.9717
6.9499 -0.0628 -2.1377 0.9713
7.0377 1.2075 -2.1963 0.9706
6.9878 1.8544 -2.2237 0.9702
6.8727 2.4999 -2.2494 0.9699
4.2938 4.3880 -1.8883 0.9746
3.2725 4.8289 -1.7942 0.9759
2.2371 5.0550 -1.7003 0.9771
0.8899 3.6732 -1.1625 0.9843
0.8222 5.5066 -1.7125 0.9770
-0.7239 5.9931 -1.8567 0.9751
-4.9147 4.4408 -2.0373 0.9727
-5.4600 3.3916 -1.9770 0.9735
-6.2488 2.4733 -2.0671 0.9723
-6.3592 1.8798 -2.0396 0.9726
-6.4135 1.2863 -2.0119 0.9730
-6.4182 0.6989 -1.9858 0.9733
-6.3752 0.1211 -1.9612 0.9737
-5.9807 -1.5236 -1.8983 0.9745
-5.2333 -2.9815 -1.8525 0.9751
-2.9132 -5.1345 -1.8158 0.9756
-2.4442 -5.3775 -1.8168 0.9756
-1.9573 -5.5841 -1.8200 0.9755
-1.4546 -5.7531 -1.8252 0.9755
-0.4111 -5.9740 -1.8418 0.9753
0.6677 -6.0317 -1.8665 0.9749
1.2139 -5.9968 -1.8819 0.9747
2.3059 -5.7954 -1.9185 0.9742
2.8454 -5.6274 -1.9396 0.9740
3.8948 -5.1543 -1.9871 0.9733
4.3971 -4.8489 -2.0133 0.9730
4.8792 -4.4978 -2.0411 0.9726
5.3367 -4.1015 -2.0702 0.9722
5.7652 -3.6612 -2.1006 0.9718
6.1571 -3.1767 -2.1310 0.9714
6.3380 -1.9423 -2.0389 0.9726
6.5840 -1.3888 -2.0697 0.9722
6.9254 -0.2005 -2.1310 0.9714
7.0128 0.4250 -2.1609 0.9710
7.0401 1.0641 -2.1900 0.9706
7.0045 1.7103 -2.2177 0.9703
6.9041 2.3568 -2.2439 0.9699
6.7376 2.9962 -2.2680 0.9696
6.5048 3.6207 -2.2898 0.9693
5.7477 3.9102 -2.1382 0.9713
5.0488 4.1404 -2.0083 0.9730
3.8553 4.5311 -1.8299 0.9754
2.8778 4.9566 -1.7629 0.9763
1.8710 5.1725 -1.6918 0.9772
0.9603 3.6450 -1.1594 0.9843
0.9289 5.4727 -1.7074 0.9770
-0.0284 2.6272 -0.8081 0.9891
-1.1784 6.1349 -1.9215 0.9742
-1.8160 6.3331 -2.0264 0.9728
-2.5329 6.5552 -2.1615 0.9710
-3.6164 5.9294 -2.1362 0.9714
-4.0728 5.5029 -2.1057 0.9718
-4.8414 4.5530 -2.0442 0.9726
-5.1508 4.0408 -2.0136 0.9730
-5.4094 3.5113 -1.9836 0.9734
-2.7228 1.4393 -0.9473 0.9872
-6.3403 2.0123 -2.0460 0.9725
-6.4058 1.4180 -2.0180 0.9729
-6.3888 0.2486 -1.9666 0.9736
-6.1874 -0.8723 -1.9219 0.9742
-5.2995 -2.8811 -1.8553 0.9751
-4.9892 -3.3220 -1.8436 0.9752
-4.6479 -3.7348 -1.8339 0.9754
-4.2777 -4.1180 -1.8263 0.9755
-3.8807 -4.4701 -1.8207 0.9755
-3.4591 -4.7897 -1.8172 0.9756
-3.0149 -5.0756 -1.8158 0.9756
-2.5502 -5.3266 -1.8164 0.9756
-2.0671 -5.5414 -1.8191 0.9756
-0.5293 -5.9573 -1.8396 0.9753
0.0052 -6.0163 -1.8505 0.9751
1.0922 -6.0083 -1.8783 0.9748
1.6393 -5.9396 -1.8952 0.9745
3.2591 -5.4653 -1.9572 0.9737
3.7807 -5.2160 -1.9815 0.9734
4.2870 -4.9208 -2.0073 0.9731
4.7739 -4.5798 -2.0348 0.9727
5.2372 -4.1935 -2.0636 0.9723
5.6726 -3.7629 -2.0937 0.9719
6.0753 -3.2893 -2.1249 0.9715
5.9771 -2.5748 -2.0017 0.9731
6.8981 -0.3372 -2.1242 0.9715
6.9985 0.2845 -2.1544 0.9711
6.9321 2.2133 -2.2382 0.9700
6.7804 2.8549 -2.2628 0.9697
5.9160 3.8547 -2.1718 0.9709
5.1970 4.0917 -2.0345 0.9727
4.5581 4.3014 -1.9277 0.9741
3.9781 4.4911 -1.8453 0.9752
2.9894 4.9206 -1.7709 0.9762
-0.0504 -5.6159 -1.8668 0.9766
1.4729 -5.5488 -1.9083 0.9761
1.9808 -5.4444 -1.9258 0.9759
3.9317 -4.6037 -2.0124 0.9748
4.8098 -3.9295 -2.0645 0.9742
5.5813 -3.0932 -2.1211 0.9735
5.7655 -1.9563 -2.0238 0.9747
5.9998 -1.4532 -2.0520 0.9743
6.1898 -0.9239 -2.0803 0.9740
6.3319 -0.3720 -2.1084 0.9736
6.4227 0.1978 -2.1359 0.9733
6.4593 0.7806 -2.1627 0.9729
6.4392 1.3707 -2.1884 0.9726
6.3606 1.9621 -2.2126 0.9723
6.2225 2.5482 -2.2351 0.9721
5.7673 3.6775 -2.2737 0.9716
5.2639 4.0611 -2.2100 0.9724
4.0341 4.4651 -2.0003 0.9750
2.0073 5.0723 -1.8133 0.9773
1.5563 5.2661 -1.8253 0.9771
1.0859 5.4158 -1.8361 0.9770
0.6060 5.5678 -1.8617 0.9767
-0.4162 5.8892 -1.9625 0.9754
-1.5941 6.2560 -2.1460 0.9732
-1.9182 5.4404 -1.9175 0.9760
-3.1746 5.5713 -2.1315 0.9733
-3.6122 5.1970 -2.1038 0.9737
-4.3595 4.3512 -2.0474 0.9744
-5.9564 0.4095 -1.9846 0.9751
-5.9023 -0.1230 -1.9624 0.9754
-5.8060 -0.6431 -1.9418 0.9757
-5.6695 -1.1480 -1.9228 0.9759
-5.0382 -2.5479 -1.8767 0.9765
-4.4528 -3.3651 -1.8553 0.9767
-4.1168 -3.7337 -1.8474 0.9768
-3.3684 -4.3833 -1.8376 0.9770
-2.5315 -4.9073 -1.8355 0.9770
-1.6227 -5.2961 -1.8412 0.9769
-1.1465 -5.4370 -1.8470 0.9769
0.3417 -5.6333 -1.8760 0.9765
1.3595 -5.5664 -1.9047 0.9761
4.2836 -4.3614 -2.0321 0.9746
4.7167 -4.0127 -2.0585 0.9742
5.1242 -3.6231 -2.0861 0.9739
5.5018 -3.1939 -2.1147 0.9735
5.8268 -2.7183 -2.1373 0.9733
5.7077 -2.0643 -2.0176 0.9747
6.3046 -0.4965 -2.1022 0.9737
6.4487 1.2391 -2.1828 0.9727
6.3832 1.8307 -2.2074 0.9724
6.0737 2.9960 -2.2512 0.9719
5.4178 4.0103 -2.2406 0.9720
3.1267 4.8175 -1.9091 0.9761
2.6053 4.9294 -1.8533 0.9768
2.1294 5.0826 -1.8318 0.9770
1.6604 5.2328 -1.8249 0.9771
1.1911 5.3824 -1.8324 0.9770
-0.2966 5.8517 -1.9476 0.9756
-0.8497 6.0246 -2.0224 0.9747
-2.5866 5.9750 -2.1643 0.9729
-3.9235 4.8821 -2.0820 0.9739
-4.2851 4.4507 -2.0537 0.9743
-4.6015 3.9944 -2.0255 0.9746
-4.8718 3.5179 -1.9975 0.9750
-5.9628 1.0729 -2.0139 0.9748
-5.5368 -1.5285 -1.9093 0.9761
-5.3336 -2.0004 -1.8935 0.9763
-4.8251 -2.8777 -1.8675 0.9766
-4.5238 -3.2794 -1.8573 0.9767
-4.1939 -3.6541 -1.8490 0.9768
-3.8374 -4.0005 -1.8427 0.9769
-3.4563 -4.3171 -1.8383 0.9770
-2.1858 -5.0750 -1.8368 0.9770
0.2292 -5.6307 -1.8732 0.9765
0.7365 -5.6266 -1.8863 0.9764
2.2608 -5.3684 -1.9363 0.9757
3.7251 -4.7309 -2.0016 0.9749
4.1842 -4.4334 -2.0264 0.9746
5.0359 -3.7133 -2.0798 0.9740
2.3664 -0.9095 -0.8427 0.9894
5.9008 -1.6806 -2.0395 0.9745
6.3888 -0.0577 -2.1238 0.9734
6.4499 0.5200 -2.1509 0.9731
6.4552 1.1075 -2.1771 0.9728
6.4029 1.6992 -2.2020 0.9725
6.2913 2.2885 -2.2253 0.9722
6.1200 2.8688 -2.2467 0.9719
5.8890 3.4333 -2.2659 0.9717
5.5760 3.9580 -2.2730 0.9716
4.8972 4.1819 -2.1406 0.9732
4.2879 4.3820 -2.0379 0.9745
3.2212 4.7532 -1.9086 0.9761
2.7130 4.8946 -1.8602 0.9767
2.2344 5.0488 -1.8353 0.9770
0.1648 2.8028 -0.9333 0.9882
-0.0852 2.7713 -0.9216 0.9884
-0.7229 5.9850 -2.0039 0.9749
-1.3127 6.1687 -2.0964 0.9738
-2.9670 5.7256 -2.1436 0.9732
-3.4225 5.3681 -2.1162 0.9735
-3.8371 4.9742 -2.0882 0.9739
-4.2085 4.5491 -2.0600 0.9742
-5.0499 3.1368 -1.9761 0.9753
-2.7433 1.3810 -1.0209 0.9871
-5.3793 2.1292 -1.9231 0.9759
-5.9665 0.6497 -1.9950 0.9750
-5.9317 0.1126 -1.9721 0.9753
-5.8540 -0.4133 -1.9507 0.9756
-5.7351 -0.9253 -1.9310 0.9758
-5.3819 -1.8972 -1.8969 0.9762
-5.1515 -2.3526 -1.8825 0.9764
-4.2697 -3.5731 -1.8507 0.9768
-3.5431 -4.2493 -1.8391 0.9769
-3.1443 -4.5417 -1.8362 0.9770
-2.7246 -4.8021 -1.8353 0.9770
-1.8303 -5.2218 -1.8393 0.9769
-1.3600 -5.3788 -1.8442 0.9769
1.6421 -5.5187 -1.9139 0.9760
2.1487 -5.4004 -1.9320 0.9758
2.6495 -5.2399 -1.9518 0.9756
3.6205 -4.7913 -1.9962 0.9750
4.0837 -4.5032 -2.0207 0.9747
5.6902 -2.9358 -2.1284 0.9734
2.3396 -0.9531 -0.8397 0.9894
5.8481 -1.7922 -2.0332 0.9745
6.0681 -1.2800 -2.0614 0.9742
6.3679 -0.1843 -2.1176 0.9735
6.4410 0.3904 -2.1449 0.9732
6.4590 0.9762 -2.1714 0.9728
6.4196 1.5675 -2.1966 0.9725
6.1633 2.7408 -2.2421 0.9720
3.8502 4.5252 -1.9750 0.9753
3.3217 4.6973 -1.9124 0.9760
2.8742 4.9505 -1.9028 0.9762
2.3399 5.0149 -1.8395 0.9769
0.9329 3.5408 -1.2171 0.9847
0.9278 5.4660 -1.8429 0.9769
0.4429 5.6193 -1.8737 0.9765
-0.0283 2.6190 -0.8706 0.9890
-0.5984 5.9462 -1.9865 0.9751
-1.8133 6.3239 -2.1868 0.9727
-3.3246 5.4510 -2.1223 0.9734
-4.4663 4.2002 -2.0380 0.9745
-5.9481 1.3167 -2.0251 0.9746
-5.9682 0.7704 -2.0003 0.9750
-5.8749 -0.2974 -1.9553 0.9755
-5.6155 -1.3121 -1.9169 0.9760
-5.2057 -2.2532 -1.8855 0.9764
-4.3441 -3.4908 -1.8525 0.9768
-3.6288 -4.1799 -1.8400 0.9769
-2.8197 -4.7470 -1.8353 0.9770
-2.3850 -4.9816 -1.8359 0.9770
-1.4658 -5.3470 -1.8429 0.9769
-0.9856 -5.4757 -1.8494 0.9768
0.0049 -5.6198 -1.8680 0.9766
0.5103 -5.6334 -1.8802 0.9764
1.5288 -5.5394 -1.9102 0.9761
2.0364 -5.4304 -1.9278 0.9758
2.5388 -5.2793 -1.9472 0.9756
3.5152 -4.8497 -1.9910 0.9751
5.2532 -3.4847 -2.0955 0.9738
5.6189 -3.0422 -2.1239 0.9734
5.5229 -2.3791 -1.9989 0.9750
5.7933 -1.9024 -2.0269 0.9746
6.0229 -1.3963 -2.0551 0.9743
6.4294 0.2613 -2.1389 0.9732
6.4598 0.8452 -2.1656 0.9729
6.4334 1.4358 -2.1911 0.9726
5.9991 3.1845 -2.2577 0.9718
5.7355 3.7371 -2.2755 0.9716
5.1894 4.0856 -2.1954 0.9725
4.5518 4.2954 -2.0804 0.9740
3.9727 4.4851 -1.9916 0.9751
3.4365 4.6600 -1.9247 0.9759
2.9827 4.9095 -1.9095 0.9761
-0.0472 -5.2640 -1.8825 0.9779
1.3786 -5.1939 -1.9217 0.9774
2.3221 -4.9530 -1.9562 0.9770
3.2326 -4.5535 -1.9970 0.9766
4.0840 -3.9958 -2.0432 0.9760
5.3479 -1.8146 -2.0195 0.9763
5.9617 0.7204 -2.1475 0.9748
5.8602 1.8077 -2.1931 0.9743
4.0286 4.4590 -2.1490 0.9748
3.3531 4.4544 -1.9938 0.9766
2.9452 4.7420 -1.9962 0.9766
2.0048 5.0660 -1.9483 0.9771
1.5544 5.2595 -1.9613 0.9770
0.6052 5.5608 -2.0003 0.9765
-0.9775 6.0564 -2.1939 0.9743
-1.5118 5.9333 -2.1896 0.9743
-1.9155 5.4326 -2.0600 0.9758
-2.4903 5.4522 -2.1435 0.9749
-3.7106 4.4335 -2.0675 0.9757
-4.0403 4.0326 -2.0413 0.9760
-4.7771 2.7100 -1.9641 0.9769
-5.5663 0.8875 -2.0157 0.9763
-5.5147 -0.1149 -1.9725 0.9768
-5.1437 -1.5308 -1.9191 0.9775
-4.7210 -2.3875 -1.8918 0.9778
-3.5224 -3.8215 -1.8586 0.9782
-2.7774 -4.3741 -1.8529 0.9782
-2.3754 -4.6047 -1.8529 0.9782
-1.9563 -4.8032 -1.8547 0.9782
-1.5223 -4.9685 -1.8583 0.9782
-0.1518 -5.2556 -1.8802 0.9779
0.3202 -5.2786 -1.8912 0.9778
1.2727 -5.2109 -1.9182 0.9775
1.7478 -5.1190 -1.9343 0.9773
2.2183 -4.9876 -1.9521 0.9771
2.6814 -4.8166 -1.9714 0.9769
3.1337 -4.6058 -1.9921 0.9766
3.5721 -4.3553 -2.0143 0.9764
4.3929 -3.7372 -2.0625 0.9758
5.2955 -1.9152 -2.0137 0.9764
5.5159 -1.4529 -2.0398 0.9761
5.6957 -0.9664 -2.0659 0.9758
5.9477 1.1428 -2.1658 0.9746
5.8822 1.6870 -2.1883 0.9743
5.7624 2.2270 -2.2092 0.9741
5.5883 2.7566 -2.2283 0.9739
4.7484 4.2211 -2.2720 0.9734
4.1541 4.4179 -2.1686 0.9746
3.4395 4.3848 -1.9929 0.9766
2.6021 4.9232 -1.9913 0.9766
1.6584 5.2263 -1.9608 0.9770
0.8181 3.6970 -1.3541 0.9840
-1.3965 5.9752 -2.1944 0.9743
-1.7910 5.4215 -2.0418 0.9760
-3.2534 4.8856 -2.0991 0.9754
-4.5232 3.2662 -1.9952 0.9766
-2.8022 1.3414 -1.1110 0.9869
-5.0323 1.8768 -1.9207 0.9774
-5.5143 1.5113 -2.0447 0.9760
-5.5617 1.0007 -2.0208 0.9763
-5.5660 0.4942 -1.9983 0.9765
-5.5286 -0.0051 -1.9771 0.9768
-5.3351 -0.9701 -1.9392 0.9772
-4.9949 -1.8734 -1.9077 0.9776
-4.5226 -2.6973 -1.8831 0.9779
-4.2417 -3.0749 -1.8735 0.9780
-3.9335 -3.4272 -1.8657 0.9781
-2.4664 -4.5561 -1.8527 0.9782
-2.0510 -4.7618 -1.8541 0.9782
-1.6201 -4.9346 -1.8573 0.9782
-1.1758 -5.0735 -1.8624 0.9781
-0.7205 -5.1774 -1.8693 0.9780
0.2148 -5.2768 -1.8886 0.9778
0.6899 -5.2705 -1.9009 0.9777
1.1667 -5.2261 -1.9149 0.9775
2.1142 -5.0203 -1.9480 0.9771
2.5791 -4.8581 -1.9669 0.9769
3.0342 -4.6561 -1.9874 0.9767
4.3059 -3.8136 -2.0569 0.9759
4.6869 -3.4559 -2.0824 0.9756
5.0401 -3.0616 -2.1088 0.9753
5.3471 -2.6253 -2.1302 0.9750
2.3675 -0.9099 -0.9070 0.9893
5.6594 -1.0766 -2.0601 0.9758
5.8053 -0.5737 -2.0861 0.9755
5.9049 -0.0533 -2.1117 0.9752
5.9555 0.4801 -2.1366 0.9749
5.9550 1.0217 -2.1606 0.9747
5.9014 1.5661 -2.1834 0.9744
5.1463 3.6530 -2.2569 0.9735
4.8263 4.1213 -2.2695 0.9734
3.1305 4.6193 -1.9955 0.9766
2.7096 4.8884 -1.9987 0.9765
2.2316 5.0426 -1.9720 0.9768
1.7624 5.1931 -1.9611 0.9770
-0.0852 2.7716 -0.9916 0.9883
-0.7219 5.9769 -2.1529 0.9747
-1.6830 5.4571 -2.0422 0.9760
-2.7403 5.2881 -2.1299 0.9750
-3.8986 4.2141 -2.0530 0.9759
-4.2054 3.7999 -2.0269 0.9762
-4.4701 3.3652 -2.0009 0.9765
-2.7433 1.3810 -1.0983 0.9870
-5.0077 1.9821 -1.9260 0.9774
-5.5549 1.1141 -2.0260 0.9762
-5.4717 -0.3863 -1.9616 0.9770
-5.0396 -1.7765 -1.9109 0.9776
-4.8262 -2.2040 -1.8973 0.9777
-4.3066 -2.9930 -1.8755 0.9780
-4.0043 -3.3511 -1.8672 0.9781
-3.6762 -3.6828 -1.8608 0.9781
-1.2757 -5.0456 -1.8611 0.9781
-0.3601 -5.2335 -1.8759 0.9780
0.5840 -5.2752 -1.8980 0.9777
1.0606 -5.2393 -1.9116 0.9775
1.5367 -5.1647 -1.9270 0.9774
2.0097 -5.0510 -1.9440 0.9772
2.9340 -4.7045 -1.9827 0.9767
3.3790 -4.4717 -2.0043 0.9765
4.2178 -3.8881 -2.0514 0.9759
2.3381 -0.9525 -0.9029 0.9893
5.6209 -1.1857 -2.0543 0.9759
5.7767 -0.6873 -2.0804 0.9756
5.8869 -0.1704 -2.1061 0.9753
5.9486 0.3605 -2.1312 0.9750
5.8225 1.9876 -2.2001 0.9742
4.4124 4.3331 -2.2115 0.9741
3.8451 4.5191 -2.1219 0.9751
2.3370 5.0087 -1.9765 0.9768
1.8664 5.1598 -1.9622 0.9770
-0.5976 5.9382 -2.1343 0.9750
-1.6820 5.8661 -2.1823 0.9744
-2.1495 5.5631 -2.1327 0.9750
-3.0729 5.0383 -2.1104 0.9752
-3.8247 4.3030 -2.0588 0.9758
-4.4149 3.4635 -2.0066 0.9764
-4.6464 3.0160 -1.9809 0.9767
-2.7257 1.4408 -1.1025 0.9870
-5.4714 1.7365 -2.0528 0.9759
-5.5460 1.2276 -2.0313 0.9762
-5.5693 0.7189 -2.0081 0.9764
-5.5503 0.2160 -1.9863 0.9767
-5.3914 -0.7601 -1.9471 0.9771
-5.2548 -1.2278 -1.9298 0.9773
-4.8764 -2.1107 -1.9002 0.9777
-4.6384 -2.5217 -1.8880 0.9778
-4.3702 -2.9099 -1.8776 0.9779
-4.0739 -3.2736 -1.8689 0.9780
-3.4045 -3.9215 -1.8571 0.9782
-3.0353 -4.2029 -1.8540 0.9782
-2.6458 -4.4543 -1.8527 0.9782
-2.2379 -4.6743 -1.8532 0.9782
-0.9244 -5.1355 -1.8660 0.9781
-0.4637 -5.2197 -1.8739 0.9780
0.9545 -5.2506 -1.9084 0.9776
1.9049 -5.0797 -1.9401 0.9772
2.3733 -4.9352 -1.9583 0.9770
2.8331 -4.7509 -1.9781 0.9768
4.5205 -3.6197 -2.0710 0.9757
4.8865 -3.2415 -2.0970 0.9754
5.2181 -2.8252 -2.1220 0.9751
2.3714 -1.0216 -0.9234 0.9891
5.3731 -1.7643 -2.0224 0.9763
5.7459 -0.7999 -2.0746 0.9757
5.9617 0.7800 -2.1501 0.9748
5.9319 1.3238 -2.1735 0.9745
4.5454 4.2894 -2.2350 0.9738
3.9674 4.4791 -2.1397 0.9749
2.8986 4.7710 -1.9963 0.9766
-0.0444 -4.9488 -1.8966 0.9790
0.4002 -4.9609 -1.9073 0.9789
0.8474 -4.9371 -1.9196 0.9788
1.7389 -4.7798 -1.9492 0.9784
2.1780 -4.6456 -1.9662 0.9783
2.6087 -4.4741 -1.9847 0.9781
3.0281 -4.2653 -2.0046 0.9778
3.4329 -4.0196 -2.0257 0.9776
4.8349 -2.6795 -2.1183 0.9766
4.9812 -1.6901 -2.0158 0.9777
5.1738 -1.2532 -2.0400 0.9775
5.5074 0.1696 -2.1115 0.9767
5.5289 0.6681 -2.1342 0.9764
5.5023 1.1713 -2.1558 0.9762
5.3007 2.1707 -2.1951 0.9758
4.6283 3.5707 -2.2401 0.9753
4.3108 3.9886 -2.2506 0.9752
3.9511 4.3732 -2.2586 0.9751
3.2751 4.3508 -2.0869 0.9769
2.0023 5.0596 -2.0853 0.9770
1.0973 3.7128 -1.4837 0.9836
1.0832 5.4022 -2.1114 0.9767
0.0517 2.7318 -1.0471 0.9884
-0.4064 5.7512 -2.2095 0.9756
-0.9115 5.6471 -2.1921 0.9758
-1.4001 5.4947 -2.1730 0.9760
-1.8676 5.2970 -2.1524 0.9762
-2.3098 5.0571 -2.1305 0.9765
-3.4506 4.1228 -2.0603 0.9772
-4.0322 3.3618 -2.0118 0.9778
-4.2649 2.9523 -1.9878 0.9780
-4.4579 2.5289 -1.9641 0.9783
-2.9123 1.3235 -1.2259 0.9864
-4.7249 1.6558 -1.9186 0.9788
-5.1690 1.3066 -2.0432 0.9774
-5.2099 0.3582 -2.0012 0.9779
-5.1698 -0.1077 -1.9816 0.9781
-4.9783 -1.0080 -1.9465 0.9785
-4.4370 -2.2439 -1.9054 0.9789
-3.3140 -3.5955 -1.8739 0.9793
-2.9738 -3.8699 -1.8703 0.9793
-0.1428 -4.9413 -1.8944 0.9790
0.7478 -4.9455 -1.9167 0.9788
2.0809 -4.6787 -1.9623 0.9783
2.5137 -4.5155 -1.9805 0.9781
2.9359 -4.3150 -2.0000 0.9779
4.1064 -3.4935 -2.0661 0.9772
4.4534 -3.1488 -2.0901 0.9769
4.7720 -2.7702 -2.1145 0.9766
4.6974 -2.1914 -1.9864 0.9780
4.9333 -1.7842 -2.0104 0.9778
5.1342 -1.3523 -2.0346 0.9775
5.2968 -0.8987 -2.0588 0.9772
5.4963 0.0598 -2.1064 0.9767
5.5282 0.5566 -2.1292 0.9765
4.9546 3.0222 -2.2241 0.9754
4.3852 3.8983 -2.2485 0.9752
4.0346 4.2907 -2.2570 0.9751
3.3847 4.3150 -2.1016 0.9768
2.5987 4.9169 -2.1312 0.9765
0.8173 3.6931 -1.4495 0.9839
-0.2923 5.7676 -2.2131 0.9756
-1.2930 5.5327 -2.1774 0.9760
-1.7656 5.3447 -2.1571 0.9762
-3.0222 4.5384 -2.0895 0.9769
-3.3766 4.2016 -2.0656 0.9772
-3.6947 3.8376 -2.0414 0.9774
-3.9751 3.4506 -2.0172 0.9777
-2.7984 1.3396 -1.1889 0.9868
-5.1510 1.4117 -2.0467 0.9774
-5.2135 0.4629 -2.0058 0.9778
-4.8660 -1.3433 -1.9345 0.9786
-4.6921 -1.7598 -1.9204 0.9788
-4.2518 -2.5358 -1.8971 0.9790
-3.9889 -2.8916 -1.8880 0.9791
-3.7000 -3.2237 -1.8806 0.9792
-3.3868 -3.5307 -1.8749 0.9793
-3.0513 -3.8112 -1.8709 0.9793
-2.3209 -4.2874 -1.8683 0.9793
-1.9299 -4.4808 -1.8696 0.9793
-1.5243 -4.6429 -1.8727 0.9793
-1.1062 -4.7728 -1.8775 0.9792
-0.2408 -4.9321 -1.8923 0.9791
0.6482 -4.9521 -1.9139 0.9788
1.0957 -4.9082 -1.9272 0.9787
1.5417 -4.8276 -1.9420 0.9785
1.9835 -4.7099 -1.9584 0.9783
2.4182 -4.5550 -1.9763 0.9782
2.8430 -4.3628 -1.9956 0.9779
3.6501 -3.8675 -2.0379 0.9775
4.3784 -3.2285 -2.0847 0.9770
4.7044 -2.8577 -2.1094 0.9767
4.9843 -2.4472 -2.1279 0.9765
2.3686 -0.9103 -0.9724 0.9892
5.2641 -1.0014 -2.0535 0.9773
5.2094 2.4419 -2.2048 0.9757
5.0064 2.9187 -2.2208 0.9755
4.7551 3.3754 -2.2347 0.9753
4.4575 3.8064 -2.2463 0.9752
4.1161 4.2065 -2.2554 0.9751
3.4960 4.2786 -2.1174 0.9766
3.0076 4.4380 -2.0545 0.9773
1.7602 5.1866 -2.0989 0.9768
0.8718 3.5984 -1.4189 0.9843
0.1646 2.7993 -1.0746 0.9881
-0.6884 5.6996 -2.2000 0.9757
-1.6624 5.3904 -2.1617 0.9761
-2.5429 4.9071 -2.1180 0.9766
-3.9160 3.5385 -2.0226 0.9776
-4.3769 2.7188 -1.9746 0.9782
-5.1309 1.5167 -2.0503 0.9773
-5.2153 0.5679 -2.0104 0.9778
-5.1924 0.0986 -1.9902 0.9780
-5.1312 -0.3623 -1.9713 0.9782
-5.0333 -0.8121 -1.9538 0.9784
-4.7336 -1.6687 -1.9234 0.9787
-4.5351 -2.0711 -1.9106 0.9789
-4.0497 -2.8144 -1.8899 0.9791
-3.7664 -3.1520 -1.8821 0.9792
-3.4585 -3.4647 -1.8760 0.9792
-2.4058 -4.2402 -1.8682 0.9793
-1.6157 -4.6096 -1.8719 0.9793
-1.2002 -4.7467 -1.8763 0.9792
-0.3386 -4.9212 -1.8903 0.9791
2.3223 -4.5927 -1.9722 0.9782
3.1644 -4.1877 -2.0115 0.9778
3.9441 -3.6358 -2.0557 0.9773
4.6344 -2.9431 -2.1038 0.9768
2.3367 -0.9519 -0.9669 0.9892
5.0493 -1.5474 -2.0238 0.9776
5.3695 -0.6388 -2.0722 0.9771
5.4671 -0.1583 -2.0960 0.9768
5.5255 0.8351 -2.1415 0.9763
5.3902 1.8400 -2.1826 0.9759
5.2478 2.3337 -2.2009 0.9757
5.0558 2.8142 -2.2174 0.9755
4.8151 3.2758 -2.2318 0.9754
4.5276 3.7130 -2.2439 0.9752
3.7775 4.4397 -2.2339 0.9753
3.1138 4.4034 -2.0667 0.9772
2.3340 5.0023 -2.1154 0.9766
0.9254 5.4522 -2.1193 0.9766
0.4418 5.6049 -2.1546 0.9762
-0.0281 2.5933 -0.9938 0.9890
-0.5758 5.7221 -2.2039 0.9757
-1.0760 5.6017 -2.1859 0.9759
-2.0176 5.2217 -2.1452 0.9763
-2.4506 4.9686 -2.1231 0.9765
-2.8534 4.6784 -2.1000 0.9768
-3.2232 4.3550 -2.0763 0.9771
-3.5577 4.0026 -2.0522 0.9773
-3.8551 3.6254 -2.0280 0.9776
-4.1139 3.2274 -2.0038 0.9779
-4.3335 2.8129 -1.9798 0.9781
-2.7283 1.4422 -1.1826 0.9869
-4.7540 1.5088 -1.9114 0.9789
-5.2008 0.2024 -1.9946 0.9780
-5.0582 -0.7131 -1.9576 0.9784
-4.7735 -1.5766 -1.9265 0.9787
-4.3599 -2.3703 -1.9017 0.9790
-4.1092 -2.7361 -1.8919 0.9791
-3.8316 -3.0789 -1.8837 0.9792
-3.5290 -3.3973 -1.8772 0.9792
-2.8562 -3.9549 -1.8695 0.9793
-2.1058 -4.3985 -1.8688 0.9793
-1.2937 -4.7190 -1.8751 0.9793
-0.8695 -4.8306 -1.8809 0.9792
-0.4361 -4.9085 -1.8884 0.9791
0.0043 -4.9519 -1.8976 0.9790
0.4493 -4.9600 -1.9085 0.9789
0.8966 -4.9322 -1.9211 0.9788
1.7875 -4.7669 -1.9510 0.9784
2.2258 -4.6285 -1.9682 0.9782
3.8613 -3.7043 -2.0505 0.9773
4.2246 -3.3827 -2.0740 0.9771
2.3536 -1.0139 -0.9820 0.9891
5.1926 -1.2038 -2.0427 0.9774
5.3419 -0.7437 -2.0669 0.9772
5.4492 -0.2664 -2.0907 0.9769
5.5284 0.7233 -2.1366 0.9764
4.5955 3.6181 -2.2414 0.9753
3.9091 4.4133 -2.2593 0.9751
3.2214 4.3683 -2.0800 0.9770
0.3771 -4.6745 -1.9194 0.9799
1.6365 -4.4982 -1.9591 0.9795
2.0486 -4.3696 -1.9752 0.9794
2.4524 -4.2060 -1.9926 0.9792
2.8449 -4.0073 -2.0114 0.9790
3.2232 -3.7741 -2.0313 0.9788
3.9247 -3.2065 -2.0742 0.9783
4.4463 -1.9674 -1.9899 0.9792
4.6564 -1.5799 -2.0124 0.9790
4.8326 -1.1705 -2.0351 0.9787
4.9723 -0.7422 -2.0576 0.9785
5.0730 -0.2981 -2.0798 0.9783
5.1324 0.1581 -2.1015 0.9781
5.1486 0.6222 -2.1225 0.9778
4.7606 2.4673 -2.1945 0.9771
4.2953 3.3138 -2.2203 0.9768
3.6646 4.0562 -2.2373 0.9767
3.2557 4.3251 -2.2156 0.9769
2.4653 4.8981 -2.2443 0.9766
0.5865 5.3888 -2.2185 0.9768
-0.3775 5.3427 -2.1921 0.9771
-1.3022 5.1104 -2.1584 0.9775
-1.7381 4.9298 -2.1394 0.9777
-2.1512 4.7098 -2.1192 0.9779
-2.5379 4.4539 -2.0980 0.9781
-3.5129 3.5062 -2.0313 0.9788
-3.7697 3.1429 -2.0087 0.9790
-4.8446 1.2246 -2.0451 0.9786
-1.9512 0.1341 -0.8005 0.9916
-1.9184 -0.0400 -0.7853 0.9917
-1.9564 -0.2167 -0.8056 0.9915
-4.6854 -0.9487 -1.9565 0.9796
-4.5480 -1.3535 -1.9421 0.9797
-4.3794 -1.7427 -1.9291 0.9798
-3.9549 -2.4668 -1.9077 0.9801
-3.7025 -2.7981 -1.8994 0.9801
-3.4256 -3.1068 -1.8927 0.9802
-3.1259 -3.3914 -1.8877 0.9803
-2.8053 -3.6506 -1.8843 0.9803
-2.1087 -4.0878 -1.8825 0.9803
-1.7365 -4.2635 -1.8841 0.9803
-1.3510 -4.4093 -1.8874 0.9803
-0.1346 -4.6579 -1.9072 0.9801
0.2836 -4.6753 -1.9170 0.9800
0.7044 -4.6587 -1.9284 0.9798
1.1254 -4.6077 -1.9413 0.9797
1.9575 -4.4013 -1.9715 0.9794
2.7587 -4.0546 -2.0071 0.9790
3.1404 -3.8290 -2.0268 0.9788
3.5055 -3.5692 -2.0475 0.9786
4.1732 -2.9508 -2.0918 0.9782
4.3952 -2.0504 -1.9850 0.9793
4.6124 -1.6681 -2.0074 0.9790
4.9445 -0.8390 -2.0526 0.9786
5.0541 -0.3981 -2.0749 0.9783
5.1228 0.0557 -2.0968 0.9781
5.1488 0.5184 -2.1179 0.9779
5.1305 0.9858 -2.1382 0.9777
5.0668 1.4532 -2.1573 0.9775
4.9571 1.9157 -2.1751 0.9773
4.8015 2.3684 -2.1912 0.9771
4.3556 3.2240 -2.2179 0.9769
4.0686 3.6168 -2.2280 0.9767
3.3399 4.2578 -2.2148 0.9769
2.8987 4.4662 -2.1792 0.9773
1.1775 5.3210 -2.2305 0.9767
0.1066 2.7442 -1.1240 0.9882
-0.2715 5.3573 -2.1954 0.9771
-2.0615 4.7620 -2.1237 0.9778
-3.1513 3.9212 -2.0589 0.9785
-3.7157 3.2254 -2.0138 0.9790
-3.9444 2.8483 -1.9913 0.9792
-2.7442 1.3136 -1.2452 0.9869
-4.4095 1.6445 -1.9261 0.9799
-2.1684 0.3902 -0.9017 0.9905
-1.9578 0.1738 -0.8044 0.9915
-1.8987 -0.0018 -0.7771 0.9918
-1.9579 -0.1775 -0.8046 0.9915
-4.5813 -1.2647 -1.9452 0.9797
-4.4195 -1.6576 -1.9318 0.9798
-4.2277 -2.0334 -1.9200 0.9799
-4.0076 -2.3902 -1.9098 0.9800
-3.4892 -3.0401 -1.8941 0.9802
-3.1944 -3.3302 -1.8887 0.9803
-2.8784 -3.5952 -1.8849 0.9803
-2.5428 -3.8337 -1.8828 0.9803
-2.1896 -4.0447 -1.8824 0.9803
-1.8206 -4.2270 -1.8836 0.9803
0.1903 -4.6743 -1.9147 0.9800
0.6107 -4.6653 -1.9257 0.9799
1.8661 -4.4312 -1.9678 0.9794
2.2739 -4.2832 -1.9847 0.9793
2.6718 -4.1000 -2.0029 0.9791
3.0568 -3.8821 -2.0223 0.9789
4.1037 -3.0259 -2.0867 0.9782
4.3427 -2.1322 -1.9800 0.9793
4.7585 -1.3552 -2.0250 0.9788
5.1112 -0.0462 -2.0920 0.9782
5.1468 0.4149 -2.1133 0.9779
5.1385 0.8816 -2.1338 0.9777
5.0849 1.3494 -2.1532 0.9775
4.9855 1.8135 -2.1712 0.9773
4.1360 3.5318 -2.2259 0.9768
3.8181 3.9019 -2.2343 0.9767
3.4224 4.1886 -2.2138 0.9769
3.0036 4.4321 -2.1912 0.9771
2.2179 5.0117 -2.2431 0.9766
1.7579 5.1800 -2.2388 0.9766
0.8640 3.5661 -1.5017 0.9843
0.8022 5.3726 -2.2233 0.9768
0.1646 2.7987 -1.1474 0.9880
-0.0797 2.5941 -1.0622 0.9888
-0.6397 5.2963 -2.1834 0.9772
-1.1018 5.1774 -2.1664 0.9774
-1.5467 5.0152 -2.1480 0.9776
-2.3692 4.5720 -2.1075 0.9780
-3.3872 3.6613 -2.0414 0.9787
-3.6599 3.3070 -2.0188 0.9789
-4.0970 2.5449 -1.9739 0.9794
-2.7055 1.3619 -1.2397 0.9870
-4.3864 1.7362 -1.9308 0.9798
-4.8799 0.9787 -2.0370 0.9787
-1.9567 0.2131 -0.8056 0.9915
-2.0482 -0.3305 -0.8491 0.9911
-4.6131 -1.1752 -1.9483 0.9796
-4.2729 -1.9513 -1.9225 0.9799
-3.8180 -2.6534 -1.9029 0.9801
-3.2619 -3.2678 -1.8897 0.9802
-1.9039 -4.1890 -1.8832 0.9803
-1.5241 -4.3482 -1.8858 0.9803
-0.7297 -4.5743 -1.8958 0.9802
0.0971 -4.6717 -1.9124 0.9800
1.3581 -4.5645 -1.9491 0.9796
1.7743 -4.4594 -1.9643 0.9795
3.3453 -3.6890 -2.0382 0.9787
3.6998 -3.4106 -2.0595 0.9785
4.6082 -2.3776 -2.1223 0.9778
2.3352 -0.9513 -1.0320 0.9892
4.7188 -1.4461 -2.0200 0.9789
4.8832 -1.0301 -2.0426 0.9787
5.0102 -0.5961 -2.0650 0.9784
5.0974 -0.1476 -2.0871 0.9782
5.1442 0.7775 -2.1293 0.9778
5.0116 1.7108 -2.1673 0.9774
4.8764 2.1685 -2.1842 0.9772
4.6955 2.6136 -2.1994 0.9770
4.4699 3.0409 -2.2126 0.9769
3.8922 3.8223 -2.2327 0.9767
3.5121 4.1278 -2.2182 0.9768
3.1097 4.3975 -2.2043 0.9770
2.6885 4.6305 -2.1914 0.9771
1.8617 5.1467 -2.2400 0.9766
0.9099 5.3609 -2.2255 0.9768
0.4252 5.3945 -2.2147 0.9769
-1.0003 5.2077 -2.1703 0.9773
-1.8782 4.8608 -2.1328 0.9777
-2.2828 4.6286 -2.1122 0.9779
-4.3615 1.8276 -1.9354 0.9798
-4.4591 1.4152 -1.9147 0.9800
-1.9514 0.2519 -0.8053 0.9915
-4.3167 -1.8684 -1.9251 0.9799
-4.1089 -2.2338 -1.9141 0.9800
-3.8738 -2.5794 -1.9048 0.9801
-3.6131 -2.9033 -1.8970 0.9802
-3.0216 -3.4804 -1.8864 0.9803
-2.6944 -3.7309 -1.8835 0.9803
-2.3488 -3.9543 -1.8824 0.9803
-1.6097 -4.3154 -1.8851 0.9803
0.0040 -4.6674 -1.9103 0.9800
1.2649 -4.5831 -1.9459 0.9797
1.6821 -4.4858 -1.9608 0.9795
2.0935 -4.3534 -1.9770 0.9793
2.4961 -4.1858 -1.9946 0.9792
3.6227 -3.4754 -2.0546 0.9785
3.9608 -3.1714 -2.0767 0.9783
4.2748 -2.8357 -2.0995 0.9781
4.5523 -2.4647 -2.1187 0.9779
2.3474 -1.0112 -1.0461 0.9890
4.6774 -1.5359 -2.0149 0.9789
4.8498 -1.1243 -2.0375 0.9787
4.9853 -0.6940 -2.0600 0.9785
5.0816 -0.2484 -2.0822 0.9783
