ply
format ascii 1.0
element vertex 1583
property float32 x
property float32 y
property float32 z
property float32 I
end_header
-2.8231 -17.2504 -1.2817 0.9323
0.2990 -18.0660 -1.3248 0.9301
1.9521 -18.3599 -1.3538 0.9286
5.4710 -18.6953 -1.4283 0.9248
19.4533 -0.6767 -1.4272 0.9249
14.7684 0.8073 -1.0845 0.9424
10.6883 2.5406 -0.8055 0.9569
8.8552 2.9616 -0.6846 0.9632
7.9106 3.4583 -0.6330 0.9660
6.6937 3.6700 -0.5597 0.9698
4.5248 4.3846 -0.4620 0.9750
3.4726 4.8399 -0.4368 0.9764
1.4617 5.3893 -0.4094 0.9779
0.5017 5.8136 -0.4278 0.9769
-0.0193 5.8726 -0.4306 0.9767
-1.8374 6.6020 -0.5025 0.9729
-2.7038 1.4594 -0.2253 0.9878
-19.1700 -4.2892 -1.4403 0.9242
-18.1673 -5.8094 -1.3985 0.9264
-16.0465 -8.5232 -1.3322 0.9297
-14.9327 -9.7332 -1.3069 0.9310
-12.6028 -11.8924 -1.2705 0.9329
-11.3863 -12.8518 -1.2590 0.9335
-10.1341 -13.7361 -1.2516 0.9338
-8.8448 -14.5483 -1.2484 0.9340
-6.1457 -15.9639 -1.2542 0.9337
-4.7305 -16.5688 -1.2634 0.9332
-3.2670 -17.1048 -1.2768 0.9325
-0.1790 -17.9638 -1.3172 0.9305
1.4549 -18.2811 -1.3446 0.9291
3.1559 -18.5179 -1.3773 0.9274
4.9298 -18.6683 -1.4157 0.9255
14.2932 -2.1699 -1.0600 0.9437
15.4627 0.4346 -1.1342 0.9398
11.9636 1.4120 -0.8833 0.9528
8.2461 3.3475 -0.6525 0.9649
6.1041 3.8644 -0.5297 0.9714
5.5311 4.2378 -0.5109 0.9724
4.7065 4.3248 -0.4687 0.9747
3.6313 4.7878 -0.4406 0.9762
2.0472 5.1146 -0.4039 0.9781
1.6024 5.3432 -0.4090 0.9779
1.1614 5.6717 -0.4245 0.9770
0.1352 5.8222 -0.4270 0.9769
-1.6462 6.5861 -0.4978 0.9731
-2.2971 6.6133 -0.5133 0.9723
-18.4689 -5.3706 -1.4103 0.9258
-14.1288 -10.5308 -1.2921 0.9318
-12.9570 -11.5930 -1.2748 0.9326
-11.7507 -12.5752 -1.2619 0.9333
-6.5567 -15.7713 -1.2523 0.9338
-2.2065 -17.4399 -1.2889 0.9319
-0.6515 -17.8549 -1.3100 0.9308
0.9636 -18.1951 -1.3360 0.9295
2.6440 -18.4564 -1.3671 0.9279
4.3957 -18.6331 -1.4037 0.9261
6.2250 -18.7185 -1.4464 0.9239
2.3814 -0.8853 -0.1863 0.9899
11.4816 2.0935 -0.8557 0.9543
9.7011 2.6821 -0.7380 0.9604
8.4948 3.1889 -0.6653 0.9643
6.3448 3.7850 -0.5417 0.9708
5.7034 4.1346 -0.5165 0.9721
4.8937 4.2631 -0.4759 0.9743
3.7068 4.6273 -0.4347 0.9765
3.2592 4.9100 -0.4321 0.9766
0.8102 5.7864 -0.4284 0.9768
0.2873 5.7727 -0.4238 0.9771
-0.7948 6.1251 -0.4529 0.9755
-18.7670 -4.9218 -1.4226 0.9251
-17.7478 -6.3954 -1.3832 0.9271
-15.5975 -9.0266 -1.3213 0.9303
-13.3081 -11.2865 -1.2794 0.9324
-12.1121 -12.2920 -1.2653 0.9331
-8.4772 -10.2996 -0.9781 0.9479
-9.6142 -14.0751 -1.2498 0.9339
-8.3091 -14.8587 -1.2482 0.9340
-5.5755 -16.2183 -1.2575 0.9335
-2.6569 -17.3029 -1.2836 0.9322
-1.1187 -17.7395 -1.3033 0.9312
3.8684 -18.5899 -1.3922 0.9267
2.3589 -0.9488 -0.1864 0.9899
14.8173 0.9565 -1.0887 0.9422
8.7111 3.0092 -0.6758 0.9637
7.5538 3.3914 -0.6071 0.9673
5.9722 4.0924 -0.5308 0.9714
3.8592 4.5642 -0.4382 0.9763
3.4143 4.8590 -0.4354 0.9765
2.7945 4.8454 -0.4101 0.9778
1.8835 5.2513 -0.4091 0.9779
0.9517 5.6938 -0.4233 0.9771
0.4372 5.7238 -0.4209 0.9772
-0.0775 5.8915 -0.4320 0.9766
-2.6096 6.7147 -0.5282 0.9715
11.5064 1.9811 -1.1209 0.9542
8.4605 3.0813 -0.8644 0.9645
7.3511 3.4486 -0.7795 0.9679
6.4274 3.7489 -0.7144 0.9705
5.7772 4.1018 -0.6802 0.9719
2.2681 5.1187 -0.5375 0.9778
1.7932 5.2742 -0.5348 0.9779
1.3501 5.5569 -0.5490 0.9773
0.8647 5.7617 -0.5593 0.9769
-0.7301 6.0967 -0.5895 0.9756
-2.7850 1.4092 -0.2997 0.9875
-17.5728 0.3782 -1.6875 0.9318
-16.3326 -2.5896 -1.5876 0.9357
-15.6190 -3.9321 -1.5463 0.9373
-14.8513 -5.1868 -1.5102 0.9387
-12.2650 -8.4659 -1.4308 0.9419
-11.3185 -9.4090 -1.4131 0.9426
-8.5634 -10.1977 -1.2784 0.9479
-6.6615 -11.6416 -1.2877 0.9475
-3.3814 -13.1549 -1.3040 0.9469
-2.2151 -13.5354 -1.3168 0.9464
-1.0107 -13.8515 -1.3333 0.9457
1.5182 -14.2793 -1.3786 0.9439
2.8456 -14.3838 -1.4077 0.9428
7.6163 -15.2401 -1.6357 0.9338
9.2366 -14.9700 -1.6888 0.9318
10.9077 -14.5826 -1.7483 0.9294
12.6288 -14.0665 -1.8149 0.9269
14.3984 -13.4087 -1.8889 0.9240
14.7647 0.8071 -1.4196 0.9423
11.4542 1.6608 -1.1112 0.9546
6.0031 4.0272 -0.6940 0.9714
3.9150 4.5387 -0.5754 0.9762
3.4685 4.8342 -0.5712 0.9764
2.9520 5.0038 -0.5578 0.9769
2.4103 5.0722 -0.5391 0.9777
1.9336 5.2283 -0.5352 0.9778
1.0129 5.7133 -0.5571 0.9770
-0.0095 2.8789 -0.2764 0.9885
-0.5615 6.0420 -0.5826 0.9759
-2.7038 1.4594 -0.2950 0.9877
-18.9142 6.1876 -1.9105 0.9231
-18.6177 4.2962 -1.8344 0.9261
-18.2197 2.5194 -1.7658 0.9288
-17.1675 -0.7104 -1.6496 0.9333
-15.8366 -3.5433 -1.5580 0.9369
-15.0843 -4.8236 -1.5204 0.9383
-14.2813 -6.0192 -1.4879 0.9396
-13.4315 -7.1342 -1.4601 0.9407
-8.9592 -10.1123 -1.2971 0.9472
-7.9812 -10.8180 -1.2906 0.9474
-5.9211 -12.0457 -1.2886 0.9475
-2.5649 -13.4292 -1.3126 0.9465
-1.3719 -13.7646 -1.3280 0.9459
-0.1398 -14.0338 -1.3474 0.9452
1.1328 -14.2338 -1.3708 0.9442
3.8054 -14.4102 -1.4309 0.9419
8.7508 -15.0619 -1.6724 0.9324
12.1132 -14.2338 -1.7944 0.9276
13.8687 -13.6194 -1.8661 0.9249
14.2898 -2.1693 -1.3876 0.9436
15.2853 0.4297 -1.4680 0.9404
9.2442 2.8216 -0.9279 0.9619
6.9584 3.5786 -0.7512 0.9690
5.4813 4.1996 -0.6629 0.9726
4.7004 4.3192 -0.6129 0.9747
3.1027 4.9544 -0.5612 0.9768
2.5534 5.0252 -0.5412 0.9776
0.0672 2.8943 -0.2779 0.9884
-0.9682 6.1740 -0.6000 0.9752
-2.7049 1.5539 -0.2995 0.9875
-18.7168 4.8450 -1.8561 0.9253
-17.3428 -0.2575 -1.6652 0.9327
-16.7279 -1.7499 -1.6147 0.9346
-16.0492 -3.1467 -1.5701 0.9364
-15.3129 -4.4529 -1.5310 0.9379
-13.6882 -6.8117 -1.4679 0.9404
-12.8074 -7.8723 -1.4433 0.9414
-11.8847 -8.8582 -1.4231 0.9422
-8.2749 -10.6152 -1.2922 0.9474
-7.2725 -11.2775 -1.2883 0.9475
-5.1633 -12.4198 -1.2913 0.9474
-2.9114 -13.3174 -1.3087 0.9467
-1.7298 -13.6719 -1.3230 0.9461
0.7510 -14.1819 -1.3634 0.9445
2.0531 -14.3310 -1.3899 0.9435
3.3981 -14.4040 -1.4208 0.9423
6.6791 -15.3490 -1.6070 0.9349
2.3824 -0.8857 -0.2440 0.9898
16.0447 0.0256 -1.5404 0.9376
14.3581 1.3098 -1.3842 0.9437
9.6814 2.6767 -0.9643 0.9604
6.3353 3.7794 -0.7082 0.9708
5.6955 4.1288 -0.6754 0.9721
4.8873 4.2575 -0.6223 0.9743
4.2781 4.4583 -0.5932 0.9755
2.6797 4.9447 -0.5399 0.9777
1.3063 5.6175 -0.5537 0.9771
0.2869 5.7659 -0.5542 0.9771
-2.0771 6.5337 -0.6582 0.9728
-18.8067 5.4040 -1.8786 0.9244
-18.0316 1.8282 -1.7400 0.9298
-17.5117 0.2042 -1.6813 0.9320
-16.9173 -1.3175 -1.6291 0.9341
-15.5370 -4.0747 -1.5421 0.9375
-14.7635 -5.3200 -1.5066 0.9389
-13.0731 -7.5656 -1.4501 0.9411
-11.2117 -9.5086 -1.4114 0.9426
-9.5229 -9.6643 -1.3026 0.9469
-8.4301 -10.2423 -1.2735 0.9481
-7.5734 -11.0875 -1.2891 0.9475
-6.5466 -11.7069 -1.2877 0.9475
-4.3879 -12.7636 -1.2958 0.9472
-3.2546 -13.1999 -1.3052 0.9468
-2.0842 -13.5735 -1.3184 0.9463
1.6625 -14.2945 -1.3816 0.9438
9.4184 -14.9333 -1.6950 0.9315
11.0950 -14.5323 -1.7553 0.9292
2.3561 -0.9477 -0.2438 0.9898
19.1849 -0.4781 -1.8424 0.9258
14.8135 0.9563 -1.4251 0.9421
11.4940 1.7824 -1.1167 0.9543
10.4201 2.5857 -1.0307 0.9578
6.5868 3.6962 -0.7251 0.9701
5.9181 4.0553 -0.6888 0.9716
4.4529 4.4008 -0.6010 0.9752
3.8545 4.5586 -0.5731 0.9763
3.4103 4.8533 -0.5695 0.9764
2.7913 4.8399 -0.5364 0.9778
2.3573 5.0895 -0.5385 0.9777
1.8814 5.2454 -0.5350 0.9779
1.4077 5.4003 -0.5358 0.9778
0.9506 5.6873 -0.5536 0.9771
-0.0381 2.8978 -0.2782 0.9884
-0.6237 6.0622 -0.5851 0.9758
-1.8915 6.5459 -0.6541 0.9730
-2.6058 6.7050 -0.6906 0.9715
11.4496 1.9713 -1.3801 0.9543
9.5373 2.5359 -1.1723 0.9610
8.4544 3.0790 -1.0688 0.9644
5.8137 4.1277 -0.8469 0.9717
4.9517 4.2285 -0.7735 0.9741
3.7049 4.5327 -0.6954 0.9767
3.3088 4.8796 -0.7003 0.9765
2.7302 4.9214 -0.6685 0.9776
1.3485 5.5506 -0.6785 0.9773
0.8637 5.7550 -0.6913 0.9768
-0.0868 2.9109 -0.3459 0.9883
-15.3639 9.5854 -2.1511 0.9297
-2.7789 1.4061 -0.3699 0.9875
-15.6088 6.2170 -1.9958 0.9346
-15.5486 4.6341 -1.9272 0.9367
-15.1227 1.6840 -1.8075 0.9405
-14.7775 0.3180 -1.7558 0.9422
-13.8651 -2.1984 -1.6676 0.9450
-13.3117 -3.3512 -1.6306 0.9462
-12.0380 -5.4538 -1.5698 0.9482
-11.3264 -6.4067 -1.5457 0.9489
-10.5698 -7.2958 -1.5256 0.9496
-9.7708 -8.1224 -1.5093 0.9501
-8.9318 -8.8875 -1.4967 0.9505
-7.7784 -9.2630 -1.4368 0.9524
-6.7064 -9.6134 -1.3924 0.9539
-5.7708 -10.0850 -1.3802 0.9543
-3.9025 -10.9981 -1.3862 0.9541
-1.9122 -11.6842 -1.4064 0.9534
0.2007 -12.1252 -1.4405 0.9523
1.3022 -12.2476 -1.4630 0.9516
5.1325 -13.0746 -1.6685 0.9450
9.1203 -12.1931 -1.8087 0.9405
10.4940 -11.6886 -1.8659 0.9387
11.8825 -11.0657 -1.9287 0.9367
13.2793 -10.3155 -1.9974 0.9345
16.0627 -8.3967 -2.1530 0.9296
2.3693 -0.9803 -0.3046 0.9897
17.4002 -5.4381 -2.1655 0.9292
19.7416 -0.6867 -2.3464 0.9235
7.8839 3.4466 -1.0221 0.9659
6.0408 4.0525 -0.8641 0.9711
5.1465 4.1641 -0.7864 0.9737
4.5132 4.3734 -0.7465 0.9750
3.9102 4.5331 -0.7111 0.9762
3.4644 4.8284 -0.7059 0.9763
1.9314 5.2224 -0.6614 0.9778
1.4584 5.3771 -0.6618 0.9778
1.0118 5.7068 -0.6885 0.9769
0.5027 5.8256 -0.6946 0.9767
-0.0093 2.8384 -0.3372 0.9886
-1.1818 6.4197 -0.7754 0.9740
-1.8374 6.6019 -0.8140 0.9728
-2.5158 6.6673 -0.8465 0.9717
-6.1458 12.7163 -1.6777 0.9447
-14.9025 11.8964 -2.2651 0.9261
-2.7039 1.4594 -0.3650 0.9877
-15.6047 6.6999 -2.0172 0.9339
-15.5779 5.0962 -1.9469 0.9361
-15.4424 3.5634 -1.8825 0.9382
-15.2092 2.1031 -1.8238 0.9400
-13.4820 -3.0165 -1.6411 0.9459
-11.5423 -6.1308 -1.5525 0.9487
-10.7987 -7.0387 -1.5312 0.9494
-10.0120 -7.8837 -1.5137 0.9500
-7.0167 -9.5106 -1.4039 0.9535
-6.0336 -9.9244 -1.3796 0.9543
-5.1263 -10.4287 -1.3804 0.9543
-4.1871 -10.8763 -1.3844 0.9541
-0.1203 -12.0760 -1.4345 0.9525
0.9724 -12.2184 -1.4560 0.9518
3.4022 -12.8836 -1.5829 0.9477
4.7512 -13.1152 -1.6570 0.9454
6.0467 -12.9465 -1.6973 0.9441
7.3693 -12.6841 -1.7425 0.9426
11.4695 -11.2633 -1.9095 0.9373
15.6532 -8.7185 -2.1284 0.9304
17.0249 -7.5785 -2.2136 0.9277
18.2335 -4.4628 -2.2298 0.9272
15.1643 0.4263 -1.8020 0.9407
11.9574 1.4113 -1.4302 0.9527
10.5393 2.2118 -1.2792 0.9575
9.0910 2.7748 -1.1291 0.9624
8.2174 3.3359 -1.0535 0.9649
6.9473 3.5729 -0.9280 0.9690
5.5160 4.2262 -0.8254 0.9724
4.6944 4.3136 -0.7573 0.9746
3.6226 4.7764 -0.7121 0.9761
3.0991 4.9486 -0.6936 0.9768
2.5505 5.0195 -0.6688 0.9776
2.0426 5.1030 -0.6529 0.9781
1.5988 5.3312 -0.6611 0.9778
1.1588 5.6588 -0.6861 0.9770
0.6583 5.8220 -0.6960 0.9767
0.0661 2.8469 -0.3383 0.9886
-0.3963 5.9811 -0.7120 0.9761
-0.9669 6.1662 -0.7414 0.9752
-1.6418 6.5686 -0.8043 0.9731
-14.7593 12.4367 -2.2926 0.9252
-15.1850 10.6316 -2.2019 0.9281
-15.5899 7.1887 -2.0393 0.9332
-15.5977 5.5645 -1.9672 0.9355
-15.2879 2.5286 -1.8407 0.9395
-14.9920 1.1195 -1.7858 0.9412
-14.6148 -0.2170 -1.7362 0.9428
-13.6472 -2.6757 -1.6520 0.9455
-13.0699 -3.8006 -1.6168 0.9466
-12.4374 -4.8580 -1.5861 0.9476
-11.0239 -6.7760 -1.5371 0.9492
-9.4342 -8.4410 -1.5037 0.9503
-8.5424 -9.1418 -1.4862 0.9509
-7.3322 -9.4059 -1.4167 0.9531
-5.3987 -10.2850 -1.3798 0.9543
-4.4689 -10.7495 -1.3828 0.9542
-3.5077 -11.1568 -1.3892 0.9540
-2.5153 -11.5056 -1.3990 0.9537
0.6452 -12.1832 -1.4492 0.9520
3.0100 -12.7593 -1.5572 0.9486
4.3725 -13.1481 -1.6459 0.9457
5.6595 -13.0061 -1.6849 0.9445
9.6770 -12.0016 -1.8313 0.9398
11.0574 -11.4499 -1.8908 0.9379
12.4502 -10.7764 -1.9560 0.9358
17.8858 -4.8837 -2.2024 0.9280
11.1887 2.0401 -1.3510 0.9552
9.4108 2.6019 -1.1598 0.9614
7.2300 3.4791 -0.9531 0.9682
6.3258 3.7737 -0.8750 0.9708
5.6876 4.1231 -0.8344 0.9721
4.8809 4.2519 -0.7689 0.9743
2.6766 4.9390 -0.6673 0.9776
1.3049 5.6111 -0.6843 0.9771
0.8083 5.7731 -0.6925 0.9768
0.2866 5.7591 -0.6850 0.9770
-0.2352 5.9288 -0.7048 0.9764
-2.0742 6.5246 -0.8133 0.9728
-15.0755 11.1619 -2.2282 0.9272
-15.5641 7.6835 -2.0618 0.9325
-15.3587 2.9605 -1.8580 0.9389
-15.0886 1.5298 -1.8015 0.9407
-14.3050 -1.1140 -1.7044 0.9438
-13.2471 -3.4742 -1.6268 0.9463
-12.6304 -4.5513 -1.5948 0.9474
-9.6802 -8.2098 -1.5077 0.9502
-8.8369 -8.9682 -1.4956 0.9505
-6.5924 -9.6512 -1.3883 0.9540
-4.7480 -10.6177 -1.3816 0.9542
-2.8129 -11.4083 -1.3957 0.9538
0.3206 -12.1420 -1.4428 0.9523
1.4260 -12.2613 -1.4663 0.9515
2.6300 -12.6387 -1.5335 0.9493
3.9623 -13.0608 -1.6213 0.9465
5.2748 -13.0575 -1.6728 0.9449
7.9146 -12.5489 -1.7624 0.9420
9.2709 -12.1430 -1.8147 0.9403
13.4335 -10.2246 -2.0053 0.9343
14.8298 -9.3224 -2.0807 0.9319
16.2144 -8.2735 -2.1623 0.9293
2.3532 -0.9466 -0.3013 0.9898
17.5328 -5.2905 -2.1754 0.9289
18.7005 -3.8625 -2.2683 0.9260
11.5335 -1.3240 -1.3790 0.9543
19.1104 -0.4763 -2.2708 0.9259
9.8288 2.4389 -1.2029 0.9600
4.4472 4.3952 -0.7427 0.9751
3.8498 4.5530 -0.7083 0.9763
2.7881 4.8343 -0.6629 0.9778
2.3547 5.0837 -0.6655 0.9777
1.8792 5.2394 -0.6612 0.9778
1.4061 5.3942 -0.6622 0.9778
0.4362 5.7105 -0.6803 0.9772
-1.2517 6.4423 -0.7796 0.9739
-1.8923 6.5486 -0.8097 0.9729
-2.6020 6.6952 -0.8532 0.9715
11.5003 1.9800 -1.6534 0.9539
4.9451 4.2229 -0.9214 0.9741
3.3049 4.8739 -0.8344 0.9765
2.7270 4.9157 -0.7965 0.9775
1.3470 5.5442 -0.8084 0.9772
0.8627 5.7484 -0.8236 0.9768
-0.7283 6.0815 -0.8678 0.9756
-1.9931 6.4903 -0.9620 0.9729
-2.6947 6.6057 -1.0108 0.9716
-9.6257 15.1476 -2.5429 0.9301
-11.3561 12.3165 -2.3737 0.9346
-12.8468 8.0151 -2.1455 0.9407
-2.7755 1.4044 -0.4407 0.9875
-13.2267 3.9421 -1.9555 0.9458
-12.9850 1.4459 -1.8512 0.9486
-12.0369 -1.9085 -1.7268 0.9520
-9.9286 -5.6160 -1.6162 0.9550
-9.2802 -6.4057 -1.5977 0.9555
-7.8602 -7.8213 -1.5711 0.9562
-7.0933 -8.4472 -1.5629 0.9564
-5.4555 -9.5339 -1.5564 0.9566
-4.5876 -9.9936 -1.5581 0.9565
-3.6890 -10.3964 -1.5630 0.9564
-1.8044 -11.0258 -1.5830 0.9559
-0.8208 -11.2491 -1.5981 0.9555
0.1888 -11.4085 -1.6167 0.9550
1.2229 -11.5015 -1.6388 0.9543
2.2800 -11.5250 -1.6646 0.9536
3.3582 -11.4757 -1.6942 0.9528
7.8303 -10.4684 -1.8523 0.9486
11.2352 -8.7276 -2.0158 0.9441
13.4292 -7.0200 -2.1471 0.9406
2.3639 -0.9780 -0.3625 0.9897
14.3502 -4.4849 -2.1303 0.9411
15.9809 -1.9943 -2.2819 0.9370
11.4481 1.6599 -1.6390 0.9543
10.2662 2.4403 -1.4952 0.9583
6.6442 3.6428 -1.0736 0.9699
6.0321 4.0467 -1.0292 0.9711
5.1396 4.1585 -0.9367 0.9736
3.9054 4.5275 -0.8472 0.9761
1.9292 5.2164 -0.7880 0.9778
1.4567 5.3710 -0.7885 0.9778
0.5022 5.8196 -0.8276 0.9767
-0.0093 2.8336 -0.4015 0.9886
-1.1803 6.4114 -0.9237 0.9740
-1.8299 6.5751 -0.9670 0.9728
-2.4823 6.5784 -0.9962 0.9720
-6.1083 12.6388 -1.9890 0.9449
-9.3147 15.5542 -2.5688 0.9294
-11.8187 11.3025 -2.3171 0.9361
-2.7039 1.4594 -0.4354 0.9877
-13.1825 5.6599 -2.0327 0.9437
-13.1821 3.0419 -1.9168 0.9468
-13.0425 1.8035 -1.8656 0.9482
-12.8207 0.6162 -1.8186 0.9495
-12.5236 -0.5182 -1.7760 0.9506
-11.2421 -3.5949 -1.6723 0.9534
-10.7019 -4.5106 -1.6455 0.9542
-10.1124 -5.3713 -1.6224 0.9548
-8.7989 -6.9284 -1.5868 0.9558
-7.3245 -8.2673 -1.5650 0.9564
-6.5327 -8.8546 -1.5591 0.9565
-5.7067 -9.3868 -1.5565 0.9566
-4.8483 -9.8632 -1.5572 0.9566
-2.0910 -10.9477 -1.5792 0.9560
-1.1153 -11.1895 -1.5933 0.9556
-0.1133 -11.3681 -1.6108 0.9551
0.9137 -11.4810 -1.6319 0.9545
1.9642 -11.5255 -1.6566 0.9539
5.2371 -11.2130 -1.7535 0.9512
7.4930 -10.5916 -1.8383 0.9489
8.6316 -10.1426 -1.8871 0.9476
9.7702 -9.5945 -1.9402 0.9462
13.1115 -7.3028 -2.1265 0.9412
14.0835 -4.8149 -2.1089 0.9416
14.2971 -2.1704 -2.0490 0.9433
16.4687 -1.0104 -2.3378 0.9355
15.1139 0.4248 -2.1423 0.9407
11.9542 1.4109 -1.7055 0.9525
10.8233 2.2715 -1.5670 0.9563
9.0259 2.7550 -1.3371 0.9626
6.8661 3.5311 -1.0940 0.9693
6.0773 3.8474 -1.0191 0.9714
4.0975 4.5032 -0.8627 0.9757
3.6183 4.7706 -0.8484 0.9761
3.0955 4.9428 -0.8263 0.9767
2.5476 5.0137 -0.7968 0.9775
1.5970 5.3251 -0.7877 0.9778
0.6576 5.8152 -0.8292 0.9766
-0.9657 6.1584 -0.8832 0.9751
-1.6270 6.5096 -0.9507 0.9733
-10.9083 13.1675 -2.4227 0.9333
-12.2096 10.2883 -2.2623 0.9375
-12.6483 8.8556 -2.1877 0.9395
-13.1478 6.0626 -2.0514 0.9432
-13.2276 4.7190 -1.9899 0.9448
-12.2731 -1.2839 -1.7484 0.9514
-11.8623 -2.3258 -1.7128 0.9523
-10.8674 -4.2447 -1.6531 0.9540
-9.6701 -5.9439 -1.6083 0.9552
-7.5526 -8.0825 -1.5674 0.9563
-6.7712 -8.6861 -1.5605 0.9565
-5.9552 -9.2347 -1.5569 0.9566
-5.1062 -9.7277 -1.5567 0.9566
-4.2257 -10.1644 -1.5597 0.9565
-3.3149 -10.5437 -1.5660 0.9563
-0.4131 -11.3218 -1.6052 0.9553
0.6066 -11.4546 -1.6253 0.9547
1.6503 -11.5197 -1.6489 0.9541
2.7162 -11.5140 -1.6762 0.9533
3.8025 -11.4339 -1.7073 0.9525
4.9066 -11.2756 -1.7423 0.9515
6.0256 -11.0347 -1.7814 0.9505
7.1561 -10.7064 -1.8246 0.9493
8.2936 -10.2859 -1.8721 0.9480
11.6898 -8.4176 -2.0411 0.9435
12.7906 -7.5751 -2.1063 0.9417
13.8593 -6.6149 -2.1759 0.9398
2.3844 -0.8864 -0.3604 0.9898
14.7068 -4.0157 -2.1601 0.9403
15.5317 -2.7809 -2.2357 0.9382
14.2768 1.3024 -2.0313 0.9437
11.4005 2.0787 -1.6420 0.9543
9.5146 2.6306 -1.3987 0.9609
7.0899 3.4117 -1.1148 0.9687
4.8744 4.2463 -0.9160 0.9742
4.2674 4.4471 -0.8733 0.9754
3.2477 4.8927 -0.8321 0.9766
2.6735 4.9333 -0.7950 0.9776
2.2104 5.1243 -0.7907 0.9777
1.7370 5.2793 -0.7875 0.9778
1.3034 5.6047 -0.8153 0.9770
0.8074 5.7664 -0.8250 0.9768
0.2863 5.7524 -0.8161 0.9770
-0.2349 5.9216 -0.8397 0.9763
-0.7918 6.1021 -0.8718 0.9754
-2.0713 6.5155 -0.9687 0.9728
-12.5321 9.2788 -2.2094 0.9389
-12.8789 7.8598 -2.1378 0.9409
-13.1033 6.4687 -2.0705 0.9427
-13.2149 5.1132 -2.0077 0.9444
-13.2228 3.7995 -1.9493 0.9459
-12.9618 1.3142 -1.8460 0.9487
-12.7085 0.1482 -1.8008 0.9500
-12.3827 -0.9643 -1.7598 0.9511
-11.9906 -2.0225 -1.7229 0.9521
-11.0285 -3.9741 -1.6610 0.9537
-9.2061 -6.4894 -1.5959 0.9555
-7.0066 -8.5128 -1.5622 0.9564
-6.2007 -9.0778 -1.5576 0.9566
-5.3613 -9.5873 -1.5564 0.9566
-4.4900 -10.0408 -1.5584 0.9565
-2.6568 -10.7754 -1.5725 0.9562
2.3979 -11.5232 -1.6677 0.9536
3.4783 -11.4657 -1.6977 0.9527
5.6924 -11.1150 -1.7694 0.9508
10.2319 -9.3420 -1.9631 0.9456
11.3588 -8.6454 -2.0226 0.9440
12.4670 -7.8371 -2.0865 0.9422
15.2954 -3.1591 -2.2129 0.9389
11.5175 -1.3222 -1.6426 0.9542
16.7260 -0.4168 -2.3706 0.9346
10.0522 2.4944 -1.4675 0.9590
7.3208 3.2868 -1.1370 0.9681
6.5651 3.6841 -1.0667 0.9700
4.4415 4.3896 -0.8848 0.9751
3.4022 4.8418 -0.8385 0.9764
2.7849 4.8287 -0.7898 0.9777
2.3520 5.0779 -0.7929 0.9776
1.8771 5.2335 -0.7878 0.9778
1.4045 5.3880 -0.7889 0.9778
-0.0375 2.8498 -0.4038 0.9886
-1.2501 6.4340 -0.9287 0.9739
-9.4320 15.4036 -2.5592 0.9296
8.3852 3.0538 -1.4701 0.9645
7.1580 3.3580 -1.3025 0.9685
6.2059 3.6197 -1.1835 0.9713
5.4918 3.8992 -1.1096 0.9731
3.6959 4.5216 -0.9621 0.9766
3.3010 4.8681 -0.9689 0.9764
1.7870 5.2563 -0.9146 0.9777
-0.7229 6.0365 -1.0016 0.9757
-1.2977 6.1318 -1.0325 0.9749
-10.1950 9.2449 -2.2672 0.9457
-10.6679 8.0625 -2.2029 0.9472
-2.7722 1.4027 -0.5118 0.9875
-11.3678 1.2658 -1.8843 0.9547
-11.1877 0.2408 -1.8435 0.9556
-9.8302 -3.4332 -1.7153 0.9587
-8.2654 -5.7052 -1.6545 0.9601
-7.0134 -6.9787 -1.6299 0.9607
-6.3327 -7.5414 -1.6223 0.9609
-5.6185 -8.0539 -1.6177 0.9610
-4.0971 -8.9250 -1.6178 0.9610
-2.4634 -9.5837 -1.6301 0.9607
0.1679 -10.1478 -1.6720 0.9597
1.0861 -10.2150 -1.6923 0.9592
2.0214 -10.2179 -1.7159 0.9587
2.9714 -10.1537 -1.7429 0.9580
4.9036 -9.8121 -1.8070 0.9565
5.8789 -9.5280 -1.8444 0.9556
11.5272 -6.0258 -2.1428 0.9486
2.3584 -0.9758 -0.4205 0.9897
14.3204 0.7828 -2.3627 0.9435
8.7883 2.9392 -1.5266 0.9631
5.6725 3.8055 -1.1253 0.9727
5.0771 4.1080 -1.0759 0.9739
3.9006 4.5219 -0.9838 0.9761
2.9417 4.9864 -0.9538 0.9768
2.4020 5.0547 -0.9220 0.9776
0.5016 5.8128 -0.9611 0.9766
-0.0094 2.8569 -0.4707 0.9885
-0.5582 6.0066 -0.9938 0.9758
-1.1238 6.1045 -1.0225 0.9752
-2.4369 6.4581 -1.1371 0.9724
-6.0669 12.5530 -2.2968 0.9450
-7.2190 12.0547 -2.3147 0.9446
-8.6553 11.8970 -2.4237 0.9421
-9.4056 10.7598 -2.3543 0.9437
-10.0323 9.5941 -2.2868 0.9453
-10.5397 8.4136 -2.2217 0.9468
-10.9329 7.2305 -2.1593 0.9483
-2.7039 1.4594 -0.5062 0.9876
-11.4015 4.8952 -2.0441 0.9509
-11.4898 3.7588 -1.9915 0.9522
-11.4071 1.5773 -1.8971 0.9544
-11.0196 -0.4560 -1.8169 0.9563
-10.7256 -1.4103 -1.7821 0.9571
-9.9618 -3.1855 -1.7230 0.9585
-8.4377 -5.4997 -1.6592 0.9600
-6.5382 -7.3797 -1.6242 0.9608
-5.8337 -7.9072 -1.6188 0.9609
-3.5346 -9.1814 -1.6207 0.9609
-1.8647 -9.7629 -1.6374 0.9605
-0.9936 -9.9688 -1.6504 0.9602
-0.1008 -10.1158 -1.6666 0.9598
0.8119 -10.2017 -1.6859 0.9594
1.7424 -10.2239 -1.7086 0.9588
2.6883 -10.1799 -1.7345 0.9582
3.6469 -10.0668 -1.7639 0.9575
4.6151 -9.8814 -1.7967 0.9568
5.5894 -9.6205 -1.8329 0.9559
6.5654 -9.2805 -1.8728 0.9550
7.5384 -8.8580 -1.9162 0.9539
8.5024 -8.3496 -1.9631 0.9528
12.1213 -5.3957 -2.1858 0.9476
11.9897 -4.0990 -2.0874 0.9499
12.6700 -3.1011 -2.1489 0.9485
9.1898 2.8050 -1.5829 0.9618
5.8859 3.7262 -1.1476 0.9722
5.2497 4.0221 -1.0895 0.9735
4.6795 4.2999 -1.0469 0.9746
3.6139 4.7649 -0.9852 0.9760
2.5446 5.0079 -0.9254 0.9775
2.0495 5.1204 -0.9086 0.9779
1.5951 5.3190 -0.9148 0.9777
0.6568 5.8084 -0.9630 0.9766
0.0635 2.7366 -0.4509 0.9890
-0.3954 5.9664 -0.9851 0.9761
-1.5416 6.1679 -1.0474 0.9746
-1.9216 5.5322 -0.9648 0.9765
-5.9901 13.2817 -2.4002 0.9426
-8.4087 12.2265 -2.4445 0.9416
-10.4013 8.7645 -2.2407 0.9464
-10.8278 7.5810 -2.1775 0.9478
-11.4731 4.0931 -2.0067 0.9518
-11.4985 2.9765 -1.9567 0.9530
-11.4398 1.8921 -1.9102 0.9541
-11.0945 -0.1647 -1.8279 0.9560
-10.8193 -1.1318 -1.7921 0.9569
-10.0889 -2.9338 -1.7309 0.9583
-9.1471 -4.5519 -1.6832 0.9594
-8.0232 -5.9800 -1.6485 0.9602
-6.0461 -7.7560 -1.6201 0.9609
-5.3188 -8.2478 -1.6168 0.9610
-4.5606 -8.6884 -1.6165 0.9610
-2.9588 -9.4111 -1.6252 0.9608
-2.1186 -9.6907 -1.6341 0.9606
-1.2543 -9.9138 -1.6462 0.9603
-0.3677 -10.0785 -1.6614 0.9599
4.3272 -9.9441 -1.7866 0.9570
6.2761 -9.3898 -1.8606 0.9552
8.2178 -8.5095 -1.9488 0.9532
10.1048 -7.2763 -2.0513 0.9508
2.3874 -0.8876 -0.4196 0.9897
12.4752 -3.4063 -2.1304 0.9489
13.1054 -2.3465 -2.1933 0.9475
11.3734 2.0738 -1.9045 0.9542
9.6222 2.6603 -1.6446 0.9603
7.0399 3.3876 -1.2870 0.9688
4.8453 4.2209 -1.0586 0.9743
4.2619 4.4415 -1.0141 0.9754
3.2439 4.8869 -0.9663 0.9765
2.2079 5.1184 -0.9183 0.9777
1.3019 5.5983 -0.9469 0.9770
0.8064 5.7597 -0.9581 0.9767
0.2859 5.7456 -0.9477 0.9769
-0.2347 5.9144 -0.9751 0.9763
-1.3632 6.1417 -1.0364 0.9748
-2.7661 6.5943 -1.1780 0.9714
-8.9757 11.4387 -2.3953 0.9428
-11.0616 6.7507 -2.1348 0.9488
-11.4485 4.4297 -2.0223 0.9515
-11.3514 1.1509 -1.8796 0.9548
-11.1636 0.1302 -1.8392 0.9557
-10.2113 -2.6780 -1.7391 0.9581
-9.7801 -3.5242 -1.7126 0.9587
-9.2989 -4.3238 -1.6894 0.9593
-8.7713 -5.0761 -1.6695 0.9597
-8.2004 -5.7804 -1.6528 0.9601
-7.5891 -6.4363 -1.6393 0.9605
-4.7886 -8.5631 -1.6163 0.9610
-4.0098 -8.9669 -1.6182 0.9610
-3.2032 -9.3175 -1.6231 0.9608
-2.3704 -9.6136 -1.6312 0.9607
-1.5130 -9.8536 -1.6423 0.9604
0.2682 -10.1583 -1.6740 0.9596
1.1885 -10.2185 -1.6947 0.9592
2.1255 -10.2142 -1.7187 0.9586
5.9865 -9.4919 -1.8487 0.9555
9.8307 -7.4824 -2.0352 0.9512
10.7442 -6.7541 -2.0907 0.9499
11.6219 -5.9302 -2.1494 0.9485
2.3491 -0.9449 -0.4171 0.9898
12.2744 -3.7038 -2.1121 0.9494
12.9265 -2.6699 -2.1745 0.9479
11.5016 -1.3203 -1.9072 0.9542
13.9812 -0.3484 -2.3040 0.9449
14.3561 0.9268 -2.3699 0.9433
11.4848 1.7810 -1.9146 0.9540
10.0899 2.5037 -1.7126 0.9587
6.3593 3.5686 -1.2013 0.9709
5.0137 4.1391 -1.0711 0.9740
3.8403 4.5419 -0.9798 0.9762
1.8749 5.2275 -0.9149 0.9777
1.4029 5.3819 -0.9162 0.9777
-0.6192 6.0178 -0.9966 0.9758
-1.1881 6.1147 -1.0262 0.9751
-2.5238 6.4939 -1.1478 0.9722
-6.2531 12.6193 -2.3201 0.9445
4.7836 4.0850 -1.1824 0.9747
4.1906 4.2819 -1.1261 0.9759
3.6724 4.4929 -1.0907 0.9767
3.2970 4.8623 -1.1042 0.9764
2.2391 5.0533 -1.0389 0.9778
0.8216 5.4749 -1.0406 0.9777
0.1724 2.8898 -0.5441 0.9883
-0.1703 5.7111 -1.0739 0.9770
-1.2902 6.0961 -1.1712 0.9750
-1.6865 5.4920 -1.0799 0.9769
-6.4158 10.0963 -2.2485 0.9525
-7.1127 9.2508 -2.1933 0.9536
-7.7138 8.3662 -2.1389 0.9547
-9.6521 6.0219 -2.1384 0.9548
-10.0765 4.0135 -2.0387 0.9568
-10.1612 3.0285 -1.9929 0.9578
-10.1676 2.0640 -1.9501 0.9587
-9.9645 0.2144 -1.8734 0.9602
-8.4072 -3.8089 -1.7348 0.9631
-7.4451 -5.1390 -1.7004 0.9638
-6.3268 -6.2954 -1.6776 0.9643
-5.0721 -7.2707 -1.6663 0.9646
-2.2222 -8.6452 -1.6778 0.9643
-0.6584 -9.0242 -1.7007 0.9638
2.6624 -9.0979 -1.7818 0.9622
5.2358 -8.4858 -1.8742 0.9602
6.0900 -8.1419 -1.9111 0.9595
6.9344 -7.7238 -1.9510 0.9586
7.7633 -7.2296 -1.9939 0.9577
8.5701 -6.6573 -2.0398 0.9568
10.0878 -5.2733 -2.1395 0.9547
11.1276 -2.4129 -2.1402 0.9547
11.5859 -1.4459 -2.1946 0.9536
11.9618 -0.4161 -2.2497 0.9525
11.4421 1.6590 -2.1731 0.9540
10.2514 2.4368 -1.9806 0.9580
8.7715 2.9336 -1.7385 0.9631
7.6048 3.3246 -1.5600 0.9668
6.5896 3.6129 -1.4125 0.9699
4.9715 4.0225 -1.2020 0.9743
1.9094 5.1629 -1.0347 0.9778
1.4394 5.3069 -1.0335 0.9779
-0.5420 5.8313 -1.1008 0.9764
-2.4884 6.5946 -1.3248 0.9717
-5.3709 11.1131 -2.3200 0.9510
-6.1908 10.3376 -2.2648 0.9521
-6.9160 9.5062 -2.2096 0.9533
-7.5455 8.6319 -2.1550 0.9544
-10.0355 4.3088 -2.0528 0.9565
-9.5878 -1.2607 -1.8176 0.9614
-9.2886 -2.0783 -1.7891 0.9620
-8.5352 -3.5973 -1.7409 0.9630
-8.0880 -4.2960 -1.7214 0.9634
-7.0685 -5.5659 -1.6911 0.9640
-5.9001 -6.6594 -1.6723 0.9644
-3.1903 -8.2870 -1.6691 0.9645
-0.8952 -8.9818 -1.6966 0.9639
-0.0907 -9.1054 -1.7115 0.9636
0.7300 -9.1720 -1.7294 0.9632
1.5644 -9.1795 -1.7503 0.9628
2.4099 -9.1259 -1.7741 0.9623
4.1220 -8.8256 -1.8309 0.9611
4.9814 -8.5740 -1.8638 0.9604
6.6853 -7.8557 -1.9389 0.9589
9.1206 -6.2072 -2.0737 0.9561
10.5812 -4.7101 -2.1770 0.9540
12.1710 0.3421 -2.2886 0.9517
11.7668 1.3888 -2.2271 0.9529
7.9253 3.2173 -1.6077 0.9658
4.5354 4.1675 -1.1577 0.9752
3.9678 4.3606 -1.1081 0.9763
3.6095 4.7591 -1.1227 0.9760
2.5177 4.9550 -1.0447 0.9776
1.5791 5.2656 -1.0333 0.9779
1.1059 5.4006 -1.0362 0.9778
-0.3830 5.7799 -1.0888 0.9767
-1.9950 5.7435 -1.1428 0.9756
-5.1100 11.3303 -2.3362 0.9507
-5.9574 10.5741 -2.2812 0.9518
-6.7109 9.7579 -2.2260 0.9529
-7.9311 7.9978 -2.1171 0.9552
-9.0509 7.6266 -2.2246 0.9530
-9.4566 6.6210 -2.1698 0.9541
-9.9871 4.6052 -2.0671 0.9562
-10.1207 3.6106 -2.0197 0.9572
-10.1488 1.6786 -1.9335 0.9590
-9.8907 -0.1469 -1.8593 0.9605
-9.6658 -1.0111 -1.8267 0.9612
-9.3830 -1.8397 -1.7972 0.9618
-8.6591 -3.3822 -1.7473 0.9629
-8.2252 -4.0932 -1.7269 0.9633
-6.0820 -6.5087 -1.6744 0.9644
-4.8018 -7.4462 -1.6654 0.9646
-3.4061 -8.1930 -1.6677 0.9645
-1.9107 -8.7397 -1.6815 0.9642
-1.1304 -8.9344 -1.6927 0.9640
0.4850 -9.1583 -1.7238 0.9634
1.3156 -9.1836 -1.7438 0.9629
3.0097 -9.0502 -1.7927 0.9619
4.7266 -8.6559 -1.8537 0.9607
9.6538 -5.7174 -2.1089 0.9554
2.3905 -0.8887 -0.4794 0.9897
10.8211 -2.9547 -2.1084 0.9554
12.3305 1.1249 -2.3273 0.9509
11.3462 2.0688 -2.1678 0.9541
7.1944 3.4620 -1.5007 0.9680
6.2118 3.7056 -1.3595 0.9710
5.3949 3.9109 -1.2525 0.9732
4.7153 4.1077 -1.1754 0.9749
4.1286 4.3025 -1.1208 0.9760
3.2400 4.8811 -1.1012 0.9764
1.7185 5.2231 -1.0335 0.9779
0.1372 2.7565 -0.5187 0.9888
-0.7660 5.9036 -1.1190 0.9761
-1.7445 5.4876 -1.0823 0.9768
-4.8412 11.5410 -2.3524 0.9503
-6.4974 10.0054 -2.2424 0.9526
-7.1837 9.1550 -2.1873 0.9537
-7.7743 8.2667 -2.1330 0.9549
-8.9117 7.9226 -2.2413 0.9526
-9.3464 6.9201 -2.1859 0.9538
-9.6848 5.9105 -2.1326 0.9549
-9.9311 4.9026 -2.0817 0.9559
-10.1657 2.9210 -1.9881 0.9579
-10.0887 1.0229 -1.9060 0.9596
-9.9455 0.1160 -1.8695 0.9603
-9.4727 -1.5978 -1.8056 0.9617
-9.1515 -2.4001 -1.7783 0.9622
-8.7789 -3.1635 -1.7540 0.9627
-8.3586 -3.8866 -1.7326 0.9632
-7.3874 -5.2073 -1.6988 0.9639
-6.8422 -5.8029 -1.6863 0.9641
-4.3233 -7.7311 -1.6649 0.9646
-3.6197 -8.0947 -1.6667 0.9646
-2.8907 -8.4087 -1.6713 0.9645
-2.1381 -8.6717 -1.6788 0.9643
-1.3639 -8.8823 -1.6891 0.9641
-0.5700 -9.0388 -1.7023 0.9638
0.2414 -9.1394 -1.7185 0.9635
1.0679 -9.1823 -1.7375 0.9631
1.9072 -9.1652 -1.7596 0.9626
3.6124 -8.9423 -1.8128 0.9615
4.4717 -8.7316 -1.8439 0.9609
6.1837 -8.0994 -1.9153 0.9594
7.8534 -7.1704 -1.9989 0.9576
9.4312 -5.9287 -2.0939 0.9557
2.3478 -0.9444 -0.4756 0.9898
10.6590 -3.2163 -2.0927 0.9557
11.4907 -1.3191 -2.1740 0.9540
12.2696 0.7921 -2.3110 0.9512
8.6298 2.9811 -1.7161 0.9635
6.4841 3.6387 -1.3976 0.9702
5.6227 3.8529 -1.2812 0.9726
4.2969 4.2467 -1.1355 0.9757
2.3265 5.0230 -1.0405 0.9777
1.8577 5.1794 -1.0343 0.9779
1.3873 5.3220 -1.0338 0.9779
0.9113 5.4520 -1.0390 0.9778
-0.0747 5.6802 -1.0677 0.9771
-0.6020 5.8507 -1.1055 0.9763
-1.1754 6.0495 -1.1583 0.9752
-1.6009 5.5403 -1.0840 0.9768
-2.5776 6.6325 -1.3375 0.9715
-6.2754 10.2485 -2.2588 0.9523
-6.9901 9.4117 -2.2036 0.9534
9.7506 2.5926 -2.1327 0.9596
8.3829 3.0530 -1.8858 0.9642
7.2902 3.4200 -1.7022 0.9676
6.3786 3.7204 -1.5609 0.9703
4.2258 4.3178 -1.2771 0.9756
2.6535 4.7831 -1.1562 0.9779
1.7293 5.0865 -1.1356 0.9783
0.8084 5.3869 -1.1514 0.9780
-0.0865 2.9021 -0.6137 0.9882
-0.7145 5.9663 -1.2702 0.9757
-1.3150 6.2131 -1.3424 0.9744
-1.6851 5.4875 -1.2134 0.9768
-4.1225 10.1060 -2.3071 0.9564
-6.7923 7.3668 -2.1181 0.9599
-7.2597 6.5832 -2.0715 0.9607
-8.2402 6.2277 -2.1833 0.9587
-8.5731 5.3487 -2.1359 0.9595
-2.7653 1.3992 -0.6551 0.9874
-8.9969 3.5835 -2.0471 0.9612
-9.0944 2.7105 -2.0059 0.9619
-7.9958 -2.7925 -1.7903 0.9660
-7.6283 -3.4560 -1.7702 0.9663
-6.7678 -4.6715 -1.7383 0.9669
-6.2803 -5.2208 -1.7263 0.9672
-5.7582 -5.7296 -1.7171 0.9673
-4.6191 -6.6213 -1.7065 0.9675
-3.3682 -7.3374 -1.7066 0.9675
-0.5985 -8.2031 -1.7386 0.9669
0.1372 -8.2933 -1.7533 0.9667
0.8856 -8.3297 -1.7707 0.9663
1.6441 -8.3107 -1.7908 0.9660
3.1792 -8.0988 -1.8391 0.9651
3.9492 -7.9022 -1.8673 0.9645
4.7157 -7.6427 -1.8983 0.9640
5.4743 -7.3186 -1.9319 0.9633
6.2201 -6.9282 -1.9681 0.9626
6.9479 -6.4703 -2.0069 0.9619
7.6515 -5.9437 -2.0480 0.9612
2.3506 -0.9725 -0.5377 0.9897
9.3586 -2.9249 -2.0726 0.9607
9.7976 -2.1245 -2.1192 0.9598
10.1703 -1.2692 -2.1665 0.9590
10.2289 2.4314 -2.2224 0.9579
7.5916 3.3188 -1.7514 0.9667
6.6313 3.6358 -1.5986 0.9696
5.8229 3.9063 -1.4821 0.9717
5.0675 4.1002 -1.3779 0.9737
3.8193 4.4277 -1.2360 0.9764
3.4478 4.8053 -1.2501 0.9761
2.9348 4.9746 -1.2209 0.9767
2.3244 4.8914 -1.1447 0.9781
1.8647 5.0422 -1.1364 0.9783
1.4080 5.1915 -1.1370 0.9782
-0.0089 2.7156 -0.5740 0.9890
-0.5483 5.8994 -1.2524 0.9761
-1.5684 5.6357 -1.2365 0.9764
-2.5011 6.6283 -1.4975 0.9715
-4.6820 9.6876 -2.2744 0.9570
-5.4132 9.0392 -2.2271 0.9578
-6.6382 7.5940 -2.1321 0.9596
-7.1295 6.8181 -2.0852 0.9605
-8.9537 3.8443 -2.0597 0.9609
-9.0123 0.4332 -1.9072 0.9638
-7.7419 -3.2630 -1.7759 0.9662
-6.9053 -4.5009 -1.7423 0.9669
-5.3714 -6.0627 -1.7121 0.9674
-4.1910 -6.8936 -1.7053 0.9676
-3.5601 -7.2426 -1.7059 0.9675
-0.0824 -8.2720 -1.7486 0.9667
0.6625 -8.3246 -1.7652 0.9664
1.4183 -8.3222 -1.7845 0.9661
2.1821 -8.2630 -1.8065 0.9657
2.9508 -8.1453 -1.8312 0.9652
6.0006 -7.0510 -1.9571 0.9629
6.7343 -6.6132 -1.9951 0.9621
7.4457 -6.1071 -2.0356 0.9614
9.3692 -4.1706 -2.1678 0.9589
9.2169 -3.1511 -2.0590 0.9610
10.7495 2.2559 -2.3217 0.9561
9.1532 2.7938 -2.0229 0.9616
6.9028 3.5500 -1.6408 0.9688
5.2817 4.0467 -1.4065 0.9732
3.6051 4.7533 -1.2610 0.9759
2.4623 4.8460 -1.1490 0.9780
2.0004 4.9977 -1.1379 0.9782
1.5436 5.1472 -1.1359 0.9783
0.6163 5.4508 -1.1595 0.9778
0.0622 2.6770 -0.5660 0.9891
-0.3867 5.8350 -1.2361 0.9764
-1.9510 5.6169 -1.2569 0.9760
-4.4506 9.8681 -2.2882 0.9567
-5.2044 9.2375 -2.2412 0.9576
-5.8807 8.5506 -2.1936 0.9585
-6.9922 7.0510 -2.0990 0.9602
-8.3857 5.8712 -2.1638 0.9590
-8.6850 4.9893 -2.1172 0.9599
-9.0454 3.2270 -2.0300 0.9615
-9.1135 2.3591 -1.9899 0.9622
-9.0444 0.6754 -1.9171 0.9636
-8.9150 -0.1324 -1.8847 0.9642
-8.4854 -1.6637 -1.8278 0.9653
-7.8516 -3.0668 -1.7818 0.9661
-7.4663 -3.7155 -1.7629 0.9665
-5.5363 -5.9248 -1.7141 0.9674
-3.7499 -7.1438 -1.7055 0.9676
-3.1017 -7.4607 -1.7079 0.9675
-2.4305 -7.7307 -1.7130 0.9674
0.4403 -8.3147 -1.7600 0.9665
1.9549 -8.2866 -1.7997 0.9658
4.2617 -7.8044 -1.8796 0.9643
5.0255 -7.5188 -1.9116 0.9637
5.7795 -7.1679 -1.9463 0.9631
7.9294 -5.7098 -2.0654 0.9608
2.3935 -0.8898 -0.5398 0.9896
9.5447 -2.6062 -2.0914 0.9604
10.5660 0.0168 -2.2334 0.9577
10.8290 1.9745 -2.3268 0.9560
6.2876 3.7509 -1.5476 0.9705
5.5059 3.9913 -1.4375 0.9726
4.7880 4.1711 -1.3423 0.9744
4.1601 4.3353 -1.2701 0.9757
3.6918 4.6086 -1.2482 0.9761
3.2361 4.8752 -1.2369 0.9764
2.6014 4.8003 -1.1541 0.9779
2.1366 4.9531 -1.1402 0.9782
0.1383 2.7789 -0.5881 0.9887
-0.2291 5.7728 -1.2212 0.9767
-1.3856 6.2427 -1.3517 0.9742
-4.2126 10.0426 -2.3020 0.9565
-5.6883 8.7596 -2.2078 0.9582
-6.8479 7.2817 -2.1129 0.9600
-7.3063 6.4954 -2.0665 0.9608
-8.6048 5.2514 -2.1308 0.9596
-8.8471 4.3675 -2.0856 0.9605
-9.0113 3.4867 -2.0424 0.9613
-9.0711 0.9197 -1.9273 0.9634
-8.7890 -0.6844 -1.8634 0.9646
-8.5627 -1.4443 -1.8355 0.9651
-8.2844 -2.1726 -1.8104 0.9656
-7.5851 -3.5269 -1.7682 0.9664
-6.7158 -4.7340 -1.7368 0.9670
-5.6986 -5.7832 -1.7162 0.9674
-2.6318 -7.6556 -1.7112 0.9674
-1.2405 -8.0791 -1.7278 0.9671
0.2192 -8.2999 -1.7551 0.9666
0.9688 -8.3303 -1.7727 0.9663
1.7282 -8.3051 -1.7931 0.9659
3.2642 -8.0802 -1.8421 0.9650
6.3014 -6.8811 -1.9723 0.9626
7.7273 -5.8815 -2.0527 0.9611
2.3464 -0.9438 -0.5346 0.9897
9.4100 -2.8394 -2.0777 0.9606
9.8421 -2.0328 -2.1243 0.9597
10.7011 0.6908 -2.2667 0.9571
6.5359 3.6677 -1.5842 0.9698
4.9902 4.1197 -1.3678 0.9739
3.7581 4.4446 -1.2303 0.9765
1.3576 5.2080 -1.1377 0.9782
0.8957 5.3585 -1.1484 0.9780
0.2168 2.8388 -0.6018 0.9884
-0.0370 2.8133 -0.5947 0.9886
-0.6095 5.9240 -1.2588 0.9759
-1.1977 6.1644 -1.3274 0.9747
-1.6014 5.5422 -1.2194 0.9767
-5.4890 8.9642 -2.2219 0.9579
9.5606 1.6461 -2.2800 0.9609
9.5346 2.5352 -2.3187 0.9603
8.3671 3.0472 -2.0928 0.9641
7.2779 3.4142 -1.8893 0.9675
6.3686 3.7146 -1.7328 0.9702
5.5964 3.9735 -1.6131 0.9722
4.3051 4.3989 -1.4466 0.9750
3.7216 4.5531 -1.3821 0.9761
3.2891 4.8505 -1.3774 0.9762
1.2887 5.3042 -1.2829 0.9778
0.8212 5.4717 -1.3004 0.9775
-1.3211 6.2422 -1.4996 0.9741
-1.6836 5.4826 -1.3479 0.9767
-3.6439 8.9326 -2.2673 0.9611
-4.3473 8.4180 -2.2267 0.9618
-4.9867 7.8474 -2.1852 0.9625
-5.5587 7.2297 -2.1433 0.9632
-6.8560 5.1816 -2.0197 0.9653
-8.1187 3.2337 -2.0539 0.9647
-8.2619 1.6772 -1.9813 0.9660
-7.3048 -2.5512 -1.8185 0.9687
-6.9758 -3.1604 -1.7999 0.9690
-6.6061 -3.7367 -1.7838 0.9693
-6.1985 -4.2785 -1.7701 0.9695
-2.4819 -6.9944 -1.7443 0.9700
-0.5482 -7.5129 -1.7704 0.9695
0.8099 -7.6171 -1.8003 0.9690
1.5020 -7.5923 -1.8189 0.9687
2.8976 -7.3815 -1.8637 0.9679
3.5945 -7.1925 -1.8898 0.9675
4.2858 -6.9460 -1.9182 0.9670
7.4960 -4.8159 -2.0940 0.9641
8.0505 -4.2083 -2.1350 0.9634
2.3477 -0.9713 -0.5971 0.9896
8.7428 -1.8958 -2.1025 0.9639
9.0535 -1.1298 -2.1443 0.9632
9.5518 2.2705 -2.3074 0.9605
5.8142 3.9005 -1.6455 0.9716
3.8887 4.5082 -1.3992 0.9758
1.8866 5.1012 -1.2783 0.9779
1.4257 5.2565 -1.2800 0.9779
0.9611 5.4208 -1.2939 0.9776
0.2444 2.8320 -0.6681 0.9884
-0.0089 2.6868 -0.6315 0.9890
-0.5573 5.9968 -1.4155 0.9756
-1.1384 6.1836 -1.4777 0.9745
-1.5690 5.6379 -1.3754 0.9762
-2.4974 6.6184 -1.6625 0.9714
-4.1452 8.5769 -2.2388 0.9616
-5.3962 7.4173 -2.1558 0.9630
-5.9196 6.7719 -2.1139 0.9637
-2.7053 1.4602 -0.7225 0.9874
-8.0749 3.4670 -2.0653 0.9645
-8.1989 2.6822 -2.0274 0.9652
-8.2569 1.9053 -1.9916 0.9658
-8.1873 0.3935 -1.9264 0.9669
-7.8913 -1.0376 -1.8706 0.9678
-7.3941 -2.3645 -1.8245 0.9686
-5.8903 -4.6382 -1.7620 0.9697
-5.4237 -5.1180 -1.7526 0.9698
-4.9257 -5.5597 -1.7457 0.9699
-4.3986 -5.9620 -1.7413 0.9700
-2.0423 -7.1534 -1.7484 0.9699
-0.0754 -7.5724 -1.7798 0.9694
0.6060 -7.6144 -1.7952 0.9691
1.9919 -7.5430 -1.8336 0.9685
2.6904 -7.4267 -1.8564 0.9681
3.3882 -7.2545 -1.8818 0.9676
5.4382 -6.3902 -1.9721 0.9661
7.8903 -4.3947 -2.1226 0.9636
8.9681 -1.3615 -2.1319 0.9634
9.5342 1.1253 -2.2563 0.9613
9.1347 2.7882 -2.2447 0.9615
6.8915 3.5442 -1.8213 0.9687
6.0411 3.8245 -1.6804 0.9710
3.6006 4.7474 -1.4004 0.9758
3.0808 4.9193 -1.3642 0.9764
2.4938 4.9079 -1.2938 0.9776
1.5624 5.2097 -1.2783 0.9779
0.0617 2.6572 -0.6247 0.9891
-4.6154 8.1921 -2.2099 0.9621
-5.2277 7.6013 -2.1682 0.9628
-5.7717 6.9670 -2.1263 0.9635
-6.2458 6.2983 -2.0847 0.9642
-6.6496 5.6031 -2.0436 0.9649
-6.9835 4.8894 -2.0036 0.9656
-8.1077 -0.1204 -1.9057 0.9672
-7.1760 -2.8029 -1.8106 0.9688
-6.8301 -3.3989 -1.7930 0.9691
-6.4447 -3.9613 -1.7779 0.9694
-6.0223 -4.4887 -1.7653 0.9696
-5.5655 -4.9796 -1.7552 0.9698
-5.0766 -5.4328 -1.7475 0.9699
-4.5579 -5.8469 -1.7424 0.9700
-4.0116 -6.2208 -1.7397 0.9700
-2.8449 -6.8431 -1.7417 0.9700
-1.5937 -7.2898 -1.7537 0.9698
-0.9418 -7.4440 -1.7635 0.9696
4.5645 -6.8290 -1.9305 0.9668
5.2406 -6.4995 -1.9622 0.9663
5.9003 -6.1098 -1.9962 0.9657
6.5384 -5.6593 -2.0324 0.9651
8.8770 -1.5894 -2.1195 0.9636
9.1609 -0.8063 -2.1613 0.9629
9.5097 0.8675 -2.2443 0.9615
9.5622 1.7435 -2.2844 0.9608
9.5263 2.6337 -2.3229 0.9602
8.2356 3.0916 -2.0674 0.9645
6.2779 3.7451 -1.7180 0.9704
4.8483 4.2236 -1.5112 0.9739
4.2378 4.4163 -1.4385 0.9752
2.1620 5.0120 -1.2828 0.9778
0.7688 5.4910 -1.3031 0.9775
0.1366 2.7443 -0.6458 0.9888
-0.2331 5.8764 -1.3822 0.9761
-0.7878 6.0709 -1.4388 0.9752
-1.3904 6.2644 -1.5081 0.9740
-1.7412 5.4773 -1.3508 0.9767
-5.0531 7.7814 -2.1806 0.9626
-6.1125 6.4997 -2.0970 0.9640
-6.5371 5.8116 -2.0557 0.9647
-6.8917 5.1026 -2.0153 0.9654
-7.7340 4.7199 -2.1294 0.9635
-8.1335 3.1471 -2.0497 0.9648
-8.2327 0.8347 -1.9448 0.9666
-8.1446 0.0950 -1.9143 0.9671
-8.0012 -0.6231 -1.8861 0.9676
-7.8056 -1.3166 -1.8604 0.9680
-7.5611 -1.9830 -1.8371 0.9684
-6.9370 -3.2256 -1.7980 0.9691
-6.5630 -3.7981 -1.7821 0.9693
-6.1513 -4.3360 -1.7688 0.9695
-4.7147 -5.7282 -1.7436 0.9700
-3.6120 -6.4591 -1.7393 0.9700
-2.4136 -7.0208 -1.7448 0.9700
-0.4745 -7.5239 -1.7718 0.9695
0.2006 -7.5956 -1.7858 0.9693
0.8859 -7.6169 -1.8022 0.9690
2.2760 -7.5023 -1.8426 0.9683
2.9746 -7.3634 -1.8665 0.9679
3.6711 -7.1682 -1.8928 0.9674
4.3615 -6.9153 -1.9215 0.9670
5.7067 -6.2317 -1.9859 0.9659
6.3517 -5.7993 -2.0214 0.9653
7.5591 -4.7519 -2.0984 0.9640
8.1090 -4.1377 -2.1396 0.9633
2.3451 -0.9433 -0.5941 0.9897
8.4146 -2.5391 -2.0657 0.9645
8.7801 -1.8135 -2.1071 0.9638
9.0837 -1.0428 -2.1489 0.9631
9.3185 -0.2322 -2.1907 0.9624
8.5969 2.9697 -2.1376 0.9633
7.4647 3.3514 -1.9231 0.9669
6.5256 3.6619 -1.7586 0.9697
5.7323 3.9280 -1.6332 0.9719
5.0389 4.1599 -1.5357 0.9735
3.3859 4.8185 -1.3841 0.9761
2.7804 4.8210 -1.3080 0.9774
2.3010 4.9679 -1.2867 0.9778
1.8357 5.1180 -1.2779 0.9779
0.9092 5.4396 -1.2962 0.9776
-0.0365 2.7733 -0.6518 0.9887
-0.6191 6.0167 -1.4215 0.9755
-1.2057 6.2052 -1.4856 0.9744
-1.6021 5.5443 -1.3564 0.9766
-2.5827 6.6456 -1.6757 0.9711
-4.8726 7.9575 -2.1930 0.9624
-5.4574 7.3480 -2.1511 0.9631
8.5515 1.4723 -2.2467 0.9648
8.3513 3.0415 -2.3012 0.9639
7.2654 3.4084 -2.0779 0.9674
6.3586 3.7088 -1.9059 0.9700
4.9117 4.1944 -1.6723 0.9737
3.2850 4.8446 -1.5155 0.9761
2.7292 4.9196 -1.4567 0.9770
2.2498 5.0774 -1.4379 0.9773
0.8315 5.5407 -1.4506 0.9771
0.1637 2.7451 -0.7120 0.9887
-1.3193 6.2337 -1.6498 0.9740
-3.2612 7.9945 -2.2355 0.9650
-4.4801 7.0501 -2.1628 0.9661
-5.8681 5.3212 -2.0510 0.9678
-6.4844 4.0456 -1.9789 0.9689
-7.3898 2.9434 -2.0595 0.9677
-7.4968 2.2344 -2.0254 0.9682
-7.4692 0.1607 -1.9343 0.9696
-7.3525 -0.4997 -1.9081 0.9700
-7.1866 -1.1395 -1.8840 0.9704
-5.7128 -3.9432 -1.7973 0.9717
-4.4035 -5.2439 -1.7730 0.9721
-3.3921 -5.9279 -1.7684 0.9722
-2.2900 -6.4537 -1.7731 0.9721
-1.7104 -6.6542 -1.7789 0.9720
-0.5052 -6.9242 -1.7976 0.9717
0.1157 -6.9911 -1.8104 0.9715
0.7454 -7.0109 -1.8255 0.9713
2.0204 -6.9041 -1.8626 0.9707
3.2954 -6.5940 -1.9087 0.9700
3.9242 -6.3601 -1.9350 0.9696
4.5420 -6.0723 -1.9634 0.9692
7.3018 -3.8169 -2.1333 0.9665
7.5639 -2.3640 -2.0518 0.9678
7.8848 -1.7097 -2.0890 0.9672
8.1492 -1.0170 -2.1263 0.9666
8.3513 -0.2905 -2.1636 0.9661
8.5478 1.2394 -2.2363 0.9649
8.4375 2.8219 -2.3036 0.9639
7.5651 3.3072 -2.1377 0.9665
6.6101 3.6241 -1.9518 0.9693
5.8056 3.8947 -1.8101 0.9715
3.9071 4.5295 -1.5488 0.9756
3.4393 4.7935 -1.5275 0.9759
2.3908 5.0311 -1.4422 0.9772
-1.1368 6.1753 -1.6258 0.9744
-1.5697 5.6401 -1.5158 0.9761
-4.3134 7.2027 -2.1738 0.9659
-4.8546 6.6728 -2.1366 0.9665
-6.4086 4.2383 -1.9894 0.9688
-2.7067 1.4609 -0.7964 0.9874
-7.3462 3.1541 -2.0700 0.9675
-7.4714 2.4442 -2.0354 0.9680
-7.5361 1.7390 -2.0025 0.9685
-7.2407 -0.9521 -1.8909 0.9703
-7.0419 -1.5756 -1.8683 0.9706
-6.7984 -2.1740 -1.8480 0.9709
-6.5130 -2.7451 -1.8300 0.9712
-6.1883 -3.2870 -1.8143 0.9715
-5.8268 -3.7979 -1.8008 0.9717
-5.4307 -4.2763 -1.7897 0.9718
-5.0026 -4.7206 -1.7809 0.9720
-4.5447 -5.1296 -1.7744 0.9721
-3.5482 -5.8362 -1.7685 0.9722
-0.0695 -6.9761 -1.8063 0.9716
0.5579 -7.0100 -1.8207 0.9714
1.1923 -6.9959 -1.8375 0.9711
1.8307 -6.9325 -1.8565 0.9708
2.4702 -6.8187 -1.8778 0.9705
3.7387 -6.4351 -1.9269 0.9697
4.3602 -6.1633 -1.9548 0.9693
4.9677 -5.8373 -1.9846 0.9688
5.5565 -5.4566 -2.0164 0.9683
6.1218 -5.0212 -2.0500 0.9678
7.6014 -3.3837 -2.1543 0.9662
7.7952 -1.9080 -2.0779 0.9674
8.2982 -0.5091 -2.1526 0.9662
8.5372 1.0076 -2.2258 0.9651
8.5455 1.7934 -2.2608 0.9646
8.4743 2.5866 -2.2941 0.9641
7.8826 3.2000 -2.2027 0.9655
6.8802 3.5383 -2.0032 0.9685
6.0319 3.8187 -1.8484 0.9709
5.3033 4.0632 -1.7298 0.9728
4.0716 4.4747 -1.5664 0.9753
3.5961 4.7415 -1.5408 0.9757
1.5877 5.2943 -1.4311 0.9774
1.1156 5.4483 -1.4399 0.9773
0.0612 2.6377 -0.6831 0.9892
-1.5788 6.3167 -1.6858 0.9735
-1.9101 5.4993 -1.5073 0.9762
-3.5267 7.8196 -2.2210 0.9652
-4.7003 6.8343 -2.1476 0.9663
-5.1995 6.2764 -2.1103 0.9669
-5.6375 5.6849 -2.0730 0.9675
-6.0135 5.0672 -2.0361 0.9680
-6.5798 3.7799 -1.9647 0.9691
-7.2971 3.3648 -2.0805 0.9673
-7.4407 2.6545 -2.0454 0.9679
-7.5140 0.5611 -1.9509 0.9693
-7.4278 -0.1103 -1.9234 0.9698
-7.2908 -0.7627 -1.8980 0.9702
-7.1056 -1.3932 -1.8748 0.9705
-6.6019 -2.5787 -1.8351 0.9711
-6.2886 -3.1294 -1.8187 0.9714
-4.6835 -5.0121 -1.7761 0.9721
-3.7023 -5.7411 -1.7688 0.9722
-3.1747 -6.0480 -1.7686 0.9722
-2.6253 -6.3149 -1.7707 0.9721
-0.8683 -6.8628 -1.7911 0.9718
-0.2538 -6.9570 -1.8025 0.9716
0.3710 -7.0049 -1.8162 0.9714
1.0035 -7.0051 -1.8323 0.9712
2.2806 -6.8578 -1.8712 0.9706
2.9189 -6.7077 -1.8941 0.9702
4.1772 -6.2495 -1.9463 0.9694
5.3841 -5.5752 -2.0068 0.9685
7.7009 -2.1027 -2.0669 0.9676
8.2202 3.0858 -2.2734 0.9644
7.1582 3.4446 -2.0568 0.9677
6.2681 3.7392 -1.8898 0.9703
5.5096 3.9941 -1.7619 0.9723
4.2400 4.4186 -1.5856 0.9750
2.1976 5.0945 -1.4366 0.9773
1.7270 5.2488 -1.4307 0.9774
1.2563 5.4025 -1.4361 0.9773
0.1360 2.7336 -0.7086 0.9888
-1.7395 5.4718 -1.4866 0.9766
-3.3340 7.9480 -2.2316 0.9650
-3.9651 7.4956 -2.1956 0.9656
-4.5407 6.9923 -2.1587 0.9661
-6.2408 4.6207 -2.0105 0.9684
-2.8117 1.3880 -0.8119 0.9871
-7.3365 -0.5713 -1.9053 0.9701
-7.1654 -1.2086 -1.8815 0.9704
-6.9481 -1.8222 -1.8598 0.9708
-6.3856 -2.9692 -1.8233 0.9713
-6.0455 -3.4987 -1.8085 0.9716
-4.3504 -5.2856 -1.7725 0.9721
-3.8542 -5.6426 -1.7693 0.9722
-3.3335 -5.9611 -1.7684 0.9722
-1.6455 -6.6737 -1.7797 0.9720
-1.0482 -6.8261 -1.7881 0.9719
-0.4373 -6.9338 -1.7989 0.9717
1.4517 -6.9761 -1.8449 0.9710
2.0909 -6.8924 -1.8649 0.9707
2.7299 -6.7577 -1.8871 0.9703
3.3652 -6.5709 -1.9115 0.9700
4.6093 -6.0373 -1.9667 0.9691
5.2098 -5.6890 -1.9973 0.9686
7.3534 -3.7521 -2.1375 0.9665
2.3437 -0.9428 -0.6541 0.9896
7.6019 -2.2938 -2.0559 0.9677
7.9168 -1.6352 -2.0931 0.9671
8.1746 -0.9384 -2.1304 0.9666
8.3696 -0.2086 -2.1677 0.9660
8.5500 1.3258 -2.2402 0.9649
8.5263 2.1157 -2.2746 0.9644
8.4220 2.9093 -2.3070 0.9639
7.4517 3.3455 -2.1149 0.9668
6.5152 3.6561 -1.9344 0.9696
5.0319 4.1541 -1.6895 0.9734
1.8662 5.2032 -1.4312 0.9774
0.9212 5.5115 -1.4468 0.9772
0.2124 2.7814 -0.7222 0.9885
-0.0363 2.7615 -0.7151 0.9887
-0.6183 6.0089 -1.5640 0.9753
-4.3760 7.1464 -2.1697 0.9660
-4.9107 6.6119 -2.1324 0.9665
7.7265 1.3303 -2.2195 0.9679
7.5621 2.7541 -2.2783 0.9671
5.5800 3.9618 -1.9373 0.9720
4.9049 4.1885 -1.8259 0.9735
4.2980 4.3916 -1.7396 0.9748
3.7413 4.5772 -1.6735 0.9757
3.2810 4.8386 -1.6550 0.9760
2.7259 4.9136 -1.5907 0.9769
1.7766 5.2256 -1.5625 0.9773
0.9053 3.7262 -1.0855 0.9842
-0.7227 6.0348 -1.7206 0.9750
-3.5292 6.8337 -2.1773 0.9685
-4.0625 6.3929 -2.1443 0.9690
-4.5446 5.9107 -2.1107 0.9695
-4.9732 5.3938 -2.0769 0.9700
-5.6648 4.2813 -2.0101 0.9709
-5.9270 3.6978 -1.9777 0.9714
-2.7561 1.3945 -0.8744 0.9872
-6.8820 2.0511 -2.0329 0.9706
-6.9337 0.7721 -1.9750 0.9714
-6.7817 -0.4609 -1.9243 0.9721
-6.6352 -1.0520 -1.9018 0.9725
-6.4449 -1.6225 -1.8814 0.9727
-5.2932 -3.6536 -1.8208 0.9736
-3.1466 -5.4990 -1.7936 0.9740
-2.1239 -5.9856 -1.7980 0.9739
-1.5860 -6.1701 -1.8035 0.9739
0.6899 -6.4884 -1.8472 0.9732
2.4555 -6.2551 -1.9023 0.9725
4.1800 -5.5884 -1.9756 0.9714
5.2570 -4.8957 -2.0336 0.9706
5.7607 -4.4749 -2.0650 0.9701
7.1726 -1.5553 -2.0777 0.9699
7.5726 -0.2634 -2.1450 0.9690
7.7015 1.8307 -2.2410 0.9676
7.4347 3.2503 -2.2971 0.9668
6.5994 3.6182 -2.1306 0.9692
5.7968 3.8888 -1.9761 0.9714
4.4720 4.3334 -1.7629 0.9744
2.3879 5.0250 -1.5750 0.9771
1.0024 3.6958 -1.0840 0.9842
0.9729 5.4877 -1.5778 0.9771
-1.1353 6.1669 -1.7752 0.9743
-1.7729 6.3704 -1.8720 0.9729
-2.4898 6.5984 -1.9965 0.9711
-3.3616 6.9556 -2.1870 0.9684
-4.4071 6.0576 -2.1207 0.9693
-5.5763 4.4515 -2.0199 0.9708
-6.9393 0.9596 -1.9832 0.9713
-6.9025 0.3317 -1.9563 0.9717
-6.6833 -0.8788 -1.9083 0.9724
-6.0266 -2.5400 -1.8514 0.9732
-5.3980 -3.5184 -1.8241 0.9736
-5.0334 -3.9634 -1.8136 0.9737
-4.2148 -4.7573 -1.7993 0.9739
-3.7652 -5.1034 -1.7954 0.9740
-3.2915 -5.4139 -1.7937 0.9740
-2.2803 -5.9232 -1.7968 0.9740
-1.7472 -6.1196 -1.8016 0.9739
-1.1986 -6.2755 -1.8087 0.9738
-0.0644 -6.4613 -1.8292 0.9735
2.2812 -6.2971 -1.8960 0.9725
3.4458 -5.9310 -1.9418 0.9719
4.5678 -5.3675 -1.9952 0.9711
5.6142 -4.6048 -2.0556 0.9703
6.0974 -4.1497 -2.0880 0.9698
6.5475 -3.6468 -2.1217 0.9693
6.7992 -2.3245 -2.0342 0.9706
7.5280 -0.4619 -2.1351 0.9691
7.6565 0.2152 -2.1684 0.9687
7.7205 0.9112 -2.2008 0.9682
7.7163 1.6194 -2.2320 0.9678
7.6411 2.3323 -2.2617 0.9673
7.4929 3.0418 -2.2893 0.9669
6.8687 3.5324 -2.1866 0.9684
6.0226 3.8128 -2.0179 0.9708
4.6509 4.2736 -1.7881 0.9741
3.5916 4.7355 -1.6826 0.9756
2.0376 5.0904 -1.5522 0.9775
1.1143 5.4417 -1.5725 0.9772
0.0608 2.6186 -0.7415 0.9892
-0.3929 5.9290 -1.6821 0.9756
-0.9582 6.1103 -1.7509 0.9746
-1.9074 5.4914 -1.6457 0.9761
-3.7521 6.6598 -2.1640 0.9687
-5.1319 5.1750 -2.0632 0.9702
-5.4829 4.6201 -2.0298 0.9706
-6.0178 3.4571 -1.9647 0.9716
-6.9098 1.7887 -2.0206 0.9708
-6.9187 0.5166 -1.9641 0.9716
-6.8469 -0.1017 -1.9385 0.9719
-6.5629 -1.2868 -1.8933 0.9726
-6.3554 -1.8481 -1.8737 0.9729
-6.1075 -2.3856 -1.8562 0.9731
-5.8216 -2.8970 -1.8408 0.9733
-5.1448 -3.8347 -1.8165 0.9737
-4.7585 -4.2576 -1.8076 0.9738
-3.9011 -5.0044 -1.7963 0.9740
-3.4343 -5.3256 -1.7939 0.9740
-1.3628 -6.2335 -1.8064 0.9738
-0.8047 -6.3603 -1.8149 0.9737
1.5173 -6.4315 -1.8707 0.9729
2.1067 -6.3349 -1.8899 0.9726
2.6938 -6.1906 -1.9112 0.9723
3.8469 -5.7554 -1.9598 0.9716
4.9463 -5.1219 -2.0157 0.9708
7.4781 -0.6582 -2.1252 0.9693
7.1460 3.4387 -2.2450 0.9676
4.8350 4.2120 -1.8153 0.9737
4.2344 4.4128 -1.7313 0.9749
0.8768 3.7705 -1.0959 0.9840
0.7772 5.5513 -1.5868 0.9770
0.1363 2.7384 -0.7762 0.9887
-0.1127 2.8407 -0.8048 0.9883
-0.7857 6.0550 -1.7285 0.9749
-1.3866 6.2472 -1.8116 0.9737
-1.7378 5.4663 -1.6238 0.9764
-3.0143 7.1858 -2.2060 0.9681
-3.5904 6.7874 -2.1737 0.9686
-4.1182 6.3416 -2.1406 0.9691
-4.5945 5.8553 -2.1070 0.9695
-5.0171 5.3349 -2.0732 0.9700
-5.3846 4.7870 -2.0396 0.9705
-5.6964 4.2176 -2.0065 0.9710
-6.7890 2.6269 -2.0608 0.9702
-6.8733 0.0801 -1.9459 0.9718
-6.6163 -1.1160 -1.8995 0.9725
-6.4213 -1.6840 -1.8793 0.9728
-5.9102 -2.7482 -1.8452 0.9733
-5.2535 -3.7032 -1.8196 0.9736
-4.8762 -4.1355 -1.8100 0.9738
-4.4693 -4.5357 -1.8026 0.9739
-3.5752 -5.2341 -1.7944 0.9740
-2.5883 -5.7881 -1.7950 0.9740
-2.0654 -6.0079 -1.7985 0.9739
-0.9715 -6.3271 -1.8121 0.9737
-0.4051 -6.4241 -1.8222 0.9736
0.7545 -6.4873 -1.8489 0.9732
1.3424 -6.4512 -1.8654 0.9730
2.5201 -6.2384 -1.9047 0.9724
3.1035 -6.0600 -1.9274 0.9721
4.2414 -5.5554 -1.9786 0.9714
4.7880 -5.2284 -2.0070 0.9710
5.3139 -4.8517 -2.0370 0.9705
5.8145 -4.4255 -2.0686 0.9701
2.3424 -0.9422 -0.7147 0.9896
7.2005 -1.4872 -2.0814 0.9699
7.4229 -0.8521 -2.1152 0.9694
7.6905 0.4965 -2.1817 0.9685
7.7272 1.1983 -2.2137 0.9680
7.6944 1.9093 -2.2443 0.9676
6.5047 3.6502 -2.1116 0.9695
4.4068 4.3552 -1.7540 0.9746
3.8419 4.5437 -1.6845 0.9756
3.3775 4.8066 -1.6630 0.9759
2.8691 4.9748 -1.6258 0.9764
0.9201 5.5049 -1.5800 0.9771
-1.6033 5.5486 -1.6350 0.9763
-2.5749 6.6254 -2.0123 0.9709
-3.4244 6.9108 -2.1834 0.9684
-4.4587 6.0034 -2.1170 0.9694
6.6911 3.1390 -2.2733 0.9695
6.3384 3.6970 -2.2569 0.9698
4.8979 4.1826 -1.9811 0.9734
4.2922 4.3857 -1.8875 0.9746
3.7364 4.5712 -1.8159 0.9756
2.7225 4.9076 -1.7262 0.9768
0.9017 3.7112 -1.1747 0.9841
0.8295 5.5272 -1.7191 0.9769
0.1647 2.7608 -0.8507 0.9885
