ply
format ascii 1.0
element vertex 1597
property float32 x
property float32 y
property float32 z
property float32 I
end_header
10.1171 -1.3700 -2.1581 0.9591
10.6415 0.4673 -2.2516 0.9574
10.8078 2.4436 -2.3422 0.9557
7.8967 3.3465 -1.8129 0.9655
5.2076 4.1135 -1.4028 0.9732
3.8976 4.4102 -1.2441 0.9762
3.5118 4.7709 -1.2522 0.9761
2.3690 4.8293 -1.1370 0.9782
1.9079 4.9658 -1.1245 0.9785
0.5339 5.3698 -1.1407 0.9782
0.0261 2.6471 -0.5596 0.9892
-0.4540 5.7069 -1.2101 0.9769
-1.6204 6.1441 -1.3431 0.9744
-4.5553 9.7689 -2.2784 0.9569
-5.2978 9.1345 -2.2321 0.9577
-5.9631 8.4451 -2.1853 0.9586
-6.5488 7.7115 -2.1385 0.9595
-7.4793 6.1513 -2.0470 0.9612
-9.0678 3.1193 -2.0270 0.9616
-9.1288 2.2541 -1.9876 0.9623
-7.8282 -3.1502 -1.7837 0.9661
-7.0072 -4.4035 -1.7494 0.9667
-6.0314 -5.5021 -1.7257 0.9672
-4.9212 -6.4362 -1.7126 0.9674
-3.6947 -7.1967 -1.7100 0.9675
-2.3693 -7.7740 -1.7179 0.9673
-0.2326 -8.2733 -1.7495 0.9667
1.2642 -8.3439 -1.7839 0.9661
2.7942 -8.1887 -1.8289 0.9652
3.5639 -8.0219 -1.8555 0.9647
4.3318 -7.7931 -1.8847 0.9642
5.0937 -7.5008 -1.9165 0.9636
6.5808 -6.7187 -1.9880 0.9623
7.2952 -6.2265 -2.0274 0.9615
7.9820 -5.6658 -2.0691 0.9608
8.6344 -5.0364 -2.1129 0.9600
2.4293 -0.8856 -0.5466 0.9895
9.5667 -2.5484 -2.0927 0.9603
9.9713 -1.7229 -2.1390 0.9595
10.7306 1.0400 -2.2789 0.9569
7.2606 3.5393 -1.7074 0.9675
4.7836 4.2064 -1.3465 0.9743
4.1396 4.3531 -1.2698 0.9757
3.1993 4.8641 -1.2306 0.9765
2.0953 4.9103 -1.1285 0.9784
0.7250 5.3138 -1.1336 0.9783
0.1347 2.9042 -0.6146 0.9882
-0.1123 2.6175 -0.5538 0.9893
-1.7627 5.4917 -1.2192 0.9767
-2.7440 6.4932 -1.4901 0.9716
-5.0032 9.4013 -2.2511 0.9574
-5.7005 8.7330 -2.2045 0.9583
-6.3189 8.0163 -2.1576 0.9591
-6.8572 7.2613 -2.1111 0.9600
-8.6142 5.2376 -2.1310 0.9596
-9.1321 1.7501 -1.9655 0.9627
-9.0848 0.9125 -1.9300 0.9634
-8.8045 -0.6914 -1.8668 0.9645
-8.3014 -2.1803 -1.8143 0.9655
-7.6030 -3.5360 -1.7724 0.9663
-6.7340 -4.7447 -1.7413 0.9669
-5.7165 -5.7957 -1.7207 0.9673
-5.1582 -6.2590 -1.7144 0.9674
-4.5701 -6.6794 -1.7107 0.9675
-3.9542 -7.0558 -1.7097 0.9675
-2.6476 -7.6714 -1.7154 0.9674
-1.9612 -7.9081 -1.7222 0.9672
-1.2554 -8.0956 -1.7317 0.9671
-0.5327 -8.2323 -1.7438 0.9668
0.9546 -8.3473 -1.7760 0.9662
2.4798 -8.2395 -1.8188 0.9654
4.0181 -7.8943 -1.8724 0.9644
4.7830 -7.6282 -1.9032 0.9639
9.3829 -2.8700 -2.0741 0.9607
9.8139 -2.0671 -2.1200 0.9598
10.1779 -1.2103 -2.1666 0.9590
10.4668 -0.3049 -2.2134 0.9581
10.5025 2.5545 -2.2848 0.9568
7.6927 3.4084 -1.7785 0.9662
5.8465 3.9617 -1.4928 0.9715
5.0730 4.1427 -1.3845 0.9736
3.4144 4.7999 -1.2451 0.9762
2.2843 4.8544 -1.1340 0.9783
1.3705 5.1243 -1.1212 0.9785
0.9140 5.2584 -1.1282 0.9784
0.4481 5.3949 -1.1443 0.9781
-0.5507 5.7420 -1.2193 0.9767
-1.1126 5.9502 -1.2796 0.9756
-2.1438 5.6385 -1.2751 0.9756
-4.6960 9.6581 -2.2701 0.9570
-5.4247 9.0128 -2.2236 0.9579
-6.6467 7.5741 -2.1301 0.9596
-8.4916 5.5975 -2.1498 0.9593
-8.7673 4.7166 -2.1044 0.9601
-9.0269 0.4279 -1.9102 0.9637
-8.8809 -0.3720 -1.8789 0.9643
-8.6778 -1.1443 -1.8502 0.9648
-8.1142 -2.5955 -1.8008 0.9658
-7.7605 -3.2703 -1.7801 0.9662
-6.9245 -4.5100 -1.7468 0.9668
-6.4479 -5.0721 -1.7341 0.9670
-5.9357 -5.5940 -1.7241 0.9672
-4.8141 -6.5127 -1.7119 0.9674
-3.5780 -7.2570 -1.7103 0.9675
-2.9223 -7.5607 -1.7134 0.9674
-2.2444 -7.8171 -1.7191 0.9673
-1.5463 -8.0249 -1.7275 0.9671
-0.8302 -8.1826 -1.7385 0.9669
-0.0984 -8.2887 -1.7522 0.9667
0.6466 -8.3415 -1.7685 0.9664
1.4023 -8.3393 -1.7875 0.9660
8.1035 -5.5564 -2.0769 0.9606
8.7488 -4.9146 -2.1211 0.9598
9.3510 -4.2048 -2.1673 0.9589
9.6452 -2.4023 -2.1011 0.9602
10.3583 -0.6807 -2.1943 0.9584
8.1628 3.2657 -1.8584 0.9647
7.0792 3.5943 -1.6782 0.9681
6.1743 3.8628 -1.5395 0.9707
4.6601 4.2340 -1.3309 0.9746
3.5134 4.5759 -1.2195 0.9767
3.1051 4.8921 -1.2248 0.9766
6.4760 -5.7116 -2.0294 0.9651
7.0876 -5.2060 -2.0668 0.9645
7.6662 -4.6401 -2.1061 0.9638
2.3670 -0.9067 -0.5957 0.9896
8.8316 -1.6741 -2.1126 0.9637
9.3388 -0.0827 -2.1949 0.9624
9.4812 0.7638 -2.2355 0.9617
7.4356 3.4764 -1.9291 0.9668
6.4737 3.7633 -1.7599 0.9697
4.9602 4.2210 -1.5307 0.9736
3.2904 4.8299 -1.3735 0.9763
2.7790 4.9823 -1.3408 0.9768
2.2037 4.9405 -1.2714 0.9780
1.7399 5.0743 -1.2607 0.9782
1.2818 5.2137 -1.2618 0.9782
0.8204 5.3617 -1.2748 0.9780
0.3461 5.5214 -1.3002 0.9775
-0.0684 2.5674 -0.6036 0.9895
-1.2603 6.0578 -1.4542 0.9749
-1.8917 6.2399 -1.5324 0.9736
-4.3133 8.4322 -2.2260 0.9618
-7.9403 4.0664 -2.0966 0.9640
-8.2275 2.4984 -2.0208 0.9653
-8.2539 0.9646 -1.9531 0.9664
-8.1770 0.2217 -1.9225 0.9669
-8.0441 -0.5004 -1.8942 0.9674
-7.8585 -1.1987 -1.8683 0.9679
-7.6233 -1.8705 -1.8448 0.9683
-6.6492 -3.7047 -1.7889 0.9692
-5.3298 -5.2309 -1.7551 0.9698
-4.8249 -5.6646 -1.7488 0.9699
-4.2913 -6.0585 -1.7449 0.9700
-0.6093 -7.5196 -1.7731 0.9695
0.0638 -7.6005 -1.7864 0.9693
0.7474 -7.6313 -1.8021 0.9690
2.1354 -7.5365 -1.8410 0.9683
3.5302 -7.2234 -1.8896 0.9675
4.2213 -6.9816 -1.9174 0.9670
5.5698 -6.3212 -1.9801 0.9660
6.2178 -5.9010 -2.0147 0.9654
6.8411 -5.4202 -2.0513 0.9648
7.4339 -4.8788 -2.0898 0.9641
7.9900 -4.2777 -2.1300 0.9634
8.6951 -1.9794 -2.0958 0.9640
9.2582 -0.4202 -2.1781 0.9626
9.1615 2.9508 -2.2621 0.9612
5.9808 3.9126 -1.6797 0.9711
5.2377 4.1373 -1.5687 0.9729
3.5075 4.7651 -1.3906 0.9760
2.9852 4.9209 -1.3527 0.9766
2.3972 4.8869 -1.2793 0.9779
1.9284 5.0191 -1.2637 0.9781
0.5423 5.4544 -1.2882 0.9777
0.0262 2.6541 -0.6238 0.9892
-0.4622 5.8101 -1.3698 0.9763
-1.6254 6.1632 -1.4980 0.9741
-1.9374 5.3558 -1.3386 0.9769
-4.0323 8.6474 -2.2424 0.9616
-5.3034 7.5108 -2.1609 0.9629
-6.3034 6.2048 -2.0787 0.9643
-7.0248 4.7960 -1.9991 0.9657
-2.8071 1.2555 -0.7227 0.9874
-8.2614 2.0399 -1.9999 0.9656
-8.2686 1.2737 -1.9662 0.9662
-8.2154 0.5233 -1.9347 0.9667
-6.4144 -4.0310 -1.7805 0.9694
-5.9881 -4.5550 -1.7682 0.9696
-5.5275 -5.0424 -1.7584 0.9697
-5.0350 -5.4919 -1.7511 0.9698
-3.9634 -6.2722 -1.7437 0.9700
-3.3886 -6.6005 -1.7438 0.9700
-2.1722 -7.1272 -1.7511 0.9698
-1.5348 -7.3232 -1.7585 0.9697
-0.8809 -7.4723 -1.7683 0.9696
-0.2130 -7.5734 -1.7806 0.9693
0.4667 -7.6249 -1.7954 0.9691
1.8501 -7.5733 -1.8322 0.9685
2.5480 -7.4672 -1.8543 0.9681
3.2457 -7.3058 -1.8788 0.9677
3.9395 -7.0875 -1.9058 0.9672
5.9554 -6.0802 -2.0003 0.9656
6.5895 -5.6242 -2.0361 0.9650
8.2986 -3.8948 -2.1545 0.9630
8.1502 -2.9711 -2.0388 0.9650
8.8890 -1.5359 -2.1201 0.9636
9.1653 -0.7519 -2.1613 0.9629
8.3701 3.1920 -2.1054 0.9639
6.3170 3.8108 -1.7339 0.9701
5.5296 4.0491 -1.6107 0.9722
4.2183 4.4358 -1.4386 0.9752
3.6299 4.5720 -1.3720 0.9763
3.1955 4.8582 -1.3666 0.9764
2.5940 4.8335 -1.2893 0.9777
2.1184 4.9646 -1.2686 0.9781
1.6564 5.0992 -1.2601 0.9782
0.1269 2.7346 -0.6434 0.9888
-1.7635 5.4941 -1.3561 0.9766
-4.4349 8.3334 -2.2186 0.9620
-5.0649 7.7594 -2.1777 0.9626
-5.6277 7.1394 -2.1365 0.9633
-6.1215 6.4823 -2.0954 0.9640
-6.5455 5.7964 -2.0548 0.9647
-6.8998 5.0895 -2.0150 0.9654
-8.1428 3.1379 -2.0509 0.9648
-8.2731 1.5855 -1.9798 0.9660
-8.2442 0.8281 -1.9473 0.9665
-8.1569 0.0887 -1.9172 0.9670
-7.8193 -1.3230 -1.8638 0.9679
-7.5754 -1.9896 -1.8408 0.9683
-7.2853 -2.6271 -1.8201 0.9687
-5.7199 -4.8476 -1.7621 0.9697
-5.2401 -5.3127 -1.7538 0.9698
-1.7976 -7.2486 -1.7552 0.9698
-1.1502 -7.4171 -1.7640 0.9696
0.1874 -7.6099 -1.7890 0.9692
1.5654 -7.6010 -1.8239 0.9686
3.6565 -7.1837 -1.8945 0.9674
5.6893 -6.2492 -1.9862 0.9659
6.3332 -5.8180 -2.0212 0.9653
7.5380 -4.7739 -2.0970 0.9640
8.3921 -2.5669 -2.0625 0.9646
9.5284 2.3176 -2.3047 0.9605
5.8379 3.9559 -1.6574 0.9714
5.1126 4.1750 -1.5513 0.9732
3.4102 4.7941 -1.3827 0.9761
2.8931 4.9483 -1.3472 0.9767
1.8444 5.0435 -1.2621 0.9782
1.3858 5.1814 -1.2606 0.9782
0.9260 5.3272 -1.2708 0.9780
0.4554 5.4839 -1.2933 0.9776
-0.0164 2.5744 -0.6051 0.9895
-1.7424 6.1969 -1.5129 0.9739
-2.0409 5.3679 -1.3497 0.9767
-4.1586 8.5529 -2.2351 0.9617
-7.0767 4.6648 -1.9920 0.9658
-7.8902 4.2447 -2.1057 0.9639
-8.0837 3.4590 -2.0665 0.9645
-8.2673 1.8996 -1.9936 0.9657
-8.1995 0.3887 -1.9292 0.9668
-8.0790 -0.3384 -1.9004 0.9673
-7.9051 -1.0424 -1.8740 0.9678
-7.4094 -2.3700 -1.8283 0.9685
-7.0934 -2.9892 -1.8091 0.9689
-6.7359 -3.5761 -1.7924 0.9691
-6.3395 -4.1290 -1.7781 0.9694
-5.9068 -4.6465 -1.7663 0.9696
-4.9421 -5.5695 -1.7500 0.9699
-4.4149 -5.9726 -1.7456 0.9699
-3.2815 -6.6556 -1.7440 0.9700
-2.6798 -6.9331 -1.7469 0.9699
-1.4170 -7.3538 -1.7601 0.9697
1.9770 -7.5580 -1.8361 0.9684
2.6751 -7.4420 -1.8586 0.9680
3.3724 -7.2703 -1.8836 0.9676
4.7490 -6.7545 -1.9406 0.9666
6.0726 -6.0017 -2.0066 0.9655
7.3023 -5.0070 -2.0809 0.9643
8.9443 -1.3963 -2.1276 0.9635
9.5129 1.0782 -2.2501 0.9614
6.1649 3.8569 -1.7091 0.9706
3.5289 4.5962 -1.3619 0.9765
3.1014 4.8863 -1.3602 0.9765
5.3274 -5.6187 -2.0047 0.9685
6.9621 -4.2140 -2.1071 0.9669
7.4385 -3.6396 -2.1441 0.9664
2.3679 -0.9070 -0.6565 0.9896
7.6590 -2.1740 -2.0614 0.9676
8.2057 -0.8075 -2.1349 0.9665
8.3864 -0.0743 -2.1715 0.9659
8.4973 2.2501 -2.2759 0.9643
6.4634 3.7573 -1.9357 0.9696
4.9534 4.2152 -1.6840 0.9735
3.7556 4.5758 -1.5327 0.9758
2.7757 4.9764 -1.4753 0.9767
1.7696 5.1611 -1.4127 0.9777
0.8328 5.4426 -1.4256 0.9775
0.3500 5.5836 -1.4485 0.9771
-0.6849 5.8842 -1.5338 0.9758
-1.8891 6.2313 -1.6859 0.9735
-4.4519 7.0683 -2.1628 0.9661
-5.8494 5.3519 -2.0528 0.9678
-6.1925 4.7249 -2.0168 0.9683
-7.2029 3.6887 -2.0953 0.9671
-7.3879 2.9856 -2.0632 0.9676
-7.4997 2.2774 -2.0294 0.9681
-7.5517 1.5747 -1.9973 0.9686
-7.5462 0.8819 -1.9671 0.9691
-7.4859 0.2030 -1.9389 0.9695
-7.3735 -0.4587 -1.9128 0.9699
-7.0029 -1.7183 -1.8670 0.9706
-6.7503 -2.3110 -1.8474 0.9709
-6.4562 -2.8761 -1.8300 0.9712
-4.9155 -4.8243 -1.7833 0.9719
-3.4430 -5.9163 -1.7723 0.9721
-2.9036 -6.2029 -1.7733 0.9721
-1.7650 -6.6527 -1.7821 0.9720
-0.5615 -6.9296 -1.8001 0.9717
0.0587 -7.0001 -1.8125 0.9715
1.9620 -6.9244 -1.8634 0.9707
3.2365 -6.6225 -1.9085 0.9700
5.0862 -5.7724 -1.9920 0.9687
6.2277 -4.9341 -2.0572 0.9677
6.7560 -4.4339 -2.0923 0.9672
7.2486 -3.8807 -2.1288 0.9666
7.6814 -3.2686 -2.1614 0.9661
8.5230 1.9270 -2.2624 0.9645
8.4365 2.7173 -2.2949 0.9640
7.8683 3.3344 -2.2126 0.9653
4.5752 4.3293 -1.6309 0.9743
3.9835 4.5074 -1.5575 0.9755
1.0265 5.3858 -1.4196 0.9776
0.5494 5.5255 -1.4377 0.9773
-0.2197 2.7617 -0.7173 0.9886
-1.0181 5.9805 -1.5707 0.9752
-3.6131 7.7484 -2.2136 0.9653
-4.2198 7.2758 -2.1777 0.9658
-4.7700 6.7555 -2.1412 0.9664
-5.2611 6.1952 -2.1044 0.9670
-5.6913 5.6022 -2.0677 0.9675
-6.0597 4.9837 -2.0314 0.9681
-6.3663 4.3464 -1.9959 0.9687
-2.8058 1.2549 -0.7958 0.9874
-7.4614 2.5667 -2.0430 0.9679
-7.5375 1.8612 -2.0102 0.9684
-7.5552 1.1639 -1.9793 0.9689
-7.5170 0.4788 -1.9502 0.9694
-7.4256 -0.1904 -1.9232 0.9698
-7.2836 -0.8404 -1.8984 0.9702
-6.2639 -3.1963 -1.8208 0.9714
-5.0971 -4.6498 -1.7864 0.9719
-4.1637 -5.4456 -1.7749 0.9721
-3.6571 -5.7876 -1.7726 0.9721
-2.5749 -6.3532 -1.7749 0.9721
-2.0037 -6.5744 -1.7795 0.9720
-1.4153 -6.7529 -1.7864 0.9719
-0.8120 -6.8875 -1.7956 0.9718
-0.1962 -6.9768 -1.8071 0.9716
0.4296 -7.0197 -1.8209 0.9714
1.0628 -7.0148 -1.8370 0.9711
2.3397 -6.8567 -1.8758 0.9705
5.4335 -5.5474 -2.0105 0.9684
6.0026 -5.1233 -2.0433 0.9679
7.0518 -4.1133 -2.1137 0.9668
7.3725 -2.6876 -2.0318 0.9681
7.7181 -2.0559 -2.0680 0.9675
8.5108 0.8249 -2.2139 0.9653
8.5353 1.6049 -2.2487 0.9648
7.2360 3.5273 -2.0843 0.9673
6.3071 3.8048 -1.9072 0.9700
5.5216 4.0432 -1.7719 0.9721
4.2190 4.4366 -1.5852 0.9750
3.6565 4.6056 -1.5226 0.9760
3.1916 4.8524 -1.5038 0.9763
1.6847 5.1864 -1.4119 0.9777
0.7460 5.4680 -1.4289 0.9775
0.1261 2.7170 -0.7042 0.9888
-0.1103 2.5705 -0.6662 0.9894
-0.7858 5.9134 -1.5445 0.9757
-1.7642 5.4965 -1.4947 0.9764
-3.9783 7.4753 -2.1925 0.9656
-5.0675 6.4287 -2.1195 0.9667
-5.5227 5.8482 -2.0827 0.9673
-5.9164 5.2393 -2.0462 0.9679
-6.5187 3.9635 -1.9753 0.9690
-7.4128 2.8566 -2.0569 0.9677
-7.5136 2.1491 -2.0234 0.9682
-7.5549 1.4478 -1.9917 0.9687
-7.3476 -0.5770 -1.9083 0.9700
-6.9602 -1.8281 -1.8632 0.9707
-6.6998 -2.4159 -1.8440 0.9710
-6.0586 -3.5057 -1.8124 0.9715
-5.6829 -4.0041 -1.8000 0.9717
-5.2737 -4.4694 -1.7898 0.9718
-4.3636 -5.2948 -1.7765 0.9720
-2.8032 -6.2507 -1.7737 0.9721
-2.2396 -6.4890 -1.7774 0.9720
-1.0604 -6.8379 -1.7916 0.9718
-0.4494 -6.9458 -1.8022 0.9717
0.1726 -7.0079 -1.8150 0.9715
2.7169 -6.7711 -1.8890 0.9703
3.9787 -6.3454 -1.9392 0.9695
5.1939 -5.7051 -1.9976 0.9686
6.3262 -4.8471 -2.0635 0.9676
2.3498 -0.9551 -0.6567 0.9896
7.5829 -2.3194 -2.0531 0.9678
8.4791 0.5104 -2.1994 0.9655
8.5345 1.2842 -2.2346 0.9650
8.5132 2.0706 -2.2685 0.9644
8.4120 2.8610 -2.3005 0.9640
7.6655 3.3963 -2.1708 0.9660
5.1055 4.1692 -1.7067 0.9731
4.4634 4.3630 -1.6161 0.9745
3.8812 4.5381 -1.5461 0.9756
2.8896 4.9424 -1.4824 0.9766
2.3505 4.9952 -1.4294 0.9774
1.4095 5.2701 -1.4125 0.9777
0.4611 5.5512 -1.4423 0.9772
-0.0163 2.5579 -0.6623 0.9895
-0.5609 5.8483 -1.5212 0.9760
-1.1240 6.0111 -1.5834 0.9750
-1.7400 6.1884 -1.6644 0.9738
-6.1200 4.8690 -2.0249 0.9682
-6.4154 4.2289 -1.9895 0.9687
-7.3540 3.1467 -2.0711 0.9675
-7.5450 1.7336 -2.0044 0.9685
-7.5524 1.0382 -1.9738 0.9690
-7.5043 0.3557 -1.9452 0.9694
-7.0543 -1.5800 -1.8717 0.9706
-6.2021 -3.2927 -1.8181 0.9714
-5.4450 -4.2832 -1.7937 0.9718
-2.4724 -6.3966 -1.7756 0.9721
-1.3066 -6.7807 -1.7879 0.9719
-0.0830 -6.9881 -1.8095 0.9715
1.1786 -7.0086 -1.8401 0.9711
2.4559 -6.8323 -1.8798 0.9704
3.0927 -6.6673 -1.9030 0.9701
4.9509 -5.8538 -1.9850 0.9688
7.5932 -3.4144 -2.1556 0.9662
7.7754 -1.9366 -2.0747 0.9674
8.0573 -1.2578 -2.1114 0.9669
8.2791 -0.5441 -2.1482 0.9663
8.4353 0.1993 -2.1847 0.9657
8.4632 2.5378 -2.2877 0.9642
8.1327 3.2537 -2.2680 0.9645
7.0556 3.5823 -2.0488 0.9678
6.1554 3.8509 -1.8799 0.9704
4.7177 4.2863 -1.6504 0.9740
4.1132 4.4684 -1.5725 0.9752
3.5587 4.6349 -1.5130 0.9761
3.0977 4.8804 -1.4967 0.9764
4.3531 -5.4996 -1.9856 0.9713
5.4146 -4.7755 -2.0438 0.9704
5.9080 -4.3396 -2.0752 0.9700
7.2396 -1.3723 -2.0860 0.9698
7.4499 -0.7331 -2.1192 0.9694
7.6019 -0.0673 -2.1521 0.9689
7.6914 0.6196 -2.1844 0.9684
7.5498 2.7396 -2.2737 0.9672
7.3584 3.4403 -2.2995 0.9668
6.4530 3.7513 -2.1131 0.9694
5.6478 3.9965 -1.9587 0.9716
1.7694 5.1605 -1.5444 0.9776
0.9011 3.6650 -1.0684 0.9844
-0.6840 5.8768 -1.6749 0.9757
-1.2570 6.0419 -1.7470 0.9747
-1.8865 6.2226 -1.8407 0.9733
-2.1813 5.4048 -1.6500 0.9761
-4.0370 6.4095 -2.1444 0.9690
-4.5214 5.9314 -2.1114 0.9695
-5.9169 3.7305 -1.9802 0.9713
-6.1277 3.1381 -1.9490 0.9718
-6.8837 2.0904 -2.0366 0.9705
-6.9404 1.4473 -2.0070 0.9710
-6.9439 0.8115 -1.9791 0.9714
-6.8963 0.1870 -1.9530 0.9717
-6.7999 -0.4230 -1.9287 0.9721
-6.6571 -1.0155 -1.9064 0.9724
-6.2418 -2.1369 -1.8677 0.9729
-5.9741 -2.6613 -1.8514 0.9732
-5.6695 -3.1588 -1.8373 0.9734
-5.3303 -3.6276 -1.8253 0.9736
-4.5571 -4.4726 -1.8076 0.9738
-4.1276 -4.8459 -1.8020 0.9739
-3.6723 -5.1846 -1.7986 0.9739
-3.1934 -5.4874 -1.7973 0.9740
-1.0846 -6.3149 -1.8139 0.9737
0.6366 -6.4998 -1.8488 0.9732
1.8130 -6.3986 -1.8827 0.9727
2.4013 -6.2776 -1.9027 0.9724
2.9853 -6.1084 -1.9247 0.9721
3.5616 -5.8905 -1.9487 0.9718
5.2048 -4.9396 -2.0314 0.9706
5.7097 -4.5238 -2.0622 0.9702
6.1853 -4.0593 -2.0944 0.9697
6.6265 -3.5477 -2.1279 0.9692
7.6626 0.3365 -2.1713 0.9686
7.6956 1.7400 -2.2336 0.9677
6.8273 3.6423 -2.1906 0.9683
5.9627 3.9007 -2.0171 0.9708
5.2228 4.1255 -1.8842 0.9727
4.5690 4.3235 -1.7808 0.9742
1.0253 5.3795 -1.5503 0.9775
0.5487 5.5189 -1.5701 0.9772
-1.6210 6.1465 -1.7995 0.9739
-3.2692 7.0109 -2.1899 0.9684
-3.8241 6.5934 -2.1578 0.9688
-5.1821 5.1010 -2.0585 0.9702
-5.5262 4.5450 -2.0256 0.9707
-5.8148 3.9699 -1.9932 0.9712
-2.8044 1.2543 -0.8697 0.9873
-6.8447 2.3546 -2.0491 0.9704
-6.9218 0.4409 -1.9635 0.9716
-6.7209 -0.7754 -1.9153 0.9723
-6.5518 -1.3562 -1.8941 0.9726
-6.0882 -2.4500 -1.8578 0.9731
-5.7984 -2.9587 -1.8428 0.9733
-5.4731 -3.4394 -1.8299 0.9735
-4.7249 -4.3103 -1.8105 0.9738
-4.3065 -4.6973 -1.8041 0.9739
-3.8615 -5.0504 -1.7998 0.9739
-3.3920 -5.3680 -1.7976 0.9739
-2.3880 -5.8920 -1.7998 0.9739
-1.8579 -6.0960 -1.8041 0.9739
-1.3119 -6.2598 -1.8106 0.9738
0.3977 -6.4979 -1.8430 0.9733
0.9832 -6.4891 -1.8580 0.9731
2.1610 -6.3328 -1.8943 0.9726
3.3271 -5.9856 -1.9386 0.9719
3.8970 -5.7385 -1.9637 0.9716
4.4530 -5.4419 -1.9906 0.9712
5.5065 -4.6998 -2.0494 0.9704
6.4505 -3.7626 -2.1140 0.9694
7.2820 -1.2582 -2.0920 0.9697
7.4820 -0.6138 -2.1252 0.9693
7.6230 0.0563 -2.1581 0.9688
7.7007 0.7464 -2.1902 0.9683
7.7113 1.4499 -2.2213 0.9679
7.6519 2.1598 -2.2508 0.9675
7.2235 3.5212 -2.2749 0.9671
6.2972 3.7988 -2.0819 0.9699
4.2135 4.4308 -1.7309 0.9749
3.6519 4.5997 -1.6627 0.9759
3.1877 4.8464 -1.6422 0.9762
2.6322 4.9047 -1.5758 0.9771
1.6844 5.1856 -1.5435 0.9776
0.7452 5.4615 -1.5604 0.9773
-0.1093 2.5484 -0.7221 0.9895
-0.7848 5.9059 -1.6866 0.9755
-2.7317 6.4642 -1.9867 0.9712
-3.6029 6.7699 -2.1710 0.9686
-4.1289 6.3255 -2.1384 0.9691
-5.0254 5.3216 -2.0721 0.9700
-5.3922 4.7750 -2.0390 0.9705
-5.7034 4.2071 -2.0063 0.9710
-5.9593 3.6234 -1.9744 0.9714
-6.7964 2.6190 -2.0619 0.9702
-6.9449 1.3309 -2.0018 0.9710
-6.9389 0.6970 -1.9742 0.9714
-6.8823 0.0748 -1.9484 0.9718
-6.6263 -1.1211 -1.9025 0.9724
-6.4317 -1.6893 -1.8825 0.9727
-6.1959 -2.2342 -1.8646 0.9730
-5.9213 -2.7539 -1.8487 0.9732
-5.6102 -3.2463 -1.8349 0.9734
-4.4810 -4.5431 -1.8065 0.9738
-4.0466 -4.9102 -1.8013 0.9739
-3.1039 -5.5385 -1.7973 0.9740
-1.5370 -6.1978 -1.8077 0.9738
-0.4163 -6.4345 -1.8254 0.9736
0.1598 -6.4885 -1.8374 0.9734
1.9202 -6.3801 -1.8862 0.9727
2.5079 -6.2504 -1.9066 0.9724
3.6653 -5.8455 -1.9532 0.9717
4.2275 -5.5692 -1.9794 0.9714
5.2986 -4.8676 -2.0369 0.9705
5.7985 -4.4428 -2.0680 0.9701
6.2683 -3.9697 -2.1004 0.9696
6.9088 -2.1132 -2.0453 0.9704
7.1842 -1.5132 -2.0784 0.9699
7.4071 -0.8808 -2.1117 0.9695
7.6768 0.4621 -2.1772 0.9685
7.5830 2.5790 -2.2675 0.9673
7.4083 3.2823 -2.2939 0.9669
4.4574 4.3572 -1.7646 0.9744
3.8763 4.5323 -1.6883 0.9755
2.8861 4.9365 -1.6188 0.9765
1.8594 5.0847 -1.5327 0.9777
1.4087 5.2668 -1.5434 0.9776
0.9395 5.4046 -1.5530 0.9775
-0.5602 5.8410 -1.6611 0.9759
-1.1225 6.0032 -1.7289 0.9749
-1.7376 6.1799 -1.8173 0.9737
-2.0355 5.3536 -1.6214 0.9765
-3.9198 6.5125 -2.1518 0.9689
-4.8595 5.5375 -2.0857 0.9698
-5.8613 3.8637 -1.9874 0.9712
-2.8851 1.2345 -0.8884 0.9870
-6.9323 1.5928 -2.0136 0.9709
-6.5164 -1.4595 -1.8905 0.9726
-6.0382 -2.5445 -1.8549 0.9731
-5.4102 -3.5237 -1.8278 0.9735
-3.7778 -5.1108 -1.7992 0.9739
-3.3041 -5.4218 -1.7974 0.9740
-2.8084 -5.6960 -1.7978 0.9739
-1.7597 -6.1289 -1.8051 0.9738
-1.2111 -6.2852 -1.8120 0.9737
-0.0769 -6.4717 -1.8322 0.9735
0.5038 -6.4997 -1.8455 0.9733
1.6791 -6.4195 -1.8784 0.9728
3.4316 -5.9443 -1.9431 0.9719
4.5524 -5.3826 -1.9957 0.9711
5.0866 -5.0272 -2.0246 0.9707
5.5974 -4.6225 -2.0551 0.9703
6.0801 -4.1690 -2.0870 0.9698
6.9279 -3.1152 -2.1504 0.9689
6.7822 -2.3484 -2.0318 0.9706
7.5122 -0.4937 -2.1312 0.9692
7.6420 0.1805 -2.1640 0.9687
7.6334 2.2890 -2.2560 0.9674
7.0436 3.5762 -2.2363 0.9677
5.3823 4.0771 -1.9115 0.9723
4.7113 4.2805 -1.8020 0.9739
4.1079 4.4626 -1.7171 0.9751
3.5542 4.6291 -1.6522 0.9760
3.0939 4.8745 -1.6344 0.9763
2.5441 4.9309 -1.5707 0.9772
3.5131 -5.3583 -1.9707 0.9735
4.0265 -5.0870 -1.9955 0.9732
5.4463 -4.0005 -2.0785 0.9721
5.8651 -3.5500 -2.1087 0.9717
7.0289 1.2038 -2.1934 0.9706
6.6820 3.1241 -2.2688 0.9696
6.4356 3.7412 -2.2896 0.9693
4.9395 4.2033 -1.9949 0.9732
4.3151 4.3925 -1.8939 0.9746
3.2783 4.8122 -1.7909 0.9759
2.7690 4.9644 -1.7484 0.9765
2.2370 5.0153 -1.6891 0.9773
0.8308 5.4296 -1.6895 0.9773
-1.2553 6.0338 -1.8956 0.9745
-1.8838 6.2138 -1.9971 0.9732
-3.6888 5.8567 -2.1289 0.9714
-4.5377 4.9641 -2.0686 0.9722
-5.1911 3.9609 -2.0084 0.9730
-5.4425 3.4314 -1.9789 0.9734
-5.6436 2.8902 -1.9502 0.9738
-6.4145 1.3376 -2.0154 0.9730
-6.3867 0.1732 -1.9651 0.9736
-6.3033 -0.3921 -1.9425 0.9739
-6.1761 -0.9421 -1.9216 0.9742
-5.5540 -2.4742 -1.8701 0.9749
-4.2438 -4.1651 -1.8289 0.9754
-3.8446 -4.5137 -1.8237 0.9755
-3.4209 -4.8298 -1.8204 0.9755
-2.9750 -5.1121 -1.8192 0.9756
-2.5087 -5.3593 -1.8201 0.9755
-1.5239 -5.7441 -1.8279 0.9754
2.2281 -5.8248 -1.9182 0.9742
3.8184 -5.2035 -1.9852 0.9734
4.3220 -4.9051 -2.0108 0.9730
4.8060 -4.5612 -2.0380 0.9727
5.2661 -4.1723 -2.0665 0.9723
6.0966 -3.2640 -2.1270 0.9715
2.3885 -1.0164 -0.7984 0.9892
6.5412 -1.4891 -2.0634 0.9723
6.7455 -0.9134 -2.0937 0.9719
7.0314 0.9416 -2.1820 0.9707
7.0067 1.5842 -2.2095 0.9704
6.7639 2.8664 -2.2595 0.9697
6.5442 3.4913 -2.2814 0.9694
5.2153 4.1196 -2.0442 0.9726
4.5628 4.3176 -1.9321 0.9741
3.9731 4.4957 -1.8454 0.9752
3.4944 4.7473 -1.8131 0.9756
2.9744 4.9031 -1.7639 0.9763
2.4319 4.9574 -1.6984 0.9772
1.4918 5.2356 -1.6745 0.9775
0.5481 5.5122 -1.7038 0.9771
0.0261 2.6458 -0.8138 0.9890
-0.2163 2.7191 -0.8390 0.9886
-1.6188 6.1380 -1.9525 0.9738
-1.9317 5.3400 -1.7466 0.9765
-3.4923 6.0215 -2.1410 0.9713
-4.7515 4.6772 -2.0507 0.9725
-5.5674 3.1127 -1.9619 0.9737
-2.8031 1.2537 -0.9445 0.9872
-6.4263 0.9899 -1.9999 0.9732
-6.4078 0.4081 -1.9749 0.9735
-6.3428 -0.1626 -1.9515 0.9738
-6.0813 -1.2588 -1.9101 0.9743
-5.8891 -1.7789 -1.8922 0.9746
-5.6587 -2.2771 -1.8761 0.9748
-5.3924 -2.7516 -1.8620 0.9750
-5.0924 -3.2002 -1.8499 0.9751
-4.0109 -4.3749 -1.8256 0.9755
-3.5970 -4.7045 -1.8215 0.9755
-3.1599 -5.0007 -1.8195 0.9755
-2.7017 -5.2625 -1.8195 0.9755
2.0057 -5.8780 -1.9103 0.9743
2.5478 -5.7348 -1.9301 0.9741
3.6076 -5.3124 -1.9751 0.9735
4.1182 -5.0327 -2.0001 0.9732
4.6107 -4.7073 -2.0267 0.9728
5.0811 -4.3367 -2.0547 0.9724
5.9377 -3.4635 -2.1143 0.9716
6.3044 -2.9589 -2.1421 0.9713
6.1729 -2.2503 -2.0209 0.9729
6.4435 -1.7164 -2.0510 0.9725
6.9617 0.0514 -2.1413 0.9713
7.0245 1.3208 -2.1984 0.9705
6.9621 1.9651 -2.2251 0.9702
6.8349 2.6066 -2.2500 0.9699
5.5053 4.0313 -2.0988 0.9718
4.2079 4.4249 -1.8782 0.9748
3.1837 4.8405 -1.7820 0.9760
2.6290 4.8987 -1.7100 0.9770
0.8249 3.6069 -1.1381 0.9846
0.7443 5.4550 -1.6934 0.9772
-1.3649 6.0653 -1.9122 0.9743
-2.7275 6.4544 -2.1552 0.9711
-3.7737 5.7813 -2.1235 0.9715
-4.6053 4.8768 -2.0631 0.9723
-4.9481 4.3818 -2.0329 0.9727
-5.4828 3.3337 -1.9736 0.9735
-2.7788 1.3666 -0.9525 0.9871
-6.2569 2.4111 -2.0624 0.9723
-6.4199 1.2303 -2.0106 0.9730
-6.4211 0.6450 -1.9849 0.9734
-6.3749 0.0693 -1.9609 0.9737
-6.1485 -1.0403 -1.9180 0.9742
-5.9724 -1.5686 -1.8993 0.9745
-5.5055 -2.5605 -1.8676 0.9749
-5.2191 -3.0199 -1.8546 0.9751
-4.9001 -3.4525 -1.8437 0.9752
-3.7693 -4.5736 -1.8229 0.9755
-2.8916 -5.1597 -1.8192 0.9756
-2.4219 -5.4005 -1.8204 0.9755
-1.4313 -5.7716 -1.8290 0.9754
-0.9149 -5.8997 -1.8363 0.9753
-0.3875 -5.9880 -1.8456 0.9752
0.1487 -6.0355 -1.8570 0.9751
0.6909 -6.0413 -1.8703 0.9749
1.2365 -6.0043 -1.8855 0.9747
2.3267 -5.7988 -1.9218 0.9742
2.8651 -5.6289 -1.9427 0.9739
3.3945 -5.4136 -1.9654 0.9736
3.9113 -5.1526 -1.9897 0.9733
4.4117 -4.8459 -2.0156 0.9729
4.8916 -4.4937 -2.0431 0.9726
5.3469 -4.0968 -2.0718 0.9722
5.7729 -3.6560 -2.1018 0.9718
2.3469 -0.9540 -0.7792 0.9895
6.3382 -1.9387 -2.0387 0.9726
6.5821 -1.3864 -2.0689 0.9722
6.9195 -0.2015 -2.1292 0.9714
6.9954 1.7015 -2.2144 0.9703
6.8949 2.3450 -2.2400 0.9700
5.0910 4.1573 -2.0217 0.9729
3.3976 4.7764 -1.8029 0.9758
2.3449 4.9833 -1.6940 0.9772
1.8572 5.0786 -1.6633 0.9776
1.4070 5.2606 -1.6749 0.9775
0.9383 5.3982 -1.6853 0.9773
0.4600 5.5379 -1.7092 0.9770
-1.1210 5.9953 -1.8760 0.9748
-1.7352 6.1713 -1.9718 0.9735
-3.0778 6.3300 -2.1649 0.9710
-4.4509 5.0719 -2.0755 0.9722
-2.8750 1.2302 -0.9619 0.9870
-6.4054 1.4718 -2.0215 0.9729
-6.3994 0.3034 -1.9705 0.9735
-6.3261 -0.2650 -1.9475 0.9739
-6.2087 -0.8187 -1.9262 0.9741
-6.0493 -1.3549 -1.9067 0.9744
-5.6129 -2.3653 -1.8734 0.9748
-5.0343 -3.2789 -1.8479 0.9752
-3.9375 -4.4373 -1.8247 0.9755
-3.0781 -5.0510 -1.8193 0.9756
-2.1358 -5.5257 -1.8221 0.9755
-1.1276 -5.8520 -1.8331 0.9754
-0.6044 -5.9567 -1.8416 0.9753
1.0131 -6.0246 -1.8791 0.9748
1.5595 -5.9620 -1.8955 0.9745
2.1047 -5.8553 -1.9138 0.9743
2.6458 -5.7039 -1.9339 0.9740
3.7016 -5.2649 -1.9796 0.9734
4.2092 -4.9769 -2.0049 0.9731
4.6981 -4.6432 -2.0317 0.9727
5.1639 -4.2645 -2.0599 0.9724
6.4880 -1.6159 -2.0565 0.9724
6.8679 -0.4513 -2.1170 0.9716
6.9773 0.1648 -2.1467 0.9712
7.0283 0.7966 -2.1756 0.9708
7.0179 1.4379 -2.2034 0.9705
6.9439 2.0822 -2.2297 0.9701
6.8047 2.7224 -2.2543 0.9698
6.5999 3.3509 -2.2766 0.9695
4.7048 4.2746 -1.9552 0.9737
4.1025 4.4567 -1.8631 0.9750
3.0901 4.8685 -1.7736 0.9762
4.1990 -4.4285 -2.0286 0.9746
5.0465 -3.7068 -2.0814 0.9740
6.1098 -1.1581 -2.0671 0.9741
6.4436 0.5191 -2.1488 0.9731
6.4480 1.1043 -2.1745 0.9728
6.3950 1.6934 -2.1990 0.9725
6.1123 2.8577 -2.2429 0.9720
5.5944 3.9586 -2.2781 0.9715
3.2257 4.7350 -1.9045 0.9761
2.7656 4.9583 -1.8872 0.9764
0.8298 5.4231 -1.8236 0.9771
0.3487 5.5634 -1.8529 0.9768
-0.0669 2.5104 -0.8348 0.9895
-1.8811 6.2049 -2.1553 0.9730
-3.3921 5.3857 -2.1157 0.9735
-4.1823 4.5753 -2.0605 0.9742
-4.5116 4.1279 -2.0327 0.9746
-5.0333 3.1734 -1.9779 0.9752
-5.2250 2.6758 -1.9513 0.9756
-5.3708 2.1705 -1.9256 0.9759
-5.9416 0.1611 -1.9757 0.9753
-5.8687 -0.3651 -1.9545 0.9755
-5.7546 -0.8778 -1.9350 0.9758
-5.4104 -1.8523 -1.9009 0.9762
-5.1844 -2.3095 -1.8866 0.9764
-3.9672 -3.8936 -1.8477 0.9768
-3.1990 -4.5163 -1.8397 0.9769
-2.3459 -5.0116 -1.8394 0.9769
-1.8928 -5.2084 -1.8421 0.9769
-0.9437 -5.4949 -1.8533 0.9768
0.0472 -5.6317 -1.8721 0.9765
1.5698 -5.5404 -1.9142 0.9760
2.5772 -5.2734 -1.9511 0.9756
3.0695 -5.0766 -1.9720 0.9753
4.0143 -4.5558 -2.0184 0.9747
5.2762 -3.4627 -2.0978 0.9737
2.3650 -1.0063 -0.8543 0.9892
6.2113 -0.8411 -2.0835 0.9739
6.3442 -0.2879 -2.1110 0.9736
6.4258 0.2822 -2.1380 0.9733
6.4530 0.8641 -2.1642 0.9729
6.3361 2.0408 -2.2127 0.9723
4.5565 4.3116 -2.0852 0.9739
3.9679 4.4898 -1.9917 0.9751
2.9708 4.8970 -1.9039 0.9761
2.4289 4.9514 -1.8332 0.9770
1.9563 5.0917 -1.8131 0.9773
1.4900 5.2294 -1.8075 0.9773
0.5474 5.5055 -1.8391 0.9769
-1.0141 5.9569 -2.0086 0.9749
-1.9297 5.3347 -1.8857 0.9764
-3.2100 5.5347 -2.1268 0.9734
-3.6432 5.1597 -2.0996 0.9737
-4.6849 3.8531 -2.0163 0.9748
-2.8017 1.2530 -1.0202 0.9871
-5.8447 2.0106 -2.0546 0.9743
-5.9375 1.4661 -2.0330 0.9745
-5.9710 0.9198 -2.0082 0.9749
-5.8061 -0.6699 -1.9428 0.9757
-5.2810 -2.1251 -1.8922 0.9763
-5.0350 -2.5692 -1.8790 0.9765
-4.1123 -3.7515 -1.8503 0.9768
-3.7500 -4.0903 -1.8446 0.9769
-2.5265 -4.9211 -1.8388 0.9770
-2.0800 -5.1321 -1.8407 0.9769
-1.6178 -5.3082 -1.8446 0.9769
-1.1419 -5.4482 -1.8504 0.9768
-0.1579 -5.6163 -1.8676 0.9766
0.8528 -5.6287 -1.8924 0.9763
1.3618 -5.5745 -1.9075 0.9761
2.3732 -5.3417 -1.9430 0.9757
2.8694 -5.1622 -1.9632 0.9754
4.7120 -4.0217 -2.0592 0.9742
5.4948 -3.2051 -2.1145 0.9735
5.8239 -2.7333 -2.1385 0.9732
5.6997 -2.0778 -2.0166 0.9748
6.3988 0.0472 -2.1271 0.9734
6.4426 1.2114 -2.1791 0.9727
6.0749 2.9613 -2.2465 0.9719
5.8342 3.5195 -2.2649 0.9717
3.6425 4.5880 -1.9473 0.9756
2.6258 4.8927 -1.8458 0.9769
2.1484 5.0348 -1.8196 0.9772
1.6804 5.1732 -1.8081 0.9773
0.1391 2.9984 -0.9978 0.9874
-0.1085 2.5281 -0.8411 0.9894
-0.7828 5.8905 -1.9752 0.9753
-1.3631 6.0570 -2.0637 0.9742
-3.0214 5.6773 -2.1378 0.9733
-3.8798 4.9219 -2.0832 0.9739
-4.2455 4.4957 -2.0554 0.9743
-4.5667 4.0441 -2.0276 0.9746
-4.8422 3.5718 -2.0001 0.9750
-2.7826 1.3685 -1.0308 0.9870
-5.3925 2.0780 -1.9210 0.9759
-5.9694 0.5996 -1.9942 0.9750
-5.8509 -0.4595 -1.9509 0.9756
-5.7295 -0.9694 -1.9316 0.9758
-5.5692 -1.4627 -1.9140 0.9760
-5.1396 -2.3903 -1.8842 0.9764
-4.8744 -2.8205 -1.8720 0.9765
-4.2532 -3.6045 -1.8532 0.9768
-3.1246 -4.5668 -1.8393 0.9769
-2.7040 -4.8250 -1.8386 0.9770
-2.2647 -5.0500 -1.8397 0.9769
-1.3380 -5.3954 -1.8478 0.9768
1.1536 -5.6016 -1.9011 0.9762
2.6675 -5.2408 -1.9547 0.9755
3.1579 -5.0363 -1.9760 0.9753
4.0969 -4.5001 -2.0229 0.9747
4.9555 -3.7969 -2.0751 0.9740
6.0665 -1.2778 -2.0608 0.9742
6.2391 -0.7419 -2.0885 0.9739
6.3630 -0.1853 -2.1160 0.9735
6.4348 0.3873 -2.1428 0.9732
6.4519 0.9709 -2.1688 0.9729
6.4121 1.5596 -2.1936 0.9726
6.3139 2.1474 -2.2168 0.9723
6.1564 2.7277 -2.2383 0.9720
5.9397 3.2937 -2.2576 0.9718
5.6648 3.8386 -2.2746 0.9716
5.0836 4.1513 -2.1817 0.9727
3.8662 4.5205 -1.9773 0.9752
3.3304 4.6819 -1.9098 0.9761
2.8791 4.9244 -1.8961 0.9762
2.3421 4.9772 -1.8285 0.9771
1.8550 5.0726 -1.7953 0.9775
0.9372 5.3917 -1.8191 0.9772
0.4594 5.5311 -1.8449 0.9769
-0.0162 2.5418 -0.8449 0.9893
-0.5587 5.8260 -1.9455 0.9756
-1.1195 5.9872 -2.0247 0.9747
-3.2918 5.4692 -2.1219 0.9735
-3.7176 5.0877 -2.0945 0.9738
-4.1012 4.6734 -2.0668 0.9741
-4.9834 3.2849 -1.9840 0.9752
-2.8649 1.2259 -1.0358 0.9870
-5.9471 1.3665 -2.0284 0.9746
-5.9522 0.2822 -1.9808 0.9752
-5.7840 -0.7627 -1.9393 0.9757
-5.6393 -1.2631 -1.9210 0.9759
-5.4569 -1.7455 -1.9044 0.9761
-5.2387 -2.2076 -1.8897 0.9763
-4.7030 -3.0631 -1.8657 0.9766
-4.0483 -3.8153 -1.8491 0.9768
-3.6814 -4.1487 -1.8437 0.9769
-2.4465 -4.9621 -1.8390 0.9769
-1.9971 -5.1668 -1.8413 0.9769
-1.0540 -5.4698 -1.8516 0.9768
0.4374 -5.6429 -1.8814 0.9764
1.9616 -5.4571 -1.9276 0.9759
2.9586 -5.1250 -1.9671 0.9754
3.9104 -4.6235 -2.0128 0.9748
4.7879 -3.9540 -2.0641 0.9742
5.8773 -2.6428 -2.1421 0.9732
6.1742 -0.9639 -2.0772 0.9740
6.3184 -0.4152 -2.1048 0.9737
6.4119 0.1515 -2.1319 0.9733
6.4517 0.7312 -2.1583 0.9730
6.3612 1.9075 -2.2075 0.9724
6.2280 2.4917 -2.2297 0.9721
6.0354 3.0643 -2.2500 0.9719
5.7842 3.6187 -2.2680 0.9716
5.3665 4.0651 -2.2379 0.9720
3.0511 -4.6538 -1.9900 0.9766
3.4913 -4.4108 -2.0117 0.9764
4.6965 -3.4497 -2.0839 0.9755
5.3555 -2.6204 -2.1321 0.9750
2.3717 -0.9085 -0.9082 0.9893
5.4712 -1.5530 -2.0338 0.9761
5.8027 -0.5710 -2.0851 0.9755
5.9008 -0.0522 -2.1103 0.9752
5.9503 0.4793 -2.1347 0.9750
5.9488 1.0188 -2.1583 0.9747
5.8948 1.5610 -2.1807 0.9744
5.7872 2.1000 -2.2016 0.9742
5.4102 3.1451 -2.2379 0.9738
5.1424 3.6388 -2.2528 0.9736
3.7362 4.5522 -2.1060 0.9753
2.7109 4.8603 -1.9902 0.9766
2.2316 5.0031 -1.9591 0.9770
1.7631 5.1419 -1.9439 0.9772
0.8288 5.4164 -1.9595 0.9770
0.3483 5.5564 -1.9909 0.9766
-0.0668 2.5061 -0.8965 0.9894
-0.6814 5.8539 -2.1075 0.9753
-1.2512 6.0143 -2.1968 0.9742
-1.7650 5.8219 -2.1755 0.9745
-2.7113 5.3003 -2.1290 0.9750
-3.1361 4.9792 -2.1044 0.9753
-3.5245 4.6237 -2.0791 0.9756
-3.8742 4.2384 -2.0535 0.9759
-4.1835 3.8277 -2.0278 0.9762
-4.4512 3.3963 -2.0022 0.9765
-4.6764 2.9484 -1.9770 0.9768
-4.8591 2.4884 -1.9523 0.9771
-4.9994 2.0204 -1.9283 0.9774
-5.4807 1.6643 -2.0483 0.9760
-5.5545 1.1583 -2.0291 0.9762
-5.4848 -0.3412 -1.9652 0.9769
-5.3817 -0.8209 -1.9468 0.9771
-4.8563 -2.1634 -1.9012 0.9777
-4.6153 -2.5715 -1.8894 0.9778
-4.3445 -2.9567 -1.8793 0.9779
-3.7210 -3.6520 -1.8645 0.9781
-3.3721 -3.9590 -1.8597 0.9782
-2.6102 -4.4852 -1.8558 0.9782
-2.2010 -4.7019 -1.8565 0.9782
-1.7756 -4.8861 -1.8591 0.9782
0.0443 -5.2779 -1.8875 0.9778
0.9934 -5.2543 -1.9123 0.9775
1.9419 -5.0767 -1.9438 0.9772
2.4089 -4.9291 -1.9619 0.9770
2.8671 -4.7418 -1.9816 0.9767
4.1555 -3.9437 -2.0487 0.9760
4.5446 -3.6007 -2.0735 0.9757
2.3587 -1.0037 -0.9167 0.9892
5.7491 -0.7785 -2.0747 0.9757
5.8664 -0.2663 -2.1000 0.9754
5.9361 0.2607 -2.1248 0.9751
5.9557 0.7975 -2.1488 0.9748
5.8377 1.8803 -2.1932 0.9743
5.6982 2.4148 -2.2131 0.9741
5.5047 2.9367 -2.2311 0.9738
5.2582 3.4398 -2.2470 0.9737
4.9602 3.9181 -2.2604 0.9735
4.5501 4.3056 -2.2402 0.9737
3.9626 4.4838 -2.1399 0.9749
3.2994 4.4824 -1.9903 0.9766
2.8897 4.7635 -1.9924 0.9766
2.4259 4.9453 -1.9698 0.9769
0.5467 5.4987 -1.9761 0.9768
-0.2175 2.7346 -0.9810 0.9884
-1.5577 5.9064 -2.1844 0.9744
-3.7360 4.3993 -2.0640 0.9758
-4.0620 3.9984 -2.0383 0.9761
-4.3468 3.5750 -2.0126 0.9764
-4.5894 3.1333 -1.9872 0.9767
-4.7895 2.6778 -1.9623 0.9770
-5.0625 1.7415 -1.9145 0.9775
-5.5705 0.8581 -2.0155 0.9763
-5.5637 0.3544 -1.9937 0.9766
-5.5159 -0.1414 -1.9732 0.9768
-5.4284 -0.6263 -1.9541 0.9771
-5.3031 -1.0977 -1.9366 0.9773
-4.4587 -2.8020 -1.8832 0.9779
-3.8568 -3.5184 -1.8669 0.9781
-3.1555 -4.1270 -1.8578 0.9782
-2.7724 -4.3875 -1.8560 0.9782
-2.3704 -4.6171 -1.8560 0.9782
-1.0709 -5.1097 -1.8670 0.9781
-0.6136 -5.2050 -1.8742 0.9780
-0.1480 -5.2643 -1.8833 0.9779
0.3236 -5.2867 -1.8941 0.9778
0.7987 -5.2715 -1.9066 0.9776
2.6809 -4.8232 -1.9733 0.9768
3.5697 -4.3624 -2.0157 0.9763
5.5084 -1.4673 -2.0385 0.9761
5.8240 -0.4778 -2.0897 0.9755
5.9135 0.0437 -2.1148 0.9752
5.9538 0.5771 -2.1391 0.9749
5.8793 1.6594 -2.1846 0.9744
5.5903 2.7251 -2.2240 0.9739
5.3653 3.2367 -2.2408 0.9737
5.0882 3.7259 -2.2552 0.9736
0.7425 5.4417 -1.9640 0.9769
0.2590 5.5823 -1.9984 0.9765
-0.1077 2.5097 -0.8983 0.9894
-2.3388 5.5343 -2.1486 0.9748
-2.7912 5.2447 -2.1246 0.9751
-3.9336 4.1654 -2.0488 0.9760
-4.7128 2.8655 -1.9724 0.9768
-2.7911 1.3726 -1.1123 0.9869
-5.4986 1.5727 -2.0452 0.9760
-5.5610 1.0657 -2.0249 0.9762
-5.4689 -0.4295 -1.9617 0.9770
-4.8148 -2.2393 -1.8989 0.9777
-4.5682 -2.6433 -1.8874 0.9778
-4.2921 -3.0242 -1.8776 0.9779
-3.9885 -3.3802 -1.8697 0.9780
-2.5370 -4.5270 -1.8558 0.9782
-1.6967 -4.9161 -1.8598 0.9781
-0.3393 -5.2444 -1.8794 0.9779
0.1301 -5.2820 -1.8895 0.9778
1.5554 -5.1683 -1.9301 0.9773
2.0274 -5.0528 -1.9470 0.9771
2.4930 -4.8979 -1.9654 0.9769
3.3927 -4.4694 -2.0066 0.9764
4.2280 -3.8841 -2.0531 0.9759
4.6127 -3.5343 -2.0781 0.9756
4.9704 -3.1478 -2.1039 0.9753
5.2910 -2.7231 -2.1280 0.9750
2.3439 -0.9527 -0.9048 0.9893
5.9434 0.3577 -2.1293 0.9750
5.9118 1.4379 -2.1757 0.9745
5.8164 1.9782 -2.1970 0.9742
5.6670 2.5108 -2.2165 0.9740
3.8610 4.5145 -2.1243 0.9751
2.8122 4.8100 -1.9925 0.9766
1.8527 5.0664 -1.9291 0.9773
-0.5580 5.8184 -2.0902 0.9755
-1.1180 5.9791 -2.1752 0.9745
-2.0275 5.3326 -2.0402 0.9761
-2.6101 5.3680 -2.1345 0.9750
-3.4396 4.7072 -2.0849 0.9755
-4.1169 3.9229 -2.0336 0.9761
-4.6290 3.0513 -1.9827 0.9767
-4.8214 2.5938 -1.9578 0.9770
-5.0790 1.6555 -1.9103 0.9776
-5.5580 0.2635 -1.9898 0.9766
-5.5029 -0.2305 -1.9696 0.9769
-5.2764 -1.1818 -1.9336 0.9773
-4.4085 -2.8713 -1.8814 0.9779
-3.7969 -3.5784 -1.8658 0.9781
-3.0873 -4.1766 -1.8573 0.9782
-2.2954 -4.6555 -1.8562 0.9782
-1.4372 -5.0056 -1.8624 0.9781
-0.9884 -5.1297 -1.8681 0.9781
-0.0626 -5.2711 -1.8851 0.9779
0.4098 -5.2868 -1.8963 0.9777
0.8853 -5.2647 -1.9091 0.9776
1.3613 -5.2042 -1.9237 0.9774
1.8350 -5.1048 -1.9399 0.9772
3.6475 -4.3126 -2.0199 0.9763
4.0638 -4.0164 -2.0432 0.9760
4.4584 -3.6819 -2.0677 0.9757
5.1676 -2.9028 -2.1196 0.9751
5.0805 -2.2845 -1.9921 0.9766
5.3312 -1.8460 -2.0175 0.9763
5.9246 0.1399 -2.1193 0.9751
5.9557 0.6750 -2.1434 0.9749
5.9353 1.2161 -2.1666 0.9746
5.7346 2.2943 -2.2088 0.9741
5.5533 2.8196 -2.2272 0.9739
5.0323 3.8120 -2.2576 0.9735
4.6915 4.2625 -2.2668 0.9734
2.9853 4.7034 -1.9922 0.9766
2.8587 -4.3603 -1.9980 0.9779
3.6626 -3.8628 -2.0399 0.9775
4.7113 -2.8516 -2.1104 0.9767
4.9918 -2.4424 -2.1296 0.9765
5.2634 -0.9977 -2.0529 0.9773
5.3928 -0.5307 -2.0766 0.9771
5.5150 0.9445 -2.1442 0.9763
5.4608 1.4460 -2.1648 0.9761
5.3573 1.9440 -2.1840 0.9759
5.2043 2.4332 -2.2016 0.9757
4.7522 3.3627 -2.2309 0.9754
3.0105 4.4192 -2.0491 0.9774
0.8278 5.4097 -2.0972 0.9768
-0.0670 2.5153 -0.9643 0.9893
-0.6630 5.6961 -2.1976 0.9757
-1.1585 5.5684 -2.1796 0.9759
-2.0891 5.1764 -2.1392 0.9764
-3.2763 4.2980 -2.0710 0.9771
-3.6045 3.9432 -2.0473 0.9774
-4.3621 2.7503 -1.9762 0.9782
-3.0079 1.2156 -1.2432 0.9862
-5.1962 1.0836 -2.0341 0.9775
-5.2186 0.6099 -2.0135 0.9777
-4.9202 -1.2072 -1.9414 0.9785
-4.7575 -1.6288 -1.9271 0.9787
-3.8049 -3.1199 -1.8856 0.9791
-3.5002 -3.4353 -1.8795 0.9792
-1.2570 -4.7382 -1.8786 0.9792
-0.8324 -4.8465 -1.8844 0.9792
-0.3987 -4.9211 -1.8920 0.9791
0.0416 -4.9612 -1.9013 0.9790
2.6869 -4.4439 -1.9901 0.9780
3.1029 -4.2285 -2.0099 0.9778
3.5037 -3.9764 -2.0310 0.9776
3.8862 -3.6882 -2.0532 0.9773
4.5822 -3.0072 -2.1004 0.9768
4.8834 -2.6145 -2.1227 0.9766
2.3524 -1.0010 -0.9797 0.9891
5.0133 -1.6229 -2.0193 0.9777
5.1987 -1.1835 -2.0432 0.9774
5.3449 -0.7238 -2.0670 0.9772
5.5094 0.2419 -2.1133 0.9767
5.4056 1.7411 -2.1763 0.9760
5.2728 2.2345 -2.1946 0.9758
5.0907 2.7158 -2.2111 0.9756
4.8601 3.1794 -2.2256 0.9754
4.5827 3.6199 -2.2380 0.9753
4.2607 4.0317 -2.2479 0.9752
3.8974 4.4100 -2.2554 0.9751
3.2089 4.3594 -2.0744 0.9771
2.4229 4.9391 -2.1082 0.9767
1.9515 5.0792 -2.0852 0.9770
0.5460 5.4918 -2.1149 0.9766
-0.9578 5.6264 -2.1872 0.9758
-1.9066 5.2705 -2.1479 0.9763
-2.7543 4.7490 -2.1038 0.9768
-3.1317 4.4352 -2.0807 0.9770
-3.4746 4.0915 -2.0570 0.9773
-3.7811 3.7219 -2.0332 0.9775
-4.4698 2.4991 -1.9625 0.9783
-2.7989 1.2518 -1.1750 0.9870
-4.7323 1.6279 -1.9178 0.9788
-5.2149 0.8033 -2.0220 0.9777
-5.1708 -0.1326 -1.9822 0.9781
-5.0919 -0.5875 -1.9642 0.9783
-4.8280 -1.4584 -1.9327 0.9786
-4.1917 -2.6342 -1.8972 0.9790
-3.9225 -2.9838 -1.8886 0.9791
-3.6277 -3.3094 -1.8818 0.9792
-2.9689 -3.8830 -1.8732 0.9793
-2.2304 -4.3444 -1.8714 0.9793
-1.8360 -4.5301 -1.8732 0.9793
-0.5771 -4.8947 -1.8887 0.9791
1.1970 -4.8997 -1.9329 0.9786
2.5132 -4.5214 -1.9824 0.9781
2.9344 -4.3211 -2.0017 0.9779
3.3418 -4.0839 -2.0222 0.9776
3.7322 -3.8104 -2.0440 0.9774
4.1021 -3.5012 -2.0667 0.9772
4.9268 -1.7960 -2.0096 0.9778
5.4118 -0.4440 -2.0809 0.9770
5.4903 0.0405 -2.1040 0.9768
5.5232 0.5353 -2.1265 0.9765
5.4456 1.5371 -2.1684 0.9761
5.1711 2.5208 -2.2046 0.9757
4.9602 2.9923 -2.2199 0.9755
4.7017 3.4429 -2.2332 0.9753
4.3976 3.8671 -2.2441 0.9752
2.9238 4.4452 -2.0389 0.9775
2.6192 4.8805 -2.1226 0.9766
2.1431 5.0224 -2.0926 0.9769
0.7415 5.4349 -2.1020 0.9768
0.2587 5.5753 -2.1388 0.9764
-0.1073 2.5020 -0.9597 0.9893
-0.7543 5.6764 -2.1944 0.9758
-1.7197 5.3577 -2.1563 0.9762
-2.5906 4.8677 -2.1131 0.9767
-3.3387 4.2355 -2.0667 0.9772
-3.6602 3.8760 -2.0430 0.9774
-4.1902 3.0908 -1.9954 0.9779
-4.3968 2.6733 -1.9719 0.9782
-4.7799 1.3672 -1.9052 0.9789
-5.2046 0.9974 -2.0308 0.9776
-5.2181 0.5241 -2.0097 0.9778
-5.1923 0.0564 -1.9899 0.9780
-5.1286 -0.4027 -1.9714 0.9782
-5.0283 -0.8508 -1.9543 0.9784
-4.8930 -1.2851 -1.9387 0.9786
-4.7244 -1.7036 -1.9246 0.9787
-4.5242 -2.1041 -1.9121 0.9789
-4.2941 -2.4847 -1.9012 0.9790
-4.0358 -2.8436 -1.8919 0.9791
-3.4423 -3.4900 -1.8785 0.9792
-0.7541 -4.8626 -1.8857 0.9791
-0.3191 -4.9310 -1.8936 0.9791
0.1223 -4.9647 -1.9031 0.9790
1.9021 -4.7406 -1.9575 0.9784
2.3376 -4.5926 -1.9748 0.9782
2.7636 -4.4075 -1.9936 0.9780
3.1771 -4.1854 -2.0137 0.9777
4.6402 -2.9387 -2.1048 0.9767
2.3424 -0.9521 -0.9690 0.9892
5.0498 -1.5446 -2.0237 0.9776
5.5205 0.8307 -2.1394 0.9764
5.2434 2.3231 -2.1977 0.9757
5.0523 2.8016 -2.2139 0.9756
3.1201 4.3862 -2.0627 0.9772
2.6474 4.5282 -2.0101 0.9778
2.3363 4.9649 -2.1028 0.9768
1.8504 5.0601 -2.0647 0.9772
1.4019 5.2415 -2.0792 0.9770
0.9349 5.3784 -2.0920 0.9769
-0.0168 2.6375 -1.0108 0.9888
-3.1967 4.3748 -2.0764 0.9771
-4.3170 2.8457 -1.9815 0.9781
-5.1821 1.1907 -2.0376 0.9775
-4.9525 -1.1093 -1.9449 0.9785
-4.6098 -1.9426 -1.9170 0.9788
-4.3917 -2.3315 -1.9055 0.9789
-4.1447 -2.6995 -1.8955 0.9790
-3.8707 -3.0448 -1.8873 0.9791
-2.9048 -3.9297 -1.8727 0.9793
-1.3520 -4.7090 -1.8775 0.9792
-0.9297 -4.8248 -1.8830 0.9792
-0.4979 -4.9071 -1.8902 0.9791
-0.0589 -4.9551 -1.8990 0.9790
0.8316 -4.9453 -1.9217 0.9787
1.2781 -4.8862 -1.9355 0.9786
2.5907 -4.4877 -1.9858 0.9780
3.0097 -4.2807 -2.0053 0.9778
4.5084 -3.0913 -2.0948 0.9769
4.7366 -2.1299 -1.9902 0.9780
5.1599 -1.2851 -2.0378 0.9775
5.4289 1.6279 -2.1720 0.9760
5.1364 2.6079 -2.2075 0.9756
4.6497 3.5222 -2.2354 0.9753
4.3376 3.9410 -2.2459 0.9752
3.9833 4.3273 -2.2539 0.9751
2.8379 4.4710 -2.0294 0.9776
2.6863 -4.0974 -2.0052 0.9790
3.0699 -3.8784 -2.0244 0.9788
3.4374 -3.6253 -2.0447 0.9786
3.7857 -3.3389 -2.0659 0.9784
2.3748 -0.9097 -1.0408 0.9891
5.0313 -0.4951 -2.0691 0.9784
5.1082 -0.0452 -2.0907 0.9782
5.1341 0.8793 -2.1318 0.9777
4.6457 2.7007 -2.1993 0.9770
3.4258 4.1740 -2.2100 0.9769
2.5440 4.5611 -2.1375 0.9777
2.2260 4.9906 -2.2365 0.9767
1.7587 5.1292 -2.2192 0.9768
0.8204 5.3620 -2.2201 0.9768
-1.5216 5.0190 -2.1465 0.9776
-1.9452 4.8197 -2.1272 0.9778
-2.7159 4.3120 -2.0857 0.9782
-3.3660 3.6824 -2.0419 0.9787
-3.8799 2.9604 -1.9974 0.9791
-2.7047 1.3852 -1.2437 0.9870
-1.9551 0.2285 -0.8056 0.9915
-1.9239 0.0522 -0.7877 0.9917
-1.9480 -0.1212 -0.7988 0.9916
-4.6314 -1.1364 -1.9517 0.9796
-4.2987 -1.9150 -1.9260 0.9799
-3.8507 -2.6206 -1.9063 0.9801
-3.5877 -2.9418 -1.8989 0.9801
-2.6637 -3.7607 -1.8861 0.9803
-1.5757 -4.3360 -1.8882 0.9803
0.4582 -4.6788 -1.9241 0.9799
1.2984 -4.5824 -1.9493 0.9796
1.7145 -4.4822 -1.9641 0.9795
2.5256 -4.1770 -1.9977 0.9791
2.9148 -3.9721 -2.0164 0.9789
3.2892 -3.7329 -2.0363 0.9787
3.6458 -3.4600 -2.0571 0.9785
3.9813 -3.1544 -2.0789 0.9783
4.5687 -2.4460 -2.1210 0.9779
4.9881 -0.6755 -2.0602 0.9785
5.1339 0.2254 -2.1032 0.9780
5.1431 0.6887 -2.1237 0.9778
5.1077 1.1548 -2.1432 0.9776
4.9007 2.0768 -2.1784 0.9773
4.7289 2.5228 -2.1936 0.9771
4.2533 3.3597 -2.2183 0.9768
3.9532 3.7408 -2.2275 0.9768
2.7281 4.4971 -2.1527 0.9775
1.0175 5.3377 -2.2239 0.9768
-1.7746 4.9059 -2.1352 0.9777
-2.1842 4.6841 -2.1152 0.9779
-2.5674 4.4267 -2.0944 0.9781
-2.9214 4.1373 -2.0729 0.9783
-3.2437 3.8196 -2.0509 0.9786
-3.5325 3.4773 -2.0287 0.9788
-4.4377 1.5266 -1.9207 0.9799
-1.9902 0.3066 -0.8242 0.9913
-1.9555 -0.2256 -0.8056 0.9915
-4.5459 -1.3731 -1.9435 0.9797
-4.3765 -1.7612 -1.9308 0.9798
-4.1777 -2.1317 -1.9195 0.9799
-3.9510 -2.4829 -1.9099 0.9800
-2.4608 -3.8943 -1.8854 0.9803
-1.3465 -4.4181 -1.8903 0.9802
-0.1312 -4.6648 -1.9099 0.9800
1.1270 -4.6134 -1.9437 0.9797
1.5449 -4.5274 -1.9579 0.9795
2.7572 -4.0601 -2.0086 0.9790
3.1380 -3.8349 -2.0280 0.9788
4.4628 -2.6031 -2.1145 0.9779
4.3896 -2.0602 -1.9846 0.9793
4.6065 -1.6793 -2.0067 0.9790
4.7903 -1.2760 -2.0289 0.9788
5.0483 -0.4142 -2.0731 0.9783
5.1177 0.0378 -2.0946 0.9781
4.6064 2.7788 -2.2017 0.9770
3.3588 4.2306 -2.2108 0.9769
2.9200 4.4394 -2.1747 0.9773
2.5584 4.7671 -2.2143 0.9769
1.6742 5.1541 -2.2179 0.9769
0.7327 5.3702 -2.2182 0.9768
0.2499 5.3863 -2.2069 0.9770
-0.1074 2.5025 -1.0251 0.9892
-0.7011 5.2758 -2.1782 0.9773
-1.1594 5.1521 -2.1614 0.9774
-1.6003 4.9857 -2.1431 0.9776
-2.7803 4.2593 -2.0818 0.9783
-3.1158 3.9528 -2.0599 0.9785
-3.4186 3.6200 -2.0378 0.9787
-3.9196 2.8912 -1.9934 0.9792
-2.7355 1.3453 -1.2476 0.9869
-4.4842 1.2826 -1.9089 0.9800
-4.8812 0.9354 -2.0341 0.9787
-1.9577 0.1966 -0.8053 0.9915
-1.9553 -0.1535 -0.8027 0.9916
-4.6063 -1.2098 -1.9492 0.9796
-3.2464 -3.2914 -1.8921 0.9802
-2.9341 -3.5602 -1.8882 0.9803
-2.6019 -3.8028 -1.8858 0.9803
-2.2518 -4.0182 -1.8852 0.9803
-1.8858 -4.2051 -1.8862 0.9803
-0.7110 -4.5849 -1.8989 0.9801
0.9553 -4.6385 -1.9383 0.9797
1.3744 -4.5668 -1.9519 0.9796
2.1982 -4.3187 -1.9833 0.9793
2.5973 -4.1423 -2.0010 0.9791
4.0398 -3.0953 -2.0829 0.9782
4.3464 -2.7526 -2.1056 0.9780
4.6141 -2.3747 -2.1239 0.9778
4.8823 -1.0284 -2.0421 0.9787
5.0943 -0.1484 -2.0859 0.9782
5.1400 0.7734 -2.1273 0.9778
5.0964 1.2396 -2.1467 0.9776
4.8728 2.1590 -2.1813 0.9772
4.6928 2.6023 -2.1962 0.9771
3.8945 3.8069 -2.2289 0.9767
2.6440 4.5223 -2.1440 0.9776
0.9299 5.3495 -2.2223 0.9768
-0.0168 2.6295 -1.0762 0.9887
-0.5096 5.3135 -2.1847 0.9772
-0.9738 5.2080 -2.1685 0.9774
-1.4224 5.0587 -2.1507 0.9775
-2.6341 4.3763 -2.0905 0.9782
-2.9824 4.0815 -2.0689 0.9784
-3.2988 3.7591 -2.0469 0.9786
-3.5814 3.4126 -2.0247 0.9788
-3.8288 3.0461 -2.0024 0.9791
-4.0400 2.6631 -1.9804 0.9793
-4.2146 2.2674 -1.9587 0.9795
-4.4534 1.4516 -1.9170 0.9800
-4.8576 1.1161 -2.0399 0.9787
-1.9480 0.2678 -0.8048 0.9915
-1.9392 0.0919 -0.7946 0.9916
-1.9354 -0.0811 -0.7928 0.9917
-4.6614 -1.0440 -1.9550 0.9796
-4.5173 -1.4449 -1.9411 0.9797
-4.3425 -1.8299 -1.9286 0.9798
-4.1385 -2.1971 -1.9177 0.9800
-3.6495 -2.8708 -1.9004 0.9801
-3.0643 -3.4533 -1.8896 0.9802
-2.7400 -3.7068 -1.8866 0.9803
-2.3971 -3.9335 -1.8853 0.9803
-0.4694 -4.6263 -1.9032 0.9801
0.7833 -4.6579 -1.9331 0.9798
1.6204 -4.5080 -1.9606 0.9795
2.0321 -4.3808 -1.9765 0.9793
2.8276 -4.0217 -2.0121 0.9790
3.2056 -3.7902 -2.0317 0.9788
4.2242 -2.8965 -2.0963 0.9781
4.5106 -2.5338 -2.1174 0.9779
4.6425 -1.6075 -2.0107 0.9790
5.1449 0.5831 -2.1191 0.9779
5.0494 1.5141 -2.1575 0.9775
4.9334 1.9737 -2.1747 0.9773
4.7718 2.4228 -2.1903 0.9771
4.5655 2.8563 -2.2041 0.9770
4.0248 3.6568 -2.2256 0.9768
3.2907 4.2859 -2.2115 0.9769
2.8907 -3.6520 -2.0298 0.9799
3.2348 -3.4117 -2.0490 0.9797
4.1432 -2.5077 -2.1107 0.9791
4.0801 -1.9964 -1.9796 0.9804
2.3780 -0.9109 -1.1098 0.9890
4.6033 -0.8726 -2.0419 0.9798
4.7097 -0.4635 -2.0625 0.9796
4.7785 -0.0423 -2.0826 0.9794
4.8079 0.3873 -2.1021 0.9792
4.7966 0.8215 -2.1209 0.9790
4.7435 1.2561 -2.1385 0.9788
4.5106 2.1089 -2.1700 0.9785
4.3313 2.5179 -2.1834 0.9784
4.1115 2.9093 -2.1951 0.9783
3.8527 3.2786 -2.2048 0.9782
3.2285 3.9336 -2.2178 0.9780
2.8692 4.2117 -2.2210 0.9780
2.0754 4.6530 -2.2204 0.9780
0.8846 3.5979 -1.6147 0.9840
0.3147 5.0209 -2.1925 0.9783
-1.4209 4.6870 -2.1345 0.9789
-1.8175 4.5035 -2.1165 0.9790
-2.5410 4.0343 -2.0779 0.9794
-3.1535 3.4499 -2.0370 0.9798
-3.6400 2.7773 -1.9954 0.9802
-2.6803 1.3727 -1.3124 0.9869
-2.7714 1.1200 -1.3027 0.9870
-1.5229 0.1780 -0.6682 0.9933
-1.5274 0.0414 -0.6659 0.9934
-1.5296 -0.0952 -0.6679 0.9933
-1.5120 -0.2306 -0.6666 0.9933
-1.5419 -0.3783 -0.6919 0.9931
-3.8617 -2.1516 -1.9266 0.9809
-3.6382 -2.4761 -1.9180 0.9810
-3.1201 -3.0622 -1.9053 0.9811
-2.8288 -3.3211 -1.9013 0.9811
-2.1903 -3.7638 -1.8979 0.9812
-1.8468 -3.9453 -1.8985 0.9812
-1.4896 -4.0990 -1.9007 0.9812
-1.1206 -4.2238 -1.9045 0.9811
-0.3552 -4.3834 -1.9166 0.9810
0.4327 -4.4184 -1.9348 0.9808
0.8296 -4.3877 -1.9461 0.9807
1.2252 -4.3242 -1.9588 0.9806
1.6172 -4.2279 -1.9728 0.9804
2.0030 -4.0985 -1.9881 0.9803
2.7452 -3.7411 -2.0223 0.9800
3.7430 -2.9655 -2.0812 0.9794
4.0330 -2.6469 -2.1024 0.9792
4.2873 -2.2953 -2.1194 0.9790
2.3427 -0.9969 -1.1096 0.9890
4.5494 -1.0356 -2.0334 0.9798
4.8007 0.2108 -2.0942 0.9793
4.8062 0.6436 -2.1133 0.9791
4.6923 1.5113 -2.1484 0.9787
4.5720 1.9375 -2.1641 0.9786
4.4096 2.3525 -2.1782 0.9784
3.0196 4.1023 -2.2200 0.9780
2.6442 4.3587 -2.2218 0.9780
1.3917 4.8845 -2.2135 0.9781
0.0262 2.6530 -1.1563 0.9885
-0.2005 2.5201 -1.1018 0.9890
-0.8308 4.8807 -2.1577 0.9786
-1.2530 4.7513 -2.1415 0.9788
-2.7343 3.8724 -2.0660 0.9795
-3.0381 3.5775 -2.0455 0.9797
-3.7582 2.5658 -1.9832 0.9803
-3.9310 2.1978 -1.9628 0.9805
-1.5912 0.5474 -0.7334 0.9927
-1.5114 0.2328 -0.6665 0.9933
-1.5296 0.0974 -0.6680 0.9933
-1.5232 -0.1757 -0.6682 0.9933
-1.5129 -0.3132 -0.6733 0.9933
-3.7327 -2.3457 -1.9213 0.9809
-3.2333 -2.9496 -1.9074 0.9811
-2.9503 -3.2181 -1.9027 0.9811
-1.6372 -4.0396 -1.8996 0.9812
-1.2728 -4.1763 -1.9028 0.9811
-0.5141 -4.3608 -1.9137 0.9810
-0.1239 -4.4070 -1.9214 0.9809
1.0637 -4.3541 -1.9534 0.9806
1.4575 -4.2713 -1.9669 0.9805
2.5974 -3.8248 -2.0149 0.9800
3.9174 -2.7807 -2.0936 0.9793
4.1887 -2.4433 -2.1134 0.9791
4.6253 -0.7992 -2.0457 0.9797
4.7868 0.0353 -2.0862 0.9793
4.8089 0.4661 -2.1056 0.9791
4.0672 2.9783 -2.1970 0.9782
3.8017 3.3430 -2.2063 0.9782
2.8009 4.2584 -2.2213 0.9780
2.3906 4.4546 -2.2033 0.9782
1.9991 4.6850 -2.2199 0.9780
0.8178 3.5758 -1.5986 0.9841
0.6827 5.0038 -2.2010 0.9782
-0.6541 4.9220 -2.1639 0.9786
-1.0822 4.8091 -2.1483 0.9787
-1.4946 4.6563 -2.1313 0.9789
-2.6015 3.9855 -2.0742 0.9794
-3.2031 3.3919 -2.0332 0.9798
-2.9767 1.1471 -1.3903 0.9862
-1.4998 0.2874 -0.6655 0.9934
-1.5531 -0.4079 -0.6998 0.9930
-1.5957 -0.5754 -0.7393 0.9926
-4.0253 -1.8721 -1.9347 0.9808
-3.8229 -2.2121 -1.9249 0.9809
-3.3429 -2.8331 -1.9097 0.9811
-2.4598 -3.5952 -1.8985 0.9812
-1.7828 -3.9754 -1.8988 0.9812
-1.4233 -4.1239 -1.9013 0.9811
-1.0523 -4.2433 -1.9053 0.9811
-0.6719 -4.3329 -1.9109 0.9810
-0.2842 -4.3919 -1.9180 0.9810
0.1089 -4.4195 -1.9267 0.9809
0.9017 -4.3786 -1.9483 0.9807
1.2969 -4.3092 -1.9612 0.9806
2.4473 -3.9031 -2.0078 0.9801
2.8102 -3.7021 -2.0256 0.9799
3.4883 -3.2045 -2.0644 0.9795
4.3295 -2.2283 -2.1221 0.9790
4.4243 -1.3533 -2.0164 0.9800
4.5741 -0.9634 -2.0372 0.9798
4.6887 -0.5576 -2.0578 0.9796
4.8047 0.2892 -2.0978 0.9792
4.7592 1.1576 -2.1346 0.9789
4.6735 1.5895 -2.1514 0.9787
4.5455 2.0140 -2.1668 0.9785
4.1649 2.8222 -2.1926 0.9783
3.3060 3.8655 -2.2168 0.9781
2.5725 4.4001 -2.2213 0.9780
1.3116 4.9039 -2.2123 0.9781
-0.9088 4.8602 -2.1549 0.9787
-1.7293 4.5484 -2.1207 0.9790
-2.1090 4.3375 -2.1020 0.9792
-2.7918 3.8207 -2.0623 0.9796
-3.3570 3.1989 -2.0209 0.9800
-3.7922 2.4997 -1.9794 0.9804
-2.7398 1.1724 -1.2988 0.9871
-1.5850 0.5166 -0.7265 0.9928
-1.5172 0.2086 -0.6674 0.9933
-1.5293 0.0725 -0.6672 0.9933
-1.5289 -0.0641 -0.6669 0.9933
