ply
format ascii 1.0
element vertex 1581
property float32 x
property float32 y
property float32 z
property float32 I
end_header
17.9971 0.0311 0.3040 0.9305
14.5228 1.3254 0.2463 0.9433
11.5355 2.1027 0.1981 0.9542
9.7679 2.6990 0.1712 0.9603
7.2981 3.5089 0.1368 0.9681
6.3827 3.8039 0.1255 0.9707
4.9226 4.2830 0.1102 0.9742
4.3091 4.4843 0.1051 0.9754
2.7013 4.9728 0.0956 0.9776
2.2348 5.1655 0.0951 0.9777
1.3216 5.6508 0.0980 0.9771
-0.7890 6.1598 0.1049 0.9755
-1.4443 6.5606 0.1135 0.9735
10.6984 2.5791 0.1859 0.9569
8.8645 2.9953 0.1581 0.9633
5.1659 4.2031 0.1125 0.9737
4.5293 4.4120 0.1068 0.9750
3.4749 4.8682 0.1010 0.9764
2.4128 5.1070 0.0954 0.9777
1.4582 5.4207 0.0948 0.9778
1.0084 5.7538 0.0987 0.9769
-0.5764 6.0898 0.1033 0.9758
-1.2040 6.4815 0.1114 0.9740
9.3773 2.8271 0.1654 0.9616
8.1669 3.2819 0.1487 0.9654
7.0461 3.5916 0.1336 0.9689
6.1695 3.8738 0.1231 0.9713
1.1928 5.6932 0.0983 0.9770
0.6900 5.8585 0.0996 0.9767
0.1634 5.8464 0.0988 0.9769
-1.6190 6.6181 0.1151 0.9731
-2.6871 1.5647 0.0525 0.9876
2.3657 -0.9046 0.0428 0.9899
14.7952 1.2042 0.2507 0.9423
15.2816 0.5313 -0.0861 0.9407
11.8173 1.4734 -0.0671 0.9535
8.0271 3.3175 -0.0489 0.9659
6.1204 3.9272 -0.0409 0.9713
5.5035 4.2693 -0.0392 0.9725
4.6826 4.3541 -0.0360 0.9747
3.6100 4.8167 -0.0339 0.9762
3.0855 4.9891 -0.0330 0.9768
2.5359 5.0599 -0.0319 0.9776
1.1369 5.7047 -0.0328 0.9770
0.6331 5.8702 -0.0332 0.9767
0.1063 5.8583 -0.0330 0.9768
-0.4300 6.0345 -0.0341 0.9761
-1.0072 6.2241 -0.0355 0.9751
-1.6919 6.6340 -0.0385 0.9730
-2.3503 6.6652 -0.0398 0.9721
2.3796 -0.8833 -0.0143 0.9899
11.5325 2.1022 -0.0660 0.9542
9.7481 2.6936 -0.0569 0.9604
7.2863 3.5032 -0.0455 0.9682
6.3731 3.7982 -0.0418 0.9708
5.7290 4.1486 -0.0398 0.9721
4.9161 4.2774 -0.0367 0.9743
4.3037 4.4787 -0.0350 0.9755
3.2764 4.9263 -0.0333 0.9766
2.2323 5.1597 -0.0317 0.9778
0.8213 5.8084 -0.0330 0.9768
0.2969 5.7957 -0.0327 0.9771
-0.2276 5.9680 -0.0336 0.9764
-1.4314 6.5019 -0.0375 0.9737
-2.0772 6.5755 -0.0388 0.9728
2.4008 -0.9825 -0.0146 0.9897
11.4871 1.7041 -0.0654 0.9546
10.6755 2.5736 -0.0618 0.9570
5.1590 4.1975 -0.0374 0.9737
2.4100 5.1012 -0.0318 0.9777
1.0072 5.7473 -0.0329 0.9769
-0.0300 5.9030 -0.0332 0.9767
-0.5757 6.0823 -0.0344 0.9759
-1.2024 6.4732 -0.0371 0.9740
-1.8528 6.6186 -0.0387 0.9729
-2.7070 1.4587 -0.0173 0.9878
15.4827 0.3864 -0.0872 0.9399
8.1527 3.2762 -0.0495 0.9655
7.0350 3.5859 -0.0445 0.9689
6.1605 3.8682 -0.0410 0.9713
5.5822 4.2434 -0.0395 0.9723
4.7510 4.3317 -0.0362 0.9746
3.6693 4.7972 -0.0340 0.9761
3.1418 4.9706 -0.0331 0.9768
2.5866 5.0372 -0.0319 0.9776
2.0781 5.1269 -0.0311 0.9781
1.6325 5.3568 -0.0315 0.9778
1.1914 5.6867 -0.0327 0.9770
-0.3694 6.0146 -0.0339 0.9762
-0.9414 6.2025 -0.0353 0.9752
-1.6168 6.6093 -0.0383 0.9731
14.8302 1.2070 -0.0838 0.9422
15.2319 0.5296 -0.4292 0.9408
10.8636 2.3534 -0.3130 0.9565
9.1846 2.8675 -0.2709 0.9622
8.1843 3.3825 -0.2494 0.9652
6.9215 3.6139 -0.2199 0.9692
5.4960 4.2635 -0.1959 0.9725
4.6766 4.3485 -0.1798 0.9748
3.0819 4.9833 -0.1650 0.9768
2.0242 5.1380 -0.1555 0.9781
1.1356 5.6982 -0.1636 0.9770
0.6324 5.8634 -0.1661 0.9767
-0.4295 6.0271 -0.1701 0.9761
14.4408 1.3180 -0.4083 0.9436
9.7284 2.6881 -0.2842 0.9604
8.5083 3.1916 -0.2559 0.9643
7.2745 3.4975 -0.2273 0.9682
6.3637 3.7926 -0.2086 0.9708
4.9097 4.2718 -0.1832 0.9743
1.7541 5.3102 -0.1575 0.9779
0.2965 5.7889 -0.1632 0.9771
-0.2273 5.9608 -0.1680 0.9764
14.8004 0.8592 -0.4175 0.9424
8.8314 2.9840 -0.2625 0.9634
7.8926 3.4787 -0.2429 0.9661
6.6806 3.6881 -0.2149 0.9699
6.0475 4.0817 -0.2054 0.9712
5.1521 4.1919 -0.1870 0.9738
2.9497 5.0269 -0.1641 0.9769
1.9296 5.2525 -0.1576 0.9779
-1.8535 6.6214 -0.1936 0.9729
12.0497 1.3826 -0.3415 0.9526
10.9967 2.2696 -0.3162 0.9561
9.3406 2.8160 -0.2747 0.9617
7.0238 3.5802 -0.2220 0.9689
5.5746 4.2376 -0.1972 0.9724
4.7449 4.3261 -0.1808 0.9746
4.1482 4.5226 -0.1728 0.9757
3.6649 4.7915 -0.1699 0.9761
2.5827 5.0297 -0.1592 0.9776
2.0758 5.1211 -0.1556 0.9781
1.6307 5.3508 -0.1575 0.9779
1.1901 5.6803 -0.1634 0.9770
0.6884 5.8450 -0.1657 0.9767
0.1630 5.8327 -0.1643 0.9769
-0.9402 6.1947 -0.1764 0.9752
-1.6147 6.6006 -0.1913 0.9732
-2.2646 6.6288 -0.1972 0.9724
18.3210 -0.1480 -0.5159 0.9293
14.7874 1.2036 -0.4178 0.9424
11.7714 1.4677 -0.6016 0.9536
9.1669 2.8620 -0.4870 0.9623
8.1702 3.3766 -0.4483 0.9652
6.9106 3.6083 -0.3954 0.9693
6.1159 3.9243 -0.3685 0.9713
5.4886 4.2577 -0.3523 0.9726
4.6706 4.3430 -0.3234 0.9748
2.5301 5.0484 -0.2864 0.9776
2.0219 5.1322 -0.2797 0.9781
1.1343 5.6918 -0.2943 0.9770
0.6316 5.8567 -0.2987 0.9767
0.1061 5.8445 -0.2964 0.9769
-0.4290 6.0198 -0.3061 0.9761
-1.6874 6.6163 -0.3463 0.9730
-2.3436 6.6464 -0.3574 0.9722
-2.6849 1.5283 -0.1567 0.9877
2.3816 -0.8840 -0.1288 0.9899
16.0963 0.0278 -0.8163 0.9376
6.3542 3.7869 -0.3751 0.9708
4.9033 4.2662 -0.3296 0.9743
4.2930 4.4676 -0.3142 0.9755
3.7185 4.6343 -0.3013 0.9765
3.2688 4.9149 -0.2993 0.9766
0.8194 5.7951 -0.2968 0.9768
0.2962 5.7822 -0.2936 0.9771
-0.2270 5.9537 -0.3022 0.9764
-0.7861 6.1368 -0.3138 0.9755
-1.4276 6.4849 -0.3368 0.9738
-2.0715 6.5574 -0.3487 0.9728
14.7967 0.8589 -0.7517 0.9424
10.6301 2.5626 -0.5545 0.9572
7.8793 3.4728 -0.4367 0.9661
6.6704 3.6825 -0.3864 0.9699
6.0389 4.0759 -0.3695 0.9712
5.1452 4.1863 -0.3364 0.9738
3.9089 4.5549 -0.3044 0.9762
3.4627 4.8510 -0.3023 0.9764
2.4046 5.0897 -0.2855 0.9777
1.9275 5.2466 -0.2835 0.9779
1.4532 5.4024 -0.2837 0.9778
1.0049 5.7342 -0.2952 0.9770
-0.5743 6.0674 -0.3091 0.9759
-1.1993 6.4566 -0.3330 0.9740
-1.8543 6.6241 -0.3489 0.9728
-2.5434 6.7117 -0.3640 0.9717
-2.7056 1.4580 -0.1559 0.9878
15.4752 0.3862 -0.7851 0.9399
10.9720 2.2645 -0.5682 0.9561
7.0127 3.5745 -0.3992 0.9690
6.1425 3.8569 -0.3678 0.9714
4.1431 4.5170 -0.3108 0.9758
3.6606 4.7858 -0.3056 0.9762
3.1345 4.9591 -0.2975 0.9768
2.5789 5.0223 -0.2863 0.9776
2.0734 5.1153 -0.2799 0.9781
1.6288 5.3447 -0.2834 0.9779
1.1887 5.6739 -0.2940 0.9770
0.6876 5.8384 -0.2981 0.9767
18.2538 -0.1474 -0.9258 0.9295
14.7448 1.2001 -0.7502 0.9425
-17.0185 -7.3649 -1.3597 0.9283
-14.8204 -9.8588 -1.3051 0.9311
-13.6698 -10.9705 -1.2852 0.9321
-12.4851 -11.9996 -1.2697 0.9329
-8.8402 -10.1623 -0.9876 0.9474
-10.0106 -13.8270 -1.2516 0.9338
-8.7182 -14.6317 -1.2488 0.9340
-4.5936 -16.6305 -1.2650 0.9331
-1.6062 -17.6179 -1.2971 0.9315
-0.0294 -18.0037 -1.3201 0.9303
3.3155 -18.5419 -1.3811 0.9272
15.1335 0.5262 -1.1103 0.9411
11.7683 1.4673 -0.8696 0.9535
9.1492 2.8565 -0.7028 0.9623
5.4811 4.2519 -0.5086 0.9726
4.0758 4.5320 -0.4469 0.9759
3.0748 4.9718 -0.4286 0.9768
2.5272 5.0426 -0.4136 0.9776
0.6309 5.8500 -0.4314 0.9767
-0.4285 6.0125 -0.4420 0.9761
-2.3403 6.6369 -0.5160 0.9722
-2.6880 1.5301 -0.2268 0.9877
-19.4315 -3.8746 -1.4528 0.9236
-18.4406 -5.4248 -1.4094 0.9258
-16.3412 -8.1917 -1.3403 0.9293
-12.9273 -11.6282 -1.2749 0.9326
-10.4792 -13.5113 -1.2537 0.9337
-9.2008 -14.3422 -1.2494 0.9339
-7.8838 -15.1027 -1.2492 0.9340
-6.5258 -15.7943 -1.2530 0.9338
-3.6749 -16.9718 -1.2732 0.9327
-2.1749 -17.4566 -1.2899 0.9319
0.9956 -18.2079 -1.3370 0.9295
2.6762 -18.4671 -1.3682 0.9279
6.2571 -18.7251 -1.4476 0.9239
2.3825 -0.8844 -0.1863 0.9899
11.4602 2.0890 -0.8541 0.9544
6.3447 3.7813 -0.5416 0.9708
5.7052 4.1313 -0.5165 0.9721
4.8969 4.2606 -0.4759 0.9743
4.2877 4.4620 -0.4537 0.9755
3.2650 4.9091 -0.4323 0.9766
2.2247 5.1422 -0.4108 0.9778
1.3157 5.6254 -0.4236 0.9771
0.2958 5.7754 -0.4240 0.9771
-0.2267 5.9465 -0.4363 0.9764
-18.8120 -4.8652 -1.4247 0.9250
-16.7405 -7.7110 -1.3514 0.9287
-13.3648 -11.2459 -1.2807 0.9323
-12.1712 -12.2543 -1.2664 0.9331
-9.6781 -14.0432 -1.2505 0.9339
-8.3756 -14.8295 -1.2488 0.9340
-5.6478 -16.1948 -1.2576 0.9335
-1.2017 -17.7254 -1.3026 0.9312
0.3908 -18.0917 -1.3268 0.9300
2.0465 -18.3807 -1.3560 0.9285
3.7712 -18.5874 -1.3906 0.9268
5.5710 -18.7054 -1.4311 0.9247
2.3677 -0.9690 -0.1876 0.9898
14.7931 0.8587 -1.0865 0.9423
11.4782 1.7028 -0.8508 0.9545
10.6074 2.5572 -0.8000 0.9572
8.7984 2.9729 -0.6809 0.9634
6.6602 3.6768 -0.5578 0.9699
6.0303 4.0701 -0.5334 0.9712
5.1383 4.1807 -0.4857 0.9738
4.5064 4.3897 -0.4613 0.9751
2.9429 5.0153 -0.4264 0.9769
1.4516 5.3963 -0.4097 0.9778
-0.0299 5.8821 -0.4313 0.9767
-1.1978 6.4483 -0.4809 0.9740
-2.7056 1.4580 -0.2254 0.9877
-19.1778 -4.2894 -1.4409 0.9242
-16.0574 -8.5217 -1.3329 0.9297
-13.7977 -10.8526 -1.2871 0.9320
-11.4013 -12.8499 -1.2596 0.9334
-8.8620 -14.5468 -1.2489 0.9340
3.1248 -18.5209 -1.3772 0.9274
4.8960 -18.6726 -1.4154 0.9255
14.2930 -2.2131 -1.0605 0.9436
15.4714 0.3861 -1.1347 0.9398
10.9473 2.2594 -0.8196 0.9562
4.7327 4.3149 -0.4696 0.9746
2.5751 5.0148 -0.4133 0.9776
2.0711 5.1096 -0.4043 0.9781
1.6270 5.3387 -0.4092 0.9779
1.1874 5.6675 -0.4246 0.9770
0.1627 5.8190 -0.4268 0.9769
-0.3681 5.9928 -0.4402 0.9762
-0.9379 6.1791 -0.4583 0.9752
-2.2583 6.6102 -0.5122 0.9724
-2.7122 1.5793 -0.2301 0.9875
-18.5514 -5.2603 -1.4139 0.9256
-16.4602 -8.0504 -1.3435 0.9291
-15.3603 -9.2946 -1.3164 0.9305
-14.2260 -10.4478 -1.2942 0.9317
-13.0577 -11.5159 -1.2766 0.9326
-10.6172 -13.4157 -1.2544 0.9337
-5.2801 -16.3523 -1.2599 0.9334
-2.3422 -17.4069 -1.2878 0.9320
-0.7932 -17.8279 -1.3085 0.9309
0.8152 -18.1745 -1.3339 0.9296
2.4883 -18.4426 -1.3645 0.9281
4.2319 -18.6269 -1.4006 0.9262
6.0523 -18.7206 -1.4426 0.9241
2.3644 -0.9041 -0.1856 0.9899
-15.0049 -4.9581 -1.5172 0.9385
-14.1975 -6.1440 -1.4852 0.9397
-13.3437 -7.2500 -1.4579 0.9408
-6.8685 -11.5273 -1.2882 0.9475
-4.7329 -12.6207 -1.2940 0.9473
-2.4538 -13.4687 -1.3143 0.9465
-1.2579 -13.7976 -1.3301 0.9458
1.2526 -14.2532 -1.3736 0.9441
2.5701 -14.3730 -1.4018 0.9430
3.9310 -14.4148 -1.4344 0.9417
5.3366 -14.3729 -1.4719 0.9403
7.2864 -15.2862 -1.6257 0.9342
8.8946 -15.0391 -1.6775 0.9322
14.0196 -13.5627 -1.8727 0.9246
18.8752 -6.3053 -1.9105 0.9231
15.7189 -2.2764 -1.5248 0.9382
15.0393 0.5229 -1.4447 0.9413
10.8548 2.3515 -1.0663 0.9564
9.1315 2.8509 -0.9184 0.9623
6.8890 3.5970 -0.7461 0.9693
5.4318 4.2136 -0.6600 0.9728
4.6587 4.3318 -0.6107 0.9748
4.0708 4.5264 -0.5844 0.9758
3.0712 4.9661 -0.5606 0.9768
2.5244 5.0369 -0.5409 0.9776
1.5732 5.3498 -0.5354 0.9778
1.1318 5.6789 -0.5559 0.9770
0.0523 2.8806 -0.2766 0.9885
-1.0021 6.1926 -0.6023 0.9751
-1.6829 6.5987 -0.6538 0.9730
-18.7068 4.7691 -1.8534 0.9254
-18.3344 2.9651 -1.7831 0.9281
-17.8701 1.2718 -1.7200 0.9305
-17.3251 -0.3161 -1.6636 0.9327
-16.7086 -1.8036 -1.6134 0.9347
-16.0285 -3.1960 -1.5691 0.9364
-14.5018 -5.7148 -1.4964 0.9393
-13.6647 -6.8500 -1.4675 0.9404
-11.8601 -8.8905 -1.4230 0.9422
-10.8971 -9.8020 -1.4071 0.9428
-9.2189 -9.9163 -1.2999 0.9470
-8.2509 -10.6382 -1.2925 0.9473
-0.4844 -13.9709 -1.3421 0.9454
0.7759 -14.1901 -1.3644 0.9445
2.0777 -14.3375 -1.3908 0.9434
8.2938 -15.1434 -1.6576 0.9330
9.9339 -14.8251 -1.7133 0.9308
11.6242 -14.3852 -1.7756 0.9284
13.3639 -13.8115 -1.8451 0.9257
2.3835 -0.8847 -0.2441 0.9898
15.9821 0.0276 -1.5344 0.9378
14.3192 1.3068 -1.3804 0.9439
11.4333 2.0841 -1.1157 0.9544
9.6694 2.6718 -0.9631 0.9605
8.5007 3.1888 -0.8716 0.9642
6.3353 3.7757 -0.7080 0.9708
4.8904 4.2550 -0.6223 0.9743
4.2823 4.4564 -0.5934 0.9755
3.2611 4.9034 -0.5654 0.9766
2.2222 5.1364 -0.5373 0.9778
1.7482 5.2923 -0.5351 0.9779
1.3142 5.6190 -0.5540 0.9771
0.8175 5.7819 -0.5606 0.9768
0.2955 5.7687 -0.5545 0.9771
-0.7841 6.1215 -0.5925 0.9755
-1.4239 6.4680 -0.6358 0.9737
-2.0657 6.5392 -0.6584 0.9728
-18.4835 3.6193 -1.8082 0.9271
-17.5355 0.2593 -1.6837 0.9320
-16.9445 -1.2647 -1.6313 0.9340
-14.7995 -5.2745 -1.5084 0.9388
-13.9797 -6.4393 -1.4777 0.9400
-13.1143 -7.5251 -1.4516 0.9411
-9.5681 -9.6335 -1.3035 0.9469
-6.5986 -11.6832 -1.2882 0.9475
-0.9405 -13.8724 -1.3349 0.9457
2.9199 -14.3915 -1.4098 0.9427
5.7098 -14.3475 -1.4825 0.9398
7.7000 -15.2324 -1.6386 0.9337
14.4844 -13.3753 -1.8928 0.9238
11.4752 1.7023 -1.1137 0.9545
10.5848 2.5517 -1.0453 0.9572
6.6499 3.6712 -0.7293 0.9699
5.1315 4.1751 -0.6351 0.9738
4.5006 4.3841 -0.6032 0.9751
2.9395 5.0095 -0.5576 0.9769
1.4500 5.3903 -0.5359 0.9778
1.0027 5.7212 -0.5576 0.9769
-0.0147 2.8867 -0.2771 0.9885
-0.5729 6.0525 -0.5837 0.9759
-1.8494 6.6066 -0.6586 0.9728
-2.5361 6.6923 -0.6871 0.9717
-2.7056 1.4580 -0.2951 0.9877
-17.7357 0.8488 -1.7047 0.9311
-16.5375 -2.1748 -1.6014 0.9352
-15.8419 -3.5433 -1.5585 0.9369
-15.0906 -4.8228 -1.5210 0.9383
-13.4395 -7.1324 -1.4607 0.9407
-10.6402 -10.0277 -1.4037 0.9429
-8.9704 -10.1101 -1.2976 0.9471
-7.9933 -10.8159 -1.2912 0.9474
-5.9353 -12.0440 -1.2891 0.9475
-4.8538 -12.5670 -1.2934 0.9473
-3.7366 -13.0289 -1.3013 0.9470
3.7794 -14.4141 -1.4306 0.9419
7.1130 -15.3068 -1.6204 0.9344
13.8243 -13.6386 -1.8644 0.9249
11.9546 1.3717 -1.1552 0.9528
8.2687 3.3229 -0.8555 0.9648
5.5093 4.1879 -0.6644 0.9726
4.7265 4.3093 -0.6141 0.9746
4.1329 4.5059 -0.5870 0.9757
3.6519 4.7744 -0.5771 0.9761
2.5713 5.0074 -0.5404 0.9776
2.0687 5.1038 -0.5287 0.9781
1.6252 5.3327 -0.5352 0.9778
1.1860 5.6611 -0.5553 0.9770
0.6860 5.8249 -0.5631 0.9767
0.0811 2.8998 -0.2785 0.9884
-0.9367 6.1713 -0.5993 0.9752
-2.2551 6.6009 -0.6697 0.9724
-2.7201 1.5839 -0.3022 0.9874
-18.3800 3.1576 -1.7904 0.9278
-16.7795 -1.6451 -1.6186 0.9345
-16.1060 -3.0477 -1.5737 0.9363
-14.5908 -5.5853 -1.4999 0.9391
-11.0047 -9.7054 -1.4087 0.9427
-9.3230 -9.8333 -1.3009 0.9470
-6.3264 -11.8351 -1.2884 0.9475
-5.2580 -12.3806 -1.2913 0.9474
-4.1541 -12.8652 -1.2979 0.9471
-3.0139 -13.2881 -1.3081 0.9467
4.6567 -14.4038 -1.4533 0.9410
8.1169 -15.1714 -1.6519 0.9332
13.1706 -13.8814 -1.8371 0.9260
2.3641 -0.9040 -0.2430 0.9899
18.1204 -0.1463 -1.7397 0.9298
-12.8240 -4.2374 -1.6043 0.9470
-12.1712 -5.2672 -1.5753 0.9480
-11.4693 -6.2316 -1.5505 0.9488
-10.7217 -7.1322 -1.5296 0.9495
-9.9313 -7.9702 -1.5126 0.9500
-6.9061 -9.5389 -1.3989 0.9537
-5.9467 -9.9803 -1.3800 0.9543
-4.0953 -10.9204 -1.3854 0.9541
-2.1187 -11.6296 -1.4042 0.9535
-0.0198 -12.0956 -1.4368 0.9524
1.0749 -12.2315 -1.4585 0.9517
4.8665 -13.1067 -1.6608 0.9452
6.1633 -12.9299 -1.7015 0.9439
7.4869 -12.6589 -1.7470 0.9425
8.8346 -12.2869 -1.7976 0.9409
11.5872 -11.2096 -1.9151 0.9371
15.7646 -8.6321 -2.1350 0.9302
17.1319 -7.4804 -2.2206 0.9275
18.3207 -4.3498 -2.2367 0.9270
19.4369 -2.8148 -2.3329 0.9239
15.0276 0.5225 -1.7862 0.9412
11.7623 1.4666 -1.4080 0.9534
9.0060 2.8118 -1.1207 0.9627
6.8782 3.5913 -0.9217 0.9692
5.4662 4.2404 -0.8218 0.9725
4.0657 4.5208 -0.7222 0.9758
3.5885 4.7882 -0.7108 0.9762
2.5215 5.0311 -0.6685 0.9776
1.1305 5.6724 -0.6871 0.9770
0.6295 5.8365 -0.6973 0.9766
0.0516 2.8417 -0.3376 0.9886
-1.0008 6.1847 -0.7442 0.9751
-1.6807 6.5898 -0.8078 0.9730
-15.5939 7.1177 -2.0362 0.9333
-15.5972 5.4982 -1.9645 0.9356
-15.4889 3.9487 -1.8987 0.9376
-14.9817 1.0662 -1.7841 0.9413
-14.6021 -0.2664 -1.7348 0.9429
-14.1496 -1.5274 -1.6905 0.9443
-13.6310 -2.7180 -1.6510 0.9456
-11.0034 -6.8064 -1.5369 0.9492
-10.2285 -7.6674 -1.5185 0.9498
-9.4124 -8.4666 -1.5038 0.9503
-8.4851 -9.1271 -1.4803 0.9510
-6.2751 -9.7817 -1.3805 0.9543
-2.4936 -11.5162 -1.3997 0.9536
-0.4171 -12.0285 -1.4297 0.9527
1.7937 -12.3774 -1.4856 0.9509
3.0340 -12.7734 -1.5595 0.9485
8.3335 -12.4367 -1.7783 0.9415
9.6947 -11.9973 -1.8322 0.9398
11.0737 -11.4445 -1.8917 0.9379
12.4648 -10.7698 -1.9568 0.9358
13.8609 -9.9644 -2.0278 0.9335
17.8889 -4.8766 -2.2025 0.9280
15.9337 0.0275 -1.8927 0.9378
14.2788 1.3032 -1.7032 0.9439
11.1660 2.0354 -1.3482 0.9553
8.4981 3.1878 -1.0781 0.9641
6.3258 3.7700 -0.8747 0.9708
4.2769 4.4508 -0.7332 0.9754
3.7111 4.6251 -0.7044 0.9764
2.2197 5.1306 -0.6640 0.9777
0.2951 5.7619 -0.6853 0.9770
-0.2262 5.9322 -0.7052 0.9764
-0.7832 6.1138 -0.7322 0.9755
-1.4220 6.4595 -0.7857 0.9737
-14.5853 13.0288 -2.3231 0.9242
-15.3848 9.4434 -2.1443 0.9299
-15.6097 6.0893 -1.9903 0.9347
-15.5412 4.5136 -1.9224 0.9369
-15.3685 3.0093 -1.8602 0.9389
-14.7514 0.2182 -1.7525 0.9423
-13.2730 -3.4327 -1.6285 0.9463
-11.9932 -5.5243 -1.5685 0.9482
-11.2791 -6.4720 -1.5447 0.9490
-10.5201 -7.3562 -1.5248 0.9496
-8.8780 -8.9387 -1.4965 0.9505
-7.6990 -9.2770 -1.4320 0.9526
-6.6359 -9.6288 -1.3891 0.9540
-5.7131 -10.1154 -1.3800 0.9543
-4.7950 -10.5991 -1.3819 0.9542
0.2622 -12.1374 -1.4421 0.9523
1.3646 -12.2557 -1.4648 0.9515
2.5610 -12.6225 -1.5299 0.9494
5.2011 -13.0694 -1.6709 0.9449
6.5051 -12.8687 -1.7128 0.9436
7.8353 -12.5721 -1.7597 0.9421
11.9491 -11.0342 -1.9320 0.9366
13.3444 -10.2782 -2.0008 0.9344
14.7391 -9.3857 -2.0756 0.9320
2.3580 -0.9650 -0.3027 0.9898
17.4487 -5.3816 -2.1690 0.9291
18.6187 -3.9661 -2.2613 0.9262
19.4358 -0.6086 -2.3098 0.9247
11.4722 1.7019 -1.3777 0.9544
9.9336 2.3947 -1.2138 0.9597
8.7412 2.9536 -1.0960 0.9635
7.8397 3.4553 -1.0177 0.9661
6.6397 3.6655 -0.9009 0.9699
6.0131 4.0585 -0.8617 0.9712
5.1246 4.1695 -0.7848 0.9737
3.8946 4.5383 -0.7104 0.9762
3.4504 4.8338 -0.7055 0.9764
1.9210 5.2289 -0.6617 0.9778
1.4483 5.3841 -0.6623 0.9778
1.0015 5.7147 -0.6892 0.9769
0.4850 5.7466 -0.6850 0.9770
-0.5722 6.0451 -0.7213 0.9758
-1.1947 6.4318 -0.7771 0.9740
-2.5324 6.6826 -0.8489 0.9716
-15.2109 2.0987 -1.8240 0.9400
-14.8904 0.7126 -1.7708 0.9417
-14.4911 -0.6013 -1.7228 0.9433
-14.0208 -1.8438 -1.6798 0.9446
-13.4860 -3.0164 -1.6415 0.9459
-12.8925 -4.1203 -1.6078 0.9469
-12.2453 -5.1573 -1.5783 0.9479
-11.5486 -6.1289 -1.5530 0.9487
-10.8059 -7.0364 -1.5317 0.9494
-8.1348 -9.1684 -1.4560 0.9518
-5.1383 -10.4267 -1.3808 0.9543
-4.2002 -10.8747 -1.3848 0.9541
-1.1994 -11.8680 -1.4169 0.9531
0.9533 -12.2199 -1.4560 0.9518
2.1050 -12.4769 -1.5030 0.9503
6.0196 -12.9538 -1.6968 0.9441
11.4346 -11.2811 -1.9080 0.9373
12.8278 -10.5733 -1.9747 0.9352
14.2238 -9.7323 -2.0472 0.9329
16.9832 -7.6146 -2.2109 0.9278
17.0010 -5.8650 -2.1363 0.9301
18.1935 -4.5084 -2.2265 0.9273
14.2740 -2.2102 -1.7158 0.9435
11.9516 1.3713 -1.4290 0.9527
9.1208 2.7498 -1.1316 0.9624
8.2543 3.3170 -1.0567 0.9648
6.1156 3.8400 -0.8578 0.9713
5.5442 4.2145 -0.8272 0.9723
4.1277 4.5003 -0.7254 0.9757
3.1236 4.9418 -0.6945 0.9767
2.5674 4.9999 -0.6676 0.9776
2.0664 5.0980 -0.6534 0.9781
1.1847 5.6546 -0.6863 0.9770
0.6852 5.8182 -0.6959 0.9767
-0.3672 5.9782 -0.7115 0.9762
-2.2519 6.5915 -0.8274 0.9723
-14.7261 12.5520 -2.2985 0.9250
-15.1623 10.7463 -2.2076 0.9279
-15.4441 8.9928 -2.1229 0.9305
-15.5862 7.2996 -2.0444 0.9330
-14.6475 -0.1236 -1.7400 0.9427
-13.6909 -2.5907 -1.6551 0.9454
-13.1186 -3.7198 -1.6197 0.9466
-11.0858 -6.7081 -1.5392 0.9491
-10.3156 -7.5760 -1.5203 0.9498
-6.3725 -9.7225 -1.3809 0.9543
-5.4773 -10.2467 -1.3801 0.9543
-2.6040 -11.4810 -1.3984 0.9537
-0.5342 -12.0069 -1.4277 0.9527
2.8917 -12.7280 -1.5504 0.9488
5.5377 -13.0261 -1.6813 0.9446
8.1853 -12.4784 -1.7727 0.9417
9.5443 -12.0509 -1.8261 0.9400
10.9215 -11.5110 -1.8849 0.9381
12.3117 -10.8501 -1.9493 0.9360
15.1006 -9.1300 -2.0961 0.9314
2.3638 -0.9039 -0.3006 0.9899
17.7591 -5.0287 -2.1925 0.9283
18.0540 -0.1458 -2.1446 0.9299
14.6177 1.1897 -1.7421 0.9426
-9.4106 -6.2601 -1.6014 0.9554
-8.7287 -7.0051 -1.5858 0.9558
-7.2478 -8.3318 -1.5647 0.9564
-6.4530 -8.9131 -1.5591 0.9565
-3.8715 -10.3237 -1.5622 0.9564
-2.9499 -10.6797 -1.5699 0.9562
-1.0222 -11.2120 -1.5952 0.9555
1.0098 -11.4908 -1.6344 0.9545
4.2271 -11.3846 -1.7207 0.9521
5.3363 -11.1950 -1.7572 0.9511
6.4591 -10.9211 -1.7978 0.9500
7.5916 -10.5582 -1.8425 0.9488
8.7292 -10.1011 -1.8916 0.9475
9.8662 -9.5447 -1.9450 0.9461
13.1981 -7.2268 -2.1320 0.9410
14.2498 -6.2220 -2.2031 0.9391
15.0227 -3.5668 -2.1877 0.9395
16.5145 -0.9015 -2.3434 0.9354
15.0239 0.5224 -2.1300 0.9411
11.6325 1.4504 -1.6610 0.9537
8.9018 2.7792 -1.3213 0.9630
6.1068 3.9185 -1.0281 0.9711
5.4588 4.2346 -0.9789 0.9725
4.6466 4.3206 -0.8990 0.9747
4.0607 4.5152 -0.8604 0.9758
3.0641 4.9545 -0.8254 0.9767
1.5696 5.3377 -0.7883 0.9778
1.1292 5.6659 -0.8186 0.9769
0.0513 2.8284 -0.4008 0.9886
-1.6656 6.5307 -0.9549 0.9731
-9.0440 15.8846 -2.5899 0.9288
-10.9456 13.0969 -2.4184 0.9334
-12.6650 8.7912 -2.1844 0.9396
-13.1543 6.0042 -2.0488 0.9433
-13.2300 4.6637 -1.9876 0.9449
-13.2052 3.3665 -1.9309 0.9464
-11.8491 -2.3627 -1.7119 0.9524
-10.8515 -4.2763 -1.6526 0.9540
-10.2752 -5.1508 -1.6286 0.9546
-9.6522 -5.9706 -1.6081 0.9552
-8.9857 -6.7358 -1.5912 0.9556
-7.5329 -8.1028 -1.5676 0.9563
-6.7511 -8.7045 -1.5608 0.9565
-5.9348 -9.2512 -1.5573 0.9566
-4.2050 -10.1772 -1.5602 0.9565
-3.2942 -10.5548 -1.5666 0.9563
-2.3545 -10.8736 -1.5764 0.9560
-1.3869 -11.1321 -1.5895 0.9557
2.7353 -11.5158 -1.6771 0.9533
6.0424 -11.0325 -1.7823 0.9505
9.4461 -9.7625 -1.9248 0.9466
10.5793 -9.1407 -1.9810 0.9451
11.6999 -8.4110 -2.0417 0.9434
12.7991 -7.5682 -2.1068 0.9417
13.8658 -6.6078 -2.1763 0.9398
2.3868 -0.8859 -0.3607 0.9898
15.5322 -2.7759 -2.2356 0.9382
16.2681 -1.4281 -2.3139 0.9362
15.9298 0.0275 -2.2571 0.9377
14.2384 1.2995 -2.0258 0.9439
11.3795 2.0743 -1.6389 0.9543
5.6813 4.1141 -0.9939 0.9721
4.8776 4.2438 -0.9161 0.9742
3.7086 4.6220 -0.8396 0.9763
3.2535 4.8919 -0.8324 0.9765
0.8156 5.7686 -0.8255 0.9767
0.2948 5.7552 -0.8165 0.9770
-0.2259 5.9250 -0.8401 0.9763
-2.0600 6.5210 -0.9690 0.9728
-2.7630 6.6225 -1.0167 0.9714
-8.6214 16.3777 -2.6224 0.9280
-10.6418 13.6236 -2.4494 0.9325
-12.5205 9.3183 -2.2114 0.9389
-12.8710 7.9004 -2.1398 0.9408
-13.2142 5.1548 -2.0097 0.9443
-13.2255 3.8411 -1.9513 0.9459
-13.1418 2.5733 -1.8974 0.9473
-12.9711 1.3549 -1.8479 0.9487
-12.3981 -0.9254 -1.7616 0.9510
-11.5585 -2.9893 -1.6916 0.9529
-10.4940 -4.8337 -1.6370 0.9544
-9.2371 -6.4591 -1.5970 0.9555
-8.5447 -7.1900 -1.5823 0.9559
-4.5343 -10.0230 -1.5587 0.9565
-1.7480 -11.0436 -1.5842 0.9558
1.2813 -11.5074 -1.6406 0.9543
5.6272 -11.1320 -1.7674 0.9509
6.7530 -10.8354 -1.8090 0.9497
9.0253 -9.9661 -1.9051 0.9471
10.1611 -9.3830 -1.9597 0.9457
12.3956 -7.8934 -2.0822 0.9424
13.4757 -6.9770 -2.1501 0.9405
14.3861 -4.4370 -2.1331 0.9410
15.2370 -3.2457 -2.2074 0.9390
16.0072 -1.9397 -2.2846 0.9369
11.4692 1.7014 -1.6429 0.9542
8.5179 2.8781 -1.2739 0.9643
7.3758 3.2509 -1.1421 0.9680
6.6165 3.6527 -1.0709 0.9699
5.1177 4.1639 -0.9348 0.9737
2.9327 4.9979 -0.8211 0.9769
1.9188 5.2229 -0.7884 0.9778
1.4467 5.3780 -0.7891 0.9778
0.4855 5.7525 -0.8180 0.9769
-0.0145 2.8423 -0.4027 0.9886
-0.5715 6.0376 -0.8593 0.9758
-1.8444 6.5887 -0.9694 0.9727
-6.1425 12.6668 -1.9946 0.9447
-11.1466 12.7247 -2.3969 0.9339
-11.8244 11.2864 -2.3161 0.9361
-12.7561 8.4222 -2.1658 0.9401
-12.8223 0.6136 -1.8189 0.9495
-11.7319 -2.6240 -1.7034 0.9526
-10.1175 -5.3694 -1.6229 0.9548
-9.4829 -6.1750 -1.6034 0.9553
-8.8056 -6.9260 -1.5873 0.9557
-8.0881 -7.6226 -1.5747 0.9561
-7.3329 -8.2646 -1.5655 0.9563
-6.5420 -8.8520 -1.5596 0.9565
-5.7170 -9.3843 -1.5570 0.9566
-3.9709 -10.2810 -1.5616 0.9565
0.8958 -11.4824 -1.6319 0.9545
1.9450 -11.5280 -1.6565 0.9539
5.2138 -11.2198 -1.7530 0.9512
6.3353 -10.9554 -1.7931 0.9502
7.4669 -10.6025 -1.8374 0.9490
14.2751 -2.2104 -2.0467 0.9433
11.9485 1.3710 -1.7041 0.9526
5.5366 4.2087 -0.9854 0.9723
4.1226 4.4947 -0.8642 0.9757
3.1200 4.9360 -0.8274 0.9767
1.6215 5.3206 -0.7881 0.9778
1.1833 5.6482 -0.8177 0.9770
0.6845 5.8115 -0.8291 0.9766
-0.3667 5.9709 -0.8476 0.9761
-1.5917 6.5067 -0.9491 0.9733
-2.2387 6.5530 -0.9812 0.9724
-7.7089 17.3326 -2.6878 0.9262
-8.9209 16.0319 -2.5995 0.9286
-10.8577 13.2535 -2.4276 0.9331
-12.1768 10.3791 -2.2670 0.9374
-12.6240 8.9473 -2.1924 0.9394
-12.9417 7.5357 -2.1219 0.9413
-13.2268 4.8088 -1.9941 0.9447
-13.2126 3.5067 -1.9369 0.9463
-12.3030 -1.2062 -1.7516 0.9513
-11.8973 -2.2513 -1.7156 0.9523
-11.4320 -3.2416 -1.6837 0.9531
-10.9118 -4.1770 -1.6555 0.9539
-10.3408 -5.0575 -1.6310 0.9546
-8.3581 -7.3712 -1.5790 0.9560
-7.6166 -8.0335 -1.5685 0.9563
-6.8386 -8.6411 -1.5614 0.9565
-6.0260 -9.1938 -1.5575 0.9566
-5.1804 -9.6912 -1.5570 0.9566
-4.3032 -10.1323 -1.5597 0.9565
-3.3956 -10.5162 -1.5658 0.9563
-2.4590 -10.8415 -1.5751 0.9561
-1.4945 -11.1067 -1.5879 0.9557
0.5135 -11.4481 -1.6237 0.9548
2.6173 -11.5201 -1.6739 0.9534
4.8023 -11.2962 -1.7392 0.9516
8.1832 -10.3324 -1.8675 0.9481
10.4553 -9.2141 -1.9746 0.9453
11.5778 -8.4965 -2.0348 0.9436
13.7507 -6.7191 -2.1685 0.9400
15.4458 -2.9169 -2.2272 0.9385
16.1921 -1.5815 -2.3052 0.9364
16.8347 -0.1360 -2.3854 0.9342
14.5754 1.1863 -2.0720 0.9426
-9.4505 -4.0898 -1.6964 0.9591
-8.9370 -4.8557 -1.6755 0.9596
-7.7805 -6.2442 -1.6435 0.9604
-6.4699 -7.4375 -1.6240 0.9608
-4.2541 -8.8503 -1.6177 0.9610
-3.4566 -9.2171 -1.6217 0.9609
-2.6323 -9.5300 -1.6287 0.9607
-0.9106 -9.9876 -1.6522 0.9602
2.7747 -10.1746 -1.7374 0.9581
4.7014 -9.8631 -1.8000 0.9567
5.6750 -9.5954 -1.8365 0.9558
7.6213 -8.8191 -1.9202 0.9538
8.5833 -8.3035 -1.9674 0.9527
10.4509 -7.0014 -2.0723 0.9503
12.0447 -4.0235 -2.0920 0.9498
12.7185 -3.0197 -2.1535 0.9484
13.3183 -1.9287 -2.2169 0.9469
14.2413 0.4952 -2.3475 0.9439
11.6018 1.4466 -1.9261 0.9537
9.0783 2.8343 -1.5668 0.9622
7.7524 3.2040 -1.3819 0.9666
6.6559 3.4753 -1.2370 0.9700
5.2085 4.0404 -1.0859 0.9736
4.0556 4.5096 -0.9991 0.9757
3.5800 4.7767 -0.9834 0.9761
2.5157 5.0196 -0.9250 0.9775
1.5679 5.3316 -0.9155 0.9777
-0.4264 5.9831 -0.9882 0.9760
-0.9851 6.0874 -1.0159 0.9753
-1.5763 6.1806 -1.0508 0.9745
-6.9997 12.2942 -2.3306 0.9443
-8.4495 12.1703 -2.4408 0.9417
-10.8445 7.5275 -2.1747 0.9479
-11.2980 0.8041 -1.8659 0.9551
-10.8099 -1.1669 -1.7912 0.9569
-10.0763 -2.9642 -1.7303 0.9583
-9.1323 -4.5779 -1.6829 0.9594
-5.3004 -8.2623 -1.6171 0.9610
-2.9402 -9.4206 -1.6258 0.9608
-0.3496 -10.0835 -1.6622 0.9599
2.4230 -10.2010 -1.7273 0.9584
4.3425 -9.9427 -1.7874 0.9570
6.2895 -9.3863 -1.8613 0.9552
8.2289 -8.5045 -1.9495 0.9532
9.1815 -7.9330 -1.9989 0.9520
10.1132 -7.2703 -2.0519 0.9508
11.0156 -6.5136 -2.1082 0.9494
11.8791 -5.6610 -2.1678 0.9481
12.4772 -3.4013 -2.1305 0.9489
13.6522 -1.1985 -2.2577 0.9460
14.1021 0.0244 -2.3232 0.9444
14.1980 1.2958 -2.3487 0.9438
11.3526 2.0694 -1.9010 0.9543
9.6104 2.6555 -1.6425 0.9604
5.4268 3.9298 -1.1038 0.9732
3.7062 4.6189 -0.9756 0.9763
3.2496 4.8861 -0.9667 0.9765
1.7422 5.2743 -0.9151 0.9777
1.3097 5.5998 -0.9474 0.9770
-0.7751 6.0511 -1.0050 0.9756
-6.6588 12.6494 -2.3549 0.9437
-7.5436 11.6702 -2.2892 0.9452
-8.9560 11.4654 -2.3967 0.9427
-10.7018 7.9647 -2.1977 0.9474
-11.0533 6.7847 -2.1366 0.9488
-11.4464 4.4652 -2.0241 0.9514
-11.5009 3.3402 -1.9729 0.9526
-11.4694 2.2458 -1.9253 0.9537
-11.1731 0.1652 -1.8409 0.9557
-10.2288 -2.6454 -1.7405 0.9581
-9.8001 -3.4927 -1.7139 0.9587
-9.3213 -4.2936 -1.6907 0.9592
-8.2274 -5.7531 -1.6539 0.9601
-7.6183 -6.4105 -1.6402 0.9604
-6.9714 -7.0191 -1.6297 0.9607
-6.2890 -7.5781 -1.6223 0.9609
-4.8261 -8.5448 -1.6167 0.9610
-3.2446 -9.3037 -1.6232 0.9608
-1.5583 -9.8450 -1.6421 0.9604
-0.6800 -10.0301 -1.6561 0.9601
0.2194 -10.1555 -1.6734 0.9597
2.0732 -10.2182 -1.7176 0.9586
3.0230 -10.1503 -1.7447 0.9580
3.9845 -10.0122 -1.7752 0.9573
8.8311 -8.1549 -1.9802 0.9524
9.7715 -7.5262 -2.0319 0.9512
10.6858 -6.8046 -2.0870 0.9499
11.5648 -5.9877 -2.1454 0.9486
12.2264 -3.7709 -2.1078 0.9495
14.3298 0.8318 -2.3647 0.9435
8.7323 2.9506 -1.5185 0.9633
7.4442 3.2811 -1.3402 0.9676
5.0579 4.1153 -1.0742 0.9739
3.4422 4.8223 -0.9761 0.9763
2.3909 5.0607 -0.9221 0.9776
1.9166 5.2170 -0.9156 0.9777
0.9992 5.7015 -0.9536 0.9768
-0.0146 2.8717 -0.4731 0.9884
-1.1353 6.1121 -1.0241 0.9751
-6.1131 12.6060 -2.3080 0.9448
-9.4128 10.7454 -2.3533 0.9437
-2.7056 1.4580 -0.5063 0.9876
-11.4031 4.8881 -2.0439 0.9509
-11.4911 3.7530 -1.9914 0.9522
-11.4907 2.6468 -1.9425 0.9533
-11.4082 1.5740 -1.8972 0.9544
-11.2498 0.5384 -1.8554 0.9554
-11.0212 -0.4573 -1.8172 0.9563
-10.3739 -2.3203 -1.7512 0.9578
-9.9647 -3.1846 -1.7234 0.9585
-8.9956 -4.7740 -1.6777 0.9596
-8.4426 -5.4976 -1.6597 0.9600
-7.2150 -6.7997 -1.6333 0.9606
-5.8418 -7.9046 -1.6192 0.9609
-5.1060 -8.3815 -1.6168 0.9610
-4.3400 -8.8068 -1.6174 0.9610
-3.5454 -9.1794 -1.6211 0.9609
-1.8775 -9.7619 -1.6376 0.9605
-1.0074 -9.9685 -1.6506 0.9602
-0.1157 -10.1162 -1.6666 0.9598
0.7960 -10.2029 -1.6859 0.9594
5.5680 -9.6286 -1.8323 0.9559
7.5150 -8.8704 -1.9152 0.9540
11.2444 -6.3011 -2.1234 0.9491
12.0960 -5.4233 -2.1838 0.9477
14.2016 0.3545 -2.3403 0.9440
11.9454 1.3706 -1.9808 0.9524
7.8886 3.1701 -1.4006 0.9661
6.7639 3.4477 -1.2507 0.9697
5.9144 3.7136 -1.1505 0.9721
4.7025 4.2874 -1.0483 0.9745
2.5597 4.9849 -0.9232 0.9775
1.1820 5.6417 -0.9496 0.9769
-0.9223 6.0767 -1.0125 0.9754
-1.5092 6.1695 -1.0463 0.9746
-1.8883 5.5273 -0.9622 0.9766
-5.9293 13.3312 -2.4036 0.9426
-6.9002 12.4005 -2.3378 0.9441
-9.8207 10.0142 -2.3106 0.9447
-11.1272 6.4792 -2.1212 0.9491
-11.4692 4.1698 -2.0104 0.9517
-11.4479 1.9667 -1.9135 0.9540
-11.3169 0.9170 -1.8704 0.9550
-10.8434 -1.0631 -1.7949 0.9568
-10.1223 -2.8702 -1.7333 0.9582
-9.6802 -3.7056 -1.7076 0.9589
-9.1890 -4.4942 -1.6851 0.9594
-8.0727 -5.9288 -1.6500 0.9602
-6.1060 -7.7153 -1.6209 0.9609
-3.0309 -9.3867 -1.6250 0.9608
-2.1935 -9.6709 -1.6336 0.9606
-1.3319 -9.8988 -1.6454 0.9603
-0.4480 -10.0685 -1.6603 0.9600
0.4565 -10.1781 -1.6784 0.9595
1.3796 -10.2251 -1.6997 0.9590
8.1234 -8.5618 -1.9443 0.9533
10.0122 -7.3476 -2.0459 0.9509
10.9182 -6.6013 -2.1019 0.9496
11.7865 -5.7593 -2.1611 0.9482
12.4037 -3.5123 -2.1237 0.9491
14.0578 -0.1135 -2.3160 0.9446
14.4102 1.1729 -2.3818 0.9431
-8.0400 -4.3684 -1.7198 0.9634
-5.8385 -6.7117 -1.6721 0.9644
-4.5352 -7.6113 -1.6653 0.9646
-2.3748 -8.5975 -1.6765 0.9643
-1.6077 -8.8243 -1.6859 0.9642
-0.8203 -8.9977 -1.6982 0.9639
-0.0149 -9.1159 -1.7134 0.9636
0.8065 -9.1770 -1.7316 0.9632
1.6413 -9.1789 -1.7526 0.9628
2.4870 -9.1195 -1.7767 0.9623
3.3404 -8.9965 -1.8038 0.9617
4.1982 -8.8074 -1.8339 0.9611
5.0566 -8.5498 -1.8671 0.9604
7.5891 -7.3417 -1.9847 0.9579
8.4002 -6.7866 -2.0298 0.9570
10.4726 -3.4984 -2.0754 0.9561
11.0163 -2.6155 -2.1282 0.9550
11.4905 -1.6640 -2.1823 0.9538
11.8847 -0.6487 -2.2372 0.9527
10.6238 2.3014 -2.0432 0.9567
9.0605 2.8288 -1.7841 0.9621
6.8091 3.5552 -1.4438 0.9692
5.1279 3.9779 -1.2199 0.9739
3.5756 4.7709 -1.1206 0.9760
3.0569 4.9428 -1.0924 0.9766
2.0205 5.1286 -1.0361 0.9778
1.5516 5.2762 -1.0337 0.9779
0.0490 2.6975 -0.5071 0.9891
-0.4131 5.7962 -1.0922 0.9766
-0.9670 5.9758 -1.1378 0.9757
-1.5883 6.2275 -1.2080 0.9742
-6.7450 9.7152 -2.2230 0.9530
-7.3976 8.8516 -2.1683 0.9541
-7.9550 7.9543 -2.1145 0.9552
-2.7039 1.5391 -0.5848 0.9874
-10.1253 3.5693 -2.0179 0.9572
-10.0494 0.7152 -1.8937 0.9598
-9.3735 -1.8691 -1.7965 0.9618
-9.0353 -2.6580 -1.7702 0.9624
-8.6469 -3.4076 -1.7469 0.9629
-8.2120 -4.1166 -1.7266 0.9633
-7.2147 -5.4083 -1.6948 0.9640
-6.6580 -5.9889 -1.6832 0.9642
-6.0660 -6.5249 -1.6745 0.9644
-3.3892 -8.2028 -1.6682 0.9645
-2.6530 -8.5004 -1.6737 0.9644
-0.3148 -9.0787 -1.7075 0.9637
0.5009 -9.1611 -1.7245 0.9633
2.1731 -9.1488 -1.7675 0.9625
3.0240 -9.0496 -1.7934 0.9619
4.7393 -8.6533 -1.8544 0.9606
7.2834 -7.5273 -1.9687 0.9583
8.1030 -7.0011 -2.0128 0.9574
9.6596 -5.7118 -2.1093 0.9554
10.3806 -4.9469 -2.1614 0.9543
2.3928 -0.8882 -0.4797 0.9897
10.8227 -2.9503 -2.1085 0.9554
11.3238 -2.0238 -2.1622 0.9543
12.0872 0.0209 -2.2719 0.9520
12.3283 1.1251 -2.3269 0.9509
11.3255 2.0644 -2.1638 0.9542
9.5906 2.6500 -1.8702 0.9603
8.2599 3.0985 -1.6582 0.9647
7.1919 3.4578 -1.4999 0.9680
4.7184 4.1054 -1.1756 0.9749
4.1327 4.3007 -1.1211 0.9760
2.1937 5.0704 -1.0384 0.9778
1.7253 5.2232 -1.0339 0.9779
-0.7567 5.9077 -1.1195 0.9761
-1.3493 6.1292 -1.1796 0.9748
-4.8206 11.5539 -2.3531 0.9503
-5.6963 10.8209 -2.2985 0.9514
-7.7599 8.2894 -2.1342 0.9548
-9.9255 4.9328 -2.0833 0.9559
-10.0869 3.9349 -2.0351 0.9569
-9.9531 0.1472 -1.8710 0.9603
-9.4853 -1.5676 -1.8070 0.9616
-9.1664 -2.3706 -1.7796 0.9622
-8.3781 -3.8591 -1.7338 0.9632
-7.9155 -4.5419 -1.7153 0.9635
-6.8682 -5.7793 -1.6872 0.9641
-6.2889 -6.3319 -1.6774 0.9643
-5.6759 -6.8393 -1.6705 0.9645
-5.0312 -7.3004 -1.6665 0.9646
-4.3570 -7.7144 -1.6653 0.9646
-1.4047 -8.8747 -1.6889 0.9641
-0.6124 -9.0338 -1.7019 0.9638
0.1974 -9.1373 -1.7179 0.9635
1.0225 -9.1832 -1.7368 0.9631
1.8604 -9.1695 -1.7586 0.9626
3.5633 -8.9538 -1.8113 0.9615
4.4217 -8.7471 -1.8422 0.9609
5.2796 -8.4713 -1.8762 0.9602
6.1325 -8.1238 -1.9132 0.9594
8.6070 -6.6293 -2.0420 0.9567
2.3495 -0.9615 -0.4772 0.9897
11.1467 -2.3744 -2.1422 0.9547
11.6012 -1.4058 -2.1965 0.9536
11.9728 -0.3749 -2.2515 0.9524
7.5625 3.3332 -1.5534 0.9669
4.3430 4.2306 -1.1396 0.9756
3.8050 4.4338 -1.0982 0.9765
2.3670 5.0102 -1.0415 0.9777
0.9541 5.4439 -1.0388 0.9778
-0.0147 2.8954 -0.5442 0.9883
-0.5529 5.8416 -1.1029 0.9764
-1.1213 6.0362 -1.1540 0.9753
-1.5699 5.6082 -1.0946 0.9766
-2.5060 6.6130 -1.3292 0.9716
-6.9240 9.4944 -2.2087 0.9533
-9.5614 6.3129 -2.1536 0.9544
-10.0371 4.3025 -2.0526 0.9565
-10.1457 3.3136 -2.0061 0.9575
-9.8315 -0.4079 -1.8495 0.9607
-9.5894 -1.2611 -1.8179 0.9614
-9.2906 -2.0780 -1.7894 0.9620
-8.9389 -2.8568 -1.7639 0.9625
-6.5073 -6.1327 -1.6807 0.9643
-4.6098 -7.5668 -1.6654 0.9646
-3.9180 -7.9505 -1.6660 0.9646
-3.2000 -8.2851 -1.6694 0.9645
-2.4577 -8.5694 -1.6756 0.9644
-0.1041 -9.1057 -1.7116 0.9636
4.9625 -8.5816 -1.8633 0.9605
5.8178 -8.2609 -1.8991 0.9597
6.6650 -7.8671 -1.9380 0.9589
7.4986 -7.3979 -1.9799 0.9580
8.3124 -6.8514 -2.0247 0.9571
9.0992 -6.2259 -2.0723 0.9561
10.4091 -3.5910 -2.0697 0.9562
10.9598 -2.7159 -2.1223 0.9551
11.4421 -1.7717 -2.1763 0.9540
11.8456 -0.7631 -2.2311 0.9528
12.1597 0.3035 -2.2863 0.9517
11.9422 1.3703 -2.2594 0.9523
7.9609 3.1992 -1.6126 0.9657
6.9285 3.5316 -1.4617 0.9688
5.9860 3.7586 -1.3285 0.9716
5.2062 3.9575 -1.2292 0.9737
3.6343 4.7514 -1.1244 0.9759
2.5407 4.9479 -1.0455 0.9776
2.0710 5.1095 -1.0363 0.9778
1.6032 5.2606 -1.0337 0.9779
1.1306 5.3967 -1.0364 0.9778
0.0754 2.6969 -0.5071 0.9891
-0.3548 5.7773 -1.0879 0.9767
-0.9039 5.9554 -1.1322 0.9758
-1.5161 6.1977 -1.1993 0.9744
-1.9792 5.7934 -1.1507 0.9754
-5.9090 10.6192 -2.2842 0.9517
-6.6675 9.8074 -2.2291 0.9529
-7.3307 8.9482 -2.1743 0.9540
-7.8985 8.0540 -2.1203 0.9551
-9.4334 6.6860 -2.1733 0.9540
-9.9757 4.6720 -2.0705 0.9562
-10.1729 2.7000 -1.9783 0.9581
-10.1541 1.7444 -1.9365 0.9589
-9.9059 -0.0836 -1.8620 0.9605
-9.6858 -0.9496 -1.8293 0.9612
-9.4075 -1.7801 -1.7996 0.9618
-7.7882 -4.7127 -1.7110 0.9636
-7.2736 -5.3419 -1.6962 0.9639
-6.1326 -6.4683 -1.6754 0.9644
-4.1771 -7.8142 -1.6654 0.9646
-3.4686 -8.1671 -1.6678 0.9645
2.9302 -9.0636 -1.7904 0.9620
3.7864 -8.9065 -1.8191 0.9614
6.3529 -8.0214 -1.9233 0.9592
9.5777 -5.7908 -2.1037 0.9555
10.3038 -5.0348 -2.1555 0.9544
2.3639 -0.9039 -0.4757 0.9898
11.2723 -2.1288 -2.1562 0.9544
11.7062 -1.1434 -2.2108 0.9533
12.0546 -0.0974 -2.2659 0.9521
12.3069 1.0017 -2.3209 0.9510
-8.0616 -2.6638 -1.7947 0.9659
-7.7029 -3.3335 -1.7742 0.9663
-7.3009 -3.9668 -1.7563 0.9666
-6.8585 -4.5624 -1.7412 0.9669
-5.8633 -5.6353 -1.7190 0.9673
-2.8405 -7.5743 -1.7099 0.9675
-2.1615 -7.8253 -1.7161 0.9674
-1.4625 -8.0277 -1.7248 0.9672
-0.7458 -8.1801 -1.7363 0.9670
-0.0135 -8.2808 -1.7504 0.9667
0.7319 -8.3282 -1.7672 0.9664
1.4878 -8.3206 -1.7867 0.9660
2.2515 -8.2562 -1.8089 0.9656
6.0640 -7.0170 -1.9604 0.9628
6.7953 -6.5738 -1.9985 0.9621
10.0934 -1.4617 -2.1558 0.9592
10.4079 -0.5681 -2.2033 0.9583
10.7853 1.3447 -2.2974 0.9565
9.0426 2.8232 -2.0024 0.9620
5.2305 4.0575 -1.3993 0.9733
4.5507 4.2314 -1.3135 0.9749
3.9499 4.3921 -1.2486 0.9761
1.5173 5.1595 -1.1368 0.9783
0.5895 5.4665 -1.1622 0.9778
0.0486 2.6764 -0.5658 0.9891
-0.4172 5.8548 -1.2407 0.9763
-0.9847 6.0850 -1.3030 0.9751
-1.6197 6.3508 -1.3854 0.9736
-1.9678 5.5805 -1.2508 0.9761
-5.2398 9.2030 -2.2385 0.9576
-5.9115 8.5147 -2.1911 0.9585
-8.4010 5.8314 -2.1617 0.9591
-2.7084 1.5417 -0.6588 0.9873
-8.9119 4.0678 -2.0708 0.9607
-9.1156 2.3239 -1.9885 0.9623
-9.1114 1.4735 -1.9510 0.9630
-9.0416 0.6435 -1.9161 0.9636
-8.9102 -0.1625 -1.8837 0.9642
-8.7208 -0.9414 -1.8541 0.9648
-8.4772 -1.6903 -1.8272 0.9653
-7.8408 -3.0899 -1.7814 0.9661
-7.4544 -3.7368 -1.7626 0.9665
-6.5603 -4.9177 -1.7331 0.9670
-6.0579 -5.4491 -1.7223 0.9672
-5.5218 -5.9395 -1.7142 0.9674
-4.9544 -6.3879 -1.7088 0.9675
-1.7233 -7.9586 -1.7213 0.9673
-1.0129 -8.1296 -1.7317 0.9671
-0.2861 -8.2496 -1.7449 0.9668
1.2071 -8.3299 -1.7792 0.9662
1.9683 -8.2867 -1.8004 0.9658
2.7352 -8.1855 -1.8243 0.9653
4.2729 -7.8017 -1.8803 0.9643
5.0359 -7.5154 -1.9123 0.9637
5.7889 -7.1639 -1.9469 0.9630
7.2447 -6.2596 -2.0238 0.9616
7.9355 -5.7047 -2.0659 0.9608
8.5928 -5.0810 -2.1101 0.9600
2.3959 -0.8893 -0.5402 0.9896
10.5648 0.0182 -2.2332 0.9577
10.7429 0.9805 -2.2803 0.9569
9.5707 2.6446 -2.0989 0.9602
7.1799 3.4521 -1.6840 0.9680
6.2876 3.7472 -1.5472 0.9705
5.5079 3.9885 -1.4375 0.9726
4.7915 4.1689 -1.3425 0.9744
2.1431 4.9536 -1.1409 0.9782
1.6860 5.1040 -1.1362 0.9783
-0.2203 5.7766 -1.2220 0.9766
-4.1946 10.0535 -2.3027 0.9564
-4.9715 9.4442 -2.2560 0.9573
-7.2949 6.5164 -2.0676 0.9608
-8.2708 6.1555 -2.1793 0.9587
-8.5968 5.2768 -2.1322 0.9596
-9.1208 1.7860 -1.9646 0.9627
-8.9658 0.1326 -1.8954 0.9640
-8.7974 -0.6566 -1.8648 0.9646
-8.5734 -1.4169 -1.8368 0.9651
-7.1896 -4.1254 -1.7522 0.9667
-4.5818 -6.6483 -1.7067 0.9675
-3.9681 -7.0257 -1.7056 0.9675
-3.3288 -7.3581 -1.7071 0.9675
-1.9815 -7.8827 -1.7181 0.9673
-0.5567 -8.2113 -1.7397 0.9669
0.9276 -8.3316 -1.7720 0.9663
1.6859 -8.3094 -1.7922 0.9659
3.9891 -7.8914 -1.8691 0.9645
4.7545 -7.6289 -1.9001 0.9639
5.5118 -7.3016 -1.9338 0.9633
6.2561 -6.9083 -1.9701 0.9626
6.9820 -6.4474 -2.0089 0.9619
7.6835 -5.9180 -2.0500 0.9611
8.3540 -5.3197 -2.0935 0.9603
10.1826 -1.2339 -2.1681 0.9589
10.4767 -0.3281 -2.2157 0.9581
10.6876 0.6204 -2.2629 0.9572
10.8072 1.6032 -2.3094 0.9563
10.1527 2.4476 -2.2076 0.9582
8.6990 2.9393 -1.9409 0.9632
7.5495 3.3275 -1.7439 0.9668
5.0445 4.1043 -1.3747 0.9738
4.3878 4.2743 -1.2948 0.9753
3.4339 4.8107 -1.2494 0.9761
2.9223 4.9803 -1.2206 0.9767
2.3137 4.8973 -1.1449 0.9781
1.8547 5.0485 -1.1369 0.9783
0.2431 2.8806 -0.6111 0.9883
-0.5596 5.9118 -1.2552 0.9760
-1.5705 5.6104 -1.2315 0.9765
-6.0732 8.3278 -2.1787 0.9587
-7.1341 6.8095 -2.0847 0.9605
-7.5438 6.0115 -2.0390 0.9613
-8.4858 5.6028 -2.1494 0.9593
-2.7057 1.4580 -0.6497 0.9875
-8.9552 3.8388 -2.0595 0.9609
-9.0742 2.9637 -2.0178 0.9617
-9.1210 2.1010 -1.9785 0.9625
-9.0994 1.2555 -1.9416 0.9631
-8.6625 -1.1392 -1.8468 0.9649
-8.4053 -1.8800 -1.8206 0.9654
-7.7444 -3.2617 -1.7763 0.9662
-7.3470 -3.8991 -1.7582 0.9666
-6.4330 -5.0598 -1.7300 0.9671
-5.9215 -5.5807 -1.7200 0.9673
-5.3771 -6.0603 -1.7126 0.9674
-4.8019 -6.4975 -1.7078 0.9675
-3.5681 -7.2405 -1.7062 0.9675
-2.2370 -7.8001 -1.7153 0.9674
-0.8253 -8.1658 -1.7349 0.9670
0.6495 -8.3256 -1.7652 0.9664
2.1674 -8.2661 -1.8063 0.9657
3.7048 -7.9726 -1.8583 0.9647
5.9826 -7.0616 -1.9564 0.9629
6.7160 -6.6258 -1.9942 0.9622
8.1100 -5.5491 -2.0772 0.9606
8.7574 -4.9074 -2.1220 0.9598
10.7989 2.2288 -2.3308 0.9559
6.0794 3.8172 -1.5174 0.9711
4.0128 4.3749 -1.2549 0.9760
3.6298 4.7456 -1.2629 0.9759
2.0238 4.9929 -1.1388 0.9782
1.5673 5.1430 -1.1365 0.9783
1.1090 5.2933 -1.1432 0.9781
0.0748 2.6774 -0.5662 0.9891
-0.3581 5.8312 -1.2349 0.9764
-0.9195 6.0582 -1.2953 0.9753
-5.1613 9.2754 -2.2437 0.9575
-5.8416 8.5926 -2.1963 0.9584
-6.9622 7.0993 -2.1018 0.9602
-8.3636 5.9277 -2.1669 0.9590
-8.6681 5.0473 -2.1202 0.9598
-8.8921 4.1645 -2.0755 0.9607
-9.1119 2.4184 -1.9928 0.9622
-9.0524 0.7335 -1.9198 0.9635
-8.9275 -0.0753 -1.8872 0.9642
-7.8805 -3.0166 -1.7837 0.9661
-7.4989 -3.6676 -1.7646 0.9664
-7.0756 -4.2815 -1.7481 0.9668
-6.6133 -4.8569 -1.7344 0.9670
-5.5822 -5.8877 -1.7150 0.9674
-3.1585 -7.4371 -1.7079 0.9675
-1.8002 -7.9368 -1.7203 0.9673
-1.0917 -8.1133 -1.7305 0.9671
0.3728 -8.3122 -1.7588 0.9666
1.1241 -8.3312 -1.7770 0.9662
1.8844 -8.2943 -1.7979 0.9658
2.6509 -8.1995 -1.8215 0.9654
3.4202 -8.0452 -1.8479 0.9649
4.1888 -7.8293 -1.8769 0.9643
5.7069 -7.2057 -1.9430 0.9631
6.4470 -6.7949 -1.9799 0.9624
2.3649 -0.9043 -0.5352 0.9897
9.9162 -1.8727 -2.1331 0.9596
10.2667 -1.0028 -2.1805 0.9587
10.7278 0.8731 -2.2751 0.9569
-7.3633 -2.4331 -1.8226 0.9686
-6.6809 -3.6300 -1.7870 0.9692
-5.8446 -4.6905 -1.7613 0.9697
-5.3751 -5.1661 -1.7521 0.9698
-3.7888 -6.3588 -1.7396 0.9700
-1.3404 -7.3572 -1.7576 0.9697
-0.0124 -7.5797 -1.7814 0.9693
2.7530 -7.4146 -1.8588 0.9680
3.4499 -7.2375 -1.8843 0.9676
4.1420 -7.0033 -1.9123 0.9671
4.8251 -6.7106 -1.9425 0.9666
5.4949 -6.3584 -1.9751 0.9661
6.7739 -5.4727 -2.0467 0.9649
7.3720 -4.9387 -2.0855 0.9642
7.9342 -4.3445 -2.1260 0.9635
8.2819 -2.7666 -2.0522 0.9648
8.6657 -2.0575 -2.0933 0.9641
8.9900 -1.3019 -2.1349 0.9634
9.4324 0.3280 -2.2182 0.9620
9.5377 1.1892 -2.2589 0.9613
9.0246 2.8176 -2.2220 0.9619
7.8118 3.2285 -1.9866 0.9659
6.8233 3.5627 -1.8091 0.9689
5.9849 3.8402 -1.6712 0.9712
5.2633 4.0829 -1.5656 0.9730
4.6222 4.2979 -1.4834 0.9744
4.0224 4.4727 -1.4138 0.9756
3.5669 4.7592 -1.3978 0.9759
3.0496 4.9310 -1.3626 0.9765
1.0733 5.3855 -1.2906 0.9777
0.0482 2.6557 -0.6243 0.9891
-0.4248 5.9607 -1.4045 0.9757
-1.6185 6.3459 -1.5392 0.9734
-3.9735 8.7032 -2.2486 0.9615
-4.6475 8.1627 -2.2076 0.9621
-5.2558 7.5703 -2.1659 0.9628
-6.2663 6.2657 -2.0826 0.9642
-6.6665 5.5704 -2.0417 0.9649
-8.0330 3.6666 -2.0753 0.9644
-8.1743 2.8815 -2.0370 0.9650
-8.2489 2.1030 -2.0007 0.9656
-8.2104 0.5843 -1.9345 0.9667
-8.1036 -0.1478 -1.9049 0.9672
-7.9427 -0.8574 -1.8776 0.9677
-7.1662 -2.8241 -1.8103 0.9688
-6.4331 -3.9794 -1.7778 0.9694
-5.5526 -4.9946 -1.7552 0.9698
-3.9976 -6.2314 -1.7400 0.9700
-2.8307 -6.8510 -1.7422 0.9700
0.4161 -7.6091 -1.7910 0.9692
1.7973 -7.5669 -1.8279 0.9685
2.4948 -7.4659 -1.8500 0.9682
3.8868 -7.0967 -1.9017 0.9673
4.5737 -6.8258 -1.9311 0.9668
5.2490 -6.4957 -1.9628 0.9663
6.5448 -5.6549 -2.0328 0.9651
7.7308 -4.5713 -2.1108 0.9638
8.2656 -3.9390 -2.1519 0.9631
2.3990 -0.8905 -0.6014 0.9895
8.5303 -2.3254 -2.0780 0.9643
8.8774 -1.5865 -2.1195 0.9636
9.1606 -0.8042 -2.1612 0.9629
9.3731 0.0162 -2.2029 0.9622
4.8515 4.2211 -1.5114 0.9739
3.6986 4.6095 -1.3890 0.9760
3.2379 4.8685 -1.3742 0.9763
2.6426 4.8648 -1.3011 0.9775
1.7062 5.1651 -1.2784 0.9779
1.2452 5.3242 -1.2851 0.9778
0.7768 5.4937 -1.3040 0.9775
-0.2242 5.8803 -1.3830 0.9761
-0.7782 6.0750 -1.4394 0.9751
-1.7320 5.4828 -1.3513 0.9767
-6.5266 5.8301 -2.0568 0.9647
-6.8828 5.1225 -2.0164 0.9654
-7.7263 4.7425 -2.1307 0.9634
-8.2289 2.3899 -2.0139 0.9654
-8.2356 0.8602 -1.9461 0.9665
-8.1496 0.1205 -1.9156 0.9671
-8.0083 -0.5977 -1.8874 0.9675
-7.8149 -1.2915 -1.8616 0.9680
-7.2840 -2.5960 -1.8174 0.9687
-6.9524 -3.2024 -1.7990 0.9690
-6.5804 -3.7759 -1.7831 0.9693
-5.7256 -4.8179 -1.7587 0.9697
-4.2028 -6.0984 -1.7407 0.9700
-2.4448 -7.0103 -1.7449 0.9700
-1.8166 -7.2267 -1.7513 0.9698
-1.1708 -7.3970 -1.7601 0.9697
-0.5098 -7.5200 -1.7714 0.9695
0.1640 -7.5943 -1.7852 0.9693
1.5400 -7.5906 -1.8203 0.9687
2.2366 -7.5096 -1.8415 0.9683
2.9346 -7.3740 -1.8652 0.9679
3.6306 -7.1821 -1.8914 0.9675
4.3207 -6.9328 -1.9199 0.9670
5.0008 -6.6247 -1.9508 0.9665
6.3120 -5.8287 -2.0192 0.9653
7.5220 -4.7899 -2.0958 0.9640
9.0637 -1.0983 -2.1458 0.9632
9.3031 -0.2913 -2.1875 0.9625
9.5513 1.4169 -2.2693 0.9611
7.5364 3.3217 -1.9356 0.9667
6.5879 3.6369 -1.7686 0.9696
5.7879 3.9065 -1.6411 0.9717
5.0898 4.1412 -1.5421 0.9734
4.4659 4.3503 -1.4652 0.9747
3.8727 4.5127 -1.3976 0.9759
2.9189 4.9744 -1.3555 0.9766
2.3423 4.9579 -1.2887 0.9777
1.8766 5.1082 -1.2790 0.9779
1.4161 5.2644 -1.2812 0.9778
0.9516 5.4296 -1.2955 0.9776
0.2374 2.8122 -0.6633 0.9885
-0.0137 2.6966 -0.6338 0.9890
-1.1508 6.1953 -1.4809 0.9744
-1.5711 5.6125 -1.3698 0.9763
-4.1550 8.5681 -2.2380 0.9616
-5.4030 7.4088 -2.1551 0.9630
-5.9250 6.7638 -2.1133 0.9637
-8.2000 2.6781 -2.0274 0.9652
-7.8923 -1.0379 -1.8709 0.9678
-7.6677 -1.7150 -1.8466 0.9682
-6.7225 -3.5677 -1.7887 0.9692
-5.8942 -4.6360 -1.7624 0.9697
-4.9309 -5.5574 -1.7461 0.9699
-4.4045 -5.9597 -1.7417 0.9700
-3.8511 -6.3216 -1.7397 0.9700
-2.6723 -6.9189 -1.7432 0.9700
-2.0511 -7.1519 -1.7486 0.9699
-1.4116 -7.3395 -1.7566 0.9698
-0.7560 -7.4802 -1.7670 0.9696
-0.0866 -7.5726 -1.7799 0.9694
1.2834 -7.6069 -1.8131 0.9688
3.3736 -7.2597 -1.8814 0.9676
4.7507 -6.7456 -1.9391 0.9667
5.4221 -6.4000 -1.9714 0.9661
7.3079 -5.0003 -2.0811 0.9643
8.2365 -2.8414 -2.0477 0.9648
8.9575 -1.3870 -2.1303 0.9634
9.4159 0.2350 -2.2137 0.9620
9.5302 1.0935 -2.2545 0.9614
9.5599 1.9731 -2.2942 0.9607
6.9232 3.5289 -1.8263 0.9686
5.3381 4.0578 -1.5759 0.9728
4.0868 4.4556 -1.4210 0.9755
2.5177 4.9031 -1.2954 0.9776
0.6525 5.5399 -1.3110 0.9773
0.0743 2.6582 -0.6250 0.9891
-0.3646 5.9370 -1.3980 0.9759
-1.5468 6.3229 -1.5298 0.9736
-1.8809 5.5055 -1.3673 0.9764
-3.8957 8.7590 -2.2530 0.9614
-4.5766 8.2247 -2.2121 0.9621
-5.1923 7.6375 -2.1705 0.9628
-6.6260 5.6477 -2.0462 0.9649
-7.7949 4.5388 -2.1199 0.9636
-8.2439 2.1880 -2.0046 0.9656
-8.2617 1.4194 -1.9701 0.9661
-8.1180 -0.0685 -1.9080 0.9672
-7.9629 -0.7807 -1.8804 0.9677
-7.7565 -1.4677 -1.8553 0.9681
-7.5018 -2.1272 -1.8326 0.9685
-6.8594 -3.3548 -1.7946 0.9691
-6.4773 -3.9195 -1.7793 0.9694
-5.6044 -4.9426 -1.7562 0.9698
-5.1184 -5.3985 -1.7484 0.9699
-4.6025 -5.8155 -1.7430 0.9700
-4.0588 -6.1925 -1.7401 0.9700
-2.2832 -7.0710 -1.7463 0.9699
-1.6502 -7.2755 -1.7533 0.9698
-1.0002 -7.4337 -1.7628 0.9697
-0.3357 -7.5441 -1.7748 0.9694
1.0276 -7.6161 -1.8062 0.9689
3.8108 -7.1229 -1.8986 0.9674
6.4761 -5.7073 -2.0287 0.9652
8.4886 -2.4037 -2.0735 0.9644
8.8423 -1.6699 -2.1149 0.9637
9.1328 -0.8920 -2.1566 0.9630
9.3534 -0.0755 -2.1983 0.9623
-6.4813 -2.8048 -1.8285 0.9712
-6.1528 -3.3430 -1.8130 0.9715
-5.7879 -3.8502 -1.7999 0.9717
-4.0097 -5.5383 -1.7703 0.9721
-2.9607 -6.1594 -1.7695 0.9722
-0.0114 -6.9823 -1.8079 0.9716
0.6162 -7.0118 -1.8225 0.9713
1.2505 -6.9932 -1.8394 0.9711
1.8886 -6.9253 -1.8586 0.9708
2.5274 -6.8069 -1.8800 0.9704
3.1636 -6.6369 -1.9036 0.9701
5.0188 -5.8075 -1.9874 0.9688
5.6052 -5.4225 -2.0193 0.9683
6.7008 -4.4891 -2.0883 0.9672
7.6319 -3.3324 -2.1562 0.9662
7.4868 -2.5010 -2.0438 0.9679
8.0955 -1.1724 -2.1179 0.9668
8.4611 0.2942 -2.1921 0.9656
8.4647 2.6428 -2.2960 0.9640
3.0459 4.9251 -1.4993 0.9764
2.5039 4.9960 -1.4469 0.9772
2.0126 5.1084 -1.4216 0.9776
1.0885 5.4615 -1.4419 0.9773
-1.6162 6.3371 -1.6933 0.9733
-1.9480 5.5244 -1.5167 0.9761
-3.5593 7.7960 -2.2189 0.9652
-4.1709 7.3257 -2.1826 0.9658
-4.7260 6.8072 -2.1456 0.9663
-5.6566 5.6560 -2.0711 0.9675
-7.5258 1.9186 -2.0109 0.9684
-7.5471 1.2205 -1.9795 0.9689
-7.5124 0.5346 -1.9500 0.9694
-7.2857 -0.7864 -1.8974 0.9702
-7.0991 -1.4155 -1.8743 0.9705
-6.8673 -2.0202 -1.8534 0.9709
-6.5930 -2.5982 -1.8348 0.9711
-5.5402 -4.1531 -1.7928 0.9718
-3.1615 -6.0564 -1.7689 0.9722
-2.0432 -6.5464 -1.7756 0.9721
-0.2413 -6.9595 -1.8030 0.9716
0.3831 -7.0064 -1.8168 0.9714
1.6523 -6.9562 -1.8512 0.9709
4.7968 -5.9361 -1.9760 0.9690
7.0192 -4.1505 -2.1114 0.9669
7.4845 -3.5667 -2.1467 0.9663
7.9999 -1.4297 -2.1041 0.9670
8.2390 -0.7233 -2.1414 0.9664
8.4138 0.0145 -2.1785 0.9658
8.5500 1.5585 -2.2502 0.9647
8.5026 2.3494 -2.2840 0.9642
7.1558 3.4405 -2.0558 0.9677
5.5114 3.9910 -1.7619 0.9723
4.8448 4.2153 -1.6628 0.9738
4.2442 4.4168 -1.5860 0.9750
2.6819 4.9371 -1.4547 0.9771
1.7341 5.2498 -1.4315 0.9774
0.7862 5.5602 -1.4539 0.9771
0.1399 2.7319 -0.7083 0.9888
-0.1094 2.8695 -0.7435 0.9882
-1.7303 5.4773 -1.4872 0.9765
-3.3195 7.9562 -2.2321 0.9650
-4.5275 7.0041 -2.1594 0.9661
-5.0455 6.4592 -2.1221 0.9667
-5.5029 5.8785 -2.0849 0.9673
-7.4009 2.8871 -2.0569 0.9677
-7.5459 1.4776 -1.9909 0.9687
-7.5316 0.7867 -1.9607 0.9692
-6.9582 -1.7995 -1.8609 0.9707
-6.6993 -2.3876 -1.8414 0.9710
-5.6872 -3.9768 -1.7968 0.9717
-5.2797 -4.4426 -1.7866 0.9719
-4.8409 -4.8739 -1.7786 0.9720
-3.8786 -5.6279 -1.7697 0.9722
-3.3594 -5.9480 -1.7687 0.9722
-2.8177 -6.2285 -1.7700 0.9721
-2.2558 -6.4683 -1.7737 0.9721
-1.6756 -6.6660 -1.7796 0.9720
-0.4699 -6.9304 -1.7985 0.9717
0.1511 -6.9946 -1.8114 0.9715
1.4162 -6.9803 -1.8441 0.9710
2.0548 -6.8994 -1.8639 0.9707
2.6933 -6.7677 -1.8859 0.9704
3.3282 -6.5841 -1.9102 0.9700
4.5724 -6.0572 -1.9650 0.9691
5.1733 -5.7126 -1.9955 0.9687
6.8341 -4.3519 -2.0978 0.9671
7.3224 -3.7911 -2.1349 0.9665
7.5781 -2.3373 -2.0533 0.9678
8.4885 0.4927 -2.2015 0.9655
8.5474 1.2680 -2.2373 0.9649
7.5232 3.3159 -2.1287 0.9666
5.7793 3.9007 -1.8053 0.9716
5.0826 4.1354 -1.6966 0.9733
2.3797 5.0371 -1.4424 0.9772
1.9077 5.1927 -1.4323 0.9774
0.9954 3.7004 -0.9922 0.9843
-0.0136 2.6676 -0.6907 0.9890
-0.5679 5.9996 -1.5603 0.9754
-1.5717 5.6147 -1.5096 0.9762
-2.5100 6.6234 -1.8339 0.9712
-4.3209 7.1951 -2.1731 0.9659
-4.8608 6.6654 -2.1359 0.9665
-7.5434 1.0408 -1.9716 0.9690
-7.4946 0.3587 -1.9427 0.9695
