ply
format ascii 1.0
element vertex 1598
property float32 x
property float32 y
property float32 z
property float32 I
end_header
6.1746 3.8201 -2.2333 0.9701
5.4080 4.0562 -2.0793 0.9721
4.7346 4.2627 -1.9595 0.9737
3.5742 4.6165 -1.7958 0.9759
3.1130 4.8637 -1.7762 0.9761
1.6155 5.2056 -1.6765 0.9774
0.7802 3.6351 -1.1435 0.9846
-1.4693 6.1106 -1.9330 0.9740
-3.3752 6.1140 -2.1480 0.9712
-4.2864 5.2642 -2.0880 0.9720
-4.6706 4.7893 -2.0576 0.9724
-5.0051 4.2887 -2.0273 0.9728
-5.5224 3.2320 -1.9681 0.9736
-2.7708 1.3045 -0.9420 0.9873
-6.2858 2.2983 -2.0586 0.9724
-6.3829 1.7052 -2.0321 0.9727
-6.4234 1.1131 -2.0052 0.9731
-6.4149 0.5278 -1.9797 0.9734
-6.1141 -1.1527 -1.9137 0.9743
-5.7055 -2.1822 -1.8789 0.9748
-5.4453 -2.6626 -1.8643 0.9750
-4.0823 -4.3116 -1.8263 0.9755
-3.6717 -4.6478 -1.8218 0.9755
-3.2375 -4.9508 -1.8195 0.9755
-2.3062 -5.4522 -1.8208 0.9755
-1.3057 -5.8060 -1.8304 0.9754
-0.7850 -5.9247 -1.8382 0.9753
-0.2538 -6.0032 -1.8481 0.9752
1.3778 -5.9872 -1.8897 0.9746
1.9252 -5.8949 -1.9074 0.9744
3.5351 -5.3475 -1.9717 0.9735
5.0207 -4.3879 -2.0509 0.9725
5.8877 -3.5235 -2.1105 0.9717
6.2634 -3.0240 -2.1393 0.9713
2.3852 -0.8987 -0.7840 0.9894
6.4143 -1.7810 -2.0475 0.9725
6.8255 -0.6289 -2.1083 0.9717
7.0204 0.6129 -2.1675 0.9709
6.8511 2.5438 -2.2478 0.9699
6.6642 3.1782 -2.2709 0.9696
6.3578 3.7636 -2.2725 0.9696
5.5665 4.0074 -2.1097 0.9717
3.2260 4.8296 -1.7864 0.9760
2.7184 4.9827 -1.7458 0.9765
2.1879 5.0346 -1.6884 0.9773
0.8489 3.6097 -1.1405 0.9846
0.1558 2.9923 -0.9216 0.9875
-0.7533 5.9027 -1.8303 0.9754
-1.7448 5.5249 -1.7821 0.9760
-2.6982 6.4650 -2.1547 0.9711
-3.7531 5.7998 -2.1248 0.9715
-4.1959 5.3640 -2.0947 0.9719
-4.9363 4.4000 -2.0339 0.9727
-2.7702 1.3711 -0.9507 0.9871
-6.4189 1.2420 -2.0109 0.9730
-6.4209 0.6550 -1.9852 0.9734
-6.3752 0.0776 -1.9610 0.9737
-5.7576 -2.0740 -1.8823 0.9747
-4.5475 -3.8589 -1.8345 0.9753
-4.1687 -4.2338 -1.8275 0.9754
-1.4179 -5.7748 -1.8289 0.9754
0.1671 -6.0358 -1.8572 0.9750
0.7109 -6.0401 -1.8706 0.9749
2.3510 -5.7917 -1.9226 0.9742
4.4390 -4.8273 -2.0171 0.9729
4.9190 -4.4716 -2.0447 0.9726
5.3739 -4.0710 -2.0736 0.9722
2.3483 -0.9376 -0.7777 0.9895
6.3576 -1.8999 -2.0409 0.9726
6.5987 -1.3439 -2.0713 0.9722
7.0105 0.4741 -2.1612 0.9710
7.0316 1.1132 -2.1897 0.9706
6.8832 2.4036 -2.2425 0.9699
6.4722 3.6623 -2.2873 0.9694
5.7298 3.9572 -2.1418 0.9713
4.3868 4.3691 -1.9043 0.9744
0.3991 5.5656 -1.7162 0.9769
-0.0451 2.5214 -0.7757 0.9895
-1.2033 6.0335 -1.8923 0.9746
-1.8298 6.2148 -1.9927 0.9733
-2.1273 5.3915 -1.7827 0.9760
5.6798 -2.9613 -2.1292 0.9734
2.3438 -0.9665 -0.8427 0.9894
5.8357 -1.8157 -2.0315 0.9746
6.4333 0.3624 -2.1419 0.9732
6.4529 0.9473 -2.1680 0.9729
6.3189 2.1272 -2.2163 0.9723
6.1630 2.7095 -2.2378 0.9720
4.4567 4.3399 -2.0678 0.9741
3.3394 4.6805 -1.9112 0.9761
2.8870 4.9248 -1.8976 0.9762
2.3488 4.9795 -1.8301 0.9771
-0.5631 5.8400 -1.9502 0.9756
-1.1273 6.0038 -2.0306 0.9746
-1.7449 6.1822 -2.1353 0.9733
-2.0446 5.3577 -1.9062 0.9761
-2.8345 5.8077 -2.1482 0.9731
-3.7265 5.0788 -2.0939 0.9738
-4.7431 3.7526 -2.0104 0.9748
-4.9905 3.2686 -1.9830 0.9752
-5.1915 2.7717 -1.9562 0.9755
-5.3464 2.2661 -1.9302 0.9758
-5.8720 1.8902 -2.0505 0.9743
-5.9487 1.3424 -2.0271 0.9746
-5.7765 -0.7904 -1.9380 0.9757
-5.6293 -1.2911 -1.9198 0.9759
-4.6820 -3.0902 -1.8647 0.9766
-4.3657 -3.4791 -1.8556 0.9767
-3.6519 -4.1724 -1.8432 0.9769
-2.4090 -4.9801 -1.8389 0.9770
-1.9569 -5.1824 -1.8414 0.9769
-1.4895 -5.3493 -1.8458 0.9769
-1.0090 -5.4797 -1.8521 0.9768
-0.0176 -5.6271 -1.8705 0.9766
0.9979 -5.6170 -1.8964 0.9762
1.5083 -5.5508 -1.9120 0.9760
2.0165 -5.4431 -1.9295 0.9758
2.5196 -5.2931 -1.9486 0.9756
3.0144 -5.1007 -1.9694 0.9753
3.9652 -4.5880 -2.0157 0.9748
5.5105 -2.3995 -1.9978 0.9750
6.0121 -1.4186 -2.0533 0.9743
6.3355 -0.3346 -2.1089 0.9736
6.4216 0.2359 -2.1360 0.9733
6.4534 0.8188 -2.1623 0.9730
5.9997 3.1550 -2.2533 0.9718
5.7383 3.7073 -2.2709 0.9716
4.5908 4.2988 -2.0906 0.9738
3.9990 4.4798 -1.9961 0.9750
2.4534 4.9480 -1.8358 0.9770
1.9792 5.0902 -1.8154 0.9772
0.5661 5.5095 -1.8410 0.9769
0.0344 2.6643 -0.8857 0.9888
-1.0000 5.9669 -2.0111 0.9748
-1.6045 6.1417 -2.1101 0.9736
-1.9211 5.3455 -1.8881 0.9763
-2.7277 5.8777 -2.1539 0.9731
-3.6370 5.1656 -2.1000 0.9737
-4.6828 3.8562 -2.0165 0.9748
-4.9404 3.3757 -1.9890 0.9751
-5.8457 2.0087 -2.0547 0.9743
-5.9706 0.9147 -2.0078 0.9749
-5.9019 -0.1590 -1.9625 0.9754
-5.6647 -1.1832 -1.9236 0.9759
-5.4878 -1.6698 -1.9067 0.9761
-4.7472 -3.0016 -1.8670 0.9766
-4.0991 -3.7639 -1.8498 0.9768
-2.9360 -4.6874 -1.8385 0.9770
-2.5055 -4.9313 -1.8386 0.9770
-2.0571 -5.1412 -1.8407 0.9769
-1.5929 -5.3159 -1.8447 0.9769
-1.1150 -5.4544 -1.8506 0.9768
-0.6258 -5.5556 -1.8584 0.9767
0.8864 -5.6260 -1.8932 0.9763
1.3968 -5.5688 -1.9084 0.9761
2.4102 -5.3295 -1.9443 0.9756
2.9071 -5.1464 -1.9648 0.9754
3.3930 -4.9207 -1.9868 0.9751
3.8644 -4.6523 -2.0104 0.9748
4.3176 -4.3416 -2.0353 0.9745
5.1537 -3.5959 -2.0889 0.9739
5.5284 -3.1633 -2.1172 0.9735
5.7258 -2.0303 -2.0194 0.9747
6.3097 -0.4571 -2.1029 0.9737
6.4512 0.6906 -2.1567 0.9730
6.3683 1.8699 -2.2062 0.9724
6.2385 2.4562 -2.2287 0.9721
5.8004 3.5886 -2.2673 0.9717
5.3999 4.0501 -2.2437 0.9719
4.7279 4.2568 -2.1147 0.9735
4.1238 4.4417 -2.0147 0.9748
2.0820 5.0595 -1.8186 0.9772
1.6135 5.1993 -1.8096 0.9773
-0.1526 2.6727 -0.8899 0.9888
-0.8751 5.9306 -1.9927 0.9750
-1.4673 6.1021 -2.0862 0.9739
-2.6191 5.9456 -2.1596 0.9730
-3.5454 5.2507 -2.1060 0.9736
-3.9478 4.8483 -2.0783 0.9740
-4.3066 4.4160 -2.0504 0.9743
-2.7709 1.3045 -1.0180 0.9872
-5.9240 1.5826 -2.0382 0.9745
-5.9673 1.0340 -2.0131 0.9748
-5.9647 0.4908 -1.9894 0.9751
-5.9178 -0.0437 -1.9672 0.9754
-5.8285 -0.5663 -1.9465 0.9756
-5.6984 -1.0743 -1.9275 0.9759
-5.5296 -1.5651 -1.9103 0.9761
-4.8110 -2.9118 -1.8693 0.9766
-4.1753 -3.6859 -1.8513 0.9768
-3.8166 -4.0309 -1.8452 0.9769
-3.4333 -4.3460 -1.8410 0.9769
-3.0275 -4.6297 -1.8388 0.9770
-1.6956 -5.2808 -1.8436 0.9769
-0.7336 -5.5367 -1.8565 0.9767
-0.2371 -5.6081 -1.8658 0.9766
1.7948 -5.4953 -1.9216 0.9759
2.3005 -5.3639 -1.9401 0.9757
2.7993 -5.1901 -1.9602 0.9754
3.7628 -4.7146 -2.0051 0.9749
4.2203 -4.4131 -2.0298 0.9746
4.6566 -4.0697 -2.0557 0.9743
5.0676 -3.6853 -2.0828 0.9739
2.3882 -0.8998 -0.8483 0.9893
5.9166 -1.6428 -2.0411 0.9744
6.4464 1.1502 -2.1767 0.9728
6.3888 1.7410 -2.2011 0.9725
6.2720 2.3288 -2.2239 0.9722
4.8683 4.2137 -2.1402 0.9732
3.6873 4.5748 -1.9531 0.9755
2.7150 4.9766 -1.8844 0.9764
2.1852 5.0285 -1.8225 0.9772
1.7156 5.1689 -1.8103 0.9773
0.8283 3.5217 -1.2026 0.9849
0.7761 5.4476 -1.8291 0.9771
-0.0950 2.5352 -0.8433 0.9894
-1.3331 6.0633 -2.0636 0.9742
-2.9993 5.6934 -2.1390 0.9732
-3.8635 4.9390 -2.0844 0.9739
-4.2320 4.5128 -2.0565 0.9743
-4.5557 4.0607 -2.0286 0.9746
-4.8335 3.5878 -2.0009 0.9749
-2.7738 1.3728 -1.0288 0.9870
-5.3891 2.0908 -1.9215 0.9759
-5.9083 1.7029 -2.0439 0.9744
-5.9618 1.1536 -2.0185 0.9747
-5.9691 0.6089 -1.9945 0.9750
-5.9318 0.0722 -1.9719 0.9753
-5.8515 -0.4532 -1.9509 0.9756
-5.7302 -0.9647 -1.9316 0.9758
-5.3721 -1.9351 -1.8980 0.9762
-4.8734 -2.8208 -1.8717 0.9765
-4.2503 -3.6067 -1.8529 0.9768
-3.8972 -3.9581 -1.8464 0.9769
-3.5191 -4.2798 -1.8418 0.9769
-3.1180 -4.5704 -1.8391 0.9769
-2.6960 -4.8288 -1.8384 0.9770
-2.2552 -5.0537 -1.8395 0.9769
-1.7976 -5.2439 -1.8427 0.9769
-1.3255 -5.3984 -1.8477 0.9768
-0.8409 -5.5160 -1.8547 0.9768
-0.3463 -5.5958 -1.8636 0.9766
0.6636 -5.6381 -1.8871 0.9764
1.6836 -5.5185 -1.9178 0.9760
3.1822 -5.0246 -1.9770 0.9752
3.6604 -4.7748 -1.9999 0.9750
4.5633 -4.1483 -2.0499 0.9743
4.9802 -3.7727 -2.0768 0.9740
5.7193 -2.9006 -2.1317 0.9733
2.3479 -0.9375 -0.8404 0.9894
5.8658 -1.7530 -2.0350 0.9745
6.0813 -1.2385 -2.0630 0.9742
6.2509 -0.6995 -2.0908 0.9738
6.4388 0.4355 -2.1452 0.9732
6.4064 1.6119 -2.1959 0.9725
6.3026 2.2009 -2.2191 0.9723
5.9163 3.3477 -2.2596 0.9718
5.6350 3.8917 -2.2764 0.9715
5.0121 4.1695 -2.1672 0.9729
4.3809 4.3631 -2.0552 0.9743
3.2748 4.7008 -1.9044 0.9761
2.8240 4.9438 -1.8925 0.9763
0.9236 3.6088 -1.2383 0.9844
-2.8952 5.7666 -2.1449 0.9732
2.3417 -0.9656 -0.9058 0.9893
5.7677 -0.7112 -2.0782 0.9756
5.8791 -0.1953 -2.1036 0.9753
5.9422 0.3348 -2.1284 0.9750
5.9547 0.8742 -2.1523 0.9748
5.9148 1.4176 -2.1751 0.9745
5.8211 1.9596 -2.1965 0.9742
5.4710 3.0150 -2.2339 0.9738
5.2157 3.5162 -2.2494 0.9736
1.4077 5.2537 -1.9450 0.9772
0.4594 5.5338 -1.9857 0.9767
-0.0177 2.6640 -0.9527 0.9887
-0.5624 5.8323 -2.0954 0.9754
-1.1258 5.9956 -2.1815 0.9744
-2.0418 5.3501 -2.0478 0.9760
-2.6176 5.3632 -2.1341 0.9750
-3.8066 4.3184 -2.0586 0.9758
-4.1250 3.9114 -2.0328 0.9761
-4.6358 3.0363 -1.9817 0.9767
-4.9758 2.1090 -1.9326 0.9773
-5.5558 0.2389 -1.9886 0.9767
-5.4984 -0.2559 -1.9684 0.9769
-5.2672 -1.2081 -1.9325 0.9773
-5.0968 -1.6605 -1.9169 0.9775
-4.3889 -2.8968 -1.8805 0.9779
-4.0937 -3.2624 -1.8719 0.9780
-3.7720 -3.6020 -1.8651 0.9781
-3.4258 -3.9141 -1.8601 0.9781
-3.0571 -4.1974 -1.8570 0.9782
-2.6679 -4.4506 -1.8556 0.9782
-1.8358 -4.8618 -1.8584 0.9782
-0.0165 -5.2738 -1.8860 0.9778
0.4576 -5.2858 -1.8973 0.9777
0.9345 -5.2598 -1.9104 0.9776
1.4116 -5.1951 -1.9252 0.9774
1.8862 -5.0913 -1.9416 0.9772
2.3552 -4.9479 -1.9596 0.9770
2.8158 -4.7647 -1.9792 0.9768
3.2646 -4.5417 -2.0002 0.9765
3.6982 -4.2791 -2.0225 0.9763
4.5060 -3.6373 -2.0709 0.9757
5.2090 -2.8468 -2.1228 0.9751
5.3626 -1.7842 -2.0211 0.9763
5.9327 0.2180 -2.1230 0.9751
5.8462 1.8416 -2.1919 0.9743
5.7101 2.3782 -2.2120 0.9741
5.2760 3.4086 -2.2462 0.9737
3.3206 4.4667 -1.9904 0.9766
1.9768 5.0840 -1.9507 0.9771
0.7130 3.6704 -1.3371 0.9842
0.5654 5.5027 -1.9782 0.9768
-0.2107 2.7462 -0.9849 0.9884
-1.5444 5.9118 -2.1850 0.9744
-2.9590 5.1208 -2.1150 0.9752
-3.3643 4.7784 -2.0898 0.9755
-3.7316 4.4041 -2.0643 0.9758
-4.0589 4.0023 -2.0385 0.9761
-4.3448 3.5779 -2.0127 0.9764
-4.5883 3.1351 -1.9872 0.9767
-4.7890 2.6784 -1.9622 0.9770
-5.0625 1.7396 -1.9143 0.9775
-5.5629 0.3483 -1.9932 0.9766
-5.5144 -0.1486 -1.9727 0.9768
-3.1395 -4.1380 -1.8575 0.9782
-2.7546 -4.3979 -1.8558 0.9782
-2.3507 -4.6267 -1.8559 0.9782
-0.5867 -5.2089 -1.8745 0.9780
0.3536 -5.2864 -1.8947 0.9777
0.8301 -5.2688 -1.9074 0.9776
1.3074 -5.2126 -1.9218 0.9774
2.2533 -4.9826 -1.9556 0.9770
3.1677 -4.5938 -1.9955 0.9766
4.0243 -4.0466 -2.0409 0.9760
4.4223 -3.7149 -2.0654 0.9758
4.7950 -3.3456 -2.0909 0.9755
5.4314 -2.4925 -2.1371 0.9749
5.3119 -1.8835 -2.0154 0.9763
5.5287 -1.4192 -2.0412 0.9760
5.7045 -0.9311 -2.0670 0.9757
5.8362 -0.4228 -2.0925 0.9754
5.5660 2.7894 -2.2264 0.9739
5.0493 3.7872 -2.2571 0.9735
4.1183 4.4357 -2.1645 0.9746
2.5555 4.9103 -1.9795 0.9768
2.0795 5.0533 -1.9541 0.9771
1.6115 5.1930 -1.9444 0.9772
0.7419 3.4567 -1.2643 0.9851
0.6706 5.4717 -1.9714 0.9769
-0.1533 2.6860 -0.9621 0.9886
-2.4176 5.4883 -2.1446 0.9748
-3.2789 4.8561 -2.0954 0.9754
-3.6547 4.4884 -2.0699 0.9757
-4.2859 3.6724 -2.0183 0.9763
-4.5387 3.2332 -1.9928 0.9766
-4.7488 2.7792 -1.9676 0.9769
-5.5167 1.4738 -2.0420 0.9760
-5.5680 0.4582 -1.9979 0.9765
-5.4487 -0.5294 -1.9577 0.9770
-4.5092 -2.7292 -1.8849 0.9779
-4.2261 -3.1056 -1.8755 0.9780
-3.9158 -3.4568 -1.8679 0.9781
-3.5801 -3.7811 -1.8621 0.9781
-3.2210 -4.0772 -1.8581 0.9782
-2.8405 -4.3437 -1.8560 0.9782
-2.4405 -4.5794 -1.8557 0.9782
-2.0232 -4.7831 -1.8572 0.9782
-1.5906 -4.9537 -1.8606 0.9781
0.7258 -5.2759 -1.9045 0.9776
2.6157 -4.8497 -1.9705 0.9769
3.5107 -4.3988 -2.0126 0.9764
3.9344 -4.1141 -2.0357 0.9761
4.7159 -3.4295 -2.0852 0.9755
5.0663 -3.0319 -2.1114 0.9752
5.3715 -2.5934 -2.1331 0.9750
2.3912 -0.9009 -0.9138 0.9892
5.4847 -1.5229 -2.0356 0.9761
5.6698 -1.0397 -2.0614 0.9758
5.8886 1.6047 -2.1826 0.9744
4.7922 4.1478 -2.2665 0.9734
3.6824 4.5688 -2.0985 0.9754
3.0939 4.6318 -1.9919 0.9766
0.8095 3.4422 -1.2645 0.9851
0.7751 5.4409 -1.9654 0.9769
0.2907 5.5833 -1.9993 0.9765
-0.0944 2.5182 -0.9012 0.9894
-2.7706 5.2593 -2.1258 0.9751
-5.5406 0.0675 -1.9815 0.9767
-5.4694 -0.4237 -1.9618 0.9770
-5.3595 -0.9023 -1.9436 0.9772
-5.2125 -1.3658 -1.9270 0.9774
-5.0302 -1.8120 -1.9120 0.9775
-4.8145 -2.2386 -1.8987 0.9777
-2.5295 -4.5306 -1.8556 0.9782
-2.1158 -4.7414 -1.8567 0.9782
-1.6864 -4.9193 -1.8597 0.9782
-1.2432 -5.0633 -1.8645 0.9781
-0.7885 -5.1725 -1.8711 0.9780
-0.3246 -5.2457 -1.8795 0.9779
0.1462 -5.2822 -1.8897 0.9778
0.6216 -5.2812 -1.9016 0.9777
1.0989 -5.2419 -1.9153 0.9775
1.5754 -5.1638 -1.9307 0.9773
2.9718 -4.6924 -1.9863 0.9767
3.4158 -4.4558 -2.0077 0.9764
3.8434 -4.1796 -2.0305 0.9762
4.9923 -3.1219 -2.1056 0.9753
2.3475 -0.9373 -0.9039 0.9893
5.6329 -1.1472 -2.0557 0.9759
5.8897 -0.1293 -2.1067 0.9753
5.9466 0.4022 -2.1314 0.9750
5.9060 1.4860 -2.1778 0.9745
5.6507 2.5604 -2.2185 0.9740
5.1800 3.5774 -2.2512 0.9736
4.8671 4.0489 -2.2640 0.9735
3.8017 4.5324 -2.1155 0.9752
3.1831 4.5692 -1.9914 0.9766
2.2861 4.9913 -1.9632 0.9769
1.8156 5.1322 -1.9468 0.9771
0.3981 5.5518 -1.9905 0.9766
-1.2000 6.0170 -2.1941 0.9743
-2.1204 5.3740 -2.0660 0.9758
2.3402 -0.9650 -0.9701 0.9892
5.0392 -1.5679 -2.0224 0.9776
5.3616 -0.6611 -2.0702 0.9771
5.5144 0.3107 -2.1166 0.9766
5.5216 0.8106 -2.1386 0.9764
5.4803 1.3135 -2.1596 0.9761
5.3896 1.8143 -2.1793 0.9759
5.0591 2.7880 -2.2136 0.9756
4.5352 3.6873 -2.2399 0.9753
4.2055 4.0953 -2.2495 0.9752
3.1287 4.3852 -2.0644 0.9772
2.6550 4.5289 -2.0118 0.9778
2.3430 4.9671 -2.1046 0.9767
1.4059 5.2472 -2.0817 0.9770
0.9374 5.3860 -2.0950 0.9769
0.4588 5.5268 -2.1253 0.9765
-0.5514 5.7181 -2.2014 0.9757
-1.0516 5.6006 -2.1838 0.9759
-2.8329 4.6884 -2.0992 0.9768
-3.5409 4.0170 -2.0521 0.9773
-4.1016 3.2451 -2.0043 0.9778
-4.3235 2.8318 -1.9806 0.9781
-4.5058 2.4055 -1.9574 0.9784
-5.2174 0.6952 -2.0171 0.9777
-5.2056 0.2239 -1.9967 0.9779
-5.1551 -0.2399 -1.9777 0.9781
-4.5965 -1.9674 -1.9160 0.9788
-3.8499 -3.0681 -1.8865 0.9791
-3.5481 -3.3882 -1.8801 0.9792
-3.2230 -3.6824 -1.8753 0.9793
-2.8765 -3.9493 -1.8723 0.9793
-2.5103 -4.1877 -1.8711 0.9793
-1.7273 -4.5743 -1.8738 0.9793
-0.8900 -4.8334 -1.8834 0.9792
-0.0155 -4.9576 -1.8998 0.9790
0.4300 -4.9671 -1.9106 0.9789
1.7699 -4.7775 -1.9524 0.9784
2.2088 -4.6403 -1.9694 0.9782
2.6391 -4.4657 -1.9879 0.9780
3.0577 -4.2539 -2.0076 0.9778
3.4614 -4.0051 -2.0286 0.9776
4.5501 -3.0442 -2.0979 0.9768
4.7769 -2.0801 -1.9966 0.9779
4.9947 -1.6618 -2.0172 0.9777
5.4426 -0.2874 -2.0886 0.9769
5.5066 0.2023 -2.1116 0.9767
5.4935 1.2036 -2.1552 0.9762
5.2841 2.2008 -2.1936 0.9758
5.1048 2.6844 -2.2103 0.9756
4.6014 3.5940 -2.2375 0.9753
4.2812 4.0089 -2.2476 0.9752
3.9191 4.3903 -2.2552 0.9751
2.4473 4.9357 -2.1112 0.9767
0.5647 5.4958 -2.1172 0.9766
-2.3362 5.0341 -2.1268 0.9765
-2.7473 4.7543 -2.1042 0.9768
-3.1262 4.4402 -2.0810 0.9770
-3.4705 4.0959 -2.0573 0.9773
-3.7782 3.7255 -2.0334 0.9775
-4.2784 2.9234 -1.9857 0.9780
-4.7323 1.6261 -1.9176 0.9788
-5.1701 1.2734 -2.0405 0.9774
-5.2147 0.7989 -2.0217 0.9777
-5.2115 0.3263 -2.0011 0.9779
-5.1694 -0.1393 -1.9817 0.9781
-4.9740 -1.0389 -1.9472 0.9785
-4.8237 -1.4678 -1.9322 0.9786
-4.4267 -2.2728 -1.9069 0.9789
-4.1834 -2.6451 -1.8967 0.9790
-3.9126 -2.9948 -1.8882 0.9791
-3.6162 -3.3204 -1.8814 0.9792
-3.2960 -3.6204 -1.8762 0.9792
-2.9540 -3.8934 -1.8728 0.9793
-2.5919 -4.1381 -1.8712 0.9793
-2.2119 -4.3534 -1.8713 0.9793
-0.5517 -4.8984 -1.8890 0.9791
0.3323 -4.9680 -1.9081 0.9789
1.6731 -4.8026 -1.9489 0.9785
3.3746 -4.0626 -2.0239 0.9776
4.1335 -3.4723 -2.0688 0.9771
4.4783 -3.1247 -2.0926 0.9769
4.9483 -1.7546 -2.0120 0.9778
5.5243 0.5914 -2.1291 0.9765
5.5044 1.0936 -2.1506 0.9762
5.4354 1.5960 -2.1709 0.9760
5.3167 2.0933 -2.1897 0.9758
5.1482 2.5800 -2.2068 0.9756
4.0016 4.3100 -2.2538 0.9751
3.3443 4.3196 -2.0935 0.9769
2.8592 4.4671 -2.0325 0.9775
2.5523 4.9041 -2.1186 0.9766
1.6096 5.1866 -2.0811 0.9770
0.6697 5.4649 -2.1099 0.9767
0.0882 2.7159 -1.0413 0.9884
-0.8348 5.6579 -2.1917 0.9758
-1.3257 5.5135 -2.1731 0.9760
-1.7963 5.3232 -2.1530 0.9762
-2.2424 5.0904 -2.1316 0.9765
-3.0463 4.5116 -2.0861 0.9770
-3.3983 4.1735 -2.0625 0.9772
-3.7142 3.8085 -2.0386 0.9775
-3.9922 3.4207 -2.0147 0.9777
-4.7112 1.7226 -1.9223 0.9787
-5.2101 0.9028 -2.0263 0.9776
-5.1103 -0.4965 -1.9676 0.9782
-5.0023 -0.9431 -1.9507 0.9784
-4.4760 -2.1886 -1.9094 0.9789
-3.6831 -3.2514 -1.8827 0.9792
-3.3679 -3.5571 -1.8772 0.9792
-3.0305 -3.8361 -1.8734 0.9793
-1.4964 -4.6604 -1.8758 0.9793
-1.0768 -4.7880 -1.8807 0.9792
-0.6469 -4.8823 -1.8873 0.9791
1.1299 -4.9096 -1.9306 0.9787
2.4523 -4.5466 -1.9796 0.9781
2.8764 -4.3511 -1.9988 0.9779
3.2870 -4.1184 -2.0193 0.9777
4.0548 -3.5437 -2.0637 0.9772
4.4052 -3.2035 -2.0873 0.9769
2.3943 -0.9021 -0.9805 0.9891
5.1058 -1.4177 -2.0307 0.9776
5.4005 -0.4976 -2.0783 0.9770
5.4842 -0.0131 -2.1016 0.9768
5.3469 1.9853 -2.1857 0.9759
5.1893 2.4748 -2.2032 0.9757
4.9824 2.9494 -2.2188 0.9755
4.7274 3.4034 -2.2323 0.9754
4.4265 3.8313 -2.2435 0.9752
4.0823 4.2280 -2.2522 0.9751
2.9629 4.4356 -2.0441 0.9774
2.1799 5.0161 -2.0959 0.9768
1.7114 5.1563 -2.0820 0.9770
0.7741 5.4341 -2.1035 0.9768
0.2904 5.5762 -2.1398 0.9764
-1.2200 5.5490 -2.1773 0.9760
-2.1472 5.1447 -2.1364 0.9764
-2.9647 4.5815 -2.0912 0.9769
-3.6483 3.8904 -2.0439 0.9774
-4.1824 3.1045 -1.9961 0.9779
-2.7824 1.3771 -1.1897 0.9868
-4.6883 1.8189 -1.9271 0.9787
-5.2178 0.5323 -2.0099 0.9778
-5.1291 -0.3973 -1.9714 0.9782
-5.0289 -0.8466 -1.9543 0.9784
-4.2932 -2.4850 -1.9010 0.9790
-4.0342 -2.8448 -1.8917 0.9791
-3.1061 -3.7775 -1.8741 0.9793
-1.1694 -4.7630 -1.8795 0.9792
0.1374 -4.9649 -1.9034 0.9789
0.5840 -4.9620 -1.9147 0.9788
1.4788 -4.8473 -1.9421 0.9785
3.9750 -3.6135 -2.0586 0.9773
4.3308 -3.2808 -2.0821 0.9770
4.6604 -2.9143 -2.1064 0.9767
5.5179 0.3732 -2.1194 0.9766
5.5191 0.8737 -2.1413 0.9763
5.3747 1.8769 -2.1817 0.9759
5.2279 2.3689 -2.1995 0.9757
5.0317 2.8472 -2.2155 0.9755
4.4961 3.7403 -2.2412 0.9753
2.5970 4.5464 -2.0065 0.9778
1.8133 5.1258 -2.0836 0.9770
0.9303 3.6353 -1.4380 0.9841
0.8779 5.4035 -2.0979 0.9768
0.3976 5.5448 -2.1303 0.9765
-0.6150 5.7060 -2.1993 0.9757
-1.5934 5.4118 -2.1619 0.9761
-2.4812 4.9419 -2.1191 0.9766
4.8750 -1.0501 -2.0410 0.9787
5.0915 -0.1691 -2.0850 0.9782
5.1381 0.2895 -2.1062 0.9780
5.1411 0.7547 -2.1267 0.9778
5.0992 1.2222 -2.1461 0.9776
3.5569 4.1450 -2.2354 0.9767
2.3350 4.9502 -2.2401 0.9766
0.9683 3.6137 -1.5312 0.9840
0.9311 5.3497 -2.2224 0.9768
-0.9777 5.2071 -2.1684 0.9774
-1.8568 4.8655 -2.1314 0.9777
-2.6411 4.3709 -2.0901 0.9782
-2.9897 4.0747 -2.0684 0.9784
-3.3062 3.7507 -2.0463 0.9786
-3.5886 3.4027 -2.0240 0.9789
-3.8355 3.0346 -2.0017 0.9791
-4.2200 2.2530 -1.9578 0.9795
-2.7681 1.1733 -1.2305 0.9871
-4.8608 1.0969 -2.0394 0.9787
-1.9362 0.0833 -0.7932 0.9917
-4.1237 -2.2202 -1.9168 0.9800
-3.6300 -2.8928 -1.8997 0.9801
-2.3680 -3.9504 -1.8850 0.9803
-1.6292 -4.3147 -1.8876 0.9803
-1.2396 -4.4518 -1.8913 0.9802
-0.4302 -4.6315 -1.9037 0.9801
0.8267 -4.6532 -1.9343 0.9798
1.2477 -4.5919 -1.9475 0.9796
2.0774 -4.3643 -1.9782 0.9793
2.4808 -4.1978 -1.9956 0.9791
2.8725 -3.9962 -2.0143 0.9790
3.2497 -3.7601 -2.0340 0.9787
3.6093 -3.4901 -2.0549 0.9785
4.5440 -2.4833 -2.1193 0.9779
4.4614 -1.9427 -1.9916 0.9792
4.6688 -1.5534 -2.0138 0.9790
4.9785 -0.7129 -2.0583 0.9785
5.0347 1.5860 -2.1604 0.9774
4.9113 2.0455 -2.1774 0.9773
4.7421 2.4937 -2.1928 0.9771
4.5281 2.9254 -2.2064 0.9770
3.9722 3.7196 -2.2272 0.9768
2.4031 4.8465 -2.2140 0.9769
1.9718 5.0713 -2.2269 0.9768
1.5059 5.2104 -2.2198 0.9768
1.0364 5.3353 -2.2244 0.9768
-0.8772 5.2341 -2.1721 0.9773
-1.3306 5.0934 -2.1546 0.9775
-1.7648 4.9107 -2.1357 0.9777
-2.5608 4.4316 -2.0948 0.9781
-3.5298 3.4806 -2.0289 0.9788
-3.7846 3.1166 -2.0066 0.9790
-4.0033 2.7354 -1.9844 0.9793
-4.1851 2.3407 -1.9626 0.9795
-2.7604 1.2343 -1.2376 0.9870
-4.8460 1.1936 -2.0426 0.9787
-1.9482 0.1220 -0.7989 0.9916
-1.9237 -0.0518 -0.7876 0.9917
-1.9551 -0.2287 -0.8056 0.9915
-4.6812 -0.9777 -1.9572 0.9795
-4.5419 -1.3820 -1.9430 0.9797
-4.1712 -2.1417 -1.9191 0.9799
-3.1087 -3.4146 -1.8899 0.9802
-2.7864 -3.6725 -1.8867 0.9803
-1.3258 -4.4245 -1.8904 0.9802
-0.9275 -4.5373 -1.8954 0.9802
-0.1059 -4.6664 -1.9103 0.9800
2.3935 -4.2371 -1.9917 0.9792
2.7880 -4.0433 -2.0101 0.9790
3.5324 -3.5520 -2.0502 0.9786
4.1963 -2.9279 -2.0942 0.9781
4.8072 -1.2340 -2.0312 0.9788
5.1230 0.0879 -2.0970 0.9781
5.1231 1.0178 -2.1377 0.9777
4.9422 1.9459 -2.1738 0.9773
3.7121 3.9982 -2.2329 0.9767
3.3080 4.2727 -2.2115 0.9769
2.8554 4.4613 -2.1679 0.9774
1.6076 5.1801 -2.2198 0.9768
-0.7760 5.2591 -2.1757 0.9773
-1.6718 4.9541 -2.1399 0.9777
-2.0883 4.7407 -2.1201 0.9779
-2.4791 4.4907 -2.0994 0.9781
-2.8412 4.2078 -2.0780 0.9783
-3.1719 3.8955 -2.0560 0.9785
-3.4694 3.5575 -2.0338 0.9788
-2.7327 1.2866 -1.2362 0.9870
-1.9579 -0.1902 -0.8051 0.9915
-2.2031 -0.4154 -0.9176 0.9904
-4.4112 -1.6872 -1.9329 0.9798
-4.2174 -2.0622 -1.9214 0.9799
-3.9953 -2.4181 -1.9114 0.9800
-3.1764 -3.3548 -1.8909 0.9802
-2.5211 -3.8554 -1.8854 0.9803
-1.7956 -4.2451 -1.8865 0.9803
-1.4114 -4.3956 -1.8895 0.9802
-1.0154 -4.5153 -1.8942 0.9802
-0.6099 -4.6033 -1.9005 0.9801
0.2212 -4.6808 -1.9179 0.9800
0.6423 -4.6691 -1.9289 0.9798
1.8983 -4.4260 -1.9710 0.9794
2.3057 -4.2749 -1.9879 0.9792
2.7029 -4.0886 -2.0060 0.9790
3.0868 -3.8676 -2.0253 0.9788
3.8028 -3.3235 -2.0670 0.9784
4.4283 -2.6501 -2.1121 0.9779
4.3681 -2.1090 -1.9852 0.9793
2.4003 -0.9043 -1.0498 0.9890
5.0382 -0.4642 -2.0707 0.9784
5.1318 0.9156 -2.1335 0.9777
5.0743 1.3828 -2.1525 0.9775
4.9709 1.8457 -2.1702 0.9773
4.8216 2.2995 -2.1863 0.9772
4.3885 3.1593 -2.2131 0.9769
2.9590 4.4298 -2.1803 0.9772
-1.5776 4.9956 -2.1441 0.9776
-2.3960 4.5483 -2.1040 0.9780
-2.7646 4.2723 -2.0827 0.9782
-3.4073 3.6334 -2.0386 0.9787
-3.6776 3.2781 -2.0163 0.9789
-4.1102 2.5147 -1.9721 0.9794
-2.7280 1.3502 -1.2458 0.9869
-4.8805 0.9444 -2.0345 0.9787
-1.9103 0.0233 -0.7819 0.9918
-1.9549 -0.1514 -0.8025 0.9916
-2.1061 -0.3546 -0.8741 0.9908
-4.4497 -1.6028 -1.9357 0.9798
-4.2623 -1.9818 -1.9238 0.9799
-4.0462 -2.3421 -1.9134 0.9800
-3.5349 -2.9996 -1.8974 0.9802
-3.2431 -3.2938 -1.8919 0.9802
-2.9297 -3.5630 -1.8879 0.9803
-2.5965 -3.8059 -1.8856 0.9803
-2.2452 -4.0214 -1.8850 0.9803
-1.8779 -4.2082 -1.8860 0.9803
2.2174 -4.3109 -1.9841 0.9793
4.0594 -3.0752 -2.0843 0.9782
4.3651 -2.7297 -2.1071 0.9780
2.3466 -0.9369 -1.0341 0.9891
4.7324 -1.4142 -2.0215 0.9789
4.8932 -0.9966 -2.0438 0.9786
5.0165 -0.5613 -2.0659 0.9784
5.1409 0.3477 -2.1088 0.9780
5.1383 0.8134 -2.1292 0.9778
5.0907 1.2809 -2.1484 0.9776
4.1725 3.4711 -2.2213 0.9768
3.0638 4.3979 -2.1937 0.9771
2.5937 4.5406 -2.1402 0.9777
0.9191 3.5914 -1.5172 0.9841
0.8703 5.3570 -2.2212 0.9768
-0.5716 5.3024 -2.1827 0.9772
-1.9092 4.8387 -2.1289 0.9778
2.3371 -0.9637 -1.1017 0.9890
4.6842 -0.5776 -2.0569 0.9796
4.7637 -0.1582 -2.0773 0.9794
4.8041 0.2707 -2.0970 0.9792
4.8039 0.7052 -2.1161 0.9790
4.3816 2.4146 -2.1803 0.9784
4.1714 2.8121 -2.1925 0.9783
3.9216 3.1884 -2.2027 0.9782
3.6344 3.5391 -2.2108 0.9781
2.9593 4.1478 -2.2206 0.9780
2.5785 4.3985 -2.2220 0.9780
1.3139 4.9037 -2.2125 0.9781
0.4167 5.0194 -2.1951 0.9783
-0.9124 4.8593 -2.1548 0.9787
-1.3327 4.7218 -2.1382 0.9788
-2.4706 4.0888 -2.0820 0.9794
-3.7980 2.4876 -1.9787 0.9804
-2.6813 1.4315 -1.3246 0.9868
-2.7421 1.1623 -1.2980 0.9871
-1.5834 0.5097 -0.7250 0.9928
-1.5277 0.3447 -0.6825 0.9932
-1.5290 0.0658 -0.6670 0.9933
-1.5292 -0.0712 -0.6672 0.9933
-1.5174 -0.2076 -0.6675 0.9933
-1.5305 -0.3510 -0.6843 0.9932
-4.0887 -1.7500 -1.9383 0.9808
-3.8950 -2.0971 -1.9279 0.9809
-2.8737 -3.2833 -1.9016 0.9811
-1.5402 -4.0788 -1.9001 0.9812
-1.1717 -4.2080 -1.9037 0.9811
-0.7931 -4.3075 -1.9088 0.9811
-0.4065 -4.3764 -1.9155 0.9810
0.3826 -4.4197 -1.9334 0.9808
1.1774 -4.3334 -1.9570 0.9806
1.5711 -4.2408 -1.9710 0.9805
2.7056 -3.7640 -2.0202 0.9800
3.0591 -3.5396 -2.0389 0.9798
3.3956 -3.2834 -2.0586 0.9796
4.0054 -2.6797 -2.1003 0.9792
4.2643 -2.3305 -2.1179 0.9790
4.5371 -1.0706 -2.0316 0.9799
4.6618 -0.6676 -2.0524 0.9797
4.7496 -0.2508 -2.0728 0.9795
4.7987 0.1763 -2.0928 0.9793
4.8075 0.6100 -2.1120 0.9791
4.7747 1.0461 -2.1303 0.9789
4.5820 1.9084 -2.1632 0.9786
4.4221 2.3254 -2.1774 0.9784
3.9794 3.1082 -2.2006 0.9782
3.7002 3.4649 -2.2092 0.9781
3.3857 3.7928 -2.2157 0.9781
2.6639 4.3470 -2.2219 0.9780
2.2644 4.5668 -2.2215 0.9780
0.9656 4.9704 -2.2067 0.9781
0.5153 5.0156 -2.1974 0.9782
0.0344 2.6681 -1.1629 0.9884
-0.1943 2.5323 -1.1069 0.9890
-1.2423 4.7553 -2.1420 0.9788
-2.0340 4.3830 -2.1058 0.9791
-2.3952 4.1450 -2.0864 0.9793
-3.5496 2.9230 -2.0040 0.9801
-2.7250 1.2184 -1.3009 0.9871
-1.5911 0.5467 -0.7332 0.9927
-1.5426 0.3799 -0.6924 0.9931
-1.5118 0.2316 -0.6665 0.9933
-1.5296 0.0958 -0.6679 0.9933
-1.5274 -0.0412 -0.6659 0.9934
-1.5229 -0.1781 -0.6682 0.9933
-1.5144 -0.3163 -0.6743 0.9933
-3.9396 -2.0228 -1.9301 0.9809
-3.7253 -2.3555 -1.9209 0.9810
-3.4859 -2.6682 -1.9132 0.9810
-2.9386 -3.2278 -1.9024 0.9811
-2.3115 -3.6905 -1.8978 0.9812
-1.6192 -4.0467 -1.8996 0.9812
0.2957 -4.4212 -1.9311 0.9809
1.0909 -4.3492 -1.9542 0.9806
1.8747 -4.1453 -1.9827 0.9803
2.9832 -3.5914 -2.0347 0.9798
3.3237 -3.3421 -2.0542 0.9796
3.9434 -2.7514 -2.0956 0.9792
4.2115 -2.4098 -2.1146 0.9791
4.1404 -1.9001 -1.9854 0.9803
4.3386 -1.5384 -2.0062 0.9801
4.6376 -0.7570 -2.0479 0.9797
4.7337 -0.3429 -2.0684 0.9795
4.8091 0.5148 -2.1079 0.9791
3.7644 3.3892 -2.2075 0.9781
3.4573 3.7238 -2.2145 0.9781
2.7481 4.2936 -2.2217 0.9780
2.3536 4.5223 -2.2218 0.9780
1.9381 4.7098 -2.2196 0.9780
0.6139 5.0096 -2.1996 0.9782
0.1630 5.0195 -2.1887 0.9783
-0.1430 2.5048 -1.0934 0.9891
-0.7240 4.9067 -2.1616 0.9786
-1.1510 4.7868 -2.1456 0.9787
-1.5615 4.6273 -2.1284 0.9789
-1.9517 4.4306 -2.1100 0.9791
-2.3185 4.1997 -2.0907 0.9793
-2.6588 3.9377 -2.0707 0.9795
-2.9704 3.6479 -2.0502 0.9797
-3.7147 2.6463 -1.9877 0.9803
-1.5969 0.5839 -0.7410 0.9926
-1.5034 0.2605 -0.6650 0.9934
-1.5267 -0.1483 -0.6685 0.9933
-1.4971 -0.2823 -0.6640 0.9934
-1.5651 -0.4430 -0.7089 0.9929
-4.1647 -1.5929 -1.9433 0.9807
-3.5403 -2.6016 -1.9147 0.9810
-3.2824 -2.8977 -1.9082 0.9811
-2.0480 -3.8428 -1.8978 0.9812
-1.6976 -4.0132 -1.8991 0.9812
-0.5764 -4.3501 -1.9124 0.9810
1.3996 -4.2854 -1.9647 0.9805
1.7902 -4.1740 -1.9794 0.9804
2.1734 -4.0295 -1.9953 0.9802
2.9065 -3.6417 -2.0306 0.9799
3.2508 -3.3993 -2.0499 0.9797
3.5764 -3.1256 -2.0700 0.9795
4.1571 -2.4878 -2.1114 0.9791
4.0931 -1.9762 -1.9809 0.9804
2.4104 -0.9082 -1.1226 0.9888
4.4716 -1.2416 -2.0225 0.9800
4.6117 -0.8456 -2.0433 0.9797
4.7821 -0.0115 -2.0841 0.9793
4.8087 0.4198 -2.1037 0.9792
4.7942 0.8554 -2.1224 0.9790
4.7377 1.2910 -2.1401 0.9788
4.3138 2.5536 -2.1847 0.9784
4.0897 2.9443 -2.1962 0.9783
3.8268 3.3122 -2.2057 0.9782
3.5273 3.6532 -2.2132 0.9781
3.1943 3.9632 -2.2184 0.9780
2.8311 4.2384 -2.2213 0.9780
2.4263 4.4474 -2.2080 0.9781
2.0305 4.6725 -2.2203 0.9780
1.6020 4.8265 -2.2163 0.9781
0.8425 3.5822 -1.6038 0.9841
-1.4734 4.6654 -2.1323 0.9789
-2.2405 4.2530 -2.0950 0.9792
-2.5868 3.9975 -2.0751 0.9794
-2.9048 3.7135 -2.0547 0.9796
-3.6706 2.7246 -1.9923 0.9803
-1.5679 0.4519 -0.7111 0.9929
-1.5259 0.1557 -0.6685 0.9933
-1.5249 0.0186 -0.6646 0.9934
-1.5290 -0.1184 -0.6683 0.9933
-1.5056 -0.2535 -0.6654 0.9934
-1.5527 -0.4069 -0.6996 0.9930
-3.8222 -2.2124 -1.9247 0.9809
-3.3408 -2.8349 -1.9095 0.9811
-1.7753 -3.9784 -1.8986 0.9812
-1.4146 -4.1266 -1.9012 0.9811
-1.0424 -4.2457 -1.9053 0.9811
-0.6608 -4.3347 -1.9110 0.9810
-0.2718 -4.3929 -1.9181 0.9810
0.1223 -4.4195 -1.9269 0.9809
0.5195 -4.4141 -1.9370 0.9808
0.9174 -4.3762 -1.9487 0.9807
2.0904 -4.0639 -1.9917 0.9803
2.8290 -3.6904 -2.0266 0.9799
3.1770 -3.4550 -2.0456 0.9797
4.1005 -2.5642 -2.1077 0.9791
4.3446 -2.2034 -2.1230 0.9790
2.3462 -0.9368 -1.1010 0.9890
4.5840 -0.9336 -2.0388 0.9798
4.6963 -0.5255 -2.0595 0.9796
4.8064 0.3250 -2.0995 0.9792
4.7537 1.1960 -2.1363 0.9788
4.6639 1.6287 -2.1530 0.9787
4.1421 2.8606 -2.1939 0.9783
3.8875 3.2340 -2.2038 0.9782
3.5958 3.5812 -2.2117 0.9781
3.2698 3.8983 -2.2174 0.9780
2.9129 4.1814 -2.2209 0.9780
2.1220 4.6330 -2.2209 0.9780
1.6969 4.7966 -2.2174 0.9780
0.3600 5.0207 -2.1937 0.9783
-0.0473 2.6420 -1.1516 0.9885
-0.9661 4.8442 -2.1528 0.9787
-1.3843 4.7017 -2.1361 0.9788
-2.1612 4.3047 -2.0992 0.9792
4.1510 -1.2915 -2.0123 0.9810
4.2912 -0.9243 -2.0319 0.9808
4.4702 -0.1485 -2.0703 0.9805
4.4610 1.0692 -2.1234 0.9800
4.3798 1.4744 -2.1391 0.9798
4.2590 1.8724 -2.1535 0.9797
4.0990 2.2590 -2.1664 0.9796
3.9010 2.6298 -2.1777 0.9795
3.6663 2.9808 -2.1872 0.9794
3.3970 3.3080 -2.1948 0.9793
2.0316 4.3070 -2.2043 0.9792
1.6364 4.4654 -2.2014 0.9793
0.8109 4.6594 -2.1892 0.9794
-0.4472 4.6378 -2.1567 0.9797
-0.8543 4.5495 -2.1427 0.9798
-1.6258 4.2602 -2.1107 0.9801
-2.9093 3.3004 -2.0365 0.9808
-3.3840 2.6774 -1.9974 0.9812
-2.6664 1.4235 -1.3991 0.9868
-1.3305 0.4283 -0.6470 0.9939
-1.2993 0.2932 -0.6166 0.9941
-1.3299 0.1772 -0.6210 0.9941
-1.3382 -0.0623 -0.6201 0.9941
-1.3010 -0.2984 -0.6178 0.9941
-1.3312 -0.4337 -0.6481 0.9938
-1.3232 -0.5663 -0.6662 0.9937
-3.4792 -2.2963 -1.9296 0.9818
-3.2482 -2.5886 -1.9226 0.9819
-2.7218 -3.1098 -1.9130 0.9819
-1.1098 -3.9855 -1.9150 0.9819
-0.7511 -4.0791 -1.9199 0.9819
-0.3848 -4.1435 -1.9262 0.9818
-0.0131 -4.1782 -1.9340 0.9818
0.7383 -4.1559 -1.9538 0.9816
1.1135 -4.0981 -1.9657 0.9815
3.4986 -2.8241 -2.0812 0.9804
4.0125 -2.1929 -2.1166 0.9800
4.1162 -1.3695 -2.0080 0.9811
4.2633 -1.0060 -2.0276 0.9809
4.4576 -0.2354 -2.0662 0.9805
4.5010 0.1654 -2.0848 0.9803
4.4735 0.9801 -2.1198 0.9800
3.4587 3.2387 -2.1933 0.9793
2.8398 3.8199 -2.2032 0.9792
1.7241 4.4342 -2.2022 0.9792
1.3182 4.5609 -2.1976 0.9793
0.4819 4.6898 -2.1823 0.9794
0.0367 2.8455 -1.3172 0.9875
-0.7663 4.5721 -2.1459 0.9798
-1.5449 4.2987 -2.1144 0.9801
-2.2470 3.8886 -2.0789 0.9804
-2.5621 3.6390 -2.0600 0.9806
-2.8501 3.3637 -2.0408 0.9808
-3.3381 2.7489 -2.0016 0.9811
-1.3180 0.5893 -0.6683 0.9937
-1.3337 0.4583 -0.6528 0.9938
-1.3082 0.3222 -0.6236 0.9941
-1.3247 0.2029 -0.6203 0.9941
-1.3385 0.0838 -0.6208 0.9941
-1.3369 -0.0360 -0.6190 0.9941
-1.3281 -0.5380 -0.6633 0.9937
-3.5266 -2.2298 -1.9313 0.9818
-3.3006 -2.5264 -1.9240 0.9818
-2.7833 -3.0572 -1.9137 0.9819
-2.1896 -3.4959 -1.9094 0.9820
-0.8302 -4.0611 -1.9187 0.9819
0.6561 -4.1643 -1.9514 0.9816
1.7716 -3.9174 -1.9901 0.9812
2.1309 -3.7723 -2.0055 0.9811
2.8152 -3.3891 -2.0394 0.9808
3.4356 -2.8861 -2.0770 0.9804
4.2338 -1.0868 -2.0233 0.9809
4.4432 -0.3219 -2.0621 0.9806
4.4947 0.0771 -2.0808 0.9804
4.5087 0.4826 -2.0989 0.9802
4.4841 0.8909 -2.1162 0.9801
4.4202 1.2979 -2.1324 0.9799
4.3166 1.6996 -2.1474 0.9798
3.9922 2.4699 -2.1730 0.9795
0.1525 4.6947 -2.1742 0.9795
-0.6777 4.5929 -2.1490 0.9797
-1.0779 4.4828 -2.1342 0.9799
-1.4631 4.3356 -2.1181 0.9800
-1.8297 4.1536 -2.1009 0.9802
-2.1748 3.9394 -2.0829 0.9804
-2.4955 3.6958 -2.0642 0.9805
-3.2907 2.8197 -2.0059 0.9811
-1.3330 0.4874 -0.6570 0.9938
-1.3159 0.3516 -0.6305 0.9940
-1.3380 0.1101 -0.6214 0.9941
-1.3345 -0.0098 -0.6177 0.9941
-1.3366 -0.1299 -0.6216 0.9941
-1.3130 -0.2475 -0.6185 0.9941
-1.3314 -0.5092 -0.6598 0.9937
-3.7694 -1.8431 -1.9422 0.9817
-2.8438 -3.0035 -1.9146 0.9819
-2.2578 -3.4527 -1.9096 0.9820
-1.6080 -3.8015 -1.9106 0.9820
-0.1761 -4.1667 -1.9304 0.9818
0.1978 -4.1844 -1.9390 0.9817
0.5739 -4.1713 -1.9490 0.9816
0.9498 -4.1272 -1.9604 0.9815
1.6919 -3.9450 -1.9869 0.9813
3.0664 -3.2065 -2.0537 0.9806
3.3716 -2.9467 -2.0727 0.9805
3.9123 -2.3413 -2.1105 0.9801
3.8519 -1.8597 -1.9799 0.9813
4.2029 -1.1670 -2.0190 0.9810
4.3319 -0.7943 -2.0386 0.9808
4.4270 -0.4079 -2.0579 0.9806
4.5089 0.3937 -2.0950 0.9802
4.4928 0.8016 -2.1125 0.9801
4.0351 2.3886 -2.1705 0.9795
3.8242 2.7531 -2.1812 0.9794
2.6454 3.9603 -2.2045 0.9792
1.8973 4.3660 -2.2036 0.9792
0.8457 3.5958 -1.7099 0.9838
0.6661 4.6760 -2.1863 0.9794
-0.0983 2.6240 -1.2155 0.9885
-0.9916 4.5101 -2.1375 0.9799
-1.3803 4.3708 -2.1217 0.9800
-1.7513 4.1962 -2.1047 0.9802
-2.9996 3.1987 -2.0298 0.9809
-3.4532 2.5632 -1.9906 0.9812
-2.6827 1.3277 -1.3855 0.9869
-1.3226 0.3812 -0.6371 0.9940
-1.3112 0.2537 -0.6182 0.9941
-1.3359 0.1363 -0.6216 0.9941
-1.3382 -0.1037 -0.6213 0.9941
-1.3201 -0.2222 -0.6196 0.9941
-1.3333 -0.4803 -0.6560 0.9938
-1.3123 -0.6102 -0.6699 0.9936
-3.6179 -2.0942 -1.9350 0.9817
-3.4023 -2.3992 -1.9270 0.9818
-3.1635 -2.6845 -1.9205 0.9819
-2.9033 -2.9487 -1.9155 0.9819
-2.3252 -3.4083 -1.9098 0.9820
-2.0107 -3.6014 -1.9093 0.9820
-1.6817 -3.7685 -1.9102 0.9820
-1.3399 -3.9086 -1.9126 0.9820
-0.9873 -4.0209 -1.9165 0.9819
-0.6257 -4.1046 -1.9219 0.9819
-0.2574 -4.1589 -1.9288 0.9818
0.1158 -4.1831 -1.9370 0.9817
0.8678 -4.1395 -1.9578 0.9815
2.3287 -3.6769 -2.0146 0.9810
2.6703 -3.4833 -2.0316 0.9808
2.9972 -3.2594 -2.0496 0.9807
3.5957 -2.7239 -2.0881 0.9803
2.3457 -0.9366 -1.1692 0.9889
4.1704 -1.2463 -2.0148 0.9810
4.3065 -0.8771 -2.0343 0.9808
4.4767 -0.0983 -2.0727 0.9805
4.5073 0.3048 -2.0911 0.9803
4.4530 1.1204 -2.1255 0.9800
4.3668 1.5249 -2.1410 0.9798
4.0762 2.3065 -2.1679 0.9796
3.6343 3.0234 -2.1883 0.9794
2.7218 3.9071 -2.2041 0.9792
2.3629 4.1367 -2.2052 0.9792
1.5857 4.4824 -2.2008 0.9793
0.9593 3.7485 -1.7910 0.9831
0.7581 4.6660 -2.1882 0.9794
0.3367 4.6951 -2.1789 0.9795
-0.4990 4.6289 -2.1551 0.9797
-0.9046 4.5356 -2.1408 0.9798
-1.2968 4.4044 -2.1252 0.9800
-2.0268 4.0368 -2.0909 0.9803
3.5662 -1.8593 -1.9728 0.9822
2.3339 -0.9624 -1.2383 0.9888
3.9118 -1.2171 -2.0096 0.9819
4.1401 -0.5105 -2.0462 0.9816
4.2366 0.2387 -2.0814 0.9813
4.1124 1.3844 -2.1285 0.9809
3.9974 1.7574 -2.1419 0.9807
3.8459 2.1194 -2.1540 0.9806
3.6589 2.4666 -2.1645 0.9805
3.4378 2.7951 -2.1734 0.9805
3.1846 3.1011 -2.1804 0.9804
2.2580 3.8517 -2.1901 0.9803
0.3655 4.4021 -2.1668 0.9805
-0.0186 2.7993 -1.3732 0.9876
-1.5278 4.0034 -2.1019 0.9811
-2.1806 3.6088 -2.0683 0.9814
-2.4729 3.3703 -2.0505 0.9815
-2.7397 3.1081 -2.0324 0.9817
-3.1903 2.5242 -1.9955 0.9820
-1.1167 0.5962 -0.6209 0.9944
-1.1879 -0.1625 -0.5881 0.9947
-1.1582 -0.3773 -0.5975 0.9946
-1.1147 -0.6002 -0.6210 0.9944
-2.8416 -2.7135 -1.9273 0.9826
-2.0124 -3.3571 -1.9199 0.9827
-1.7047 -3.5242 -1.9203 0.9827
-1.3842 -3.6659 -1.9221 0.9827
-0.7125 -3.8696 -1.9300 0.9826
-0.3650 -3.9300 -1.9361 0.9826
0.3432 -3.9652 -1.9523 0.9824
2.0897 -3.5361 -2.0148 0.9819
2.4162 -3.3614 -2.0306 0.9817
3.3047 -2.6676 -2.0832 0.9813
3.5619 -2.3830 -2.1021 0.9811
3.7843 -2.0681 -2.1154 0.9810
4.1214 -0.5902 -2.0423 0.9816
4.1942 -0.2215 -2.0602 0.9815
4.2328 0.1555 -2.0777 0.9813
4.2028 0.9208 -2.1104 0.9810
4.0257 1.6767 -2.1391 0.9808
3.8820 2.0414 -2.1515 0.9806
3.7027 2.3922 -2.1623 0.9806
3.4889 2.7251 -2.1716 0.9805
2.9659 3.3225 -2.1846 0.9804
2.6615 3.5802 -2.1883 0.9803
0.4519 4.3982 -2.1688 0.9805
-0.7194 4.2922 -2.1348 0.9808
-1.0927 4.1829 -2.1207 0.9809
-1.7928 3.8633 -2.0891 0.9812
-2.4112 3.4246 -2.0544 0.9815
-2.6837 3.1673 -2.0364 0.9817
-3.1467 2.5913 -1.9995 0.9820
-3.3347 2.2786 -1.9811 0.9822
-1.1421 0.5107 -0.6137 0.9944
-1.1605 0.2858 -0.5863 0.9947
-1.1958 0.0749 -0.5877 0.9947
-1.1909 -0.1393 -0.5881 0.9947
-1.1719 -0.2448 -0.5872 0.9947
-1.1589 -0.3526 -0.5942 0.9946
-1.1255 -0.5779 -0.6206 0.9944
-3.3444 -2.1146 -1.9409 0.9825
-2.8957 -2.6588 -1.9284 0.9826
-2.6407 -2.9006 -1.9242 0.9827
-1.1262 -3.7583 -1.9245 0.9827
-0.7876 -3.8526 -1.9289 0.9826
-0.0898 -3.9575 -1.9418 0.9825
0.2654 -3.9670 -1.9502 0.9824
0.9776 -3.8977 -1.9711 0.9823
2.0168 -3.5704 -2.0115 0.9819
2.3459 -3.4021 -2.0271 0.9818
2.6621 -3.2048 -2.0436 0.9816
2.9628 -2.9793 -2.0610 0.9815
3.5076 -2.4473 -2.0980 0.9811
2.4091 -1.1056 -1.3002 0.9883
4.1010 -0.6694 -2.0383 0.9817
4.2384 0.4537 -2.0909 0.9812
3.9165 1.9628 -2.1489 0.9807
3.7449 2.3169 -2.1601 0.9806
2.7303 3.5264 -2.1877 0.9803
1.6974 4.1249 -2.1880 0.9803
1.3197 4.2526 -2.1841 0.9804
0.5383 4.3924 -2.1707 0.9805
0.1430 4.4037 -2.1613 0.9806
-1.0123 4.2098 -2.1238 0.9809
-1.3746 4.0734 -2.1088 0.9810
-1.7199 3.9043 -2.0928 0.9812
-2.8780 2.9511 -2.0220 0.9818
-3.1017 2.6577 -2.0036 0.9820
-3.4607 2.0254 -1.9669 0.9823
-1.1368 0.5352 -0.6163 0.9944
-1.1551 0.4224 -0.6033 0.9945
-1.1584 0.3095 -0.5882 0.9947
-1.1807 0.2046 -0.5878 0.9947
-3.3881 -2.0506 -1.9427 0.9825
-3.1794 -2.3364 -1.9354 0.9826
-2.9488 -2.6032 -1.9295 0.9826
-2.6981 -2.8496 -1.9250 0.9827
-2.1424 -3.2763 -1.9202 0.9827
-1.8409 -3.4542 -1.9200 0.9827
-1.5258 -3.6071 -1.9211 0.9827
-1.1990 -3.7341 -1.9238 0.9827
-0.8623 -3.8343 -1.9278 0.9826
0.1875 -3.9674 -1.9483 0.9825
0.5440 -3.9540 -1.9578 0.9824
0.9000 -3.9110 -1.9686 0.9823
2.2750 -3.4414 -2.0236 0.9818
2.8985 -3.0309 -2.0572 0.9815
3.1854 -2.7839 -2.0752 0.9813
3.4522 -2.5105 -2.0938 0.9812
3.6904 -2.2085 -2.1096 0.9810
3.6333 -1.7542 -1.9791 0.9822
4.0792 -0.7480 -2.0343 0.9817
4.1665 -0.3839 -2.0524 0.9815
4.2218 0.7533 -2.1036 0.9811
4.1679 1.1358 -2.1190 0.9809
4.0770 1.5138 -2.1333 0.9808
3.5865 2.5820 -2.1677 0.9805
2.1382 3.9194 -2.1900 0.9803
1.7783 4.0920 -2.1886 0.9803
0.6246 4.3847 -2.1725 0.9805
-0.0986 2.6325 -1.2922 0.9883
-0.5524 4.3288 -2.1406 0.9807
-1.6460 3.9440 -2.0963 0.9811
-1.9760 3.7510 -2.0796 0.9813
-2.2840 3.5296 -2.0622 0.9814
-2.5678 3.2826 -2.0443 0.9816
-2.8254 3.0128 -2.0260 0.9818
-3.0552 2.7233 -2.0076 0.9819
-1.1307 0.5596 -0.6188 0.9944
-1.1525 0.4471 -0.6064 0.9945
-1.1759 0.2275 -0.5875 0.9947
-1.1927 0.1217 -0.5881 0.9947
-1.1960 0.0146 -0.5867 0.9947
-1.1950 -0.0926 -0.5879 0.9947
-1.1818 -0.1990 -0.5879 0.9947
-1.1582 -0.3035 -0.5873 0.9947
-3.4307 -1.9858 -1.9444 0.9825
-3.2269 -2.2755 -1.9368 0.9826
-3.0010 -2.5466 -1.9306 0.9826
-2.2064 -3.2341 -1.9204 0.9827
-1.9080 -3.4174 -1.9199 0.9827
-0.9366 -3.8148 -1.9268 0.9827
0.1098 -3.9664 -1.9464 0.9825
0.4660 -3.9594 -1.9556 0.9824
0.8224 -3.9229 -1.9661 0.9823
1.5265 -3.7606 -1.9909 0.9821
1.8696 -3.6348 -2.0050 0.9820
2.2035 -3.4793 -2.0201 0.9818
2.5256 -3.2946 -2.0363 0.9817
3.1243 -2.8402 -2.0712 0.9814
3.3957 -2.5725 -2.0897 0.9812
3.5910 -1.8212 -1.9751 0.9822
2.3453 -0.9364 -1.2387 0.9888
4.0558 -0.8260 -2.0303 0.9817
4.2380 0.2866 -2.0836 0.9813
4.2287 0.6694 -2.1001 0.9811
4.1000 1.4317 -2.1302 0.9808
3.4077 2.8348 -2.1743 0.9804
3.1506 3.1378 -2.1812 0.9804
2.5510 3.6618 -2.1891 0.9803
1.8584 4.0574 -2.1891 0.9803
1.4863 4.2014 -2.1861 0.9803
0.9345 3.6513 -1.8488 0.9833
0.7108 4.3751 -2.1742 0.9804
-0.0478 2.6690 -1.3094 0.9882
-0.4683 4.3444 -2.1434 0.9807
-0.8493 4.2586 -2.1301 0.9808
-1.5712 3.9821 -2.0999 0.9811
3.3712 -1.7577 -1.9724 0.9830
2.2979 -0.9476 -1.2895 0.9889
3.6942 -1.1494 -2.0071 0.9827
3.9656 -0.1317 -2.0584 0.9823
3.9866 0.5852 -2.0903 0.9820
3.8709 1.3031 -2.1189 0.9818
3.7612 1.6536 -2.1315 0.9817
3.2319 2.6277 -2.1609 0.9814
2.9933 2.9148 -2.1675 0.9813
2.7269 3.1777 -2.1723 0.9813
2.1218 3.6193 -2.1765 0.9813
1.7892 3.7932 -2.1758 0.9813
1.4414 3.9332 -2.1732 0.9813
0.9859 3.6795 -1.9762 0.9830
-1.1040 3.9115 -2.1085 0.9819
-2.0560 3.4025 -2.0624 0.9822
-2.5857 2.9333 -2.0286 0.9825
-2.8132 2.6675 -2.0112 0.9827
-1.0168 0.5428 -0.5979 0.9948
-1.0497 0.4449 -0.5914 0.9949
-1.0624 0.3420 -0.5790 0.9950
-1.0792 0.2435 -0.5739 0.9950
-1.0991 0.1464 -0.5752 0.9950
-1.1065 0.0476 -0.5746 0.9950
-1.0781 -0.2473 -0.5738 0.9950
-1.0622 -0.3460 -0.5795 0.9950
-1.0489 -0.4489 -0.5919 0.9949
-1.0149 -0.5464 -0.5980 0.9948
-3.1343 -2.0687 -1.9482 0.9832
-2.9273 -2.3328 -1.9418 0.9833
-2.7000 -2.5783 -1.9368 0.9833
-2.4541 -2.8039 -1.9331 0.9833
-1.9125 -3.1904 -1.9297 0.9834
-1.3154 -3.4837 -1.9318 0.9834
-0.6770 -3.6765 -1.9394 0.9833
-0.0118 -3.7631 -1.9522 0.9832
0.3259 -3.7652 -1.9606 0.9831
0.6643 -3.7392 -1.9702 0.9830
1.9811 -3.3523 -2.0201 0.9826
2.8653 -2.7706 -2.0677 0.9822
3.1274 -2.5245 -2.0851 0.9821
3.3674 -2.2529 -2.1019 0.9819
2.2839 -0.9945 -1.2923 0.9888
3.7909 -0.8945 -2.0207 0.9826
3.8886 -0.5569 -2.0379 0.9825
3.9553 -0.2089 -2.0548 0.9823
3.9579 0.8671 -2.1020 0.9819
3.8903 1.2254 -2.1160 0.9818
3.7881 1.5777 -2.1288 0.9817
3.6517 1.9203 -2.1404 0.9816
3.2801 2.5620 -2.1592 0.9814
3.0479 2.8540 -2.1662 0.9814
1.8634 3.7580 -2.1761 0.9813
1.5186 3.9056 -2.1739 0.9813
0.7955 4.0950 -2.1641 0.9814
0.0369 2.8587 -1.4832 0.9872
-0.2067 2.6942 -1.4018 0.9879
-0.6770 4.0394 -2.1248 0.9817
-1.0288 3.9380 -2.1115 0.9818
-1.3673 3.8044 -2.0972 0.9819
-1.6894 3.6403 -2.0820 0.9821
-1.9925 3.4481 -2.0660 0.9822
-3.1517 2.1535 -1.9802 0.9829
-1.0063 0.5628 -0.5982 0.9948
-1.0608 0.3645 -0.5819 0.9950
-1.0731 0.2643 -0.5734 0.9950
-1.1059 0.0693 -0.5749 0.9950
-1.1066 -0.0298 -0.5743 0.9950
-1.1013 -0.1288 -0.5752 0.9950
-1.0837 -0.2263 -0.5743 0.9950
-1.0530 -0.4265 -0.5894 0.9949
-1.0248 -0.5262 -0.5976 0.9948
-0.9743 -0.6160 -0.5980 0.9948
-2.5094 -2.7564 -1.9338 0.9833
-1.9746 -3.1526 -1.9298 0.9834
-1.0701 -3.5713 -1.9341 0.9833
-0.7483 -3.6605 -1.9383 0.9833
-0.4194 -3.7233 -1.9438 0.9833
1.2621 -3.6229 -1.9903 0.9829
2.5219 -3.0360 -2.0475 0.9824
3.0718 -2.5804 -2.0812 0.9821
3.3182 -2.3152 -2.0990 0.9819
3.8698 -0.6316 -2.0341 0.9825
3.9434 -0.2857 -2.0511 0.9823
3.9680 0.7884 -2.0988 0.9819
3.9080 1.1475 -2.1130 0.9818
3.8134 1.5014 -2.1261 0.9817
1.9367 3.7212 -2.1763 0.9813
1.5951 3.8763 -2.1745 0.9813
1.2403 3.9967 -2.1709 0.9813
0.7965 3.7109 -1.9690 0.9830
0.5061 4.1296 -2.1584 0.9814
0.1345 4.1413 -2.1496 0.9815
-0.1508 2.6428 -1.3732 0.9881
-1.2945 3.8362 -2.1004 0.9819
-1.6205 3.6787 -2.0854 0.9820
-2.7170 2.7860 -2.0188 0.9826
-1.0398 0.4895 -0.5962 0.9948
-1.0585 0.3870 -0.5847 0.9949
-1.0920 0.1892 -0.5749 0.9950
-1.1061 -0.0082 -0.5738 0.9950
-1.0887 -0.2053 -0.5748 0.9950
-1.0638 -0.3011 -0.5736 0.9950
-0.9864 -0.5970 -0.5982 0.9948
-2.3081 -2.9216 -1.9316 0.9834
-1.7495 -3.2827 -1.9297 0.9834
-1.4500 -3.4279 -1.9309 0.9834
-1.1393 -3.5484 -1.9334 0.9833
-0.8193 -3.6433 -1.9373 0.9833
-0.4918 -3.7118 -1.9425 0.9833
0.8543 -3.7122 -1.9761 0.9830
1.1895 -3.6420 -1.9876 0.9829
1.5197 -3.5434 -2.0002 0.9828
1.8428 -3.4166 -2.0138 0.9827
2.4578 -3.0795 -2.0440 0.9824
2.7449 -2.8703 -2.0604 0.9823
3.2661 -2.3752 -2.0951 0.9820
3.4881 -2.0875 -2.1089 0.9818
3.4341 -1.6580 -1.9783 0.9830
2.3131 -0.8715 -1.2824 0.9889
3.9300 -0.3621 -2.0475 0.9824
3.9788 -0.0095 -2.0641 0.9822
3.9946 0.3488 -2.0802 0.9821
3.9766 0.7095 -2.0955 0.9820
3.8370 1.4247 -2.1234 0.9817
3.7155 1.7720 -2.1355 0.9816
3.3722 2.4277 -2.1556 0.9814
2.0092 3.6829 -2.1764 0.9813
1.6711 3.8453 -2.1751 0.9813
0.8478 3.6048 -1.9211 0.9835
0.2157 4.1419 -2.1516 0.9815
-0.5198 4.0731 -2.1302 0.9817
-0.8764 3.9864 -2.1175 0.9818
-2.4226 3.0970 -2.0398 0.9824
-2.6670 2.8439 -2.0226 0.9826
-2.8854 2.5719 -2.0052 0.9827
-3.0768 2.2838 -1.9878 0.9829
-0.9835 0.6017 -0.5981 0.9948
-1.0556 0.4095 -0.5874 0.9949
-1.0876 0.2104 -0.5747 0.9950
-1.1030 0.1125 -0.5752 0.9950
-1.1063 0.0135 -0.5740 0.9950
-1.1051 -0.0856 -0.5750 0.9950
-1.0930 -0.1840 -0.5750 0.9950
-1.0682 -0.2799 -0.5729 0.9950
-1.0591 -0.3815 -0.5840 0.9949
-1.0411 -0.4841 -0.5957 0.9948
-0.9980 -0.5777 -0.5982 0.9948
-3.0654 -2.1616 -1.9459 0.9832
-2.8512 -2.4195 -1.9400 0.9833
-2.3654 -2.8767 -1.9321 0.9834
-2.0968 -3.0736 -1.9302 0.9834
-1.8133 -3.2477 -1.9297 0.9834
-1.2081 -3.5242 -1.9327 0.9834
0.4425 -3.7594 -1.9638 0.9831
1.4481 -3.5674 -1.9974 0.9828
2.6835 -2.9183 -2.0567 0.9823
3.4422 -2.1525 -2.1061 0.9819
2.3059 -0.9207 -1.2881 0.9889
3.7109 -1.1090 -2.0093 0.9827
3.8279 -0.7796 -2.0266 0.9826
3.9151 -0.4381 -2.0438 0.9824
3.9709 -0.0872 -2.0605 0.9823
3.9940 0.2701 -2.0767 0.9821
3.9834 0.6306 -2.0923 0.9820
3.9385 0.9909 -2.1069 0.9819
3.4160 2.3592 -2.1537 0.9815
3.2035 2.6650 -2.1618 0.9814
2.9613 2.9493 -2.1682 0.9813
2.6916 3.2089 -2.1728 0.9813
1.7463 3.8127 -2.1755 0.9813
0.2969 4.1407 -2.1536 0.9815
-0.0482 2.6926 -1.3971 0.9879
-0.4406 4.0875 -2.1328 0.9816
-1.1470 3.8956 -2.1067 0.9819
-1.4801 3.7512 -2.0921 0.9820
3.1925 -1.6645 -1.9720 0.9837
3.6076 -0.7771 -2.0212 0.9833
3.7468 -0.1244 -2.0533 0.9830
3.7709 0.2125 -2.0686 0.9829
3.7236 0.8925 -2.0972 0.9827
3.5467 1.5593 -2.1220 0.9825
3.4101 1.8793 -2.1326 0.9824
3.2425 2.1859 -2.1418 0.9823
2.5686 2.9932 -2.1603 0.9822
1.9983 3.4088 -2.1642 0.9821
1.6852 3.5726 -2.1635 0.9821
1.0193 3.8040 -2.1570 0.9822
0.6734 3.8694 -2.1512 0.9822
0.3238 3.9007 -2.1438 0.9823
-0.7120 3.7918 -2.1131 0.9826
-1.0417 3.6907 -2.1004 0.9827
-1.9423 3.2144 -2.0570 0.9830
-2.2047 3.0048 -2.0412 0.9831
-2.8526 2.2570 -1.9923 0.9835
-0.9314 0.4973 -0.5783 0.9952
-1.0019 0.2261 -0.5625 0.9953
-1.0275 -0.0478 -0.5634 0.9953
-1.0200 -0.1396 -0.5639 0.9953
-0.9791 -0.3190 -0.5640 0.9953
-0.9652 -0.4131 -0.5750 0.9952
-0.9297 -0.5006 -0.5783 0.9952
-2.7849 -2.2193 -1.9504 0.9839
-2.0850 -2.8627 -1.9397 0.9840
-0.6441 -3.4979 -1.9480 0.9839
-0.0112 -3.5791 -1.9603 0.9838
0.3099 -3.5803 -1.9683 0.9837
1.2680 -3.4228 -1.9992 0.9835
1.5786 -3.3163 -2.0116 0.9834
1.8811 -3.1830 -2.0250 0.9833
2.1732 -3.0234 -2.0393 0.9832
3.1891 -2.1336 -2.1015 0.9827
3.1537 -1.7235 -1.9684 0.9837
2.2633 -0.9855 -1.3520 0.9888
3.5854 -0.8460 -2.0176 0.9833
3.6760 -0.5264 -2.0339 0.9832
3.7678 0.4780 -2.0802 0.9828
3.0908 2.4141 -2.1480 0.9823
2.8714 2.6887 -2.1545 0.9822
2.6256 2.9413 -2.1594 0.9822
2.3557 3.1688 -2.1626 0.9822
2.0645 3.3689 -2.1641 0.9821
1.4303 3.6787 -2.1618 0.9822
1.0940 3.7852 -2.1580 0.9822
0.7495 3.8580 -2.1526 0.9822
-0.6385 3.8097 -2.1157 0.9825
-0.9706 3.7154 -2.1032 0.9826
-1.2904 3.5907 -2.0898 0.9827
-1.8821 3.2571 -2.0604 0.9830
-2.1492 3.0525 -2.0447 0.9831
-2.3944 2.8259 -2.0286 0.9832
-2.6162 2.5797 -2.0123 0.9834
-2.8130 2.3165 -1.9959 0.9835
-0.9610 0.4297 -0.5765 0.9952
-0.9775 0.3359 -0.5661 0.9953
-1.0175 0.1559 -0.5638 0.9953
-2.8295 -2.1658 -1.9516 0.9839
-2.6178 -2.4037 -1.9465 0.9839
-2.3878 -2.6228 -1.9427 0.9840
-1.8791 -3.0001 -1.9389 0.9840
-1.6036 -3.1561 -1.9389 0.9840
-0.3990 -3.5420 -1.9522 0.9839
-0.0811 -3.5753 -1.9587 0.9838
0.2396 -3.5823 -1.9664 0.9838
0.5613 -3.5627 -1.9754 0.9837
0.8819 -3.5161 -1.9854 0.9836
1.1993 -3.4425 -1.9966 0.9835
1.8158 -3.2144 -2.0220 0.9833
2.9122 -2.4463 -2.0831 0.9828
3.1429 -2.1929 -2.0990 0.9827
2.2361 -1.0262 -1.3475 0.9888
2.3273 -0.8252 -1.3524 0.9888
3.5618 -0.9143 -2.0141 0.9834
3.6586 -0.5972 -2.0304 0.9832
3.6870 1.0826 -2.1046 0.9826
3.3195 2.0537 -2.1379 0.9824
3.1350 2.3514 -2.1463 0.9823
2.6814 2.8881 -2.1585 0.9822
2.4166 3.1213 -2.1621 0.9822
2.1299 3.3276 -2.1639 0.9821
1.8241 3.5048 -2.1640 0.9821
1.5024 3.6510 -2.1624 0.9822
1.1683 3.7648 -2.1590 0.9822
0.7924 3.6916 -2.0680 0.9829
0.4769 3.8912 -2.1472 0.9823
0.1268 3.9033 -2.1390 0.9823
-0.1512 2.6483 -1.4528 0.9880
-0.8990 3.7387 -2.1061 0.9826
-1.2217 3.6205 -2.0928 0.9827
-1.5300 3.4731 -2.0786 0.9828
-1.8210 3.2987 -2.0637 0.9830
-2.7722 2.3753 -1.9995 0.9835
-1.0138 0.1757 -0.5635 0.9953
-1.0258 0.0844 -0.5637 0.9953
-1.0272 -0.0076 -0.5626 0.9953
-1.0107 -0.1905 -0.5633 0.9953
-0.9728 -0.3721 -0.5704 0.9953
-0.8484 -0.6235 -0.5767 0.9952
-2.6657 -2.3532 -1.9475 0.9839
-2.4396 -2.5766 -1.9434 0.9839
-1.0841 -3.3765 -1.9423 0.9840
-0.7796 -3.4664 -1.9460 0.9839
0.1694 -3.5831 -1.9647 0.9838
0.8120 -3.5286 -1.9831 0.9836
1.4437 -3.3661 -2.0061 0.9834
1.7500 -3.2446 -2.0191 0.9833
2.0469 -3.0964 -2.0330 0.9832
3.0954 -2.2510 -2.0962 0.9827
3.3028 -1.9766 -2.1082 0.9826
2.2868 -0.8616 -1.3385 0.9889
3.7586 -0.0090 -2.0586 0.9830
3.7719 0.3293 -2.0738 0.9829
3.7024 1.0089 -2.1018 0.9827
3.6190 1.3437 -2.1143 0.9825
3.3558 1.9865 -2.1359 0.9824
2.9706 2.5712 -2.1519 0.9822
2.7361 2.8338 -2.1575 0.9822
1.5739 3.6218 -2.1629 0.9822
0.8514 3.6203 -2.0370 0.9832
0.2033 3.9035 -2.1409 0.9823
-0.4902 3.8410 -2.1208 0.9825
-0.8268 3.7605 -2.1088 0.9826
-1.7590 3.3390 -2.0670 0.9829
-2.0350 3.1448 -2.0516 0.9831
-2.2900 2.9275 -2.0357 0.9832
-0.9009 0.5512 -0.5785 0.9952
-0.9454 0.4679 -0.5777 0.9952
-0.9837 0.2835 -0.5607 0.9953
-1.0096 0.1954 -0.5632 0.9953
-1.0262 -0.0795 -0.5637 0.9953
-1.0148 -0.1708 -0.5636 0.9953
-0.9918 -0.2599 -0.5616 0.9953
-0.9757 -0.3515 -0.5680 0.9953
-0.9142 -0.5292 -0.5785 0.9952
-0.8614 -0.6074 -0.5773 0.9952
-2.7127 -2.3019 -1.9486 0.9839
-2.4905 -2.5294 -1.9442 0.9839
-2.2509 -2.7374 -1.9411 0.9840
-1.9954 -2.9249 -1.9393 0.9840
-1.4431 -3.2339 -1.9396 0.9840
-0.8468 -3.4489 -1.9451 0.9839
0.4207 -3.5746 -1.9713 0.9837
1.6837 -3.2734 -2.0161 0.9834
1.9829 -3.1310 -2.0299 0.9832
2.2710 -2.9624 -2.0445 0.9831
2.5456 -2.7683 -2.0598 0.9830
2.8045 -2.5495 -2.0759 0.9829
3.0454 -2.3070 -2.0925 0.9827
3.2596 -2.0383 -2.1056 0.9826
3.7515 -0.0824 -2.0552 0.9830
3.7717 0.2551 -2.0705 0.9829
3.5313 1.6001 -2.1234 0.9825
3.3907 1.9186 -2.1338 0.9824
3.2193 2.2233 -2.1428 0.9823
