ply
format ascii 1.0
element vertex 1593
property float32 x
property float32 y
property float32 z
property float32 I
end_header
-5.1320 5.1756 -2.0633 0.9702
-5.4838 4.6220 -2.0303 0.9706
-6.0207 3.4611 -1.9660 0.9715
-2.7841 1.2850 -0.8681 0.9873
-6.9282 0.5221 -1.9669 0.9715
-6.7393 -0.6992 -1.9181 0.9722
-6.5756 -1.2829 -1.8966 0.9725
-6.3690 -1.8451 -1.8771 0.9728
-5.5151 -3.3804 -1.8312 0.9735
-5.1602 -3.8355 -1.8202 0.9736
-3.9168 -5.0082 -1.7999 0.9739
-2.4502 -5.8638 -1.7991 0.9739
-0.8190 -6.3687 -1.8178 0.9737
-0.2492 -6.4536 -1.8283 0.9735
0.9148 -6.4913 -1.8558 0.9731
2.6801 -6.2019 -1.9126 0.9723
3.2612 -6.0095 -1.9356 0.9720
3.8329 -5.7679 -1.9605 0.9716
5.9419 -4.3059 -2.0773 0.9700
6.9971 -1.9356 -2.0552 0.9703
7.2574 -1.3250 -2.0885 0.9698
7.5382 2.7964 -2.2761 0.9671
7.3068 3.4804 -2.2912 0.9669
6.3703 3.7653 -2.0949 0.9697
5.5793 4.0095 -1.9450 0.9718
3.7052 4.5842 -1.6687 0.9758
2.7321 4.9872 -1.6098 0.9766
1.7316 5.1807 -1.5464 0.9775
0.8647 3.6397 -1.0591 0.9846
0.7916 5.4609 -1.5621 0.9773
-0.0887 2.5604 -0.7253 0.9894
-0.7365 5.9116 -1.6865 0.9755
-1.3168 6.0813 -1.7615 0.9745
-1.9562 6.2675 -1.8587 0.9731
-2.6761 6.4763 -1.9838 0.9713
-3.5546 6.8088 -2.1744 0.9686
-4.5654 5.8854 -2.1086 0.9695
-5.3636 4.8237 -2.0421 0.9705
-5.6799 4.2567 -2.0094 0.9709
-5.9405 3.6736 -1.9773 0.9714
-2.7676 1.3869 -0.8764 0.9872
-6.8922 2.0263 -2.0337 0.9706
-6.9414 0.7479 -1.9764 0.9714
-6.8886 0.1243 -1.9504 0.9718
-6.6396 -1.0753 -1.9041 0.9724
-6.2152 -2.1927 -1.8658 0.9730
-5.2916 -3.6754 -1.8239 0.9736
-4.0787 -4.8837 -1.8013 0.9739
-1.5749 -6.1854 -1.8069 0.9738
0.7037 -6.4978 -1.8502 0.9732
1.2916 -6.4650 -1.8664 0.9730
2.4695 -6.2592 -1.9049 0.9724
3.0531 -6.0843 -1.9271 0.9721
4.1921 -5.5872 -1.9774 0.9714
4.7395 -5.2642 -2.0053 0.9710
-4.7325 4.7059 -2.0528 0.9725
-5.0578 4.2023 -2.0226 0.9729
-5.3327 3.6795 -1.9928 0.9733
-5.5571 3.1426 -1.9636 0.9736
-2.8012 1.2691 -0.9459 0.9872
-6.3936 1.6106 -2.0280 0.9728
-6.4261 1.0204 -2.0013 0.9731
-6.2396 -0.6919 -1.9309 0.9741
-6.0894 -1.2327 -1.9110 0.9743
-5.4052 -2.7296 -1.8625 0.9750
-5.1065 -3.1797 -1.8502 0.9751
-4.7759 -3.6024 -1.8400 0.9753
-4.4158 -3.9960 -1.8318 0.9754
-3.6150 -4.6902 -1.8214 0.9755
-2.7210 -5.2514 -1.8192 0.9756
-0.7209 -5.9360 -1.8392 0.9753
0.3493 -6.0415 -1.8614 0.9750
0.8934 -6.0315 -1.8754 0.9748
1.4399 -5.9784 -1.8914 0.9746
2.5285 -5.7396 -1.9291 0.9741
3.0642 -5.5527 -1.9507 0.9738
3.5897 -5.3202 -1.9740 0.9735
4.1011 -5.0419 -1.9990 0.9732
4.5946 -4.7179 -2.0256 0.9728
5.5112 -3.9348 -2.0828 0.9721
5.9254 -3.4776 -2.1132 0.9717
6.2935 -2.9739 -2.1410 0.9713
6.1643 -2.2650 -2.0199 0.9729
6.6625 -1.1679 -2.0805 0.9721
6.9596 0.0353 -2.1406 0.9713
7.0231 0.6648 -2.1698 0.9709
7.0258 1.3052 -2.1979 0.9705
6.9651 1.9500 -2.2247 0.9702
6.8394 2.5922 -2.2497 0.9699
6.6480 3.2243 -2.2726 0.9696
6.2934 3.7799 -2.2580 0.9697
5.5133 4.0214 -2.0989 0.9718
4.2180 4.4200 -1.8792 0.9748
3.6578 4.5913 -1.8056 0.9757
3.1946 4.8399 -1.7837 0.9760
2.1616 5.0448 -1.6881 0.9773
1.6926 5.1856 -1.6778 0.9774
0.7530 5.4656 -1.6970 0.9772
-0.7795 5.9168 -1.8356 0.9753
-1.7529 5.4799 -1.7696 0.9762
-2.7330 6.4841 -2.1643 0.9710
-3.7703 5.7862 -2.1242 0.9715
-4.2107 5.3499 -2.0940 0.9719
-5.4822 3.3370 -1.9740 0.9735
-2.7620 1.3598 -0.9469 0.9872
-6.2583 2.4144 -2.0632 0.9723
-6.3750 0.0700 -1.9609 0.9737
-6.2832 -0.4931 -1.9385 0.9740
-5.9719 -1.5690 -1.8992 0.9745
-5.7567 -2.0767 -1.8823 0.9747
-5.2177 -3.0209 -1.8544 0.9751
-4.8983 -3.4537 -1.8435 0.9752
-4.5486 -3.8579 -1.8345 0.9753
-4.1706 -4.2321 -1.8275 0.9754
-3.7664 -4.5749 -1.8226 0.9755
-3.3381 -4.8848 -1.8198 0.9755
-2.8879 -5.1607 -1.8190 0.9756
-2.4177 -5.4013 -1.8202 0.9755
-1.9298 -5.6055 -1.8234 0.9755
-0.3817 -5.9877 -1.8454 0.9752
0.1547 -6.0348 -1.8568 0.9751
1.7899 -5.9213 -1.9027 0.9744
2.8726 -5.6252 -1.9427 0.9739
3.4021 -5.4091 -1.9654 0.9736
6.1722 -3.1629 -2.1332 0.9714
2.3465 -0.9488 -0.7785 0.9895
6.5868 -1.3740 -2.0696 0.9722
6.7810 -0.7925 -2.0999 0.9718
7.0071 0.4368 -2.1594 0.9710
6.7244 2.9986 -2.2646 0.9697
5.7811 3.9386 -2.1516 0.9711
4.4313 4.3546 -1.9109 0.9743
3.8543 4.5313 -1.8297 0.9754
2.8688 4.9388 -1.7567 0.9764
2.3321 4.9934 -1.6951 0.9772
1.8607 5.1352 -1.6800 0.9774
0.9241 5.4148 -1.6896 0.9773
-0.5812 5.8587 -1.8109 0.9757
-1.1472 6.0241 -1.8862 0.9747
-3.0991 6.3172 -2.1642 0.9710
-3.6006 5.9341 -2.1349 0.9714
-4.0577 5.5108 -2.1049 0.9718
-4.4677 5.0531 -2.0746 0.9722
-5.1400 4.0573 -2.0141 0.9730
-5.4008 3.5300 -1.9845 0.9734
-5.6111 2.9901 -1.9556 0.9737
-5.7715 2.4422 -1.9276 0.9741
-6.3391 2.0376 -2.0480 0.9725
-6.4264 0.8559 -1.9941 0.9732
-6.3969 0.2759 -1.9694 0.9736
-6.2016 -0.8455 -1.9251 0.9741
-6.0400 -1.3811 -1.9057 0.9744
-5.5993 -2.3898 -1.8725 0.9748
-5.0168 -3.3012 -1.8472 0.9752
-3.9146 -4.4553 -1.8242 0.9755
-3.0522 -5.0655 -1.8190 0.9756
-1.0968 -5.8583 -1.8332 0.9754
0.5016 -6.0430 -1.8651 0.9749
2.1388 -5.8461 -1.9147 0.9743
3.7348 -5.2467 -1.9809 0.9734
6.0355 -3.3417 -2.1219 0.9715
6.3838 -2.8231 -2.1470 0.9712
6.8779 -0.4074 -2.1192 0.9716
6.9834 0.2105 -2.1489 0.9712
7.0301 0.8437 -2.1778 0.9708
7.0152 1.4860 -2.2056 0.9704
6.9364 2.1308 -2.2319 0.9701
6.7924 2.7709 -2.2563 0.9698
6.0627 3.8514 -2.2092 0.9704
5.3131 4.0832 -2.0610 0.9723
4.0562 4.4696 -1.8565 0.9751
3.0506 4.8837 -1.7711 0.9762
2.5042 4.9415 -1.7039 0.9771
2.0293 5.0846 -1.6839 0.9773
1.5617 5.2248 -1.6773 0.9774
0.0604 2.6768 -0.8235 0.9889
-0.9383 5.9632 -1.8567 0.9751
-2.9084 6.4440 -2.1746 0.9708
-3.4252 6.0768 -2.1455 0.9712
-3.8986 5.6673 -2.1158 0.9716
-4.3258 5.2213 -2.0855 0.9720
-4.7047 4.7446 -2.0552 0.9724
-5.0339 4.2428 -2.0249 0.9728
-5.3128 3.7213 -1.9951 0.9732
-2.7828 1.2844 -0.9427 0.9873
-6.4253 1.0667 -2.0033 0.9731
-6.3537 -0.0895 -1.9545 0.9738
-6.1028 -1.1907 -1.9125 0.9743
-5.9154 -1.7137 -1.8942 0.9746
-5.6895 -2.2152 -1.8779 0.9748
-5.1312 -3.1452 -1.8511 0.9751
-4.8031 -3.5701 -1.8407 0.9753
-4.4452 -3.9660 -1.8323 0.9754
-4.0596 -4.3316 -1.8260 0.9755
-3.2139 -4.9658 -1.8193 0.9755
-2.7578 -5.2319 -1.8191 0.9756
-2.2825 -5.4624 -1.8209 0.9755
-1.2826 -5.8118 -1.8306 0.9754
-0.2319 -6.0051 -1.8484 0.9752
0.3065 -6.0405 -1.8603 0.9750
1.3968 -5.9842 -1.8901 0.9746
3.0223 -5.5692 -1.9489 0.9738
5.0298 -4.3794 -2.0513 0.9725
5.4771 -3.9691 -2.0805 0.9721
5.8939 -3.5153 -2.1108 0.9717
6.2675 -3.0158 -2.1393 0.9713
2.3899 -0.8973 -0.7852 0.9894
6.4166 -1.7750 -2.0477 0.9725
6.6464 -1.2134 -2.0781 0.9721
7.0203 0.6146 -2.1675 0.9709
7.0279 1.2544 -2.1958 0.9706
6.9722 1.8991 -2.2226 0.9702
4.2642 4.4058 -1.8859 0.9747
3.7005 4.5783 -1.8107 0.9757
2.7288 4.9812 -1.7469 0.9765
2.1989 5.0336 -1.6895 0.9773
1.7295 5.1745 -1.6781 0.9774
0.8584 3.6130 -1.1422 0.9846
0.7907 5.4544 -1.6952 0.9772
0.3063 5.5978 -1.7243 0.9768
-0.0880 2.5397 -0.7816 0.9894
-0.7355 5.9039 -1.8300 0.9754
-1.9535 6.2586 -2.0166 0.9729
-3.2441 6.2140 -2.1561 0.9711
-4.1776 5.3856 -2.0964 0.9719
-4.5741 4.9193 -2.0661 0.9723
-5.2183 3.9108 -2.0058 0.9731
-2.7710 1.3886 -0.9533 0.9871
-6.2462 2.4604 -2.0649 0.9723
-6.3635 1.8709 -2.0401 0.9726
-6.4229 0.6921 -1.9870 0.9733
-6.3803 0.1151 -1.9628 0.9736
-6.2921 -0.4492 -1.9402 0.9739
-5.9873 -1.5280 -1.9006 0.9745
-5.7750 -2.0374 -1.8836 0.9747
-4.9247 -3.4205 -1.8442 0.9752
-4.5772 -3.8270 -1.8351 0.9753
-4.2014 -4.2037 -1.8280 0.9754
-2.9242 -5.1402 -1.8189 0.9756
-2.4555 -5.3836 -1.8200 0.9755
-1.9690 -5.5907 -1.8231 0.9755
-1.4667 -5.7602 -1.8282 0.9754
-0.4237 -5.9822 -1.8446 0.9752
0.1121 -6.0326 -1.8558 0.9751
0.6543 -6.0412 -1.8690 0.9749
1.2001 -6.0070 -1.8842 0.9747
1.7467 -5.9294 -1.9012 0.9745
4.3806 -4.8657 -2.0137 0.9730
4.8623 -4.5161 -2.0411 0.9726
5.3195 -4.1217 -2.0698 0.9722
5.7478 -3.6834 -2.0998 0.9718
-4.0140 4.7761 -2.0738 0.9740
-4.3644 4.3399 -2.0459 0.9744
-4.9292 3.4011 -1.9907 0.9751
-5.1423 2.9080 -1.9637 0.9754
-2.7999 1.2684 -1.0218 0.9871
-5.9347 1.4950 -2.0344 0.9745
-5.9706 0.9480 -2.0095 0.9748
-5.9609 0.4070 -1.9860 0.9751
-5.8117 -0.6444 -1.9437 0.9757
-5.6760 -1.1490 -1.9250 0.9759
-5.2915 -2.1033 -1.8928 0.9763
-5.0469 -2.5487 -1.8794 0.9764
-4.7700 -2.9702 -1.8678 0.9766
-4.4629 -3.3663 -1.8582 0.9767
-3.7660 -4.0754 -1.8445 0.9769
-3.3803 -4.3857 -1.8406 0.9769
-2.9724 -4.6645 -1.8386 0.9770
-2.5445 -4.9108 -1.8385 0.9770
-2.0985 -5.1233 -1.8403 0.9769
-1.6366 -5.3009 -1.8441 0.9769
-0.1772 -5.6136 -1.8669 0.9766
0.3262 -5.6412 -1.8783 0.9765
0.8338 -5.6291 -1.8915 0.9763
1.3431 -5.5763 -1.9066 0.9761
3.3384 -4.9479 -1.9841 0.9752
4.2653 -4.3797 -2.0322 0.9746
4.6983 -4.0329 -2.0582 0.9742
5.1058 -3.6453 -2.0854 0.9739
5.8141 -2.7473 -2.1375 0.9733
5.6920 -2.0915 -2.0157 0.9748
6.2926 -0.5313 -2.0991 0.9737
6.3971 0.0325 -2.1264 0.9734
6.4484 0.6104 -2.1531 0.9731
6.3819 1.7867 -2.2029 0.9725
6.0804 2.9490 -2.2463 0.9719
4.2123 4.4141 -2.0282 0.9746
3.6531 4.5854 -1.9488 0.9756
2.1590 5.0387 -1.8222 0.9772
0.8112 3.5248 -1.2023 0.9849
0.7521 5.4589 -1.8317 0.9770
-0.1109 2.6591 -0.8847 0.9888
-0.7785 5.9090 -1.9812 0.9752
-1.3612 6.0787 -2.0706 0.9741
-3.8772 4.9261 -2.0838 0.9739
-4.2435 4.4998 -2.0560 0.9743
-4.5652 4.0478 -2.0281 0.9746
-4.8412 3.5752 -2.0005 0.9750
-5.0710 3.0867 -1.9733 0.9753
-2.7655 1.3615 -1.0246 0.9871
-5.9105 1.6925 -2.0436 0.9744
-5.8509 -0.4591 -1.9508 0.9756
-5.7293 -0.9694 -1.9315 0.9758
-4.8732 -2.8215 -1.8718 0.9765
-3.8989 -3.9565 -1.8464 0.9769
-3.1216 -4.5679 -1.8391 0.9769
-2.7006 -4.8261 -1.8383 0.9770
-2.2608 -5.0509 -1.8395 0.9769
-1.8044 -5.2411 -1.8425 0.9769
-1.3334 -5.3958 -1.8475 0.9768
0.1445 -5.6359 -1.8740 0.9765
1.1599 -5.6000 -1.9010 0.9762
1.6688 -5.5209 -1.9172 0.9760
2.1747 -5.4002 -1.9351 0.9758
2.6745 -5.2373 -1.9548 0.9755
3.1650 -5.0321 -1.9760 0.9753
3.6427 -4.7844 -1.9988 0.9750
5.3514 -3.3764 -2.1033 0.9737
2.3450 -0.9482 -0.8408 0.9894
5.8533 -1.7783 -2.0335 0.9745
6.2426 -0.7296 -2.0892 0.9739
6.3654 -0.1722 -2.1167 0.9735
6.3112 2.1629 -2.2177 0.9723
6.1521 2.7434 -2.2391 0.9720
5.9338 3.3095 -2.2585 0.9718
5.6571 3.8542 -2.2754 0.9716
4.4253 4.3486 -2.0624 0.9742
2.3293 4.9874 -1.8297 0.9771
1.8585 5.1290 -1.8134 0.9773
0.4434 5.5503 -1.8508 0.9768
-0.0242 2.5316 -0.8415 0.9894
-0.5804 5.8511 -1.9545 0.9755
-1.7647 6.1957 -2.1414 0.9732
-4.1169 4.6563 -2.0660 0.9741
-4.4548 4.2130 -2.0381 0.9745
-4.7473 3.7472 -2.0104 0.9748
-4.9937 3.2639 -1.9830 0.9752
-5.3480 2.2630 -1.9303 0.9758
-5.4464 -1.7693 -1.9035 0.9762
-5.2262 -2.2306 -1.8888 0.9763
-4.9723 -2.6695 -1.8760 0.9765
-4.6868 -3.0841 -1.8649 0.9766
-3.6601 -4.1656 -1.8432 0.9769
-3.2680 -4.4672 -1.8398 0.9769
-1.5043 -5.3443 -1.8455 0.9769
-1.0252 -5.4756 -1.8518 0.9768
-0.0365 -5.6254 -1.8699 0.9766
0.4683 -5.6419 -1.8818 0.9764
0.9767 -5.6184 -1.8956 0.9762
2.4956 -5.3008 -1.9475 0.9756
2.9899 -5.1108 -1.9682 0.9754
5.2150 -3.5294 -2.0932 0.9738
5.5838 -3.0917 -2.1216 0.9735
5.7648 -1.9557 -2.0235 0.9747
5.9976 -1.4535 -2.0513 0.9743
6.3271 -0.3748 -2.1069 0.9736
6.4324 1.3625 -2.1856 0.9727
6.3539 1.9519 -2.2095 0.9724
6.2162 2.5359 -2.2316 0.9721
5.7632 3.6611 -2.2696 0.9716
5.3053 4.0772 -2.2241 0.9722
4.6457 4.2808 -2.0999 0.9737
3.5034 4.6311 -1.9303 0.9758
2.5011 4.9355 -1.8392 0.9769
2.0269 5.0784 -1.8176 0.9772
0.7471 3.6638 -1.2429 0.9844
0.6176 5.4988 -1.8393 0.9769
-0.9370 5.9552 -2.0039 0.9749
-1.5348 6.1290 -2.1002 0.9737
-3.9844 4.8093 -2.0760 0.9740
-4.3384 4.3753 -2.0481 0.9744
-4.6473 3.9170 -2.0203 0.9747
-4.9104 3.4395 -1.9928 0.9750
-5.1272 2.9474 -1.9658 0.9754
-5.8295 2.0826 -2.0577 0.9742
-5.9299 1.5383 -2.0364 0.9745
-5.6881 -1.1098 -1.9264 0.9759
-4.7930 -2.9379 -1.8687 0.9766
-4.4882 -3.3360 -1.8589 0.9767
-3.0054 -4.6437 -1.8387 0.9770
-2.5790 -4.8926 -1.8384 0.9770
-2.1343 -5.1078 -1.8401 0.9769
-1.6736 -5.2882 -1.8437 0.9769
-1.1989 -5.4327 -1.8493 0.9768
0.2862 -5.6405 -1.8773 0.9765
0.7936 -5.6315 -1.8904 0.9763
1.3029 -5.5820 -1.9053 0.9761
2.8133 -5.1840 -1.9606 0.9754
3.7740 -4.7072 -2.0055 0.9749
4.2301 -4.4054 -2.0302 0.9746
5.0746 -3.6774 -2.0832 0.9739
5.7904 -2.7863 -2.1360 0.9733
2.3929 -0.8985 -0.8496 0.9893
6.1237 -1.1180 -2.0692 0.9741
6.3907 -0.0126 -2.1243 0.9734
6.4463 0.5643 -2.1510 0.9731
6.3889 1.7402 -2.2011 0.9725
5.8619 3.4648 -2.2635 0.9717
4.8744 4.2103 -2.1410 0.9732
4.2585 4.3999 -2.0354 0.9745
3.6957 4.5724 -1.9543 0.9755
3.1908 4.7608 -1.9051 0.9761
2.1962 5.0275 -1.8237 0.9771
1.7274 5.1683 -1.8114 0.9773
0.8376 3.5253 -1.2045 0.9848
0.7897 5.4478 -1.8298 0.9771
-0.0880 2.5399 -0.8448 0.9893
-0.7346 5.8962 -1.9751 0.9753
-1.3132 6.0647 -2.0627 0.9742
-1.9506 6.2495 -2.1762 0.9728
-2.2743 5.5039 -1.9796 0.9752
-2.9802 5.7084 -2.1405 0.9732
-4.5415 4.0843 -2.0303 0.9746
-4.8211 3.6131 -2.0027 0.9749
-2.7765 1.3914 -1.0323 0.9870
-5.3831 2.1204 -1.9232 0.9759
-5.9605 1.1874 -2.0202 0.9747
-5.9706 0.6433 -1.9962 0.9750
-5.8587 -0.4182 -1.9524 0.9755
-5.7403 -0.9297 -1.9330 0.9758
-4.8953 -2.7884 -1.8727 0.9765
-4.6012 -3.1958 -1.8622 0.9767
-2.7345 -4.8069 -1.8383 0.9770
-2.2962 -5.0344 -1.8393 0.9769
-1.8410 -5.2274 -1.8422 0.9769
-0.3959 -5.5892 -1.8625 0.9767
0.1047 -5.6340 -1.8731 0.9765
0.6108 -5.6394 -1.8855 0.9764
3.1267 -5.0498 -1.9743 0.9753
3.6055 -4.8055 -1.9970 0.9750
5.3218 -3.4104 -2.1011 0.9737
-3.3483 4.7946 -2.0913 0.9755
-4.0451 4.0224 -2.0400 0.9761
-4.3324 3.5996 -2.0143 0.9764
-4.5776 3.1585 -1.9888 0.9767
-4.7801 2.7032 -1.9638 0.9769
-2.7985 1.2678 -1.0987 0.9870
-5.5651 0.3800 -1.9948 0.9766
-5.5192 -0.1166 -1.9741 0.9768
-5.1500 -1.5314 -1.9214 0.9774
-4.9557 -1.9698 -1.9070 0.9776
-4.7287 -2.3880 -1.8944 0.9777
-3.5327 -3.8230 -1.8614 0.9781
-3.1713 -4.1145 -1.8577 0.9782
-2.3873 -4.6075 -1.8557 0.9782
-1.9688 -4.8066 -1.8575 0.9782
-0.6316 -5.2012 -1.8736 0.9780
-0.1660 -5.2619 -1.8826 0.9779
0.3056 -5.2857 -1.8934 0.9778
2.6649 -4.8291 -1.9724 0.9768
3.1170 -4.6197 -1.9929 0.9766
3.5552 -4.3708 -2.0148 0.9764
5.2812 -1.9406 -2.0121 0.9764
5.5026 -1.4805 -2.0378 0.9761
5.6837 -0.9963 -2.0635 0.9758
5.8211 -0.4915 -2.0891 0.9755
5.9443 1.1043 -2.1621 0.9746
5.8819 1.6467 -2.1843 0.9744
5.7657 2.1852 -2.2050 0.9741
5.3715 3.2262 -2.2407 0.9737
5.0953 3.7165 -2.2553 0.9736
4.2066 4.4081 -2.1790 0.9744
0.7924 3.4430 -1.2634 0.9851
0.7512 5.4522 -1.9682 0.9769
0.2666 5.5953 -2.0032 0.9765
-0.1057 2.5336 -0.9068 0.9893
-0.7775 5.9011 -2.1285 0.9750
-2.7874 5.2486 -2.1252 0.9751
-3.2065 4.9209 -2.1004 0.9754
-3.9317 4.1691 -2.0493 0.9760
-4.2339 3.7540 -2.0235 0.9762
-2.7690 1.3633 -1.1037 0.9870
-5.0202 1.9367 -1.9242 0.9774
-5.5611 1.0671 -2.0250 0.9762
-5.5404 0.0609 -1.9814 0.9767
-5.4689 -0.4292 -1.9617 0.9770
-5.3587 -0.9067 -1.9435 0.9772
-5.2116 -1.3692 -1.9270 0.9774
-4.5671 -2.6442 -1.8872 0.9778
-3.9867 -3.3814 -1.8694 0.9780
-3.6571 -3.7111 -1.8632 0.9781
-3.3038 -4.0130 -1.8588 0.9782
-2.5338 -4.5280 -1.8555 0.9782
-1.6927 -4.9167 -1.8595 0.9782
-0.7971 -5.1705 -1.8708 0.9780
-0.3343 -5.2442 -1.8792 0.9779
1.0860 -5.2431 -1.9148 0.9775
3.3994 -4.4648 -2.0068 0.9764
5.6234 -1.1730 -2.0543 0.9759
5.7769 -0.6752 -2.0799 0.9756
5.8848 -0.1592 -2.1052 0.9753
5.9446 0.3706 -2.1299 0.9750
5.9537 0.9093 -2.1538 0.9747
5.9105 1.4518 -2.1765 0.9745
5.6629 2.5252 -2.2173 0.9740
4.8919 4.0158 -2.2633 0.9735
3.2153 4.5466 -1.9914 0.9766
2.3264 4.9812 -1.9660 0.9769
1.8562 5.1228 -1.9485 0.9771
0.9218 5.4016 -1.9596 0.9770
0.4429 5.5434 -1.9887 0.9767
-0.0243 2.5384 -0.9078 0.9893
-0.5797 5.8434 -2.0999 0.9754
-1.6700 5.8632 -2.1801 0.9744
-3.0599 5.0429 -2.1094 0.9753
-3.4556 4.6931 -2.0842 0.9755
-4.1300 3.9058 -2.0328 0.9761
-4.4055 3.4775 -2.0071 0.9764
-4.9773 2.1062 -1.9327 0.9773
-5.0831 1.6339 -1.9094 0.9776
-5.5727 0.7422 -2.0104 0.9764
-5.5563 0.2396 -1.9888 0.9767
-5.4991 -0.2542 -1.9686 0.9769
-5.4027 -0.7366 -1.9499 0.9771
-5.0989 -1.6564 -1.9172 0.9775
-4.8951 -2.0893 -1.9033 0.9776
-4.6594 -2.5014 -1.8912 0.9778
-4.3934 -2.8910 -1.8807 0.9779
-3.4335 -3.9077 -1.8602 0.9781
-3.0660 -4.1911 -1.8570 0.9782
-2.2715 -4.6667 -1.8560 0.9782
-1.4111 -5.0131 -1.8624 0.9781
-0.5017 -5.2219 -1.8760 0.9780
0.4387 -5.2857 -1.8967 0.9777
0.9146 -5.2613 -1.9097 0.9776
2.3329 -4.9552 -1.9586 0.9770
2.7930 -4.7743 -1.9780 0.9768
3.2415 -4.5538 -1.9989 0.9765
4.0905 -3.9948 -2.0446 0.9760
5.1895 -2.8734 -2.1213 0.9751
5.0989 -2.2548 -1.9937 0.9766
5.7268 -0.8565 -2.0707 0.9757
5.8514 -0.3466 -2.0962 0.9754
5.7234 2.3348 -2.2105 0.9741
5.2992 3.3664 -2.2451 0.9737
5.0086 3.8492 -2.2590 0.9735
4.6391 4.2748 -2.2559 0.9736
4.0454 4.4576 -2.1526 0.9748
2.9521 4.7260 -1.9927 0.9766
2.4981 4.9294 -1.9762 0.9768
2.0244 5.0722 -1.9530 0.9771
1.5579 5.2121 -1.9454 0.9772
0.7402 3.6300 -1.3248 0.9844
0.6168 5.4920 -1.9763 0.9768
-0.1816 2.7159 -0.9734 0.9885
-0.9357 5.9472 -2.1529 0.9747
-1.4861 5.9348 -2.1878 0.9743
-2.4647 5.4610 -2.1426 0.9749
-3.3176 4.8227 -2.0933 0.9754
-3.6889 4.4527 -2.0678 0.9757
-4.0207 4.0548 -2.0420 0.9760
-2.7826 1.2843 -1.0960 0.9871
-5.5246 1.4332 -2.0410 0.9760
-5.4418 -0.5646 -1.9565 0.9770
-5.3210 -1.0381 -1.9387 0.9772
-5.1639 -1.4960 -1.9226 0.9774
-4.9722 -1.9359 -1.9081 0.9776
-4.7477 -2.3557 -1.8953 0.9777
-3.8967 -3.4767 -1.8675 0.9781
-3.5602 -3.7987 -1.8618 0.9781
-3.2006 -4.0925 -1.8579 0.9782
-2.8198 -4.3569 -1.8559 0.9782
-2.4197 -4.5904 -1.8557 0.9782
-2.0024 -4.7921 -1.8573 0.9782
-1.1244 -5.0953 -1.8659 0.9781
0.2682 -5.2852 -1.8925 0.9778
1.2197 -5.2255 -1.9189 0.9775
1.6946 -5.1376 -1.9346 0.9773
2.6287 -4.8439 -1.9709 0.9769
3.5212 -4.3918 -2.0130 0.9764
4.3451 -3.7833 -2.0603 0.9758
5.3751 -2.5864 -2.1331 0.9750
2.3960 -0.8996 -0.9152 0.9892
5.4866 -1.5178 -2.0357 0.9761
5.8119 -0.5320 -2.0871 0.9755
5.9066 -0.0117 -2.1122 0.9752
5.9523 0.5211 -2.1367 0.9749
5.9469 1.0614 -2.1603 0.9747
5.8888 1.6040 -2.1826 0.9744
5.7769 2.1430 -2.2034 0.9742
5.6108 2.6726 -2.2225 0.9739
0.3055 5.5839 -1.9998 0.9765
-0.7336 5.8883 -2.1220 0.9751
-1.8113 5.8030 -2.1739 0.9745
-2.2634 5.4775 -2.1194 0.9751
-3.1747 4.9481 -2.1024 0.9753
-3.5598 4.5892 -2.0770 0.9756
-4.2116 3.7876 -2.0256 0.9762
-4.6965 2.9044 -1.9747 0.9768
-2.7850 1.3956 -1.1140 0.9869
-5.5584 1.1073 -2.0268 0.9762
-5.4759 -0.3909 -1.9632 0.9769
-5.3687 -0.8695 -1.9449 0.9772
-5.2245 -1.3333 -1.9282 0.9774
-5.0450 -1.7799 -1.9131 0.9775
-4.8321 -2.2072 -1.8997 0.9777
-3.3325 -3.9902 -1.8591 0.9782
-2.1543 -4.7233 -1.8565 0.9782
-1.2860 -5.0508 -1.8638 0.9781
-0.8333 -5.1631 -1.8703 0.9780
1.9967 -5.0608 -1.9455 0.9772
2.4631 -4.9084 -1.9639 0.9769
3.3649 -4.4848 -2.0050 0.9765
3.7938 -4.2138 -2.0276 0.9762
4.2032 -3.9040 -2.0515 0.9759
4.5897 -3.5563 -2.0764 0.9756
4.9495 -3.1718 -2.1022 0.9753
-3.1111 4.4550 -2.0823 0.9770
-4.2682 2.9450 -1.9872 0.9780
-2.7970 1.2671 -1.1767 0.9869
-5.1666 1.3015 -2.0418 0.9774
-5.2141 0.8279 -2.0232 0.9776
-5.2134 0.3559 -2.0025 0.9779
-5.1737 -0.1093 -1.9831 0.9781
-5.0966 -0.5651 -1.9651 0.9783
-4.6554 -1.8504 -1.9198 0.9788
-3.6411 -3.2950 -1.8819 0.9792
-2.6241 -4.1179 -1.8712 0.9793
-2.2463 -4.3354 -1.8712 0.9793
-1.8524 -4.5225 -1.8728 0.9793
-1.4443 -4.6781 -1.8762 0.9792
-0.5940 -4.8912 -1.8882 0.9791
0.7336 -4.9527 -1.9187 0.9788
1.1806 -4.9016 -1.9321 0.9786
1.6255 -4.8138 -1.9471 0.9785
2.0657 -4.6890 -1.9636 0.9783
2.4982 -4.5271 -1.9815 0.9781
2.9202 -4.3279 -2.0008 0.9779
4.0905 -3.5112 -2.0658 0.9772
4.4377 -3.1683 -2.0896 0.9769
5.0299 -2.3768 -2.1319 0.9765
5.1222 -1.3782 -2.0327 0.9775
5.4092 -0.4567 -2.0803 0.9770
5.5233 0.5228 -2.1261 0.9765
5.1759 2.5103 -2.2045 0.9757
4.9659 2.9827 -2.2199 0.9755
4.7083 3.4342 -2.2333 0.9753
2.6300 4.8823 -2.1252 0.9765
0.7502 5.4454 -2.1065 0.9767
0.2662 5.5882 -2.1439 0.9763
-0.1051 2.5196 -0.9664 0.9893
-0.7482 5.6790 -2.1951 0.9758
-1.2412 5.5430 -2.1768 0.9760
-2.5870 4.8713 -2.1137 0.9766
-2.9785 4.5710 -2.0907 0.9769
-3.3363 4.2390 -2.0672 0.9772
-3.6584 3.8793 -2.0434 0.9774
-4.1892 3.0937 -1.9957 0.9779
-4.3961 2.6759 -1.9722 0.9782
-4.7798 1.3687 -1.9053 0.9789
-5.2182 0.5251 -2.0098 0.9778
-5.1924 0.0570 -1.9899 0.9780
-4.8927 -1.2854 -1.9386 0.9786
-4.7239 -1.7041 -1.9245 0.9787
-4.0345 -2.8446 -1.8918 0.9791
-3.7496 -3.1803 -1.8842 0.9792
-3.4403 -3.4911 -1.8783 0.9792
-3.1084 -3.7756 -1.8741 0.9793
-2.7557 -4.0325 -1.8717 0.9793
-2.3842 -4.2606 -1.8710 0.9793
-1.5926 -4.6258 -1.8748 0.9793
-0.3144 -4.9308 -1.8934 0.9791
0.1273 -4.9642 -1.9030 0.9790
0.5729 -4.9622 -1.9142 0.9788
1.0199 -4.9242 -1.9271 0.9787
1.9081 -4.7382 -1.9575 0.9784
2.7698 -4.4038 -1.9937 0.9780
3.5810 -3.9216 -2.0351 0.9775
3.9596 -3.6260 -2.0575 0.9773
4.3158 -3.2955 -2.0809 0.9770
5.0539 -1.5354 -2.0241 0.9776
5.5204 0.8431 -2.1400 0.9764
5.4761 1.3451 -2.1609 0.9761
5.2395 2.3364 -2.1984 0.9757
4.8063 3.2745 -2.2287 0.9754
4.1879 4.1154 -2.2501 0.9752
3.8160 4.4863 -2.2570 0.9751
3.1065 4.3928 -2.0618 0.9772
2.3235 4.9750 -2.1042 0.9768
0.4423 5.5364 -2.1284 0.9765
-0.0254 2.6507 -1.0158 0.9887
-0.5670 5.7161 -2.2013 0.9757
-1.0659 5.5974 -2.1836 0.9759
-1.5471 5.4316 -2.1643 0.9761
-2.4385 4.9708 -2.1218 0.9766
-2.8414 4.6829 -2.0991 0.9768
-3.2116 4.3618 -2.0757 0.9771
-4.5078 2.4021 -1.9574 0.9784
-2.8684 1.2138 -1.1936 0.9867
-5.1865 1.1691 -2.0374 0.9775
-5.2179 0.6949 -2.0172 0.9777
-5.2061 0.2245 -1.9969 0.9779
-5.1558 -0.2384 -1.9779 0.9781
-5.0684 -0.6910 -1.9603 0.9783
-4.5991 -1.9629 -1.9163 0.9788
-4.3792 -2.3511 -1.9048 0.9789
-4.1306 -2.7181 -1.8949 0.9790
-3.5543 -3.3823 -1.8802 0.9792
-2.8848 -3.9434 -1.8724 0.9793
-2.5198 -4.1820 -1.8710 0.9793
-1.7392 -4.5694 -1.8736 0.9793
-1.3275 -4.7160 -1.8775 0.9792
-0.9043 -4.8299 -1.8831 0.9792
0.4123 -4.9671 -1.9100 0.9789
1.3058 -4.8807 -1.9362 0.9786
1.7497 -4.7825 -1.9516 0.9784
2.1880 -4.6473 -1.9685 0.9782
2.6179 -4.4749 -1.9868 0.9780
3.0363 -4.2654 -2.0064 0.9778
3.4400 -4.0191 -2.0273 0.9776
3.8259 -3.7364 -2.0494 0.9774
4.1905 -3.4184 -2.0724 0.9771
4.8391 -2.6794 -2.1197 0.9766
4.7535 -2.1021 -1.9918 0.9780
5.1722 -1.2535 -2.0394 0.9775
5.3249 -0.7964 -2.0633 0.9772
5.4361 -0.3220 -2.0869 0.9769
5.5244 0.6630 -2.1322 0.9764
5.4219 1.6656 -2.1736 0.9760
5.2967 2.1608 -2.1922 0.9758
4.8984 3.1117 -2.2239 0.9754
3.9542 4.3572 -2.2548 0.9751
3.2825 4.3390 -2.0850 0.9770
0.7418 3.6378 -1.4228 0.9842
0.6160 5.4851 -2.1152 0.9766
0.0606 2.6896 -1.0310 0.9885
-0.1807 2.7022 -1.0379 0.9885
-0.8883 5.6456 -2.1901 0.9758
-2.2862 5.0655 -2.1297 0.9765
-3.4304 4.1406 -2.0606 0.9772
-4.2513 2.9778 -1.9891 0.9780
-4.4471 2.5564 -1.9657 0.9783
-4.7200 1.6862 -1.9208 0.9788
-5.1604 1.3387 -2.0430 0.9774
-4.8486 -1.4047 -1.9345 0.9786
-4.2232 -2.5886 -1.8982 0.9790
-3.9571 -2.9413 -1.8895 0.9791
-2.2768 -4.3193 -1.8711 0.9793
-0.1909 -4.9437 -1.8959 0.9790
2.0312 -4.7002 -1.9622 0.9783
2.8873 -4.3450 -1.9992 0.9779
3.2967 -4.1119 -2.0197 0.9777
3.6894 -3.8422 -2.0413 0.9774
4.4112 -3.1966 -2.0877 0.9769
4.7335 -2.8232 -2.1121 0.9767
2.4022 -0.9020 -0.9833 0.9891
5.1076 -1.4129 -2.0308 0.9776
5.4011 -0.4944 -2.0784 0.9770
5.4844 -0.0109 -2.1017 0.9768
5.5129 0.9840 -2.1460 0.9763
5.1904 2.4723 -2.2032 0.9757
4.9843 2.9461 -2.2188 0.9755
4.7303 3.3994 -2.2323 0.9754
4.4305 3.8269 -2.2435 0.9752
4.0875 4.2232 -2.2523 0.9751
3.6609 4.5293 -2.2318 0.9754
2.9718 4.4339 -2.0455 0.9774
0.8581 3.6118 -1.4226 0.9842
0.7878 5.4343 -2.1043 0.9768
-0.0872 2.5173 -0.9652 0.9893
-1.2030 5.5555 -2.1783 0.9759
-2.1302 5.1552 -2.1376 0.9764
-2.9487 4.5959 -2.0926 0.9769
-3.9220 3.5272 -2.0214 0.9777
-4.1712 3.1261 -1.9976 0.9779
-4.3812 2.7094 -1.9741 0.9782
-2.7937 1.4000 -1.1975 0.9867
-4.6825 1.8445 -1.9286 0.9787
-5.2186 0.5623 -2.0114 0.9778
-4.5404 -2.0739 -1.9129 0.9788
-4.3123 -2.4563 -1.9018 0.9790
-3.1353 -3.7541 -1.8744 0.9793
-2.7842 -4.0133 -1.8718 0.9793
-2.0270 -4.4442 -1.8719 0.9793
-0.7837 -4.8559 -1.8850 0.9792
-0.3490 -4.9267 -1.8927 0.9791
0.0922 -4.9629 -1.9022 0.9790
0.9846 -4.9285 -1.9260 0.9787
1.4308 -4.8569 -1.9403 0.9785
1.8734 -4.7483 -1.9562 0.9784
2.3096 -4.6027 -1.9735 0.9782
2.7366 -4.4199 -1.9921 0.9780
3.5503 -3.9433 -2.0334 0.9775
4.6209 -2.9612 -2.1032 0.9768
-2.9020 4.1556 -2.0744 0.9783
-3.5175 3.4977 -2.0302 0.9788
-3.7735 3.1353 -2.0079 0.9790
-3.9936 2.7555 -1.9858 0.9792
-4.1770 2.3621 -1.9640 0.9795
-2.7531 1.2473 -1.2370 0.9870
-4.8425 1.2199 -2.0438 0.9786
-4.6899 -0.9494 -1.9584 0.9795
-4.3850 -1.7430 -1.9313 0.9798
-4.1874 -2.1146 -1.9199 0.9799
-3.9618 -2.4670 -1.9101 0.9800
-3.1345 -3.3921 -1.8903 0.9802
-2.4754 -3.8845 -1.8852 0.9803
-1.7473 -4.2659 -1.8867 0.9803
-1.3622 -4.4122 -1.8899 0.9802
-0.5600 -4.6116 -1.9013 0.9801
0.6910 -4.6653 -1.9302 0.9798
1.1116 -4.6153 -1.9429 0.9797
1.5299 -4.5305 -1.9571 0.9795
1.9432 -4.4109 -1.9727 0.9794
2.3488 -4.2562 -1.9896 0.9792
3.4906 -3.5842 -2.0476 0.9786
3.8360 -3.2927 -2.0690 0.9784
4.4542 -2.6142 -2.1138 0.9779
4.6006 -1.6905 -2.0060 0.9790
4.7856 -1.2876 -2.0283 0.9788
5.0460 -0.4260 -2.0726 0.9784
5.1166 0.0260 -2.0941 0.9781
5.0679 1.4188 -2.1539 0.9775
4.9613 1.8804 -2.1715 0.9773
4.0875 3.5812 -2.2242 0.9768
3.7651 3.9455 -2.2321 0.9767
2.9304 4.4396 -2.1771 0.9773
2.5663 4.7640 -2.2147 0.9769
0.8133 3.5336 -1.4840 0.9845
0.7399 5.3706 -2.2188 0.9768
0.2567 5.3875 -2.2075 0.9770
-1.5958 4.9886 -2.1436 0.9776
-2.7775 4.2626 -2.0823 0.9783
-3.1136 3.9560 -2.0604 0.9785
-3.4168 3.6231 -2.0382 0.9787
-3.6855 3.2678 -2.0159 0.9789
-3.9186 2.8939 -1.9937 0.9792
-4.1152 2.5050 -1.9718 0.9794
-2.7242 1.3412 -1.2427 0.9870
-4.8822 0.9369 -2.0346 0.9787
-1.9577 0.1970 -0.8053 0.9915
-1.9091 0.0210 -0.7814 0.9918
-4.4490 -1.6050 -1.9357 0.9798
-4.2618 -1.9831 -1.9238 0.9799
-3.2446 -3.2925 -1.8919 0.9802
-2.9319 -3.5613 -1.8879 0.9803
-2.5994 -3.8039 -1.8856 0.9803
-2.2490 -4.0191 -1.8850 0.9803
-1.1095 -4.4898 -1.8928 0.9802
-0.7069 -4.5851 -1.8987 0.9801
-0.2963 -4.6482 -1.9063 0.9801
1.7953 -4.4580 -1.9669 0.9794
2.2039 -4.3159 -1.9834 0.9793
2.6032 -4.1389 -2.0011 0.9791
2.9900 -3.9271 -2.0201 0.9789
3.7142 -3.4013 -2.0612 0.9785
4.6183 -2.3666 -2.1239 0.9778
4.8855 -1.0191 -2.0425 0.9787
5.0960 -0.1378 -2.0864 0.9782
5.1396 0.3204 -2.1076 0.9780
5.1398 0.7850 -2.1280 0.9778
5.0951 1.2515 -2.1473 0.9776
5.0050 1.7152 -2.1654 0.9774
4.8691 2.1712 -2.1819 0.9772
4.6878 2.6145 -2.1968 0.9771
4.1940 3.4429 -2.2208 0.9768
3.8854 3.8181 -2.2295 0.9767
3.5087 4.1251 -2.2164 0.9769
3.1024 4.3870 -2.1991 0.9770
2.3162 4.9595 -2.2402 0.9766
1.8398 5.0777 -2.2104 0.9769
0.9524 3.6044 -1.5258 0.9840
0.9135 5.3526 -2.2224 0.9768
0.4304 5.3870 -2.2118 0.9769
-1.4393 5.0531 -2.1504 0.9775
-2.2718 4.6308 -2.1110 0.9780
-3.3116 3.7456 -2.0462 0.9786
-3.8390 3.0303 -2.0017 0.9791
-4.2218 2.2498 -1.9579 0.9795
-2.7738 1.1738 -1.2327 0.9871
-4.8618 1.0959 -2.0397 0.9787
-1.9498 0.2597 -0.8051 0.9915
-1.9363 0.0835 -0.7932 0.9917
-1.9384 -0.0896 -0.7942 0.9916
-1.9485 -0.2656 -0.8048 0.9915
-4.6548 -1.0644 -1.9542 0.9796
-4.1268 -2.2155 -1.9170 0.9800
-3.8937 -2.5622 -1.9077 0.9801
-1.6405 -4.3100 -1.8874 0.9803
-1.2520 -4.4478 -1.8911 0.9802
-0.4448 -4.6293 -1.9034 0.9801
0.3885 -4.6800 -1.9220 0.9799
1.2294 -4.5950 -1.9468 0.9797
2.0579 -4.3710 -1.9773 0.9793
3.2298 -3.7734 -2.0328 0.9788
3.5896 -3.5057 -2.0536 0.9785
3.9290 -3.2051 -2.0752 0.9783
4.5278 -2.5070 -2.1182 0.9779
4.4470 -1.9666 -1.9901 0.9792
5.0700 -0.3003 -2.0787 0.9783
4.7582 2.4569 -2.1917 0.9771
4.2952 3.3009 -2.2171 0.9769
3.6680 4.0418 -2.2339 0.9767
3.2610 4.3107 -2.2122 0.9769
2.7983 4.4798 -2.1618 0.9774
2.4458 4.8262 -2.2144 0.9769
0.7488 3.6725 -1.5340 0.9839
0.6043 5.3802 -2.2158 0.9769
0.0604 2.6777 -1.0962 0.9885
-0.1706 2.5518 -1.0467 0.9890
-2.1293 4.7178 -2.1184 0.9779
-2.8750 4.1794 -2.0762 0.9783
-3.2021 3.8650 -2.0542 0.9785
-3.4958 3.5255 -2.0320 0.9788
-3.7546 3.1646 -2.0097 0.9790
-3.9775 2.7861 -1.9875 0.9792
-4.4258 1.5812 -1.9235 0.9799
-4.5019 1.1679 -1.9035 0.9801
-2.0866 0.3464 -0.8657 0.9909
-4.5650 -1.3225 -1.9452 0.9797
-3.9806 -2.4399 -1.9108 0.9800
-3.7307 -2.7730 -1.9025 0.9801
-3.1589 -3.3705 -1.8906 0.9802
-1.7772 -4.2530 -1.8865 0.9803
-1.3931 -4.4018 -1.8896 0.9802
-0.9974 -4.5198 -1.8943 0.9802
-0.5924 -4.6061 -1.9007 0.9801
0.2375 -4.6808 -1.9182 0.9799
1.4970 -4.5385 -1.9559 0.9796
2.3171 -4.2697 -1.9882 0.9792
3.4624 -3.6058 -2.0460 0.9786
3.8095 -3.3169 -2.0673 0.9784
4.1340 -2.9958 -2.0895 0.9782
4.4328 -2.6438 -2.1124 0.9779
2.4123 -0.9057 -1.0546 0.9889
4.9245 -0.8991 -2.0488 0.9786
5.0387 -0.4612 -2.0708 0.9784
5.1318 0.9159 -2.1335 0.9777
4.8227 2.2972 -2.1863 0.9772
4.6289 2.7360 -2.2007 0.9770
4.3911 3.1556 -2.2131 0.9769
3.3955 4.2010 -2.2108 0.9769
2.5999 4.7459 -2.2147 0.9769
1.7210 5.1492 -2.2220 0.9768
0.7780 5.3672 -2.2196 0.9768
-0.6585 5.2859 -2.1801 0.9772
-1.1187 5.1661 -2.1634 0.9774
-1.5616 5.0032 -2.1451 0.9776
-2.3805 4.5598 -2.1052 0.9780
-3.0882 3.9812 -2.0621 0.9785
-3.3941 3.6503 -2.0400 0.9787
-4.1011 2.5361 -1.9735 0.9794
-2.7278 1.3670 -1.2488 0.9869
-4.8782 0.9718 -2.0357 0.9787
-1.9158 0.0346 -0.7842 0.9918
-4.4625 -1.5744 -1.9367 0.9798
-4.2776 -1.9539 -1.9247 0.9799
-3.5577 -2.9746 -1.8980 0.9802
-2.9573 -3.5410 -1.8882 0.9803
-2.6264 -3.7857 -1.8857 0.9803
-1.9121 -4.1922 -1.8858 0.9803
-1.1409 -4.4809 -1.8925 0.9802
-0.7390 -4.5788 -1.8982 0.9802
-0.3290 -4.6444 -1.9056 0.9801
0.0869 -4.6772 -1.9146 0.9800
0.9273 -4.6414 -1.9372 0.9798
1.7627 -4.4677 -1.9657 0.9795
2.1720 -4.3284 -1.9820 0.9793
2.5720 -4.1541 -1.9997 0.9791
2.9600 -3.9450 -2.0185 0.9789
4.0201 -3.1149 -2.0814 0.9783
4.3285 -2.7739 -2.1041 0.9780
-2.7161 3.8893 -2.0674 0.9795
-3.0218 3.5955 -2.0469 0.9797
-3.2966 3.2781 -2.0261 0.9799
-3.5390 2.9404 -2.0053 0.9801
-3.7479 2.5860 -1.9845 0.9803
-2.7203 1.2324 -1.3015 0.9871
-1.5096 0.2397 -0.6661 0.9934
-1.5295 0.1044 -0.6681 0.9933
-1.5242 -0.1690 -0.6683 0.9933
-1.5725 -0.4676 -0.7150 0.9929
-3.9548 -1.9972 -1.9309 0.9809
-3.7428 -2.3306 -1.9216 0.9809
-3.5057 -2.6443 -1.9138 0.9810
-3.2452 -2.9367 -1.9075 0.9811
-2.9630 -3.2065 -1.9027 0.9811
-2.6607 -3.4521 -1.8995 0.9812
-2.3402 -3.6725 -1.8979 0.9812
-0.9128 -4.2794 -1.9070 0.9811
0.6525 -4.4049 -1.9407 0.9808
1.0492 -4.3560 -1.9527 0.9806
1.4433 -4.2743 -1.9662 0.9805
2.2139 -4.0118 -1.9970 0.9802
2.5849 -3.8311 -2.0142 0.9800
3.6074 -3.0965 -2.0719 0.9795
3.9083 -2.7904 -2.0929 0.9793
4.3149 -1.5855 -2.0034 0.9801
4.4854 -1.2068 -2.0243 0.9799
4.8091 0.4552 -2.1052 0.9791
4.7913 0.8901 -2.1238 0.9790
4.7316 1.3247 -2.1414 0.9788
4.0729 2.9707 -2.1971 0.9782
3.8080 3.3363 -2.2064 0.9782
3.5068 3.6748 -2.2137 0.9781
3.1724 3.9820 -2.2188 0.9780
2.8082 4.2545 -2.2217 0.9780
2.4008 4.4569 -2.2063 0.9782
2.0065 4.6830 -2.2204 0.9780
1.5780 4.8343 -2.2163 0.9781
0.8256 3.5873 -1.6043 0.9841
-0.1051 2.5187 -1.0986 0.9891
-0.6487 4.9240 -2.1645 0.9786
-1.0774 4.8115 -2.1488 0.9787
-1.4903 4.6590 -2.1318 0.9789
-2.2542 4.2446 -2.0946 0.9792
-2.9153 3.7041 -2.0543 0.9796
-3.2015 3.3948 -2.0336 0.9798
-4.1347 1.5951 -1.9314 0.9808
-1.5289 -0.1200 -0.6684 0.9933
-1.5053 -0.2547 -0.6653 0.9934
-4.0246 -1.8727 -1.9346 0.9808
-3.8220 -2.2129 -1.9248 0.9809
-3.3415 -2.8341 -1.9096 0.9811
-3.0669 -3.1122 -1.9042 0.9811
-2.7716 -3.3666 -1.9005 0.9812
-2.1263 -3.7998 -1.8976 0.9812
-1.0487 -4.2438 -1.9051 0.9811
0.5096 -4.4144 -1.9367 0.9808
0.9067 -4.3774 -1.9482 0.9807
2.0777 -4.0687 -1.9910 0.9803
2.8157 -3.6982 -2.0257 0.9799
3.4937 -3.1994 -2.0646 0.9795
2.3409 -0.9465 -1.1004 0.9890
4.5769 -0.9547 -2.0376 0.9798
4.6910 -0.5482 -2.0583 0.9796
4.7677 -0.1290 -2.0786 0.9794
4.8054 0.2996 -2.0983 0.9792
4.7579 1.1687 -2.1352 0.9788
4.5420 2.0254 -2.1674 0.9785
4.1589 2.8334 -2.1932 0.9783
3.9076 3.2078 -2.2033 0.9782
3.6191 3.5564 -2.2114 0.9781
1.2969 4.9082 -2.2125 0.9781
0.8510 4.9869 -2.2048 0.9782
-0.0254 2.6498 -1.1549 0.9885
-0.4915 4.9543 -2.1698 0.9785
-0.9249 4.8566 -2.1546 0.9787
-2.1238 4.3292 -2.1015 0.9792
-2.4781 4.0840 -2.0819 0.9794
-3.6011 2.8425 -1.9994 0.9802
-2.7443 1.1613 -1.2987 0.9871
-1.5832 0.5089 -0.7248 0.9928
-1.5275 0.3443 -0.6824 0.9932
-1.5185 0.2022 -0.6676 0.9933
-1.5290 0.0659 -0.6670 0.9933
-1.5292 -0.0707 -0.6672 0.9933
-1.5300 -0.3499 -0.6840 0.9932
-4.0909 -1.7460 -1.9385 0.9808
-3.8979 -2.0927 -1.9281 0.9809
-3.6787 -2.4207 -1.9192 0.9810
-3.4349 -2.7286 -1.9118 0.9810
-3.1681 -3.0148 -1.9060 0.9811
-2.8801 -3.2779 -1.9017 0.9811
-2.5725 -3.5166 -1.8989 0.9812
-2.2473 -3.7296 -1.8977 0.9812
-1.9061 -3.9159 -1.8981 0.9812
-1.5508 -4.0745 -1.9000 0.9812
-0.8059 -4.3045 -1.9086 0.9811
-0.4203 -4.3743 -1.9152 0.9810
0.3669 -4.4198 -1.9329 0.9808
1.9404 -4.1214 -1.9853 0.9803
2.3192 -3.9644 -2.0017 0.9802
2.6868 -3.7745 -2.0192 0.9800
3.0404 -3.5522 -2.0378 0.9798
3.3772 -3.2983 -2.0573 0.9796
3.6942 -3.0135 -2.0777 0.9794
3.9884 -2.6993 -2.0989 0.9792
4.1729 -1.8453 -1.9885 0.9803
4.3660 -1.4812 -2.0093 0.9801
4.5272 -1.0972 -2.0302 0.9799
4.6541 -0.6961 -2.0509 0.9797
4.7445 -0.2810 -2.0714 0.9795
4.7964 0.1446 -2.0913 0.9793
4.8083 0.5770 -2.1106 0.9791
4.5933 1.8738 -2.1620 0.9786
4.4372 2.2911 -2.1764 0.9784
4.2398 2.6933 -2.1891 0.9783
4.0023 3.0759 -2.1999 0.9782
3.4161 3.7643 -2.2154 0.9781
2.7011 4.3243 -2.2220 0.9780
1.8878 4.7298 -2.2195 0.9780
1.4553 4.8690 -2.2147 0.9781
0.7283 3.5717 -1.5886 0.9842
0.0608 2.6977 -1.1760 0.9883
-1.9901 4.4095 -2.1084 0.9791
-2.3537 4.1758 -2.0891 0.9793
-2.6907 3.9114 -2.0690 0.9795
-2.9988 3.6196 -2.0485 0.9797
-3.2761 3.3039 -2.0278 0.9799
-3.5211 2.9677 -2.0069 0.9801
-3.9102 2.2478 -1.9656 0.9805
-2.7142 1.2528 -1.3028 0.9870
-1.5511 0.4024 -0.6984 0.9930
-1.5291 0.1152 -0.6683 0.9933
-1.5252 -0.0215 -0.6648 0.9934
-1.5028 -0.2932 -0.6673 0.9933
-1.5686 -0.4544 -0.7118 0.9929
-3.9704 -1.9700 -1.9317 0.9808
-2.9860 -3.1860 -1.9030 0.9811
-2.0305 -3.8521 -1.8977 0.9812
-1.3169 -4.1610 -1.9021 0.9811
-0.5598 -4.3527 -1.9126 0.9810
0.2243 -4.4210 -1.9292 0.9809
0.6211 -4.4073 -1.9398 0.9808
1.8020 -4.1698 -1.9797 0.9804
2.1841 -4.0246 -1.9956 0.9802
2.5561 -3.8465 -2.0128 0.9801
3.2582 -3.3932 -2.0502 0.9797
3.5827 -3.1194 -2.0703 0.9795
4.1610 -2.4817 -2.1115 0.9791
4.4731 -1.2374 -2.0227 0.9800
4.6126 -0.8421 -2.0435 0.9797
4.7163 -0.4317 -2.0641 0.9795
4.6392 1.7209 -2.1565 0.9786
4.3155 2.5507 -2.1847 0.9784
3.1999 3.9590 -2.2185 0.9780
2.8379 4.2343 -2.2215 0.9780
2.0397 4.6692 -2.2206 0.9780
1.6123 4.8240 -2.2167 0.9781
0.8521 3.5863 -1.6065 0.9840
0.7249 5.0009 -2.2022 0.9782
0.2748 5.0219 -2.1919 0.9783
-0.0879 2.5357 -1.1058 0.9890
-0.6143 4.9311 -2.1657 0.9786
-1.0441 4.8218 -2.1501 0.9787
-2.5727 4.0098 -2.0763 0.9794
-2.8914 3.7275 -2.0560 0.9796
-3.4367 3.0908 -2.0144 0.9800
-3.6605 2.7433 -1.9936 0.9802
-1.5708 0.4618 -0.7136 0.9929
-1.5248 0.1643 -0.6684 0.9933
-1.5260 0.0275 -0.6651 0.9934
-1.5083 -0.2443 -0.6659 0.9934
-3.8390 -2.1867 -1.9255 0.9809
-3.6127 -2.5093 -1.9170 0.9810
-3.0893 -3.0910 -1.9046 0.9811
-2.4829 -3.5790 -1.8984 0.9812
-2.1530 -3.7847 -1.8976 0.9812
-1.8077 -3.9633 -1.8985 0.9812
-1.4489 -4.1139 -1.9008 0.9811
-1.0784 -4.2354 -1.9048 0.9811
0.0821 -4.4181 -1.9258 0.9809
0.8753 -4.3815 -1.9473 0.9807
1.6626 -4.2140 -1.9743 0.9804
2.0477 -4.0807 -1.9898 0.9803
2.4236 -3.9144 -2.0065 0.9801
3.1368 -3.4841 -2.0432 0.9798
3.4683 -3.2214 -2.0630 0.9796
3.7792 -2.9282 -2.0836 0.9794
-2.5495 3.6507 -2.0611 0.9806
-3.0982 3.0808 -2.0224 0.9809
-3.5267 2.4334 -1.9834 0.9813
-3.6934 2.0887 -1.9641 0.9815
-1.3336 0.4659 -0.6539 0.9938
-1.3104 0.3301 -0.6255 0.9941
-1.3385 0.0914 -0.6210 0.9941
-1.3362 -0.0282 -0.6187 0.9941
-1.3345 -0.1480 -0.6215 0.9941
-1.3294 -0.5284 -0.6622 0.9937
-3.7428 -1.8901 -1.9409 0.9817
-3.5431 -2.2063 -1.9320 0.9818
-2.8064 -3.0370 -1.9141 0.9819
-2.5203 -3.2699 -1.9110 0.9820
-1.5647 -3.8200 -1.9108 0.9820
-0.8644 -4.0527 -1.9181 0.9819
-0.1316 -4.1703 -1.9313 0.9818
0.9923 -4.1200 -1.9616 0.9815
1.7318 -3.9312 -1.9884 0.9812
2.7772 -3.4143 -2.0372 0.9808
3.0981 -3.1812 -2.0555 0.9806
3.6822 -2.6290 -2.0943 0.9803
4.3415 -0.7610 -2.0402 0.9808
4.4335 -0.3743 -2.0595 0.9806
4.4898 0.0228 -2.0783 0.9804
4.4316 1.2407 -2.1302 0.9799
4.1970 2.0356 -2.1592 0.9796
4.0215 2.4154 -2.1714 0.9795
3.8084 2.7778 -2.1820 0.9794
1.4747 4.5179 -2.1998 0.9793
0.2238 4.6964 -2.1764 0.9795
-0.1097 2.6291 -1.2180 0.9885
-1.0089 4.5054 -2.1371 0.9799
-1.3962 4.3649 -2.1213 0.9800
-2.7376 3.4782 -2.0489 0.9807
-3.0081 3.1897 -2.0295 0.9809
-3.2489 2.8807 -2.0099 0.9810
-3.4589 2.5544 -1.9903 0.9812
-3.6372 2.2140 -1.9710 0.9814
-1.3310 0.5135 -0.6604 0.9937
-1.3220 0.3786 -0.6365 0.9940
-1.3118 0.2517 -0.6183 0.9941
-1.3350 0.0147 -0.6180 0.9941
-1.3382 -0.1050 -0.6213 0.9941
-1.3144 -0.3453 -0.6291 0.9940
-3.4025 -2.3990 -1.9271 0.9818
-2.9046 -2.9475 -1.9155 0.9819
-2.3279 -3.4065 -1.9098 0.9820
-2.0142 -3.5994 -1.9092 0.9820
-1.6859 -3.7665 -1.9101 0.9820
-0.9932 -4.0192 -1.9164 0.9819
0.1072 -4.1827 -1.9367 0.9817
0.4822 -4.1771 -1.9464 0.9816
1.9631 -3.8442 -1.9980 0.9812
2.3164 -3.6829 -2.0139 0.9810
2.6578 -3.4908 -2.0309 0.9808
3.5836 -2.7365 -2.0871 0.9803
3.8491 -2.4285 -2.1066 0.9801
2.3405 -0.9464 -1.1686 0.9889
4.1625 -1.2646 -2.0137 0.9810
4.4738 -0.1210 -2.0716 0.9805
4.5065 0.2809 -2.0900 0.9803
4.5012 0.6875 -2.1077 0.9801
4.3736 1.4989 -2.1401 0.9798
3.3827 3.3241 -2.1953 0.9793
3.0804 3.6215 -2.2007 0.9793
1.6202 4.4714 -2.2014 0.9793
1.2121 4.5874 -2.1963 0.9793
0.3751 4.6948 -2.1801 0.9795
-0.0258 2.6959 -1.2479 0.9882
-0.4599 4.6363 -2.1566 0.9797
-1.6351 4.2563 -2.1106 0.9801
-2.6333 3.5764 -2.0558 0.9806
-3.1658 2.9940 -2.0169 0.9810
-2.6605 1.4177 -1.3954 0.9868
-1.3305 0.4277 -0.6469 0.9939
-1.3299 0.1771 -0.6210 0.9941
-1.3382 -0.0619 -0.6201 0.9941
-1.3292 -0.1812 -0.6209 0.9941
-1.3007 -0.2974 -0.6176 0.9941
-3.6893 -1.9806 -1.9383 0.9817
-3.0004 -2.8552 -1.9172 0.9819
-0.7632 -4.0763 -1.9196 0.9819
1.4683 -4.0135 -1.9782 0.9813
1.8336 -3.8946 -1.9926 0.9812
2.5366 -3.5634 -2.0247 0.9809
2.8690 -3.3519 -2.0423 0.9807
3.7571 -2.5427 -2.0999 0.9802
3.9984 -2.2139 -2.1156 0.9801
4.1053 -1.3927 -2.0067 0.9811
4.2542 -1.0310 -2.0262 0.9809
4.3708 -0.6537 -2.0457 0.9807
4.4990 0.1356 -2.0835 0.9804
4.4775 0.9484 -2.1186 0.9800
3.9654 2.5190 -2.1746 0.9795
3.7421 2.8759 -2.1846 0.9794
3.4837 3.2101 -2.1928 0.9793
2.8715 3.7958 -2.2031 0.9792
1.7640 4.4198 -2.2028 0.9792
1.3601 4.5504 -2.1984 0.9793
0.5265 4.6878 -2.1836 0.9794
0.1058 4.6939 -2.1733 0.9795
-3.0787 3.1049 -2.0240 0.9809
-3.3110 2.7907 -2.0044 0.9811
-1.3135 0.6062 -0.6696 0.9936
-1.3334 0.4764 -0.6554 0.9938
-1.3132 0.3407 -0.6280 0.9940
-1.3354 -0.0188 -0.6182 0.9941
-1.3105 -0.2557 -0.6181 0.9941
-1.3230 -0.3833 -0.6376 0.9939
-1.3306 -0.5180 -0.6609 0.9937
-3.3379 -2.4810 -1.9251 0.9818
-3.0935 -2.7600 -1.9190 0.9819
-1.9234 -3.6490 -1.9093 0.9820
-1.5914 -3.8086 -1.9106 0.9820
-0.1610 -4.1679 -1.9307 0.9818
0.2123 -4.1842 -1.9393 0.9817
0.5877 -4.1700 -1.9493 0.9816
1.7031 -3.9410 -1.9873 0.9813
2.4136 -3.6321 -2.0186 0.9810
2.7511 -3.4314 -2.0358 0.9808
3.3776 -2.9408 -2.0730 0.9805
3.9160 -2.3356 -2.1106 0.9801
4.5089 0.3947 -2.0951 0.9802
4.4928 0.8019 -2.1125 0.9801
4.2093 2.0050 -2.1581 0.9797
3.8266 2.7499 -2.1812 0.9794
3.5806 3.0928 -2.1901 0.9794
2.6517 3.9565 -2.2047 0.9792
2.2890 4.1784 -2.2053 0.9792
0.8556 3.6011 -1.7133 0.9838
0.2570 4.6965 -2.1772 0.9795
-2.0875 3.9986 -2.0879 0.9803
-3.2310 2.9058 -2.0114 0.9810
-3.4435 2.5807 -1.9919 0.9812
-1.3299 0.5239 -0.6616 0.9937
-1.3350 0.1438 -0.6215 0.9941
-1.3359 0.0241 -0.6185 0.9941
-1.3221 -0.2141 -0.6200 0.9941
-1.3116 -0.3347 -0.6266 0.9941
-1.3150 -0.6007 -0.6692 0.9936
-3.4204 -2.3757 -1.9277 0.9818
-3.1839 -2.6621 -1.9210 0.9819
-2.6480 -3.1706 -1.9122 0.9820
-2.3520 -3.3902 -1.9099 0.9820
-1.3723 -3.8966 -1.9123 0.9820
-0.2943 -4.1546 -1.9279 0.9818
0.0777 -4.1819 -1.9360 0.9817
0.4526 -4.1787 -1.9456 0.9816
1.2018 -4.0797 -1.9687 0.9814
1.5716 -3.9833 -1.9821 0.9813
2.2889 -3.6968 -2.0126 0.9810
2.9594 -3.2871 -2.0474 0.9807
3.2704 -3.0376 -2.0661 0.9805
3.5615 -2.7596 -2.0855 0.9803
3.8298 -2.4543 -2.1055 0.9801
-2.6724 3.1797 -2.0374 0.9817
-2.9188 2.9024 -2.0191 0.9818
-3.1371 2.6065 -2.0007 0.9820
-3.4854 1.9710 -1.9641 0.9823
-1.1408 0.5168 -0.6144 0.9944
-1.1567 0.4041 -0.6010 0.9946
-1.1586 0.2919 -0.5861 0.9947
-1.1955 0.0816 -0.5878 0.9947
-1.1963 -0.0253 -0.5869 0.9947
-1.1736 -0.2376 -0.5874 0.9947
-3.3600 -2.0923 -1.9416 0.9825
-3.1485 -2.3749 -1.9345 0.9826
-2.9155 -2.6384 -1.9288 0.9826
-2.6626 -2.8814 -1.9245 0.9827
-2.3914 -3.1027 -1.9216 0.9827
-2.1036 -3.3011 -1.9201 0.9827
-1.8007 -3.4754 -1.9200 0.9827
-1.4847 -3.6247 -1.9214 0.9827
-1.1572 -3.7481 -1.9242 0.9827
-0.8201 -3.8447 -1.9284 0.9826
-0.4753 -3.9139 -1.9340 0.9826
-0.1248 -3.9549 -1.9409 0.9825
0.5851 -3.9504 -1.9589 0.9824
0.9403 -3.9041 -1.9698 0.9823
1.6399 -3.7224 -1.9953 0.9820
1.9795 -3.5871 -2.0097 0.9819
2.3092 -3.4224 -2.0252 0.9818
2.6263 -3.2288 -2.0416 0.9816
2.9284 -3.0069 -2.0589 0.9815
3.4769 -2.4824 -2.0956 0.9811
3.7111 -2.1781 -2.1108 0.9810
3.6509 -1.7252 -1.9807 0.9822
2.4606 -0.9041 -1.2859 0.9884
4.1724 -0.3523 -2.0539 0.9815
4.2390 0.4012 -2.0886 0.9812
4.2189 0.7837 -2.1049 0.9811
4.1622 1.1653 -2.1202 0.9809
3.9386 1.9102 -2.1472 0.9807
3.3375 2.9242 -2.1766 0.9804
3.0723 3.2195 -2.1829 0.9804
2.7785 3.4876 -2.1873 0.9803
2.4592 3.7257 -2.1898 0.9803
2.1175 3.9310 -2.1902 0.9803
1.7573 4.1012 -2.1886 0.9803
0.2099 4.4051 -2.1632 0.9805
-1.6596 3.9375 -2.0960 0.9811
-3.0619 2.7149 -2.0073 0.9819
-3.2617 2.4087 -1.9889 0.9821
-1.1313 0.5570 -0.6186 0.9944
-1.1763 0.2257 -0.5876 0.9947
-1.1949 -0.0938 -0.5879 0.9947
-1.1816 -0.1999 -0.5879 0.9947
-1.1582 -0.3043 -0.5874 0.9947
-1.1557 -0.4169 -0.6026 0.9945
-3.2271 -2.2754 -1.9369 0.9826
-3.0017 -2.5459 -1.9307 0.9826
-1.9113 -3.4155 -1.9199 0.9827
-1.5998 -3.5739 -1.9207 0.9827
-1.2762 -3.7068 -1.9230 0.9827
-0.9423 -3.8131 -1.9267 0.9827
-0.2514 -3.9434 -1.9383 0.9825
0.1017 -3.9661 -1.9461 0.9825
1.1664 -3.8589 -1.9774 0.9822
1.5157 -3.7639 -1.9903 0.9821
1.8584 -3.6392 -2.0044 0.9820
2.1919 -3.4850 -2.0195 0.9818
2.3400 -0.9462 -1.2381 0.9888
4.0498 -0.8448 -2.0293 0.9817
4.2374 0.2641 -2.0826 0.9813
4.2303 0.6461 -2.0991 0.9811
4.1868 1.0284 -2.1148 0.9810
4.1066 1.4073 -2.1294 0.9808
3.9896 1.7791 -2.1427 0.9807
3.8363 2.1397 -2.1547 0.9806
3.6478 2.4852 -2.1651 0.9805
3.4254 2.8120 -2.1739 0.9804
2.5768 3.6437 -2.1891 0.9803
2.2428 3.8611 -2.1903 0.9803
1.5186 4.1911 -2.1866 0.9803
0.9662 3.6566 -1.8552 0.9833
0.3518 4.4031 -2.1667 0.9805
-0.0268 2.8015 -1.3743 0.9876
-1.5366 3.9998 -2.1018 0.9811
-2.4785 3.3661 -2.0504 0.9815
-2.7443 3.1039 -2.0323 0.9817
-2.9830 2.8211 -2.0139 0.9819
-3.3740 2.2053 -1.9772 0.9822
-1.1171 0.5953 -0.6209 0.9944
-1.1468 0.4853 -0.6108 0.9945
-1.1964 0.0516 -0.5874 0.9947
-1.1963 -0.0553 -0.5875 0.9947
-1.1879 -0.1620 -0.5881 0.9947
-1.1662 -0.2667 -0.5868 0.9947
-1.1583 -0.3763 -0.5974 0.9946
-1.1462 -0.4892 -0.6113 0.9945
-3.3029 -2.1734 -1.9395 0.9825
-3.0852 -2.4508 -1.9328 0.9826
-2.5883 -2.9458 -1.9235 0.9827
-2.0200 -3.3525 -1.9199 0.9827
-0.0257 -3.9613 -1.9431 0.9825
0.3292 -3.9654 -1.9518 0.9824
2.3995 -3.3710 -2.0297 0.9817
3.0101 -2.9397 -2.0639 0.9814
3.2891 -2.6830 -2.0821 0.9813
3.5470 -2.4006 -2.1009 0.9811
4.1150 -0.6155 -2.0410 0.9816
4.1901 -0.2482 -2.0589 0.9815
4.2370 0.5085 -2.0933 0.9812
4.2067 0.8911 -2.1093 0.9810
4.0359 1.6464 -2.1381 0.9808
3.8956 2.0115 -2.1506 0.9807
3.7196 2.3629 -2.1616 0.9806
2.6913 3.5576 -2.1882 0.9803
2.3654 3.7867 -2.1901 0.9803
2.0181 3.9824 -2.1900 0.9803
1.2749 4.2655 -2.1838 0.9804
0.0993 4.4031 -2.1604 0.9806
-0.6770 4.3028 -2.1366 0.9808
-1.0511 4.1976 -2.1226 0.9809
-2.0766 3.6841 -2.0744 0.9813
-2.3765 3.4548 -2.0569 0.9815
-2.9004 2.9250 -2.0206 0.9818
-3.1209 2.6305 -2.0021 0.9820
-3.3124 2.3202 -1.9838 0.9821
-3.4740 1.9970 -1.9655 0.9823
-1.1389 0.5257 -0.6153 0.9944
-1.1560 0.4130 -0.6021 0.9945
-1.1581 0.3004 -0.5869 0.9947
-1.1961 -0.0168 -0.5868 0.9947
-1.1590 -0.3358 -0.5919 0.9946
-1.1303 -0.5608 -0.6190 0.9944
-3.3758 -2.0692 -1.9422 0.9825
-3.1660 -2.3532 -1.9350 0.9826
-2.6833 -2.8630 -1.9248 0.9827
-2.4135 -3.0860 -1.9217 0.9827
-2.1269 -3.2862 -1.9201 0.9827
-1.8251 -3.4625 -1.9200 0.9827
-1.5101 -3.6138 -1.9212 0.9827
-1.1834 -3.7393 -1.9239 0.9827
-0.8470 -3.8381 -1.9280 0.9826
-0.1527 -3.9527 -1.9403 0.9825
0.5570 -3.9528 -1.9581 0.9824
0.9124 -3.9088 -1.9689 0.9823
1.9530 -3.5989 -2.0085 0.9819
2.6018 -3.2451 -2.0403 0.9816
3.1910 -2.7784 -2.0754 0.9813
3.6360 -1.7496 -1.9793 0.9822
3.9612 -1.0958 -2.0161 0.9819
4.1669 -0.3814 -2.0525 0.9815
4.2204 -0.0084 -2.0702 0.9814
4.2390 0.3711 -2.0873 0.9812
4.2218 0.7535 -2.1036 0.9811
4.1680 1.1353 -2.1190 0.9809
3.9502 1.8816 -2.1463 0.9807
3.7869 2.2383 -2.1578 0.9806
3.3572 2.8998 -2.1760 0.9804
1.7863 4.0891 -2.1888 0.9803
0.8613 3.6250 -1.8276 0.9835
0.2410 4.4051 -2.1640 0.9805
-0.9180 4.2395 -2.1278 0.9809
-1.2835 4.1121 -2.1130 0.9810
-1.6328 3.9515 -2.0973 0.9811
-1.9630 3.7600 -2.0806 0.9813
-2.2714 3.5402 -2.0633 0.9814
-2.5557 3.2948 -2.0454 0.9816
-3.0449 2.7384 -2.0088 0.9819
-1.1516 0.4536 -0.6071 0.9945
-1.1745 0.2340 -0.5874 0.9947
-1.1920 0.1284 -0.5881 0.9947
-1.1962 0.0216 -0.5869 0.9947
-1.1564 -0.4080 -0.6015 0.9946
-3.0203 -2.5253 -1.9311 0.9826
-2.5125 -3.0084 -1.9227 0.9827
-2.2318 -3.2169 -1.9205 0.9827
-1.9353 -3.4019 -1.9199 0.9827
-1.6248 -3.5624 -1.9206 0.9827
-0.6273 -3.8870 -1.9313 0.9826
0.7847 -3.9280 -1.9649 0.9823
1.1386 -3.8651 -1.9765 0.9822
1.4884 -3.7724 -1.9893 0.9821
1.8316 -3.6501 -2.0032 0.9820
3.0904 -2.8704 -2.0689 0.9814
-2.5218 3.0005 -2.0333 0.9825
-2.9633 2.4621 -1.9987 0.9828
-3.1436 2.1690 -1.9814 0.9829
-1.0438 0.4729 -0.5945 0.9948
-1.0603 0.3704 -0.5826 0.9950
-1.1057 0.0755 -0.5749 0.9950
-1.1065 -0.0234 -0.5742 0.9950
-1.1020 -0.1222 -0.5752 0.9950
-1.0854 -0.2197 -0.5745 0.9950
-1.0281 -0.5192 -0.5975 0.9948
-0.9786 -0.6094 -0.5981 0.9948
-2.7702 -2.5068 -1.9382 0.9833
-2.2726 -2.9486 -1.9313 0.9834
-1.4109 -3.4446 -1.9311 0.9834
-1.0996 -3.5617 -1.9338 0.9833
-0.4515 -3.7182 -1.9431 0.9833
-0.1185 -3.7565 -1.9498 0.9832
0.5555 -3.7505 -1.9669 0.9831
1.2265 -3.6323 -1.9889 0.9829
2.4881 -3.0589 -2.0456 0.9824
2.7731 -2.8475 -2.0620 0.9822
3.2894 -2.3485 -2.0967 0.9820
3.5076 -2.0586 -2.1099 0.9818
2.3244 -0.8541 -1.2847 0.9889
3.7499 -1.0089 -2.0146 0.9827
3.8578 -0.6762 -2.0319 0.9825
3.9354 -0.3323 -2.0489 0.9824
3.9813 0.0202 -2.0655 0.9822
3.9944 0.3781 -2.0815 0.9821
3.5480 2.1310 -2.1471 0.9815
3.3581 2.4494 -2.1563 0.9814
3.1373 2.7488 -2.1639 0.9814
1.9898 3.6938 -2.1766 0.9813
1.6513 3.8540 -2.1752 0.9813
1.2991 3.9798 -2.1719 0.9813
0.8329 3.6188 -1.9264 0.9834
0.5682 4.1245 -2.1599 0.9814
0.1974 4.1424 -2.1514 0.9815
-0.1103 2.6439 -1.3728 0.9881
-1.8739 3.5286 -2.0727 0.9822
-3.0820 2.2760 -1.9876 0.9829
-0.9849 0.5995 -0.5982 0.9948
-1.0559 0.4074 -0.5871 0.9949
-1.0638 0.3046 -0.5740 0.9950
-1.0879 0.2088 -0.5747 0.9950
-1.1062 0.0122 -0.5739 0.9950
-1.0591 -0.3821 -0.5841 0.9949
-1.0411 -0.4844 -0.5957 0.9948
-0.9979 -0.5778 -0.5982 0.9948
-3.0656 -2.1615 -1.9459 0.9832
-2.8519 -2.4189 -1.9400 0.9833
-2.6186 -2.6572 -1.9354 0.9833
-0.8954 -3.6232 -1.9362 0.9833
-0.5701 -3.6979 -1.9410 0.9833
-0.2388 -3.7459 -1.9472 0.9832
0.4340 -3.7598 -1.9635 0.9831
0.7715 -3.7249 -1.9734 0.9830
1.1069 -3.6618 -1.9846 0.9829
2.0778 -3.3035 -2.0246 0.9826
2.3819 -3.1285 -2.0399 0.9824
2.6724 -2.9265 -2.0560 0.9823
3.2024 -2.4454 -2.0903 0.9820
3.3857 -1.7350 -1.9736 0.9830
3.7041 -1.1253 -2.0083 0.9827
3.8224 -0.7973 -2.0257 0.9826
3.9851 0.6086 -2.0913 0.9820
3.9424 0.9684 -2.1060 0.9819
3.7538 1.6739 -2.1322 0.9816
2.7134 3.1901 -2.1726 0.9813
2.4214 3.4240 -2.1756 0.9813
1.7748 3.8002 -2.1759 0.9813
1.4271 3.9386 -2.1733 0.9813
0.9671 3.6601 -1.9639 0.9831
0.3308 4.1401 -2.1547 0.9815
-0.4061 4.0938 -2.1342 0.9816
-1.1133 3.9087 -2.1084 0.9819
-2.0621 3.3986 -2.0623 0.9822
-3.1891 2.0844 -1.9765 0.9830
-1.0498 0.4442 -0.5914 0.9949
-1.0625 0.3415 -0.5790 0.9950
-1.0793 0.2433 -0.5739 0.9950
-2.9311 -2.3284 -1.9420 0.9833
-2.7047 -2.5738 -1.9369 0.9833
-2.1974 -3.0038 -1.9307 0.9834
-1.6282 -3.3451 -1.9300 0.9834
-1.3246 -3.4800 -1.9317 0.9834
-0.6879 -3.6741 -1.9391 0.9833
-0.3585 -3.7317 -1.9449 0.9832
-0.0244 -3.7624 -1.9519 0.9832
0.9867 -3.6878 -1.9804 0.9829
1.3195 -3.6066 -1.9923 0.9828
2.2740 -3.1946 -2.0343 0.9825
2.8501 -2.7834 -2.0667 0.9822
3.1127 -2.5392 -2.0840 0.9821
3.5640 -1.9733 -2.1134 0.9818
3.8827 -0.5807 -2.0367 0.9825
3.9516 -0.2341 -2.0536 0.9823
3.9920 0.4791 -2.0858 0.9820
3.8970 1.1971 -2.1149 0.9818
3.7978 1.5493 -2.1279 0.9817
3.4979 2.2221 -2.1499 0.9815
3.0700 2.8289 -2.1657 0.9814
2.8125 3.0992 -2.1711 0.9813
2.5291 3.3432 -2.1747 0.9813
1.8964 3.7421 -2.1764 0.9813
