ply
format ascii 1.0
element vertex 1595
property float32 x
property float32 y
property float32 z
property float32 I
end_header
-2.6867 -6.5241 -1.9974 0.9711
-2.0949 -6.7411 -1.9984 0.9711
-1.4858 -6.9045 -1.9994 0.9711
-0.8642 -7.0131 -2.0004 0.9711
0.3965 -7.0622 -2.0024 0.9710
1.6470 -6.8861 -2.0044 0.9710
2.2560 -6.7149 -2.0054 0.9710
3.4167 -6.2127 -2.0072 0.9710
4.4701 -5.5109 -2.0088 0.9709
4.9458 -5.0919 -2.0095 0.9709
5.3822 -4.6318 -2.0102 0.9709
5.7757 -4.1343 -2.0108 0.9709
6.8623 -1.8541 -2.0123 0.9709
7.0835 -0.6049 -2.0126 0.9709
7.0777 0.6637 -2.0124 0.9709
6.9896 1.2925 -2.0123 0.9709
6.8454 1.9107 -2.0120 0.9709
6.6464 2.5134 -2.0116 0.9709
4.5282 4.7401 -1.8558 0.9731
4.0855 5.1232 -1.8550 0.9731
2.5793 6.0142 -1.8525 0.9732
2.0314 6.2173 -1.8516 0.9732
1.4678 6.3706 -1.8507 0.9732
-0.2713 6.5219 -1.8479 0.9732
-2.5308 6.0033 -1.8443 0.9733
-3.0550 5.7510 -1.8435 0.9733
-3.5545 5.4531 -1.8427 0.9733
-4.8664 4.3124 -1.8407 0.9733
-5.5545 4.0991 -1.9543 0.9717
-6.0087 3.6544 -1.9909 0.9712
-6.3102 3.1034 -1.9907 0.9712
-6.5607 2.5275 -1.9904 0.9712
-6.7592 1.9318 -1.9901 0.9712
-7.0285 0.0727 -1.9898 0.9712
-6.7986 -1.7918 -1.9904 0.9712
-6.6128 -2.3917 -1.9907 0.9712
-6.3744 -2.9728 -1.9912 0.9712
-6.0853 -3.5307 -1.9917 0.9712
-5.7477 -4.0608 -1.9923 0.9712
-4.9379 -5.0212 -1.9936 0.9711
-4.4719 -5.4439 -1.9944 0.9711
-2.8743 -6.4424 -1.9971 0.9711
-1.6851 -6.8574 -1.9990 0.9711
-1.0670 -6.9839 -2.0000 0.9711
1.4464 -6.9299 -2.0041 0.9710
2.0600 -6.7765 -2.0051 0.9710
2.6577 -6.5687 -2.0060 0.9710
3.7862 -5.9970 -2.0078 0.9709
4.7956 -5.2326 -2.0093 0.9709
5.6529 -4.2997 -2.0106 0.9709
6.3302 -3.2281 -2.0116 0.9709
6.8054 -2.0522 -2.0123 0.9709
6.9621 -1.4369 -2.0125 0.9709
7.0629 -0.8100 -2.0126 0.9709
7.0244 1.0893 -2.0123 0.9709
6.7169 2.3198 -2.0117 0.9709
6.1947 3.4751 -2.0108 0.9709
5.8446 4.0034 -2.0055 0.9710
3.2734 5.6711 -1.8537 0.9731
2.7531 5.9377 -1.8528 0.9732
0.5010 6.5127 -1.8492 0.9732
-0.0821 6.5281 -1.8482 0.9732
-1.2399 6.4032 -1.8464 0.9733
-1.8054 6.2640 -1.8455 0.9733
-4.3251 4.8589 -1.8415 0.9733
-5.8923 3.8220 -1.9883 0.9712
-6.2179 3.2852 -1.9908 0.9712
-6.4850 2.7168 -1.9905 0.9712
-6.7006 2.1270 -1.9902 0.9712
-6.8629 1.5205 -1.9900 0.9712
-7.0203 -0.3513 -1.9899 0.9712
-6.8474 -1.5938 -1.9903 0.9712
-6.6790 -2.1988 -1.9906 0.9712
-5.4936 -4.4010 -1.9927 0.9712
-4.6273 -5.3113 -1.9942 0.9711
-3.6126 -6.0543 -1.9959 0.9711
-2.4813 -6.6062 -1.9977 0.9711
-1.8829 -6.8046 -1.9987 0.9711
-1.2689 -6.9489 -1.9997 0.9711
-0.6441 -7.0380 -2.0007 0.9710
0.6177 -7.0475 -2.0028 0.9710
1.2447 -6.9678 -2.0038 0.9710
4.6413 -5.3688 -2.0091 0.9709
5.5253 -4.4614 -2.0104 0.9709
6.9173 -1.6381 -2.0124 0.9709
7.0363 -1.0145 -2.0125 0.9709
7.0989 -0.3826 -2.0126 0.9709
7.0533 0.8852 -2.0124 0.9709
6.9454 1.5108 -2.0122 0.9709
5.9672 3.8381 -2.0085 0.9709
5.3850 4.1872 -1.9311 0.9720
4.7965 4.4708 -1.8562 0.9731
4.3768 4.8790 -1.8555 0.9731
3.4370 5.5746 -1.8540 0.9731
2.9245 5.8563 -1.8531 0.9732
1.2672 6.4123 -1.8504 0.9732
0.6897 6.4965 -1.8495 0.9732
-3.2332 5.6515 -1.8432 0.9733
-4.1829 4.9829 -1.8418 0.9733
-4.6092 4.5882 -1.8411 0.9733
-5.7715 3.9860 -1.9857 0.9713
-6.1205 3.4644 -1.9910 0.9712
-6.4039 2.9039 -1.9906 0.9712
-7.0274 -0.1476 -1.9898 0.9712
-6.9866 -0.7741 -1.9900 0.9712
-6.7395 -2.0041 -1.9905 0.9712
-6.5351 -2.5980 -1.9909 0.9712
-5.2194 -4.7254 -1.9932 0.9712
-4.7787 -5.1742 -1.9939 0.9711
-3.7861 -5.9461 -1.9956 0.9711
-3.2419 -6.2631 -1.9965 0.9711
-2.6714 -6.5304 -1.9974 0.9711
-1.4696 -6.9081 -1.9994 0.9711
-0.8478 -7.0152 -2.0004 0.9711
2.2717 -6.7097 -2.0054 0.9710
3.4313 -6.2047 -2.0072 0.9710
4.4831 -5.5005 -2.0088 0.9709
4.9578 -5.0804 -2.0096 0.9709
5.7854 -4.1208 -2.0108 0.9709
6.1316 -3.5891 -2.0113 0.9709
6.4287 -3.0283 -2.0117 0.9709
6.6744 -2.4430 -2.0121 0.9709
7.0038 -1.2181 -2.0125 0.9709
7.0849 -0.5883 -2.0126 0.9709
7.1090 0.0462 -2.0126 0.9709
7.0762 0.6803 -2.0124 0.9709
6.3869 3.1107 -2.0111 0.9709
4.9247 4.3303 -1.8565 0.9731
4.5170 4.7507 -1.8558 0.9731
4.0734 5.1327 -1.8550 0.9731
2.7891 5.2021 -1.6710 0.9758
2.0168 6.2220 -1.8516 0.9732
-0.2866 6.5212 -1.8479 0.9732
-1.4397 6.3601 -1.8460 0.9733
-2.0005 6.2033 -1.8452 0.9733
-2.5448 5.9972 -1.8443 0.9733
-3.0684 5.7437 -1.8435 0.9733
-3.5672 5.4447 -1.8427 0.9733
-4.0372 5.1027 -1.8420 0.9733
-4.8765 4.3009 -1.8407 0.9733
-5.5802 4.0979 -1.9599 0.9716
-6.5666 2.5121 -1.9904 0.9712
-6.7944 -1.8077 -1.9904 0.9712
-6.6072 -2.4072 -1.9907 0.9712
-6.0771 -3.5449 -1.9917 0.9712
-5.7382 -4.0743 -1.9923 0.9712
-5.3536 -4.5715 -1.9929 0.9712
-4.9261 -5.0328 -1.9937 0.9711
-4.4592 -5.4544 -1.9945 0.9711
-3.9564 -5.8330 -1.9953 0.9711
-2.2734 -6.6818 -1.9981 0.9711
-1.6690 -6.8614 -1.9991 0.9711
-1.0507 -6.9865 -2.0001 0.9711
-0.4233 -7.0560 -2.0011 0.9710
0.2081 -7.0692 -2.0021 0.9710
0.8384 -7.0260 -2.0031 0.9710
1.4627 -6.9266 -2.0041 0.9710
2.0759 -6.7717 -2.0051 0.9710
3.2494 -6.3007 -2.0069 0.9710
3.8003 -5.9882 -2.0078 0.9709
4.3212 -5.6275 -2.0086 0.9709
5.2563 -4.7732 -2.0100 0.9709
6.0245 -3.7651 -2.0112 0.9709
6.8102 -2.0362 -2.0123 0.9709
6.9654 -1.4206 -2.0125 0.9709
7.0648 -0.7935 -2.0126 0.9709
7.1074 -0.1599 -2.0126 0.9709
6.7114 2.3355 -2.0117 0.9709
6.4749 2.9244 -2.0113 0.9709
5.8345 4.0166 -2.0053 0.9710
5.0644 4.1991 -1.8624 0.9730
4.2211 5.0131 -1.8553 0.9731
3.2600 5.6786 -1.8537 0.9731
2.7391 5.9441 -1.8528 0.9732
1.6374 6.3302 -1.8510 0.9732
-0.6791 6.4898 -1.8473 0.9732
-1.2549 6.4002 -1.8463 0.9733
-2.3702 6.0694 -1.8446 0.9733
-3.4083 5.5466 -1.8430 0.9733
-4.3365 4.8487 -1.8415 0.9733
-4.7502 4.4409 -1.8409 0.9733
-5.2727 4.1126 -1.8930 0.9726
-6.7055 2.1113 -1.9902 0.9712
-6.8665 1.5044 -1.9900 0.9712
-7.0240 0.2600 -1.9898 0.9712
-7.0194 -0.3678 -1.9899 0.9712
-6.6738 -2.2145 -1.9906 0.9712
-6.1768 -3.3669 -1.9915 0.9712
-5.8534 -3.9058 -1.9921 0.9712
-5.0694 -4.8873 -1.9934 0.9712
-4.6149 -5.3222 -1.9942 0.9711
-3.5985 -6.0628 -1.9959 0.9711
-2.4659 -6.6121 -1.9978 0.9711
-1.2526 -6.9520 -1.9997 0.9711
2.4813 -6.6363 -2.0057 0.9710
4.1557 -5.7497 -2.0083 0.9709
5.9123 -3.9378 -2.0110 0.9709
6.2415 -3.3954 -2.0115 0.9709
6.9211 -1.6219 -2.0124 0.9709
7.0387 -0.9980 -2.0125 0.9709
7.0998 -0.3660 -2.0126 0.9709
7.1040 0.2690 -2.0125 0.9709
6.7767 2.1401 -2.0118 0.9709
6.2857 3.3090 -2.0109 0.9709
5.3601 4.1881 -1.9257 0.9721
3.9100 5.2571 -1.8547 0.9731
2.9107 5.8631 -1.8531 0.9732
2.3748 6.0965 -1.8522 0.9732
1.2522 6.4152 -1.8504 0.9732
0.6744 6.4981 -1.8494 0.9732
0.0919 6.5290 -1.8485 0.9732
-1.0689 6.4349 -1.8466 0.9732
-1.6380 6.3108 -1.8457 0.9733
-3.2464 5.6439 -1.8432 0.9733
-4.1946 4.9730 -1.8417 0.9733
-5.0083 4.1455 -1.8405 0.9733
-5.7815 3.9729 -1.9859 0.9713
-6.1286 3.4500 -1.9910 0.9712
-6.9444 1.0875 -1.9899 0.9712
-7.0271 -0.1641 -1.9899 0.9712
-6.9848 -0.7905 -1.9900 0.9712
-6.5290 -2.6133 -1.9909 0.9712
5.1916 -3.9681 -2.0098 0.9730
5.5263 -3.4899 -2.0103 0.9730
6.2564 -1.9027 -2.0114 0.9730
6.4018 -1.3369 -2.0115 0.9730
6.5379 -0.1778 -2.0117 0.9730
6.5275 0.4062 -2.0116 0.9730
6.4647 0.9870 -2.0114 0.9730
5.3986 3.6794 -2.0095 0.9730
4.3016 4.2293 -1.8555 0.9751
3.9057 4.5946 -1.8548 0.9751
3.0245 5.2115 -1.8533 0.9751
1.5342 5.8187 -1.8509 0.9751
-0.0615 6.0089 -1.8483 0.9752
-0.5971 5.9766 -1.8474 0.9752
-1.6484 5.7701 -1.8458 0.9752
-2.1558 5.5976 -1.8450 0.9752
-2.6455 5.3807 -1.8442 0.9752
-3.5570 4.8211 -1.8428 0.9752
-5.0744 3.9964 -1.9867 0.9733
-5.4254 3.5373 -1.9921 0.9733
-6.4168 0.8457 -1.9907 0.9733
-6.4666 0.2697 -1.9907 0.9733
-6.4122 -0.8840 -1.9909 0.9733
-6.3084 -1.4528 -1.9911 0.9733
-5.9518 -2.5518 -1.9918 0.9733
-5.7016 -3.0734 -1.9922 0.9733
-5.0674 -4.0401 -1.9933 0.9732
-4.2715 -4.8798 -1.9947 0.9732
-3.3388 -5.5656 -1.9963 0.9732
-2.2983 -6.0757 -1.9980 0.9732
-1.7478 -6.2593 -1.9989 0.9732
-1.1829 -6.3933 -1.9998 0.9732
1.1304 -6.4150 -2.0035 0.9731
1.6991 -6.2914 -2.0044 0.9731
4.2588 -4.9498 -2.0084 0.9730
5.0739 -4.1166 -2.0097 0.9730
5.7275 -3.1507 -2.0106 0.9730
6.1984 -2.0832 -2.0113 0.9730
6.3602 -1.5220 -2.0115 0.9730
6.4710 -0.9485 -2.0116 0.9730
6.5300 -0.3673 -2.0117 0.9730
6.5366 0.2168 -2.0116 0.9730
6.0447 2.4885 -2.0106 0.9730
5.5035 3.5216 -2.0097 0.9730
5.1542 3.9885 -2.0046 0.9731
4.5137 4.1875 -1.8938 0.9746
3.6206 4.8205 -1.8543 0.9751
2.2118 5.6002 -1.8520 0.9751
1.7025 5.7726 -1.8512 0.9751
0.1128 6.0090 -1.8486 0.9752
-0.9562 5.9279 -1.8469 0.9752
-1.4806 5.8163 -1.8460 0.9752
-3.4161 4.9228 -1.8430 0.9752
-3.8404 4.5967 -1.8423 0.9752
-4.2338 4.2343 -1.8417 0.9753
-4.9083 4.1016 -1.9674 0.9736
-5.6281 3.2031 -1.9918 0.9733
-6.1057 2.1511 -1.9911 0.9733
-6.2726 1.5975 -1.9909 0.9733
-6.3897 1.0314 -1.9908 0.9733
-6.4561 0.4571 -1.9907 0.9733
-6.3476 -1.2692 -1.9910 0.9733
-6.2099 -1.8308 -1.9913 0.9733
-6.0229 -2.3780 -1.9917 0.9733
-5.7879 -2.9065 -1.9921 0.9733
-5.1819 -3.8911 -1.9932 0.9732
-3.9704 -5.1298 -1.9952 0.9732
-3.4983 -5.4657 -1.9960 0.9732
-1.9283 -6.2051 -1.9986 0.9732
-1.3676 -6.3553 -1.9995 0.9732
-0.7954 -6.4550 -2.0004 0.9731
-0.2164 -6.5032 -2.0014 0.9731
0.3649 -6.4997 -2.0023 0.9731
0.9438 -6.4442 -2.0032 0.9731
2.0760 -6.1793 -2.0050 0.9731
2.6202 -5.9720 -2.0059 0.9731
3.1439 -5.7167 -2.0067 0.9731
5.9079 -2.7999 -2.0109 0.9730
6.1351 -2.2619 -2.0112 0.9730
6.4407 -1.1357 -2.0116 0.9730
6.5114 0.6106 -2.0115 0.9730
6.4303 1.1890 -2.0114 0.9730
6.2978 1.7578 -2.0111 0.9730
6.1148 2.3124 -2.0108 0.9730
5.6038 3.3608 -2.0098 0.9730
5.2748 3.8425 -2.0073 0.9731
4.1665 4.3615 -1.8552 0.9751
2.8592 5.3030 -1.8531 0.9751
2.3736 5.5345 -1.8523 0.9751
1.8695 5.7217 -1.8514 0.9751
0.8220 5.9574 -1.8497 0.9751
-0.2497 6.0030 -1.8480 0.9752
-1.3116 5.8577 -1.8463 0.9752
-1.8282 5.7147 -1.8455 0.9752
-2.8124 5.2944 -1.8439 0.9752
-3.2724 5.0203 -1.8432 0.9752
-3.7059 4.7066 -1.8426 0.9752
-5.8102 2.8575 -1.9915 0.9733
-6.2238 1.7788 -1.9910 0.9733
-6.3572 1.2162 -1.9908 0.9733
-6.4401 0.6441 -1.9907 0.9733
-6.4719 0.0669 -1.9907 0.9733
-6.4523 -0.5108 -1.9908 0.9733
-6.3815 -1.0846 -1.9910 0.9733
-6.2601 -1.6499 -1.9912 0.9733
-6.0889 -2.2022 -1.9915 0.9733
-5.8693 -2.7373 -1.9919 0.9733
-5.6030 -3.2508 -1.9924 0.9733
-4.1170 -5.0119 -1.9950 0.9732
-3.1632 -5.6684 -1.9966 0.9732
-1.5511 -6.3120 -1.9992 0.9732
-0.9821 -6.4282 -2.0001 0.9732
1.8957 -6.2360 -2.0047 0.9731
3.9638 -5.1872 -2.0080 0.9730
4.4124 -4.8145 -2.0087 0.9730
5.2009 -3.9559 -2.0098 0.9730
5.8239 -2.9698 -2.0108 0.9730
6.0667 -2.4388 -2.0111 0.9730
6.4050 -1.3219 -2.0115 0.9730
6.4623 1.0021 -2.0114 0.9730
6.3464 1.5746 -2.0112 0.9730
5.9634 2.6765 -2.0105 0.9730
5.6994 3.1972 -2.0100 0.9730
3.8949 4.6037 -1.8548 0.9751
3.4672 4.9310 -1.8541 0.9751
2.9241 5.0659 -1.7991 0.9758
2.5335 5.4641 -1.8525 0.9751
0.9945 5.9319 -1.8500 0.9751
0.4611 5.9942 -1.8491 0.9752
-0.6111 5.9752 -1.8474 0.9752
-1.1413 5.8941 -1.8466 0.9752
-1.6619 5.7662 -1.8457 0.9752
-2.1689 5.5925 -1.8449 0.9752
-2.6581 5.3744 -1.8442 0.9752
-3.1258 5.1138 -1.8434 0.9752
-3.5683 4.8127 -1.8428 0.9752
-3.9821 4.4735 -1.8421 0.9752
-5.0842 3.9848 -1.9869 0.9733
-6.1699 1.9586 -1.9910 0.9733
-6.3194 1.4001 -1.9908 0.9733
-5.6944 -3.0867 -1.9923 0.9733
-5.3977 -3.5835 -1.9928 0.9733
-5.0579 -4.0520 -1.9934 0.9732
-3.3257 -5.5735 -1.9963 0.9732
-2.2841 -6.0811 -1.9980 0.9732
-0.5929 -6.4778 -2.0008 0.9731
-0.0125 -6.5079 -2.0017 0.9731
1.1455 -6.4124 -2.0035 0.9731
2.2690 -6.1122 -2.0053 0.9731
2.8065 -5.8878 -2.0062 0.9731
3.3220 -5.6162 -2.0070 0.9731
3.8113 -5.2993 -2.0077 0.9731
4.2704 -4.9399 -2.0084 0.9730
4.6957 -4.5406 -2.0091 0.9730
5.0836 -4.1047 -2.0097 0.9730
6.2033 -2.0687 -2.0113 0.9730
6.2392 1.9542 -2.0110 0.9730
5.4952 3.5345 -2.0096 0.9730
5.1443 4.0001 -2.0043 0.9731
4.0272 4.4894 -1.8550 0.9751
3.6092 4.8290 -1.8543 0.9751
1.1663 5.9015 -1.8503 0.9751
0.6348 5.9792 -1.8494 0.9752
-1.4942 5.8128 -1.8460 0.9752
-2.0061 5.6538 -1.8452 0.9752
-2.5015 5.4499 -1.8444 0.9752
-3.4277 4.9147 -1.8430 0.9752
-4.2437 4.2243 -1.8417 0.9753
-5.8966 2.6738 -1.9914 0.9733
-6.3921 1.0164 -1.9908 0.9733
-6.4571 0.4420 -1.9907 0.9733
-6.0173 -2.3921 -1.9917 0.9733
-5.4989 -3.4251 -1.9926 0.9733
-5.1728 -3.9032 -1.9932 0.9732
-4.8054 -4.3506 -1.9938 0.9732
-4.3996 -4.7637 -1.9945 0.9732
-3.9584 -5.1391 -1.9952 0.9732
-3.4855 -5.4740 -1.9960 0.9732
-2.9844 -5.7656 -1.9969 0.9732
-2.4591 -6.0115 -1.9977 0.9732
-1.9138 -6.2097 -1.9986 0.9732
-1.3527 -6.3586 -1.9995 0.9732
-0.7803 -6.4569 -2.0005 0.9731
0.3801 -6.4989 -2.0023 0.9731
2.6342 -5.9659 -2.0059 0.9731
4.9620 -4.2500 -2.0095 0.9730
5.9145 -2.7860 -2.0109 0.9730
6.3172 -1.6909 -2.0114 0.9730
6.4434 -1.1206 -2.0116 0.9730
6.1093 2.3267 -2.0107 0.9730
5.5959 3.3740 -2.0098 0.9730
4.1562 4.3712 -1.8552 0.9751
3.7482 4.7229 -1.8545 0.9751
2.8467 5.3096 -1.8530 0.9751
1.8561 5.7260 -1.8514 0.9751
0.2729 6.0047 -1.8488 0.9752
-0.7980 5.9521 -1.8471 0.9752
-2.8248 5.2877 -1.8439 0.9752
-4.1199 4.3460 -1.8419 0.9753
-4.6641 4.1136 -1.9128 0.9743
-5.5410 3.3522 -1.9919 0.9733
-5.8169 2.8439 -1.9915 0.9733
-5.8629 -2.7510 -1.9920 0.9733
-4.5353 -4.6335 -1.9943 0.9732
-2.6320 -5.9368 -1.9974 0.9732
-1.5363 -6.3157 -1.9992 0.9732
-0.9671 -6.4306 -2.0002 0.9732
-0.3896 -6.4943 -2.0011 0.9731
1.9103 -6.2317 -2.0048 0.9731
2.9901 -5.7978 -2.0065 0.9731
4.4237 -4.8042 -2.0087 0.9730
5.2102 -3.9437 -2.0099 0.9730
5.5427 -3.4640 -2.0104 0.9730
6.4994 -0.7300 -2.0116 0.9730
6.4599 1.0173 -2.0114 0.9730
6.1745 2.1487 -2.0109 0.9730
5.9570 2.6905 -2.0105 0.9730
5.6919 3.2105 -2.0100 0.9730
5.3812 3.7046 -2.0095 0.9730
4.2817 4.2494 -1.8554 0.9751
2.9028 5.0563 -1.7933 0.9759
1.5069 5.8257 -1.8508 0.9751
0.9806 5.9342 -1.8500 0.9751
0.4470 5.9952 -1.8491 0.9752
-0.0897 6.0084 -1.8482 0.9752
-1.1551 5.8913 -1.8465 0.9752
-2.6707 5.3681 -1.8442 0.9752
-3.1377 5.1064 -1.8434 0.9752
-3.5795 4.8042 -1.8427 0.9752
-5.0941 3.9733 -1.9871 0.9733
-6.4207 0.8156 -1.9907 0.9733
-6.4678 0.2394 -1.9907 0.9733
-6.4080 -0.9141 -1.9909 0.9733
-6.3016 -1.4824 -1.9911 0.9733
-5.0485 -4.0639 -1.9934 0.9732
-4.2487 -4.8998 -1.9947 0.9732
-2.8027 -5.8571 -1.9972 0.9732
-2.2699 -6.0865 -1.9980 0.9732
-1.7185 -6.2676 -1.9989 0.9732
-1.1529 -6.3989 -1.9999 0.9732
0.0027 -6.5080 -2.0017 0.9731
0.5837 -6.4848 -2.0027 0.9731
1.1605 -6.4098 -2.0036 0.9731
1.7286 -6.2835 -2.0045 0.9731
2.8203 -5.8813 -2.0062 0.9731
3.3352 -5.6084 -2.0070 0.9731
4.2820 -4.9299 -2.0085 0.9730
5.0932 -4.0928 -2.0097 0.9730
5.9992 -2.5995 -2.0110 0.9730
6.2081 -2.0541 -2.0113 0.9730
6.3673 -1.4921 -2.0115 0.9730
6.4754 -0.9181 -2.0116 0.9730
6.5355 0.2475 -2.0116 0.9730
6.3864 1.4049 -2.0113 0.9730
6.0329 2.5168 -2.0106 0.9730
5.7830 3.0444 -2.0102 0.9730
5.1344 4.0117 -2.0041 0.9731
3.5978 4.8374 -1.8543 0.9751
2.1855 5.6104 -1.8519 0.9751
1.1524 5.9041 -1.8503 0.9751
-0.4517 5.9901 -1.8477 0.9752
-0.9839 5.9232 -1.8468 0.9752
-2.0193 5.6490 -1.8452 0.9752
-2.9887 5.1959 -1.8437 0.9752
-4.9527 4.0994 -1.9775 0.9735
-5.3372 3.6676 -1.9918 0.9733
-5.6429 3.1767 -1.9918 0.9733
-5.9028 2.6600 -1.9914 0.9733
-6.2800 1.5681 -1.9909 0.9733
-6.4581 0.4269 -1.9907 0.9733
-6.3417 -1.2990 -1.9911 0.9733
-6.2013 -1.8599 -1.9913 0.9733
4.4544 -4.0833 -2.0087 0.9749
5.1118 -3.2281 -2.0096 0.9748
5.6061 -2.2689 -2.0103 0.9748
5.7869 -1.7599 -2.0106 0.9748
5.9214 -1.2366 -2.0108 0.9748
6.0472 -0.1645 -2.0109 0.9748
6.0376 0.3758 -2.0108 0.9748
5.9795 0.9129 -2.0107 0.9748
5.7206 1.9607 -2.0102 0.9748
4.9938 3.4035 -2.0089 0.9748
3.6131 4.2504 -1.8544 0.9768
3.2183 4.5542 -1.8537 0.9768
2.3558 5.0498 -1.8523 0.9768
1.8950 5.2378 -1.8515 0.9768
1.4195 5.3837 -1.8507 0.9768
0.9331 5.4865 -1.8499 0.9768
0.4396 5.5455 -1.8491 0.9768
-1.5255 5.3398 -1.8460 0.9769
-1.9951 5.1803 -1.8453 0.9769
-2.8819 4.7397 -1.8439 0.9769
-3.2922 4.4621 -1.8432 0.9769
-3.6760 4.1492 -1.8427 0.9769
-4.3456 4.1010 -1.9862 0.9751
-4.7085 3.7082 -1.9922 0.9751
-5.2930 2.8125 -1.9924 0.9751
-5.5219 2.3286 -1.9920 0.9751
-5.8466 1.3097 -1.9916 0.9751
-5.9859 0.2497 -1.9915 0.9751
-5.9355 -0.8183 -1.9917 0.9751
-5.6969 -1.8607 -1.9921 0.9751
-5.2775 -2.8448 -1.9929 0.9750
-4.6903 -3.7394 -1.9939 0.9750
-3.0900 -5.1509 -1.9966 0.9750
-2.6191 -5.4081 -1.9974 0.9750
-2.1269 -5.6225 -1.9982 0.9750
-1.6174 -5.7923 -1.9991 0.9750
-1.0946 -5.9160 -1.9999 0.9750
-0.5626 -5.9927 -2.0008 0.9749
0.5119 -6.0025 -2.0025 0.9749
1.0459 -5.9354 -2.0033 0.9749
1.5720 -5.8208 -2.0042 0.9749
2.0859 -5.6596 -2.0050 0.9749
3.0610 -5.2027 -2.0065 0.9749
3.9396 -4.5789 -2.0079 0.9749
4.3338 -4.2104 -2.0085 0.9749
4.6934 -3.8079 -2.0090 0.9748
5.2979 -2.9143 -2.0099 0.9748
5.7333 -1.9269 -2.0105 0.9748
6.0460 0.2005 -2.0108 0.9748
6.0037 0.7392 -2.0107 0.9748
5.3625 2.7910 -2.0095 0.9748
5.0909 3.2576 -2.0090 0.9748
4.7786 3.6978 -2.0085 0.9749
3.3494 4.4595 -1.8539 0.9768
2.9371 4.7388 -1.8532 0.9768
1.5752 5.3410 -1.8510 0.9768
1.0919 5.4579 -1.8502 0.9768
0.6003 5.5312 -1.8494 0.9768
0.1044 5.5603 -1.8486 0.9768
-0.3920 5.5450 -1.8478 0.9768
-0.8848 5.4856 -1.8470 0.9769
-2.3033 5.0493 -1.8448 0.9769
-3.1617 4.5562 -1.8434 0.9769
-3.5545 4.2545 -1.8428 0.9769
-4.5943 3.8393 -1.9902 0.9751
-4.9252 3.4186 -1.9929 0.9750
-5.2095 2.9649 -1.9925 0.9750
-5.4523 2.4878 -1.9921 0.9751
-5.8063 1.4788 -1.9917 0.9751
-5.9147 0.9547 -1.9915 0.9751
-5.9902 -0.1118 -1.9915 0.9751
-5.7482 -1.6947 -1.9920 0.9751
-5.3574 -2.6903 -1.9928 0.9750
-4.7963 -3.6015 -1.9937 0.9750
-4.0823 -4.3994 -1.9950 0.9750
-3.6747 -4.7477 -1.9957 0.9750
-2.7744 -5.3292 -1.9972 0.9750
-2.2888 -5.5578 -1.9980 0.9750
-1.7845 -5.7422 -1.9988 0.9750
-1.2655 -5.8810 -1.9996 0.9750
-0.7361 -5.9730 -2.0005 0.9750
-0.2003 -6.0175 -2.0014 0.9749
3.3700 -5.0098 -2.0070 0.9749
4.2095 -4.3338 -2.0083 0.9749
5.4646 -2.5898 -2.0101 0.9748
5.6748 -2.0922 -2.0104 0.9748
6.0275 -0.5147 -2.0109 0.9748
5.1836 3.1088 -2.0092 0.9748
4.5363 3.9700 -2.0038 0.9749
3.9916 4.1785 -1.9208 0.9759
3.4777 4.3610 -1.8541 0.9768
2.6452 4.9061 -1.8527 0.9768
2.1960 5.1205 -1.8520 0.9768
1.7297 5.2938 -1.8512 0.9768
0.7606 5.5122 -1.8497 0.9768
0.2656 5.5557 -1.8489 0.9768
-0.2311 5.5549 -1.8481 0.9768
-1.2137 5.4207 -1.8465 0.9769
-1.6919 5.2886 -1.8457 0.9769
-2.1561 5.1146 -1.8450 0.9769
-3.0287 4.6465 -1.8436 0.9769
-3.4300 4.3562 -1.8430 0.9769
-5.1217 3.1149 -1.9926 0.9750
-5.5919 2.1543 -1.9920 0.9751
-5.7612 1.6465 -1.9917 0.9751
-5.9072 -1.0040 -1.9917 0.9751
-5.7947 -1.5272 -1.9920 0.9751
-5.6361 -2.0385 -1.9923 0.9751
-5.4328 -2.5337 -1.9926 0.9750
-5.1862 -3.0090 -1.9931 0.9750
-3.8104 -4.6386 -1.9954 0.9750
-3.3825 -4.9619 -1.9961 0.9750
-2.9274 -5.2459 -1.9969 0.9750
-2.4486 -5.4883 -1.9977 0.9750
-1.9500 -5.6873 -1.9985 0.9750
-1.4353 -5.8410 -1.9993 0.9750
-0.9088 -5.9483 -2.0002 0.9750
-0.3746 -6.0083 -2.0011 0.9749
0.6999 -5.9844 -2.0028 0.9749
2.2626 -5.5922 -2.0053 0.9749
3.2229 -5.1048 -2.0068 0.9749
4.0817 -4.4536 -2.0081 0.9749
4.4640 -4.0729 -2.0087 0.9748
4.8109 -3.6593 -2.0092 0.9748
5.1194 -3.2161 -2.0096 0.9748
5.6115 -2.2558 -2.0104 0.9748
5.9243 -1.2227 -2.0108 0.9748
6.0367 0.3899 -2.0108 0.9748
5.9774 0.9269 -2.0107 0.9748
5.8702 1.4564 -2.0104 0.9748
5.5160 2.4758 -2.0098 0.9748
5.2720 2.9574 -2.0093 0.9748
4.9858 3.4152 -2.0088 0.9748
0.9202 5.4886 -1.8499 0.9768
-1.0562 5.4544 -1.8467 0.9769
-1.5380 5.3362 -1.8460 0.9769
-2.4600 4.9739 -1.8445 0.9769
-3.3026 4.4543 -1.8432 0.9769
-3.6857 4.1406 -1.8426 0.9769
-4.3555 4.0911 -1.9863 0.9751
-4.7176 3.6975 -1.9924 0.9751
-5.0296 3.2624 -1.9928 0.9750
-5.5273 2.3156 -1.9920 0.9751
-5.8497 1.2960 -1.9916 0.9751
-5.9417 0.7689 -1.9915 0.9751
-5.9865 0.2356 -1.9915 0.9751
-5.8363 -1.3585 -1.9919 0.9751
-5.6926 -1.8741 -1.9922 0.9751
-5.5036 -2.3749 -1.9925 0.9750
-5.2709 -2.8571 -1.9929 0.9750
-4.9961 -3.3169 -1.9934 0.9750
-4.3295 -4.1544 -1.9945 0.9750
-3.0779 -5.1582 -1.9966 0.9750
-1.6039 -5.7962 -1.9991 0.9750
-0.5486 -5.9941 -2.0008 0.9749
0.5260 -6.0013 -2.0025 0.9749
1.0598 -5.9330 -2.0034 0.9749
3.0732 -5.1956 -2.0065 0.9749
3.9504 -4.5697 -2.0079 0.9749
4.3437 -4.2002 -2.0085 0.9749
4.7024 -3.7969 -2.0090 0.9748
5.0236 -3.3630 -2.0095 0.9748
5.3047 -2.9019 -2.0099 0.9748
5.7378 -1.9134 -2.0105 0.9748
5.8862 -1.3940 -2.0107 0.9748
5.9874 -0.8632 -2.0108 0.9748
6.0455 0.2147 -2.0108 0.9748
5.9102 1.2856 -2.0105 0.9748
5.7711 1.8076 -2.0102 0.9748
5.3559 2.8035 -2.0095 0.9748
5.0832 3.2695 -2.0090 0.9748
4.4041 4.1050 -2.0013 0.9749
2.0342 5.1860 -1.8517 0.9768
1.0791 5.4604 -1.8502 0.9768
-0.4050 5.5441 -1.8478 0.9768
-0.8977 5.4835 -1.8470 0.9769
-1.3828 5.3792 -1.8462 0.9769
-2.7548 4.8153 -1.8441 0.9769
-3.1724 4.5487 -1.8434 0.9769
-3.5644 4.2461 -1.8428 0.9769
-4.1319 4.1130 -1.9379 0.9757
-5.2164 2.9527 -1.9925 0.9751
-5.6564 1.9779 -1.9919 0.9751
-5.8098 1.4651 -1.9917 0.9751
-5.9169 0.9408 -1.9915 0.9751
-5.9771 0.4091 -1.9915 0.9751
-5.9551 -0.6598 -1.9916 0.9751
-5.8730 -1.1886 -1.9918 0.9751
-5.3511 -2.7029 -1.9928 0.9750
-4.4477 -4.0268 -1.9943 0.9750
-3.6636 -4.7563 -1.9957 0.9750
-2.7619 -5.3358 -1.9972 0.9750
-2.2757 -5.5632 -1.9980 0.9750
-0.1861 -6.0180 -2.0014 0.9749
0.3517 -6.0132 -2.0022 0.9749
1.9341 -5.7125 -2.0048 0.9749
3.3817 -5.0019 -2.0070 0.9749
4.5899 -3.9313 -2.0089 0.9748
4.9236 -3.5070 -2.0094 0.9748
5.6797 -2.0789 -2.0104 0.9748
6.0287 -0.5006 -2.0109 0.9748
6.0214 0.5789 -2.0108 0.9748
5.4353 2.6472 -2.0096 0.9748
5.1763 3.1210 -2.0092 0.9748
1.7173 5.2978 -1.8512 0.9768
1.2372 5.4276 -1.8504 0.9768
-0.7384 5.5080 -1.8473 0.9768
-1.7042 5.2846 -1.8457 0.9769
-2.1681 5.1094 -1.8450 0.9769
-3.0395 4.6393 -1.8436 0.9769
-3.4402 4.3481 -1.8430 0.9769
-4.4863 3.9567 -1.9884 0.9751
-5.5969 2.1411 -1.9919 0.9751
-5.7650 1.6330 -1.9917 0.9751
-5.8873 1.1120 -1.9916 0.9751
-5.9716 -0.4868 -1.9916 0.9751
-5.9048 -1.0178 -1.9917 0.9751
-5.4269 -2.5464 -1.9926 0.9750
-5.1791 -3.0212 -1.9931 0.9750
-4.8902 -3.4721 -1.9936 0.9750
-4.5621 -3.8957 -1.9941 0.9750
-3.3709 -4.9698 -1.9962 0.9750
-2.4357 -5.4941 -1.9977 0.9750
-0.8949 -5.9505 -2.0002 0.9750
0.1772 -6.0200 -2.0020 0.9749
0.7139 -5.9828 -2.0028 0.9749
1.7674 -5.7654 -2.0045 0.9749
2.7662 -5.3637 -2.0061 0.9749
3.2349 -5.0973 -2.0068 0.9749
4.8195 -3.6480 -2.0092 0.9748
5.1269 -3.2041 -2.0097 0.9748
5.3934 -2.7344 -2.0100 0.9748
5.9271 -1.2088 -2.0108 0.9748
5.5102 2.4887 -2.0098 0.9748
5.2650 2.9698 -2.0093 0.9748
4.9778 3.4268 -2.0088 0.9748
4.6456 3.8519 -2.0060 0.9749
4.2030 4.1713 -1.9684 0.9753
3.1969 4.5692 -1.8537 0.9768
2.3320 5.0607 -1.8522 0.9768
1.8704 5.2465 -1.8515 0.9768
0.9073 5.4907 -1.8499 0.9768
-2.4717 4.9681 -1.8445 0.9769
-2.9040 4.7260 -1.8438 0.9769
-3.3130 4.4465 -1.8432 0.9769
-3.7005 4.1376 -1.8452 0.9769
-5.0372 3.2505 -1.9927 0.9750
-5.8527 1.2823 -1.9916 0.9751
-5.9870 0.2216 -1.9915 0.9751
-5.9831 -0.3135 -1.9915 0.9751
-5.9317 -0.8462 -1.9917 0.9751
-5.6882 -1.8874 -1.9922 0.9751
-5.2642 -2.8695 -1.9929 0.9750
-4.9884 -3.3286 -1.9934 0.9750
-4.6727 -3.7614 -1.9940 0.9750
-4.3198 -4.1646 -1.9946 0.9750
-3.5132 -4.8694 -1.9959 0.9750
-2.5937 -5.4205 -1.9974 0.9750
-1.5903 -5.8000 -1.9991 0.9750
-1.0669 -5.9212 -1.9999 0.9750
-0.5345 -5.9954 -2.0008 0.9749
2.1125 -5.6499 -2.0050 0.9749
3.5373 -4.8941 -2.0073 0.9749
4.3536 -4.1900 -2.0085 0.9749
4.7113 -3.7859 -2.0090 0.9748
5.0315 -3.3512 -2.0095 0.9748
5.5491 -2.4044 -2.0103 0.9748
5.7423 -1.9000 -2.0105 0.9748
5.8894 -1.3802 -2.0107 0.9748
5.9894 -0.8492 -2.0108 0.9748
6.0414 -0.3114 -2.0109 0.9748
6.0450 0.2289 -2.0108 0.9748
5.9071 1.2995 -2.0105 0.9748
5.0755 3.2813 -2.0090 0.9748
3.3284 4.4751 -1.8539 0.9768
2.9147 4.7525 -1.8532 0.9768
1.5501 5.3482 -1.8509 0.9768
0.5744 5.5338 -1.8494 0.9768
0.0783 5.5606 -1.8486 0.9768
-0.9105 5.4813 -1.8470 0.9769
-1.3954 5.3759 -1.8462 0.9769
-1.8687 5.2279 -1.8455 0.9769
-3.1830 4.5412 -1.8434 0.9769
-4.1504 4.1121 -1.9421 0.9757
-4.6130 3.8183 -1.9905 0.9751
-4.9411 3.3955 -1.9929 0.9750
-5.4639 2.4622 -1.9921 0.9751
-5.9191 0.9270 -1.9915 0.9751
-5.9781 0.3951 -1.9915 0.9751
-5.8702 -1.2024 -1.9918 0.9751
-5.7402 -1.7216 -1.9921 0.9751
4.4626 -3.4109 -2.0086 0.9764
4.9997 -2.5644 -2.0094 0.9764
5.5830 -0.6536 -2.0102 0.9764
5.6102 0.3492 -2.0101 0.9764
5.5563 0.8483 -2.0100 0.9764
5.1311 2.2886 -2.0092 0.9764
4.9055 2.7367 -2.0088 0.9764
3.9952 3.9280 -2.0036 0.9765
3.5434 4.1684 -1.9565 0.9770
2.6005 4.4809 -1.8527 0.9782
1.7613 4.8682 -1.8513 0.9782
0.8673 5.0997 -1.8499 0.9783
0.4086 5.1547 -1.8491 0.9783
-0.9699 5.0728 -1.8469 0.9783
-1.4181 4.9641 -1.8462 0.9783
-1.8547 4.8159 -1.8455 0.9783
-2.2762 4.6296 -1.8449 0.9783
-2.6793 4.4065 -1.8442 0.9783
-3.0608 4.1485 -1.8436 0.9783
-4.3801 3.4495 -1.9938 0.9766
-4.6694 3.0443 -1.9934 0.9766
-4.9215 2.6150 -1.9930 0.9766
-5.1344 2.1652 -1.9927 0.9766
-5.4364 1.2178 -1.9923 0.9766
-5.5231 0.7279 -1.9922 0.9766
-5.5646 -0.2654 -1.9922 0.9766
-5.5191 -0.7609 -1.9923 0.9766
-5.4297 -1.2504 -1.9925 0.9766
-4.9070 -2.6450 -1.9935 0.9766
-4.0343 -3.8531 -1.9950 0.9766
-3.6756 -4.1990 -1.9956 0.9766
-3.2873 -4.5117 -1.9963 0.9766
-1.9772 -5.2268 -1.9984 0.9765
-1.5036 -5.3845 -1.9992 0.9765
-0.5230 -5.5704 -2.0008 0.9765
-0.0239 -5.5971 -2.0016 0.9765
0.4758 -5.5792 -2.0024 0.9765
1.9387 -5.2600 -2.0047 0.9765
3.6611 -4.2552 -2.0074 0.9764
4.3615 -3.5386 -2.0085 0.9764
5.1458 -2.2584 -2.0096 0.9764
5.3275 -1.7905 -2.0099 0.9764
5.5617 -0.8152 -2.0101 0.9764
5.6180 0.1863 -2.0101 0.9764
5.5787 0.6868 -2.0100 0.9764
5.3666 1.6671 -2.0096 0.9764
4.9831 2.5935 -2.0089 0.9764
4.7308 3.0272 -2.0085 0.9764
4.1118 3.8146 -2.0057 0.9765
3.7430 4.1529 -1.9993 0.9765
2.7296 4.4042 -1.8529 0.9782
1.9020 4.8156 -1.8516 0.9782
1.0149 5.0730 -1.8501 0.9783
0.5580 5.1413 -1.8494 0.9783
0.0970 5.1685 -1.8486 0.9783
-0.8225 5.0994 -1.8472 0.9783
-1.2738 5.0037 -1.8464 0.9783
-2.1413 4.6942 -1.8451 0.9783
-2.5507 4.4828 -1.8444 0.9783
-4.2785 3.5754 -1.9939 0.9766
-4.5795 3.1786 -1.9935 0.9766
-5.0697 2.3132 -1.9928 0.9766
-5.2552 1.8514 -1.9925 0.9766
-5.3989 1.3750 -1.9923 0.9766
-5.4998 0.8877 -1.9922 0.9766
-5.5699 -0.1039 -1.9922 0.9766
-5.5387 -0.6005 -1.9923 0.9766
-5.4635 -1.0924 -1.9924 0.9766
-5.3448 -1.5757 -1.9927 0.9766
-5.1837 -2.0467 -1.9930 0.9766
-4.9813 -2.5015 -1.9933 0.9766
-4.7393 -2.9366 -1.9938 0.9766
-4.4594 -3.3486 -1.9943 0.9766
-4.1440 -3.7341 -1.9948 0.9766
-3.4164 -4.4140 -1.9960 0.9766
-3.0099 -4.7028 -1.9967 0.9766
-2.1277 -5.1667 -1.9982 0.9765
-1.6588 -5.3380 -1.9989 0.9765
-1.1764 -5.4668 -1.9997 0.9765
-0.6842 -5.5522 -2.0005 0.9765
0.8116 -5.5418 -2.0029 0.9765
1.3034 -5.4494 -2.0037 0.9765
3.9118 -4.0274 -2.0078 0.9764
4.8421 -2.8496 -2.0092 0.9764
5.2731 -1.9441 -2.0098 0.9764
5.4261 -1.4660 -2.0100 0.9764
5.6008 -0.4783 -2.0102 0.9764
5.4129 1.5109 -2.0097 0.9764
4.5389 3.3064 -2.0081 0.9764
3.8658 4.0467 -2.0013 0.9765
3.3297 4.1754 -1.9098 0.9776
2.8565 4.3237 -1.8531 0.9782
1.6077 4.9203 -1.8511 0.9783
-0.2148 5.1636 -1.8481 0.9783
-0.6744 5.1218 -1.8474 0.9783
-1.1283 5.0392 -1.8467 0.9783
-1.5728 4.9165 -1.8460 0.9783
-2.4199 4.5554 -1.8446 0.9783
-3.2523 4.1305 -1.8800 0.9779
-5.3570 1.5310 -1.9924 0.9766
-5.5432 0.5544 -1.9922 0.9766
-5.4927 -0.9335 -1.9924 0.9766
-4.5543 -3.2176 -1.9941 0.9766
-3.9120 -3.9781 -1.9952 0.9766
-3.5426 -4.3126 -1.9958 0.9766
-3.1447 -4.6130 -1.9965 0.9766
-2.7215 -4.8769 -1.9972 0.9766
-2.2763 -5.1022 -1.9979 0.9765
-1.3342 -5.4297 -1.9995 0.9765
1.6301 -5.3623 -2.0042 0.9765
2.1028 -5.1974 -2.0050 0.9765
2.5591 -4.9908 -2.0057 0.9765
3.4077 -4.4594 -2.0070 0.9764
4.1483 -3.7848 -2.0081 0.9764
5.0058 -2.5527 -2.0094 0.9764
5.2143 -2.0961 -2.0097 0.9764
5.3812 -1.6227 -2.0099 0.9764
5.6195 -0.1396 -2.0102 0.9764
5.4547 1.3533 -2.0098 0.9764
5.1257 2.3006 -2.0092 0.9764
4.6332 3.1736 -2.0083 0.9764
4.3304 3.5735 -2.0078 0.9764
3.9856 3.9370 -2.0034 0.9765
2.9810 4.2395 -1.8533 0.9782
2.5899 4.4870 -1.8527 0.9782
1.3076 5.0070 -1.8506 0.9783
0.8553 5.1017 -1.8498 0.9783
0.3966 5.1556 -1.8491 0.9783
-0.0650 5.1683 -1.8484 0.9783
-0.5257 5.1398 -1.8476 0.9783
-0.9818 5.0704 -1.8469 0.9783
-1.4298 4.9607 -1.8462 0.9783
-3.0722 4.1437 -1.8447 0.9783
-3.6594 4.1110 -1.9682 0.9769
-4.3881 3.4392 -1.9938 0.9766
-4.6765 3.0333 -1.9933 0.9766
-4.9276 2.6035 -1.9930 0.9766
-5.1395 2.1531 -1.9927 0.9766
-5.5248 0.7149 -1.9922 0.9766
-5.5173 -0.7738 -1.9923 0.9766
-5.2931 -1.7426 -1.9928 0.9766
-5.1173 -2.2082 -1.9931 0.9766
-4.9008 -2.6566 -1.9935 0.9766
-4.3527 -3.4870 -1.9944 0.9766
-4.0253 -3.8626 -1.9950 0.9766
-2.8614 -4.7954 -1.9970 0.9766
-0.5099 -5.5717 -2.0008 0.9765
0.9851 -5.5144 -2.0032 0.9765
1.4737 -5.4066 -2.0040 0.9765
1.9510 -5.2555 -2.0047 0.9765
2.4130 -5.0623 -2.0055 0.9765
2.8561 -4.8285 -2.0062 0.9765
3.2766 -4.5559 -2.0068 0.9764
4.3698 -3.5283 -2.0085 0.9764
5.1511 -2.2463 -2.0096 0.9764
5.3317 -1.7780 -2.0099 0.9764
5.4695 -1.2953 -2.0100 0.9764
5.5636 -0.8021 -2.0101 0.9764
5.6176 0.1995 -2.0101 0.9764
5.1906 2.1511 -2.0093 0.9764
4.9770 2.6052 -2.0089 0.9764
4.7237 3.0382 -2.0085 0.9764
4.4326 3.4467 -2.0079 0.9764
3.7330 4.1614 -1.9991 0.9765
2.3141 4.6339 -1.8522 0.9782
0.0849 5.1687 -1.8486 0.9783
-1.7259 4.8642 -1.8457 0.9783
-2.1523 4.6891 -1.8451 0.9783
-2.5612 4.4768 -1.8444 0.9783
-3.4592 4.1208 -1.9240 0.9774
-3.9436 3.9256 -1.9899 0.9766
-4.2869 3.5653 -1.9939 0.9766
-4.5869 3.1679 -1.9935 0.9766
-5.0751 2.3013 -1.9928 0.9766
-5.2595 1.8391 -1.9925 0.9766
-5.4021 1.3623 -1.9923 0.9766
-5.5018 0.8748 -1.9922 0.9766
-5.5578 0.3804 -1.9922 0.9766
-5.5697 -0.1170 -1.9922 0.9766
-5.5373 -0.6135 -1.9923 0.9766
-5.4609 -1.1052 -1.9925 0.9766
-5.3411 -1.5883 -1.9927 0.9766
-5.1789 -2.0588 -1.9930 0.9766
-4.7324 -2.9477 -1.9938 0.9766
-4.4516 -3.3590 -1.9943 0.9766
-4.1352 -3.7439 -1.9948 0.9766
-3.7858 -4.0991 -1.9954 0.9766
-3.4061 -4.4220 -1.9961 0.9766
-2.5677 -4.9604 -1.9974 0.9766
-2.1156 -5.1717 -1.9982 0.9765
-1.6463 -5.3419 -1.9990 0.9765
-1.1636 -5.4696 -1.9998 0.9765
-0.6712 -5.5539 -2.0006 0.9765
0.3269 -5.5892 -2.0022 0.9765
0.8246 -5.5400 -2.0030 0.9765
1.3162 -5.4464 -2.0037 0.9765
2.2650 -5.1296 -2.0052 0.9765
2.7146 -4.9087 -2.0059 0.9765
3.9213 -4.0183 -2.0078 0.9764
4.2653 -3.6533 -2.0083 0.9764
5.4295 -1.4533 -2.0100 0.9764
5.5379 -0.9631 -2.0101 0.9764
5.6019 -0.4651 -2.0102 0.9764
5.6210 0.0365 -2.0102 0.9764
5.5244 1.0349 -2.0099 0.9764
5.2511 1.9998 -2.0094 0.9764
4.8101 2.9002 -2.0086 0.9764
2.0299 4.7638 -1.8518 0.9782
1.5961 4.9240 -1.8511 0.9783
1.1499 5.0448 -1.8503 0.9783
0.6949 5.1252 -1.8496 0.9783
0.2348 5.1647 -1.8488 0.9783
-0.2269 5.1630 -1.8481 0.9783
-1.1401 5.0365 -1.8466 0.9783
-1.5843 4.9128 -1.8459 0.9783
-2.8259 4.3132 -1.8440 0.9783
-3.2674 4.1298 -1.8832 0.9779
-4.1808 3.6874 -1.9935 0.9766
-5.2042 1.9909 -1.9926 0.9766
-5.5526 -0.4527 -1.9922 0.9766
-5.4905 -0.9464 -1.9924 0.9766
-5.2362 -1.9077 -1.9929 0.9766
-5.0459 -2.3677 -1.9932 0.9766
-4.5467 -3.2283 -1.9941 0.9766
-4.2417 -3.6221 -1.9946 0.9766
-3.5325 -4.3209 -1.9958 0.9766
-3.1339 -4.6204 -1.9965 0.9766
-2.2644 -5.1076 -1.9980 0.9765
-1.8003 -5.2912 -1.9987 0.9765
-0.8318 -5.5313 -2.0003 0.9765
0.1647 -5.5956 -2.0019 0.9765
1.1575 -5.4816 -2.0035 0.9765
1.6427 -5.3585 -2.0043 0.9765
2.1150 -5.1925 -2.0050 0.9765
3.4181 -4.4514 -2.0070 0.9764
4.1572 -3.7751 -2.0082 0.9764
4.4786 -3.3900 -2.0086 0.9764
4.7642 -2.9774 -2.0091 0.9764
5.0117 -2.5409 -2.0094 0.9764
5.2192 -2.0839 -2.0097 0.9764
5.6198 -0.1265 -2.0102 0.9764
5.6085 0.3755 -2.0101 0.9764
5.4515 1.3661 -2.0098 0.9764
5.1203 2.3126 -2.0092 0.9764
4.8925 2.7597 -2.0087 0.9764
4.6257 3.1845 -2.0083 0.9764
4.3220 3.5836 -2.0078 0.9764
3.9760 3.9460 -2.0032 0.9765
3.5108 4.1695 -1.9492 0.9771
2.9710 4.2464 -1.8533 0.9782
2.1674 4.7035 -1.8520 0.9782
-0.5377 5.1385 -1.8476 0.9783
-1.8773 4.8071 -1.8455 0.9783
-2.6999 4.3938 -1.8442 0.9783
-3.0857 4.1414 -1.8469 0.9783
-3.6760 4.1102 -1.9719 0.9768
-4.0685 3.8036 -1.9917 0.9766
-4.3962 3.4289 -1.9938 0.9766
-4.6836 3.0224 -1.9933 0.9766
-4.9337 2.5919 -1.9930 0.9766
-5.4420 1.1923 -1.9923 0.9766
-5.5265 0.7020 -1.9922 0.9766
-5.5670 0.2061 -1.9922 0.9766
-5.2890 -1.7550 -1.9928 0.9766
-3.6559 -4.2162 -1.9956 0.9766
-3.2662 -4.5271 -1.9963 0.9766
-2.4112 -5.0391 -1.9977 0.9765
-1.9527 -5.2362 -1.9985 0.9765
-0.9917 -5.5042 -2.0000 0.9765
-0.4969 -5.5730 -2.0008 0.9765
0.5020 -5.5770 -2.0024 0.9765
1.9633 -5.2510 -2.0048 0.9765
2.4249 -5.0567 -2.0055 0.9765
3.2873 -4.5482 -2.0068 0.9764
4.0457 -3.8937 -2.0080 0.9764
4.9357 -2.6850 -2.0093 0.9764
5.1564 -2.2343 -2.0096 0.9764
5.6137 -0.2894 -2.0102 0.9764
5.3587 1.6923 -2.0096 0.9764
4.4245 3.4571 -2.0079 0.9764
2.7089 4.4168 -1.8529 0.9782
0.9911 5.0776 -1.8501 0.9783
-0.3886 5.1526 -1.8478 0.9783
-1.2972 4.9976 -1.8464 0.9783
-1.7373 4.8601 -1.8457 0.9783
-2.1632 4.6840 -1.8450 0.9783
-2.5716 4.4707 -1.8444 0.9783
-3.9531 3.9166 -1.9900 0.9766
-4.2952 3.5552 -1.9939 0.9766
-4.5943 3.1571 -1.9935 0.9766
-4.8567 2.7340 -1.9931 0.9766
-5.2638 1.8268 -1.9925 0.9766
-5.4053 1.3497 -1.9923 0.9766
-5.5038 0.8619 -1.9922 0.9766
-5.5587 0.3674 -1.9922 0.9766
-5.5694 -0.1301 -1.9922 0.9766
-5.5358 -0.6265 -1.9923 0.9766
-5.4583 -1.1181 -1.9925 0.9766
-5.3374 -1.6008 -1.9927 0.9766
3.8619 -3.5401 -2.0077 0.9778
4.1633 -3.1821 -2.0081 0.9778
4.6643 -2.3923 -2.0088 0.9778
5.1330 -1.0719 -2.0095 0.9778
5.2083 -0.6097 -2.0096 0.9778
5.2420 -0.1426 -2.0096 0.9778
5.0917 1.2506 -2.0092 0.9778
4.3295 2.9507 -2.0078 0.9778
4.0479 3.3244 -2.0073 0.9778
3.3830 3.9797 -2.0016 0.9779
2.9427 4.1643 -1.9541 0.9784
2.4281 4.1840 -1.8538 0.9795
2.0429 4.3792 -1.8518 0.9795
1.2311 4.6692 -1.8505 0.9795
0.8093 4.7587 -1.8498 0.9795
0.3813 4.8101 -1.8491 0.9795
-0.0494 4.8232 -1.8484 0.9796
-1.3235 4.6328 -1.8464 0.9796
-3.0377 4.1172 -1.9608 0.9783
-3.7856 3.5726 -1.9947 0.9779
-4.0883 3.2198 -1.9943 0.9780
-4.7926 2.0210 -1.9932 0.9780
-5.1555 0.6794 -1.9928 0.9780
-5.1956 0.2167 -1.9928 0.9780
-5.1517 -0.7102 -1.9929 0.9780
-5.0683 -1.1672 -1.9931 0.9780
-4.7814 -2.0500 -1.9936 0.9780
-4.5802 -2.4689 -1.9940 0.9780
-4.3426 -2.8683 -1.9944 0.9780
-3.4306 -3.9191 -1.9960 0.9779
-3.0681 -4.2108 -1.9966 0.9779
-2.2723 -4.6922 -1.9979 0.9779
-1.4032 -5.0250 -1.9993 0.9779
-0.9496 -5.1320 -2.0001 0.9779
-0.4880 -5.1982 -2.0008 0.9779
-0.0223 -5.2230 -2.0016 0.9779
0.4440 -5.2061 -2.0023 0.9779
0.9071 -5.1476 -2.0031 0.9779
1.8089 -4.9079 -2.0045 0.9778
2.2403 -4.7285 -2.0052 0.9778
2.6542 -4.5112 -2.0058 0.9778
3.0470 -4.2577 -2.0064 0.9778
3.4157 -3.9700 -2.0070 0.9778
4.3482 -2.9256 -2.0084 0.9778
4.8006 -2.1069 -2.0090 0.9778
5.0996 -1.2203 -2.0094 0.9778
5.1884 -0.7605 -2.0095 0.9778
5.2357 -0.2945 -2.0096 0.9778
5.0065 1.5552 -2.0090 0.9778
4.4135 2.8242 -2.0080 0.9778
4.1430 3.2059 -2.0075 0.9778
3.5002 3.8835 -2.0035 0.9779
3.1233 4.1585 -1.9930 0.9780
2.5875 4.1748 -1.8822 0.9792
2.1693 4.3186 -1.8520 0.9795
1.7747 4.4934 -1.8514 0.9795
1.3662 4.6321 -1.8507 0.9795
0.9471 4.7338 -1.8500 0.9795
0.5207 4.7976 -1.8493 0.9795
0.0905 4.8232 -1.8486 0.9795
-1.6001 4.5435 -1.8460 0.9796
-1.9984 4.3811 -1.8453 0.9796
-2.3806 4.1839 -1.8447 0.9796
-3.3293 3.9849 -1.9899 0.9780
-4.2745 2.9670 -1.9940 0.9780
-4.5214 2.5733 -1.9936 0.9780
-4.9054 1.7282 -1.9931 0.9780
-5.1337 0.8287 -1.9928 0.9780
-5.0998 -1.0197 -1.9930 0.9780
-4.9890 -1.4709 -1.9932 0.9780
-4.1624 -3.1255 -1.9947 0.9779
-3.8679 -3.4853 -1.9952 0.9779
-1.9857 -4.8219 -1.9984 0.9779
-1.5481 -4.9816 -1.9991 0.9779
-1.0978 -5.1017 -1.9998 0.9779
-0.6385 -5.1813 -2.0006 0.9779
0.7574 -5.1711 -2.0028 0.9779
1.2162 -5.0848 -2.0035 0.9779
2.1021 -4.7910 -2.0049 0.9778
3.2989 -4.0670 -2.0068 0.9778
4.5173 -2.6584 -2.0086 0.9778
4.7372 -2.2451 -2.0089 0.9778
4.9193 -1.8137 -2.0092 0.9778
5.0620 -1.3677 -2.0094 0.9778
5.1641 -0.9106 -2.0095 0.9778
5.2249 -0.4462 -2.0096 0.9778
5.2439 0.0218 -2.0096 0.9778
5.2208 0.4896 -2.0095 0.9778
4.9032 1.8542 -2.0088 0.9778
4.7174 2.2839 -2.0085 0.9778
4.4939 2.6952 -2.0081 0.9778
3.9414 3.4494 -2.0072 0.9778
3.2534 4.0798 -1.9997 0.9779
1.9044 4.4405 -1.8516 0.9795
1.5001 4.5911 -1.8509 0.9795
1.0841 4.7049 -1.8503 0.9795
0.2304 4.8191 -1.8489 0.9795
-0.2005 4.8186 -1.8482 0.9796
-0.6294 4.7797 -1.8475 0.9796
-1.0530 4.7028 -1.8468 0.9796
-1.4679 4.5885 -1.8462 0.9796
-1.8708 4.4377 -1.8455 0.9796
-2.2585 4.2516 -1.8449 0.9796
-2.6939 4.1328 -1.8905 0.9791
-3.5690 3.7826 -1.9930 0.9780
-3.8954 3.4519 -1.9946 0.9780
-4.4451 2.7034 -1.9937 0.9780
-4.8534 1.8698 -1.9932 0.9780
-5.1076 0.9772 -1.9928 0.9780
-5.0294 -1.3255 -1.9932 0.9780
-4.7151 -2.1990 -1.9938 0.9780
-4.5009 -2.6114 -1.9941 0.9780
-3.3064 -4.0251 -1.9962 0.9779
-2.9350 -4.3054 -1.9968 0.9779
-2.5400 -4.5516 -1.9975 0.9779
-2.1244 -4.7617 -1.9981 0.9779
-1.6917 -4.9340 -1.9989 0.9779
-0.7884 -5.1599 -2.0003 0.9779
-0.3249 -5.2117 -2.0011 0.9779
0.1414 -5.2218 -2.0018 0.9779
0.6070 -5.1903 -2.0026 0.9779
1.0681 -5.1173 -2.0033 0.9779
1.9620 -4.8494 -2.0047 0.9778
2.7946 -4.4263 -2.0060 0.9778
3.1793 -4.1605 -2.0066 0.9778
3.5388 -3.8613 -2.0072 0.9778
4.1708 -3.1724 -2.0081 0.9778
4.6699 -2.3814 -2.0089 0.9778
5.0200 -1.5138 -2.0093 0.9778
5.1355 -1.0598 -2.0095 0.9778
5.0887 1.2625 -2.0092 0.9778
4.7819 2.1463 -2.0086 0.9778
4.3225 2.9608 -2.0078 0.9778
4.0401 3.3339 -2.0073 0.9778
3.7255 3.6801 -2.0068 0.9778
2.4165 4.1865 -1.8524 0.9795
2.0326 4.3840 -1.8518 0.9795
1.6328 4.5462 -1.8511 0.9795
1.2202 4.6721 -1.8505 0.9795
0.7981 4.7605 -1.8498 0.9795
0.3701 4.8110 -1.8491 0.9795
-0.0607 4.8230 -1.8484 0.9796
-0.9163 4.7319 -1.8470 0.9796
-1.3344 4.6296 -1.8464 0.9796
-1.7415 4.4905 -1.8457 0.9796
-2.1345 4.3158 -1.8451 0.9796
-2.5305 4.1398 -1.8594 0.9794
-3.0521 4.1165 -1.9638 0.9783
-3.4552 3.8816 -1.9915 0.9780
-3.7940 3.5637 -1.9947 0.9779
-4.0959 3.2102 -1.9943 0.9780
-4.3651 2.8314 -1.9939 0.9780
-5.1937 -0.2599 -1.9928 0.9780
-4.5745 -2.4797 -1.9940 0.9780
-4.3359 -2.8785 -1.9944 0.9780
-3.7571 -3.6052 -1.9954 0.9779
-3.4214 -3.9271 -1.9960 0.9779
-3.0583 -4.2180 -1.9966 0.9779
-2.2614 -4.6976 -1.9979 0.9779
-1.3914 -5.0283 -1.9993 0.9779
-0.9375 -5.1343 -2.0001 0.9779
-0.0100 -5.2231 -2.0016 0.9779
3.4251 -3.9620 -2.0070 0.9778
4.3551 -2.9155 -2.0084 0.9778
4.5987 -2.5157 -2.0087 0.9778
4.8055 -2.0956 -2.0090 0.9778
4.9739 -1.6587 -2.0093 0.9778
5.1025 -1.2084 -2.0094 0.9778
5.2363 -0.2822 -2.0096 0.9778
5.0029 1.5670 -2.0090 0.9778
4.6432 2.4305 -2.0084 0.9778
3.1084 4.1589 -1.9897 0.9780
2.5742 4.1752 -1.8797 0.9792
2.1634 4.3322 -1.8557 0.9795
1.7641 4.4975 -1.8514 0.9795
0.5095 4.7988 -1.8493 0.9795
-0.7788 4.7571 -1.8473 0.9796
-2.0087 4.3763 -1.8453 0.9796
-2.8766 4.1247 -1.9271 0.9787
-3.3388 3.9773 -1.9900 0.9780
-3.6889 3.6720 -1.9946 0.9780
-4.0013 3.3278 -1.9944 0.9780
-4.7373 2.1481 -1.9933 0.9780
-4.9094 1.7167 -1.9931 0.9780
-5.0426 1.2717 -1.9929 0.9780
-5.1879 0.3551 -1.9928 0.9780
-5.0974 -1.0317 -1.9930 0.9780
-4.8341 -1.9218 -1.9935 0.9780
-4.6442 -2.3458 -1.9939 0.9780
-4.1550 -3.1353 -1.9947 0.9779
-3.8597 -3.4944 -1.9952 0.9779
-3.1790 -4.1272 -1.9964 0.9779
-2.7989 -4.3958 -1.9970 0.9779
-2.3964 -4.6295 -1.9977 0.9779
-1.9744 -4.8265 -1.9984 0.9779
-1.5364 -4.9852 -1.9991 0.9779
-0.1615 -5.2200 -2.0013 0.9779
0.3051 -5.2155 -2.0021 0.9779
1.6773 -4.9539 -2.0043 0.9778
3.6584 -3.7489 -2.0073 0.9778
3.9793 -3.4083 -2.0078 0.9778
4.2685 -3.0403 -2.0083 0.9778
4.5235 -2.6478 -2.0086 0.9778
4.9235 -1.8021 -2.0092 0.9778
5.1537 0.9655 -2.0093 0.9778
5.0464 1.4213 -2.0091 0.9778
4.8988 1.8657 -2.0088 0.9778
3.2436 4.0871 -1.9996 0.9779
2.7412 4.1704 -1.9125 0.9788
2.2839 4.2597 -1.8522 0.9795
1.8940 4.4450 -1.8516 0.9795
1.4893 4.5946 -1.8509 0.9795
1.0730 4.7074 -1.8502 0.9795
0.2191 4.8196 -1.8489 0.9795
-0.2118 4.8181 -1.8482 0.9796
-1.0640 4.7003 -1.8468 0.9796
-1.8812 4.4332 -1.8455 0.9796
-2.2685 4.2463 -1.8449 0.9796
-2.7073 4.1322 -1.8931 0.9791
-3.2199 4.0697 -1.9887 0.9780
-3.5781 3.7745 -1.9931 0.9780
-4.6732 2.2847 -1.9934 0.9780
-5.1099 0.9652 -1.9928 0.9780
-5.1755 0.5054 -1.9928 0.9780
-5.1831 -0.4226 -1.9928 0.9780
-4.8876 -1.7807 -1.9934 0.9780
-4.7099 -2.2100 -1.9938 0.9780
-4.4948 -2.6220 -1.9941 0.9780
-3.9591 -3.3807 -1.9951 0.9779
-2.5293 -4.5576 -1.9975 0.9779
-2.1133 -4.7667 -1.9982 0.9779
-1.2333 -5.0701 -1.9996 0.9779
-0.7763 -5.1618 -2.0003 0.9779
-0.3127 -5.2125 -2.0011 0.9779
1.0801 -5.1148 -2.0033 0.9779
1.5327 -4.9999 -2.0040 0.9778
2.8050 -4.4198 -2.0060 0.9778
3.1891 -4.1531 -2.0066 0.9778
3.8785 -3.5220 -2.0077 0.9778
4.1782 -3.1626 -2.0081 0.9778
4.4446 -2.7777 -2.0085 0.9778
4.6755 -2.3705 -2.0089 0.9778
4.8690 -1.9441 -2.0091 0.9778
5.0236 -1.5020 -2.0093 0.9778
5.1379 -1.0479 -2.0095 0.9778
5.2112 -0.5853 -2.0096 0.9778
5.2321 0.3503 -2.0095 0.9778
5.1796 0.8157 -2.0094 0.9778
4.7768 2.1575 -2.0086 0.9778
4.5644 2.5746 -2.0082 0.9778
4.3156 2.9710 -2.0078 0.9778
4.0323 3.3433 -2.0073 0.9778
3.7169 3.6888 -2.0068 0.9778
2.0223 4.3887 -1.8518 0.9795
1.2092 4.6749 -1.8505 0.9795
0.7870 4.7624 -1.8498 0.9795
0.3588 4.8118 -1.8491 0.9795
-0.9274 4.7297 -1.8470 0.9796
-1.7520 4.4864 -1.8457 0.9796
-2.1446 4.3107 -1.8451 0.9796
-3.8023 3.5547 -1.9947 0.9779
-4.1034 3.2005 -1.9942 0.9780
-4.6052 2.4194 -1.9935 0.9780
-4.9606 1.5619 -1.9930 0.9780
-5.0798 1.1130 -1.9929 0.9780
-5.1931 -0.2721 -1.9928 0.9780
-5.1484 -0.7344 -1.9929 0.9780
-5.0628 -1.1910 -1.9931 0.9780
-4.9369 -1.6381 -1.9933 0.9780
-4.7718 -2.0724 -1.9936 0.9780
-4.5687 -2.4904 -1.9940 0.9780
-4.0551 -3.2642 -1.9949 0.9779
-3.4122 -3.9352 -1.9960 0.9779
-3.0484 -4.2252 -1.9966 0.9779
0.9312 -5.1434 -2.0031 0.9779
1.3869 -5.0416 -2.0038 0.9779
2.2625 -4.7181 -2.0052 0.9778
2.6753 -4.4988 -2.0058 0.9778
4.6046 -2.5049 -2.0088 0.9778
5.1053 -1.1964 -2.0094 0.9778
5.2012 0.6651 -2.0094 0.9778
5.1207 1.1265 -2.0093 0.9778
4.8376 2.0182 -2.0087 0.9778
3.8226 3.5798 -2.0070 0.9778
2.5609 4.1756 -1.8771 0.9792
2.1490 4.3287 -1.8520 0.9795
1.7536 4.5016 -1.8513 0.9795
1.3444 4.6384 -1.8507 0.9795
0.9248 4.7381 -1.8500 0.9795
-0.7899 4.7552 -1.8472 0.9796
-2.0189 4.3716 -1.8453 0.9796
-2.4002 4.1727 -1.8447 0.9796
-2.8906 4.1240 -1.9300 0.9787
-4.0091 3.3184 -1.9944 0.9780
-4.2883 2.9468 -1.9940 0.9780
-4.5333 2.5520 -1.9936 0.9780
-4.9134 1.7052 -1.9931 0.9780
-5.1376 0.8046 -1.9928 0.9780
-5.1987 -0.1214 -1.9928 0.9780
-5.1674 -0.5848 -1.9929 0.9780
-4.8296 -1.9331 -1.9935 0.9780
3.8974 -2.9789 -2.0077 0.9790
4.1484 -2.6197 -2.0080 0.9790
4.3663 -2.2395 -2.0084 0.9790
4.5493 -1.8412 -2.0086 0.9790
4.8754 -0.5707 -2.0090 0.9790
4.8521 0.7408 -2.0089 0.9790
4.7663 1.1707 -2.0087 0.9790
4.6422 1.5911 -2.0085 0.9790
4.2841 2.3901 -2.0078 0.9790
3.7895 3.1122 -2.0069 0.9790
3.4958 3.4370 -2.0064 0.9790
3.1737 3.7334 -2.0055 0.9790
2.4129 4.1577 -1.9675 0.9794
1.9452 4.1698 -1.8831 0.9803
1.5387 4.2529 -1.8510 0.9806
1.1527 4.3717 -1.8504 0.9806
-0.4488 4.4925 -1.8478 0.9807
-1.2393 4.3382 -1.8466 0.9807
-1.6210 4.2089 -1.8459 0.9807
-2.0348 4.1385 -1.8874 0.9803
-4.0819 2.6613 -1.9943 0.9792
-4.3024 2.2861 -1.9940 0.9792
-4.7528 1.0647 -1.9934 0.9792
-1.9353 0.0807 -0.7927 0.9917
-1.9394 -0.0925 -0.7946 0.9916
-1.9478 -0.2685 -0.8047 0.9915
-4.7468 -1.0932 -1.9936 0.9792
-4.6309 -1.5125 -1.9938 0.9792
-4.4781 -1.9200 -1.9941 0.9792
-4.2896 -2.3122 -1.9944 0.9792
-3.5264 -3.3680 -1.9958 0.9791
-2.8732 -3.9433 -1.9969 0.9791
-2.1279 -4.3939 -1.9981 0.9791
-1.7279 -4.5678 -1.9988 0.9791
-1.3139 -4.7053 -1.9994 0.9791
-0.8891 -4.8055 -2.0001 0.9791
0.4157 -4.8745 -2.0022 0.9791
0.8493 -4.8196 -2.0029 0.9791
1.6935 -4.5950 -2.0043 0.9791
2.4848 -4.2234 -2.0055 0.9790
2.8526 -3.9860 -2.0061 0.9790
3.8091 -3.0904 -2.0075 0.9790
4.0704 -2.7387 -2.0079 0.9790
4.4938 -1.9722 -2.0085 0.9790
4.6524 -1.5636 -2.0088 0.9790
4.8568 -0.7119 -2.0090 0.9790
4.9010 -0.2757 -2.0090 0.9790
4.7984 1.0320 -2.0088 0.9790
4.6866 1.4559 -2.0085 0.9790
4.5374 1.8680 -2.0083 0.9790
4.3519 2.2650 -2.0079 0.9790
4.1317 2.6438 -2.0075 0.9790
3.5943 3.3345 -2.0066 0.9790
3.2816 3.6409 -2.0061 0.9790
2.9377 3.9113 -2.0020 0.9791
2.0927 4.1662 -1.9082 0.9801
1.6616 4.2070 -1.8512 0.9806
0.8867 4.4323 -1.8500 0.9807
0.4876 4.4921 -1.8493 0.9807
-1.1132 4.3728 -1.8468 0.9807
-2.3476 4.1258 -1.9428 0.9797
-3.1244 3.7397 -1.9945 0.9792
-3.7401 3.1254 -1.9948 0.9792
-4.0033 2.7787 -1.9944 0.9792
-4.2345 2.4100 -1.9941 0.9792
-1.9164 -0.0358 -0.7845 0.9918
-1.9568 -0.2122 -0.8056 0.9915
-4.6726 -1.3775 -1.9937 0.9792
-4.5316 -1.7892 -1.9940 0.9792
-4.1429 -2.5671 -1.9947 0.9792
-3.6223 -3.2640 -1.9956 0.9791
-3.3175 -3.5752 -1.9961 0.9791
-2.2542 -4.3299 -1.9979 0.9791
-1.0280 -4.7771 -1.9999 0.9791
-0.5978 -4.8515 -2.0006 0.9791
-0.1626 -4.8872 -2.0013 0.9791
0.7091 -4.8417 -2.0027 0.9791
1.9680 -4.4854 -2.0047 0.9791
2.3611 -4.2933 -2.0053 0.9790
3.9891 -2.8555 -2.0078 0.9790
4.2287 -2.4886 -2.0082 0.9790
4.8341 -0.8524 -2.0090 0.9790
4.8910 -0.4177 -2.0090 0.9790
4.9087 0.0204 -2.0090 0.9790
4.8871 0.4583 -2.0089 0.9790
4.8264 0.8925 -2.0088 0.9790
4.7271 1.3194 -2.0086 0.9790
4.5899 1.7357 -2.0084 0.9790
3.9641 2.8877 -2.0072 0.9790
3.3861 3.5446 -2.0063 0.9790
3.0523 3.8276 -2.0037 0.9791
2.6921 4.0748 -1.9988 0.9791
1.0150 4.4052 -1.8502 0.9807
-0.9860 4.4037 -1.8470 0.9807
-1.3774 4.3058 -1.8502 0.9807
-2.6546 4.0725 -1.9896 0.9792
-3.0127 3.8263 -1.9932 0.9792
-3.3459 3.5462 -1.9954 0.9791
-4.5456 1.7512 -1.9937 0.9792
-4.7837 0.9152 -1.9934 0.9792
-1.9084 0.0197 -0.7811 0.9918
-2.1285 -0.3617 -0.8836 0.9907
-4.5814 -1.6570 -1.9939 0.9792
-3.9811 -2.8127 -1.9950 0.9792
-3.7151 -3.1574 -1.9954 0.9791
-3.4194 -3.4772 -1.9959 0.9791
-3.0964 -3.7694 -1.9965 0.9791
-2.3785 -4.2623 -1.9977 0.9791
-0.7382 -4.8315 -2.0004 0.9791
0.1324 -4.8893 -2.0018 0.9791
0.5684 -4.8596 -2.0025 0.9791
1.8369 -4.5401 -2.0045 0.9791
2.6162 -4.1439 -2.0057 0.9790
3.3129 -3.6148 -2.0068 0.9790
3.9044 -2.9697 -2.0077 0.9790
4.5536 -1.8305 -2.0086 0.9790
4.8072 -0.9922 -2.0089 0.9790
4.8768 -0.5593 -2.0090 0.9790
4.8504 0.7522 -2.0089 0.9790
4.4764 2.0092 -2.0081 0.9790
4.0465 2.7718 -2.0074 0.9790
3.7822 3.1210 -2.0069 0.9790
3.1647 3.7406 -2.0053 0.9790
1.5287 4.2565 -1.8510 0.9806
1.1424 4.3744 -1.8504 0.9806
0.7473 4.4573 -1.8497 0.9807
0.3465 4.5046 -1.8491 0.9807
-0.4594 4.4914 -1.8478 0.9807
-0.8580 4.4309 -1.8472 0.9807
-1.2495 4.3352 -1.8465 0.9807
-1.6308 4.2051 -1.8459 0.9807
-2.5174 4.1185 -1.9755 0.9794
-2.8987 3.9096 -1.9920 0.9792
-3.2419 3.6420 -1.9956 0.9791
-3.5531 3.3374 -1.9951 0.9792
-3.8359 3.0065 -1.9947 0.9792
-4.0881 2.6517 -1.9943 0.9792
-4.3077 2.2760 -1.9940 0.9792
-4.4930 1.8823 -1.9937 0.9792
-4.6426 1.4737 -1.9935 0.9792
-1.9513 0.2525 -0.8053 0.9915
-1.9336 0.0761 -0.7920 0.9917
-4.7442 -1.1043 -1.9936 0.9792
-4.4736 -1.9305 -1.9941 0.9792
-4.2842 -2.3223 -1.9945 0.9792
-3.8048 -3.0481 -1.9953 0.9791
-3.5185 -3.3763 -1.9958 0.9791
-3.2041 -3.6777 -1.9963 0.9791
-2.5009 -4.1911 -1.9975 0.9791
-1.3029 -4.7084 -1.9995 0.9791
-0.0094 -4.8905 -2.0016 0.9791
0.4272 -4.8735 -2.0023 0.9791
0.8606 -4.8176 -2.0029 0.9791
1.2875 -4.7232 -2.0036 0.9791
2.1078 -4.4220 -2.0049 0.9791
2.8619 -3.9793 -2.0061 0.9790
3.5254 -3.4090 -2.0071 0.9790
4.3048 -2.3550 -2.0083 0.9790
4.4984 -1.9617 -2.0085 0.9790
4.9017 -0.2642 -2.0090 0.9790
4.8702 0.6112 -2.0089 0.9790
4.7959 1.0433 -2.0087 0.9790
4.6832 1.4669 -2.0085 0.9790
4.1254 2.6534 -2.0075 0.9790
3.5864 3.3429 -2.0066 0.9790
2.5608 4.1534 -1.9970 0.9791
2.0807 4.1665 -1.9061 0.9801
1.6517 4.2108 -1.8512 0.9806
1.2689 4.3399 -1.8506 0.9806
-0.3290 4.5033 -1.8480 0.9807
-1.1234 4.3701 -1.8467 0.9807
-1.5084 4.2511 -1.8461 0.9807
-1.9018 4.1435 -1.8659 0.9805
-3.1333 3.7326 -1.9946 0.9792
-3.7474 3.1166 -1.9948 0.9792
-4.2401 2.4001 -1.9941 0.9792
-4.4367 2.0119 -1.9938 0.9792
-4.5981 1.6078 -1.9936 0.9792
-1.9511 0.1335 -0.8004 0.9916
-1.9564 -0.2168 -0.8056 0.9915
-4.5274 -1.7998 -1.9940 0.9792
-4.1369 -2.5768 -1.9947 0.9792
-3.8913 -2.9363 -1.9951 0.9792
-3.6146 -3.2725 -1.9956 0.9791
-2.6211 -4.1164 -1.9973 0.9791
-2.2440 -4.3352 -1.9979 0.9791
-1.8489 -4.5196 -1.9986 0.9791
-1.4387 -4.6682 -1.9992 0.9791
-0.1512 -4.8876 -2.0013 0.9791
1.1498 -4.7581 -2.0034 0.9791
1.9785 -4.4808 -2.0047 0.9791
2.3712 -4.2877 -2.0053 0.9790
2.7451 -4.0602 -2.0059 0.9790
3.0973 -3.8001 -2.0065 0.9790
4.4395 -2.0912 -2.0085 0.9790
4.6089 -1.6870 -2.0087 0.9790
4.7415 -1.2691 -2.0089 0.9790
4.8860 0.4697 -2.0089 0.9790
4.8243 0.9038 -2.0088 0.9790
4.4110 2.1483 -2.0080 0.9790
3.6822 3.2378 -2.0068 0.9790
2.6824 4.0809 -1.9987 0.9791
2.2318 4.1627 -1.9331 0.9798
1.3944 4.3018 -1.8508 0.9806
0.2051 4.5127 -1.8489 0.9807
-0.5998 4.4742 -1.8476 0.9807
-1.3846 4.2935 -1.8463 0.9807
-1.7624 4.1535 -1.8467 0.9807
-3.3542 3.5383 -1.9954 0.9791
-4.1690 2.5221 -1.9942 0.9792
