ply
format ascii 1.0
element vertex 1563
property float32 x
property float32 y
property float32 z
property float32 I
end_header
1.9283 10.5821 1.1550 0.9577
0.9934 10.9059 1.1759 0.9569
13.5666 10.3243 1.8307 0.9337
11.2990 10.3152 1.6429 0.9403
6.4926 10.2949 1.3070 0.9522
4.1962 10.3895 1.2032 0.9559
2.2003 10.5800 1.1604 0.9575
1.2094 10.4118 1.1256 0.9587
8.3231 10.3586 1.4269 0.9479
4.5738 10.5623 1.2360 0.9548
3.4362 10.3952 1.1757 0.9569
2.4750 10.5780 1.1666 0.9572
1.4716 10.4099 1.1289 0.9586
8.7518 10.3554 1.4559 0.9469
7.2088 10.2646 1.3469 0.9508
5.9349 10.2973 1.2762 0.9533
4.8872 10.5599 1.2495 0.9543
3.7238 10.3930 1.1855 0.9566
15.2130 10.3120 1.5558 0.9289
10.5695 10.3418 1.2518 0.9424
8.8441 10.3547 1.1528 0.9468
4.9540 10.5594 0.9874 0.9543
1.8139 10.5388 0.9052 0.9580
11.1086 10.3427 1.2849 0.9409
7.6965 10.2882 1.0876 0.9497
5.1969 10.3986 0.9841 0.9544
4.0786 10.3903 0.9449 0.9562
3.0425 10.3981 0.9171 0.9574
2.0925 10.5808 0.9130 0.9576
1.1062 10.4126 0.8864 0.9588
11.6715 10.3385 1.3199 0.9393
8.1584 10.3598 1.1163 0.9484
6.7356 10.3331 1.0442 0.9517
3.3239 10.3960 0.9239 0.9571
2.3579 10.5418 0.9144 0.9576
14.7372 10.3156 1.5228 0.9303
6.1610 5.1905 0.6820 0.9682
7.2018 10.4713 1.0758 0.9503
4.7427 10.5169 0.9766 0.9547
2.6317 10.5327 0.9190 0.9574
1.6311 10.4087 0.8919 0.9586
9.0199 10.3534 1.1624 0.9464
7.5889 10.4684 1.0945 0.9494
6.1887 10.3746 1.0226 0.9527
5.0803 10.5585 0.9919 0.9541
3.9002 10.3917 0.9396 0.9564
2.8742 10.3994 0.9133 0.9576
1.9283 10.5821 0.9106 0.9577
0.9934 10.9055 0.9270 0.9570
16.3935 10.3032 1.6391 0.9252
13.5666 10.3243 1.4432 0.9339
9.5284 10.4045 1.1943 0.9449
6.4926 10.2948 1.0303 0.9523
5.3159 10.3811 0.9873 0.9543
4.1962 10.3895 0.9485 0.9560
17.0238 10.1193 1.6765 0.9236
14.2810 10.3190 1.4915 0.9317
11.9024 10.3368 1.3345 0.9387
10.0105 10.4009 1.2220 0.9437
8.3231 10.3586 1.1249 0.9481
6.9738 10.4730 1.0651 0.9507
5.6437 10.3786 1.0001 0.9537
4.5738 10.5623 0.9744 0.9548
2.4647 10.5339 0.9158 0.9575
10.4607 10.3426 1.2453 0.9427
8.7518 10.3554 1.1477 0.9470
7.3531 10.4701 1.0831 0.9499
4.8872 10.5599 0.9850 0.9544
3.7238 10.3930 0.9346 0.9566
12.6973 10.3754 1.0168 0.9364
10.5695 10.3418 0.9170 0.9425
8.8441 10.3547 0.8444 0.9469
7.4345 10.4695 0.7963 0.9498
6.0064 10.2967 0.7392 0.9533
2.7650 10.4002 0.6673 0.9578
1.0043 12.3647 0.7693 0.9515
15.9073 10.2162 1.1723 0.9270
13.2970 10.3263 1.0440 0.9348
9.3440 10.4059 0.8672 0.9455
7.6964 10.2881 0.7967 0.9498
6.4008 10.3730 0.7558 0.9523
4.0786 10.3904 0.6922 0.9563
3.0425 10.3981 0.6718 0.9575
2.0925 10.5808 0.6688 0.9577
16.7799 10.1980 1.2176 0.9243
11.6715 10.3385 0.9669 0.9394
9.8175 10.4024 0.8870 0.9443
5.5132 10.3796 0.7288 0.9540
4.4518 10.5632 0.7108 0.9551
2.3662 10.5788 0.6722 0.9575
1.3679 10.4106 0.6511 0.9588
6.1603 5.1899 0.4995 0.9682
10.2592 10.3441 0.9034 0.9433
4.7428 10.5169 0.7154 0.9548
3.6096 10.3939 0.6823 0.9569
2.6427 10.5767 0.6760 0.9572
15.5348 10.3096 1.1562 0.9280
12.8966 10.3293 1.0246 0.9359
10.7770 10.3402 0.9261 0.9419
9.0199 10.3534 0.8515 0.9465
5.0802 10.5585 0.7266 0.9541
2.8742 10.3994 0.6690 0.9577
0.9933 10.9050 0.6790 0.9571
16.3935 10.3032 1.2007 0.9253
13.5666 10.3243 1.0572 0.9340
9.5284 10.4045 0.8749 0.9450
6.4926 10.2947 0.7547 0.9524
5.3159 10.3811 0.7232 0.9543
3.1531 10.3973 0.6737 0.9574
2.2003 10.5800 0.6701 0.9576
1.2094 10.4118 0.6500 0.9589
11.9651 10.3913 0.9827 0.9385
10.0105 10.4009 0.8952 0.9438
8.3231 10.3586 0.8240 0.9481
5.6437 10.3786 0.7326 0.9538
4.5738 10.5623 0.7137 0.9549
3.4362 10.3952 0.6789 0.9571
2.4750 10.5780 0.6737 0.9574
15.1974 10.4174 1.1425 0.9288
12.5767 10.3867 1.0115 0.9367
3.7238 10.3930 0.6846 0.9567
2.7072 10.4006 0.6664 0.9578
12.6972 10.3754 0.6466 0.9365
10.5695 10.3418 0.5831 0.9425
7.4345 10.4695 0.5063 0.9499
1.8139 10.5388 0.4217 0.9581
1.0042 12.3641 0.4891 0.9516
15.9072 10.2162 0.7455 0.9271
11.1086 10.3427 0.5985 0.9410
6.4008 10.3730 0.4806 0.9524
2.0926 10.5808 0.4253 0.9577
1.1062 10.4126 0.4129 0.9589
13.9933 10.3211 0.6856 0.9328
11.6715 10.3385 0.6148 0.9395
6.7356 10.3332 0.4864 0.9518
5.5132 10.3796 0.4634 0.9540
3.3239 10.3960 0.4304 0.9572
10.2592 10.3441 0.5745 0.9433
5.8463 10.3771 0.4697 0.9534
2.6427 10.5767 0.4299 0.9573
15.5349 10.3096 0.7352 0.9281
6.1887 10.3746 0.4763 0.9528
5.0802 10.5585 0.4620 0.9542
3.9002 10.3917 0.4377 0.9565
1.9283 10.5821 0.4241 0.9579
0.9933 10.9046 0.4318 0.9571
16.3935 10.3032 0.7635 0.9254
13.5666 10.3243 0.6722 0.9340
11.3273 10.3411 0.6048 0.9404
7.8825 10.3246 0.5122 0.9493
6.4925 10.2947 0.4799 0.9524
5.3159 10.3811 0.4599 0.9544
4.1962 10.3895 0.4418 0.9561
3.1531 10.3973 0.4284 0.9574
1.2094 10.4118 0.4133 0.9589
14.2810 10.3190 0.6947 0.9319
10.0105 10.4009 0.5692 0.9439
6.9738 10.4730 0.4961 0.9509
5.6437 10.3786 0.4658 0.9538
15.1974 10.4174 0.7265 0.9289
10.4606 10.3426 0.5800 0.9428
5.9350 10.2973 0.4686 0.9535
1.7356 10.4079 0.4161 0.9586
1.0113 13.3110 0.5264 0.9480
-5.5741 -15.9167 0.2849 0.9348
10.5695 10.3418 0.2498 0.9426
8.8441 10.3547 0.2300 0.9470
7.4345 10.4695 0.2169 0.9499
6.0064 10.2967 0.2014 0.9534
4.9539 10.5594 0.1970 0.9544
1.8139 10.5388 0.1806 0.9581
15.9072 10.2162 0.3194 0.9272
13.2970 10.3264 0.2844 0.9349
11.1086 10.3427 0.2564 0.9411
9.4516 10.5258 0.2390 0.9450
7.6963 10.2880 0.2170 0.9499
6.4008 10.3730 0.2059 0.9524
5.1968 10.3984 0.1964 0.9546
3.0425 10.3981 0.1830 0.9576
16.7799 10.1980 0.3317 0.9245
11.6715 10.3385 0.2634 0.9395
6.7356 10.3332 0.2084 0.9519
4.4518 10.5632 0.1936 0.9552
2.3662 10.5788 0.1831 0.9576
6.1589 5.1888 0.1360 0.9683
10.2592 10.3441 0.2461 0.9434
7.2018 10.4713 0.2147 0.9504
5.8463 10.3771 0.2012 0.9535
1.0139 15.3320 0.2596 0.9404
15.5349 10.3096 0.3149 0.9281
6.1887 10.3746 0.2041 0.9528
5.0802 10.5585 0.1979 0.9542
2.8742 10.3994 0.1823 0.9578
0.9933 10.9042 0.1850 0.9571
16.3935 10.3032 0.3271 0.9255
11.3273 10.3411 0.2591 0.9405
9.6382 10.5244 0.2411 0.9445
7.8825 10.3246 0.2194 0.9494
6.4925 10.2946 0.2056 0.9525
1.2094 10.4118 0.1771 0.9589
14.2810 10.3190 0.2976 0.9319
11.9651 10.3913 0.2677 0.9386
10.1258 10.5207 0.2467 0.9433
8.3231 10.3586 0.2245 0.9482
6.9738 10.4730 0.2125 0.9509
5.6437 10.3786 0.1996 0.9538
4.5738 10.5623 0.1944 0.9550
2.4750 10.5780 0.1835 0.9575
1.4716 10.4099 0.1776 0.9588
8.7518 10.3554 0.2290 0.9472
5.9350 10.2973 0.2008 0.9536
4.8872 10.5599 0.1966 0.9545
3.7238 10.3930 0.1865 0.9568
1.7356 10.4079 0.1782 0.9587
-5.5734 -15.9148 -0.0949 0.9348
15.2130 10.3120 -0.1035 0.9291
12.6971 10.3753 -0.0923 0.9365
8.8441 10.3547 -0.0767 0.9470
7.4345 10.4695 -0.0723 0.9499
6.0064 10.2967 -0.0671 0.9534
3.7848 10.3925 -0.0623 0.9567
2.7650 10.4002 -0.0606 0.9579
1.8139 10.5388 -0.0602 0.9581
1.0041 12.3631 -0.0698 0.9516
11.1086 10.3427 -0.0855 0.9411
9.4516 10.5258 -0.0796 0.9450
3.8369 5.1290 -0.0361 0.9747
5.1968 10.3983 -0.0654 0.9546
4.0786 10.3904 -0.0628 0.9563
2.0925 10.5808 -0.0607 0.9578
13.9933 10.3211 -0.0979 0.9328
11.6715 10.3385 -0.0878 0.9395
6.7356 10.3331 -0.0694 0.9519
2.3662 10.5788 -0.0610 0.9576
1.3679 10.4106 -0.0591 0.9589
-0.9662 6.9789 -0.0397 0.9722
6.1583 5.1882 -0.0453 0.9683
8.5804 10.3567 -0.0757 0.9476
5.8463 10.3771 -0.0671 0.9535
3.6096 10.3939 -0.0619 0.9569
3.9002 10.3917 -0.0625 0.9566
2.8742 10.3994 -0.0607 0.9578
1.9283 10.5821 -0.0606 0.9579
8.0821 -17.4749 -0.1084 0.9259
16.3935 10.3032 -0.1090 0.9255
13.5666 10.3243 -0.0960 0.9341
11.3273 10.3411 -0.0864 0.9405
6.4925 10.2946 -0.0685 0.9525
5.3159 10.3811 -0.0657 0.9544
4.1962 10.3895 -0.0631 0.9562
3.1531 10.3973 -0.0612 0.9575
1.2094 10.4118 -0.0590 0.9589
14.2810 10.3190 -0.0992 0.9319
8.3231 10.3586 -0.0748 0.9482
6.9738 10.4730 -0.0708 0.9509
4.5738 10.5623 -0.0648 0.9550
2.4750 10.5780 -0.0612 0.9575
1.4716 10.4099 -0.0592 0.9588
-0.8928 6.9487 -0.0394 0.9724
-5.5085 -15.9962 -0.0953 0.9346
10.4606 10.3426 -0.0828 0.9429
7.3531 10.4701 -0.0720 0.9501
4.8872 10.5599 -0.0655 0.9545
3.7238 10.3930 -0.0622 0.9568
2.7072 10.4006 -0.0605 0.9579
1.7356 10.4079 -0.0594 0.9587
15.2130 10.3120 -0.5175 0.9291
8.8441 10.3547 -0.3834 0.9470
7.4345 10.4695 -0.3616 0.9499
4.9539 10.5594 -0.3284 0.9544
3.7848 10.3926 -0.3114 0.9567
2.7650 10.4002 -0.3030 0.9579
1.0041 12.3625 -0.3492 0.9516
13.2970 10.3263 -0.4741 0.9348
11.1086 10.3427 -0.4274 0.9411
9.4516 10.5258 -0.3983 0.9450
3.8152 5.0999 -0.1793 0.9748
3.0425 10.3981 -0.3051 0.9576
2.0926 10.5808 -0.3037 0.9578
1.1062 10.4126 -0.2948 0.9590
13.9933 10.3211 -0.4896 0.9328
11.6715 10.3385 -0.4390 0.9395
9.9306 10.5222 -0.4074 0.9437
8.1584 10.3598 -0.3713 0.9486
6.7356 10.3332 -0.3473 0.9518
4.4518 10.5632 -0.3228 0.9552
2.3662 10.5788 -0.3052 0.9575
1.3679 10.4106 -0.2957 0.9589
6.1576 5.1876 -0.2267 0.9683
8.5804 10.3567 -0.3787 0.9476
5.8463 10.3771 -0.3354 0.9535
4.7428 10.5169 -0.3249 0.9549
1.0139 15.3320 -0.4327 0.9404
12.8966 10.3293 -0.4653 0.9360
10.7770 10.3402 -0.4205 0.9420
9.0198 10.3534 -0.3866 0.9465
7.5889 10.4684 -0.3641 0.9496
2.8742 10.3994 -0.3038 0.9577
1.9283 10.5821 -0.3029 0.9579
0.9932 10.9034 -0.3083 0.9571
16.3935 10.3032 -0.5452 0.9254
13.5666 10.3243 -0.4800 0.9341
11.3273 10.3411 -0.4319 0.9405
9.6382 10.5244 -0.4018 0.9445
3.8811 5.0834 -0.1801 0.9747
1.2094 10.4118 -0.2951 0.9589
-7.5973 -18.1586 -0.5543 0.9243
14.2810 10.3190 -0.4961 0.9319
12.1029 10.5109 -0.4514 0.9379
10.1258 10.5207 -0.4112 0.9432
8.3231 10.3586 -0.3742 0.9482
5.6437 10.3786 -0.3327 0.9538
2.4750 10.5780 -0.3059 0.9575
-5.5045 -15.9844 -0.4760 0.9346
7.3531 10.4701 -0.3603 0.9501
5.9350 10.2973 -0.3347 0.9536
4.8872 10.5599 -0.3276 0.9545
3.7238 10.3930 -0.3109 0.9568
1.7356 10.4079 -0.2971 0.9587
1.0112 13.3091 -0.3758 0.9480
10.3991 10.1750 -0.7378 0.9434
8.7401 10.2328 -0.6825 0.9475
3.7018 5.2130 -0.3242 0.9747
4.9333 10.5154 -0.5891 0.9545
1.8139 10.5388 -0.5423 0.9581
-0.6790 6.9223 -0.3527 0.9725
8.2894 -17.4720 -0.9807 0.9255
13.1294 10.1962 -0.8431 0.9356
10.9243 10.1711 -0.7570 0.9420
9.1615 10.2027 -0.6954 0.9466
6.4008 10.3730 -0.6181 0.9524
5.1967 10.3982 -0.5895 0.9545
4.0786 10.3904 -0.5661 0.9563
3.0425 10.3981 -0.5494 0.9575
-1.1437 6.9813 -0.3588 0.9721
13.8433 10.2105 -0.8724 0.9334
9.6085 10.1810 -0.7100 0.9455
4.0711 5.1696 -0.3337 0.9740
6.6935 10.2685 -0.6216 0.9521
4.4518 10.5632 -0.5813 0.9551
3.3239 10.3960 -0.5535 0.9572
2.3662 10.5788 -0.5498 0.9575
1.3679 10.4106 -0.5325 0.9588
-0.9537 6.8884 -0.3527 0.9725
10.0938 10.1773 -0.7269 0.9442
4.2592 5.1408 -0.3386 0.9736
3.5952 5.2273 -0.3217 0.9749
5.8463 10.3771 -0.6040 0.9534
4.7428 10.5169 -0.5851 0.9548
0.8876 13.4219 -0.6822 0.9476
-0.7824 6.9080 -0.3526 0.9725
12.7204 10.1882 -0.8265 0.9368
8.9047 10.2212 -0.6875 0.9472
6.1887 10.3746 -0.6126 0.9528
5.0591 10.5145 -0.5917 0.9543
3.9002 10.3917 -0.5629 0.9565
0.9931 10.9029 -0.5552 0.9571
8.0643 -17.4365 -0.9743 0.9259
13.4055 10.2017 -0.8543 0.9348
3.8873 5.0915 -0.3249 0.9747
4.1962 10.3895 -0.5682 0.9561
2.2003 10.5800 -0.5480 0.9576
1.2094 10.4118 -0.5316 0.9589
-1.0638 6.9181 -0.3550 0.9724
9.7975 10.1795 -0.7165 0.9450
4.1440 5.1574 -0.3355 0.9739
6.9738 10.4730 -0.6381 0.9509
5.6437 10.3786 -0.5991 0.9538
4.5738 10.5623 -0.5837 0.9549
1.4716 10.4099 -0.5332 0.9588
14.9282 10.2329 -0.9179 0.9301
12.3271 10.1806 -0.8108 0.9380
10.2920 10.1758 -0.7340 0.9437
-5.5516 -15.8524 -1.2315 0.9349
8.8201 10.3266 -0.9958 0.9470
7.4345 10.4695 -0.9415 0.9498
5.9875 10.2643 -0.8713 0.9535
4.8066 10.2454 -0.8298 0.9556
3.7266 10.2325 -0.7985 0.9573
2.7205 10.2325 -0.7763 0.9584
0.8322 10.2466 -0.7538 0.9596
-0.6786 6.9188 -0.5097 0.9725
-7.0697 18.4465 -1.4485 0.9238
-8.6871 17.7388 -1.4482 0.9238
-14.3175 13.5478 -1.4453 0.9240
13.2970 10.3264 -1.2344 0.9347
11.1086 10.3427 -1.1129 0.9409
9.2835 10.3386 -1.0188 0.9458
3.7863 5.0613 -0.4635 0.9750
5.1226 10.2500 -0.8402 0.9551
2.9934 10.2305 -0.7816 0.9581
-0.5176 7.0806 -0.5206 0.9719
-6.6493 18.7267 -1.4571 0.9234
-8.2449 17.9496 -1.4483 0.9238
13.9933 10.3211 -1.2749 0.9326
11.6715 10.3385 -1.1432 0.9394
6.6996 10.2780 -0.8996 0.9520
3.2703 10.2285 -0.7874 0.9578
2.2894 10.2357 -0.7691 0.9588
0.4442 10.7666 -0.7901 0.9577
14.7372 10.3156 -1.3190 0.9304
8.5499 10.3198 -0.9826 0.9477
7.2018 10.4713 -0.9318 0.9503
5.7807 10.2607 -0.8635 0.9539
2.5570 10.2337 -0.7734 0.9586
1.6048 10.2409 -0.7600 0.9593
-0.7771 6.8617 -0.5063 0.9727
-7.3455 18.3378 -1.4484 0.9238
15.5349 10.3096 -1.3671 0.9279
12.8966 10.3294 -1.2115 0.9359
10.7770 10.3402 -1.0951 0.9419
9.0005 10.3312 -1.0047 0.9465
6.1245 10.2668 -0.8766 0.9532
3.8409 10.2337 -0.8015 0.9571
1.8657 10.2389 -0.7631 0.9591
-6.9008 18.5475 -1.4510 0.9237
-14.3109 13.8097 -1.4582 0.9233
8.0879 -17.4875 -1.4127 0.9256
11.3273 10.3411 -1.1246 0.9403
6.4792 10.2736 -0.8906 0.9525
5.2497 10.2519 -0.8445 0.9549
4.1345 10.2368 -0.8095 0.9567
2.1289 10.2369 -0.7667 0.9589
1.1899 10.2440 -0.7562 0.9595
0.2827 10.7745 -0.7903 0.9577
-1.0601 6.8941 -0.5114 0.9724
-8.0688 18.0297 -1.4483 0.9238
14.2810 10.3190 -1.2919 0.9318
11.9024 10.3368 -1.1559 0.9387
9.9580 10.3463 -1.0529 0.9440
4.4344 10.2404 -0.8182 0.9562
3.3814 10.2294 -0.7900 0.9577
-0.8776 6.8304 -0.5049 0.9728
-7.6196 18.2251 -1.4484 0.9238
-9.2917 17.6148 -1.4602 0.9232
-5.4556 -15.8425 -1.2285 0.9350
12.5108 10.3322 -1.1897 0.9370
10.4607 10.3426 -1.0786 0.9427
8.7254 10.3242 -0.9911 0.9472
4.7412 10.2445 -0.8277 0.9557
0.8552 11.2563 -0.8277 0.9557
-17.1963 8.6222 -1.8468 0.9256
-10.9485 -15.8304 -1.8479 0.9256
-9.4924 -16.7467 -1.8481 0.9256
-5.5383 -15.8144 -1.6087 0.9349
-1.3211 -19.2167 -1.8493 0.9255
0.4000 -19.2605 -1.8495 0.9255
2.1184 -19.1504 -1.8497 0.9255
5.4921 -18.4730 -1.8502 0.9255
8.6922 -17.2058 -1.8507 0.9255
11.6164 -15.3889 -1.8511 0.9254
18.7461 4.5493 -1.8520 0.9254
17.6364 7.8102 -1.8518 0.9254
16.8676 9.3531 -1.8517 0.9254
15.2130 10.3120 -1.7644 0.9288
8.8441 10.3547 -1.3074 0.9467
6.0246 10.3280 -1.1479 0.9531
3.7848 10.3926 -1.0618 0.9565
2.7643 10.3975 -1.0329 0.9577
1.7885 10.3910 -1.0123 0.9585
-0.1611 19.2606 -1.8492 0.9255
-5.2576 18.5221 -1.8485 0.9255
-8.4660 17.2875 -1.8480 0.9256
-11.4033 15.5026 -1.8476 0.9256
-12.7407 14.4211 -1.8474 0.9256
-13.9761 13.2248 -1.8473 0.9256
-15.0998 11.9231 -1.8471 0.9256
-16.1029 10.5265 -1.8470 0.9256
-16.9774 9.0461 -1.8469 0.9256
-17.7164 7.4937 -1.8468 0.9256
-18.3140 5.8818 -1.8467 0.9256
-12.9602 -14.7982 -1.8885 0.9240
-11.3374 -15.5536 -1.8478 0.9256
-9.9045 -16.5056 -1.8480 0.9256
-8.3922 -17.3261 -1.8482 0.9256
-5.1781 -18.5471 -1.8487 0.9255
-3.5018 -18.9378 -1.8489 0.9255
-1.7972 -19.1774 -1.8492 0.9255
-0.0778 -19.2638 -1.8494 0.9255
3.3506 -18.9755 -1.8499 0.9255
6.6738 -18.0815 -1.8504 0.9255
8.2626 -17.4155 -1.8506 0.9255
9.7857 -16.6101 -1.8508 0.9255
11.2309 -15.6717 -1.8510 0.9254
12.7550 -14.8033 -1.8760 0.9245
18.9099 4.0953 -1.8575 0.9252
18.4128 5.7499 -1.8519 0.9254
17.8250 7.3706 -1.8518 0.9254
15.9384 10.2362 -1.8186 0.9267
11.1086 10.3427 -1.4572 0.9408
3.7742 5.0451 -0.6049 0.9750
6.4008 10.3730 -1.1702 0.9522
4.0786 10.3904 -1.0716 0.9561
3.0425 10.3981 -1.0401 0.9574
1.1038 10.3900 -1.0031 0.9589
-0.5086 6.9580 -0.6698 0.9724
-1.1282 6.8869 -0.6700 0.9723
-8.0350 17.4926 -1.8481 0.9256
-12.3795 14.7331 -1.8475 0.9256
-13.6442 13.5676 -1.8473 0.9256
-15.8372 10.9228 -1.8470 0.9256
-17.5254 7.9309 -1.8468 0.9256
-18.6551 4.6870 -1.8466 0.9256
-7.2567 -17.8333 -1.8484 0.9256
-3.9702 -18.8445 -1.8489 0.9255
-0.5554 -19.2552 -1.8494 0.9255
1.1662 -19.2305 -1.8496 0.9255
6.2232 -18.2409 -1.8503 0.9255
13.9933 10.3211 -1.6693 0.9325
11.6715 10.3385 -1.4969 0.9393
9.7660 10.3478 -1.3660 0.9444
6.7598 10.3703 -1.1884 0.9515
5.5132 10.3796 -1.1283 0.9539
4.3781 10.3881 -1.0823 0.9557
3.3239 10.3960 -1.0478 0.9571
2.3248 10.3938 -1.0225 0.9581
-4.3331 18.7613 -1.8486 0.9255
-7.5990 17.6871 -1.8481 0.9256
-9.1468 16.9360 -1.8479 0.9256
-10.6213 16.0499 -1.8477 0.9256
-12.0106 15.0359 -1.8475 0.9256
-13.3039 13.9021 -1.8473 0.9256
-14.4908 12.6576 -1.8472 0.9256
-16.5086 9.8771 -1.8469 0.9256
-18.5333 5.1482 -1.8467 0.9256
-12.0938 -14.9714 -1.8477 0.9256
-10.7100 -15.9932 -1.8479 0.9256
-6.0908 -18.2663 -1.8486 0.9255
-2.7456 -19.0633 -1.8491 0.9255
-1.0327 -19.2348 -1.8493 0.9255
4.1033 -18.8282 -1.8500 0.9255
5.7688 -18.3889 -1.8503 0.9255
7.3885 -17.8026 -1.8505 0.9255
10.4395 -16.2083 -1.8509 0.9255
11.8462 -15.2131 -1.8511 0.9254
18.6756 4.8301 -1.8519 0.9254
14.7372 10.3156 -1.7270 0.9303
8.5804 10.3567 -1.2912 0.9474
7.2018 10.4713 -1.2201 0.9502
5.8463 10.3771 -1.1435 0.9533
2.5975 10.3959 -1.0287 0.9579
1.6283 10.3905 -1.0097 0.9586
1.0160 15.3634 -1.4782 0.9400
-0.4501 19.2556 -1.8491 0.9255
-3.8667 18.8637 -1.8487 0.9255
-11.6344 15.3295 -1.8476 0.9256
-12.9554 14.2281 -1.8474 0.9256
-14.1728 13.0134 -1.8472 0.9256
-15.2769 11.6950 -1.8471 0.9256
-16.2589 10.2836 -1.8469 0.9256
-17.8267 7.2270 -1.8467 0.9256
-12.5766 -14.8026 -1.8648 0.9249
-9.6559 -16.6527 -1.8481 0.9256
-8.1314 -17.4504 -1.8483 0.9256
3.6351 -18.9234 -1.8500 0.9255
6.9446 -17.9797 -1.8504 0.9255
11.4650 -15.5017 -1.8511 0.9254
13.1443 -14.8001 -1.9004 0.9235
18.7899 4.3655 -1.8520 0.9254
18.3243 6.0255 -1.8519 0.9254
17.7122 7.6372 -1.8518 0.9254
16.9585 9.1875 -1.8517 0.9254
15.5349 10.3096 -1.7900 0.9278
12.8966 10.3294 -1.5863 0.9358
10.7770 10.3402 -1.4339 0.9417
3.7218 5.1339 -0.6088 0.9748
6.1887 10.3746 -1.1598 0.9526
4.9961 10.3835 -1.1063 0.9548
2.8740 10.3985 -1.0357 0.9576
0.9931 10.9021 -1.0510 0.9570
-5.0760 18.5729 -1.8485 0.9255
-6.7132 18.0433 -1.8483 0.9256
-12.5989 14.5454 -1.8474 0.9256
-15.9992 10.6838 -1.8470 0.9256
-16.8881 9.2120 -1.8469 0.9256
-17.6422 7.6670 -1.8468 0.9256
-18.7233 4.4066 -1.8466 0.9256
-13.2159 -14.7952 -1.9046 0.9234
-11.4890 -15.4416 -1.8478 0.9256
-6.9885 -17.9405 -1.8484 0.9255
-5.3594 -18.4952 -1.8487 0.9255
-3.6871 -18.9023 -1.8489 0.9255
1.4546 -19.2112 -1.8497 0.9255
4.8496 -18.6510 -1.8501 0.9255
8.0915 -17.4954 -1.8506 0.9255
9.6224 -16.7049 -1.8508 0.9255
11.0767 -15.7808 -1.8510 0.9254
17.1814 8.7643 -1.8517 0.9254
16.3291 10.2627 -1.8516 0.9254
13.5667 10.3243 -1.6367 0.9338
9.4785 10.3499 -1.3474 0.9452
3.8319 5.0190 -0.6062 0.9749
5.3159 10.3811 -1.1197 0.9542
4.1962 10.3895 -1.0757 0.9560
1.2068 10.3900 -1.0042 0.9588
-1.0560 6.8674 -0.6671 0.9725
-4.6140 18.6938 -1.8486 0.9255
-7.8634 17.5707 -1.8481 0.9256
-9.3997 16.7965 -1.8479 0.9256
-10.8607 15.8884 -1.8477 0.9256
-13.5108 13.7007 -1.8473 0.9256
-14.6789 12.4386 -1.8472 0.9256
-16.6548 9.6281 -1.8469 0.9256
-18.6083 4.8695 -1.8466 0.9256
-8.9860 -17.0246 -1.8482 0.9256
-7.4310 -17.7611 -1.8484 0.9256
-4.1546 -18.8044 -1.8489 0.9255
-0.7440 -19.2486 -1.8493 0.9255
6.0442 -18.3007 -1.8503 0.9255
7.6550 -17.6901 -1.8505 0.9255
9.2049 -16.9379 -1.8507 0.9255
10.6817 -16.0501 -1.8509 0.9255
12.0733 -15.0339 -1.8511 0.9254
18.0696 6.7498 -1.8518 0.9254
17.3938 8.3357 -1.8517 0.9254
16.5789 9.8548 -1.8516 0.9254
14.2810 10.3190 -1.6915 0.9316
11.9024 10.3368 -1.5135 0.9386
8.3231 10.3586 -1.2757 0.9480
5.6437 10.3786 -1.1342 0.9536
0.9826 19.2379 -1.8493 0.9255
-0.7389 19.2463 -1.8491 0.9255
-0.8777 6.8314 -0.6612 0.9727
-4.1492 18.8031 -1.8486 0.9255
-7.4255 17.7609 -1.8482 0.9256
-11.8629 15.1530 -1.8475 0.9256
-17.9330 6.9586 -1.8467 0.9256
-10.8659 -15.8874 -1.8479 0.9256
-4.6194 -18.6950 -1.8488 0.9255
-2.9321 -19.0352 -1.8490 0.9255
-1.2210 -19.2235 -1.8493 0.9255
0.5004 -19.2583 -1.8495 0.9255
2.2182 -19.1392 -1.8498 0.9255
3.9187 -18.8672 -1.8500 0.9255
5.5883 -18.4443 -1.8502 0.9255
11.6965 -15.3282 -1.8511 0.9254
18.7222 4.6469 -1.8520 0.9254
18.2317 6.2997 -1.8519 0.9254
17.5954 7.9020 -1.8518 0.9254
15.0454 10.3133 -1.7512 0.9293
12.5108 10.3322 -1.5577 0.9369
10.4607 10.3426 -1.4123 0.9426
8.7518 10.3554 -1.3017 0.9470
7.3531 10.4701 -1.2283 0.9499
-0.2615 19.2594 -1.8492 0.9255
-13.2247 8.1842 -1.8474 0.9393
-13.9019 6.9704 -1.8473 0.9393
-16.5059 3.2867 -1.9992 0.9345
-16.8271 0.2985 -1.9991 0.9345
-16.7866 -1.2051 -1.9991 0.9345
-16.6123 -2.6992 -1.9992 0.9345
-15.8683 -5.6111 -1.9993 0.9344
-15.3046 -7.0058 -1.9994 0.9344
-13.8161 -9.6173 -1.9996 0.9344
-12.9031 -10.8132 -1.9998 0.9344
-11.8870 -11.9230 -1.9999 0.9344
-9.5785 -13.8495 -2.0002 0.9344
-8.2843 -14.6152 -1.9956 0.9346
-6.7164 -14.7904 -1.9296 0.9367
-5.1840 -14.8026 -1.8631 0.9388
-1.0678 -15.5314 -1.8493 0.9392
0.3233 -15.5664 -1.8495 0.9392
3.0874 -15.2639 -1.8499 0.9392
4.4384 -14.9288 -1.8500 0.9392
5.8824 -14.7970 -1.8915 0.9379
7.4682 -14.7829 -1.9674 0.9355
10.1594 -13.4587 -2.0031 0.9343
11.3214 -12.4989 -2.0032 0.9343
12.3931 -11.4389 -2.0034 0.9343
13.3658 -10.2874 -2.0035 0.9343
16.7496 -2.0119 -2.0039 0.9343
16.8403 0.9992 -2.0039 0.9343
12.0663 9.8599 -1.8510 0.9392
10.5695 10.3418 -1.7565 0.9422
8.8441 10.3547 -1.6176 0.9466
7.3608 10.3658 -1.5102 0.9501
4.8718 10.3844 -1.3625 0.9548
1.7913 10.4075 -1.2544 0.9584
-2.8963 15.2924 -1.8488 0.9392
-5.5688 14.5305 -1.8484 0.9392
-6.8433 13.9739 -1.8483 0.9392
-8.0629 13.3059 -1.8481 0.9393
-11.2982 10.6908 -1.8477 0.9393
-12.2068 9.6387 -1.8475 0.9393
-16.4177 3.6946 -1.9990 0.9345
-16.8144 0.7157 -1.9991 0.9345
-16.8113 -0.7885 -1.9991 0.9345
-16.6740 -2.2864 -1.9992 0.9345
-16.0024 -5.2158 -1.9993 0.9345
-14.0501 -9.2716 -1.9996 0.9344
-13.1670 -10.4897 -1.9997 0.9344
-12.1787 -11.6243 -1.9999 0.9344
-8.6577 -14.4279 -1.9987 0.9345
-5.5986 -14.7996 -1.8796 0.9383
-4.1853 -14.9911 -1.8488 0.9392
1.3277 -15.5142 -1.8496 0.9392
7.0156 -14.7872 -1.9442 0.9362
13.1063 -10.6155 -2.0035 0.9343
14.0027 -9.4034 -2.0036 0.9343
15.4533 -6.7636 -2.0038 0.9343
16.6945 -2.4267 -2.0039 0.9343
16.8446 -0.9264 -2.0039 0.9343
16.8600 0.5813 -2.0039 0.9343
16.7405 2.0843 -2.0039 0.9343
13.8128 7.2173 -1.8512 0.9392
3.7774 5.0494 -0.7491 0.9749
6.4008 10.3730 -1.4479 0.9521
4.0786 10.3904 -1.3259 0.9560
2.0579 10.4055 -1.2600 0.9582
1.1062 10.4126 -1.2438 0.9587
-0.5060 6.9219 -0.8244 0.9724
-1.1255 6.8707 -0.8270 0.9723
-3.8772 15.0724 -1.8487 0.9392
-5.2070 14.6646 -1.8485 0.9392
-8.9046 12.7568 -1.8480 0.9393
-11.0298 10.9679 -1.8477 0.9393
-12.8030 8.8301 -1.8474 0.9393
-13.5396 7.6513 -1.8474 0.9393
-16.2669 4.0870 -1.9923 0.9347
-16.7916 1.1324 -1.9991 0.9345
-16.7255 -1.8722 -1.9992 0.9345
-16.1266 -4.8174 -1.9993 0.9345
-15.0140 -7.6094 -1.9994 0.9344
-14.2754 -8.9202 -1.9996 0.9344
-13.4228 -10.1598 -1.9997 0.9344
-12.4630 -11.3185 -1.9998 0.9344
-11.4035 -12.3870 -2.0000 0.9344
-7.6181 -14.7819 -1.9754 0.9352
-6.0209 -14.7963 -1.8975 0.9377
-4.5557 -14.8822 -1.8488 0.9392
-3.2090 -15.2311 -1.8490 0.9392
-1.8364 -15.4585 -1.8492 0.9392
-0.4489 -15.5623 -1.8494 0.9392
3.6926 -15.1297 -1.8499 0.9392
5.0504 -14.8032 -1.8579 0.9389
6.5733 -14.7912 -1.9227 0.9369
9.4792 -13.9452 -2.0030 0.9343
10.6873 -13.0443 -2.0031 0.9343
13.7649 -9.7476 -2.0035 0.9343
16.6291 -2.8399 -2.0039 0.9343
16.8164 -1.3438 -2.0039 0.9343
16.8692 0.1631 -2.0039 0.9343
16.7871 1.6686 -2.0039 0.9343
14.5462 5.5966 -1.8514 0.9391
13.9877 6.8727 -1.8513 0.9392
12.5408 9.2499 -1.8510 0.9392
11.6640 10.3319 -1.8509 0.9392
6.7598 10.3703 -1.4704 0.9514
5.5132 10.3796 -1.3961 0.9538
2.3269 10.4035 -1.2663 0.9580
1.3679 10.4106 -1.2473 0.9586
-4.8419 14.7896 -1.8485 0.9392
-9.7090 12.1545 -1.8479 0.9393
-11.7143 10.2324 -1.8476 0.9393
-14.0049 6.7610 -1.8473 0.9393
-14.9831 4.1620 -1.8472 0.9393
-16.7583 1.5485 -1.9991 0.9345
-16.7667 -1.4569 -1.9992 0.9345
-16.5699 -2.9481 -1.9992 0.9345
-16.2410 -4.4159 -1.9992 0.9345
-15.1979 -7.2348 -1.9994 0.9344
-12.7396 -11.0058 -1.9998 0.9344
-11.7069 -12.1002 -1.9999 0.9344
-10.5806 -13.0982 -2.0001 0.9344
-9.3697 -13.9919 -2.0003 0.9344
-8.0567 -14.7245 -1.9938 0.9346
-6.4515 -14.7927 -1.9170 0.9371
-4.9371 -14.8062 -1.8540 0.9391
-0.8346 -15.5460 -1.8493 0.9392
0.5568 -15.5601 -1.8495 0.9392
3.3161 -15.2161 -1.8499 0.9392
4.6620 -14.8608 -1.8501 0.9392
6.1402 -14.7949 -1.9028 0.9375
7.7473 -14.7801 -1.9822 0.9350
10.3604 -13.3049 -2.0031 0.9343
11.5078 -12.3277 -2.0032 0.9343
13.5188 -10.0858 -2.0035 0.9343
16.7779 -1.7604 -2.0039 0.9343
13.5143 7.7611 -1.8512 0.9392
6.1548 5.1853 -0.9559 0.9681
5.8464 10.3771 -1.4148 0.9532
3.6096 10.3939 -1.3070 0.9566
2.5989 10.4014 -1.2735 0.9577
1.6311 10.4087 -1.2515 0.9584
-3.1253 15.2470 -1.8488 0.9392
-5.7862 14.4451 -1.8484 0.9392
-7.0521 13.8695 -1.8482 0.9392
-8.2616 13.1832 -1.8481 0.9393
-9.4049 12.3919 -1.8479 0.9393
-10.4729 11.5017 -1.8478 0.9393
-12.3499 9.4543 -1.8475 0.9393
-13.8331 7.1063 -1.8473 0.9393
-14.4117 5.8426 -1.8472 0.9393
-14.8754 4.5323 -1.8472 0.9393
-16.4729 3.4482 -1.9992 0.9345
-16.8233 0.4633 -1.9991 0.9345
-16.7976 -1.0406 -1.9991 0.9345
-16.6378 -2.5363 -1.9992 0.9345
-15.9224 -5.4554 -1.9993 0.9344
-15.3724 -6.8556 -1.9994 0.9344
-14.6996 -8.2012 -1.9995 0.9344
-13.9095 -9.4815 -1.9996 0.9344
-12.0031 -11.8059 -1.9999 0.9344
-9.7136 -13.7549 -2.0002 0.9344
-8.4322 -14.5423 -1.9968 0.9345
-6.8912 -14.7888 -1.9381 0.9364
1.5603 -15.4928 -1.8496 0.9392
2.9377 -15.2932 -1.8498 0.9392
5.7158 -14.7983 -1.8844 0.9381
10.0270 -13.5575 -2.0030 0.9343
12.2803 -11.5597 -2.0033 0.9343
14.9073 -7.8933 -2.0037 0.9343
15.5532 -6.5310 -2.0038 0.9343
16.7291 -2.1759 -2.0039 0.9343
16.8566 -0.6735 -2.0039 0.9343
16.7073 2.3353 -2.0039 0.9343
16.4088 3.8123 -2.0010 0.9344
14.8061 4.8686 -1.8514 0.9391
14.3116 6.1709 -1.8513 0.9392
13.7028 7.4237 -1.8512 0.9392
12.9844 8.6170 -1.8511 0.9392
12.1624 9.7413 -1.8510 0.9392
10.7770 10.3402 -1.7741 0.9416
3.7310 5.1466 -0.7551 0.9747
4.9961 10.3835 -1.3688 0.9546
2.8742 10.3994 -1.2816 0.9575
1.8963 10.4067 -1.2565 0.9583
0.9930 10.9018 -1.3003 0.9569
0.0223 15.5677 -1.8492 0.9392
-0.6019 6.8244 -0.8138 0.9728
-4.1029 15.0123 -1.8486 0.9392
-5.4263 14.5845 -1.8485 0.9392
-7.9323 13.3843 -1.8481 0.9393
-9.0949 12.6215 -1.8480 0.9393
-11.1930 10.8010 -1.8477 0.9393
-12.1119 9.7578 -1.8475 0.9393
-13.6528 7.4472 -1.8473 0.9393
-14.7585 4.8998 -1.8472 0.9393
-16.3591 3.8502 -1.9963 0.9345
-16.8066 0.8804 -1.9991 0.9345
-15.5375 -6.4722 -1.9994 0.9344
-14.8983 -7.8340 -1.9995 0.9344
-12.2919 -11.5044 -1.9998 0.9344
-10.0514 -13.5094 -2.0002 0.9344
-0.2153 -15.5676 -1.8494 0.9392
3.9192 -15.0728 -1.8500 0.9392
5.2990 -14.8014 -1.8675 0.9386
8.3979 -14.5791 -1.9986 0.9345
11.9897 -11.8604 -2.0033 0.9343
13.0017 -10.7433 -2.0034 0.9343
13.9098 -9.5400 -2.0036 0.9343
16.3718 -4.0680 -2.0039 0.9343
16.6699 -2.5900 -2.0039 0.9343
16.8347 -1.0913 -2.0039 0.9343
16.5214 3.4090 -2.0039 0.9343
14.9224 4.5000 -1.8514 0.9391
14.4604 5.8142 -1.8513 0.9391
13.8829 7.0817 -1.8513 0.9392
11.3273 10.3411 -1.8219 0.9401
9.4785 10.3499 -1.6671 0.9450
3.8336 5.0212 -0.7504 0.9749
6.5412 10.3719 -1.4566 0.9518
2.1638 10.4047 -1.2624 0.9581
1.2094 10.4118 -1.2451 0.9587
0.2827 10.7757 -1.2804 0.9575
-0.4422 6.9907 -0.8321 0.9722
-1.0534 6.8502 -0.8233 0.9725
-3.7295 15.1098 -1.8487 0.9392
-5.0631 14.7150 -1.8485 0.9392
-6.3561 14.2028 -1.8483 0.9392
-7.5982 13.5773 -1.8482 0.9393
-9.8902 12.0073 -1.8478 0.9393
-10.9219 11.0755 -1.8477 0.9393
-11.8664 10.0554 -1.8476 0.9393
-13.4641 7.7836 -1.8474 0.9393
-14.1046 6.5500 -1.8473 0.9393
-16.5970 2.7899 -1.9991 0.9345
-16.7797 1.2968 -1.9991 0.9345
-16.1730 -4.6592 -1.9993 0.9345
-15.0878 -7.4621 -1.9994 0.9344
-14.3620 -8.7799 -1.9995 0.9344
-13.5216 -10.0278 -1.9997 0.9344
-12.5731 -11.1958 -1.9998 0.9344
-11.5242 -12.2747 -2.0000 0.9344
-9.1589 -14.1311 -2.0003 0.9344
-7.8013 -14.7801 -1.9852 0.9349
-3.3580 -15.1988 -1.8489 0.9392
-1.9877 -15.4396 -1.8491 0.9392
2.1757 -15.4192 -1.8497 0.9392
3.5442 -15.1649 -1.8499 0.9392
10.5590 -13.1482 -2.0031 0.9343
11.6917 -12.1538 -2.0033 0.9343
12.7310 -11.0621 -2.0034 0.9343
13.6687 -9.8819 -2.0035 0.9343
14.4973 -8.6225 -2.0036 0.9343
15.2099 -7.2939 -2.0037 0.9343
16.6005 -3.0026 -2.0039 0.9343
16.8024 -1.5084 -2.0039 0.9343
16.8700 -0.0022 -2.0039 0.9343
16.8027 1.5041 -2.0039 0.9343
16.6009 2.9983 -2.0039 0.9343
14.0544 6.7354 -1.8513 0.9392
12.6309 9.1266 -1.8511 0.9392
9.9580 10.3464 -1.7058 0.9438
8.3231 10.3586 -1.5784 0.9479
4.4980 10.3872 -1.3446 0.9554
3.4362 10.3952 -1.3005 0.9569
0.7941 15.5484 -1.8493 0.9392
-7.2593 13.7619 -1.8482 0.9392
-8.4583 13.0575 -1.8480 0.9393
-9.5896 12.2492 -1.8479 0.9393
-11.6136 10.3467 -1.8476 0.9393
-13.2671 8.1152 -1.8474 0.9393
-14.4977 5.6256 -1.8472 0.9393
-14.9416 4.3085 -1.8472 0.9393
-16.5228 3.2006 -1.9992 0.9345
-16.8284 0.2108 -1.9991 0.9345
-16.7801 -1.2926 -1.9991 0.9345
-16.5980 -2.7857 -1.9992 0.9345
-16.2834 -4.2566 -1.9992 0.9345
-11.8247 -11.9848 -1.9999 0.9344
-9.5062 -13.8993 -2.0003 0.9344
-3.7337 -15.1104 -1.8489 0.9392
-0.9868 -15.5369 -1.8493 0.9392
1.7927 -15.4680 -1.8497 0.9392
3.1669 -15.2477 -1.8499 0.9392
4.5162 -14.9056 -1.8501 0.9392
5.9716 -14.7963 -1.8953 0.9377
7.5646 -14.7819 -1.9725 0.9353
8.9909 -14.2642 -2.0029 0.9343
10.2295 -13.4057 -2.0031 0.9343
14.2788 -8.9792 -2.0036 0.9343
16.1498 -4.8746 -2.0038 0.9343
16.8648 -0.4205 -2.0039 0.9343
16.6703 2.5857 -2.0039 0.9343
16.3168 4.0499 -1.9970 0.9345
14.7313 5.0902 -1.8514 0.9391
14.2173 6.3849 -1.8513 0.9392
13.5897 7.6284 -1.8512 0.9392
12.0147 9.9226 -1.8510 0.9392
8.7518 10.3554 -1.6105 0.9469
4.8062 10.3849 -1.3593 0.9550
2.7072 10.4006 -1.2766 0.9576
-0.2113 15.5660 -1.8492 0.9392
-11.0888 6.8625 -1.8477 0.9487
-11.6568 5.8447 -1.8476 0.9487
-12.1317 4.7804 -1.8476 0.9487
-13.5049 3.9706 -1.9945 0.9447
-13.8405 2.7559 -1.9995 0.9446
-14.0759 -1.0105 -1.9995 0.9446
-13.9296 -2.2633 -1.9996 0.9446
-13.6722 -3.4980 -1.9996 0.9446
-10.8189 -9.0666 -2.0000 0.9446
-9.0351 -10.8478 -2.0003 0.9446
-8.0310 -11.6120 -2.0005 0.9446
-5.8386 -12.8573 -2.0008 0.9445
-4.6677 -13.3284 -2.0009 0.9445
-2.2231 -13.9485 -2.0013 0.9445
1.5534 -14.0427 -2.0018 0.9445
2.8012 -13.8491 -2.0020 0.9445
4.0269 -13.5449 -2.0022 0.9445
6.3728 -12.6147 -2.0025 0.9445
7.4743 -11.9963 -2.0027 0.9445
8.5161 -11.2818 -2.0028 0.9445
9.4901 -10.4771 -2.0029 0.9445
10.3883 -9.5885 -2.0031 0.9445
13.0898 -5.3464 -2.0034 0.9445
13.5152 -4.1564 -2.0035 0.9445
13.8326 -2.9331 -2.0035 0.9445
14.0394 -1.6864 -2.0035 0.9445
14.1339 -0.4261 -2.0035 0.9445
14.1154 0.8375 -2.0035 0.9445
13.7410 3.3347 -2.0035 0.9445
12.3699 4.2022 -1.8511 0.9486
11.4244 6.3348 -1.8509 0.9486
7.1241 10.0324 -1.7434 0.9515
1.0039 12.3598 -1.7570 0.9511
-0.6760 6.8918 -0.9812 0.9724
-2.4282 12.8210 -1.8489 0.9486
-5.7377 11.7162 -1.8484 0.9487
-6.7603 11.1563 -1.8483 0.9487
-9.4733 8.9640 -1.8479 0.9487
-10.2352 8.0819 -1.8478 0.9487
-12.0095 5.0798 -1.8476 0.9487
-13.7679 3.0983 -1.9995 0.9446
-13.9894 1.8566 -1.9995 0.9446
-14.0965 -0.6611 -1.9995 0.9446
-13.9814 -1.9172 -1.9995 0.9446
-13.7546 -3.1579 -1.9996 0.9446
-13.4181 -4.3735 -1.9996 0.9446
-12.9745 -5.5543 -1.9997 0.9446
-11.0403 -8.7954 -2.0000 0.9446
-8.3163 -11.4090 -2.0004 0.9446
-6.1555 -12.7082 -2.0007 0.9446
-1.3180 -14.0638 -2.0014 0.9445
1.2046 -14.0765 -2.0018 0.9445
2.4569 -13.9140 -2.0020 0.9445
3.6897 -13.6402 -2.0021 0.9445
4.8933 -13.2574 -2.0023 0.9445
9.2272 -10.7090 -2.0029 0.9445
12.3947 -6.8029 -2.0033 0.9445
12.9531 -5.6693 -2.0034 0.9445
13.2039 4.1233 -1.9599 0.9456
11.5781 6.0497 -1.8509 0.9486
10.3164 8.0116 -1.8507 0.9486
5.1887 10.3821 -1.6445 0.9542
4.0786 10.3904 -1.5816 0.9559
3.0425 10.3981 -1.5351 0.9572
2.0579 10.4055 -1.5029 0.9581
1.1062 10.4126 -1.4837 0.9586
0.2145 13.0499 -1.8493 0.9486
-0.5098 6.9747 -0.9909 0.9721
-1.1334 6.9187 -0.9934 0.9721
-3.2507 12.6368 -1.8488 0.9487
-4.3656 12.2950 -1.8486 0.9487
-5.4455 11.8552 -1.8485 0.9487
-7.4661 10.6960 -1.8482 0.9487
-9.2482 9.1963 -1.8480 0.9487
-10.0318 8.3333 -1.8478 0.9487
-10.7352 7.4040 -1.8478 0.9487
-11.3529 6.4156 -1.8477 0.9487
-13.6869 3.4388 -1.9996 0.9446
-13.9391 2.2029 -1.9995 0.9446
-14.0800 0.9496 -1.9995 0.9446
-14.1086 -0.3114 -1.9995 0.9446
-13.5223 -4.0394 -1.9996 0.9446
-13.1081 -5.2308 -1.9997 0.9446
-10.4498 -9.4902 -2.0001 0.9446
-8.5965 -11.1991 -2.0004 0.9446
-6.4686 -12.5514 -2.0007 0.9446
-5.3225 -13.0799 -2.0008 0.9445
-2.9118 -13.8204 -2.0012 0.9445
0.8552 -14.1017 -2.0017 0.9445
2.1110 -13.9703 -2.0019 0.9445
3.3503 -13.7272 -2.0021 0.9445
4.5629 -13.3744 -2.0023 0.9445
5.7393 -12.9146 -2.0024 0.9445
6.8700 -12.3516 -2.0026 0.9445
8.9586 -10.9343 -2.0029 0.9445
9.8998 -10.0914 -2.0030 0.9445
11.5380 -8.1706 -2.0032 0.9445
13.2923 -4.8213 -2.0034 0.9445
13.9384 -2.3804 -2.0035 0.9445
13.8896 2.6493 -2.0035 0.9445
13.5735 3.8720 -1.9999 0.9446
11.7247 5.7608 -1.8510 0.9486
9.7772 8.6606 -1.8507 0.9486
8.9643 9.4983 -1.8505 0.9486
8.0799 10.2601 -1.8504 0.9486
6.7598 10.3703 -1.7540 0.9512
4.3781 10.3881 -1.5973 0.9555
3.3239 10.3960 -1.5465 0.9569
2.3269 10.4035 -1.5105 0.9578
1.3679 10.4106 -1.4878 0.9585
-0.6284 13.0356 -1.8492 0.9486
-0.9563 6.9071 -0.9880 0.9722
-5.1500 11.9868 -1.8485 0.9487
-7.1987 10.8780 -1.8482 0.9487
-9.8222 8.5797 -1.8479 0.9487
-14.0521 1.2984 -1.9995 0.9446
-14.1119 0.0386 -1.9995 0.9446
-14.0591 -1.2216 -1.9995 0.9446
-13.8941 -2.4721 -1.9996 0.9446
-13.6182 -3.7028 -1.9996 0.9446
-13.2336 -4.9041 -1.9997 0.9446
-12.7434 -6.0663 -1.9998 0.9446
-11.4624 -8.2370 -1.9999 0.9446
-10.6818 -9.2280 -2.0001 0.9446
-7.8560 -11.7313 -2.0005 0.9446
-4.4672 -13.3971 -2.0010 0.9445
-3.2535 -13.7436 -2.0011 0.9445
-2.0135 -13.9805 -2.0013 0.9445
-0.7573 -14.1057 -2.0015 0.9445
1.7639 -14.0180 -2.0019 0.9445
4.2298 -13.4831 -2.0022 0.9445
5.4172 -13.0527 -2.0024 0.9445
6.5615 -12.5179 -2.0025 0.9445
9.6463 -10.3336 -2.0030 0.9445
10.5311 -9.4316 -2.0031 0.9445
11.3317 -8.4541 -2.0032 0.9445
12.0419 -7.4089 -2.0033 0.9445
12.6558 -6.3044 -2.0034 0.9445
14.0631 -1.4755 -2.0035 0.9445
14.1387 -0.2140 -2.0035 0.9445
13.6893 3.5405 -2.0034 0.9445
12.3054 4.3874 -1.8510 0.9486
11.3279 6.5055 -1.8509 0.9486
10.7013 7.4906 -1.8508 0.9486
9.1973 9.2733 -1.8506 0.9486
5.8463 10.3771 -1.6876 0.9530
4.6837 10.3858 -1.6143 0.9550
3.6096 10.3939 -1.5590 0.9565
2.5989 10.4014 -1.5191 0.9576
0.8613 13.0238 -1.8494 0.9486
-0.3050 13.0475 -1.8492 0.9486
-2.6203 12.7830 -1.8489 0.9486
-4.8512 12.1111 -1.8486 0.9487
-5.9128 11.6286 -1.8484 0.9487
-10.3553 7.9273 -1.8478 0.9487
-11.5991 5.9586 -1.8476 0.9487
-13.8128 2.8913 -1.9995 0.9446
-14.0156 1.6465 -1.9995 0.9446
-14.1066 0.3885 -1.9995 0.9446
-14.0851 -0.8726 -1.9995 0.9446
-13.7058 -3.3640 -1.9996 0.9446
-13.3511 -4.5744 -1.9997 0.9446
-12.8898 -5.7484 -1.9997 0.9446
-10.9071 -8.9602 -2.0000 0.9446
-3.5932 -13.6584 -2.0011 0.9445
-1.1068 -14.0823 -2.0015 0.9445
0.1550 -14.1261 -2.0016 0.9445
1.4158 -14.0571 -2.0018 0.9445
2.6654 -13.8758 -2.0020 0.9445
3.8940 -13.5835 -2.0022 0.9445
5.0917 -13.1827 -2.0023 0.9445
8.4052 -11.3646 -2.0028 0.9445
9.3869 -10.5694 -2.0029 0.9445
11.8543 -7.7051 -2.0033 0.9445
13.8032 -3.0685 -2.0035 0.9445
14.0040 1.9575 -2.0035 0.9445
12.5914 4.1404 -1.8780 0.9479
10.8839 7.2230 -1.8508 0.9486
8.5789 9.8473 -1.8505 0.9486
2.8742 10.3994 -1.5287 0.9573
1.8963 10.4067 -1.4988 0.9582
0.9930 10.9013 -1.5510 0.9567
0.0187 13.0514 -1.8492 0.9486
-0.6096 6.9109 -0.9830 0.9724
-1.2611 7.0347 -1.0126 0.9715
-3.4399 12.5864 -1.8488 0.9487
-4.5495 12.2279 -1.8486 0.9487
-6.6508 11.2220 -1.8483 0.9487
-9.3851 9.0564 -1.8479 0.9487
-10.8450 7.2420 -1.8477 0.9487
-11.4478 6.2445 -1.8477 0.9487
-11.9592 5.1972 -1.8476 0.9487
-12.4822 4.1441 -1.8635 0.9483
-13.7369 3.2330 -1.9996 0.9446
-14.1023 -0.5230 -1.9995 0.9446
-13.9995 -1.7801 -1.9995 0.9446
-13.4603 -4.2419 -1.9996 0.9446
-13.0282 -5.4269 -1.9997 0.9446
-11.8563 -7.6583 -1.9999 0.9446
-11.1258 -8.6868 -2.0000 0.9446
-10.3064 -9.6461 -2.0001 0.9446
-8.4276 -11.3269 -2.0004 0.9446
-7.3831 -12.0351 -2.0006 0.9446
-6.2796 -12.6472 -2.0007 0.9446
-5.1257 -13.1585 -2.0009 0.9445
-2.7041 -13.8628 -2.0012 0.9445
-1.4557 -14.0501 -2.0014 0.9445
-0.1954 -14.1252 -2.0016 0.9445
1.0667 -14.0875 -2.0018 0.9445
2.3205 -13.9372 -2.0019 0.9445
5.9325 -12.8272 -2.0024 0.9445
7.0547 -12.2472 -2.0026 0.9445
8.1206 -11.5693 -2.0028 0.9445
9.1218 -10.7988 -2.0029 0.9445
10.0502 -9.9418 -2.0030 0.9445
12.3274 -6.9240 -2.0033 0.9445
12.8969 -5.7959 -2.0034 0.9445
13.7228 -3.4098 -2.0035 0.9445
13.9726 -2.1710 -2.0035 0.9445
14.1107 -0.9147 -2.0035 0.9445
14.1360 0.3488 -2.0035 0.9445
14.0483 1.6096 -2.0035 0.9445
11.6368 5.9360 -1.8509 0.9486
10.3945 7.9103 -1.8508 0.9486
9.6461 8.8062 -1.8506 0.9486
5.3159 10.3811 -1.6525 0.9540
2.1638 10.4047 -1.5058 0.9580
1.2094 10.4118 -1.4852 0.9585
-4.2450 12.3373 -1.8486 0.9487
-5.3292 11.9080 -1.8485 0.9487
-8.2925 10.0677 -1.8481 0.9487
-9.9498 8.4312 -1.8479 0.9487
-12.2696 4.4142 -1.8476 0.9487
-13.9169 2.3394 -1.9995 0.9446
-14.1109 -0.1732 -1.9995 0.9446
-14.0392 -1.4324 -1.9995 0.9446
-13.8555 -2.6803 -1.9996 0.9446
-13.5612 -3.9068 -1.9996 0.9446
-12.0424 -7.3618 -1.9999 0.9446
-10.5422 -9.3874 -2.0001 0.9446
-9.6626 -10.2918 -2.0002 0.9446
-8.7057 -11.1142 -2.0004 0.9446
-7.6791 -11.8480 -2.0005 0.9446
-6.5911 -12.4873 -2.0007 0.9446
-4.2658 -13.4628 -2.0010 0.9445
-3.0469 -13.7911 -2.0012 0.9445
-1.8036 -14.0093 -2.0014 0.9445
6.7487 -12.4181 -2.0026 0.9445
8.8510 -11.0214 -2.0029 0.9445
9.8004 -10.1878 -2.0030 0.9445
12.7491 -6.1138 -2.0034 0.9445
13.2444 -4.9513 -2.0034 0.9445
13.6339 -3.7490 -2.0035 0.9445
14.0839 1.2607 -2.0035 0.9445
13.9149 2.5132 -2.0035 0.9445
11.2289 6.6747 -1.8509 0.9486
10.5876 7.6502 -1.8508 0.9486
9.0570 9.4102 -1.8506 0.9486
4.4980 10.3872 -1.6038 0.9553
0.6658 13.0351 -1.8493 0.9486
-0.8890 6.9190 -0.9884 0.9722
-2.8117 12.7420 -1.8488 0.9486
-3.9379 12.4390 -1.8487 0.9487
-5.0324 12.0368 -1.8485 0.9487
-8.0405 10.2704 -1.8481 0.9487
-8.9248 9.5109 -1.8480 0.9487
-9.7378 8.6755 -1.8479 0.9487
-10.4729 7.7710 -1.8478 0.9487
-11.1244 6.8046 -1.8477 0.9487
-13.5333 3.9024 -1.9956 0.9447
-13.8546 2.6837 -1.9995 0.9446
-14.0388 1.4360 -1.9995 0.9446
-14.0704 -1.0838 -1.9995 0.9446
-13.2810 -4.7742 -1.9997 0.9446
-12.8022 -5.9412 -1.9997 0.9446
-12.2211 -7.0609 -1.9998 0.9446
-11.5424 -8.1242 -1.9999 0.9446
-9.9146 -10.0489 -2.0002 0.9446
-8.9784 -10.8948 -2.0003 0.9446
-6.8986 -12.3198 -2.0006 0.9446
-5.7715 -12.8876 -2.0008 0.9445
-4.5982 -13.3526 -2.0010 0.9445
2.8734 -13.8344 -2.0020 0.9445
6.4385 -12.5814 -2.0025 0.9445
7.5367 -11.9572 -2.0027 0.9445
8.5749 -11.2373 -2.0028 0.9445
9.5446 -10.4275 -2.0029 0.9445
11.2483 -8.5646 -2.0032 0.9445
12.5934 -6.4280 -2.0034 0.9445
13.1175 -5.2781 -2.0034 0.9445
13.5367 -4.0859 -2.0035 0.9445
13.8477 -2.8610 -2.0035 0.9445
14.0480 -1.6132 -2.0035 0.9445
13.9730 2.1673 -2.0035 0.9445
11.9171 5.3519 -1.8510 0.9486
11.3911 6.3943 -1.8509 0.9486
6.2427 5.1557 -1.1472 0.9678
7.0461 10.0330 -1.7371 0.9517
3.7238 10.3930 -1.5642 0.9564
0.9888 13.0149 -1.8494 0.9486
-9.5385 5.9030 -1.8479 0.9555
-10.5178 4.1445 -1.8624 0.9552
-11.9056 2.3706 -1.9998 0.9520
-12.0696 1.2982 -1.9998 0.9520
-11.9823 -1.9469 -1.9998 0.9520
-11.7608 -3.0090 -1.9999 0.9520
-11.4455 -4.0472 -1.9999 0.9520
-11.0387 -5.0531 -2.0000 0.9520
-9.9648 -6.9365 -2.0002 0.9520
-9.3061 -7.7988 -2.0003 0.9520
-7.7715 -9.3308 -2.0005 0.9520
-6.9078 -9.9880 -2.0006 0.9520
-5.0219 -11.0589 -2.0009 0.9520
-1.9121 -11.9970 -2.0013 0.9519
-0.8333 -12.1208 -2.0015 0.9519
3.4633 -11.6492 -2.0021 0.9519
4.4899 -11.2942 -2.0022 0.9519
5.4808 -10.8490 -2.0024 0.9519
8.9338 -8.2460 -2.0028 0.9519
10.2589 -6.5261 -2.0030 0.9519
11.2568 -4.5977 -2.0032 0.9519
11.6226 -3.5744 -2.0032 0.9519
12.0733 -1.4502 -2.0032 0.9519
12.1546 -0.3664 -2.0033 0.9519
10.2723 4.5490 -1.8508 0.9555
9.8247 5.4478 -1.8507 0.9555
9.2986 6.3030 -1.8506 0.9555
6.5025 9.1571 -1.8502 0.9555
5.6586 9.7005 -1.8501 0.9555
0.9088 11.1893 -1.8494 0.9555
-0.0939 11.2249 -1.8492 0.9555
-2.0885 11.0275 -1.8490 0.9555
-3.0646 10.7962 -1.8488 0.9555
-7.4281 8.4078 -1.8482 0.9555
-9.8994 5.2747 -1.8479 0.9555
-10.3306 4.3696 -1.8478 0.9555
-12.0337 1.5971 -1.9998 0.9520
-12.1282 0.5162 -1.9998 0.9520
-12.0268 -1.6491 -1.9998 0.9520
-11.8317 -2.7164 -1.9999 0.9520
-10.6898 -5.7554 -2.0000 0.9520
-9.4965 -7.5656 -2.0002 0.9520
-7.1533 -9.8135 -2.0006 0.9520
-4.2977 -11.3606 -2.0010 0.9520
-2.2089 -11.9457 -2.0013 0.9519
-1.1336 -12.0961 -2.0014 0.9519
-0.0490 -12.1500 -2.0016 0.9519
2.1130 -11.9668 -2.0019 0.9519
4.2084 -11.4019 -2.0022 0.9519
5.2100 -10.9813 -2.0023 0.9519
7.9354 -9.2097 -2.0027 0.9519
10.0938 -6.7784 -2.0030 0.9519
10.6591 -5.8504 -2.0031 0.9519
11.5303 -3.8615 -2.0032 0.9519
11.8293 -2.8166 -2.0032 0.9519
12.0336 -1.7492 -2.0032 0.9519
12.1418 -0.6677 -2.0033 0.9519
12.1529 0.4190 -2.0032 0.9519
11.8843 2.5738 -2.0032 0.9519
11.6068 3.6245 -2.0032 0.9519
9.9569 5.2026 -1.8507 0.9555
8.8720 6.8899 -1.8505 0.9555
8.2210 7.6542 -1.8504 0.9555
5.8975 9.5574 -1.8501 0.9555
4.0786 10.3904 -1.8389 0.9558
2.0579 10.4055 -1.7474 0.9579
1.1062 10.4126 -1.7250 0.9584
0.1845 11.2240 -1.8493 0.9555
-0.5176 7.0809 -1.1696 0.9716
-1.1349 6.9277 -1.1565 0.9719
-2.7959 10.8691 -1.8489 0.9555
-3.7550 10.5753 -1.8487 0.9555
-5.5753 9.7375 -1.8485 0.9555
-6.4220 9.2002 -1.8484 0.9555
-7.2174 8.5896 -1.8482 0.9555
-7.9550 7.9104 -1.8481 0.9555
-9.7657 5.5187 -1.8479 0.9555
-10.2191 4.6245 -1.8478 0.9555
-11.4319 3.9868 -1.9945 0.9521
-12.1117 0.8168 -1.9998 0.9520
-12.0640 -1.3504 -1.9998 0.9520
-10.8291 -5.4885 -2.0000 0.9520
-8.9886 -8.1632 -2.0003 0.9520
-8.2243 -8.9337 -2.0004 0.9520
-6.5051 -10.2553 -2.0007 0.9520
-5.5638 -10.7959 -2.0008 0.9520
-4.5780 -11.2504 -2.0009 0.9520
-3.5555 -11.6150 -2.0011 0.9519
-2.5044 -11.8870 -2.0012 0.9519
-1.4332 -12.0641 -2.0014 0.9519
0.7355 -12.1285 -2.0017 0.9519
2.8814 -11.8061 -2.0020 0.9519
3.9243 -11.5025 -2.0022 0.9519
4.9360 -11.1069 -2.0023 0.9519
8.5137 -8.6785 -2.0028 0.9519
9.9225 -7.0266 -2.0030 0.9519
11.0148 -5.1501 -2.0031 0.9519
11.4310 -4.1462 -2.0032 0.9519
11.7557 -3.1090 -2.0032 0.9519
12.1596 0.1175 -2.0033 0.9519
12.1004 1.2027 -2.0032 0.9519
11.6932 3.3356 -2.0032 0.9519
10.7591 4.1395 -1.8991 0.9543
10.0829 4.9541 -1.8507 0.9555
9.6000 5.8344 -1.8507 0.9555
6.9488 8.8238 -1.8503 0.9555
5.2679 9.9177 -1.8500 0.9555
2.3269 10.4035 -1.7562 0.9577
1.3679 10.4107 -1.7298 0.9583
-0.9498 6.8603 -1.1409 0.9723
-2.5256 10.9353 -1.8489 0.9555
-4.4296 10.3103 -1.8486 0.9555
-5.3322 9.8729 -1.8485 0.9555
-6.1920 9.3568 -1.8484 0.9555
-7.0023 8.7660 -1.8483 0.9555
-7.7566 8.1054 -1.8482 0.9555
-8.4489 7.3800 -1.8481 0.9555
-9.0736 6.5959 -1.8480 0.9555
-9.6259 5.7592 -1.8479 0.9555
-10.9653 4.1318 -1.9304 0.9536
-11.6966 3.2491 -1.9998 0.9520
-11.9398 2.1917 -1.9998 0.9520
-12.0877 1.1169 -1.9998 0.9520
-12.1391 0.0332 -1.9998 0.9520
-12.0937 -1.0508 -1.9998 0.9520
-10.9617 -5.2182 -2.0000 0.9520
-9.8597 -7.0852 -2.0002 0.9520
-6.7573 -10.0907 -2.0006 0.9520
-4.8555 -11.1332 -2.0009 0.9520
-3.8423 -11.5230 -2.0011 0.9520
-2.7983 -11.8210 -2.0012 0.9519
-0.6513 -12.1321 -2.0015 0.9519
1.5171 -12.0563 -2.0018 0.9519
2.5877 -11.8736 -2.0020 0.9519
3.6378 -11.5960 -2.0021 0.9519
4.6590 -11.2257 -2.0023 0.9519
5.6430 -10.7656 -2.0024 0.9519
6.5821 -10.2194 -2.0025 0.9519
9.0566 -8.1111 -2.0029 0.9519
9.7451 -7.2704 -2.0030 0.9519
10.8836 -5.4216 -2.0031 0.9519
11.3246 -4.4283 -2.0032 0.9519
12.1588 -0.1840 -2.0033 0.9519
12.1266 0.9023 -2.0032 0.9519
11.9974 1.9814 -2.0032 0.9519
9.7418 5.5946 -1.8507 0.9555
9.2030 6.4418 -1.8506 0.9555
7.9096 7.9751 -1.8504 0.9555
6.3643 9.2536 -1.8502 0.9555
5.5123 9.7842 -1.8500 0.9555
4.6164 10.2366 -1.8499 0.9555
-0.2623 11.2221 -1.8492 0.9555
-0.7771 6.8617 -1.1376 0.9724
-2.2537 10.9948 -1.8489 0.9555
-4.1727 10.4171 -1.8487 0.9555
-5.0858 10.0023 -1.8485 0.9555
-6.7829 8.9371 -1.8483 0.9555
-7.5533 8.2953 -1.8482 0.9555
-8.2634 7.5874 -1.8481 0.9555
-8.9074 6.8189 -1.8480 0.9555
-9.9774 5.1256 -1.8479 0.9555
-10.3949 4.2141 -1.8478 0.9555
-11.8818 2.4871 -1.9998 0.9520
-12.0563 1.4163 -1.9998 0.9520
-12.1160 -0.7506 -1.9998 0.9520
-12.0007 -1.8294 -1.9998 0.9520
-10.0322 -6.8385 -2.0001 0.9520
-9.3820 -7.7073 -2.0002 0.9520
-8.6569 -8.5147 -2.0003 0.9520
-7.8625 -9.2541 -2.0005 0.9520
-6.0920 -10.5064 -2.0007 0.9520
-5.1299 -11.0091 -2.0009 0.9520
-4.1268 -11.4240 -2.0010 0.9520
-3.0905 -11.7477 -2.0012 0.9519
-0.9520 -12.1119 -2.0015 0.9519
2.2924 -11.9339 -2.0019 0.9519
4.3791 -11.3376 -2.0022 0.9519
6.3266 -10.3793 -2.0025 0.9519
7.2285 -9.7736 -2.0026 0.9519
8.0728 -9.0897 -2.0027 0.9519
8.8526 -8.3330 -2.0028 0.9519
9.5617 -7.5097 -2.0029 0.9519
10.7458 -5.6898 -2.0031 0.9519
11.2112 -4.7077 -2.0031 0.9519
11.5870 -3.6880 -2.0032 0.9519
12.1452 0.6013 -2.0032 0.9519
9.8776 5.3514 -1.8507 0.9555
8.7676 7.0222 -1.8505 0.9555
8.1051 7.7766 -1.8504 0.9555
3.7167 5.1269 -1.0432 0.9747
5.7533 9.6447 -1.8501 0.9555
4.8689 10.1192 -1.8500 0.9555
3.9002 10.3917 -1.8285 0.9560
0.9929 10.9009 -1.8032 0.9566
0.0161 11.2254 -1.8493 0.9555
-1.9804 11.0475 -1.8490 0.9555
-2.9587 10.8258 -1.8488 0.9555
-4.8363 10.1255 -1.8486 0.9555
-7.3454 8.4802 -1.8482 0.9555
-8.7357 7.0378 -1.8480 0.9555
-9.8473 5.3715 -1.8479 0.9555
-10.2873 4.4706 -1.8478 0.9555
-11.5066 3.8202 -1.9973 0.9520
-11.5785 -3.6488 -1.9999 0.9520
-10.7456 -5.6504 -2.0000 0.9520
-10.1986 -6.5875 -2.0001 0.9520
-8.8652 -8.2972 -2.0003 0.9520
-8.0895 -9.0562 -2.0004 0.9520
-7.2490 -9.7429 -2.0006 0.9520
-5.4013 -10.8783 -2.0008 0.9520
-2.3258 -11.9234 -2.0013 0.9519
-1.2520 -12.0843 -2.0014 0.9519
0.9174 -12.1162 -2.0017 0.9519
3.0583 -11.7616 -2.0020 0.9519
6.9838 -9.9497 -2.0026 0.9519
7.8447 -9.2869 -2.0027 0.9519
8.6431 -8.5499 -2.0028 0.9519
10.6012 -5.9544 -2.0031 0.9519
11.0909 -4.9843 -2.0031 0.9519
11.8011 -2.9323 -2.0032 0.9519
12.0159 -1.8669 -2.0032 0.9519
12.1564 0.3000 -2.0032 0.9519
12.0810 1.3842 -2.0032 0.9519
11.9090 2.4573 -2.0032 0.9519
11.6417 3.5107 -2.0032 0.9519
8.2956 7.5733 -1.8505 0.9555
3.8881 5.0926 -1.0555 0.9744
5.9909 9.4992 -1.8501 0.9555
5.1184 9.9955 -1.8500 0.9555
3.1531 10.3973 -1.7899 0.9569
2.1638 10.4047 -1.7507 0.9578
1.2094 10.4118 -1.7268 0.9584
0.2827 10.7762 -1.7759 0.9572
-0.7086 11.2023 -1.8492 0.9555
-1.0578 6.8787 -1.1465 0.9722
-4.5838 10.2425 -1.8486 0.9555
-6.3316 9.2627 -1.8484 0.9555
-7.1329 8.6599 -1.8483 0.9555
-8.5586 7.2524 -1.8481 0.9555
-9.1715 6.4590 -1.8480 0.9555
-11.3819 4.0948 -1.9927 0.9521
-11.7440 3.0732 -1.9998 0.9520
-12.1031 0.9354 -1.9998 0.9520
-12.1383 -0.1490 -1.9998 0.9520
-11.3190 -4.3888 -1.9999 0.9520
-9.7523 -7.2324 -2.0002 0.9520
-9.0681 -8.0747 -2.0003 0.9520
-8.3114 -8.8526 -2.0004 0.9520
-7.4882 -9.5599 -2.0005 0.9520
-6.6052 -10.1910 -2.0006 0.9520
-5.6692 -10.7408 -2.0008 0.9520
-4.6879 -11.2049 -2.0009 0.9520
-2.6207 -11.8618 -2.0012 0.9519
-1.5512 -12.0493 -2.0014 0.9519
1.6978 -12.0324 -2.0018 0.9519
2.7656 -11.8336 -2.0020 0.9519
3.8114 -11.5403 -2.0021 0.9519
4.8269 -11.1547 -2.0023 0.9519
5.8040 -10.6799 -2.0024 0.9519
6.7348 -10.1196 -2.0025 0.9519
7.6119 -9.4785 -2.0027 0.9519
8.4283 -8.7615 -2.0028 0.9519
9.8532 -7.1234 -2.0030 0.9519
10.9638 -5.2577 -2.0031 0.9519
11.7247 -3.2240 -2.0032 0.9519
12.1601 -0.0016 -2.0033 0.9519
9.6567 5.7401 -1.8507 0.9555
9.1052 6.5791 -1.8506 0.9555
6.0529 5.2567 -1.3207 0.9680
7.7890 8.0928 -1.8504 0.9555
7.0349 8.7554 -1.8503 0.9555
5.3648 9.8657 -1.8500 0.9555
4.4622 10.3046 -1.8499 0.9555
3.4362 10.3952 -1.8036 0.9566
2.4340 10.4027 -1.7600 0.9576
1.4716 10.4099 -1.7320 0.9583
-0.4307 11.2167 -1.8492 0.9555
-0.8833 6.8752 -1.1419 0.9723
-2.4184 10.9596 -1.8489 0.9555
-3.3871 10.6991 -1.8488 0.9555
-6.9161 8.8342 -1.8483 0.9555
-9.5691 5.8532 -1.8479 0.9555
-10.0532 4.9752 -1.8479 0.9555
-10.6696 4.1402 -1.8854 0.9547
-11.6642 3.3635 -1.9998 0.9520
-11.9177 2.3086 -1.9998 0.9520
-12.0762 1.2352 -1.9998 0.9520
-11.9720 -2.0093 -1.9998 0.9520
-11.7450 -3.0703 -1.9999 0.9520
-11.4242 -4.1068 -1.9999 0.9520
-9.2654 -7.8473 -2.0003 0.9520
-8.5282 -8.6437 -2.0004 0.9520
-7.7228 -9.3712 -2.0005 0.9520
-4.9642 -11.0850 -2.0009 0.9520
-1.8495 -12.0069 -2.0013 0.9519
-0.7701 -12.1250 -2.0015 0.9519
0.3156 -12.1463 -2.0016 0.9519
2.4713 -11.8983 -2.0019 0.9519
4.5487 -11.2707 -2.0022 0.9519
6.4817 -10.2833 -2.0025 0.9519
7.3744 -9.6641 -2.0026 0.9519
8.2083 -8.9676 -2.0027 0.9519
10.2928 -6.4726 -2.0030 0.9519
10.8300 -5.5279 -2.0031 0.9519
11.6411 -3.5137 -2.0032 0.9519
11.9085 -2.4604 -2.0032 0.9519
12.0807 -1.3873 -2.0032 0.9519
11.8016 2.9292 -2.0032 0.9519
11.4645 3.9614 -1.9982 0.9520
10.2484 4.6025 -1.8508 0.9555
9.7962 5.4989 -1.8507 0.9555
7.9874 7.8973 -1.8504 0.9555
6.4547 9.1909 -1.8502 0.9555
5.6079 9.7298 -1.8501 0.9555
4.7164 10.1910 -1.8499 0.9555
3.7238 10.3930 -1.8187 0.9562
2.7072 10.4006 -1.7705 0.9574
1.7356 10.4079 -1.7383 0.9581
0.8505 11.1938 -1.8494 0.9555
