ply
format ascii 1.0
element vertex 1577
property float32 x
property float32 y
property float32 z
property float32 I
end_header
10.3669 8.0803 -1.8624 0.9483
6.4452 10.4757 -1.7427 0.9515
5.0596 10.1542 -1.6075 0.9552
2.0506 5.2407 -0.7974 0.9775
1.5235 5.2254 -0.7712 0.9783
1.1017 10.4433 -1.4879 0.9585
0.1651 10.4376 -1.4791 0.9587
-0.7679 10.4319 -1.4821 0.9586
-1.7690 10.7721 -1.5467 0.9569
-4.3514 12.2488 -1.8418 0.9488
-3.1504 6.8578 -1.0693 0.9700
-7.4221 10.6370 -1.8378 0.9489
-8.3357 9.9265 -1.8366 0.9490
-9.9555 8.2788 -1.8346 0.9490
-10.6492 7.3547 -1.8338 0.9491
-11.2582 6.3733 -1.8330 0.9491
-11.7779 5.3423 -1.8325 0.9491
-12.2043 4.2697 -1.8320 0.9491
-13.5659 3.4243 -1.9824 0.9450
-13.8158 2.2007 -1.9822 0.9450
-13.9567 0.9599 -1.9822 0.9450
-13.9874 -0.2884 -1.9823 0.9450
-13.9078 -1.5348 -1.9825 0.9450
-13.0163 -5.1654 -1.9842 0.9450
-12.5090 -6.3081 -1.9850 0.9450
-11.9024 -7.4020 -1.9860 0.9449
-10.4102 -9.4093 -1.9882 0.9449
-9.5359 -10.3068 -1.9895 0.9449
-7.5643 -11.8539 -1.9924 0.9448
-6.4822 -12.4909 -1.9940 0.9447
-4.1671 -13.4658 -1.9972 0.9446
-2.9523 -13.7954 -1.9989 0.9446
-1.7118 -14.0158 -2.0006 0.9446
-0.4556 -14.1248 -2.0024 0.9445
2.0642 -14.0050 -2.0058 0.9444
4.5265 -13.4376 -2.0091 0.9443
5.7112 -12.9906 -2.0107 0.9443
7.9394 -11.7865 -2.0136 0.9442
8.9646 -11.0387 -2.0149 0.9442
9.9192 -10.2015 -2.0161 0.9441
10.7952 -9.2813 -2.0172 0.9441
11.5853 -8.2857 -2.0181 0.9441
12.2831 -7.2226 -2.0190 0.9441
13.7677 -3.7169 -2.0206 0.9440
14.2621 0.0597 -2.0208 0.9440
14.1983 1.3311 -2.0206 0.9440
14.0204 2.5914 -2.0202 0.9440
12.3153 4.6545 -1.8654 0.9482
11.8464 5.7317 -1.8647 0.9482
10.6290 7.7370 -1.8628 0.9483
9.8908 8.6488 -1.8616 0.9483
9.0743 9.4902 -1.8604 0.9483
8.1861 10.2544 -1.8591 0.9484
1.7008 5.1923 -0.7742 0.9782
1.4503 10.4454 -1.4942 0.9583
-2.8875 6.8720 -1.0561 0.9703
-7.0703 10.8778 -1.8382 0.9489
-8.0069 10.1974 -1.8370 0.9490
-11.5973 5.7270 -1.8327 0.9491
-12.0585 4.6688 -1.8321 0.9491
-13.4084 3.8573 -1.9769 0.9452
-13.9176 1.4180 -1.9822 0.9450
-13.5425 -3.5393 -1.9833 0.9450
-13.1772 -4.7343 -1.9839 0.9450
-12.7075 -5.8928 -1.9847 0.9450
-10.7113 -9.0601 -1.9878 0.9449
-9.8670 -9.9855 -1.9890 0.9449
-6.8871 -12.2676 -1.9934 0.9447
-3.4029 -13.6867 -1.9983 0.9446
-2.1707 -13.9475 -2.0000 0.9446
-0.9191 -14.0977 -2.0017 0.9445
1.6025 -14.0609 -2.0052 0.9444
2.8523 -13.8736 -2.0069 0.9444
4.0814 -13.5751 -2.0085 0.9443
6.4378 -12.6538 -2.0116 0.9443
7.5459 -12.0379 -2.0130 0.9442
8.5951 -11.3247 -2.0144 0.9442
9.5766 -10.5196 -2.0156 0.9441
10.4824 -9.6292 -2.0168 0.9441
11.3050 -8.6604 -2.0178 0.9441
12.6737 -6.5198 -2.0194 0.9440
13.6373 -4.1670 -2.0204 0.9440
14.1636 -1.6786 -2.0209 0.9440
14.2567 -0.4089 -2.0209 0.9440
14.2351 0.8639 -2.0207 0.9440
14.0991 2.1295 -2.0203 0.9440
12.7181 4.3348 -1.9038 0.9472
12.0302 5.3403 -1.8649 0.9482
11.5008 6.3889 -1.8641 0.9482
8.5209 9.9825 -1.8596 0.9484
4.8013 10.2331 -1.6016 0.9554
1.8531 5.0860 -0.7670 0.9784
1.8023 10.4475 -1.5022 0.9581
-1.0154 10.4304 -1.4849 0.9585
-2.4115 12.7917 -1.8444 0.9488
-3.5397 12.5154 -1.8429 0.9488
-7.6694 10.4574 -1.8375 0.9490
-10.1465 8.0409 -1.8344 0.9490
-10.8184 7.1010 -1.8336 0.9491
-11.4042 6.1057 -1.8329 0.9491
-11.8997 5.0629 -1.8323 0.9491
-12.3849 4.0079 -1.8444 0.9488
-13.6424 3.1035 -1.9824 0.9450
-13.9755 0.6308 -1.9822 0.9450
-13.8684 -1.8622 -1.9826 0.9450
-13.3239 -4.2983 -1.9837 0.9450
-12.3584 -6.6019 -1.9852 0.9450
-10.1873 -9.6536 -1.9886 0.9449
-6.1873 -12.6429 -1.9944 0.9447
-3.8495 -13.5633 -1.9977 0.9446
1.1393 -14.1015 -2.0045 0.9444
3.6321 -13.6978 -2.0079 0.9444
4.8430 -13.3300 -2.0095 0.9443
7.1445 -12.2762 -2.0125 0.9442
9.2238 -10.8262 -2.0152 0.9442
10.1583 -9.9664 -2.0164 0.9441
11.0123 -9.0255 -2.0174 0.9441
11.7787 -8.0113 -2.0184 0.9441
13.4920 -4.6124 -2.0203 0.9440
13.8520 -3.3915 -2.0206 0.9440
14.2358 -0.8771 -2.0209 0.9440
13.9545 2.9209 -2.0201 0.9440
13.6030 4.1428 -2.0148 0.9442
12.2010 4.9429 -1.8652 0.9482
11.7066 6.0086 -1.8644 0.9482
11.1187 7.0251 -1.8635 0.9483
9.6826 8.8780 -1.8613 0.9483
8.8465 9.6996 -1.8601 0.9483
7.9407 10.4424 -1.8588 0.9484
2.1584 10.4497 -1.5119 0.9578
0.2621 10.4382 -1.4794 0.9587
-0.6705 10.4325 -1.4812 0.9586
-3.1275 12.6287 -1.8434 0.9488
-3.0691 6.8479 -1.0633 0.9701
-6.3439 11.3244 -1.8392 0.9489
-8.2437 10.0042 -1.8367 0.9490
-9.8787 8.3714 -1.8347 0.9490
-10.5809 7.4537 -1.8338 0.9491
-11.1989 6.4779 -1.8331 0.9491
-11.7281 5.4517 -1.8325 0.9491
-13.7949 2.3290 -1.9822 0.9450
-13.9894 -0.1585 -1.9823 0.9450
-13.7431 -2.6417 -1.9829 0.9450
-13.4564 -3.8577 -1.9834 0.9450
-13.0632 -5.0440 -1.9841 0.9450
-11.9701 -7.2907 -1.9859 0.9450
-7.6735 -11.7821 -1.9922 0.9448
-5.4672 -12.9783 -1.9954 0.9447
1.9338 -14.0223 -2.0056 0.9444
3.1792 -13.8055 -2.0073 0.9444
4.4011 -13.4780 -2.0089 0.9443
6.7355 -12.5010 -2.0120 0.9442
7.8290 -11.8589 -2.0134 0.9442
12.8249 -6.2198 -2.0196 0.9440
13.3321 -5.0528 -2.0201 0.9440
13.7323 -3.8446 -2.0205 0.9440
14.0222 -2.6051 -2.0208 0.9440
14.1993 -1.3444 -2.0209 0.9440
14.2622 -0.0728 -2.0208 0.9440
12.3585 4.5400 -1.8655 0.9482
10.7011 7.6384 -1.8629 0.9483
9.9714 8.5571 -1.8618 0.9483
8.2817 10.1786 -1.8593 0.9484
7.0731 10.4795 -1.7914 0.9502
4.6122 10.4646 -1.6203 0.9549
1.5495 10.4460 -1.4963 0.9582
-0.3269 10.4346 -1.4792 0.9587
-1.5672 12.9304 -1.8455 0.9487
-2.8091 6.8634 -1.0508 0.9705
-6.9694 10.9438 -1.8384 0.9489
-10.3320 7.7986 -1.8341 0.9490
-10.9816 6.8433 -1.8334 0.9491
-12.0149 4.7807 -1.8322 0.9491
-13.3365 3.9712 -1.9716 0.9453
-13.7113 2.7811 -1.9823 0.9450
-13.9039 1.5472 -1.9822 0.9450
-13.9591 -0.9473 -1.9824 0.9450
-13.8213 -2.1886 -1.9827 0.9450
-13.5744 -3.4132 -1.9832 0.9450
-11.5437 -7.9568 -1.9865 0.9449
-10.7944 -8.9596 -1.9877 0.9449
-9.9587 -9.8927 -1.9889 0.9449
-8.0543 -11.5205 -1.9917 0.9448
-5.8889 -12.7879 -1.9948 0.9447
-2.3000 -13.9255 -1.9998 0.9446
1.4716 -14.0739 -2.0050 0.9444
2.7230 -13.8983 -2.0067 0.9444
6.3195 -12.7121 -2.0115 0.9443
7.4332 -12.1066 -2.0129 0.9442
10.3919 -9.7256 -2.0167 0.9441
11.2234 -8.7646 -2.0177 0.9441
11.9656 -7.7323 -2.0186 0.9441
13.9285 -3.0642 -2.0207 0.9440
14.1473 -1.8101 -2.0209 0.9440
14.2427 0.7316 -2.0207 0.9440
14.1185 1.9985 -2.0204 0.9440
13.8809 3.2487 -2.0199 0.9440
13.0942 4.3276 -1.9540 0.9458
11.5603 6.2821 -1.8642 0.9482
10.2495 8.2267 -1.8622 0.9483
8.6139 9.9036 -1.8598 0.9484
7.5882 10.4827 -1.8336 0.9491
6.2401 10.4745 -1.7275 0.9519
1.9218 5.1258 -0.7756 0.9781
-2.2927 12.8146 -1.8445 0.9488
-5.5895 11.7229 -1.8402 0.9489
-7.5724 10.5289 -1.8376 0.9490
-8.4758 9.8056 -1.8364 0.9490
-10.0719 8.1352 -1.8345 0.9490
-11.3474 6.2116 -1.8329 0.9491
-11.8524 5.1734 -1.8324 0.9491
-13.8457 2.0032 -1.9822 0.9450
-13.6779 -2.9651 -1.9830 0.9450
-13.3628 -4.1741 -1.9836 0.9450
-12.9420 -5.3510 -1.9843 0.9450
-12.4186 -6.4865 -1.9852 0.9450
-11.5250 -3.5371 -1.9860 0.9523
-11.1671 -4.5521 -1.9866 0.9523
-10.7206 -5.5318 -1.9874 0.9523
-10.1889 -6.4684 -1.9882 0.9523
-8.1261 -8.9485 -1.9913 0.9522
-6.4154 -10.2624 -1.9938 0.9521
-3.4776 -11.6187 -1.9980 0.9520
-1.3604 -12.0694 -2.0009 0.9520
-0.2789 -12.1517 -2.0024 0.9519
0.8063 -12.1371 -2.0039 0.9519
1.8868 -12.0256 -2.0053 0.9519
3.9986 -11.5154 -2.0081 0.9518
6.9169 -10.0655 -2.0120 0.9517
8.6040 -8.6860 -2.0141 0.9516
10.6090 -6.1063 -2.0165 0.9516
11.5308 -4.1267 -2.0176 0.9516
11.8548 -3.0826 -2.0179 0.9516
12.0835 -2.0134 -2.0181 0.9516
12.2153 -0.9279 -2.0181 0.9516
12.2488 0.1651 -2.0180 0.9516
12.1840 1.2565 -2.0178 0.9516
11.7622 3.3995 -2.0170 0.9516
9.6385 5.8990 -1.8616 0.9552
9.0698 6.7319 -1.8607 0.9552
8.4290 7.5099 -1.8598 0.9553
7.7214 8.2270 -1.8587 0.9553
6.1296 9.4559 -1.8564 0.9553
4.3464 10.3801 -1.8539 0.9554
2.3146 10.4507 -1.7634 0.9575
1.3514 10.4448 -1.7350 0.9582
0.4113 10.4391 -1.7211 0.9585
-2.5360 10.9050 -1.8444 0.9556
-3.4958 10.6280 -1.8431 0.9557
-2.9571 6.8585 -1.2304 0.9702
-5.3212 9.8252 -1.8407 0.9557
-6.1725 9.3060 -1.8396 0.9557
-8.4026 7.3292 -1.8368 0.9558
-9.5636 5.7157 -1.8354 0.9558
-10.0322 4.8387 -1.8349 0.9559
-10.6885 4.0246 -1.8815 0.9548
-11.6109 3.2237 -1.9851 0.9523
-11.8509 2.1753 -1.9849 0.9523
-11.9972 1.1098 -1.9848 0.9523
-11.8664 -2.1058 -1.9854 0.9523
-11.6339 -3.1562 -1.9858 0.9523
-11.3093 -4.1822 -1.9864 0.9523
-10.8950 -5.1758 -1.9871 0.9523
-10.3942 -6.1292 -1.9879 0.9523
-7.6114 -9.3961 -1.9921 0.9522
-4.8626 -11.0976 -1.9960 0.9521
-3.8564 -11.4951 -1.9974 0.9520
-2.8181 -11.8018 -1.9989 0.9520
-1.7557 -12.0149 -2.0003 0.9520
-0.6779 -12.1326 -2.0018 0.9519
3.6171 -11.6376 -2.0076 0.9518
4.6436 -11.2763 -2.0090 0.9518
5.6343 -10.8243 -2.0103 0.9517
6.5811 -10.2851 -2.0115 0.9517
7.4763 -9.6628 -2.0127 0.9517
8.3125 -8.9623 -2.0137 0.9517
10.4014 -6.4507 -2.0163 0.9516
10.9386 -5.4992 -2.0169 0.9516
12.2479 -0.2374 -2.0181 0.9516
12.2193 0.8556 -2.0179 0.9516
8.6729 7.2303 -1.8601 0.9553
7.2423 8.6461 -1.8580 0.9553
1.8189 5.1400 -0.8982 0.9781
2.6782 10.4529 -1.7776 0.9572
1.7024 10.4469 -1.7437 0.9580
-4.9967 9.9971 -1.8412 0.9557
-5.8646 9.5058 -1.8400 0.9557
-7.4517 8.3038 -1.8380 0.9558
-11.4939 3.6019 -1.9843 0.9523
-11.7734 2.5635 -1.9850 0.9523
-11.9543 1.5034 -1.9849 0.9523
-12.0408 0.4314 -1.9849 0.9523
-10.0348 -6.7075 -1.9884 0.9522
-8.6926 -8.3920 -1.9905 0.9522
-7.9142 -9.1389 -1.9916 0.9522
-7.0721 -9.8143 -1.9928 0.9521
-5.2233 -10.9290 -1.9955 0.9521
0.0075 -12.1572 -2.0028 0.9519
3.2320 -11.7472 -2.0071 0.9518
4.2696 -11.4200 -2.0085 0.9518
5.2744 -11.0010 -2.0098 0.9517
6.2382 -10.4934 -2.0111 0.9517
9.5330 -7.6661 -2.0153 0.9516
10.7508 -5.8550 -2.0167 0.9516
12.1278 -1.7281 -2.0181 0.9516
12.2337 -0.6397 -2.0181 0.9516
12.2413 0.4537 -2.0180 0.9516
12.1505 1.5433 -2.0178 0.9516
11.9623 2.6201 -2.0174 0.9516
11.6780 3.6754 -2.0169 0.9516
10.0082 5.2549 -1.8622 0.9552
8.2485 7.7054 -1.8595 0.9553
7.5242 8.4054 -1.8584 0.9553
6.7405 9.0373 -1.8573 0.9553
5.9040 9.5961 -1.8561 0.9554
4.0935 10.4615 -1.8507 0.9555
-1.7690 10.7722 -1.7984 0.9567
-3.7447 10.5408 -1.8428 0.9557
-6.3891 9.1566 -1.8394 0.9557
-7.9057 7.8679 -1.8374 0.9558
-8.5720 7.1283 -1.8366 0.9558
-10.1428 4.6006 -1.8348 0.9559
-12.0200 0.8267 -1.9848 0.9523
-11.5571 -3.4298 -1.9860 0.9523
-10.7711 -5.4317 -1.9873 0.9523
-9.6435 -7.2650 -1.9890 0.9522
-8.9618 -8.1002 -1.9901 0.9522
-8.2084 -8.8720 -1.9912 0.9522
-4.6006 -11.2111 -1.9964 0.9521
-2.5396 -11.8672 -1.9993 0.9520
-0.3918 -12.1476 -2.0022 0.9519
1.7748 -12.0417 -2.0052 0.9519
3.8911 -11.5512 -2.0080 0.9518
4.9089 -11.1657 -2.0093 0.9518
5.8888 -10.6903 -2.0106 0.9517
7.7030 -9.4853 -2.0130 0.9517
8.5225 -8.7651 -2.0140 0.9516
11.0659 -5.2403 -2.0171 0.9516
11.4917 -4.2336 -2.0175 0.9516
11.8254 -3.1925 -2.0179 0.9516
12.2061 -1.0413 -2.0181 0.9516
12.2499 0.0513 -2.0181 0.9516
12.1953 1.1433 -2.0179 0.9516
12.0428 2.2259 -2.0175 0.9516
11.7937 3.2901 -2.0171 0.9516
10.1769 4.9240 -1.8625 0.9552
7.7980 8.1554 -1.8588 0.9553
7.0354 8.8129 -1.8577 0.9553
4.4430 10.3400 -1.8540 0.9554
1.4503 10.4454 -1.7373 0.9581
0.5085 10.4397 -1.7219 0.9585
-1.4515 11.1104 -1.8459 0.9556
-2.8775 6.8482 -1.2237 0.9703
-6.0861 9.3635 -1.8398 0.9557
-7.6443 8.1248 -1.8378 0.9558
-8.9581 6.6318 -1.8361 0.9558
-9.5104 5.8045 -1.8355 0.9558
-10.4243 4.0361 -1.8415 0.9557
-11.5806 3.3315 -1.9852 0.9523
-11.8302 2.2853 -1.9849 0.9523
-12.0477 0.1475 -1.9849 0.9523
-11.8852 -1.9954 -1.9854 0.9523
-11.6624 -3.0479 -1.9858 0.9523
-10.9422 -5.0742 -1.9870 0.9523
-9.8752 -6.9430 -1.9887 0.9522
-7.6979 -9.3244 -1.9919 0.9522
-5.9268 -10.5571 -1.9945 0.9521
-4.9652 -11.0511 -1.9959 0.9521
-3.9628 -11.4579 -1.9973 0.9520
-2.9274 -11.7742 -1.9987 0.9520
0.2941 -12.1560 -2.0032 0.9519
1.3779 -12.0903 -2.0046 0.9519
2.4523 -11.9279 -2.0061 0.9518
3.5086 -11.6699 -2.0075 0.9518
5.5331 -10.8755 -2.0102 0.9517
6.4848 -10.3451 -2.0114 0.9517
7.3857 -9.7313 -2.0126 0.9517
8.2284 -9.0387 -2.0136 0.9517
9.7120 -7.4401 -2.0155 0.9516
11.3456 -4.6085 -2.0174 0.9516
11.9875 -2.5207 -2.0180 0.9516
12.1653 -1.4418 -2.0181 0.9516
9.3476 6.3451 -1.8612 0.9552
8.0634 7.8964 -1.8592 0.9553
7.3229 8.5790 -1.8581 0.9553
6.5246 9.1920 -1.8570 0.9553
5.6752 9.7308 -1.8558 0.9554
1.8772 5.1521 -0.9033 0.9780
0.8533 10.4418 -1.7259 0.9584
-2.0749 11.0059 -1.8450 0.9556
-3.0458 10.7694 -1.8437 0.9556
-2.6567 6.9543 -1.2264 0.9703
-5.7764 9.5605 -1.8402 0.9557
-7.3746 8.3731 -1.8381 0.9558
-9.8207 5.2579 -1.8351 0.9558
-10.2477 4.3601 -1.8347 0.9559
-11.4501 3.7054 -1.9826 0.9524
-12.0362 0.5433 -1.9849 0.9523
-12.0375 -0.5322 -1.9850 0.9523
-11.9436 -1.6037 -1.9852 0.9523
-11.7552 -2.6629 -1.9856 0.9523
-11.4739 -3.7014 -1.9861 0.9523
-11.1016 -4.7113 -1.9867 0.9523
-10.6412 -5.6846 -1.9875 0.9523
-10.0962 -6.6137 -1.9883 0.9522
-8.7697 -8.3103 -1.9903 0.9522
-7.1626 -9.7475 -1.9927 0.9521
-6.2689 -10.3541 -1.9940 0.9521
-4.3359 -11.3186 -1.9967 0.9521
-3.3118 -11.6685 -1.9982 0.9520
-1.1881 -12.0890 -2.0011 0.9519
-0.1055 -12.1558 -2.0026 0.9519
2.0585 -11.9988 -2.0056 0.9518
5.1716 -11.0488 -2.0097 0.9517
6.1401 -10.5503 -2.0110 0.9517
7.0606 -9.9666 -2.0121 0.9517
7.9255 -9.3024 -2.0132 0.9517
8.7278 -8.5629 -2.0143 0.9516
10.1186 -6.8822 -2.0160 0.9516
11.5889 -3.9618 -2.0176 0.9516
11.8978 -2.9131 -2.0179 0.9516
12.2272 -0.7534 -2.0181 0.9516
11.9864 2.5089 -2.0174 0.9516
10.6507 4.3148 -1.8931 0.9545
10.0570 5.1619 -1.8623 0.9552
9.5526 6.0356 -1.8615 0.9552
7.6024 8.3356 -1.8586 0.9553
5.9933 9.5415 -1.8562 0.9553
5.0987 9.9989 -1.8490 0.9555
2.0886 5.1949 -0.9224 0.9776
3.1541 10.4558 -1.7991 0.9567
2.1584 10.4497 -1.7578 0.9577
1.2000 10.4439 -1.7318 0.9583
0.2621 10.4382 -1.7201 0.9586
-1.6669 10.7756 -1.7963 0.9568
-3.6468 10.5759 -1.8429 0.9557
-3.0671 6.8434 -1.2354 0.9701
-5.4604 9.7473 -1.8406 0.9557
-6.3041 9.2161 -1.8395 0.9557
-7.0969 8.6125 -1.8385 0.9558
-11.6555 3.0575 -1.9851 0.9523
-12.0481 -0.1365 -1.9849 0.9523
-11.8355 -2.2750 -1.9855 0.9523
-11.2490 -4.3435 -1.9865 0.9523
-10.3064 -6.2774 -1.9880 0.9523
-9.0362 -8.0161 -1.9899 0.9522
-8.2900 -8.7948 -1.9911 0.9522
-7.4772 -9.5047 -1.9922 0.9522
-1.5842 -12.0402 -2.0006 0.9520
1.6627 -12.0568 -2.0050 0.9519
3.7833 -11.5861 -2.0079 0.9518
5.7888 -10.7439 -2.0105 0.9517
6.7279 -10.1910 -2.0117 0.9517
7.6141 -9.5559 -2.0129 0.9517
8.4403 -8.8434 -2.0139 0.9516
9.8857 -7.2099 -2.0157 0.9516
10.4930 -6.3019 -2.0164 0.9516
11.0164 -5.3427 -2.0170 0.9516
11.4517 -4.3401 -2.0175 0.9516
11.7951 -3.3022 -2.0178 0.9516
12.0439 -2.2375 -2.0180 0.9516
12.1959 -1.1547 -2.0181 0.9516
12.2500 -0.0625 -2.0181 0.9516
11.8240 3.1805 -2.0171 0.9516
10.2226 4.8294 -1.8625 0.9552
9.7473 5.7194 -1.8618 0.9552
8.5681 7.3528 -1.8600 0.9553
7.8739 8.0830 -1.8590 0.9553
5.4433 9.8601 -1.8554 0.9554
2.5196 10.4519 -1.7712 0.9574
1.5495 10.4460 -1.7397 0.9581
0.6059 10.4403 -1.7228 0.9585
-1.3483 11.1243 -1.8460 0.9556
-2.3332 10.9519 -1.8447 0.9556
-6.8115 8.8428 -1.8388 0.9558
-8.2657 7.4848 -1.8370 0.9558
-9.9411 5.0246 -1.8350 0.9558
-10.3470 4.1171 -1.8345 0.9559
-11.9745 1.3325 -1.9848 0.9523
-12.0219 -0.8158 -1.9850 0.9523
-11.9030 -1.8848 -1.9853 0.9523
-11.6899 -2.9394 -1.9857 0.9523
-11.3843 -3.9711 -1.9863 0.9523
-10.5054 -5.9344 -1.9877 0.9523
-7.7837 -9.2519 -1.9918 0.9522
-6.0242 -10.5008 -1.9943 0.9521
-3.0364 -11.7456 -1.9986 0.9520
-1.9784 -11.9784 -2.0000 0.9520
4.4326 -11.3591 -2.0087 0.9518
5.4314 -10.9257 -2.0100 0.9517
6.3880 -10.4043 -2.0113 0.9517
7.2946 -9.7989 -2.0124 0.9517
8.1437 -9.1143 -2.0135 0.9517
9.6421 -7.5297 -2.0154 0.9516
10.8338 -5.7012 -2.0168 0.9516
11.3020 -4.7136 -2.0173 0.9516
11.6796 -3.6878 -2.0177 0.9516
12.1513 -1.5547 -2.0181 0.9516
12.2415 -0.4650 -2.0181 0.9516
12.2334 0.6284 -2.0180 0.9516
11.6238 3.8416 -2.0168 0.9516
10.3772 4.4916 -1.8628 0.9552
9.9315 5.3969 -1.8621 0.9552
9.4066 6.2583 -1.8613 0.9552
8.8067 7.0687 -1.8603 0.9553
7.4027 8.5111 -1.8583 0.9553
6.6102 9.1316 -1.8571 0.9553
4.8152 10.0196 -1.8313 0.9559
2.8866 10.4541 -1.7867 0.9570
0.0161 10.4367 -1.7193 0.9586
-0.9177 10.4310 -1.7250 0.9584
-1.9726 11.0255 -1.8452 0.9556
-2.6291 7.0785 -1.2439 0.9699
-4.8107 10.0895 -1.8414 0.9557
-5.6877 9.6144 -1.8403 0.9557
-6.5186 9.0636 -1.8392 0.9557
-7.2969 8.4417 -1.8382 0.9558
-11.4055 3.8084 -1.9809 0.9524
-11.7239 2.7819 -1.9850 0.9523
-11.9244 1.7253 -1.9849 0.9523
-11.1445 -4.6078 -1.9867 0.9523
-10.6931 -5.5853 -1.9874 0.9523
-10.1107 -3.1030 -1.9879 0.9579
-9.7964 -3.9933 -1.9884 0.9579
-9.4043 -4.8525 -1.9891 0.9578
-8.9374 -5.6739 -1.9898 0.9578
-8.3993 -6.4509 -1.9906 0.9578
-7.1266 -7.8478 -1.9925 0.9578
-4.8034 -9.4701 -1.9959 0.9577
-3.9422 -9.8668 -1.9971 0.9577
-2.1296 -10.4234 -1.9997 0.9576
-0.2445 -10.6497 -2.0023 0.9576
3.5031 -10.0885 -2.0073 0.9575
7.5351 -7.6069 -2.0125 0.9574
8.7731 -6.1521 -2.0140 0.9573
9.2896 -5.3468 -2.0146 0.9573
9.7318 -4.4983 -2.0152 0.9573
10.0961 -3.6133 -2.0155 0.9573
10.5797 -1.7628 -2.0160 0.9573
10.6679 1.1002 -2.0158 0.9573
10.5257 2.0468 -2.0155 0.9573
9.9864 3.8807 -2.0138 0.9573
7.3824 6.5774 -1.8585 0.9606
4.6069 8.7243 -1.8544 0.9606
2.9802 9.3923 -1.8521 0.9607
2.1294 9.6145 -1.8509 0.9607
-0.4903 9.8161 -1.8473 0.9608
-2.2234 9.5608 -1.8450 0.9608
-3.0652 9.3187 -1.8439 0.9609
-2.9973 6.9518 -1.4229 0.9697
-6.1165 7.6425 -1.8399 0.9609
-7.3705 6.4290 -1.8383 0.9610
-9.8825 3.7211 -1.9848 0.9579
-10.3973 1.9085 -1.9869 0.9579
-10.5709 0.0312 -1.9869 0.9579
-10.5324 -0.9116 -1.9871 0.9579
-10.4106 -1.8474 -1.9874 0.9579
-9.1177 -5.3764 -1.9895 0.9578
-8.6053 -6.1705 -1.9903 0.9578
-8.0244 -6.9163 -1.9912 0.9578
-7.3792 -7.6080 -1.9922 0.9578
-5.1108 -9.3052 -1.9955 0.9577
-4.2633 -9.7297 -1.9967 0.9577
-3.3808 -10.0774 -1.9979 0.9577
-2.4703 -10.3453 -1.9992 0.9576
0.3567 -10.6509 -2.0031 0.9576
1.3059 -10.5834 -2.0044 0.9575
3.1690 -10.1959 -2.0069 0.9575
4.0680 -9.8785 -2.0080 0.9575
5.7644 -9.0087 -2.0103 0.9574
7.9542 -7.1716 -2.0130 0.9573
9.9713 -3.9428 -2.0154 0.9573
10.5159 -2.1094 -2.0159 0.9573
10.3922 2.6368 -2.0152 0.9573
8.6070 4.8865 -1.8603 0.9605
5.6401 8.1045 -1.8559 0.9606
1.8333 5.1809 -1.0330 0.9779
2.4448 9.5416 -1.8514 0.9607
1.5831 9.7153 -1.8502 0.9607
-0.1676 9.8292 -1.8478 0.9608
-1.9085 9.6308 -1.8454 0.9608
-2.7580 9.4165 -1.8443 0.9609
-7.7196 6.0017 -1.8379 0.9610
-8.2213 5.2877 -1.8373 0.9610
-8.6577 4.5322 -1.8368 0.9610
-10.0354 -3.3407 -1.9880 0.9579
-9.2881 -5.0733 -1.9893 0.9578
-8.8021 -5.8836 -1.9900 0.9578
-8.2459 -6.6479 -1.9909 0.9578
-6.9406 -8.0147 -1.9928 0.9578
-2.8082 -10.2561 -1.9987 0.9576
-1.8836 -10.4724 -2.0000 0.9576
-0.9429 -10.6056 -2.0013 0.9576
0.0066 -10.6543 -2.0026 0.9576
1.9015 -10.4972 -2.0052 0.9575
2.8317 -10.2922 -2.0064 0.9575
3.7404 -10.0047 -2.0076 0.9575
6.2653 -8.6721 -2.0109 0.9574
8.3480 -6.7132 -2.0135 0.9573
9.4137 -5.1268 -2.0148 0.9573
9.8357 -4.2679 -2.0153 0.9573
10.4406 -2.4537 -2.0159 0.9573
10.7179 0.3972 -2.0159 0.9573
10.6386 1.3512 -2.0157 0.9573
10.4740 2.2941 -2.0154 0.9573
9.8723 4.1067 -2.0098 0.9574
8.3157 5.3629 -1.8599 0.9605
4.0158 5.3841 -1.2625 0.9730
4.3993 8.8291 -1.8541 0.9606
2.7576 9.4583 -1.8518 0.9607
1.9019 9.6603 -1.8506 0.9607
1.0323 9.7851 -1.8494 0.9607
-0.7214 9.8001 -1.8470 0.9608
-3.2834 9.2425 -1.8436 0.9609
-4.0921 8.9077 -1.8425 0.9609
-4.8675 8.5027 -1.8415 0.9609
-6.9344 6.9012 -1.8389 0.9610
-7.5192 6.2529 -1.8382 0.9610
-8.5049 4.8147 -1.8370 0.9610
-10.5457 0.7253 -1.9869 0.9579
-10.5688 -0.2179 -1.9869 0.9579
-10.5083 -1.1596 -1.9871 0.9579
-10.3646 -2.0924 -1.9874 0.9579
-9.8328 -3.9020 -1.9884 0.9579
-8.9893 -5.5904 -1.9897 0.9578
-4.8909 -9.4245 -1.9958 0.9577
-4.0335 -9.8291 -1.9970 0.9577
-3.1429 -10.1560 -1.9982 0.9577
-0.3434 -10.6462 -2.0021 0.9576
1.5552 -10.5515 -2.0047 0.9575
5.9759 -8.8716 -2.0105 0.9574
6.7465 -8.3074 -2.0115 0.9574
7.4638 -7.6762 -2.0124 0.9574
9.6894 -4.5884 -2.0151 0.9573
10.0620 -3.7069 -2.0155 0.9573
10.5629 -1.8610 -2.0160 0.9573
10.7255 0.0449 -2.0160 0.9573
10.6778 1.0010 -2.0158 0.9573
8.4886 5.0875 -1.8601 0.9605
6.8301 7.1432 -1.8576 0.9606
4.1551 5.2049 -1.2518 0.9733
5.4467 8.2339 -1.8556 0.9606
3.8928 9.0596 -1.8534 0.9607
1.6942 5.1723 -1.0230 0.9781
-2.1346 9.5816 -1.8451 0.9608
-2.9443 7.0073 -1.4286 0.9695
-4.5864 8.6597 -1.8419 0.9609
-6.0455 7.6994 -1.8400 0.9609
-6.7050 7.1264 -1.8392 0.9610
-7.8582 5.8176 -1.8377 0.9610
-8.7615 4.3267 -1.8367 0.9610
-10.1600 2.9228 -1.9871 0.9579
-10.3792 2.0050 -1.9869 0.9579
-10.5162 1.0714 -1.9869 0.9579
-10.5701 0.1294 -1.9869 0.9579
-10.4271 -1.7506 -1.9873 0.9579
-9.9546 -3.5765 -1.9882 0.9579
-9.5989 -4.4512 -1.9888 0.9578
-8.0879 -6.8411 -1.9911 0.9578
-7.4492 -7.5387 -1.9921 0.9578
-5.9980 -8.7514 -1.9942 0.9577
-4.3532 -9.6891 -1.9965 0.9577
-1.6366 -10.5157 -2.0003 0.9576
0.2577 -10.6530 -2.0029 0.9576
1.2074 -10.5944 -2.0042 0.9575
2.1487 -10.4512 -2.0055 0.9575
3.0740 -10.2242 -2.0067 0.9575
5.6801 -9.0614 -2.0102 0.9574
7.8869 -7.2449 -2.0130 0.9573
8.5047 -6.5152 -2.0137 0.9573
9.0548 -5.7328 -2.0144 0.9573
9.5325 -4.9039 -2.0149 0.9573
10.6513 -1.2624 -2.0160 0.9573
10.7053 0.6497 -2.0159 0.9573
10.4165 2.5402 -2.0153 0.9573
10.1461 3.4581 -2.0148 0.9573
8.1861 5.5567 -1.8597 0.9605
7.0625 6.9162 -1.8580 0.9606
6.4143 7.5146 -1.8570 0.9606
5.7155 8.0522 -1.8560 0.9606
4.1894 8.9289 -1.8538 0.9607
2.5335 9.5191 -1.8515 0.9607
1.6735 9.7008 -1.8503 0.9607
0.8012 9.8050 -1.8491 0.9608
-0.0762 9.8310 -1.8479 0.9608
-0.9520 9.7787 -1.8467 0.9608
-1.8190 9.6488 -1.8455 0.9608
-2.6705 9.4423 -1.8444 0.9608
-2.6914 7.0449 -1.4175 0.9698
-5.0658 8.3844 -1.8413 0.9609
-5.7904 7.8953 -1.8403 0.9609
-6.4683 7.3441 -1.8395 0.9610
-7.6638 6.0734 -1.8380 0.9610
-10.0590 3.2552 -1.9872 0.9579
-10.3080 2.3450 -1.9870 0.9579
-10.4784 -1.4070 -1.9872 0.9579
-10.3130 -2.3362 -1.9875 0.9579
-10.0658 -3.2472 -1.9880 0.9579
-9.7388 -4.1330 -1.9885 0.9579
-9.3345 -4.9866 -1.9892 0.9578
-8.8560 -5.8013 -1.9899 0.9578
-8.3069 -6.5706 -1.9908 0.9578
-7.6915 -7.2886 -1.9917 0.9578
-4.6682 -9.5387 -1.9961 0.9577
-3.8013 -9.9230 -1.9973 0.9577
-1.9807 -10.4538 -1.9999 0.9576
-1.0413 -10.5956 -2.0012 0.9576
0.8585 -10.6259 -2.0038 0.9575
3.6471 -10.0384 -2.0075 0.9575
4.5303 -9.6788 -2.0087 0.9574
5.3783 -9.2414 -2.0098 0.9574
6.9413 -8.1471 -2.0118 0.9574
7.6435 -7.4990 -2.0127 0.9574
10.1469 -3.4689 -2.0156 0.9573
10.4172 -2.5506 -2.0159 0.9573
10.7055 -0.6596 -2.0160 0.9573
10.6509 1.2523 -2.0157 0.9573
9.9179 4.0180 -2.0113 0.9574
8.8068 4.5202 -1.8606 0.9605
7.8576 6.0080 -1.8592 0.9605
6.6590 7.3012 -1.8574 0.9606
5.2504 8.3587 -1.8553 0.9606
3.6776 9.1474 -1.8531 0.9607
-2.3594 9.5271 -1.8448 0.9608
-3.1976 9.2731 -1.8437 0.9609
-4.7885 8.5480 -1.8416 0.9609
-5.5288 8.0827 -1.8407 0.9609
-6.8703 6.9656 -1.8390 0.9610
-7.4611 6.3227 -1.8382 0.9610
-8.8606 4.1187 -1.8366 0.9610
-9.9458 3.5836 -1.9871 0.9579
-10.2258 2.6825 -1.9871 0.9579
-10.5385 0.8233 -1.9869 0.9579
-10.5703 -0.1197 -1.9869 0.9579
-10.1662 -2.9145 -1.9878 0.9579
-9.8683 -3.8104 -1.9883 0.9579
-9.4922 -4.6766 -1.9889 0.9578
-9.0406 -5.5064 -1.9896 0.9578
-8.5170 -6.2931 -1.9905 0.9578
-7.9254 -7.0307 -1.9913 0.9578
-7.2705 -7.7132 -1.9923 0.9578
-6.5571 -8.3352 -1.9934 0.9578
-5.7910 -8.8916 -1.9945 0.9577
-4.1244 -9.7905 -1.9969 0.9577
-2.3226 -10.3806 -1.9994 0.9576
1.4570 -10.5648 -2.0046 0.9575
2.3948 -10.3993 -2.0058 0.9575
4.2090 -9.8204 -2.0082 0.9574
5.0708 -9.4112 -2.0094 0.9574
6.6687 -8.3694 -2.0114 0.9574
9.1881 -5.5182 -2.0145 0.9573
9.6461 -4.6781 -2.0151 0.9573
10.0269 -3.8001 -2.0155 0.9573
10.3274 -2.8913 -2.0158 0.9573
10.6781 -1.0110 -2.0160 0.9573
10.5623 1.8509 -2.0155 0.9573
10.0611 3.6960 -2.0147 0.9573
8.5359 5.0086 -1.8602 0.9605
8.0520 5.7475 -1.8595 0.9605
4.2250 5.1927 -1.2583 0.9731
5.5234 8.1834 -1.8557 0.9606
4.7688 8.6383 -1.8547 0.9606
3.9771 9.0237 -1.8535 0.9607
2.3081 9.5745 -1.8512 0.9607
1.4441 9.7359 -1.8500 0.9607
-0.3078 9.8248 -1.8476 0.9608
-2.8918 9.3753 -1.8441 0.9609
-2.8406 6.9404 -1.4096 0.9699
-5.2613 8.2616 -1.8410 0.9609
-6.6388 7.1887 -1.8392 0.9610
-7.2504 6.5654 -1.8385 0.9610
-8.2956 5.1695 -1.8372 0.9610
-9.7973 3.8984 -1.9819 0.9580
-10.1326 3.0172 -1.9872 0.9579
-10.5683 0.2276 -1.9869 0.9579
-10.4428 -1.6536 -1.9873 0.9579
-10.2556 -2.5787 -1.9876 0.9579
-9.2153 -5.2057 -1.9894 0.9578
-8.1508 -6.7654 -1.9910 0.9578
-7.5186 -7.4688 -1.9920 0.9578
-5.2822 -9.2074 -1.9952 0.9577
-4.4428 -9.6476 -1.9964 0.9577
-3.5670 -10.0115 -1.9976 0.9577
-2.6618 -10.2962 -1.9989 0.9576
-1.7341 -10.4993 -2.0002 0.9576
-0.7915 -10.6191 -2.0015 0.9576
1.1088 -10.6045 -2.0041 0.9575
2.0513 -10.4700 -2.0054 0.9575
2.9786 -10.2517 -2.0066 0.9575
3.8832 -9.9512 -2.0078 0.9575
4.7579 -9.5708 -2.0090 0.9574
6.3890 -8.5824 -2.0111 0.9574
7.1322 -7.9823 -2.0120 0.9574
7.8189 -7.3176 -2.0129 0.9574
8.4435 -6.5937 -2.0136 0.9573
9.0008 -5.8165 -2.0143 0.9573
9.4863 -4.9921 -2.0149 0.9573
9.8959 -4.1272 -2.0153 0.9573
10.2263 -3.2289 -2.0157 0.9573
10.7110 0.5502 -2.0159 0.9573
10.6180 1.5030 -2.0157 0.9573
9.8009 4.2421 -2.0073 0.9575
8.6970 4.7261 -1.8605 0.9605
8.2378 5.4807 -1.8598 0.9605
6.4842 7.4550 -1.8571 0.9606
5.7904 7.9992 -1.8561 0.9606
1.7637 9.6855 -1.8504 0.9607
-1.7294 9.6659 -1.8457 0.9608
-2.5828 9.4673 -1.8445 0.9608
-3.4147 9.1938 -1.8434 0.9609
-4.2185 8.8476 -1.8424 0.9609
-5.7170 7.9492 -1.8404 0.9609
-6.4001 7.4042 -1.8396 0.9609
-8.1222 5.4399 -1.8374 0.9610
-8.5725 4.6926 -1.8369 0.9610
-10.5550 0.5747 -1.9869 0.9579
-10.5648 -0.3688 -1.9870 0.9579
-10.4909 -1.3096 -1.9872 0.9579
-10.3340 -2.2402 -1.9875 0.9579
-9.7765 -4.0422 -1.9885 0.9579
-8.7172 -3.5535 -1.9899 0.9622
-8.3680 -4.3179 -1.9904 0.9622
-7.4732 -5.7396 -1.9918 0.9622
-6.9344 -6.3858 -1.9926 0.9622
-5.0040 -8.0047 -1.9954 0.9621
-4.2725 -8.4235 -1.9965 0.9621
-2.7113 -9.0584 -1.9987 0.9621
-1.0603 -9.4068 -2.0010 0.9620
-0.2174 -9.4693 -2.0022 0.9620
3.1139 -8.9678 -2.0066 0.9619
3.9032 -8.6589 -2.0077 0.9619
4.6621 -8.2804 -2.0087 0.9619
5.3844 -7.8354 -2.0096 0.9619
6.0643 -7.3272 -2.0105 0.9619
6.6962 -6.7599 -2.0113 0.9618
7.7957 -5.4666 -2.0126 0.9618
8.6470 -3.9969 -2.0136 0.9618
9.2222 -2.3980 -2.0142 0.9618
9.4000 -1.5662 -2.0144 0.9618
9.3522 1.8186 -2.0139 0.9618
8.8767 3.4495 -2.0131 0.9618
8.5030 4.2120 -2.0058 0.9619
7.5006 4.5906 -1.8589 0.9647
7.0588 5.2392 -1.8582 0.9647
6.0108 6.4044 -1.8566 0.9647
4.0516 5.1731 -1.3889 0.9735
4.7729 7.3631 -1.8548 0.9648
2.6495 8.3502 -1.8518 0.9648
0.3443 8.7386 -1.8486 0.9649
-0.4360 8.7295 -1.8475 0.9649
-1.2120 8.6509 -1.8465 0.9649
-2.7264 8.2889 -1.8445 0.9650
-3.0082 6.9772 -1.6061 0.9694
-4.1513 7.6650 -1.8426 0.9650
-5.4419 6.7996 -1.8409 0.9650
-6.5582 5.7204 -1.8395 0.9650
-7.0399 5.1112 -1.8389 0.9651
-7.4656 4.4618 -1.8384 0.9651
-9.0652 2.5169 -1.9887 0.9623
-9.2527 1.6984 -1.9885 0.9623
-9.3671 0.8665 -1.9885 0.9623
-9.3729 -0.8113 -1.9886 0.9623
-9.0824 -2.4640 -1.9892 0.9623
-8.1128 -4.7839 -1.9908 0.9622
-7.6566 -5.4902 -1.9915 0.9622
-5.9380 -7.3304 -1.9941 0.9622
-5.2633 -7.8345 -1.9951 0.9621
-4.5461 -8.2769 -1.9961 0.9621
-3.7919 -8.6540 -1.9972 0.9621
-3.0068 -8.9626 -1.9983 0.9621
-2.1969 -9.2002 -1.9994 0.9621
-1.3685 -9.3649 -2.0006 0.9620
0.3171 -9.4700 -2.0029 0.9620
1.1610 -9.4093 -2.0040 0.9620
1.9966 -9.2735 -2.0052 0.9620
2.8171 -9.0635 -2.0062 0.9619
3.6160 -8.7808 -2.0073 0.9619
4.3868 -8.4276 -2.0083 0.9619
5.8194 -7.5213 -2.0102 0.9619
6.4695 -6.9753 -2.0110 0.9619
7.0684 -6.3730 -2.0117 0.9618
7.6110 -5.7191 -2.0124 0.9618
8.0930 -5.0191 -2.0130 0.9618
8.5104 -4.2785 -2.0135 0.9618
9.5058 0.6656 -2.0142 0.9618
9.2337 2.3429 -2.0137 0.9618
8.9861 3.1563 -2.0132 0.9618
7.2281 5.0052 -1.8584 0.9647
6.7504 5.6276 -1.8577 0.9647
6.2190 6.2045 -1.8569 0.9647
4.3486 7.6181 -1.8542 0.9648
2.1736 8.4833 -1.8511 0.9648
1.4077 8.6384 -1.8501 0.9648
0.6314 8.7244 -1.8490 0.9649
-1.6974 8.5657 -1.8458 0.9649
-4.5756 7.4165 -1.8420 0.9650
-5.2164 6.9758 -1.8412 0.9650
-6.3675 5.9336 -1.8398 0.9650
-7.3157 4.7052 -1.8386 0.9651
-8.6912 3.6028 -1.9887 0.9623
-9.3336 1.1738 -1.9885 0.9623
-9.3942 -0.5029 -1.9886 0.9623
-9.3129 -1.3387 -1.9888 0.9623
-8.9302 -2.9728 -1.9895 0.9623
-8.6317 -3.7582 -1.9900 0.9622
-7.8318 -5.2350 -1.9913 0.9622
-7.3366 -5.9148 -1.9920 0.9622
-6.7827 -6.5481 -1.9929 0.9622
-6.1746 -7.1301 -1.9937 0.9622
-5.5169 -7.6560 -1.9947 0.9622
-4.8146 -8.1215 -1.9957 0.9621
-4.0734 -8.5230 -1.9968 0.9621
-2.4974 -9.1212 -1.9990 0.9621
0.0058 -9.4733 -2.0025 0.9620
0.8511 -9.4404 -2.0036 0.9620
6.2360 -7.1830 -2.0107 0.9619
6.8543 -6.6009 -2.0115 0.9618
7.4181 -5.9654 -2.0122 0.9618
7.9229 -5.2818 -2.0128 0.9618
8.3645 -4.5554 -2.0133 0.9618
9.0440 -2.9983 -2.0140 0.9618
9.4344 -1.3443 -2.0144 0.9618
9.5167 -0.4977 -2.0144 0.9618
9.3064 2.0384 -2.0138 0.9618
8.7924 3.6575 -2.0129 0.9618
7.3896 4.7656 -1.8587 0.9647
4.5975 7.4725 -1.8546 0.9648
3.9107 7.8486 -1.8536 0.9648
1.6911 8.5893 -1.8505 0.9648
0.9179 8.7008 -1.8494 0.9649
-1.4154 8.6187 -1.8462 0.9649
-2.9206 8.2212 -1.8442 0.9650
-4.9852 7.1445 -1.8415 0.9650
-5.6000 6.6687 -1.8407 0.9650
-6.1700 6.1404 -1.8400 0.9650
-8.5489 3.8777 -1.9843 0.9623
-9.1217 2.3025 -1.9886 0.9623
-9.3849 0.6455 -1.9885 0.9623
-9.4054 -0.1940 -1.9885 0.9623
-9.3514 -1.0320 -1.9887 0.9623
-8.4075 -4.2398 -1.9904 0.9622
-7.9985 -4.9742 -1.9910 0.9622
-5.0779 -7.9575 -1.9953 0.9621
-4.3504 -8.3829 -1.9964 0.9621
-3.5874 -8.7422 -1.9975 0.9621
-1.9797 -9.2509 -1.9997 0.9621
-0.3053 -9.4663 -2.0020 0.9620
0.5403 -9.4613 -2.0032 0.9620
1.3826 -9.3808 -2.0043 0.9620
2.2149 -9.2252 -2.0054 0.9620
3.8224 -8.6943 -2.0076 0.9619
5.3111 -7.8847 -2.0095 0.9619
6.6328 -6.8216 -2.0112 0.9618
7.2173 -6.2052 -2.0119 0.9618
8.2096 -4.8273 -2.0131 0.9618
8.9402 -3.2936 -2.0139 0.9618
9.4953 -0.8101 -2.0144 0.9618
9.4872 0.8894 -2.0142 0.9618
9.3689 1.7316 -2.0139 0.9618
8.9087 3.3669 -2.0131 0.9618
8.5476 4.1357 -2.0072 0.9619
4.8414 7.3188 -1.8549 0.9648
4.1673 7.7174 -1.8539 0.9648
3.4607 8.0539 -1.8529 0.9648
0.4255 8.7356 -1.8487 0.9649
-0.3549 8.7337 -1.8476 0.9649
-1.8985 8.5221 -1.8456 0.9649
-2.6495 8.3143 -1.8446 0.9650
-2.9485 7.0173 -1.6089 0.9694
-4.0800 7.7036 -1.8427 0.9650
-4.7485 7.3057 -1.8418 0.9650
-5.3787 6.8501 -1.8410 0.9650
-5.9657 6.3407 -1.8403 0.9650
-8.2003 4.0495 -1.9332 0.9633
-9.3586 0.9535 -1.9885 0.9623
-9.4065 0.1152 -1.9885 0.9623
-9.3799 -0.7241 -1.9886 0.9623
-9.2791 -1.5579 -1.9889 0.9623
-9.1047 -2.3795 -1.9892 0.9623
-7.7070 -5.4186 -1.9915 0.9622
-7.1959 -6.0867 -1.9922 0.9622
-6.0056 -7.2745 -1.9940 0.9622
-5.3356 -7.7849 -1.9950 0.9621
-2.2821 -9.1789 -1.9993 0.9621
-1.4554 -9.3512 -2.0004 0.9620
-0.6160 -9.4492 -2.0016 0.9620
2.7326 -9.0888 -2.0061 0.9619
3.5340 -8.8136 -2.0072 0.9619
5.0484 -8.0536 -2.0092 0.9619
5.7490 -7.5747 -2.0101 0.9619
6.4042 -7.0348 -2.0109 0.9619
7.0086 -6.4381 -2.0117 0.9618
8.8266 -3.5853 -2.0138 0.9618
9.4635 -1.1216 -2.0144 0.9618
9.5116 0.5772 -2.0143 0.9618
9.4212 1.4230 -2.0140 0.9618
9.2553 2.2570 -2.0137 0.9618
9.0153 3.0727 -2.0133 0.9618
7.2746 4.9380 -1.8585 0.9647
6.8027 5.5648 -1.8578 0.9647
5.7010 6.6788 -1.8562 0.9647
5.0802 7.1571 -1.8552 0.9648
4.4195 7.5777 -1.8543 0.9648
3.7242 7.9374 -1.8533 0.9648
-0.0678 8.7425 -1.8480 0.9649
-0.8466 8.6966 -1.8470 0.9649
-1.6178 8.5816 -1.8459 0.9649
-2.3753 8.3986 -1.8449 0.9649
-2.6976 7.0613 -1.5978 0.9696
-3.8254 7.8350 -1.8430 0.9650
-5.1516 7.0243 -1.8413 0.9650
-7.6666 4.1046 -1.8382 0.9651
-8.6519 3.6811 -1.9875 0.9623
-8.9516 2.8968 -1.9888 0.9623
-9.3975 0.4242 -1.9885 0.9623
-9.3248 -1.2521 -1.9888 0.9623
-8.9572 -2.8896 -1.9895 0.9623
-8.3059 -4.4371 -1.9905 0.9622
-7.8798 -5.1618 -1.9912 0.9622
-6.8430 -6.4845 -1.9928 0.9622
-5.5875 -7.6040 -1.9946 0.9622
-2.5819 -9.0971 -1.9989 0.9621
-0.9260 -9.4218 -2.0012 0.9620
2.4320 -9.1718 -2.0057 0.9619
4.7802 -8.2137 -2.0088 0.9619
6.7924 -6.6640 -2.0114 0.9618
7.3621 -6.0339 -2.0121 0.9618
7.8733 -5.3550 -2.0127 0.9618
8.3216 -4.6328 -2.0132 0.9618
9.4214 -1.4319 -2.0144 0.9618
6.9828 5.3391 -1.8581 0.9647
6.4763 5.9381 -1.8573 0.9647
3.9989 5.2587 -1.3965 0.9734
3.9837 7.8123 -1.8537 0.9648
3.2694 8.1320 -1.8527 0.9648
1.7709 8.5737 -1.8506 0.9648
-3.5666 7.9579 -1.8434 0.9650
-4.9188 7.1909 -1.8416 0.9650
-6.1129 6.1977 -1.8401 0.9650
-6.6388 5.6259 -1.8394 0.9650
-7.5282 4.3546 -1.8384 0.9651
-9.3785 0.7327 -1.9885 0.9623
-8.4463 -4.1613 -1.9903 0.9622
-8.0441 -4.8995 -1.9909 0.9622
-7.0513 -6.2552 -1.9925 0.9622
-6.4682 -6.8621 -1.9933 0.9622
-5.8332 -7.4150 -1.9942 0.9622
-5.1514 -7.9095 -1.9952 0.9621
-4.4278 -8.3417 -1.9963 0.9621
-3.6683 -8.7080 -1.9974 0.9621
-2.8788 -9.0054 -1.9985 0.9621
-2.0655 -9.2315 -1.9996 0.9621
-1.2348 -9.3843 -2.0008 0.9620
-0.3933 -9.4625 -2.0019 0.9620
2.9464 -9.0231 -2.0064 0.9619
6.5689 -6.8826 -2.0111 0.9618
7.6923 -5.6102 -2.0125 0.9618
8.5709 -4.1567 -2.0135 0.9618
8.9090 -3.3765 -2.0139 0.9618
9.1759 -2.5689 -2.0142 0.9618
9.3692 -1.7406 -2.0143 0.9618
9.1991 2.4744 -2.0136 0.9618
7.5852 4.4507 -1.8590 0.9647
7.1555 5.1075 -1.8583 0.9647
6.6689 5.7230 -1.8576 0.9647
6.1294 6.2922 -1.8568 0.9647
4.2391 7.6787 -1.8540 0.9648
1.7372 5.1413 -1.1471 0.9781
0.5067 8.7317 -1.8488 0.9649
-1.0512 8.6729 -1.8467 0.9649
-2.5722 8.3391 -1.8447 0.9650
-4.0085 7.7416 -1.8428 0.9650
-4.6806 7.3498 -1.8419 0.9650
-5.3151 6.9001 -1.8411 0.9650
-5.9068 6.3961 -1.8403 0.9650
-6.9442 5.2415 -1.8391 0.9651
-7.3818 4.6001 -1.8385 0.9651
-8.0282 4.0577 -1.9015 0.9639
-8.7429 3.4788 -1.9890 0.9623
-9.0170 2.6850 -1.9887 0.9623
-9.2197 1.8700 -1.9885 0.9623
-9.3494 1.0404 -1.9885 0.9623
-9.4050 0.2026 -1.9885 0.9623
-9.3862 -0.6369 -1.9886 0.9623
-9.1263 -2.2948 -1.9892 0.9623
-8.8872 -3.1001 -1.9896 0.9622
-8.5775 -3.8812 -1.9901 0.9622
-8.1998 -4.6320 -1.9907 0.9622
-7.7568 -5.3466 -1.9914 0.9622
-7.2519 -6.0193 -1.9921 0.9622
-6.6891 -6.6447 -1.9930 0.9622
-6.0726 -7.2180 -1.9939 0.9622
-5.4074 -7.7346 -1.9949 0.9622
-2.3672 -9.1567 -1.9992 0.9621
-1.5421 -9.3367 -2.0003 0.9620
0.1411 -9.4731 -2.0026 0.9620
2.6478 -9.1133 -2.0060 0.9619
3.4518 -8.8455 -2.0071 0.9619
4.9731 -8.0997 -2.0091 0.9619
7.5029 -5.8592 -2.0123 0.9618
8.7927 -3.6671 -2.0138 0.9618
9.3067 -2.0475 -2.0143 0.9618
9.5228 -0.3618 -2.0144 0.9618
9.5167 0.4889 -2.0143 0.9618
9.4342 1.3354 -2.0141 0.9618
9.2760 2.1710 -2.0138 0.9618
8.7389 3.7825 -2.0128 0.9618
7.3204 4.8704 -1.8586 0.9647
6.8544 5.5016 -1.8579 0.9647
6.3338 6.0884 -1.8571 0.9647
5.1468 7.1100 -1.8553 0.9648
3.7980 7.9029 -1.8534 0.9648
2.3312 8.4425 -1.8513 0.9648
0.7935 8.7122 -1.8492 0.9649
0.0135 8.7432 -1.8481 0.9649
-1.5381 8.5968 -1.8460 0.9649
-2.2973 8.4208 -1.8450 0.9649
-3.7527 7.8706 -1.8431 0.9650
-5.6943 6.5877 -1.8406 0.9650
-6.2566 6.0513 -1.8399 0.9650
-7.2274 4.8406 -1.8387 0.9651
-8.6118 3.7589 -1.9862 0.9623
-8.9244 2.9799 -1.9888 0.9623
-9.1535 2.1720 -1.9886 0.9623
-9.3102 1.3470 -1.9885 0.9623
-9.4017 -0.3282 -1.9886 0.9623
-9.1961 -1.9935 -1.9890 0.9623
-8.9835 -2.8062 -1.9894 0.9623
-7.1560 -4.5430 -1.9921 0.9658
-6.7246 -5.1647 -1.9928 0.9658
-4.5019 -7.2016 -1.9960 0.9657
-3.1541 -7.8943 -1.9980 0.9657
-0.9536 -8.4606 -2.0010 0.9656
1.3218 -8.4243 -2.0041 0.9656
2.0687 -8.2770 -2.0051 0.9656
2.7999 -8.0635 -2.0061 0.9655
3.5095 -7.7853 -2.0070 0.9655
4.8408 -7.0442 -2.0088 0.9655
5.4517 -6.5871 -2.0096 0.9655
6.0195 -6.0768 -2.0103 0.9655
6.5395 -5.5176 -2.0109 0.9655
7.7723 -3.5926 -2.0124 0.9654
8.5644 0.1154 -2.0130 0.9654
8.5194 0.8786 -2.0129 0.9654
8.4061 1.6346 -2.0126 0.9654
8.2255 2.3773 -2.0123 0.9654
7.6689 3.7988 -2.0114 0.9654
5.8981 5.2550 -1.8566 0.9681
5.4039 5.7578 -1.8559 0.9681
4.0381 5.1559 -1.5392 0.9734
3.6823 6.9734 -1.8534 0.9681
3.0443 7.2704 -1.8525 0.9681
1.7027 7.6877 -1.8506 0.9682
0.3097 7.8597 -1.8487 0.9682
-0.3922 7.8520 -1.8477 0.9682
-1.7789 7.6497 -1.8458 0.9682
-3.7350 6.8964 -1.8432 0.9683
-4.3332 6.5331 -1.8425 0.9683
-4.8966 6.1183 -1.8418 0.9683
-5.9015 5.1476 -1.8405 0.9683
-6.3352 4.5996 -1.8400 0.9683
-7.6234 3.6769 -1.9892 0.9658
-7.9249 2.9840 -1.9902 0.9658
-8.4302 0.7798 -1.9898 0.9658
-8.4663 0.0250 -1.9898 0.9658
-8.4354 -0.7301 -1.9899 0.9658
-8.3376 -1.4796 -1.9901 0.9658
-8.1737 -2.2175 -1.9904 0.9658
-7.9450 -2.9381 -1.9908 0.9658
-7.6532 -3.6358 -1.9913 0.9658
-6.4241 -5.5370 -1.9932 0.9658
-5.9070 -6.0901 -1.9940 0.9657
-5.3426 -6.5954 -1.9948 0.9657
-4.7353 -7.0486 -1.9957 0.9657
-4.0898 -7.4462 -1.9966 0.9657
-2.7047 -8.0622 -1.9986 0.9657
-1.9760 -8.2755 -1.9996 0.9656
-1.2309 -8.4231 -2.0006 0.9656
0.2852 -8.5166 -2.0027 0.9656
1.0441 -8.4616 -2.0038 0.9656
1.7954 -8.3390 -2.0048 0.9656
3.2512 -7.8951 -2.0067 0.9655
3.9441 -7.5772 -2.0076 0.9655
5.2316 -6.7617 -2.0093 0.9655
5.8159 -6.2705 -2.0100 0.9655
6.3540 -5.7288 -2.0107 0.9655
6.8416 -5.1410 -2.0113 0.9654
7.2746 -4.5116 -2.0118 0.9654
7.6496 -3.8457 -2.0122 0.9654
7.9634 -3.1488 -2.0126 0.9654
8.2135 -2.4265 -2.0128 0.9654
8.2997 2.1059 -2.0124 0.9654
7.4154 4.2100 -2.0041 0.9656
6.0685 5.0591 -1.8568 0.9681
1.8259 5.1600 -1.2864 0.9778
1.2660 7.7690 -1.8500 0.9682
-1.5269 7.7054 -1.8462 0.9682
-3.5069 7.0165 -1.8435 0.9683
-4.6936 6.2767 -1.8420 0.9683
-5.7299 5.3394 -1.8407 0.9683
-6.5980 4.2436 -1.8437 0.9683
-8.0799 2.5321 -1.9900 0.9658
-8.4001 1.0564 -1.9898 0.9658
-8.4608 0.3031 -1.9898 0.9658
-7.0475 -4.7107 -1.9923 0.9658
-6.6016 -5.3222 -1.9930 0.9658
-6.1030 -5.8919 -1.9937 0.9657
-5.5556 -6.4152 -1.9945 0.9657
-4.3315 -7.3066 -1.9963 0.9657
-3.6644 -7.6674 -1.9972 0.9657
-2.9676 -7.9675 -1.9982 0.9657
-1.5067 -8.3765 -2.0003 0.9656
-0.7541 -8.4819 -2.0013 0.9656
0.0053 -8.5198 -2.0023 0.9656
0.7654 -8.4898 -2.0034 0.9656
1.5201 -8.3920 -2.0044 0.9656
2.2635 -8.2271 -2.0054 0.9655
4.3663 -7.3447 -2.0082 0.9655
6.1616 -5.9338 -2.0104 0.9655
8.1290 -2.6949 -2.0128 0.9654
8.3378 -1.9595 -2.0130 0.9654
8.4797 -1.2083 -2.0131 0.9654
8.4961 1.0791 -2.0128 0.9654
8.3649 1.8322 -2.0126 0.9654
8.1668 2.5703 -2.0122 0.9654
7.9033 3.2876 -2.0118 0.9654
6.6428 4.2840 -1.8577 0.9680
5.7721 5.3920 -1.8564 0.9681
5.2662 5.8829 -1.8557 0.9681
3.9921 5.3524 -1.5693 0.9729
1.5208 7.7247 -1.8503 0.9682
0.1244 7.8638 -1.8484 0.9682
-0.5771 7.8395 -1.8474 0.9682
-1.9585 7.6047 -1.8456 0.9682
-5.5520 5.5254 -1.8409 0.9683
-6.0207 5.0067 -1.8403 0.9683
-6.4414 4.4487 -1.8398 0.9683
-7.1767 4.0628 -1.9382 0.9667
-7.9927 2.7963 -1.9901 0.9658
-8.2093 2.0722 -1.9899 0.9658
-8.4462 0.5809 -1.9898 0.9658
-8.4647 -0.1746 -1.9898 0.9658
-8.3007 -1.6757 -1.9902 0.9658
-7.5659 -3.8154 -1.9915 0.9658
-7.1976 -4.4761 -1.9920 0.9658
-6.7720 -5.1018 -1.9927 0.9658
-6.2924 -5.6874 -1.9934 0.9657
-5.7625 -6.2283 -1.9942 0.9657
-3.2272 -7.8643 -1.9979 0.9657
-2.5143 -8.1248 -1.9989 0.9657
-1.7807 -8.3209 -1.9999 0.9656
-1.0322 -8.4509 -2.0009 0.9656
2.7247 -8.0888 -2.0060 0.9655
4.7749 -7.0886 -2.0087 0.9655
5.9626 -6.1323 -2.0102 0.9655
6.4878 -5.5780 -2.0109 0.9655
7.3794 -4.3391 -2.0119 0.9654
8.0357 -2.9604 -2.0127 0.9654
8.4353 -1.4862 -2.0130 0.9654
8.5345 -0.7281 -2.0131 0.9654
8.4210 1.5565 -2.0127 0.9654
8.2474 2.3008 -2.0123 0.9654
8.0077 3.0264 -2.0119 0.9654
6.3893 4.6509 -1.8573 0.9680
5.4574 5.7075 -1.8559 0.9681
4.3530 6.5805 -1.8543 0.9681
3.1119 7.2421 -1.8526 0.9681
1.0824 7.7956 -1.8497 0.9682
-1.0180 7.7920 -1.8469 0.9682
-1.7079 7.6663 -1.8459 0.9682
-2.3835 7.4798 -1.8450 0.9683
-4.2725 6.5734 -1.8426 0.9683
-5.3682 5.7055 -1.8412 0.9683
-5.8536 5.2024 -1.8406 0.9683
-6.6993 4.0888 -1.8446 0.9683
-7.8969 3.0575 -1.9902 0.9658
-8.1371 2.3409 -1.9900 0.9658
-8.3128 1.6058 -1.9898 0.9658
-8.4226 0.8581 -1.9898 0.9658
-8.4417 -0.6517 -1.9899 0.9658
-8.3509 -1.4020 -1.9901 0.9658
-8.1938 -2.1414 -1.9904 0.9658
-7.6864 -3.5644 -1.9913 0.9658
-7.3400 -4.2368 -1.9918 0.9658
-6.9351 -4.8759 -1.9924 0.9658
-5.9631 -6.0347 -1.9939 0.9657
-4.8004 -7.0040 -1.9956 0.9657
-4.1586 -7.4075 -1.9965 0.9657
-3.4832 -7.7526 -1.9975 0.9657
-2.7794 -8.0363 -1.9985 0.9657
-2.0527 -8.2563 -1.9995 0.9656
-1.3090 -8.4108 -2.0005 0.9656
-0.5541 -8.4985 -2.0016 0.9656
0.2061 -8.5185 -2.0026 0.9656
0.9653 -8.4705 -2.0037 0.9656
2.4571 -8.1725 -2.0057 0.9655
3.1776 -7.9246 -2.0066 0.9655
3.8733 -7.6131 -2.0075 0.9655
4.5387 -7.2405 -2.0084 0.9655
6.3003 -5.7875 -2.0106 0.9655
6.7933 -5.2042 -2.0112 0.9654
7.2322 -4.5789 -2.0118 0.9654
7.6133 -3.9166 -2.0122 0.9654
7.9337 -3.2226 -2.0126 0.9654
8.3818 -1.7625 -2.0130 0.9654
8.5059 -1.0081 -2.0131 0.9654
8.5619 -0.2456 -2.0131 0.9654
8.4680 1.2790 -2.0128 0.9654
8.1035 2.7619 -2.0121 0.9654
7.8231 3.4727 -2.0116 0.9654
6.5394 4.4390 -1.8576 0.9680
6.1154 5.0027 -1.8569 0.9681
5.1255 6.0047 -1.8554 0.9681
3.3488 7.1373 -1.8529 0.9681
1.3382 7.7573 -1.8501 0.9682
-4.0549 6.7112 -1.8428 0.9683
-4.6353 6.3203 -1.8421 0.9683
-6.5440 4.2954 -1.8397 0.9683
-7.4430 3.9849 -1.9842 0.9659
-8.0561 2.6071 -1.9900 0.9658
-8.2557 1.8781 -1.9899 0.9658
-8.4576 0.3817 -1.9898 0.9658
-8.2592 -1.8709 -1.9903 0.9658
-7.0907 -4.6449 -1.9922 0.9658
-6.1573 -5.8347 -1.9936 0.9657
-5.6147 -6.3631 -1.9944 0.9657
-5.0271 -6.8413 -1.9953 0.9657
-3.7354 -7.6326 -1.9971 0.9657
-3.0414 -7.9392 -1.9981 0.9657
-0.8328 -8.4741 -2.0012 0.9656
-0.0739 -8.5190 -2.0022 0.9656
0.6864 -8.4960 -2.0033 0.9656
1.4420 -8.4053 -2.0043 0.9656
2.1869 -8.2473 -2.0053 0.9655
2.9150 -8.0233 -2.0063 0.9655
3.6205 -7.7350 -2.0072 0.9655
4.2977 -7.3846 -2.0081 0.9655
7.0772 -4.8136 -2.0116 0.9654
7.4800 -4.1643 -2.0120 0.9654
8.1035 -2.7703 -2.0127 0.9654
8.3191 -2.0369 -2.0129 0.9654
8.5492 -0.5268 -2.0131 0.9654
8.5619 0.2377 -2.0130 0.9654
8.1905 2.4944 -2.0122 0.9654
7.9337 3.2141 -2.0118 0.9654
7.6072 3.9045 -2.0096 0.9655
6.7536 4.2672 -1.8775 0.9677
6.2773 4.7997 -1.8572 0.9681
5.3208 5.8340 -1.8557 0.9681
4.1962 6.6804 -1.8541 0.9681
2.2750 7.5417 -1.8514 0.9682
1.5926 7.7106 -1.8504 0.9682
0.8983 7.8178 -1.8495 0.9682
0.1974 7.8627 -1.8485 0.9682
-1.8878 7.6229 -1.8457 0.9682
-2.5588 7.4206 -1.8448 0.9683
-3.1092 6.9372 -1.7867 0.9692
-4.9832 6.0474 -1.8416 0.9683
-5.5006 5.5770 -1.8410 0.9683
-6.4000 4.5085 -1.8399 0.9683
-7.0359 4.0699 -1.9103 0.9672
-7.6800 3.5700 -1.9904 0.9658
-7.9665 2.8704 -1.9901 0.9658
-8.4405 0.6594 -1.9898 0.9658
-8.4242 -0.8505 -1.9899 0.9658
-8.3158 -1.5985 -1.9902 0.9658
-8.1414 -2.3340 -1.9905 0.9658
-7.9025 -3.0513 -1.9909 0.9658
-7.2387 -4.4089 -1.9920 0.9658
-6.3447 -5.6285 -1.9933 0.9657
-5.8198 -6.1742 -1.9941 0.9657
-3.9834 -7.5044 -1.9968 0.9657
-3.3000 -7.8336 -1.9978 0.9657
-0.3537 -8.5104 -2.0019 0.9656
1.1649 -8.4465 -2.0039 0.9656
2.6493 -8.1133 -2.0059 0.9655
4.7086 -7.1323 -2.0086 0.9655
5.3280 -6.6867 -2.0094 0.9655
7.7039 -3.7362 -2.0123 0.9654
8.2475 -2.3090 -2.0129 0.9654
8.5273 -0.8074 -2.0131 0.9654
8.5652 -0.0437 -2.0130 0.9654
8.4353 1.4782 -2.0127 0.9654
7.7386 3.6559 -2.0115 0.9654
7.2529 4.2558 -1.9764 0.9660
5.9953 5.1449 -1.8567 0.9681
4.2092 5.1734 -1.5675 0.9730
3.8116 6.9044 -1.8535 0.9681
3.1792 7.2133 -1.8526 0.9681
1.8455 7.6556 -1.8508 0.9682
0.4558 7.8535 -1.8489 0.9682
-0.9456 7.8015 -1.8469 0.9682
-1.6366 7.6822 -1.8460 0.9682
-2.3140 7.5020 -1.8451 0.9683
-2.8395 6.9378 -1.7618 0.9697
-3.6065 6.9652 -1.8434 0.9683
-4.2114 6.6131 -1.8426 0.9683
-4.7825 6.2087 -1.8419 0.9683
-5.8052 5.2568 -1.8406 0.9683
-6.6430 4.1397 -1.8396 0.9683
-7.8683 3.1308 -1.9902 0.9658
-8.1151 2.4164 -1.9900 0.9658
-8.2975 1.6830 -1.9898 0.9658
-8.3634 -1.3244 -1.9901 0.9658
-8.2132 -2.0652 -1.9904 0.9658
-7.7190 -3.4927 -1.9912 0.9658
-7.3788 -4.1682 -1.9918 0.9658
-6.9799 -4.8111 -1.9924 0.9658
-6.5254 -5.4162 -1.9931 0.9658
-5.4638 -6.4943 -1.9946 0.9657
-2.8538 -8.0097 -1.9984 0.9657
-2.1293 -8.2365 -1.9994 0.9656
0.1269 -8.5196 -2.0025 0.9656
1.6399 -8.3701 -2.0046 0.9656
2.3809 -8.1946 -2.0056 0.9655
3.1036 -7.9534 -2.0065 0.9655
3.8022 -7.6484 -2.0074 0.9655
5.1047 -6.8572 -2.0091 0.9655
5.6979 -6.3771 -2.0099 0.9655
6.7444 -5.2669 -2.0112 0.9654
7.1891 -4.6457 -2.0117 0.9654
7.9033 -3.2962 -2.0125 0.9654
8.1668 -2.5786 -2.0128 0.9654
8.3650 -1.8403 -2.0130 0.9654
8.5537 0.4394 -2.0130 0.9654
8.3377 1.9514 -2.0125 0.9654
8.1290 2.6866 -2.0121 0.9654
6.5806 4.3782 -1.8576 0.9680
6.1619 4.9458 -1.8570 0.9681
5.6942 5.4735 -1.8563 0.9681
5.1813 5.9571 -1.8555 0.9681
4.6274 6.3926 -1.8547 0.9681
4.0371 6.7766 -1.8539 0.9681
3.4151 7.1062 -1.8530 0.9681
1.9252 5.1349 -1.2888 0.9777
0.0121 7.8641 -1.8482 0.9682
-0.6889 7.8298 -1.8473 0.9682
-1.3836 7.7333 -1.8464 0.9682
-2.0667 7.5753 -1.8454 0.9683
-2.7326 7.3573 -1.8446 0.9683
-4.5765 6.3634 -1.8422 0.9683
-5.6300 5.4453 -1.8408 0.9683
-6.0913 4.9200 -1.8403 0.9683
-6.5040 4.3561 -1.8398 0.9683
-7.7616 3.3878 -1.9904 0.9658
-8.0316 2.6818 -1.9901 0.9658
-8.4537 0.4603 -1.9898 0.9658
-8.0846 -2.5254 -1.9906 0.9658
-7.5110 -3.9232 -1.9916 0.9658
-6.1064 -4.6899 -1.9936 0.9687
-5.6658 -5.2175 -1.9942 0.9687
-4.6523 -6.1455 -1.9957 0.9687
-2.8635 -7.1669 -1.9983 0.9686
-1.5463 -7.5686 -2.0001 0.9686
-0.8656 -7.6799 -2.0011 0.9686
-0.1774 -7.7302 -2.0020 0.9686
0.5128 -7.7188 -2.0029 0.9685
1.8775 -7.5119 -2.0048 0.9685
2.5410 -7.3177 -2.0057 0.9685
4.3925 -6.3919 -2.0081 0.9685
5.4617 -5.5138 -2.0094 0.9684
5.9334 -5.0062 -2.0100 0.9684
7.3150 -2.6180 -2.0116 0.9684
7.6264 1.4830 -2.0116 0.9684
7.4626 2.1568 -2.0113 0.9684
7.2392 2.8131 -2.0109 0.9684
6.9579 3.4467 -2.0104 0.9684
5.3518 4.7683 -1.8559 0.9708
2.7629 6.5983 -1.8522 0.9709
2.1625 6.8153 -1.8513 0.9709
0.9166 7.0844 -1.8496 0.9709
-0.9898 7.0644 -1.8470 0.9710
-3.9347 5.9321 -1.8431 0.9710
-4.4464 5.5557 -1.8424 0.9710
-5.3592 4.6746 -1.8413 0.9710
-5.7532 4.1770 -1.8408 0.9711
-6.5855 3.9359 -1.9864 0.9688
-6.9279 3.3415 -1.9915 0.9687
-7.4094 2.0572 -1.9910 0.9687
-7.5628 1.3882 -1.9909 0.9687
-7.6609 -0.6631 -1.9910 0.9687
-7.5720 -1.3437 -1.9912 0.9687
-7.4231 -2.0139 -1.9914 0.9687
-7.2153 -2.6683 -1.9918 0.9687
-6.2565 -4.4862 -1.9933 0.9687
-5.8334 -5.0279 -1.9940 0.9687
-5.3637 -5.5300 -1.9947 0.9687
-4.8510 -5.9885 -1.9954 0.9687
-4.2994 -6.3998 -1.9962 0.9686
-3.7132 -6.7605 -1.9971 0.9686
-1.7938 -7.5124 -1.9998 0.9686
-1.1173 -7.6460 -2.0007 0.9686
-0.4312 -7.7188 -2.0017 0.9686
0.9476 -7.6799 -2.0035 0.9685
4.7471 -6.1354 -2.0085 0.9685
5.2770 -5.6896 -2.0092 0.9684
6.9401 -3.4891 -2.0112 0.9684
7.4516 -2.2014 -2.0118 0.9684
7.6187 -1.5283 -2.0119 0.9684
7.7692 -0.1506 -2.0120 0.9684
7.7513 0.5428 -2.0119 0.9684
7.6713 1.2317 -2.0117 0.9684
7.5299 1.9106 -2.0114 0.9684
6.7492 3.8318 -2.0095 0.9684
3.5484 6.2162 -1.8533 0.9709
2.9787 6.5051 -1.8525 0.9709
1.8372 5.1918 -1.4259 0.9775
0.5155 7.1227 -1.8490 0.9709
-0.1217 7.1369 -1.8482 0.9709
-0.7573 7.0943 -1.8473 0.9710
-2.0036 6.8408 -1.8456 0.9710
-2.6045 6.6320 -1.8448 0.9710
-3.1842 6.3707 -1.8441 0.9710
-3.7381 6.0591 -1.8433 0.9710
-4.2620 5.6995 -1.8427 0.9710
-5.6134 4.3642 -1.8410 0.9710
-6.8148 3.5675 -1.9916 0.9687
-7.3381 2.2996 -1.9911 0.9687
-7.5133 1.6359 -1.9909 0.9687
-7.6784 -0.4110 -1.9909 0.9687
-7.6118 -1.0942 -1.9911 0.9687
-7.0542 -3.0713 -1.9921 0.9687
-6.3998 -4.2778 -1.9931 0.9687
-5.5417 -5.3501 -1.9944 0.9687
-4.5067 -6.2541 -1.9959 0.9687
-3.3269 -6.9611 -1.9976 0.9686
-2.6941 -7.2333 -1.9985 0.9686
-2.0393 -7.4481 -1.9994 0.9686
-0.6845 -7.6992 -2.0013 0.9686
0.6947 -7.7055 -2.0032 0.9685
2.0542 -7.4664 -2.0050 0.9685
3.9621 -6.6648 -2.0075 0.9685
4.5423 -6.2872 -2.0083 0.9685
5.0867 -5.8592 -2.0090 0.9684
5.5906 -5.3839 -2.0096 0.9684
6.4615 -4.3075 -2.0107 0.9684
6.8213 -3.7150 -2.0111 0.9684
7.1266 -3.0924 -2.0114 0.9684
7.5643 -1.7777 -2.0119 0.9684
7.5890 1.6622 -2.0115 0.9684
7.1705 2.9828 -2.0108 0.9684
5.6548 4.4076 -1.8564 0.9708
4.7786 5.3382 -1.8550 0.9708
3.7513 6.0973 -1.8536 0.9709
2.6063 6.6608 -1.8519 0.9709
2.0011 6.8635 -1.8511 0.9709
0.7493 7.1032 -1.8493 0.9709
0.1129 7.1383 -1.8485 0.9709
-0.5238 7.1166 -1.8476 0.9709
-1.1558 7.0383 -1.8468 0.9710
-1.7780 6.9041 -1.8459 0.9710
-4.5757 5.4489 -1.8423 0.9710
-5.0417 5.0175 -1.8417 0.9710
-5.4675 4.5467 -1.8412 0.9710
-6.6846 3.7842 -1.9889 0.9688
-7.2589 2.5395 -1.9911 0.9687
-7.4556 1.8819 -1.9910 0.9687
-7.6709 0.5276 -1.9908 0.9687
-7.6433 -0.8435 -1.9910 0.9687
-7.3739 -2.1883 -1.9915 0.9687
-6.8708 -3.4648 -1.9924 0.9687
-6.5362 -4.0648 -1.9929 0.9687
-5.7138 -5.1644 -1.9941 0.9687
-5.2324 -5.6554 -1.9949 0.9687
-4.1479 -6.5000 -1.9964 0.9686
-3.5532 -6.8469 -1.9973 0.9686
-1.6165 -7.5535 -2.0000 0.9686
-0.9369 -7.6712 -2.0010 0.9686
1.1285 -7.6563 -2.0038 0.9685
3.1188 -7.0940 -2.0064 0.9685
4.3327 -6.4322 -2.0080 0.9685
6.3159 -4.5171 -2.0105 0.9684
7.2903 -2.6858 -2.0116 0.9684
7.7705 0.0325 -2.0120 0.9684
7.4825 2.0874 -2.0113 0.9684
7.2652 2.7458 -2.0109 0.9684
6.9898 3.3819 -2.0105 0.9684
