ply
format ascii 1.0
element vertex 1551
property float32 x
property float32 y
property float32 z
property float32 I
end_header
-2.6608 -19.0509 -1.8467 0.9256
-0.9493 -19.2123 -1.8467 0.9256
2.4827 -19.0749 -1.8467 0.9256
4.1757 -18.7771 -1.8467 0.9256
5.8354 -18.3293 -1.8467 0.9256
18.6031 4.8930 -1.8467 0.9256
18.0919 6.5343 -1.8467 0.9256
6.1361 5.2124 -0.7730 0.9682
8.5097 10.3567 -1.2869 0.9476
5.7912 10.3772 -1.1409 0.9534
4.6333 10.3859 -1.0918 0.9553
3.5627 10.3940 -1.0549 0.9568
1.5858 10.3922 -1.0093 0.9586
1.0446 16.8206 -1.6180 0.9345
-10.2790 16.2590 -1.8467 0.9256
-11.6896 15.2764 -1.8467 0.9256
-15.3198 11.6327 -1.8467 0.9256
-16.2972 10.2184 -1.8467 0.9256
-12.4800 -14.8028 -1.8588 0.9251
-9.5857 -16.6772 -1.8467 0.9256
-8.0585 -17.4664 -1.8467 0.9256
-4.8237 -18.6211 -1.8467 0.9256
-3.1420 -18.9774 -1.8467 0.9256
-1.4352 -19.1822 -1.8467 0.9256
3.6992 -18.8767 -1.8467 0.9256
10.0725 -16.3878 -1.8467 0.9256
11.4954 -15.4231 -1.8467 0.9256
13.2416 -14.7993 -1.9065 0.9233
18.7209 4.4207 -1.8467 0.9256
18.2515 6.0744 -1.8467 0.9256
16.8802 9.2235 -1.8467 0.9256
12.8026 10.3293 -1.5793 0.9360
7.5324 10.4683 -1.2381 0.9495
6.1390 10.3745 -1.1573 0.9527
3.8585 10.3918 -1.0642 0.9564
1.8562 10.3931 -1.0136 0.9585
1.0042 11.4701 -1.1054 0.9548
-0.6255 6.8192 -0.6574 0.9729
-6.7701 18.0050 -1.8467 0.9256
-8.3505 17.3287 -1.8467 0.9256
-9.8643 16.5139 -1.8467 0.9256
-13.8878 13.3096 -1.8467 0.9256
-15.0205 12.0166 -1.8467 0.9256
-18.2764 5.9990 -1.8467 0.9256
-18.7390 4.3433 -1.8467 0.9256
-13.1284 -14.7954 -1.8990 0.9236
-11.4315 -15.4705 -1.8467 0.9256
-6.9233 -17.9467 -1.8467 0.9256
-5.2933 -18.4931 -1.8467 0.9256
1.5144 -19.1761 -1.8467 0.9256
3.2204 -18.9643 -1.8467 0.9256
6.5418 -18.0892 -1.8467 0.9256
8.1306 -17.4329 -1.8467 0.9256
9.6546 -16.6374 -1.8467 0.9256
12.5867 -14.8047 -1.8656 0.9249
19.4454 4.0753 -1.9074 0.9233
16.2548 10.2857 -1.8467 0.9256
13.4805 10.3242 -1.6301 0.9340
11.2579 10.3409 -1.4676 0.9404
9.4204 10.3498 -1.3436 0.9453
3.8120 5.0246 -0.6055 0.9750
4.1597 10.3895 -1.0744 0.9560
3.1190 10.3973 -1.0421 0.9573
0.2513 10.8106 -1.0382 0.9575
-0.4615 6.9663 -0.6703 0.9723
-6.3124 18.1706 -1.8467 0.9256
-7.9095 17.5344 -1.8467 0.9256
-9.4433 16.7582 -1.8467 0.9256
-10.9018 15.8482 -1.8467 0.9256
-12.2731 14.8117 -1.8467 0.9256
-13.5465 13.6567 -1.8467 0.9256
-17.4697 8.0513 -1.8467 0.9256
-18.6231 4.8160 -1.8467 0.9256
-11.8193 -15.1763 -1.8467 0.9256
-10.4172 -16.1709 -1.8467 0.9256
-8.9318 -17.0363 -1.8467 0.9256
-7.3752 -17.7657 -1.8467 0.9256
-5.7596 -18.3533 -1.8467 0.9256
-4.0981 -18.7942 -1.8467 0.9256
-0.6902 -19.2234 -1.8467 0.9256
6.0820 -18.2490 -1.8467 0.9256
7.6869 -17.6331 -1.8467 0.9256
12.0848 -14.9658 -1.8467 0.9256
18.5354 5.1433 -1.8467 0.9256
14.2040 10.3187 -1.6855 0.9319
11.8410 10.3365 -1.5090 0.9388
9.9072 10.3461 -1.3752 0.9441
8.2798 10.3584 -1.2731 0.9481
6.9356 10.4728 -1.2059 0.9508
4.4670 10.3872 -1.0855 0.9556
3.4073 10.3952 -1.0502 0.9570
1.4427 10.3920 -1.0072 0.9587
-0.7856 19.2197 -1.8467 0.9256
-0.8944 6.8280 -0.6611 0.9727
-4.1912 18.7736 -1.8467 0.9256
-5.8506 18.3245 -1.8467 0.9256
-9.0162 16.9918 -1.8467 0.9256
-10.4973 16.1190 -1.8467 0.9256
-16.7608 -1.5024 -1.9989 0.9345
-16.5598 -2.9928 -1.9989 0.9345
-14.4647 -8.5997 -1.9989 0.9345
-13.6391 -9.8568 -1.9989 0.9345
-11.6687 -12.1253 -1.9989 0.9345
-2.1760 -15.3937 -1.8467 0.9393
0.5964 -15.5353 -1.8467 0.9393
3.3498 -15.1815 -1.8467 0.9393
4.6918 -14.8219 -1.8467 0.9393
6.1847 -14.7943 -1.9047 0.9375
7.7954 -14.7795 -1.9848 0.9349
12.5640 -11.1950 -1.9989 0.9345
15.0814 -7.4654 -1.9989 0.9345
15.6877 -6.0891 -1.9989 0.9345
16.1687 -4.6642 -1.9989 0.9345
16.5206 -3.2021 -1.9989 0.9345
16.7405 -1.7143 -1.9989 0.9345
16.8267 -0.2129 -1.9989 0.9345
15.7434 4.1130 -1.9329 0.9366
14.1032 6.5422 -1.8467 0.9393
13.4628 7.7752 -1.8467 0.9393
12.7149 8.9461 -1.8467 0.9393
10.2095 10.3438 -1.7264 0.9431
8.5383 10.3564 -1.5944 0.9474
5.8136 10.3770 -1.4129 0.9532
3.5819 10.3938 -1.3059 0.9567
2.5727 10.4015 -1.2728 0.9578
1.6059 10.4088 -1.2510 0.9585
-0.3998 15.5416 -1.8467 0.9393
-3.1574 15.2227 -1.8467 0.9393
-4.5039 14.8800 -1.8467 0.9393
-5.8144 14.4185 -1.8467 0.9393
-9.4273 12.3623 -1.8467 0.9393
-10.4934 11.4713 -1.8467 0.9393
-11.4756 10.4886 -1.8467 0.9393
-13.1580 8.2805 -1.8467 0.9393
-13.8447 7.0727 -1.8467 0.9393
-14.4209 5.8084 -1.8467 0.9393
-16.7174 1.9260 -1.9989 0.9345
-16.7935 -1.0778 -1.9989 0.9345
-16.6302 -2.5728 -1.9989 0.9345
-16.3341 -4.0473 -1.9989 0.9345
-15.9075 -5.4894 -1.9989 0.9345
-14.6777 -8.2310 -1.9989 0.9345
-13.8842 -9.5085 -1.9989 0.9345
-11.9718 -11.8262 -1.9989 0.9345
-10.8682 -12.8478 -1.9989 0.9345
-9.6777 -13.7668 -1.9989 0.9345
-8.3943 -14.5486 -1.9952 0.9346
-6.8527 -14.7885 -1.9361 0.9365
-1.1856 -15.5014 -1.8467 0.9393
0.2031 -15.5454 -1.8467 0.9393
2.9646 -15.2614 -1.8467 0.9393
4.3153 -14.9358 -1.8467 0.9393
10.0341 -13.5092 -1.9989 0.9345
14.1279 -9.1425 -1.9989 0.9345
14.8877 -7.8446 -1.9989 0.9345
16.8058 0.8652 -1.9989 0.9345
16.6614 2.3622 -1.9989 0.9345
13.6552 7.4321 -1.8467 0.9393
12.9371 8.6215 -1.8467 0.9393
12.1158 9.7421 -1.8467 0.9393
10.7356 10.3399 -1.7705 0.9417
3.7541 5.1992 -0.7618 0.9745
6.1621 10.3744 -1.4333 0.9526
2.8533 10.3993 -1.2809 0.9575
1.0025 11.2359 -1.3400 0.9556
-0.0064 15.5467 -1.8467 0.9393
-2.7712 15.2977 -1.8467 0.9393
-4.1260 14.9892 -1.8467 0.9393
-5.4477 14.5610 -1.8467 0.9393
-6.7259 14.0165 -1.8467 0.9393
-7.9505 13.3600 -1.8467 0.9393
-11.2065 10.7756 -1.8467 0.9393
-12.1238 9.7321 -1.8467 0.9393
-12.9443 8.6108 -1.8467 0.9393
-14.2693 6.1715 -1.8467 0.9393
-14.7633 4.8729 -1.8467 0.9393
-16.8065 0.8513 -1.9989 0.9345
-16.8154 -0.6525 -1.9989 0.9345
-16.6900 -2.1512 -1.9989 0.9345
-16.4312 -3.6327 -1.9989 0.9345
-16.0413 -5.0851 -1.9989 0.9345
-15.5233 -6.4970 -1.9989 0.9345
-14.1203 -9.1541 -1.9989 0.9345
-11.1898 -12.5686 -1.9989 0.9345
-10.0230 -13.5175 -1.9989 0.9345
-7.3107 -14.7842 -1.9591 0.9357
-5.7367 -14.7979 -1.8852 0.9381
-4.3030 -14.9394 -1.8467 0.9393
-2.9520 -15.2639 -1.8467 0.9393
-1.5774 -15.4665 -1.8467 0.9393
5.3250 -14.8010 -1.8685 0.9386
6.8675 -14.7884 -1.9368 0.9364
10.8788 -12.8388 -1.9989 0.9345
11.9816 -11.8163 -1.9989 0.9345
13.8920 -9.4970 -1.9989 0.9345
16.3374 -4.0338 -1.9989 0.9345
16.6323 -2.5591 -1.9989 0.9345
16.7943 -1.0639 -1.9989 0.9345
16.8223 0.4397 -1.9989 0.9345
16.7158 1.9398 -1.9989 0.9345
14.8782 4.5100 -1.8467 0.9393
13.1512 8.2914 -1.8467 0.9393
12.3584 9.4324 -1.8467 0.9393
11.2950 10.3406 -1.8190 0.9402
9.4516 10.3496 -1.6649 0.9451
3.1377 10.3972 -1.2901 0.9572
0.2687 10.7920 -1.2823 0.9574
-1.0623 6.8475 -0.8231 0.9725
-5.0775 14.6942 -1.8467 0.9393
-6.3691 14.1822 -1.8467 0.9393
-7.6099 13.5569 -1.8467 0.9393
-10.9303 11.0557 -1.8467 0.9393
-11.8737 10.0357 -1.8467 0.9393
-14.1086 6.5305 -1.8467 0.9393
-15.8591 4.1292 -1.9466 0.9361
-16.8265 -0.2268 -1.9989 0.9345
-15.6827 -6.1021 -1.9989 0.9345
-15.0753 -7.4779 -1.9989 0.9345
-14.3474 -8.7939 -1.9989 0.9345
-13.5050 -10.0397 -1.9989 0.9345
-12.5548 -11.2054 -1.9989 0.9345
-11.5042 -12.2815 -1.9989 0.9345
-10.3618 -13.2595 -1.9989 0.9345
-7.7799 -14.7796 -1.9840 0.9349
-4.6796 -14.8257 -1.8467 0.9393
2.1887 -15.3919 -1.8467 0.9393
8.0235 -14.7273 -1.9922 0.9347
12.7138 -11.0246 -1.9989 0.9345
13.6473 -9.8455 -1.9989 0.9345
16.5622 -2.9791 -1.9989 0.9345
16.7620 -1.4885 -1.9989 0.9345
16.8280 0.0139 -1.9989 0.9345
16.7596 1.5163 -1.9989 0.9345
15.0112 4.1387 -1.8496 0.9392
14.0137 6.7317 -1.8467 0.9393
13.3567 7.9560 -1.8467 0.9393
12.5931 9.1167 -1.8467 0.9393
11.7289 10.2046 -1.8467 0.9393
9.9399 10.3459 -1.7042 0.9438
5.6319 10.3784 -1.4026 0.9535
3.4263 10.3950 -1.3001 0.9569
2.4247 10.4026 -1.2688 0.9579
0.5484 10.9161 -1.2983 0.9569
-3.3623 15.1788 -1.8467 0.9393
-6.0082 14.3388 -1.8467 0.9393
-7.2644 13.7451 -1.8467 0.9393
-8.4625 13.0417 -1.8467 0.9393
-10.6470 11.3287 -1.8467 0.9393
-13.2684 8.1024 -1.8467 0.9393
-13.9388 6.8854 -1.8467 0.9393
-16.5232 3.1884 -1.9989 0.9345
-16.7419 1.7005 -1.9989 0.9345
-16.5940 -2.7967 -1.9989 0.9345
-16.2780 -4.2671 -1.9989 0.9345
-15.8321 -5.7033 -1.9989 0.9345
-12.8343 -10.8841 -1.9989 0.9345
-9.4913 -13.8960 -1.9989 0.9345
-8.1905 -14.6481 -1.9935 0.9346
-6.6130 -14.7906 -1.9245 0.9368
-5.0876 -14.8027 -1.8593 0.9389
0.4127 -15.5412 -1.8467 0.9393
1.7985 -15.4423 -1.8467 0.9393
4.5162 -14.8763 -1.8467 0.9393
5.9808 -14.7960 -1.8957 0.9377
7.5745 -14.7817 -1.9730 0.9353
11.3684 -12.4073 -1.9989 0.9345
13.3938 -10.1877 -1.9989 0.9345
14.2498 -8.9512 -1.9989 0.9345
15.6146 -6.2742 -1.9989 0.9345
16.4815 -3.3972 -1.9989 0.9345
16.7926 1.0917 -1.9989 0.9345
16.2755 4.0470 -1.9922 0.9347
14.6921 5.0836 -1.8467 0.9393
14.1796 6.3750 -1.8467 0.9393
13.5538 7.6155 -1.8467 0.9393
10.4520 10.3420 -1.7466 0.9425
8.7447 10.3549 -1.6099 0.9469
5.9478 10.3282 -1.4157 0.9531
4.8016 10.3846 -1.3590 0.9550
3.7196 10.3928 -1.3112 0.9565
2.7034 10.4005 -1.2765 0.9576
1.7320 10.4078 -1.2533 0.9584
-0.7022 6.7736 -0.8089 0.9729
-2.9772 15.2590 -1.8467 0.9393
-4.3276 14.9322 -1.8467 0.9393
-5.6435 14.4863 -1.8467 0.9393
-11.3508 10.6236 -1.8467 0.9393
-12.2539 9.5678 -1.8467 0.9393
-16.4372 3.6055 -1.9989 0.9345
-16.6935 2.1236 -1.9989 0.9345
-16.8050 -0.8791 -1.9989 0.9345
-16.6594 -2.3759 -1.9989 0.9345
-16.3808 -3.8541 -1.9989 0.9345
-15.9713 -5.3009 -1.9989 0.9345
-14.7740 -8.0568 -1.9989 0.9345
-13.9957 -9.3436 -1.9989 0.9345
-12.1108 -11.6838 -1.9989 0.9345
-9.8399 -13.6514 -1.9989 0.9345
-8.5723 -14.4593 -1.9967 0.9345
-7.0654 -14.7865 -1.9466 0.9361
-5.5091 -14.7997 -1.8758 0.9384
-4.1012 -14.9960 -1.8467 0.9393
-2.7459 -15.3023 -1.8467 0.9393
0.0193 -15.5467 -1.8467 0.9393
8.6095 -14.4403 -1.9970 0.9345
9.8737 -13.6269 -1.9989 0.9345
11.0509 -12.6910 -1.9989 0.9345
13.1317 -10.5233 -1.9989 0.9345
14.0188 -9.3089 -1.9989 0.9345
14.7939 -8.0201 -1.9989 0.9345
15.9844 -5.2613 -1.9989 0.9345
16.8148 0.6664 -1.9989 0.9345
16.4282 3.6462 -1.9989 0.9345
14.8160 4.7102 -1.8467 0.9393
14.3363 6.0141 -1.8467 0.9393
13.0382 8.4679 -1.8467 0.9393
10.9908 10.3379 -1.7923 0.9410
9.2005 10.3514 -1.6451 0.9457
3.7630 5.0838 -0.7513 0.9748
6.3285 10.3731 -1.4434 0.9522
4.0183 10.3906 -1.3233 0.9561
2.9857 10.3983 -1.2851 0.9574
2.0035 10.4058 -1.2588 0.9582
-0.5354 6.8516 -0.8163 0.9727
-1.1651 6.8955 -0.8307 0.9722
-5.2751 14.6244 -1.8467 0.9393
-6.5597 14.0951 -1.8467 0.9393
-7.7919 13.4531 -1.8467 0.9393
-8.9619 12.7037 -1.8467 0.9393
-11.0783 10.9074 -1.8467 0.9393
-14.1953 6.3398 -1.8467 0.9393
-16.6344 2.5453 -1.9989 0.9345
-16.7952 1.0500 -1.9989 0.9345
-16.8219 -0.4536 -1.9989 0.9345
-16.7142 -1.9536 -1.9989 0.9345
-16.1003 -4.8951 -1.9989 0.9345
-15.5990 -6.3129 -1.9989 0.9345
-14.2276 -8.9865 -1.9989 0.9345
-8.9453 -14.2535 -1.9989 0.9345
-7.5285 -14.7821 -1.9705 0.9354
-5.9383 -14.7963 -1.8939 0.9378
-0.3741 -15.5422 -1.8467 0.9393
2.3960 -15.3610 -1.8467 0.9393
3.7578 -15.0857 -1.8467 0.9393
6.6569 -14.7903 -1.9266 0.9368
9.5257 -13.8724 -1.9989 0.9345
10.7261 -12.9666 -1.9989 0.9345
13.7787 -9.6607 -1.9989 0.9345
15.8462 -5.6641 -1.9989 0.9345
16.2886 -4.2267 -1.9989 0.9345
16.6009 -2.7556 -1.9989 0.9345
16.7806 -1.2625 -1.9989 0.9345
16.7376 1.7420 -1.9989 0.9345
13.2483 8.1353 -1.8467 0.9393
12.4691 9.2856 -1.8467 0.9393
11.5644 10.3386 -1.8426 0.9394
9.6769 10.3479 -1.6829 0.9445
6.6927 10.3704 -1.4661 0.9515
4.3226 10.3883 -1.3365 0.9557
3.2720 10.3962 -1.2946 0.9570
2.2775 10.4037 -1.2651 0.9580
0.3954 10.7631 -1.2794 0.9575
-0.8186 15.5251 -1.8467 0.9393
-3.5666 15.1321 -1.8467 0.9393
-4.9034 14.7532 -1.8467 0.9393
-7.4490 13.6460 -1.8467 0.9393
-9.7571 12.1037 -1.8467 0.9393
-10.7987 11.1842 -1.8467 0.9393
-11.7542 10.1754 -1.8467 0.9393
-13.3764 7.9228 -1.8467 0.9393
-14.0304 6.6970 -1.8467 0.9393
-16.5548 -3.0202 -1.9989 0.9345
-15.1627 -7.2990 -1.9989 0.9345
-14.4504 -8.6236 -1.9989 0.9345
-13.6228 -9.8793 -1.9989 0.9345
-12.6864 -11.0561 -1.9989 0.9345
-11.6487 -12.1446 -1.9989 0.9345
-10.5179 -13.1361 -1.9989 0.9345
-7.9857 -14.7450 -1.9919 0.9347
-4.8668 -14.8066 -1.8514 0.9391
-2.1505 -15.3973 -1.8467 0.9393
-0.7673 -15.5278 -1.8467 0.9393
0.6221 -15.5343 -1.8467 0.9393
9.1716 -14.1090 -1.9989 0.9345
13.5299 -10.0062 -1.9989 0.9345
15.0938 -7.4405 -1.9989 0.9345
15.6978 -6.0632 -1.9989 0.9345
16.5258 -3.1748 -1.9989 0.9345
16.8270 -0.1851 -1.9989 0.9345
16.7763 1.3179 -1.9989 0.9345
15.6485 4.1158 -1.9220 0.9369
14.6222 5.2812 -1.8467 0.9393
6.1354 5.2119 -0.9563 0.9681
10.1761 10.3441 -1.7236 0.9432
4.6333 10.3859 -1.3509 0.9552
1.5883 10.4089 -1.2507 0.9585
0.9637 15.5168 -1.8467 0.9393
-0.4255 15.5409 -1.8467 0.9393
-3.1826 15.2175 -1.8467 0.9393
-5.8382 14.4089 -1.8467 0.9393
-7.1013 13.8301 -1.8467 0.9393
-10.5123 11.4539 -1.8467 0.9393
-13.1717 8.2588 -1.8467 0.9393
-13.8564 7.0498 -1.8467 0.9393
-16.4843 3.3836 -1.9989 0.9345
-16.8233 0.3980 -1.9989 0.9345
-16.6259 -2.6003 -1.9989 0.9345
-16.3274 -4.0743 -1.9989 0.9345
-15.3425 -6.9131 -1.9989 0.9345
-14.6640 -8.2552 -1.9989 0.9345
-13.8684 -9.5315 -1.9989 0.9345
-9.6550 -13.7827 -1.9989 0.9345
-8.3694 -14.5610 -1.9950 0.9346
-5.2837 -14.8013 -1.8669 0.9387
0.2288 -15.5450 -1.8467 0.9393
4.3399 -14.9287 -1.8467 0.9393
5.7789 -14.7976 -1.8870 0.9380
7.3561 -14.7838 -1.9615 0.9356
8.8112 -14.3357 -1.9988 0.9345
10.0565 -13.4926 -1.9989 0.9345
12.2957 -11.4890 -1.9989 0.9345
13.2723 -10.3454 -1.9989 0.9345
14.1430 -9.1191 -1.9989 0.9345
14.9007 -7.8200 -1.9989 0.9345
16.4402 -3.5919 -1.9989 0.9345
16.6952 -2.1098 -1.9989 0.9345
16.8169 -0.6108 -1.9989 0.9345
16.3480 3.8603 -1.9953 0.9346
14.7512 4.9095 -1.8467 0.9393
13.6429 7.4546 -1.8467 0.9393
12.0996 9.7621 -1.8467 0.9393
10.7004 10.3401 -1.7675 0.9418
8.9552 10.3533 -1.6261 0.9464
3.7743 5.2454 -0.7676 0.9743
6.1390 10.3745 -1.4319 0.9526
3.8585 10.3918 -1.3167 0.9563
2.8348 10.3995 -1.2804 0.9575
-0.6230 6.7924 -0.8102 0.9729
-2.7966 15.2931 -1.8467 0.9393
-5.4717 14.5520 -1.8467 0.9393
-6.7491 14.0054 -1.8467 0.9393
-7.9725 13.3469 -1.8467 0.9393
-10.2191 11.7162 -1.8467 0.9393
-12.1399 9.7120 -1.8467 0.9393
-12.9585 8.5894 -1.8467 0.9393
-13.6736 7.3981 -1.8467 0.9393
-16.4252 -3.6598 -1.9989 0.9345
-15.5125 -6.5226 -1.9989 0.9345
-13.2295 -10.4001 -1.9989 0.9345
-12.2481 -11.5397 -1.9989 0.9345
-11.1690 -12.5871 -1.9989 0.9345
-10.0006 -13.5340 -1.9989 0.9345
-4.2781 -14.9465 -1.8467 0.9393
-1.5519 -15.4691 -1.8467 0.9393
-0.1645 -15.5458 -1.8467 0.9393
3.9608 -15.0337 -1.8467 0.9393
5.3526 -14.8008 -1.8696 0.9386
6.8971 -14.7881 -1.9383 0.9364
9.7119 -13.7427 -1.9989 0.9345
10.9000 -12.8208 -1.9989 0.9345
12.0011 -11.7964 -1.9989 0.9345
13.0064 -10.6778 -1.9989 0.9345
13.9077 -9.4740 -1.9989 0.9345
16.4702 3.4517 -1.9989 0.9345
14.8707 4.5346 -1.8467 0.9393
14.4065 5.8442 -1.8467 0.9393
13.8272 7.1070 -1.8467 0.9393
12.3428 9.4528 -1.8467 0.9393
11.2579 10.3409 -1.8158 0.9403
3.8153 5.0289 -0.7498 0.9749
6.4973 10.3718 -1.4538 0.9519
5.2762 10.3811 -1.3833 0.9542
3.1190 10.3973 -1.2894 0.9572
2.1312 10.4048 -1.2616 0.9581
1.1778 10.4120 -1.2447 0.9587
0.2513 10.8124 -1.2847 0.9574
-1.0743 6.8506 -0.8237 0.9725
-3.7703 15.0826 -1.8467 0.9393
-5.1018 14.6858 -1.8467 0.9393
-6.3926 14.1716 -1.8467 0.9393
-10.9485 11.0376 -1.8467 0.9393
-11.8903 10.0161 -1.8467 0.9393
-13.4820 7.7418 -1.8467 0.9393
-16.6031 2.7418 -1.9989 0.9345
-16.7816 1.2486 -1.9989 0.9345
-16.1571 -4.7043 -1.9989 0.9345
-15.6726 -6.1280 -1.9989 0.9345
-15.0629 -7.5028 -1.9989 0.9345
-13.4884 -10.0621 -1.9989 0.9345
-10.3399 -13.2766 -1.9989 0.9345
-9.1132 -14.1468 -1.9989 0.9345
-4.6550 -14.8335 -1.8467 0.9393
-3.3121 -15.1898 -1.8467 0.9393
0.8314 -15.5245 -1.8467 0.9393
3.5791 -15.1291 -1.8467 0.9393
9.3610 -13.9841 -1.9989 0.9345
10.5721 -13.0925 -1.9989 0.9345
12.7320 -11.0035 -1.9989 0.9345
13.6635 -9.8229 -1.9989 0.9345
14.4859 -8.5638 -1.9989 0.9345
15.7781 -5.8510 -1.9989 0.9345
16.2374 -4.4190 -1.9989 0.9345
16.7645 -1.4608 -1.9989 0.9345
14.9807 4.1569 -1.8467 0.9393
14.0026 6.7548 -1.8467 0.9393
13.3436 7.9780 -1.8467 0.9393
11.7120 10.2239 -1.8467 0.9393
4.1128 5.1453 -0.7824 0.9738
6.9356 10.4728 -1.4921 0.9507
4.4670 10.3872 -1.3431 0.9555
-0.6349 15.5337 -1.8467 0.9393
-6.0319 14.3289 -1.8467 0.9393
-7.2871 13.7331 -1.8467 0.9393
-9.6133 12.2182 -1.8467 0.9393
-10.6658 11.3111 -1.8467 0.9393
-14.1079 -0.0000 -1.9989 0.9446
-13.8829 -2.5090 -1.9989 0.9446
-13.6035 -3.7385 -1.9989 0.9446
-11.4344 -8.2635 -1.9989 0.9446
-8.8359 -10.9981 -1.9989 0.9446
-7.8187 -11.7430 -1.9989 0.9446
-6.7391 -12.3942 -1.9989 0.9446
-5.6056 -12.9464 -1.9989 0.9446
-3.2138 -13.7369 -1.9989 0.9446
-0.7195 -14.0895 -1.9989 0.9446
0.5412 -14.0975 -1.9989 0.9446
1.7977 -13.9928 -1.9989 0.9446
3.0398 -13.7765 -1.9989 0.9446
4.2576 -13.4501 -1.9989 0.9446
5.4414 -13.0162 -1.9989 0.9446
7.6695 -11.8410 -1.9989 0.9446
8.6960 -11.1090 -1.9989 0.9446
9.6531 -10.2883 -1.9989 0.9446
10.5331 -9.3854 -1.9989 0.9446
11.3290 -8.4075 -1.9989 0.9446
12.0343 -7.3625 -1.9989 0.9446
12.6436 -6.2587 -1.9989 0.9446
13.8501 -2.6845 -1.9989 0.9446
14.1067 -0.1785 -1.9989 0.9446
14.0663 1.0816 -1.9989 0.9446
13.9136 2.3332 -1.9989 0.9446
13.6497 3.5660 -1.9989 0.9446
12.2659 4.4072 -1.8467 0.9487
11.8235 5.4847 -1.8467 0.9487
11.2866 6.5184 -1.8467 0.9487
6.0925 5.1581 -1.1311 0.9683
-0.3352 13.0294 -1.8467 0.9487
-4.8745 12.0878 -1.8467 0.9487
-7.9034 10.3640 -1.8467 0.9487
-9.6206 8.7932 -1.8467 0.9487
-10.3673 7.8991 -1.8467 0.9487
-11.0311 6.9420 -1.8467 0.9487
-13.4592 4.0678 -1.9922 0.9448
-13.8150 2.8595 -1.9989 0.9446
-14.0151 1.6147 -1.9989 0.9446
-14.1033 0.3570 -1.9989 0.9446
-14.0789 -0.9036 -1.9989 0.9446
-12.3051 -6.9005 -1.9989 0.9446
-11.6399 -7.9715 -1.9989 0.9446
-10.0366 -9.9145 -1.9989 0.9446
-8.1134 -11.5414 -1.9989 0.9446
-4.7649 -13.2788 -1.9989 0.9446
0.1843 -14.1066 -1.9989 0.9446
1.4430 -14.0339 -1.9989 0.9446
3.9159 -13.5535 -1.9989 0.9446
9.3897 -10.5292 -1.9989 0.9446
11.8442 -7.6646 -1.9989 0.9446
13.0185 -5.4360 -1.9989 0.9446
13.9682 1.9803 -1.9989 0.9446
12.5113 4.1410 -1.8673 0.9482
11.9585 5.1838 -1.8467 0.9487
11.4479 6.2307 -1.8467 0.9487
10.1573 8.1673 -1.8467 0.9487
8.5429 9.8436 -1.8467 0.9487
3.7219 5.1547 -0.9009 0.9746
4.9720 10.3834 -1.6312 0.9546
2.8533 10.3993 -1.5279 0.9574
-0.0054 13.0337 -1.8467 0.9487
-0.6207 6.8925 -0.9805 0.9724
-2.3233 12.8249 -1.8467 0.9487
-3.4590 12.5663 -1.8467 0.9487
-5.6387 11.7508 -1.8467 0.9487
-7.6387 10.5606 -1.8467 0.9487
-8.5510 9.8365 -1.8467 0.9487
-9.3950 9.0338 -1.8467 0.9487
-10.8519 7.2189 -1.8467 0.9487
-11.9627 5.1739 -1.8467 0.9487
-13.9698 1.9688 -1.9989 0.9446
-14.0898 0.7137 -1.9989 0.9446
-13.9921 -1.8035 -1.9989 0.9446
-13.7752 -3.0455 -1.9989 0.9446
-13.4483 -4.2631 -1.9989 0.9446
-13.0140 -5.4468 -1.9989 0.9446
-12.4757 -6.5869 -1.9989 0.9446
-11.8378 -7.6744 -1.9989 0.9446
-11.1054 -8.7006 -1.9989 0.9446
-10.2843 -9.6574 -1.9989 0.9446
-9.3810 -10.5370 -1.9989 0.9446
-8.4028 -11.3324 -1.9989 0.9446
-6.2534 -12.6462 -1.9989 0.9446
-3.9047 -13.5567 -1.9989 0.9446
-1.4314 -14.0350 -1.9989 0.9446
-0.1727 -14.1068 -1.9989 0.9446
1.0875 -14.0659 -1.9989 0.9446
2.3389 -13.9126 -1.9989 0.9446
3.5717 -13.6482 -1.9989 0.9446
4.7759 -13.2749 -1.9989 0.9446
5.9420 -12.7955 -1.9989 0.9446
7.0606 -12.2139 -1.9989 0.9446
8.1229 -11.5347 -1.9989 0.9446
10.0448 -9.9062 -1.9989 0.9446
11.6464 -7.9619 -1.9989 0.9446
12.8768 -5.7637 -1.9989 0.9446
13.3399 -4.5910 -1.9989 0.9446
13.6965 -3.3817 -1.9989 0.9446
13.9438 -2.1454 -1.9989 0.9446
14.0796 -0.8919 -1.9989 0.9446
14.1030 0.3686 -1.9989 0.9446
13.4539 4.0783 -1.9919 0.9448
11.0253 6.9511 -1.8467 0.9487
9.6133 8.8011 -1.8467 0.9487
3.8651 5.0771 -0.9041 0.9746
6.5211 10.3717 -1.7359 0.9517
5.2978 10.3809 -1.6513 0.9540
4.1796 10.3893 -1.5867 0.9558
2.1491 10.4047 -1.5053 0.9580
1.1952 10.4118 -1.4849 0.9585
-0.4533 7.0171 -0.9963 0.9720
-4.2567 12.3189 -1.8467 0.9487
-5.3396 11.8897 -1.8467 0.9487
-6.3798 11.3655 -1.8467 0.9487
-8.2994 10.0497 -1.8467 0.9487
-9.9544 8.4135 -1.8467 0.9487
-11.8280 5.4749 -1.8467 0.9487
-12.2696 4.3970 -1.8467 0.9487
-13.6527 3.5547 -1.9989 0.9446
-13.9155 2.3216 -1.9989 0.9446
-14.1066 -0.1902 -1.9989 0.9446
-14.0333 -1.4488 -1.9989 0.9446
-13.8479 -2.6959 -1.9989 0.9446
-13.5519 -3.9215 -1.9989 0.9446
-13.1476 -5.1157 -1.9989 0.9446
-12.0282 -7.3724 -1.9989 0.9446
-11.3220 -8.4168 -1.9989 0.9446
-10.5253 -9.3941 -1.9989 0.9446
-7.6597 -11.8474 -1.9989 0.9446
-6.5714 -12.4839 -1.9989 0.9446
-3.0284 -13.7790 -1.9989 0.9446
-1.7861 -13.9943 -1.9989 0.9446
1.9861 -13.9673 -1.9989 0.9446
3.2252 -13.7342 -1.9989 0.9446
4.4385 -13.3914 -1.9989 0.9446
6.7493 -12.3886 -1.9989 0.9446
8.8450 -10.9908 -1.9989 0.9446
9.7909 -10.1572 -1.9989 0.9446
12.1325 -7.1996 -1.9989 0.9446
12.7268 -6.0877 -1.9989 0.9446
14.1078 0.0117 -1.9989 0.9446
13.8809 2.5205 -1.9989 0.9446
13.5909 3.7471 -1.9975 0.9446
12.2054 4.5721 -1.8467 0.9487
11.7485 5.6436 -1.8467 0.9487
11.1977 6.6699 -1.8467 0.9487
9.0299 9.3988 -1.8467 0.9487
4.1076 5.1214 -0.9302 0.9738
6.7876 10.2127 -1.7375 0.9517
3.4263 10.3950 -1.5508 0.9567
2.4247 10.4026 -1.5134 0.9578
0.5485 10.9179 -1.5489 0.9568
-0.5108 13.0236 -1.8467 0.9487
-0.8941 6.9147 -0.9879 0.9722
-5.0370 12.0210 -1.8467 0.9487
-6.0901 11.5233 -1.8467 0.9487
-7.0946 10.9336 -1.8467 0.9487
-8.0424 10.2565 -1.8467 0.9487
-8.9260 9.4975 -1.8467 0.9487
-10.4728 7.7587 -1.8467 0.9487
-13.5330 3.8918 -1.9952 0.9447
-14.0654 -1.0933 -1.9989 0.9446
-13.9116 -2.3447 -1.9989 0.9446
-13.6468 -3.5773 -1.9989 0.9446
-13.2729 -4.7814 -1.9989 0.9446
-12.7930 -5.9473 -1.9989 0.9446
-12.2109 -7.0657 -1.9989 0.9446
-11.5314 -8.1277 -1.9989 0.9446
-9.9021 -10.0489 -1.9989 0.9446
-7.9570 -11.6497 -1.9989 0.9446
-6.8852 -12.3136 -1.9989 0.9446
-5.7584 -12.8792 -1.9989 0.9446
-4.5855 -13.3418 -1.9989 0.9446
-2.1396 -13.9447 -1.9989 0.9446
-0.8861 -14.0800 -1.9989 0.9446
6.4337 -12.5554 -1.9989 0.9446
7.5289 -11.9309 -1.9989 0.9446
12.5687 -6.4077 -1.9989 0.9446
13.0906 -5.2600 -1.9989 0.9446
13.5079 -4.0703 -1.9989 0.9446
14.0781 0.9152 -1.9989 0.9446
13.9402 2.1684 -1.9989 0.9446
10.7475 7.3734 -1.8467 0.9487
9.2648 9.1673 -1.8467 0.9487
8.4094 9.9578 -1.8467 0.9487
7.0403 10.0326 -1.7366 0.9517
4.8016 10.3846 -1.6211 0.9548
3.7196 10.3928 -1.5640 0.9564
1.7320 10.4078 -1.4950 0.9583
-3.6281 12.5185 -1.8467 0.9487
-5.7966 11.6737 -1.8467 0.9487
-9.5160 8.9063 -1.8467 0.9487
-10.2731 8.0212 -1.8467 0.9487
-11.5359 6.0663 -1.8467 0.9487
-13.1012 4.1293 -1.9463 0.9460
-13.7802 3.0227 -1.9989 0.9446
-14.0981 0.5237 -1.9989 0.9446
-13.3896 -4.4440 -1.9989 0.9446
-12.9394 -5.6217 -1.9989 0.9446
-12.3858 -6.7545 -1.9989 0.9446
-11.7333 -7.8333 -1.9989 0.9446
-9.2381 -10.6625 -1.9989 0.9446
-8.2493 -11.4447 -1.9989 0.9446
-4.9216 -13.2215 -1.9989 0.9446
-3.7216 -13.6081 -1.9989 0.9446
-2.4918 -13.8860 -1.9989 0.9446
-1.2421 -14.0531 -1.9989 0.9446
0.0175 -14.1078 -1.9989 0.9446
4.9544 -13.2093 -1.9989 0.9446
7.2247 -12.1176 -1.9989 0.9446
8.2776 -11.4242 -1.9989 0.9446
10.1774 -9.7699 -1.9989 0.9446
11.0090 -8.8223 -1.9989 0.9446
11.7527 -7.8042 -1.9989 0.9446
12.9533 -5.5896 -1.9989 0.9446
13.4006 -4.4108 -1.9989 0.9446
13.7409 -3.1968 -1.9989 0.9446
14.0904 -0.7021 -1.9989 0.9446
13.7727 3.0568 -1.9989 0.9446
12.9840 4.1278 -1.9304 0.9464
12.0189 5.0420 -1.8467 0.9487
11.5208 6.0949 -1.8467 0.9487
10.2532 8.0466 -1.8467 0.9487
9.4938 8.9299 -1.8467 0.9487
8.6587 9.7418 -1.8467 0.9487
3.7802 5.1069 -0.9003 0.9747
6.3285 10.3731 -1.7217 0.9521
5.1232 10.3822 -1.6404 0.9543
2.9857 10.3983 -1.5329 0.9572
-0.5412 6.9253 -0.9842 0.9723
-4.4224 12.2604 -1.8467 0.9487
-6.5324 11.2785 -1.8467 0.9487
-7.5132 10.6502 -1.8467 0.9487
-10.7658 7.3467 -1.8467 0.9487
-11.3787 6.3562 -1.8467 0.9487
-11.9007 5.3150 -1.8467 0.9487
-13.6993 3.3704 -1.9989 0.9446
-14.0803 0.8803 -1.9989 0.9446
-14.0124 -1.6378 -1.9989 0.9446
-13.8103 -2.8824 -1.9989 0.9446
-13.4978 -4.1038 -1.9989 0.9446
-12.5528 -6.4389 -1.9989 0.9446
-11.9278 -7.5339 -1.9989 0.9446
-9.5049 -10.4253 -1.9989 0.9446
-8.5362 -11.2323 -1.9989 0.9446
-7.4994 -11.9495 -1.9989 0.9446
-6.4025 -12.5714 -1.9989 0.9446
-5.2546 -13.0928 -1.9989 0.9446
-1.5973 -14.0171 -1.9989 0.9446
-0.3395 -14.1038 -1.9989 0.9446
0.9210 -14.0777 -1.9989 0.9446
2.1742 -13.9393 -1.9989 0.9446
3.4100 -13.6895 -1.9989 0.9446
4.6186 -13.3304 -1.9989 0.9446
5.7903 -12.8648 -1.9989 0.9446
7.9859 -11.6300 -1.9989 0.9446
8.9923 -10.8706 -1.9989 0.9446
9.9270 -10.0243 -1.9989 0.9446
11.5515 -8.0991 -1.9989 0.9446
12.2284 -7.0354 -1.9989 0.9446
12.8077 -5.9156 -1.9989 0.9446
13.2847 -4.7485 -1.9989 0.9446
13.6556 -3.5434 -1.9989 0.9446
13.9174 -2.3102 -1.9989 0.9446
14.1064 0.2018 -1.9989 0.9446
14.0320 1.4604 -1.9989 0.9446
13.8456 2.7074 -1.9989 0.9446
13.5189 3.9240 -1.9945 0.9447
12.1427 4.7363 -1.8467 0.9487
11.6713 5.8014 -1.8467 0.9487
3.9682 5.0865 -0.9141 0.9743
6.6927 10.3704 -1.7488 0.9514
4.3226 10.3883 -1.5942 0.9556
3.2720 10.3962 -1.5443 0.9569
2.2775 10.4037 -1.5090 0.9579
0.3954 10.7632 -1.5261 0.9574
-0.6863 13.0156 -1.8467 0.9487
-2.9901 12.6860 -1.8467 0.9487
-7.2413 10.8369 -1.8467 0.9487
-8.1799 10.1472 -1.8467 0.9487
-9.0532 9.3764 -1.8467 0.9487
-10.5764 7.6168 -1.8467 0.9487
-11.2142 6.6421 -1.8467 0.9487
-12.2167 4.5419 -1.8467 0.9487
-14.0536 1.2363 -1.9989 0.9446
-14.0494 -1.2827 -1.9989 0.9446
-13.8788 -2.5320 -1.9989 0.9446
-13.2072 -4.9599 -1.9989 0.9446
-9.7657 -10.1815 -1.9989 0.9446
-8.8177 -11.0127 -1.9989 0.9446
-7.7993 -11.7559 -1.9989 0.9446
-5.5842 -12.9556 -1.9989 0.9446
-4.4053 -13.4024 -1.9989 0.9446
1.8208 -13.9899 -1.9989 0.9446
3.0625 -13.7714 -1.9989 0.9446
4.2798 -13.4430 -1.9989 0.9446
5.4629 -13.0072 -1.9989 0.9446
6.6024 -12.4676 -1.9989 0.9446
7.6891 -11.8283 -1.9989 0.9446
8.7144 -11.0946 -1.9989 0.9446
10.5486 -9.3679 -1.9989 0.9446
13.8545 -2.6616 -1.9989 0.9446
14.1070 -0.1552 -1.9989 0.9446
13.6438 3.5886 -1.9989 0.9446
11.8144 5.5042 -1.8467 0.9487
10.6471 7.5176 -1.8467 0.9487
6.1317 5.2087 -1.1399 0.9680
9.1404 9.2913 -1.8467 0.9487
4.6333 10.3859 -1.6114 0.9551
2.5545 10.4016 -1.5176 0.9577
-2.6682 12.7576 -1.8467 0.9487
-4.8945 12.0797 -1.8467 0.9487
-5.9534 11.5945 -1.8467 0.9487
-6.9648 11.0167 -1.8467 0.9487
-7.9205 10.3509 -1.8467 0.9487
-8.8130 9.6024 -1.8467 0.9487
-10.3803 7.8820 -1.8467 0.9487
-11.0425 6.9238 -1.8467 0.9487
-11.6166 5.9102 -1.8467 0.9487
-12.0979 4.8495 -1.8467 0.9487
-13.4683 4.0462 -1.9926 0.9448
-14.0178 1.5915 -1.9989 0.9446
-14.0774 -0.9268 -1.9989 0.9446
-13.9384 -2.1800 -1.9989 0.9446
-13.6881 -3.4157 -1.9989 0.9446
-13.3285 -4.6241 -1.9989 0.9446
-12.2936 -6.9208 -1.9989 0.9446
-10.8668 -8.9968 -1.9989 0.9446
-10.0202 -9.9311 -1.9989 0.9446
-9.0935 -10.7860 -1.9989 0.9446
-8.0943 -11.5548 -1.9989 0.9446
-7.0303 -12.2313 -1.9989 0.9446
-4.7430 -13.2867 -1.9989 0.9446
-3.5378 -13.6571 -1.9989 0.9446
-1.0526 -14.0685 -1.9989 0.9446
1.4662 -14.0314 -1.9989 0.9446
2.7131 -13.8445 -1.9989 0.9446
3.9383 -13.5470 -1.9989 0.9446
5.1320 -13.1413 -1.9989 0.9446
6.2848 -12.6306 -1.9989 0.9446
8.4309 -11.3116 -1.9989 0.9446
9.4071 -10.5137 -1.9989 0.9446
10.3082 -9.6319 -1.9989 0.9446
11.1269 -8.6731 -1.9989 0.9446
12.4920 -6.5559 -1.9989 0.9446
13.7827 -3.0113 -1.9989 0.9446
13.9965 -1.7688 -1.9989 0.9446
14.0985 -0.5121 -1.9989 0.9446
14.0880 0.7487 -1.9989 0.9446
12.4476 4.1428 -1.8588 0.9484
11.4376 6.2496 -1.8467 0.9487
10.8339 7.2458 -1.8467 0.9487
10.1438 8.1841 -1.8467 0.9487
9.3726 9.0571 -1.8467 0.9487
8.5266 9.8577 -1.8467 0.9487
6.1390 10.3745 -1.7080 0.9525
3.8585 10.3918 -1.5706 0.9562
2.8348 10.3995 -1.5273 0.9574
1.8586 10.4068 -1.4979 0.9582
1.0042 11.4700 -1.6314 0.9545
-0.0269 13.0336 -1.8467 0.9487
-4.5873 12.1997 -1.8467 0.9487
-6.6838 11.1894 -1.8467 0.9487
-7.6561 10.5480 -1.8467 0.9487
-8.5672 9.8224 -1.8467 0.9487
-9.4100 9.0182 -1.8467 0.9487
-10.1775 8.1421 -1.8467 0.9487
-11.9713 5.1541 -1.8467 0.9487
-13.7435 3.1855 -1.9989 0.9446
-13.9730 1.9457 -1.9989 0.9446
-13.4412 -4.2853 -1.9989 0.9446
-12.4648 -6.6075 -1.9989 0.9446
-10.2683 -9.6744 -1.9989 0.9446
-9.3636 -10.5525 -1.9989 0.9446
-8.3841 -11.3463 -1.9989 0.9446
-2.6558 -13.8556 -1.9989 0.9446
-0.1493 -14.1071 -1.9989 0.9446
1.1107 -14.0641 -1.9989 0.9446
2.3619 -13.9087 -1.9989 0.9446
3.5942 -13.6423 -1.9989 0.9446
4.7979 -13.2669 -1.9989 0.9446
5.9632 -12.7856 -1.9989 0.9446
7.0808 -12.2022 -1.9989 0.9446
9.1381 -10.7484 -1.9989 0.9446
12.3221 -6.8699 -1.9989 0.9446
12.8863 -5.7424 -1.9989 0.9446
13.7021 -3.3591 -1.9989 0.9446
14.0811 -0.8686 -1.9989 0.9446
14.1024 0.3919 -1.9989 0.9446
14.0111 1.6494 -1.9989 0.9446
13.8079 2.8938 -1.9989 0.9446
11.5921 5.9582 -1.8467 0.9487
10.3476 7.9248 -1.8467 0.9487
3.8533 5.0791 -0.9033 0.9746
5.2762 10.3811 -1.6500 0.9540
3.1190 10.3973 -1.5380 0.9571
2.1312 10.4048 -1.5049 0.9580
1.1778 10.4120 -1.4847 0.9586
-0.4637 6.9995 -0.9939 0.9721
-1.0822 6.9006 -0.9897 0.9722
-3.1608 12.6446 -1.8467 0.9487
-4.2771 12.3119 -1.8467 0.9487
-5.3592 11.8809 -1.8467 0.9487
-6.3985 11.3550 -1.8467 0.9487
-7.3867 10.7384 -1.8467 0.9487
-9.9682 8.3970 -1.8467 0.9487
-10.6781 7.4736 -1.8467 0.9487
-11.3027 6.4904 -1.8467 0.9487
-12.2768 4.3768 -1.8467 0.9487
-13.6585 3.5321 -1.9989 0.9446
-14.1062 -0.2135 -1.9989 0.9446
-13.8434 -2.7188 -1.9989 0.9446
-13.1391 -5.1375 -1.9989 0.9446
-12.6280 -6.2900 -1.9989 0.9446
-12.0160 -7.3923 -1.9989 0.9446
-11.3081 -8.4356 -1.9989 0.9446
-8.6685 -11.1305 -1.9989 0.9446
-7.6401 -11.8600 -1.9989 0.9446
-6.5508 -12.4947 -1.9989 0.9446
-3.0056 -13.7840 -1.9989 0.9446
-1.7630 -13.9973 -1.9989 0.9446
-0.5062 -14.0988 -1.9989 0.9446
0.7545 -14.0877 -1.9989 0.9446
2.0092 -13.9640 -1.9989 0.9446
4.4606 -13.3841 -1.9989 0.9446
5.6377 -12.9324 -1.9989 0.9446
9.8077 -10.1410 -1.9989 0.9446
10.6739 -9.2249 -1.9989 0.9446
11.4549 -8.2351 -1.9989 0.9446
13.6127 -3.7047 -1.9989 0.9446
13.8891 -2.4746 -1.9989 0.9446
14.0546 -1.2247 -1.9989 0.9446
14.0483 1.2944 -1.9989 0.9446
12.1978 4.5923 -1.8467 0.9487
11.7391 5.6630 -1.8467 0.9487
11.1867 6.6884 -1.8467 0.9487
10.5448 7.6605 -1.8467 0.9487
9.0143 9.4137 -1.8467 0.9487
4.4670 10.3872 -1.6021 0.9553
3.4073 10.3952 -1.5500 0.9568
2.4066 10.4027 -1.5129 0.9578
1.4452 10.4100 -1.4891 0.9584
0.5276 10.8589 -1.5404 0.9570
-0.5323 13.0228 -1.8467 0.9487
-0.9057 6.9138 -0.9880 0.9722
-2.8399 12.7205 -1.8467 0.9487
-3.9642 12.4162 -1.8467 0.9487
-6.1092 11.5132 -1.8467 0.9487
-7.1127 10.9218 -1.8467 0.9487
-8.0593 10.2432 -1.8467 0.9487
-8.9417 9.4827 -1.8467 0.9487
-12.0854 -1.0833 -1.9989 0.9520
-11.7001 -3.2154 -1.9989 0.9520
-10.4298 -6.2009 -1.9989 0.9520
-9.1608 -7.9569 -1.9989 0.9520
-7.5996 -9.4593 -1.9989 0.9520
-4.8213 -11.1349 -1.9989 0.9520
-3.8079 -11.5209 -1.9989 0.9520
0.4655 -12.1250 -1.9989 0.9520
2.6145 -11.8489 -1.9989 0.9520
4.6800 -11.1950 -1.9989 0.9520
6.5964 -10.1843 -1.9989 0.9520
7.4793 -9.5547 -1.9989 0.9520
8.3025 -8.8488 -1.9989 0.9520
9.0593 -8.0722 -1.9989 0.9520
9.7438 -7.2311 -1.9989 0.9520
10.8745 -5.3830 -1.9989 0.9520
11.3117 -4.3906 -1.9989 0.9520
11.6585 -3.3632 -1.9989 0.9520
11.9122 -2.3089 -1.9989 0.9520
12.0708 -1.2361 -1.9989 0.9520
12.1329 -0.1535 -1.9989 0.9520
11.9668 2.0067 -1.9989 0.9520
11.7399 3.0671 -1.9989 0.9520
9.7074 5.6063 -1.8467 0.9556
6.0506 5.1226 -1.3060 0.9684
7.1310 8.6495 -1.8467 0.9556
5.4790 9.7798 -1.8467 0.9556
2.5727 10.4015 -1.7652 0.9575
1.6059 10.4088 -1.7350 0.9582
0.7134 11.1873 -1.8467 0.9556
-0.2883 11.2063 -1.8467 0.9556
-3.2476 10.7293 -1.8467 0.9556
-4.1925 10.3965 -1.8467 0.9556
-6.7976 8.9139 -1.8467 0.9556
-7.5663 8.2714 -1.8467 0.9556
-8.2745 7.5629 -1.8467 0.9556
-8.9167 6.7939 -1.8467 0.9556
-9.9828 5.0998 -1.8467 0.9556
-10.3983 4.1882 -1.8467 0.9556
-12.0542 1.3888 -1.9989 0.9520
-12.1300 0.3070 -1.9989 0.9520
-12.1090 -0.7772 -1.9989 0.9520
-11.4702 -3.9582 -1.9989 0.9520
-9.3592 -7.7226 -1.9989 0.9520
-8.6323 -8.5273 -1.9989 0.9520
-7.8365 -9.2639 -1.9989 0.9520
-6.0641 -10.5099 -1.9989 0.9520
-2.0018 -11.9677 -1.9989 0.9520
2.3138 -11.9113 -1.9989 0.9520
3.3680 -11.6571 -1.9989 0.9520
5.3874 -10.8723 -1.9989 0.9520
6.3366 -10.3479 -1.9989 0.9520
9.5577 -7.4754 -1.9989 0.9520
11.1970 -4.6754 -1.9989 0.9520
11.8500 -2.6096 -1.9989 0.9520
12.0138 1.7033 -1.9989 0.9520
11.5060 3.8083 -1.9966 0.9521
10.2853 4.4585 -1.8467 0.9556
9.8461 5.3589 -1.8467 0.9556
9.3284 6.2166 -1.8467 0.9556
8.0741 7.7765 -1.8467 0.9556
3.7213 5.1538 -1.0472 0.9746
3.8780 10.3916 -1.8272 0.9560
0.9962 11.1657 -1.8467 0.9556
-0.0046 11.2100 -1.8467 0.9556
-0.6204 6.8892 -1.1395 0.9723
-4.8498 10.1067 -1.8467 0.9556
-7.3546 8.4602 -1.8467 0.9556
-9.8506 5.3508 -1.8467 0.9556
-10.2890 4.4500 -1.8467 0.9556
-12.0152 1.6933 -1.9989 0.9520
-12.1184 0.6139 -1.9989 0.9520
-12.0344 -1.5511 -1.9989 0.9520
-11.1931 -4.6847 -1.9989 0.9520
-10.7302 -5.6653 -1.9989 0.9520
-8.8453 -8.3061 -1.9989 0.9520
-6.3281 -10.3531 -1.9989 0.9520
-5.3785 -10.8768 -1.9989 0.9520
-3.3584 -11.6599 -1.9989 0.9520
-1.2311 -12.0713 -1.9989 0.9520
-0.1485 -12.1330 -1.9989 0.9520
0.9353 -12.0978 -1.9989 0.9520
3.0719 -11.7386 -1.9989 0.9520
4.1077 -11.4175 -1.9989 0.9520
6.0727 -10.5049 -1.9989 0.9520
8.6394 -8.5202 -1.9989 0.9520
11.0751 -4.9572 -1.9989 0.9520
11.4734 -3.9487 -1.9989 0.9520
11.9928 -1.8452 -1.9989 0.9520
12.1096 -0.7671 -1.9989 0.9520
12.1298 0.3171 -1.9989 0.9520
11.8800 2.4692 -1.9989 0.9520
11.6121 3.5200 -1.9989 0.9520
9.9786 5.1081 -1.8467 0.9556
9.4827 5.9785 -1.8467 0.9556
8.9111 6.8013 -1.8467 0.9556
3.8847 5.1029 -1.0565 0.9743
5.9668 9.4901 -1.8467 0.9556
4.1796 10.3893 -1.8448 0.9556
-2.7006 10.8799 -1.8467 0.9556
-3.6612 10.5953 -1.8467 0.9556
-6.3379 9.2464 -1.8467 0.9556
-8.5616 7.2363 -1.8467 0.9556
-9.1734 6.4430 -1.8467 0.9556
-9.7120 5.5983 -1.8467 0.9556
-10.1731 4.7089 -1.8467 0.9556
-11.9685 1.9968 -1.9989 0.9520
-12.1328 -0.1636 -1.9989 0.9520
-11.9103 -2.3187 -1.9989 0.9520
-11.6557 -3.3728 -1.9989 0.9520
-10.8701 -5.3920 -1.9989 0.9520
-9.7379 -7.2392 -1.9989 0.9520
-9.0527 -8.0797 -1.9989 0.9520
-5.6520 -10.7372 -1.9989 0.9520
-3.6523 -11.5712 -1.9989 0.9520
-1.5362 -12.0363 -1.9989 0.9520
-0.4555 -12.1254 -1.9989 0.9520
3.8175 -11.5178 -1.9989 0.9520
4.8305 -11.1310 -1.9989 0.9520
6.7331 -10.0944 -1.9989 0.9520
8.4210 -8.7360 -1.9989 0.9520
9.1673 -7.9493 -1.9989 0.9520
9.8404 -7.0991 -1.9989 0.9520
10.4349 -6.1923 -1.9989 0.9520
12.0863 -1.0733 -1.9989 0.9520
12.1339 0.0100 -1.9989 0.9520
11.6975 3.2251 -1.9989 0.9520
10.1046 4.8539 -1.8467 0.9556
9.6309 5.7367 -1.8467 0.9556
9.0803 6.5736 -1.8467 0.9556
6.0590 5.2715 -1.3231 0.9680
7.7665 8.0837 -1.8467 0.9556
5.3467 9.8528 -1.8467 0.9556
4.4457 10.2908 -1.8467 0.9556
1.4627 10.4098 -1.7318 0.9583
-0.8876 6.8639 -1.1402 0.9723
-3.3919 10.6845 -1.8467 0.9556
-6.1019 9.4038 -1.8467 0.9556
-6.9171 8.8214 -1.8467 0.9556
-8.3757 7.4506 -1.8467 0.9556
-10.0506 4.9648 -1.8467 0.9556
-10.6921 4.1399 -1.8888 0.9546
-11.6613 3.3535 -1.9989 0.9520
-11.9652 -2.0166 -1.9989 0.9520
-11.7373 -3.0768 -1.9989 0.9520
-11.4158 -4.1124 -1.9989 0.9520
-11.0030 -5.1152 -1.9989 0.9520
-10.5024 -6.0771 -1.9989 0.9520
-9.2542 -7.8480 -1.9989 0.9520
-7.7110 -9.3687 -1.9989 0.9520
-6.8437 -10.0197 -1.9989 0.9520
-5.9218 -10.5907 -1.9989 0.9520
-4.9527 -11.0771 -1.9989 0.9520
-3.9439 -11.4751 -1.9989 0.9520
-2.9037 -11.7814 -1.9989 0.9520
-0.7622 -12.1100 -1.9989 0.9520
0.3221 -12.1296 -1.9989 0.9520
1.4037 -12.0524 -1.9989 0.9520
5.5335 -10.7987 -1.9989 0.9520
6.4755 -10.2616 -1.9989 0.9520
7.3658 -9.6425 -1.9989 0.9520
8.9632 -8.1788 -1.9989 0.9520
10.8101 -5.5112 -1.9989 0.9520
11.6179 -3.5008 -1.9989 0.9520
11.8841 -2.4496 -1.9989 0.9520
12.1303 -0.2970 -1.9989 0.9520
11.7753 2.9280 -1.9989 0.9520
11.4390 3.9580 -1.9941 0.9521
10.2242 4.5967 -1.8467 0.9556
7.9685 7.8846 -1.8467 0.9556
7.2328 8.5645 -1.8467 0.9556
6.4393 9.1761 -1.8467 0.9556
5.5943 9.7143 -1.8467 0.9556
3.7196 10.3928 -1.8185 0.9562
2.7034 10.4005 -1.7703 0.9574
1.7320 10.4078 -1.7382 0.9581
-0.1557 11.2090 -1.8467 0.9556
-3.1205 10.7670 -1.8467 0.9556
-4.0692 10.4454 -1.8467 0.9556
-7.4679 8.3603 -1.8467 0.9556
-8.8357 6.8989 -1.8467 0.9556
-9.4164 6.0825 -1.8467 0.9556
-11.5727 3.6475 -1.9989 0.9520
-11.8521 2.5998 -1.9989 0.9520
-12.1255 0.4505 -1.9989 0.9520
-12.1173 -0.6339 -1.9989 0.9520
-11.1289 -4.8351 -1.9989 0.9520
-10.6528 -5.8094 -1.9989 0.9520
-9.4498 -7.6113 -1.9989 0.9520
-8.7326 -8.4246 -1.9989 0.9520
-7.0951 -9.8434 -1.9989 0.9520
-6.1879 -10.4375 -1.9989 0.9520
-5.2314 -10.9483 -1.9989 0.9520
-4.2330 -11.3716 -1.9989 0.9520
1.0983 -12.0841 -1.9989 0.9520
2.1728 -11.9378 -1.9989 0.9520
4.2612 -11.3611 -1.9989 0.9520
6.2138 -10.4221 -1.9989 0.9520
7.1194 -9.8257 -1.9989 0.9520
10.1083 -6.7122 -1.9989 0.9520
10.6672 -5.7830 -1.9989 0.9520
11.1409 -4.8075 -1.9989 0.9520
11.5256 -3.7937 -1.9989 0.9520
12.1244 0.4805 -1.9989 0.9520
12.0331 1.5610 -1.9989 0.9520
11.8456 2.6291 -1.9989 0.9520
10.3373 4.3365 -1.8467 0.9556
9.9088 5.2421 -1.8467 0.9556
9.4013 6.1058 -1.8467 0.9556
8.8186 6.9208 -1.8467 0.9556
8.1655 7.6805 -1.8467 0.9556
7.4472 8.3788 -1.8467 0.9556
0.1279 11.2093 -1.8467 0.9556
-1.8676 11.0534 -1.8467 0.9556
-2.8470 10.8425 -1.8467 0.9556
-3.8037 10.5450 -1.8467 0.9556
-4.7299 10.1633 -1.8467 0.9556
-7.9881 7.8648 -1.8467 0.9556
-9.2594 6.3188 -1.8467 0.9556
-9.7866 5.4669 -1.8467 0.9556
-10.2356 4.5713 -1.8467 0.9556
-11.4515 3.9305 -1.9945 0.9521
-11.7826 2.8988 -1.9989 0.9520
-11.9943 1.8353 -1.9989 0.9520
-12.1295 -0.3271 -1.9989 0.9520
-12.0519 -1.4087 -1.9989 0.9520
-11.8780 -2.4791 -1.9989 0.9520
-11.6092 -3.5296 -1.9989 0.9520
-10.7964 -5.5380 -1.9989 0.9520
-8.9429 -8.2009 -1.9989 0.9520
-8.1750 -8.9666 -1.9989 0.9520
-7.3419 -9.6607 -1.9989 0.9520
-5.5067 -10.8124 -1.9989 0.9520
-3.4960 -11.6194 -1.9989 0.9520
-2.4447 -11.8851 -1.9989 0.9520
-0.2920 -12.1304 -1.9989 0.9520
0.7921 -12.1080 -1.9989 0.9520
1.8700 -11.9889 -1.9989 0.9520
4.9801 -11.0648 -1.9989 0.9520
6.8685 -10.0027 -1.9989 0.9520
8.5380 -8.6217 -1.9989 0.9520
9.2736 -7.8250 -1.9989 0.9520
11.0157 -5.0879 -1.9989 0.9520
11.9701 -1.9869 -1.9989 0.9520
12.0997 -0.9103 -1.9989 0.9520
12.1327 0.1736 -1.9989 0.9520
11.9084 2.3286 -1.9989 0.9520
10.6191 4.1420 -1.8778 0.9548
10.0383 4.9897 -1.8467 0.9556
8.9909 6.6954 -1.8467 0.9556
7.6568 8.1877 -1.8467 0.9556
3.9560 5.0709 -1.0595 0.9743
2.2775 10.4037 -1.7545 0.9577
1.3200 10.4109 -1.7288 0.9583
0.3954 10.7633 -1.7743 0.9573
-0.5903 11.1945 -1.8467 0.9556
-0.9807 6.8561 -1.1410 0.9723
-3.5356 10.6379 -1.8467 0.9556
-4.4712 10.2797 -1.8467 0.9556
-7.7865 8.0644 -1.8467 0.9556
-8.4754 7.3370 -1.8467 0.9556
-9.0966 6.5511 -1.8467 0.9556
-9.6451 5.7128 -1.8467 0.9556
-10.1167 4.8289 -1.8467 0.9556
-11.7054 3.1960 -1.9989 0.9520
-12.1339 -0.0201 -1.9989 0.9520
-11.9369 -2.1777 -1.9989 0.9520
-11.3593 -4.2659 -1.9989 0.9520
-9.1476 -7.9720 -1.9989 0.9520
-6.7081 -10.1111 -1.9989 0.9520
-5.7785 -10.6696 -1.9989 0.9520
-4.8029 -11.1429 -1.9989 0.9520
-1.6784 -12.0173 -1.9989 0.9520
0.4855 -12.1242 -1.9989 0.9520
1.5661 -12.0324 -1.9989 0.9520
2.6340 -11.8446 -1.9989 0.9520
4.6985 -11.1873 -1.9989 0.9520
6.6132 -10.1733 -1.9989 0.9520
8.3171 -8.8350 -1.9989 0.9520
10.8834 -5.3650 -1.9989 0.9520
11.3189 -4.3719 -1.9989 0.9520
11.9160 -2.2892 -1.9989 0.9520
12.0728 -1.2162 -1.9989 0.9520
12.1332 -0.1335 -1.9989 0.9520
11.9635 2.0265 -1.9989 0.9520
11.7348 3.0865 -1.9989 0.9520
7.8615 7.9913 -1.8467 0.9556
6.3150 9.2621 -1.8467 0.9556
5.4629 9.7889 -1.8467 0.9556
4.5671 10.2375 -1.8467 0.9556
2.5545 10.4016 -1.7645 0.9575
1.5883 10.4089 -1.7346 0.9582
-4.2097 10.3896 -1.8467 0.9556
-5.1204 9.9723 -1.8467 0.9556
-8.9279 6.7792 -1.8467 0.9556
-10.4052 4.1710 -1.8467 0.9556
-11.6208 3.4912 -1.9989 0.9520
-12.1305 0.2870 -1.9989 0.9520
-11.9882 -1.8750 -1.9989 0.9520
-11.0628 -4.9847 -1.9989 0.9520
-10.5735 -5.9525 -1.9989 0.9520
-9.9999 -6.8727 -1.9989 0.9520
-9.3464 -7.7380 -1.9989 0.9520
-6.9618 -9.9381 -1.9989 0.9520
0.1786 -12.1326 -1.9989 0.9520
4.4140 -11.3026 -1.9989 0.9520
6.3537 -10.3374 -1.9989 0.9520
8.0909 -9.0426 -1.9989 0.9520
8.8659 -8.2842 -1.9989 0.9520
9.5701 -7.4596 -1.9989 0.9520
10.1979 -6.5754 -1.9989 0.9520
10.7442 -5.6386 -1.9989 0.9520
11.2047 -4.6569 -1.9989 0.9520
11.8543 -2.5900 -1.9989 0.9520
12.0382 -1.5213 -1.9989 0.9520
12.0109 1.7231 -1.9989 0.9520
11.8091 2.7885 -1.9989 0.9520
6.3264 5.1042 -1.3391 0.9676
8.0612 7.7898 -1.8467 0.9556
3.7212 5.1717 -1.0496 0.9745
4.8247 10.1186 -1.8467 0.9556
2.8348 10.3995 -1.7757 0.9572
1.8586 10.4068 -1.7415 0.9580
0.9777 11.1673 -1.8467 0.9556
-0.0232 11.2100 -1.8467 0.9556
-2.0165 11.0272 -1.8467 0.9556
-3.9454 10.4928 -1.8467 0.9556
-5.7486 9.6238 -1.8467 0.9556
-6.5849 9.0722 -1.8467 0.9556
-8.7535 7.0029 -1.8467 0.9556
-9.8594 5.3345 -1.8467 0.9556
-10.2963 4.4329 -1.8467 0.9556
-11.8206 2.7398 -1.9989 0.9520
-12.0318 -1.5710 -1.9989 0.9520
-11.5606 -3.6858 -1.9989 0.9520
-10.7208 -5.6830 -1.9989 0.9520
-8.8316 -8.3208 -1.9989 0.9520
-8.0534 -9.0760 -1.9989 0.9520
-6.3109 -10.3636 -1.9989 0.9520
-5.3605 -10.8856 -1.9989 0.9520
-3.3390 -11.6654 -1.9989 0.9520
0.9553 -12.0962 -1.9989 0.9520
3.0913 -11.7335 -1.9989 0.9520
5.1288 -10.9967 -1.9989 0.9520
7.8595 -9.2445 -1.9989 0.9520
10.0282 -6.8313 -1.9989 0.9520
10.5981 -5.9087 -1.9989 0.9520
12.1109 -0.7471 -1.9989 0.9520
12.1292 0.3371 -1.9989 0.9520
12.0507 1.4186 -1.9989 0.9520
10.3878 4.2140 -1.8467 0.9556
9.9701 5.1245 -1.8467 0.9556
9.4728 5.9942 -1.8467 0.9556
8.2558 7.5833 -1.8467 0.9556
3.8786 5.1124 -1.0572 0.9743
5.9511 9.4999 -1.8467 0.9556
3.1190 10.3973 -1.7883 0.9569
2.1312 10.4048 -1.7497 0.9579
-1.0808 6.8918 -1.1492 0.9721
-3.6787 10.5893 -1.8467 0.9556
-5.5033 9.7662 -1.8467 0.9556
-6.3532 9.2359 -1.8467 0.9556
-7.1524 8.6318 -1.8467 0.9556
-7.8945 7.9587 -1.8467 0.9556
-11.7475 3.0379 -1.9989 0.9520
-11.9718 1.9770 -1.9989 0.9520
-12.1005 0.9003 -1.9989 0.9520
-12.1325 -0.1836 -1.9989 0.9520
-12.0677 -1.2661 -1.9989 0.9520
-11.6501 -3.3920 -1.9989 0.9520
-10.8612 -5.4099 -1.9989 0.9520
-10.3348 -6.3580 -1.9989 0.9520
-9.7259 -7.2553 -1.9989 0.9520
-9.0393 -8.0946 -1.9989 0.9520
-7.4556 -9.5732 -1.9989 0.9520
-5.6342 -10.7465 -1.9989 0.9520
-4.6523 -11.2066 -1.9989 0.9520
-1.5163 -12.0388 -1.9989 0.9520
1.7281 -12.0102 -1.9989 0.9520
2.7934 -11.8080 -1.9989 0.9520
3.8365 -11.5114 -1.9989 0.9520
5.8226 -10.6456 -1.9989 0.9520
6.7498 -10.0833 -1.9989 0.9520
8.4354 -8.7221 -1.9989 0.9520
9.1805 -7.9342 -1.9989 0.9520
10.9547 -5.2178 -1.9989 0.9520
11.3768 -4.2189 -1.9989 0.9520
11.7081 -3.1864 -1.9989 0.9520
12.0881 -1.0533 -1.9989 0.9520
11.9351 2.1876 -1.9989 0.9520
9.6214 5.7526 -1.8467 0.9556
6.0580 5.2883 -1.3247 0.9679
6.9993 8.7564 -1.8467 0.9556
6.1896 9.3463 -1.8467 0.9556
5.3304 9.8616 -1.8467 0.9556
4.4287 10.2981 -1.8467 0.9556
2.4066 10.4027 -1.7590 0.9576
0.5277 10.8609 -1.7913 0.9569
-0.8987 6.8609 -1.1399 0.9723
-2.4425 10.9407 -1.8467 0.9556
-3.4095 10.6789 -1.8467 0.9556
-4.3493 10.3319 -1.8467 0.9556
-5.2544 9.9023 -1.8467 0.9556
-10.6348 0.0000 -1.9989 0.9576
-10.5924 -0.9495 -1.9989 0.9576
-9.1413 -5.4348 -1.9989 0.9576
-8.6196 -6.2292 -1.9989 0.9576
-7.3743 -7.6628 -1.9989 0.9576
-6.6607 -8.2906 -1.9989 0.9576
-5.8939 -8.8522 -1.9989 0.9576
-2.4227 -10.3552 -1.9989 0.9576
-1.4885 -10.5301 -1.9989 0.9576
1.3551 -10.5481 -1.9989 0.9576
4.1018 -9.8120 -1.9989 0.9576
5.7815 -8.9260 -1.9989 0.9576
7.2768 -7.7555 -1.9989 0.9576
8.5400 -6.3378 -1.9989 0.9576
9.0718 -5.5500 -1.9989 0.9576
9.5310 -4.7179 -1.9989 0.9576
9.9142 -3.8481 -1.9989 0.9576
10.2182 -2.9477 -1.9989 0.9576
10.2895 2.6882 -1.9989 0.9576
10.0084 3.5961 -1.9989 0.9576
8.9418 4.1479 -1.8527 0.9607
8.0354 5.6537 -1.8467 0.9608
6.0303 5.1054 -1.4851 0.9684
6.9018 6.9926 -1.8467 0.9608
6.2500 7.5809 -1.8467 0.9608
4.0177 8.9661 -1.8467 0.9608
3.2012 9.2890 -1.8467 0.9608
2.3591 9.5377 -1.8467 0.9608
1.4981 9.7102 -1.8467 0.9608
-0.7967 6.8903 -1.3037 0.9722
-1.9954 9.6203 -1.8467 0.9608
-2.8463 9.4038 -1.8467 0.9608
-3.6745 9.1121 -1.8467 0.9608
-4.4734 8.7476 -1.8467 0.9608
-5.9578 7.8126 -1.8467 0.9608
-6.6315 7.2495 -1.8467 0.9608
-7.2523 6.6285 -1.8467 0.9608
-7.8151 5.9546 -1.8467 0.9608
-10.1800 3.0767 -1.9989 0.9576
-10.5649 1.2172 -1.9989 0.9576
-10.6130 -0.6812 -1.9989 0.9576
-10.5098 -1.6259 -1.9989 0.9576
-9.7032 -4.3528 -1.9989 0.9576
-8.7744 -6.0091 -1.9989 0.9576
-8.2029 -6.7685 -1.9989 0.9576
-7.5658 -7.4738 -1.9989 0.9576
-6.8684 -8.1194 -1.9989 0.9576
-3.5919 -10.0099 -1.9989 0.9576
-2.6839 -10.2906 -1.9989 0.9576
-1.7545 -10.4891 -1.9989 0.9576
-0.8110 -10.6039 -1.9989 0.9576
0.1390 -10.6339 -1.9989 0.9576
4.7219 -9.5291 -1.9989 0.9576
5.5538 -9.0695 -1.9989 0.9576
6.3413 -8.5374 -1.9989 0.9576
7.7585 -7.2735 -1.9989 0.9576
9.4086 -4.9576 -1.9989 0.9576
9.8136 -4.0978 -1.9989 0.9576
10.5487 -1.3508 -1.9989 0.9576
10.6208 0.5468 -1.9989 0.9576
10.5295 1.4928 -1.9989 0.9576
10.0962 3.3417 -1.9989 0.9576
9.5239 4.1284 -1.9511 0.9586
6.3043 5.0692 -1.5205 0.9676
6.4398 7.4203 -1.8467 0.9608
3.7342 5.1716 -1.1990 0.9744
5.0175 8.4473 -1.8467 0.9608
2.5997 9.4749 -1.8467 0.9608
1.7434 9.6692 -1.8467 0.9608
0.8731 9.7862 -1.8467 0.9608
-0.0041 9.8251 -1.8467 0.9608
-0.6254 6.9448 -1.3106 0.9720
-1.7514 9.6677 -1.8467 0.9608
-4.2506 8.8580 -1.8467 0.9608
-5.7582 7.9609 -1.8467 0.9608
-6.4460 7.4150 -1.8467 0.9608
-8.1804 5.4418 -1.8467 0.9608
-8.6336 4.6897 -1.8467 0.9608
-10.0989 3.3333 -1.9989 0.9576
-10.6212 0.5380 -1.9989 0.9576
-10.6268 -0.4124 -1.9989 0.9576
-10.5476 -1.3595 -1.9989 0.9576
-10.3841 -2.2957 -1.9989 0.9576
-10.1377 -3.2137 -1.9989 0.9576
-9.8103 -4.1059 -1.9989 0.9576
-8.3715 -6.5587 -1.9989 0.9576
-7.7525 -7.2800 -1.9989 0.9576
-7.0716 -7.9430 -1.9989 0.9576
-4.7140 -9.5330 -1.9989 0.9576
-2.9434 -10.2194 -1.9989 0.9576
0.8197 -10.6032 -1.9989 0.9576
1.7631 -10.4877 -1.9989 0.9576
2.6924 -10.2884 -1.9989 0.9576
3.6002 -10.0069 -1.9989 0.9576
4.4792 -9.6455 -1.9989 0.9576
6.8751 -8.1137 -1.9989 0.9576
7.5720 -7.4675 -1.9989 0.9576
8.7794 -6.0019 -1.9989 0.9576
9.7068 -4.3448 -1.9989 0.9576
10.3248 -2.5492 -1.9989 0.9576
10.5111 -1.6173 -1.9989 0.9576
8.7458 4.4770 -1.8467 0.9608
7.8102 5.9610 -1.8467 0.9608
7.2468 6.6345 -1.8467 0.9608
6.6255 7.2550 -1.8467 0.9608
3.8747 5.0898 -1.2023 0.9743
5.2296 8.3176 -1.8467 0.9608
4.4661 8.7513 -1.8467 0.9608
3.6670 9.1151 -1.8467 0.9608
2.8386 9.4061 -1.8467 0.9608
1.9875 9.6220 -1.8467 0.9608
1.1205 9.7610 -1.8467 0.9608
0.2446 9.8220 -1.8467 0.9608
-0.6333 9.8046 -1.8467 0.9608
-1.0861 7.0011 -1.3317 0.9716
-3.2088 9.2863 -1.8467 0.9608
-4.0251 8.9627 -1.8467 0.9608
-4.8092 8.5676 -1.8467 0.9608
-5.5549 8.1040 -1.8467 0.9608
-6.2563 7.5757 -1.8467 0.9608
-6.9076 6.9869 -1.8467 0.9608
-7.5038 6.3423 -1.8467 0.9608
-8.9574 4.1462 -1.8553 0.9606
-10.0114 3.5878 -1.9989 0.9576
-10.6339 -0.1434 -1.9989 0.9576
-10.5786 -1.0922 -1.9989 0.9576
-9.9110 -3.8564 -1.9989 0.9576
-9.5271 -4.7258 -1.9989 0.9576
-7.9343 -7.0815 -1.9989 0.9576
-7.2704 -7.7615 -1.9989 0.9576
-5.7741 -8.9308 -1.9989 0.9576
-4.0937 -9.8153 -1.9989 0.9576
-3.2011 -10.1416 -1.9989 0.9576
-2.2829 -10.3869 -1.9989 0.9576
-0.3992 -10.6273 -1.9989 0.9576
0.5512 -10.6205 -1.9989 0.9576
2.4312 -10.3532 -1.9989 0.9576
4.2337 -9.7558 -1.9989 0.9576
5.9012 -8.8473 -1.9989 0.9576
6.6676 -8.2851 -1.9989 0.9576
7.3806 -7.6567 -1.9989 0.9576
8.0347 -6.9672 -1.9989 0.9576
8.6247 -6.2221 -1.9989 0.9576
9.9652 -3.7142 -1.9989 0.9576
10.2570 -2.8097 -1.9989 0.9576
10.5916 0.9582 -1.9989 0.9576
10.4637 1.9000 -1.9989 0.9576
8.8563 4.2543 -1.8467 0.9608
8.4411 5.0280 -1.8467 0.9608
6.0399 5.2549 -1.5048 0.9679
6.8070 7.0850 -1.8467 0.9608
4.6862 8.6355 -1.8467 0.9608
0.4930 9.8127 -1.8467 0.9608
-0.3850 9.8175 -1.8467 0.9608
-2.1249 9.5925 -1.8467 0.9608
-2.9728 9.3645 -1.8467 0.9608
-3.7970 9.0617 -1.8467 0.9608
-4.5909 8.6865 -1.8467 0.9608
-7.3409 6.5302 -1.8467 0.9608
-10.4422 2.0150 -1.9989 0.9576
-10.5804 1.0747 -1.9989 0.9576
-10.6028 -0.8241 -1.9989 0.9576
-10.4869 -1.7675 -1.9989 0.9576
-10.2873 -2.6967 -1.9989 0.9576
-10.0054 -3.6043 -1.9989 0.9576
-8.1109 -6.8784 -1.9989 0.9576
-6.7583 -8.2113 -1.9989 0.9576
-5.9982 -8.7819 -1.9989 0.9576
-4.3408 -9.7086 -1.9989 0.9576
-3.4567 -10.0574 -1.9989 0.9576
-2.5450 -10.3258 -1.9989 0.9576
-1.6129 -10.5118 -1.9989 0.9576
0.2823 -10.6311 -1.9989 0.9576
2.1685 -10.4114 -1.9989 0.9576
3.0893 -10.1762 -1.9989 0.9576
4.8499 -9.4646 -1.9989 0.9576
5.6755 -8.9938 -1.9989 0.9576
6.4558 -8.4512 -1.9989 0.9576
7.1845 -7.8410 -1.9989 0.9576
9.4746 -4.8303 -1.9989 0.9576
