ply
format ascii 1.0
element vertex 1595
property float32 x
property float32 y
property float32 z
property float32 I
end_header
-6.7470 -2.0330 -1.9948 0.9711
-5.9683 -3.7476 -1.9950 0.9711
-4.7644 -5.1961 -1.9957 0.9711
-4.2824 -5.6014 -1.9961 0.9711
-3.2199 -6.2758 -1.9968 0.9711
-1.4440 -6.9095 -1.9983 0.9711
-0.8220 -7.0127 -1.9988 0.9711
-0.1930 -7.0601 -1.9994 0.9711
2.2916 -6.6896 -2.0018 0.9710
2.8802 -6.4604 -2.0024 0.9710
4.4923 -5.4719 -2.0042 0.9710
4.9640 -5.0506 -2.0048 0.9710
5.7857 -4.0901 -2.0058 0.9710
6.6666 -2.4134 -2.0071 0.9710
6.8566 -1.8093 -2.0075 0.9710
6.9917 -1.1905 -2.0078 0.9709
7.0937 0.0712 -2.0083 0.9709
7.0596 0.7039 -2.0084 0.9709
6.9690 1.3310 -2.0085 0.9709
6.0611 3.6836 -2.0079 0.9709
4.9064 4.3449 -1.8553 0.9731
4.4986 4.7647 -1.8551 0.9731
1.9968 6.2343 -1.8532 0.9732
0.8565 6.4865 -1.8522 0.9732
-2.0268 6.2107 -1.8495 0.9732
-3.0965 5.7481 -1.8483 0.9732
-4.0664 5.1032 -1.8472 0.9732
-4.9060 4.2969 -1.8462 0.9733
-6.0487 3.6309 -1.9972 0.9711
-6.3472 3.0760 -1.9967 0.9711
-6.5950 2.4969 -1.9963 0.9711
-6.7903 1.8982 -1.9960 0.9711
-6.9314 1.2846 -1.9957 0.9711
-7.0175 0.6609 -1.9954 0.9711
-7.0477 0.0322 -1.9952 0.9711
-7.0219 -0.5968 -1.9950 0.9711
-6.8035 -1.8351 -1.9948 0.9711
-6.3691 -3.0152 -1.9949 0.9711
-5.7326 -4.0998 -1.9952 0.9711
-5.3445 -4.5954 -1.9954 0.9711
-4.9138 -5.0546 -1.9956 0.9711
-4.4439 -5.4737 -1.9959 0.9711
-3.9385 -5.8494 -1.9963 0.9711
-2.8373 -6.4590 -1.9971 0.9711
-0.3990 -7.0508 -1.9992 0.9711
1.4838 -6.9108 -2.0010 0.9710
2.0951 -6.7529 -2.0016 0.9710
2.6901 -6.5411 -2.0022 0.9710
3.2640 -6.2769 -2.0028 0.9710
3.8122 -5.9624 -2.0034 0.9710
4.3302 -5.6001 -2.0040 0.9710
4.8140 -5.1929 -2.0046 0.9710
5.6633 -4.2569 -2.0057 0.9710
6.3327 -3.1840 -2.0066 0.9710
6.5929 -2.6068 -2.0070 0.9710
6.9537 -1.3940 -2.0077 0.9709
7.0769 0.4975 -2.0084 0.9709
7.0048 1.1270 -2.0085 0.9709
6.8765 1.7476 -2.0086 0.9709
6.4563 2.9419 -2.0085 0.9709
6.1678 3.5060 -2.0084 0.9709
-6.0956 -2.2203 -1.9954 0.9732
-5.8733 -2.7554 -1.9954 0.9732
-5.2907 -3.7559 -1.9957 0.9732
-4.5399 -4.6375 -1.9961 0.9732
-2.6327 -5.9367 -1.9975 0.9732
-2.0929 -6.1492 -1.9979 0.9732
-1.5363 -6.3129 -1.9984 0.9732
-0.9671 -6.4264 -1.9989 0.9732
0.1906 -6.4994 -1.9999 0.9732
0.7699 -6.4582 -2.0005 0.9731
2.4548 -6.0288 -2.0022 0.9731
2.9838 -5.7873 -2.0027 0.9731
3.4892 -5.4996 -2.0033 0.9731
3.9671 -5.1677 -2.0038 0.9731
4.8249 -4.3826 -2.0048 0.9731
5.5295 -3.4568 -2.0058 0.9731
6.0583 -2.4200 -2.0066 0.9731
6.4858 -0.7295 -2.0075 0.9731
6.5257 -0.1479 -2.0077 0.9731
6.5134 0.4350 -2.0078 0.9731
6.4490 1.0145 -2.0080 0.9730
6.3329 1.5859 -2.0080 0.9730
5.3755 3.6993 -2.0071 0.9731
4.2808 4.2469 -1.8547 0.9751
3.4568 4.9387 -1.8542 0.9751
2.5230 5.4724 -1.8535 0.9751
0.9830 5.9410 -1.8522 0.9751
-0.0886 6.0180 -1.8512 0.9751
-1.1561 5.9031 -1.8502 0.9751
-1.6777 5.7748 -1.8497 0.9751
-2.1857 5.6005 -1.8491 0.9752
-3.1445 5.1200 -1.8481 0.9752
-3.5879 4.8177 -1.8476 0.9752
-5.9933 2.4960 -1.9969 0.9732
-6.4374 0.8193 -1.9960 0.9732
-6.4841 0.2417 -1.9958 0.9732
-6.4793 -0.3378 -1.9956 0.9732
-6.4229 -0.9145 -1.9955 0.9732
-6.3155 -1.4839 -1.9954 0.9732
-5.9512 -2.5827 -1.9954 0.9732
-5.3980 -3.5997 -1.9956 0.9732
-5.0557 -4.0674 -1.9958 0.9732
-4.6732 -4.5027 -1.9960 0.9732
-3.7996 -5.2632 -1.9966 0.9732
-2.8047 -5.8569 -1.9973 0.9732
-2.2714 -6.0851 -1.9978 0.9732
-1.7198 -6.2649 -1.9982 0.9732
-0.5792 -6.4740 -1.9992 0.9732
0.0008 -6.5016 -1.9997 0.9732
1.1569 -6.4015 -2.0008 0.9731
2.2776 -6.0973 -2.0020 0.9731
2.8133 -5.8714 -2.0025 0.9731
3.3269 -5.5986 -2.0031 0.9731
3.8142 -5.2808 -2.0036 0.9731
4.2713 -4.9208 -2.0042 0.9731
5.0804 -4.0853 -2.0052 0.9731
5.9847 -2.5956 -2.0064 0.9731
6.1935 -2.0517 -2.0068 0.9731
6.4615 -0.9185 -2.0074 0.9731
6.3765 1.4003 -2.0080 0.9730
6.0261 2.5113 -2.0080 0.9730
5.4832 3.5421 -2.0078 0.9731
4.0174 4.4961 -1.8545 0.9751
3.1533 5.1369 -1.8539 0.9751
1.6792 5.7849 -1.8528 0.9751
1.1561 5.9103 -1.8523 0.9751
0.0872 6.0185 -1.8514 0.9751
-0.9834 5.9349 -1.8503 0.9751
-1.5086 5.8219 -1.8498 0.9751
-2.5179 5.4580 -1.8488 0.9752
-2.9940 5.2101 -1.8483 0.9752
-3.8703 4.5925 -1.8473 0.9752
-4.2635 4.2278 -1.8468 0.9752
-4.9863 4.1309 -1.9916 0.9733
-5.6575 3.1881 -1.9974 0.9732
-5.9182 2.6701 -1.9970 0.9732
-6.4745 0.4309 -1.9958 0.9732
-6.3562 -1.2989 -1.9954 0.9732
-6.2148 -1.8608 -1.9954 0.9732
-6.0240 -2.4079 -1.9954 0.9732
-5.7853 -2.9359 -1.9955 0.9732
-5.5006 -3.4405 -1.9956 0.9732
-5.1721 -3.9179 -1.9957 0.9732
-3.4767 -5.4827 -1.9968 0.9732
-2.9743 -5.7721 -1.9972 0.9732
-2.4479 -6.0157 -1.9976 0.9732
-1.3403 -6.3579 -1.9985 0.9732
-0.1890 -6.4983 -1.9996 0.9732
0.3916 -6.4910 -2.0001 0.9732
2.6404 -5.9505 -2.0024 0.9731
3.6581 -5.3895 -2.0035 0.9731
4.1254 -5.0429 -2.0040 0.9731
5.6343 -3.2843 -2.0059 0.9731
6.1307 -2.2315 -2.0067 0.9731
6.5055 -0.5285 -2.0075 0.9731
6.5273 0.0541 -2.0077 0.9731
6.4970 0.6363 -2.0079 0.9731
6.4146 1.2135 -2.0080 0.9730
6.2808 1.7811 -2.0080 0.9730
6.0969 2.3344 -2.0080 0.9730
5.2513 3.8585 -2.0043 0.9731
4.1471 4.3771 -1.8546 0.9751
3.7395 4.7290 -1.8544 0.9751
2.3523 5.5474 -1.8533 0.9751
1.3283 5.8745 -1.8525 0.9751
-0.2747 6.0118 -1.8510 0.9751
-0.8098 5.9617 -1.8505 0.9751
-1.8554 5.7196 -1.8495 0.9751
-2.8409 5.2958 -1.8484 0.9752
-3.7349 4.7040 -1.8474 0.9752
-4.7715 4.1938 -1.9539 0.9738
-5.2380 3.8329 -1.9964 0.9732
-5.5624 3.3522 -1.9975 0.9732
-5.8381 2.8419 -1.9971 0.9732
-6.0673 2.3093 -1.9968 0.9732
-6.2481 1.7584 -1.9964 0.9732
-6.4594 0.6197 -1.9959 0.9732
-6.4883 0.0409 -1.9957 0.9732
-6.4656 -0.5381 -1.9955 0.9732
-6.3914 -1.1128 -1.9954 0.9732
-5.8685 -2.7657 -1.9954 0.9732
-5.2842 -3.7652 -1.9957 0.9732
-4.9276 -4.2220 -1.9959 0.9732
-4.0998 -5.0319 -1.9964 0.9732
-3.6351 -5.3785 -1.9967 0.9732
-2.6223 -5.9413 -1.9975 0.9732
-0.9559 -6.4281 -1.9989 0.9732
0.2019 -6.4991 -1.9999 0.9732
0.7812 -6.4569 -2.0005 0.9731
2.4654 -6.0245 -2.0022 0.9731
2.9939 -5.7822 -2.0027 0.9731
3.4988 -5.4935 -2.0033 0.9731
5.2048 -3.9265 -2.0053 0.9731
6.5260 -0.1365 -2.0077 0.9731
6.5126 0.4464 -2.0078 0.9731
6.4472 1.0257 -2.0080 0.9730
6.1624 2.1554 -2.0080 0.9730
5.9454 2.6966 -2.0080 0.9730
5.6809 3.2161 -2.0079 0.9731
5.3686 3.7084 -2.0069 0.9731
3.4481 4.9447 -1.8541 0.9751
2.5134 5.4767 -1.8534 0.9751
1.4993 5.8336 -1.8526 0.9751
0.4384 6.0042 -1.8517 0.9751
-0.0991 6.0178 -1.8512 0.9751
-1.1664 5.9011 -1.8502 0.9751
-2.6853 5.3769 -1.8486 0.9752
-3.1535 5.1145 -1.8481 0.9752
-4.0102 4.4702 -1.8471 0.9752
-4.5108 4.2044 -1.8967 0.9745
-5.7530 3.0114 -1.9973 0.9732
-5.9976 2.4855 -1.9969 0.9732
-6.1944 1.9402 -1.9965 0.9732
-6.4787 -0.3491 -1.9956 0.9732
-6.4213 -0.9257 -1.9955 0.9732
-5.3917 -3.6092 -1.9956 0.9732
-3.3056 -5.5880 -1.9970 0.9732
-2.7944 -5.8618 -1.9974 0.9732
-2.2608 -6.0890 -1.9978 0.9732
-1.7088 -6.2679 -1.9982 0.9732
0.0121 -6.5016 -1.9998 0.9732
0.5923 -6.4764 -2.0003 0.9732
1.1681 -6.3994 -2.0009 0.9731
1.7349 -6.2715 -2.0014 0.9731
2.2882 -6.0934 -2.0020 0.9731
3.3367 -5.5928 -2.0031 0.9731
4.2799 -4.9133 -2.0042 0.9731
4.7024 -4.5130 -2.0047 0.9731
5.0875 -4.0764 -2.0052 0.9731
5.9893 -2.5852 -2.0065 0.9731
5.7724 3.0490 -2.0079 0.9730
5.4770 3.5516 -2.0078 0.9731
5.1225 4.0138 -2.0016 0.9731
4.4107 4.1419 -1.8610 0.9750
3.5912 4.8422 -1.8543 0.9751
3.1443 5.1424 -1.8539 0.9751
2.1794 5.6171 -1.8532 0.9751
1.1458 5.9122 -1.8523 0.9751
0.6135 5.9894 -1.8518 0.9751
0.0767 6.0186 -1.8514 0.9751
-0.4605 5.9998 -1.8508 0.9751
-0.9937 5.9332 -1.8503 0.9751
-1.5187 5.8192 -1.8498 0.9751
-2.0313 5.6589 -1.8493 0.9752
-3.0031 5.2048 -1.8483 0.9752
-3.4546 4.9148 -1.8478 0.9752
-3.8783 4.5857 -1.8473 0.9752
-4.9939 4.1225 -1.9918 0.9733
-5.3580 3.6716 -1.9978 0.9732
-5.9229 2.6597 -1.9970 0.9732
-6.1354 2.1203 -1.9966 0.9732
-6.2992 1.5642 -1.9963 0.9732
-6.4127 0.9958 -1.9961 0.9732
-6.4863 -0.1598 -1.9956 0.9732
-6.4457 -0.7379 -1.9955 0.9732
-6.3539 -1.3100 -1.9954 0.9732
-6.2115 -1.8716 -1.9954 0.9732
-6.0198 -2.4184 -1.9954 0.9732
-5.7802 -2.9460 -1.9955 0.9732
-5.4946 -3.4502 -1.9956 0.9732
-4.7948 -4.3726 -1.9959 0.9732
-3.4672 -5.4888 -1.9968 0.9732
-2.4374 -6.0200 -1.9976 0.9732
-1.8910 -6.2149 -1.9981 0.9732
-1.3292 -6.3603 -1.9986 0.9732
-0.1777 -6.4986 -1.9996 0.9732
0.4030 -6.4903 -2.0001 0.9732
0.9807 -6.4302 -2.0007 0.9731
1.5510 -6.3189 -2.0012 0.9731
3.1717 -5.6873 -2.0029 0.9731
3.6675 -5.3831 -2.0035 0.9731
4.1343 -5.0357 -2.0040 0.9731
4.9660 -4.2229 -2.0050 0.9731
5.3242 -3.7638 -2.0055 0.9731
5.9109 -2.7588 -2.0063 0.9731
6.1346 -2.2208 -2.0067 0.9731
6.3093 -1.6649 -2.0070 0.9731
6.4336 -1.0954 -2.0073 0.9731
6.5064 -0.5171 -2.0075 0.9731
6.2777 1.7921 -2.0080 0.9730
6.0928 2.3450 -2.0080 0.9730
5.8591 2.8792 -2.0080 0.9730
5.2441 3.8674 -2.0042 0.9731
4.6624 4.1289 -1.9155 0.9743
3.7312 4.7355 -1.8543 0.9751
3.2933 5.0487 -1.8540 0.9751
2.8291 5.3214 -1.8537 0.9751
2.3426 5.5515 -1.8533 0.9751
1.8375 5.7371 -1.8529 0.9751
1.3180 5.8767 -1.8525 0.9751
0.7882 5.9694 -1.8520 0.9751
0.2524 6.0144 -1.8515 0.9751
-3.3099 5.0140 -1.8479 0.9752
-3.7431 4.6974 -1.8474 0.9752
-5.2451 3.8240 -1.9965 0.9732
-5.5682 3.3424 -1.9975 0.9732
-5.8431 2.8317 -1.9971 0.9732
-6.0713 2.2987 -1.9968 0.9732
-6.3812 1.1826 -1.9961 0.9732
-6.4883 0.0296 -1.9957 0.9732
-6.2635 -1.6895 -1.9954 0.9732
-6.0878 -2.2416 -1.9954 0.9732
-5.5929 -3.2882 -1.9955 0.9732
-5.2776 -3.7744 -1.9957 0.9732
-4.5237 -4.6533 -1.9961 0.9732
-4.0910 -5.0391 -1.9964 0.9732
-2.6119 -5.9459 -1.9975 0.9732
-2.0714 -6.1566 -1.9979 0.9732
-1.5142 -6.3183 -1.9984 0.9732
-0.9447 -6.4298 -1.9989 0.9732
0.2133 -6.4987 -1.9999 0.9732
3.5085 -5.4874 -2.0033 0.9731
4.8402 -4.3657 -2.0049 0.9731
6.3986 -1.2827 -2.0072 0.9731
6.4883 -0.7068 -2.0075 0.9731
6.5262 -0.1251 -2.0077 0.9731
6.4454 1.0370 -2.0080 0.9730
6.1587 2.1661 -2.0080 0.9730
5.9407 2.7069 -2.0080 0.9730
4.9306 4.1158 -1.9755 0.9735
4.2659 4.2618 -1.8547 0.9751
-5.1869 -3.0252 -1.9960 0.9750
-4.5674 -3.8995 -1.9963 0.9750
-4.2017 -4.2920 -1.9965 0.9750
-3.8025 -4.6504 -1.9968 0.9750
-2.9164 -5.2539 -1.9974 0.9750
-1.9369 -5.6907 -1.9982 0.9750
-1.4217 -5.8421 -1.9986 0.9750
1.2431 -5.8902 -2.0011 0.9749
2.2714 -5.5784 -2.0021 0.9749
3.2284 -5.0885 -2.0032 0.9749
3.6705 -4.7813 -2.0037 0.9749
4.0834 -4.4359 -2.0041 0.9749
4.4640 -4.0548 -2.0046 0.9749
4.8090 -3.6411 -2.0050 0.9749
5.1158 -3.1982 -2.0055 0.9749
5.6048 -2.2388 -2.0062 0.9749
5.9152 -1.2074 -2.0068 0.9749
6.0001 -0.6748 -2.0070 0.9749
5.8585 1.4671 -2.0075 0.9749
5.7043 1.9840 -2.0076 0.9749
5.5044 2.4850 -2.0075 0.9749
5.2606 2.9661 -2.0074 0.9749
4.9746 3.4234 -2.0073 0.9749
4.6417 3.8473 -2.0040 0.9749
0.9095 5.4967 -1.8520 0.9768
0.4153 5.5546 -1.8515 0.9768
-0.5783 5.5372 -1.8506 0.9768
-1.0697 5.4621 -1.8501 0.9768
-2.4761 4.9799 -1.8487 0.9768
-2.9098 4.7379 -1.8482 0.9768
-3.3201 4.4582 -1.8477 0.9768
-3.7584 4.2044 -1.8746 0.9765
-4.3783 4.0952 -1.9928 0.9750
-4.7396 3.6986 -1.9984 0.9750
-5.0496 3.2603 -1.9980 0.9750
-5.7297 1.8056 -1.9969 0.9750
-5.8671 1.2870 -1.9966 0.9750
-6.0012 0.2237 -1.9962 0.9750
-5.9967 -0.3126 -1.9960 0.9750
-5.8451 -1.3734 -1.9959 0.9750
-5.6992 -1.8894 -1.9959 0.9750
-5.5080 -2.3904 -1.9959 0.9750
-4.6791 -3.7644 -1.9962 0.9750
-3.9365 -4.5372 -1.9967 0.9750
-3.0683 -5.1662 -1.9973 0.9750
-2.5956 -5.4203 -1.9977 0.9750
-2.1020 -5.6314 -1.9981 0.9750
-1.5915 -5.7977 -1.9985 0.9750
-1.0681 -5.9179 -1.9989 0.9750
-0.5360 -5.9910 -1.9994 0.9750
0.0007 -6.0164 -1.9999 0.9750
1.0706 -5.9235 -2.0009 0.9749
1.5952 -5.8059 -2.0014 0.9749
2.6031 -5.4327 -2.0025 0.9749
3.0782 -5.1801 -2.0030 0.9749
3.9519 -4.5528 -2.0040 0.9749
4.7003 -3.7797 -2.0049 0.9749
5.2994 -2.8853 -2.0057 0.9749
5.5367 -2.4013 -2.0061 0.9749
5.7299 -1.8981 -2.0064 0.9749
5.8772 -1.3795 -2.0067 0.9749
5.9776 -0.8497 -2.0070 0.9749
5.8988 1.2954 -2.0075 0.9749
5.7598 1.8166 -2.0076 0.9749
5.5747 2.3232 -2.0075 0.9749
5.3450 2.8113 -2.0075 0.9749
5.0726 3.2768 -2.0074 0.9749
4.7575 3.7144 -2.0063 0.9749
4.3920 4.1099 -1.9994 0.9750
3.3302 4.4739 -1.8539 0.9768
1.5536 5.3521 -1.8525 0.9768
1.0696 5.4682 -1.8521 0.9768
0.5773 5.5405 -1.8517 0.9768
-0.4164 5.5522 -1.8508 0.9768
-0.9099 5.4915 -1.8503 0.9768
-1.8705 5.2396 -1.8493 0.9768
-3.5815 4.2499 -1.8474 0.9768
-4.6262 3.8326 -1.9969 0.9750
-4.9526 3.4066 -1.9981 0.9750
-5.6748 1.9722 -1.9970 0.9750
-5.9334 0.9320 -1.9965 0.9750
-5.9922 0.3988 -1.9963 0.9750
-6.0034 -0.1374 -1.9961 0.9750
-5.9668 -0.6725 -1.9960 0.9750
-5.8828 -1.2022 -1.9959 0.9750
-5.5754 -2.2286 -1.9959 0.9750
-4.0671 -4.4201 -1.9966 0.9750
-3.6570 -4.7660 -1.9969 0.9750
-3.2177 -5.0741 -1.9972 0.9750
-2.7526 -5.3419 -1.9975 0.9750
-2.2654 -5.5673 -1.9979 0.9750
-1.2404 -5.8838 -1.9988 0.9750
-0.1749 -6.0134 -1.9997 0.9750
0.3624 -6.0065 -2.0002 0.9750
2.4432 -5.5060 -2.0023 0.9749
3.3846 -4.9866 -2.0033 0.9749
3.8170 -4.6659 -2.0038 0.9749
4.2191 -4.3077 -2.0043 0.9749
4.9197 -3.4908 -2.0052 0.9749
5.2126 -3.0385 -2.0056 0.9749
5.4640 -2.5618 -2.0060 0.9749
5.8342 -1.5504 -2.0066 0.9749
5.9500 -1.0238 -2.0069 0.9749
6.0385 0.0501 -2.0073 0.9749
5.9341 1.1226 -2.0075 0.9749
5.8104 1.6476 -2.0076 0.9749
5.6402 2.1595 -2.0075 0.9749
5.4249 2.6541 -2.0075 0.9749
4.8662 3.5756 -2.0073 0.9749
3.9205 4.1380 -1.8948 0.9763
3.0549 4.6654 -1.8537 0.9768
2.6260 4.9186 -1.8534 0.9768
1.2289 5.4350 -1.8522 0.9768
0.2432 5.5643 -1.8514 0.9768
-0.7492 5.5161 -1.8504 0.9768
-1.2381 5.4259 -1.8500 0.9768
-2.1817 5.1168 -1.8490 0.9768
-3.0548 4.6452 -1.8480 0.9768
-3.4636 4.3624 -1.8516 0.9768
-3.9916 4.1963 -1.9251 0.9759
-4.5077 3.9620 -1.9949 0.9750
-4.8514 3.5499 -1.9983 0.9750
-5.1477 3.1023 -1.9978 0.9750
-5.6151 2.1372 -1.9971 0.9750
-5.7825 1.6274 -1.9968 0.9750
-5.9039 1.1048 -1.9966 0.9750
-5.9782 0.5736 -1.9963 0.9750
-5.9840 -0.4980 -1.9960 0.9750
-5.9154 -1.0299 -1.9959 0.9750
-5.7998 -1.5536 -1.9959 0.9750
-5.4315 -2.5597 -1.9959 0.9750
-5.1817 -3.0343 -1.9960 0.9750
-4.5606 -3.9075 -1.9963 0.9750
-4.1942 -4.2993 -1.9965 0.9750
-3.7944 -4.6570 -1.9968 0.9750
-2.9072 -5.2590 -1.9974 0.9750
-1.4115 -5.8446 -1.9986 0.9750
-0.8846 -5.9486 -1.9991 0.9750
0.1869 -6.0140 -2.0001 0.9750
0.7229 -5.9749 -2.0006 0.9750
1.2534 -5.8881 -2.0011 0.9749
2.2812 -5.5745 -2.0021 0.9749
3.2373 -5.0829 -2.0032 0.9749
4.0912 -4.4287 -2.0041 0.9749
4.8154 -3.6327 -2.0051 0.9749
5.1214 -3.1892 -2.0055 0.9749
5.3865 -2.7201 -2.0059 0.9749
5.6087 -2.2290 -2.0062 0.9749
5.9173 -1.1970 -2.0068 0.9749
6.0372 -0.1262 -2.0072 0.9749
6.0248 0.4129 -2.0074 0.9749
5.9642 0.9489 -2.0075 0.9749
5.8560 1.4773 -2.0075 0.9749
5.7008 1.9939 -2.0076 0.9749
5.2554 2.9752 -2.0074 0.9749
4.9686 3.4321 -2.0073 0.9749
4.1456 4.1272 -1.9445 0.9756
3.5859 4.2723 -1.8541 0.9768
2.3253 5.0669 -1.8531 0.9768
1.8636 5.2531 -1.8528 0.9768
1.3871 5.3972 -1.8524 0.9768
-0.5879 5.5361 -1.8506 0.9768
-1.0793 5.4602 -1.8501 0.9768
-1.5618 5.3407 -1.8496 0.9768
-2.0315 5.1787 -1.8492 0.9768
-2.4848 4.9755 -1.8487 0.9768
-3.3279 4.4524 -1.8477 0.9768
-3.7713 4.2039 -1.8773 0.9765
-4.7460 3.6903 -1.9984 0.9750
-5.3242 2.7869 -1.9976 0.9750
-5.5507 2.3003 -1.9972 0.9750
-5.8694 1.2768 -1.9966 0.9750
-5.9592 0.7479 -1.9964 0.9750
-6.0015 0.2132 -1.9962 0.9750
-5.9431 -0.8568 -1.9959 0.9750
-5.8427 -1.3836 -1.9959 0.9750
-5.5038 -2.4000 -1.9959 0.9750
-5.2679 -2.8816 -1.9960 0.9750
-4.6725 -3.7726 -1.9962 0.9750
-4.3178 -4.1749 -1.9964 0.9750
-3.0593 -5.1715 -1.9973 0.9750
-2.5861 -5.4249 -1.9977 0.9750
-2.0922 -5.6351 -1.9981 0.9750
-1.5814 -5.8005 -1.9985 0.9750
-1.0578 -5.9198 -1.9989 0.9750
-0.5255 -5.9920 -1.9994 0.9750
1.6054 -5.8031 -2.0014 0.9749
2.1173 -5.6382 -2.0020 0.9749
2.6126 -5.4282 -2.0025 0.9749
3.0873 -5.1748 -2.0030 0.9749
3.5376 -4.8799 -2.0035 0.9749
3.9599 -4.5459 -2.0040 0.9749
4.7070 -3.7715 -2.0049 0.9749
5.0257 -3.3372 -2.0053 0.9749
5.3045 -2.8760 -2.0057 0.9749
5.7332 -1.8881 -2.0064 0.9749
5.8796 -1.3692 -2.0067 0.9749
6.0342 0.2369 -2.0073 0.9749
5.7566 1.8266 -2.0076 0.9749
5.5706 2.3330 -2.0075 0.9749
5.0668 3.2856 -2.0074 0.9749
4.3826 4.1155 -1.9984 0.9750
2.4724 4.9971 -1.8533 0.9768
2.0163 5.1968 -1.8529 0.9768
1.5442 5.3548 -1.8525 0.9768
0.5676 5.5415 -1.8517 0.9768
0.0709 5.5687 -1.8512 0.9768
-0.4261 5.5514 -1.8507 0.9768
-0.9195 5.4898 -1.8503 0.9768
-1.4053 5.3845 -1.8498 0.9768
-2.3387 5.0464 -1.8488 0.9768
-2.7789 4.8163 -1.8484 0.9768
-3.5889 4.2436 -1.8474 0.9768
-4.2375 4.1874 -1.9803 0.9752
-4.6332 3.8247 -1.9971 0.9750
-4.9586 3.3979 -1.9981 0.9750
-5.2409 2.9413 -1.9977 0.9750
-5.4814 2.4615 -1.9974 0.9750
-5.6783 1.9623 -1.9970 0.9750
-5.8298 1.4476 -1.9967 0.9750
-5.9350 0.9216 -1.9965 0.9750
-5.9929 0.3883 -1.9963 0.9750
-6.0032 -0.1479 -1.9961 0.9750
-5.5715 -2.2383 -1.9959 0.9750
-4.7806 -3.6345 -1.9962 0.9750
-4.4376 -4.0469 -1.9964 0.9750
-4.0593 -4.4272 -1.9966 0.9750
-3.6487 -4.7724 -1.9969 0.9750
-3.2088 -5.0797 -1.9972 0.9750
-2.7432 -5.3467 -1.9976 0.9750
-0.7002 -5.9736 -1.9993 0.9750
0.3729 -6.0059 -2.0002 0.9750
1.4352 -5.8470 -2.0013 0.9749
2.4528 -5.5017 -2.0023 0.9749
3.8251 -4.6592 -2.0038 0.9749
4.2266 -4.3004 -2.0043 0.9749
5.6753 -2.0545 -2.0063 0.9749
6.0192 -0.4784 -2.0071 0.9749
5.9321 1.1330 -2.0075 0.9749
5.1607 3.1364 -2.0074 0.9749
4.5078 3.9919 -2.0015 0.9749
3.4519 4.3810 -1.8540 0.9768
3.0467 4.6708 -1.8537 0.9768
2.6174 4.9231 -1.8534 0.9768
1.7000 5.3078 -1.8526 0.9768
1.2194 5.4372 -1.8522 0.9768
0.7292 5.5230 -1.8518 0.9768
-0.2639 5.5619 -1.8509 0.9768
-0.7589 5.5148 -1.8504 0.9768
-1.2476 5.4237 -1.8499 0.9768
-3.0629 4.6398 -1.8480 0.9768
-3.4638 4.3469 -1.8476 0.9768
-4.0051 4.1958 -1.9281 0.9758
-5.1531 3.0933 -1.9978 0.9750
-5.4076 2.6207 -1.9975 0.9750
-5.7854 1.6173 -1.9968 0.9750
-5.9792 0.5631 -1.9963 0.9750
-6.0051 0.0274 -1.9961 0.9750
-5.9831 -0.5085 -1.9960 0.9750
-5.4270 -2.5692 -1.9959 0.9750
-4.1867 -4.3067 -1.9965 0.9750
-3.7862 -4.6637 -1.9968 0.9750
-3.3555 -4.9836 -1.9971 0.9750
-0.3399 -6.0059 -1.9996 0.9750
0.1974 -6.0137 -2.0001 0.9750
1.2637 -5.8859 -2.0011 0.9749
1.7843 -5.7512 -2.0016 0.9749
3.2462 -5.0772 -2.0032 0.9749
3.6872 -4.7685 -2.0037 0.9749
4.0990 -4.4216 -2.0042 0.9749
4.4782 -4.0392 -2.0046 0.9749
4.8217 -3.6243 -2.0051 0.9749
5.1270 -3.1803 -2.0055 0.9749
5.9195 -1.1867 -2.0068 0.9749
6.0241 0.4235 -2.0074 0.9749
5.8534 1.4875 -2.0075 0.9749
4.9626 3.4407 -2.0073 0.9749
4.6276 3.8629 -2.0037 0.9749
-5.0539 -2.3710 -1.9963 0.9766
-4.8224 -2.8126 -1.9964 0.9766
-4.2463 -3.6254 -1.9967 0.9766
-2.7112 -4.8843 -1.9977 0.9765
-1.8006 -5.2903 -1.9984 0.9765
-0.8320 -5.5284 -1.9993 0.9765
-0.3355 -5.5818 -1.9997 0.9765
0.6623 -5.5552 -2.0006 0.9765
1.1556 -5.4753 -2.0011 0.9765
1.6399 -5.3516 -2.0016 0.9765
2.1113 -5.1852 -2.0021 0.9765
2.5662 -4.9773 -2.0026 0.9765
4.4696 -3.3841 -2.0048 0.9765
5.0017 -2.5368 -2.0056 0.9765
5.2090 -2.0807 -2.0059 0.9765
5.3746 -1.6079 -2.0062 0.9765
5.5762 -0.6272 -2.0067 0.9764
5.5443 0.8722 -2.0071 0.9764
5.4445 1.3634 -2.0071 0.9764
5.1155 2.3094 -2.0071 0.9764
4.8888 2.7565 -2.0070 0.9764
4.6231 3.1815 -2.0069 0.9764
4.3205 3.5810 -2.0067 0.9764
3.9741 3.9426 -2.0019 0.9765
3.4822 4.1340 -1.9329 0.9773
2.5810 4.4938 -1.8532 0.9782
1.7406 4.8793 -1.8526 0.9782
1.2980 5.0141 -1.8522 0.9782
0.3860 5.1627 -1.8514 0.9782
-0.0762 5.1754 -1.8510 0.9783
-0.5375 5.1467 -1.8505 0.9783
-1.4430 4.9669 -1.8496 0.9783
-1.8800 4.8171 -1.8492 0.9783
-2.7049 4.4042 -1.8483 0.9783
-3.1287 4.2012 -1.8732 0.9780
-3.7131 4.1536 -1.9924 0.9766
-4.4061 3.4384 -1.9986 0.9765
-4.6944 3.0309 -1.9982 0.9765
-4.9452 2.5995 -1.9979 0.9765
-5.1566 2.1476 -1.9976 0.9766
-5.5390 0.7050 -1.9968 0.9766
-5.5793 0.2080 -1.9966 0.9766
-5.5752 -0.2907 -1.9964 0.9766
-5.5268 -0.7869 -1.9963 0.9766
-5.4343 -1.2768 -1.9963 0.9766
-5.2987 -1.7566 -1.9963 0.9766
-4.9023 -2.6705 -1.9964 0.9766
-4.6448 -3.0975 -1.9965 0.9766
-4.3502 -3.4998 -1.9966 0.9766
-4.0210 -3.8744 -1.9968 0.9766
-3.6597 -4.2182 -1.9970 0.9766
-3.2692 -4.5285 -1.9973 0.9766
-2.8525 -4.8028 -1.9976 0.9765
-2.4130 -5.0390 -1.9980 0.9765
-1.9542 -5.2352 -1.9983 0.9765
-1.4796 -5.3897 -1.9987 0.9765
1.9589 -5.2442 -2.0019 0.9765
4.0369 -3.8879 -2.0043 0.9765
4.6655 -3.1097 -2.0051 0.9765
5.1458 -2.2318 -2.0058 0.9765
5.3252 -1.7640 -2.0061 0.9765
5.4621 -1.2820 -2.0064 0.9764
5.5553 -0.7897 -2.0066 0.9764
5.6041 -0.2909 -2.0068 0.9764
5.5673 0.7099 -2.0070 0.9764
5.4820 1.2039 -2.0071 0.9764
5.3528 1.6882 -2.0071 0.9764
5.1808 2.1591 -2.0071 0.9764
4.0916 3.8287 -2.0039 0.9765
3.6851 4.1242 -1.9778 0.9768
3.0950 4.1579 -1.8536 0.9782
2.3059 4.6403 -1.8530 0.9782
1.8824 4.8267 -1.8527 0.9782
1.4439 4.9744 -1.8523 0.9782
0.9941 5.0823 -1.8519 0.9782
0.0750 5.1758 -1.8511 0.9783
-0.3870 5.1607 -1.8507 0.9783
-1.2975 5.0073 -1.8498 0.9783
-1.7387 4.8704 -1.8493 0.9783
-2.5754 4.4816 -1.8484 0.9783
-3.5290 4.1876 -1.9583 0.9770
-3.9630 3.9299 -1.9959 0.9766
-4.6042 3.1669 -1.9984 0.9765
-4.8675 2.7429 -1.9980 0.9765
-5.2758 1.8335 -1.9974 0.9766
-5.5163 0.8664 -1.9968 0.9766
-5.5814 -0.1278 -1.9965 0.9766
-5.5475 -0.6252 -1.9964 0.9766
-5.1835 -2.0719 -1.9963 0.9766
-4.9781 -2.5262 -1.9963 0.9766
-3.3998 -4.4309 -1.9972 0.9766
-2.5590 -4.9662 -1.9978 0.9765
-1.6362 -5.3439 -1.9986 0.9765
-1.1531 -5.4697 -1.9990 0.9765
-0.6606 -5.5519 -1.9994 0.9765
-0.1626 -5.5900 -1.9999 0.9765
0.8339 -5.5325 -2.0008 0.9765
2.2709 -5.1178 -2.0023 0.9765
3.5477 -4.3367 -2.0037 0.9765
3.9214 -4.0038 -2.0041 0.9765
4.2639 -3.6387 -2.0045 0.9765
4.8446 -2.8240 -2.0053 0.9765
5.4221 -1.4409 -2.0063 0.9764
5.5856 0.5471 -2.0070 0.9764
5.3998 1.5312 -2.0071 0.9764
5.2416 2.0069 -2.0071 0.9764
2.8392 4.3360 -1.8534 0.9782
2.0226 4.7699 -1.8528 0.9782
-0.2362 5.1701 -1.8508 0.9783
-1.1509 5.0434 -1.8499 0.9783
-2.4436 4.5553 -1.8486 0.9783
-2.8397 4.3180 -1.8481 0.9783
-3.3303 4.1945 -1.9153 0.9775
-3.8433 4.0404 -1.9941 0.9766
-4.1985 3.6901 -1.9989 0.9765
-4.5101 3.3002 -1.9985 0.9765
-5.3760 1.5130 -1.9972 0.9766
-5.5580 0.5333 -1.9967 0.9766
-5.5829 0.0352 -1.9965 0.9766
-5.5634 -0.4630 -1.9964 0.9766
-5.2418 -1.9197 -1.9963 0.9766
-5.0497 -2.3798 -1.9963 0.9766
-4.8174 -2.8210 -1.9964 0.9766
-2.2561 -5.1116 -1.9981 0.9765
-1.7914 -5.2935 -1.9984 0.9765
0.6720 -5.5540 -2.0007 0.9765
1.1651 -5.4732 -2.0011 0.9765
1.6492 -5.3488 -2.0016 0.9765
2.5749 -4.9729 -2.0026 0.9765
3.0090 -4.7244 -2.0031 0.9765
4.4755 -3.3763 -2.0048 0.9765
5.0062 -2.5280 -2.0056 0.9765
5.3775 -1.5985 -2.0062 0.9764
5.5991 0.3838 -2.0070 0.9764
5.2980 1.8530 -2.0071 0.9764
5.1114 2.3183 -2.0071 0.9764
4.8840 2.7650 -2.0070 0.9764
4.6175 3.1896 -2.0069 0.9764
4.3142 3.5885 -2.0067 0.9764
2.5731 4.4983 -1.8532 0.9782
1.7320 4.8823 -1.8525 0.9782
1.2892 5.0163 -1.8522 0.9782
0.8364 5.1103 -1.8518 0.9782
-0.0852 5.1752 -1.8510 0.9783
-3.1399 4.2008 -1.8755 0.9780
-3.7205 4.1474 -1.9925 0.9766
-4.6997 3.0227 -1.9982 0.9765
-5.1603 2.1385 -1.9976 0.9766
-5.4567 1.1870 -1.9970 0.9766
-5.5402 0.6953 -1.9968 0.9766
-5.5797 0.1982 -1.9966 0.9766
-5.5254 -0.7966 -1.9963 0.9766
-5.1170 -2.2313 -1.9963 0.9766
-4.8977 -2.6791 -1.9964 0.9766
-4.3441 -3.5074 -1.9966 0.9766
-4.0142 -3.8814 -1.9968 0.9766
-3.2613 -4.5342 -1.9973 0.9766
-1.9450 -5.2386 -1.9983 0.9765
-1.4701 -5.3923 -1.9987 0.9765
-0.9833 -5.5031 -1.9991 0.9765
-0.4885 -5.5701 -1.9996 0.9765
0.5095 -5.5709 -2.0005 0.9765
1.4923 -5.3942 -2.0015 0.9765
2.4284 -5.0455 -2.0024 0.9765
3.2881 -4.5357 -2.0034 0.9765
4.9300 -2.6729 -2.0054 0.9765
5.1497 -2.2228 -2.0058 0.9765
5.3283 -1.7547 -2.0061 0.9765
5.4643 -1.2725 -2.0064 0.9764
5.5567 -0.7799 -2.0066 0.9764
5.6078 0.2201 -2.0069 0.9764
5.4799 1.2135 -2.0071 0.9764
4.4172 3.4612 -2.0068 0.9764
3.6727 4.1248 -1.9750 0.9768
3.0877 4.1633 -1.8536 0.9782
1.4352 4.9769 -1.8523 0.9782
0.9853 5.0840 -1.8519 0.9782
0.5276 5.1505 -1.8515 0.9782
-0.3961 5.1599 -1.8507 0.9783
-0.8547 5.1028 -1.8502 0.9783
-1.7472 4.8673 -1.8493 0.9783
-2.1739 4.6908 -1.8489 0.9783
-2.5832 4.4771 -1.8484 0.9783
-4.8723 2.7344 -1.9980 0.9765
-5.0959 2.2884 -1.9977 0.9765
-5.2790 1.8243 -1.9973 0.9766
-5.4199 1.3458 -1.9971 0.9766
-5.5178 0.8568 -1.9968 0.9766
-5.5463 -0.6349 -1.9964 0.9766
-5.3449 -1.6105 -1.9963 0.9766
-5.1799 -2.0810 -1.9963 0.9766
-4.7279 -2.9688 -1.9964 0.9766
-4.1257 -3.7624 -1.9967 0.9766
-3.7739 -4.1160 -1.9970 0.9766
-3.3921 -4.4369 -1.9972 0.9766
-2.0970 -5.1793 -1.9982 0.9765
-1.6268 -5.3468 -1.9986 0.9765
-1.1435 -5.4717 -1.9990 0.9765
-0.1528 -5.5903 -1.9999 0.9765
0.3466 -5.5829 -2.0003 0.9765
1.8141 -5.2956 -2.0018 0.9765
2.2799 -5.1139 -2.0023 0.9765
2.7277 -4.8912 -2.0027 0.9765
3.1540 -4.6294 -2.0032 0.9765
3.9284 -3.9969 -2.0041 0.9765
4.2703 -3.6313 -2.0046 0.9765
4.5781 -3.2364 -2.0050 0.9765
4.8496 -2.8156 -2.0053 0.9765
5.0823 -2.3721 -2.0057 0.9765
5.4246 -1.4314 -2.0063 0.9764
5.5314 -0.9418 -2.0065 0.9764
5.5939 -0.4446 -2.0067 0.9764
5.5129 1.0529 -2.0071 0.9764
5.3971 1.5407 -2.0071 0.9764
5.0372 2.4753 -2.0071 0.9764
4.7960 2.9148 -2.0070 0.9764
4.5165 3.3308 -2.0069 0.9764
4.1991 3.7186 -2.0058 0.9765
2.8316 4.3409 -1.8534 0.9782
2.0143 4.7734 -1.8528 0.9782
1.5800 4.9332 -1.8524 0.9782
-0.7054 5.1260 -1.8504 0.9783
-1.1597 5.0414 -1.8499 0.9783
-2.0362 4.7527 -1.8490 0.9783
-2.4516 4.5510 -1.8486 0.9783
-3.8505 4.0339 -1.9942 0.9766
-4.2049 3.6828 -1.9989 0.9765
-5.4906 1.0175 -1.9969 0.9766
-5.5589 0.5235 -1.9967 0.9766
-5.5626 -0.4727 -1.9964 0.9766
-5.3897 -1.4538 -1.9963 0.9766
-5.2385 -1.9289 -1.9963 0.9766
-4.8125 -2.8294 -1.9964 0.9766
-4.5412 -3.2477 -1.9965 0.9766
-3.8923 -4.0039 -1.9969 0.9766
-2.6942 -4.8938 -1.9977 0.9765
-1.3027 -5.4356 -1.9989 0.9765
0.6817 -5.5529 -2.0007 0.9765
1.1747 -5.4712 -2.0011 0.9765
1.6586 -5.3459 -2.0016 0.9765
2.1295 -5.1778 -2.0021 0.9765
3.0173 -4.7192 -2.0031 0.9765
3.4271 -4.4322 -2.0035 0.9765
3.8098 -4.1096 -2.0040 0.9765
4.7650 -2.9558 -2.0052 0.9765
5.0106 -2.5193 -2.0056 0.9765
5.2163 -2.0625 -2.0059 0.9765
5.3803 -1.5891 -2.0062 0.9764
5.5784 -0.6077 -2.0067 0.9764
5.6108 -0.1075 -2.0068 0.9764
5.4398 1.3824 -2.0071 0.9764
5.2947 1.8623 -2.0071 0.9764
5.1074 2.3272 -2.0071 0.9764
4.6120 3.1976 -2.0069 0.9764
4.3079 3.5961 -2.0067 0.9764
3.9598 3.9560 -2.0017 0.9765
-4.8955 -1.7832 -1.9966 0.9779
-4.7170 -2.2129 -1.9967 0.9779
-4.5009 -2.6251 -1.9967 0.9779
-4.2490 -3.0163 -1.9969 0.9779
-3.9632 -3.3837 -1.9970 0.9779
-3.6458 -3.7242 -1.9972 0.9779
-3.2994 -4.0351 -1.9974 0.9779
-2.9266 -4.3139 -1.9977 0.9779
-2.5304 -4.5585 -1.9980 0.9779
-1.6804 -4.9373 -1.9987 0.9779
-1.2334 -5.0685 -1.9990 0.9779
-0.3131 -5.2092 -1.9998 0.9779
0.1530 -5.2174 -2.0003 0.9779
0.6180 -5.1841 -2.0007 0.9779
1.9702 -4.8386 -2.0021 0.9779
2.3946 -4.6446 -2.0025 0.9779
2.8001 -4.4134 -2.0030 0.9779
3.8713 -3.5164 -2.0042 0.9778
4.1704 -3.1576 -2.0046 0.9778
4.4363 -2.7734 -2.0050 0.9778
4.8602 -1.9414 -2.0056 0.9778
5.0147 -1.5002 -2.0059 0.9778
5.2246 0.3489 -2.0066 0.9778
5.1729 0.8137 -2.0067 0.9778
5.0798 1.2721 -2.0068 0.9778
4.7727 2.1546 -2.0067 0.9778
4.5613 2.5718 -2.0067 0.9778
4.3134 2.9683 -2.0066 0.9778
3.3632 3.9927 -2.0006 0.9779
2.8961 4.1377 -1.9355 0.9786
1.2112 4.6785 -1.8520 0.9795
0.7887 4.7670 -1.8516 0.9795
0.3602 4.8174 -1.8513 0.9795
-0.0711 4.8293 -1.8509 0.9795
-0.9279 4.7376 -1.8500 0.9795
-1.3466 4.6349 -1.8496 0.9795
-1.7543 4.4953 -1.8492 0.9795
-2.1479 4.3198 -1.8488 0.9795
-2.5768 4.1956 -1.8869 0.9791
-3.1057 4.1702 -1.9926 0.9780
-3.4731 3.8851 -1.9970 0.9779
-4.1120 3.2089 -1.9988 0.9779
-4.6153 2.4261 -1.9981 0.9779
-4.8126 2.0043 -1.9978 0.9779
-4.9716 1.5667 -1.9976 0.9779
-5.1697 0.6580 -1.9971 0.9779
-5.2073 0.1941 -1.9969 0.9779
-5.2035 -0.2713 -1.9968 0.9779
-5.0721 -1.1917 -1.9966 0.9779
-4.9455 -1.6395 -1.9966 0.9779
-4.3351 -2.8910 -1.9968 0.9779
-3.0511 -4.2265 -1.9976 0.9779
-1.8238 -4.8859 -1.9985 0.9779
-1.3808 -5.0300 -1.9989 0.9779
-0.9267 -5.1342 -1.9993 0.9779
-0.4650 -5.1974 -1.9997 0.9779
1.8280 -4.8937 -2.0019 0.9779
2.6698 -4.4929 -2.0028 0.9779
4.0762 -3.2778 -2.0045 0.9778
4.3532 -2.9016 -2.0048 0.9778
4.8012 -2.0823 -2.0055 0.9778
5.0962 -1.1962 -2.0060 0.9778
5.1832 -0.7368 -2.0063 0.9778
5.2287 -0.2714 -2.0064 0.9778
5.2325 0.1962 -2.0066 0.9778
5.1943 0.6624 -2.0067 0.9778
4.9941 1.5751 -2.0068 0.9778
4.6345 2.4376 -2.0067 0.9778
4.1270 3.2221 -2.0065 0.9778
3.8227 3.5772 -2.0063 0.9778
3.4813 3.8961 -2.0023 0.9779
3.0738 4.1295 -1.9728 0.9782
2.1516 4.3296 -1.8528 0.9795
1.7564 4.5036 -1.8525 0.9795
0.5007 4.8051 -1.8514 0.9795
0.0700 4.8296 -1.8510 0.9795
-0.7892 4.7630 -1.8502 0.9795
-1.6225 4.5449 -1.8493 0.9795
-2.0211 4.3810 -1.8489 0.9795
-2.4137 4.2003 -1.8565 0.9795
-3.7046 3.6736 -1.9994 0.9779
-4.0169 3.3278 -1.9990 0.9779
-4.2970 2.9556 -1.9986 0.9779
-4.5427 2.5599 -1.9982 0.9779
-5.0563 1.2649 -1.9974 0.9779
-5.1484 0.8087 -1.9972 0.9779
-5.1996 0.3460 -1.9970 0.9779
-5.2093 -0.1193 -1.9968 0.9779
-5.1047 -1.0431 -1.9967 0.9779
-4.8380 -1.9338 -1.9966 0.9779
-4.1537 -3.1464 -1.9969 0.9779
-3.8567 -3.5048 -1.9971 0.9779
-3.5290 -3.8353 -1.9973 0.9779
-2.7918 -4.4026 -1.9978 0.9779
-1.9655 -4.8303 -1.9984 0.9779
-1.5270 -4.9873 -1.9988 0.9779
-1.0761 -5.1046 -1.9992 0.9779
-0.6165 -5.1813 -1.9996 0.9779
-0.1518 -5.2167 -2.0000 0.9779
0.7782 -5.1629 -2.0009 0.9779
1.6842 -4.9446 -2.0018 0.9779
2.9355 -4.3249 -2.0031 0.9779
3.3104 -4.0466 -2.0035 0.9779
3.6590 -3.7359 -2.0040 0.9778
3.9785 -3.3952 -2.0044 0.9778
4.2664 -3.0272 -2.0047 0.9778
4.5203 -2.6350 -2.0051 0.9778
4.7381 -2.2215 -2.0054 0.9778
5.0589 -1.3444 -2.0060 0.9778
5.2184 -0.4239 -2.0064 0.9778
5.2358 0.0434 -2.0065 0.9778
5.2114 0.5104 -2.0067 0.9778
5.1453 0.9734 -2.0067 0.9778
5.0380 1.4286 -2.0068 0.9778
4.8904 1.8724 -2.0068 0.9778
3.9256 3.4641 -2.0063 0.9778
2.7146 4.1457 -1.8990 0.9790
1.8872 4.4506 -1.8526 0.9795
1.4823 4.6004 -1.8522 0.9795
0.2109 4.8259 -1.8511 0.9795
-0.2204 4.8244 -1.8507 0.9795
-0.6499 4.7844 -1.8503 0.9795
-1.0739 4.7063 -1.8499 0.9795
-1.4892 4.5907 -1.8495 0.9795
-2.2804 4.2510 -1.8486 0.9795
-3.2356 4.0752 -1.9941 0.9780
-4.4663 2.6916 -1.9984 0.9779
-4.8721 1.8544 -1.9977 0.9779
-5.0174 1.4121 -1.9975 0.9779
-5.1874 0.4977 -1.9970 0.9779
-5.2107 0.0329 -1.9969 0.9779
-4.7131 -2.2212 -1.9967 0.9779
-4.4963 -2.6329 -1.9967 0.9779
-4.2437 -3.0238 -1.9969 0.9779
-3.9573 -3.3906 -1.9970 0.9779
-3.6393 -3.7305 -1.9972 0.9779
-3.2923 -4.0408 -1.9974 0.9779
-2.9190 -4.3190 -1.9977 0.9779
-2.5224 -4.5629 -1.9980 0.9779
-2.1056 -4.7706 -1.9983 0.9779
-1.6718 -4.9403 -1.9987 0.9779
-1.2246 -5.0707 -1.9990 0.9779
-0.7674 -5.1607 -1.9994 0.9779
-0.3040 -5.2097 -1.9999 0.9779
1.9787 -4.8352 -2.0021 0.9779
2.4027 -4.6404 -2.0025 0.9779
3.1906 -4.1413 -2.0034 0.9779
3.8775 -3.5097 -2.0042 0.9778
4.1760 -3.1503 -2.0046 0.9778
4.4412 -2.7657 -2.0050 0.9778
4.6710 -2.3588 -2.0053 0.9778
5.1310 -1.0379 -2.0061 0.9778
5.2037 -0.5761 -2.0063 0.9778
5.2348 -0.1095 -2.0065 0.9778
5.0775 1.2809 -2.0068 0.9778
4.5568 2.5798 -2.0067 0.9778
4.3082 2.9759 -2.0066 0.9778
4.0252 3.3482 -2.0064 0.9778
3.3561 3.9984 -2.0005 0.9779
2.0165 4.3939 -1.8527 0.9795
1.6161 4.5555 -1.8523 0.9795
1.2030 4.6806 -1.8520 0.9795
0.7804 4.7684 -1.8516 0.9795
-0.0795 4.8291 -1.8509 0.9795
-0.5100 4.8017 -1.8504 0.9795
-1.3547 4.6325 -1.8496 0.9795
-1.7622 4.4922 -1.8492 0.9795
-2.1555 4.3160 -1.8488 0.9795
-2.5867 4.1953 -1.8888 0.9791
-3.4800 3.8792 -1.9971 0.9779
-3.8163 3.5570 -1.9992 0.9779
-4.3861 2.8210 -1.9985 0.9779
-4.6195 2.4180 -1.9981 0.9779
-4.8161 1.9959 -1.9978 0.9779
-4.9743 1.5580 -1.9975 0.9779
-5.0928 1.1078 -1.9973 0.9779
-5.1708 0.6490 -1.9971 0.9779
-5.1570 -0.7435 -1.9967 0.9779
-5.0700 -1.2006 -1.9966 0.9779
-4.7759 -2.0826 -1.9966 0.9779
-3.0438 -4.2318 -1.9976 0.9779
-2.6544 -4.4871 -1.9979 0.9779
-0.9177 -5.1358 -1.9993 0.9779
0.0097 -5.2193 -2.0001 0.9779
0.4755 -5.1988 -2.0006 0.9779
1.8365 -4.8905 -2.0019 0.9779
2.2661 -4.7082 -2.0024 0.9779
2.6777 -4.4882 -2.0028 0.9779
3.0682 -4.2324 -2.0033 0.9779
3.4343 -3.9426 -2.0037 0.9779
3.7731 -3.6212 -2.0041 0.9778
4.3583 -2.8940 -2.0049 0.9778
4.5999 -2.4940 -2.0052 0.9778
5.0983 -1.1873 -2.0060 0.9778
5.2321 0.2054 -2.0066 0.9778
4.8301 2.0228 -2.0068 0.9778
4.6302 2.4457 -2.0067 0.9778
4.3933 2.8489 -2.0066 0.9778
3.8164 3.5838 -2.0063 0.9778
3.4743 3.9020 -2.0022 0.9779
1.7485 4.5066 -1.8524 0.9795
0.9193 4.7438 -1.8518 0.9795
0.0615 4.8297 -1.8510 0.9795
-0.7975 4.7616 -1.8502 0.9795
-1.6304 4.5420 -1.8493 0.9795
-2.0287 4.3775 -1.8489 0.9795
-4.5472 2.5520 -1.9982 0.9779
-4.7560 2.1358 -1.9979 0.9779
-4.9269 1.7026 -1.9976 0.9779
-5.1498 0.7997 -1.9972 0.9779
-5.2091 -0.1284 -1.9968 0.9779
-4.9886 -1.5032 -1.9966 0.9779
-4.1482 -3.1537 -1.9969 0.9779
-3.8506 -3.5115 -1.9971 0.9779
-3.1659 -4.1409 -1.9975 0.9779
-1.0672 -5.1065 -1.9992 0.9779
-0.6074 -5.1824 -1.9996 0.9779
-0.1426 -5.2170 -2.0000 0.9779
0.3235 -5.2101 -2.0004 0.9779
0.7872 -5.1616 -2.0009 0.9779
1.2449 -5.0719 -2.0013 0.9779
2.9431 -4.3198 -2.0031 0.9779
3.3175 -4.0409 -2.0035 0.9779
4.7420 -2.2132 -2.0054 0.9778
4.9213 -1.7816 -2.0057 0.9778
5.0613 -1.3355 -2.0060 0.9778
5.2192 -0.4148 -2.0064 0.9778
5.0355 1.4374 -2.0068 0.9778
4.8871 1.8810 -2.0068 0.9778
4.6997 2.3095 -2.0067 0.9778
4.2140 3.1077 -2.0065 0.9778
3.9195 3.4710 -2.0063 0.9778
3.5899 3.8023 -2.0039 0.9778
1.4743 4.6030 -1.8522 0.9795
0.6325 4.7899 -1.8515 0.9795
0.2025 4.8262 -1.8511 0.9795
-0.2289 4.8240 -1.8507 0.9795
-1.0821 4.7044 -1.8499 0.9795
-2.2878 4.2470 -1.8486 0.9795
-2.7658 4.1898 -1.9239 0.9787
-3.2428 4.0697 -1.9941 0.9780
-3.6014 3.7729 -1.9988 0.9779
-4.2145 3.0726 -1.9987 0.9779
-5.0199 1.4033 -1.9975 0.9779
-5.1315 -0.9027 -1.9967 0.9779
-5.0304 -1.3569 -1.9966 0.9779
-4.8892 -1.8003 -1.9966 0.9779
-4.7092 -2.2294 -1.9967 0.9779
-4.4917 -2.6408 -1.9967 0.9779
-3.6328 -3.7369 -1.9972 0.9779
-2.9115 -4.3241 -1.9977 0.9779
-2.5144 -4.5673 -1.9980 0.9779
-0.2949 -5.2103 -1.9999 0.9779
0.1712 -5.2169 -2.0003 0.9779
0.6362 -5.1820 -2.0007 0.9779
1.9871 -4.8317 -2.0021 0.9779
2.4108 -4.6362 -2.0025 0.9779
2.8155 -4.4036 -2.0030 0.9779
3.8836 -3.5029 -2.0042 0.9778
4.1815 -3.1430 -2.0046 0.9778
4.4460 -2.7579 -2.0050 0.9778
4.6751 -2.3506 -2.0053 0.9778
4.8670 -1.9244 -2.0056 0.9778
5.1328 -1.0290 -2.0061 0.9778
5.2350 -0.1003 -2.0065 0.9778
4.9400 1.7375 -2.0068 0.9778
4.7652 2.1713 -2.0067 0.9778
-4.5846 -1.6699 -1.9969 0.9791
-4.4174 -2.0724 -1.9970 0.9791
-3.9791 -2.8247 -1.9972 0.9791
-3.7114 -3.1687 -1.9973 0.9791
-3.4142 -3.4876 -1.9975 0.9791
-2.3696 -4.2688 -1.9982 0.9791
-1.9795 -4.4638 -1.9985 0.9791
-1.5736 -4.6234 -1.9989 0.9791
-1.1550 -4.7462 -1.9992 0.9791
1.8447 -4.5305 -2.0020 0.9791
2.2421 -4.3487 -2.0025 0.9791
2.9805 -3.8826 -2.0033 0.9791
3.3157 -3.6019 -2.0037 0.9791
3.6246 -3.2923 -2.0041 0.9791
3.9046 -2.9563 -2.0044 0.9791
4.3692 -2.2160 -2.0051 0.9790
4.5502 -1.8175 -2.0054 0.9790
4.8707 -0.5478 -2.0060 0.9790
4.9005 -0.1111 -2.0062 0.9790
4.8428 0.7618 -2.0064 0.9790
4.7556 1.1909 -2.0064 0.9790
4.6304 1.6104 -2.0064 0.9790
4.4682 2.0171 -2.0064 0.9790
3.7738 3.1279 -2.0061 0.9790
3.4794 3.4519 -2.0059 0.9790
2.8021 4.0033 -1.9999 0.9791
1.9163 4.1565 -1.8733 0.9804
0.7385 4.4632 -1.8515 0.9806
0.3372 4.5104 -1.8511 0.9806
-0.4696 4.4967 -1.8504 0.9806
-0.8688 4.4359 -1.8500 0.9807
-1.6427 4.2091 -1.8492 0.9807
-2.5490 4.1503 -1.9934 0.9792
-3.2564 3.6428 -1.9998 0.9791
-3.8506 3.0049 -1.9990 0.9791
-4.7674 1.0458 -1.9976 0.9791
-1.9521 0.2485 -0.8054 0.9915
-1.9422 -0.1013 -0.7960 0.9916
-1.9456 -0.2770 -0.8043 0.9915
-4.4759 -1.9425 -1.9970 0.9791
-4.0597 -2.7073 -1.9971 0.9791
-3.8022 -3.0590 -1.9973 0.9791
-2.4931 -4.1976 -1.9981 0.9791
-2.1089 -4.4039 -1.9984 0.9791
-0.8677 -4.8077 -1.9994 0.9791
0.4367 -4.8687 -2.0006 0.9791
1.7116 -4.5821 -2.0019 0.9791
2.8657 -3.9677 -2.0032 0.9791
3.2090 -3.6969 -2.0036 0.9791
3.8164 -3.0689 -2.0043 0.9791
4.0757 -2.7166 -2.0046 0.9791
4.3025 -2.3425 -2.0050 0.9790
4.4950 -1.9495 -2.0053 0.9790
4.6516 -1.5409 -2.0055 0.9790
4.8525 -0.6898 -2.0060 0.9790
4.8951 -0.2541 -2.0061 0.9790
4.8629 0.6201 -2.0064 0.9790
4.5252 1.8858 -2.0064 0.9790
4.3387 2.2820 -2.0064 0.9790
3.8636 3.0165 -2.0062 0.9790
3.5788 3.3489 -2.0060 0.9790
2.9199 3.9226 -2.0014 0.9791
2.5360 4.1312 -1.9840 0.9793
2.0628 4.1510 -1.8971 0.9802
1.6444 4.2164 -1.8523 0.9806
1.2614 4.3456 -1.8519 0.9806
0.8685 4.4400 -1.8516 0.9806
-0.7389 4.4597 -1.8501 0.9807
-1.9330 4.1902 -1.8886 0.9803
-3.1487 3.7363 -1.9998 0.9791
-4.0238 2.7677 -1.9988 0.9791
-4.2540 2.3972 -1.9985 0.9791
-4.7350 1.1846 -1.9977 0.9791
-2.0139 0.3163 -0.8344 0.9912
-1.9502 0.1298 -0.7999 0.9916
-1.9202 -0.0440 -0.7861 0.9917
-4.1370 -2.5876 -1.9971 0.9791
-2.9715 -3.8726 -1.9978 0.9791
-2.6144 -4.1228 -1.9980 0.9791
-2.2365 -4.3403 -1.9983 0.9791
-1.8406 -4.5232 -1.9986 0.9791
0.2944 -4.8790 -2.0005 0.9791
0.7287 -4.8343 -2.0009 0.9791
1.1573 -4.7510 -2.0013 0.9791
3.0995 -3.7888 -2.0034 0.9791
3.4258 -3.4978 -2.0038 0.9791
3.7249 -3.1788 -2.0042 0.9791
3.9944 -2.8342 -2.0045 0.9791
4.6045 -1.6760 -2.0054 0.9790
4.8301 -0.8311 -2.0059 0.9790
4.8788 0.4778 -2.0063 0.9790
4.8169 0.9113 -2.0064 0.9790
4.7165 1.3375 -2.0064 0.9790
4.5783 1.7529 -2.0064 0.9790
4.4036 2.1544 -2.0064 0.9790
3.6751 3.2431 -2.0061 0.9790
3.0354 3.8386 -2.0029 0.9791
2.6749 4.0851 -1.9985 0.9791
2.2130 4.1450 -1.9231 0.9799
1.3878 4.3071 -1.8521 0.9806
0.1975 4.5184 -1.8510 0.9806
-0.6085 4.4797 -1.8503 0.9807
-1.0055 4.4066 -1.8499 0.9807
-1.3944 4.2984 -1.8495 0.9807
-2.6778 4.0718 -1.9946 0.9792
-3.3673 3.5400 -1.9996 0.9791
-3.6691 3.2249 -1.9993 0.9791
-4.5625 1.7365 -1.9980 0.9791
-4.6986 1.3223 -1.9977 0.9791
-2.1974 0.4112 -0.9150 0.9904
-1.9044 0.0120 -0.7794 0.9918
-1.9569 -0.1629 -0.8037 0.9915
-2.1450 -0.3734 -0.8911 0.9906
-4.7131 -1.2625 -1.9970 0.9791
-4.5816 -1.6779 -1.9969 0.9791
-3.7059 -3.1752 -1.9973 0.9791
-2.3621 -4.2729 -1.9982 0.9791
-1.9717 -4.4673 -1.9985 0.9791
-1.5655 -4.6262 -1.9989 0.9791
-0.2846 -4.8783 -2.0000 0.9791
0.1518 -4.8852 -2.0004 0.9791
0.5872 -4.8532 -2.0008 0.9791
1.0181 -4.7825 -2.0012 0.9791
1.4410 -4.6735 -2.0016 0.9791
1.8527 -4.5273 -2.0020 0.9791
2.2497 -4.3448 -2.0025 0.9791
2.6289 -4.1276 -2.0029 0.9791
3.9097 -2.9495 -2.0044 0.9791
4.1580 -2.5893 -2.0048 0.9791
4.5534 -1.8096 -2.0054 0.9790
4.6973 -1.3963 -2.0056 0.9790
4.8037 -0.9717 -2.0058 0.9790
4.8717 -0.5393 -2.0060 0.9790
4.8906 0.3352 -2.0063 0.9790
4.8414 0.7703 -2.0064 0.9790
4.7535 1.1992 -2.0064 0.9790
4.6276 1.6185 -2.0064 0.9790
4.4646 2.0249 -2.0064 0.9790
4.2660 2.4151 -2.0064 0.9790
3.7684 3.1345 -2.0061 0.9790
2.3673 4.1385 -1.9513 0.9796
1.9077 4.1568 -1.8719 0.9804
1.5131 4.2650 -1.8522 0.9806
0.7307 4.4644 -1.8515 0.9806
0.3293 4.5110 -1.8511 0.9806
-0.0744 4.5215 -1.8508 0.9806
-0.8765 4.4344 -1.8500 0.9807
-1.2710 4.3464 -1.8534 0.9806
-2.0908 4.1866 -1.9153 0.9800
-2.5563 4.1459 -1.9934 0.9792
-3.5736 3.3308 -1.9994 0.9791
-3.8558 2.9981 -1.9990 0.9791
-4.3259 2.2643 -1.9984 0.9791
-4.5100 1.8690 -1.9981 0.9791
-4.6582 1.4590 -1.9978 0.9791
-4.7692 1.0375 -1.9976 0.9791
-1.9527 0.2451 -0.8054 0.9915
-1.9307 0.0686 -0.7907 0.9917
-1.9433 -0.1047 -0.7965 0.9916
-1.9447 -0.2804 -0.8042 0.9915
-4.7479 -1.1243 -1.9970 0.9791
-4.0550 -2.7144 -1.9971 0.9791
-3.7969 -3.0656 -1.9973 0.9791
-2.8503 -3.9629 -1.9979 0.9791
-2.1012 -4.4076 -1.9984 0.9791
-1.2848 -4.7125 -1.9991 0.9791
-0.8593 -4.8092 -1.9995 0.9791
1.7196 -4.5791 -2.0019 0.9791
3.2154 -3.6913 -2.0036 0.9791
3.8217 -3.0622 -2.0043 0.9791
4.0804 -2.7095 -2.0047 0.9791
4.3066 -2.3349 -2.0050 0.9790
4.6543 -1.5328 -2.0055 0.9790
4.8537 -0.6813 -2.0060 0.9790
4.8955 -0.2455 -2.0061 0.9790
4.8982 0.1923 -2.0063 0.9790
4.7864 1.0599 -2.0064 0.9790
4.6728 1.4828 -2.0064 0.9790
4.1130 2.6671 -2.0063 0.9790
3.8584 3.0232 -2.0062 0.9790
2.9129 3.9276 -2.0013 0.9791
2.5263 4.1317 -1.9820 0.9793
1.2538 4.3478 -1.8519 0.9806
0.4609 4.4997 -1.8513 0.9806
0.0576 4.5220 -1.8509 0.9806
-0.3460 4.5082 -1.8505 0.9806
-0.7467 4.4584 -1.8501 0.9807
-1.1413 4.3730 -1.8497 0.9807
-1.5266 4.2529 -1.8493 0.9807
-3.1554 3.7310 -1.9999 0.9791
-3.4750 3.4339 -1.9995 0.9791
-4.2582 2.3898 -1.9985 0.9791
-4.6138 1.5945 -1.9979 0.9791
-1.9493 0.1263 -0.7995 0.9916
-1.9557 -0.2239 -0.8056 0.9915
-4.7788 -0.9852 -1.9970 0.9791
-4.6717 -1.4077 -1.9969 0.9791
-4.3473 -2.2157 -1.9970 0.9791
-3.2985 -3.5974 -1.9976 0.9791
-2.6072 -4.1274 -1.9980 0.9791
-1.8327 -4.5264 -1.9986 0.9791
-1.4217 -4.6727 -1.9990 0.9791
-0.9993 -4.7818 -1.9993 0.9791
-0.5688 -4.8528 -1.9997 0.9791
1.9920 -4.4681 -2.0022 0.9791
2.7556 -4.0446 -2.0030 0.9791
3.7305 -3.1723 -2.0042 0.9791
3.9994 -2.8273 -2.0045 0.9791
4.8316 -0.8227 -2.0059 0.9790
4.9017 0.0492 -2.0062 0.9790
4.5752 1.7609 -2.0064 0.9790
4.1892 2.5459 -2.0063 0.9790
3.9451 2.9094 -2.0062 0.9790
3.3646 3.5636 -2.0059 0.9790
3.0285 3.8437 -2.0028 0.9791
2.2039 4.1453 -1.9215 0.9799
1.3835 4.3195 -1.8563 0.9806
0.5921 4.4846 -1.8514 0.9806
0.1896 4.5187 -1.8510 0.9806
-0.2143 4.5167 -1.8506 0.9806
-0.6163 4.4786 -1.8503 0.9807
-1.0132 4.4048 -1.8499 0.9807
-1.7964 4.1930 -1.8670 0.9805
-2.2531 4.1826 -1.9444 0.9797
-3.0430 3.8189 -1.9985 0.9791
-3.6747 3.2184 -1.9992 0.9791
-3.9465 2.8772 -1.9989 0.9791
-4.5655 1.7285 -1.9980 0.9791
-4.7009 1.3141 -1.9977 0.9791
-1.9579 0.1844 -0.8049 0.9915
-1.9026 0.0087 -0.7787 0.9918
-2.1522 -0.3786 -0.8944 0.9906
-4.7109 -1.2707 -1.9969 0.9791
-3.9692 -2.8386 -1.9972 0.9791
-3.7003 -3.1817 -1.9973 0.9791
-2.3546 -4.2771 -1.9982 0.9791
0.1603 -4.8850 -2.0004 0.9791
1.0264 -4.7807 -2.0012 0.9791
1.8606 -4.5241 -2.0021 0.9791
2.2573 -4.3409 -2.0025 0.9791
2.6361 -4.1231 -2.0029 0.9791
3.3283 -3.5903 -2.0037 0.9791
4.1625 -2.5820 -2.0048 0.9791
4.3770 -2.2007 -2.0051 0.9790
4.5565 -1.8016 -2.0054 0.9790
4.6997 -1.3881 -2.0056 0.9790
4.8054 -0.9633 -2.0058 0.9790
4.8726 -0.5308 -2.0060 0.9790
4.9009 -0.0939 -2.0062 0.9790
4.8401 0.7787 -2.0064 0.9790
4.6247 1.6266 -2.0064 0.9790
4.4611 2.0327 -2.0064 0.9790
4.0284 2.7930 -2.0062 0.9790
3.7629 3.1411 -2.0061 0.9790
3.4673 3.4640 -2.0059 0.9790
-1.5966 -0.5816 -0.7405 0.9926
-4.1489 -1.9464 -1.9973 0.9802
-3.9588 -2.3089 -1.9973 0.9802
-3.7372 -2.6531 -1.9974 0.9802
-3.4859 -2.9762 -1.9976 0.9802
-2.9019 -3.5490 -1.9979 0.9802
-2.5740 -3.7942 -1.9982 0.9802
-2.2255 -4.0092 -1.9984 0.9802
-0.6828 -4.5373 -1.9997 0.9802
-0.2753 -4.5810 -2.0001 0.9802
0.1345 -4.5881 -2.0004 0.9802
0.5435 -4.5587 -2.0008 0.9802
0.9482 -4.4929 -2.0012 0.9802
1.3456 -4.3913 -2.0016 0.9802
2.1055 -4.0838 -2.0024 0.9802
2.4620 -3.8804 -2.0028 0.9801
2.7989 -3.6460 -2.0032 0.9801
3.1136 -3.3823 -2.0036 0.9801
3.9001 -2.4382 -2.0046 0.9801
4.4084 -1.3188 -2.0054 0.9801
4.5089 -0.9203 -2.0056 0.9801
4.6015 -0.1043 -2.0059 0.9801
4.5927 0.3067 -2.0060 0.9801
4.3478 1.5121 -2.0062 0.9801
3.7917 2.6093 -2.0060 0.9801
3.5435 2.9370 -2.0058 0.9801
3.2671 3.2412 -2.0057 0.9801
2.6364 3.7667 -2.0037 0.9801
2.2855 3.9793 -1.9999 0.9802
-0.0625 4.2460 -1.8507 0.9816
-1.6295 4.1755 -1.9534 0.9806
-2.7413 3.6810 -2.0002 0.9802
-3.3507 3.1340 -1.9995 0.9802
-3.8531 2.4878 -1.9989 0.9802
-4.0591 2.1337 -1.9986 0.9802
-4.2328 1.7628 -1.9983 0.9802
-1.5807 0.4981 -0.7223 0.9928
-1.5228 0.3341 -0.6795 0.9932
-1.5202 0.1935 -0.6679 0.9933
-1.5285 0.0570 -0.6666 0.9933
-1.5295 -0.0797 -0.6675 0.9933
-1.5156 -0.2158 -0.6672 0.9933
-1.5871 -0.5261 -0.7287 0.9927
-4.2039 -1.8245 -1.9973 0.9802
-3.8130 -2.5428 -1.9974 0.9802
-3.5712 -2.8730 -1.9975 0.9802
-3.3008 -3.1805 -1.9977 0.9802
-3.0042 -3.4626 -1.9979 0.9802
-2.6836 -3.7173 -1.9981 0.9802
-2.3415 -3.9424 -1.9983 0.9802
-1.6040 -4.2970 -1.9989 0.9802
-1.2144 -4.4237 -1.9992 0.9802
-0.8150 -4.5152 -1.9996 0.9802
-0.4089 -4.5707 -1.9999 0.9802
0.0005 -4.5898 -2.0003 0.9802
0.8166 -4.5184 -2.0011 0.9802
1.2167 -4.4284 -2.0015 0.9802
1.6073 -4.3030 -2.0019 0.9802
1.9852 -4.1433 -2.0023 0.9802
3.0134 -3.4716 -2.0034 0.9801
4.0400 -2.1996 -2.0048 0.9801
4.4800 -1.0515 -2.0055 0.9801
4.5564 -0.6477 -2.0057 0.9801
4.5964 -0.2386 -2.0059 0.9801
4.5996 0.1725 -2.0060 0.9801
4.2490 1.7707 -2.0061 0.9801
4.0739 2.1427 -2.0061 0.9801
1.2076 4.1601 -1.8879 0.9813
0.8166 4.1745 -1.8538 0.9816
0.4402 4.2247 -1.8512 0.9816
0.0615 4.2463 -1.8508 0.9816
-0.6944 4.1907 -1.8513 0.9816
-1.4915 4.1780 -1.9334 0.9808
-1.9164 4.1541 -1.9938 0.9802
-2.2825 3.9721 -1.9966 0.9802
-2.6322 3.7587 -1.9998 0.9802
-2.9573 3.5092 -2.0000 0.9802
-3.5326 2.9266 -1.9993 0.9802
-3.7791 2.5993 -1.9990 0.9802
-3.9953 2.2515 -1.9987 0.9802
-4.1797 1.8857 -1.9984 0.9802
-1.5923 0.5534 -0.7346 0.9927
-1.5452 0.3866 -0.6942 0.9931
-1.5103 0.2372 -0.6663 0.9934
-1.5295 0.1018 -0.6681 0.9933
-1.5268 -0.0349 -0.6656 0.9934
-1.5107 -0.3087 -0.6720 0.9933
-1.5735 -0.4711 -0.7159 0.9929
-3.8856 -2.4304 -1.9974 0.9802
-3.3922 -3.0827 -1.9976 0.9802
-3.1039 -3.3733 -1.9978 0.9802
-2.7908 -3.6372 -1.9980 0.9802
-2.4555 -3.8722 -1.9983 0.9802
-2.1005 -4.0764 -1.9985 0.9802
-0.9464 -4.4892 -1.9995 0.9802
0.2765 -4.5821 -2.0006 0.9802
1.0869 -4.4617 -2.0014 0.9802
1.4809 -4.3478 -2.0018 0.9802
2.2310 -4.0170 -2.0026 0.9802
2.5810 -3.8026 -2.0029 0.9801
3.2170 -3.2846 -2.0037 0.9801
3.4978 -2.9850 -2.0040 0.9801
3.7508 -2.6614 -2.0044 0.9801
4.1653 -1.9530 -2.0050 0.9801
4.3235 -1.5737 -2.0052 0.9801
4.4472 -1.1818 -2.0054 0.9801
4.5354 -0.7804 -2.0056 0.9801
4.5873 -0.3726 -2.0058 0.9801
4.6026 0.0381 -2.0060 0.9801
4.1348 2.0229 -2.0061 0.9801
3.7091 2.7253 -2.0059 0.9801
3.1651 3.3407 -2.0056 0.9801
2.8541 3.6094 -2.0054 0.9801
2.5169 3.8438 -2.0024 0.9802
2.1600 4.0457 -1.9987 0.9802
1.7562 4.1416 -1.9605 0.9806
0.1855 4.2430 -1.8509 0.9816
-0.1938 4.2418 -1.8506 0.9816
-0.5714 4.2068 -1.8502 0.9816
-0.9548 4.1845 -1.8706 0.9814
-1.7790 4.1725 -1.9768 0.9804
-3.4459 3.0287 -1.9994 0.9802
-3.9281 2.3672 -1.9988 0.9802
-4.1230 2.0070 -1.9985 0.9802
-1.5642 0.4402 -0.7082 0.9929
-1.5269 0.1465 -0.6685 0.9933
-1.5285 -0.1272 -0.6684 0.9933
-1.5970 -0.5849 -0.7412 0.9926
-4.1455 -1.9537 -1.9973 0.9802
-3.7326 -2.6596 -1.9974 0.9802
-3.4807 -2.9822 -1.9976 0.9802
-1.8518 -4.1957 -1.9987 0.9802
-1.4703 -4.3448 -1.9990 0.9802
-0.6749 -4.5385 -1.9997 0.9802
0.1425 -4.5879 -2.0004 0.9802
1.7398 -4.2515 -2.0020 0.9802
2.8053 -3.6411 -2.0032 0.9801
4.1064 -2.0736 -2.0049 0.9801
4.5105 -0.9124 -2.0056 0.9801
4.3451 1.5197 -2.0062 0.9801
4.0056 2.2677 -2.0061 0.9801
3.7871 2.6159 -2.0060 0.9801
3.5384 2.9432 -2.0058 0.9801
3.2614 3.2469 -2.0057 0.9801
2.6298 3.7711 -2.0037 0.9801
2.2784 3.9831 -1.9999 0.9802
1.4728 4.1517 -1.9199 0.9810
1.0702 4.1639 -1.8737 0.9814
0.6861 4.1923 -1.8514 0.9816
0.3093 4.2360 -1.8510 0.9816
-1.2229 4.1819 -1.8989 0.9812
-1.6379 4.1753 -1.9547 0.9806
-2.0449 4.0947 -1.9947 0.9802
-2.4056 3.9016 -1.9976 0.9802
-2.7478 3.6762 -2.0002 0.9802
-3.3562 3.1282 -1.9995 0.9802
-3.6213 2.8158 -1.9992 0.9802
-3.8575 2.4810 -1.9989 0.9802
-4.0629 2.1267 -1.9986 0.9802
-1.5207 0.1908 -0.6679 0.9933
-1.5284 0.0543 -0.6665 0.9933
-1.5295 -0.0824 -0.6676 0.9933
-1.5150 -0.2184 -0.6671 0.9933
-3.5661 -2.8793 -1.9975 0.9802
-2.3346 -3.9465 -1.9983 0.9802
-1.5964 -4.2998 -1.9989 0.9802
-1.2066 -4.4258 -1.9992 0.9802
0.0086 -4.5898 -2.0003 0.9802
0.4181 -4.5716 -2.0007 0.9802
1.6149 -4.3002 -2.0019 0.9802
2.6976 -3.7212 -2.0031 0.9801
3.0194 -3.4663 -2.0034 0.9801
3.3173 -3.1837 -2.0038 0.9801
4.0439 -2.1925 -2.0048 0.9801
4.2240 -1.8232 -2.0050 0.9801
4.3704 -1.4392 -2.0053 0.9801
4.4818 -1.0437 -2.0055 0.9801
4.5968 -0.2305 -2.0059 0.9801
4.5993 0.1806 -2.0060 0.9801
4.5650 0.5902 -2.0061 0.9801
4.4943 0.9952 -2.0061 0.9801
4.0702 2.1498 -2.0061 0.9801
3.8620 2.5043 -2.0060 0.9801
2.7406 3.6953 -2.0050 0.9801
0.4328 4.2254 -1.8511 0.9816
-0.7018 4.1904 -1.8517 0.9816
-1.4997 4.1779 -1.9345 0.9808
-1.9237 4.1509 -1.9939 0.9802
-2.6388 3.7542 -1.9999 0.9802
-3.2636 3.2250 -1.9996 0.9802
-3.7836 2.5927 -1.9990 0.9802
-4.1830 1.8784 -1.9984 0.9802
-1.5110 0.2346 -0.6664 0.9934
-1.5296 0.0991 -0.6680 0.9933
-1.5234 -0.1744 -0.6683 0.9933
-1.5744 -0.4744 -0.7166 0.9929
-4.2524 -1.7084 -1.9972 0.9802
-3.3868 -3.0886 -1.9976 0.9802
-2.7845 -3.6421 -1.9980 0.9802
-2.4487 -3.8765 -1.9983 0.9802
-0.5342 -4.5575 -1.9998 0.9802
-0.1254 -4.5878 -2.0002 0.9802
0.2845 -4.5816 -2.0006 0.9802
1.8707 -4.1959 -2.0022 0.9802
2.2380 -4.0131 -2.0026 0.9802
2.9168 -3.5528 -2.0033 0.9801
3.2227 -3.2790 -2.0037 0.9801
3.7555 -2.6549 -2.0044 0.9801
3.9780 -2.3095 -2.0047 0.9801
4.3263 -1.5662 -2.0052 0.9801
4.4493 -1.1741 -2.0055 0.9801
4.5880 -0.3646 -2.0058 0.9801
4.6025 0.0462 -2.0060 0.9801
4.2960 1.6535 -2.0062 0.9801
4.1312 2.0301 -2.0061 0.9801
3.9335 2.3905 -2.0060 0.9801
3.4455 3.0512 -2.0058 0.9801
