ply
format ascii 1.0
element vertex 1596
property float32 x
property float32 y
property float32 z
property float32 I
end_header
-6.6704 4.2119 -1.8541 0.9681
-7.3410 3.7649 -1.9390 0.9667
-8.3608 1.7461 -2.0074 0.9655
-8.5252 -0.5302 -2.0075 0.9655
-8.4436 -1.2886 -2.0074 0.9655
-8.2946 -2.0367 -2.0073 0.9655
-8.0793 -2.7684 -2.0072 0.9655
-7.7994 -3.4778 -2.0070 0.9655
-7.0555 -4.8073 -2.0065 0.9655
-5.5279 -6.5008 -2.0055 0.9655
-2.9024 -8.0168 -2.0038 0.9656
-2.1751 -8.2418 -2.0033 0.9656
0.8442 -8.4736 -2.0013 0.9656
1.5964 -8.3624 -2.0009 0.9656
2.3355 -8.1847 -2.0004 0.9656
3.0556 -7.9418 -1.9999 0.9656
3.7511 -7.6358 -1.9994 0.9656
4.4164 -7.2691 -1.9990 0.9657
5.6357 -6.3660 -1.9982 0.9657
6.6750 -5.2613 -1.9975 0.9657
7.5017 -3.9902 -1.9970 0.9657
8.0898 -2.5930 -1.9966 0.9657
8.2884 -1.8608 -1.9964 0.9657
8.4210 -1.1139 -1.9964 0.9657
8.4153 1.1557 -1.9964 0.9657
8.2790 1.9019 -1.9964 0.9657
8.0769 2.6331 -1.9966 0.9657
7.8104 3.3435 -1.9968 0.9657
6.8577 4.5238 -1.9308 0.9668
6.1433 4.8918 -1.8456 0.9682
5.6833 5.4213 -1.8459 0.9682
2.7869 7.3519 -1.8478 0.9682
1.4366 7.7338 -1.8487 0.9682
0.0394 7.8700 -1.8496 0.9682
-0.6630 7.8440 -1.8501 0.9682
-1.3605 7.7555 -1.8506 0.9682
-4.5824 6.4143 -1.8527 0.9681
-5.1373 5.9811 -1.8530 0.9681
-6.1206 4.9746 -1.8537 0.9681
-7.8060 3.4344 -2.0043 0.9656
-8.0929 2.7282 -2.0072 0.9655
-8.4785 -1.0353 -2.0074 0.9655
-8.3520 -1.7875 -2.0074 0.9655
-7.5786 -3.9343 -2.0069 0.9655
-7.1965 -4.5942 -2.0066 0.9655
-6.7570 -5.2171 -2.0063 0.9655
-6.2636 -5.7982 -2.0060 0.9655
-5.7203 -6.3328 -2.0057 0.9655
-4.5021 -7.2457 -2.0049 0.9656
-3.1413 -7.9269 -2.0040 0.9656
-0.9295 -8.4696 -2.0025 0.9656
-0.1701 -8.5167 -2.0020 0.9656
0.5902 -8.4958 -2.0015 0.9656
1.3455 -8.4071 -2.0010 0.9656
4.8394 -6.9931 -1.9987 0.9657
5.4429 -6.5322 -1.9983 0.9657
6.0029 -6.0195 -1.9980 0.9657
6.5149 -5.4590 -1.9976 0.9657
6.9749 -4.8553 -1.9973 0.9657
7.3792 -4.2131 -1.9971 0.9657
7.7248 -3.5376 -1.9968 0.9657
8.0088 -2.8341 -1.9966 0.9657
8.2291 -2.1081 -1.9965 0.9657
8.3839 -1.3655 -1.9964 0.9657
7.5987 3.8015 -1.9969 0.9657
7.2075 4.4508 -1.9909 0.9658
5.8427 5.2484 -1.8458 0.9682
3.6408 6.9660 -1.8473 0.9682
2.3459 7.5055 -1.8481 0.9682
0.9752 7.8068 -1.8490 0.9682
0.2749 7.8646 -1.8495 0.9682
-0.4279 7.8597 -1.8499 0.9682
-1.1277 7.7921 -1.8504 0.9682
-1.8188 7.6623 -1.8509 0.9682
-3.1531 7.2206 -1.8517 0.9681
-5.4840 5.6663 -1.8533 0.9681
-8.0074 2.9692 -2.0071 0.9655
-8.5092 0.7429 -2.0075 0.9655
-8.5416 -0.0191 -2.0075 0.9655
-8.4019 -1.5367 -2.0074 0.9655
-7.9940 -3.0050 -2.0071 0.9655
-7.6933 -3.7059 -2.0069 0.9655
-6.4347 -5.6085 -2.0061 0.9655
-5.3337 -6.6603 -2.0054 0.9655
-4.7173 -7.1082 -2.0050 0.9656
-4.0634 -7.4991 -2.0046 0.9656
-3.3775 -7.8299 -2.0041 0.9656
-2.6648 -8.0981 -2.0036 0.9656
-1.1827 -8.4387 -2.0027 0.9656
2.5753 -8.1117 -2.0002 0.9656
3.2880 -7.8478 -1.9997 0.9656
3.9741 -7.5214 -1.9993 0.9656
4.6283 -7.1354 -1.9989 0.9657
8.3394 -1.6159 -1.9964 0.9657
8.4500 -0.8654 -1.9963 0.9657
8.4693 0.6501 -1.9963 0.9657
8.2196 2.1450 -1.9965 0.9657
7.3507 4.2407 -1.9945 0.9657
5.9969 5.0709 -1.8457 0.9682
4.4425 6.4814 -1.8468 0.9682
3.2213 7.1709 -1.8476 0.9682
1.8965 7.6328 -1.8484 0.9682
0.5102 7.8522 -1.8493 0.9682
-0.8939 7.8217 -1.8503 0.9682
-1.5885 7.7127 -1.8507 0.9682
-2.2708 7.5421 -1.8512 0.9682
-2.9353 7.3111 -1.8516 0.9681
-3.5766 7.0217 -1.8520 0.9681
-4.1897 6.6761 -1.8524 0.9681
-5.8113 5.3314 -1.8535 0.9681
-6.2648 4.7925 -1.8538 0.9681
-6.6683 4.2150 -1.8541 0.9681
-8.4831 0.9973 -2.0074 0.9655
-8.5384 0.2366 -2.0075 0.9655
-8.5254 -0.5261 -2.0075 0.9655
-8.4442 -1.2846 -2.0074 0.9655
-8.2956 -2.0327 -2.0073 0.9655
-7.8010 -3.4740 -2.0070 0.9655
-7.4592 -4.1557 -2.0068 0.9655
-7.0578 -4.8040 -2.0065 0.9655
-6.6000 -5.4136 -2.0062 0.9655
-6.0898 -5.9799 -2.0059 0.9655
-5.5310 -6.4981 -2.0055 0.9655
-4.2864 -7.3746 -2.0047 0.9656
-3.6106 -7.7259 -2.0043 0.9656
0.0808 -8.5173 -2.0018 0.9656
1.5924 -8.3632 -2.0009 0.9656
2.3316 -8.1858 -2.0004 0.9656
3.0518 -7.9433 -1.9999 0.9656
5.0430 -6.8471 -1.9986 0.9657
5.6326 -6.3687 -1.9982 0.9657
7.4998 -3.9938 -1.9970 0.9657
7.8254 -3.3084 -1.9968 0.9657
8.4204 -1.1179 -1.9964 0.9657
8.4864 -0.3623 -1.9963 0.9657
8.4159 1.1517 -1.9964 0.9657
8.2799 1.8980 -1.9964 0.9657
8.0781 2.6293 -1.9966 0.9657
7.8120 3.3397 -1.9968 0.9657
6.8650 4.5239 -1.9323 0.9668
5.1808 5.9053 -1.8463 0.9682
4.0505 6.7346 -1.8470 0.9682
3.4342 7.0707 -1.8474 0.9682
2.7904 7.3506 -1.8478 0.9682
0.7449 7.8327 -1.8492 0.9682
0.0432 7.8699 -1.8496 0.9682
-1.3568 7.7562 -1.8506 0.9682
-2.0439 7.6060 -1.8510 0.9682
-3.3646 7.1251 -1.8519 0.9681
-3.9877 6.7980 -1.8523 0.9681
-4.5793 6.4165 -1.8527 0.9681
-5.1345 5.9836 -1.8530 0.9681
-6.1182 4.9776 -1.8537 0.9681
-7.8041 3.4380 -2.0042 0.9656
-8.5274 0.4920 -2.0075 0.9655
-8.3529 -1.7835 -2.0074 0.9655
-7.5805 -3.9307 -2.0069 0.9655
-7.1987 -4.5907 -2.0066 0.9655
-6.7595 -5.2139 -2.0063 0.9655
-6.2664 -5.7953 -2.0060 0.9655
-5.7234 -6.3300 -2.0057 0.9655
-4.5055 -7.2435 -2.0049 0.9656
-2.6308 -7.2775 -2.0036 0.9685
-1.2951 -7.6259 -2.0027 0.9685
-0.6094 -7.7093 -2.0023 0.9686
0.7700 -7.6914 -2.0014 0.9686
2.1237 -7.4288 -2.0005 0.9686
2.7773 -7.2082 -2.0001 0.9686
3.4086 -6.9302 -1.9997 0.9686
4.0125 -6.5972 -1.9993 0.9686
5.6133 -5.2964 -1.9982 0.9686
6.4633 -4.2134 -1.9977 0.9686
7.7055 -0.3216 -1.9968 0.9686
7.7035 0.3672 -1.9968 0.9686
7.3321 2.3942 -1.9971 0.9686
7.0899 3.0390 -1.9972 0.9686
6.7911 3.6598 -1.9974 0.9686
6.4272 4.2442 -1.9942 0.9687
5.6136 4.4744 -1.8587 0.9708
3.1115 6.4219 -1.8476 0.9709
2.5267 6.6753 -1.8480 0.9709
1.3008 7.0211 -1.8488 0.9709
0.6694 7.1107 -1.8492 0.9709
0.0323 7.1437 -1.8496 0.9709
-1.8617 6.9019 -1.8509 0.9709
-3.6252 6.1664 -1.8521 0.9709
-4.6650 5.4260 -1.8527 0.9709
-5.9380 3.9988 -1.8536 0.9709
-7.0950 3.1175 -2.0065 0.9685
-7.3454 2.4723 -2.0067 0.9685
-7.7472 -0.2531 -2.0070 0.9685
-7.5785 -1.6258 -2.0069 0.9685
-7.4028 -2.2953 -2.0067 0.9685
-6.5290 -4.1724 -2.0062 0.9685
-6.1299 -4.7376 -2.0059 0.9685
-5.6819 -5.2648 -2.0056 0.9685
-5.1887 -5.7498 -2.0053 0.9685
-4.6543 -6.1887 -2.0050 0.9685
-3.4790 -6.9147 -2.0042 0.9685
-2.8477 -7.1960 -2.0038 0.9685
-2.1939 -7.4198 -2.0033 0.9685
-1.5229 -7.5843 -2.0029 0.9685
-0.8400 -7.6882 -2.0025 0.9685
0.5394 -7.7116 -2.0015 0.9686
2.5605 -7.2886 -2.0002 0.9686
3.1999 -7.0296 -1.9998 0.9686
3.8135 -6.7148 -1.9994 0.9686
4.3965 -6.3466 -1.9990 0.9686
5.4525 -5.4623 -1.9983 0.9686
5.9172 -4.9534 -1.9980 0.9686
6.7015 -3.8220 -1.9975 0.9686
7.0150 -3.2085 -1.9973 0.9686
7.2727 -2.5697 -1.9971 0.9686
6.8974 3.4548 -1.9974 0.9686
5.9779 4.4788 -1.9340 0.9696
3.3021 6.3254 -1.8475 0.9709
2.7252 6.5962 -1.8479 0.9709
2.1263 6.8144 -1.8483 0.9709
1.5102 6.9785 -1.8487 0.9709
0.8818 7.0870 -1.8491 0.9709
0.2461 7.1390 -1.8495 0.9709
-0.3918 7.1341 -1.8499 0.9709
-1.0270 7.0723 -1.8503 0.9709
-2.2685 6.7802 -1.8512 0.9709
-4.9795 5.1401 -1.8529 0.9709
-5.8154 4.1746 -1.8535 0.9709
-6.4661 3.8171 -1.9442 0.9695
-7.2679 2.6910 -2.0066 0.9685
-7.6314 1.3567 -2.0069 0.9685
-7.7513 -0.0211 -2.0070 0.9685
-7.7185 -0.7125 -2.0070 0.9685
-7.4684 -2.0727 -2.0068 0.9685
-7.2532 -2.7305 -2.0066 0.9685
-6.6512 -3.9753 -2.0063 0.9685
-3.0620 -7.1081 -2.0039 0.9685
-2.4152 -7.3513 -2.0035 0.9685
0.3084 -7.7249 -2.0017 0.9686
0.9961 -7.6648 -2.0012 0.9686
1.6756 -7.5437 -2.0008 0.9686
2.3414 -7.3625 -2.0004 0.9686
2.9882 -7.1228 -1.9999 0.9686
4.2048 -6.4757 -1.9991 0.9686
4.7649 -6.0737 -1.9988 0.9686
5.7665 -5.1285 -1.9981 0.9686
6.5844 -4.0210 -1.9976 0.9686
6.9161 -3.4172 -1.9974 0.9686
7.1927 -2.7863 -1.9972 0.9686
7.5724 -1.4635 -1.9969 0.9686
7.6725 -0.7821 -1.9969 0.9686
7.7116 -0.0945 -1.9968 0.9686
7.6059 1.2776 -1.9969 0.9686
6.2897 4.4248 -1.9911 0.9687
5.4423 4.6064 -1.8461 0.9710
5.0104 5.0744 -1.8464 0.9710
4.0303 5.8861 -1.8470 0.9710
3.4897 6.2233 -1.8474 0.9709
2.9212 6.5112 -1.8478 0.9709
2.3292 6.7473 -1.8481 0.9709
1.7183 6.9296 -1.8485 0.9709
0.4597 7.1279 -1.8494 0.9709
-0.8148 7.0993 -1.8502 0.9709
-2.0644 6.8445 -1.8510 0.9709
-2.6673 6.6345 -1.8514 0.9709
-3.8055 6.0573 -1.8522 0.9709
-4.3315 5.6947 -1.8525 0.9709
-4.8231 5.2865 -1.8528 0.9709
-5.2763 4.8359 -1.8531 0.9709
-6.8837 3.5303 -2.0030 0.9685
-7.4152 2.2550 -2.0067 0.9685
-7.7485 0.2110 -2.0070 0.9685
-7.7364 -0.4812 -2.0070 0.9685
-7.6624 -1.1694 -2.0069 0.9685
-7.5272 -1.8483 -2.0068 0.9685
-7.3319 -2.5123 -2.0067 0.9685
-7.0779 -3.1561 -2.0065 0.9685
-5.9874 -4.9159 -2.0058 0.9685
-5.5241 -5.4296 -2.0055 0.9685
-5.0169 -5.8998 -2.0052 0.9685
-4.4697 -6.3228 -2.0048 0.9685
-1.9743 -7.4807 -2.0032 0.9685
-1.2987 -7.6253 -2.0028 0.9685
-0.6131 -7.7090 -2.0023 0.9686
0.0770 -7.7312 -2.0018 0.9686
1.4491 -7.5910 -2.0009 0.9686
4.0094 -6.5991 -1.9993 0.9686
5.6107 -5.2991 -1.9982 0.9686
6.8109 -3.6228 -1.9974 0.9686
7.1063 -3.0004 -1.9972 0.9686
7.6458 -1.0114 -1.9969 0.9686
7.7036 0.3635 -1.9968 0.9686
7.5169 1.7268 -1.9969 0.9686
5.1598 4.9219 -1.8463 0.9710
4.7009 5.3634 -1.8466 0.9710
3.6742 6.1157 -1.8473 0.9710
3.1146 6.4204 -1.8476 0.9709
2.5299 6.6740 -1.8480 0.9709
1.9248 6.8746 -1.8484 0.9709
1.3041 7.0204 -1.8488 0.9709
-0.6018 7.1200 -1.8501 0.9709
-1.2349 7.0395 -1.8505 0.9709
-1.8584 6.9028 -1.8509 0.9709
-4.6624 5.4282 -1.8527 0.9709
-5.9361 4.0016 -1.8536 0.9709
-6.7637 3.7286 -1.9997 0.9686
-7.0935 3.1209 -2.0065 0.9685
-7.5363 1.8109 -2.0068 0.9685
-7.7474 -0.2494 -2.0070 0.9685
-7.4039 -2.2917 -2.0067 0.9685
-7.1694 -2.9429 -2.0066 0.9685
-6.8776 -3.5704 -2.0064 0.9685
-6.5309 -4.1693 -2.0062 0.9685
-6.1322 -4.7347 -2.0059 0.9685
-5.1915 -5.7474 -2.0053 0.9685
-4.6573 -6.1865 -2.0050 0.9685
-3.4824 -6.9130 -2.0042 0.9685
-2.8511 -7.1947 -2.0038 0.9685
-2.1975 -7.4188 -2.0033 0.9685
-0.1544 -7.7306 -2.0020 0.9686
0.5358 -7.7119 -2.0015 0.9686
1.2213 -7.6316 -2.0011 0.9686
1.8969 -7.4905 -2.0007 0.9686
2.5570 -7.2899 -2.0002 0.9686
3.8103 -6.7166 -1.9994 0.9686
5.4499 -5.4650 -1.9983 0.9686
5.9148 -4.9562 -1.9980 0.9686
6.6997 -3.8252 -1.9975 0.9686
7.6121 -1.2398 -1.9969 0.9686
7.6922 -0.5557 -1.9968 0.9686
7.7110 0.1327 -1.9968 0.9686
7.1788 2.8219 -1.9972 0.9686
6.8990 3.4514 -1.9974 0.9686
5.3045 4.7650 -1.8462 0.9710
4.8590 5.2200 -1.8465 0.9710
3.8554 6.0026 -1.8471 0.9710
2.7283 6.5948 -1.8479 0.9709
1.5136 6.9777 -1.8487 0.9709
0.8852 7.0865 -1.8491 0.9709
0.2495 7.1389 -1.8495 0.9709
-1.0236 7.0728 -1.8503 0.9709
-1.6509 6.9548 -1.8508 0.9709
-2.8618 6.5535 -1.8515 0.9709
-3.4357 6.2733 -1.8519 0.9709
-3.9825 5.9430 -1.8523 0.9709
-4.4976 5.5650 -1.8526 0.9709
-5.4168 4.6787 -1.8532 0.9709
-5.8134 4.1773 -1.8535 0.9709
-6.4601 3.8177 -1.9429 0.9695
-6.9962 3.3315 -2.0063 0.9685
-7.2666 2.6945 -2.0066 0.9685
-7.4786 2.0356 -2.0068 0.9685
-7.7188 -0.7088 -2.0070 0.9685
-7.4694 -2.0691 -2.0068 0.9685
-7.2545 -2.7271 -2.0066 0.9685
-6.9817 -3.3631 -2.0065 0.9685
-6.2714 -4.5492 -2.0060 0.9685
-5.8397 -5.0899 -2.0057 0.9685
-4.2813 -6.4513 -2.0047 0.9685
-2.4187 -7.3502 -2.0035 0.9685
-1.7529 -7.5350 -2.0030 0.9685
-1.0735 -7.6596 -2.0026 0.9685
-0.3858 -7.7231 -2.0022 0.9686
0.3047 -7.7250 -2.0017 0.9686
1.6720 -7.5445 -2.0008 0.9686
2.9848 -7.1242 -1.9999 0.9686
4.2017 -6.4778 -1.9991 0.9686
4.7620 -6.0760 -1.9988 0.9686
5.7641 -5.1313 -1.9981 0.9686
6.5825 -4.0242 -1.9976 0.9686
6.9145 -3.4205 -1.9974 0.9686
7.1914 -2.7897 -1.9972 0.9686
7.4110 -2.1369 -1.9970 0.9686
7.5717 -1.4671 -1.9969 0.9686
7.6722 -0.7857 -1.9969 0.9686
7.6896 0.5902 -1.9968 0.9686
7.6065 1.2739 -1.9969 0.9686
7.4629 1.9475 -1.9970 0.9686
7.2598 2.6057 -1.9971 0.9686
6.6825 3.8552 -1.9975 0.9686
5.0128 5.0720 -1.8464 0.9710
4.0331 5.8841 -1.8470 0.9710
3.4927 6.2217 -1.8474 0.9709
1.0969 7.0563 -1.8490 0.9709
0.4631 7.1277 -1.8494 0.9709
-0.1747 7.1422 -1.8498 0.9709
-1.4418 7.0006 -1.8506 0.9709
-2.6641 6.6358 -1.8514 0.9709
-3.8025 6.0591 -1.8522 0.9709
-4.8205 5.2888 -1.8528 0.9709
-5.2740 4.8385 -1.8531 0.9709
-6.0968 3.8538 -1.8675 0.9706
-6.8818 3.5335 -2.0030 0.9685
-7.1825 2.9107 -2.0066 0.9685
-7.4141 2.2585 -2.0067 0.9685
-7.5865 1.5882 -2.0069 0.9685
-7.6982 0.9050 -2.0069 0.9685
-7.7484 0.2147 -2.0070 0.9685
-7.5281 -1.8447 -2.0068 0.9685
-6.7693 -3.7713 -2.0063 0.9685
-5.9898 -4.9131 -2.0058 0.9685
-5.5267 -5.4270 -2.0055 0.9685
-4.4728 -6.3206 -2.0048 0.9685
-3.2770 -7.0121 -2.0040 0.9685
-2.6378 -7.2750 -2.0036 0.9685
-1.3024 -7.6247 -2.0028 0.9685
-0.6168 -7.7087 -2.0023 0.9686
0.7626 -7.6921 -2.0014 0.9686
2.1166 -7.4309 -2.0005 0.9686
2.7704 -7.2109 -2.0001 0.9686
4.0062 -6.6011 -1.9993 0.9686
4.5783 -6.2162 -1.9989 0.9686
5.6082 -5.3018 -1.9982 0.9686
6.4593 -4.2195 -1.9977 0.9686
7.1049 -3.0038 -1.9972 0.9686
7.3439 -2.3578 -1.9971 0.9686
7.6453 -1.0150 -1.9969 0.9686
7.7052 -0.3290 -1.9968 0.9686
7.7038 0.3598 -1.9968 0.9686
7.6412 1.0457 -1.9969 0.9686
7.5177 1.7233 -1.9969 0.9686
7.3344 2.3872 -1.9971 0.9686
7.0928 3.0322 -1.9972 0.9686
6.4316 4.2383 -1.9943 0.9687
5.6248 4.4746 -1.8610 0.9707
4.7034 5.3612 -1.8466 0.9710
3.6771 6.1139 -1.8473 0.9710
0.6762 7.1101 -1.8492 0.9709
-2.4642 6.7121 -1.8513 0.9709
-3.0538 6.4668 -1.8517 0.9709
-3.6192 6.1698 -1.8520 0.9709
-5.1266 4.9939 -1.8530 0.9709
-7.3430 2.4794 -2.0067 0.9685
-7.5354 1.8145 -2.0068 0.9685
-7.6676 1.1350 -2.0069 0.9685
-7.4050 -2.2882 -2.0067 0.9685
-7.1708 -2.9395 -2.0066 0.9685
-6.8794 -3.5671 -2.0064 0.9685
-6.1344 -4.7318 -2.0059 0.9685
-5.6870 -5.2594 -2.0056 0.9685
-4.6602 -6.1843 -2.0050 0.9685
-2.4060 -6.6556 -2.0035 0.9710
-1.1844 -6.9744 -2.0027 0.9710
0.0738 -7.0710 -2.0018 0.9710
1.3288 -6.9424 -2.0010 0.9710
1.9424 -6.7948 -2.0006 0.9710
4.1933 -5.6820 -1.9991 0.9711
4.6827 -5.2844 -1.9988 0.9711
6.7202 -2.1505 -1.9975 0.9711
6.8849 -1.5423 -1.9974 0.9711
7.0490 -0.2942 -1.9973 0.9711
7.0471 0.3359 -1.9973 0.9711
6.9892 0.9633 -1.9973 0.9711
6.8756 1.5830 -1.9974 0.9711
6.7074 2.1902 -1.9975 0.9711
5.5015 4.3851 -1.9916 0.9712
4.7177 4.5045 -1.8466 0.9732
4.2977 4.9082 -1.8469 0.9732
2.8461 5.8740 -1.8478 0.9732
2.3111 6.1057 -1.8482 0.9732
1.7575 6.2887 -1.8485 0.9732
1.1897 6.4218 -1.8489 0.9732
0.6122 6.5036 -1.8493 0.9732
-0.5536 6.5116 -1.8500 0.9732
-1.1325 6.4376 -1.8504 0.9732
-1.7027 6.3121 -1.8508 0.9732
-3.8058 5.3219 -1.8522 0.9732
-4.2661 4.9619 -1.8525 0.9732
-5.7313 3.8596 -1.9561 0.9717
-6.2047 3.4166 -2.0052 0.9710
-6.4878 2.8507 -2.0061 0.9710
-6.8921 1.6526 -2.0064 0.9710
-7.0123 1.0312 -2.0065 0.9710
-7.0765 0.4015 -2.0065 0.9710
-7.0841 -0.2314 -2.0065 0.9710
-7.0351 -0.8625 -2.0065 0.9710
-6.7693 -2.0988 -2.0063 0.9710
-6.5546 -2.6942 -2.0062 0.9710
-6.2875 -3.2679 -2.0060 0.9710
-5.6054 -4.3323 -2.0056 0.9710
-5.1959 -4.8145 -2.0053 0.9710
-4.7450 -5.2581 -2.0050 0.9710
-3.7338 -6.0156 -2.0043 0.9710
-3.1816 -6.3236 -2.0040 0.9710
-2.6043 -6.5810 -2.0036 0.9710
-2.0064 -6.7858 -2.0032 0.9710
-1.3928 -6.9363 -2.0028 0.9710
-0.7682 -7.0315 -2.0024 0.9710
1.1204 -6.9796 -2.0012 0.9710
2.3420 -6.6667 -2.0004 0.9711
2.9269 -6.4299 -2.0000 0.9711
3.4882 -6.1420 -1.9996 0.9711
4.0215 -5.8053 -1.9993 0.9711
4.5227 -5.4225 -1.9989 0.9711
4.9876 -4.9966 -1.9986 0.9711
5.7947 -4.0296 -1.9981 0.9711
6.1304 -3.4962 -1.9979 0.9711
6.8358 -1.7477 -1.9974 0.9711
6.9641 -1.1308 -1.9973 0.9711
7.0540 0.1248 -1.9973 0.9711
7.0148 0.7536 -1.9973 0.9711
6.0031 3.7110 -1.9979 0.9711
5.6381 4.2243 -1.9944 0.9711
4.9344 4.4367 -1.8785 0.9728
4.4425 4.7771 -1.8468 0.9732
2.4927 6.0334 -1.8480 0.9732
1.3813 6.3828 -1.8488 0.9732
0.8065 6.4819 -1.8491 0.9732
-0.3584 6.5248 -1.8499 0.9732
-0.9392 6.4681 -1.8503 0.9732
-1.5128 6.3598 -1.8507 0.9732
-2.6200 5.9921 -1.8514 0.9732
-3.6446 5.4331 -1.8521 0.9732
-5.4203 3.8910 -1.8889 0.9726
-6.0906 3.5954 -2.0022 0.9710
-6.6459 2.4607 -2.0062 0.9710
-6.8394 1.8581 -2.0064 0.9710
-7.0613 0.6131 -2.0065 0.9710
-6.3827 -3.0783 -2.0061 0.9710
-4.4240 -5.5299 -2.0048 0.9710
-3.9124 -5.9015 -2.0045 0.9710
-3.3697 -6.2259 -2.0041 0.9710
-2.8003 -6.5005 -2.0037 0.9710
-2.2088 -6.7231 -2.0033 0.9710
-1.5999 -6.8920 -2.0029 0.9710
-0.9784 -7.0058 -2.0025 0.9710
3.8462 -5.9234 -1.9994 0.9711
4.3586 -5.5557 -1.9990 0.9711
4.8361 -5.1439 -1.9987 0.9711
5.2749 -4.6913 -1.9984 0.9711
6.3267 -3.1260 -1.9977 0.9711
6.5798 -2.5489 -1.9976 0.9711
7.0546 -0.0864 -1.9973 0.9711
7.0342 0.5433 -1.9973 0.9711
6.9579 1.1687 -1.9973 0.9711
6.8261 1.7849 -1.9974 0.9711
6.6401 2.3869 -1.9975 0.9711
6.1113 3.5295 -1.9979 0.9711
5.7701 4.0594 -1.9972 0.9711
5.2454 4.4398 -1.9454 0.9718
3.1921 5.6925 -1.8476 0.9732
2.1304 6.1715 -1.8483 0.9732
0.4204 6.5193 -1.8494 0.9732
-0.1629 6.5321 -1.8498 0.9732
-0.7452 6.4929 -1.8502 0.9732
-1.3217 6.4018 -1.8505 0.9732
-2.4393 6.0675 -1.8513 0.9732
-2.9715 5.8267 -1.8516 0.9732
-4.8250 4.4223 -1.8528 0.9732
-6.3052 3.2337 -2.0060 0.9710
-6.5691 2.6585 -2.0062 0.9710
-6.9379 1.4489 -2.0064 0.9710
-7.0397 0.8242 -2.0065 0.9710
-7.0853 0.1929 -2.0065 0.9710
-7.0742 -0.4400 -2.0065 0.9710
-7.0066 -1.0693 -2.0065 0.9710
-6.7044 -2.2973 -2.0063 0.9710
-6.1884 -3.4516 -2.0060 0.9710
-4.0875 -5.7821 -2.0046 0.9710
-3.5548 -6.1226 -2.0042 0.9710
-2.4092 -6.6544 -2.0035 0.9710
-1.8056 -6.8415 -2.0031 0.9710
-1.1878 -6.9738 -2.0027 0.9710
-0.5608 -7.0506 -2.0023 0.9710
0.0705 -7.0710 -2.0019 0.9710
0.7009 -7.0351 -2.0014 0.9710
1.3254 -6.9431 -2.0010 0.9710
2.5372 -6.5944 -2.0002 0.9711
3.1148 -6.3405 -1.9999 0.9711
3.6674 -6.0363 -1.9995 0.9711
4.6802 -5.2867 -1.9988 0.9711
5.1324 -4.8473 -1.9985 0.9711
5.5436 -4.3695 -1.9983 0.9711
6.2305 -3.3140 -1.9978 0.9711
6.9943 -0.9252 -1.9973 0.9711
7.0489 -0.2975 -1.9973 0.9711
6.9897 0.9599 -1.9973 0.9711
6.8764 1.5797 -1.9974 0.9711
6.7084 2.1870 -1.9975 0.9711
6.2140 3.3449 -1.9978 0.9711
5.8914 3.8864 -1.9980 0.9711
5.5037 4.3825 -1.9917 0.9712
3.3608 5.5941 -1.8475 0.9732
2.8489 5.8727 -1.8478 0.9732
2.3140 6.1046 -1.8482 0.9732
1.7606 6.2879 -1.8485 0.9732
0.0327 6.5336 -1.8496 0.9732
-1.6996 6.3129 -1.8508 0.9732
-2.2565 6.1373 -1.8512 0.9732
-2.7956 5.9127 -1.8515 0.9732
-3.3125 5.6408 -1.8518 0.9732
-3.8032 5.3237 -1.8522 0.9732
-4.2637 4.9640 -1.8525 0.9732
-5.7261 3.8601 -1.9550 0.9717
-6.2029 3.4195 -2.0052 0.9710
-6.7157 2.2640 -2.0063 0.9710
-7.0118 1.0345 -2.0065 0.9710
-7.0763 0.4049 -2.0065 0.9710
-6.9306 -1.4833 -2.0064 0.9710
-6.7703 -2.0956 -2.0063 0.9710
-5.9721 -3.8126 -2.0058 0.9710
-5.1982 -4.8120 -2.0053 0.9710
-2.0097 -6.7848 -2.0032 0.9710
-1.3961 -6.9356 -2.0028 0.9710
-0.7716 -7.0311 -2.0024 0.9710
-0.1412 -7.0704 -2.0020 0.9710
0.4900 -7.0534 -2.0016 0.9710
1.7350 -6.8512 -2.0008 0.9710
2.3388 -6.6678 -2.0004 0.9711
2.9238 -6.4313 -2.0000 0.9711
4.5201 -5.4247 -1.9989 0.9711
5.4106 -4.5337 -1.9983 0.9711
6.1287 -3.4992 -1.9979 0.9711
6.4158 -2.9382 -1.9977 0.9711
6.9636 -1.1342 -1.9973 0.9711
7.0368 -0.5084 -1.9973 0.9711
7.0152 0.7503 -1.9973 0.9711
6.9205 1.3732 -1.9973 0.9711
6.3111 3.1573 -1.9977 0.9711
6.0049 3.7081 -1.9979 0.9711
5.6402 4.2217 -1.9944 0.9711
4.9392 4.4368 -1.8795 0.9728
4.4448 4.7750 -1.8468 0.9732
3.0232 5.7844 -1.8477 0.9732
2.4956 6.0322 -1.8480 0.9732
1.9478 6.2320 -1.8484 0.9732
1.3844 6.3822 -1.8488 0.9732
-0.9361 6.4686 -1.8503 0.9732
-1.5098 6.3606 -1.8507 0.9732
-2.0716 6.2017 -1.8510 0.9732
-2.6172 5.9934 -1.8514 0.9732
-4.1130 5.0891 -1.8524 0.9732
-4.5513 4.7026 -1.8527 0.9732
-6.6448 2.4639 -2.0062 0.9710
-6.9776 1.2440 -2.0065 0.9710
-7.0581 -0.6481 -2.0065 0.9710
-6.8301 -1.8920 -2.0064 0.9710
-6.6336 -2.4937 -2.0062 0.9710
-5.3402 -4.6545 -2.0054 0.9710
-4.4267 -5.5278 -2.0048 0.9710
-3.9152 -5.8996 -2.0045 0.9710
-3.3727 -6.2243 -2.0041 0.9710
-2.8034 -6.4992 -2.0037 0.9710
0.2787 -7.0654 -2.0017 0.9710
0.9077 -7.0109 -2.0013 0.9710
1.5292 -6.9006 -2.0009 0.9710
2.1383 -6.7353 -2.0005 0.9711
3.8433 -5.9253 -1.9994 0.9711
4.3559 -5.5578 -1.9990 0.9711
4.8336 -5.1463 -1.9987 0.9711
5.6697 -4.2042 -1.9982 0.9711
6.0214 -3.6812 -1.9979 0.9711
6.5786 -2.5520 -1.9976 0.9711
6.9266 -1.3421 -1.9973 0.9711
7.0546 -0.0898 -1.9973 0.9711
6.1130 3.5266 -1.9979 0.9711
4.5855 4.6396 -1.8467 0.9732
4.1539 5.0309 -1.8469 0.9732
3.6891 5.3823 -1.8473 0.9732
3.1948 5.6910 -1.8476 0.9732
2.6748 5.9544 -1.8479 0.9732
2.1334 6.1705 -1.8483 0.9732
0.4235 6.5191 -1.8494 0.9732
-0.7421 6.4933 -1.8502 0.9732
-1.8849 6.2606 -1.8509 0.9732
-2.9687 5.8282 -1.8516 0.9732
-4.4082 4.8365 -1.8526 0.9732
-4.8229 4.4246 -1.8528 0.9732
-5.1991 3.9772 -1.8531 0.9732
-5.9696 3.7734 -1.9993 0.9711
-6.3037 3.2367 -2.0060 0.9710
-6.5679 2.6616 -2.0062 0.9710
-6.9372 1.4522 -2.0064 0.9710
-7.0393 0.8276 -2.0065 0.9710
-7.0852 0.1963 -2.0065 0.9710
-7.0744 -0.4366 -2.0065 0.9710
-7.0071 -1.0660 -2.0065 0.9710
-6.8838 -1.6868 -2.0064 0.9710
-6.7055 -2.2940 -2.0063 0.9710
-6.4736 -2.8829 -2.0061 0.9710
-6.1900 -3.4486 -2.0060 0.9710
-5.8570 -3.9867 -2.0057 0.9710
-5.0540 -4.9628 -2.0052 0.9710
-4.0903 -5.7801 -2.0046 0.9710
-3.5577 -6.1209 -2.0042 0.9710
-2.9969 -6.4127 -2.0039 0.9710
-1.1911 -6.9733 -2.0027 0.9710
2.5340 -6.5956 -2.0002 0.9711
3.1118 -6.3420 -1.9999 0.9711
3.6645 -6.0380 -1.9995 0.9711
5.1301 -4.8498 -1.9985 0.9711
5.5415 -4.3722 -1.9983 0.9711
5.9088 -3.8599 -1.9980 0.9711
6.2289 -3.3170 -1.9978 0.9711
6.8834 -1.5489 -1.9974 0.9711
6.9939 -0.9286 -1.9973 0.9711
7.0475 0.3291 -1.9973 0.9711
6.7095 2.1838 -1.9975 0.9711
6.4884 2.7738 -1.9976 0.9711
6.2156 3.3419 -1.9978 0.9711
5.8933 3.8835 -1.9980 0.9711
5.5059 4.3800 -1.9917 0.9712
3.8484 5.2692 -1.8471 0.9732
3.3635 5.5925 -1.8475 0.9732
2.8517 5.8713 -1.8478 0.9732
1.7636 6.2870 -1.8485 0.9732
-1.1263 6.4386 -1.8504 0.9732
-4.2613 4.9660 -1.8525 0.9732
-5.0775 4.1309 -1.8530 0.9732
-5.7210 3.8606 -1.9538 0.9717
-6.2011 3.4223 -2.0051 0.9710
-6.8905 1.6592 -2.0064 0.9710
-7.0359 -0.8558 -2.0065 0.9710
-5.9740 -3.8097 -2.0058 0.9710
-5.6096 -4.3270 -2.0056 0.9710
-5.2005 -4.8095 -2.0053 0.9710
-4.7500 -5.2535 -2.0050 0.9710
-2.2143 -6.1253 -2.0033 0.9731
-1.6587 -6.2973 -2.0030 0.9731
-1.0901 -6.4190 -2.0026 0.9731
-0.5130 -6.4894 -2.0022 0.9731
0.0680 -6.5081 -2.0019 0.9731
1.2230 -6.3900 -2.0011 0.9731
4.3104 -4.8643 -1.9991 0.9732
6.3379 -1.4197 -1.9977 0.9732
6.4873 0.3092 -1.9976 0.9732
5.4215 3.5801 -1.9983 0.9732
5.0779 4.0474 -1.9973 0.9732
4.6138 4.4053 -1.9621 0.9737
3.9561 4.5180 -1.8471 0.9752
2.6197 5.4069 -1.8480 0.9752
2.1273 5.6200 -1.8483 0.9752
1.6177 5.7884 -1.8486 0.9752
1.0951 5.9107 -1.8490 0.9752
0.5635 5.9860 -1.8493 0.9752
-1.0423 5.9249 -1.8504 0.9751
-1.5670 5.8094 -1.8507 0.9751
-2.0794 5.6474 -1.8510 0.9751
-2.5754 5.4404 -1.8514 0.9751
-3.0510 5.1898 -1.8517 0.9751
-3.9260 4.5664 -1.8523 0.9751
-4.3183 4.1985 -1.8525 0.9751
-6.3423 1.5208 -2.0060 0.9731
-6.5190 -0.2130 -2.0062 0.9731
-6.4739 -0.7937 -2.0061 0.9731
-6.3771 -1.3680 -2.0061 0.9731
-6.0317 -2.4793 -2.0058 0.9731
-5.7860 -3.0073 -2.0057 0.9731
-5.4942 -3.5111 -2.0055 0.9731
-5.1585 -3.9869 -2.0053 0.9731
-4.7816 -4.4306 -2.0050 0.9731
-1.8466 -6.2452 -2.0031 0.9731
-1.2818 -6.3839 -2.0027 0.9731
-0.7071 -6.4716 -2.0024 0.9731
1.0313 -6.4241 -2.0012 0.9731
1.6000 -6.3053 -2.0008 0.9731
3.7018 -5.3437 -1.9995 0.9732
4.9826 -4.1710 -1.9986 0.9732
5.9074 -2.7019 -1.9980 0.9732
6.2927 -1.6088 -1.9978 0.9732
6.4781 -0.4649 -1.9976 0.9732
6.4937 0.1149 -1.9976 0.9732
6.4576 0.6937 -1.9976 0.9732
6.3701 1.2671 -1.9977 0.9732
6.2320 1.8304 -1.9978 0.9732
5.8083 2.9092 -1.9981 0.9732
5.5261 3.4161 -1.9983 0.9732
5.1998 3.8959 -1.9985 0.9732
4.8169 4.3312 -1.9924 0.9733
3.6813 4.7453 -1.8473 0.9752
3.2437 5.0556 -1.8475 0.9752
2.7802 5.3257 -1.8478 0.9752
1.2714 5.8750 -1.8488 0.9752
-0.3298 6.0053 -1.8499 0.9751
-2.8942 5.2785 -1.8516 0.9751
-4.1905 4.3257 -1.8524 0.9751
-4.5755 3.9482 -1.8589 0.9750
-6.1158 2.2644 -2.0059 0.9731
-6.4215 1.1416 -2.0061 0.9731
-6.5224 -0.0177 -2.0062 0.9731
-6.4948 -0.5996 -2.0061 0.9731
-5.5970 -3.3452 -2.0056 0.9731
-5.2757 -3.8308 -2.0054 0.9731
-4.5098 -4.7062 -2.0049 0.9731
-4.0714 -5.0891 -2.0046 0.9731
-1.4724 -6.3431 -2.0029 0.9731
-0.3216 -6.5013 -2.0021 0.9731
0.8386 -6.4525 -2.0013 0.9731
1.9712 -6.1985 -2.0006 0.9731
2.5159 -5.9968 -2.0002 0.9732
3.5404 -5.4524 -1.9996 0.9732
4.8557 -4.3184 -1.9987 0.9732
5.2210 -3.8676 -1.9985 0.9732
5.5446 -3.3860 -1.9983 0.9732
5.8240 -2.8776 -1.9981 0.9732
6.2418 -1.7965 -1.9978 0.9732
6.3769 -1.2324 -1.9977 0.9732
6.4613 -0.6586 -1.9976 0.9732
6.1126 2.1972 -1.9979 0.9732
5.8926 2.7340 -1.9980 0.9732
5.6257 3.2491 -1.9982 0.9732
5.3139 3.7384 -1.9984 0.9732
4.9504 4.1901 -1.9948 0.9732
3.8215 4.6328 -1.8472 0.9752
3.3934 4.9560 -1.8474 0.9752
2.9382 5.2398 -1.8477 0.9752
2.4595 5.4820 -1.8481 0.9752
1.9609 5.6805 -1.8484 0.9752
0.9206 5.9408 -1.8491 0.9752
-0.6858 5.9759 -1.8501 0.9751
-1.7376 5.7610 -1.8508 0.9751
-2.2450 5.5841 -1.8511 0.9751
-5.8023 2.9757 -2.0057 0.9731
-6.0451 2.4464 -2.0058 0.9731
-6.2397 1.8975 -2.0060 0.9731
-6.3844 1.3333 -2.0061 0.9731
-6.4781 0.7585 -2.0061 0.9731
-5.6948 -3.1763 -2.0056 0.9731
-5.3882 -3.6713 -2.0054 0.9731
-5.0386 -4.1369 -2.0052 0.9731
-3.7617 -5.3212 -2.0044 0.9731
-1.6617 -6.2965 -2.0030 0.9731
-1.0932 -6.4185 -2.0026 0.9731
0.6451 -6.4751 -2.0015 0.9731
1.2200 -6.3906 -2.0011 0.9731
1.7849 -6.2551 -2.0007 0.9731
2.3354 -6.0698 -2.0004 0.9731
2.8671 -5.8362 -2.0000 0.9732
3.3758 -5.5563 -1.9997 0.9732
3.8574 -5.2321 -1.9994 0.9732
4.7244 -4.4621 -1.9988 0.9732
5.4409 -3.5506 -1.9983 0.9732
5.9842 -2.5266 -1.9980 0.9732
6.1854 -1.9826 -1.9978 0.9732
6.3373 -1.4228 -1.9977 0.9732
6.4875 0.3061 -1.9976 0.9732
6.3301 1.4542 -1.9977 0.9732
5.9716 2.5563 -1.9980 0.9732
5.7202 3.0791 -1.9981 0.9732
4.6183 4.4053 -1.9631 0.9736
3.9582 4.5161 -1.8471 0.9752
3.5401 4.8519 -1.8474 0.9752
2.6223 5.4056 -1.8480 0.9752
2.1300 5.6190 -1.8483 0.9752
1.6205 5.7876 -1.8486 0.9752
1.0979 5.9102 -1.8490 0.9752
0.0301 6.0135 -1.8497 0.9751
-0.5066 5.9934 -1.8500 0.9751
-2.0767 5.6484 -1.8510 0.9751
-3.0485 5.1912 -1.8517 0.9751
-3.5001 4.8993 -1.8520 0.9751
-3.9238 4.5682 -1.8522 0.9751
-4.3163 4.2006 -1.8525 0.9751
-5.9691 2.6262 -2.0058 0.9731
-6.1800 2.0834 -2.0059 0.9731
-6.3415 1.5238 -2.0060 0.9731
-6.4524 0.9520 -2.0061 0.9731
-6.4743 -0.7906 -2.0061 0.9731
-6.3777 -1.3650 -2.0061 0.9731
-6.0329 -2.4764 -2.0058 0.9731
-5.1604 -3.9844 -2.0053 0.9731
-4.7837 -4.4283 -2.0050 0.9731
-4.3690 -4.8368 -2.0048 0.9731
-3.4388 -5.5346 -2.0042 0.9731
-2.9309 -5.8183 -2.0038 0.9731
-0.7102 -6.4712 -2.0024 0.9731
-0.1300 -6.5075 -2.0020 0.9731
0.4510 -6.4920 -2.0016 0.9731
1.0282 -6.4246 -2.0012 0.9731
1.5970 -6.3061 -2.0008 0.9731
2.6913 -5.9198 -2.0001 0.9732
3.2081 -5.6551 -1.9998 0.9732
4.1607 -4.9934 -1.9992 0.9732
4.5890 -4.6017 -1.9989 0.9732
4.9806 -4.1734 -1.9986 0.9732
5.6417 -3.2211 -1.9982 0.9732
6.1234 -2.1669 -1.9979 0.9732
6.4778 -0.4680 -1.9976 0.9732
6.4937 0.1118 -1.9976 0.9732
6.2328 1.8275 -1.9978 0.9732
5.8097 2.9065 -1.9981 0.9732
5.5277 3.4135 -1.9982 0.9732
3.2461 5.0541 -1.8475 0.9752
2.7828 5.3244 -1.8478 0.9752
2.2971 5.5524 -1.8482 0.9752
1.7929 5.7362 -1.8485 0.9752
0.2101 6.0095 -1.8495 0.9751
-1.3896 5.8540 -1.8506 0.9751
-1.9066 5.7077 -1.8509 0.9751
-3.3517 5.0017 -1.8519 0.9751
-4.1884 4.3277 -1.8524 0.9751
-5.6135 3.3174 -2.0056 0.9731
-6.1147 2.2674 -2.0059 0.9731
-6.2930 1.7129 -2.0060 0.9731
-6.4210 1.1447 -2.0061 0.9731
-6.4977 0.5673 -2.0061 0.9731
-6.5224 -0.0146 -2.0062 0.9731
-6.4158 -1.1735 -2.0061 0.9731
-6.1045 -2.2948 -2.0059 0.9731
-5.8750 -2.8300 -2.0057 0.9731
-5.2775 -3.8283 -2.0054 0.9731
-4.9144 -4.2833 -2.0051 0.9731
-4.5120 -4.7041 -2.0049 0.9731
-4.0738 -5.0871 -2.0046 0.9731
-3.6032 -5.4294 -2.0043 0.9731
-3.1039 -5.7283 -2.0039 0.9731
-2.5801 -5.9813 -2.0036 0.9731
-2.0358 -6.1866 -2.0032 0.9731
0.8355 -6.4529 -2.0013 0.9731
1.4076 -6.3515 -2.0010 0.9731
3.5377 -5.4541 -1.9996 0.9732
4.0096 -5.1160 -1.9993 0.9732
5.8226 -2.8804 -1.9981 0.9732
6.0559 -2.3493 -1.9979 0.9732
6.2410 -1.7995 -1.9978 0.9732
6.3763 -1.2355 -1.9977 0.9732
6.4610 -0.6617 -1.9976 0.9732
6.4757 0.4970 -1.9976 0.9732
6.4056 1.0728 -1.9977 0.9732
5.6272 3.2464 -1.9982 0.9732
4.9525 4.1878 -1.9949 0.9732
4.3519 4.4033 -1.9042 0.9744
3.8237 4.6310 -1.8472 0.9752
2.4621 5.4808 -1.8481 0.9752
1.9637 5.6796 -1.8484 0.9752
1.4494 5.8332 -1.8487 0.9752
0.9234 5.9404 -1.8491 0.9752
0.3898 6.0002 -1.8494 0.9752
-0.1470 6.0122 -1.8498 0.9751
-1.2136 5.8926 -1.8505 0.9751
-2.2423 5.5851 -1.8511 0.9751
-2.7321 5.3638 -1.8515 0.9751
-3.6430 4.7944 -1.8521 0.9751
-4.0568 4.4509 -1.8523 0.9751
-4.4383 4.0718 -1.8526 0.9751
-5.5084 3.4818 -2.0044 0.9731
-5.8009 2.9785 -2.0057 0.9731
-6.0440 2.4493 -2.0058 0.9731
-6.3838 1.3364 -2.0061 0.9731
-6.4777 0.7615 -2.0061 0.9731
-6.5199 0.1806 -2.0062 0.9731
-6.3346 -1.5522 -2.0060 0.9731
-5.9572 -2.6529 -2.0058 0.9731
-5.6963 -3.1736 -2.0056 0.9731
-5.3899 -3.6687 -2.0054 0.9731
-4.2245 -4.9631 -2.0047 0.9731
-3.7643 -5.3194 -2.0044 0.9731
-2.7581 -5.9018 -2.0037 0.9731
-1.0963 -6.4180 -2.0026 0.9731
-0.5192 -6.4889 -2.0022 0.9731
0.0617 -6.5081 -2.0019 0.9731
1.2169 -6.3912 -2.0011 0.9731
2.8643 -5.8376 -2.0000 0.9732
3.3731 -5.5579 -1.9997 0.9732
5.1011 -4.0247 -1.9985 0.9732
5.7340 -3.0535 -1.9981 0.9732
6.1844 -1.9855 -1.9978 0.9732
6.4876 0.3030 -1.9976 0.9732
6.1764 2.0103 -1.9978 0.9732
5.9729 2.5535 -1.9980 0.9732
5.7217 3.0764 -1.9981 0.9732
5.4250 3.5749 -1.9983 0.9732
3.9604 4.5142 -1.8471 0.9752
3.0960 5.1478 -1.8476 0.9752
2.1327 5.6179 -1.8483 0.9752
0.0330 6.0135 -1.8497 0.9751
-0.5037 5.9936 -1.8500 0.9751
-2.5702 5.4428 -1.8514 0.9751
-3.0460 5.1927 -1.8517 0.9751
-3.4977 4.9010 -1.8520 0.9751
-3.9216 4.5701 -1.8522 0.9751
-4.3143 4.2026 -1.8525 0.9751
-4.8220 3.9230 -1.9120 0.9743
-5.7090 3.1507 -2.0056 0.9731
-5.9678 2.6291 -2.0058 0.9731
-6.3408 1.5269 -2.0060 0.9731
-6.5116 0.3757 -2.0062 0.9731
-6.3784 -1.3619 -2.0061 0.9731
-5.4975 -3.5059 -2.0055 0.9731
-5.1623 -3.9819 -2.0053 0.9731
-3.9220 -5.2046 -2.0045 0.9731
-2.0488 -5.6675 -2.0032 0.9749
-1.5348 -5.8267 -2.0029 0.9749
-0.4747 -6.0047 -2.0022 0.9749
2.1638 -5.6157 -2.0005 0.9750
2.6557 -5.3994 -2.0002 0.9750
3.1263 -5.1402 -1.9998 0.9750
3.5719 -4.8401 -1.9995 0.9750
3.9889 -4.5015 -1.9993 0.9750
5.0368 -3.2834 -1.9986 0.9750
5.3092 -2.8207 -1.9984 0.9750
5.7251 -1.8320 -1.9981 0.9750
5.8655 -1.3139 -1.9980 0.9750
5.9591 -0.7854 -1.9980 0.9750
6.0053 -0.2506 -1.9979 0.9750
6.0037 0.2862 -1.9979 0.9750
5.7142 1.8659 -1.9981 0.9750
5.5253 2.3684 -1.9983 0.9750
5.0173 3.3132 -1.9986 0.9750
4.7022 3.7479 -1.9988 0.9750
2.8605 4.7664 -1.8478 0.9768
2.4242 5.0034 -1.8481 0.9768
1.9685 5.2005 -1.8484 0.9768
1.0133 5.4694 -1.8490 0.9768
0.5214 5.5390 -1.8493 0.9768
0.0252 5.5644 -1.8497 0.9768
-1.4499 5.3753 -1.8506 0.9768
-1.9240 5.2253 -1.8509 0.9768
-3.6324 4.2249 -1.8521 0.9768
-4.0824 3.9692 -1.8927 0.9763
-4.6695 3.7915 -1.9994 0.9750
-5.0035 3.3695 -2.0052 0.9749
-5.2846 2.9099 -2.0053 0.9749
-5.7185 1.9247 -2.0056 0.9749
-6.0246 0.3418 -2.0058 0.9749
-5.5804 -2.2938 -2.0056 0.9749
-5.0831 -3.2485 -2.0052 0.9749
-2.7092 -5.3846 -2.0037 0.9749
-0.6542 -5.9881 -2.0023 0.9749
0.9543 -5.9445 -2.0013 0.9749
2.4930 -5.4768 -2.0003 0.9750
2.9712 -5.2317 -1.9999 0.9750
3.4256 -4.9451 -1.9996 0.9750
4.6110 -3.8599 -1.9989 0.9750
4.9364 -3.4328 -1.9987 0.9750
5.4669 -2.5004 -1.9983 0.9750
5.8236 -1.4889 -1.9981 0.9750
5.9330 -0.9634 -1.9980 0.9750
5.9952 -0.4302 -1.9980 0.9750
6.0096 0.1063 -1.9979 0.9750
5.9762 0.6420 -1.9980 0.9750
5.8953 1.1727 -1.9980 0.9750
5.3752 2.6923 -1.9984 0.9750
5.1140 3.1614 -1.9985 0.9750
4.4689 4.0182 -1.9977 0.9750
4.0680 4.3744 -1.9857 0.9751
3.4066 4.3913 -1.8474 0.9768
2.1232 5.1390 -1.8483 0.9768
1.6565 5.3088 -1.8486 0.9768
1.1765 5.4363 -1.8489 0.9768
0.6869 5.5206 -1.8492 0.9768
0.1917 5.5608 -1.8495 0.9768
-0.7999 5.5083 -1.8502 0.9768
-1.2883 5.4159 -1.8505 0.9768
-1.7667 5.2803 -1.8508 0.9768
-2.2310 5.1025 -1.8511 0.9768
-3.5041 4.3315 -1.8520 0.9768
-3.8771 4.0022 -1.8522 0.9768
-4.5466 3.9232 -1.9962 0.9750
-5.4483 2.5913 -2.0055 0.9749
-5.6582 2.0950 -2.0056 0.9749
-6.0117 0.5220 -2.0058 0.9749
-6.0343 -0.0164 -2.0058 0.9749
-5.9351 -1.0885 -2.0058 0.9749
-5.8141 -1.6136 -2.0057 0.9749
-5.1782 -3.0949 -2.0053 0.9749
-4.8810 -3.5442 -2.0051 0.9749
-2.8693 -5.3014 -2.0038 0.9749
-1.8809 -5.7251 -2.0031 0.9749
-0.8332 -5.9662 -2.0024 0.9749
0.7759 -5.9707 -2.0014 0.9749
1.8240 -5.7358 -2.0007 0.9749
2.3281 -5.5493 -2.0004 0.9750
2.8134 -5.3186 -2.0000 0.9750
3.2762 -5.0456 -1.9997 0.9750
4.4936 -3.9964 -1.9989 0.9750
4.8316 -3.5791 -1.9987 0.9750
5.3898 -2.6630 -1.9984 0.9750
5.7765 -1.6626 -1.9981 0.9750
5.9016 -1.1406 -1.9980 0.9750
5.9796 -0.6095 -1.9980 0.9750
6.0101 -0.0736 -1.9979 0.9750
5.9277 0.9957 -1.9980 0.9750
5.8154 1.5206 -1.9981 0.9750
5.2062 3.0068 -1.9985 0.9750
4.9177 3.4596 -1.9987 0.9750
4.5899 3.8850 -1.9989 0.9750
3.6057 4.3712 -1.8836 0.9764
3.1403 4.5863 -1.8476 0.9768
1.8146 5.2565 -1.8485 0.9768
0.8518 5.4972 -1.8491 0.9768
-0.6346 5.5295 -1.8501 0.9768
-2.9633 4.7168 -1.8516 0.9768
-3.3727 4.4342 -1.8519 0.9768
-3.7554 4.1162 -1.8521 0.9768
-5.7728 1.7555 -2.0057 0.9749
-5.9066 1.2335 -2.0058 0.9749
-5.9933 0.7017 -2.0058 0.9749
-6.0321 0.1642 -2.0058 0.9749
-6.0227 -0.3746 -2.0058 0.9749
-5.8599 -1.4389 -2.0057 0.9749
-5.5103 -2.4571 -2.0055 0.9749
-5.2687 -2.9386 -2.0053 0.9749
-4.6617 -3.8274 -2.0050 0.9749
-4.3011 -4.2276 -2.0047 0.9749
-3.4804 -4.9233 -2.0042 0.9749
-3.0269 -5.2134 -2.0039 0.9749
-2.0515 -5.6666 -2.0032 0.9749
-1.0115 -5.9389 -2.0026 0.9749
-0.4776 -6.0044 -2.0022 0.9749
0.0600 -6.0220 -2.0019 0.9749
1.1289 -5.9134 -2.0012 0.9749
1.6516 -5.7881 -2.0008 0.9749
5.0352 -3.2858 -1.9986 0.9750
5.5381 -2.3383 -1.9983 0.9750
5.7243 -1.8348 -1.9981 0.9750
5.9548 0.8178 -1.9980 0.9750
5.8582 1.3458 -1.9980 0.9750
5.5264 2.3658 -1.9983 0.9750
5.0188 3.3108 -1.9986 0.9750
4.3439 4.1436 -1.9955 0.9750
3.8327 4.3729 -1.9329 0.9758
3.2760 4.4900 -1.8475 0.9768
2.8628 4.7650 -1.8478 0.9768
1.9710 5.1996 -1.8484 0.9768
1.4995 5.3556 -1.8487 0.9768
1.0159 5.4689 -1.8490 0.9768
0.5241 5.5387 -1.8493 0.9768
-0.4688 5.5457 -1.8500 0.9768
-1.9215 5.2263 -1.8509 0.9768
-2.3805 5.0348 -1.8512 0.9768
-2.8206 4.8031 -1.8515 0.9768
-3.2384 4.5330 -1.8518 0.9768
-5.0019 3.3719 -2.0052 0.9749
-5.2832 2.9125 -2.0053 0.9749
-5.7175 1.9275 -2.0056 0.9749
-5.8670 1.4098 -2.0057 0.9749
-5.9696 0.8808 -2.0058 0.9749
-5.3545 -2.7797 -2.0054 0.9749
-5.0847 -3.2460 -2.0052 0.9749
-4.4259 -4.0971 -2.0048 0.9749
-4.0423 -4.4750 -2.0045 0.9749
-3.6264 -4.8172 -2.0043 0.9749
-2.7118 -5.3834 -2.0037 0.9749
-2.2204 -5.6029 -2.0034 0.9749
-1.7114 -5.7777 -2.0030 0.9749
-1.1889 -5.9063 -2.0027 0.9749
0.9514 -5.9449 -2.0013 0.9749
1.4777 -5.8353 -2.0009 0.9749
3.4232 -4.9467 -1.9996 0.9750
3.8504 -4.6209 -1.9994 0.9750
4.6091 -3.8621 -1.9989 0.9750
5.9950 -0.4331 -1.9980 0.9750
6.0097 0.1034 -1.9979 0.9750
5.8958 1.1698 -1.9980 0.9750
5.7682 1.6912 -1.9981 0.9750
5.5946 2.1992 -1.9982 0.9750
5.1155 3.1590 -1.9985 0.9750
4.8138 3.6031 -1.9987 0.9750
4.4709 4.0161 -1.9977 0.9750
3.0040 4.6770 -1.8477 0.9768
1.6591 5.3080 -1.8486 0.9768
1.1791 5.4358 -1.8489 0.9768
0.1944 5.5607 -1.8495 0.9768
-0.3025 5.5569 -1.8499 0.9768
-0.7972 5.5087 -1.8502 0.9768
-1.7641 5.2811 -1.8508 0.9768
-2.2286 5.1035 -1.8511 0.9768
-3.5021 4.3332 -1.8520 0.9768
-3.8752 4.0040 -1.8522 0.9768
-4.8958 3.5180 -2.0040 0.9749
-5.4471 2.5939 -2.0055 0.9749
-5.9405 1.0590 -2.0058 0.9749
-6.0114 0.5249 -2.0058 0.9749
-6.0343 -0.0135 -2.0058 0.9749
-5.9357 -1.0857 -2.0058 0.9749
-5.8149 -1.6108 -2.0057 0.9749
-5.6477 -2.1230 -2.0056 0.9749
-5.4354 -2.6183 -2.0055 0.9749
-5.1797 -3.0925 -2.0053 0.9749
-3.7692 -4.7067 -2.0044 0.9749
-3.3338 -5.0235 -2.0041 0.9749
-2.3872 -5.5342 -2.0035 0.9749
-1.3652 -5.8684 -2.0028 0.9749
-0.8361 -5.9658 -2.0024 0.9749
-0.3005 -6.0155 -2.0021 0.9749
0.2373 -6.0173 -2.0017 0.9749
1.8213 -5.7367 -2.0007 0.9749
2.3254 -5.5504 -2.0004 0.9750
3.2738 -5.0472 -1.9997 0.9750
3.7105 -4.7343 -1.9995 0.9750
4.4916 -3.9985 -1.9989 0.9750
4.8299 -3.5815 -1.9987 0.9750
5.1297 -3.1360 -1.9985 0.9750
5.6044 -2.1741 -1.9982 0.9750
5.7757 -1.6654 -1.9981 0.9750
5.9010 -1.1434 -1.9980 0.9750
5.9793 -0.6124 -1.9980 0.9750
6.0101 -0.0765 -1.9979 0.9750
5.9929 0.4600 -1.9980 0.9750
5.9281 0.9928 -1.9980 0.9750
5.8161 1.5178 -1.9981 0.9750
5.6578 2.0307 -1.9982 0.9750
5.4545 2.5275 -1.9983 0.9750
5.2076 3.0043 -1.9985 0.9750
4.9193 3.4573 -1.9986 0.9750
4.5918 3.8828 -1.9989 0.9750
3.1424 4.5848 -1.8476 0.9768
2.7213 4.8475 -1.8479 0.9768
1.8171 5.2557 -1.8485 0.9768
0.3607 5.5521 -1.8494 0.9768
-0.1361 5.5631 -1.8498 0.9768
-1.1229 5.4523 -1.8504 0.9768
-1.6052 5.3313 -1.8507 0.9768
-2.5279 4.9628 -1.8513 0.9768
-3.3706 4.4359 -1.8519 0.9768
-3.7534 4.1180 -1.8521 0.9768
-4.3029 3.9475 -1.9410 0.9757
-5.0992 3.2232 -2.0052 0.9749
-5.5917 2.2661 -2.0055 0.9749
-5.7719 1.7583 -2.0057 0.9749
-5.9060 1.2364 -2.0058 0.9749
-6.0320 0.1671 -2.0058 0.9749
-6.0228 -0.3717 -2.0058 0.9749
-5.9656 -0.9075 -2.0058 0.9749
-5.7089 -1.9531 -2.0056 0.9749
-5.5115 -2.4544 -2.0055 0.9749
-5.2701 -2.9361 -2.0053 0.9749
-4.9867 -3.3943 -2.0052 0.9749
-4.6635 -3.8252 -2.0050 0.9749
-4.3032 -4.2255 -2.0047 0.9749
-3.9085 -4.5920 -2.0045 0.9749
-3.4828 -4.9217 -2.0042 0.9749
-2.5519 -5.4606 -2.0036 0.9749
-2.0543 -5.6656 -2.0032 0.9749
-1.5404 -5.8253 -2.0029 0.9749
-0.4804 -6.0042 -2.0022 0.9749
0.5940 -5.9919 -2.0015 0.9749
1.1260 -5.9140 -2.0012 0.9749
4.7207 -3.7246 -1.9988 0.9750
5.0337 -3.2882 -1.9986 0.9750
5.3065 -2.8258 -1.9984 0.9750
5.7234 -1.8375 -1.9981 0.9750
5.9584 -0.7911 -1.9980 0.9750
6.0051 -0.2564 -1.9979 0.9750
6.0040 0.2804 -1.9979 0.9750
5.9552 0.8149 -1.9980 0.9750
5.8589 1.3430 -1.9980 0.9750
5.2951 2.8470 -1.9984 0.9750
5.0204 3.3084 -1.9986 0.9750
3.8364 4.3729 -1.9337 0.9758
3.2781 4.4884 -1.8475 0.9768
1.0185 5.4685 -1.8490 0.9768
0.5267 5.5385 -1.8493 0.9768
-0.4661 5.5459 -1.8500 0.9768
-1.4448 5.3766 -1.8506 0.9768
-1.9190 5.2272 -1.8509 0.9768
-2.3781 5.0360 -1.8512 0.9768
-3.2362 4.5345 -1.8518 0.9768
-3.6283 4.2283 -1.8521 0.9768
-4.0753 3.9698 -1.8911 0.9763
-4.6657 3.7959 -1.9994 0.9750
-5.2818 2.9150 -2.0053 0.9749
-5.5213 2.4323 -2.0055 0.9749
-5.8663 1.4126 -2.0057 0.9749
-5.9691 0.8836 -2.0058 0.9749
-6.0243 0.3476 -2.0058 0.9749
-6.0313 -0.1912 -2.0058 0.9749
-5.9010 -1.2600 -2.0058 0.9749
-5.5826 -2.2884 -2.0056 0.9749
-5.3558 -2.7771 -2.0054 0.9749
-5.0862 -3.2436 -2.0052 0.9749
-4.7761 -3.6840 -2.0050 0.9749
-4.4279 -4.0950 -2.0048 0.9749
-4.0444 -4.4731 -2.0045 0.9749
-3.6287 -4.8154 -2.0043 0.9749
-1.4266 -5.4159 -2.0028 0.9765
0.0585 -5.5976 -2.0019 0.9765
1.0520 -5.4963 -2.0012 0.9765
1.5379 -5.3797 -2.0009 0.9765
2.0114 -5.2202 -2.0006 0.9765
2.4687 -5.0192 -2.0003 0.9765
3.3205 -4.4993 -1.9997 0.9765
4.6824 -3.0524 -1.9988 0.9765
4.9356 -2.6222 -1.9987 0.9765
5.3224 -1.7032 -1.9984 0.9765
5.3122 1.7346 -1.9984 0.9765
5.1366 2.2018 -1.9985 0.9765
4.6642 3.0800 -1.9988 0.9765
4.0434 3.8607 -1.9992 0.9765
3.6742 4.1961 -1.9945 0.9766
2.2535 4.6511 -1.8482 0.9783
1.8299 4.8343 -1.8485 0.9783
0.4847 5.1487 -1.8494 0.9783
0.0234 5.1723 -1.8497 0.9783
-0.8965 5.0958 -1.8503 0.9783
-2.2148 4.6787 -1.8511 0.9783
-2.6238 4.4631 -1.8514 0.9782
-3.0119 4.2118 -1.8517 0.9782
-3.4446 4.0064 -1.8895 0.9778
-4.0057 3.8945 -1.9979 0.9765
-4.3502 3.5323 -2.0039 0.9765
-4.9116 2.7045 -2.0051 0.9765
-5.1337 2.2557 -2.0052 0.9765
-5.4534 1.3076 -2.0055 0.9765
-5.5485 0.8159 -2.0055 0.9765
-5.6053 -0.1831 -2.0056 0.9765
-5.4833 -1.1763 -2.0055 0.9765
-5.3563 -1.6607 -2.0054 0.9765
-4.9753 -2.5859 -2.0052 0.9765
-4.7244 -3.0192 -2.0050 0.9765
-4.4357 -3.4283 -2.0048 0.9765
-3.3684 -4.4789 -2.0041 0.9765
-2.5181 -5.0049 -2.0035 0.9765
-2.0613 -5.2088 -2.0032 0.9765
-0.1091 -5.5972 -2.0020 0.9765
0.3906 -5.5837 -2.0016 0.9765
0.8870 -5.5256 -2.0013 0.9765
1.3762 -5.4236 -2.0010 0.9765
1.8543 -5.2784 -2.0007 0.9765
2.3175 -5.0911 -2.0004 0.9765
2.7620 -4.8634 -2.0001 0.9765
3.1844 -4.5969 -1.9998 0.9765
3.5814 -4.2939 -1.9995 0.9765
4.5891 -3.1912 -1.9989 0.9765
4.8550 -2.7689 -1.9987 0.9765
5.0823 -2.3245 -1.9986 0.9765
5.4139 -1.3842 -1.9983 0.9765
5.5734 -0.4000 -1.9982 0.9765
5.5558 0.5969 -1.9982 0.9765
5.3617 1.5748 -1.9984 0.9765
4.9970 2.5029 -1.9986 0.9765
4.4735 3.3517 -1.9989 0.9765
4.1570 3.7378 -1.9991 0.9765
3.3704 4.3446 -1.9664 0.9769
1.5398 4.9349 -1.8487 0.9783
1.0936 5.0534 -1.8490 0.9783
0.6385 5.1316 -1.8493 0.9783
0.1782 5.1690 -1.8496 0.9783
-0.7435 5.1200 -1.8502 0.9783
-2.0737 4.7426 -1.8510 0.9783
-2.4889 4.5394 -1.8513 0.9782
-3.2593 4.0289 -1.8532 0.9782
-4.2381 3.6571 -2.0018 0.9765
-5.0637 2.4083 -2.0052 0.9765
-5.2587 1.9471 -2.0053 0.9765
-5.4118 1.4703 -2.0054 0.9765
-5.5215 0.9816 -2.0055 0.9765
-5.5872 0.4851 -2.0055 0.9765
-5.5161 -1.0117 -2.0055 0.9765
-4.5365 -3.2941 -2.0049 0.9765
-3.8781 -4.0470 -2.0044 0.9765
-3.5011 -4.3763 -2.0042 0.9765
-3.0963 -4.6706 -2.0039 0.9765
-1.2664 -5.4553 -2.0027 0.9765
-0.7745 -5.5456 -2.0024 0.9765
0.7213 -5.5500 -2.0014 0.9765
2.1641 -5.1585 -2.0005 0.9765
3.8296 -4.0734 -1.9994 0.9765
4.4916 -3.3273 -1.9989 0.9765
4.7701 -2.9130 -1.9988 0.9765
5.0106 -2.4757 -1.9986 0.9765
5.3701 -1.5456 -1.9984 0.9765
5.4864 -1.0603 -1.9983 0.9765
5.5873 -0.0684 -1.9982 0.9765
5.5107 0.9256 -1.9983 0.9765
5.2589 1.8904 -1.9984 0.9765
4.5716 3.2162 -1.9989 0.9765
2.5275 4.5074 -1.8480 0.9783
2.1156 4.7156 -1.8483 0.9783
0.7918 5.1099 -1.8492 0.9783
-1.0462 5.0674 -1.8504 0.9783
-1.4944 4.9547 -1.8507 0.9783
-1.9307 4.8023 -1.8509 0.9783
-2.7542 4.3841 -1.8515 0.9782
-3.6381 3.9877 -1.9303 0.9773
-4.4543 3.4041 -2.0048 0.9765
-4.7407 2.9934 -2.0050 0.9765
-4.9893 2.5588 -2.0052 0.9765
-5.1980 2.1036 -2.0053 0.9765
-5.3652 1.6316 -2.0054 0.9765
-5.5702 0.6522 -2.0055 0.9765
-5.3050 -1.8177 -2.0054 0.9765
-3.9976 -3.9292 -2.0045 0.9765
-3.6307 -4.2697 -2.0043 0.9765
-3.2349 -4.5760 -2.0040 0.9765
-2.8134 -4.8457 -2.0037 0.9765
-2.3695 -5.0766 -2.0034 0.9765
-1.4292 -5.4152 -2.0028 0.9765
-0.4439 -5.5812 -2.0022 0.9765
0.0558 -5.5976 -2.0019 0.9765
1.5353 -5.3804 -2.0009 0.9765
2.0089 -5.2212 -2.0006 0.9765
2.4663 -5.0204 -2.0003 0.9765
2.9039 -4.7797 -2.0000 0.9765
4.0644 -3.8386 -1.9992 0.9765
4.3902 -3.4604 -1.9990 0.9765
4.6809 -3.0546 -1.9988 0.9765
5.1485 -2.1738 -1.9985 0.9765
5.5828 -0.2356 -1.9982 0.9765
5.5815 0.2633 -1.9982 0.9765
5.5359 0.7603 -1.9982 0.9765
5.3130 1.7321 -1.9984 0.9765
5.1376 2.1993 -1.9985 0.9765
4.9213 2.6491 -1.9986 0.9765
4.6657 3.0778 -1.9988 0.9765
4.0453 3.8588 -1.9992 0.9765
3.6763 4.1944 -1.9946 0.9766
3.1688 4.3432 -1.9226 0.9774
1.8322 4.8334 -1.8485 0.9783
1.3939 4.9783 -1.8488 0.9783
0.4871 5.1485 -1.8494 0.9783
0.0259 5.1722 -1.8497 0.9783
-1.7860 4.8577 -1.8508 0.9783
-2.2126 4.6797 -1.8511 0.9783
-2.6217 4.4643 -1.8514 0.9782
-3.0099 4.2132 -1.8517 0.9782
-4.3484 3.5343 -2.0039 0.9765
-4.6488 3.1339 -2.0049 0.9765
-4.9103 2.7069 -2.0051 0.9765
-5.1326 2.2582 -2.0052 0.9765
-5.3139 1.7914 -2.0054 0.9765
-5.5481 0.8186 -2.0055 0.9765
-5.5991 0.3204 -2.0056 0.9765
-5.6054 -0.1804 -2.0056 0.9765
-5.5669 -0.6798 -2.0055 0.9765
-5.3571 -1.6582 -2.0054 0.9765
-5.1875 -2.1294 -2.0053 0.9765
-4.7258 -3.0169 -2.0050 0.9765
-3.7570 -4.1593 -2.0044 0.9765
-3.3706 -4.4773 -2.0041 0.9765
-2.0638 -5.2078 -2.0032 0.9765
-0.6108 -5.5657 -2.0023 0.9765
0.3879 -5.5839 -2.0016 0.9765
0.8844 -5.5261 -2.0013 0.9765
1.8518 -5.2793 -2.0007 0.9765
2.7597 -4.8647 -2.0001 0.9765
3.1822 -4.5985 -1.9998 0.9765
3.9478 -3.9587 -1.9993 0.9765
4.8537 -2.7712 -1.9987 0.9765
5.4133 -1.3868 -1.9983 0.9765
5.5152 -0.8983 -1.9983 0.9765
5.5869 0.0962 -1.9982 0.9765
5.2010 2.0445 -1.9985 0.9765
4.9982 2.5005 -1.9986 0.9765
4.7556 2.9367 -1.9988 0.9765
4.4750 3.3495 -1.9989 0.9765
4.1588 3.7358 -1.9991 0.9765
3.8037 4.0863 -1.9964 0.9766
2.7925 4.3477 -1.8478 0.9783
1.5422 4.9341 -1.8487 0.9783
1.0960 5.0528 -1.8490 0.9783
0.6410 5.1313 -1.8493 0.9783
-0.2812 5.1652 -1.8499 0.9783
-1.1951 5.0347 -1.8505 0.9783
-2.0714 4.7436 -1.8510 0.9783
-2.4867 4.5406 -1.8513 0.9782
-3.2566 4.0295 -1.8528 0.9782
-4.5528 3.2715 -2.0049 0.9765
-4.8270 2.8526 -2.0050 0.9765
-5.2578 1.9496 -2.0053 0.9765
-5.4110 1.4728 -2.0054 0.9765
-5.5211 0.9843 -2.0055 0.9765
-5.5870 0.4878 -2.0055 0.9765
-5.6083 -0.0126 -2.0056 0.9765
-5.5847 -0.5128 -2.0055 0.9765
-4.5381 -3.2919 -2.0049 0.9765
-4.2259 -3.6833 -2.0047 0.9765
-3.5032 -4.3746 -2.0042 0.9765
-1.7508 -5.3206 -2.0030 0.9765
-1.2690 -5.4547 -2.0027 0.9765
-0.2793 -5.5916 -2.0021 0.9765
0.2206 -5.5933 -2.0018 0.9765
0.7186 -5.5504 -2.0014 0.9765
1.6930 -5.3326 -2.0008 0.9765
2.1617 -5.1595 -2.0005 0.9765
3.0433 -4.6919 -1.9999 0.9765
3.4493 -4.4011 -1.9996 0.9765
3.8277 -4.0753 -1.9994 0.9765
5.0094 -2.4781 -1.9986 0.9765
5.3694 -1.5482 -1.9984 0.9765
5.5587 -0.5693 -1.9982 0.9765
5.5873 -0.0711 -1.9982 0.9765
5.5714 0.4276 -1.9982 0.9765
5.4070 1.4110 -1.9983 0.9765
5.2598 1.8879 -1.9984 0.9765
5.0707 2.3497 -1.9986 0.9765
4.8412 2.7929 -1.9987 0.9765
4.5732 3.2140 -1.9989 0.9765
2.9757 4.3415 -1.8822 0.9779
2.5297 4.5062 -1.8480 0.9783
1.2467 5.0175 -1.8489 0.9783
0.3353 5.1609 -1.8495 0.9783
-0.1265 5.1710 -1.8498 0.9783
-0.5874 5.1400 -1.8501 0.9783
-1.0438 5.0679 -1.8504 0.9783
-1.4920 4.9554 -1.8507 0.9783
-2.3496 4.6128 -1.8512 0.9782
-2.7521 4.3854 -1.8515 0.9782
-3.6349 3.9880 -1.9297 0.9773
-4.1207 3.7804 -1.9998 0.9765
-4.4527 3.4062 -2.0048 0.9765
-5.4891 1.1491 -2.0055 0.9765
-5.6061 0.1553 -2.0056 0.9765
-5.5976 -0.3454 -2.0056 0.9765
-5.4469 -1.3347 -2.0055 0.9765
-4.6347 -3.1547 -2.0049 0.9765
-3.9995 -3.9273 -2.0045 0.9765
-3.6328 -4.2680 -2.0043 0.9765
-2.3720 -5.0755 -2.0035 0.9765
-1.9094 -5.2660 -2.0031 0.9765
-1.4318 -5.4146 -2.0028 0.9765
-0.9429 -5.5198 -2.0025 0.9765
-0.4466 -5.5810 -2.0022 0.9765
0.0531 -5.5977 -2.0019 0.9765
1.5327 -5.3812 -2.0009 0.9765
2.0064 -5.2222 -2.0006 0.9765
2.4639 -5.0216 -2.0003 0.9765
3.7042 -4.1882 -1.9995 0.9765
4.0625 -3.8406 -1.9992 0.9765
4.3885 -3.4625 -1.9990 0.9765
4.6795 -3.0568 -1.9988 0.9765
4.9331 -2.6270 -1.9987 0.9765
5.1474 -2.1762 -1.9985 0.9765
5.3207 -1.7083 -1.9984 0.9765
5.4517 -1.2267 -1.9983 0.9765
5.5827 -0.2383 -1.9982 0.9765
5.5362 0.7576 -1.9982 0.9765
5.3138 1.7296 -1.9984 0.9765
5.1387 2.1968 -1.9985 0.9765
4.9225 2.6467 -1.9986 0.9765
4.3746 3.4800 -1.9990 0.9765
3.1721 4.3432 -1.9233 0.9774
2.6633 4.4283 -1.8479 0.9783
1.3963 4.9777 -1.8488 0.9783
0.9468 5.0832 -1.8491 0.9783
-1.3429 4.9975 -1.8506 0.9783
-2.2103 4.6808 -1.8511 0.9783
-4.9090 2.7092 -2.0051 0.9765
-5.1315 2.2606 -2.0052 0.9765
-5.3131 1.7939 -2.0054 0.9765
-5.5477 0.8212 -2.0055 0.9765
-5.5990 0.3230 -2.0056 0.9765
-5.5672 -0.6771 -2.0055 0.9765
-5.1885 -2.1269 -2.0053 0.9765
-4.9778 -2.5811 -2.0052 0.9765
-4.7272 -3.0146 -2.0050 0.9765
-3.7590 -4.1575 -2.0044 0.9765
-2.9596 -4.7581 -2.0038 0.9765
-1.7770 -4.9156 -2.0031 0.9779
-1.3312 -5.0538 -2.0028 0.9779
-0.8749 -5.1516 -2.0025 0.9779
0.0546 -5.2235 -2.0019 0.9779
0.9817 -5.1291 -2.0013 0.9779
1.4352 -5.0203 -2.0010 0.9779
1.8770 -4.8716 -2.0007 0.9779
2.3038 -4.6841 -2.0004 0.9779
2.7122 -4.4592 -2.0001 0.9779
3.4606 -3.9053 -1.9996 0.9779
4.3699 -2.8487 -1.9990 0.9779
4.6062 -2.4473 -1.9989 0.9779
4.9673 -1.5895 -1.9986 0.9779
5.1703 -0.6814 -1.9985 0.9779
4.7938 2.0548 -1.9987 0.9779
4.0795 3.2517 -1.9992 0.9779
3.7735 3.6030 -1.9994 0.9779
3.0653 4.2055 -1.9943 0.9780
2.5893 4.3145 -1.9283 0.9787
2.1030 4.3404 -1.8483 0.9796
1.2986 4.6464 -1.8488 0.9795
0.8790 4.7445 -1.8491 0.9795
-0.4089 4.8100 -1.8499 0.9795
-0.8365 4.7551 -1.8502 0.9795
-1.2576 4.6622 -1.8505 0.9795
-2.0667 4.3657 -1.8510 0.9795
-2.4483 4.1645 -1.8513 0.9795
-2.8864 4.0363 -1.9016 0.9790
-3.7461 3.6422 -2.0022 0.9779
-4.0607 3.2972 -2.0045 0.9778
-4.3391 2.9221 -2.0047 0.9778
-4.7900 2.1047 -2.0050 0.9778
-4.9590 1.6691 -2.0051 0.9778
-5.2300 -0.1709 -2.0053 0.9778
-4.6423 -2.4128 -2.0049 0.9778
-4.4082 -2.8171 -2.0048 0.9778
-4.1389 -3.1989 -2.0046 0.9778
-3.8366 -3.5550 -2.0044 0.9778
-3.5038 -3.8827 -2.0042 0.9778
-1.9234 -4.8604 -2.0032 0.9779
-1.4819 -5.0119 -2.0029 0.9779
-1.0287 -5.1234 -2.0026 0.9779
0.3645 -5.2105 -2.0017 0.9779
0.8278 -5.1565 -2.0014 0.9779
1.2843 -5.0613 -2.0011 0.9779
2.1627 -4.7511 -2.0005 0.9779
3.6861 -3.6927 -1.9995 0.9779
4.0004 -3.3488 -1.9993 0.9779
4.2828 -2.9783 -1.9991 0.9779
4.5310 -2.5841 -1.9989 0.9779
4.7432 -2.1694 -1.9988 0.9779
5.0527 -1.2918 -1.9986 0.9779
5.1852 0.5571 -1.9985 0.9779
5.0039 1.4698 -1.9986 0.9779
4.8531 1.9104 -1.9987 0.9779
4.6636 2.3359 -1.9988 0.9779
4.1749 3.1280 -1.9991 0.9779
3.5533 3.8209 -1.9995 0.9779
3.1923 4.1150 -1.9958 0.9779
