ply
format ascii 1.0
element vertex 1559
property float32 x
property float32 y
property float32 z
property float32 I
end_header
14.8153 10.5843 -1.3350 0.9296
10.2647 10.5462 -1.0791 0.9427
8.5325 10.4958 -0.9918 0.9472
7.0351 10.4326 -0.9226 0.9508
2.4802 10.3079 -0.7774 0.9584
1.5233 10.2999 -0.7634 0.9591
0.3046 5.2879 -0.3884 0.9790
-0.1676 5.2768 -0.3871 0.9790
-3.3347 10.7945 -0.8284 0.9557
-4.3832 6.8762 -0.5979 0.9678
15.9052 10.5935 -1.4012 0.9262
10.9663 10.5521 -1.1159 0.9408
7.5619 10.4576 -0.9462 0.9496
2.8414 10.3110 -0.7842 0.9580
0.4747 5.2420 -0.3859 0.9791
0.0054 5.2496 -0.3849 0.9792
-0.9097 10.2795 -0.7567 0.9595
-2.8058 10.2636 -0.7802 0.9582
14.0871 10.5782 -1.2917 0.9318
8.1132 10.4790 -0.9717 0.9482
5.4053 10.3763 -0.8579 0.9542
3.2943 10.5871 -0.8130 0.9565
2.2222 10.3058 -0.7730 0.9586
0.1737 5.1385 -0.3770 0.9796
-0.5712 10.2823 -0.7551 0.9595
-1.4981 10.2746 -0.7613 0.9592
-4.5868 6.8320 -0.6034 0.9675
8.6964 10.5025 -0.9998 0.9468
7.1764 10.4378 -0.9288 0.9505
2.4066 5.3354 -0.4292 0.9768
2.5790 10.3088 -0.7792 0.9583
1.6186 10.3007 -0.7645 0.9590
-0.1201 5.2814 -0.3873 0.9790
-1.1561 10.2774 -0.7583 0.9594
-3.3615 11.2399 -0.8602 0.9540
11.1680 10.5538 -1.1266 0.9402
0.5214 5.2317 -0.3855 0.9791
0.0519 5.1659 -0.3788 0.9795
-0.8164 10.2803 -0.7561 0.9595
-1.7479 10.2725 -0.7640 0.9591
-2.3250 10.4288 -1.0258 0.9580
-7.4474 17.7165 -1.8450 0.9257
-4.4112 6.7844 -0.7769 0.9680
-11.8451 15.0804 -1.8410 0.9258
-13.1340 13.9548 -1.8398 0.9259
-14.3171 12.7201 -1.8386 0.9259
-15.3855 11.3862 -1.8376 0.9260
-16.3310 9.9636 -1.8366 0.9260
-18.3633 5.2793 -1.8344 0.9261
-12.3273 -14.9377 -1.8594 0.9251
-8.9120 -15.8816 -1.7484 0.9294
-7.8547 -17.4915 -1.8408 0.9258
-6.2680 -18.1348 -1.8421 0.9258
-4.6293 -18.6350 -1.8434 0.9257
-2.9513 -18.9879 -1.8448 0.9257
0.4693 -19.2402 -1.8477 0.9256
2.1849 -19.1370 -1.8492 0.9255
10.2733 -16.3813 -1.8564 0.9252
11.7015 -15.4109 -1.8577 0.9252
13.2567 -14.5559 -1.8901 0.9239
18.8822 4.6092 -1.8660 0.9249
18.3937 6.2739 -1.8658 0.9249
17.7575 7.8875 -1.8654 0.9249
16.9789 9.4371 -1.8649 0.9249
15.5945 10.5908 -1.8098 0.9270
10.7684 10.5504 -1.4473 0.9412
6.1242 10.5065 -1.1675 0.9523
-0.0834 10.4299 -1.0014 0.9590
-1.9684 10.4268 -1.0187 0.9583
-5.2404 18.5112 -1.8470 0.9256
-8.4323 17.2592 -1.8442 0.9257
-4.2192 6.9792 -0.7830 0.9678
-16.8627 9.0224 -1.8361 0.9260
-17.5925 7.4796 -1.8353 0.9261
-18.1827 5.8788 -1.8346 0.9261
-18.6287 4.2327 -1.8340 0.9261
-11.3325 -15.4315 -1.8381 0.9260
-8.4215 -17.2204 -1.8404 0.9259
-6.8571 -17.9150 -1.8416 0.9258
-3.5709 -18.8757 -1.8443 0.9257
-0.1613 -19.2397 -1.8472 0.9256
1.5562 -19.1926 -1.8486 0.9255
8.1939 -17.4924 -1.8545 0.9253
18.0078 7.3021 -1.8656 0.9249
16.4154 10.3791 -1.8645 0.9249
9.6073 10.5407 -1.3692 0.9443
6.5972 10.5104 -1.1914 0.9514
5.3499 10.5000 -1.1314 0.9537
3.1896 10.5862 -1.0615 0.9565
2.1498 10.4254 -1.0219 0.9581
0.1266 5.1106 -0.4908 0.9797
-0.6737 10.4264 -1.0031 0.9589
-1.6164 10.4257 -1.0129 0.9585
-2.5869 10.4308 -1.0317 0.9577
-6.2746 18.1766 -1.8461 0.9256
-13.4593 13.6367 -1.8395 0.9259
-16.5609 9.5718 -1.8364 0.9260
-17.3406 8.0532 -1.8356 0.9260
-18.4820 4.8413 -1.8342 0.9261
-8.9791 -16.9312 -1.8399 0.9259
-5.8367 -18.2820 -1.8424 0.9258
0.9262 -19.2277 -1.8481 0.9256
2.6393 -19.0837 -1.8496 0.9255
4.3340 -18.7874 -1.8510 0.9254
5.9968 -18.3405 -1.8525 0.9254
7.6143 -17.7465 -1.8540 0.9253
9.1734 -17.0097 -1.8554 0.9253
18.2387 6.7086 -1.8657 0.9249
17.5641 8.3065 -1.8653 0.9249
16.7487 9.8369 -1.8648 0.9249
5.7929 10.5037 -1.1516 0.9529
4.6198 10.4939 -1.1008 0.9550
2.5198 10.4722 -1.0341 0.9576
1.5457 10.4513 -1.0143 0.9584
-0.3312 10.4282 -1.0017 0.9589
-2.2263 10.4282 -1.0237 0.9581
-3.3350 10.7956 -1.0848 0.9556
-11.7094 15.1877 -1.8411 0.9258
-13.0084 14.0736 -1.8399 0.9259
-14.2026 12.8496 -1.8388 0.9259
-15.2830 11.5252 -1.8377 0.9260
-16.2413 10.1111 -1.8367 0.9260
-17.0701 8.6184 -1.8358 0.9260
-19.2409 3.8938 -1.8847 0.9241
-12.5564 -14.9387 -1.8735 0.9246
-9.0898 -15.8615 -1.7551 0.9292
-3.1223 -18.9590 -1.8447 0.9257
-1.4203 -19.1767 -1.8461 0.9256
0.2956 -19.2421 -1.8476 0.9256
2.0120 -19.1544 -1.8490 0.9255
5.3910 -18.5218 -1.8520 0.9254
8.6088 -17.2964 -1.8549 0.9253
11.5612 -15.5147 -1.8576 0.9252
18.9232 4.4387 -1.8660 0.9249
17.8283 7.7272 -1.8655 0.9249
15.9051 10.5934 -1.8347 0.9261
13.0630 10.4959 -1.6088 0.9349
10.9663 10.5521 -1.4611 0.9407
9.1553 10.5369 -1.3401 0.9455
7.6099 10.5239 -1.2468 0.9492
6.2525 10.5075 -1.1739 0.9521
5.0382 10.4974 -1.1179 0.9543
1.8988 10.4582 -1.0205 0.9582
0.9456 10.4414 -1.0065 0.9587
0.0053 5.2094 -0.5001 0.9793
-0.9227 10.4257 -1.0048 0.9588
-6.7031 18.0187 -1.8457 0.9257
-4.9161 6.8280 -0.8077 0.9668
-14.9003 12.0222 -1.8381 0.9260
-18.1295 6.0429 -1.8347 0.9261
-11.4706 -15.3278 -1.8380 0.9260
-8.5760 -17.1426 -1.8402 0.9259
-5.4020 -18.4190 -1.8428 0.9258
-3.7407 -18.8413 -1.8442 0.9257
-2.0473 -19.1145 -1.8456 0.9257
1.3829 -19.2044 -1.8485 0.9255
4.7799 -18.6831 -1.8514 0.9254
6.4319 -18.1968 -1.8529 0.9254
9.5766 -16.7904 -1.8557 0.9253
10.9080 -15.6858 -1.8342 0.9261
18.6410 5.5003 -1.8659 0.9249
18.0733 7.1395 -1.8656 0.9249
17.3607 8.7206 -1.8652 0.9249
11.7182 10.5584 -1.5143 0.9386
9.7842 10.5421 -1.3808 0.9438
8.1515 10.5285 -1.2783 0.9479
5.4703 10.5010 -1.1367 0.9535
3.2943 10.5870 -1.0645 0.9564
1.2924 10.4469 -1.0106 0.9586
0.1729 5.1142 -0.4913 0.9796
-0.5792 10.4268 -1.0026 0.9589
-2.4871 10.4300 -1.0294 0.9578
-6.1108 18.2339 -1.8462 0.9256
-12.0646 14.9026 -1.8408 0.9258
-15.5502 11.1573 -1.8374 0.9260
-16.4746 9.7213 -1.8365 0.9260
-11.9654 -14.9420 -1.8378 0.9260
-10.5904 -15.9571 -1.8387 0.9259
-8.7505 -16.1465 -1.7631 0.9289
-7.5971 -17.6072 -1.8410 0.9258
-0.9647 -19.2091 -1.8465 0.9256
10.5147 -16.2302 -1.8566 0.9252
18.2988 6.5439 -1.8657 0.9249
12.5279 10.5651 -1.5733 0.9363
10.4533 10.5478 -1.4257 0.9421
2.4060 5.3342 -0.5618 0.9768
3.6800 10.5903 -1.0764 0.9559
2.6206 10.4747 -1.0366 0.9575
0.6958 10.4380 -1.0043 0.9588
-2.1280 10.4276 -1.0217 0.9581
-3.2673 10.9249 -1.0947 0.9552
-8.6844 17.1310 -1.8439 0.9257
-11.5727 15.2938 -1.8413 0.9258
-12.8817 14.1913 -1.8400 0.9259
-17.6995 7.2192 -1.8352 0.9261
-11.1051 -15.5982 -1.8383 0.9259
-9.6757 -16.5363 -1.8394 0.9259
-3.2929 -18.9287 -1.8445 0.9257
-1.5931 -19.1616 -1.8460 0.9256
1.8390 -19.1702 -1.8489 0.9255
3.5439 -18.9449 -1.8504 0.9255
9.9746 -16.5615 -1.8561 0.9253
11.4199 -15.6173 -1.8574 0.9252
17.1474 9.1298 -1.8650 0.9249
16.2246 10.5961 -1.8604 0.9251
7.7563 10.5251 -1.2552 0.9488
4.0346 10.4890 -1.0789 0.9558
-1.7741 10.4261 -1.0153 0.9584
-4.8036 6.8002 -0.7993 0.9671
-13.6573 13.4356 -1.8393 0.9259
-14.7921 12.1569 -1.8382 0.9259
-15.8085 10.7834 -1.8372 0.9260
-17.4561 7.7964 -1.8354 0.9261
-18.0749 6.2064 -1.8347 0.9261
-3.4345 10.7719 -1.3430 0.9555
-6.0219 14.3253 -1.8459 0.9393
-4.4608 6.8606 -0.9721 0.9676
-10.6257 11.2898 -1.8416 0.9395
-11.5843 10.2921 -1.8407 0.9395
-13.2166 8.0635 -1.8391 0.9395
-14.4285 5.5836 -1.8378 0.9396
-16.4326 3.1714 -1.9880 0.9348
-16.7298 0.2019 -1.9874 0.9348
-16.1863 -4.2333 -1.9874 0.9348
-11.7746 -11.9205 -1.9903 0.9347
-10.6691 -12.9284 -1.9911 0.9347
-9.4781 -13.8346 -1.9920 0.9347
-8.1964 -14.6063 -1.9895 0.9348
0.3794 -15.5531 -1.8480 0.9393
1.7659 -15.4672 -1.8492 0.9392
3.1401 -15.2580 -1.8504 0.9392
4.4911 -14.9267 -1.8516 0.9391
5.8768 -14.6476 -1.8748 0.9384
7.4367 -14.6096 -1.9473 0.9361
10.2269 -13.4688 -2.0089 0.9341
11.3935 -12.5100 -2.0099 0.9341
13.4478 -10.2974 -2.0119 0.9340
14.3187 -9.0612 -2.0128 0.9340
15.0756 -7.7512 -2.0136 0.9340
16.2231 -4.9532 -2.0149 0.9340
16.8521 -1.9935 -2.0158 0.9339
16.9650 -0.4828 -2.0160 0.9339
16.9417 1.0320 -2.0162 0.9339
16.7824 2.5387 -2.0162 0.9339
16.4750 4.0216 -2.0145 0.9340
13.7006 7.6150 -1.8619 0.9388
8.9885 10.5354 -1.6450 0.9457
7.4653 10.5227 -1.5326 0.9494
6.1242 10.5064 -1.4446 0.9522
2.4757 5.2799 -0.6927 0.9768
3.8563 10.5917 -1.3389 0.9556
1.8036 10.4702 -1.2620 0.9581
-0.0836 10.4544 -1.2419 0.9588
-1.0196 10.4465 -1.2468 0.9586
-1.9706 10.4386 -1.2619 0.9581
-4.2365 14.9648 -1.8475 0.9393
-6.8188 13.9568 -1.8452 0.9393
-4.2406 7.0145 -0.9737 0.9675
-9.1788 12.5089 -1.8430 0.9394
-11.2429 10.6681 -1.8410 0.9395
-12.1436 9.6184 -1.8401 0.9395
-12.9472 8.4935 -1.8393 0.9395
-13.6476 7.3022 -1.8386 0.9396
-16.7137 -0.7435 -1.9873 0.9348
-16.5804 -2.2309 -1.9873 0.9348
-16.3159 -3.7006 -1.9873 0.9348
-15.9223 -5.1413 -1.9875 0.9348
-14.7609 -7.8906 -1.9882 0.9348
-14.0020 -9.1778 -1.9887 0.9348
-13.1318 -10.3930 -1.9893 0.9348
-12.1571 -11.5267 -1.9900 0.9347
-11.0852 -12.5699 -1.9908 0.9347
-9.9246 -13.5143 -1.9917 0.9347
-8.6841 -14.3524 -1.9927 0.9347
-5.6754 -14.8278 -1.8859 0.9380
-1.5159 -15.4701 -1.8464 0.9393
-0.1304 -15.5535 -1.8476 0.9393
6.8504 -14.6242 -1.9183 0.9370
8.4741 -14.5508 -2.0002 0.9344
9.7781 -13.7938 -2.0084 0.9342
10.9753 -12.8741 -2.0096 0.9341
13.1010 -10.7307 -2.0116 0.9341
14.8115 -8.2399 -2.0133 0.9340
15.4929 -6.8888 -2.0141 0.9340
16.0504 -5.4815 -2.0147 0.9340
16.4796 -4.0295 -2.0152 0.9339
16.9394 -1.0384 -2.0159 0.9339
16.9661 0.4763 -2.0161 0.9339
13.9440 7.1626 -1.8621 0.9388
12.4431 9.5204 -1.8611 0.9388
9.6072 10.5406 -1.6941 0.9442
5.3499 10.5000 -1.3998 0.9536
4.2136 10.4904 -1.3429 0.9555
3.1896 10.5861 -1.3133 0.9564
-0.6751 10.4494 -1.2438 0.9587
-2.5876 10.4334 -1.2769 0.9576
-5.0730 14.6957 -1.8467 0.9393
-6.3593 14.1759 -1.8456 0.9393
-7.5935 13.5442 -1.8445 0.9394
-4.7068 6.8759 -0.9898 0.9670
-9.8673 11.9662 -1.8423 0.9394
-11.8239 10.0129 -1.8405 0.9395
-13.4029 7.7466 -1.8389 0.9395
-15.1354 3.9647 -1.8585 0.9389
-16.6820 1.2973 -1.9876 0.9348
-16.7295 -0.1955 -1.9874 0.9348
-16.4281 -3.1640 -1.9873 0.9348
-16.0816 -4.6166 -1.9874 0.9348
-15.6078 -6.0331 -1.9877 0.9348
-15.0104 -7.4021 -1.9880 0.9348
-14.2938 -8.7132 -1.9885 0.9348
-13.4638 -9.9560 -1.9891 0.9348
-10.3603 -13.1797 -1.9914 0.9347
-9.1480 -14.0576 -1.9923 0.9347
-7.8365 -14.7768 -1.9868 0.9348
-6.2416 -14.8320 -1.9115 0.9372
-4.7322 -14.8225 -1.8483 0.9392
-3.3854 -15.1576 -1.8449 0.9394
0.7487 -15.5423 -1.8484 0.9392
4.8476 -14.8258 -1.8528 0.9391
7.8730 -14.5985 -1.9702 0.9354
9.3189 -14.1038 -2.0080 0.9342
10.5454 -13.2241 -2.0091 0.9341
13.6902 -9.9764 -2.0122 0.9340
14.5314 -8.7195 -2.0130 0.9340
15.2569 -7.3918 -2.0138 0.9340
16.3373 -4.5669 -2.0150 0.9340
16.6832 -3.0925 -2.0155 0.9339
16.7173 2.9365 -2.0162 0.9339
16.2417 4.3758 -1.9981 0.9345
14.7160 5.4129 -1.8626 0.9388
14.1722 6.7024 -1.8622 0.9388
13.5150 7.9377 -1.8618 0.9388
12.7498 9.1087 -1.8613 0.9388
11.8828 10.2060 -1.8607 0.9389
5.7929 10.5037 -1.4249 0.9528
4.6198 10.4938 -1.3620 0.9549
3.5730 10.5894 -1.3275 0.9560
2.5207 10.4762 -1.2799 0.9575
0.6026 10.4602 -1.2446 0.9587
-5.8927 14.3800 -1.8460 0.9393
-7.1472 13.7887 -1.8449 0.9394
-11.4915 10.3967 -1.8408 0.9395
-12.3671 9.3262 -1.8399 0.9395
-13.1438 8.1828 -1.8391 0.9395
-13.8158 6.9754 -1.8384 0.9396
-14.8260 4.4075 -1.8373 0.9396
-16.4037 3.3196 -1.9880 0.9348
-16.6314 1.8433 -1.9877 0.9348
-16.5228 -2.6240 -1.9873 0.9348
-15.7963 -5.5181 -1.9876 0.9348
-15.2437 -6.9058 -1.9879 0.9348
-13.7812 -9.5084 -1.9888 0.9348
-12.8825 -10.7029 -1.9895 0.9348
-11.8811 -11.8133 -1.9902 0.9347
-6.8237 -14.8360 -1.9398 0.9363
-2.5247 -15.3306 -1.8456 0.9393
0.2390 -15.5549 -1.8479 0.9393
1.6262 -15.4815 -1.8491 0.9392
3.0022 -15.2847 -1.8503 0.9392
7.2735 -14.6137 -1.9390 0.9364
8.8320 -14.3693 -2.0035 0.9343
11.2795 -12.6116 -2.0098 0.9341
14.2358 -9.1896 -2.0127 0.9340
15.0045 -7.8867 -2.0135 0.9340
16.5716 -3.6372 -2.0153 0.9339
16.9598 -0.6358 -2.0160 0.9339
16.8047 2.3872 -2.0162 0.9339
16.5242 3.8760 -2.0161 0.9339
13.0428 8.6870 -1.8615 0.9388
12.2124 9.8124 -1.8609 0.9388
10.9662 10.5520 -1.8077 0.9405
9.1553 10.5368 -1.6581 0.9453
3.9261 10.4880 -1.3303 0.9559
2.8878 10.4793 -1.2912 0.9572
1.9011 10.4710 -1.2641 0.9580
0.0053 5.1992 -0.6176 0.9793
-5.4197 14.5687 -1.8464 0.9393
-6.6930 14.0187 -1.8453 0.9393
-4.2134 7.1138 -0.9821 0.9672
-12.0569 9.7280 -1.8402 0.9395
-13.5817 7.4253 -1.8387 0.9396
-14.1847 6.1824 -1.8380 0.9396
-14.6750 4.8914 -1.8375 0.9396
-16.2365 3.8435 -1.9820 0.9350
-16.7075 0.9007 -1.9875 0.9348
-16.7198 -0.5926 -1.9873 0.9348
-16.5998 -2.0812 -1.9873 0.9348
-14.8312 -7.7569 -1.9881 0.9348
-13.2247 -10.2737 -1.9892 0.9348
-12.2601 -11.4161 -1.9899 0.9347
-10.0456 -13.4236 -1.9916 0.9347
-8.8128 -14.2727 -1.9926 0.9347
-5.8298 -14.8290 -1.8927 0.9378
-1.6553 -15.4548 -1.8463 0.9393
2.4992 -15.3712 -1.8499 0.9392
3.8624 -15.0969 -1.8511 0.9392
5.1965 -14.7016 -1.8522 0.9391
8.3200 -14.5872 -1.9948 0.9346
9.6527 -13.8807 -2.0083 0.9342
10.8581 -12.9719 -2.0094 0.9341
13.0030 -10.8479 -2.0115 0.9341
13.9249 -9.6496 -2.0124 0.9340
16.7528 -2.6956 -2.0156 0.9339
16.9291 -1.1912 -2.0159 0.9339
16.8738 1.8353 -2.0162 0.9339
15.0403 4.4378 -1.8627 0.9388
14.5827 5.7606 -1.8625 0.9388
14.0083 7.0367 -1.8621 0.9388
13.3218 8.2558 -1.8617 0.9388
12.5289 9.4081 -1.8611 0.9388
11.6360 10.4842 -1.8605 0.9389
9.7842 10.5421 -1.7085 0.9437
8.1515 10.5284 -1.5817 0.9478
6.7308 10.5115 -1.4827 0.9510
4.3243 10.4914 -1.3479 0.9553
3.2943 10.5870 -1.3171 0.9563
-0.5805 10.4502 -1.2433 0.9587
-1.5226 10.4423 -1.2535 0.9584
-4.9405 14.7418 -1.8468 0.9393
-7.4714 13.6129 -1.8446 0.9394
-4.6193 6.8805 -0.9844 0.9672
-9.7595 12.0554 -1.8424 0.9394
-10.7899 11.1312 -1.8415 0.9395
-13.9763 6.6447 -1.8383 0.9396
-14.5084 5.3701 -1.8377 0.9396
-14.9254 4.0540 -1.8372 0.9396
-16.6698 1.4478 -1.9876 0.9348
-16.7307 -0.0445 -1.9874 0.9348
-16.1224 -4.4713 -1.9874 0.9348
-15.6614 -5.8919 -1.9876 0.9348
-15.0762 -7.2662 -1.9880 0.9348
-13.5526 -9.8338 -1.9890 0.9348
-11.5985 -12.0934 -1.9904 0.9347
-10.4783 -13.0851 -1.9913 0.9347
-7.9736 -14.7130 -1.9878 0.9348
-4.8796 -14.8213 -1.8535 0.9391
-3.5218 -15.1256 -1.8448 0.9394
-0.7799 -15.5298 -1.8471 0.9393
6.1263 -14.6417 -1.8853 0.9381
9.1865 -14.1800 -2.0070 0.9342
14.4516 -8.8499 -2.0130 0.9340
15.1890 -7.5289 -2.0137 0.9340
16.2950 -4.7139 -2.0150 0.9340
16.6543 -3.2429 -2.0154 0.9339
16.9705 -0.2329 -2.0161 0.9339
16.9248 1.2813 -2.0162 0.9339
16.3812 4.2553 -2.0104 0.9341
14.7644 5.2800 -1.8626 0.9388
14.2324 6.5744 -1.8623 0.9388
8.7219 10.5332 -1.6245 0.9464
5.9177 10.5047 -1.4322 0.9526
1.6450 10.4689 -1.2588 0.9582
-0.2376 10.4531 -1.2420 0.9588
-1.1750 10.4452 -1.2486 0.9585
-3.2677 10.9262 -1.3547 0.9551
-5.7631 14.4335 -1.8461 0.9393
-7.0229 13.8535 -1.8450 0.9394
-4.3261 6.9237 -0.9698 0.9676
-9.3612 12.3712 -1.8428 0.9394
-11.3978 10.5005 -1.8409 0.9395
-13.0700 8.3013 -1.8392 0.9395
-13.7528 7.1000 -1.8385 0.9396
-14.3263 5.8434 -1.8379 0.9396
-16.3734 3.4675 -1.9881 0.9348
-16.6143 1.9933 -1.9877 0.9348
-16.7237 0.5037 -1.9874 0.9348
-16.5458 -2.4748 -1.9873 0.9348
-12.9781 -10.5858 -1.9894 0.9348
-11.9868 -11.7052 -1.9901 0.9347
-9.7253 -13.6600 -1.9918 0.9347
-8.4677 -14.4716 -1.9917 0.9347
-4.0146 -14.9987 -1.8444 0.9394
-2.6627 -15.3062 -1.8455 0.9393
-1.2881 -15.4923 -1.8466 0.9393
0.0986 -15.5554 -1.8478 0.9393
1.4864 -15.4946 -1.8490 0.9392
2.8640 -15.3101 -1.8502 0.9392
4.2205 -15.0034 -1.8514 0.9391
7.1117 -14.6177 -1.9310 0.9366
8.6964 -14.4392 -2.0022 0.9344
12.2602 -11.6720 -2.0108 0.9341
13.2586 -10.5374 -2.0118 0.9341
14.9322 -8.0214 -2.0135 0.9340
15.5935 -6.6602 -2.0142 0.9340
16.5378 -3.7864 -2.0153 0.9339
16.8129 -2.2971 -2.0157 0.9339
16.9531 -0.7888 -2.0160 0.9339
16.9574 0.7261 -2.0161 0.9339
14.9302 4.7936 -1.8627 0.9388
14.4412 6.1049 -1.8624 0.9388
13.1210 8.5692 -1.8615 0.9388
6.3822 10.5086 -1.4605 0.9517
5.1557 10.4983 -1.3893 0.9540
1.9991 10.4719 -1.2664 0.9580
1.0429 10.4638 -1.2491 0.9585
-0.8297 10.4481 -1.2450 0.9587
-10.0416 11.8185 -1.8422 0.9394
-11.0496 10.8703 -1.8412 0.9395
-11.9692 9.8369 -1.8403 0.9395
-13.5147 7.5479 -1.8388 0.9396
-14.6307 5.0237 -1.8375 0.9396
-15.9724 3.9335 -1.9540 0.9359
-2.3265 10.4356 -1.5149 0.9577
-3.4345 10.7719 -1.6020 0.9554
-5.0500 12.0134 -1.8465 0.9487
-8.9142 9.4713 -1.8429 0.9488
-9.7192 8.6351 -1.8421 0.9488
-11.0902 6.7662 -1.8407 0.9489
-13.4617 3.8701 -1.9846 0.9450
-13.9720 1.4211 -1.9899 0.9448
-14.0416 0.1694 -1.9897 0.9448
-13.8476 -2.3274 -1.9896 0.9449
-13.5855 -3.5531 -1.9897 0.9448
-13.2158 -4.7509 -1.9899 0.9448
-12.7413 -5.9113 -1.9901 0.9448
-9.8803 -10.0028 -1.9921 0.9448
-8.9521 -10.8478 -1.9928 0.9448
-7.9522 -11.6073 -1.9936 0.9447
-5.7688 -12.8464 -1.9953 0.9447
-0.9152 -14.0807 -1.9993 0.9446
2.8490 -13.8431 -2.0025 0.9445
5.2683 -13.1309 -2.0047 0.9444
7.5247 -11.9984 -2.0067 0.9444
10.4464 -9.5920 -2.0095 0.9443
11.9933 -7.5896 -2.0110 0.9443
13.1589 -5.3418 -2.0122 0.9442
13.9047 -2.9206 -2.0131 0.9442
11.9986 5.3295 -1.8602 0.9483
11.4735 6.3771 -1.8599 0.9484
10.1532 8.3097 -1.8590 0.9484
8.5101 9.9746 -1.8578 0.9484
2.4754 5.2792 -0.8262 0.9767
3.8182 10.4871 -1.5813 0.9559
2.7861 10.4784 -1.5363 0.9571
0.8524 10.4622 -1.4873 0.9585
-0.0836 10.4544 -1.4813 0.9586
-1.0196 10.4465 -1.4872 0.9585
-1.9706 10.4385 -1.5052 0.9580
-3.5523 12.5480 -1.8478 0.9487
-4.2891 7.0949 -1.1747 0.9671
-7.6994 10.4928 -1.8440 0.9488
-9.4324 8.9502 -1.8424 0.9488
-10.1889 8.0702 -1.8416 0.9488
-11.4524 6.1276 -1.8404 0.9489
-12.4048 4.0107 -1.8472 0.9487
-13.6979 3.1123 -1.9903 0.9448
-13.9186 1.8782 -1.9900 0.9448
-14.0290 0.6294 -1.9898 0.9448
-14.0282 -0.6240 -1.9896 0.9448
-13.9164 -1.8724 -1.9896 0.9449
-13.6944 -3.1060 -1.9896 0.9448
-13.3638 -4.3151 -1.9898 0.9448
-12.9274 -5.4903 -1.9900 0.9448
-11.0201 -8.7217 -1.9913 0.9448
-10.2015 -9.6725 -1.9919 0.9448
-7.2857 -12.0411 -1.9941 0.9447
-5.0354 -13.1557 -1.9959 0.9447
-3.8441 -13.5588 -1.9969 0.9447
-1.3758 -14.0405 -1.9989 0.9446
1.1414 -14.0766 -2.0010 0.9445
3.6277 -13.6647 -2.0032 0.9445
6.0036 -12.8165 -2.0053 0.9444
8.1930 -11.5578 -2.0073 0.9444
12.4056 -6.9015 -2.0114 0.9443
12.9755 -5.7695 -2.0120 0.9442
13.4418 -4.5906 -2.0126 0.9442
13.8006 -3.3744 -2.0130 0.9442
13.9103 2.9162 -2.0138 0.9442
12.1674 4.9338 -1.8603 0.9483
11.0934 7.0141 -1.8596 0.9484
10.4211 7.9734 -1.8592 0.9484
7.9311 10.4369 -1.8573 0.9484
5.3499 10.4999 -1.6697 0.9535
3.1581 10.4816 -1.5511 0.9567
1.1989 10.4651 -1.4925 0.9583
0.1263 5.0965 -0.7223 0.9796
-0.6751 10.4494 -1.4837 0.9586
-1.6188 10.4415 -1.4971 0.9582
-4.2540 12.3231 -1.8472 0.9487
-5.3331 11.8885 -1.8462 0.9487
-6.3688 11.3598 -1.8453 0.9487
-4.6775 6.8331 -1.1733 0.9671
-9.1355 9.2559 -1.8427 0.9488
-10.6260 7.4800 -1.8412 0.9489
-11.2468 6.5004 -1.8406 0.9489
-11.7780 5.4699 -1.8400 0.9489
-12.2156 4.3966 -1.8395 0.9489
-13.5847 3.5585 -1.9897 0.9448
-13.7885 -2.6556 -1.9896 0.9449
-11.9960 -7.3125 -1.9906 0.9448
-11.2989 -8.3551 -1.9911 0.9448
-9.6409 -10.2355 -1.9923 0.9448
-7.6751 -11.7942 -1.9938 0.9447
-6.5956 -12.4369 -1.9946 0.9447
-3.0729 -13.7587 -1.9975 0.9446
-0.5807 -14.1005 -1.9996 0.9446
0.6794 -14.1036 -2.0007 0.9446
4.3953 -13.4425 -2.0039 0.9445
5.5794 -13.0039 -2.0049 0.9444
8.8355 -11.0798 -2.0079 0.9444
11.4675 -8.3566 -2.0105 0.9443
12.1713 -7.3033 -2.0112 0.9443
12.7781 -6.1908 -2.0118 0.9443
14.2121 -0.0669 -2.0137 0.9442
14.1621 1.2008 -2.0138 0.9442
13.7229 3.6972 -2.0137 0.9442
11.3181 6.6474 -1.8598 0.9484
10.6778 7.6284 -1.8594 0.9484
9.9522 8.5478 -1.8588 0.9484
9.1474 9.3983 -1.8583 0.9484
8.2700 10.1729 -1.8576 0.9484
3.5377 10.4847 -1.5679 0.9563
0.6026 10.4601 -1.4845 0.9586
-0.3320 10.4523 -1.4817 0.9586
-1.2704 10.4444 -1.4908 0.9584
-2.2281 10.4364 -1.5120 0.9578
-3.3357 10.7977 -1.6013 0.9554
-4.9417 12.0592 -1.8466 0.9487
-7.9454 10.3057 -1.8438 0.9488
-8.8288 9.5518 -1.8430 0.9488
-9.6413 8.7227 -1.8422 0.9488
-10.3766 7.8252 -1.8415 0.9488
-11.0291 6.8662 -1.8408 0.9489
-13.3599 3.9717 -1.9748 0.9452
-13.7672 2.7861 -1.9902 0.9448
-13.9587 1.5471 -1.9899 0.9448
-14.0396 0.2961 -1.9897 0.9448
-13.6169 -3.4304 -1.9897 0.9448
-12.7939 -5.7960 -1.9901 0.9448
-12.2282 -6.9150 -1.9905 0.9448
-9.0493 -10.7662 -1.9927 0.9448
-6.9985 -12.2121 -1.9943 0.9447
-5.8842 -12.7932 -1.9952 0.9447
-4.7222 -13.2732 -1.9961 0.9447
-3.5215 -13.6481 -1.9971 0.9446
3.9517 -13.5766 -2.0035 0.9445
5.1494 -13.1772 -2.0046 0.9444
6.3072 -12.6721 -2.0056 0.9444
7.4158 -12.0652 -2.0066 0.9444
8.4662 -11.3614 -2.0076 0.9444
11.1860 -8.7266 -2.0102 0.9443
12.5670 -6.6055 -2.0116 0.9443
13.1098 -5.4601 -2.0122 0.9442
14.0962 -1.7966 -2.0134 0.9442
14.2018 -0.5324 -2.0137 0.9442
14.1937 0.7361 -2.0138 0.9442
13.8370 3.2457 -2.0138 0.9442
13.2031 4.3709 -1.9706 0.9454
11.5307 6.2735 -1.8599 0.9483
10.9230 7.2751 -1.8595 0.9484
10.2281 8.2180 -1.8590 0.9484
7.6098 10.5239 -1.8401 0.9489
5.0382 10.4973 -1.6498 0.9540
1.9011 10.4710 -1.5079 0.9579
0.0107 10.4552 -1.4814 0.9586
-0.9246 10.4473 -1.4861 0.9585
-3.4391 12.5802 -1.8479 0.9487
-4.5448 12.2169 -1.8469 0.9487
-8.5125 9.8376 -1.8433 0.9488
-9.3517 9.0353 -1.8425 0.9488
-10.1161 8.1621 -1.8417 0.9488
-11.3970 6.2309 -1.8404 0.9489
-12.3158 4.1050 -1.8394 0.9489
-13.6695 3.2359 -1.9903 0.9448
-13.9013 2.0037 -1.9900 0.9448
-14.0228 0.7560 -1.9898 0.9448
-13.9327 -1.7468 -1.9896 0.9449
-13.4021 -4.1944 -1.9898 0.9448
-11.8197 -7.5958 -1.9907 0.9448
-10.2880 -9.5798 -1.9918 0.9448
-9.3959 -10.4625 -1.9925 0.9448
-7.3937 -11.9744 -1.9940 0.9447
-6.2992 -12.5915 -1.9949 0.9447
-5.1536 -13.1091 -1.9958 0.9447
-3.9660 -13.5229 -1.9968 0.9447
-2.7457 -13.8297 -1.9978 0.9446
-1.5023 -14.0267 -1.9988 0.9446
2.2675 -13.9465 -2.0020 0.9445
4.7139 -13.3362 -2.0042 0.9445
5.8874 -12.8695 -2.0052 0.9444
9.0972 -10.8682 -2.0082 0.9443
10.0345 -10.0181 -2.0091 0.9443
10.8924 -9.0872 -2.0099 0.9443
12.3424 -7.0129 -2.0114 0.9443
14.1762 -0.9975 -2.0136 0.9442
14.2099 0.2707 -2.0138 0.9442
14.1297 1.5368 -2.0138 0.9442
13.6192 4.0185 -2.0119 0.9442
11.7309 5.8927 -1.8601 0.9483
11.1565 6.9139 -1.8597 0.9484
8.9209 9.6119 -1.8581 0.9484
6.7307 10.5115 -1.7685 0.9508
5.4703 10.5009 -1.6776 0.9533
4.3243 10.4913 -1.6078 0.9552
2.2585 10.4740 -1.5182 0.9576
-1.5226 10.4423 -1.4952 0.9583
-2.4881 10.4342 -1.5199 0.9576
-6.2663 11.4173 -1.8454 0.9487
-4.5975 6.8479 -1.1687 0.9672
-8.1869 10.1129 -1.8436 0.9488
-9.8446 8.4904 -1.8420 0.9488
-11.1880 6.6018 -1.8406 0.9489
-11.7285 5.5761 -1.8401 0.9489
-13.8119 -2.5311 -1.9896 0.9449
-13.1446 -4.9451 -1.9899 0.9448
-12.6532 -6.0984 -1.9902 0.9448
-12.0612 -7.2038 -1.9906 0.9448
-11.3735 -8.2527 -1.9910 0.9448
-9.7325 -10.1478 -1.9922 0.9448
-8.7919 -10.9791 -1.9929 0.9448
-7.7809 -11.7239 -1.9937 0.9447
-6.7072 -12.3763 -1.9946 0.9447
-5.5794 -12.9309 -1.9955 0.9447
-4.4062 -13.3833 -1.9964 0.9447
-0.7078 -14.0939 -1.9995 0.9446
0.5522 -14.1084 -2.0005 0.9446
5.4616 -13.0530 -2.0048 0.9444
8.7347 -11.1585 -2.0078 0.9444
10.5872 -9.4378 -2.0096 0.9443
11.3912 -8.4594 -2.0104 0.9443
12.1045 -7.4126 -2.0111 0.9443
13.9467 -2.7156 -2.0132 0.9442
14.1353 -1.4613 -2.0135 0.9442
14.2108 -0.1951 -2.0137 0.9442
14.1723 1.0730 -2.0138 0.9442
14.0203 2.3325 -2.0138 0.9442
13.7558 3.5733 -2.0137 0.9442
12.3636 4.4214 -1.8604 0.9483
10.0293 8.4579 -1.8589 0.9484
9.2322 9.3156 -1.8583 0.9484
8.3617 10.0983 -1.8577 0.9484
2.4050 5.3318 -0.8288 0.9766
3.6437 10.4856 -1.5728 0.9561
2.6212 10.4771 -1.5302 0.9573
1.6450 10.4689 -1.5015 0.9581
0.3510 5.2648 -0.7476 0.9789
-1.1750 10.4452 -1.4893 0.9584
-2.1300 10.4372 -1.5093 0.9579
-3.2681 10.9274 -1.6160 0.9550
-4.3365 6.9403 -1.1595 0.9675
-7.8525 10.3775 -1.8439 0.9488
-9.5626 8.8098 -1.8423 0.9488
-10.9671 6.9657 -1.8409 0.9489
-11.5408 5.9580 -1.8403 0.9489
-12.0227 4.9038 -1.8397 0.9489
-12.9820 3.9872 -1.9242 0.9466
-13.7418 2.9102 -1.9902 0.9448
-14.0365 0.4228 -1.9897 0.9448
-13.6473 -3.3074 -1.9896 0.9448
-13.2990 -4.5116 -1.9898 0.9448
-12.8454 -5.6802 -1.9901 0.9448
-11.6367 -7.8747 -1.9909 0.9448
-9.1457 -10.6837 -1.9927 0.9448
-3.6442 -13.6151 -1.9970 0.9447
-1.1690 -14.0604 -1.9991 0.9446
0.0895 -14.1161 -2.0001 0.9446
1.3487 -14.0595 -2.0012 0.9445
2.5984 -13.8907 -2.0023 0.9445
3.8288 -13.6110 -2.0034 0.9445
7.3063 -12.1310 -2.0065 0.9444
9.3539 -10.6504 -2.0084 0.9443
10.2708 -9.7781 -2.0093 0.9443
11.1063 -8.8269 -2.0101 0.9443
11.8536 -7.8042 -2.0109 0.9443
12.5065 -6.7183 -2.0115 0.9443
13.0597 -5.5780 -2.0121 0.9442
13.5085 -4.3924 -2.0126 0.9442
13.8493 -3.1709 -2.0131 0.9442
14.1997 0.6080 -2.0138 0.9442
14.0892 1.8719 -2.0138 0.9442
13.8658 3.1207 -2.0138 0.9442
12.0931 5.1123 -1.8603 0.9483
11.5871 6.1693 -1.8600 0.9483
10.9884 7.1765 -1.8596 0.9484
10.3021 8.1256 -1.8591 0.9484
6.3822 10.5086 -1.7420 0.9515
5.1557 10.4983 -1.6572 0.9538
2.9900 10.4801 -1.5442 0.9569
1.9991 10.4718 -1.5105 0.9578
1.0429 10.4638 -1.4900 0.9584
-2.7509 10.4320 -1.5286 0.9574
-8.4237 9.9144 -1.8433 0.9488
-10.0424 8.2534 -1.8418 0.9488
-11.3407 6.3337 -1.8405 0.9489
-11.8567 5.2956 -1.8399 0.9489
-13.6400 3.3591 -1.9904 0.9448
-3.4071 10.6860 -1.8477 0.9555
-5.2464 9.9019 -1.8461 0.9556
-4.5091 6.9348 -1.3627 0.9670
-6.9161 8.8051 -1.8445 0.9556
-8.3639 7.4310 -1.8431 0.9557
-8.9902 6.6533 -1.8425 0.9557
-10.4511 4.0444 -1.8461 0.9556
-11.8714 2.2911 -1.9918 0.9522
-12.0269 1.2232 -1.9915 0.9522
-12.0870 0.1459 -1.9914 0.9522
-12.0513 -0.9325 -1.9913 0.9522
-11.6945 -3.0585 -1.9913 0.9522
-10.4716 -6.0469 -1.9920 0.9522
-8.5035 -8.6089 -1.9934 0.9521
-6.8434 -9.9889 -1.9947 0.9521
-5.9275 -10.5631 -1.9954 0.9521
-3.9600 -11.4571 -1.9970 0.9520
0.2961 -12.1401 -2.0005 0.9520
3.5037 -11.6449 -2.0033 0.9519
5.5215 -10.8471 -2.0051 0.9519
7.3667 -9.7020 -2.0068 0.9518
8.9799 -8.2454 -2.0084 0.9518
10.8522 -5.5798 -2.0103 0.9517
11.3093 -4.5909 -2.0108 0.9517
11.6762 -3.5649 -2.0112 0.9517
12.1275 -1.4346 -2.0118 0.9517
12.1912 0.7426 -2.0121 0.9517
12.0765 1.8268 -2.0121 0.9517
11.8652 2.8963 -2.0120 0.9517
11.5550 3.9413 -2.0113 0.9517
10.3113 4.5801 -1.8587 0.9553
9.8603 5.4805 -1.8584 0.9553
9.3305 6.3367 -1.8581 0.9553
7.3147 8.5736 -1.8566 0.9553
2.4751 5.2785 -0.9604 0.9766
1.8036 10.4702 -1.7502 0.9578
-0.0836 10.4543 -1.7223 0.9585
-1.0196 10.4465 -1.7291 0.9583
-4.9199 10.0701 -1.8463 0.9556
-8.1170 7.7020 -1.8434 0.9557
-9.3499 6.1336 -1.8421 0.9557
-11.4907 3.7152 -1.9895 0.9522
-11.9808 1.6167 -1.9916 0.9522
-12.0756 -0.5372 -1.9913 0.9522
-11.9794 -1.6118 -1.9913 0.9522
-11.1276 -4.7259 -1.9916 0.9522
-10.6634 -5.7002 -1.9919 0.9522
-10.1145 -6.6296 -1.9923 0.9522
-7.1661 -9.7581 -1.9945 0.9521
-6.2696 -10.3618 -1.9951 0.9521
-4.3326 -11.3195 -1.9967 0.9521
-3.3073 -11.6656 -1.9975 0.9520
-1.1835 -12.0782 -1.9993 0.9520
-0.1018 -12.1412 -2.0002 0.9520
2.0584 -11.9773 -2.0021 0.9519
6.1271 -10.5208 -2.0057 0.9518
7.0438 -9.9367 -2.0065 0.9518
9.4334 -7.7267 -2.0088 0.9518
10.0881 -6.8569 -2.0095 0.9518
11.1519 -4.9586 -2.0106 0.9517
11.8602 -2.9000 -2.0114 0.9517
12.0734 -1.8311 -2.0117 0.9517
11.9539 2.5061 -2.0121 0.9517
11.6821 3.5618 -2.0120 0.9517
8.9564 6.8527 -1.8578 0.9553
5.9881 9.5401 -1.8556 0.9554
4.1950 10.4441 -1.8542 0.9554
3.0568 10.1456 -1.7456 0.9580
2.1497 10.4253 -1.7536 0.9578
-0.6751 10.4494 -1.7250 0.9584
-4.5881 10.2276 -1.8466 0.9556
-5.4794 9.7734 -1.8458 0.9556
-4.7498 6.9387 -1.3852 0.9665
-7.1225 8.6375 -1.8443 0.9556
-9.1449 6.4374 -1.8424 0.9557
-11.1460 4.0117 -1.9515 0.9531
-11.6972 3.0641 -1.9920 0.9522
-11.9220 2.0085 -1.9917 0.9522
-12.0257 -1.2184 -1.9913 0.9522
-10.8438 -5.3475 -1.9918 0.9522
-10.3255 -6.2942 -1.9921 0.9522
-9.0473 -8.0319 -1.9930 0.9521
-6.6048 -10.1495 -1.9949 0.9521
-2.6437 -11.8371 -1.9981 0.9520
-1.5784 -12.0310 -1.9990 0.9520
-0.4995 -12.1293 -1.9999 0.9520
0.5844 -12.1311 -2.0008 0.9520
1.6646 -12.0363 -2.0017 0.9519
2.7325 -11.8454 -2.0026 0.9519
6.7135 -10.1606 -2.0062 0.9518
7.5959 -9.5254 -2.0070 0.9518
10.4613 -6.2773 -2.0098 0.9517
10.9824 -5.3208 -2.0104 0.9517
11.4159 -4.3214 -2.0109 0.9517
11.7581 -3.2868 -2.0113 0.9517
12.1585 -1.1462 -2.0119 0.9517
12.2132 -0.0575 -2.0120 0.9517
12.1702 1.0319 -2.0121 0.9517
12.0297 2.1131 -2.0121 0.9517
11.7928 3.1772 -2.0120 0.9517
11.4322 4.2050 -2.0067 0.9518
9.1769 6.5561 -1.8580 0.9553
7.1085 8.7441 -1.8564 0.9553
6.2983 9.3400 -1.8558 0.9554
5.4384 9.8609 -1.8551 0.9554
4.5356 10.3026 -1.8544 0.9554
2.5207 10.4762 -1.7751 0.9573
0.6026 10.4601 -1.7260 0.9584
-0.3320 10.4523 -1.7228 0.9585
-1.2704 10.4444 -1.7333 0.9582
-2.2281 10.4364 -1.7580 0.9577
-4.2512 10.3741 -1.8470 0.9556
-4.4415 6.9677 -1.3612 0.9671
-7.5972 8.2194 -1.8439 0.9556
-9.4921 5.9094 -1.8420 0.9557
-9.9785 5.0380 -1.8415 0.9557
-10.3855 4.1271 -1.8410 0.9557
-11.5913 3.4459 -1.9921 0.9522
-12.0593 -0.8238 -1.9913 0.9522
-11.9377 -1.8958 -1.9913 0.9522
-11.7215 -2.9529 -1.9913 0.9522
-11.4123 -3.9867 -1.9915 0.9522
-11.0127 -4.9890 -1.9917 0.9522
-10.5255 -5.9521 -1.9920 0.9522
-8.5806 -8.5316 -1.9934 0.9521
-6.9330 -9.9264 -1.9946 0.9521
-6.0223 -10.5088 -1.9953 0.9521
-4.0630 -11.4204 -1.9969 0.9520
-1.9714 -11.9708 -1.9986 0.9520
-0.8965 -12.1044 -1.9995 0.9520
6.3760 -10.3735 -2.0059 0.9518
7.2786 -9.7677 -2.0067 0.9518
8.1239 -9.0833 -2.0075 0.9518
8.9048 -8.3258 -2.0083 0.9518
9.6151 -7.5011 -2.0090 0.9518
10.2489 -6.6160 -2.0096 0.9517
10.8011 -5.6773 -2.0102 0.9517
11.2672 -4.6927 -2.0107 0.9517
11.6433 -3.6700 -2.0111 0.9517
11.9263 -2.6176 -2.0115 0.9517
12.1139 -1.5439 -2.0118 0.9517
12.0925 1.7178 -2.0121 0.9517
10.3524 4.4869 -1.8587 0.9553
9.3875 6.2524 -1.8581 0.9553
8.1236 7.8167 -1.8572 0.9553
2.8878 10.4793 -1.7907 0.9569
1.9011 10.4710 -1.7532 0.9578
0.9475 10.4630 -1.7307 0.9583
0.0107 10.4551 -1.7224 0.9585
-0.9246 10.4473 -1.7278 0.9584
-1.8734 10.4393 -1.7472 0.9579
-2.9582 10.8213 -1.8481 0.9555
-4.8291 10.1146 -1.8464 0.9556
-6.5434 9.0881 -1.8449 0.9556
-8.0475 7.7752 -1.8434 0.9557
-9.2944 6.2179 -1.8422 0.9557
-10.2456 4.4655 -1.8412 0.9557
-11.4473 3.8156 -1.9878 0.9523
-11.7662 2.7853 -1.9919 0.9522
-12.0708 0.6508 -1.9914 0.9522
-12.0800 -0.4282 -1.9913 0.9522
-11.9934 -1.5037 -1.9913 0.9522
-11.8118 -2.5672 -1.9913 0.9522
-11.1697 -4.6253 -1.9916 0.9522
-10.1737 -6.5380 -1.9922 0.9522
-9.5522 -7.4207 -1.9927 0.9521
-8.8546 -8.2451 -1.9932 0.9521
-7.2536 -9.6927 -1.9944 0.9521
-3.4123 -11.6348 -1.9974 0.9520
-2.3622 -11.8979 -1.9983 0.9520
-1.2924 -12.0665 -1.9992 0.9520
6.0317 -10.5752 -2.0056 0.9518
6.9536 -9.9994 -2.0064 0.9518
9.3630 -7.8112 -2.0087 0.9518
10.6082 -6.0275 -2.0100 0.9517
12.1423 1.3206 -2.0121 0.9517
11.7139 3.4563 -2.0120 0.9517
11.0318 4.3579 -1.9540 0.9531
10.0815 5.0641 -1.8586 0.9553
8.3762 7.5471 -1.8574 0.9553
6.0742 9.4861 -1.8556 0.9554
5.2021 9.9862 -1.8550 0.9554
2.2585 10.4740 -1.7651 0.9575
1.2948 10.4659 -1.7373 0.9581
0.1735 5.1334 -0.8462 0.9794
-0.5805 10.4502 -1.7242 0.9585
-1.5226 10.4423 -1.7384 0.9581
-2.4881 10.4342 -1.7671 0.9574
-4.4958 10.2690 -1.8467 0.9556
-7.0446 8.7017 -1.8444 0.9556
-8.4720 7.3066 -1.8430 0.9557
-10.0946 4.7993 -1.8414 0.9557
-10.8711 4.0238 -1.9096 0.9541
-11.6693 3.1696 -1.9920 0.9522
-11.9036 2.1160 -1.9917 0.9522
-12.0363 -1.1099 -1.9913 0.9522
-11.8894 -2.1788 -1.9913 0.9522
-10.8915 -5.2493 -1.9918 0.9522
-10.3817 -6.2007 -1.9921 0.9522
-9.7894 -7.1032 -1.9925 0.9522
-9.1192 -7.9497 -1.9930 0.9521
-7.5664 -9.4487 -1.9941 0.9521
-6.6959 -10.0891 -1.9948 0.9521
-3.7911 -11.5150 -1.9971 0.9520
-2.7503 -11.8122 -1.9980 0.9520
-1.6868 -12.0157 -1.9989 0.9520
0.4749 -12.1353 -2.0007 0.9520
1.5558 -12.0502 -2.0016 0.9519
5.6811 -10.7654 -2.0053 0.9519
6.6212 -10.2203 -2.0061 0.9518
7.5093 -9.5931 -2.0070 0.9518
8.3381 -8.8887 -2.0077 0.9518
11.3762 -4.4241 -2.0108 0.9517
11.7277 -3.3927 -2.0112 0.9517
12.1475 -1.2558 -2.0118 0.9517
12.2121 -0.1676 -2.0120 0.9517
12.1790 0.9221 -2.0121 0.9517
12.0483 2.0044 -2.0121 0.9517
11.8211 3.0707 -2.0120 0.9517
9.2359 6.4732 -1.8580 0.9553
7.9351 8.0068 -1.8571 0.9553
7.1873 8.6799 -1.8565 0.9553
6.3825 9.2831 -1.8559 0.9554
2.4044 5.3306 -0.9634 0.9766
3.5269 10.1495 -1.7701 0.9574
0.6973 10.4609 -1.7271 0.9584
-0.2376 10.4531 -1.7225 0.9585
-1.1750 10.4452 -1.7316 0.9583
-2.1300 10.4372 -1.7549 0.9577
-3.2140 10.7467 -1.8479 0.9555
-6.7567 8.9292 -1.8447 0.9556
-7.5230 8.2879 -1.8439 0.9556
-8.2291 7.5812 -1.8433 0.9557
-8.8693 6.8149 -1.8426 0.9557
-11.5599 3.5504 -1.9922 0.9522
-11.9543 -1.7880 -1.9913 0.9522
-11.7476 -2.8470 -1.9913 0.9522
-11.4477 -3.8835 -1.9915 0.9522
-11.0571 -4.8894 -1.9917 0.9522
-10.0161 -6.7781 -1.9924 0.9522
-9.3739 -7.6460 -1.9928 0.9521
-8.6570 -8.4536 -1.9933 0.9521
-7.0220 -9.8631 -1.9946 0.9521
-6.1167 -10.4537 -1.9953 0.9521
-4.1657 -11.3828 -1.9968 0.9520
-1.0056 -12.0953 -1.9994 0.9520
1.1600 -12.0927 -2.0013 0.9519
3.2927 -11.7052 -2.0031 0.9519
4.3254 -11.3701 -2.0041 0.9519
7.1899 -9.8325 -2.0067 0.9518
8.0413 -9.1559 -2.0075 0.9518
8.8290 -8.4055 -2.0082 0.9518
10.1885 -6.7080 -2.0096 0.9518
10.7492 -5.7743 -2.0101 0.9517
11.2241 -4.7940 -2.0107 0.9517
11.6095 -3.7749 -2.0111 0.9517
12.0993 -1.6531 -2.0117 0.9517
12.2025 0.5225 -2.0121 0.9517
11.9156 2.6818 -2.0121 0.9517
11.6282 3.7334 -2.0119 0.9517
10.3926 4.3934 -1.8588 0.9553
9.9579 5.3019 -1.8585 0.9553
9.4437 6.1676 -1.8581 0.9553
8.8542 6.9836 -1.8577 0.9553
8.1940 7.7434 -1.8573 0.9553
6.6841 9.0702 -1.8561 0.9554
5.8466 9.6267 -1.8555 0.9554
3.9897 10.3721 -1.8307 0.9559
-0.8297 10.4481 -1.7266 0.9584
-1.7765 10.4401 -1.7446 0.9580
-2.7509 10.4320 -1.7773 0.9572
-6.4614 9.1472 -1.8449 0.9556
-7.2484 8.5311 -1.8442 0.9556
-7.9773 7.8478 -1.8435 0.9556
-9.2382 6.3017 -1.8423 0.9557
-9.7605 5.4512 -1.8417 0.9557
-10.2051 4.5579 -1.8412 0.9557
-11.4030 3.9155 -1.9862 0.9523
-11.7407 2.8914 -1.9920 0.9522
-2.1402 9.5997 -1.8487 0.9608
-3.8083 9.0596 -1.8472 0.9608
-7.3337 6.5157 -1.8439 0.9609
-7.8832 5.8340 -1.8434 0.9609
-8.7897 4.3387 -1.8424 0.9609
-10.6005 0.1279 -1.9926 0.9578
-10.5692 -0.8178 -1.9925 0.9578
-10.4542 -1.7571 -1.9925 0.9578
-9.9768 -3.5865 -1.9927 0.9578
-9.6183 -4.4624 -1.9929 0.9578
-9.1833 -5.3030 -1.9932 0.9578
-8.6753 -6.1018 -1.9936 0.9578
-8.0983 -6.8525 -1.9940 0.9577
-7.4567 -7.5492 -1.9944 0.9577
-6.7556 -8.1862 -1.9950 0.9577
-5.1972 -9.2616 -1.9962 0.9577
-1.6335 -10.5094 -1.9991 0.9576
2.1474 -10.4341 -2.0023 0.9576
3.0705 -10.2052 -2.0031 0.9576
5.6688 -9.0391 -2.0055 0.9575
7.1893 -7.8939 -2.0069 0.9575
8.4826 -6.4954 -2.0081 0.9574
9.0304 -5.7146 -2.0087 0.9574
9.5064 -4.8878 -2.0092 0.9574
9.9066 -4.0215 -2.0096 0.9574
10.2276 -3.1227 -2.0100 0.9574
10.6225 -1.2566 -2.0105 0.9574
10.6931 -0.3043 -2.0107 0.9574
10.5777 1.6001 -2.0108 0.9574
10.3926 2.5369 -2.0108 0.9574
10.1243 3.4533 -2.0106 0.9574
8.6369 4.8005 -1.8573 0.9606
7.0540 6.9112 -1.8562 0.9606
1.6726 9.7097 -1.8519 0.9607
0.7997 9.8163 -1.8512 0.9607
-2.6784 9.4610 -1.8482 0.9608
-4.3130 8.8278 -1.8467 0.9608
-5.8082 7.9154 -1.8454 0.9608
-6.4886 7.3634 -1.8447 0.9608
-7.1171 6.7532 -1.8441 0.9609
-7.6886 6.0898 -1.8436 0.9609
-8.6435 4.6247 -1.8426 0.9609
-9.5025 4.0401 -1.9408 0.9588
-10.0910 3.2626 -1.9934 0.9578
-10.5072 1.4178 -1.9928 0.9578
-10.5908 0.4752 -1.9927 0.9578
-10.0887 -3.2576 -1.9927 0.9578
-9.7589 -4.1446 -1.9929 0.9578
-8.8700 -5.8139 -1.9934 0.9578
-8.3178 -6.5830 -1.9938 0.9577
-7.6994 -7.3001 -1.9943 0.9577
-5.4972 -9.0853 -1.9959 0.9577
-4.6667 -9.5425 -1.9966 0.9577
-3.7985 -9.9240 -1.9973 0.9577
-0.0892 -10.6421 -2.0004 0.9576
0.8605 -10.6120 -2.0012 0.9576
2.7341 -10.2988 -2.0028 0.9576
3.6430 -10.0180 -2.0036 0.9575
4.5236 -9.6570 -2.0044 0.9575
5.3688 -9.2187 -2.0052 0.9575
6.9260 -8.1242 -2.0066 0.9575
7.6254 -7.4767 -2.0073 0.9575
8.8375 -6.0069 -2.0085 0.9574
9.3403 -5.1962 -2.0090 0.9574
9.7687 -4.3436 -2.0095 0.9574
10.3887 -2.5402 -2.0102 0.9574
10.5752 -1.6039 -2.0105 0.9574
10.6771 -0.6545 -2.0106 0.9574
10.6936 0.3002 -2.0108 0.9574
10.4703 2.1950 -2.0108 0.9574
10.2323 3.1198 -2.0107 0.9574
9.9016 4.0150 -2.0083 0.9574
8.7900 4.5152 -1.8574 0.9606
7.2773 6.6770 -1.8564 0.9606
6.6513 7.2975 -1.8559 0.9606
5.9724 7.8594 -1.8554 0.9606
4.4785 8.7897 -1.8542 0.9606
3.6756 9.1509 -1.8536 0.9607
1.9901 9.6511 -1.8522 0.9607
0.1292 5.2162 -0.9808 0.9790
-0.6346 9.8218 -1.8500 0.9607
-2.3673 9.5451 -1.8485 0.9608
-3.2077 9.2923 -1.8477 0.9608
-4.7707 6.9692 -1.5875 0.9662
-6.2447 7.5730 -1.8449 0.9608
-6.8928 6.9836 -1.8443 0.9609
-7.4857 6.3392 -1.8438 0.9609
-8.0189 5.6447 -1.8432 0.9609
-8.8897 4.1285 -1.8423 0.9609
-10.2582 2.6871 -1.9932 0.9578
-10.4555 1.7614 -1.9929 0.9578
-10.5699 0.8220 -1.9927 0.9578
-10.6004 -0.1239 -1.9926 0.9578
-10.5468 -1.0686 -1.9925 0.9578
-10.4095 -2.0048 -1.9925 0.9578
-10.1897 -2.9252 -1.9926 0.9578
-9.8891 -3.8225 -1.9928 0.9578
-9.5099 -4.6897 -1.9930 0.9578
-9.0552 -5.5198 -1.9933 0.9578
-7.9338 -7.0433 -1.9941 0.9577
0.5122 -10.6329 -2.0009 0.9576
1.4590 -10.5492 -2.0017 0.9576
2.3948 -10.3813 -2.0025 0.9576
3.3123 -10.1305 -2.0033 0.9575
4.2042 -9.7986 -2.0041 0.9575
5.8824 -8.9028 -2.0057 0.9575
6.6552 -8.3458 -2.0064 0.9575
8.0372 -7.0354 -2.0077 0.9575
9.6204 -4.6610 -2.0093 0.9574
10.5165 -1.9494 -2.0104 0.9574
10.6496 -1.0040 -2.0106 0.9574
10.5367 1.8508 -2.0108 0.9574
10.3293 2.7829 -2.0107 0.9574
9.1821 4.3425 -1.9092 0.9595
8.0385 5.7429 -1.8569 0.9606
7.4928 6.4355 -1.8565 0.9606
6.2273 7.6602 -1.8556 0.9606
3.9739 9.0267 -1.8538 0.9607
3.1520 9.3417 -1.8531 0.9607
0.5663 9.8315 -1.8510 0.9607
-1.1881 9.7678 -1.8495 0.9607
-5.9939 7.7745 -1.8452 0.9608
-7.8304 5.9051 -1.8434 0.9609
-8.3236 5.1819 -1.8429 0.9609
-8.7504 4.4179 -1.8425 0.9609
-10.3927 2.1032 -1.9930 0.9578
-10.4696 -1.6627 -1.9925 0.9578
-9.6580 -4.3753 -1.9929 0.9578
-8.7299 -6.0232 -1.9935 0.9578
-8.1596 -6.7790 -1.9939 0.9577
-7.5243 -7.4814 -1.9944 0.9577
-5.2804 -9.2141 -1.9961 0.9577
-4.4391 -9.6515 -1.9968 0.9577
-2.6560 -10.2940 -1.9982 0.9577
-1.7282 -10.4938 -1.9990 0.9576
0.1635 -10.6424 -2.0006 0.9576
1.1123 -10.5897 -2.0014 0.9576
2.0531 -10.4526 -2.0022 0.9576
2.9782 -10.2321 -2.0030 0.9576
4.7522 -9.5478 -2.0046 0.9575
7.1176 -7.9582 -2.0068 0.9575
8.9783 -5.7957 -2.0086 0.9574
10.1988 -3.2147 -2.0100 0.9574
10.4465 -2.2928 -2.0103 0.9574
10.6106 -1.3523 -2.0105 0.9574
10.6898 -0.4008 -2.0107 0.9574
10.4151 2.4430 -2.0108 0.9574
8.6800 4.7225 -1.8573 0.9606
7.7003 6.1870 -1.8567 0.9606
7.1163 6.8475 -1.8562 0.9606
6.4757 7.4528 -1.8558 0.9606
4.2681 8.8928 -1.8540 0.9606
2.6187 9.5027 -1.8527 0.9607
1.7602 9.6946 -1.8520 0.9607
0.0053 5.1922 -0.9759 0.9791
-0.8676 9.8029 -1.8498 0.9607
-3.4271 9.2125 -1.8475 0.9608
-6.4222 7.4219 -1.8448 0.9608
-7.0561 6.8174 -1.8442 0.9609
-7.6336 6.1591 -1.8436 0.9609
-8.1501 5.4523 -1.8431 0.9609
-10.0614 3.3536 -1.9934 0.9578
-10.3187 2.4427 -1.9931 0.9578
-10.4941 1.5126 -1.9929 0.9578
-10.5862 0.5707 -1.9927 0.9578
-10.5943 -0.3755 -1.9926 0.9578
-9.7958 -4.0564 -1.9928 0.9578
-9.3962 -4.9143 -1.9931 0.9578
-8.9219 -5.7336 -1.9934 0.9578
-7.7647 -7.2302 -1.9942 0.9577
-7.0909 -7.8958 -1.9947 0.9577
-5.5788 -9.0350 -1.9959 0.9577
-4.7524 -9.4996 -1.9965 0.9577
-3.8877 -9.8890 -1.9972 0.9577
-2.9915 -10.2000 -1.9980 0.9577
-2.0708 -10.4301 -1.9987 0.9576
0.7646 -10.6189 -2.0011 0.9576
2.6409 -10.3226 -2.0027 0.9576
3.5524 -10.0500 -2.0035 0.9575
4.4361 -9.6970 -2.0043 0.9575
6.0927 -8.7614 -2.0058 0.9575
9.2929 -5.2801 -2.0090 0.9574
9.7289 -4.4314 -2.0094 0.9574
10.5602 -1.6992 -2.0104 0.9574
10.6707 -0.7508 -2.0106 0.9574
10.4897 2.1005 -2.0108 0.9574
8.3985 5.2048 -1.8572 0.9606
7.3375 6.6112 -1.8564 0.9606
2.9290 9.4131 -1.8530 0.9607
2.0772 9.6331 -1.8523 0.9607
0.1751 5.1794 -0.9741 0.9791
-0.5459 9.8276 -1.8500 0.9607
-1.4196 9.7358 -1.8493 0.9607
-2.2812 9.5665 -1.8485 0.9608
-3.1239 9.3212 -1.8478 0.9608
-3.9411 9.0019 -1.8471 0.9608
-4.7263 8.6113 -1.8464 0.9608
-4.6820 6.9739 -1.5788 0.9664
-7.4285 6.4066 -1.8438 0.9609
-7.9679 5.7170 -1.8433 0.9609
-8.4437 4.9824 -1.8428 0.9609
-8.8523 4.2086 -1.8424 0.9609
-9.9381 3.6785 -1.9918 0.9578
-10.2337 2.7796 -1.9932 0.9578
-10.4393 1.8557 -1.9929 0.9578
-10.6011 -0.0282 -1.9926 0.9578
-10.5560 -0.9734 -1.9925 0.9578
-10.4272 -1.9108 -1.9925 0.9578
-9.9231 -3.7331 -1.9928 0.9578
-9.5517 -4.6036 -1.9930 0.9578
-9.1044 -5.4378 -1.9933 0.9578
-8.5848 -6.2292 -1.9936 0.9577
-7.3450 -7.6585 -1.9945 0.9577
-6.6346 -8.2852 -1.9951 0.9577
-5.8711 -8.8464 -1.9957 0.9577
-2.4111 -10.3552 -1.9984 0.9576
2.3010 -10.4020 -2.0024 0.9576
3.2207 -10.1595 -2.0032 0.9575
4.1154 -9.8358 -2.0040 0.9575
4.9781 -9.4333 -2.0048 0.9575
8.5777 -6.3700 -2.0082 0.9574
9.1140 -5.5812 -2.0088 0.9574
9.9650 -3.8753 -2.0097 0.9574
10.4984 -2.0442 -2.0103 0.9574
10.6674 0.8076 -2.0108 0.9574
9.3923 4.3386 -1.9446 0.9588
8.0902 5.6702 -1.8569 0.9606
7.5508 6.3678 -1.8566 0.9606
5.5916 8.1328 -1.8551 0.9606
4.8426 8.5963 -1.8545 0.9606
1.5293 9.7327 -1.8518 0.9607
-0.2237 9.8417 -1.8503 0.9607
-1.1000 9.7785 -1.8496 0.9607
-1.9668 9.6376 -1.8488 0.9608
-3.6445 9.1276 -1.8473 0.9608
-4.3924 7.0297 -1.5580 0.9668
-7.2154 6.6473 -1.8440 0.9609
-7.7771 5.9756 -1.8435 0.9609
-8.7103 4.4968 -1.8425 0.9609
-9.7870 3.9919 -1.9867 0.9579
-10.3734 2.1969 -1.9930 0.9578
-10.5267 1.2629 -1.9928 0.9578
-10.5966 0.3192 -1.9926 0.9578
-10.5823 -0.6270 -1.9925 0.9578
-10.4841 -1.5681 -1.9925 0.9578
-9.6970 -4.2880 -1.9929 0.9578
-8.7837 -5.9441 -1.9935 0.9578
-8.2202 -6.7050 -1.9939 0.9577
-7.5913 -7.4130 -1.9943 0.9577
-5.3631 -9.1658 -1.9961 0.9577
-4.5259 -9.6107 -1.9967 0.9577
-1.8227 -10.4774 -1.9989 0.9576
-0.8815 -10.6024 -1.9997 0.9576
1.0167 -10.5989 -2.0013 0.9576
1.9586 -10.4703 -2.0021 0.9576
2.8856 -10.2581 -2.0030 0.9576
3.7904 -9.9639 -2.0038 0.9575
5.5043 -9.1392 -2.0053 0.9575
9.4162 -5.0583 -2.0091 0.9574
10.1692 -3.3066 -2.0099 0.9574
10.4252 -2.3869 -2.0102 0.9574
10.5979 -1.4480 -2.0105 0.9574
10.6857 -0.4972 -2.0107 0.9574
10.6881 0.4577 -2.0108 0.9574
10.4368 2.3490 -2.0108 0.9574
10.1851 3.2701 -2.0107 0.9574
8.7224 4.6441 -1.8574 0.9606
5.8557 7.9461 -1.8553 0.9606
4.3483 8.8542 -1.8541 0.9606
3.5402 9.2035 -1.8535 0.9607
1.8477 9.6787 -1.8521 0.9607
0.0519 5.1696 -0.9717 0.9792
-0.7791 9.8108 -1.8498 0.9607
-2.5074 9.5086 -1.8483 0.9608
-3.3440 9.2434 -1.8476 0.9608
-4.9290 8.4958 -1.8462 0.9608
-8.1008 5.5258 -1.8431 0.9609
-9.0895 4.0596 -1.8711 0.9603
-10.0309 3.4443 -1.9935 0.9578
-10.2964 2.5357 -1.9931 0.9578
-1.9031 8.5365 -1.8487 0.9649
-2.6558 8.3298 -1.8481 0.9649
-4.4969 6.9161 -1.7438 0.9668
-5.3932 6.8663 -1.8456 0.9649
-5.9822 6.3561 -1.8450 0.9649
-7.0123 5.1895 -1.8440 0.9650
-7.4454 4.5425 -1.8436 0.9650
-8.7997 3.4053 -1.9945 0.9622
-9.0669 2.6067 -1.9942 0.9622
-9.2621 1.7875 -1.9939 0.9622
-9.3006 -1.5632 -1.9935 0.9622
-8.8758 -3.1907 -1.9937 0.9622
-8.1697 -4.7177 -1.9942 0.9622
-6.6332 -6.7154 -1.9952 0.9621
-6.0094 -7.2819 -1.9957 0.9621
-3.8709 -8.6200 -1.9974 0.9621
-3.0878 -8.9337 -1.9980 0.9621
-2.2796 -9.1765 -1.9987 0.9621
-1.4527 -9.3464 -1.9994 0.9621
0.2308 -9.4625 -2.0008 0.9620
1.0741 -9.4076 -2.0015 0.9620
1.9094 -9.2777 -2.0022 0.9620
3.5296 -8.7973 -2.0037 0.9620
5.0396 -8.0359 -2.0050 0.9620
5.7380 -7.5569 -2.0057 0.9620
6.3910 -7.0173 -2.0063 0.9619
7.5400 -5.7736 -2.0074 0.9619
8.4497 -4.3445 -2.0083 0.9619
8.8051 -3.5744 -2.0087 0.9619
9.0903 -2.7754 -2.0091 0.9619
9.4410 -1.1168 -2.0095 0.9619
7.7885 4.3289 -1.8835 0.9642
7.2643 4.9335 -1.8562 0.9647
6.7942 5.5606 -1.8558 0.9647
6.2700 6.1430 -1.8554 0.9647
4.4170 7.5777 -1.8540 0.9648
2.2517 8.4686 -1.8523 0.9648
-0.0700 8.7533 -1.8503 0.9648
-1.6226 8.5954 -1.8490 0.9649
-2.3818 8.4135 -1.8483 0.9649
-3.1214 8.1647 -1.8477 0.9649
-3.8357 7.8510 -1.8470 0.9649
-4.5190 7.4752 -1.8464 0.9649
-5.1659 7.0402 -1.8458 0.9649
-5.7714 6.5494 -1.8452 0.9649
-8.6771 3.6891 -1.9931 0.9622
-9.1989 2.0901 -1.9940 0.9622
-9.4221 0.4228 -1.9937 0.9622
-9.4219 -0.4191 -1.9936 0.9622
-9.1976 -2.0861 -1.9936 0.9622
-8.6819 -3.6872 -1.9938 0.9622
-8.3194 -4.4472 -1.9941 0.9622
-7.3995 -5.8562 -1.9947 0.9622
-5.5893 -7.6110 -1.9960 0.9621
-4.8897 -8.0813 -1.9966 0.9621
-3.3784 -8.8267 -1.9978 0.9621
-0.9226 -9.4156 -1.9998 0.9621
0.7651 -9.4365 -2.0012 0.9620
3.2390 -8.9071 -2.0034 0.9620
5.4867 -7.7400 -2.0054 0.9620
6.7784 -6.6463 -2.0067 0.9619
7.8554 -5.3393 -2.0077 0.9619
8.6827 -3.8607 -2.0086 0.9619
8.9939 -3.0716 -2.0089 0.9619
9.2333 -2.2577 -2.0092 0.9619
9.3990 -1.4255 -2.0095 0.9619
9.4425 1.1133 -2.0098 0.9619
9.3055 1.9509 -2.0098 0.9619
9.0941 2.7728 -2.0097 0.9619
8.4027 4.3162 -1.9968 0.9621
6.4684 5.9348 -1.8556 0.9647
5.9121 6.4865 -1.8552 0.9648
5.3088 6.9861 -1.8547 0.9648
3.9812 7.8137 -1.8537 0.9648
1.7693 8.5804 -1.8519 0.9648
0.9968 8.7010 -1.8512 0.9648
0.1284 5.1825 -1.0958 0.9790
-2.1051 8.4881 -1.8486 0.9649
-2.8526 8.2636 -1.8479 0.9649
-3.5769 7.9735 -1.8473 0.9649
-4.7357 6.9181 -1.7721 0.9663
-6.6587 5.6387 -1.8444 0.9650
-9.1259 2.3905 -1.9941 0.9622
-9.3016 1.5670 -1.9939 0.9622
-9.4035 0.7313 -1.9937 0.9622
-9.4306 -0.1102 -1.9936 0.9622
-9.0653 -2.6024 -1.9936 0.9622
-8.7977 -3.4007 -1.9938 0.9622
-8.0556 -4.9105 -1.9942 0.9622
-7.5869 -5.6102 -1.9945 0.9622
-7.0577 -6.2656 -1.9949 0.9622
-6.4723 -6.8715 -1.9954 0.9621
-5.8351 -7.4231 -1.9958 0.9621
-3.6654 -8.7102 -1.9975 0.9621
-2.8750 -9.0053 -1.9982 0.9621
-2.0612 -9.2288 -1.9989 0.9621
-0.3894 -9.4548 -2.0003 0.9621
0.4555 -9.4553 -2.0010 0.9620
1.2973 -9.3804 -2.0017 0.9620
2.9451 -9.0072 -2.0031 0.9620
3.7379 -8.7118 -2.0038 0.9620
6.5563 -6.8641 -2.0065 0.9619
7.6755 -5.5933 -2.0075 0.9619
8.1457 -4.8878 -2.0080 0.9619
8.5509 -4.1428 -2.0085 0.9619
8.8879 -3.3644 -2.0088 0.9619
9.3469 -1.7326 -2.0094 0.9619
9.4650 -0.8923 -2.0096 0.9619
9.5075 -0.0447 -2.0097 0.9619
9.3645 1.6449 -2.0098 0.9619
9.1803 2.4733 -2.0097 0.9619
8.5797 4.0576 -2.0062 0.9619
7.5726 4.4476 -1.8564 0.9647
6.6599 5.7201 -1.8557 0.9647
2.3432 5.3227 -1.2293 0.9765
2.8022 8.3049 -1.8527 0.9648
2.0498 8.5189 -1.8521 0.9648
0.5036 8.7414 -1.8508 0.9648
-0.2778 8.7483 -1.8502 0.9648
-3.3141 8.0875 -1.8475 0.9649
-4.4198 6.9336 -1.7381 0.9669
-5.9248 6.4100 -1.8451 0.9649
-8.0598 4.0693 -1.9085 0.9638
-9.0432 2.6884 -1.9942 0.9622
-9.2456 1.8710 -1.9940 0.9622
-9.3143 -1.4792 -1.9935 0.9622
-8.2118 -4.6437 -1.9941 0.9622
-7.7662 -5.3583 -1.9944 0.9622
-6.6934 -6.6552 -1.9952 0.9621
-6.0747 -7.2272 -1.9957 0.9621
-5.4074 -7.7421 -1.9962 0.9621
-3.1682 -8.9051 -1.9979 0.9621
-0.6988 -9.4358 -2.0000 0.9621
0.1454 -9.4639 -2.0007 0.9620
7.4875 -5.8413 -2.0074 0.9619
7.9805 -5.1516 -2.0079 0.9619
8.4099 -4.4204 -2.0083 0.9619
8.7723 -3.6536 -2.0087 0.9619
9.0647 -2.8573 -2.0090 0.9619
9.2847 -2.0378 -2.0093 0.9619
9.4951 0.4924 -2.0098 0.9619
9.0255 2.9879 -2.0096 0.9619
7.9511 4.3259 -1.9133 0.9637
7.3086 4.8678 -1.8562 0.9647
6.3253 6.0863 -1.8555 0.9647
5.7560 6.6246 -1.8551 0.9648
4.4853 7.5378 -1.8541 0.9648
2.5062 5.2217 -1.2243 0.9766
3.0732 8.2096 -1.8529 0.9648
1.5649 8.6192 -1.8517 0.9648
0.7898 8.7214 -1.8511 0.9648
-1.5451 8.6100 -1.8491 0.9649
-3.7649 7.8856 -1.8471 0.9649
-4.4516 7.5159 -1.8465 0.9649
-5.7122 6.6014 -1.8453 0.9649
-6.2763 6.0640 -1.8448 0.9649
-6.7902 5.4786 -1.8443 0.9650
-7.2499 4.8501 -1.8438 0.9650
-9.1798 2.1731 -1.9941 0.9622
-9.3359 1.3457 -1.9938 0.9622
-9.3578 -1.1732 -1.9935 0.9622
-9.0011 -2.8170 -1.9937 0.9622
-8.7147 -3.6087 -1.9938 0.9622
-7.9371 -5.1007 -1.9943 0.9622
-7.4519 -5.7891 -1.9946 0.9622
-6.9073 -6.4318 -1.9950 0.9621
-6.3077 -7.0237 -1.9955 0.9621
-5.6576 -7.5600 -1.9960 0.9621
-4.2271 -8.4495 -1.9971 0.9621
-3.4578 -8.7955 -1.9977 0.9621
-1.8417 -9.2760 -1.9990 0.9621
0.6800 -9.4427 -2.0012 0.9620
1.5198 -9.3478 -2.0019 0.9620
3.1584 -8.9356 -2.0033 0.9620
3.9441 -8.6214 -2.0040 0.9620
4.6988 -8.2382 -2.0047 0.9620
5.4164 -7.7889 -2.0054 0.9620
7.8067 -5.4098 -2.0077 0.9619
8.9657 -3.1526 -2.0089 0.9619
9.4837 -0.6673 -2.0096 0.9619
9.5060 0.1811 -2.0097 0.9619
9.4522 1.0280 -2.0098 0.9619
9.3228 1.8668 -2.0098 0.9619
8.8419 3.4928 -2.0095 0.9619
8.4665 4.2529 -2.0028 0.9620
7.4646 4.6260 -1.8563 0.9647
5.9705 6.4330 -1.8552 0.9648
2.6039 8.3684 -1.8526 0.9648
1.0753 8.6919 -1.8513 0.9648
-2.0285 8.5071 -1.8486 0.9649
-4.6840 6.9768 -1.7763 0.9662
-6.0749 6.2670 -1.8449 0.9649
-7.0877 5.0855 -1.8440 0.9650
-7.5112 4.4322 -1.8435 0.9650
-8.8487 3.2753 -1.9945 0.9622
-9.3966 0.8161 -1.9937 0.9622
-9.4313 -0.0251 -1.9936 0.9622
-9.3912 -0.8660 -1.9935 0.9622
-9.2766 -1.7000 -1.9935 0.9622
-9.0884 -2.5205 -1.9936 0.9622
-8.8280 -3.3212 -1.9937 0.9622
-8.4975 -4.0955 -1.9939 0.9622
-7.6370 -5.5415 -1.9945 0.9622
-5.2224 -7.8689 -1.9963 0.9621
-4.5011 -8.3056 -1.9969 0.9621
-3.7437 -8.6765 -1.9975 0.9621
-2.9560 -8.9787 -1.9981 0.9621
-2.1443 -9.2096 -1.9988 0.9621
-1.3150 -9.3673 -1.9995 0.9621
2.0459 -9.2492 -2.0023 0.9620
4.4258 -8.3867 -2.0045 0.9620
5.1577 -7.9612 -2.0051 0.9620
5.8489 -7.4720 -2.0058 0.9619
