ply
format ascii 1.0
element vertex 1595
property float32 x
property float32 y
property float32 z
property float32 I
end_header
-4.9444 4.0693 -1.9696 0.9736
-5.6765 3.1743 -2.0004 0.9731
-5.9380 2.6554 -2.0007 0.9731
-6.5073 -0.1715 -2.0022 0.9731
-6.0394 -2.4390 -2.0033 0.9731
-5.7984 -2.9687 -2.0036 0.9731
-5.1794 -3.9533 -2.0041 0.9731
-4.8064 -4.4002 -2.0043 0.9731
-4.3950 -4.8121 -2.0045 0.9731
-3.4700 -5.5178 -2.0048 0.9731
0.4183 -6.5059 -2.0052 0.9731
0.9973 -6.4424 -2.0052 0.9731
2.1266 -6.1619 -2.0050 0.9731
3.1878 -5.6848 -2.0047 0.9731
4.5785 -4.6359 -2.0041 0.9731
4.9734 -4.2082 -2.0038 0.9731
5.3285 -3.7471 -2.0036 0.9731
5.6409 -3.2561 -2.0033 0.9731
5.9082 -2.7393 -2.0031 0.9731
6.4200 -1.0758 -2.0022 0.9731
6.3867 1.2379 -2.0010 0.9731
5.8282 2.8844 -2.0001 0.9732
5.2213 3.8736 -1.9997 0.9732
4.8365 4.3080 -1.9922 0.9733
4.1102 4.3789 -1.8472 0.9752
3.2657 5.0391 -1.8469 0.9752
1.2957 5.8621 -1.8466 0.9752
0.7673 5.9543 -1.8465 0.9752
-0.3035 5.9959 -1.8466 0.9752
-1.8812 5.7019 -1.8468 0.9752
-2.8654 5.2774 -1.8470 0.9752
-3.3253 5.0010 -1.8472 0.9752
-3.7587 4.6847 -1.8474 0.9752
-4.1623 4.3310 -1.8476 0.9752
-5.2590 3.8064 -1.9968 0.9732
-5.5877 3.3278 -2.0003 0.9732
-6.4817 0.5869 -2.0018 0.9731
-6.4848 -0.5750 -2.0024 0.9731
-6.4085 -1.1517 -2.0027 0.9731
-6.2811 -1.7193 -2.0030 0.9731
-5.6034 -3.3231 -2.0038 0.9731
-4.9245 -4.2674 -2.0043 0.9731
-4.5244 -4.6904 -2.0045 0.9731
-4.0881 -5.0759 -2.0046 0.9731
-3.1210 -5.7227 -2.0049 0.9731
-2.5979 -5.9788 -2.0051 0.9731
-1.4937 -6.3459 -2.0052 0.9731
-0.9214 -6.4540 -2.0052 0.9731
-0.3417 -6.5105 -2.0052 0.9731
0.2408 -6.5149 -2.0052 0.9731
0.8213 -6.4673 -2.0052 0.9731
1.3951 -6.3680 -2.0051 0.9731
1.9578 -6.2177 -2.0050 0.9731
2.5048 -6.0178 -2.0049 0.9731
3.5342 -5.4757 -2.0046 0.9731
4.4506 -4.7592 -2.0042 0.9731
4.8570 -4.3424 -2.0039 0.9731
5.2245 -3.8912 -2.0037 0.9731
5.5502 -3.4089 -2.0034 0.9731
6.0662 -2.3671 -2.0029 0.9731
6.2524 -1.8160 -2.0026 0.9731
6.5071 -0.0948 -2.0017 0.9731
6.4886 0.4863 -2.0014 0.9731
6.2970 1.6317 -2.0008 0.9731
5.3251 3.7300 -1.9997 0.9732
4.9584 4.1798 -1.9947 0.9732
4.2358 4.2730 -1.8506 0.9751
2.4677 5.4736 -1.8467 0.9752
1.7798 5.1261 -1.6690 0.9775
1.4551 5.8246 -1.8466 0.9752
0.9294 5.9311 -1.8466 0.9752
0.3963 5.9904 -1.8465 0.9752
-0.6750 5.9656 -1.8466 0.9752
-1.2048 5.8817 -1.8467 0.9752
-2.2316 5.5744 -1.8469 0.9752
-2.7204 5.3534 -1.8470 0.9752
-3.6295 4.7853 -1.8473 0.9752
-4.0425 4.4427 -1.8475 0.9752
-5.1471 3.9437 -1.9944 0.9732
-5.4946 3.4787 -2.0003 0.9732
-6.0272 2.4471 -2.0008 0.9731
-6.3681 1.3370 -2.0014 0.9731
-6.4630 0.7634 -2.0017 0.9731
-6.4977 -0.3980 -2.0023 0.9731
-6.3253 -1.5473 -2.0029 0.9731
-5.9511 -2.6480 -2.0035 0.9731
-4.2249 -4.9624 -2.0046 0.9731
-3.2758 -5.6354 -2.0049 0.9731
-2.2219 -6.1287 -2.0051 0.9731
-1.6661 -6.3028 -2.0052 0.9731
-0.5190 -6.4987 -2.0052 0.9731
0.0630 -6.5191 -2.0052 0.9731
1.2210 -6.4037 -2.0051 0.9731
2.3398 -6.0840 -2.0049 0.9731
3.3837 -5.5702 -2.0046 0.9731
4.3193 -4.8789 -2.0042 0.9731
5.1167 -4.0323 -2.0038 0.9731
5.4555 -3.5591 -2.0035 0.9731
5.9997 -2.5318 -2.0029 0.9731
6.3523 -1.4243 -2.0024 0.9731
6.5024 -0.2722 -2.0018 0.9731
6.4453 0.8880 -2.0012 0.9731
5.7239 3.0854 -2.0000 0.9732
5.4250 3.5835 -1.9998 0.9732
5.0774 4.0485 -1.9974 0.9732
3.9551 4.5192 -1.8472 0.9752
3.5357 4.8538 -1.8470 0.9752
1.6134 5.7828 -1.8466 0.9752
0.0238 6.0035 -1.8465 0.9752
-1.0440 5.9123 -1.8466 0.9752
-2.0787 5.6331 -1.8468 0.9752
-3.0476 5.1745 -1.8471 0.9752
-3.4976 4.8823 -1.8473 0.9752
-4.3108 4.1836 -1.8477 0.9752
-6.1681 2.0685 -2.0010 0.9731
-6.4395 0.9393 -2.0016 0.9731
-6.2177 -1.9371 -2.0031 0.9731
-6.0208 -2.4847 -2.0034 0.9731
-5.7758 -3.0125 -2.0036 0.9731
-5.4846 -3.5164 -2.0039 0.9731
-5.1495 -3.9923 -2.0041 0.9731
-4.3585 -4.8453 -2.0045 0.9731
-3.4282 -5.5439 -2.0049 0.9731
-2.9199 -5.8281 -2.0050 0.9731
-2.3882 -6.0657 -2.0051 0.9731
-1.8374 -6.2549 -2.0052 0.9731
0.4675 -6.5026 -2.0052 0.9731
1.0460 -6.4347 -2.0051 0.9731
2.7128 -5.9268 -2.0048 0.9731
3.2307 -5.6605 -2.0047 0.9731
3.7227 -5.3491 -2.0045 0.9731
5.3566 -3.7067 -2.0036 0.9731
5.6653 -3.2133 -2.0033 0.9731
5.9287 -2.6945 -2.0030 0.9731
6.1446 -2.1543 -2.0027 0.9731
6.4929 -0.4494 -2.0018 0.9731
6.5061 0.1319 -2.0015 0.9731
6.3771 1.2861 -2.0010 0.9731
6.0451 2.3987 -2.0004 0.9731
5.8062 2.9283 -2.0001 0.9732
4.7780 4.3212 -1.9815 0.9734
4.0770 4.4098 -1.8472 0.9752
3.6668 4.7557 -1.8471 0.9752
2.7625 5.3311 -1.8468 0.9752
2.0788 5.0757 -1.6870 0.9773
1.7705 5.7368 -1.8466 0.9752
1.2514 5.8717 -1.8466 0.9752
0.7223 5.9599 -1.8465 0.9752
0.1875 6.0006 -1.8465 0.9752
-0.3488 5.9934 -1.8466 0.9752
-0.8824 5.9385 -1.8466 0.9752
-1.4089 5.8363 -1.8467 0.9752
-1.9243 5.6876 -1.8468 0.9752
-3.3630 4.9757 -1.8472 0.9752
-4.1949 4.2994 -1.8476 0.9752
-5.6127 3.2855 -2.0004 0.9731
-6.5092 -0.0432 -2.0021 0.9731
-6.4803 -0.6241 -2.0024 0.9731
-6.3997 -1.2001 -2.0027 0.9731
-5.8556 -2.8538 -2.0036 0.9731
-5.5782 -3.3654 -2.0038 0.9731
-4.8921 -4.3046 -2.0043 0.9731
-4.0497 -5.1067 -2.0047 0.9731
-3.5780 -5.4482 -2.0048 0.9731
-3.0776 -5.7462 -2.0049 0.9731
-2.5527 -5.9983 -2.0051 0.9731
-2.0072 -6.2024 -2.0051 0.9731
-1.4457 -6.3570 -2.0052 0.9731
-0.2924 -6.5129 -2.0052 0.9731
0.2900 -6.5129 -2.0052 0.9731
2.0048 -6.2027 -2.0050 0.9731
3.0752 -5.7467 -2.0047 0.9731
5.2538 -3.8515 -2.0037 0.9731
5.8532 -2.8553 -2.0031 0.9731
6.2658 -1.7687 -2.0025 0.9731
6.3977 -1.2022 -2.0022 0.9731
6.5076 -0.0456 -2.0016 0.9731
6.4101 1.1118 -2.0010 0.9731
6.2844 1.6792 -2.0008 0.9731
5.6127 3.2827 -1.9999 0.9732
4.9249 4.2157 -1.9940 0.9732
4.1958 4.2972 -1.8473 0.9752
3.3644 4.9738 -1.8470 0.9752
2.4262 5.4920 -1.8467 0.9752
1.7929 5.2926 -1.7188 0.9769
1.4110 5.8355 -1.8466 0.9752
0.8845 5.9380 -1.8466 0.9752
0.3510 5.9932 -1.8465 0.9752
-0.7201 5.9603 -1.8466 0.9752
-1.2492 5.8725 -1.8467 0.9752
-2.2737 5.5574 -1.8469 0.9752
0.7518 5.5047 -1.8468 0.9769
0.2575 5.5498 -1.8468 0.9769
-0.2389 5.5507 -1.8468 0.9769
-0.7334 5.5074 -1.8468 0.9769
-1.2220 5.4201 -1.8469 0.9769
-1.7010 5.2897 -1.8470 0.9769
-2.1664 5.1170 -1.8471 0.9768
-2.6147 4.9036 -1.8472 0.9768
-4.4962 3.9711 -1.9940 0.9750
-5.9160 1.1208 -2.0015 0.9749
-5.9933 0.5884 -2.0018 0.9749
-6.0227 0.0511 -2.0021 0.9749
-5.9375 -1.0208 -2.0026 0.9749
-5.8235 -1.5468 -2.0029 0.9749
-5.6629 -2.0607 -2.0031 0.9749
-4.5860 -3.9137 -2.0041 0.9749
-2.9275 -5.2727 -2.0047 0.9749
-2.4454 -5.5132 -2.0048 0.9749
-1.4263 -5.8606 -2.0049 0.9749
-0.8976 -5.9646 -2.0050 0.9749
0.7146 -5.9891 -2.0049 0.9749
1.2462 -5.9012 -2.0049 0.9749
2.2753 -5.5851 -2.0047 0.9749
2.7645 -5.3594 -2.0045 0.9749
3.6727 -4.7817 -2.0042 0.9749
4.0844 -4.4344 -2.0040 0.9749
4.4634 -4.0517 -2.0038 0.9749
5.1115 -3.1929 -2.0033 0.9749
5.9024 -1.2018 -2.0023 0.9749
5.9853 -0.6701 -2.0020 0.9749
6.0074 0.4046 -2.0014 0.9749
5.8382 1.4658 -2.0009 0.9749
5.6833 1.9808 -2.0006 0.9749
5.4832 2.4798 -2.0004 0.9750
5.2394 2.9589 -2.0001 0.9750
4.9538 3.4144 -1.9999 0.9750
3.5769 4.2533 -1.8473 0.9768
1.8021 5.0665 -1.7875 0.9776
1.3873 5.3799 -1.8468 0.9769
0.9016 5.4822 -1.8468 0.9769
-0.0875 5.5551 -1.8468 0.9769
-2.0260 5.1741 -1.8471 0.9768
-2.4799 4.9729 -1.8472 0.9768
-2.9141 4.7321 -1.8473 0.9768
-4.7455 3.6932 -1.9988 0.9750
-5.0600 3.2574 -2.0004 0.9750
-5.5599 2.3065 -2.0009 0.9749
-5.8830 1.2816 -2.0014 0.9749
-5.9748 0.7515 -2.0017 0.9749
-6.0149 -0.3228 -2.0023 0.9749
-5.9629 -0.8584 -2.0025 0.9749
-5.8633 -1.3874 -2.0028 0.9749
-5.5246 -2.4083 -2.0033 0.9749
-5.0096 -3.3530 -2.0038 0.9749
-4.6908 -3.7871 -2.0040 0.9749
-4.3345 -4.1911 -2.0042 0.9749
-3.5209 -4.8958 -2.0045 0.9749
-3.0701 -5.1908 -2.0047 0.9749
-2.0986 -5.6545 -2.0049 0.9749
-1.5856 -5.8194 -2.0049 0.9749
-1.0599 -5.9379 -2.0050 0.9749
0.0127 -6.0317 -2.0050 0.9749
1.0848 -5.9331 -2.0049 0.9749
2.1222 -5.6452 -2.0047 0.9749
2.6174 -5.4329 -2.0046 0.9749
3.5411 -4.8802 -2.0043 0.9749
3.9621 -4.5442 -2.0041 0.9749
4.7059 -3.7666 -2.0036 0.9749
5.0227 -3.3312 -2.0034 0.9749
5.2993 -2.8692 -2.0031 0.9749
5.7235 -1.8809 -2.0026 0.9749
5.8677 -1.3623 -2.0023 0.9749
5.9651 -0.8331 -2.0021 0.9749
6.0148 -0.2973 -2.0018 0.9749
5.5490 2.3294 -2.0004 0.9750
5.3183 2.8151 -2.0002 0.9750
4.3699 4.1115 -1.9945 0.9750
3.3058 4.4669 -1.8472 0.9768
1.9640 5.0786 -1.8100 0.9773
1.5335 5.3402 -1.8468 0.9769
1.0507 5.4556 -1.8468 0.9769
0.0640 5.5554 -1.8468 0.9769
-0.4321 5.5391 -1.8468 0.9769
-1.4101 5.3744 -1.8469 0.9769
-2.7839 4.8097 -1.8473 0.9768
-3.2023 4.5424 -1.8474 0.9768
-3.5953 4.2389 -1.8476 0.9768
-4.1455 4.0845 -1.9345 0.9758
-4.6380 3.8172 -1.9967 0.9750
-4.9691 3.3941 -2.0003 0.9750
-5.4948 2.4572 -2.0008 0.9749
-5.8457 1.4415 -2.0013 0.9749
-6.0105 0.3793 -2.0019 0.9749
-5.7664 -1.7488 -2.0030 0.9749
-5.0990 -3.2150 -2.0037 0.9749
-4.4471 -4.0712 -2.0041 0.9749
-4.0663 -4.4523 -2.0043 0.9749
-2.7422 -5.3716 -2.0047 0.9749
-1.2214 -5.9067 -2.0050 0.9749
-0.6893 -5.9922 -2.0050 0.9749
0.3870 -6.0192 -2.0050 0.9749
1.4509 -5.8542 -2.0048 0.9749
1.9675 -5.7010 -2.0047 0.9749
3.4068 -4.9751 -2.0043 0.9749
3.8369 -4.6507 -2.0041 0.9749
4.6016 -3.8936 -2.0037 0.9749
6.0047 -0.4612 -2.0019 0.9749
6.0210 0.0765 -2.0016 0.9749
5.9894 0.6135 -2.0013 0.9749
5.7833 1.6681 -2.0008 0.9749
5.6106 2.1774 -2.0005 0.9750
5.3932 2.6691 -2.0003 0.9750
5.1329 3.1394 -2.0000 0.9750
3.9662 4.2255 -1.9264 0.9759
3.4265 4.3752 -1.8473 0.9768
3.0221 4.6632 -1.8471 0.9768
2.5937 4.9140 -1.8470 0.9769
1.6785 5.2964 -1.8469 0.9769
0.2155 5.5516 -1.8468 0.9769
-1.2630 5.4107 -1.8469 0.9769
-1.7409 5.2767 -1.8470 0.9769
-2.2051 5.1005 -1.8471 0.9768
-3.0772 4.6279 -1.8474 0.9768
-3.4783 4.3352 -1.8475 0.9768
-3.9359 4.0954 -1.8881 0.9763
-4.5274 3.9381 -1.9946 0.9750
-4.8745 3.5282 -2.0002 0.9750
-5.4255 2.6060 -2.0007 0.9749
-5.9244 1.0760 -2.0015 0.9749
-5.9976 0.5430 -2.0018 0.9749
-5.6472 -2.1034 -2.0032 0.9749
-5.4376 -2.5994 -2.0034 0.9749
-5.1846 -3.0747 -2.0036 0.9749
-4.8900 -3.5256 -2.0039 0.9749
-4.5563 -3.9483 -2.0041 0.9749
-4.1861 -4.3396 -2.0043 0.9749
-3.3484 -5.0155 -2.0046 0.9749
-2.8876 -5.2947 -2.0047 0.9749
-2.4036 -5.5316 -2.0048 0.9749
-1.9004 -5.7243 -2.0049 0.9749
-0.3161 -6.0235 -2.0050 0.9749
0.7598 -5.9835 -2.0049 0.9749
1.8114 -5.7526 -2.0048 0.9749
2.3175 -5.5677 -2.0047 0.9749
2.8050 -5.3383 -2.0045 0.9749
3.2699 -5.0662 -2.0044 0.9749
3.7087 -4.7537 -2.0042 0.9749
4.1178 -4.4033 -2.0040 0.9749
5.1354 -3.1541 -2.0033 0.9749
5.6129 -2.1902 -2.0028 0.9749
5.9113 -1.1571 -2.0022 0.9749
5.9901 -0.6248 -2.0020 0.9749
6.0212 -0.0877 -2.0017 0.9749
5.6681 2.0237 -2.0006 0.9749
5.2168 2.9984 -2.0001 0.9750
4.9278 3.4517 -1.9999 0.9750
4.5982 3.8761 -1.9991 0.9750
4.2019 4.2388 -1.9840 0.9752
3.5446 4.2802 -1.8473 0.9768
1.7698 5.0975 -1.7936 0.9775
0.3668 5.5437 -1.8468 0.9769
-0.1295 5.5543 -1.8468 0.9769
-0.6247 5.5207 -1.8468 0.9769
-1.1150 5.4431 -1.8469 0.9769
-1.5964 5.3221 -1.8470 0.9769
-2.9498 4.7100 -1.8473 0.9768
-3.7409 4.1113 -1.8477 0.9768
-4.4139 4.0559 -1.9926 0.9750
-5.7579 1.7579 -2.0012 0.9749
-5.8926 1.2371 -2.0014 0.9749
-6.0204 0.1698 -2.0020 0.9749
-6.0123 -0.3683 -2.0023 0.9749
-5.9563 -0.9035 -2.0026 0.9749
-5.8527 -1.4317 -2.0028 0.9749
-5.7023 -1.9486 -2.0031 0.9749
-5.2663 -2.9321 -2.0036 0.9749
-4.9841 -3.3908 -2.0038 0.9749
-3.0308 -5.2139 -2.0047 0.9749
-2.5535 -5.4639 -2.0048 0.9749
-1.0149 -5.9457 -2.0050 0.9749
0.0583 -6.0314 -2.0050 0.9749
0.5964 -6.0021 -2.0049 0.9749
1.1297 -5.9247 -2.0049 0.9749
1.6539 -5.8000 -2.0048 0.9749
2.6584 -5.4129 -2.0046 0.9749
3.5778 -4.8532 -2.0042 0.9749
4.3828 -4.1390 -2.0038 0.9749
4.7342 -3.7309 -2.0036 0.9749
5.0477 -3.2931 -2.0034 0.9749
5.5513 -2.3426 -2.0029 0.9749
5.9711 -0.7880 -2.0020 0.9749
6.0168 -0.2518 -2.0018 0.9749
6.0144 0.2861 -2.0015 0.9749
5.8661 1.3505 -2.0009 0.9749
5.5311 2.3713 -2.0004 0.9750
5.2968 2.8552 -2.0002 0.9750
4.3374 4.1431 -1.9938 0.9750
1.9199 5.0784 -1.8047 0.9774
1.0095 5.4634 -1.8468 0.9769
0.5178 5.5316 -1.8468 0.9769
-0.4739 5.5356 -1.8468 0.9769
-1.4507 5.3636 -1.8469 0.9769
-1.9237 5.2129 -1.8470 0.9769
-2.3814 5.0208 -1.8471 0.9768
-2.8202 4.7885 -1.8473 0.9768
-3.6273 4.2116 -1.8476 0.9768
-4.2054 4.0814 -1.9480 0.9756
-4.6681 3.7831 -1.9973 0.9750
-4.9947 3.3565 -2.0003 0.9750
-5.5132 2.4156 -2.0008 0.9749
-5.7076 1.9141 -2.0011 0.9749
-5.8565 1.3972 -2.0014 0.9749
-5.9586 0.8691 -2.0016 0.9749
-6.0199 -0.2042 -2.0022 0.9749
-5.8893 -1.2715 -2.0027 0.9749
-5.7531 -1.7923 -2.0030 0.9749
-5.3441 -2.7873 -2.0035 0.9749
-5.0746 -3.2535 -2.0037 0.9749
-4.7644 -3.6938 -2.0040 0.9749
-4.0326 -4.4829 -2.0043 0.9749
-3.1718 -5.1292 -2.0046 0.9749
-1.1767 -5.9158 -2.0050 0.9749
0.4325 -6.0161 -2.0050 0.9749
0.9677 -5.9534 -2.0049 0.9749
3.4443 -4.9491 -2.0043 0.9749
4.2685 -4.2571 -2.0039 0.9749
4.6309 -3.8587 -2.0037 0.9749
4.9562 -3.4296 -2.0034 0.9749
5.2419 -2.9732 -2.0032 0.9749
5.4856 -2.4932 -2.0029 0.9749
5.8399 -1.4778 -2.0024 0.9749
5.9477 -0.9505 -2.0021 0.9749
6.0079 -0.4158 -2.0018 0.9749
6.0202 0.1220 -2.0016 0.9749
5.9010 1.1901 -2.0010 0.9749
5.7705 1.7118 -2.0008 0.9749
5.3729 2.7098 -2.0003 0.9750
5.1090 3.1781 -2.0000 0.9750
4.8044 3.6210 -1.9998 0.9750
4.4538 4.0279 -1.9961 0.9750
3.9058 4.2246 -1.9125 0.9760
2.5564 4.9335 -1.8470 0.9769
0.6684 5.5154 -1.8468 0.9769
0.1735 5.5531 -1.8468 0.9769
-0.3228 5.5465 -1.8468 0.9769
-0.8166 5.4957 -1.8468 0.9769
-2.6885 4.8635 -1.8472 0.9768
-4.5584 3.9049 -1.9952 0.9750
-4.9011 3.4912 -2.0002 0.9750
-5.1938 3.0403 -2.0005 0.9750
-5.4451 2.5649 -2.0007 0.9749
-5.6530 2.0689 -2.0010 0.9749
-5.9215 -1.1104 -2.0027 0.9749
-4.8632 -3.5625 -2.0039 0.9749
-4.5263 -3.9827 -2.0041 0.9749
-3.3104 -5.0407 -2.0046 0.9749
-2.8475 -5.3164 -2.0047 0.9749
-2.3617 -5.5496 -2.0048 0.9749
-1.3375 -5.8815 -2.0050 0.9749
0.2683 -6.0257 -2.0050 0.9749
0.8051 -5.9776 -2.0049 0.9749
1.8548 -5.7388 -2.0048 0.9749
2.3595 -5.5500 -2.0046 0.9749
3.3081 -5.0413 -2.0043 0.9749
4.1509 -4.3720 -2.0040 0.9749
5.7977 -1.6365 -2.0025 0.9749
5.9198 -1.1124 -2.0022 0.9749
6.0005 0.4954 -2.0014 0.9749
5.9315 1.0288 -2.0011 0.9749
5.8152 1.5539 -2.0008 0.9749
5.4449 2.5624 -2.0003 0.9750
4.1324 4.2322 -1.9662 0.9754
2.2453 5.0824 -1.8469 0.9769
0.8186 5.4952 -1.8468 0.9769
-0.1715 5.5532 -1.8468 0.9769
-1.1561 5.4345 -1.8469 0.9769
-2.1041 5.1429 -1.8471 0.9768
0.6989 5.1173 -1.8470 0.9783
0.2394 5.1593 -1.8470 0.9783
-1.5813 4.9174 -1.8472 0.9783
-2.8280 4.3236 -1.8475 0.9783
-3.2440 4.1064 -1.8714 0.9780
-4.1894 3.7000 -1.9988 0.9765
-5.0248 2.4605 -2.0008 0.9765
-5.2250 2.0024 -2.0010 0.9765
-5.3836 1.5283 -2.0013 0.9765
-5.4992 1.0418 -2.0015 0.9765
-5.5982 0.0475 -2.0020 0.9765
-5.5189 -0.9488 -2.0026 0.9765
-5.2636 -1.9154 -2.0030 0.9765
-4.8403 -2.8213 -2.0035 0.9765
-4.2625 -3.6376 -2.0039 0.9765
-3.9211 -4.0039 -2.0041 0.9765
-3.5484 -4.3382 -2.0042 0.9765
-2.7209 -4.9006 -2.0045 0.9765
-1.8065 -5.3068 -2.0047 0.9765
-1.3256 -5.4470 -2.0047 0.9765
-0.3361 -5.5960 -2.0048 0.9765
1.1583 -5.4848 -2.0047 0.9765
1.6431 -5.3593 -2.0046 0.9765
3.0036 -4.7317 -2.0042 0.9765
3.4136 -4.4444 -2.0040 0.9765
3.7963 -4.1216 -2.0038 0.9765
4.4677 -3.3803 -2.0034 0.9765
4.7510 -2.9677 -2.0032 0.9765
5.4864 -1.1171 -2.0022 0.9765
5.5961 -0.1238 -2.0017 0.9765
5.5841 0.3761 -2.0015 0.9765
5.5276 0.8729 -2.0012 0.9765
5.4270 1.3625 -2.0009 0.9765
5.2830 1.8412 -2.0007 0.9765
4.8704 2.7506 -2.0003 0.9765
4.6050 3.1739 -2.0000 0.9765
3.5274 4.1945 -1.9599 0.9770
2.9587 4.2347 -1.8474 0.9783
2.1585 4.6927 -1.8471 0.9783
1.7310 4.8664 -1.8471 0.9783
1.2897 5.0013 -1.8470 0.9783
-0.5419 5.1364 -1.8470 0.9783
-1.4466 4.9586 -1.8471 0.9783
-2.3054 4.6229 -1.8474 0.9783
-4.4141 3.4354 -2.0002 0.9765
-4.9557 2.5965 -2.0007 0.9765
-5.5946 0.2001 -2.0020 0.9765
-5.5909 -0.3000 -2.0022 0.9765
-5.3137 -1.7711 -2.0030 0.9765
-5.1350 -2.2385 -2.0032 0.9765
-4.6562 -3.1165 -2.0036 0.9765
-4.3599 -3.5200 -2.0038 0.9765
-4.0287 -3.8954 -2.0040 0.9765
-3.2725 -4.5503 -2.0043 0.9765
-2.8535 -4.8245 -2.0045 0.9765
-2.4116 -5.0602 -2.0046 0.9765
-1.4737 -5.4088 -2.0047 0.9765
-0.9851 -5.5188 -2.0048 0.9765
-0.4886 -5.5847 -2.0048 0.9765
1.9725 -5.2468 -2.0045 0.9765
2.8735 -4.8119 -2.0042 0.9765
3.2912 -4.5359 -2.0041 0.9765
3.6826 -4.2237 -2.0039 0.9765
4.3740 -3.5009 -2.0035 0.9765
4.6685 -3.0962 -2.0033 0.9765
4.9256 -2.6669 -2.0031 0.9765
5.4541 -1.2663 -2.0023 0.9765
5.5446 -0.7744 -2.0020 0.9765
5.4623 1.2141 -2.0010 0.9765
5.1582 2.1654 -2.0005 0.9765
4.9438 2.6168 -2.0003 0.9765
4.3988 3.4534 -1.9999 0.9765
2.6901 4.4099 -1.8473 0.9783
2.2856 4.6322 -1.8472 0.9783
1.8630 4.8175 -1.8471 0.9783
1.4256 4.9644 -1.8470 0.9783
0.9768 5.0717 -1.8470 0.9783
0.5202 5.1386 -1.8470 0.9783
0.0595 5.1645 -1.8470 0.9783
-0.4016 5.1493 -1.8470 0.9783
-2.1784 4.6840 -1.8473 0.9783
-2.5880 4.4712 -1.8474 0.9783
-3.9740 3.9156 -1.9951 0.9766
-4.6192 3.1551 -2.0004 0.9765
-5.1077 2.2841 -2.0009 0.9765
-5.4338 1.3399 -2.0014 0.9765
-5.5869 0.3526 -2.0019 0.9765
-5.5968 -0.1475 -2.0021 0.9765
-5.5620 -0.6465 -2.0024 0.9765
-5.4828 -1.1405 -2.0027 0.9765
-5.3598 -1.6255 -2.0029 0.9765
-5.1939 -2.0976 -2.0031 0.9765
-4.9866 -2.5531 -2.0034 0.9765
-4.4541 -3.3997 -2.0038 0.9765
-3.7794 -4.1381 -2.0041 0.9765
-2.9839 -4.7448 -2.0044 0.9765
-2.5487 -4.9925 -2.0045 0.9765
-1.1352 -5.4899 -2.0047 0.9765
-0.6407 -5.5693 -2.0048 0.9765
0.8576 -5.5399 -2.0047 0.9765
1.3485 -5.4410 -2.0046 0.9765
3.9374 -3.9867 -2.0038 0.9765
5.0812 -2.3559 -2.0029 0.9765
5.2706 -1.8928 -2.0026 0.9765
5.5217 -0.9253 -2.0021 0.9765
5.5815 -0.4287 -2.0019 0.9765
5.5968 0.0711 -2.0016 0.9765
5.5674 0.5703 -2.0014 0.9765
5.3760 1.5506 -2.0009 0.9765
5.2155 2.0240 -2.0006 0.9765
5.0134 2.4811 -2.0004 0.9765
4.4915 3.3322 -2.0000 0.9765
4.1758 3.7195 -1.9998 0.9765
3.2823 4.1911 -1.9037 0.9776
1.9937 4.7649 -1.8471 0.9783
1.1147 5.0432 -1.8470 0.9783
0.6602 5.1225 -1.8470 0.9783
0.2003 5.1609 -1.8470 0.9783
-0.7205 5.1145 -1.8470 0.9783
-1.6184 4.9053 -1.8472 0.9783
-2.0499 4.7415 -1.8473 0.9783
-3.2928 4.1040 -1.8816 0.9779
-4.2184 3.6692 -1.9993 0.9765
-4.5313 3.2797 -2.0003 0.9765
-5.2401 1.9629 -2.0010 0.9765
-5.3950 1.4875 -2.0013 0.9765
-5.5070 1.0002 -2.0015 0.9765
-5.5750 0.5048 -2.0018 0.9765
-5.5773 -0.4946 -2.0023 0.9765
-5.2490 -1.9551 -2.0031 0.9765
-4.5450 -3.2769 -2.0037 0.9765
-4.2349 -3.6698 -2.0039 0.9765
-3.8908 -4.0335 -2.0041 0.9765
-2.2340 -5.1412 -2.0046 0.9765
-1.2844 -5.4568 -2.0047 0.9765
-0.7923 -5.5498 -2.0048 0.9765
0.2070 -5.6022 -2.0047 0.9765
2.6070 -4.9616 -2.0043 0.9765
3.0392 -4.7088 -2.0042 0.9765
3.8273 -4.0927 -2.0038 0.9765
4.1769 -3.7344 -2.0036 0.9765
4.4931 -3.3464 -2.0034 0.9765
4.7733 -2.9317 -2.0032 0.9765
5.0153 -2.4936 -2.0030 0.9765
5.2172 -2.0358 -2.0027 0.9765
5.4946 -1.0756 -2.0022 0.9765
5.5680 -0.5808 -2.0019 0.9765
5.5208 0.9146 -2.0012 0.9765
5.4164 1.4035 -2.0009 0.9765
5.0794 2.3436 -2.0005 0.9765
4.8494 2.7873 -2.0002 0.9765
4.5808 3.2086 -2.0000 0.9765
4.2758 3.6043 -1.9998 0.9765
3.9299 3.9644 -1.9962 0.9766
3.4730 4.1938 -1.9472 0.9771
2.9266 4.2569 -1.8473 0.9783
2.5348 4.5008 -1.8472 0.9783
0.7996 5.1026 -1.8470 0.9783
-0.5807 5.1322 -1.8470 0.9783
-1.4840 4.9475 -1.8472 0.9783
-1.9198 4.7956 -1.8472 0.9783
-2.7422 4.3784 -1.8475 0.9783
-3.1233 4.1179 -1.8482 0.9783
-4.7264 2.9924 -2.0005 0.9765
-4.9752 2.5589 -2.0007 0.9765
-5.1844 2.1049 -2.0010 0.9765
-5.4774 1.1499 -2.0015 0.9765
-5.5589 0.6566 -2.0017 0.9765
-5.5961 0.1578 -2.0020 0.9765
-5.5885 -0.3423 -2.0022 0.9765
-5.4400 -1.3308 -2.0028 0.9765
-5.3002 -1.8112 -2.0030 0.9765
-5.1180 -2.2773 -2.0032 0.9765
-4.6326 -3.1516 -2.0037 0.9765
-4.3332 -3.5529 -2.0039 0.9765
-3.9992 -3.9258 -2.0040 0.9765
-3.2380 -4.5750 -2.0043 0.9765
-2.8169 -4.8460 -2.0045 0.9765
-2.3733 -5.0783 -2.0046 0.9765
-1.4327 -5.4198 -2.0047 0.9765
0.5543 -5.5785 -2.0047 0.9765
1.5372 -5.3907 -2.0046 0.9765
2.4708 -5.0310 -2.0044 0.9765
2.9098 -4.7900 -2.0042 0.9765
3.7144 -4.1957 -2.0039 0.9765
4.4003 -3.4677 -2.0035 0.9765
5.1599 -2.1774 -2.0028 0.9765
5.4635 -1.2250 -2.0023 0.9765
5.5503 -0.7324 -2.0020 0.9765
5.5928 -0.2341 -2.0018 0.9765
5.5906 0.2660 -2.0015 0.9765
5.3184 1.7368 -2.0008 0.9765
5.1416 2.2043 -2.0005 0.9765
4.6668 3.0827 -2.0001 0.9765
4.3726 3.4865 -1.9999 0.9765
3.6685 4.1918 -1.9920 0.9766
2.6567 4.4301 -1.8473 0.9783
2.2505 4.6493 -1.8472 0.9783
1.8265 4.8314 -1.8471 0.9783
0.9384 5.0789 -1.8470 0.9783
0.0205 5.1648 -1.8470 0.9783
-0.8981 5.0864 -1.8471 0.9783
-1.3486 4.9861 -1.8471 0.9783
-2.6217 4.4515 -1.8475 0.9783
-3.5244 4.0921 -1.9313 0.9773
-4.0045 3.8864 -1.9956 0.9766
-4.9034 2.6935 -2.0006 0.9765
-5.1249 2.2454 -2.0009 0.9765
-5.4438 1.2988 -2.0014 0.9765
-5.5387 0.8079 -2.0016 0.9765
-5.4741 -1.1819 -2.0027 0.9765
-5.3474 -1.6660 -2.0029 0.9765
-5.1780 -2.1368 -2.0032 0.9765
-4.4284 -3.4333 -2.0038 0.9765
-4.1046 -3.8152 -2.0040 0.9765
-2.9480 -4.7673 -2.0044 0.9765
-2.5108 -5.0117 -2.0045 0.9765
-2.0536 -5.2160 -2.0046 0.9765
-1.5800 -5.3786 -2.0047 0.9765
0.8994 -5.5332 -2.0047 0.9765
1.8687 -5.2847 -2.0045 0.9765
2.3328 -5.0966 -2.0044 0.9765
2.7781 -4.8677 -2.0043 0.9765
3.2013 -4.5999 -2.0041 0.9765
3.5987 -4.2955 -2.0039 0.9765
3.9674 -3.9568 -2.0038 0.9765
4.3042 -3.5865 -2.0036 0.9765
4.8722 -2.7635 -2.0031 0.9765
5.0988 -2.3174 -2.0029 0.9765
5.5845 -0.3865 -2.0018 0.9765
5.5960 0.1134 -2.0016 0.9765
5.5629 0.6124 -2.0013 0.9765
5.4853 1.1063 -2.0011 0.9765
5.3640 1.5912 -2.0008 0.9765
4.9945 2.5189 -2.0004 0.9765
4.4661 3.3661 -1.9999 0.9765
3.2312 4.1907 -1.8924 0.9778
2.3765 4.5863 -1.8472 0.9783
1.5231 4.9353 -1.8470 0.9783
1.0765 5.0515 -1.8470 0.9783
-1.2121 5.0210 -1.8471 0.9783
-1.6555 4.8929 -1.8472 0.9783
-2.0857 4.7259 -1.8473 0.9783
-2.8931 4.2804 -1.8476 0.9783
-3.8936 3.9905 -1.9938 0.9766
-4.5560 3.2454 -2.0004 0.9765
-4.8280 2.8261 -2.0006 0.9765
-5.0616 2.3842 -2.0008 0.9765
-5.4062 1.4467 -2.0013 0.9765
-5.5144 0.9585 -2.0016 0.9765
-5.5984 -0.0371 -2.0021 0.9765
-5.5041 -1.0322 -2.0026 0.9765
-5.0358 -2.4543 -2.0033 0.9765
-4.5202 -3.3112 -2.0037 0.9765
-3.8602 -4.0628 -2.0041 0.9765
-3.4824 -4.3914 -2.0043 0.9765
-3.0768 -4.6851 -2.0044 0.9765
-0.7503 -5.5556 -2.0048 0.9765
-0.2515 -5.6004 -2.0048 0.9765
0.2494 -5.6004 -2.0047 0.9765
0.7482 -5.5557 -2.0047 0.9765
1.2411 -5.4666 -2.0046 0.9765
1.7239 -5.3338 -2.0046 0.9765
2.6445 -4.9417 -2.0043 0.9765
3.4804 -4.3921 -2.0040 0.9765
3.8581 -4.0636 -2.0038 0.9765
4.2050 -3.7027 -2.0036 0.9765
5.0339 -2.4556 -2.0029 0.9765
5.2324 -1.9963 -2.0027 0.9765
5.5721 -0.5387 -2.0019 0.9765
5.5973 -0.0392 -2.0017 0.9765
5.5777 0.4605 -2.0014 0.9765
5.4056 1.4444 -2.0009 0.9765
5.2545 1.9209 -2.0007 0.9765
5.0615 2.3819 -2.0004 0.9765
4.2483 3.6365 -1.9998 0.9765
3.4193 4.1931 -1.9348 0.9773
2.5007 4.5198 -1.8472 0.9783
1.6572 4.8920 -1.8471 0.9783
1.2139 5.0202 -1.8470 0.9783
-0.1594 5.1624 -1.8470 0.9783
-0.6195 5.1277 -1.8470 0.9783
-1.5214 4.9362 -1.8472 0.9783
0.6522 4.7758 -1.8472 0.9796
-0.2073 4.8157 -1.8472 0.9796
-0.6363 4.7781 -1.8472 0.9796
-1.0602 4.7024 -1.8473 0.9796
-1.4757 4.5892 -1.8473 0.9796
-1.8795 4.4394 -1.8474 0.9796
-2.2684 4.2541 -1.8475 0.9796
-3.2228 4.0795 -1.9923 0.9780
-3.9122 3.4552 -2.0002 0.9779
-4.4651 2.7052 -2.0006 0.9779
-4.6892 2.2961 -2.0008 0.9779
-5.0239 1.4262 -2.0013 0.9779
-5.1317 0.9722 -2.0015 0.9779
-5.1986 0.5104 -2.0018 0.9779
-5.2241 0.0443 -2.0020 0.9779
-5.0510 -1.3416 -2.0027 0.9779
-4.5166 -2.6326 -2.0034 0.9779
-3.9773 -3.3943 -2.0038 0.9779
-2.9367 -4.3276 -2.0042 0.9778
-2.5389 -4.5727 -2.0043 0.9778
-2.1207 -4.7813 -2.0044 0.9778
-1.6856 -4.9516 -2.0045 0.9778
-1.2369 -5.0824 -2.0045 0.9778
-0.3136 -5.2215 -2.0046 0.9778
0.1536 -5.2286 -2.0046 0.9778
1.9732 -4.8436 -2.0043 0.9778
3.5423 -3.8459 -2.0037 0.9779
4.1689 -3.1542 -2.0033 0.9779
4.4333 -2.7692 -2.0031 0.9779
4.6622 -2.3623 -2.0029 0.9779
4.8539 -1.9365 -2.0027 0.9779
5.0068 -1.4954 -2.0024 0.9779
5.1197 -1.0424 -2.0022 0.9779
5.2110 0.3509 -2.0015 0.9779
5.1583 0.8145 -2.0012 0.9779
4.9302 1.7183 -2.0008 0.9779
4.7566 2.1512 -2.0006 0.9779
4.2975 2.9620 -2.0002 0.9779
4.0156 3.3334 -2.0000 0.9779
3.7018 3.6782 -1.9998 0.9779
1.2036 4.6675 -1.8472 0.9796
0.7822 4.7563 -1.8472 0.9796
0.3546 4.8071 -1.8472 0.9796
-0.0759 4.8196 -1.8472 0.9796
-2.1515 4.3143 -1.8475 0.9796
-2.5369 4.1197 -1.8541 0.9795
-3.0558 4.0929 -1.9574 0.9784
-4.3895 2.8258 -2.0006 0.9779
-4.8230 2.0008 -2.0010 0.9779
-4.9829 1.5626 -2.0012 0.9779
-5.1031 1.1117 -2.0015 0.9779
-5.1826 0.6519 -2.0017 0.9779
-5.2207 0.1868 -2.0020 0.9779
-5.2172 -0.2800 -2.0022 0.9779
-5.1720 -0.7446 -2.0024 0.9779
-4.9584 -1.6526 -2.0029 0.9779
-4.7916 -2.0888 -2.0031 0.9779
-4.5865 -2.5084 -2.0033 0.9779
-4.3448 -2.9080 -2.0035 0.9779
-4.0683 -3.2845 -2.0037 0.9779
-3.7592 -3.6348 -2.0039 0.9778
-0.9191 -5.1495 -2.0046 0.9778
-0.4559 -5.2110 -2.0046 0.9778
1.3962 -5.0407 -2.0044 0.9778
1.8405 -4.8957 -2.0043 0.9778
2.2700 -4.7117 -2.0042 0.9778
2.6812 -4.4900 -2.0041 0.9778
3.0710 -4.2324 -2.0039 0.9778
3.7740 -3.6184 -2.0036 0.9779
4.0814 -3.2668 -2.0034 0.9779
4.3563 -2.8892 -2.0032 0.9779
4.5963 -2.4886 -2.0030 0.9779
4.7995 -2.0682 -2.0027 0.9779
4.9643 -1.6314 -2.0025 0.9779
5.0895 -1.1817 -2.0023 0.9779
5.1741 -0.7226 -2.0020 0.9779
5.2173 -0.2579 -2.0018 0.9779
5.1788 0.6736 -2.0013 0.9779
5.0974 1.1330 -2.0011 0.9779
4.8137 2.0208 -2.0006 0.9779
4.6136 2.4421 -2.0004 0.9779
4.3768 2.8438 -2.0002 0.9779
3.8008 3.5760 -1.9999 0.9779
2.1331 4.3230 -1.8473 0.9796
1.7387 4.4959 -1.8473 0.9796
0.4855 4.7956 -1.8472 0.9796
-0.8023 4.7531 -1.8472 0.9796
-1.6347 4.5351 -1.8474 0.9796
-2.0330 4.3713 -1.8475 0.9796
-4.3107 2.9443 -2.0005 0.9779
-4.7665 2.1315 -2.0009 0.9779
-4.9383 1.6978 -2.0012 0.9779
-5.0707 1.2504 -2.0014 0.9779
-5.2135 0.3290 -2.0019 0.9779
-5.2227 -0.1376 -2.0021 0.9779
-5.1902 -0.6033 -2.0024 0.9779
-5.1162 -1.0642 -2.0026 0.9779
-4.6531 -2.3823 -2.0033 0.9779
-3.8568 -3.5309 -2.0038 0.9778
-2.3781 -4.6584 -2.0044 0.9778
-1.9529 -4.8523 -2.0044 0.9778
-1.5121 -5.0074 -2.0045 0.9778
-1.0592 -5.1225 -2.0045 0.9778
-0.5978 -5.1966 -2.0046 0.9778
1.7063 -4.9442 -2.0044 0.9778
2.1407 -4.7719 -2.0042 0.9778
2.9546 -4.3147 -2.0040 0.9778
4.5268 -2.6131 -2.0030 0.9779
4.7415 -2.1984 -2.0028 0.9779
5.1526 -0.8634 -2.0021 0.9779
5.2085 -0.4001 -2.0019 0.9779
5.2228 0.0664 -2.0016 0.9779
5.1954 0.5322 -2.0014 0.9779
5.0168 1.4470 -2.0009 0.9779
4.8671 1.8888 -2.0007 0.9779
4.4528 2.7235 -2.0003 0.9779
4.1916 3.1097 -2.0001 0.9779
3.8970 3.4711 -1.9999 0.9779
2.7092 4.1804 -1.9090 0.9789
1.8606 4.4469 -1.8473 0.9796
1.4563 4.5951 -1.8472 0.9796
-0.6724 4.7731 -1.8472 0.9796
-1.0957 4.6942 -1.8473 0.9796
-1.9130 4.4250 -1.8474 0.9796
-3.6125 3.7589 -1.9979 0.9779
-4.2287 3.0607 -2.0004 0.9779
-5.0346 1.3881 -2.0013 0.9779
-5.1390 0.9334 -2.0016 0.9779
-5.2024 0.4710 -2.0018 0.9779
-5.2045 -0.4615 -2.0023 0.9779
-5.1432 -0.9243 -2.0025 0.9779
-4.7162 -2.2545 -2.0032 0.9779
-4.2410 -3.0577 -2.0036 0.9779
-3.2803 -4.0729 -2.0041 0.9778
-2.9039 -4.3497 -2.0042 0.9778
-2.0845 -4.7972 -2.0044 0.9778
-0.7393 -5.1784 -2.0046 0.9778
0.1932 -5.2273 -2.0046 0.9778
0.6589 -5.1891 -2.0045 0.9778
1.1194 -5.1094 -2.0045 0.9778
1.5709 -4.9889 -2.0044 0.9778
3.5713 -3.8189 -2.0037 0.9779
4.1926 -3.1226 -2.0033 0.9779
4.4541 -2.7356 -2.0031 0.9779
4.8684 -1.8997 -2.0027 0.9779
5.0179 -1.4575 -2.0024 0.9779
5.1273 -1.0037 -2.0022 0.9779
5.1958 -0.5420 -2.0019 0.9779
5.0546 1.3098 -2.0010 0.9779
4.9170 1.7555 -2.0008 0.9779
4.7402 2.1871 -2.0005 0.9779
4.2750 2.9944 -2.0001 0.9779
3.9903 3.3637 -2.0000 0.9779
3.6738 3.7061 -1.9998 0.9779
3.3202 4.0093 -1.9949 0.9779
1.9812 4.3946 -1.8473 0.9796
1.5810 4.5537 -1.8472 0.9796
0.3182 4.8096 -1.8472 0.9796
-0.1123 4.8188 -1.8472 0.9796
-3.1025 4.0904 -1.9674 0.9782
-4.4108 2.7926 -2.0006 0.9779
-4.6429 2.3880 -2.0008 0.9779
-4.8381 1.9643 -2.0010 0.9779
-4.9947 1.5248 -2.0013 0.9779
-5.1114 1.0731 -2.0015 0.9779
-5.1874 0.6127 -2.0017 0.9779
-5.1663 -0.7837 -2.0025 0.9779
-4.9458 -1.6901 -2.0029 0.9779
-4.3227 -2.9408 -2.0035 0.9779
-4.0433 -3.3152 -2.0037 0.9779
-3.7316 -3.6631 -2.0039 0.9778
-3.3901 -3.9819 -2.0040 0.9778
-2.2145 -4.7385 -2.0044 0.9778
-1.7828 -4.9174 -2.0045 0.9778
-1.3368 -5.0571 -2.0045 0.9778
-0.8802 -5.1563 -2.0046 0.9778
-0.4165 -5.2143 -2.0046 0.9778
0.0506 -5.2306 -2.0046 0.9778
0.9797 -5.1381 -2.0045 0.9778
1.4343 -5.0300 -2.0044 0.9778
1.8774 -4.8816 -2.0043 0.9778
2.3055 -4.6943 -2.0042 0.9778
2.7151 -4.4695 -2.0041 0.9778
3.1029 -4.2091 -2.0039 0.9778
4.8149 -2.0318 -2.0027 0.9779
4.9765 -1.5938 -2.0025 0.9779
5.0983 -1.1431 -2.0023 0.9779
5.2171 0.2482 -2.0015 0.9779
5.1735 0.7127 -2.0013 0.9779
4.9632 1.6208 -2.0008 0.9779
4.7982 2.0571 -2.0006 0.9779
4.5950 2.4769 -2.0004 0.9779
4.0806 3.2537 -2.0000 0.9779
2.5096 4.1849 -1.8700 0.9793
2.1014 4.3412 -1.8483 0.9796
1.7046 4.5089 -1.8473 0.9796
1.2954 4.6429 -1.8472 0.9796
0.8758 4.7399 -1.8472 0.9796
0.0191 4.8201 -1.8472 0.9796
-0.8382 4.7469 -1.8472 0.9796
-1.2586 4.6533 -1.8473 0.9796
-1.6689 4.5226 -1.8474 0.9796
-2.0660 4.3558 -1.8475 0.9796
-2.4467 4.1543 -1.8476 0.9796
-2.9365 4.0991 -1.9323 0.9786
-3.3968 3.9439 -1.9947 0.9780
-4.0553 3.2864 -2.0003 0.9779
-4.3328 2.9117 -2.0005 0.9779
-4.5759 2.5136 -2.0007 0.9779
-4.9511 1.6604 -2.0012 0.9779
-5.0801 1.2120 -2.0014 0.9779
-5.1686 0.7539 -2.0017 0.9779
-5.2159 0.2896 -2.0019 0.9779
-5.2216 -0.1771 -2.0021 0.9779
-5.1855 -0.6425 -2.0024 0.9779
-4.8317 -1.9939 -2.0031 0.9779
-4.6350 -2.4175 -2.0033 0.9779
-4.4011 -2.8218 -2.0035 0.9779
-4.1321 -3.2036 -2.0037 0.9779
-3.1366 -4.1848 -2.0041 0.9778
-1.9162 -4.8669 -2.0044 0.9778
-1.4742 -5.0187 -2.0045 0.9778
-1.0204 -5.1303 -2.0046 0.9778
-0.5585 -5.2010 -2.0046 0.9778
0.3751 -5.2173 -2.0045 0.9778
1.7437 -4.9311 -2.0043 0.9778
2.9871 -4.2922 -2.0040 0.9778
4.7579 -2.1624 -2.0028 0.9779
5.1589 -0.8245 -2.0021 0.9779
5.2221 0.1059 -2.0016 0.9779
5.1912 0.5715 -2.0014 0.9779
4.6609 2.3507 -2.0005 0.9779
4.4321 2.7571 -2.0003 0.9779
3.8706 3.5005 -1.9999 0.9779
3.5398 3.8288 -1.9982 0.9779
2.6652 4.1814 -1.9002 0.9790
2.2179 4.2801 -1.8474 0.9796
1.8269 4.4608 -1.8473 0.9796
1.0047 4.7143 -1.8472 0.9796
0.1505 4.8178 -1.8472 0.9796
-0.7084 4.7679 -1.8472 0.9796
-1.1312 4.6858 -1.8473 0.9796
-1.9465 4.4105 -1.8474 0.9796
-2.3325 4.2194 -1.8476 0.9796
-2.7760 4.1072 -1.8997 0.9790
-3.2855 4.0320 -1.9932 0.9780
-4.2517 3.0286 -2.0005 0.9779
-4.5055 2.6374 -2.0007 0.9779
-5.0450 1.3500 -2.0014 0.9779
-5.1459 0.8945 -2.0016 0.9779
-5.0302 -1.4179 -2.0028 0.9779
-4.8841 -1.8614 -2.0030 0.9779
-3.9256 -3.4541 -2.0038 0.9779
-3.6019 -3.7910 -2.0040 0.9778
-3.2494 -4.0976 -2.0041 0.9778
-2.4694 -4.6106 -2.0043 0.9778
-2.0482 -4.8128 -2.0044 0.9778
-1.6105 -4.9766 -2.0045 0.9778
-0.7001 -5.1838 -2.0046 0.9778
-0.2346 -5.2256 -2.0046 0.9778
0.2327 -5.2257 -2.0046 0.9778
0.6982 -5.1839 -2.0045 0.9778
2.8690 -4.3722 -2.0040 0.9778
3.2475 -4.0983 -2.0039 0.9778
3.6001 -3.7918 -2.0037 0.9779
4.4746 -2.7018 -2.0031 0.9779
4.6974 -2.2914 -2.0029 0.9779
4.8826 -1.8628 -2.0026 0.9779
5.0287 -1.4195 -2.0024 0.9779
5.1347 -0.9649 -2.0022 0.9779
5.1997 -0.5027 -2.0019 0.9779
5.0445 1.3479 -2.0010 0.9779
4.9035 1.7926 -2.0007 0.9779
4.5057 2.6353 -2.0003 0.9779
4.2521 3.0266 -2.0001 0.9779
3.9647 3.3937 -2.0000 0.9779
3.6457 3.7337 -1.9998 0.9779
3.2891 4.0334 -1.9944 0.9780
2.8258 4.1776 -1.9328 0.9786
2.3338 4.2181 -1.8474 0.9796
1.9479 4.4094 -1.8473 0.9796
1.5465 4.5655 -1.8472 0.9796
1.1329 4.6852 -1.8472 0.9796
0.2818 4.8119 -1.8472 0.9796
-0.1488 4.8179 -1.8472 0.9796
-1.0030 4.7149 -1.8473 0.9796
-1.8254 4.4618 -1.8474 0.9796
-0.1941 4.5095 -1.8473 0.9807
-1.7600 4.1570 -1.8476 0.9807
-2.1933 4.1135 -1.9079 0.9801
-4.1809 2.5330 -2.0007 0.9791
-4.3908 2.1500 -2.0009 0.9791
-4.7041 1.3354 -2.0013 0.9791
-2.2068 0.4181 -0.9193 0.9903
-1.9578 0.1922 -0.8051 0.9915
-1.9066 0.0162 -0.7804 0.9918
-1.9562 -0.1586 -0.8032 0.9916
-4.7293 -1.2562 -2.0027 0.9791
-4.5988 -1.6734 -2.0029 0.9791
-4.2288 -2.4649 -2.0033 0.9791
-3.4256 -3.4979 -2.0038 0.9791
-3.1000 -3.7900 -2.0039 0.9791
-2.7495 -4.0518 -2.0041 0.9791
-1.9855 -4.4765 -2.0043 0.9791
-1.5781 -4.6360 -2.0043 0.9791
-1.1581 -4.7585 -2.0044 0.9791
-0.7288 -4.8429 -2.0044 0.9791
-0.2936 -4.8886 -2.0044 0.9791
0.1439 -4.8953 -2.0044 0.9791
0.5802 -4.8628 -2.0044 0.9791
1.8475 -4.5349 -2.0041 0.9791
2.6240 -4.1337 -2.0039 0.9791
2.9822 -3.8827 -2.0038 0.9791
3.3166 -3.6008 -2.0036 0.9791
3.6244 -3.2901 -2.0034 0.9791
3.9033 -2.9532 -2.0032 0.9791
4.1509 -2.5928 -2.0030 0.9791
4.3653 -2.2118 -2.0028 0.9791
4.6879 -1.4002 -2.0024 0.9791
4.8611 -0.5442 -2.0020 0.9791
4.2560 2.4036 -2.0005 0.9791
4.0241 2.7736 -2.0003 0.9791
3.4663 3.4443 -1.9999 0.9791
3.1444 3.7391 -1.9995 0.9791
2.7918 3.9957 -1.9950 0.9792
1.9203 4.1748 -1.8807 0.9803
1.1271 4.3707 -1.8474 0.9807
0.3320 4.5014 -1.8473 0.9807
-0.4736 4.4888 -1.8474 0.9807
-0.8723 4.4287 -1.8474 0.9807
-1.2642 4.3333 -1.8475 0.9807
-1.6460 4.2034 -1.8475 0.9807
-2.0545 4.1198 -1.8841 0.9803
-2.5233 4.0976 -1.9695 0.9794
-2.9168 3.9067 -1.9954 0.9791
-3.5736 3.3340 -2.0003 0.9791
-4.1102 2.6460 -2.0006 0.9791
-4.5161 1.8735 -2.0011 0.9791
-4.7783 1.0410 -2.0015 0.9791
-1.9526 0.2456 -0.8054 0.9915
-4.7616 -1.1267 -2.0026 0.9791
-4.6425 -1.5474 -2.0028 0.9791
-4.0679 -2.7227 -2.0034 0.9791
-3.8090 -3.0752 -2.0036 0.9791
-3.2021 -3.7040 -2.0039 0.9791
-2.8589 -3.9752 -2.0040 0.9791
-2.4928 -4.2148 -2.0041 0.9791
-2.1068 -4.4206 -2.0042 0.9791
-1.7039 -4.5912 -2.0043 0.9791
-1.2874 -4.7251 -2.0044 0.9791
-0.8605 -4.8212 -2.0044 0.9791
0.0103 -4.8974 -2.0044 0.9791
0.4474 -4.8769 -2.0044 0.9791
0.8808 -4.8174 -2.0043 0.9791
1.3073 -4.7194 -2.0043 0.9791
2.5104 -4.2038 -2.0039 0.9791
3.2173 -3.6900 -2.0036 0.9791
3.5335 -3.3878 -2.0035 0.9791
3.8214 -3.0587 -2.0033 0.9791
4.0788 -2.7051 -2.0031 0.9791
4.4938 -1.9365 -2.0027 0.9791
4.6482 -1.5275 -2.0025 0.9791
4.8851 -0.2415 -2.0018 0.9791
4.7730 1.0609 -2.0011 0.9791
4.6587 1.4825 -2.0009 0.9791
4.3201 2.2867 -2.0005 0.9791
3.8440 3.0178 -2.0002 0.9791
3.5590 3.3486 -2.0000 0.9791
3.2457 3.6526 -1.9998 0.9791
2.5348 4.1553 -1.9921 0.9792
2.0588 4.1724 -1.9042 0.9801
1.6281 4.2100 -1.8474 0.9807
0.8536 4.4322 -1.8473 0.9807
0.4546 4.4907 -1.8473 0.9807
0.0520 4.5133 -1.8473 0.9807
-0.3510 4.5000 -1.8473 0.9807
-0.7513 4.4508 -1.8474 0.9807
-1.1455 4.3662 -1.8474 0.9807
-1.9188 4.1257 -1.8622 0.9805
-2.3759 4.1048 -1.9411 0.9797
-3.1586 3.7240 -1.9985 0.9791
-3.4813 3.4301 -2.0002 0.9791
-3.7739 3.1060 -2.0004 0.9791
-4.0364 2.7570 -2.0006 0.9791
-4.2668 2.3860 -2.0008 0.9791
-4.4632 1.9959 -2.0010 0.9791
-4.6240 1.5897 -2.0012 0.9791
-4.7480 1.1708 -2.0014 0.9791
-1.9232 -0.0507 -0.7874 0.9917
-1.9553 -0.2273 -0.8056 0.9915
-4.7904 -0.9964 -2.0026 0.9791
-4.5379 -1.8326 -2.0030 0.9791
-4.3566 -2.2305 -2.0032 0.9791
-3.8914 -2.9701 -2.0035 0.9791
-3.6110 -3.3059 -2.0037 0.9791
-3.3018 -3.6152 -2.0039 0.9791
-2.9662 -3.8957 -2.0040 0.9791
-2.6068 -4.1452 -2.0041 0.9791
-1.8285 -4.5430 -2.0043 0.9791
-0.5597 -4.8654 -2.0044 0.9791
-0.1232 -4.8959 -2.0044 0.9791
0.7492 -4.8396 -2.0043 0.9791
1.5976 -4.6290 -2.0042 0.9791
2.0042 -4.4677 -2.0041 0.9791
3.7367 -3.1618 -2.0034 0.9791
4.4395 -2.0583 -2.0028 0.9791
4.6050 -1.6537 -2.0025 0.9791
4.8903 0.0621 -2.0016 0.9791
4.6976 1.3550 -2.0010 0.9791
3.9250 2.9119 -2.0002 0.9791
3.6491 3.2503 -2.0000 0.9791
3.0095 3.8428 -1.9977 0.9791
2.2008 4.1696 -1.9296 0.9798
1.3637 4.3029 -1.8474 0.9807
0.9742 4.4073 -1.8473 0.9807
0.5769 4.4766 -1.8473 0.9807
0.1751 4.5102 -1.8473 0.9807
-3.0537 3.8060 -1.9971 0.9791
-3.3864 3.5236 -2.0002 0.9791
-3.6877 3.2076 -2.0003 0.9791
-3.9596 2.8659 -2.0005 0.9791
-4.5788 1.7152 -2.0011 0.9791
-4.7197 -1.2919 -2.0027 0.9791
-4.4157 -2.1109 -2.0031 0.9791
-3.9708 -2.8628 -2.0035 0.9791
-3.6998 -3.2061 -2.0037 0.9791
-3.3991 -3.5238 -2.0038 0.9791
-2.3446 -4.2991 -2.0042 0.9791
-1.1221 -4.7671 -2.0044 0.9791
-0.6921 -4.8483 -2.0044 0.9791
-0.2567 -4.8907 -2.0044 0.9791
0.1809 -4.8941 -2.0044 0.9791
1.0481 -4.7837 -2.0043 0.9791
1.4708 -4.6709 -2.0042 0.9791
1.8817 -4.5208 -2.0041 0.9791
2.2776 -4.3346 -2.0040 0.9791
2.6552 -4.1137 -2.0039 0.9791
3.3437 -3.5756 -2.0036 0.9791
3.6492 -3.2626 -2.0034 0.9791
4.3818 -2.1787 -2.0028 0.9791
4.5583 -1.7787 -2.0026 0.9791
4.6984 -1.3646 -2.0024 0.9791
4.8009 -0.9398 -2.0022 0.9791
4.8904 -0.0712 -2.0017 0.9791
4.8240 0.7992 -2.0013 0.9791
4.7329 1.2264 -2.0010 0.9791
4.6041 1.6438 -2.0008 0.9791
4.4386 2.0479 -2.0006 0.9791
4.2377 2.4357 -2.0004 0.9791
3.4402 3.4704 -1.9999 0.9791
1.0940 4.3791 -1.8474 0.9807
0.6988 4.4592 -1.8473 0.9807
-0.5075 4.4851 -1.8474 0.9807
-1.2969 4.3237 -1.8475 0.9807
-3.2890 3.6146 -2.0001 0.9791
-3.5987 3.3069 -2.0003 0.9791
-4.1301 2.6149 -2.0007 0.9791
-4.3475 2.2360 -2.0009 0.9791
-4.6768 1.4278 -2.0013 0.9791
-4.7861 1.0048 -2.0015 0.9791
-1.9548 0.2309 -0.8056 0.9915
-1.9248 0.0543 -0.7881 0.9917
-1.9475 -0.1193 -0.7985 0.9916
-1.9720 -0.2991 -0.8163 0.9914
-4.4715 -1.9896 -2.0031 0.9791
-4.2765 -2.3810 -2.0033 0.9791
-3.7857 -3.1039 -2.0036 0.9791
-3.4938 -3.4297 -2.0038 0.9791
-3.1740 -3.7281 -2.0039 0.9791
-2.8288 -3.9968 -2.0040 0.9791
-2.4609 -4.2335 -2.0041 0.9791
-1.2516 -4.7347 -2.0044 0.9791
-0.3899 -4.8819 -2.0044 0.9791
0.0474 -4.8972 -2.0044 0.9791
1.3429 -4.7093 -2.0042 0.9791
1.7578 -4.5705 -2.0042 0.9791
2.5421 -4.1847 -2.0039 0.9791
3.2451 -3.6655 -2.0036 0.9791
3.5590 -3.3610 -2.0035 0.9791
3.8444 -3.0296 -2.0033 0.9791
4.0991 -2.6742 -2.0031 0.9791
4.5083 -1.9024 -2.0027 0.9791
4.7736 -1.0703 -2.0022 0.9791
4.8496 -0.6400 -2.0020 0.9791
4.8868 -0.2045 -2.0018 0.9791
4.8850 0.2324 -2.0016 0.9791
4.8442 0.6674 -2.0013 0.9791
4.4929 1.9262 -2.0007 0.9791
4.3026 2.3193 -2.0005 0.9791
3.5336 3.3753 -2.0000 0.9791
2.0200 4.1731 -1.8975 0.9802
1.2130 4.3477 -1.8474 0.9807
0.4207 4.4940 -1.8473 0.9807
-0.7849 4.4450 -1.8474 0.9807
-1.5628 4.2350 -1.8475 0.9807
-1.9561 4.1241 -1.8681 0.9805
-2.4164 4.1028 -1.9488 0.9796
-2.8379 3.9615 -1.9945 0.9792
-3.1873 3.7008 -1.9990 0.9791
-3.5071 3.4037 -2.0002 0.9791
-3.7973 3.0774 -2.0004 0.9791
-4.0572 2.7264 -2.0006 0.9791
-4.2847 2.3537 -2.0008 0.9791
-4.6359 1.5547 -2.0012 0.9791
-4.7567 1.1349 -2.0015 0.9791
-1.9532 -0.2420 -0.8055 0.9915
-4.5239 -1.8669 -2.0030 0.9791
-4.3397 -2.2635 -2.0032 0.9791
-4.1207 -2.6420 -2.0034 0.9791
-3.8688 -2.9995 -2.0036 0.9791
-3.2744 -3.6401 -2.0039 0.9791
-2.5754 -4.1648 -2.0041 0.9791
-2.1935 -4.3782 -2.0042 0.9791
-0.5229 -4.8695 -2.0044 0.9791
2.0379 -4.4524 -2.0041 0.9791
2.4271 -4.2525 -2.0040 0.9791
2.7967 -4.0187 -2.0038 0.9791
3.1440 -3.7527 -2.0037 0.9791
4.0247 -2.7850 -2.0031 0.9791
4.2568 -2.4145 -2.0029 0.9791
4.4549 -2.0247 -2.0027 0.9791
4.6173 -1.6188 -2.0025 0.9791
4.8607 0.5351 -2.0014 0.9791
4.5439 1.8030 -2.0008 0.9791
4.3644 2.2012 -2.0006 0.9791
3.9028 2.9415 -2.0002 0.9791
3.6244 3.2778 -2.0000 0.9791
2.9798 3.8647 -1.9973 0.9791
2.1610 4.1704 -1.9224 0.9799
1.7128 4.1821 -1.8496 0.9807
0.9408 4.4145 -1.8473 0.9807
-0.2623 4.5061 -1.8473 0.9807
-1.0593 4.3879 -1.8474 0.9807
-1.8245 4.1340 -1.8494 0.9807
-2.2719 4.1098 -1.9219 0.9799
-2.7271 4.0349 -1.9932 0.9792
-3.0830 3.7836 -1.9975 0.9791
-3.7119 3.1797 -2.0004 0.9791
-3.9812 2.8360 -2.0005 0.9791
-4.2189 2.4696 -2.0007 0.9791
-4.4229 2.0834 -2.0009 0.9791
-4.5917 1.6805 -2.0012 0.9791
-4.7239 1.2641 -2.0014 0.9791
-1.9047 -0.0126 -0.7796 0.9918
-2.1990 -0.4124 -0.9157 0.9904
-4.3996 -2.1442 -2.0031 0.9791
-4.1911 -2.5286 -2.0033 0.9791
-3.9491 -2.8928 -2.0035 0.9791
-3.6754 -3.2340 -2.0037 0.9791
-3.3724 -3.5494 -2.0038 0.9791
-3.0423 -3.8365 -2.0040 0.9791
-1.0860 -4.7754 -2.0044 0.9791
-0.6555 -4.8534 -2.0044 0.9791
-0.2197 -4.8925 -2.0044 0.9791
0.2179 -4.8926 -2.0044 0.9791
1.9158 -4.5064 -2.0041 0.9791
2.6862 -4.0935 -2.0039 0.9791
3.9474 -2.8938 -2.0032 0.9791
4.3981 -2.1455 -2.0028 0.9791
4.7085 -1.3291 -2.0024 0.9791
4.8078 -0.9034 -2.0021 0.9791
4.8907 -0.0342 -2.0017 0.9791
4.8737 0.4024 -2.0015 0.9791
4.8178 0.8356 -2.0012 0.9791
4.4229 2.0814 -2.0006 0.9791
3.7125 3.1779 -2.0001 0.9791
2.7300 4.0360 -1.9942 0.9792
1.8448 4.1761 -1.8685 0.9805
0.6650 4.4644 -1.8473 0.9807
-1.7094 4.1781 -1.8476 0.9807
0.5736 4.2001 -1.8475 0.9817
-0.9344 4.1442 -1.8514 0.9816
-1.3276 4.1286 -1.8901 0.9813
-1.7411 4.1126 -1.9463 0.9807
-2.8449 3.6012 -2.0001 0.9802
-3.4403 3.0385 -2.0004 0.9802
-3.9265 2.3788 -2.0008 0.9802
-4.1235 2.0191 -2.0010 0.9802
-4.2877 1.6432 -2.0012 0.9802
-1.4979 0.2838 -0.6644 0.9934
-1.5265 0.1499 -0.6685 0.9933
-1.5241 0.0129 -0.6643 0.9934
-1.5965 -0.5809 -0.7404 0.9926
-3.7490 -2.6601 -2.0034 0.9801
-3.2168 -3.2847 -2.0037 0.9801
-2.9110 -3.5590 -2.0038 0.9801
-2.2321 -4.0202 -2.0040 0.9801
-1.4819 -4.3533 -2.0042 0.9801
-1.0875 -4.4683 -2.0042 0.9801
-0.2757 -4.5906 -2.0042 0.9801
0.5448 -4.5663 -2.0042 0.9801
0.9502 -4.4994 -2.0042 0.9801
2.4640 -3.8817 -2.0038 0.9801
3.4036 -3.0897 -2.0033 0.9801
3.8979 -2.4348 -2.0030 0.9801
4.5017 -0.9166 -2.0022 0.9802
4.5359 0.7163 -2.0013 0.9802
4.3354 1.5110 -2.0009 0.9802
3.2554 3.2347 -2.0001 0.9802
2.9535 3.5121 -1.9999 0.9802
1.9100 4.1526 -1.9920 0.9803
-3.3561 3.1311 -2.0004 0.9802
-3.6225 2.8193 -2.0005 0.9802
-3.8600 2.4850 -2.0007 0.9802
-4.2412 1.7594 -2.0011 0.9802
-1.5206 0.1913 -0.6679 0.9933
-1.5284 0.0547 -0.6665 0.9933
-1.5295 -0.0821 -0.6676 0.9933
-1.5151 -0.2181 -0.6671 0.9933
-4.2130 -1.8366 -2.0030 0.9801
-3.8200 -2.5568 -2.0033 0.9801
-3.3051 -3.1957 -2.0036 0.9801
-2.6846 -3.7329 -2.0039 0.9801
-1.6000 -4.3113 -2.0042 0.9801
-1.2089 -4.4370 -2.0042 0.9801
0.0097 -4.5988 -2.0042 0.9801
0.4201 -4.5795 -2.0042 0.9801
0.8271 -4.5237 -2.0042 0.9801
1.2275 -4.4316 -2.0041 0.9801
2.7001 -3.7212 -2.0037 0.9801
3.3181 -3.1813 -2.0034 0.9801
3.5885 -2.8723 -2.0032 0.9801
4.0413 -2.1881 -2.0028 0.9801
4.5876 -0.2268 -2.0018 0.9802
4.5891 0.1836 -2.0016 0.9802
4.4824 0.9963 -2.0012 0.9802
4.3751 1.3923 -2.0010 0.9802
4.2330 1.7770 -2.0008 0.9802
4.0571 2.1475 -2.0006 0.9802
3.8489 2.5008 -2.0004 0.9802
2.7298 3.6885 -1.9998 0.9802
2.3855 3.9106 -1.9964 0.9802
2.0235 4.1009 -1.9930 0.9802
1.6084 4.1590 -1.9434 0.9807
1.1956 4.1636 -1.8879 0.9813
0.8029 4.1690 -1.8503 0.9816
0.4270 4.2175 -1.8475 0.9817
0.0489 4.2388 -1.8475 0.9817
-1.4861 4.1228 -1.9099 0.9811
-1.9093 4.1053 -1.9732 0.9804
-3.2694 3.2213 -2.0003 0.9802
-3.5442 2.9169 -2.0005 0.9802
-4.0071 2.2408 -2.0008 0.9802
-4.1915 1.8744 -2.0010 0.9802
-1.5296 0.0965 -0.6679 0.9933
-1.5273 -0.0402 -0.6658 0.9934
-1.5754 -0.4778 -0.7175 0.9928
-4.2614 -1.7210 -2.0029 0.9801
-4.0912 -2.0946 -2.0031 0.9801
-3.6542 -2.7891 -2.0034 0.9801
-3.3909 -3.1044 -2.0036 0.9801
-3.1006 -3.3948 -2.0037 0.9801
-2.7854 -3.6582 -2.0039 0.9801
-2.4479 -3.8925 -2.0040 0.9801
-1.3294 -4.4023 -2.0042 0.9801
0.7035 -4.5446 -2.0042 0.9801
2.5977 -3.7935 -2.0037 0.9801
3.7596 -2.6439 -2.0031 0.9801
3.9802 -2.2975 -2.0029 0.9801
4.1690 -1.9329 -2.0027 0.9801
4.5307 -0.7592 -2.0021 0.9802
4.5799 -0.3518 -2.0019 0.9802
4.5925 0.0584 -2.0017 0.9802
4.5685 0.4680 -2.0014 0.9802
4.5080 0.8737 -2.0012 0.9802
4.2800 1.6610 -2.0008 0.9802
4.1143 2.0362 -2.0006 0.9802
3.9158 2.3950 -2.0005 0.9802
3.6861 2.7347 -2.0003 0.9802
3.1407 3.3460 -2.0000 0.9802
2.8294 3.6127 -1.9999 0.9802
2.4927 3.8463 -1.9975 0.9802
-0.9667 4.1416 -1.8535 0.9816
-1.7773 4.1110 -1.9519 0.9806
-2.8720 3.5796 -2.0001 0.9802
-3.9444 2.3491 -2.0008 0.9802
-1.5987 0.5989 -0.7440 0.9926
-1.4996 0.2724 -0.6642 0.9934
-1.5276 0.1383 -0.6685 0.9933
-1.5224 0.0014 -0.6635 0.9934
-1.5598 -0.4270 -0.7048 0.9930
-4.1466 -1.9822 -2.0030 0.9801
-3.7288 -2.6884 -2.0034 0.9801
-3.4742 -3.0107 -2.0035 0.9801
-3.1919 -3.3090 -2.0037 0.9801
-2.8840 -3.5809 -2.0038 0.9801
-2.2017 -4.0370 -2.0040 0.9801
-1.8326 -4.2176 -2.0041 0.9801
-1.4489 -4.3644 -2.0042 0.9801
-0.6499 -4.5527 -2.0042 0.9801
-0.2410 -4.5925 -2.0042 0.9801
0.9842 -4.4921 -2.0041 0.9801
1.3811 -4.3861 -2.0041 0.9801
1.7670 -4.2452 -2.0040 0.9801
2.1387 -4.0703 -2.0039 0.9801
2.4933 -3.8630 -2.0038 0.9801
3.6862 -2.7455 -2.0031 0.9801
3.9162 -2.4053 -2.0030 0.9801
4.1149 -2.0460 -2.0028 0.9801
4.2806 -1.6704 -2.0026 0.9802
4.4122 -1.2815 -2.0024 0.9802
4.5084 -0.8825 -2.0021 0.9802
4.5925 -0.0669 -2.0017 0.9802
4.5303 0.7505 -2.0013 0.9802
4.4448 1.1518 -2.0011 0.9802
3.5091 2.9581 -2.0002 0.9802
3.2308 3.2592 -2.0000 0.9802
2.2463 3.9885 -1.9950 0.9802
1.8731 4.1547 -1.9862 0.9803
1.4447 4.1611 -1.9197 0.9810
1.0404 4.1646 -1.8708 0.9814
0.6563 4.1880 -1.8475 0.9817
-0.4766 4.2123 -1.8475 0.9817
-2.0713 4.0760 -1.9926 0.9802
-2.4309 3.8814 -1.9959 0.9802
-2.7730 3.6560 -1.9998 0.9802
-3.0888 3.3946 -2.0002 0.9802
-3.6437 2.7918 -2.0006 0.9802
-4.0828 2.0999 -2.0009 0.9802
-1.5763 0.4812 -0.7183 0.9928
-1.5153 0.3181 -0.6748 0.9933
-1.5226 0.1798 -0.6682 0.9933
-1.5275 0.0431 -0.6660 0.9934
-1.5296 -0.0937 -0.6679 0.9933
-1.5414 -0.3771 -0.6916 0.9931
-4.1990 -1.8684 -2.0030 0.9801
-3.5550 -2.9148 -2.0035 0.9801
-3.2809 -3.2206 -2.0036 0.9801
-2.3109 -3.9754 -2.0040 0.9801
-1.9469 -4.1660 -2.0041 0.9801
-1.5674 -4.3233 -2.0042 0.9801
-1.1753 -4.4460 -2.0042 0.9801
0.0445 -4.5986 -2.0042 0.9801
0.4547 -4.5762 -2.0042 0.9801
3.0473 -3.4421 -2.0035 0.9801
3.3421 -3.1561 -2.0034 0.9801
3.6101 -2.8450 -2.0032 0.9801
3.8493 -2.5112 -2.0030 0.9801
4.3757 -1.4014 -2.0024 0.9802
4.5542 -0.6010 -2.0020 0.9802
4.5892 -0.1921 -2.0018 0.9802
4.5875 0.2183 -2.0016 0.9802
4.5492 0.6267 -2.0014 0.9802
4.4747 1.0302 -2.0012 0.9802
4.2194 1.8090 -2.0008 0.9802
4.0408 2.1781 -2.0006 0.9802
3.5885 2.8613 -2.0002 0.9802
3.0222 3.4533 -2.0000 0.9802
2.7018 3.7090 -1.9998 0.9802
2.3555 3.9279 -1.9961 0.9802
1.9922 4.1155 -1.9927 0.9802
1.5725 4.1595 -1.9380 0.9808
1.1617 4.1638 -1.8840 0.9813
0.7706 4.1705 -1.8484 0.9817
-0.3616 4.2237 -1.8475 0.9817
-0.7371 4.1746 -1.8475 0.9817
-1.1186 4.1357 -1.8672 0.9815
-2.3229 3.9441 -1.9949 0.9802
-2.6706 3.7279 -1.9986 0.9802
-3.2937 3.1966 -2.0003 0.9802
-3.8102 2.5605 -2.0007 0.9802
-1.5884 0.5327 -0.7301 0.9927
-1.5372 0.3668 -0.6887 0.9931
-1.5144 0.2209 -0.6670 0.9933
-1.5282 -0.0518 -0.6664 0.9934
-1.5211 -0.1885 -0.6680 0.9933
-1.5201 -0.3282 -0.6778 0.9932
-1.5791 -0.4920 -0.7208 0.9928
-4.2483 -1.7532 -2.0029 0.9801
-3.3674 -3.1299 -2.0036 0.9801
-2.4184 -3.9109 -2.0040 0.9801
-2.0598 -4.1113 -2.0041 0.9801
-1.6847 -4.2789 -2.0041 0.9801
-1.2961 -4.4123 -2.0042 0.9801
-0.8971 -4.5104 -2.0042 0.9801
-0.0809 -4.5981 -2.0042 0.9801
0.3298 -4.5869 -2.0042 0.9801
0.7379 -4.5391 -2.0042 0.9801
1.9137 -4.1810 -2.0039 0.9801
3.5313 -2.9425 -2.0032 0.9801
3.7795 -2.6153 -2.0031 0.9801
4.1834 -1.9013 -2.0027 0.9801
4.3360 -1.5202 -2.0025 0.9802
4.4539 -1.1270 -2.0023 0.9802
4.5363 -0.7250 -2.0021 0.9802
4.5824 -0.3172 -2.0018 0.9802
4.5648 0.5025 -2.0014 0.9802
4.4018 1.3058 -2.0010 0.9802
4.0988 2.0672 -2.0006 0.9802
3.1153 3.3696 -2.0000 0.9802
2.8019 3.6340 -1.9999 0.9802
2.4631 3.8644 -1.9972 0.9802
2.1047 4.0616 -1.9937 0.9802
1.7028 4.1576 -1.9580 0.9806
0.5100 4.2083 -1.8475 0.9817
-1.3960 4.1261 -1.8984 0.9812
-1.8136 4.1095 -1.9576 0.9806
-3.7389 2.6633 -2.0006 0.9802
-1.5970 0.5845 -0.7411 0.9926
-1.5285 0.1268 -0.6684 0.9933
-1.5268 -0.1470 -0.6685 0.9933
-1.4969 -0.2807 -0.6637 0.9934
-1.5644 -0.4410 -0.7084 0.9929
-4.2944 -1.6366 -2.0029 0.9801
-3.9357 -2.3745 -2.0032 0.9801
-2.8569 -3.6026 -2.0038 0.9801
-2.1711 -4.0536 -2.0040 0.9801
-1.8007 -4.2313 -2.0041 0.9801
-1.4159 -4.3753 -2.0042 0.9801
-1.0198 -4.4843 -2.0042 0.9801
0.6138 -4.5576 -2.0042 0.9801
1.0181 -4.4845 -2.0041 0.9801
2.8552 -3.6033 -2.0036 0.9801
3.1652 -3.3338 -2.0035 0.9801
3.4498 -3.0378 -2.0033 0.9801
3.9343 -2.3756 -2.0029 0.9801
4.1302 -2.0148 -2.0027 0.9801
4.4217 -1.2481 -2.0023 0.9802
4.5150 -0.8484 -2.0021 0.9802
4.5929 -0.0322 -2.0017 0.9802
4.5245 0.7848 -2.0013 0.9802
4.4359 1.1853 -2.0011 0.9802
4.3120 1.5763 -2.0009 0.9802
4.1537 1.9547 -2.0007 0.9802
3.9623 2.3174 -2.0005 0.9802
3.2061 3.2835 -2.0000 0.9802
2.2158 4.0048 -1.9947 0.9802
1.8357 4.1554 -1.9798 0.9804
1.4097 4.1615 -1.9149 0.9810
-0.5085 4.2086 -1.8475 0.9817
-0.8824 4.1481 -1.8482 0.9817
-1.2731 4.1305 -1.8837 0.9813
-0.1781 4.1392 -1.9178 0.9819
-0.5502 4.1320 -1.9295 0.9818
-0.9293 4.1219 -1.9559 0.9815
-2.3652 3.6161 -2.0001 0.9811
-2.6787 3.3908 -2.0002 0.9811
-3.2393 2.8609 -2.0005 0.9811
-3.4820 2.5606 -2.0007 0.9811
-3.6970 2.2398 -2.0008 0.9811
-1.3127 0.2487 -0.6184 0.9941
-1.3365 0.1312 -0.6216 0.9941
-1.3189 -0.2267 -0.6195 0.9941
-3.9180 -1.8367 -2.0030 0.9811
