ply
format ascii 1.0
element vertex 1564
property float32 x
property float32 y
property float32 z
property float32 I
end_header
-5.9889 10.5228 1.3001 0.9525
9.6790 10.1936 1.5094 0.9450
6.7841 10.3387 1.3279 0.9515
4.4094 10.3738 1.2104 0.9557
3.3553 10.3844 1.1719 0.9570
2.3720 10.4539 1.1511 0.9578
1.4009 10.4133 1.1283 0.9586
0.4580 10.3250 1.1098 0.9593
-0.4756 10.5454 1.1335 0.9584
-1.4144 10.4550 1.1329 0.9584
-4.4724 10.5003 1.2256 0.9551
14.7142 10.2215 1.9239 0.9305
8.6058 10.3117 1.4422 0.9474
7.1617 10.3331 1.3500 0.9507
5.8815 10.3520 1.2785 0.9532
2.6513 10.4498 1.1577 0.9576
1.6700 10.4093 1.1321 0.9585
0.7275 10.4233 1.1220 0.9588
-0.2079 10.5414 1.1322 0.9585
-2.1406 10.6414 1.1656 0.9573
-3.1035 10.4800 1.1737 0.9570
12.9042 10.2482 1.7695 0.9359
10.6506 10.1347 1.5787 0.9426
9.0532 10.3051 1.4730 0.9463
6.2307 10.3469 1.2970 0.9526
5.0667 10.4190 1.2441 0.9545
3.9456 10.3806 1.1925 0.9563
2.9187 10.3908 1.1590 0.9575
1.9411 10.4053 1.1366 0.9583
-0.8771 10.4470 1.1258 0.9587
-1.8297 10.4611 1.1404 0.9582
-3.8528 10.4911 1.2001 0.9560
11.1919 10.1216 1.6204 0.9411
9.4272 10.1973 1.4912 0.9457
5.3950 10.4142 1.2594 0.9539
4.2480 10.3762 1.2040 0.9559
3.2037 10.3866 1.1672 0.9572
2.2263 10.4560 1.1480 0.9579
1.2600 10.4154 1.1266 0.9587
0.3265 10.5335 1.1316 0.9585
-1.5570 10.4571 1.1353 0.9584
-2.5741 10.6478 1.1763 0.9569
-3.5521 10.4867 1.1889 0.9564
-5.8211 10.5203 1.2911 0.9528
-0.5947 10.4054 0.8823 0.9590
-3.5367 10.4863 0.9368 0.9565
14.3504 10.2267 1.4917 0.9317
8.4000 10.3147 1.1261 0.9480
6.9810 10.3356 1.0558 0.9512
2.5185 10.4516 0.9101 0.9578
1.5422 10.4111 0.8909 0.9586
0.5996 10.3877 0.8808 0.9591
-0.3347 10.5432 0.8930 0.9585
-1.2628 10.3734 0.8846 0.9589
-4.3069 10.4977 0.9605 0.9555
-5.4965 10.5908 1.0101 0.9532
15.1318 10.2152 1.5455 0.9293
12.5958 10.2526 1.3748 0.9369
8.7292 10.1805 1.1353 0.9476
7.4581 10.4601 1.0875 0.9497
0.8671 10.4211 0.8852 0.9589
-0.0673 10.5392 0.8922 0.9586
-2.9887 10.6097 0.9331 0.9567
-3.9973 10.4932 0.9505 0.9559
15.8340 10.1145 1.5905 0.9274
11.0904 10.2749 1.2798 0.9411
9.2105 10.2064 1.1638 0.9463
7.8824 10.4824 1.1103 0.9487
5.2383 10.4164 0.9870 0.9543
3.0680 10.3885 0.9170 0.9574
1.1333 10.4172 0.8870 0.9588
-2.6992 10.6054 0.9264 0.9570
-5.9888 10.5227 1.0249 0.9526
13.9608 10.2325 1.4653 0.9329
11.6608 10.2664 1.3152 0.9395
9.8723 10.3972 1.2137 0.9441
8.1763 10.3180 1.1144 0.9485
6.7840 10.3386 1.0468 0.9516
4.4094 10.3737 0.9542 0.9558
2.3720 10.4538 0.9074 0.9579
-0.4756 10.5453 0.8936 0.9585
-2.4137 10.6012 0.9204 0.9573
-3.3962 10.4842 0.9329 0.9567
-4.4724 10.5002 0.9661 0.9552
-5.6377 10.5175 1.0102 0.9532
14.7139 10.2213 1.5166 0.9306
12.2641 10.2575 1.3535 0.9378
7.2821 10.5068 1.0822 0.9500
4.7461 10.4237 0.9696 0.9551
3.6470 10.3800 0.9313 0.9568
2.6513 10.4496 0.9126 0.9576
1.6700 10.4092 0.8924 0.9586
-0.2079 10.5413 0.8925 0.9586
-3.1035 10.4799 0.9252 0.9571
-4.1593 10.4956 0.9557 0.9557
12.9040 10.2481 1.3949 0.9360
10.6966 10.1784 1.2499 0.9424
7.6793 10.5010 1.1013 0.9491
2.9186 10.3907 0.9136 0.9576
-6.1777 10.5255 1.0331 0.9522
13.5847 10.2380 1.4400 0.9340
7.9571 10.3212 1.1032 0.9490
4.2479 10.3761 0.9491 0.9560
1.2600 10.4153 0.8881 0.9588
0.3265 10.5334 0.8921 0.9586
-0.6085 10.4056 0.8824 0.9590
-3.5521 10.4866 0.9373 0.9565
-5.8211 10.5202 1.0178 0.9529
-1.5428 10.4567 0.6554 0.9585
-5.8028 10.5198 0.7450 0.9530
18.8156 5.0370 1.2078 0.9249
10.1354 10.3932 0.9002 0.9435
8.3999 10.3145 0.8249 0.9481
3.5080 10.3819 0.6795 0.9570
2.5184 10.4515 0.6667 0.9578
-0.3347 10.5431 0.6541 0.9586
-4.3068 10.4976 0.7036 0.9555
-5.4968 10.5914 0.7399 0.9533
10.4460 10.1820 0.9045 0.9432
8.7291 10.1804 0.8316 0.9477
6.0638 10.3491 0.7438 0.9531
4.9137 10.4211 0.7144 0.9549
2.7995 10.4474 0.6707 0.9576
1.8123 10.4070 0.6551 0.9585
0.8671 10.4210 0.6484 0.9590
-0.0673 10.5392 0.6535 0.9586
-5.2067 10.6866 0.7372 0.9535
15.9718 10.2026 1.1752 0.9269
13.2564 10.2427 1.0388 0.9351
11.0902 10.2747 0.9375 0.9412
6.4184 10.3438 0.7549 0.9524
3.0680 10.3884 0.6717 0.9575
2.0956 10.4578 0.6614 0.9582
0.1999 10.5352 0.6534 0.9586
-0.7342 10.4074 0.6470 0.9590
-1.6860 10.4588 0.6569 0.9584
-2.7105 10.6496 0.6814 0.9569
-3.6939 10.4886 0.6896 0.9564
-4.8732 10.6817 0.7281 0.9540
16.8794 10.1891 1.2226 0.9240
3.3552 10.3842 0.6767 0.9572
2.3719 10.4537 0.6647 0.9579
1.4008 10.4131 0.6515 0.9588
0.4608 10.3897 0.6449 0.9592
-2.4238 10.6454 0.6770 0.9572
-3.3961 10.4841 0.6834 0.9568
-4.4723 10.5001 0.7077 0.9553
-5.6377 10.5174 0.7400 0.9533
14.9337 10.3740 1.1276 0.9297
8.6056 10.3115 0.8328 0.9476
7.2820 10.5067 0.7927 0.9501
5.8813 10.3518 0.7383 0.9534
1.6700 10.4091 0.6537 0.9586
0.7275 10.4231 0.6479 0.9590
-0.2079 10.5412 0.6538 0.9586
-2.1406 10.6412 0.6731 0.9574
15.5221 10.2092 1.1521 0.9282
9.0530 10.3049 0.8506 0.9465
7.6792 10.5008 0.8067 0.9492
6.2306 10.3466 0.7489 0.9527
0.0594 10.5373 0.6534 0.9586
-0.8771 10.4468 0.6501 0.9589
-5.0265 10.6398 0.7297 0.9539
9.4565 10.2290 0.8638 0.9457
7.9570 10.3211 0.8081 0.9491
4.2479 10.3760 0.6952 0.9561
3.2036 10.3864 0.6740 0.9574
1.2600 10.4152 0.6506 0.9588
0.3265 10.5333 0.6535 0.9586
-2.5741 10.6476 0.6793 0.9570
-4.7179 10.6794 0.7240 0.9543
-5.8210 10.5201 0.7456 0.9530
2.2663 10.5758 0.4265 0.9576
-0.5947 10.4052 0.4110 0.9591
-1.5428 10.4566 0.4168 0.9586
-3.5366 10.4861 0.4364 0.9567
-4.7010 10.6790 0.4601 0.9544
-5.8028 10.5197 0.4737 0.9530
18.8128 5.0362 0.7679 0.9250
14.3500 10.2264 0.6948 0.9319
11.9735 10.2615 0.6218 0.9388
8.3998 10.3144 0.5245 0.9481
1.5421 10.4109 0.4150 0.9587
-0.3347 10.5430 0.4159 0.9587
-3.2416 10.4818 0.4326 0.9570
-5.4971 10.5920 0.4705 0.9534
15.3765 10.3803 0.7315 0.9284
10.4459 10.1819 0.5752 0.9433
8.7290 10.1802 0.5288 0.9477
7.4579 10.4598 0.5065 0.9499
6.0637 10.3490 0.4730 0.9531
4.9137 10.4210 0.4543 0.9549
3.8041 10.3824 0.4360 0.9567
0.8671 10.4209 0.4123 0.9590
-0.0673 10.5391 0.4156 0.9587
-1.9599 10.4628 0.4197 0.9583
-2.9886 10.6095 0.4346 0.9568
-3.9972 10.4929 0.4428 0.9560
11.0901 10.2746 0.5961 0.9413
5.2382 10.4162 0.4597 0.9544
3.0680 10.3883 0.4271 0.9576
2.1197 10.5780 0.4254 0.9577
1.1333 10.4170 0.4132 0.9589
0.1999 10.5351 0.4155 0.9587
-3.6939 10.4885 0.4385 0.9565
-5.9887 10.5225 0.4774 0.9527
16.8790 10.1890 0.7774 0.9241
11.6605 10.2662 0.6126 0.9397
8.1761 10.3177 0.5191 0.9487
5.5417 10.3567 0.4632 0.9541
2.3992 10.5739 0.4275 0.9575
1.4008 10.4130 0.4143 0.9588
0.4608 10.3896 0.4101 0.9592
-1.4144 10.4547 0.4160 0.9586
-5.6376 10.5173 0.4705 0.9534
14.9333 10.3737 0.7170 0.9298
10.3783 10.3895 0.5790 0.9429
8.6055 10.3114 0.5296 0.9477
7.2819 10.5066 0.5041 0.9501
4.7460 10.4235 0.4516 0.9552
3.6469 10.3798 0.4338 0.9569
2.6818 10.5697 0.4300 0.9573
1.6700 10.4090 0.4157 0.9587
-0.2079 10.5411 0.4157 0.9587
-2.1406 10.6411 0.4280 0.9575
-5.3855 10.6892 0.4720 0.9532
12.9147 10.2566 0.6503 0.9361
10.6963 10.1782 0.5822 0.9426
9.0529 10.3048 0.5409 0.9466
5.0666 10.4187 0.4568 0.9547
2.9186 10.3905 0.4256 0.9577
1.9411 10.4050 0.4174 0.9585
0.0594 10.5372 0.4155 0.9587
-0.8771 10.4467 0.4134 0.9589
-6.1775 10.5252 0.4812 0.9523
13.5843 10.2377 0.6707 0.9342
11.3567 10.2707 0.6038 0.9405
6.5902 10.3412 0.4835 0.9521
5.3948 10.4138 0.4625 0.9541
4.2479 10.3759 0.4421 0.9561
3.2036 10.3863 0.4286 0.9574
0.3265 10.5332 0.4155 0.9587
-1.5569 10.4568 0.4169 0.9586
-4.7179 10.6793 0.4604 0.9543
-5.8209 10.5200 0.4741 0.9530
0.3404 10.5329 0.1780 0.9587
-1.5428 10.4565 0.1785 0.9586
-2.5485 10.6029 0.1842 0.9573
-4.7009 10.6789 0.1971 0.9544
14.3497 10.2262 0.2976 0.9319
11.9733 10.2614 0.2664 0.9389
10.1351 10.3929 0.2452 0.9436
8.3997 10.3143 0.2247 0.9482
5.7191 10.3540 0.1998 0.9538
4.5965 10.4256 0.1925 0.9554
3.5080 10.3817 0.1851 0.9571
2.5474 10.5716 0.1837 0.9574
1.5421 10.4108 0.1778 0.9588
-1.2627 10.3732 0.1765 0.9591
-3.2415 10.4817 0.1853 0.9571
-4.3067 10.4974 0.1917 0.9556
12.8072 10.4247 0.2789 0.9361
7.4579 10.4597 0.2170 0.9499
6.0636 10.3489 0.2026 0.9531
4.9137 10.4209 0.1946 0.9550
3.8041 10.3823 0.1868 0.9567
0.8671 10.4208 0.1766 0.9590
-0.0673 10.5390 0.1780 0.9587
-1.0038 10.4485 0.1773 0.9589
-2.9886 10.6094 0.1862 0.9569
-5.2066 10.6864 0.2008 0.9536
15.9713 10.2022 0.3201 0.9270
13.2560 10.2424 0.2830 0.9352
11.0900 10.2745 0.2554 0.9413
7.8813 10.4810 0.2215 0.9489
2.1197 10.5779 0.1822 0.9578
1.1333 10.4169 0.1770 0.9589
0.1999 10.5350 0.1780 0.9587
-1.6859 10.4586 0.1789 0.9585
-2.7104 10.6494 0.1856 0.9570
-3.6938 10.4883 0.1878 0.9565
-4.8731 10.6815 0.1983 0.9541
-5.9886 10.5223 0.2045 0.9527
11.6604 10.2660 0.2624 0.9397
6.7838 10.3382 0.2089 0.9517
5.5416 10.3566 0.1984 0.9541
4.4093 10.3734 0.1904 0.9559
3.3551 10.3840 0.1843 0.9573
1.4008 10.4129 0.1775 0.9588
-0.4756 10.5450 0.1783 0.9587
-1.4144 10.4546 0.1782 0.9587
-3.3961 10.4839 0.1862 0.9569
-5.6376 10.5171 0.2016 0.9534
14.9328 10.3733 0.3071 0.9298
12.4376 10.4027 0.2739 0.9372
8.6054 10.3112 0.2269 0.9477
7.2819 10.5065 0.2159 0.9501
5.8812 10.3516 0.2011 0.9535
4.7460 10.4233 0.1935 0.9552
3.6469 10.3797 0.1858 0.9569
2.6817 10.5696 0.1842 0.9573
-0.2079 10.5410 0.1781 0.9587
-1.1449 10.4506 0.1776 0.9588
-2.1406 10.6410 0.1833 0.9575
-3.1034 10.4796 0.1846 0.9572
12.9142 10.2562 0.2786 0.9362
9.0528 10.3046 0.2317 0.9466
5.0665 10.4186 0.1957 0.9547
0.0594 10.5371 0.1780 0.9587
-0.8771 10.4466 0.1771 0.9589
-2.8627 10.6517 0.1863 0.9568
-6.1774 10.5251 0.2061 0.9523
11.3565 10.2705 0.2586 0.9406
7.9568 10.3208 0.2201 0.9492
6.5901 10.3411 0.2071 0.9521
1.2600 10.4150 0.1772 0.9589
0.3265 10.5331 0.1780 0.9587
-0.6084 10.4053 0.1761 0.9592
-2.5740 10.6474 0.1850 0.9571
-4.7178 10.6792 0.1972 0.9544
2.2663 10.5756 -0.0609 0.9577
-1.5428 10.4564 -0.0595 0.9586
-2.5485 10.6028 -0.0614 0.9573
-3.5365 10.4859 -0.0623 0.9567
-4.7009 10.6788 -0.0657 0.9544
-5.8027 10.5195 -0.0676 0.9531
11.9732 10.2613 -0.0888 0.9389
8.3996 10.3142 -0.0749 0.9482
5.7190 10.3539 -0.0666 0.9538
4.6493 10.5454 -0.0649 0.9549
3.5079 10.3816 -0.0617 0.9571
2.5474 10.5715 -0.0612 0.9574
-0.3347 10.5428 -0.0594 0.9587
-1.2627 10.3731 -0.0588 0.9591
-5.4977 10.5932 -0.0672 0.9534
12.8070 10.4245 -0.0930 0.9361
10.4456 10.1816 -0.0822 0.9433
4.9494 10.4968 -0.0653 0.9546
3.8040 10.3822 -0.0623 0.9567
2.8316 10.5673 -0.0616 0.9572
1.8123 10.4067 -0.0595 0.9586
13.2558 10.2423 -0.0943 0.9352
11.0898 10.2743 -0.0851 0.9413
9.2090 10.2047 -0.0774 0.9465
6.4182 10.3435 -0.0685 0.9525
5.2983 10.5357 -0.0664 0.9539
4.1037 10.3778 -0.0628 0.9563
3.0679 10.3881 -0.0610 0.9576
2.1196 10.5778 -0.0607 0.9578
0.1999 10.5349 -0.0593 0.9587
-1.6859 10.4585 -0.0596 0.9585
-2.7104 10.6493 -0.0619 0.9570
-3.6938 10.4883 -0.0626 0.9565
-4.8731 10.6813 -0.0661 0.9541
-5.9885 10.5222 -0.0682 0.9527
16.8785 10.1886 -0.1110 0.9242
13.9600 10.2318 -0.0974 0.9331
11.6602 10.2659 -0.0875 0.9397
9.8718 10.3967 -0.0807 0.9443
0.4608 10.3894 -0.0586 0.9593
-3.3960 10.4838 -0.0620 0.9569
-5.6375 10.5170 -0.0672 0.9534
-3.4320 5.2218 -0.0352 0.9753
0.5657 -17.4572 -0.0983 0.9325
2.6817 10.5695 -0.0614 0.9573
0.7274 10.4228 -0.0588 0.9591
-2.1405 10.6409 -0.0611 0.9575
-3.1034 10.4795 -0.0615 0.9572
-4.1591 10.4951 -0.0636 0.9558
-5.3854 10.6889 -0.0674 0.9533
15.5213 10.2087 -0.1046 0.9284
12.9138 10.2558 -0.0928 0.9362
10.6960 10.1779 -0.0831 0.9427
9.0527 10.3045 -0.0772 0.9466
5.1248 10.5383 -0.0660 0.9542
2.9185 10.3903 -0.0608 0.9577
-1.8297 10.4606 -0.0598 0.9584
-5.0264 10.6395 -0.0663 0.9540
13.5839 10.2374 -0.0958 0.9342
11.3564 10.2704 -0.0862 0.9406
9.4554 10.2278 -0.0784 0.9458
6.5900 10.3410 -0.0690 0.9521
5.4162 10.4550 -0.0663 0.9540
-0.6084 10.4053 -0.0587 0.9592
-1.5569 10.4566 -0.0595 0.9586
-3.5519 10.4862 -0.0623 0.9567
-4.7178 10.6790 -0.0657 0.9544
0.3404 10.5327 -0.2967 0.9587
-1.5428 10.4563 -0.2976 0.9586
-3.5365 10.4858 -0.3116 0.9567
0.7714 -17.3583 -0.4893 0.9328
18.8046 5.0340 -0.5481 0.9251
11.9730 10.2611 -0.4440 0.9389
10.1349 10.3926 -0.4087 0.9436
6.9806 10.3351 -0.3512 0.9513
5.7190 10.3538 -0.3331 0.9538
4.6493 10.5452 -0.3245 0.9549
0.5996 10.3873 -0.2930 0.9592
-0.3347 10.5427 -0.2970 0.9587
-1.2627 10.3730 -0.2942 0.9590
-1.1234 5.2567 -0.1514 0.9787
-3.2415 10.4815 -0.3089 0.9570
-4.3067 10.4972 -0.3195 0.9556
-5.4981 10.5937 -0.3361 0.9534
-3.3617 5.2664 -0.1759 0.9753
-7.9251 7.1565 -0.3007 0.9582
15.3750 10.3793 -0.5223 0.9285
10.4455 10.1815 -0.4107 0.9433
6.0635 10.3487 -0.3377 0.9531
1.8122 10.4066 -0.2974 0.9586
-1.0038 10.4483 -0.2956 0.9589
-1.9599 10.4625 -0.2997 0.9583
-2.9885 10.6092 -0.3104 0.9569
-3.9971 10.4926 -0.3162 0.9561
-5.2065 10.6862 -0.3347 0.9535
13.2556 10.2421 -0.4717 0.9352
11.0897 10.2742 -0.4257 0.9413
9.2086 10.2043 -0.3870 0.9465
7.8806 10.4801 -0.3692 0.9489
6.4181 10.3434 -0.3428 0.9525
4.1037 10.3777 -0.3142 0.9563
3.0679 10.3880 -0.3050 0.9576
2.1196 10.5777 -0.3038 0.9577
1.1333 10.4167 -0.2950 0.9589
-2.7104 10.6492 -0.3094 0.9570
-3.6937 10.4881 -0.3131 0.9565
-4.8730 10.6812 -0.3306 0.9541
16.8782 10.1884 -0.5551 0.9241
9.8717 10.3966 -0.4037 0.9442
6.7837 10.3380 -0.3482 0.9517
2.3991 10.5736 -0.3053 0.9575
1.4008 10.4127 -0.2958 0.9588
-0.4756 10.5448 -0.2972 0.9586
-1.4143 10.4544 -0.2971 0.9587
-4.4722 10.4997 -0.3213 0.9554
14.9318 10.3727 -0.5119 0.9298
12.4368 10.4019 -0.4565 0.9372
7.2817 10.5063 -0.3599 0.9501
4.8005 10.5430 -0.3262 0.9547
2.6817 10.5694 -0.3070 0.9573
1.6699 10.4087 -0.2968 0.9587
-0.2079 10.5408 -0.2969 0.9587
-1.1448 10.4504 -0.2960 0.9588
-4.1591 10.4950 -0.3179 0.9558
-5.3853 10.6888 -0.3370 0.9532
15.5211 10.2085 -0.5231 0.9284
12.9134 10.2555 -0.4643 0.9361
10.6959 10.1778 -0.4157 0.9426
7.6789 10.5004 -0.3663 0.9493
5.1247 10.5382 -0.3300 0.9542
3.9454 10.3800 -0.3127 0.9565
2.9185 10.3902 -0.3039 0.9577
0.9931 10.4188 -0.2947 0.9590
0.0594 10.5369 -0.2967 0.9587
-0.8771 10.4465 -0.2952 0.9589
-1.8296 10.4606 -0.2990 0.9584
-3.8525 10.4905 -0.3147 0.9563
-5.0263 10.6394 -0.3313 0.9540
-6.1773 10.5249 -0.3436 0.9523
16.3920 10.1956 -0.5436 0.9257
13.5837 10.2373 -0.4789 0.9342
11.3562 10.2703 -0.4311 0.9406
4.2477 10.3756 -0.3157 0.9561
0.3265 10.5329 -0.2967 0.9587
-2.5740 10.6472 -0.3084 0.9571
2.2662 10.5754 -0.5485 0.9576
1.2738 10.4145 -0.5321 0.9588
0.3404 10.5326 -0.5344 0.9587
-0.5947 10.4049 -0.5285 0.9591
-2.5485 10.6026 -0.5530 0.9573
-3.5365 10.4857 -0.5612 0.9566
18.8018 5.0333 -0.9871 0.9250
14.1886 10.1114 -0.8836 0.9326
10.1348 10.3925 -0.7362 0.9435
5.7189 10.3537 -0.5999 0.9537
4.6492 10.5451 -0.5845 0.9549
1.5421 10.4105 -0.5337 0.9587
-0.3347 10.5426 -0.5349 0.9586
-3.3525 5.2520 -0.3160 0.9754
14.9931 10.1215 -0.9174 0.9301
7.3544 10.3146 -0.6424 0.9505
2.8316 10.5671 -0.5548 0.9571
1.8122 10.4065 -0.5357 0.9586
0.8671 10.4205 -0.5303 0.9590
-0.0673 10.5387 -0.5345 0.9587
-1.0038 10.4482 -0.5323 0.9588
-2.9885 10.6091 -0.5590 0.9568
-5.1848 10.6416 -0.6003 0.9537
15.8629 10.1330 -0.9546 0.9274
13.0690 10.0979 -0.8376 0.9360
4.1036 10.3776 -0.5659 0.9563
3.0679 10.3879 -0.5493 0.9575
1.1333 10.4166 -0.5314 0.9589
0.1999 10.5347 -0.5344 0.9587
-1.6859 10.4583 -0.5372 0.9585
-3.6937 10.4880 -0.5639 0.9564
-4.8527 10.6367 -0.5929 0.9543
-5.9884 10.5220 -0.6140 0.9527
-3.6835 5.3062 -0.3276 0.9745
16.8076 10.1458 -0.9956 0.9244
13.7889 10.1065 -0.8670 0.9338
9.8716 10.3964 -0.7271 0.9442
8.1304 10.2600 -0.6639 0.9489
6.7836 10.3379 -0.6271 0.9517
5.5414 10.3563 -0.5957 0.9540
4.4091 10.3731 -0.5716 0.9559
3.3550 10.3837 -0.5534 0.9572
2.3991 10.5735 -0.5499 0.9575
-0.4756 10.5447 -0.5353 0.9586
-4.4721 10.4996 -0.5788 0.9553
-5.6374 10.5168 -0.6051 0.9533
-7.9867 7.0211 -0.5393 0.9583
12.0657 10.0916 -0.7977 0.9389
10.3778 10.3889 -0.7447 0.9429
5.8810 10.3512 -0.6038 0.9534
3.6468 10.3794 -0.5579 0.9569
1.6699 10.4086 -0.5346 0.9587
0.7274 10.4226 -0.5299 0.9590
-2.1405 10.6407 -0.5504 0.9575
-3.1033 10.4793 -0.5543 0.9572
-4.1590 10.4949 -0.5725 0.9558
-5.3629 10.6442 -0.6045 0.9534
-3.2838 5.2834 -0.3155 0.9754
15.3968 10.1268 -0.9346 0.9288
10.6277 10.1129 -0.7440 0.9429
8.9594 10.1983 -0.6884 0.9471
6.2302 10.3461 -0.6125 0.9528
3.9454 10.3799 -0.5632 0.9565
2.9185 10.3901 -0.5473 0.9577
0.9931 10.4187 -0.5308 0.9589
0.0594 10.5368 -0.5344 0.9587
-1.8296 10.4605 -0.5385 0.9584
-2.8627 10.6514 -0.5593 0.9568
-3.7914 5.3092 -0.3309 0.9742
16.3007 10.1389 -0.9735 0.9260
11.1733 10.1048 -0.7640 0.9414
9.3968 10.1644 -0.7020 0.9461
0.3265 10.5328 -0.5344 0.9587
-0.6084 10.4051 -0.5286 0.9591
-1.5569 10.4564 -0.5361 0.9585
-2.5740 10.6471 -0.5555 0.9571
-4.6980 10.6344 -0.5896 0.9545
-3.5890 5.3051 -0.3248 0.9747
2.1928 10.2328 -0.7673 0.9589
1.2533 10.2467 -0.7569 0.9594
-1.5179 10.2877 -0.7625 0.9591
-2.4762 10.3019 -0.7769 0.9584
-3.4823 10.3250 -0.7990 0.9572
-4.5618 10.3629 -0.8302 0.9556
-5.7418 10.4091 -0.8716 0.9534
-3.4643 5.1353 -0.4542 0.9755
-8.0385 6.8971 -0.7766 0.9584
6.8129 -16.0244 -1.2767 0.9325
18.7218 5.0119 -1.4211 0.9252
11.9726 10.2608 -1.1561 0.9387
6.9163 10.2398 -0.9060 0.9516
5.6486 10.2264 -0.8566 0.9542
1.5172 10.2428 -0.7592 0.9593
0.5921 10.2565 -0.7533 0.9596
-1.1231 5.2556 -0.3940 0.9787
15.1301 10.2140 -1.3385 0.9294
5.9937 10.2296 -0.8693 0.9536
4.8192 10.2205 -0.8285 0.9557
3.7433 10.2166 -0.7978 0.9573
1.7830 10.2388 -0.7620 0.9592
0.8531 10.2526 -0.7543 0.9596
-0.0673 10.5386 -0.7727 0.9586
-0.9876 10.2799 -0.7572 0.9594
-3.9392 10.3405 -0.8113 0.9566
-5.0582 10.3817 -0.8468 0.9547
15.9702 10.2015 -1.3895 0.9268
9.2735 10.2763 -1.0149 0.9460
7.7080 10.2506 -0.9404 0.9499
6.3497 10.2332 -0.8830 0.9528
4.0402 10.2172 -0.8056 0.9569
1.1150 10.2487 -0.7559 0.9595
-0.7249 10.2760 -0.7553 0.9595
-1.6587 10.2898 -0.7642 0.9591
-3.6381 10.3302 -0.8030 0.9570
-4.7306 10.3692 -0.8357 0.9553
-5.9286 10.4169 -0.8788 0.9531
7.0423 -15.9692 -1.2797 0.9324
13.9593 10.2314 -1.2690 0.9329
9.8714 10.3963 -1.0512 0.9441
8.1279 10.2569 -0.9596 0.9489
6.7177 10.2374 -0.8978 0.9521
5.4711 10.2249 -0.8503 0.9546
4.3433 10.2182 -0.8141 0.9564
3.3010 10.2164 -0.7872 0.9579
2.3214 10.2309 -0.7692 0.9588
-0.4756 10.5446 -0.7739 0.9585
-1.3915 10.2858 -0.7611 0.9592
-3.3431 10.3205 -0.7954 0.9574
-4.4115 10.3573 -0.8254 0.9559
-5.5760 10.4023 -0.8654 0.9538
-7.8962 6.9415 -0.7709 0.9587
0.5655 -17.4516 -1.2803 0.9324
12.2629 10.2565 -1.1722 0.9379
10.3776 10.3888 -1.0767 0.9428
8.5659 10.2640 -0.9802 0.9478
7.0986 10.2422 -0.9137 0.9512
5.8109 10.2278 -0.8625 0.9539
3.5880 10.2121 -0.7936 0.9575
2.5948 10.2268 -0.7736 0.9586
0.7157 10.2546 -0.7537 0.9596
-0.2079 10.5406 -0.7730 0.9586
-4.1001 10.3461 -0.8160 0.9563
-3.3132 5.3307 -0.4602 0.9751
15.5206 10.2082 -1.3621 0.9282
12.9027 10.2470 -1.2081 0.9361
10.8014 10.2782 -1.0932 0.9420
9.0239 10.2718 -1.0025 0.9466
7.4939 10.2475 -0.9308 0.9504
0.0594 10.5367 -0.7726 0.9586
-2.7699 10.3062 -0.7825 0.9581
-6.1186 10.4249 -0.8863 0.9527
16.3914 10.1953 -1.4154 0.9255
11.3559 10.2700 -1.1226 0.9404
7.9049 10.2535 -0.9493 0.9494
5.2963 10.2236 -0.8442 0.9549
3.1519 10.2186 -0.7841 0.9580
1.2396 10.2469 -0.7568 0.9594
-0.6008 10.2741 -0.7546 0.9596
-1.5318 10.2879 -0.7626 0.9591
-2.4906 10.3021 -0.7771 0.9584
-4.5783 10.3635 -0.8307 0.9556
6.8227 -15.9892 -1.2746 0.9327
1.2707 10.3893 -1.0049 0.9588
-2.5160 10.4676 -1.0336 0.9577
-3.5364 10.4855 -1.0624 0.9565
-4.6229 10.5016 -1.1016 0.9549
-3.4478 5.1108 -0.5919 0.9755
-12.0996 14.8749 -1.8408 0.9258
-13.3652 13.7208 -1.8389 0.9259
-15.5617 11.1033 -1.8353 0.9261
-16.4762 9.6610 -1.8337 0.9261
-18.4059 4.9385 -1.8296 0.9263
-7.4827 -17.5721 -1.8336 0.9261
-5.8893 -18.1861 -1.8352 0.9261
0.7739 -17.4133 -1.6734 0.9324
2.5636 -19.0441 -1.8448 0.9257
4.2585 -18.7605 -1.8469 0.9256
5.9232 -18.3265 -1.8490 0.9255
6.7808 -15.9490 -1.6638 0.9327
9.1089 -17.0200 -1.8533 0.9254
12.0174 -15.1625 -1.8574 0.9252
14.3486 10.2254 -1.6915 0.9316
11.9725 10.2607 -1.5138 0.9386
10.1345 10.3923 -1.3936 0.9433
8.3992 10.3137 -1.2770 0.9480
5.7188 10.3534 -1.1355 0.9536
4.5722 10.3704 -1.0881 0.9555
3.5078 10.3812 -1.0520 0.9569
2.5022 10.3839 -1.0254 0.9580
1.5387 10.3873 -1.0081 0.9587
0.6001 10.3963 -0.9998 0.9590
-0.3347 10.5424 -1.0126 0.9585
-1.2665 10.4041 -1.0062 0.9588
-1.1230 5.2550 -0.5159 0.9786
-11.7222 15.1815 -1.8414 0.9258
-7.8368 7.0768 -1.0137 0.9585
-15.2793 11.4973 -1.8358 0.9260
-17.0505 8.5816 -1.8326 0.9262
-17.7349 7.0197 -1.8312 0.9262
-18.2781 5.4046 -1.8299 0.9263
-4.7165 -18.5383 -1.8365 0.9260
-3.0456 -18.9040 -1.8383 0.9259
3.7803 -18.8563 -1.8463 0.9256
8.6717 -17.2399 -1.8527 0.9254
10.1878 -16.4155 -1.8548 0.9253
18.9710 4.5665 -1.8733 0.9246
18.4884 6.2423 -1.8734 0.9246
17.8563 7.8675 -1.8733 0.9246
17.0798 9.4287 -1.8730 0.9246
15.1298 10.2138 -1.7525 0.9293
12.5943 10.2515 -1.5590 0.9368
8.8378 10.3072 -1.3035 0.9469
7.3647 10.3290 -1.2179 0.9503
4.8877 10.3658 -1.1002 0.9550
3.8039 10.3818 -1.0615 0.9565
2.7825 10.3840 -1.0321 0.9577
1.8086 10.3858 -1.0121 0.9585
0.8648 10.3932 -1.0012 0.9590
-1.0016 10.4251 -1.0055 0.9588
-1.9576 10.4503 -1.0207 0.9582
-5.1201 10.5089 -1.1223 0.9541
-11.3371 15.4786 -1.8420 0.9258
-12.6601 14.3891 -1.8400 0.9259
-13.8798 13.1877 -1.8381 0.9259
-15.9733 10.4890 -1.8346 0.9261
-16.8314 9.0132 -1.8330 0.9261
-18.1386 5.8673 -1.8302 0.9263
-19.1135 4.3434 -1.8818 0.9243
-11.2620 -15.3789 -1.8300 0.9263
-9.8510 -16.3344 -1.8313 0.9262
-8.3598 -17.1620 -1.8327 0.9262
-5.1836 -18.4077 -1.8360 0.9260
-1.8309 -19.0743 -1.8396 0.9259
3.2999 -18.9400 -1.8457 0.9257
11.2264 -15.7424 -1.8563 0.9252
12.7782 -14.9001 -1.8845 0.9242
18.0505 7.4124 -1.8734 0.9246
17.3143 8.9932 -1.8731 0.9246
15.9699 10.2014 -1.8193 0.9267
7.7626 10.3231 -1.2400 0.9494
6.4179 10.3431 -1.1686 0.9523
5.2104 10.3610 -1.1134 0.9545
4.1035 10.3774 -1.0713 0.9561
3.0669 10.3846 -1.0395 0.9574
1.1304 10.3905 -1.0034 0.9589
0.1999 10.5345 -1.0115 0.9585
-10.9444 15.7659 -1.8426 0.9258
-17.3637 7.9130 -1.8319 0.9262
-17.9875 6.3265 -1.8306 0.9262
-18.4684 4.6922 -1.8294 0.9263
-8.7902 -16.9407 -1.8323 0.9262
-7.2487 -17.6726 -1.8338 0.9261
-2.3131 -19.0161 -1.8391 0.9259
-0.6068 -19.1670 -1.8410 0.9258
1.1080 -19.1656 -1.8431 0.9258
7.0300 -15.9414 -1.6727 0.9324
10.8204 -16.0169 -1.8557 0.9253
17.5376 8.5518 -1.8732 0.9246
16.7006 10.0812 -1.8728 0.9246
8.1755 10.3170 -1.2638 0.9485
4.4090 10.3729 -1.0821 0.9557
2.3561 10.3841 -1.0223 0.9581
1.3975 10.3883 -1.0063 0.9588
-2.3823 10.4633 -1.0302 0.9578
-4.4720 10.4994 -1.0956 0.9552
-3.3717 5.1300 -0.5894 0.9756
-11.9217 15.0214 -1.8411 0.9258
-7.9717 7.0079 -1.0190 0.9582
-15.4291 11.2910 -1.8355 0.9260
-17.1614 8.3525 -1.8324 0.9262
-12.0227 -14.7829 -1.8293 0.9263
-7.6925 -17.4789 -1.8334 0.9261
-4.4695 -18.6022 -1.8367 0.9260
-2.7937 -18.9459 -1.8386 0.9259
-1.0922 -19.1396 -1.8405 0.9259
0.5637 -17.3947 -1.6709 0.9325
4.0320 -18.8075 -1.8466 0.9256
5.7016 -18.3935 -1.8488 0.9255
7.3294 -17.8316 -1.8509 0.9255
8.9023 -17.1256 -1.8530 0.9254
10.4075 -16.2809 -1.8551 0.9253
11.8326 -15.3036 -1.8572 0.9252
18.9087 4.8191 -1.8734 0.9246
18.4035 6.4882 -1.8734 0.9246
14.7121 10.2200 -1.7198 0.9305
12.2628 10.2564 -1.5348 0.9378
10.3775 10.3886 -1.4097 0.9427
7.1610 10.3321 -1.2069 0.9507
5.8809 10.3510 -1.1429 0.9533
3.6467 10.3792 -1.0562 0.9568
1.6663 10.3865 -1.0099 0.9586
0.7255 10.3948 -1.0004 0.9590
-0.2079 10.5405 -1.0121 0.9585
-1.1424 10.4285 -1.0072 0.9587
-2.1031 10.4546 -1.0238 0.9581
-3.1032 10.4791 -1.0492 0.9570
-11.5406 15.3235 -1.8417 0.9258
-12.8488 14.2168 -1.8397 0.9259
-7.7670 7.1852 -1.0158 0.9584
-16.1096 10.2737 -1.8343 0.9261
-18.2134 5.6244 -1.8300 0.9263
-12.5393 -14.6436 -1.8509 0.9255
-9.6334 -16.4661 -1.8315 0.9262
-6.5622 -17.9465 -1.8345 0.9261
-4.9384 -18.4778 -1.8362 0.9260
-3.2722 -18.8635 -1.8380 0.9260
-1.5766 -19.1000 -1.8399 0.9259
3.5528 -18.8975 -1.8460 0.9256
5.2317 -18.5261 -1.8482 0.9256
9.9883 -16.5342 -1.8545 0.9253
18.5621 6.0196 -1.8734 0.9246
15.5203 10.2080 -1.7834 0.9281
12.9025 10.2469 -1.5818 0.9359
10.8013 10.2781 -1.4314 0.9418
7.5515 10.3263 -1.2282 0.9499
2.9168 10.3842 -1.0355 0.9576
0.9906 10.3919 -1.0022 0.9589
-0.8750 10.4222 -1.0041 0.9588
-1.8272 10.4465 -1.0181 0.9583
-2.8152 10.4748 -1.0413 0.9574
-3.8524 10.4902 -1.0729 0.9561
-4.9636 10.5066 -1.1156 0.9544
-6.1771 10.5246 -1.1716 0.9521
-11.1519 15.6160 -1.8423 0.9258
-12.4880 14.5423 -1.8403 0.9259
-13.7221 13.3554 -1.8383 0.9259
-14.8450 12.0650 -1.8365 0.9260
-15.8480 10.6815 -1.8348 0.9261
-16.7237 9.2159 -1.8332 0.9261
-13.1862 -14.6314 -1.8910 0.9239
-8.5646 -17.0585 -1.8325 0.9262
-7.0133 -17.7699 -1.8341 0.9261
-3.7483 -18.7691 -1.8375 0.9260
-0.3512 -19.1765 -1.8413 0.9258
1.3637 -19.1523 -1.8434 0.9257
3.0716 -18.9754 -1.8454 0.9257
4.7588 -18.6467 -1.8476 0.9256
6.4120 -18.1683 -1.8497 0.9255
8.0176 -17.5435 -1.8518 0.9254
9.5627 -16.7768 -1.8539 0.9253
11.0348 -15.8738 -1.8560 0.9253
19.4779 3.9248 -1.9076 0.9233
17.4216 8.7846 -1.8732 0.9246
16.3912 10.1951 -1.8532 0.9254
11.3558 10.2698 -1.4699 0.9403
7.9564 10.3203 -1.2511 0.9490
5.3663 10.3587 -1.1200 0.9542
4.2476 10.3752 -1.0763 0.9559
2.2111 10.3843 -1.0193 0.9582
1.2569 10.3894 -1.0047 0.9588
0.3265 10.5326 -1.0117 0.9585
-0.6091 10.4165 -1.0017 0.9589
-1.5543 10.4390 -1.0132 0.9585
-2.5307 10.4681 -1.0339 0.9576
-3.5518 10.4857 -1.0629 0.9565
-12.1190 14.8587 -1.8408 0.9258
-15.5761 11.0827 -1.8353 0.9261
-16.4886 9.6393 -1.8336 0.9261
-10.4512 -15.9501 -1.8307 0.9262
-8.9922 -16.8320 -1.8321 0.9262
-7.4597 -17.5821 -1.8336 0.9261
-0.8371 -19.1555 -1.8408 0.9258
0.8774 -19.1746 -1.8428 0.9258
2.5887 -19.0410 -1.8448 0.9257
6.7987 -15.9329 -1.6631 0.9328
9.1314 -17.0083 -1.8533 0.9254
12.0375 -15.1470 -1.8575 0.9252
2.2287 10.4001 -1.2634 0.9581
-1.5427 10.4559 -1.2555 0.9583
-5.8023 10.5189 -1.4270 0.9528
-10.8136 11.1013 -1.8409 0.9395
-13.9735 6.5944 -1.8354 0.9397
-14.4977 5.3173 -1.8343 0.9397
-16.4475 2.8698 -1.9832 0.9350
-16.6314 1.3893 -1.9825 0.9350
-16.6038 -1.5897 -1.9813 0.9350
-14.9945 -7.2995 -1.9810 0.9350
-14.2852 -8.6104 -1.9813 0.9350
-12.5333 -11.0199 -1.9824 0.9350
-11.5039 -12.0997 -1.9832 0.9350
-7.8543 -14.6557 -1.9751 0.9352
-6.2522 -14.6824 -1.8956 0.9377
-3.4362 -15.0982 -1.8393 0.9395
-2.0762 -15.3571 -1.8408 0.9395
0.6892 -15.5084 -1.8440 0.9394
2.0729 -15.3989 -1.8457 0.9393
3.4426 -15.1663 -1.8474 0.9393
4.7873 -14.8121 -1.8491 0.9392
7.9137 -14.7868 -1.9922 0.9347
10.5032 -13.2520 -2.0086 0.9342
12.7140 -11.1917 -2.0120 0.9340
14.5239 -8.7656 -2.0151 0.9339
16.3581 -4.6122 -2.0189 0.9338
16.7128 -3.1349 -2.0199 0.9338
16.9634 1.4073 -2.0219 0.9337
16.7730 2.9167 -2.0223 0.9337
15.1965 4.0682 -1.8687 0.9386
12.8056 9.1258 -1.8679 0.9386
9.7119 9.9589 -1.6524 0.9455
8.3991 10.3136 -1.5800 0.9478
5.7187 10.3533 -1.4050 0.9535
4.5722 10.3703 -1.3463 0.9554
0.6017 10.4242 -1.2403 0.9588
-0.3347 10.5423 -1.2529 0.9584
-1.1229 5.2544 -0.6382 0.9786
-3.2414 10.4810 -1.3032 0.9568
-4.3065 10.4968 -1.3477 0.9553
-3.3145 5.1925 -0.7317 0.9755
-9.4818 12.2799 -1.8429 0.9394
-7.8834 7.1189 -1.2617 0.9581
-12.3663 9.3053 -1.8384 0.9396
-13.1380 8.1581 -1.8370 0.9396
-13.8044 6.9478 -1.8357 0.9396
-14.8024 4.3768 -1.8336 0.9397
-16.6822 0.3220 -1.9820 0.9350
-16.6398 -1.1683 -1.9814 0.9350
-15.1743 -6.9168 -1.9809 0.9350
-14.4982 -8.2450 -1.9812 0.9350
-11.8056 -11.8027 -1.9830 0.9350
-10.7096 -12.8153 -1.9839 0.9349
-9.5276 -13.7274 -1.9849 0.9349
-5.1752 -14.6986 -1.8511 0.9392
-3.8170 -15.0028 -1.8389 0.9395
-2.4643 -15.2960 -1.8404 0.9395
1.6814 -15.4424 -1.8452 0.9393
5.8459 -14.7798 -1.8880 0.9380
7.4363 -14.7839 -1.9658 0.9355
8.9065 -14.3509 -2.0063 0.9342
11.3368 -12.5604 -2.0099 0.9341
14.2941 -9.1291 -2.0147 0.9340
15.7109 -6.4501 -2.0174 0.9339
16.2334 -5.0246 -2.0186 0.9338
16.6257 -3.5571 -2.0196 0.9338
16.9925 0.9768 -2.0218 0.9337
13.0338 8.7989 -1.8680 0.9386
8.8377 10.3071 -1.6128 0.9468
7.3646 10.3289 -1.5069 0.9502
6.0632 10.3482 -1.4247 0.9528
4.8876 10.3656 -1.3613 0.9549
1.8122 10.4062 -1.2547 0.9583
0.8670 10.4202 -1.2421 0.9588
-1.0038 10.4479 -1.2468 0.9586
-1.9598 10.4621 -1.2644 0.9580
-2.9512 10.4768 -1.2929 0.9571
-3.9970 10.4922 -1.3337 0.9558
-5.1201 10.5088 -1.3886 0.9540
-9.1697 12.5195 -1.8434 0.9394
-10.2419 11.6407 -1.8418 0.9395
-11.2309 10.6709 -1.8402 0.9395
-12.9295 8.4903 -1.8374 0.9396
-14.6889 4.7514 -1.8338 0.9397
-16.2613 -3.6968 -1.9809 0.9350
-15.3444 -6.5297 -1.9809 0.9350
-14.7018 -7.8745 -1.9811 0.9350
-13.9429 -9.1574 -1.9815 0.9350
-13.0733 -10.3685 -1.9820 0.9350
-12.0996 -11.4983 -1.9827 0.9350
-9.8710 -13.4794 -1.9846 0.9349
-8.6256 -14.3025 -1.9840 0.9349
-7.1449 -14.6678 -1.9380 0.9364
-4.1952 -14.8980 -1.8385 0.9396
-2.8506 -15.2251 -1.8399 0.9395
-1.4812 -15.4315 -1.8415 0.9395
-0.0977 -15.5156 -1.8431 0.9394
1.2891 -15.4761 -1.8447 0.9394
4.0283 -15.0278 -1.8481 0.9393
11.0120 -12.8406 -2.0094 0.9341
13.1419 -10.6953 -2.0127 0.9340
14.0551 -9.4866 -2.0143 0.9340
15.5396 -6.8451 -2.0170 0.9339
16.0983 -5.4337 -2.0182 0.9338
16.8247 -2.4866 -2.0202 0.9338
16.9861 -0.9749 -2.0210 0.9338
16.8978 2.0626 -2.0221 0.9337
16.6405 3.5618 -2.0214 0.9337
14.5523 5.9759 -1.8687 0.9386
13.9592 7.2505 -1.8685 0.9386
13.2536 8.4662 -1.8681 0.9386
12.4415 9.6131 -1.8676 0.9386
7.7625 10.3230 -1.5342 0.9493
6.4178 10.3430 -1.4459 0.9522
3.0678 10.3876 -1.2866 0.9573
2.0844 10.4022 -1.2602 0.9582
0.1999 10.5344 -1.2516 0.9584
-0.7367 10.4440 -1.2437 0.9587
-2.6654 10.4725 -1.2836 0.9574
-3.6936 10.4877 -1.3208 0.9562
-9.9459 11.8995 -1.8422 0.9394
-11.8839 9.9245 -1.8392 0.9395
-13.4396 7.6415 -1.8364 0.9396
-14.5660 5.1231 -1.8341 0.9397
-16.1542 4.1043 -1.9799 0.9351
-16.4832 2.6500 -1.9831 0.9350
-16.5806 -1.8109 -1.9813 0.9350
-16.3503 -3.2835 -1.9810 0.9350
-15.5047 -6.1385 -1.9808 0.9350
-14.1696 -8.8004 -1.9814 0.9350
-8.9917 -14.0891 -1.9854 0.9349
-7.6068 -14.6600 -1.9619 0.9356
-3.2350 -15.1444 -1.8395 0.9395
-1.8715 -15.3854 -1.8410 0.9395
-0.4909 -15.5043 -1.8426 0.9394
3.6450 -15.1211 -1.8476 0.9393
4.9955 -14.7801 -1.8532 0.9391
6.5184 -14.7813 -1.9190 0.9370
9.4586 -14.0012 -2.0071 0.9342
11.8185 -12.1170 -2.0106 0.9341
12.8637 -11.0225 -2.0123 0.9340
13.8071 -9.8377 -2.0138 0.9340
14.6410 -8.5720 -2.0153 0.9339
15.9528 -5.8391 -2.0179 0.9339
16.9436 1.6335 -2.0220 0.9337
16.7330 3.1402 -2.0223 0.9337
15.1410 4.2705 -1.8687 0.9386
14.6994 5.6052 -1.8687 0.9386
14.1391 6.8945 -1.8686 0.9386
12.6823 9.2954 -1.8678 0.9386
11.6594 10.2652 -1.8453 0.9393
9.4933 9.9980 -1.6377 0.9460
8.1754 10.3169 -1.5636 0.9484
6.7833 10.3375 -1.4687 0.9514
4.4090 10.3727 -1.3388 0.9556
3.3549 10.3834 -1.2962 0.9570
1.4007 10.4123 -1.2480 0.9586
-0.4756 10.5444 -1.2538 0.9584
-1.4143 10.4540 -1.2531 0.9584
-2.3835 10.4683 -1.2753 0.9577
-4.4720 10.4992 -1.3556 0.9551
-5.6372 10.5165 -1.4174 0.9531
-9.6435 12.1508 -1.8427 0.9394
-10.6806 11.2317 -1.8411 0.9395
-12.4879 9.1386 -1.8382 0.9396
-13.2442 7.9814 -1.8368 0.9396
-13.8945 6.7625 -1.8356 0.9397
-14.4338 5.4916 -1.8344 0.9397
-16.1056 -4.3228 -1.9808 0.9350
-15.0809 -7.1186 -1.9809 0.9350
-13.5797 -9.6909 -1.9817 0.9350
-12.6642 -10.8680 -1.9823 0.9350
-11.6479 -11.9598 -1.9831 0.9350
-10.5385 -12.9580 -1.9840 0.9349
-8.0484 -14.5938 -1.9797 0.9351
-6.4603 -14.6791 -1.9051 0.9374
-2.2604 -15.3294 -1.8406 0.9395
-0.8836 -15.4830 -1.8422 0.9394
3.2597 -15.2046 -1.8471 0.9393
4.6084 -14.8667 -1.8489 0.9392
6.0753 -14.7804 -1.8982 0.9377
7.6858 -14.7854 -1.9794 0.9351
10.3419 -13.3757 -2.0084 0.9342
13.5504 -10.1824 -2.0134 0.9340
14.4161 -8.9386 -2.0149 0.9340
15.7969 -6.2406 -2.0176 0.9339
16.3003 -4.8081 -2.0187 0.9338
16.6728 -3.3353 -2.0197 0.9338
16.9113 -1.8343 -2.0206 0.9338
17.0135 -0.3172 -2.0213 0.9338
16.8066 2.7149 -2.0223 0.9337
15.6528 3.9893 -1.9188 0.9370
13.6673 7.7845 -1.8684 0.9386
12.0586 10.0857 -1.8674 0.9386
9.9448 9.9555 -1.6715 0.9449
4.7208 10.3681 -1.3532 0.9551
3.6467 10.3791 -1.3068 0.9567
-0.2078 10.5405 -1.2523 0.9584
-1.1448 10.4500 -1.2487 0.9585
-3.1032 10.4790 -1.2982 0.9569
-9.3346 12.3945 -1.8431 0.9394
-12.2548 9.4543 -1.8385 0.9396
-13.0402 8.3162 -1.8372 0.9396
-13.7211 7.1139 -1.8359 0.9396
-14.2924 5.8567 -1.8347 0.9397
-14.7498 4.5548 -1.8337 0.9397
-16.3319 3.4830 -1.9836 0.9349
-16.5705 2.0102 -1.9828 0.9350
-16.4969 -2.4506 -1.9811 0.9350
-15.7957 -5.3446 -1.9808 0.9350
-15.2561 -6.7338 -1.9809 0.9350
-13.8200 -9.3428 -1.9816 0.9350
-12.9345 -10.5424 -1.9821 0.9350
-10.8621 -12.6849 -1.9837 0.9349
-6.9063 -14.6718 -1.9262 0.9368
-3.9967 -14.9543 -1.8387 0.9396
-2.6478 -15.2635 -1.8402 0.9395
0.1092 -15.5175 -1.8433 0.9394
2.8724 -15.2784 -1.8467 0.9393
4.2288 -14.9748 -1.8484 0.9392
12.2827 -11.6550 -2.0113 0.9341
14.1819 -9.2994 -2.0145 0.9340
15.6309 -6.6379 -2.0172 0.9339
16.1706 -5.2190 -2.0184 0.9338
16.5807 -3.7564 -2.0195 0.9338
16.9984 -0.7484 -2.0211 0.9338
17.0024 0.7724 -2.0217 0.9337
16.8692 2.2878 -2.0222 0.9337
16.5617 3.7766 -2.0178 0.9339
14.4712 6.1694 -1.8687 0.9386
13.8610 7.4358 -1.8684 0.9386
13.1391 8.6419 -1.8681 0.9386
12.3116 9.7776 -1.8675 0.9386
10.8011 10.2779 -1.7711 0.9417
9.0521 10.3039 -1.6292 0.9463
6.2300 10.3457 -1.4345 0.9525
5.0397 10.3634 -1.3689 0.9546
3.9452 10.3796 -1.3190 0.9563
1.9409 10.4043 -1.2572 0.9583
0.9931 10.4184 -1.2432 0.9587
-0.8770 10.4461 -1.2452 0.9587
-3.8524 10.4901 -1.3274 0.9560
-4.9636 10.5065 -1.3803 0.9543
-6.1771 10.5244 -1.4496 0.9520
-9.0197 12.6303 -1.8436 0.9394
-12.0138 9.7641 -1.8390 0.9395
-13.5389 7.4609 -1.8363 0.9396
-14.1418 6.2183 -1.8351 0.9397
-16.2351 3.8952 -1.9832 0.9350
-16.5161 2.4299 -1.9830 0.9350
-16.6608 0.9453 -1.9822 0.9350
-16.5546 -2.0317 -1.9812 0.9350
-16.3048 -3.5011 -1.9809 0.9350
-15.9261 -4.9425 -1.9808 0.9350
-14.7951 -7.6971 -1.9811 0.9350
-14.0515 -8.9889 -1.9814 0.9350
-11.1787 -12.4038 -1.9835 0.9350
-10.0316 -13.3588 -1.9844 0.9349
-8.8031 -14.2079 -1.9854 0.9349
-7.3625 -14.6642 -1.9491 0.9360
-4.3736 -14.8450 -1.8383 0.9396
-3.0331 -15.1880 -1.8397 0.9395
-0.2841 -15.5115 -1.8429 0.9394
3.8469 -15.0732 -1.8479 0.9393
5.2154 -14.7779 -1.8615 0.9388
6.7554 -14.7817 -1.9305 0.9366
8.3403 -14.6322 -2.0006 0.9344
11.9805 -11.9598 -2.0109 0.9341
13.0111 -10.8513 -2.0125 0.9340
13.9387 -9.6539 -2.0141 0.9340
16.0306 -5.6263 -2.0181 0.9339
16.7927 -2.6885 -2.0201 0.9338
16.9723 -1.1790 -2.0209 0.9338
17.0152 0.3411 -2.0216 0.9337
16.6899 3.3630 -2.0224 0.9337
15.0829 4.4720 -1.8687 0.9386
14.6232 5.8006 -1.8687 0.9386
2.2144 10.4003 -1.2631 0.9581
1.2599 10.4144 -1.2461 0.9586
0.3265 10.5325 -1.2517 0.9584
-1.5568 10.4561 -1.2557 0.9583
-4.6394 10.5017 -1.3638 0.9548
-5.8205 10.5192 -1.4281 0.9527
-12.6072 8.9702 -1.8379 0.9396
-13.9821 6.5760 -1.8354 0.9397
-14.5045 5.2982 -1.8343 0.9397
-16.0791 4.2916 -1.9768 0.9352
-16.4512 2.8481 -1.9832 0.9350
-16.6833 -0.1229 -1.9818 0.9350
-16.6017 -1.6115 -1.9813 0.9350
-16.3888 -3.0867 -1.9810 0.9350
-15.5773 -5.9517 -1.9808 0.9350
-14.9849 -7.3192 -1.9810 0.9350
-14.2740 -8.6292 -1.9813 0.9350
-12.5188 -11.0364 -1.9824 0.9350
-9.1597 -13.9790 -1.9852 0.9349
-6.2296 -14.6827 -1.8946 0.9378
-4.7475 -14.7262 -1.8379 0.9396
-3.4164 -15.1028 -1.8393 0.9395
-2.0561 -15.3600 -1.8408 0.9395
0.7096 -15.5077 -1.8440 0.9394
2.0932 -15.3963 -1.8457 0.9393
3.4626 -15.1619 -1.8474 0.9393
6.3071 -14.7809 -1.9089 0.9373
7.9388 -14.7869 -1.9936 0.9346
9.2885 -14.1122 -2.0068 0.9342
10.5207 -13.2383 -2.0086 0.9342
13.6865 -10.0020 -2.0136 0.9340
16.3642 -4.5907 -2.0189 0.9338
16.7170 -3.1129 -2.0199 0.9338
2.2287 10.4000 -1.5070 0.9579
1.2737 10.4141 -1.4866 0.9585
0.3404 10.5322 -1.4931 0.9583
-1.5427 10.4558 -1.4975 0.9582
-3.5363 10.4853 -1.5679 0.9563
-4.6228 10.5014 -1.6257 0.9547
-8.2104 10.0936 -1.8435 0.9488
-9.0723 9.3136 -1.8422 0.9488
-8.2730 7.0983 -1.5445 0.9569
-11.7290 5.5352 -1.8376 0.9490
-13.8091 2.4094 -1.9862 0.9449
-13.9644 1.1666 -1.9855 0.9450
-14.0090 -0.0848 -1.9850 0.9450
-13.9426 -1.3349 -1.9845 0.9450
-13.7658 -2.5740 -1.9843 0.9450
-13.4801 -3.7924 -1.9841 0.9450
-13.0876 -4.9808 -1.9841 0.9450
-12.5916 -6.1297 -1.9843 0.9450
-11.9956 -7.2304 -1.9845 0.9450
-11.3045 -8.2741 -1.9849 0.9450
-10.5235 -9.2529 -1.9855 0.9450
-7.7045 -11.7245 -1.9878 0.9449
-5.5024 -12.9216 -1.9899 0.9448
-1.8853 -13.9447 -1.9938 0.9447
1.8815 -13.9766 -1.9982 0.9446
3.1242 -13.7634 -1.9997 0.9446
5.5307 -13.0087 -2.0029 0.9445
7.7681 -11.8359 -2.0060 0.9444
8.8003 -11.1034 -2.0075 0.9444
9.7635 -10.2809 -2.0089 0.9443
10.6498 -9.3746 -2.0103 0.9443
12.1628 -7.3406 -2.0129 0.9442
13.2890 -5.0660 -2.0151 0.9442
13.6946 -3.8612 -2.0160 0.9441
13.9904 -2.6242 -2.0169 0.9441
14.1738 -1.3652 -2.0176 0.9441
14.2432 -0.0944 -2.0182 0.9441
14.0381 2.4411 -2.0189 0.9441
12.3639 4.5267 -1.8655 0.9482
11.9097 5.6121 -1.8654 0.9482
9.9908 8.5624 -1.8643 0.9482
9.1835 9.4170 -1.8637 0.9482
8.3028 10.1953 -1.8630 0.9483
5.7186 10.3532 -1.6758 0.9533
4.5721 10.3702 -1.6058 0.9552
3.5077 10.3810 -1.5526 0.9567
2.5050 10.3959 -1.5151 0.9577
-1.1227 5.2538 -0.7612 0.9785
-3.2413 10.4809 -1.5544 0.9566
-4.3064 10.4967 -1.6076 0.9552
-7.9535 10.3007 -1.8439 0.9488
-7.9386 7.1687 -1.5156 0.9577
-10.3772 7.8086 -1.8401 0.9489
-12.0547 4.7714 -1.8370 0.9490
-13.4339 3.9722 -1.9849 0.9450
-13.7451 2.7590 -1.9864 0.9449
-13.9316 1.5203 -1.9857 0.9450
-13.2096 -4.6473 -1.9841 0.9450
-12.7426 -5.8084 -1.9842 0.9450
-11.5099 -7.9844 -1.9848 0.9450
-10.7538 -8.9823 -1.9853 0.9450
-6.9408 -12.1979 -1.9885 0.9449
-5.8273 -12.7759 -1.9896 0.9448
-4.6662 -13.2529 -1.9908 0.9448
-3.4665 -13.6252 -1.9921 0.9448
-2.2378 -13.8896 -1.9934 0.9447
-0.9895 -14.0439 -1.9948 0.9447
1.5262 -14.0168 -1.9978 0.9446
4.0009 -13.5428 -2.0009 0.9445
5.1980 -13.1418 -2.0024 0.9445
6.3555 -12.6351 -2.0040 0.9445
8.5142 -11.3206 -2.0070 0.9444
9.4978 -10.5230 -2.0085 0.9443
10.4067 -9.6398 -2.0099 0.9443
11.2333 -8.6780 -2.0113 0.9443
11.9707 -7.6452 -2.0125 0.9442
13.1544 -5.4005 -2.0148 0.9442
13.9179 -2.9777 -2.0166 0.9441
14.1333 -1.7239 -2.0174 0.9441
14.2351 -0.4554 -2.0180 0.9441
14.0950 2.0844 -2.0188 0.9441
10.9091 7.3645 -1.8649 0.9482
10.2055 8.3070 -1.8645 0.9482
9.4202 9.1821 -1.8639 0.9482
8.5596 9.9827 -1.8632 0.9483
7.3645 10.3288 -1.7974 0.9500
3.8038 10.3816 -1.5666 0.9563
1.8121 10.4061 -1.4966 0.9582
0.8670 10.4201 -1.4815 0.9586
-0.0673 10.5383 -1.4932 0.9583
-1.0038 10.4478 -1.4872 0.9585
-1.9598 10.4620 -1.5081 0.9579
-2.9512 10.4766 -1.5422 0.9570
-5.1200 10.5087 -1.6563 0.9539
-8.5920 9.7654 -1.8430 0.9488
-9.4229 8.9531 -1.8417 0.9488
-10.8508 7.1253 -1.8393 0.9489
-11.4369 6.1245 -1.8382 0.9489
-13.8899 1.8732 -1.9859 0.9450
-12.8855 -5.4834 -1.9842 0.9450
-11.7079 -7.6896 -1.9847 0.9450
-6.1483 -12.6220 -1.9893 0.9449
-4.9998 -13.1281 -1.9904 0.9448
-1.3449 -14.0114 -1.9944 0.9447
-0.0887 -14.0858 -1.9958 0.9447
3.6554 -13.6369 -2.0004 0.9446
4.8621 -13.2664 -2.0020 0.9445
6.0318 -12.7893 -2.0035 0.9445
7.1551 -12.2092 -2.0051 0.9444
8.2227 -11.5304 -2.0066 0.9444
9.2261 -10.7582 -2.0081 0.9444
11.7710 -7.9449 -2.0122 0.9442
12.4408 -6.8664 -2.0134 0.9442
14.0837 -2.0815 -2.0172 0.9441
14.2376 0.4567 -2.0184 0.9441
14.1427 1.7263 -2.0187 0.9441
13.0298 4.0343 -1.9326 0.9464
11.6831 6.0683 -1.8654 0.9482
11.0929 7.0860 -1.8651 0.9482
10.4136 8.0462 -1.8646 0.9482
9.6509 8.9412 -1.8641 0.9482
7.7624 10.3229 -1.8300 0.9492
6.4178 10.3428 -1.7247 0.9520
4.1035 10.3772 -1.5811 0.9559
3.0677 10.3875 -1.5346 0.9572
1.1332 10.4162 -1.4846 0.9586
0.1999 10.5343 -1.4929 0.9583
-0.7367 10.4439 -1.4835 0.9586
-5.9882 10.5215 -1.7153 0.9523
-7.4243 10.6951 -1.8447 0.9488
-8.3434 9.9821 -1.8433 0.9488
-9.1947 9.1908 -1.8420 0.9488
-9.9718 8.3276 -1.8408 0.9489
-10.6686 7.3994 -1.8396 0.9489
-13.8393 2.2250 -1.9861 0.9449
-13.9781 0.9802 -1.9854 0.9450
-14.0061 -0.2716 -1.9849 0.9450
-13.9232 -1.5206 -1.9845 0.9450
-13.0202 -5.1548 -1.9841 0.9450
-12.5089 -6.2971 -1.9843 0.9450
-11.8985 -7.3899 -1.9846 0.9450
-9.5228 -10.2873 -1.9862 0.9449
-8.5698 -11.1008 -1.9870 0.9449
-7.5480 -11.8271 -1.9880 0.9449
-5.3301 -12.9949 -1.9901 0.9448
-2.9378 -13.7531 -1.9926 0.9448
0.8134 -14.0701 -1.9969 0.9447
2.0679 -13.9519 -1.9984 0.9446
4.5232 -13.3825 -2.0015 0.9445
5.7044 -12.9353 -2.0031 0.9445
7.9261 -11.7326 -2.0062 0.9444
11.5637 -8.2393 -2.0118 0.9443
13.3563 -4.8888 -2.0152 0.9442
13.7458 -3.6785 -2.0162 0.9441
14.1914 -1.1761 -2.0177 0.9441
14.1812 1.3671 -2.0186 0.9441
14.0046 2.6281 -2.0189 0.9441
13.6800 3.8584 -2.0139 0.9442
12.3023 4.6912 -1.8655 0.9482
11.8336 5.7703 -1.8654 0.9482
11.2696 6.8028 -1.8652 0.9482
9.0566 9.5381 -1.8636 0.9483
5.5412 10.3559 -1.6642 0.9537
4.4089 10.3726 -1.5969 0.9555
3.3549 10.3833 -1.5461 0.9569
2.3593 10.3980 -1.5107 0.9578
1.4007 10.4122 -1.4886 0.9584
-1.4143 10.4539 -1.4947 0.9583
-2.3834 10.4683 -1.5212 0.9576
-3.3958 10.4832 -1.5613 0.9565
-4.4719 10.4991 -1.6169 0.9549
-8.0893 10.1926 -1.8437 0.9488
-8.0597 7.0853 -1.5205 0.9576
-10.4794 7.6688 -1.8399 0.9489
-12.1164 4.6099 -1.8368 0.9490
-13.5004 3.7969 -1.9871 0.9449
-13.9500 1.3344 -1.9856 0.9450
-13.7959 -2.4084 -1.9843 0.9450
-13.5248 -3.6301 -1.9841 0.9450
-12.6642 -5.9778 -1.9842 0.9450
-12.0814 -7.0855 -1.9845 0.9450
-11.4028 -8.1374 -1.9849 0.9450
-9.7796 -10.0415 -1.9860 0.9449
-7.8444 -11.6303 -1.9877 0.9449
-6.7781 -12.2904 -1.9887 0.9449
1.7132 -13.9968 -1.9980 0.9446
2.9582 -13.7986 -1.9995 0.9446
4.1816 -13.4899 -2.0011 0.9445
5.3734 -13.0729 -2.0027 0.9445
6.5242 -12.5507 -2.0042 0.9445
7.6244 -11.9272 -2.0057 0.9444
8.6653 -11.2073 -2.0073 0.9444
9.6383 -10.3965 -2.0087 0.9443
10.5354 -9.5011 -2.0101 0.9443
11.3491 -8.5283 -2.0115 0.9443
12.7002 -6.3816 -2.0139 0.9442
13.2262 -5.2250 -2.0149 0.9442
13.9571 -2.7921 -2.0168 0.9441
14.2405 -0.2655 -2.0181 0.9441
14.2106 1.0071 -2.0185 0.9441
14.0662 2.2722 -2.0189 0.9441
13.8084 3.5192 -2.0191 0.9441
11.9764 5.4686 -1.8655 0.9482
10.0934 8.4420 -1.8644 0.9482
9.2964 9.3064 -1.8638 0.9482
8.4252 10.0954 -1.8631 0.9483
3.6466 10.3789 -1.5587 0.9565
1.6698 10.4083 -1.4936 0.9583
0.7274 10.4222 -1.4803 0.9587
-0.2078 10.5404 -1.4937 0.9583
-1.0699 5.3185 -0.7687 0.9783
-3.1032 10.4789 -1.5485 0.9568
-4.1589 10.4945 -1.5995 0.9554
-9.5404 8.8257 -1.8415 0.9488
-10.2835 7.9335 -1.8403 0.9489
-11.5166 5.9709 -1.8381 0.9489
-11.9973 4.9163 -1.8371 0.9490
-13.3682 4.1282 -1.9824 0.9450
-13.7116 2.9242 -1.9865 0.9449
-13.9129 1.6878 -1.9858 0.9450
-14.0038 0.4388 -1.9852 0.9450
-13.9838 -0.8130 -1.9847 0.9450
-13.8531 -2.0579 -1.9844 0.9450
-13.6127 -3.2861 -1.9842 0.9450
-12.2567 -6.7767 -1.9844 0.9450
-10.8606 -8.8521 -1.9852 0.9450
-10.0300 -9.7893 -1.9858 0.9450
-9.1193 -10.6497 -1.9866 0.9449
-8.1356 -11.4262 -1.9874 0.9449
-7.0865 -12.1128 -1.9884 0.9449
-5.9800 -12.7039 -1.9895 0.9449
-4.8247 -13.1948 -1.9906 0.9448
-1.1581 -14.0296 -1.9946 0.9447
0.0992 -14.0872 -1.9961 0.9447
1.3575 -14.0327 -1.9976 0.9446
2.6069 -13.8661 -1.9991 0.9446
3.8374 -13.5885 -2.0006 0.9446
5.0391 -13.2020 -2.0022 0.9445
6.2025 -12.7093 -2.0038 0.9445
7.3181 -12.1141 -2.0053 0.9444
9.3697 -10.6353 -2.0083 0.9443
10.2891 -9.7633 -2.0097 0.9443
11.1272 -8.8116 -2.0111 0.9443
11.8770 -7.7880 -2.0124 0.9442
12.5323 -6.7004 -2.0136 0.9442
14.1109 -1.8936 -2.0173 0.9441
14.2307 0.6465 -2.0184 0.9441
13.8930 3.1680 -2.0190 0.9441
12.5275 4.0626 -1.8660 0.9482
11.6009 6.2234 -1.8653 0.9482
10.3050 8.1840 -1.8646 0.9482
9.5303 9.0687 -1.8640 0.9482
7.5513 10.3260 -1.8126 0.9496
1.9409 10.4042 -1.4996 0.9581
0.0594 10.5364 -1.4929 0.9583
-1.8296 10.4601 -1.5046 0.9580
-2.8151 10.4746 -1.5368 0.9571
-4.9635 10.5064 -1.6464 0.9541
-3.7252 5.2165 -0.9082 0.9744
-9.3155 9.0665 -1.8418 0.9488
-10.7653 7.2558 -1.8394 0.9489
-11.8705 5.2196 -1.8373 0.9490
-12.7496 4.2941 -1.9062 0.9471
-13.9893 0.7937 -1.9853 0.9450
-14.0008 -0.4583 -1.9848 0.9450
-13.6919 -2.9401 -1.9842 0.9450
-11.7992 -7.5481 -1.9846 0.9450
-11.0807 -8.5733 -1.9851 0.9450
-9.3853 -10.4139 -1.9864 0.9449
-8.4216 -11.2149 -1.9872 0.9449
-6.2991 -12.5463 -1.9891 0.9449
-3.9722 -13.4825 -1.9915 0.9448
-2.7544 -13.7924 -1.9928 0.9448
2.2540 -13.9247 -1.9987 0.9446
7.0070 -12.2930 -2.0049 0.9444
9.0952 -10.8672 -2.0079 0.9444
10.0363 -10.0190 -2.0093 0.9443
11.6737 -8.0851 -2.0120 0.9442
12.9405 -5.8870 -2.0144 0.9442
14.2065 -0.9868 -2.0178 0.9441
12.2386 4.8548 -1.8655 0.9482
10.5100 7.9207 -1.8647 0.9482
6.5896 10.3403 -1.7373 0.9517
5.3661 10.3584 -1.6529 0.9540
4.2475 10.3750 -1.5885 0.9557
-0.6106 10.4420 -1.4820 0.9586
-2.5312 10.4704 -1.5263 0.9574
-3.5517 10.4855 -1.5686 0.9563
-5.8204 10.5191 -1.7034 0.9526
-3.5267 5.2130 -0.8918 0.9749
-8.2236 10.0827 -1.8435 0.9488
-9.0844 9.3016 -1.8422 0.9488
-8.2947 7.0981 -1.5468 0.9569
-10.5797 7.5277 -1.8398 0.9489
-12.2031 4.4576 -1.8408 0.9489
-13.8122 2.3912 -1.9862 0.9449
-13.9659 1.1482 -1.9855 0.9450
-13.9408 -1.3532 -1.9845 0.9450
-13.7624 -2.5920 -1.9843 0.9450
-13.4751 -3.8101 -1.9841 0.9450
-12.5835 -6.1463 -1.9843 0.9450
-11.2937 -8.2890 -1.9849 0.9450
-7.6891 -11.7347 -1.9878 0.9449
-6.6141 -12.3806 -1.9888 0.9449
-5.4855 -12.9289 -1.9900 0.9448
-4.3119 -13.3751 -1.9912 0.9448
-1.8670 -13.9473 -1.9938 0.9447
0.6441 -14.0774 -1.9967 0.9447
3.1423 -13.7595 -1.9998 0.9446
4.3616 -13.4345 -2.0013 0.9445
5.5479 -13.0016 -2.0029 0.9445
6.6917 -12.4640 -2.0044 0.9445
7.7837 -11.8258 -2.0060 0.9444
9.7771 -10.2681 -2.0089 0.9443
10.6622 -9.3607 -2.0103 0.9443
11.4629 -8.3770 -2.0116 0.9443
13.6998 -3.8433 -2.0160 0.9441
13.9939 -2.6058 -2.0169 0.9441
14.2434 -0.0756 -2.0182 0.9441
2.2286 10.3999 -1.7522 0.9578
1.2737 10.4140 -1.7284 0.9584
0.3262 10.0929 -1.6636 0.9599
-1.5427 10.4557 -1.7411 0.9581
-2.5166 10.4701 -1.7740 0.9573
-3.5363 10.4852 -1.8229 0.9561
-4.5195 10.2667 -1.8480 0.9555
-5.4144 9.8157 -1.8467 0.9556
-3.5014 5.1903 -1.0314 0.9749
-7.8071 8.0147 -1.8432 0.9557
-8.2644 7.0910 -1.7939 0.9568
-11.8897 2.0745 -1.9883 0.9522
-12.0240 1.0045 -1.9877 0.9523
-12.0628 -0.0730 -1.9872 0.9523
-11.8540 -2.2165 -1.9867 0.9523
-11.6080 -3.2657 -1.9865 0.9523
-11.2701 -4.2890 -1.9865 0.9523
-10.8428 -5.2784 -1.9866 0.9523
-9.7341 -7.1247 -1.9872 0.9523
-9.0612 -7.9671 -1.9877 0.9523
-6.6328 -10.0937 -1.9897 0.9522
1.6186 -12.0238 -1.9987 0.9520
2.6874 -11.8391 -2.0000 0.9520
3.7361 -11.5597 -2.0013 0.9519
6.6791 -10.1767 -2.0053 0.9519
7.5658 -9.5459 -2.0066 0.9518
9.8425 -7.2126 -2.0102 0.9517
10.4526 -6.3085 -2.0113 0.9517
10.9795 -5.3527 -2.0123 0.9517
11.4187 -4.3531 -2.0132 0.9517
11.7665 -3.3176 -2.0140 0.9516
12.0200 -2.2546 -2.0147 0.9516
12.1769 -1.1728 -2.0153 0.9516
12.2360 -0.0810 -2.0158 0.9516
12.0592 2.0970 -2.0164 0.9516
11.8247 3.1655 -2.0166 0.9516
11.1155 4.0697 -1.9500 0.9531
10.2308 4.8210 -1.8632 0.9552
9.7584 5.7145 -1.8630 0.9552
7.8899 8.0906 -1.8617 0.9552
2.5050 10.3958 -1.7616 0.9576
-1.1226 5.2531 -0.8849 0.9785
-4.2586 10.3800 -1.8483 0.9555
-5.1648 9.9517 -1.8471 0.9556
-6.8435 8.8630 -1.8447 0.9556
-8.9314 6.7207 -1.8414 0.9557
-9.9740 5.0200 -1.8395 0.9557
-10.8100 4.2787 -1.9153 0.9540
-11.5792 3.4238 -1.9892 0.9522
-11.8344 2.3755 -1.9885 0.9522
-11.9955 1.3091 -1.9879 0.9523
-12.0615 0.2328 -1.9874 0.9523
-12.0318 -0.8448 -1.9870 0.9523
-10.9729 -5.0017 -1.9866 0.9523
-9.2596 -7.7343 -1.9875 0.9523
-7.7411 -9.2633 -1.9887 0.9522
-6.8858 -9.9211 -1.9895 0.9522
-5.9751 -10.5007 -1.9903 0.9522
-5.0161 -10.9974 -1.9913 0.9522
-4.0163 -11.4071 -1.9923 0.9522
-2.9835 -11.7265 -1.9934 0.9521
-0.8514 -12.0845 -1.9957 0.9521
0.2310 -12.1199 -1.9970 0.9520
1.3130 -12.0587 -1.9983 0.9520
6.4177 -10.3408 -2.0049 0.9519
7.3201 -9.7329 -2.0062 0.9518
9.6549 -7.4587 -2.0099 0.9517
10.8388 -5.6286 -2.0120 0.9517
12.1423 -1.4811 -2.0151 0.9516
12.2179 0.7023 -2.0161 0.9516
11.5680 3.9057 -2.0114 0.9517
10.3499 4.5602 -1.8632 0.9552
9.9005 5.4655 -1.8630 0.9552
8.7675 7.1365 -1.8623 0.9552
7.3542 8.5769 -1.8612 0.9552
6.5567 9.1958 -1.8606 0.9552
5.7071 9.7404 -1.8598 0.9553
4.8124 10.2062 -1.8589 0.9553
2.7846 10.3916 -1.7723 0.9573
0.8670 10.4200 -1.7225 0.9585
-0.0644 10.0987 -1.6637 0.9599
-1.9598 10.4619 -1.7535 0.9578
-3.9948 10.4866 -1.8487 0.9555
-5.7884 9.5962 -1.8462 0.9556
-7.3933 8.4031 -1.8438 0.9556
-9.3396 6.1330 -1.8407 0.9557
-10.2715 4.3699 -1.8389 0.9558
-12.0525 0.5386 -1.9875 0.9523
-12.0499 -0.5395 -1.9871 0.9523
-11.9518 -1.6129 -1.9868 0.9523
-11.0960 -4.7218 -1.9866 0.9523
-10.6310 -5.6941 -1.9867 0.9523
-9.4521 -7.4965 -1.9874 0.9523
-7.9727 -9.0632 -1.9885 0.9522
-6.2386 -10.3446 -1.9901 0.9522
-2.2278 -11.8983 -1.9942 0.9521
-0.0763 -12.1197 -1.9966 0.9521
1.0067 -12.0859 -1.9979 0.9520
4.1816 -11.4098 -2.0019 0.9519
5.1871 -10.9983 -2.0032 0.9519
6.1524 -10.4982 -2.0046 0.9519
7.0697 -9.9135 -2.0059 0.9518
7.9315 -9.2486 -2.0072 0.9518
