ply
format ascii 1.0
element vertex 1597
property float32 x
property float32 y
property float32 z
property float32 I
end_header
0.3492 5.1612 -1.8499 0.9783
-0.1123 5.1712 -1.8497 0.9783
-0.5728 5.1400 -1.8495 0.9783
-1.9120 4.8036 -1.8489 0.9783
-2.3323 4.6135 -1.8487 0.9783
-2.7341 4.3867 -1.8485 0.9783
-3.1140 4.1251 -1.8483 0.9783
-4.0992 3.7854 -1.9953 0.9766
-4.4304 3.4126 -1.9998 0.9765
-5.3423 1.6482 -1.9993 0.9765
-5.4677 1.1653 -1.9992 0.9765
-5.5496 0.6732 -1.9991 0.9765
-5.5874 0.1757 -1.9991 0.9765
-5.4345 -1.3091 -1.9990 0.9765
-5.1158 -2.2536 -1.9991 0.9765
-4.8947 -2.7008 -1.9992 0.9765
-4.3376 -3.5275 -1.9993 0.9765
-3.6426 -4.2423 -1.9996 0.9765
-2.8317 -4.8225 -1.9999 0.9765
-1.9306 -5.2497 -2.0003 0.9765
-1.4550 -5.4015 -2.0005 0.9765
-0.9677 -5.5102 -2.0007 0.9765
-0.4727 -5.5752 -2.0009 0.9765
0.0263 -5.5957 -2.0011 0.9765
1.5067 -5.3911 -2.0018 0.9765
2.4407 -5.0389 -2.0022 0.9765
2.8805 -4.8017 -2.0024 0.9765
3.2975 -4.5263 -2.0026 0.9765
5.1484 -2.2104 -2.0036 0.9765
5.5973 -0.2714 -2.0040 0.9765
5.5993 0.2287 -2.0040 0.9765
4.0804 3.8397 -2.0036 0.9765
3.7128 4.1780 -1.9988 0.9765
3.2115 4.3384 -1.9303 0.9773
2.6963 4.4179 -1.8509 0.9783
1.8684 4.8257 -1.8505 0.9783
1.4306 4.9726 -1.8504 0.9783
0.5247 5.1465 -1.8500 0.9783
0.0637 5.1722 -1.8498 0.9783
-0.3976 5.1568 -1.8496 0.9783
-1.3069 5.0030 -1.8492 0.9783
-2.1741 4.6904 -1.8487 0.9783
-2.9720 4.2288 -1.8484 0.9783
-3.9639 3.9186 -1.9933 0.9766
-4.3095 3.5595 -1.9988 0.9765
-4.6118 3.1626 -1.9997 0.9765
-4.8750 2.7386 -1.9996 0.9765
-5.0994 2.2929 -1.9995 0.9765
-5.2832 1.8290 -1.9993 0.9765
-5.4250 1.3507 -1.9992 0.9765
-5.5782 0.3657 -1.9991 0.9765
-5.5885 -0.1331 -1.9991 0.9765
-5.5543 -0.6308 -1.9990 0.9765
-5.1895 -2.0782 -1.9991 0.9765
-4.9837 -2.5327 -1.9991 0.9765
-4.4550 -3.3778 -1.9993 0.9765
-4.1363 -3.7617 -1.9994 0.9765
-3.4029 -4.4371 -1.9997 0.9765
-2.5612 -4.9718 -2.0000 0.9765
-2.1080 -5.1808 -2.0002 0.9765
-1.6378 -5.3486 -2.0004 0.9765
-1.1546 -5.4739 -2.0006 0.9765
-0.6620 -5.5556 -2.0008 0.9765
0.3353 -5.5861 -2.0012 0.9765
1.3223 -5.4390 -2.0017 0.9765
2.7154 -4.8968 -2.0023 0.9765
3.5426 -4.3375 -2.0027 0.9765
3.9156 -4.0048 -2.0029 0.9765
4.5654 -3.2463 -2.0033 0.9765
4.8370 -2.8266 -2.0034 0.9765
5.2628 -1.9228 -2.0037 0.9765
5.4136 -1.4460 -2.0038 0.9765
5.5848 -0.4616 -2.0040 0.9765
5.6038 0.0381 -2.0040 0.9765
5.5782 0.5376 -2.0040 0.9765
5.5081 1.0328 -2.0040 0.9765
5.2370 1.9945 -2.0040 0.9765
4.7992 2.8927 -2.0039 0.9765
4.2087 3.6987 -2.0037 0.9765
3.8571 4.0539 -2.0010 0.9765
3.4470 4.3396 -1.9819 0.9767
2.0316 4.7595 -1.8506 0.9783
0.2396 5.1673 -1.8498 0.9783
-0.2220 5.1675 -1.8496 0.9783
-0.6817 5.1266 -1.8494 0.9783
-1.1359 5.0448 -1.8492 0.9783
-1.5810 4.9229 -1.8490 0.9783
-2.0134 4.7618 -1.8488 0.9783
-2.4297 4.5629 -1.8486 0.9783
-2.8265 4.3276 -1.8484 0.9783
-3.7637 3.9828 -1.9596 0.9770
-4.5017 3.3177 -1.9998 0.9765
-5.2181 2.0078 -1.9994 0.9765
-5.5626 0.5552 -1.9991 0.9765
-5.5898 0.0571 -1.9991 0.9765
-5.5110 -0.9366 -1.9990 0.9765
-5.2571 -1.9005 -1.9991 0.9765
-5.0669 -2.3616 -1.9991 0.9765
-4.2618 -3.6188 -1.9994 0.9765
-3.5518 -4.3187 -1.9996 0.9765
-2.7288 -4.8816 -1.9999 0.9765
-2.2829 -5.1059 -2.0001 0.9765
-1.8188 -5.2896 -2.0003 0.9765
-1.3401 -5.4313 -2.0005 0.9765
-0.8506 -5.5297 -2.0007 0.9765
0.1450 -5.5941 -2.0011 0.9765
0.6433 -5.5595 -2.0014 0.9765
1.1365 -5.4806 -2.0016 0.9765
1.6208 -5.3580 -2.0018 0.9765
4.1310 -3.7827 -2.0030 0.9765
4.4522 -3.3996 -2.0032 0.9765
4.7379 -2.9894 -2.0034 0.9765
5.3611 -1.6293 -2.0038 0.9765
5.5657 -0.6513 -2.0039 0.9765
5.6018 -0.1525 -2.0040 0.9765
5.1188 2.2806 -2.0040 0.9765
4.8949 2.7278 -2.0039 0.9765
4.3322 3.5535 -2.0037 0.9765
3.0705 4.3375 -1.9004 0.9777
1.7656 4.8642 -1.8505 0.9783
-1.4127 4.9740 -1.8491 0.9783
-1.8503 4.8278 -1.8489 0.9783
-2.2731 4.6431 -1.8487 0.9783
-3.5345 4.0048 -1.9101 0.9776
-4.0488 3.8361 -1.9945 0.9766
-4.6778 3.0639 -1.9997 0.9765
-5.1469 2.1842 -1.9994 0.9765
-5.5406 0.7442 -1.9991 0.9765
-5.5847 0.2472 -1.9991 0.9765
-5.4509 -1.2394 -1.9990 0.9765
-5.3187 -1.7205 -1.9990 0.9765
-4.9288 -2.6379 -1.9991 0.9765
-4.6742 -3.0669 -1.9992 0.9765
-2.8932 -4.7858 -1.9999 0.9765
-2.4552 -5.0251 -2.0000 0.9765
-1.9976 -5.2245 -2.0002 0.9765
-1.5240 -5.3823 -2.0004 0.9765
-0.5440 -5.5686 -2.0008 0.9765
0.4537 -5.5779 -2.0013 0.9765
1.4375 -5.4098 -2.0017 0.9765
1.9143 -5.2607 -2.0020 0.9765
2.8188 -4.8382 -2.0024 0.9765
3.9998 -3.9209 -2.0030 0.9765
4.3338 -3.5490 -2.0032 0.9765
4.6334 -3.1487 -2.0033 0.9765
5.1196 -2.2761 -2.0036 0.9765
5.5403 -0.8403 -2.0039 0.9765
5.5933 -0.3430 -2.0040 0.9765
4.9849 2.5598 -2.0039 0.9765
2.7527 4.3831 -1.8509 0.9783
2.3507 4.6107 -1.8507 0.9783
1.0465 5.0669 -1.8502 0.9783
0.5905 5.1395 -1.8500 0.9783
0.1300 5.1711 -1.8498 0.9783
-0.3316 5.1615 -1.8496 0.9783
-1.6851 4.8881 -1.8490 0.9783
-2.1139 4.7179 -1.8488 0.9783
-2.9176 4.2666 -1.8484 0.9783
-3.9119 3.9676 -1.9925 0.9766
-4.2618 3.6129 -1.9980 0.9765
-4.5710 3.2214 -1.9998 0.9765
-4.8396 2.8009 -1.9996 0.9765
-5.2594 1.8966 -1.9994 0.9765
-5.5731 0.4371 -1.9991 0.9765
-5.5897 -0.0615 -1.9991 0.9765
-5.4899 -1.0533 -1.9990 0.9765
-5.3741 -1.5386 -1.9990 0.9765
-5.2156 -2.0116 -1.9991 0.9765
-5.0157 -2.4686 -1.9991 0.9765
-4.4979 -3.3204 -1.9993 0.9765
-4.1841 -3.7084 -1.9994 0.9765
-3.8371 -4.0669 -1.9995 0.9765
-3.4595 -4.3931 -1.9997 0.9765
-3.0542 -4.6845 -1.9998 0.9765
-2.6246 -4.9385 -2.0000 0.9765
-2.1741 -5.1533 -2.0002 0.9765
-1.2245 -5.4586 -2.0006 0.9765
-0.7331 -5.5466 -2.0008 0.9765
0.7611 -5.5447 -2.0014 0.9765
1.2526 -5.4554 -2.0016 0.9765
2.2020 -5.1473 -2.0021 0.9765
3.0818 -4.6754 -2.0025 0.9765
3.4868 -4.3825 -2.0027 0.9765
4.2104 -3.6943 -2.0031 0.9765
4.5234 -3.3044 -2.0033 0.9765
4.8004 -2.8882 -2.0034 0.9765
5.0391 -2.4489 -2.0036 0.9765
5.3946 -1.5152 -2.0038 0.9765
5.5084 -1.0283 -2.0039 0.9765
5.5784 -0.5331 -2.0039 0.9765
5.6038 -0.0336 -2.0040 0.9765
5.5208 0.9622 -2.0040 0.9765
5.2621 1.9273 -2.0040 0.9765
5.0692 2.3887 -2.0040 0.9765
4.5640 3.2508 -2.0038 0.9765
4.2558 3.6446 -2.0037 0.9765
3.9104 4.0059 -2.0019 0.9765
0.7650 5.1166 -1.8501 0.9783
-0.6160 5.1350 -1.8495 0.9783
-1.0713 5.0590 -1.8493 0.9783
-1.9523 4.7873 -1.8489 0.9783
-2.7709 4.3635 -1.8485 0.9783
-3.6761 3.9913 -1.9405 0.9772
-4.4589 3.3751 -1.9998 0.9765
-4.9867 2.5292 -1.9995 0.9765
-5.1920 2.0744 -1.9994 0.9765
-5.3560 1.6032 -1.9993 0.9765
-5.4773 1.1192 -1.9992 0.9765
-5.5551 0.6264 -1.9991 0.9765
-5.5886 0.1286 -1.9991 0.9765
-5.5778 -0.3701 -1.9990 0.9765
-4.6081 -3.1655 -1.9992 0.9765
-4.3078 -3.5639 -1.9993 0.9765
-3.9731 -3.9340 -1.9995 0.9765
-3.2117 -4.5777 -1.9997 0.9765
-2.3481 -5.0762 -2.0001 0.9765
-1.8863 -5.2658 -2.0003 0.9765
1.0662 -5.4946 -2.0016 0.9765
2.0255 -5.2191 -2.0020 0.9765
2.9209 -4.7774 -2.0024 0.9765
3.3355 -4.4984 -2.0026 0.9765
4.4082 -3.4563 -2.0032 0.9765
5.5504 0.7738 -2.0040 0.9765
5.3246 1.7472 -2.0040 0.9765
5.1476 2.2149 -2.0040 0.9765
4.9294 2.6650 -2.0039 0.9765
4.6720 3.0937 -2.0038 0.9765
3.6765 4.2080 -1.9982 0.9765
5.0683 -1.2845 -2.0037 0.9779
5.2162 -0.3640 -2.0038 0.9779
5.1267 1.0294 -2.0039 0.9778
4.4431 2.7563 -2.0037 0.9779
3.8826 3.5013 -2.0035 0.9779
3.5548 3.8332 -2.0034 0.9779
3.1919 4.1259 -1.9990 0.9779
2.7588 4.3118 -1.9616 0.9783
2.2417 4.3068 -1.8606 0.9794
1.4332 4.6108 -1.8503 0.9795
0.5914 4.7911 -1.8500 0.9795
-0.2689 4.8190 -1.8496 0.9795
-0.6974 4.7753 -1.8494 0.9795
-1.5341 4.5746 -1.8490 0.9795
-3.2459 4.0086 -1.9766 0.9781
-3.6269 3.7409 -1.9967 0.9779
-5.0350 1.3677 -1.9994 0.9779
-5.1367 0.9133 -1.9993 0.9779
-5.2169 -0.0135 -1.9992 0.9779
-5.1949 -0.4786 -1.9992 0.9779
-5.1315 -0.9398 -1.9992 0.9779
-4.7000 -2.2644 -1.9993 0.9779
-4.4796 -2.6745 -1.9993 0.9779
-4.2235 -3.0633 -1.9994 0.9779
-3.6127 -3.7651 -1.9996 0.9779
-3.2628 -4.0725 -1.9998 0.9779
-2.8870 -4.3475 -1.9999 0.9779
-2.4881 -4.5879 -2.0001 0.9779
-1.6340 -4.9577 -2.0004 0.9779
0.2022 -5.2182 -2.0012 0.9779
0.6667 -5.1799 -2.0014 0.9779
2.0143 -4.8203 -2.0020 0.9779
2.4363 -4.6220 -2.0022 0.9779
3.2190 -4.1167 -2.0026 0.9779
3.5736 -3.8136 -2.0028 0.9779
4.4564 -2.7326 -2.0033 0.9779
4.6826 -2.3246 -2.0034 0.9779
4.8715 -1.8980 -2.0035 0.9779
5.0216 -1.4562 -2.0036 0.9779
5.1316 -1.0027 -2.0037 0.9779
5.2007 -0.5412 -2.0038 0.9779
5.1588 0.8544 -2.0039 0.9778
4.7486 2.1890 -2.0038 0.9779
3.9996 3.3672 -2.0036 0.9779
3.6832 3.7102 -2.0035 0.9779
3.3337 4.0189 -2.0010 0.9779
2.9547 4.2893 -1.9960 0.9779
2.4326 4.3090 -1.8962 0.9790
1.9896 4.4001 -1.8506 0.9795
0.7541 4.7684 -1.8500 0.9795
-0.1048 4.8255 -1.8497 0.9795
-0.9599 4.7292 -1.8493 0.9795
-1.3776 4.6243 -1.8491 0.9795
-1.7842 4.4826 -1.8489 0.9795
-2.1765 4.3053 -1.8487 0.9795
-2.5515 4.0937 -1.8485 0.9795
-4.4016 2.8032 -1.9998 0.9779
-4.6337 2.3994 -1.9997 0.9779
-4.8289 1.9766 -1.9996 0.9779
-5.1792 0.6282 -1.9993 0.9779
-5.2144 0.1640 -1.9992 0.9779
-5.2082 -0.3016 -1.9992 0.9779
-5.0718 -1.2217 -1.9992 0.9779
-4.9427 -1.6691 -1.9992 0.9779
-4.3252 -2.9178 -1.9994 0.9779
-4.0480 -3.2920 -1.9995 0.9779
-2.6426 -4.5005 -2.0000 0.9779
-2.2310 -4.7185 -2.0002 0.9779
-1.8016 -4.8991 -2.0003 0.9779
-1.3578 -5.0407 -2.0005 0.9779
-0.4411 -5.2027 -2.0009 0.9779
0.0245 -5.2218 -2.0011 0.9779
0.4900 -5.1994 -2.0013 0.9779
0.9517 -5.1355 -2.0015 0.9779
1.4060 -5.0307 -2.0017 0.9779
1.8491 -4.8859 -2.0020 0.9779
2.2775 -4.7020 -2.0022 0.9779
2.6879 -4.4807 -2.0024 0.9779
3.4416 -3.9328 -2.0027 0.9779
4.0861 -3.2596 -2.0031 0.9779
4.6007 -2.4825 -2.0034 0.9779
4.8040 -2.0625 -2.0035 0.9779
4.9690 -1.6261 -2.0036 0.9779
5.2228 -0.2532 -2.0038 0.9779
5.2247 0.2134 -2.0039 0.9778
5.1849 0.6784 -2.0039 0.9778
5.1037 1.1380 -2.0039 0.9778
4.9819 1.5884 -2.0039 0.9778
4.8204 2.0262 -2.0038 0.9779
4.3836 2.8499 -2.0037 0.9779
3.8074 3.5828 -2.0035 0.9779
2.6309 4.3108 -1.9353 0.9786
2.1382 4.3300 -1.8506 0.9795
1.7435 4.5030 -1.8505 0.9795
1.3350 4.6401 -1.8503 0.9795
0.9159 4.7402 -1.8501 0.9795
0.4896 4.8025 -1.8499 0.9795
-1.2195 4.6687 -1.8492 0.9795
-1.6307 4.5409 -1.8490 0.9795
-2.8436 4.0461 -1.8952 0.9790
-3.3582 3.9719 -1.9932 0.9780
-3.7076 3.6652 -1.9979 0.9779
-4.0239 3.3236 -2.0000 0.9779
-4.5495 2.5558 -1.9997 0.9779
-4.7590 2.1398 -1.9996 0.9779
-4.9305 1.7069 -1.9995 0.9779
-5.0628 1.2605 -1.9994 0.9779
-5.2058 0.3413 -1.9993 0.9779
-5.1835 -0.5887 -1.9992 0.9779
-4.6510 -2.3636 -1.9993 0.9779
-4.4219 -2.7689 -1.9994 0.9779
-4.1576 -3.1523 -1.9994 0.9779
-3.8602 -3.5106 -1.9995 0.9779
-2.3902 -4.6398 -2.0001 0.9779
-0.1531 -5.2194 -2.0010 0.9779
0.3129 -5.2128 -2.0013 0.9779
1.6817 -4.9458 -2.0019 0.9779
2.1162 -4.7766 -2.0021 0.9779
2.9314 -4.3257 -2.0025 0.9779
3.6537 -3.7370 -2.0028 0.9779
4.5135 -2.6375 -2.0033 0.9779
4.7310 -2.2247 -2.0034 0.9779
5.0514 -1.3493 -2.0037 0.9779
5.2111 -0.4307 -2.0038 0.9779
5.2289 0.0356 -2.0038 0.9778
5.2049 0.5016 -2.0039 0.9778
5.0331 1.4180 -2.0039 0.9778
4.8866 1.8611 -2.0038 0.9778
4.4781 2.6992 -2.0037 0.9779
3.9272 3.4513 -2.0035 0.9779
3.6036 3.7875 -2.0034 0.9779
3.2457 4.0862 -1.9998 0.9779
1.8990 4.4487 -1.8536 0.9795
1.4921 4.5921 -1.8504 0.9795
1.0767 4.7064 -1.8502 0.9795
0.2236 4.8219 -1.8498 0.9795
-0.6362 4.7839 -1.8494 0.9795
-1.4754 4.5940 -1.8490 0.9795
-2.2673 4.2580 -1.8487 0.9795
-2.6538 4.0632 -1.8598 0.9794
-3.5775 3.7857 -1.9960 0.9779
-4.4601 2.7091 -1.9998 0.9779
-4.6835 2.3005 -1.9996 0.9779
-5.0171 1.4320 -1.9994 0.9779
-5.1913 0.5182 -1.9993 0.9779
-5.2167 0.0533 -1.9992 0.9779
-5.1431 -0.8740 -1.9992 0.9779
-4.7286 -2.2040 -1.9993 0.9779
-4.5134 -2.6169 -1.9993 0.9779
-3.9773 -3.3772 -1.9995 0.9779
-3.3147 -4.0303 -1.9997 0.9779
-2.9423 -4.3101 -1.9999 0.9779
-2.5466 -4.5556 -2.0000 0.9779
-1.2506 -5.0685 -2.0006 0.9779
0.1353 -5.2203 -2.0012 0.9779
1.0605 -5.1143 -2.0016 0.9779
1.9524 -4.8457 -2.0020 0.9779
2.7825 -4.4228 -2.0024 0.9779
3.1660 -4.1575 -2.0026 0.9779
3.5244 -3.8590 -2.0028 0.9779
4.6524 -2.3843 -2.0034 0.9779
4.8468 -1.9602 -2.0035 0.9779
5.0025 -1.5203 -2.0036 0.9779
5.1934 -0.6078 -2.0038 0.9779
5.2270 -0.1423 -2.0038 0.9779
5.2190 0.3243 -2.0039 0.9778
5.1693 0.7883 -2.0039 0.9778
4.9471 1.6938 -2.0038 0.9778
4.3221 2.9423 -2.0037 0.9779
4.0424 3.3158 -2.0036 0.9779
3.3862 3.9774 -2.0018 0.9779
2.5063 4.3097 -1.9105 0.9789
2.0458 4.3743 -1.8506 0.9795
1.6475 4.5389 -1.8504 0.9795
1.2362 4.6673 -1.8502 0.9795
-0.0430 4.8265 -1.8497 0.9795
-1.7267 4.5052 -1.8489 0.9795
-2.1213 4.3329 -1.8487 0.9795
-3.4435 3.9018 -1.9943 0.9780
-3.7868 3.5879 -1.9991 0.9779
-4.0934 3.2374 -2.0000 0.9779
-4.9656 1.6019 -1.9995 0.9779
-5.0884 1.1528 -1.9994 0.9779
-5.1699 -0.6986 -1.9992 0.9779
-4.9637 -1.6056 -1.9992 0.9779
-4.8008 -2.0418 -1.9992 0.9779
-4.0898 -3.2398 -1.9995 0.9779
-3.4498 -3.9151 -1.9997 0.9779
-1.4222 -5.0228 -2.0005 0.9779
-0.5076 -5.1965 -2.0009 0.9779
0.4234 -5.2052 -2.0013 0.9779
1.7863 -4.9091 -2.0019 0.9779
2.2171 -4.7308 -2.0021 0.9779
4.0440 -3.3116 -2.0030 0.9779
4.7772 -2.1239 -2.0035 0.9779
4.9478 -1.6896 -2.0036 0.9779
5.0789 -1.2418 -2.0037 0.9779
5.2191 -0.3201 -2.0038 0.9779
5.0019 1.5245 -2.0039 0.9778
4.8459 1.9644 -2.0038 0.9778
4.6514 2.3885 -2.0038 0.9779
4.1529 3.1764 -2.0036 0.9779
3.8530 3.5338 -2.0035 0.9779
3.5224 3.8630 -2.0034 0.9779
2.7076 4.3114 -1.9510 0.9784
2.1973 4.3097 -1.8538 0.9795
1.8010 4.4804 -1.8505 0.9795
-0.7375 4.7692 -1.8494 0.9795
-1.5725 4.5615 -1.8490 0.9795
-1.9727 4.4027 -1.8488 0.9795
-2.3571 4.2088 -1.8486 0.9795
-2.7713 4.0527 -1.8815 0.9792
-3.2980 4.0036 -1.9878 0.9780
-3.6591 3.7111 -1.9972 0.9779
-4.5165 2.6138 -1.9997 0.9779
-4.9083 1.7699 -1.9995 0.9779
-5.0463 1.3252 -1.9994 0.9779
-5.2011 0.4079 -1.9993 0.9779
-5.1234 -0.9830 -1.9992 0.9779
-5.0154 -1.4358 -1.9992 0.9779
-4.1976 -3.0988 -1.9994 0.9779
-2.4494 -4.6087 -2.0001 0.9779
-0.6841 -5.1761 -2.0008 0.9779
-0.2199 -5.2170 -2.0010 0.9779
0.7102 -5.1742 -2.0014 0.9779
1.1688 -5.0908 -2.0016 0.9779
2.8758 -4.3628 -2.0024 0.9779
3.2536 -4.0894 -2.0026 0.9779
3.6056 -3.7834 -2.0028 0.9779
3.9289 -3.4472 -2.0030 0.9779
4.4793 -2.6950 -2.0033 0.9779
4.7020 -2.2851 -2.0034 0.9779
5.0337 -1.4138 -2.0036 0.9779
5.2109 0.4349 -2.0039 0.9778
5.1514 0.8978 -2.0039 0.9778
4.9100 1.7984 -2.0038 0.9778
4.7300 2.2289 -2.0038 0.9779
4.2586 3.0333 -2.0037 0.9779
3.9711 3.4008 -2.0036 0.9779
3.2989 4.0458 -2.0005 0.9779
2.9177 4.3128 -1.9954 0.9779
1.9525 4.4166 -1.8505 0.9795
1.1368 4.6923 -1.8502 0.9795
0.7139 4.7745 -1.8500 0.9795
-2.5872 4.0742 -1.8495 0.9795
-3.0906 4.0232 -1.9442 0.9785
-3.8640 3.5085 -2.0001 0.9779
-4.4250 2.7660 -1.9998 0.9779
-4.6537 2.3603 -1.9997 0.9779
-4.9984 1.4962 -1.9994 0.9779
-5.1116 1.0445 -1.9994 0.9779
-5.2054 -0.3454 -1.9992 0.9779
-5.0613 -1.2644 -1.9992 0.9779
-4.9285 -1.7106 -1.9992 0.9779
-4.7564 -2.1433 -1.9993 0.9779
-3.3660 -3.9875 -1.9997 0.9779
-2.9973 -4.2720 -1.9999 0.9779
-2.1913 -4.7372 -2.0002 0.9779
-0.3973 -5.2063 -2.0009 0.9779
0.0685 -5.2215 -2.0011 0.9779
1.4483 -5.0188 -2.0018 0.9779
1.8901 -4.8702 -2.0020 0.9779
2.3171 -4.6827 -2.0022 0.9779
2.7256 -4.4580 -2.0024 0.9779
3.1125 -4.1976 -2.0026 0.9779
3.4746 -3.9038 -2.0028 0.9779
4.3849 -2.8458 -2.0032 0.9779
4.6215 -2.4437 -2.0034 0.9779
4.8212 -2.0220 -2.0035 0.9779
4.9826 -1.5842 -2.0036 0.9779
5.1042 -1.1338 -2.0037 0.9779
5.1851 -0.6742 -2.0038 0.9779
5.2227 0.2574 -2.0039 0.9778
5.1790 0.7220 -2.0039 0.9778
4.9684 1.6303 -2.0039 0.9778
4.5996 2.4867 -2.0038 0.9779
4.0846 3.2637 -2.0036 0.9779
4.7453 -1.2026 -2.0035 0.9791
4.8338 -0.7748 -2.0036 0.9791
4.8948 0.0960 -2.0037 0.9791
4.8668 0.5320 -2.0037 0.9791
4.8000 0.9638 -2.0037 0.9791
4.6949 1.3879 -2.0037 0.9791
4.5524 1.8009 -2.0037 0.9791
4.3736 2.1996 -2.0036 0.9791
4.1600 2.5806 -2.0036 0.9791
1.7619 4.2787 -1.8938 0.9802
1.3419 4.3171 -1.8503 0.9807
0.5537 4.4860 -1.8499 0.9807
-0.2517 4.5121 -1.8496 0.9807
-0.6530 4.4713 -1.8494 0.9807
-1.4380 4.2881 -1.8510 0.9806
-1.8124 4.1379 -1.8489 0.9807
-2.7104 4.0360 -1.9897 0.9792
-3.9706 2.8486 -2.0000 0.9791
-4.2084 2.4831 -1.9999 0.9791
-4.4128 2.0979 -1.9998 0.9791
-4.5820 1.6960 -1.9996 0.9791
-2.1598 0.3840 -0.8978 0.9906
-1.9577 0.1701 -0.8043 0.9915
-1.9005 -0.0049 -0.7778 0.9918
-2.1813 -0.3995 -0.9076 0.9905
-4.7076 -1.3049 -1.9993 0.9791
-4.4011 -2.1203 -1.9994 0.9791
-4.1947 -2.5044 -1.9995 0.9791
-3.9548 -2.8685 -1.9996 0.9791
-3.0553 -3.8134 -1.9999 0.9791
-0.6813 -4.8410 -2.0008 0.9791
0.6242 -4.8501 -2.0014 0.9791
3.0140 -3.8544 -2.0026 0.9791
3.6512 -3.2584 -2.0029 0.9791
3.9275 -2.9201 -2.0030 0.9791
4.1725 -2.5585 -2.0032 0.9791
4.5611 -1.7770 -2.0034 0.9791
4.8046 -0.9388 -2.0036 0.9791
4.0110 2.8064 -2.0035 0.9791
3.4485 3.4738 -2.0033 0.9791
3.1249 3.7672 -2.0032 0.9791
2.7725 4.0247 -2.0002 0.9791
1.9359 4.2813 -1.9230 0.9799
1.4908 4.2771 -1.8538 0.9806
1.1014 4.3844 -1.8502 0.9807
-0.0981 4.5183 -1.8496 0.9807
-0.5005 4.4911 -1.8495 0.9807
-1.2899 4.3300 -1.8491 0.9807
-1.6706 4.1973 -1.8489 0.9807
-2.0690 4.0927 -1.8769 0.9804
-2.5260 4.0528 -1.9545 0.9796
-3.2789 3.6208 -1.9992 0.9791
-3.5904 3.3156 -2.0002 0.9791
-3.8715 2.9821 -2.0001 0.9791
-1.9540 0.2370 -0.8056 0.9915
-1.9274 0.0606 -0.7892 0.9917
-4.7492 -1.1440 -1.9993 0.9791
-4.6284 -1.5629 -1.9994 0.9791
-4.2774 -2.3602 -1.9995 0.9791
-2.8401 -3.9765 -2.0000 0.9791
-2.4745 -4.2141 -2.0001 0.9791
-1.6870 -4.5873 -2.0004 0.9791
0.0230 -4.8894 -2.0011 0.9791
0.4588 -4.8684 -2.0013 0.9791
0.8911 -4.8086 -2.0015 0.9791
1.3164 -4.7104 -2.0017 0.9791
2.1325 -4.4026 -2.0021 0.9791
2.8810 -3.9546 -2.0025 0.9791
3.2224 -3.6823 -2.0027 0.9791
4.0829 -2.6989 -2.0031 0.9791
4.4979 -1.9311 -2.0034 0.9791
4.6524 -1.5225 -2.0035 0.9791
4.7698 -1.1017 -2.0035 0.9791
4.8544 0.6352 -2.0037 0.9791
4.6644 1.4872 -2.0037 0.9791
4.1042 2.6683 -2.0036 0.9791
3.8498 3.0235 -2.0035 0.9791
3.5648 3.3545 -2.0034 0.9791
3.2513 3.6588 -2.0033 0.9791
2.9103 3.9315 -2.0020 0.9791
2.1153 4.2835 -1.9552 0.9796
1.6560 4.2769 -1.8771 0.9804
0.8575 4.4383 -1.8501 0.9807
0.0557 4.5192 -1.8497 0.9807
-0.3474 4.5057 -1.8495 0.9807
-0.7477 4.4563 -1.8494 0.9807
-1.1419 4.3715 -1.8492 0.9807
-1.5269 4.2519 -1.8490 0.9807
-1.9045 4.1086 -1.8534 0.9806
-2.8010 3.9856 -1.9937 0.9792
-3.7679 3.1122 -2.0001 0.9791
-4.0301 2.7636 -2.0000 0.9791
-4.2601 2.3932 -1.9998 0.9791
-4.4563 2.0037 -1.9997 0.9791
-4.7408 1.1803 -1.9995 0.9791
-2.0053 0.3128 -0.8307 0.9913
-1.9497 0.1278 -0.7997 0.9916
-1.9559 -0.2221 -0.8056 0.9915
-4.6788 -1.4046 -1.9994 0.9791
-4.3552 -2.2133 -1.9994 0.9791
-4.1406 -2.5928 -1.9995 0.9791
-3.3073 -3.5967 -1.9998 0.9791
-2.6163 -4.1274 -2.0000 0.9791
-1.4312 -4.6737 -2.0005 0.9791
-1.0089 -4.7832 -2.0007 0.9791
0.7270 -4.8359 -2.0015 0.9791
1.5746 -4.6308 -2.0019 0.9791
1.9814 -4.4724 -2.0020 0.9791
2.3725 -4.2784 -2.0022 0.9791
2.7447 -4.0502 -2.0024 0.9791
3.4210 -3.4989 -2.0028 0.9791
3.7196 -3.1802 -2.0029 0.9791
3.9886 -2.8362 -2.0031 0.9791
4.2259 -2.4694 -2.0032 0.9791
4.4295 -2.0830 -2.0033 0.9791
4.8234 -0.8366 -2.0036 0.9791
4.8790 -0.4033 -2.0036 0.9791
4.8956 0.0333 -2.0037 0.9791
4.8732 0.4696 -2.0037 0.9791
4.7123 1.3277 -2.0037 0.9791
4.4015 2.1434 -2.0036 0.9791
3.6769 3.2314 -2.0034 0.9791
3.3740 3.5461 -2.0033 0.9791
3.0442 3.8326 -2.0032 0.9791
2.3007 4.2854 -1.9907 0.9792
1.3971 4.2996 -1.8503 0.9807
1.0081 4.4067 -1.8501 0.9807
0.2094 4.5148 -1.8498 0.9807
-0.5957 4.4794 -1.8494 0.9807
-0.9925 4.4080 -1.8492 0.9807
-1.7593 4.1608 -1.8489 0.9807
-2.1745 4.0837 -1.8935 0.9802
-3.0204 3.8293 -1.9961 0.9791
-3.3568 3.5522 -2.0003 0.9791
-3.9338 2.8992 -2.0000 0.9791
-4.1763 2.5368 -1.9999 0.9791
-4.3856 2.1542 -1.9998 0.9791
-2.1284 -0.3617 -0.8836 0.9907
-4.7239 -1.2446 -1.9993 0.9791
-4.5942 -1.6608 -1.9994 0.9791
-4.4279 -2.0638 -1.9994 0.9791
-4.2264 -2.4504 -1.9995 0.9791
-3.9912 -2.8176 -1.9995 0.9791
-3.7243 -3.1623 -1.9996 0.9791
-2.3845 -4.2658 -2.0001 0.9791
-1.1710 -4.7459 -2.0006 0.9791
-0.7433 -4.8318 -2.0008 0.9791
-0.3095 -4.8793 -2.0010 0.9791
0.9930 -4.7887 -2.0016 0.9791
1.4161 -4.6815 -2.0018 0.9791
1.8281 -4.5371 -2.0020 0.9791
2.2255 -4.3564 -2.0022 0.9791
4.3560 -2.2324 -2.0033 0.9791
4.5379 -1.8353 -2.0034 0.9791
4.7921 -1.0002 -2.0036 0.9791
4.8863 0.3036 -2.0037 0.9791
4.7548 1.1666 -2.0037 0.9791
4.0467 2.7548 -2.0035 0.9791
3.7848 3.1045 -2.0034 0.9791
3.1729 3.7269 -2.0032 0.9791
2.0027 4.2821 -1.9348 0.9798
1.5518 4.2751 -1.8614 0.9805
1.1574 4.3700 -1.8502 0.9807
0.7632 4.4554 -1.8500 0.9807
-0.0402 4.5192 -1.8497 0.9807
-1.2344 4.3462 -1.8491 0.9807
-2.0062 4.0979 -1.8674 0.9805
-2.4582 4.0589 -1.9421 0.9797
-3.8330 3.0315 -2.0001 0.9791
-4.3099 2.3022 -1.9998 0.9791
-4.4977 1.9087 -1.9997 0.9791
-4.6497 1.5000 -1.9996 0.9791
-4.7648 1.0794 -1.9995 0.9791
-1.9493 0.2618 -0.8050 0.9915
-1.9371 0.0858 -0.7936 0.9917
-1.9376 -0.0873 -0.7938 0.9917
-1.9490 -0.2633 -0.8049 0.9915
-4.7635 -1.0831 -1.9993 0.9791
-4.6480 -1.5035 -1.9994 0.9791
-4.4955 -1.9120 -1.9994 0.9791
-4.0847 -2.6801 -1.9995 0.9791
-3.5441 -3.3633 -1.9997 0.9791
-3.2303 -3.6661 -1.9998 0.9791
-1.7456 -4.5653 -2.0004 0.9791
-0.9072 -4.8036 -2.0007 0.9791
-0.4753 -4.8658 -2.0009 0.9791
0.3965 -4.8738 -2.0013 0.9791
0.8295 -4.8195 -2.0015 0.9791
1.2560 -4.7268 -2.0017 0.9791
2.0759 -4.4295 -2.0021 0.9791
2.4628 -4.2271 -2.0023 0.9791
3.4945 -3.4256 -2.0028 0.9791
3.7863 -3.1007 -2.0030 0.9791
4.2774 -2.3792 -2.0032 0.9791
4.4727 -1.9885 -2.0033 0.9791
4.6325 -1.5819 -2.0034 0.9791
4.7553 -1.1627 -2.0035 0.9791
4.8402 -0.7341 -2.0036 0.9791
4.8865 -0.2997 -2.0037 0.9791
4.8938 0.1372 -2.0037 0.9791
4.8621 0.5729 -2.0037 0.9791
4.7917 1.0042 -2.0037 0.9791
4.6831 1.4274 -2.0037 0.9791
4.5371 1.8392 -2.0037 0.9791
4.3550 2.2363 -2.0036 0.9791
3.8883 2.9740 -2.0035 0.9791
3.2979 3.6169 -2.0033 0.9791
2.9614 3.8952 -2.0026 0.9791
2.1843 4.2843 -1.9682 0.9794
1.3055 4.3282 -1.8503 0.9807
0.9143 4.4270 -1.8501 0.9807
0.5160 4.4904 -1.8499 0.9807
0.1135 4.5181 -1.8497 0.9807
-1.4724 4.2711 -1.8490 0.9807
-1.8471 4.1225 -1.8488 0.9807
-2.2818 4.0744 -1.9113 0.9800
-3.1024 3.7661 -1.9970 0.9791
-3.9944 2.8150 -2.0000 0.9791
-4.2292 2.4476 -1.9999 0.9791
-4.4303 2.0606 -1.9997 0.9791
-4.7253 1.2409 -1.9995 0.9791
-2.1249 0.3594 -0.8820 0.9907
-1.9552 0.1533 -0.8027 0.9916
-1.9577 -0.1970 -0.8053 0.9915
-4.6964 -1.3445 -1.9994 0.9791
-4.5579 -1.7579 -1.9994 0.9791
-4.1735 -2.5396 -1.9995 0.9791
-3.9306 -2.9017 -1.9996 0.9791
-3.6564 -3.2407 -1.9997 0.9791
-3.0231 -3.8390 -1.9999 0.9791
-1.0700 -4.7698 -2.0007 0.9791
-0.6406 -4.8466 -2.0009 0.9791
-0.2059 -4.8849 -2.0010 0.9791
0.2304 -4.8843 -2.0012 0.9791
0.6650 -4.8448 -2.0014 0.9791
1.0944 -4.7666 -2.0016 0.9791
1.5152 -4.6505 -2.0018 0.9791
2.3175 -4.3083 -2.0022 0.9791
2.6926 -4.0849 -2.0024 0.9791
3.3759 -3.5424 -2.0027 0.9791
3.9519 -2.8870 -2.0030 0.9791
4.8123 -0.8983 -2.0036 0.9791
4.8734 -0.4657 -2.0036 0.9791
4.8788 0.4072 -2.0037 0.9791
4.5971 1.6838 -2.0037 0.9791
4.2247 2.4733 -2.0036 0.9791
3.7180 3.1840 -2.0034 0.9791
1.8924 4.2806 -1.9155 0.9800
1.0644 4.3935 -1.8502 0.9807
0.6684 4.4705 -1.8500 0.9807
0.2672 4.5118 -1.8498 0.9807
-0.1361 4.5172 -1.8496 0.9807
-1.7059 4.1831 -1.8489 0.9807
-3.3100 3.5938 -1.9996 0.9791
-3.8964 2.9494 -2.0000 0.9791
-4.3577 2.2102 -1.9998 0.9791
-4.5371 1.8128 -1.9997 0.9791
-4.7865 0.9781 -1.9995 0.9791
-1.9560 0.2206 -0.8056 0.9915
-1.9203 0.0442 -0.7862 0.9917
-1.9501 -0.1294 -0.7999 0.9916
-4.7394 -1.1840 -1.9993 0.9791
-4.6150 -1.6018 -1.9994 0.9791
-4.4539 -2.0069 -1.9994 0.9791
-4.0270 -2.7662 -1.9995 0.9791
-3.7645 -3.1144 -1.9996 0.9791
-3.4720 -3.4378 -1.9997 0.9791
-3.1519 -3.7339 -1.9998 0.9791
-2.8066 -4.0003 -2.0000 0.9791
-2.4390 -4.2348 -2.0001 0.9791
-1.2316 -4.7305 -2.0006 0.9791
-0.8050 -4.8219 -2.0008 0.9791
0.4998 -4.8644 -2.0014 0.9791
0.9316 -4.8009 -2.0016 0.9791
1.3561 -4.6992 -2.0018 0.9791
1.7698 -4.5601 -2.0019 0.9791
3.8513 -3.0197 -2.0030 0.9791
4.5140 -1.8932 -2.0034 0.9791
4.8547 -0.6312 -2.0036 0.9791
4.8898 0.2410 -2.0037 0.9791
4.7693 1.1056 -2.0037 0.9791
4.6517 1.5264 -2.0037 0.9791
4.4970 1.9350 -2.0037 0.9791
4.3065 2.3282 -2.0036 0.9791
4.0816 2.7028 -2.0035 0.9791
3.8243 3.0558 -2.0035 0.9791
4.4560 -1.1293 -2.0034 0.9801
4.5701 0.4996 -2.0036 0.9801
4.5074 0.9050 -2.0036 0.9801
4.4087 1.3033 -2.0036 0.9801
4.2749 1.6911 -2.0036 0.9801
4.1070 2.0655 -2.0035 0.9801
3.9064 2.4233 -2.0034 0.9801
3.1254 3.3702 -2.0032 0.9801
2.8123 3.6352 -2.0031 0.9801
2.4763 3.8703 -2.0025 0.9802
2.1174 4.0680 -1.9987 0.9802
1.3210 4.2499 -1.9396 0.9808
0.9130 4.2399 -1.8902 0.9813
0.5219 4.2283 -1.8568 0.9816
0.1423 4.2419 -1.8497 0.9817
-0.2364 4.2373 -1.8496 0.9817
-0.6132 4.1990 -1.8494 0.9817
-0.9909 4.1517 -1.8602 0.9815
-1.3834 4.1252 -1.8962 0.9812
-2.5548 3.8043 -1.9971 0.9802
-3.4758 2.9972 -2.0002 0.9802
-3.7289 2.6752 -2.0001 0.9802
-3.9523 2.3320 -2.0000 0.9802
-4.1443 1.9702 -1.9999 0.9802
-1.5978 0.5914 -0.7425 0.9926
-1.4988 -0.2745 -0.6641 0.9934
-4.1334 -1.9913 -1.9995 0.9802
-3.9395 -2.3520 -1.9996 0.9802
-3.7142 -2.6940 -1.9997 0.9802
-2.8693 -3.5813 -2.0000 0.9802
-2.1880 -4.0345 -2.0002 0.9802
-1.4369 -4.3597 -2.0005 0.9802
1.7711 -4.2384 -2.0020 0.9802
2.1421 -4.0640 -2.0021 0.9802
3.1420 -3.3531 -2.0026 0.9801
3.6881 -2.7421 -2.0029 0.9801
3.9182 -2.4026 -2.0031 0.9801
4.4150 -1.2802 -2.0034 0.9801
4.5117 -0.8816 -2.0034 0.9801
3.5164 2.9605 -2.0033 0.9801
3.2383 3.2620 -2.0032 0.9801
2.9344 3.5376 -2.0031 0.9801
1.8876 4.1744 -1.9966 0.9802
0.2866 4.2348 -1.8498 0.9817
-0.8453 4.1645 -1.8520 0.9816
-1.2320 4.1357 -1.8807 0.9813
-2.4224 3.8867 -1.9959 0.9802
-3.0811 3.4023 -2.0004 0.9802
-3.3719 3.1138 -2.0003 0.9802
-3.6358 2.8006 -2.0001 0.9802
-1.5218 0.1846 -0.6681 0.9933
-1.5136 -0.2243 -0.6669 0.9933
-4.1987 -1.8496 -1.9995 0.9802
-3.5599 -2.8950 -1.9997 0.9802
-2.9894 -3.4816 -1.9999 0.9802
-2.3239 -3.9577 -2.0002 0.9802
-1.1940 -4.4326 -2.0006 0.9802
0.0216 -4.5917 -2.0012 0.9802
0.8369 -4.5157 -2.0015 0.9802
2.0026 -4.1344 -2.0021 0.9802
2.7055 -3.7136 -2.0024 0.9802
3.3225 -3.1746 -2.0027 0.9801
3.5926 -2.8660 -2.0029 0.9801
3.8341 -2.5344 -2.0030 0.9801
4.0450 -2.1826 -2.0031 0.9801
4.2237 -1.8134 -2.0032 0.9801
4.3688 -1.4297 -2.0033 0.9801
4.4790 -1.0345 -2.0034 0.9801
4.5935 0.1877 -2.0036 0.9801
4.4871 1.0005 -2.0036 0.9801
4.2380 1.7814 -2.0035 0.9801
3.8541 2.5057 -2.0034 0.9801
3.6152 2.8392 -2.0034 0.9801
3.3475 3.1500 -2.0033 0.9801
2.3925 3.9202 -2.0015 0.9802
1.2221 4.2477 -1.9263 0.9809
0.4311 4.2284 -1.8524 0.9816
-0.3263 4.2312 -1.8495 0.9817
-1.8942 4.0864 -1.9630 0.9805
-2.9637 3.5053 -2.0005 0.9802
-3.5386 2.9228 -2.0002 0.9802
-3.7848 2.5954 -2.0001 0.9802
-1.5444 0.3845 -0.6936 0.9931
-1.5107 0.2356 -0.6663 0.9934
-1.5295 0.1003 -0.6680 0.9933
-4.2591 -1.7056 -1.9995 0.9802
-4.0902 -2.0786 -1.9996 0.9802
-3.6563 -2.7722 -1.9997 0.9802
-3.1061 -3.3778 -1.9999 0.9802
-2.7927 -3.6415 -2.0000 0.9802
-2.4571 -3.8762 -2.0001 0.9802
-2.1019 -4.0801 -2.0003 0.9802
-1.7299 -4.2516 -2.0004 0.9802
-0.1346 -4.5896 -2.0011 0.9802
0.2751 -4.5838 -2.0013 0.9802
0.6827 -4.5414 -2.0015 0.9802
1.0850 -4.4629 -2.0017 0.9802
1.4787 -4.3488 -2.0018 0.9802
1.8607 -4.2000 -2.0020 0.9802
3.2125 -3.2857 -2.0027 0.9801
3.4929 -2.9864 -2.0028 0.9801
4.1595 -1.9560 -2.0032 0.9801
4.3175 -1.5774 -2.0033 0.9801
4.4412 -1.1863 -2.0034 0.9801
4.5815 -0.3787 -2.0035 0.9801
4.5186 0.8472 -2.0036 0.9801
4.4250 1.2467 -2.0036 0.9801
4.1331 2.0127 -2.0035 0.9801
3.9371 2.3731 -2.0035 0.9801
3.7097 2.7146 -2.0034 0.9801
3.4528 3.0344 -2.0033 0.9801
3.1683 3.3300 -2.0032 0.9801
2.5263 3.8393 -2.0030 0.9801
1.7979 4.2120 -1.9959 0.9802
0.9703 4.2415 -1.8963 0.9812
0.1966 4.2398 -1.8498 0.9817
-0.5594 4.2065 -1.8494 0.9817
-0.9357 4.1555 -1.8564 0.9816
-2.5053 3.8358 -1.9967 0.9802
-3.1526 3.3361 -2.0004 0.9802
-3.4372 3.0415 -2.0003 0.9802
-3.6944 2.7228 -2.0001 0.9802
-3.9222 2.3824 -2.0000 0.9802
-4.1187 2.0231 -1.9999 0.9802
-4.2825 1.6478 -1.9998 0.9802
-1.5263 0.1524 -0.6685 0.9933
-1.5049 -0.2558 -0.6653 0.9934
-1.5536 -0.4093 -0.7002 0.9930
-1.5959 -0.5769 -0.7396 0.9926
-4.1585 -1.9383 -1.9995 0.9802
-3.9692 -2.3014 -1.9996 0.9802
-3.7484 -2.6462 -1.9997 0.9802
-3.2191 -3.2701 -1.9998 0.9802
-2.5875 -3.7903 -2.0001 0.9802
-2.2394 -4.0062 -2.0002 0.9802
-1.4925 -4.3408 -2.0005 0.9802
-0.6980 -4.5377 -2.0009 0.9802
0.9325 -4.4970 -2.0016 0.9802
2.0899 -4.0911 -2.0021 0.9802
2.4465 -3.8888 -2.0023 0.9802
3.3892 -3.1034 -2.0028 0.9801
4.2613 -1.7234 -2.0033 0.9801
4.3982 -1.3367 -2.0034 0.9801
4.5000 -0.9393 -2.0034 0.9801
4.5884 0.2851 -2.0036 0.9801
4.5448 0.6930 -2.0036 0.9801
4.4649 1.0955 -2.0036 0.9801
4.0156 2.2378 -2.0035 0.9801
3.8000 2.5869 -2.0034 0.9801
2.9795 3.4997 -2.0031 0.9801
2.6555 3.7512 -2.0030 0.9801
1.9413 4.1509 -1.9971 0.9802
1.1244 4.2454 -1.9140 0.9810
0.7253 4.2344 -1.8723 0.9814
0.3408 4.2308 -1.8498 0.9817
-0.0378 4.2439 -1.8497 0.9817
-0.4160 4.2233 -1.8495 0.9817
-1.1757 4.1395 -1.8754 0.9814
-1.5758 4.1114 -1.9189 0.9810
-1.9964 4.0778 -1.9787 0.9804
-2.3719 3.9165 -1.9955 0.9802
-2.7161 3.6955 -1.9988 0.9802
-3.3318 3.1568 -2.0003 0.9802
-3.8390 2.5145 -2.0000 0.9802
-4.0476 2.1621 -1.9999 0.9802
-4.2240 1.7925 -1.9998 0.9802
-1.5837 0.5109 -0.7252 0.9928
-1.5284 0.3463 -0.6830 0.9932
-1.5291 0.0677 -0.6671 0.9933
-1.5179 -0.2051 -0.6676 0.9933
-1.5840 -0.5124 -0.7256 0.9928
-4.0452 -2.1650 -1.9996 0.9802
-3.5966 -2.8492 -1.9997 0.9802
-3.3284 -3.1586 -1.9998 0.9802
-2.7149 -3.7000 -2.0000 0.9802
-2.3743 -3.9275 -2.0002 0.9802
-2.0149 -4.1239 -2.0003 0.9802
-1.2506 -4.4169 -2.0006 0.9802
-0.8519 -4.5112 -2.0008 0.9802
-0.4464 -4.5695 -2.0010 0.9802
0.7790 -4.5260 -2.0015 0.9802
1.1795 -4.4389 -2.0017 0.9802
1.5707 -4.3165 -2.0019 0.9802
1.9495 -4.1596 -2.0021 0.9802
2.6577 -3.7479 -2.0024 0.9802
3.5556 -2.9117 -2.0029 0.9801
4.3501 -1.4855 -2.0033 0.9801
4.4654 -1.0918 -2.0034 0.9801
4.5451 -0.6894 -2.0035 0.9801
4.5955 0.1288 -2.0036 0.9801
4.4996 0.9429 -2.0036 0.9801
4.2605 1.7270 -2.0035 0.9801
4.0895 2.1000 -2.0035 0.9801
3.6512 2.7927 -2.0034 0.9801
3.3876 3.1069 -2.0033 0.9801
3.0969 3.3964 -2.0032 0.9801
2.7816 3.6588 -2.0030 0.9801
2.4432 3.8903 -2.0021 0.9802
2.0827 4.0850 -1.9984 0.9802
1.7075 4.2477 -1.9952 0.9802
1.2816 4.2490 -1.9342 0.9808
0.1066 4.2429 -1.8497 0.9817
-1.4212 4.1226 -1.9004 0.9812
-3.2226 3.2684 -2.0004 0.9802
-3.7513 2.6437 -2.0001 0.9802
-3.9718 2.2986 -2.0000 0.9802
-1.5957 0.5754 -0.7393 0.9926
-1.5531 0.4079 -0.6998 0.9930
-1.5053 0.2546 -0.6653 0.9934
-1.5289 0.1199 -0.6684 0.9933
-1.5261 -0.1536 -0.6685 0.9933
-1.5668 -0.4486 -0.7103 0.9929
-4.2806 -1.6510 -1.9995 0.9802
-4.1165 -2.0261 -1.9996 0.9802
-3.9195 -2.3851 -1.9996 0.9802
-3.6914 -2.7251 -1.9997 0.9802
-3.4339 -3.0435 -1.9998 0.9802
-3.1491 -3.3377 -1.9999 0.9802
-2.1539 -4.0528 -2.0003 0.9802
-1.4001 -4.3716 -2.0006 0.9802
-1.0049 -4.4794 -2.0007 0.9802
-0.1934 -4.5875 -2.0011 0.9802
0.2164 -4.5869 -2.0013 0.9802
1.0278 -4.4763 -2.0016 0.9802
1.8068 -4.2234 -2.0020 0.9802
3.9383 -2.3695 -2.0031 0.9801
4.5972 -0.0276 -2.0036 0.9801
4.5291 0.7893 -2.0036 0.9801
4.4406 1.1900 -2.0036 0.9801
3.7442 2.6669 -2.0034 0.9801
3.2107 3.2892 -2.0032 0.9801
2.2220 4.0146 -1.9997 0.9802
1.0280 4.2430 -1.9027 0.9811
0.6327 4.2315 -1.8646 0.9815
-0.1278 4.2421 -1.8496 0.9817
-0.5055 4.2134 -1.8494 0.9817
-0.8811 4.1610 -1.8537 0.9816
-1.2693 4.1332 -1.8843 0.9813
-1.6737 4.1041 -1.9316 0.9808
-3.3980 3.0853 -2.0003 0.9802
-3.6593 2.7699 -2.0001 0.9802
-3.8914 2.4325 -2.0000 0.9802
-4.0925 2.0757 -1.9999 0.9802
-4.2611 1.7025 -1.9998 0.9802
-1.5735 0.4710 -0.7158 0.9929
-1.5238 0.1718 -0.6683 0.9933
-1.5295 -0.1015 -0.6681 0.9933
-1.5449 -0.3859 -0.6940 0.9931
-1.5921 -0.5526 -0.7345 0.9927
-4.1830 -1.8848 -1.9995 0.9802
-3.9984 -2.2503 -1.9996 0.9802
-3.5354 -2.9249 -1.9997 0.9802
-2.9601 -3.5066 -1.9999 0.9802
-2.6358 -3.7568 -2.0001 0.9802
-1.9270 -4.1658 -2.0003 0.9802
-1.5480 -4.3213 -2.0005 0.9802
-1.1566 -4.4425 -2.0007 0.9802
-0.7560 -4.5283 -2.0008 0.9802
0.0602 -4.5914 -2.0012 0.9802
2.0373 -4.1174 -2.0021 0.9802
3.0551 -3.4324 -2.0026 0.9801
3.3492 -3.1466 -2.0028 0.9801
3.6166 -2.8356 -2.0029 0.9801
3.8553 -2.5021 -2.0030 0.9801
4.0633 -2.1485 -2.0032 0.9801
4.2388 -1.7778 -2.0033 0.9801
4.3807 -1.3929 -2.0034 0.9801
4.4876 -0.9968 -2.0034 0.9801
4.5587 -0.5927 -2.0035 0.9801
4.5935 -0.1840 -2.0035 0.9801
4.5533 0.6348 -2.0036 0.9801
4.4786 1.0382 -2.0036 0.9801
3.3209 3.1781 -2.0032 0.9801
3.0241 3.4613 -2.0031 0.9801
4.1952 -1.0632 -2.0033 0.9811
4.3273 0.0849 -2.0034 0.9811
4.3026 0.4703 -2.0035 0.9811
4.2435 0.8521 -2.0035 0.9811
4.1506 1.2270 -2.0035 0.9811
3.8666 1.9446 -2.0034 0.9811
3.6777 2.2815 -2.0033 0.9811
3.4596 2.6002 -2.0033 0.9811
3.2138 2.8982 -2.0032 0.9811
2.6478 3.4225 -2.0030 0.9811
2.3319 3.6447 -2.0028 0.9811
1.9973 3.8373 -2.0024 0.9811
1.2804 4.1194 -1.9968 0.9812
-0.2330 4.1757 -1.9359 0.9817
-0.6068 4.1554 -1.9439 0.9817
-0.9862 4.1322 -1.9664 0.9814
-1.7299 3.9495 -1.9958 0.9812
-3.0083 3.1028 -2.0005 0.9811
-3.5110 2.5189 -2.0002 0.9811
-3.7214 2.1957 -2.0001 0.9811
-1.3174 0.3579 -0.6319 0.9940
-1.3169 0.2341 -0.6191 0.9941
-1.3337 -0.0035 -0.6174 0.9941
-1.3373 -0.1232 -0.6216 0.9941
-1.3150 -0.2408 -0.6188 0.9941
-1.3192 -0.3657 -0.6337 0.9940
-3.8919 -1.8750 -1.9997 0.9811
-3.7093 -2.2146 -1.9997 0.9811
-3.4972 -2.5365 -1.9998 0.9811
-2.9914 -3.1176 -2.0000 0.9811
-2.7017 -3.3721 -2.0001 0.9811
-2.3904 -3.5997 -2.0002 0.9811
-1.7133 -3.9676 -2.0005 0.9811
-0.6024 -4.2805 -2.0009 0.9811
-0.2184 -4.3176 -2.0011 0.9811
0.1674 -4.3202 -2.0013 0.9811
1.6675 -3.9905 -2.0019 0.9811
2.0168 -3.8263 -2.0021 0.9811
2.3501 -3.6315 -2.0023 0.9811
2.9582 -3.1569 -2.0026 0.9811
3.6889 -2.2620 -2.0030 0.9811
3.8761 -1.9242 -2.0031 0.9811
4.0324 -1.5710 -2.0032 0.9811
4.2476 -0.8300 -2.0033 0.9811
4.3277 -0.0624 -2.0034 0.9811
4.2701 0.7072 -2.0035 0.9811
4.1900 1.0851 -2.0035 0.9811
3.9306 1.8119 -2.0034 0.9811
3.7533 2.1551 -2.0034 0.9811
3.0488 3.0711 -2.0031 0.9811
2.7627 3.3305 -2.0030 0.9811
2.4546 3.5634 -2.0029 0.9811
1.7806 3.9379 -2.0005 0.9811
1.4205 4.0753 -1.9977 0.9812
1.0503 4.1811 -1.9955 0.9812
0.2842 4.1994 -1.9483 0.9816
-1.5939 4.0046 -1.9951 0.9812
-1.9467 3.8506 -1.9972 0.9812
-2.2852 3.6665 -1.9998 0.9811
-2.6041 3.4496 -2.0007 0.9811
-2.9010 3.2035 -2.0005 0.9811
-3.1749 2.9318 -2.0004 0.9811
-3.8368 1.9868 -2.0000 0.9811
-1.3273 0.5433 -0.6639 0.9937
-1.3325 0.1616 -0.6213 0.9941
-1.3060 -0.3146 -0.6218 0.9941
-1.3199 -0.5814 -0.6676 0.9937
-3.7825 -2.0871 -1.9997 0.9811
-3.5814 -2.4161 -1.9998 0.9811
-2.5114 -3.5162 -2.0001 0.9811
-1.4917 -4.0563 -2.0005 0.9811
-1.1242 -4.1735 -2.0007 0.9811
-0.7477 -4.2574 -2.0009 0.9811
-0.3652 -4.3075 -2.0010 0.9811
0.0203 -4.3233 -2.0012 0.9811
0.4057 -4.3046 -2.0014 0.9811
1.8854 -3.8926 -2.0021 0.9811
2.8490 -3.2556 -2.0025 0.9811
3.1281 -2.9889 -2.0027 0.9811
4.1131 -1.3460 -2.0032 0.9811
4.3246 0.1767 -2.0035 0.9811
4.2916 0.5615 -2.0035 0.9811
4.2245 0.9419 -2.0035 0.9811
4.1237 1.3148 -2.0035 0.9811
3.8245 2.0262 -2.0034 0.9811
3.6285 2.3590 -2.0033 0.9811
3.4036 2.6730 -2.0032 0.9811
3.1516 2.9657 -2.0032 0.9811
2.8745 3.2347 -2.0031 0.9811
2.5745 3.4779 -2.0029 0.9811
2.2540 3.6933 -2.0028 0.9811
1.1924 4.1446 -1.9963 0.9812
0.4287 4.2049 -1.9565 0.9815
0.0516 4.1894 -1.9393 0.9817
-0.3216 4.1711 -1.9365 0.9817
-0.6963 4.1502 -1.9479 0.9816
-1.0778 4.1262 -1.9740 0.9814
-1.4563 4.0551 -1.9944 0.9812
-1.8137 3.9129 -1.9963 0.9812
-2.1580 3.7402 -1.9988 0.9811
-2.4853 3.5363 -2.0007 0.9811
-3.0734 3.0382 -2.0004 0.9811
-3.7671 2.1162 -2.0000 0.9811
-1.3172 0.5923 -0.6685 0.9937
-1.3336 0.4617 -0.6533 0.9938
-1.3065 -0.2681 -0.6174 0.9941
-1.3289 -0.5322 -0.6626 0.9937
-3.8512 -1.9572 -1.9997 0.9811
-3.6615 -2.2928 -1.9997 0.9811
-3.4426 -2.6102 -1.9998 0.9811
-2.9246 -3.1804 -2.0000 0.9811
-2.3135 -3.6497 -2.0002 0.9811
-1.9791 -3.8417 -2.0003 0.9811
-1.6288 -4.0031 -2.0005 0.9811
-0.8921 -4.2294 -2.0008 0.9811
-0.5115 -4.2924 -2.0010 0.9811
0.6428 -4.2758 -2.0015 0.9811
2.0976 -3.7827 -2.0022 0.9811
3.7361 -2.1832 -2.0030 0.9811
3.9161 -1.8415 -2.0031 0.9811
4.1812 -1.1169 -2.0033 0.9811
4.2643 -0.7397 -2.0034 0.9811
4.3083 0.4152 -2.0035 0.9811
4.2541 0.7977 -2.0035 0.9811
4.0447 1.5405 -2.0034 0.9811
3.7067 2.2342 -2.0033 0.9811
3.2507 2.8568 -2.0032 0.9811
2.9829 3.1351 -2.0031 0.9811
2.0466 3.8120 -2.0027 0.9811
1.6961 3.9734 -1.9998 0.9811
0.5744 4.2098 -1.9667 0.9814
-1.3171 4.1011 -1.9938 0.9812
-1.6789 3.9708 -1.9955 0.9812
-2.3633 3.6185 -2.0005 0.9811
-2.9683 3.1411 -2.0005 0.9811
-3.2363 2.8638 -2.0003 0.9811
-3.4785 2.5637 -2.0002 0.9811
-3.6930 2.2432 -2.0001 0.9811
-1.3311 0.5122 -0.6602 0.9937
-1.3217 0.3773 -0.6363 0.9940
-1.3362 0.1334 -0.6216 0.9941
-1.3349 0.0136 -0.6179 0.9941
-1.3196 -0.2242 -0.6196 0.9941
-1.3146 -0.3464 -0.6293 0.9940
-1.3332 -0.4819 -0.6562 0.9938
-3.5294 -2.4916 -1.9998 0.9811
-2.4363 -3.5688 -2.0002 0.9811
-2.1085 -3.7720 -2.0003 0.9811
-1.7640 -3.9453 -2.0004 0.9811
-1.4053 -4.0871 -2.0006 0.9811
-1.0354 -4.1965 -2.0007 0.9811
-0.6572 -4.2724 -2.0009 0.9811
-0.2737 -4.3143 -2.0011 0.9811
0.8780 -4.2341 -2.0016 0.9811
1.9677 -3.8518 -2.0021 0.9811
2.3034 -3.6613 -2.0023 0.9811
3.1909 -2.9219 -2.0027 0.9811
3.4389 -2.6259 -2.0028 0.9811
3.6596 -2.3090 -2.0030 0.9811
3.8511 -1.9736 -2.0031 0.9811
4.0119 -1.6225 -2.0032 0.9811
4.1408 -1.2584 -2.0033 0.9811
4.2366 -0.8843 -2.0033 0.9811
4.2987 -0.5031 -2.0034 0.9811
4.3265 -0.1178 -2.0034 0.9811
4.0948 1.4020 -2.0034 0.9811
3.9535 1.7614 -2.0034 0.9811
3.5776 2.4354 -2.0033 0.9811
2.1751 3.7403 -2.0028 0.9811
1.4728 4.0576 -1.9981 0.9812
1.1039 4.1679 -1.9958 0.9812
-0.0373 4.1853 -1.9374 0.9817
-1.5423 4.0241 -1.9948 0.9812
-2.2376 3.6947 -1.9994 0.9811
-2.5597 3.4827 -2.0007 0.9811
-1.3307 0.4293 -0.6472 0.9939
-1.3296 0.1786 -0.6210 0.9941
-1.3381 0.0592 -0.6200 0.9941
-1.3381 -0.0603 -0.6200 0.9941
-1.3001 -0.2956 -0.6172 0.9941
-1.3238 -0.5630 -0.6659 0.9937
-3.8089 -2.0385 -1.9997 0.9811
-3.6121 -2.3700 -1.9997 0.9811
-3.1340 -2.9741 -1.9999 0.9811
-2.5562 -3.4838 -2.0001 0.9811
-1.5435 -4.0368 -2.0005 0.9811
-1.1775 -4.1587 -2.0007 0.9811
0.3506 -4.3094 -2.0013 0.9811
1.1105 -4.1793 -2.0017 0.9811
1.8354 -3.9163 -2.0020 0.9811
2.8071 -3.2918 -2.0025 0.9811
3.0896 -3.0286 -2.0027 0.9811
3.7816 -2.1035 -2.0030 0.9811
4.2040 -1.0279 -2.0033 0.9811
4.3265 0.1213 -2.0034 0.9811
4.2985 0.5065 -2.0035 0.9811
4.2362 0.8877 -2.0035 0.9811
4.0111 1.6260 -2.0034 0.9811
3.8501 1.9770 -2.0034 0.9811
3.6584 2.3124 -2.0033 0.9811
3.1893 2.9251 -2.0032 0.9811
2.9157 3.1976 -2.0031 0.9811
2.3012 3.6642 -2.0028 0.9811
1.6108 4.0071 -1.9991 0.9811
0.8713 4.2187 -1.9940 0.9812
0.4834 4.2068 -1.9601 0.9815
-0.6423 4.1534 -1.9454 0.9816
-1.0225 4.1298 -1.9693 0.9814
-1.7632 3.9352 -1.9960 0.9812
-2.1095 3.7668 -1.9984 0.9812
-3.5321 2.4892 -2.0002 0.9811
-3.7397 2.1643 -2.0001 0.9811
-1.3123 0.6104 -0.6699 0.9936
-1.3143 0.3452 -0.6290 0.9940
-1.3382 0.1049 -0.6213 0.9941
-1.3350 -0.0147 -0.6180 0.9941
-1.3118 -0.2517 -0.6183 0.9941
-1.3220 -0.3785 -0.6365 0.9940
-3.8760 -1.9077 -1.9997 0.9811
-3.4758 -2.5659 -1.9998 0.9811
-2.9651 -3.1427 -2.0000 0.9811
-2.6732 -3.3947 -2.0001 0.9811
-2.0281 -3.8160 -2.0003 0.9811
-1.3183 -4.1161 -2.0006 0.9811
-0.9461 -4.2176 -2.0008 0.9811
0.2037 -4.3187 -2.0013 0.9811
0.5880 -4.2837 -2.0014 0.9811
0.9677 -4.2146 -2.0016 0.9811
1.3397 -4.1119 -2.0018 0.9811
2.0490 -3.8092 -2.0021 0.9811
2.3806 -3.6117 -2.0023 0.9811
2.6934 -3.3853 -2.0024 0.9811
2.9847 -3.1319 -2.0026 0.9811
3.2523 -2.8535 -2.0027 0.9811
3.7078 -2.2309 -2.0030 0.9811
4.0455 -1.5370 -2.0032 0.9811
4.3281 -0.0260 -2.0034 0.9811
4.3132 0.3600 -2.0035 0.9811
4.1807 1.1203 -2.0035 0.9811
3.7350 2.1866 -2.0034 0.9811
3.5251 2.5108 -2.0033 0.9811
3.0228 3.0967 -2.0031 0.9811
2.4245 3.5839 -2.0029 0.9811
2.0952 3.7855 -2.0028 0.9811
1.3860 4.0867 -1.9975 0.9812
0.2486 4.1979 -1.9466 0.9816
-1.6277 3.9914 -1.9953 0.9812
-3.1994 2.9050 -2.0004 0.9811
-1.3255 0.3968 -0.6405 0.9939
-1.3069 0.2671 -0.6174 0.9941
-1.3342 0.1504 -0.6215 0.9941
-1.3385 -0.0888 -0.6209 0.9941
-1.3236 -0.2075 -0.6202 0.9941
-2.1567 -3.7447 -2.0003 0.9811
-1.4575 -4.0687 -2.0006 0.9811
0.8237 -4.2449 -2.0016 0.9811
1.9182 -3.8766 -2.0021 0.9811
2.8763 -3.2315 -2.0025 0.9811
3.1532 -2.9625 -2.0027 0.9811
3.4050 -2.6697 -2.0028 0.9811
3.8255 -2.0228 -2.0031 0.9811
3.9908 -1.6737 -2.0032 0.9811
4.1243 -1.3113 -2.0032 0.9811
4.2919 -0.5581 -2.0034 0.9811
4.3229 0.2131 -2.0035 0.9811
4.2164 0.9774 -2.0035 0.9811
4.1125 1.3495 -2.0035 0.9811
3.9757 1.7107 -2.0034 0.9811
3.8073 2.0583 -2.0034 0.9811
3.1265 2.9921 -2.0031 0.9811
4.0741 -0.2843 -2.0033 0.9820
4.0599 0.4438 -2.0034 0.9820
3.9166 1.1578 -2.0034 0.9820
3.7977 1.5023 -2.0033 0.9820
3.2645 2.4536 -2.0032 0.9820
2.4985 3.2296 -2.0029 0.9820
2.2005 3.4392 -2.0028 0.9820
1.5545 3.7749 -2.0025 0.9820
1.2105 3.8945 -2.0005 0.9820
0.1365 4.0674 -1.9963 0.9820
-0.5880 4.0264 -1.9960 0.9820
-1.6355 3.7340 -1.9996 0.9820
-1.9632 3.5757 -2.0009 0.9820
-2.5667 3.1697 -2.0007 0.9820
-3.0884 2.6631 -2.0004 0.9820
-1.1356 0.5399 -0.6168 0.9944
-1.1942 0.1038 -0.5880 0.9947
-1.1937 -0.1100 -0.5880 0.9947
-1.1785 -0.2158 -0.5877 0.9947
-1.1540 -0.4339 -0.6048 0.9945
-3.5005 -2.0899 -1.9998 0.9820
-3.3003 -2.3937 -1.9999 0.9820
-2.8230 -2.9421 -2.0000 0.9820
-2.5495 -3.1822 -2.0002 0.9820
-2.2558 -3.3970 -2.0003 0.9820
-0.9263 -3.9723 -2.0008 0.9820
-0.2061 -4.0743 -2.0011 0.9820
0.1580 -4.0768 -2.0013 0.9820
1.2315 -3.8906 -2.0018 0.9820
1.9032 -3.6106 -2.0021 0.9820
2.2177 -3.4268 -2.0022 0.9820
3.0461 -2.7184 -2.0027 0.9820
3.2765 -2.4361 -2.0028 0.9820
3.4809 -2.1344 -2.0029 0.9820
3.8050 -1.4824 -2.0031 0.9820
3.9222 -1.1373 -2.0032 0.9820
4.0621 -0.4227 -2.0033 0.9820
4.0727 0.3054 -2.0034 0.9820
3.7089 1.7097 -2.0033 0.9820
3.5416 2.0335 -2.0033 0.9820
3.3461 2.3411 -2.0032 0.9820
3.1240 2.6300 -2.0031 0.9820
2.8769 2.8980 -2.0030 0.9820
2.3162 3.3625 -2.0028 0.9820
2.0071 3.5554 -2.0027 0.9820
1.3429 3.8528 -2.0014 0.9820
0.9930 3.9529 -1.9993 0.9820
0.6361 4.0225 -1.9976 0.9820
0.2748 4.0610 -1.9965 0.9820
-0.0883 4.0681 -1.9960 0.9820
-0.8096 3.9885 -1.9964 0.9820
-1.1625 3.9024 -1.9974 0.9820
-1.5070 3.7861 -1.9989 0.9820
-1.8404 3.6403 -2.0009 0.9820
-2.9961 2.7667 -2.0004 0.9820
-3.2306 2.4884 -2.0003 0.9820
-1.1237 0.5819 -0.6207 0.9944
-1.1492 0.4704 -0.6091 0.9945
-1.1707 0.2495 -0.5872 0.9947
-1.1902 0.1444 -0.5881 0.9947
-1.1960 -0.0692 -0.5877 0.9947
-1.1858 -0.1757 -0.5880 0.9947
-1.1575 -0.3909 -0.5993 0.9946
-1.1435 -0.5037 -0.6129 0.9944
-1.1087 -0.6117 -0.6211 0.9944
-2.9214 -2.8443 -2.0000 0.9820
-2.3700 -3.3183 -2.0002 0.9820
-1.7432 -3.6869 -2.0005 0.9820
-1.0609 -3.9384 -2.0007 0.9820
-0.7056 -4.0176 -2.0009 0.9820
-0.3446 -4.0648 -2.0011 0.9820
0.0192 -4.0797 -2.0012 0.9820
1.0984 -3.9301 -2.0017 0.9820
1.7792 -3.6732 -2.0020 0.9820
3.4062 -2.2516 -2.0029 0.9820
3.7523 -1.6110 -2.0031 0.9820
3.9791 -0.9191 -2.0032 0.9820
4.0792 -0.1978 -2.0033 0.9820
4.0496 0.5299 -2.0034 0.9820
3.9862 0.8888 -2.0034 0.9820
3.8911 1.2406 -2.0033 0.9820
3.7650 1.5826 -2.0033 0.9820
3.6088 1.9119 -2.0033 0.9820
2.9739 2.7985 -2.0031 0.9820
2.7124 3.0523 -2.0030 0.9820
2.4293 3.2818 -2.0029 0.9820
1.8077 3.6606 -2.0026 0.9820
1.1273 3.9183 -2.0000 0.9820
0.0501 4.0691 -1.9961 0.9820
-0.3128 4.0568 -1.9959 0.9820
-0.6733 4.0133 -1.9961 0.9820
-1.0289 3.9388 -1.9969 0.9820
-1.3769 3.8339 -1.9982 0.9820
-1.7148 3.6993 -2.0001 0.9820
-3.3630 2.3062 -2.0002 0.9820
-1.1596 0.2887 -0.5862 0.9947
-1.1844 0.1847 -0.5880 0.9947
-1.1506 -0.4608 -0.6080 0.9945
-3.4554 -2.1637 -1.9998 0.9820
-3.2488 -2.4633 -1.9999 0.9820
-3.0164 -2.7432 -2.0000 0.9820
-1.1942 -3.8999 -2.0007 0.9820
-0.1196 -4.0779 -2.0012 0.9820
0.2444 -4.0726 -2.0013 0.9820
0.6066 -4.0349 -2.0015 0.9820
1.3138 -3.8637 -2.0018 0.9820
1.9794 -3.5695 -2.0021 0.9820
2.5823 -3.1617 -2.0024 0.9820
2.8541 -2.9191 -2.0026 0.9820
3.1031 -2.6532 -2.0027 0.9820
3.6953 -1.7377 -2.0030 0.9820
3.8356 -1.4014 -2.0031 0.9820
3.9454 -1.0539 -2.0032 0.9820
4.0653 0.3918 -2.0034 0.9820
4.0142 0.7527 -2.0034 0.9820
3.4976 2.1082 -2.0032 0.9820
2.8147 2.9583 -2.0030 0.9820
1.9312 3.5971 -2.0027 0.9820
1.6027 3.7547 -2.0025 0.9820
1.2605 3.8793 -2.0008 0.9820
0.9087 3.9723 -1.9988 0.9820
0.5505 4.0345 -1.9973 0.9820
0.1885 4.0655 -1.9964 0.9820
-1.2453 3.8775 -1.9977 0.9820
-3.2826 2.4193 -2.0003 0.9820
-1.1766 0.2248 -0.5876 0.9947
-1.1815 -0.2008 -0.5879 0.9947
-3.5269 -2.0449 -1.9998 0.9820
-3.3307 -2.3513 -1.9999 0.9820
-1.9898 -3.5596 -2.0004 0.9820
-1.3262 -3.8569 -2.0006 0.9820
-0.9771 -3.9601 -2.0008 0.9820
-0.2583 -4.0713 -2.0011 0.9820
0.8285 -3.9955 -2.0016 0.9820
1.1815 -3.9060 -2.0017 0.9820
1.5252 -3.7854 -2.0019 0.9820
2.1736 -3.4549 -2.0022 0.9820
2.4731 -3.2476 -2.0024 0.9820
3.0110 -2.7571 -2.0026 0.9820
3.2450 -2.4779 -2.0028 0.9820
3.6339 -1.8624 -2.0030 0.9820
3.7857 -1.5310 -2.0031 0.9820
4.0825 -0.1112 -2.0033 0.9820
4.0763 0.2533 -2.0033 0.9820
3.3758 2.2981 -2.0032 0.9820
3.1574 2.5898 -2.0031 0.9820
2.6470 3.1091 -2.0029 0.9820
2.0525 3.5294 -2.0027 0.9820
0.6876 4.0144 -1.9978 0.9820
0.3268 4.0574 -1.9967 0.9820
-0.0362 4.0690 -1.9960 0.9820
-0.3988 4.0493 -1.9959 0.9820
-1.1124 3.9166 -1.9972 0.9820
-3.1985 2.5296 -2.0003 0.9820
-1.1166 0.5964 -0.6209 0.9944
-1.1466 0.4866 -0.6110 0.9945
-1.1964 0.0530 -0.5874 0.9947
-1.1964 -0.0539 -0.5874 0.9947
-1.1666 -0.2653 -0.5868 0.9947
-1.1583 -0.3747 -0.5972 0.9946
-3.1958 -2.5317 -1.9999 0.9820
-2.9575 -2.8066 -2.0000 0.9820
-2.6956 -3.0593 -2.0001 0.9820
-1.7903 -3.6642 -2.0004 0.9820
-1.1112 -3.9245 -2.0007 0.9820
-0.3966 -4.0600 -2.0010 0.9820
-0.0331 -4.0796 -2.0012 0.9820
1.3955 -3.8350 -2.0018 0.9820
2.0547 -3.5268 -2.0022 0.9820
2.3612 -3.3298 -2.0023 0.9820
3.1588 -2.5868 -2.0027 0.9820
3.8645 -1.3197 -2.0031 0.9820
4.0378 -0.6124 -2.0033 0.9820
4.0561 0.4780 -2.0034 0.9820
3.9067 1.1907 -2.0033 0.9820
3.7849 1.5343 -2.0033 0.9820
3.4521 2.1820 -2.0032 0.9820
3.2437 2.4810 -2.0032 0.9820
2.1714 3.4576 -2.0028 0.9820
1.8544 3.6372 -2.0026 0.9820
1.5226 3.7878 -2.0025 0.9820
0.8241 3.9899 -1.9984 0.9820
-0.6219 4.0214 -1.9961 0.9820
-1.9932 3.5591 -2.0009 0.9820
-2.3024 3.3669 -2.0008 0.9820
-2.5932 3.1480 -2.0006 0.9820
-3.1107 2.6371 -2.0004 0.9820
-3.3332 2.3491 -2.0002 0.9820
-1.1557 0.4167 -0.6026 0.9945
-1.1949 0.0937 -0.5879 0.9947
-1.1589 -0.3318 -0.5913 0.9946
-1.1528 -0.4446 -0.6061 0.9945
-1.1314 -0.5569 -0.6186 0.9944
-3.2801 -2.4214 -1.9999 0.9820
-2.7981 -2.9657 -2.0001 0.9820
-2.5227 -3.2036 -2.0002 0.9820
-1.9139 -3.6011 -2.0004 0.9820
-1.5853 -3.7576 -2.0005 0.9820
-1.2440 -3.8843 -2.0007 0.9820
-0.8928 -3.9800 -2.0008 0.9820
-0.5345 -4.0441 -2.0010 0.9820
-0.1718 -4.0760 -2.0011 0.9820
0.1923 -4.0754 -2.0013 0.9820
1.2642 -3.8802 -2.0018 0.9820
1.9335 -3.5945 -2.0021 0.9820
2.5416 -3.1945 -2.0024 0.9820
2.8164 -2.9553 -2.0025 0.9820
3.0689 -2.6927 -2.0027 0.9820
3.2969 -2.4085 -2.0028 0.9820
3.6727 -1.7848 -2.0030 0.9820
3.9316 -1.1043 -2.0032 0.9820
4.0145 -0.7494 -2.0032 0.9820
4.0700 0.3397 -2.0034 0.9820
3.5244 2.0633 -2.0032 0.9820
3.3263 2.3692 -2.0032 0.9820
2.8524 2.9221 -2.0030 0.9820
2.2879 3.3818 -2.0028 0.9820
1.6507 3.7339 -2.0026 0.9820
0.9596 3.9608 -1.9991 0.9820
0.6022 4.0274 -1.9975 0.9820
0.2406 4.0630 -1.9965 0.9820
-0.1226 4.0671 -1.9959 0.9820
-0.4847 4.0400 -1.9959 0.9820
-0.8432 3.9817 -1.9964 0.9820
-1.5389 3.7736 -1.9990 0.9820
-1.8710 3.6249 -2.0010 0.9820
-2.1866 3.4434 -2.0008 0.9820
-2.7630 2.9999 -2.0006 0.9820
-3.2514 2.4612 -2.0003 0.9820
-3.4577 2.1614 -2.0002 0.9820
-1.1273 0.5718 -0.6200 0.9944
-1.1914 0.1344 -0.5881 0.9947
-1.1593 -0.2896 -0.5862 0.9947
-3.3605 -2.3084 -1.9999 0.9820
-3.1414 -2.5989 -1.9999 0.9820
-2.8973 -2.8688 -2.0000 0.9820
-1.3754 -3.8396 -2.0006 0.9820
-1.0277 -3.9472 -2.0008 0.9820
-0.6717 -4.0234 -2.0009 0.9820
0.7773 -4.0057 -2.0016 0.9820
2.7142 -3.0494 -2.0025 0.9820
3.7657 -1.5794 -2.0031 0.9820
3.9867 -0.8855 -2.0032 0.9820
4.0808 -0.1634 -2.0033 0.9820
4.0450 0.5639 -2.0034 0.9820
3.8805 1.2733 -2.0033 0.9820
3.7515 1.6142 -2.0033 0.9820
3.5926 1.9422 -2.0033 0.9820
3.4050 2.2547 -2.0032 0.9820
2.9502 2.8234 -2.0031 0.9820
2.6866 3.0750 -2.0030 0.9820
3.8607 0.0757 -2.0032 0.9827
3.7859 0.7602 -2.0033 0.9827
3.7031 1.0947 -2.0033 0.9827
3.4497 1.7349 -2.0032 0.9828
3.2812 2.0355 -2.0031 0.9828
3.0865 2.3198 -2.0031 0.9828
2.3623 3.0535 -2.0028 0.9828
2.0805 3.2518 -2.0027 0.9828
1.7822 3.4241 -2.0026 0.9828
0.4725 3.8276 -2.0007 0.9828
0.1293 3.8528 -1.9999 0.9828
