ply
format ascii 1.0
element vertex 1597
property float32 x
property float32 y
property float32 z
property float32 I
end_header
5.3847 4.6828 -1.8477 0.9709
1.6274 6.9533 -1.8490 0.9709
-3.1860 -6.3173 -2.0029 0.9710
-0.7757 -7.0295 -2.0021 0.9710
-0.1457 -7.0699 -2.0019 0.9710
0.4853 -7.0539 -2.0016 0.9710
1.7303 -6.8540 -2.0012 0.9710
5.4103 -4.5424 -1.9999 0.9711
6.4185 -2.9476 -1.9995 0.9711
6.8396 -1.7604 -1.9993 0.9711
7.0231 0.7422 -1.9993 0.9711
6.0152 3.7028 -1.9996 0.9711
5.6511 4.2170 -1.9961 0.9711
4.9543 4.4372 -1.8828 0.9727
3.5371 5.4879 -1.8483 0.9732
3.0338 5.7821 -1.8485 0.9732
1.3955 6.3809 -1.8491 0.9732
0.8210 6.4807 -1.8493 0.9732
0.2398 6.5288 -1.8495 0.9732
-1.4975 6.3615 -1.8501 0.9732
-2.0591 6.2033 -1.8503 0.9732
-3.1290 5.7400 -1.8507 0.9732
-3.6288 5.4386 -1.8509 0.9732
-4.0997 5.0938 -1.8511 0.9732
-4.5380 4.7083 -1.8512 0.9732
-6.3849 3.0576 -2.0041 0.9710
-6.9672 1.2585 -2.0043 0.9710
-7.0518 0.6322 -2.0043 0.9710
-7.0519 -0.6306 -2.0043 0.9710
-6.8275 -1.8733 -2.0042 0.9710
-6.6330 -2.4746 -2.0042 0.9710
-6.0872 -3.6133 -2.0040 0.9710
-5.7404 -4.1415 -2.0039 0.9710
-5.3478 -4.6366 -2.0037 0.9710
-4.9126 -5.0947 -2.0036 0.9710
-4.4383 -5.5120 -2.0034 0.9710
-3.9287 -5.8853 -2.0032 0.9710
-1.0017 -7.0011 -2.0022 0.9710
0.2579 -7.0661 -2.0017 0.9710
1.5088 -6.9064 -2.0013 0.9710
2.7112 -6.5271 -2.0008 0.9710
3.8268 -5.9404 -2.0004 0.9711
5.2614 -4.7143 -1.9999 0.9711
6.0144 -3.7041 -1.9996 0.9711
6.3204 -3.1528 -1.9995 0.9711
7.0613 -0.1145 -1.9993 0.9711
7.0434 0.5157 -1.9993 0.9711
6.9694 1.1418 -1.9993 0.9711
6.6561 2.3619 -1.9994 0.9711
6.4192 2.9462 -1.9995 0.9711
6.1312 3.5071 -1.9996 0.9711
5.7928 4.0391 -1.9992 0.9711
5.2914 4.4405 -1.9555 0.9717
3.2183 5.6812 -1.8484 0.9732
1.6002 6.3324 -1.8490 0.9732
0.4498 6.5174 -1.8494 0.9732
-0.1332 6.5323 -1.8496 0.9732
-0.7153 6.4951 -1.8498 0.9732
-1.2919 6.4062 -1.8500 0.9732
-1.8582 6.2661 -1.8503 0.9732
-4.3840 4.8518 -1.8512 0.9732
-4.7996 4.4419 -1.8513 0.9732
-6.5492 2.6883 -2.0041 0.9710
-6.7631 2.0936 -2.0042 0.9710
-7.0278 0.8589 -2.0043 0.9710
-7.0044 -1.0320 -2.0043 0.9710
-6.8843 -1.6525 -2.0043 0.9710
-6.7093 -2.2598 -2.0042 0.9710
-5.8709 -3.9546 -2.0039 0.9710
-5.4945 -4.4622 -2.0038 0.9710
-4.6136 -5.3664 -2.0035 0.9710
-4.1163 -5.7560 -2.0033 0.9710
-3.0277 -6.3944 -2.0029 0.9710
-0.6005 -7.0464 -2.0020 0.9710
0.0303 -7.0711 -2.0018 0.9710
0.6607 -7.0394 -2.0016 0.9710
1.2857 -6.9516 -2.0013 0.9710
1.9004 -6.8085 -2.0011 0.9710
2.4997 -6.6112 -2.0009 0.9710
3.6337 -6.0607 -2.0005 0.9711
4.1593 -5.7120 -2.0003 0.9711
6.7123 -2.1969 -1.9994 0.9711
6.8812 -1.5895 -1.9993 0.9711
7.0563 0.2887 -1.9993 0.9711
7.0025 0.9168 -1.9993 0.9711
6.8930 1.5377 -1.9993 0.9711
6.7286 2.1463 -1.9994 0.9711
6.5106 2.7380 -1.9995 0.9711
5.9213 3.8514 -1.9997 0.9711
4.3349 4.8810 -1.8480 0.9732
3.3994 5.5744 -1.8484 0.9732
2.8890 5.8560 -1.8486 0.9732
2.3555 6.0909 -1.8487 0.9732
0.6594 6.4993 -1.8494 0.9732
-0.5058 6.5145 -1.8498 0.9732
-1.0849 6.4442 -1.8500 0.9732
-2.2129 6.1503 -1.8504 0.9732
-3.7631 5.3467 -1.8509 0.9732
-4.2254 4.9903 -1.8511 0.9732
-5.0455 4.1609 -1.8514 0.9732
-5.6494 3.8676 -1.9382 0.9719
-6.6921 2.3102 -2.0042 0.9710
-6.8716 1.7043 -2.0043 0.9710
-6.9964 1.0847 -2.0043 0.9710
-7.0779 -0.1755 -2.0043 0.9710
-7.0340 -0.8060 -2.0043 0.9710
-6.7786 -2.0427 -2.0042 0.9710
-6.5692 -2.6390 -2.0041 0.9710
-6.3074 -3.2142 -2.0041 0.9710
-5.9953 -3.7637 -2.0039 0.9710
-5.6354 -4.2831 -2.0038 0.9710
-5.2306 -4.7682 -2.0037 0.9710
-4.7842 -5.2153 -2.0035 0.9710
-3.7809 -5.9812 -2.0032 0.9710
-2.6576 -6.5564 -2.0028 0.9710
-2.0621 -6.7665 -2.0025 0.9710
-1.4503 -6.9227 -2.0023 0.9710
-0.8271 -7.0237 -2.0021 0.9710
-0.1974 -7.0687 -2.0019 0.9710
0.4338 -7.0573 -2.0016 0.9710
1.0613 -6.9897 -2.0014 0.9710
1.6802 -6.8665 -2.0012 0.9710
2.2856 -6.6885 -2.0010 0.9710
2.8727 -6.4573 -2.0008 0.9710
3.9734 -5.8431 -2.0004 0.9711
4.9474 -5.0434 -2.0000 0.9711
6.9606 -1.1942 -1.9993 0.9711
7.0393 -0.5687 -1.9993 0.9711
6.9389 1.3150 -1.9993 0.9711
6.7941 1.9286 -1.9994 0.9711
6.5953 2.5269 -1.9994 0.9711
6.3439 3.1051 -1.9995 0.9711
5.0286 4.4379 -1.8987 0.9725
4.0495 5.1207 -1.8481 0.9732
3.0759 5.7597 -1.8485 0.9732
1.4421 6.3705 -1.8491 0.9732
-1.4510 6.3722 -1.8501 0.9732
-2.5605 6.0144 -1.8505 0.9732
-4.9088 4.3211 -1.8513 0.9732
-5.3216 3.9006 -1.8679 0.9729
-7.0564 -0.5791 -2.0043 0.9710
-6.6509 -2.4262 -2.0042 0.9710
-6.4077 -3.0095 -2.0041 0.9710
-6.1135 -3.5688 -2.0040 0.9710
-5.7705 -4.0995 -2.0039 0.9710
-5.3815 -4.5975 -2.0037 0.9710
-4.4785 -5.4795 -2.0034 0.9710
-2.2790 -6.6969 -2.0026 0.9710
-0.4248 -7.0589 -2.0020 0.9710
0.2064 -7.0679 -2.0017 0.9710
0.8358 -7.0206 -2.0015 0.9710
2.0692 -6.7589 -2.0011 0.9710
2.6635 -6.5467 -2.0008 0.9710
3.2364 -6.2825 -2.0006 0.9710
4.7826 -5.2002 -2.0001 0.9711
5.9872 -3.7480 -1.9996 0.9711
6.7648 -2.0291 -1.9994 0.9711
6.9186 -1.4177 -1.9993 0.9711
7.0603 -0.1660 -1.9993 0.9711
6.4405 2.8993 -1.9995 0.9711
6.1566 3.4622 -1.9996 0.9711
5.8236 3.9977 -1.9997 0.9711
5.3715 4.4413 -1.9731 0.9714
4.6397 4.5916 -1.8479 0.9732
4.2121 4.9875 -1.8481 0.9732
3.7509 5.3437 -1.8482 0.9732
3.2597 5.6575 -1.8484 0.9732
2.7424 5.9262 -1.8486 0.9732
1.6463 6.3205 -1.8490 0.9732
0.4974 6.5139 -1.8494 0.9732
-0.0855 6.5330 -1.8496 0.9732
-0.6679 6.5001 -1.8498 0.9732
-2.3654 6.0935 -1.8504 0.9732
-2.8997 5.8588 -1.8506 0.9732
-3.4110 5.5774 -1.8508 0.9732
-4.3484 4.8836 -1.8511 0.9732
-4.7670 4.4767 -1.8513 0.9732
-5.1476 4.0341 -1.8514 0.9732
-6.7476 2.1429 -2.0042 0.9710
-7.0213 0.9102 -2.0043 0.9710
-7.0746 0.2804 -2.0043 0.9710
-6.5014 -2.8017 -2.0041 0.9710
-5.8996 -3.9117 -2.0039 0.9710
-5.1102 -4.8969 -2.0036 0.9710
-4.6527 -5.3326 -2.0035 0.9710
-3.6307 -6.0733 -2.0031 0.9710
-3.0743 -6.3722 -2.0029 0.9710
-2.4935 -6.6203 -2.0027 0.9710
-1.8930 -6.8156 -2.0025 0.9710
-1.2775 -6.9565 -2.0023 0.9710
-0.6519 -7.0419 -2.0020 0.9710
-0.0213 -7.0712 -2.0018 0.9710
1.2350 -6.9609 -2.0014 0.9710
1.8506 -6.8223 -2.0011 0.9710
4.6128 -5.3517 -2.0001 0.9711
5.4893 -4.4464 -1.9998 0.9711
5.8636 -3.9389 -1.9997 0.9711
6.4694 -2.8342 -1.9995 0.9711
6.6961 -2.2459 -1.9994 0.9711
6.8695 -1.6397 -1.9993 0.9711
6.9882 -1.0205 -1.9993 0.9711
7.0513 -0.3933 -1.9993 0.9711
6.9040 1.4873 -1.9993 0.9711
6.7440 2.0972 -1.9994 0.9711
6.2647 3.2622 -1.9995 0.9711
5.9492 3.8081 -1.9997 0.9711
5.5714 4.3123 -1.9945 0.9711
3.9208 5.2200 -1.8482 0.9732
2.9317 5.8347 -1.8485 0.9732
1.8489 6.2640 -1.8489 0.9732
1.2830 6.4046 -1.8491 0.9732
0.1249 6.5321 -1.8495 0.9732
-1.0378 6.4519 -1.8500 0.9732
-2.1680 6.1662 -1.8504 0.9732
-2.7095 5.9489 -1.8506 0.9732
-5.0149 4.1976 -1.8514 0.9732
-6.1426 3.5032 -2.0018 0.9710
-6.6750 2.3590 -2.0042 0.9710
-7.0618 0.5080 -2.0043 0.9710
-7.0790 -0.1238 -2.0043 0.9710
-7.0397 -0.7546 -2.0043 0.9710
-6.7934 -1.9931 -2.0042 0.9710
-6.5883 -2.5910 -2.0042 0.9710
-6.3307 -3.1681 -2.0041 0.9710
-5.6666 -4.2418 -2.0038 0.9710
-5.2653 -4.7299 -2.0037 0.9710
-4.8221 -5.1802 -2.0035 0.9710
-4.3406 -5.5892 -2.0034 0.9710
-2.1115 -6.7514 -2.0026 0.9710
-0.8783 -7.0175 -2.0021 0.9710
0.3822 -7.0603 -2.0017 0.9710
1.0102 -6.9973 -2.0014 0.9710
2.2368 -6.7051 -2.0010 0.9710
3.9307 -5.8720 -2.0004 0.9711
4.4383 -5.4976 -2.0002 0.9711
4.9105 -5.0794 -2.0000 0.9711
5.7339 -4.1257 -1.9997 0.9711
6.0786 -3.5977 -1.9996 0.9711
6.3749 -3.0411 -1.9995 0.9711
6.8132 -1.8601 -1.9994 0.9711
6.9517 -1.2450 -1.9993 0.9711
7.0350 -0.6201 -1.9993 0.9711
7.0622 0.0098 -1.9993 0.9711
6.6135 2.4787 -1.9994 0.9711
6.3664 3.0587 -1.9995 0.9711
4.0867 5.0909 -1.8481 0.9732
3.1179 5.7371 -1.8485 0.9732
2.5941 5.9929 -1.8487 0.9732
1.4885 6.3597 -1.8491 0.9732
-2.9323 -5.8141 -2.0028 0.9731
-2.4018 -6.0519 -2.0027 0.9731
-1.8524 -6.2413 -2.0025 0.9731
-1.2883 -6.3810 -2.0023 0.9731
-0.7140 -6.4698 -2.0021 0.9731
0.4467 -6.4924 -2.0016 0.9731
1.0238 -6.4260 -2.0014 0.9731
3.2048 -5.6602 -2.0006 0.9731
3.6965 -5.3514 -2.0005 0.9731
4.1586 -5.0000 -2.0003 0.9732
4.9800 -4.1811 -2.0000 0.9732
5.3327 -3.7201 -1.9999 0.9732
5.6429 -3.2295 -1.9998 0.9732
6.1263 -2.1754 -1.9996 0.9732
6.4647 0.6832 -1.9995 0.9732
6.0537 2.3702 -1.9996 0.9732
5.5368 3.4083 -1.9998 0.9732
4.8289 4.3249 -1.9939 0.9732
4.1115 4.4036 -1.8530 0.9751
3.6929 4.7404 -1.8483 0.9752
3.2556 5.0513 -1.8484 0.9752
2.7925 5.3220 -1.8486 0.9752
2.3069 5.5504 -1.8488 0.9752
0.2207 6.0091 -1.8495 0.9751
-0.3161 6.0054 -1.8497 0.9751
-1.3782 5.8550 -1.8501 0.9751
-2.8798 5.2828 -1.8506 0.9751
-4.1765 4.3332 -1.8511 0.9751
-4.5559 3.9518 -1.8550 0.9751
-5.2656 3.8007 -1.9974 0.9732
-5.6014 3.3266 -2.0038 0.9731
-5.8760 2.8139 -2.0039 0.9731
-6.1038 2.2788 -2.0040 0.9731
-6.4119 1.1582 -2.0041 0.9731
-6.4898 0.5818 -2.0041 0.9731
-6.5158 0.0007 -2.0041 0.9731
-6.4899 -0.5804 -2.0041 0.9731
-6.2833 -1.7240 -2.0040 0.9731
-5.6022 -3.3253 -2.0038 0.9731
-5.2830 -3.8115 -2.0037 0.9731
-4.5212 -4.6888 -2.0034 0.9731
-3.6158 -5.4165 -2.0031 0.9731
-3.1180 -5.7169 -2.0029 0.9731
-2.5955 -5.9716 -2.0027 0.9731
-2.0524 -6.1787 -2.0025 0.9731
-1.4931 -6.3365 -2.0023 0.9731
-0.9219 -6.4437 -2.0021 0.9731
0.2374 -6.5037 -2.0017 0.9731
2.4954 -6.0077 -2.0009 0.9731
3.0210 -5.7607 -2.0007 0.9731
3.5224 -5.4678 -2.0005 0.9731
3.9956 -5.1315 -2.0004 0.9731
4.4370 -4.7543 -2.0002 0.9732
4.8429 -4.3393 -2.0001 0.9732
5.2103 -3.8899 -1.9999 0.9732
6.2403 -1.8223 -1.9996 0.9732
6.3778 -1.2584 -1.9995 0.9732
6.1268 2.1741 -1.9996 0.9732
5.6436 3.2282 -1.9998 0.9732
3.4165 4.9437 -1.8484 0.9752
1.9865 5.6733 -1.8489 0.9752
1.4728 5.8285 -1.8491 0.9752
0.9473 5.9372 -1.8492 0.9752
-0.6584 5.9780 -1.8498 0.9751
-1.7102 5.7671 -1.8502 0.9751
-2.2180 5.5922 -1.8504 0.9751
-2.7081 5.3726 -1.8506 0.9751
-3.1767 5.1102 -1.8507 0.9751
-3.6201 4.8069 -1.8509 0.9751
-4.0347 4.4653 -1.8510 0.9751
-5.0513 3.8994 -1.9628 0.9736
-5.7823 3.0016 -2.0039 0.9731
-6.3713 1.3641 -2.0041 0.9731
-6.4676 0.7904 -2.0041 0.9731
-6.5052 -0.3711 -2.0041 0.9731
-6.4462 -0.9498 -2.0041 0.9731
-6.3356 -1.5208 -2.0041 0.9731
-5.9643 -2.6220 -2.0039 0.9731
-3.3006 -5.6137 -2.0030 0.9731
-1.6964 -6.2853 -2.0024 0.9731
-1.1290 -6.4109 -2.0022 0.9731
-0.5527 -6.4854 -2.0020 0.9731
0.0279 -6.5082 -2.0018 0.9731
0.6081 -6.4791 -2.0016 0.9731
1.1834 -6.3984 -2.0014 0.9731
2.3008 -6.0851 -2.0010 0.9731
3.3446 -5.5785 -2.0006 0.9731
4.7008 -4.4931 -2.0001 0.9732
5.0824 -4.0557 -2.0000 0.9732
5.7214 -3.0879 -1.9997 0.9732
5.9738 -2.5653 -1.9997 0.9732
6.1785 -2.0222 -1.9996 0.9732
6.3340 -1.4631 -1.9995 0.9732
6.4392 -0.8924 -1.9995 0.9732
6.4952 0.2657 -1.9995 0.9732
6.4457 0.8439 -1.9995 0.9732
6.1935 1.9757 -1.9996 0.9732
5.7445 3.0448 -1.9997 0.9732
5.4503 3.5451 -1.9998 0.9732
4.6797 4.4060 -1.9770 0.9735
2.6592 5.3900 -1.8486 0.9752
0.6069 5.9820 -1.8494 0.9752
-0.9985 5.9311 -1.8499 0.9751
-2.0367 5.6605 -1.8503 0.9751
-2.5336 5.4568 -1.8505 0.9751
-3.0105 5.2096 -1.8507 0.9751
-3.4634 4.9208 -1.8508 0.9751
-3.8887 4.5927 -1.8510 0.9751
-4.2832 4.2279 -1.8511 0.9751
-4.7636 3.9285 -1.8992 0.9745
-5.3642 3.6723 -1.9995 0.9732
-5.9444 2.6668 -2.0039 0.9731
-6.3240 1.5685 -2.0041 0.9731
-6.5023 0.4201 -2.0041 0.9731
-6.2384 -1.8799 -2.0040 0.9731
-5.8048 -2.9580 -2.0039 0.9731
-5.5176 -3.4637 -2.0038 0.9731
-4.4030 -4.7998 -2.0034 0.9731
-2.9747 -5.7926 -2.0029 0.9731
-1.8979 -6.2277 -2.0025 0.9731
0.9768 -6.4334 -2.0014 0.9731
1.5465 -6.3200 -2.0012 0.9731
2.1038 -6.1563 -2.0010 0.9731
3.6573 -5.3783 -2.0005 0.9731
4.1220 -5.0303 -2.0003 0.9732
4.5539 -4.6423 -2.0002 0.9732
5.3054 -3.7589 -1.9999 0.9732
5.6192 -3.2706 -1.9998 0.9732
6.2837 -1.6663 -1.9995 0.9732
6.4796 -0.5235 -1.9995 0.9732
6.5004 0.0565 -1.9995 0.9732
6.3871 1.2104 -1.9995 0.9732
6.2539 1.7752 -1.9995 0.9732
6.0708 2.3260 -1.9996 0.9732
5.8394 2.8582 -1.9997 0.9732
5.5615 3.3678 -1.9998 0.9732
4.1706 4.4020 -1.8651 0.9749
3.7273 4.7133 -1.8483 0.9752
2.8312 5.3014 -1.8486 0.9752
2.3473 5.5333 -1.8487 0.9752
1.8447 5.7212 -1.8489 0.9752
1.3273 5.8635 -1.8491 0.9752
0.7992 5.9591 -1.8493 0.9752
-0.8070 5.9599 -1.8499 0.9751
-1.8534 5.7229 -1.8503 0.9751
-2.3566 5.5354 -1.8504 0.9751
-2.8411 5.3037 -1.8506 0.9751
-3.3031 5.0296 -1.8508 0.9751
-3.7388 4.7154 -1.8509 0.9751
-4.5177 3.9768 -1.8512 0.9751
-5.5769 3.3674 -2.0038 0.9731
-6.4033 1.2050 -2.0041 0.9731
-6.4853 0.6292 -2.0041 0.9731
-6.4205 -1.1100 -2.0041 0.9731
-6.1208 -2.2328 -2.0040 0.9731
-4.9528 -4.2312 -2.0036 0.9731
-3.1597 -5.6940 -2.0029 0.9731
-2.6391 -5.9525 -2.0027 0.9731
-1.5393 -6.3254 -2.0023 0.9731
-0.3910 -6.4969 -2.0019 0.9731
1.3423 -6.3667 -2.0013 0.9731
1.9046 -6.2210 -2.0011 0.9731
3.9581 -5.1605 -2.0004 0.9731
5.1818 -3.9279 -1.9999 0.9732
5.5111 -3.4499 -1.9998 0.9732
5.7965 -2.9445 -1.9997 0.9732
6.0357 -2.4157 -1.9996 0.9732
6.4594 -0.7318 -1.9995 0.9732
6.4227 1.0041 -1.9995 0.9732
5.9283 2.6687 -1.9997 0.9732
4.4504 4.4042 -1.9258 0.9741
3.8770 4.5908 -1.8482 0.9752
3.4525 4.9186 -1.8484 0.9752
3.0003 5.2074 -1.8485 0.9752
2.5242 5.4547 -1.8487 0.9752
0.9906 5.9301 -1.8492 0.9752
-0.0787 6.0130 -1.8496 0.9751
-1.1459 5.9045 -1.8500 0.9751
-1.6681 5.7794 -1.8502 0.9751
-3.5849 4.8332 -1.8509 0.9751
-4.3872 4.1201 -1.8512 0.9751
-4.9845 3.9063 -1.9478 0.9738
-5.7602 3.0437 -2.0039 0.9731
-6.0090 2.5180 -2.0039 0.9731
-6.4617 0.8376 -2.0041 0.9731
-6.5078 -0.3236 -2.0041 0.9731
-6.1896 -2.0346 -2.0040 0.9731
-5.9833 -2.5784 -2.0039 0.9731
-5.7293 -3.1016 -2.0038 0.9731
-5.4295 -3.6000 -2.0037 0.9731
-5.0865 -4.0696 -2.0036 0.9731
-4.7030 -4.5067 -2.0035 0.9731
-3.8270 -5.2697 -2.0032 0.9731
-3.3415 -5.5895 -2.0030 0.9731
-2.8294 -5.8647 -2.0028 0.9731
-1.7422 -6.2728 -2.0024 0.9731
-1.1757 -6.4026 -2.0022 0.9731
-0.6000 -6.4812 -2.0020 0.9731
-0.0196 -6.5082 -2.0018 0.9731
0.5608 -6.4834 -2.0016 0.9731
2.7912 -5.8757 -2.0008 0.9731
3.7900 -5.2854 -2.0004 0.9731
4.2459 -4.9260 -2.0003 0.9732
5.0527 -4.0927 -2.0000 0.9732
5.3973 -3.6256 -1.9999 0.9732
5.6988 -3.1297 -1.9998 0.9732
6.3232 -1.5093 -1.9995 0.9732
6.4325 -0.9394 -1.9995 0.9732
6.4906 -0.3620 -1.9995 0.9732
6.4517 0.7968 -1.9995 0.9732
6.2078 1.9304 -1.9996 0.9732
6.0111 2.4764 -1.9996 0.9732
5.7665 3.0027 -1.9997 0.9732
5.4761 3.5052 -1.9998 0.9732
5.1418 3.9797 -1.9999 0.9732
4.0227 4.4634 -1.8481 0.9752
3.1663 5.1079 -1.8485 0.9752
1.1809 5.8949 -1.8492 0.9752
0.1149 6.0121 -1.8495 0.9751
-0.9552 5.9382 -1.8499 0.9751
-1.4811 5.8299 -1.8501 0.9751
-3.4273 4.9459 -1.8508 0.9751
-4.7007 3.9346 -1.8855 0.9747
-5.3356 3.7102 -1.9989 0.9732
-5.9247 2.7101 -2.0039 0.9731
-6.1430 2.1710 -2.0040 0.9731
-6.3124 1.6146 -2.0041 0.9731
-6.4990 0.4675 -2.0041 0.9731
-6.5148 -0.1139 -2.0041 0.9731
-6.3908 -1.2695 -2.0041 0.9731
-6.2520 -1.8343 -2.0040 0.9731
-6.0633 -2.3845 -2.0040 0.9731
-4.8458 -4.3531 -2.0035 0.9731
-4.4379 -4.7675 -2.0034 0.9731
-3.5198 -5.4792 -2.0031 0.9731
-2.4900 -6.0162 -2.0027 0.9731
-1.9433 -6.2137 -2.0025 0.9731
-1.3813 -6.3616 -2.0023 0.9731
-0.8084 -6.4588 -2.0021 0.9731
0.3518 -6.4983 -2.0017 0.9731
1.5004 -6.3312 -2.0013 0.9731
2.6007 -5.9627 -2.0009 0.9731
3.1218 -5.7065 -2.0007 0.9731
3.6180 -5.4049 -2.0005 0.9731
4.0852 -5.0603 -2.0003 0.9732
4.5199 -4.6754 -2.0002 0.9732
5.5952 -3.3116 -1.9998 0.9732
5.8679 -2.7993 -1.9997 0.9732
6.0939 -2.2647 -1.9996 0.9732
6.5006 0.0090 -1.9995 0.9732
6.3958 1.1637 -1.9995 0.9732
6.2666 1.7295 -1.9995 0.9732
5.8601 2.8155 -1.9997 0.9732
5.5860 3.3271 -1.9998 0.9732
4.2325 4.4025 -1.8784 0.9748
3.7616 4.6860 -1.8482 0.9752
2.8698 5.2806 -1.8486 0.9752
2.3877 5.5160 -1.8487 0.9752
1.3700 5.8536 -1.8491 0.9752
-2.7131 -5.3796 -2.0028 0.9749
-2.2224 -5.5997 -2.0026 0.9749
-1.7140 -5.7750 -2.0024 0.9749
-1.1920 -5.9043 -2.0022 0.9749
-0.6607 -5.9865 -2.0020 0.9749
-0.1241 -6.0210 -2.0018 0.9749
0.9473 -5.9461 -2.0015 0.9749
1.9882 -5.6822 -2.0011 0.9749
2.9655 -5.2377 -2.0007 0.9749
3.4205 -4.9520 -2.0006 0.9750
4.6083 -3.8691 -2.0001 0.9750
5.2218 -2.9885 -1.9999 0.9750
5.4673 -2.5108 -1.9998 0.9750
5.8260 -1.4995 -1.9997 0.9750
5.9824 0.6322 -1.9996 0.9750
5.1237 3.1540 -2.0000 0.9750
4.4798 4.0121 -1.9990 0.9750
4.0846 4.3747 -1.9895 0.9751
3.4172 4.3866 -1.8484 0.9768
3.0126 4.6743 -1.8485 0.9768
2.5840 4.9247 -1.8487 0.9768
1.6683 5.3064 -1.8490 0.9768
1.1885 5.4345 -1.8492 0.9768
0.6992 5.5194 -1.8493 0.9768
-0.2925 5.5569 -1.8497 0.9768
-0.7870 5.5092 -1.8499 0.9768
-1.2753 5.4175 -1.8500 0.9768
-1.7535 5.2827 -1.8502 0.9768
-2.2178 5.1057 -1.8504 0.9768
-2.6646 4.8880 -1.8505 0.9768
-4.5252 3.9251 -1.9912 0.9751
-4.8843 3.5255 -2.0023 0.9749
-5.1827 3.0779 -2.0036 0.9749
-5.9325 1.0716 -2.0039 0.9749
-5.9328 -1.0703 -2.0039 0.9749
-5.8136 -1.5951 -2.0039 0.9749
-5.4373 -2.6024 -2.0037 0.9749
-2.8850 -5.2897 -2.0028 0.9749
-2.4016 -5.5254 -2.0027 0.9749
-1.8991 -5.7170 -2.0025 0.9749
-0.8531 -5.9624 -2.0021 0.9749
-0.3179 -6.0141 -2.0019 0.9749
0.2197 -6.0179 -2.0017 0.9749
0.7554 -5.9738 -2.0015 0.9749
1.2850 -5.8820 -2.0013 0.9749
1.8043 -5.7435 -2.0012 0.9749
3.2594 -5.0597 -2.0006 0.9749
3.6974 -4.7484 -2.0005 0.9750
4.1058 -4.3995 -2.0003 0.9750
4.4815 -4.0155 -2.0002 0.9750
4.8215 -3.5996 -2.0001 0.9750
5.1230 -3.1551 -2.0000 0.9750
5.3837 -2.6855 -1.9999 0.9750
5.6015 -2.1946 -1.9998 0.9750
5.7747 -1.6863 -1.9997 0.9750
5.9020 -1.1645 -1.9997 0.9750
5.9822 -0.6335 -1.9996 0.9750
5.4678 2.5096 -1.9998 0.9750
4.9355 3.4413 -2.0000 0.9750
4.6092 3.8680 -2.0001 0.9750
4.2346 4.2523 -1.9948 0.9750
3.6376 4.3716 -1.8904 0.9763
3.1615 4.5747 -1.8485 0.9768
2.7411 4.8388 -1.8486 0.9768
1.3628 5.3932 -1.8491 0.9768
0.8765 5.4938 -1.8493 0.9768
-0.6092 5.5315 -1.8498 0.9768
-2.5057 4.9711 -1.8505 0.9768
-2.9393 4.7283 -1.8506 0.9768
-3.3496 4.4476 -1.8508 0.9768
-3.7331 4.1315 -1.8509 0.9768
-4.2688 3.9506 -1.9334 0.9758
-4.7623 3.6763 -1.9998 0.9750
-5.3500 2.7772 -2.0037 0.9749
-5.5766 2.2891 -2.0038 0.9749
-5.9841 0.7313 -2.0039 0.9749
-5.9642 -0.8788 -2.0039 0.9749
-5.8619 -1.4071 -2.0039 0.9749
-5.7129 -1.9243 -2.0038 0.9749
-5.2798 -2.9083 -2.0037 0.9749
-4.6787 -3.7996 -2.0035 0.9749
-4.3209 -4.2015 -2.0033 0.9749
-3.9287 -4.5698 -2.0032 0.9749
-3.5052 -4.9015 -2.0031 0.9749
-2.0822 -5.6531 -2.0025 0.9749
-1.5696 -5.8158 -2.0024 0.9749
-1.0446 -5.9320 -2.0022 0.9749
-0.5114 -6.0010 -2.0020 0.9749
0.0258 -6.0221 -2.0018 0.9749
0.5627 -5.9952 -2.0016 0.9749
1.0950 -5.9206 -2.0014 0.9749
1.6185 -5.7988 -2.0012 0.9749
3.5427 -4.8652 -2.0005 0.9750
4.3500 -4.1578 -2.0002 0.9750
4.7032 -3.7531 -2.0001 0.9750
5.2945 -2.8575 -1.9999 0.9750
5.7175 -1.8713 -1.9997 0.9750
5.9588 -0.8258 -1.9997 0.9750
6.0106 0.2459 -1.9996 0.9750
5.9648 0.7810 -1.9997 0.9750
5.8715 1.3098 -1.9997 0.9750
5.5457 2.3322 -1.9998 0.9750
5.3158 2.8176 -1.9999 0.9750
5.0436 3.2806 -2.0000 0.9750
4.3744 4.1186 -1.9972 0.9750
3.3070 4.4704 -1.8484 0.9768
2.8954 4.7479 -1.8486 0.9768
2.0062 5.1877 -1.8489 0.9768
0.5616 5.5352 -1.8494 0.9768
-0.4308 5.5480 -1.8497 0.9768
-1.4098 5.3843 -1.8501 0.9768
-2.7855 4.8203 -1.8506 0.9768
-3.2045 4.5530 -1.8507 0.9768
-3.5981 4.2494 -1.8509 0.9768
-4.0263 3.9744 -1.8806 0.9764
-5.2578 2.9479 -2.0037 0.9749
-6.0161 0.3886 -2.0039 0.9749
-5.9894 -0.6863 -2.0039 0.9749
-5.1051 -3.2048 -2.0036 0.9749
-4.7987 -3.6471 -2.0035 0.9749
-4.4540 -4.0603 -2.0034 0.9749
-4.0739 -4.4410 -2.0033 0.9749
-3.2196 -5.0933 -2.0030 0.9749
-2.2632 -5.5833 -2.0026 0.9749
-1.7561 -5.7624 -2.0024 0.9749
-1.2351 -5.8955 -2.0022 0.9749
-0.7043 -5.9816 -2.0020 0.9749
-0.1681 -6.0200 -2.0019 0.9749
0.3694 -6.0104 -2.0017 0.9749
0.9039 -5.9530 -2.0015 0.9749
1.9467 -5.6966 -2.0011 0.9749
2.4468 -5.4998 -2.0009 0.9749
2.9272 -5.2592 -2.0007 0.9749
3.3843 -4.9768 -2.0006 0.9749
3.8144 -4.6548 -2.0004 0.9750
4.2140 -4.2958 -2.0003 0.9750
4.5800 -3.9026 -2.0002 0.9750
5.1999 -3.0266 -1.9999 0.9750
5.4488 -2.5506 -1.9998 0.9750
5.6544 -2.0545 -1.9998 0.9750
5.8149 -1.5420 -1.9997 0.9750
5.9291 -1.0172 -1.9997 0.9750
5.4037 2.6450 -1.9999 0.9750
5.1465 3.1165 -1.9999 0.9750
4.5102 3.9804 -1.9996 0.9750
4.1238 4.3526 -1.9931 0.9750
3.4578 4.3724 -1.8530 0.9768
2.6199 4.9057 -1.8486 0.9768
2.1721 5.1202 -1.8488 0.9768
1.7070 5.2940 -1.8490 0.9768
1.2282 5.4256 -1.8491 0.9768
0.7395 5.5141 -1.8493 0.9768
0.2448 5.5586 -1.8495 0.9768
-0.7467 5.5147 -1.8499 0.9768
-1.2357 5.4267 -1.8500 0.9768
-2.1805 5.1218 -1.8504 0.9768
-2.6288 4.9073 -1.8505 0.9768
-3.0562 4.6537 -1.8507 0.9768
-4.8570 3.5600 -2.0017 0.9749
-5.8014 1.6388 -2.0039 0.9749
-5.9245 1.1149 -2.0039 0.9749
-6.0004 0.5821 -2.0039 0.9749
-6.0285 0.0447 -2.0040 0.9749
-6.0084 -0.4931 -2.0039 0.9749
-5.8251 -1.5526 -2.0039 0.9749
-5.4562 -2.5626 -2.0038 0.9749
-3.3821 -4.9872 -2.0030 0.9749
-2.9236 -5.2685 -2.0028 0.9749
-1.9408 -5.7031 -2.0025 0.9749
-0.8966 -5.9560 -2.0021 0.9749
0.1757 -6.0194 -2.0017 0.9749
1.7624 -5.7565 -2.0012 0.9749
2.2685 -5.5759 -2.0010 0.9749
2.7565 -5.3509 -2.0008 0.9749
3.2224 -5.0834 -2.0006 0.9749
3.6626 -4.7753 -2.0005 0.9750
4.0736 -4.4293 -2.0003 0.9750
5.0998 -3.1925 -2.0000 0.9750
5.3640 -2.7248 -1.9999 0.9750
5.8933 -1.2076 -1.9997 0.9750
6.0140 -0.1414 -1.9996 0.9750
5.8371 1.4556 -1.9997 0.9750
5.6842 1.9704 -1.9998 0.9750
4.9605 3.4052 -2.0000 0.9750
4.2667 4.2224 -1.9954 0.9750
2.7764 4.8187 -1.8486 0.9768
1.8765 5.2361 -1.8489 0.9768
1.4022 5.3831 -1.8491 0.9768
0.9166 5.4872 -1.8493 0.9768
0.4236 5.5476 -1.8494 0.9768
-0.5688 5.5357 -1.8498 0.9768
-1.5435 5.3476 -1.8501 0.9768
-2.0144 5.1891 -1.8503 0.9768
-2.4694 4.9893 -1.8505 0.9768
-2.9047 4.7496 -1.8506 0.9768
-4.2126 3.9562 -1.9210 0.9759
-5.0570 3.2801 -2.0036 0.9749
-5.7455 1.8247 -2.0038 0.9749
-5.8855 1.3051 -2.0039 0.9749
-5.9786 0.7750 -2.0039 0.9749
-6.0212 -0.2994 -2.0040 0.9749
-5.9704 -0.8352 -2.0039 0.9749
-5.3009 -2.8697 -2.0037 0.9749
-3.0918 -5.1718 -2.0029 0.9749
-2.6180 -5.4265 -2.0027 0.9749
-2.1235 -5.6378 -2.0026 0.9749
-1.0879 -5.9243 -2.0022 0.9749
-0.5552 -5.9971 -2.0020 0.9749
-0.0181 -6.0222 -2.0018 0.9749
0.5189 -5.9992 -2.0016 0.9749
1.5762 -5.8105 -2.0012 0.9749
2.5829 -5.4371 -2.0009 0.9749
3.5071 -4.8909 -2.0005 0.9750
3.9290 -4.5583 -2.0004 0.9750
4.6757 -3.7873 -2.0001 0.9750
4.9945 -3.3550 -2.0000 0.9750
5.2735 -2.8961 -1.9999 0.9750
5.9526 -0.8693 -1.9997 0.9750
5.8809 1.2669 -1.9997 0.9750
5.3363 2.7787 -1.9999 0.9750
5.0674 3.2437 -2.0000 0.9750
4.7582 3.6829 -2.0001 0.9750
3.9420 4.3738 -1.9572 0.9755
1.0927 5.4547 -1.8492 0.9768
0.1064 5.5631 -1.8495 0.9768
-0.3902 5.5510 -1.8497 0.9768
-1.3704 5.3944 -1.8501 0.9768
-2.3074 5.0660 -1.8504 0.9768
-2.7502 4.8405 -1.8506 0.9768
-3.5669 4.2756 -1.8509 0.9768
-5.2361 2.9862 -2.0037 0.9749
-5.8404 1.4939 -2.0039 0.9749
-5.9505 0.9671 -2.0039 0.9749
-6.0131 0.4326 -2.0039 0.9749
-6.0277 -0.1054 -2.0040 0.9749
-5.9130 -1.1746 -2.0039 0.9749
-5.7846 -1.6972 -2.0039 0.9749
-5.3907 -2.6976 -2.0037 0.9749
-5.1284 -3.1675 -2.0036 0.9749
-4.8252 -3.6120 -2.0035 0.9749
-4.1062 -4.4112 -2.0033 0.9749
-3.6962 -4.7595 -2.0031 0.9749
-2.7914 -5.3395 -2.0028 0.9749
-1.7981 -5.7495 -2.0024 0.9749
-1.2781 -5.8864 -2.0023 0.9749
0.8604 -5.9594 -2.0015 0.9749
1.3883 -5.8584 -2.0013 0.9749
1.9051 -5.7107 -2.0011 0.9749
2.4065 -5.5176 -2.0009 0.9749
3.3479 -5.0015 -2.0006 0.9749
3.7803 -4.6826 -2.0004 0.9750
4.1825 -4.3265 -2.0003 0.9750
4.5514 -3.9360 -2.0002 0.9750
4.8840 -3.5142 -2.0000 0.9750
5.1777 -3.0645 -1.9999 0.9750
5.4301 -2.5904 -1.9998 0.9750
5.8035 -1.5844 -1.9997 0.9750
5.9215 -1.0605 -1.9997 0.9750
5.9924 -0.5282 -1.9996 0.9750
6.0156 0.0083 -1.9996 0.9750
5.9910 0.5448 -1.9996 0.9750
5.6334 2.1113 -1.9998 0.9750
5.4229 2.6054 -1.9998 0.9750
5.1691 3.0788 -1.9999 0.9750
3.0805 4.6297 -1.8485 0.9768
2.6556 4.8864 -1.8486 0.9768
2.2094 5.1042 -1.8488 0.9768
1.2677 5.4165 -1.8491 0.9768
-2.0657 -5.2049 -2.0025 0.9765
0.8806 -5.5272 -2.0015 0.9765
1.3699 -5.4261 -2.0013 0.9765
1.8481 -5.2819 -2.0011 0.9765
2.7566 -4.8688 -2.0008 0.9765
3.1796 -4.6032 -2.0007 0.9765
3.9463 -3.9645 -2.0004 0.9765
4.2838 -3.5966 -2.0003 0.9765
4.5873 -3.2001 -2.0002 0.9765
5.2701 -1.8714 -1.9999 0.9765
5.4158 -1.3939 -1.9999 0.9765
5.5771 -0.4096 -1.9998 0.9765
5.5612 0.5877 -1.9998 0.9765
5.3685 1.5664 -1.9999 0.9765
4.7629 2.9319 -2.0001 0.9765
4.4827 3.3451 -2.0002 0.9765
4.1667 3.7318 -2.0003 0.9765
3.3847 4.3449 -1.9696 0.9769
2.4020 4.5778 -1.8487 0.9783
1.9843 4.7742 -1.8489 0.9783
1.5508 4.9325 -1.8490 0.9783
1.1048 5.0516 -1.8492 0.9783
0.6499 5.1305 -1.8494 0.9783
-0.2719 5.1652 -1.8497 0.9783
-0.7315 5.1209 -1.8498 0.9783
-1.6299 4.9103 -1.8502 0.9783
-2.0615 4.7458 -1.8503 0.9783
-2.4767 4.5434 -1.8505 0.9783
-2.8722 4.3048 -1.8506 0.9783
-3.2449 4.0317 -1.8508 0.9783
-3.8256 3.9691 -1.9713 0.9769
-4.8171 2.8608 -2.0035 0.9765
-5.0533 2.4199 -2.0036 0.9765
-5.4031 1.4838 -2.0037 0.9765
-5.5140 0.9960 -2.0038 0.9765
-5.6034 0.0006 -2.0038 0.9765
-5.5811 -0.4991 -2.0038 0.9765
-5.5143 -0.9948 -2.0038 0.9765
-5.2496 -1.9585 -2.0037 0.9765
-5.0538 -2.4188 -2.0036 0.9765
-4.8178 -2.8597 -2.0035 0.9765
-4.5433 -3.2778 -2.0034 0.9765
-4.2326 -3.6698 -2.0033 0.9765
-3.8883 -4.0323 -2.0032 0.9765
-3.5129 -4.3628 -2.0031 0.9765
-2.6816 -4.9167 -2.0028 0.9765
-1.2842 -5.4498 -2.0023 0.9765
-0.7929 -5.5421 -2.0021 0.9765
0.2042 -5.5938 -2.0017 0.9765
0.7022 -5.5528 -2.0015 0.9765
1.6772 -5.3388 -2.0012 0.9765
3.0298 -4.7033 -2.0007 0.9765
3.4370 -4.4140 -2.0006 0.9765
3.8167 -4.0896 -2.0004 0.9765
4.4819 -3.3461 -2.0002 0.9765
5.0046 -2.4965 -2.0000 0.9765
5.3682 -1.5676 -1.9999 0.9765
5.4865 -1.0826 -1.9998 0.9765
5.5611 -0.5890 -1.9998 0.9765
5.5772 0.4083 -1.9998 0.9765
5.5186 0.9041 -1.9998 0.9765
5.4161 1.3927 -1.9998 0.9765
5.2705 1.8702 -1.9999 0.9765
4.8547 2.7770 -2.0000 0.9765
4.5880 3.1990 -2.0001 0.9765
3.9456 3.9621 -1.9996 0.9765
1.7087 4.8799 -1.8490 0.9783
1.2668 5.0133 -1.8491 0.9783
0.8148 5.1067 -1.8493 0.9783
-0.5662 5.1416 -1.8498 0.9783
-1.4709 4.9601 -1.8501 0.9783
-2.7321 4.3949 -1.8506 0.9783
-3.1134 4.1340 -1.8507 0.9783
-3.6059 3.9907 -1.9234 0.9774
-4.4346 3.4233 -2.0034 0.9765
-4.7224 3.0143 -2.0035 0.9765
-4.9727 2.5813 -2.0036 0.9765
-5.4791 1.1730 -2.0038 0.9765
-5.5619 0.6797 -2.0038 0.9765
-5.5943 -0.3192 -2.0038 0.9765
-4.9074 -2.7032 -2.0036 0.9765
-4.6466 -3.1299 -2.0035 0.9765
-4.3487 -3.5317 -2.0034 0.9765
-3.6517 -4.2475 -2.0031 0.9765
-3.2581 -4.5559 -2.0030 0.9765
-2.3965 -5.0615 -2.0027 0.9765
-1.4590 -5.4058 -2.0023 0.9765
-0.9710 -5.5139 -2.0021 0.9765
0.0240 -5.5977 -2.0018 0.9765
0.5231 -5.5727 -2.0016 0.9765
1.0179 -5.5034 -2.0014 0.9765
1.9790 -5.2341 -2.0011 0.9765
2.8769 -4.7985 -2.0008 0.9765
3.2932 -4.5225 -2.0006 0.9765
3.6831 -4.2105 -2.0005 0.9765
4.3720 -3.4888 -2.0002 0.9765
4.9217 -2.6563 -2.0000 0.9765
5.3150 -1.7396 -1.9999 0.9765
5.4488 -1.2586 -1.9998 0.9765
5.5392 -0.7677 -1.9998 0.9765
5.5856 -0.2706 -1.9998 0.9765
5.5449 0.7260 -1.9998 0.9765
5.4581 1.2176 -1.9998 0.9765
4.9416 2.6192 -2.0000 0.9765
4.3981 3.4557 -2.0002 0.9765
4.0726 3.8344 -2.0003 0.9765
2.6915 4.4135 -1.8486 0.9783
1.8649 4.8222 -1.8489 0.9783
0.9787 5.0777 -1.8492 0.9783
0.5220 5.1452 -1.8494 0.9783
0.0611 5.1717 -1.8496 0.9783
-0.4004 5.1570 -1.8497 0.9783
-2.1790 4.6931 -1.8504 0.9783
-2.5891 4.4804 -1.8505 0.9783
-2.9786 4.2320 -1.8507 0.9783
-3.3961 4.0109 -1.8794 0.9779
-3.9726 3.9214 -1.9962 0.9766
-4.6229 3.1648 -2.0034 0.9765
-5.2963 1.8284 -2.0037 0.9765
-5.5371 0.8584 -2.0038 0.9765
-5.6016 -0.1389 -2.0038 0.9765
-5.5669 -0.6379 -2.0038 0.9765
-5.3648 -1.6167 -2.0037 0.9765
-5.1991 -2.0886 -2.0037 0.9765
-4.9920 -2.5438 -2.0036 0.9765
-4.7450 -2.9788 -2.0035 0.9765
-4.1399 -3.7739 -2.0033 0.9765
-2.1037 -5.1897 -2.0026 0.9765
-1.6323 -5.3562 -2.0024 0.9765
-1.1480 -5.4799 -2.0022 0.9765
-0.1562 -5.5957 -2.0019 0.9765
0.3434 -5.5869 -2.0017 0.9765
2.2744 -5.1124 -2.0010 0.9765
2.7210 -4.8888 -2.0008 0.9765
3.9172 -3.9933 -2.0004 0.9765
4.2575 -3.6278 -2.0003 0.9765
4.5638 -3.2335 -2.0002 0.9765
4.8337 -2.8135 -2.0001 0.9765
5.4055 -1.4334 -1.9999 0.9765
5.5919 0.0486 -1.9998 0.9765
5.3798 1.5271 -1.9999 0.9765
5.2223 2.0009 -1.9999 0.9765
5.0232 2.4587 -2.0000 0.9765
4.7842 2.8970 -2.0001 0.9765
4.5070 3.3123 -2.0002 0.9765
4.1938 3.7012 -2.0003 0.9765
3.8426 4.0558 -1.9980 0.9765
2.8427 4.3407 -1.8555 0.9782
2.4353 4.5601 -1.8487 0.9783
1.5867 4.9210 -1.8490 0.9783
1.1416 5.0434 -1.8492 0.9783
-0.6941 5.1260 -1.8498 0.9783
-2.0268 4.7607 -1.8503 0.9783
-2.4434 4.5613 -1.8505 0.9783
-2.8407 4.3256 -1.8506 0.9783
-3.7748 3.9741 -1.9601 0.9770
-4.7961 2.8959 -2.0035 0.9765
-5.5066 1.0363 -2.0038 0.9765
-5.5846 -0.4583 -2.0038 0.9765
-5.5214 -0.9545 -2.0038 0.9765
-5.2637 -1.9201 -2.0037 0.9765
-5.0713 -2.3818 -2.0036 0.9765
-4.8385 -2.8245 -2.0035 0.9765
-3.5447 -4.3370 -2.0031 0.9765
-2.2697 -5.1194 -2.0026 0.9765
-1.8040 -5.3010 -2.0024 0.9765
-0.8334 -5.5362 -2.0021 0.9765
-0.3363 -5.5880 -2.0019 0.9765
0.1634 -5.5952 -2.0017 0.9765
0.6616 -5.5579 -2.0016 0.9765
1.1545 -5.4762 -2.0014 0.9765
2.1087 -5.1831 -2.0010 0.9765
2.5623 -4.9740 -2.0009 0.9765
3.4047 -4.4390 -2.0006 0.9765
3.7867 -4.1174 -2.0004 0.9765
4.1386 -3.7631 -2.0003 0.9765
4.9863 -2.5329 -2.0000 0.9765
5.1921 -2.0781 -1.9999 0.9765
5.5251 0.8638 -1.9998 0.9765
5.2840 1.8317 -1.9999 0.9765
4.6112 3.1654 -2.0001 0.9765
3.0479 4.3423 -1.8972 0.9777
2.5808 4.4792 -1.8487 0.9783
2.1712 4.6919 -1.8488 0.9783
1.7443 4.8673 -1.8490 0.9783
0.8520 5.1006 -1.8493 0.9783
-0.5287 5.1456 -1.8498 0.9783
-0.9856 5.0783 -1.8499 0.9783
-3.0831 4.1566 -1.8507 0.9783
-3.5575 3.9954 -1.9131 0.9775
-4.4094 3.4556 -2.0034 0.9765
-5.3402 1.6960 -2.0037 0.9765
-5.4703 1.2130 -2.0038 0.9765
-5.5568 0.7203 -2.0038 0.9765
-5.5990 0.2219 -2.0038 0.9765
-5.5964 -0.2783 -2.0038 0.9765
-5.4578 -1.2681 -2.0037 0.9765
-4.3744 -3.4998 -2.0034 0.9765
-3.2913 -4.5320 -2.0030 0.9765
-2.8738 -4.8071 -2.0028 0.9765
-1.9738 -5.2404 -2.0025 0.9765
-0.5161 -5.5744 -2.0020 0.9765
0.4824 -5.5764 -2.0016 0.9765
1.4651 -5.4011 -2.0013 0.9765
1.9408 -5.2485 -2.0011 0.9765
2.8418 -4.8194 -2.0008 0.9765
3.6523 -4.2373 -2.0005 0.9765
4.0154 -3.8944 -2.0004 0.9765
4.3464 -3.5206 -2.0002 0.9765
4.6428 -3.1188 -2.0001 0.9765
5.1226 -2.2442 -2.0000 0.9765
5.3021 -1.7784 -1.9999 0.9765
5.5335 -0.8081 -1.9998 0.9765
5.5890 0.1878 -1.9998 0.9765
5.5500 0.6855 -1.9998 0.9765
5.1709 2.1303 -1.9999 0.9765
4.9605 2.5830 -2.0000 0.9765
4.7106 3.0153 -2.0001 0.9765
4.4232 3.4235 -2.0002 0.9765
4.1005 3.8046 -2.0003 0.9765
3.2629 4.3440 -1.9429 0.9772
2.7236 4.3937 -1.8486 0.9783
2.3211 4.6194 -1.8488 0.9783
1.9000 4.8084 -1.8489 0.9783
1.0157 5.0704 -1.8492 0.9783
0.5596 5.1412 -1.8494 0.9783
0.0989 5.1711 -1.8496 0.9783
-0.3627 5.1597 -1.8497 0.9783
-1.2738 5.0141 -1.8500 0.9783
-2.9476 4.2536 -1.8506 0.9783
-3.3498 4.0153 -1.8700 0.9780
-4.2920 3.5925 -2.0015 0.9765
-4.8667 2.7756 -2.0035 0.9765
-5.0951 2.3306 -2.0036 0.9765
-5.4284 1.3885 -2.0037 0.9765
-5.5889 0.4020 -2.0038 0.9765
-5.3765 -1.5774 -2.0037 0.9765
-5.2143 -2.0506 -2.0037 0.9765
-5.0104 -2.5073 -2.0036 0.9765
-3.8167 -4.1001 -2.0032 0.9765
-3.0271 -4.7122 -2.0029 0.9765
-2.5946 -4.9630 -2.0027 0.9765
-2.1415 -5.1743 -2.0026 0.9765
-1.6714 -5.3442 -2.0024 0.9765
-0.6953 -5.5551 -2.0020 0.9765
1.2905 -5.4456 -2.0013 0.9765
3.1121 -4.6492 -2.0007 0.9765
4.2309 -3.6588 -2.0003 0.9765
5.2422 -1.9481 -1.9999 0.9765
5.3949 -1.4729 -1.9999 0.9765
5.5706 -0.4910 -1.9998 0.9765
5.5692 0.5064 -1.9998 0.9765
5.5019 1.0011 -1.9998 0.9765
5.3908 1.4878 -1.9999 0.9765
5.2368 1.9627 -1.9999 0.9765
3.8731 4.0286 -1.9985 0.9765
2.8882 4.3407 -1.8645 0.9781
2.4685 4.5422 -1.8487 0.9783
2.0538 4.7446 -1.8489 0.9783
1.6226 4.9093 -1.8490 0.9783
-2.3532 -4.6660 -2.0026 0.9779
-1.0339 -5.1213 -2.0022 0.9779
-0.5730 -5.1927 -2.0020 0.9779
0.3585 -5.2110 -2.0017 0.9779
1.2783 -5.0636 -2.0013 0.9779
2.1572 -4.7552 -2.0010 0.9779
2.9672 -4.2957 -2.0007 0.9779
3.3383 -4.0137 -2.0006 0.9779
3.6827 -3.6998 -2.0005 0.9779
4.5300 -2.5926 -2.0002 0.9779
4.7430 -2.1781 -2.0001 0.9779
5.2047 -0.3823 -1.9999 0.9779
5.2181 0.0834 -1.9999 0.9779
5.1204 1.0091 -2.0000 0.9779
4.8599 1.9028 -2.0000 0.9779
4.4448 2.7361 -2.0002 0.9779
3.8885 3.4826 -2.0004 0.9779
3.5626 3.8157 -2.0005 0.9779
2.7820 4.3165 -1.9679 0.9782
2.2618 4.3106 -1.8655 0.9794
1.4472 4.6030 -1.8491 0.9795
1.0310 4.7141 -1.8492 0.9795
0.6065 4.7876 -1.8494 0.9795
-0.6826 4.7786 -1.8498 0.9795
-1.5209 4.5820 -1.8501 0.9795
-1.9237 4.4285 -1.8503 0.9795
-2.3111 4.2396 -1.8504 0.9795
-3.2227 4.0041 -1.9697 0.9782
-3.6203 3.7562 -1.9992 0.9779
-4.2387 3.0595 -2.0033 0.9779
-4.4949 2.6695 -2.0034 0.9779
-4.8980 1.8286 -2.0035 0.9779
-5.2077 -0.4657 -2.0037 0.9779
-5.1454 -0.9283 -2.0036 0.9779
-4.2394 -3.0586 -2.0033 0.9779
-3.9496 -3.4243 -2.0032 0.9779
-3.2780 -4.0710 -2.0030 0.9779
-2.9017 -4.3468 -2.0028 0.9779
-2.0830 -4.7925 -2.0025 0.9779
-0.7399 -5.1717 -2.0021 0.9779
-0.2758 -5.2166 -2.0019 0.9779
0.6553 -5.1818 -2.0016 0.9779
1.1147 -5.1023 -2.0014 0.9779
1.5651 -4.9821 -2.0012 0.9779
2.4249 -4.6241 -2.0009 0.9779
2.8275 -4.3891 -2.0008 0.9779
3.8877 -3.4834 -2.0004 0.9779
4.4442 -2.7371 -2.0002 0.9779
4.6704 -2.3298 -2.0001 0.9779
4.8594 -1.9039 -2.0001 0.9779
5.1201 -1.0103 -2.0000 0.9779
5.1898 -0.5496 -1.9999 0.9779
5.2181 -0.0846 -1.9999 0.9779
5.2048 0.3811 -1.9999 0.9779
5.1502 0.8438 -1.9999 0.9779
5.0545 1.2997 -2.0000 0.9779
4.9185 1.7453 -2.0000 0.9779
3.6835 3.6989 -2.0005 0.9779
1.5946 4.5539 -1.8490 0.9795
1.1822 4.6783 -1.8492 0.9795
0.3323 4.8147 -1.8495 0.9795
-0.5284 4.7979 -1.8498 0.9795
-1.3726 4.6285 -1.8501 0.9795
-2.1733 4.3117 -1.8504 0.9795
-2.5494 4.1010 -1.8505 0.9795
-3.0295 4.0227 -1.9298 0.9787
-3.8352 3.5494 -2.0026 0.9779
-4.1380 3.1944 -2.0033 0.9779
-4.4066 2.8127 -2.0034 0.9779
-4.6401 2.4086 -2.0035 0.9779
-5.1126 1.0946 -2.0036 0.9779
-5.1726 -0.7621 -2.0036 0.9779
-4.5792 -2.5224 -2.0034 0.9779
-4.3358 -2.9206 -2.0033 0.9779
-4.0579 -3.2955 -2.0032 0.9779
-3.4075 -3.9635 -2.0030 0.9779
-3.0402 -4.2513 -2.0029 0.9779
-2.2363 -4.7231 -2.0026 0.9779
-0.4436 -5.2052 -2.0020 0.9779
0.4881 -5.2003 -2.0016 0.9779
0.9499 -5.1357 -2.0015 0.9779
1.4040 -5.0301 -2.0013 0.9779
1.8468 -4.8844 -2.0011 0.9779
2.6848 -4.4780 -2.0008 0.9779
3.0732 -4.2204 -2.0007 0.9779
3.7736 -3.6069 -2.0004 0.9779
4.9601 -1.6234 -2.0000 0.9779
5.0850 -1.1746 -2.0000 0.9779
5.1694 -0.7164 -1.9999 0.9779
5.2126 -0.2526 -1.9999 0.9779
5.2144 0.2133 -1.9999 0.9779
5.1746 0.6775 -1.9999 0.9779
5.0937 1.1363 -2.0000 0.9779
4.9721 1.5861 -2.0000 0.9779
4.6116 2.4443 -2.0001 0.9779
4.3754 2.8460 -2.0002 0.9779
4.1044 3.2250 -2.0003 0.9779
3.8006 3.5783 -2.0004 0.9779
2.6314 4.3150 -1.9368 0.9786
2.1345 4.3266 -1.8488 0.9795
1.3321 4.6377 -1.8491 0.9795
0.4871 4.8014 -1.8494 0.9795
-0.8014 4.7602 -1.8499 0.9795
-1.6346 4.5429 -1.8502 0.9795
-2.0334 4.3793 -1.8503 0.9795
-2.8435 4.0401 -1.8933 0.9791
-3.3651 3.9743 -1.9957 0.9779
-4.3137 2.9531 -2.0033 0.9779
-4.9421 1.7061 -2.0036 0.9779
-5.1667 0.8010 -2.0036 0.9779
-5.2176 0.3371 -2.0037 0.9779
-5.2269 -0.1296 -2.0037 0.9779
-5.1945 -0.5952 -2.0037 0.9779
-5.0060 -1.5085 -2.0036 0.9779
-3.8630 -3.5215 -2.0032 0.9779
-1.0713 -5.1136 -2.0022 0.9779
-0.6109 -5.1884 -2.0020 0.9779
1.6886 -4.9415 -2.0012 0.9779
3.3089 -4.0380 -2.0006 0.9779
3.6556 -3.7266 -2.0005 0.9779
3.9732 -3.3855 -2.0004 0.9779
4.2590 -3.0175 -2.0003 0.9779
4.7269 -2.2127 -2.0001 0.9779
5.0446 -1.3377 -2.0000 0.9779
5.1437 -0.8825 -1.9999 0.9779
5.2186 0.0453 -1.9999 0.9779
5.1937 0.5105 -1.9999 0.9779
4.8736 1.8673 -2.0000 0.9779
4.4647 2.7036 -2.0002 0.9779
3.9138 3.4541 -2.0004 0.9779
3.5903 3.7895 -2.0005 0.9779
1.4807 4.5923 -1.8491 0.9795
1.0654 4.7064 -1.8492 0.9795
0.6414 4.7830 -1.8494 0.9795
0.2123 4.8216 -1.8495 0.9795
-0.2185 4.8217 -1.8497 0.9795
-0.6477 4.7834 -1.8498 0.9795
-1.0718 4.7070 -1.8500 0.9795
-1.4874 4.5930 -1.8501 0.9795
-3.1782 4.0084 -1.9604 0.9783
-4.2163 3.0904 -2.0033 0.9779
-4.4753 2.7022 -2.0034 0.9779
-4.6986 2.2924 -2.0035 0.9779
-4.8845 1.8643 -2.0035 0.9779
-5.0315 1.4213 -2.0036 0.9779
-5.2041 0.5049 -2.0037 0.9779
-5.2284 0.0387 -2.0037 0.9779
-5.1520 -0.8907 -2.0036 0.9779
-4.9116 -1.7917 -2.0036 0.9779
-4.7321 -2.2225 -2.0035 0.9779
-4.5149 -2.6356 -2.0034 0.9779
-4.2617 -3.0276 -2.0033 0.9779
-3.6556 -3.7361 -2.0031 0.9779
-2.5358 -4.5696 -2.0027 0.9779
-1.6834 -4.9466 -2.0024 0.9779
-0.7777 -5.1662 -2.0021 0.9779
0.6174 -5.1865 -2.0016 0.9779
1.5287 -4.9935 -2.0012 0.9779
1.9678 -4.8368 -2.0011 0.9779
2.3911 -4.6417 -2.0009 0.9779
3.5338 -3.8424 -2.0005 0.9779
3.8622 -3.5118 -2.0004 0.9779
4.6533 -2.3638 -2.0001 0.9779
4.8454 -1.9393 -2.0001 0.9779
4.9989 -1.4994 -2.0000 0.9779
5.1126 -1.0476 -2.0000 0.9779
5.2173 -0.1227 -1.9999 0.9779
5.2075 0.3431 -1.9999 0.9779
5.1562 0.8061 -1.9999 0.9779
4.5493 2.5584 -2.0002 0.9779
4.3032 2.9540 -2.0002 0.9779
4.0229 3.3262 -2.0003 0.9779
3.7104 3.6719 -2.0005 0.9779
3.3656 3.9852 -1.9990 0.9779
2.9896 4.2592 -1.9942 0.9780
2.4853 4.3135 -1.9077 0.9789
2.0262 4.3785 -1.8489 0.9795
1.6277 4.5421 -1.8490 0.9795
1.2163 4.6695 -1.8492 0.9795
0.7951 4.7598 -1.8493 0.9795
-0.0632 4.8261 -1.8496 0.9795
-1.3388 4.6384 -1.8501 0.9795
-2.1418 4.3274 -1.8504 0.9795
-4.3859 2.8448 -2.0034 0.9779
-4.6223 2.4425 -2.0034 0.9779
-4.9830 1.5825 -2.0036 0.9779
-5.1044 1.1319 -2.0036 0.9779
-5.1851 0.6721 -2.0036 0.9779
-5.2244 0.2071 -2.0037 0.9779
-5.0928 -1.1832 -2.0036 0.9779
-4.9668 -1.6327 -2.0036 0.9779
-4.8013 -2.0690 -2.0035 0.9779
-4.5975 -2.4889 -2.0034 0.9779
-3.0712 -4.2290 -2.0029 0.9779
-2.2707 -4.7066 -2.0026 0.9779
-1.8418 -4.8900 -2.0025 0.9779
-0.9436 -5.1386 -2.0021 0.9779
-0.0157 -5.2236 -2.0018 0.9779
0.4501 -5.2038 -2.0016 0.9779
0.9124 -5.1425 -2.0015 0.9779
1.8111 -4.8978 -2.0011 0.9779
2.2405 -4.7164 -2.0010 0.9779
3.0423 -4.2428 -2.0007 0.9779
3.7472 -3.6343 -2.0005 0.9779
4.0562 -3.2855 -2.0003 0.9779
4.5749 -2.5124 -2.0002 0.9779
4.9481 -1.6596 -2.0000 0.9779
5.0763 -1.2117 -2.0000 0.9779
5.2107 -0.2906 -1.9999 0.9779
5.2158 0.1752 -1.9999 0.9779
5.1018 1.0991 -2.0000 0.9779
4.9836 1.5497 -2.0000 0.9779
4.3960 2.8139 -2.0002 0.9779
4.1278 3.1949 -2.0003 0.9779
3.8266 3.5505 -2.0004 0.9779
3.4949 3.8778 -2.0005 0.9779
2.6751 4.3155 -1.9457 0.9785
2.1677 4.3141 -1.8502 0.9795
1.7731 4.4872 -1.8490 0.9795
0.0922 4.8255 -1.8496 0.9795
-1.1887 4.6789 -1.8500 0.9795
-2.0013 4.3940 -1.8503 0.9795
-2.3854 4.1984 -1.8504 0.9795
-2.8023 4.0440 -1.8854 0.9791
-3.3317 3.9935 -1.9930 0.9780
-4.0085 3.3552 -2.0032 0.9779
-4.2920 2.9845 -2.0033 0.9779
-5.0653 1.2956 -2.0036 0.9779
-5.1608 0.8387 -2.0036 0.9779
-5.2150 0.3751 -2.0037 0.9779
-5.2277 -0.0914 -2.0037 0.9779
-5.0169 -1.4719 -2.0036 0.9779
-4.8655 -1.9134 -2.0035 0.9779
-4.4478 -2.7471 -2.0034 0.9779
-4.1849 -3.1327 -2.0033 0.9779
-3.8887 -3.4932 -2.0032 0.9779
-3.2058 -4.1280 -2.0029 0.9779
-1.9983 -4.8283 -2.0025 0.9779
-1.5596 -4.9869 -2.0024 0.9779
-0.1839 -5.2206 -2.0019 0.9779
0.2824 -5.2158 -2.0017 0.9779
0.7463 -5.1694 -2.0015 0.9779
2.5059 -4.5807 -2.0009 0.9779
3.2794 -4.0620 -2.0006 0.9779
3.6283 -3.7532 -2.0005 0.9779
4.4917 -2.6585 -2.0002 0.9779
4.8922 -1.8181 -2.0000 0.9779
5.1371 -0.9200 -2.0000 0.9779
5.2188 0.0072 -1.9999 0.9779
5.1973 0.4726 -1.9999 0.9779
5.0308 1.3885 -2.0000 0.9779
4.8871 1.8316 -2.0000 0.9779
4.7044 2.2602 -2.0001 0.9779
3.6179 3.7632 -2.0005 0.9779
3.2631 4.0649 -1.9976 0.9779
2.8726 4.3172 -1.9872 0.9780
2.3433 4.3117 -1.8806 0.9792
1.9166 4.4277 -1.8489 0.9795
1.5142 4.5813 -1.8490 0.9795
1.0997 4.6985 -1.8492 0.9795
-2.2034 -4.3688 -2.0026 0.9791
-1.8048 -4.5476 -2.0024 0.9791
-0.9681 -4.7952 -2.0021 0.9791
-0.5366 -4.8620 -2.0020 0.9791
0.3357 -4.8793 -2.0017 0.9791
1.1970 -4.7413 -2.0014 0.9791
2.0199 -4.4526 -2.0011 0.9791
2.4088 -4.2544 -2.0009 0.9791
2.7784 -4.0223 -2.0008 0.9791
3.4484 -3.4644 -2.0006 0.9791
3.7434 -3.1429 -2.0005 0.9791
4.0086 -2.7964 -2.0004 0.9791
4.2418 -2.4276 -2.0003 0.9791
4.4412 -2.0396 -2.0002 0.9791
4.7327 -1.2181 -2.0001 0.9791
4.8224 -0.7912 -2.0001 0.9791
4.8737 -0.3579 -2.0000 0.9791
4.8862 0.0781 -2.0000 0.9791
4.8597 0.5136 -2.0000 0.9791
4.5507 1.7818 -2.0002 0.9791
4.3738 2.1806 -2.0002 0.9791
3.0042 3.8564 -2.0007 0.9791
2.6429 4.1007 -1.9967 0.9791
2.2502 4.2885 -1.9821 0.9793
1.7796 4.2817 -1.8977 0.9802
0.9653 4.4140 -1.8492 0.9807
-0.2376 4.5131 -1.8497 0.9807
-1.4241 4.2903 -1.8501 0.9807
-2.2213 4.0748 -1.8994 0.9801
-3.0620 3.8044 -1.9987 0.9791
-3.3963 3.5237 -2.0030 0.9791
-3.6972 3.2070 -2.0031 0.9791
-4.7204 1.2963 -2.0035 0.9791
-2.1712 0.3922 -0.9030 0.9905
-1.9579 0.1755 -0.8045 0.9915
-2.1703 -0.3915 -0.9026 0.9905
-4.7207 -1.2953 -2.0035 0.9791
-3.3971 -3.5230 -2.0030 0.9791
-3.0692 -3.8117 -2.0029 0.9791
-2.7169 -4.0700 -2.0028 0.9791
-2.3429 -4.2957 -2.0026 0.9791
-1.9504 -4.4873 -2.0025 0.9791
-1.5423 -4.6430 -2.0023 0.9791
-1.1220 -4.7617 -2.0022 0.9791
0.1784 -4.8877 -2.0017 0.9791
1.4655 -4.6650 -2.0013 0.9791
2.2706 -4.3298 -2.0010 0.9791
2.6475 -4.1098 -2.0008 0.9791
3.0033 -3.8571 -2.0007 0.9791
3.3351 -3.5737 -2.0006 0.9791
3.9165 -2.9240 -2.0004 0.9791
4.1615 -2.5630 -2.0003 0.9791
4.5503 -1.7828 -2.0002 0.9791
4.6910 -1.3698 -2.0001 0.9791
4.7944 -0.9460 -2.0001 0.9791
4.8596 -0.5147 -2.0001 0.9791
4.8861 -0.0792 -2.0000 0.9791
4.8737 0.3568 -2.0000 0.9791
4.7329 1.2170 -2.0001 0.9791
4.4417 2.0386 -2.0002 0.9791
4.0092 2.7955 -2.0004 0.9791
3.7441 3.1420 -2.0004 0.9791
3.4491 3.4636 -2.0006 0.9791
2.7756 4.0164 -1.9982 0.9791
2.4017 4.2396 -1.9942 0.9792
1.9448 4.2844 -1.9257 0.9799
1.1069 4.3805 -1.8492 0.9807
0.7119 4.4621 -1.8493 0.9807
0.3112 4.5082 -1.8495 0.9807
-0.0921 4.5183 -1.8496 0.9807
-0.4948 4.4925 -1.8498 0.9807
-0.8935 4.4308 -1.8499 0.9807
-1.6667 4.2022 -1.8502 0.9807
-2.0610 4.0888 -1.8740 0.9804
-2.5166 4.0483 -1.9509 0.9796
-3.2787 3.6286 -2.0016 0.9791
-4.1258 2.6335 -2.0033 0.9791
-4.5284 1.8588 -2.0034 0.9791
-4.7868 1.0248 -2.0035 0.9791
-1.9452 -0.1110 -0.7974 0.9916
-4.6391 -1.5625 -2.0035 0.9791
-4.4811 -1.9700 -2.0034 0.9791
-4.2874 -2.3617 -2.0033 0.9791
-4.0595 -2.7345 -2.0032 0.9791
-3.7993 -3.0855 -2.0032 0.9791
-3.5088 -3.4119 -2.0031 0.9791
-3.1904 -3.7110 -2.0029 0.9791
-2.4801 -4.2182 -2.0027 0.9791
-2.0939 -4.4223 -2.0025 0.9791
-1.6910 -4.5910 -2.0024 0.9791
-0.4153 -4.8738 -2.0019 0.9791
0.0210 -4.8910 -2.0018 0.9791
0.4570 -4.8693 -2.0016 0.9791
0.8894 -4.8087 -2.0015 0.9791
1.3146 -4.7099 -2.0013 0.9791
1.7293 -4.5736 -2.0012 0.9791
2.1301 -4.4008 -2.0010 0.9791
3.2184 -3.6792 -2.0006 0.9791
3.5335 -3.3774 -2.0005 0.9791
4.7615 -1.0999 -2.0001 0.9791
4.8811 -0.2365 -2.0000 0.9791
4.8455 0.6344 -2.0001 0.9791
4.6558 1.4852 -2.0001 0.9791
4.3182 2.2888 -2.0002 0.9791
3.8432 3.0198 -2.0004 0.9791
3.5588 3.3507 -2.0005 0.9791
3.2460 3.6549 -2.0006 0.9791
2.9058 3.9280 -1.9997 0.9791
1.6550 4.2794 -1.8779 0.9804
0.8552 4.4368 -1.8493 0.9807
0.0534 4.5188 -1.8496 0.9807
-0.3499 4.5059 -1.8497 0.9807
-0.7504 4.4571 -1.8499 0.9807
-1.5305 4.2535 -1.8501 0.9807
-2.8066 3.9877 -1.9958 0.9791
-4.2695 2.3938 -2.0033 0.9791
-4.7513 1.1784 -2.0035 0.9791
-1.9492 0.1259 -0.7994 0.9916
-1.9219 -0.0477 -0.7868 0.9917
-1.9557 -0.2241 -0.8056 0.9915
-4.7944 -0.9888 -2.0035 0.9791
-4.6870 -1.4124 -2.0035 0.9791
-4.5423 -1.8247 -2.0034 0.9791
-4.3613 -2.2224 -2.0034 0.9791
-4.1455 -2.6024 -2.0033 0.9791
-3.6169 -3.2972 -2.0031 0.9791
-3.3083 -3.6064 -2.0030 0.9791
-1.8380 -4.5343 -2.0025 0.9791
-0.5720 -4.8580 -2.0020 0.9791
0.3000 -4.8816 -2.0017 0.9791
0.7341 -4.8350 -2.0015 0.9791
2.3777 -4.2719 -2.0009 0.9791
3.4230 -3.4895 -2.0006 0.9791
3.7204 -3.1701 -2.0005 0.9791
3.9881 -2.8256 -2.0004 0.9791
4.2240 -2.4585 -2.0003 0.9791
4.4262 -2.0720 -2.0002 0.9791
4.8709 -0.3935 -2.0000 0.9791
4.8866 0.0425 -2.0000 0.9791
4.7012 1.3347 -2.0001 0.9791
4.5636 1.7485 -2.0002 0.9791
4.3896 2.1486 -2.0002 0.9791
4.1806 2.5316 -2.0003 0.9791
3.6647 3.2343 -2.0005 0.9791
3.3619 3.5484 -2.0006 0.9791
3.0322 3.8343 -2.0007 0.9791
2.2905 4.2889 -1.9900 0.9792
1.8166 4.2823 -1.9038 0.9801
0.9975 4.4068 -1.8492 0.9807
0.1988 4.5146 -1.8495 0.9807
-0.2046 4.5147 -1.8497 0.9807
-2.1846 4.0781 -1.8934 0.9802
-2.6505 4.0359 -1.9761 0.9793
-3.0336 3.8260 -1.9984 0.9791
-3.3703 3.5482 -2.0029 0.9791
-4.3993 2.1463 -2.0034 0.9791
-4.7108 1.3307 -2.0035 0.9791
-1.9579 0.1899 -0.8051 0.9915
-4.7301 -1.2608 -2.0035 0.9791
-4.4306 -2.0809 -2.0034 0.9791
-3.4228 -3.4981 -2.0030 0.9791
-3.0970 -3.7892 -2.0029 0.9791
-2.7465 -4.0500 -2.0028 0.9791
-2.3742 -4.2785 -2.0026 0.9791
0.5781 -4.8563 -2.0016 0.9791
1.4314 -4.6756 -2.0013 0.9791
1.8426 -4.5290 -2.0011 0.9791
2.2390 -4.3463 -2.0010 0.9791
2.9751 -3.8789 -2.0007 0.9791
4.1427 -2.5933 -2.0003 0.9791
4.5372 -1.8160 -2.0002 0.9791
4.6809 -1.4041 -2.0001 0.9791
4.8558 -0.5501 -2.0001 0.9791
4.8854 -0.1149 -2.0000 0.9791
4.8762 0.3213 -2.0000 0.9791
4.2599 2.3956 -2.0003 0.9791
3.4743 3.4383 -2.0005 0.9791
2.8054 3.9968 -1.9985 0.9791
1.9829 4.2849 -1.9324 0.9798
1.1389 4.3723 -1.8492 0.9807
0.7445 4.4568 -1.8493 0.9807
0.3441 4.5058 -1.8495 0.9807
-0.8611 4.4371 -1.8499 0.9807
-1.2535 4.3430 -1.8500 0.9807
-3.2516 3.6518 -2.0012 0.9791
-3.8524 3.0190 -2.0032 0.9791
-4.1065 2.6636 -2.0033 0.9791
-4.6655 1.4817 -2.0035 0.9791
-4.7792 1.0597 -2.0035 0.9791
-1.9407 -0.0965 -0.7953 0.9916
-4.4954 -1.9372 -2.0034 0.9791
-4.0794 -2.7048 -2.0033 0.9791
-3.8218 -3.0577 -2.0032 0.9791
-3.5337 -3.3862 -2.0031 0.9791
-3.2174 -3.6876 -2.0029 0.9791
-2.5108 -4.2000 -2.0027 0.9791
-2.1261 -4.4069 -2.0026 0.9791
-1.7245 -4.5786 -2.0024 0.9791
-1.3092 -4.7138 -2.0023 0.9791
-0.0147 -4.8911 -2.0018 0.9791
0.4215 -4.8725 -2.0016 0.9791
1.2802 -4.7194 -2.0013 0.9791
1.6958 -4.5861 -2.0012 0.9791
2.0979 -4.4163 -2.0010 0.9791
2.4832 -4.2113 -2.0009 0.9791
3.7981 -3.0765 -2.0004 0.9791
4.0571 -2.7254 -2.0003 0.9791
4.6333 -1.5540 -2.0001 0.9791
4.8792 -0.2721 -2.0000 0.9791
4.8500 0.5990 -2.0001 0.9791
4.6666 1.4511 -2.0001 0.9791
4.5187 1.8616 -2.0002 0.9791
4.1164 2.6349 -2.0003 0.9791
3.8652 2.9916 -2.0004 0.9791
3.2726 3.6311 -2.0006 0.9791
2.9349 3.9074 -2.0001 0.9791
1.2790 4.3332 -1.8491 0.9807
0.8875 4.4304 -1.8493 0.9807
0.0864 4.5183 -1.8496 0.9807
-0.3169 4.5083 -1.8497 0.9807
-0.7178 4.4624 -1.8498 0.9807
-2.3107 4.0669 -1.9144 0.9800
-2.7770 4.0074 -1.9955 0.9791
-3.1298 3.7515 -1.9996 0.9791
-3.4578 3.4635 -2.0030 0.9791
-4.0185 2.7943 -2.0032 0.9791
-4.6154 1.6311 -2.0034 0.9791
-4.7425 1.2131 -2.0035 0.9791
-2.0578 0.3344 -0.8533 0.9910
-1.9526 0.1405 -0.8012 0.9916
-1.9153 -0.0335 -0.7840 0.9918
-4.5555 -1.7915 -2.0034 0.9791
-4.3774 -2.1906 -2.0034 0.9791
-4.1644 -2.5721 -2.0033 0.9791
-3.0016 -3.8651 -2.0029 0.9791
-2.2669 -4.3362 -2.0026 0.9791
-1.8711 -4.5208 -2.0025 0.9791
-0.1722 -4.8882 -2.0019 0.9791
0.6988 -4.8403 -2.0015 0.9791
1.5474 -4.6384 -2.0012 0.9791
1.9547 -4.4816 -2.0011 0.9791
2.7194 -4.0625 -2.0008 0.9791
3.6971 -3.1972 -2.0005 0.9791
3.9673 -2.8546 -2.0004 0.9791
4.2059 -2.4893 -2.0003 0.9791
4.5809 -1.7024 -2.0002 0.9791
4.7144 -1.2871 -2.0001 0.9791
4.8679 -0.4291 -2.0000 0.9791
4.8079 0.8748 -2.0001 0.9791
4.7108 1.3001 -2.0001 0.9791
4.5762 1.7151 -2.0002 0.9791
4.4052 2.1164 -2.0002 0.9791
4.1990 2.5010 -2.0003 0.9791
3.6883 3.2075 -2.0005 0.9791
1.4178 4.2897 -1.8491 0.9807
-2.0691 -4.1027 -2.0025 0.9802
-1.6949 -4.2706 -2.0024 0.9802
-1.3072 -4.4044 -2.0023 0.9802
-0.5039 -4.5659 -2.0020 0.9802
0.3152 -4.5821 -2.0017 0.9802
0.7226 -4.5354 -2.0015 0.9802
1.1241 -4.4526 -2.0014 0.9802
1.5166 -4.3343 -2.0013 0.9802
1.8969 -4.1815 -2.0011 0.9802
2.6093 -3.7775 -2.0009 0.9802
3.7646 -2.6262 -2.0004 0.9802
3.9837 -2.2799 -2.0004 0.9802
4.5640 0.4823 -2.0002 0.9802
4.2738 1.6733 -2.0003 0.9802
4.1076 2.0479 -2.0003 0.9802
3.9088 2.4061 -2.0004 0.9802
3.6788 2.7452 -2.0005 0.9802
3.4195 3.0625 -2.0006 0.9802
3.1329 3.3554 -2.0007 0.9802
2.8213 3.6216 -2.0008 0.9802
2.4870 3.8587 -2.0007 0.9802
1.7562 4.2253 -1.9942 0.9802
1.3368 4.2521 -1.9426 0.9807
0.5357 4.2287 -1.8577 0.9816
-0.2231 4.2383 -1.8497 0.9817
-0.9770 4.1502 -1.8582 0.9816
-1.3687 4.1233 -1.8934 0.9812
-2.1916 4.0204 -1.9956 0.9802
-2.5456 3.8152 -1.9989 0.9802
-2.8811 3.5797 -2.0026 0.9801
-3.1894 3.3090 -2.0029 0.9801
-3.7268 2.6900 -2.0031 0.9801
-3.9520 2.3471 -2.0032 0.9801
-1.5985 0.5968 -0.7436 0.9926
-1.5222 0.0002 -0.6634 0.9934
-1.5278 -0.1366 -0.6685 0.9933
-1.5002 -0.2706 -0.6643 0.9934
-1.5602 -0.4281 -0.7051 0.9930
-1.5984 -0.5963 -0.7435 0.9926
-4.1462 -1.9844 -2.0033 0.9801
-3.4726 -3.0108 -2.0030 0.9801
-3.1901 -3.3083 -2.0029 0.9801
-2.8822 -3.5794 -2.0028 0.9801
-2.5513 -3.8220 -2.0027 0.9801
-2.2002 -4.0340 -2.0026 0.9801
-1.8315 -4.2139 -2.0025 0.9802
