ply
format ascii 1.0
element vertex 1594
property float32 x
property float32 y
property float32 z
property float32 I
end_header
4.6973 -6.1745 -2.0087 0.9685
5.7219 -5.2428 -2.0093 0.9684
6.1676 -4.7117 -2.0096 0.9684
6.5639 -4.1428 -2.0097 0.9684
6.9078 -3.5407 -2.0098 0.9684
7.4271 -2.2562 -2.0098 0.9684
7.7087 -0.8998 -2.0095 0.9684
7.7574 -0.2083 -2.0092 0.9684
7.7438 0.4848 -2.0089 0.9684
7.6683 1.1737 -2.0086 0.9685
7.0785 3.1607 -2.0072 0.9685
6.7663 3.7787 -2.0066 0.9685
5.0988 5.0179 -1.8522 0.9709
4.6290 5.4510 -1.8516 0.9709
1.8160 6.9034 -1.8482 0.9709
0.5594 7.1112 -1.8469 0.9710
-0.0774 7.1302 -1.8463 0.9710
-0.7131 7.0926 -1.8456 0.9710
-1.9614 6.8486 -1.8445 0.9710
-2.5641 6.6444 -1.8440 0.9710
-3.1460 6.3875 -1.8435 0.9710
-3.7027 6.0798 -1.8431 0.9710
-4.2296 5.7240 -1.8428 0.9710
-4.7228 5.3228 -1.8424 0.9710
-5.5923 4.3973 -1.8420 0.9710
-6.3987 4.1647 -1.9768 0.9689
-7.0960 2.9856 -1.9933 0.9687
-7.3343 2.3405 -1.9933 0.9687
-7.5143 1.6767 -1.9934 0.9687
-7.6345 0.9995 -1.9936 0.9687
-7.6942 0.3142 -1.9938 0.9687
-7.6926 -0.3737 -1.9941 0.9687
-7.6299 -1.0590 -1.9945 0.9687
-7.3233 -2.3995 -1.9953 0.9687
-6.4315 -4.2571 -1.9970 0.9686
-3.3612 -6.9596 -2.0011 0.9686
-0.7148 -7.7070 -2.0040 0.9685
-0.0241 -7.7427 -2.0047 0.9685
1.3536 -7.6287 -2.0060 0.9685
3.9413 -6.6801 -2.0082 0.9685
5.0680 -5.8752 -2.0090 0.9684
5.5730 -5.4003 -2.0093 0.9684
6.0333 -4.8820 -2.0095 0.9684
6.4455 -4.3245 -2.0097 0.9684
6.8061 -3.7322 -2.0098 0.9684
7.6808 -1.1149 -2.0095 0.9684
7.5807 1.6419 -2.0083 0.9685
7.1647 2.9620 -2.0073 0.9685
6.4971 4.1713 -1.9991 0.9686
5.6535 4.3886 -1.8530 0.9709
4.7800 5.3200 -1.8518 0.9709
4.2846 5.7234 -1.8511 0.9709
3.7554 6.0807 -1.8505 0.9709
3.1966 6.3893 -1.8498 0.9709
1.3885 7.0001 -1.8478 0.9709
0.1219 7.1304 -1.8465 0.9710
-0.5148 7.1104 -1.8458 0.9710
-1.1469 7.0339 -1.8452 0.9710
-2.3777 6.7140 -1.8442 0.9710
-3.5316 6.1813 -1.8433 0.9710
-4.0683 5.8403 -1.8429 0.9710
-4.5725 5.4529 -1.8425 0.9710
-5.4675 4.5520 -1.8420 0.9710
-7.0099 3.1827 -1.9933 0.9687
-7.4644 1.8859 -1.9934 0.9687
-7.6034 1.2123 -1.9935 0.9687
-7.6821 0.5290 -1.9937 0.9687
-7.6997 -0.1587 -1.9940 0.9687
-7.6561 -0.8453 -1.9943 0.9687
-7.3869 -2.1939 -1.9952 0.9687
-7.1634 -2.8450 -1.9957 0.9687
-6.8828 -3.4739 -1.9962 0.9686
-6.5472 -4.0754 -1.9968 0.9686
-6.1593 -4.6449 -1.9974 0.9686
-4.7138 -6.1167 -1.9994 0.9686
-3.5539 -6.8622 -2.0009 0.9686
-2.9284 -7.1547 -2.0016 0.9686
-2.2790 -7.3902 -2.0024 0.9686
-1.6111 -7.5668 -2.0031 0.9685
-0.9297 -7.6832 -2.0038 0.9685
-0.2404 -7.7382 -2.0045 0.9685
1.8197 -7.5328 -2.0065 0.9685
2.4854 -7.3424 -2.0070 0.9685
3.1315 -7.0932 -2.0076 0.9685
4.3446 -6.4265 -2.0085 0.9685
4.9017 -6.0142 -2.0089 0.9685
5.8944 -5.0485 -2.0094 0.9684
6.3221 -4.5027 -2.0096 0.9684
7.2896 -2.6676 -2.0098 0.9684
7.6469 -1.3290 -2.0096 0.9684
7.7342 -0.6412 -2.0094 0.9684
7.6241 1.4296 -2.0084 0.9685
7.4645 2.1038 -2.0080 0.9685
4.6104 4.6409 -1.8519 0.9732
4.1765 5.0322 -1.8513 0.9732
3.4406 4.9928 -1.7165 0.9751
3.2133 5.6908 -1.8501 0.9732
2.1490 6.1672 -1.8489 0.9732
1.5895 6.3323 -1.8482 0.9732
1.0177 6.4467 -1.8476 0.9732
-0.1444 6.5208 -1.8464 0.9732
-0.7256 6.4800 -1.8459 0.9733
-1.3006 6.3875 -1.8454 0.9733
-2.4141 6.0514 -1.8444 0.9733
-2.9439 5.8105 -1.8440 0.9733
-3.4500 5.5235 -1.8436 0.9733
-4.3755 4.8206 -1.8430 0.9733
-4.7876 4.4103 -1.8428 0.9733
-5.9435 3.7735 -1.9930 0.9712
-6.2596 3.2296 -1.9940 0.9711
-6.5228 2.6581 -1.9940 0.9711
-6.8919 1.4563 -1.9941 0.9711
-6.9949 0.8355 -1.9943 0.9711
-7.0423 0.2079 -1.9945 0.9711
-7.0337 -0.4214 -1.9948 0.9711
-6.1677 -3.4228 -1.9969 0.9711
-5.0451 -4.9386 -1.9986 0.9711
-4.5857 -5.3708 -1.9993 0.9711
-2.4200 -6.6447 -2.0019 0.9710
-1.8179 -6.8364 -2.0026 0.9710
-1.2010 -6.9737 -2.0033 0.9710
-0.5740 -7.0553 -2.0039 0.9710
0.6898 -7.0493 -2.0052 0.9710
1.9330 -6.8183 -2.0063 0.9710
3.1159 -6.3691 -2.0073 0.9710
3.6726 -6.0669 -2.0077 0.9709
4.2001 -5.7160 -2.0080 0.9709
4.6942 -5.3192 -2.0084 0.9709
5.9374 -3.8870 -2.0090 0.9709
6.7552 -2.1756 -2.0091 0.9709
6.9221 -1.5640 -2.0090 0.9709
6.9138 1.5794 -2.0077 0.9709
6.2441 3.3520 -2.0063 0.9710
5.9080 3.8880 -2.0022 0.9710
5.1696 4.1074 -1.8692 0.9729
4.7387 4.5108 -1.8521 0.9732
4.3159 4.9141 -1.8515 0.9732
3.6570 5.0018 -1.7541 0.9746
0.6199 6.4956 -1.8472 0.9732
0.0378 6.5229 -1.8466 0.9732
-0.5443 6.4983 -1.8461 0.9733
-1.6899 6.2945 -1.8450 0.9733
-2.2443 6.1170 -1.8445 0.9733
-3.2945 5.6181 -1.8437 0.9733
-3.7820 5.3006 -1.8434 0.9733
-5.1313 4.1749 -1.8727 0.9729
-5.8280 3.9328 -1.9904 0.9712
-6.1670 3.4032 -1.9940 0.9711
-6.8484 1.6482 -1.9941 0.9711
-7.0335 0.4046 -1.9944 0.9711
-6.8926 -1.4736 -1.9954 0.9711
-5.9471 -3.7957 -1.9973 0.9711
-5.5862 -4.3125 -1.9978 0.9711
-5.1806 -4.7953 -1.9984 0.9711
-4.2483 -5.6434 -1.9997 0.9711
-2.6043 -6.5738 -2.0017 0.9710
-2.0080 -6.7822 -2.0024 0.9710
-1.3952 -6.9367 -2.0031 0.9710
-0.7708 -7.0358 -2.0037 0.9710
1.7417 -6.8690 -2.0061 0.9710
2.3483 -6.6879 -2.0066 0.9710
3.5015 -6.1668 -2.0075 0.9709
4.5436 -5.4480 -2.0083 0.9709
5.0124 -5.0215 -2.0086 0.9709
5.8264 -4.0513 -2.0090 0.9709
6.4543 -2.9512 -2.0091 0.9709
6.9556 1.3858 -2.0078 0.9709
6.0237 3.7272 -2.0053 0.9710
5.4747 4.1057 -1.9373 0.9720
4.8633 4.3771 -1.8523 0.9732
4.0052 5.1686 -1.8511 0.9732
3.0206 5.7944 -1.8499 0.9732
0.8012 6.4764 -1.8474 0.9732
-0.3626 6.5116 -1.8462 0.9733
-2.0727 6.1778 -1.8447 0.9733
-3.1365 5.7083 -1.8438 0.9733
-3.6327 5.4045 -1.8435 0.9733
-4.0998 5.0579 -1.8432 0.9733
-5.7083 4.0887 -1.9878 0.9712
-6.0696 3.5742 -1.9940 0.9711
-6.3642 3.0182 -1.9940 0.9711
-6.6081 2.4382 -1.9940 0.9711
-6.9370 1.2248 -1.9942 0.9711
-7.0457 -0.0280 -1.9946 0.9711
-7.0161 -0.6567 -1.9949 0.9711
-6.9307 -1.2804 -1.9952 0.9711
-6.5954 -2.4932 -1.9961 0.9711
-6.3482 -3.0725 -1.9966 0.9711
-6.0502 -3.6278 -1.9971 0.9711
-5.7040 -4.1544 -1.9976 0.9711
-5.3120 -4.6482 -1.9982 0.9711
-3.8948 -5.8949 -2.0002 0.9711
-2.1964 -6.7228 -2.0022 0.9710
-1.5882 -6.8943 -2.0028 0.9710
-0.3375 -7.0714 -2.0041 0.9710
0.2950 -7.0755 -2.0048 0.9710
0.9255 -7.0231 -2.0054 0.9710
2.7549 -6.5323 -2.0070 0.9710
3.3276 -6.2618 -2.0074 0.9710
3.8739 -5.9410 -2.0078 0.9709
4.3894 -5.5726 -2.0082 0.9709
5.3116 -4.7048 -2.0087 0.9709
6.0643 -3.6862 -2.0090 0.9709
6.3693 -3.1304 -2.0091 0.9709
6.6233 -2.5495 -2.0091 0.9709
6.8242 -1.9482 -2.0091 0.9709
7.0946 -0.0710 -2.0085 0.9709
6.9920 1.1910 -2.0079 0.9709
6.8565 1.8099 -2.0075 0.9710
4.9842 4.2399 -1.8525 0.9732
4.5845 4.6663 -1.8519 0.9732
4.1485 5.0552 -1.8513 0.9732
3.4077 5.0042 -1.7139 0.9751
2.1147 6.1789 -1.8488 0.9732
0.9819 6.4521 -1.8476 0.9732
-0.7615 6.4757 -1.8459 0.9733
-1.8995 6.2337 -1.8448 0.9733
-2.4476 6.0379 -1.8444 0.9733
-2.9760 5.7940 -1.8440 0.9733
-3.4805 5.5042 -1.8436 0.9733
-3.9571 5.1707 -1.8433 0.9733
-4.4021 4.7962 -1.8430 0.9733
-4.8120 4.3837 -1.8427 0.9733
-5.4831 4.1639 -1.9491 0.9718
-6.2774 3.1948 -1.9940 0.9711
-6.5374 2.6219 -1.9940 0.9711
-6.9995 0.7967 -1.9943 0.9711
-7.0434 0.1689 -1.9945 0.9711
-7.0314 -0.4604 -1.9948 0.9711
-6.9634 -1.0863 -1.9951 0.9711
-6.8399 -1.7037 -1.9955 0.9711
-6.4310 -2.8938 -1.9964 0.9711
-6.1487 -3.4571 -1.9969 0.9711
-5.8173 -3.9931 -1.9975 0.9711
-5.4393 -4.4976 -1.9980 0.9711
-5.0177 -4.9666 -1.9987 0.9711
-4.5559 -5.3963 -1.9993 0.9711
-4.0575 -5.7832 -1.9999 0.9711
-2.9668 -6.4167 -2.0013 0.9710
-1.7800 -6.8465 -2.0026 0.9710
0.7289 -7.0455 -2.0052 0.9710
1.9709 -6.8075 -2.0063 0.9710
3.1512 -6.3518 -2.0073 0.9710
4.2318 -5.6927 -2.0081 0.9709
5.5908 -4.3701 -2.0089 0.9709
5.9589 -3.8540 -2.0090 0.9709
6.5495 -2.7335 -2.0091 0.9709
6.7672 -2.1381 -2.0091 0.9709
6.9306 -1.5255 -2.0090 0.9709
7.0386 -0.9009 -2.0088 0.9709
7.0901 -0.2691 -2.0086 0.9709
7.0230 0.9953 -2.0080 0.9709
6.9048 1.6178 -2.0076 0.9709
6.7315 2.2270 -2.0072 0.9710
6.2253 3.3866 -2.0062 0.9710
5.8845 3.9195 -2.0016 0.9710
4.2885 4.9379 -1.8515 0.9732
3.6208 5.0104 -1.7500 0.9746
2.8245 5.8916 -1.8496 0.9732
2.2867 6.1181 -1.8490 0.9732
1.7310 6.2956 -1.8484 0.9732
1.1619 6.4228 -1.8478 0.9732
0.5839 6.4988 -1.8472 0.9732
0.0016 6.5229 -1.8466 0.9732
-0.5804 6.4950 -1.8460 0.9733
-1.7248 6.2849 -1.8450 0.9733
-3.8113 5.2795 -1.8434 0.9733
-4.2666 4.9175 -1.8431 0.9733
-4.6878 4.5165 -1.8428 0.9733
-5.8512 3.9014 -1.9909 0.9712
-6.1858 3.3690 -1.9940 0.9711
-6.4616 2.8034 -1.9940 0.9711
-6.6861 2.2156 -1.9940 0.9711
-7.0357 0.3655 -1.9944 0.9711
-6.9906 -0.8913 -1.9950 0.9711
-6.7234 -2.1207 -1.9958 0.9711
-6.2424 -3.2837 -1.9968 0.9711
-5.5623 -4.3435 -1.9979 0.9711
-5.1540 -4.8240 -1.9985 0.9711
-3.6957 -6.0227 -2.0004 0.9711
-3.1445 -6.3307 -2.0011 0.9710
-1.3567 -6.9445 -2.0031 0.9710
-0.7318 -7.0401 -2.0037 0.9710
0.5317 -7.0625 -2.0050 0.9710
2.3854 -6.6749 -2.0067 0.9710
2.9723 -6.4369 -2.0071 0.9710
4.0709 -5.8084 -2.0080 0.9709
4.5738 -5.4228 -2.0083 0.9709
5.0402 -4.9937 -2.0086 0.9709
5.4663 -4.5245 -2.0088 0.9709
6.7048 -2.3263 -2.0091 0.9709
6.8854 -1.7186 -2.0090 0.9709
7.0484 0.7988 -2.0081 0.9709
6.5810 2.6356 -2.0069 0.9710
6.3180 3.2116 -2.0064 0.9710
5.4124 4.1061 -1.9232 0.9722
4.4252 4.8166 -1.8517 0.9732
3.9764 5.1907 -1.8511 0.9732
3.3665 5.3182 -1.7818 0.9742
2.4570 6.0525 -1.8492 0.9732
-0.3987 6.5093 -1.8462 0.9733
-2.1069 6.1661 -1.8447 0.9733
-4.1278 5.0350 -1.8431 0.9733
-5.7324 4.0580 -1.9883 0.9712
-6.0893 3.5405 -1.9940 0.9711
-6.6216 2.4015 -1.9940 0.9711
-6.8097 1.8011 -1.9941 0.9711
-6.9437 1.1863 -1.9942 0.9711
-7.0455 -0.0670 -1.9946 0.9711
-7.0124 -0.6956 -1.9949 0.9711
-6.7796 -1.9319 -1.9957 0.9711
-6.0301 -3.6614 -1.9971 0.9711
-4.8492 -5.1324 -1.9989 0.9711
-2.7506 -6.5133 -2.0015 0.9710
-1.5500 -6.9031 -2.0029 0.9710
-0.9281 -7.0162 -2.0035 0.9710
-0.2983 -7.0733 -2.0042 0.9710
0.3342 -7.0739 -2.0048 0.9710
0.9645 -7.0180 -2.0054 0.9710
1.5873 -6.9058 -2.0060 0.9710
3.9069 -5.9195 -2.0078 0.9709
4.4203 -5.5482 -2.0082 0.9709
5.3377 -4.6752 -2.0087 0.9709
5.7341 -4.1806 -2.0089 0.9709
6.9776 -1.2926 -2.0089 0.9709
7.0683 0.6016 -2.0082 0.9709
6.9852 1.2298 -2.0079 0.9709
6.6526 2.4509 -2.0070 0.9710
6.4057 3.0341 -2.0066 0.9710
6.1078 3.5927 -2.0060 0.9710
4.5585 4.6916 -1.8518 0.9732
4.1203 5.0781 -1.8512 0.9732
3.3832 5.0280 -1.7156 0.9751
3.1498 5.7258 -1.8500 0.9732
2.0804 6.1904 -1.8488 0.9732
1.5191 6.3493 -1.8482 0.9732
0.9461 6.4574 -1.8475 0.9732
-0.2168 6.5185 -1.8464 0.9733
-0.7974 6.4713 -1.8458 0.9733
-1.9340 6.2230 -1.8448 0.9733
-3.9857 5.1486 -1.8432 0.9733
-4.4286 4.7717 -1.8430 0.9733
-5.5441 4.1619 -1.9625 0.9716
-6.2950 3.1599 -1.9940 0.9711
-7.0443 0.1298 -1.9945 0.9711
-6.8305 -1.7416 -1.9955 0.9711
-6.6492 -2.3447 -1.9960 0.9711
-6.1295 -3.4912 -1.9969 0.9711
-5.4144 -4.5278 -1.9981 0.9711
-4.9902 -4.9945 -1.9987 0.9711
-4.5260 -5.4216 -1.9993 0.9711
-1.7420 -6.8564 -2.0027 0.9710
-0.4957 -7.0615 -2.0040 0.9710
0.1365 -7.0798 -2.0046 0.9710
3.1864 -6.3343 -2.0073 0.9710
3.7398 -6.0259 -2.0077 0.9709
4.7531 -5.2669 -2.0084 0.9709
5.2048 -4.8224 -2.0087 0.9709
6.2976 -3.2721 -2.0091 0.9709
6.5645 -2.6971 -2.0091 0.9709
6.9390 -1.4871 -2.0090 0.9709
7.0915 -0.2298 -2.0086 0.9709
7.0173 1.0342 -2.0080 0.9709
6.7189 2.2643 -2.0072 0.9710
6.4885 2.8542 -2.0067 0.9710
5.8609 3.9508 -2.0010 0.9710
5.0782 4.1276 -1.8526 0.9732
4.6882 4.5629 -1.8520 0.9732
2.7918 5.9070 -1.8496 0.9732
2.2527 6.1305 -1.8490 0.9732
-0.0346 6.5227 -1.8466 0.9732
-0.6164 6.4916 -1.8460 0.9733
-1.1929 6.4089 -1.8455 0.9733
-1.7596 6.2751 -1.8450 0.9733
-2.3120 6.0915 -1.8445 0.9733
-2.8457 5.8595 -1.8441 0.9733
-4.7127 4.4904 -1.8428 0.9733
-5.2449 4.1714 -1.8971 0.9725
-6.4771 2.7676 -1.9940 0.9711
-6.8663 1.5721 -1.9941 0.9711
-7.0377 0.3265 -1.9945 0.9711
-6.9856 -0.9301 -1.9950 0.9711
-6.8760 -1.5500 -1.9954 0.9711
-6.7117 -2.1579 -1.9958 0.9711
-5.9048 -3.8616 -1.9973 0.9711
-5.5382 -4.3744 -1.9979 0.9711
-4.1856 -5.6905 -1.9998 0.9711
-3.6623 -6.0433 -2.0004 0.9711
-3.1094 -6.3481 -2.0011 0.9710
-2.5313 -6.6025 -2.0018 0.9710
-0.0614 -7.0802 -2.0044 0.9710
0.5709 -7.0596 -2.0050 0.9710
1.1990 -6.9825 -2.0056 0.9710
3.5698 -6.1277 -2.0076 0.9709
4.6039 -5.3974 -2.0083 0.9709
5.0679 -4.9657 -2.0086 0.9709
5.8710 -3.9864 -2.0090 0.9709
6.7176 -2.2890 -2.0091 0.9709
7.0168 -1.0583 -2.0089 0.9709
6.9396 1.4628 -2.0077 0.9709
6.7800 2.0759 -2.0073 0.9710
5.3510 4.1064 -1.9095 0.9723
4.3983 4.8410 -1.8516 0.9732
3.4654 5.5422 -1.8504 0.9732
2.4233 6.0659 -1.8492 0.9732
1.8717 6.2558 -1.8485 0.9732
1.3055 6.3958 -1.8479 0.9732
0.7293 6.4846 -1.8473 0.9732
-3.6924 5.3638 -1.8434 0.9733
-4.1556 5.0120 -1.8431 0.9733
-4.9791 4.1924 -1.8427 0.9733
-6.1088 3.5066 -1.9940 0.9711
-6.8196 1.7633 -1.9941 0.9711
-6.9502 1.1477 -1.9942 0.9711
-7.0450 -0.1061 -1.9946 0.9711
-6.9162 -1.3573 -1.9953 0.9711
-6.7689 -1.9695 -1.9957 0.9711
-3.8293 -5.9380 -2.0002 0.9711
-2.7145 -6.5286 -2.0016 0.9710
-2.1218 -6.7470 -2.0023 0.9710
-1.5117 -6.9118 -2.0029 0.9710
0.3734 -7.0721 -2.0048 0.9710
2.8273 -6.5015 -2.0070 0.9710
3.3970 -6.2246 -2.0075 0.9710
4.4511 -5.5236 -2.0082 0.9709
4.9270 -5.1051 -2.0085 0.9709
5.7572 -4.1488 -2.0089 0.9709
6.4036 -3.0595 -2.0091 0.9709
6.6511 -2.4758 -2.0091 0.9709
7.0681 -0.6255 -2.0087 0.9709
7.0948 0.0078 -2.0085 0.9709
6.8358 1.8858 -2.0075 0.9710
6.3887 3.0695 -2.0065 0.9710
5.6711 4.1056 -1.9820 0.9713
4.9367 4.2948 -1.8524 0.9732
4.5323 4.7167 -1.8518 0.9732
3.1179 5.7431 -1.8500 0.9732
2.5921 5.9964 -1.8494 0.9732
-0.8333 6.4666 -1.8458 0.9733
-2.5144 6.0102 -1.8443 0.9733
-3.0401 5.7605 -1.8439 0.9733
-3.5413 5.4651 -1.8435 0.9733
-4.0142 5.1264 -1.8432 0.9733
-4.4550 4.7470 -1.8429 0.9733
-5.6060 4.1600 -1.9762 0.9714
-6.3125 3.1250 -1.9940 0.9711
-6.7676 1.9531 -1.9940 0.9711
-7.0259 -0.5384 -1.9948 0.9711
-3.9933 -5.8281 -2.0000 0.9711
-3.4584 -6.1633 -2.0007 0.9710
-2.3092 -6.6844 -2.0020 0.9710
-1.0848 -6.9931 -2.0034 0.9710
-0.4566 -7.0643 -2.0040 0.9710
2.0463 -6.7855 -2.0064 0.9710
4.2948 -5.6455 -2.0081 0.9709
4.7822 -5.2405 -2.0084 0.9709
5.2315 -4.7934 -2.0087 0.9709
5.6390 -4.3079 -2.0089 0.9709
6.0013 -3.7877 -2.0090 0.9709
6.3156 -3.2372 -2.0091 0.9709
6.7904 -2.0628 -2.0091 0.9709
6.9471 -1.4485 -2.0090 0.9709
7.0481 -0.8227 -2.0088 0.9709
7.0926 -0.1904 -2.0086 0.9709
7.0803 0.4432 -2.0083 0.9709
6.4725 2.8901 -2.0067 0.9710
6.1871 3.4553 -2.0062 0.9710
5.8371 3.9821 -2.0003 0.9711
5.0552 4.1556 -1.8526 0.9732
3.2775 5.6544 -1.8502 0.9732
1.0905 6.4351 -1.8477 0.9732
0.5117 6.5046 -1.8471 0.9732
-0.0708 6.5223 -1.8465 0.9732
-2.8781 5.8436 -1.8440 0.9733
-3.3875 5.5622 -1.8437 0.9733
-4.3208 4.8698 -1.8430 0.9733
-4.7375 4.4642 -1.8428 0.9733
-5.8973 3.8383 -1.9919 0.9712
-6.4923 2.7316 -1.9940 0.9711
-6.8750 1.5340 -1.9941 0.9711
-7.0379 -0.3419 -1.9947 0.9711
-6.8674 -1.5882 -1.9954 0.9711
-6.4786 -2.7849 -1.9963 0.9711
-6.2057 -3.3529 -1.9968 0.9711
-5.8834 -3.8943 -1.9974 0.9711
-5.5139 -4.4051 -1.9979 0.9711
-4.1541 -5.7137 -1.9998 0.9711
-1.8949 -6.8151 -2.0025 0.9710
-1.2796 -6.9594 -2.0032 0.9710
-0.6537 -7.0481 -2.0038 0.9710
-0.0221 -7.0805 -2.0045 0.9710
0.6101 -7.0564 -2.0051 0.9710
2.4594 -6.6482 -2.0067 0.9710
4.1352 -5.7630 -2.0080 0.9709
6.5025 -2.8434 -2.0091 0.9709
6.7302 -2.2518 -2.0091 0.9709
6.9040 -1.6421 -2.0090 0.9709
7.0225 -1.0193 -2.0089 0.9709
7.0847 -0.3885 -2.0087 0.9709
7.0902 0.2452 -2.0084 0.9709
6.9313 1.5013 -2.0077 0.9709
6.7683 2.1134 -2.0073 0.9710
6.2818 3.2814 -2.0063 0.9710
5.9553 3.8234 -2.0034 0.9710
5.2904 4.1068 -1.8960 0.9725
4.7896 4.4571 -1.8522 0.9732
2.9236 5.8435 -1.8498 0.9732
2.3896 6.0791 -1.8491 0.9732
1.2700 6.4028 -1.8479 0.9732
0.6933 6.4884 -1.8473 0.9732
0.1115 6.5223 -1.8467 0.9732
-1.6188 6.3134 -1.8451 0.9733
-2.1752 6.1421 -1.8446 0.9733
-2.7140 5.9221 -1.8442 0.9733
-3.2309 5.6551 -1.8438 0.9733
-3.7220 5.3431 -1.8434 0.9733
-4.6112 4.5949 -1.8429 0.9733
-5.0197 4.1792 -1.8491 0.9732
-5.7801 3.9962 -1.9893 0.9712
-6.8293 1.7254 -1.9941 0.9711
-7.0444 -0.1452 -1.9946 0.9711
-6.9087 -1.3957 -1.9953 0.9711
-6.2965 -3.1779 -1.9967 0.9711
-5.6343 -4.2490 -1.9978 0.9711
-4.3116 -5.5949 -1.9996 0.9711
-1.4734 -6.9202 -2.0030 0.9710
-0.8502 -7.0264 -2.0036 0.9710
-0.2198 -7.0765 -2.0043 0.9710
1.0423 -7.0071 -2.0055 0.9710
4.4817 -5.4989 -2.0082 0.9709
4.9553 -5.0777 -2.0085 0.9709
5.3892 -4.6158 -2.0088 0.9709
5.7802 -4.1168 -2.0089 0.9709
6.1249 -3.5847 -2.0090 0.9709
6.4205 -3.0239 -2.0091 0.9709
6.6647 -2.4389 -2.0091 0.9709
6.8556 -1.8343 -2.0090 0.9709
6.9710 1.3072 -2.0078 0.9709
6.8252 1.9236 -2.0074 0.9710
4.2429 4.2710 -1.8517 0.9751
3.8437 4.6312 -1.8512 0.9751
1.4630 5.8284 -1.8483 0.9752
0.4034 5.9921 -1.8472 0.9752
-0.1330 6.0025 -1.8467 0.9752
-1.1973 5.8800 -1.8457 0.9752
-1.7168 5.7483 -1.8452 0.9752
-2.2224 5.5709 -1.8448 0.9752
-3.1761 5.0850 -1.8441 0.9752
-4.5223 4.1659 -1.8912 0.9746
-5.1327 3.9429 -1.9908 0.9733
-5.4749 3.4760 -1.9947 0.9732
-6.0053 2.4472 -1.9946 0.9732
-6.1999 1.9016 -1.9946 0.9732
-6.4399 0.7692 -1.9949 0.9732
-6.3055 -1.5335 -1.9960 0.9732
-5.6777 -3.1509 -1.9973 0.9732
-5.3753 -3.6460 -1.9978 0.9732
-5.0298 -4.1122 -1.9983 0.9732
-3.2769 -5.6188 -2.0006 0.9731
-2.2273 -6.1156 -2.0019 0.9731
-1.1053 -6.4181 -2.0031 0.9731
1.2115 -6.4064 -2.0054 0.9731
1.7788 -6.2743 -2.0059 0.9731
3.3794 -5.5826 -2.0072 0.9731
4.3194 -4.8945 -2.0078 0.9731
4.7395 -4.4901 -2.0081 0.9730
5.7607 -3.0748 -2.0085 0.9730
6.3691 -1.4390 -2.0084 0.9730
6.4717 -0.8648 -2.0083 0.9730
6.5224 -0.2838 -2.0081 0.9730
6.5209 0.2993 -2.0078 0.9731
6.4673 0.8800 -2.0075 0.9731
5.7459 3.0846 -2.0059 0.9731
5.4464 3.5842 -2.0054 0.9731
5.0857 4.0408 -1.9979 0.9732
4.3610 4.1512 -1.8519 0.9751
3.9719 4.5225 -1.8513 0.9751
1.1023 5.9060 -1.8479 0.9752
0.0348 6.0044 -1.8468 0.9752
-0.5011 5.9818 -1.8463 0.9752
-1.5557 5.7945 -1.8454 0.9752
-3.0330 5.1721 -1.8442 0.9752
-3.4818 4.8799 -1.8438 0.9752
-3.9029 4.5490 -1.8436 0.9752
-4.2927 4.1821 -1.8433 0.9752
-5.0148 4.0801 -1.9885 0.9733
-5.9346 2.6140 -1.9946 0.9732
-6.1443 2.0740 -1.9946 0.9732
-6.4158 0.9488 -1.9948 0.9732
-6.4402 -0.7848 -1.9955 0.9732
-6.3455 -1.3566 -1.9958 0.9732
-6.2003 -1.9179 -1.9962 0.9732
-6.0056 -2.4641 -1.9966 0.9732
-5.4746 -3.4941 -1.9976 0.9732
-1.8481 -6.2421 -2.0023 0.9731
-0.7094 -6.4751 -2.0035 0.9731
-0.1287 -6.5145 -2.0041 0.9731
1.0320 -6.4372 -2.0052 0.9731
2.7022 -5.9382 -2.0067 0.9731
3.2220 -5.6745 -2.0071 0.9731
5.0065 -4.1909 -2.0082 0.9730
5.3610 -3.7277 -2.0084 0.9730
5.6725 -3.2345 -2.0085 0.9730
5.9387 -2.7155 -2.0085 0.9730
6.1573 -2.1746 -2.0085 0.9730
6.3266 -1.6164 -2.0084 0.9730
6.4452 -1.0453 -2.0083 0.9730
6.5122 -0.4659 -2.0081 0.9730
6.5270 0.1171 -2.0079 0.9731
6.4896 0.6990 -2.0076 0.9731
6.2598 1.8409 -2.0069 0.9731
6.0693 2.3917 -2.0065 0.9731
5.2033 3.9022 -2.0005 0.9731
4.5493 4.0944 -1.8825 0.9747
3.6861 4.7568 -1.8510 0.9751
2.7801 5.3330 -1.8498 0.9751
2.2923 5.5581 -1.8492 0.9752
0.7375 5.9613 -1.8475 0.9752
0.2025 6.0016 -1.8470 0.9752
-0.3338 5.9940 -1.8465 0.9752
-0.8671 5.9387 -1.8460 0.9752
-1.9081 5.6871 -1.8451 0.9752
-2.4075 5.4929 -1.8447 0.9752
-2.8875 5.2551 -1.8443 0.9752
-4.1744 4.3005 -1.8434 0.9752
-5.5881 3.2907 -1.9946 0.9732
-6.0839 2.2448 -1.9946 0.9732
-6.4623 0.5532 -1.9949 0.9732
-6.4593 -0.6046 -1.9954 0.9732
-6.0717 -2.2952 -1.9965 0.9732
-5.5696 -3.3396 -1.9974 0.9732
-4.8898 -4.2788 -1.9985 0.9732
-4.4897 -4.6994 -1.9991 0.9732
-2.5648 -5.9805 -2.0015 0.9731
-2.0215 -6.1874 -2.0021 0.9731
-1.4617 -6.3451 -2.0027 0.9731
0.2714 -6.5114 -2.0045 0.9731
0.8517 -6.4630 -2.0051 0.9731
1.4254 -6.3629 -2.0056 0.9731
3.5646 -5.4667 -2.0073 0.9731
4.0389 -5.1276 -2.0076 0.9731
4.4810 -4.7473 -2.0079 0.9730
4.8873 -4.3290 -2.0081 0.9730
5.2546 -3.8759 -2.0083 0.9730
5.5799 -3.3917 -2.0084 0.9730
5.8605 -2.8803 -2.0085 0.9730
6.0942 -2.3458 -2.0085 0.9730
6.2790 -1.7925 -2.0085 0.9730
6.4136 -1.2250 -2.0083 0.9730
6.4968 -0.6477 -2.0082 0.9730
6.5280 -0.0653 -2.0080 0.9730
6.5069 0.5175 -2.0077 0.9731
6.4338 1.0959 -2.0074 0.9731
6.3092 1.6654 -2.0070 0.9731
6.1341 2.2214 -2.0066 0.9731
5.9101 2.7593 -2.0062 0.9731
5.3173 3.7603 -2.0031 0.9731
4.7991 4.0825 -1.9379 0.9740
2.9282 5.2538 -1.8500 0.9751
-0.7010 5.9611 -1.8461 0.9752
-1.2298 5.8732 -1.8457 0.9752
-1.7486 5.7386 -1.8452 0.9752
-3.6430 4.7603 -1.8437 0.9752
-5.1557 3.9153 -1.9912 0.9733
-5.4940 3.4455 -1.9947 0.9732
-5.7794 2.9414 -1.9946 0.9732
-6.0188 2.4139 -1.9946 0.9732
-6.4845 0.1555 -1.9951 0.9732
-6.4107 -1.0001 -1.9956 0.9732
-5.9203 -2.6640 -1.9968 0.9732
-5.3550 -3.6758 -1.9978 0.9732
-5.0070 -4.1401 -1.9983 0.9732
-4.6188 -4.5717 -1.9989 0.9732
-4.1936 -4.9671 -1.9995 0.9732
-2.7306 -5.9059 -2.0013 0.9731
-2.1934 -6.1280 -2.0019 0.9731
-0.4923 -6.4960 -2.0038 0.9731
0.0894 -6.5159 -2.0043 0.9731
0.6708 -6.4837 -2.0049 0.9731
1.2470 -6.3997 -2.0054 0.9731
1.8136 -6.2644 -2.0059 0.9731
4.3465 -4.8705 -2.0078 0.9731
4.7644 -4.4637 -2.0081 0.9730
5.1442 -4.0210 -2.0083 0.9730
5.7777 -3.0428 -2.0085 0.9730
6.2266 -1.9673 -2.0085 0.9730
6.4764 -0.8289 -2.0082 0.9730
6.5239 -0.2476 -2.0080 0.9730
6.5191 0.3355 -2.0078 0.9731
6.4622 0.9158 -2.0075 0.9731
6.3536 1.4886 -2.0071 0.9731
6.1942 2.0493 -2.0068 0.9731
5.0619 4.0679 -1.9974 0.9732
3.0741 5.1705 -1.8502 0.9751
2.5996 5.4225 -1.8496 0.9751
2.1047 5.6311 -1.8490 0.9752
1.5933 5.7947 -1.8485 0.9752
1.0695 5.9119 -1.8479 0.9752
-0.5342 5.9788 -1.8463 0.9752
-1.0654 5.9057 -1.8458 0.9752
-1.5878 5.7856 -1.8453 0.9752
-2.5898 5.4088 -1.8445 0.9752
-3.5088 4.8605 -1.8438 0.9752
-4.3308 4.1726 -1.8498 0.9751
-5.6950 3.1017 -1.9946 0.9732
-5.9490 2.5810 -1.9946 0.9732
-6.4774 0.3365 -1.9950 0.9732
-5.7465 -3.0228 -1.9971 0.9732
-5.1202 -3.9983 -1.9982 0.9732
-4.3304 -4.8476 -1.9993 0.9732
-3.4017 -5.5435 -2.0005 0.9731
-2.8943 -5.8268 -2.0011 0.9731
-2.3634 -6.0637 -2.0017 0.9731
-1.8134 -6.2524 -2.0024 0.9731
-0.0926 -6.5153 -2.0042 0.9731
0.4893 -6.4994 -2.0047 0.9731
1.0677 -6.4315 -2.0053 0.9731
2.1951 -6.1423 -2.0063 0.9731
2.7351 -5.9232 -2.0067 0.9731
3.2534 -5.6566 -2.0071 0.9731
3.7459 -5.3446 -2.0074 0.9731
5.0297 -4.1631 -2.0082 0.9730
5.3816 -3.6979 -2.0084 0.9730
5.6904 -3.2030 -2.0085 0.9730
5.9536 -2.6825 -2.0085 0.9730
6.4856 0.7350 -2.0076 0.9731
6.0558 2.4253 -2.0065 0.9731
5.8139 2.9554 -2.0060 0.9731
5.5256 3.4616 -2.0055 0.9731
5.1803 3.9300 -2.0000 0.9732
4.0725 4.4328 -1.8515 0.9751
3.2177 5.0831 -1.8504 0.9751
2.7504 5.3483 -1.8498 0.9751
2.2614 5.5707 -1.8492 0.9752
0.1692 6.0025 -1.8470 0.9752
-1.4256 5.8282 -1.8455 0.9752
-1.9396 5.6763 -1.8450 0.9752
-3.3718 4.9569 -1.8439 0.9752
-3.8002 4.6354 -1.8436 0.9752
-4.1981 4.2773 -1.8434 0.9752
-5.6062 3.2596 -1.9946 0.9732
-6.0963 2.2110 -1.9946 0.9732
-6.3928 1.0921 -1.9948 0.9732
-6.4864 -0.0617 -1.9952 0.9732
-6.4559 -0.6404 -1.9954 0.9732
-6.2414 -1.7785 -1.9961 0.9732
-5.2295 -3.8534 -1.9980 0.9732
-4.4637 -4.7243 -1.9991 0.9732
-4.0254 -5.1053 -1.9997 0.9732
-3.5548 -5.4458 -2.0003 0.9732
-2.5317 -5.9948 -2.0015 0.9731
-1.4265 -6.3532 -2.0028 0.9731
-0.2745 -6.5095 -2.0040 0.9731
0.3076 -6.5099 -2.0045 0.9731
2.0225 -6.2007 -2.0061 0.9731
2.5684 -5.9969 -2.0066 0.9731
3.5949 -5.4469 -2.0073 0.9731
4.0674 -5.1051 -2.0077 0.9731
4.9113 -4.3018 -2.0082 0.9730
5.2761 -3.8467 -2.0083 0.9730
5.5986 -3.3607 -2.0084 0.9730
5.8764 -2.8477 -2.0085 0.9730
6.2889 -1.7577 -2.0084 0.9730
6.4203 -1.1894 -2.0083 0.9730
6.5282 -0.0291 -2.0080 0.9730
6.2998 1.7004 -2.0070 0.9731
6.1216 2.2553 -2.0066 0.9731
5.6206 3.3061 -2.0057 0.9731
4.1951 4.3177 -1.8516 0.9751
3.3587 4.9917 -1.8505 0.9751
2.8990 5.2699 -1.8500 0.9751
2.4164 5.5058 -1.8494 0.9752
-0.7340 5.9570 -1.8461 0.9752
-1.7804 5.7287 -1.8452 0.9752
-2.7693 5.3187 -1.8444 0.9752
-3.2323 5.0494 -1.8440 0.9752
-4.0772 4.3930 -1.8435 0.9752
-4.6208 4.1629 -1.9130 0.9743
-5.5131 3.4150 -1.9947 0.9732
-5.7956 2.9093 -1.9946 0.9732
-6.2206 1.8327 -1.9946 0.9732
-6.3596 1.2703 -1.9947 0.9732
-6.4481 0.6977 -1.9949 0.9732
-6.4710 -0.4598 -1.9953 0.9732
-5.3346 -3.7055 -1.9978 0.9732
-4.1661 -4.9904 -1.9995 0.9732
-3.7052 -5.3439 -2.0001 0.9732
-2.1594 -6.1402 -2.0020 0.9731
-1.6033 -6.3103 -2.0026 0.9731
-1.0341 -6.4302 -2.0032 0.9731
0.7067 -6.4800 -2.0049 0.9731
1.2825 -6.3928 -2.0055 0.9731
2.3997 -6.0659 -2.0064 0.9731
2.9321 -5.8287 -2.0068 0.9731
3.4412 -5.5449 -2.0072 0.9731
4.7891 -4.4372 -2.0081 0.9730
5.1664 -3.9925 -2.0083 0.9730
5.5025 -3.5157 -2.0084 0.9730
6.0401 -2.4817 -2.0085 0.9730
6.2374 -1.9327 -2.0085 0.9730
6.3847 -1.3683 -2.0084 0.9730
6.5251 -0.2114 -2.0080 0.9730
5.4060 3.6442 -2.0053 0.9731
5.0195 4.0798 -1.9895 0.9733
3.4972 4.8964 -1.8507 0.9751
2.0734 5.6426 -1.8490 0.9752
1.5611 5.8033 -1.8484 0.9752
1.0366 5.9177 -1.8479 0.9752
0.5043 5.9848 -1.8473 0.9752
-1.6198 5.7767 -1.8453 0.9752
-2.6198 5.3943 -1.8445 0.9752
-3.0901 5.1380 -1.8441 0.9752
-3.9530 4.5054 -1.8435 0.9752
-4.3768 4.1703 -1.8595 0.9750
-5.4156 3.5677 -1.9947 0.9732
-5.9632 2.5480 -1.9946 0.9732
-6.4810 -0.2788 -1.9953 0.9732
-5.9781 -2.5306 -1.9967 0.9732
-5.4356 -3.5548 -1.9977 0.9732
-5.0981 -4.0267 -1.9982 0.9732
-4.7197 -4.4669 -1.9987 0.9732
-3.3709 -5.5624 -2.0005 0.9731
-2.8619 -5.8429 -2.0011 0.9731
-1.7788 -6.2625 -2.0024 0.9731
-1.2131 -6.3982 -2.0030 0.9731
-0.0565 -6.5158 -2.0042 0.9731
0.5254 -6.4967 -2.0048 0.9731
1.6728 -6.3031 -2.0058 0.9731
2.2292 -6.1301 -2.0063 0.9731
2.7679 -5.9080 -2.0067 0.9731
3.7755 -5.3238 -2.0075 0.9731
4.2362 -4.9664 -2.0078 0.9731
4.6631 -4.5691 -2.0080 0.9730
5.0528 -4.1351 -2.0082 0.9730
5.7081 -3.1714 -2.0085 0.9730
6.4563 -0.9737 -2.0083 0.9730
6.5169 -0.3936 -2.0081 0.9730
6.2388 1.9102 -2.0069 0.9731
6.0422 2.4588 -2.0064 0.9731
5.7973 2.9875 -2.0060 0.9731
5.1571 3.9576 -1.9994 0.9732
4.4539 4.0989 -1.8618 0.9750
4.0478 4.4552 -1.8514 0.9751
3.6329 4.7972 -1.8509 0.9751
1.7227 5.7580 -1.8486 0.9752
1.2017 5.8869 -1.8480 0.9752
0.6713 5.9689 -1.8475 0.9752
-0.9329 5.9285 -1.8459 0.9752
-1.9710 5.6654 -1.8450 0.9752
-2.4682 5.4657 -1.8446 0.9752
-3.3993 4.9380 -1.8439 0.9752
-4.9321 4.1527 -1.9831 0.9734
-6.1085 2.1772 -1.9946 0.9732
-6.2786 1.6234 -1.9947 0.9732
-6.3988 1.0567 -1.9948 0.9732
-6.4860 -0.0977 -1.9952 0.9732
-6.4523 -0.6762 -1.9955 0.9732
-6.3672 -1.2496 -1.9958 0.9732
-6.2315 -1.8131 -1.9961 0.9732
-5.5324 -3.4013 -1.9975 0.9732
-4.8422 -4.3329 -1.9986 0.9732
-4.4375 -4.7491 -1.9991 0.9732
-2.4984 -6.0088 -2.0016 0.9731
-1.9528 -6.2097 -2.0022 0.9731
-1.3913 -6.3612 -2.0028 0.9731
-0.8183 -6.4619 -2.0034 0.9731
0.3437 -6.5082 -2.0046 0.9731
3.1258 -5.7277 -2.0070 0.9731
4.5335 -4.6974 -2.0079 0.9730
4.9351 -4.2745 -2.0082 0.9730
5.6172 -3.3296 -2.0084 0.9730
6.1198 -2.2780 -2.0085 0.9730
6.4267 -1.1537 -2.0083 0.9730
6.5035 -0.5755 -2.0082 0.9730
6.5282 0.0071 -2.0079 0.9730
6.4211 1.1672 -2.0074 0.9731
6.1089 2.2892 -2.0066 0.9731
5.8790 2.8246 -2.0061 0.9731
5.6021 3.3372 -2.0056 0.9731
3.7659 4.6943 -1.8511 0.9751
2.8697 5.2858 -1.8499 0.9751
2.3857 5.5191 -1.8494 0.9752
1.3658 5.8517 -1.8482 0.9752
0.8379 5.9484 -1.8477 0.9752
0.3036 5.9977 -1.8471 0.9752
-0.7671 5.9527 -1.8461 0.9752
-1.2949 5.8590 -1.8456 0.9752
-1.8121 5.7187 -1.8451 0.9752
-2.3147 5.5329 -1.8447 0.9752
-4.1014 4.3703 -1.8435 0.9752
-4.6710 4.1613 -1.9241 0.9742
-5.2013 3.8597 -1.9922 0.9733
-5.5319 3.3844 -1.9947 0.9732
-5.8117 2.8771 -1.9946 0.9732
-6.4519 0.6619 -1.9949 0.9732
-6.4859 0.0835 -1.9951 0.9732
-6.2793 -1.6383 -1.9960 0.9732
-6.1093 -2.1925 -1.9964 0.9732
-5.3141 -3.7351 -1.9979 0.9732
-4.9609 -4.1956 -1.9984 0.9732
-4.5680 -4.6229 -1.9990 0.9732
-4.1384 -5.0135 -1.9995 0.9732
-2.1253 -6.1522 -2.0020 0.9731
-1.5683 -6.3192 -2.0026 0.9731
0.7427 -6.4761 -2.0050 0.9731
1.3180 -6.3857 -2.0055 0.9731
1.8831 -6.2441 -2.0060 0.9731
2.9644 -5.8125 -2.0069 0.9731
3.4720 -5.5258 -2.0073 0.9731
3.9519 -5.1947 -2.0076 0.9731
4.4003 -4.8220 -2.0079 0.9731
4.8137 -4.4106 -2.0081 0.9730
5.1885 -3.9638 -2.0083 0.9730
6.4851 -0.7570 -2.0082 0.9730
6.5149 0.4078 -2.0078 0.9731
6.4515 0.9874 -2.0075 0.9731
6.1709 2.1178 -2.0067 0.9731
5.6935 3.1797 -2.0058 0.9731
4.9636 4.0803 -1.9763 0.9735
4.2910 4.2230 -1.8518 0.9751
3.4699 4.9156 -1.8507 0.9751
3.0165 5.2041 -1.8501 0.9751
2.5392 5.4508 -1.8495 0.9751
1.5288 5.8118 -1.8484 0.9752
1.0038 5.9232 -1.8478 0.9752
0.4710 5.9874 -1.8473 0.9752
-0.0652 6.0038 -1.8467 0.9752
-0.6005 5.9723 -1.8462 0.9752
-1.1308 5.8934 -1.8457 0.9752
-1.6518 5.7675 -1.8453 0.9752
-2.6496 5.3796 -1.8445 0.9752
-3.5625 4.8212 -1.8438 0.9752
-4.4242 4.1689 -1.8697 0.9749
-5.0855 3.9988 -1.9898 0.9733
-5.4353 3.5376 -1.9947 0.9732
-5.7291 3.0383 -1.9946 0.9732
-5.9773 2.5149 -1.9946 0.9732
-6.1780 1.9715 -1.9946 0.9732
-6.4308 0.8419 -1.9948 0.9732
-6.4808 0.2646 -1.9950 0.9732
-6.4264 -0.8919 -1.9956 0.9732
-5.9640 -2.5638 -1.9967 0.9732
-5.7128 -3.0865 -1.9972 0.9732
-5.0757 -4.0550 -1.9982 0.9732
-1.7440 -6.2723 -2.0024 0.9731
-0.6016 -6.4864 -2.0036 0.9731
-0.0203 -6.5161 -2.0042 0.9731
1.1390 -6.4195 -2.0053 0.9731
3.3160 -5.6203 -2.0071 0.9731
3.8051 -5.3028 -2.0075 0.9731
4.2637 -4.9428 -2.0078 0.9731
4.6884 -4.5435 -2.0080 0.9730
5.0756 -4.1071 -2.0082 0.9730
6.1926 -2.0719 -2.0085 0.9730
6.3525 -1.5109 -2.0084 0.9730
6.4616 -0.9379 -2.0083 0.9730
6.5189 -0.3575 -2.0081 0.9730
6.5240 0.2257 -2.0078 0.9731
6.4769 0.8069 -2.0076 0.9731
6.3780 1.3814 -2.0072 0.9731
6.2281 1.9448 -2.0068 0.9731
6.0284 2.4922 -2.0064 0.9731
5.7806 3.0196 -2.0059 0.9731
4.0229 4.4775 -1.8514 0.9751
3.6062 4.8172 -1.8509 0.9751
1.6907 5.7674 -1.8486 0.9752
1.1690 5.8934 -1.8480 0.9752
0.6382 5.9724 -1.8474 0.9752
-0.4335 5.9873 -1.8464 0.9752
-2.0024 5.6543 -1.8450 0.9752
-3.4266 4.9190 -1.8439 0.9752
-3.8513 4.5929 -1.8436 0.9752
-4.2453 4.2303 -1.8434 0.9752
-4.9662 4.1346 -1.9876 0.9733
-5.6420 3.1972 -1.9946 0.9732
-5.9047 2.6809 -1.9946 0.9732
-6.1204 2.1433 -1.9946 0.9732
-6.4854 -0.1337 -1.9952 0.9732
-6.3603 -1.2849 -1.9958 0.9732
-6.2214 -1.8477 -1.9962 0.9732
-6.0329 -2.3960 -1.9966 0.9732
-5.7964 -2.9255 -1.9970 0.9732
-5.5135 -3.4320 -1.9975 0.9732
-5.1866 -3.9113 -1.9981 0.9732
-4.8182 -4.3598 -1.9986 0.9732
-4.4111 -4.7737 -1.9992 0.9732
-2.9918 -5.7769 -2.0010 0.9731
-1.3560 -6.3689 -2.0029 0.9731
-0.7825 -6.4665 -2.0035 0.9731
0.3798 -6.5063 -2.0046 0.9731
0.9592 -6.4483 -2.0052 0.9731
1.5312 -6.3386 -2.0057 0.9731
2.0913 -6.1781 -2.0062 0.9731
2.6349 -5.9681 -2.0066 0.9731
3.1576 -5.7104 -2.0070 0.9731
4.5595 -4.6722 -2.0080 0.9730
4.9588 -4.2471 -2.0082 0.9730
5.3185 -3.7879 -2.0083 0.9730
6.1323 -2.2441 -2.0085 0.9730
6.3079 -1.6878 -2.0084 0.9730
6.4330 -1.1180 -2.0083 0.9730
6.5280 0.0433 -2.0079 0.9730
6.4144 1.2028 -2.0073 0.9731
6.2804 1.7701 -2.0070 0.9731
4.0646 4.0915 -1.9171 0.9760
0.3733 5.5450 -1.8474 0.9768
-1.1080 5.4417 -1.8460 0.9769
-1.5888 5.3198 -1.8455 0.9769
-2.0568 5.1557 -1.8451 0.9769
-2.9395 4.7062 -1.8445 0.9769
-3.3473 4.4245 -1.8442 0.9769
-4.7602 3.6568 -1.9953 0.9750
-5.0673 3.2172 -1.9952 0.9750
-5.7383 1.7600 -1.9951 0.9750
-5.9604 0.7119 -1.9954 0.9750
-6.0007 0.1772 -1.9955 0.9750
-5.9381 -0.8926 -1.9960 0.9750
-5.6868 -1.9347 -1.9967 0.9750
-5.2545 -2.9161 -1.9976 0.9750
-3.9061 -4.5748 -1.9996 0.9750
-2.5569 -5.4507 -2.0013 0.9749
-1.5481 -5.8217 -2.0024 0.9749
-1.0227 -5.9383 -2.0030 0.9749
0.0493 -6.0289 -2.0041 0.9749
0.5873 -6.0020 -2.0046 0.9749
1.6457 -5.8047 -2.0056 0.9749
2.1576 -5.6359 -2.0060 0.9749
3.1263 -5.1645 -2.0068 0.9749
3.5753 -4.8657 -2.0071 0.9749
3.9958 -4.5278 -2.0073 0.9749
4.3844 -4.1536 -2.0076 0.9749
4.7380 -3.7461 -2.0078 0.9749
5.0538 -3.3085 -2.0079 0.9749
6.0338 -0.2626 -2.0076 0.9749
6.0325 0.2769 -2.0073 0.9749
5.8854 1.3445 -2.0067 0.9749
5.5506 2.3685 -2.0060 0.9749
5.3159 2.8537 -2.0056 0.9749
5.0389 3.3160 -2.0051 0.9749
4.7167 3.7475 -2.0025 0.9749
4.2868 4.0806 -1.9673 0.9754
3.6750 4.1844 -1.8512 0.9768
3.2860 4.4944 -1.8507 0.9768
2.8710 4.7683 -1.8501 0.9768
1.5041 5.3539 -1.8486 0.9768
1.0200 5.4652 -1.8480 0.9768
0.5281 5.5329 -1.8475 0.9768
-0.4637 5.5357 -1.8465 0.9769
-0.9556 5.4709 -1.8461 0.9769
-1.9121 5.2115 -1.8453 0.9769
-2.8070 4.7868 -1.8446 0.9769
-3.6122 4.2102 -1.8440 0.9769
-4.2574 4.1477 -1.9757 0.9753
-4.6529 3.7856 -1.9939 0.9750
-5.4928 2.4194 -1.9951 0.9750
-5.6868 1.9196 -1.9951 0.9750
-5.9381 0.8781 -1.9953 0.9750
-6.0007 -0.1915 -1.9957 0.9750
-5.9605 -0.7264 -1.9960 0.9750
-5.7383 -1.7750 -1.9966 0.9750
-5.3335 -2.7680 -1.9974 0.9750
-4.0320 -4.4635 -1.9994 0.9750
-3.6186 -4.8069 -2.0000 0.9750
-2.7079 -5.3766 -2.0011 0.9749
-1.7100 -5.7757 -2.0023 0.9749
-0.6564 -5.9911 -2.0034 0.9749
1.9992 -5.6936 -2.0059 0.9749
2.4998 -5.4936 -2.0063 0.9749
2.9807 -5.2496 -2.0067 0.9749
3.4378 -4.9634 -2.0070 0.9749
3.8676 -4.6375 -2.0073 0.9749
4.6314 -3.8769 -2.0077 0.9749
4.9593 -3.4484 -2.0078 0.9749
5.2475 -2.9922 -2.0079 0.9749
5.4937 -2.5120 -2.0080 0.9749
5.8525 -1.4953 -2.0079 0.9749
5.9623 -0.9670 -2.0078 0.9749
6.0381 0.1083 -2.0074 0.9749
6.0036 0.6466 -2.0072 0.9749
5.9210 1.1797 -2.0069 0.9749
5.7911 1.7031 -2.0065 0.9749
5.3939 2.7043 -2.0057 0.9749
5.1299 3.1742 -2.0052 0.9749
4.4667 4.0200 -1.9975 0.9750
3.4106 4.4012 -1.8508 0.9768
2.5724 4.9346 -1.8498 0.9768
0.6825 5.5165 -1.8477 0.9768
-0.8025 5.4959 -1.8462 0.9769
-2.2281 5.0836 -1.8450 0.9769
-3.0952 4.6049 -1.8443 0.9769
-4.0330 4.1549 -1.9247 0.9759
-4.8798 3.4953 -1.9953 0.9750
-5.7941 1.5669 -1.9952 0.9750
-5.9111 1.0436 -1.9953 0.9750
-5.9811 0.5120 -1.9954 0.9750
-5.9782 -0.5596 -1.9959 0.9750
-5.9053 -1.0910 -1.9962 0.9750
-5.4084 -2.6177 -1.9973 0.9750
-4.8592 -3.5391 -1.9982 0.9750
-4.5251 -3.9596 -1.9987 0.9750
-3.7511 -4.7035 -1.9998 0.9750
-3.3173 -5.0209 -2.0004 0.9750
-1.8705 -5.7252 -2.0021 0.9749
-1.3525 -5.8709 -2.0026 0.9749
0.2511 -6.0244 -2.0043 0.9749
0.7880 -5.9795 -2.0048 0.9749
2.3453 -5.5610 -2.0062 0.9749
2.8327 -5.3305 -2.0065 0.9749
3.7364 -4.7435 -2.0072 0.9749
4.8609 -3.5855 -2.0078 0.9749
5.1618 -3.1376 -2.0079 0.9749
5.4213 -2.6645 -2.0080 0.9749
5.6375 -2.1700 -2.0080 0.9749
6.0101 -0.5992 -2.0077 0.9749
6.0390 -0.0604 -2.0075 0.9749
6.0195 0.4787 -2.0072 0.9749
5.9519 1.0138 -2.0070 0.9749
5.8367 1.5407 -2.0066 0.9749
5.4677 2.5528 -2.0058 0.9749
5.2169 3.0299 -2.0054 0.9749
4.5823 3.8980 -1.9997 0.9750
3.5325 4.3046 -1.8510 0.9768
3.1334 4.6014 -1.8505 0.9768
2.7094 4.8613 -1.8500 0.9768
2.2642 5.0822 -1.8494 0.9768
1.8011 5.2625 -1.8489 0.9768
0.3425 5.5469 -1.8473 0.9768
-0.1539 5.5539 -1.8468 0.9769
-0.6487 5.5166 -1.8464 0.9769
-1.6183 5.3109 -1.8455 0.9769
-2.0853 5.1442 -1.8451 0.9769
-2.5356 4.9366 -1.8448 0.9769
-4.4252 4.0313 -1.9898 0.9751
-5.0850 3.1890 -1.9952 0.9750
-5.5707 2.2341 -1.9951 0.9750
-5.7480 1.7281 -1.9951 0.9750
-5.8795 1.2083 -1.9952 0.9750
-5.9643 0.6789 -1.9954 0.9750
-6.0016 0.1439 -1.9956 0.9750
-5.8278 -1.4516 -1.9964 0.9750
-5.6761 -1.9662 -1.9968 0.9750
-5.2383 -2.9452 -1.9976 0.9750
-4.6336 -3.8314 -1.9986 0.9750
-4.2743 -4.2307 -1.9991 0.9750
-3.0035 -5.2161 -2.0007 0.9749
-1.5158 -5.8303 -2.0025 0.9749
-0.4555 -6.0103 -2.0036 0.9749
2.6826 -5.4072 -2.0064 0.9749
3.6023 -4.8458 -2.0071 0.9749
4.0209 -4.5056 -2.0074 0.9749
4.4074 -4.1293 -2.0076 0.9749
4.7588 -3.7198 -2.0078 0.9749
5.8992 -1.2985 -2.0079 0.9749
5.9911 -0.7668 -2.0077 0.9749
6.0351 -0.2291 -2.0076 0.9749
5.9782 0.8472 -2.0070 0.9749
5.5373 2.3992 -2.0060 0.9749
2.4055 5.0174 -1.8496 0.9768
0.4973 5.5356 -1.8475 0.9768
-0.4944 5.5330 -1.8465 0.9769
-0.9859 5.4654 -1.8461 0.9769
-3.2475 4.4984 -1.8442 0.9769
-4.6748 3.7606 -1.9943 0.9750
-5.2710 2.8708 -1.9951 0.9750
-5.5061 2.3889 -1.9951 0.9750
-5.9951 0.3115 -1.9955 0.9750
-5.9564 -0.7594 -1.9960 0.9750
-5.8658 -1.2882 -1.9963 0.9750
-5.7284 -1.8068 -1.9966 0.9750
-5.0485 -3.2617 -1.9979 0.9750
-4.0073 -4.4859 -1.9995 0.9750
-3.1477 -5.1297 -2.0006 0.9750
-1.6779 -5.7852 -2.0023 0.9749
-0.6231 -5.9947 -2.0034 0.9749
-0.0857 -6.0280 -2.0040 0.9749
0.9878 -5.9503 -2.0050 0.9749
2.5303 -5.4797 -2.0063 0.9749
3.4654 -4.9443 -2.0070 0.9749
3.8933 -4.6160 -2.0073 0.9749
4.6529 -3.8512 -2.0077 0.9749
5.2640 -2.9630 -2.0079 0.9749
6.0266 -0.3976 -2.0076 0.9749
5.9998 0.6799 -2.0071 0.9749
5.7815 1.7351 -2.0065 0.9749
5.6025 2.2437 -2.0061 0.9749
5.3788 2.7342 -2.0057 0.9749
5.1121 3.2025 -2.0052 0.9749
4.8039 3.6444 -2.0043 0.9749
4.4433 4.0439 -1.9971 0.9750
2.9772 4.7032 -1.8503 0.9768
2.5449 4.9487 -1.8498 0.9768
0.6518 5.5201 -1.8477 0.9768
0.1566 5.5547 -1.8471 0.9768
-0.3397 5.5451 -1.8467 0.9769
-1.7950 5.2533 -1.8454 0.9769
-3.1207 4.5876 -1.8443 0.9769
-4.8991 3.4681 -1.9952 0.9750
-5.6424 2.0464 -1.9951 0.9750
-5.8027 1.5348 -1.9952 0.9750
-6.0033 -0.0571 -1.9956 0.9750
-5.9750 -0.5927 -1.9959 0.9750
-5.8992 -1.1237 -1.9962 0.9750
-5.1372 -3.1192 -1.9978 0.9750
-4.8395 -3.5661 -1.9983 0.9750
-4.5031 -3.9847 -1.9988 0.9750
-2.8275 -5.3143 -2.0010 0.9749
-1.3199 -5.8785 -2.0027 0.9749
-0.2540 -6.0228 -2.0038 0.9749
0.2845 -6.0230 -2.0043 0.9749
1.8711 -5.7366 -2.0058 0.9749
2.8623 -5.3147 -2.0066 0.9749
3.3257 -5.0390 -2.0069 0.9749
3.7627 -4.7228 -2.0072 0.9749
4.1697 -4.3687 -2.0075 0.9749
4.8808 -3.5585 -2.0078 0.9749
5.1791 -3.1089 -2.0079 0.9749
5.6495 -2.1387 -2.0080 0.9749
5.8176 -1.6260 -2.0079 0.9749
6.0133 -0.5658 -2.0077 0.9749
6.0167 0.5121 -2.0072 0.9749
5.9462 1.0469 -2.0069 0.9749
5.4534 2.5830 -2.0058 0.9749
4.9051 3.5097 -2.0049 0.9749
4.5596 3.9225 -1.9993 0.9750
3.5085 4.3241 -1.8510 0.9768
3.1077 4.6186 -1.8504 0.9768
1.2939 5.4078 -1.8483 0.9768
0.8059 5.5002 -1.8478 0.9768
-0.1846 5.5528 -1.8468 0.9769
-1.6477 5.3018 -1.8455 0.9769
-2.1138 5.1325 -1.8451 0.9769
-2.5629 4.9224 -1.8447 0.9769
-4.4484 4.0075 -1.9902 0.9751
-4.8004 3.6037 -1.9953 0.9750
-5.1026 3.1607 -1.9952 0.9750
-5.3642 2.6927 -1.9951 0.9750
-5.5830 2.2032 -1.9951 0.9750
-5.7575 1.6962 -1.9951 0.9750
-5.9890 -0.4256 -1.9958 0.9750
-5.9280 -0.9585 -1.9961 0.9750
-5.8197 -1.4839 -1.9964 0.9750
-5.4654 -2.4958 -1.9972 0.9750
-4.9369 -3.4292 -1.9981 0.9750
-4.6123 -3.8571 -1.9986 0.9750
-4.2508 -4.2544 -1.9991 0.9750
-3.4287 -4.9450 -2.0002 0.9750
-2.9745 -5.2328 -2.0008 0.9749
-0.4221 -6.0128 -2.0036 0.9749
1.1866 -5.9144 -2.0052 0.9749
1.7100 -5.7863 -2.0056 0.9749
2.2201 -5.6118 -2.0061 0.9749
3.1835 -5.1296 -2.0068 0.9749
3.6291 -4.8258 -2.0071 0.9749
4.4303 -4.1048 -2.0076 0.9749
5.3603 -2.7852 -2.0080 0.9749
5.7700 -1.7879 -2.0079 0.9749
5.9953 -0.7336 -2.0077 0.9749
6.0363 -0.1956 -2.0075 0.9749
6.0289 0.3438 -2.0073 0.9749
5.9734 0.8804 -2.0070 0.9749
5.8700 1.4097 -2.0067 0.9749
5.5238 2.4299 -2.0059 0.9749
5.0016 3.3716 -2.0050 0.9749
4.6727 3.7979 -2.0016 0.9749
4.1972 4.0850 -1.9469 0.9756
3.6282 4.2247 -1.8511 0.9768
2.8178 4.7997 -1.8501 0.9768
2.3775 5.0306 -1.8496 0.9768
1.4445 5.3701 -1.8485 0.9768
0.4666 5.5382 -1.8475 0.9768
-0.0295 5.5563 -1.8470 0.9769
-1.9698 5.1898 -1.8452 0.9769
-2.8599 4.7552 -1.8445 0.9769
-4.3304 4.1261 -1.9882 0.9751
-4.6966 3.7353 -1.9947 0.9750
-5.2869 2.8415 -1.9951 0.9750
-5.9475 0.8122 -1.9953 0.9750
-5.9983 -0.2581 -1.9957 0.9750
-5.9522 -0.7925 -1.9960 0.9750
-5.3027 -2.8270 -1.9975 0.9750
-4.7179 -3.7265 -1.9984 0.9750
-4.3676 -4.1337 -1.9990 0.9750
-3.5652 -4.8469 -2.0000 0.9750
-3.1192 -5.1472 -2.0006 0.9749
-2.6482 -5.4065 -2.0012 0.9749
-2.1558 -5.6229 -2.0018 0.9749
-0.5899 -5.9982 -2.0035 0.9749
-0.0522 -6.0285 -2.0040 0.9749
0.4861 -6.0107 -2.0045 0.9749
1.5476 -5.8314 -2.0055 0.9749
2.0623 -5.6712 -2.0059 0.9749
3.9189 -4.5944 -2.0073 0.9749
4.3138 -4.2268 -2.0075 0.9749
4.6742 -3.8253 -2.0077 0.9749
4.9973 -3.3931 -2.0079 0.9749
5.5212 -2.4509 -2.0080 0.9749
5.7179 -1.9484 -2.0080 0.9749
5.9726 -0.9008 -2.0078 0.9749
6.0286 -0.3641 -2.0076 0.9749
5.9959 0.7132 -2.0071 0.9749
5.5899 2.2747 -2.0061 0.9749
5.3634 2.7639 -2.0056 0.9749
5.0942 3.2308 -2.0052 0.9749
4.7825 3.6701 -2.0039 0.9749
3.3614 4.4386 -1.8508 0.9768
2.9510 4.7196 -1.8502 0.9768
1.5941 5.3281 -1.8487 0.9768
1.1120 5.4475 -1.8481 0.9768
0.6212 5.5235 -1.8476 0.9768
-0.8634 5.4865 -1.8462 0.9769
-3.1461 4.5702 -1.8443 0.9769
-3.5409 4.2706 -1.8440 0.9769
-4.1208 4.1521 -1.9445 0.9756
-4.5856 3.8610 -1.9926 0.9750
-5.6537 2.0151 -1.9951 0.9750
-5.9223 0.9780 -1.9953 0.9750
-6.0030 -0.0904 -1.9956 0.9750
-5.8929 -1.1565 -1.9962 0.9750
-5.7672 -1.6780 -1.9965 0.9750
-5.3792 -2.6776 -1.9973 0.9750
-4.8198 -3.5929 -1.9983 0.9750
-4.4810 -4.0097 -1.9988 0.9750
-4.1064 -4.3948 -1.9993 0.9750
-3.2615 -5.0576 -2.0004 0.9750
-2.7980 -5.3300 -2.0010 0.9749
-1.8069 -5.7458 -2.0021 0.9749
-1.2873 -5.8858 -2.0027 0.9749
-0.2206 -6.0242 -2.0038 0.9749
0.3180 -6.0215 -2.0044 0.9749
0.8543 -5.9706 -2.0049 0.9749
1.9030 -5.7262 -2.0058 0.9749
2.4069 -5.5347 -2.0062 0.9749
2.8918 -5.2988 -2.0066 0.9749
4.9004 -3.5314 -2.0078 0.9749
5.4506 -2.6042 -2.0080 0.9749
5.8266 -1.5937 -2.0079 0.9749
6.0163 -0.5324 -2.0077 0.9749
6.0138 0.5455 -2.0072 0.9749
5.9402 1.0798 -2.0069 0.9749
5.6516 2.1179 -2.0062 0.9749
5.4389 2.6132 -2.0058 0.9749
3.0820 4.6357 -1.8504 0.9768
1.7425 5.2820 -1.8488 0.9768
0.2809 5.5502 -1.8473 0.9768
-1.6771 5.2925 -1.8455 0.9769
-2.1422 5.1206 -1.8451 0.9769
-3.0173 4.6565 -1.8444 0.9769
-3.4203 4.3680 -1.8441 0.9769
-3.9031 4.1589 -1.8959 0.9762
-4.4714 3.9835 -1.9906 0.9751
-5.1200 3.1324 -1.9952 0.9750
-5.3790 2.6629 -1.9951 0.9750
-5.7668 1.6642 -1.9951 0.9750
-5.8926 1.1430 -1.9952 0.9750
-5.9715 0.6126 -1.9954 0.9750
-5.9866 -0.4588 -1.9958 0.9750
-5.9226 -0.9913 -1.9961 0.9750
-5.8115 -1.5162 -1.9964 0.9750
-5.4515 -2.5261 -1.9972 0.9750
-5.2055 -3.0032 -1.9977 0.9750
-4.9179 -3.4566 -1.9981 0.9750
-4.5909 -3.8827 -1.9986 0.9750
-4.2272 -4.2780 -1.9992 0.9750
-3.4012 -4.9641 -2.0003 0.9750
-2.9455 -5.2493 -2.0008 0.9749
-1.9665 -5.6926 -2.0020 0.9749
-1.4511 -5.8470 -2.0025 0.9749
-0.9238 -5.9549 -2.0031 0.9749
2.7425 -5.3773 -2.0065 0.9749
3.6559 -4.8057 -2.0071 0.9749
4.4530 -4.0802 -2.0076 0.9749
4.7998 -3.6668 -2.0078 0.9749
5.1082 -3.2240 -2.0079 0.9749
5.3757 -2.7554 -2.0080 0.9749
5.8620 1.4423 -2.0067 0.9749
5.7089 1.9593 -2.0063 0.9749
5.5102 2.4604 -2.0059 0.9749
5.2675 2.9417 -2.0055 0.9749
4.6505 3.8229 -2.0011 0.9749
3.6047 4.2447 -1.8511 0.9768
0.9289 5.4811 -1.8479 0.9768
-0.0603 5.5559 -1.8469 0.9769
-0.5557 5.5270 -1.8465 0.9769
-1.0465 5.4540 -1.8460 0.9769
-2.4522 4.9788 -1.8448 0.9769
-2.8862 4.7392 -1.8445 0.9769
-3.6959 4.1655 -1.8511 0.9768
-4.3541 4.1028 -1.9886 0.9751
-4.7183 3.7100 -1.9952 0.9750
-5.0306 3.2742 -1.9952 0.9750
-5.5323 2.3276 -1.9951 0.9750
-5.7180 1.8247 -1.9951 0.9750
-5.8583 1.3072 -1.9952 0.9750
-5.9519 0.7792 -1.9953 0.9750
-5.9477 -0.8255 -1.9960 0.9750
-5.8513 -1.3532 -1.9963 0.9750
-5.7082 -1.8703 -1.9967 0.9750
-4.6972 -3.7526 -1.9985 0.9750
-4.3447 -4.1579 -1.9990 0.9750
-3.9574 -4.5303 -1.9995 0.9750
-3.0907 -5.1645 -2.0006 0.9749
-2.6182 -5.4212 -2.0012 0.9749
-2.1246 -5.6349 -2.0018 0.9749
-0.5566 -6.0015 -2.0035 0.9749
-0.0188 -6.0288 -2.0040 0.9749
1.5800 -5.8228 -2.0055 0.9749
2.0938 -5.6598 -2.0060 0.9749
2.5910 -5.4514 -2.0064 0.9749
3.0677 -5.1994 -2.0067 0.9749
3.5201 -4.9057 -2.0070 0.9749
4.3372 -4.2028 -2.0075 0.9749
4.6954 -3.7994 -2.0077 0.9749
6.0353 0.2087 -2.0074 0.9749
5.9918 0.7464 -2.0071 0.9749
5.9004 1.2780 -2.0068 0.9749
5.7617 1.7992 -2.0064 0.9749
5.3480 2.7936 -2.0056 0.9749
4.7609 3.6957 -2.0034 0.9749
4.3800 4.0760 -1.9888 0.9751
3.3367 4.4571 -1.8507 0.9768
2.9248 4.7358 -1.8502 0.9768
2.0351 5.1773 -1.8492 0.9768
1.0817 5.4535 -1.8481 0.9768
0.5906 5.5268 -1.8476 0.9768
-0.4012 5.5408 -1.8466 0.9769
-0.8938 5.4815 -1.8461 0.9769
-2.3123 5.0456 -1.8449 0.9769
-3.1713 4.5526 -1.8443 0.9769
-4.1653 4.1507 -1.9546 0.9755
-5.4651 2.4813 -1.9951 0.9750
-5.8194 1.4703 -1.9952 0.9750
-6.0024 -0.1237 -1.9957 0.9750
-5.9682 -0.6590 -1.9959 0.9750
-5.8865 -1.1892 -1.9962 0.9750
-5.1025 -3.1761 -1.9978 0.9750
-4.7998 -3.6197 -1.9983 0.9750
-4.4588 -4.0346 -1.9988 0.9750
-3.6725 -4.7655 -1.9999 0.9750
-3.2335 -5.0757 -2.0005 0.9750
-2.7684 -5.3455 -2.0010 0.9749
-2.2810 -5.5728 -2.0016 0.9749
-1.7750 -5.7558 -2.0022 0.9749
0.3514 -6.0197 -2.0044 0.9749
2.4376 -5.5213 -2.0062 0.9749
2.9211 -5.2828 -2.0066 0.9749
3.8149 -4.6808 -2.0072 0.9749
4.2180 -4.3222 -2.0075 0.9749
4.5873 -3.9289 -2.0077 0.9749
5.2133 -3.0512 -2.0079 0.9749
5.4650 -2.5739 -2.0080 0.9749
5.6728 -2.0759 -2.0080 0.9749
6.0191 -0.4990 -2.0077 0.9749
6.0390 0.0401 -2.0074 0.9749
6.0106 0.5788 -2.0072 0.9749
2.1308 4.7124 -1.8494 0.9783
1.2585 5.0134 -1.8485 0.9783
0.8058 5.1044 -1.8480 0.9783
0.3470 5.1546 -1.8475 0.9783
-0.1144 5.1637 -1.8470 0.9783
-0.5746 5.1317 -1.8466 0.9783
-1.0300 5.0588 -1.8462 0.9783
-1.9122 4.7932 -1.8454 0.9783
-2.3319 4.6026 -1.8451 0.9783
-3.1451 4.1572 -1.8642 0.9781
-3.7379 4.1182 -1.9889 0.9767
-4.1020 3.7788 -1.9945 0.9766
-5.5416 0.6619 -1.9958 0.9766
-5.5790 0.1647 -1.9960 0.9766
-5.5207 -0.8299 -1.9964 0.9766
-5.1063 -2.2637 -1.9974 0.9766
-4.8849 -2.7109 -1.9978 0.9765
-4.6245 -3.1367 -1.9983 0.9765
-4.3271 -3.5377 -1.9987 0.9765
-3.9951 -3.9107 -1.9992 0.9765
-3.6310 -4.2527 -1.9997 0.9765
-3.2379 -4.5609 -2.0002 0.9765
-2.8187 -4.8330 -2.0008 0.9765
-2.3768 -5.0666 -2.0013 0.9765
-0.9506 -5.5196 -2.0029 0.9765
-0.4543 -5.5838 -2.0034 0.9765
0.0458 -5.6035 -2.0039 0.9765
0.5458 -5.5784 -2.0044 0.9765
2.0052 -5.2379 -2.0057 0.9765
2.9055 -4.7997 -2.0064 0.9764
3.3227 -4.5219 -2.0067 0.9764
3.7135 -4.2079 -2.0069 0.9764
4.4032 -3.4814 -2.0073 0.9764
5.1686 -2.1909 -2.0075 0.9764
5.3434 -1.7209 -2.0075 0.9764
5.4755 -1.2371 -2.0074 0.9764
5.5637 -0.7435 -2.0073 0.9764
5.6062 0.2574 -2.0069 0.9764
4.0509 3.8561 -2.0000 0.9765
3.0543 4.1774 -1.8506 0.9783
2.6686 4.4322 -1.8501 0.9783
1.3981 4.9767 -1.8486 0.9783
-0.8884 5.0860 -1.8463 0.9783
-1.7776 4.8450 -1.8455 0.9783
-2.2025 4.6662 -1.8452 0.9783
-2.9960 4.1990 -1.8446 0.9783
-4.6259 3.1216 -1.9957 0.9766
-4.8858 2.6962 -1.9956 0.9766
-5.5208 0.8164 -1.9957 0.9766
-5.5721 0.3205 -1.9959 0.9766
-5.5415 -0.6753 -1.9963 0.9766
-5.4599 -1.1673 -1.9966 0.9766
-5.3348 -1.6502 -1.9970 0.9766
-5.1672 -2.1201 -1.9973 0.9766
-4.7100 -3.0061 -1.9981 0.9765
-4.1024 -3.7973 -1.9991 0.9765
-3.7481 -4.1493 -1.9996 0.9765
-3.3637 -4.4684 -2.0001 0.9765
-2.9523 -4.7520 -2.0006 0.9765
-2.5171 -4.9978 -2.0011 0.9765
-2.0616 -5.2039 -2.0017 0.9765
-1.5894 -5.3685 -2.0022 0.9765
-0.6101 -5.5685 -2.0033 0.9765
-0.1107 -5.6021 -2.0038 0.9765
0.3898 -5.5910 -2.0042 0.9765
0.8874 -5.5352 -2.0047 0.9765
1.3781 -5.4351 -2.0052 0.9765
1.8580 -5.2916 -2.0056 0.9765
3.1950 -4.6128 -2.0066 0.9764
3.5943 -4.3098 -2.0069 0.9764
3.9650 -3.9723 -2.0071 0.9764
4.6088 -3.2046 -2.0074 0.9764
4.8766 -2.7807 -2.0075 0.9764
5.2933 -1.8695 -2.0075 0.9764
5.4389 -1.3896 -2.0075 0.9764
5.5409 -0.8988 -2.0073 0.9764
5.5985 -0.4006 -2.0072 0.9764
5.3820 1.5827 -2.0062 0.9765
5.0131 2.5134 -2.0054 0.9765
3.7901 4.0797 -1.9914 0.9766
3.1838 4.1086 -1.8588 0.9782
1.9716 4.7806 -1.8493 0.9783
1.5367 4.9361 -1.8488 0.9783
1.0898 5.0523 -1.8483 0.9783
-0.2872 5.1566 -1.8469 0.9783
-1.6417 4.8931 -1.8457 0.9783
-2.0714 4.7261 -1.8453 0.9783
-2.8776 4.2812 -1.8447 0.9783
-3.3645 4.1508 -1.9107 0.9776
-4.2291 3.6418 -1.9958 0.9766
-4.5369 3.2496 -1.9957 0.9766
-5.0420 2.3912 -1.9956 0.9766
-5.2353 1.9317 -1.9956 0.9766
-5.5580 -0.5202 -1.9963 0.9766
-5.4901 -1.0143 -1.9965 0.9766
-5.2241 -1.9748 -1.9972 0.9766
-4.7918 -2.8732 -1.9980 0.9765
-4.5173 -3.2901 -1.9985 0.9765
-4.2066 -3.6809 -1.9989 0.9765
-3.4870 -4.3723 -1.9999 0.9765
-3.0837 -4.6673 -2.0004 0.9765
-2.6556 -4.9251 -2.0010 0.9765
-2.2060 -5.1438 -2.0015 0.9765
-1.7386 -5.3216 -2.0020 0.9765
-1.2571 -5.4570 -2.0026 0.9765
-0.7653 -5.5488 -2.0031 0.9765
0.2334 -5.5993 -2.0041 0.9765
0.7324 -5.5575 -2.0046 0.9765
1.2257 -5.4712 -2.0050 0.9765
1.7094 -5.3411 -2.0054 0.9765
2.6326 -4.9539 -2.0062 0.9764
4.2017 -3.7216 -2.0072 0.9764
4.5174 -3.3321 -2.0074 0.9764
5.3980 -1.5410 -2.0075 0.9764
5.5942 0.4449 -2.0068 0.9764
5.5314 0.9422 -2.0066 0.9764
4.5770 3.2367 -2.0047 0.9765
4.2687 3.6312 -2.0041 0.9765
3.9149 3.9848 -1.9977 0.9765
0.7775 5.1087 -1.8479 0.9783
0.3184 5.1564 -1.8475 0.9783
-0.6031 5.1284 -1.8466 0.9783
-1.0581 5.0530 -1.8462 0.9783
-1.9387 4.7824 -1.8454 0.9783
-2.7571 4.3601 -1.8448 0.9783
-3.1807 4.1562 -1.8716 0.9780
-4.1237 3.7567 -1.9948 0.9766
-4.4445 3.3752 -1.9957 0.9766
-4.7277 2.9649 -1.9956 0.9766
-5.4664 1.1234 -1.9957 0.9766
-5.5452 0.6311 -1.9958 0.9766
-5.5799 0.1338 -1.9960 0.9766
-5.5701 -0.3648 -1.9962 0.9766
-5.2769 -1.8280 -1.9971 0.9766
-5.0937 -2.2920 -1.9975 0.9766
-4.6071 -3.1624 -1.9983 0.9765
-4.3075 -3.5617 -1.9988 0.9765
-3.9734 -3.9329 -1.9993 0.9765
-3.2126 -4.5789 -2.0003 0.9765
-1.4090 -5.4193 -2.0024 0.9765
