ply
format ascii 1.0
element vertex 1563
property float32 x
property float32 y
property float32 z
property float32 I
end_header
14.1095 13.3352 -1.8638 0.9250
7.5644 10.2724 -1.2247 0.9500
6.2398 10.2858 -1.1550 0.9528
3.9560 10.3088 -1.0601 0.9566
1.0148 10.3095 -0.9945 0.9592
0.0895 10.3168 -0.9905 0.9594
-0.8360 10.3297 -0.9949 0.9592
-1.7785 10.3488 -1.0081 0.9587
-2.7557 10.3744 -1.0305 0.9578
-4.8761 10.3979 -1.1026 0.9549
-6.0705 10.4099 -1.1569 0.9527
-7.4001 10.4233 -1.2272 0.9499
-8.9145 10.4386 -1.3179 0.9463
-15.4909 10.4999 -1.7966 0.9276
-17.4402 7.7216 -1.8311 0.9262
-18.0540 6.1310 -1.8305 0.9262
-18.5247 4.4928 -1.8300 0.9263
-11.5231 -15.2824 -1.8375 0.9260
-10.1201 -16.2635 -1.8390 0.9259
-8.6344 -17.1168 -1.8405 0.9259
-7.0773 -17.8353 -1.8422 0.9258
-3.7982 -18.8449 -1.8456 0.9257
-2.1018 -19.1271 -1.8473 0.9256
3.0528 -19.0550 -1.8527 0.9254
11.0415 -15.9321 -1.8610 0.9251
15.5251 11.6824 -1.8653 0.9249
9.4912 10.2530 -1.3413 0.9454
6.5613 10.2825 -1.1710 0.9522
5.3404 10.2948 -1.1134 0.9545
3.1867 10.3142 -1.0364 0.9575
-0.6005 10.3259 -0.9930 0.9593
-2.5036 10.3672 -1.0239 0.9580
-3.5505 10.4888 -1.0631 0.9565
-4.5902 10.3950 -1.0909 0.9554
-5.7566 10.4068 -1.1418 0.9533
-8.5097 10.4345 -1.2927 0.9473
-10.2025 10.4466 -1.4019 0.9430
-17.2624 8.1158 -1.8313 0.9262
-18.4192 4.9118 -1.8301 0.9263
-9.0182 -16.9130 -1.8401 0.9259
-6.7138 -15.8608 -1.6535 0.9331
-5.8756 -18.2802 -1.8434 0.9257
-2.5342 -19.0699 -1.8469 0.9256
0.9008 -19.2537 -1.8505 0.9255
2.6194 -19.1147 -1.8523 0.9254
5.9898 -18.3781 -1.8557 0.9253
7.6142 -17.7859 -1.8574 0.9252
9.1804 -17.0496 -1.8590 0.9251
15.7882 11.3291 -1.8656 0.9249
6.8919 10.2792 -1.1881 0.9515
5.6385 10.2918 -1.1266 0.9539
4.4997 10.3033 -1.0794 0.9558
3.4446 10.3140 -1.0440 0.9572
1.4889 10.3080 -0.9999 0.9590
-2.2548 10.3605 -1.0179 0.9583
-3.2538 10.3815 -1.0445 0.9572
-4.3135 10.4002 -1.0809 0.9558
-5.4506 10.4037 -1.1276 0.9539
-11.6792 10.4615 -1.5053 0.9389
-13.5978 10.1457 -1.6288 0.9341
-16.2552 10.0016 -1.8323 0.9262
-17.7605 6.9441 -1.8308 0.9262
-18.3042 5.3284 -1.8302 0.9263
-9.3973 -16.7006 -1.8397 0.9259
-7.8748 -17.4883 -1.8413 0.9258
-6.2870 -18.1381 -1.8430 0.9258
-2.9652 -19.0029 -1.8464 0.9256
-1.2572 -19.2103 -1.8482 0.9256
0.4640 -19.2644 -1.8500 0.9255
2.1849 -19.1645 -1.8518 0.9254
8.7896 -17.2496 -1.8586 0.9252
13.8182 13.6322 -1.8635 0.9250
7.2326 10.2757 -1.2064 0.9508
5.9439 10.2887 -1.1408 0.9534
3.7056 10.3113 -1.0519 0.9569
-1.0596 10.3337 -0.9973 0.9591
-2.0087 10.3543 -1.0126 0.9585
-4.0762 10.4941 -1.0808 0.9558
-6.3751 10.4130 -1.1722 0.9521
-7.7437 10.4268 -1.2469 0.9491
-9.3122 10.4426 -1.3433 0.9453
-11.1538 10.4562 -1.4678 0.9404
-13.3994 10.4788 -1.6331 0.9339
-16.0263 10.3688 -1.8326 0.9262
-18.1800 5.7424 -1.8304 0.9262
-12.7269 -14.6853 -1.8656 0.9249
-8.2674 -17.3015 -1.8409 0.9258
-6.6950 -17.9867 -1.8426 0.9258
-5.0664 -18.5299 -1.8443 0.9257
-1.6920 -19.1721 -1.8478 0.9256
0.0273 -19.2653 -1.8496 0.9255
1.7495 -19.2044 -1.8514 0.9254
3.4611 -18.9896 -1.8531 0.9254
5.1482 -18.6221 -1.8549 0.9253
8.3945 -17.4406 -1.8582 0.9252
14.6321 11.5096 -1.7873 0.9279
7.5840 10.2722 -1.2258 0.9500
6.2572 10.2856 -1.1558 0.9528
2.9456 10.3123 -1.0296 0.9578
0.1024 10.3166 -0.9905 0.9594
-2.7418 10.3740 -1.0301 0.9578
-3.8038 10.4914 -1.0714 0.9561
-4.8602 10.3977 -1.1019 0.9549
-7.3804 10.4231 -1.2261 0.9500
-12.7835 10.4726 -1.5865 0.9358
-15.4489 10.4995 -1.7933 0.9277
-18.0465 6.1535 -1.8305 0.9262
-11.5420 -15.2678 -1.8375 0.9260
-8.6555 -17.1059 -1.8405 0.9259
-7.0994 -17.8263 -1.8421 0.9258
-5.4839 -18.4060 -1.8438 0.9257
-3.8216 -18.8399 -1.8456 0.9257
15.9272 5.9107 -2.0180 0.9339
15.3308 7.3074 -2.0174 0.9339
13.5003 7.9869 -1.8633 0.9388
10.8838 11.2634 -1.8605 0.9389
8.2811 10.2652 -1.5667 0.9483
6.8735 10.2794 -1.4689 0.9514
5.6219 10.2920 -1.3930 0.9539
4.4845 10.3035 -1.3348 0.9557
1.4796 10.3338 -1.2400 0.9588
0.5464 10.3432 -1.2303 0.9591
-1.3136 10.3619 -1.2407 0.9588
-3.2680 10.3816 -1.2929 0.9571
-4.3254 10.3923 -1.3371 0.9557
-5.4673 10.4038 -1.3961 0.9538
-6.7249 10.4165 -1.4728 0.9513
-8.1408 10.4308 -1.5717 0.9481
-9.7747 10.4473 -1.6995 0.9440
-12.4018 9.2294 -1.8363 0.9396
-13.8350 6.8701 -1.8349 0.9397
-14.3889 5.6052 -1.8343 0.9397
-16.3972 3.1977 -1.9844 0.9349
-16.6155 1.7202 -1.9842 0.9349
-16.4786 -2.7464 -1.9844 0.9349
-15.7334 -5.6368 -1.9852 0.9349
-15.1717 -7.0216 -1.9858 0.9349
-14.4892 -8.3517 -1.9866 0.9349
-12.7836 -10.8061 -1.9884 0.9348
-11.7737 -11.9111 -1.9894 0.9348
-9.4780 -13.8325 -1.9918 0.9347
-8.1852 -14.5891 -1.9871 0.9348
-5.0858 -14.7317 -1.8513 0.9392
-3.7382 -15.0808 -1.8456 0.9393
-2.3781 -15.3662 -1.8470 0.9393
1.7847 -15.4830 -1.8513 0.9391
3.1629 -15.2735 -1.8528 0.9391
4.5179 -14.9413 -1.8542 0.9391
5.9946 -14.8758 -1.9051 0.9374
7.6065 -14.8820 -1.9853 0.9349
9.0209 -14.3266 -2.0111 0.9341
10.2710 -13.4722 -2.0123 0.9340
11.4401 -12.5085 -2.0135 0.9340
12.5185 -11.4430 -2.0147 0.9340
13.4972 -10.2843 -2.0157 0.9339
14.3682 -9.0417 -2.0166 0.9339
15.7587 -6.3455 -2.0180 0.9339
16.8865 -1.9419 -2.0191 0.9338
15.4938 6.9586 -2.0175 0.9339
12.9332 8.8669 -1.8627 0.9388
11.1379 11.0153 -1.8608 0.9388
5.9269 10.2889 -1.4105 0.9533
4.7639 10.3006 -1.3481 0.9553
1.7190 10.3314 -1.2441 0.9587
0.7816 10.3408 -1.2318 0.9591
-3.0104 10.3790 -1.2837 0.9574
-4.0913 10.4943 -1.3380 0.9556
-12.9857 8.3787 -1.8357 0.9396
-13.6769 7.1826 -1.8350 0.9397
-14.2592 5.9304 -1.8344 0.9397
-16.6927 0.6078 -1.9842 0.9349
-16.6805 -0.8856 -1.9842 0.9349
-16.5361 -2.3721 -1.9844 0.9349
-15.3257 -6.6753 -1.9857 0.9349
-14.6733 -8.0203 -1.9864 0.9349
-13.9040 -9.3026 -1.9872 0.9348
-13.0236 -10.5122 -1.9881 0.9348
-12.0389 -11.6395 -1.9891 0.9348
-10.9575 -12.6755 -1.9903 0.9347
-9.7876 -13.6119 -1.9915 0.9347
-8.5246 -14.4180 -1.9896 0.9348
-7.0003 -14.6967 -1.9337 0.9365
-5.4598 -14.7243 -1.8654 0.9387
-4.0783 -14.9893 -1.8452 0.9393
-2.7253 -15.3054 -1.8467 0.9393
1.4330 -15.5164 -1.8510 0.9392
4.1772 -15.0370 -1.8538 0.9391
5.6054 -14.8738 -1.8881 0.9380
7.1852 -14.8806 -1.9629 0.9356
8.6892 -14.5197 -2.0100 0.9341
11.1520 -12.7627 -2.0133 0.9340
14.1580 -9.3640 -2.0163 0.9339
15.6097 -6.7006 -2.0178 0.9339
16.1501 -5.2810 -2.0184 0.9338
16.5606 -3.8182 -2.0188 0.9338
16.9791 -0.8110 -2.0192 0.9338
16.9836 0.7088 -2.0192 0.9338
16.5828 3.7183 -2.0187 0.9338
15.6489 6.6061 -2.0177 0.9339
14.9911 7.9747 -2.0170 0.9339
13.1323 8.5725 -1.8629 0.9388
4.4056 8.9855 -1.1887 0.9605
3.9560 10.3088 -1.3116 0.9565
2.9337 10.3191 -1.2743 0.9577
1.9602 10.3289 -1.2488 0.9585
1.0176 10.3384 -1.2340 0.9590
0.0898 10.3478 -1.2292 0.9592
-2.7563 10.3765 -1.2753 0.9577
-4.8761 10.3979 -1.3642 0.9548
-8.9145 10.4386 -1.6306 0.9462
-14.6201 4.9649 -1.8341 0.9397
-16.2176 3.9333 -1.9823 0.9350
-16.6747 0.9860 -1.9842 0.9349
-16.6961 -0.5073 -1.9842 0.9349
-16.5851 -1.9966 -1.9843 0.9349
-16.3427 -3.4704 -1.9846 0.9349
-15.9707 -4.9172 -1.9850 0.9349
-13.2569 -10.2130 -1.9879 0.9348
-7.4104 -14.6904 -1.9545 0.9359
-5.8400 -14.7171 -1.8808 0.9382
-4.4185 -14.8980 -1.8459 0.9393
-3.0709 -15.2367 -1.8463 0.9393
-1.6991 -15.4620 -1.8477 0.9393
-0.3115 -15.5641 -1.8492 0.9392
2.4664 -15.3952 -1.8521 0.9391
5.2227 -14.8717 -1.8723 0.9385
10.8582 -13.0103 -2.0129 0.9340
13.0140 -10.8828 -2.0152 0.9339
14.7557 -8.4012 -2.0169 0.9339
16.0252 -5.6454 -2.0182 0.9338
16.7802 -2.7051 -2.0190 0.9338
16.9562 -1.1957 -2.0192 0.9338
16.8976 1.8402 -2.0191 0.9338
16.6635 3.3416 -2.0188 0.9338
15.7958 6.2502 -2.0179 0.9339
15.1694 7.6335 -2.0172 0.9339
13.3247 8.2734 -1.8631 0.9388
12.5268 9.4263 -1.8622 0.9388
7.9269 10.2687 -1.5409 0.9491
5.3403 10.2948 -1.3776 0.9544
4.2254 10.3061 -1.3231 0.9561
1.2545 10.3360 -1.2368 0.9589
0.3244 10.3454 -1.2295 0.9592
-2.5053 10.3740 -1.2677 0.9579
-4.5902 10.3950 -1.3498 0.9553
-8.5097 10.4345 -1.5994 0.9472
-10.2024 10.4466 -1.7345 0.9429
-15.9262 4.2470 -1.9579 0.9358
-16.6258 -1.6201 -1.9843 0.9349
-15.0190 -7.3456 -1.9860 0.9349
-13.4834 -9.9087 -1.9876 0.9348
-11.5173 -12.1622 -1.9897 0.9348
-7.8295 -14.6837 -1.9767 0.9352
-6.2265 -14.7096 -1.8974 0.9377
-4.7517 -14.7834 -1.8445 0.9394
-3.4149 -15.1602 -1.8459 0.9393
-2.0487 -15.4165 -1.8474 0.9393
-0.6641 -15.5499 -1.8488 0.9392
3.4901 -15.2050 -1.8531 0.9391
4.8473 -14.8727 -1.8581 0.9389
6.3691 -14.8775 -1.9224 0.9369
7.9943 -14.8469 -2.0030 0.9343
11.7071 -12.2622 -2.0138 0.9340
12.7624 -11.1736 -2.0149 0.9340
16.7141 -3.0847 -2.0189 0.9338
16.9245 -1.5797 -2.0191 0.9338
16.9353 1.4567 -2.0191 0.9338
16.4012 4.4453 -2.0185 0.9338
15.9346 5.8909 -2.0180 0.9339
15.3400 7.2883 -2.0174 0.9339
13.5102 7.9701 -1.8633 0.9388
12.7388 9.1410 -1.8625 0.9388
11.8656 10.2372 -1.8615 0.9388
5.6385 10.2918 -1.3940 0.9538
4.4997 10.3033 -1.3355 0.9557
3.4446 10.3139 -1.2917 0.9571
1.4926 10.3336 -1.2402 0.9588
-0.3668 10.3524 -1.2305 0.9591
-3.2538 10.3815 -1.2923 0.9571
-6.7065 10.4163 -1.4716 0.9513
-9.7501 10.4470 -1.6975 0.9441
-11.5208 10.3196 -1.8372 0.9396
-13.1609 8.0977 -1.8356 0.9397
-14.3820 5.6231 -1.8343 0.9397
-14.8231 4.3151 -1.8339 0.9397
-16.7018 0.2500 -1.9842 0.9349
-16.1754 -4.1879 -1.9848 0.9349
-15.7404 -5.6172 -1.9852 0.9349
-14.4995 -8.3336 -1.9865 0.9349
-13.7030 -9.5994 -1.9874 0.9348
-12.7970 -10.7901 -1.9883 0.9348
-8.2039 -14.5798 -1.9872 0.9348
-6.6204 -14.7024 -1.9153 0.9371
-3.7569 -15.0760 -1.8456 0.9393
-1.0162 -15.5278 -1.8484 0.9392
0.3750 -15.5687 -1.8499 0.9392
1.7654 -15.4851 -1.8513 0.9392
3.1439 -15.2773 -1.8528 0.9391
4.4993 -14.9467 -1.8542 0.9391
10.2542 -13.4849 -2.0123 0.9340
11.4244 -12.5226 -2.0135 0.9340
12.5041 -11.4585 -2.0146 0.9340
13.4843 -10.3010 -2.0156 0.9339
15.7507 -6.3651 -2.0180 0.9339
16.6392 -3.4627 -2.0189 0.9338
16.8840 -1.9629 -2.0191 0.9338
16.9927 -0.4470 -2.0192 0.9338
16.9643 1.0724 -2.0191 0.9338
16.7992 2.5831 -2.0190 0.9338
16.0652 5.5286 -2.0182 0.9339
13.6889 7.6626 -1.8635 0.9388
8.6909 10.2610 -1.5973 0.9473
3.7056 10.3113 -1.3015 0.9568
1.7323 10.3312 -1.2443 0.9587
0.7946 10.3407 -1.2319 0.9591
-0.1320 10.3500 -1.2295 0.9592
-2.9964 10.3789 -1.2832 0.9574
-4.0762 10.4941 -1.3373 0.9557
-6.3751 10.4130 -1.4503 0.9520
-7.7437 10.4268 -1.5428 0.9490
-9.3122 10.4426 -1.6620 0.9452
-11.1538 10.4562 -1.8161 0.9403
-12.1791 9.5245 -1.8366 0.9396
-13.6680 7.1996 -1.8350 0.9397
-14.2518 5.9482 -1.8344 0.9397
-16.6919 0.6285 -1.9842 0.9349
-16.6816 -0.8648 -1.9842 0.9349
-16.2653 -3.8199 -1.9847 0.9349
-15.8626 -5.2585 -1.9851 0.9349
-15.3339 -6.6562 -1.9857 0.9349
-8.5431 -14.4084 -1.9897 0.9348
-7.0226 -14.6963 -1.9348 0.9365
-5.4805 -14.7239 -1.8662 0.9387
-4.0969 -14.9841 -1.8452 0.9393
-2.7443 -15.3018 -1.8466 0.9393
0.0220 -15.5701 -1.8495 0.9392
1.4137 -15.5181 -1.8510 0.9392
2.7962 -15.3417 -1.8524 0.9391
4.1585 -15.0421 -1.8538 0.9391
5.5842 -14.8737 -1.8872 0.9380
11.1360 -12.7765 -2.0132 0.9340
12.2395 -11.7374 -2.0144 0.9340
14.1463 -9.3816 -2.0163 0.9339
14.9336 -8.0838 -2.0171 0.9339
15.6012 -6.7200 -2.0178 0.9339
16.1435 -5.3011 -2.0184 0.9338
16.9781 -0.8321 -2.0192 0.9338
16.9845 0.6876 -2.0192 0.9338
16.1874 5.1634 -2.0183 0.9338
15.0011 7.9561 -2.0170 0.9339
11.3999 10.7474 -1.8611 0.9388
4.4151 8.9767 -1.1883 0.9605
2.9475 10.3190 -1.2748 0.9577
1.9735 10.3288 -1.2491 0.9585
0.1027 10.3477 -1.2292 0.9592
-1.7683 10.3665 -1.2492 0.9585
-3.8038 10.4914 -1.3256 0.9560
-6.0531 10.4097 -1.4304 0.9527
-7.3804 10.4231 -1.5171 0.9499
-11.9615 9.7993 -1.8368 0.9396
-14.1144 6.2702 -1.8346 0.9397
-14.6140 4.9831 -1.8341 0.9397
-16.5181 2.4921 -1.9843 0.9349
-16.6735 1.0067 -1.9842 0.9349
-16.6967 -0.4865 -1.9842 0.9349
-16.3470 -3.4501 -1.9846 0.9349
-14.8594 -7.6664 -1.9862 0.9349
-14.1208 -8.9665 -1.9869 0.9348
-12.3121 -11.3467 -1.9889 0.9348
-4.4384 -14.8971 -1.8464 0.9393
-1.7183 -15.4597 -1.8477 0.9393
3.8157 -15.1295 -1.8535 0.9391
12.8087 6.1052 -2.0105 0.9443
10.6578 7.6678 -1.8603 0.9483
9.9263 8.5855 -1.8595 0.9484
8.2325 10.2049 -1.8578 0.9484
4.4846 10.3035 -1.5922 0.9556
2.4353 10.3241 -1.5030 0.9581
-1.3136 10.3619 -1.4799 0.9587
-3.2680 10.3817 -1.5421 0.9570
-10.4089 7.7463 -1.8384 0.9489
-11.0552 6.7832 -1.8378 0.9489
-11.6133 5.7669 -1.8372 0.9490
-13.4600 3.9001 -1.9856 0.9450
-13.9492 1.4441 -1.9870 0.9449
-14.0220 0.1924 -1.9869 0.9449
-13.5747 -3.5326 -1.9875 0.9449
-13.2076 -4.7318 -1.9878 0.9449
-12.1618 -7.0102 -1.9890 0.9449
-11.4911 -8.0713 -1.9897 0.9448
-10.7286 -9.0690 -1.9905 0.9448
-9.8802 -9.9955 -1.9914 0.9448
-6.8877 -12.2764 -1.9945 0.9447
-4.5991 -13.3219 -1.9969 0.9447
-3.3930 -13.6880 -1.9981 0.9446
-0.9046 -14.0916 -2.0007 0.9446
1.6191 -14.0461 -2.0034 0.9445
2.8690 -13.8543 -2.0047 0.9444
4.0976 -13.5513 -2.0059 0.9444
5.2948 -13.1392 -2.0072 0.9444
7.5569 -12.0015 -2.0095 0.9443
8.6032 -11.2847 -2.0106 0.9443
9.5816 -10.4764 -2.0116 0.9443
11.3026 -8.6121 -2.0134 0.9442
13.1939 -5.3127 -2.0153 0.9442
13.9337 -2.8816 -2.0160 0.9441
14.2261 -0.3566 -2.0163 0.9441
14.0611 2.1800 -2.0161 0.9441
13.4445 4.6454 -2.0154 0.9442
10.8300 7.4250 -1.8605 0.9483
8.4628 10.0169 -1.8580 0.9484
4.7639 10.3006 -1.6080 0.9552
3.6911 10.3115 -1.5518 0.9567
2.6831 10.3216 -1.5111 0.9578
1.7190 10.3314 -1.4840 0.9586
-1.0753 10.3595 -1.4757 0.9588
-4.0505 10.3895 -1.5800 0.9559
-5.1194 10.3024 -1.6300 0.9546
-9.4819 8.8673 -1.8394 0.9489
-10.2317 7.9810 -1.8386 0.9489
-10.8996 7.0327 -1.8379 0.9489
-11.9698 4.9782 -1.8368 0.9490
-13.3354 4.1939 -1.9807 0.9451
-13.7017 2.9959 -1.9872 0.9449
-14.0037 -0.7435 -1.9870 0.9449
-13.8824 -1.9914 -1.9871 0.9449
-13.6508 -3.2238 -1.9874 0.9449
-12.8648 -5.6035 -1.9882 0.9449
-11.6700 -7.8080 -1.9895 0.9449
-10.9303 -8.8225 -1.9903 0.9448
-8.2121 -11.4209 -1.9931 0.9448
-3.7018 -13.6054 -1.9978 0.9446
-2.4734 -13.8906 -1.9991 0.9446
-1.2236 -14.0651 -2.0004 0.9446
0.0375 -14.1275 -2.0017 0.9445
2.5538 -13.9135 -2.0043 0.9445
4.9949 -13.2538 -2.0069 0.9444
8.3441 -11.4753 -2.0103 0.9443
9.3405 -10.6896 -2.0113 0.9443
11.1033 -8.8652 -2.0132 0.9442
13.0692 -5.6101 -2.0152 0.9442
13.5211 -4.4214 -2.0156 0.9441
13.8643 -3.1966 -2.0160 0.9441
14.2142 -0.6789 -2.0163 0.9441
14.2180 0.5934 -2.0163 0.9441
14.1073 1.8608 -2.0162 0.9441
13.8830 3.1130 -2.0159 0.9441
9.5360 9.0128 -1.8591 0.9484
8.6888 9.8238 -1.8582 0.9484
6.2398 10.2858 -1.7046 0.9526
2.9337 10.3191 -1.5200 0.9576
1.9602 10.3289 -1.4896 0.9584
1.0176 10.3384 -1.4719 0.9589
0.0898 10.3478 -1.4662 0.9591
-0.8382 10.3572 -1.4723 0.9589
-2.7563 10.3765 -1.5212 0.9576
-4.8761 10.3979 -1.6272 0.9547
-6.0705 10.4099 -1.7074 0.9525
-7.4000 10.4233 -1.8112 0.9497
-8.4354 9.8776 -1.8404 0.9489
-10.0492 8.2117 -1.8388 0.9489
-10.7383 7.2786 -1.8381 0.9489
-11.3417 6.2883 -1.8375 0.9490
-12.5283 4.2545 -1.8747 0.9480
-13.6308 3.3059 -1.9873 0.9449
-14.0169 -0.4259 -1.9870 0.9449
-13.9236 -1.6762 -1.9871 0.9449
-13.7198 -2.9134 -1.9873 0.9449
-13.4070 -4.1279 -1.9876 0.9449
-12.9877 -5.3101 -1.9881 0.9449
-12.4650 -6.4507 -1.9886 0.9449
-11.8429 -7.5407 -1.9893 0.9449
-11.1263 -8.5716 -1.9901 0.9448
-10.3206 -9.5352 -1.9909 0.9448
-9.4322 -10.4238 -1.9918 0.9448
-8.4677 -11.2302 -1.9928 0.9448
-5.1966 -13.0957 -1.9963 0.9447
-0.2827 -14.1223 -2.0014 0.9445
0.9805 -14.1004 -2.0027 0.9445
3.4780 -13.7187 -2.0053 0.9444
7.0031 -12.3282 -2.0089 0.9443
8.0807 -11.6599 -2.0100 0.9443
10.8984 -9.1136 -2.0129 0.9442
11.6734 -8.1070 -2.0137 0.9442
12.9378 -5.9045 -2.0150 0.9442
13.7878 -3.5099 -2.0159 0.9441
14.0480 -2.2647 -2.0161 0.9441
14.2279 0.2709 -2.0163 0.9441
14.1461 1.5405 -2.0162 0.9441
11.7355 5.9055 -1.8615 0.9483
8.9104 9.6255 -1.8585 0.9484
7.9269 10.2687 -1.8380 0.9489
6.5613 10.2825 -1.7283 0.9519
5.3403 10.2948 -1.6432 0.9542
4.2254 10.3061 -1.5782 0.9560
1.2545 10.3360 -1.4753 0.9588
0.3244 10.3454 -1.4666 0.9590
-0.6022 10.3548 -1.4696 0.9590
-1.5402 10.3642 -1.4846 0.9586
-2.5053 10.3740 -1.5121 0.9578
-4.5902 10.3950 -1.6101 0.9551
-5.7566 10.4068 -1.6851 0.9531
-8.2104 10.0675 -1.8407 0.9489
-9.0724 9.2895 -1.8398 0.9489
-11.1972 6.5442 -1.8376 0.9490
-11.7334 5.5164 -1.8371 0.9490
-12.1762 4.4452 -1.8366 0.9490
-13.8196 2.3889 -1.9871 0.9449
-13.9767 1.1449 -1.9870 0.9449
-13.9578 -1.3601 -1.9870 0.9449
-13.7818 -2.6016 -1.9872 0.9449
-13.1039 -5.0140 -1.9880 0.9449
-11.3166 -8.3163 -1.9899 0.9448
-8.7190 -11.0340 -1.9926 0.9448
-6.6240 -12.4228 -1.9948 0.9447
-5.4912 -12.9725 -1.9960 0.9447
-4.3133 -13.4194 -1.9972 0.9446
-0.6026 -14.1100 -2.0010 0.9445
0.6605 -14.1166 -2.0024 0.9445
7.8133 -11.8384 -2.0098 0.9443
10.6878 -9.3573 -2.0127 0.9442
11.4855 -8.3687 -2.0136 0.9442
12.7998 -6.1958 -2.0149 0.9442
14.2304 -0.0517 -2.0163 0.9441
14.1777 1.2195 -2.0162 0.9441
13.7312 3.7216 -2.0158 0.9441
13.3411 4.9321 -2.0153 0.9442
11.3126 6.6737 -1.8610 0.9483
6.8919 10.2792 -1.7535 0.9512
5.6385 10.2918 -1.6627 0.9537
3.4446 10.3140 -1.5407 0.9570
-0.3668 10.3524 -1.4677 0.9590
-1.3005 10.3618 -1.4797 0.9587
-4.3041 10.3774 -1.5918 0.9556
-7.9811 10.2524 -1.8409 0.9489
-11.0469 6.7970 -1.8378 0.9489
-11.6062 5.7813 -1.8372 0.9490
-13.4533 3.9163 -1.9853 0.9450
-13.9474 1.4615 -1.9870 0.9449
-13.5791 -3.5157 -1.9874 0.9449
-13.2134 -4.7154 -1.9878 0.9449
-12.7427 -5.8782 -1.9883 0.9449
-12.1704 -6.9950 -1.9890 0.9449
-10.7398 -9.0556 -1.9905 0.9448
-9.8925 -9.9831 -1.9914 0.9448
0.3403 -14.1256 -2.0020 0.9445
4.0807 -13.5563 -2.0059 0.9444
5.2784 -13.1457 -2.0072 0.9444
6.4353 -12.6293 -2.0083 0.9443
8.5891 -11.2953 -2.0106 0.9443
9.5685 -10.4882 -2.0116 0.9443
12.0216 -7.5859 -2.0141 0.9442
12.6551 -6.4839 -2.0147 0.9442
13.1872 -5.3291 -2.0153 0.9442
14.1347 -1.6433 -2.0162 0.9441
14.2256 -0.3742 -2.0163 0.9441
13.4503 4.6287 -2.0155 0.9442
10.8392 7.4115 -1.8605 0.9483
10.1299 8.3467 -1.8598 0.9484
7.2325 10.2757 -1.7804 0.9505
5.9439 10.2887 -1.6836 0.9531
4.7794 10.3005 -1.6089 0.9552
2.6968 10.3215 -1.5115 0.9578
1.7323 10.3312 -1.4843 0.9586
-1.0623 10.3594 -1.4755 0.9588
-2.0116 10.3690 -1.4966 0.9582
-2.9964 10.3789 -1.5306 0.9573
-4.0355 10.3894 -1.5792 0.9560
-5.1033 10.3023 -1.6290 0.9546
-7.7437 10.4268 -1.8402 0.9489
-8.6441 9.6934 -1.8402 0.9489
-10.2218 7.9938 -1.8386 0.9489
-11.4730 6.0434 -1.8373 0.9490
-13.6980 3.0130 -1.9873 0.9449
-13.9109 1.7773 -1.9870 0.9449
-14.0134 0.5277 -1.9870 0.9449
-14.0047 -0.7261 -1.9870 0.9449
-13.8848 -1.9741 -1.9871 0.9449
-13.6547 -3.2068 -1.9874 0.9449
-12.3248 -6.7167 -1.9888 0.9449
-11.6797 -7.7934 -1.9895 0.9449
-10.1151 -9.7552 -1.9911 0.9448
-8.2263 -11.4105 -1.9931 0.9448
-7.1782 -12.1063 -1.9942 0.9447
-4.9155 -13.2059 -1.9966 0.9447
-2.4907 -13.8874 -1.9991 0.9446
0.0200 -14.1274 -2.0017 0.9445
2.5365 -13.9165 -2.0043 0.9445
4.9783 -13.2599 -2.0068 0.9444
6.1464 -12.7700 -2.0080 0.9444
7.2666 -12.1770 -2.0092 0.9443
8.3298 -11.4855 -2.0103 0.9443
9.3271 -10.7011 -2.0113 0.9443
10.2505 -9.8299 -2.0123 0.9442
12.5039 -6.7686 -2.0146 0.9442
13.0622 -5.6263 -2.0152 0.9442
13.5156 -4.4381 -2.0156 0.9441
13.8603 -3.2138 -2.0160 0.9441
14.0936 -1.9632 -2.0162 0.9441
14.2187 0.5756 -2.0163 0.9441
14.1096 1.8432 -2.0162 0.9441
13.8869 3.0957 -2.0159 0.9441
13.5525 4.3229 -2.0156 0.9442
11.0055 7.1646 -1.8607 0.9483
10.3176 8.1158 -1.8600 0.9483
9.5473 9.0009 -1.8591 0.9484
8.7011 9.8130 -1.8583 0.9484
6.2572 10.2856 -1.7058 0.9525
4.4281 9.0032 -1.4216 0.9603
3.9707 10.3086 -1.5652 0.9564
2.9475 10.3190 -1.5206 0.9576
1.0306 10.3383 -1.4721 0.9589
0.1027 10.3477 -1.4662 0.9591
-1.7683 10.3665 -1.4900 0.9584
-3.7658 10.3867 -1.5654 0.9563
-6.0531 10.4097 -1.7062 0.9525
-8.4232 9.8881 -1.8405 0.9489
-9.2683 9.0920 -1.8396 0.9489
-10.0390 8.2243 -1.8388 0.9489
-10.7293 7.2920 -1.8381 0.9489
-11.3339 6.3024 -1.8375 0.9490
-12.4803 4.2556 -1.8683 0.9481
-13.6266 3.3228 -1.9873 0.9449
-13.8673 2.0922 -1.9871 0.9449
-13.9257 -1.6589 -1.9871 0.9449
-13.7234 -2.8964 -1.9873 0.9449
-11.8522 -7.5260 -1.9893 0.9449
-11.1369 -8.5577 -1.9900 0.9448
-10.3324 -9.5223 -1.9909 0.9448
-9.4451 -10.4119 -1.9918 0.9448
-5.2128 -13.0891 -1.9962 0.9447
-4.0254 -13.5107 -1.9975 0.9446
-2.8043 -13.8251 -1.9988 0.9446
-0.3003 -14.1218 -2.0014 0.9445
3.4610 -13.7229 -2.0053 0.9444
11.7942 3.2124 -2.0137 0.9517
11.4581 4.2522 -2.0134 0.9517
10.1912 4.8576 -1.8599 0.9553
9.7140 5.7469 -1.8594 0.9553
9.1590 6.5895 -1.8588 0.9553
4.9633 5.1364 -1.1767 0.9715
4.4846 10.3035 -1.8512 0.9555
3.4304 10.3141 -1.7906 0.9569
2.4353 10.3241 -1.7475 0.9579
1.4796 10.3338 -1.7197 0.9586
-3.2680 10.3816 -1.7930 0.9568
-4.1853 10.0558 -1.7943 0.9568
-5.2065 9.9075 -1.8438 0.9556
-6.0676 9.3984 -1.8429 0.9557
-6.8797 8.8149 -1.8421 0.9557
-7.6363 8.1617 -1.8413 0.9557
-8.9599 6.6679 -1.8399 0.9557
-9.5167 5.8392 -1.8394 0.9557
-9.9976 4.9645 -1.8389 0.9558
-11.5991 3.3609 -1.9894 0.9522
-11.8515 2.3112 -1.9892 0.9522
-10.9636 -5.0741 -1.9902 0.9522
-10.4693 -6.0346 -1.9907 0.9522
-9.8915 -6.9477 -1.9913 0.9522
-9.2346 -7.8061 -1.9920 0.9522
-7.7046 -9.3321 -1.9936 0.9521
-6.8434 -9.9875 -1.9945 0.9521
-5.9269 -10.5639 -1.9955 0.9521
-4.9622 -11.0566 -1.9965 0.9521
-3.9569 -11.4616 -1.9975 0.9520
-0.7781 -12.1206 -2.0008 0.9520
1.3924 -12.0792 -2.0031 0.9519
3.5232 -11.6516 -2.0053 0.9519
6.4959 -10.3165 -2.0084 0.9518
8.2351 -9.0042 -2.0102 0.9517
9.0100 -8.2360 -2.0110 0.9517
9.7131 -7.4010 -2.0117 0.9517
10.3386 -6.5059 -2.0123 0.9517
10.8814 -5.5580 -2.0129 0.9517
11.3369 -4.5650 -2.0134 0.9517
12.1463 -1.3968 -2.0142 0.9516
12.2229 -0.3063 -2.0142 0.9516
12.2012 0.7866 -2.0142 0.9516
11.8644 2.9443 -2.0138 0.9517
11.5521 3.9916 -2.0135 0.9517
11.1232 4.9956 -2.0087 0.9518
9.8425 5.5256 -1.8595 0.9553
9.3068 6.3807 -1.8589 0.9553
8.6967 7.1840 -1.8583 0.9553
5.1000 5.0438 -1.1816 0.9713
7.2739 8.6097 -1.8568 0.9553
6.4729 9.2208 -1.8559 0.9554
5.6208 9.7574 -1.8551 0.9554
4.7244 10.2153 -1.8541 0.9554
2.6831 10.3216 -1.7569 0.9577
0.7816 10.3408 -1.7084 0.9588
-2.0250 10.3691 -1.7405 0.9581
-4.9812 10.0243 -1.8440 0.9556
-5.8537 9.5347 -1.8431 0.9557
-8.1614 7.6318 -1.8408 0.9557
-9.3826 6.0539 -1.8395 0.9557
-11.7964 2.5793 -1.9892 0.9522
-11.9785 1.5153 -1.9891 0.9522
-12.0655 0.4393 -1.9890 0.9522
-12.0566 -0.6401 -1.9890 0.9522
-11.7524 -2.7755 -1.9893 0.9522
-11.4593 -3.8147 -1.9897 0.9522
-11.0751 -4.8239 -1.9901 0.9522
-10.6027 -5.7953 -1.9906 0.9522
-8.6957 -8.4072 -1.9926 0.9521
-7.0672 -9.8286 -1.9943 0.9521
-6.1641 -10.4255 -1.9952 0.9521
-5.2108 -10.9399 -1.9962 0.9521
-4.2151 -11.3675 -1.9973 0.9520
-3.1847 -11.7048 -1.9983 0.9520
-1.0525 -12.0981 -2.0006 0.9520
0.0323 -12.1506 -2.0017 0.9519
1.1180 -12.1060 -2.0028 0.9519
4.2944 -11.3952 -2.0061 0.9518
6.2596 -10.4599 -2.0081 0.9518
7.1722 -9.8636 -2.0091 0.9518
8.0281 -9.1876 -2.0100 0.9517
9.5420 -7.6186 -2.0115 0.9517
10.1877 -6.7381 -2.0122 0.9517
10.7519 -5.8029 -2.0128 0.9517
11.2299 -4.8205 -2.0132 0.9517
11.6178 -3.7990 -2.0136 0.9517
11.9125 -2.7465 -2.0139 0.9516
12.2128 -0.5833 -2.0142 0.9516
12.2160 0.5098 -2.0142 0.9516
12.1210 1.5988 -2.0141 0.9516
11.9285 2.6747 -2.0139 0.9516
11.2583 4.7527 -2.0132 0.9517
7.4680 8.4436 -1.8570 0.9553
2.9337 10.3191 -1.7673 0.9574
1.9602 10.3289 -1.7319 0.9583
1.0176 10.3384 -1.7114 0.9588
0.0898 10.3478 -1.7047 0.9589
-1.7816 10.3667 -1.7328 0.9583
-3.6581 10.0505 -1.7620 0.9576
-4.7533 10.1359 -1.8443 0.9556
-6.4746 9.1197 -1.8425 0.9557
-7.2600 8.5012 -1.8417 0.9557
-7.9871 7.8156 -1.8409 0.9557
-8.6500 7.0684 -1.8403 0.9557
-9.2437 6.2655 -1.8396 0.9557
-10.2055 4.5185 -1.8387 0.9558
-11.4264 3.8803 -1.9879 0.9523
-11.9413 1.7864 -1.9891 0.9522
-12.0680 -0.3666 -1.9890 0.9522
-11.8119 -2.5083 -1.9893 0.9522
-10.7306 -5.5531 -1.9904 0.9522
-10.1946 -6.4912 -1.9910 0.9522
-8.8832 -8.2071 -1.9924 0.9522
-8.1179 -8.9714 -1.9932 0.9521
-7.2874 -9.6648 -1.9941 0.9521
-4.4711 -11.2675 -1.9970 0.9520
-0.2431 -12.1465 -2.0014 0.9519
0.8432 -12.1265 -2.0025 0.9519
4.0344 -11.4880 -2.0058 0.9518
6.9460 -10.0225 -2.0089 0.9518
7.8169 -9.3662 -2.0097 0.9517
10.6168 -6.0447 -2.0126 0.9517
11.1171 -5.0736 -2.0131 0.9517
11.8468 -3.0158 -2.0139 0.9517
12.1964 -0.8600 -2.0142 0.9516
11.3638 4.4965 -2.0133 0.9517
9.5880 5.9533 -1.8592 0.9553
9.0150 6.7836 -1.8586 0.9553
6.8858 8.9200 -1.8564 0.9553
4.2254 10.3061 -1.8350 0.9558
3.1874 10.3165 -1.7788 0.9572
2.2034 10.3265 -1.7395 0.9581
1.2545 10.3360 -1.7152 0.9587
0.3244 10.3454 -1.7051 0.9589
-0.6022 10.3548 -1.7087 0.9588
-1.5402 10.3642 -1.7261 0.9584
-3.4047 10.0582 -1.7493 0.9579
-5.4169 9.7926 -1.8436 0.9556
-6.2669 9.2652 -1.8427 0.9557
-10.1011 4.7489 -1.8388 0.9558
-11.6681 3.1115 -1.9894 0.9522
-12.0731 -0.0930 -1.9890 0.9522
-11.8654 -2.2398 -1.9892 0.9522
-11.6195 -3.2911 -1.9895 0.9522
-10.8530 -5.3081 -1.9903 0.9522
-9.7412 -7.1586 -1.9915 0.9522
-8.3183 -8.7841 -1.9930 0.9521
-3.7109 -11.5453 -1.9978 0.9520
-1.5993 -12.0345 -2.0000 0.9520
1.6511 -12.0483 -2.0034 0.9519
4.7937 -11.1977 -2.0066 0.9518
5.7777 -10.7302 -2.0076 0.9518
8.4270 -8.8266 -2.0104 0.9517
9.1852 -8.0418 -2.0112 0.9517
10.4763 -6.2834 -2.0125 0.9517
11.4326 -4.3212 -2.0135 0.9517
12.0226 -2.2189 -2.0140 0.9516
12.1814 1.0478 -2.0142 0.9516
12.0382 2.1314 -2.0140 0.9516
11.4634 4.2379 -2.0134 0.9517
9.7212 5.7348 -1.8594 0.9553
9.1672 6.5781 -1.8588 0.9553
8.5400 7.3680 -1.8581 0.9553
4.9653 5.1257 -1.1756 0.9715
5.4098 9.8744 -1.8548 0.9554
4.4997 10.3033 -1.8522 0.9554
3.4446 10.3139 -1.7914 0.9569
2.4488 10.3240 -1.7480 0.9579
1.4926 10.3336 -1.7200 0.9586
0.5593 10.3431 -1.7064 0.9589
-0.3668 10.3524 -1.7065 0.9589
-2.2572 10.3715 -1.7486 0.9579
-3.2538 10.3815 -1.7923 0.9569
-5.1942 9.9141 -1.8438 0.9556
-6.0560 9.4060 -1.8429 0.9557
-7.6262 8.1713 -1.8413 0.9557
-8.3223 7.4546 -1.8406 0.9557
-8.9517 6.6791 -1.8399 0.9557
-9.9914 4.9770 -1.8389 0.9558
-11.8486 2.3259 -1.9892 0.9522
-12.0721 0.1807 -1.9890 0.9522
-12.0403 -0.8983 -1.9890 0.9522
-11.9128 -1.9702 -1.9892 0.9522
-11.6906 -3.0267 -1.9894 0.9522
-11.3755 -4.0595 -1.9897 0.9522
-10.9699 -5.0604 -1.9902 0.9522
-10.4768 -6.0215 -1.9907 0.9522
-7.7162 -9.3225 -1.9936 0.9521
-4.9759 -11.0504 -1.9965 0.9521
-3.9711 -11.4566 -1.9975 0.9520
-2.9336 -11.7719 -1.9986 0.9520
1.3773 -12.0809 -2.0031 0.9519
3.5087 -11.6559 -2.0053 0.9519
4.5381 -11.3020 -2.0064 0.9518
9.7038 -7.4130 -2.0117 0.9517
11.3312 -4.5791 -2.0133 0.9517
11.6970 -3.5493 -2.0137 0.9517
12.1446 -1.4119 -2.0142 0.9516
12.2225 -0.3215 -2.0142 0.9516
12.0837 1.8581 -2.0141 0.9516
11.8681 2.9296 -2.0138 0.9517
11.1309 4.9825 -2.0090 0.9518
9.8494 5.5134 -1.8595 0.9553
9.3148 6.3691 -1.8589 0.9553
5.1120 5.0432 -1.1830 0.9713
7.2847 8.6007 -1.8568 0.9553
5.6329 9.7505 -1.8551 0.9554
4.7372 10.2095 -1.8541 0.9554
3.7056 10.3113 -1.8050 0.9566
2.6967 10.3215 -1.7574 0.9577
1.7323 10.3312 -1.7257 0.9584
-0.1320 10.3500 -1.7052 0.9589
-2.0116 10.3690 -1.7400 0.9581
-3.9048 10.0529 -1.7767 0.9572
-4.9687 10.0305 -1.8440 0.9556
-8.1519 7.6420 -1.8408 0.9557
-8.7987 6.8809 -1.8401 0.9557
-9.3751 6.0656 -1.8395 0.9557
-11.7932 2.5940 -1.9892 0.9522
-11.9541 -1.6996 -1.9891 0.9522
-11.4641 -3.8004 -1.9896 0.9522
-11.0811 -4.8102 -1.9901 0.9522
-10.6098 -5.7821 -1.9906 0.9522
-9.4178 -7.5823 -1.9918 0.9522
-8.7062 -8.3963 -1.9926 0.9521
-7.9247 -9.1441 -1.9934 0.9521
-7.0795 -9.8198 -1.9943 0.9521
-6.1770 -10.4178 -1.9952 0.9521
-3.1992 -11.7007 -1.9983 0.9520
-2.1425 -11.9463 -1.9994 0.9520
-1.0676 -12.0967 -2.0005 0.9520
2.1812 -11.9670 -2.0039 0.9519
3.2431 -11.7308 -2.0050 0.9519
7.1599 -9.8724 -2.0091 0.9518
10.1792 -6.7507 -2.0122 0.9517
11.2239 -4.8345 -2.0132 0.9517
11.6131 -3.8134 -2.0136 0.9517
12.2167 0.4946 -2.0142 0.9516
12.1230 1.5837 -2.0141 0.9516
11.9319 2.6599 -2.0139 0.9516
11.2642 4.7387 -2.0132 0.9517
9.9725 5.2891 -1.8596 0.9553
9.4575 6.1569 -1.8591 0.9553
8.8668 6.9746 -1.8585 0.9553
7.4786 8.4343 -1.8570 0.9553
6.6924 9.0645 -1.8562 0.9554
4.4456 9.0386 -1.6594 0.9600
3.9707 10.3086 -1.8199 0.9562
2.9475 10.3190 -1.7679 0.9574
0.1027 10.3477 -1.7047 0.9589
-0.8253 10.3570 -1.7116 0.9588
-1.7683 10.3665 -1.7324 0.9583
-2.7424 10.3764 -1.7681 0.9574
-6.4632 9.1278 -1.8425 0.9557
-7.9774 7.8256 -1.8409 0.9557
-8.6413 7.0792 -1.8403 0.9557
-9.7568 5.4254 -1.8391 0.9558
-10.1999 4.5312 -1.8387 0.9558
-11.4202 3.8941 -1.9877 0.9523
-11.7317 2.8607 -1.9893 0.9522
-12.0516 0.7277 -1.9890 0.9522
-12.0684 -0.3516 -1.9890 0.9522
-11.8150 -2.4936 -1.9893 0.9522
-11.5467 -3.5394 -1.9896 0.9522
-11.1866 -4.5575 -1.9899 0.9522
-8.8934 -8.1960 -1.9924 0.9522
-6.4108 -10.2738 -1.9950 0.9521
-3.4631 -11.6236 -1.9981 0.9520
-2.4124 -11.8930 -1.9991 0.9520
-1.3413 -12.0677 -2.0003 0.9520
-0.2582 -12.1461 -2.0014 0.9519
0.8281 -12.1274 -2.0025 0.9519
1.9091 -12.0117 -2.0036 0.9519
2.9759 -11.7997 -2.0047 0.9519
10.0351 3.7241 -2.0119 0.9574
9.5134 4.5345 -1.9809 0.9580
8.5082 5.0335 -1.8581 0.9606
8.0224 5.7717 -1.8576 0.9606
7.4725 6.4632 -1.8570 0.9606
6.1989 7.6840 -1.8557 0.9606
5.4856 8.2037 -1.8549 0.9606
4.7289 8.6571 -1.8541 0.9606
2.2616 9.5877 -1.8516 0.9607
1.3955 9.7466 -1.8507 0.9607
0.5191 9.8275 -1.8498 0.9607
-2.9492 9.3688 -1.8462 0.9608
-3.7725 9.0638 -1.8453 0.9608
-5.3203 8.2408 -1.8437 0.9609
-6.6964 7.1572 -1.8423 0.9609
-7.3064 6.5283 -1.8417 0.9609
-8.7686 4.3542 -1.8402 0.9609
-10.1737 2.9479 -1.9909 0.9578
-10.5599 -0.8010 -1.9906 0.9578
-10.4468 -1.7411 -1.9907 0.9578
-10.2507 -2.6675 -1.9909 0.9578
-8.6749 -6.0932 -1.9926 0.9578
-8.0985 -6.8457 -1.9932 0.9578
-7.4572 -7.5443 -1.9939 0.9577
-6.0006 -8.7574 -1.9954 0.9577
-5.1966 -9.2622 -1.9962 0.9577
-4.3505 -9.6936 -1.9971 0.9577
-3.4689 -10.0481 -1.9980 0.9577
-2.5588 -10.3227 -1.9990 0.9576
-1.6273 -10.5150 -1.9999 0.9576
1.2202 -10.5859 -2.0029 0.9576
3.0872 -10.2097 -2.0048 0.9575
3.9886 -9.8978 -2.0058 0.9575
9.0553 -5.6983 -2.0110 0.9574
9.9290 -3.9981 -2.0119 0.9574
10.4849 -2.1683 -2.0124 0.9574
10.6374 -1.2233 -2.0126 0.9574
10.7045 -0.2683 -2.0127 0.9574
10.6855 0.6889 -2.0126 0.9574
8.6206 4.8397 -1.8582 0.9606
7.6177 6.2927 -1.8572 0.9606
6.3721 7.5423 -1.8559 0.9606
5.6707 8.0781 -1.8551 0.9606
4.1394 8.9504 -1.8535 0.9607
3.3219 9.2800 -1.8527 0.9607
1.6163 9.7137 -1.8509 0.9607
0.7418 9.8144 -1.8500 0.9607
-1.0152 9.7801 -1.8482 0.9608
-1.8837 9.6457 -1.8473 0.9608
-2.7364 9.4344 -1.8464 0.9608
-3.5665 9.1480 -1.8455 0.9608
-5.1327 8.3602 -1.8439 0.9609
-5.8565 7.8651 -1.8432 0.9609
-6.5331 7.3078 -1.8425 0.9609
-7.1572 6.6928 -1.8418 0.9609
-7.7239 6.0249 -1.8412 0.9609
-8.6681 4.5521 -1.8403 0.9609
-9.7588 4.0587 -1.9866 0.9579
-10.1046 3.1779 -1.9910 0.9578
-10.3468 2.2624 -1.9907 0.9578
-10.5753 -0.5615 -1.9905 0.9578
-10.4834 -1.5039 -1.9906 0.9578
-10.3082 -2.4344 -1.9908 0.9578
-10.0510 -3.3459 -1.9911 0.9578
-8.8102 -5.8946 -1.9924 0.9578
-8.2509 -6.6599 -1.9930 0.9578
-6.1969 -8.6182 -1.9952 0.9577
-4.5686 -9.5914 -1.9969 0.9577
-2.7918 -10.2608 -1.9987 0.9576
-0.9225 -10.6041 -2.0007 0.9576
0.0283 -10.6494 -2.0017 0.9576
0.9798 -10.6095 -2.0027 0.9576
1.9245 -10.4847 -2.0036 0.9575
2.8546 -10.2759 -2.0046 0.9575
4.6416 -9.6129 -2.0065 0.9575
7.0326 -8.0483 -2.0089 0.9574
7.7261 -7.3907 -2.0096 0.9574
8.3580 -6.6732 -2.0103 0.9574
10.4327 -2.4054 -2.0124 0.9574
10.6068 -1.4641 -2.0126 0.9574
10.6956 -0.5109 -2.0126 0.9574
10.6984 0.4465 -2.0126 0.9574
10.6153 1.4002 -2.0125 0.9574
9.8603 4.1625 -2.0117 0.9574
8.2769 5.4030 -1.8579 0.9606
7.7590 6.1188 -1.8573 0.9606
7.1791 6.7852 -1.8567 0.9606
5.8530 7.9483 -1.8553 0.9606
5.1175 8.4358 -1.8545 0.9606
4.3417 8.8553 -1.8537 0.9607
3.5318 9.2035 -1.8529 0.9607
0.9643 9.7963 -1.8502 0.9607
0.0854 9.8384 -1.8493 0.9607
-2.5222 9.4951 -1.8466 0.9608
-4.9424 8.4753 -1.8441 0.9609
-5.6772 7.9967 -1.8433 0.9609
-8.1069 5.4950 -1.8408 0.9609
-8.5632 4.7477 -1.8404 0.9609
-10.0304 3.4062 -1.9911 0.9578
-10.2932 2.4964 -1.9908 0.9578
-10.4741 1.5669 -1.9906 0.9578
-10.5852 -0.3216 -1.9905 0.9578
-10.5146 -1.2658 -1.9906 0.9578
-10.3604 -2.2001 -1.9908 0.9578
-10.1238 -3.1170 -1.9910 0.9578
-9.8066 -4.0095 -1.9914 0.9578
-8.9409 -5.6929 -1.9923 0.9578
-8.3991 -6.4706 -1.9929 0.9578
-6.3900 -8.4747 -1.9950 0.9577
-1.1625 -10.5791 -2.0004 0.9576
-0.2131 -10.6459 -2.0014 0.9576
2.6206 -10.3367 -2.0044 0.9575
6.0851 -8.7803 -2.0079 0.9575
6.8477 -8.2049 -2.0087 0.9574
8.2039 -6.8604 -2.0101 0.9574
10.3752 -2.6412 -2.0123 0.9574
10.5707 -1.7041 -2.0125 0.9574
10.6812 -0.7532 -2.0126 0.9574
10.7059 0.2038 -2.0126 0.9574
10.6445 1.1592 -2.0126 0.9574
9.9526 3.9381 -2.0118 0.9574
8.8322 4.4445 -1.8585 0.9606
7.8963 5.9419 -1.8575 0.9606
6.7087 7.2471 -1.8562 0.9606
6.0323 7.8143 -1.8555 0.9606
5.3080 8.3185 -1.8547 0.9606
4.5419 8.7556 -1.8539 0.9607
3.7400 9.1221 -1.8531 0.9607
2.9089 9.4153 -1.8522 0.9607
1.1862 9.7731 -1.8504 0.9607
-1.4450 9.7235 -1.8477 0.9608
-2.3065 9.5510 -1.8468 0.9608
-3.1489 9.3024 -1.8459 0.9608
-3.9654 8.9799 -1.8451 0.9608
-6.1963 7.5979 -1.8428 0.9609
-6.8477 7.0115 -1.8421 0.9609
-7.9808 5.6777 -1.8410 0.9609
-9.9510 3.6329 -1.9911 0.9578
-10.5549 0.8646 -1.9905 0.9578
-10.5898 -0.0816 -1.9905 0.9578
-10.5405 -1.0271 -1.9906 0.9578
-9.8945 -3.7860 -1.9913 0.9578
-9.5188 -4.6557 -1.9917 0.9578
-9.0671 -5.4884 -1.9922 0.9578
-7.9506 -7.0182 -1.9933 0.9578
-6.5798 -8.3268 -1.9948 0.9577
-5.8121 -8.8848 -1.9956 0.9577
-4.9975 -9.3724 -1.9964 0.9577
-4.1422 -9.7857 -1.9973 0.9577
-0.4543 -10.6370 -2.0012 0.9576
0.4978 -10.6403 -2.0022 0.9576
1.4469 -10.5585 -2.0031 0.9576
2.3854 -10.3922 -2.0041 0.9575
5.0620 -9.4010 -2.0069 0.9575
6.6593 -8.3572 -2.0085 0.9574
8.6453 -6.2992 -2.0106 0.9574
10.5291 -1.9432 -2.0125 0.9574
10.6613 -0.9951 -2.0126 0.9574
10.3328 2.8005 -2.0122 0.9574
10.0398 3.7116 -2.0119 0.9574
8.5145 5.0230 -1.8581 0.9606
7.4805 6.4539 -1.8570 0.9606
6.2084 7.6764 -1.8557 0.9606
4.7397 8.6513 -1.8542 0.9606
0.5313 9.8269 -1.8498 0.9607
-0.3483 9.8302 -1.8489 0.9608
-1.2243 9.7550 -1.8479 0.9608
-2.0897 9.6020 -1.8470 0.9608
-2.9376 9.3725 -1.8462 0.9608
-5.3101 8.2475 -1.8437 0.9609
-6.0231 7.7371 -1.8430 0.9609
-6.6876 7.1656 -1.8423 0.9609
-7.8507 5.8576 -1.8411 0.9609
-8.3402 5.1316 -1.8406 0.9609
-9.8601 3.8551 -1.9899 0.9578
-10.3927 2.0401 -1.9907 0.9578
-10.5889 0.1585 -1.9905 0.9578
-10.2540 -2.6548 -1.9909 0.9578
-9.9774 -3.5606 -1.9912 0.9578
-9.6213 -4.4383 -1.9916 0.9578
-9.1886 -5.2811 -1.9920 0.9578
-8.6825 -6.0824 -1.9926 0.9578
-7.4666 -7.5349 -1.9938 0.9577
-6.7662 -8.1747 -1.9946 0.9577
-6.0114 -8.7499 -1.9954 0.9577
-5.2081 -9.2557 -1.9962 0.9577
-2.5716 -10.3194 -1.9990 0.9576
-1.6404 -10.5129 -1.9999 0.9576
-0.6952 -10.6227 -2.0009 0.9576
0.2565 -10.6476 -2.0019 0.9576
4.8470 -9.5122 -2.0067 0.9575
5.6797 -9.0452 -2.0075 0.9575
9.5242 -4.8798 -2.0115 0.9574
10.2442 -3.1085 -2.0122 0.9574
10.4821 -2.1814 -2.0124 0.9574
10.6863 0.6756 -2.0126 0.9574
10.3940 2.5657 -2.0123 0.9574
9.7502 4.3645 -2.0079 0.9575
8.6267 4.8290 -1.8582 0.9606
8.1587 5.5787 -1.8577 0.9606
7.6255 6.2832 -1.8572 0.9606
4.9351 8.5426 -1.8544 0.9606
3.3335 9.2760 -1.8527 0.9607
2.4905 9.5321 -1.8518 0.9607
-0.1254 9.8368 -1.8491 0.9608
-1.0030 9.7815 -1.8482 0.9608
-1.8717 9.6481 -1.8473 0.9608
-3.5551 9.1525 -1.8455 0.9608
-4.3564 8.7944 -1.8447 0.9608
-6.5240 7.3160 -1.8425 0.9609
-7.1489 6.7017 -1.8418 0.9609
-8.2223 5.3197 -1.8407 0.9609
-8.6624 4.5629 -1.8403 0.9609
-9.7528 4.0704 -1.9864 0.9579
-10.1007 3.1905 -1.9910 0.9578
-10.3440 2.2752 -1.9907 0.9578
-10.5051 1.3421 -1.9906 0.9578
-10.5826 0.3985 -1.9905 0.9578
-10.4853 -1.4908 -1.9906 0.9578
-10.3112 -2.4216 -1.9908 0.9578
-10.0551 -3.3333 -1.9911 0.9578
-9.3053 -5.0712 -1.9919 0.9578
-8.8175 -5.8836 -1.9924 0.9578
-8.2592 -6.6495 -1.9930 0.9578
-6.9491 -8.0185 -1.9944 0.9577
-6.2076 -8.6104 -1.9952 0.9577
-3.7077 -9.9610 -1.9978 0.9577
-1.8781 -10.4718 -1.9997 0.9576
0.0151 -10.6493 -2.0017 0.9576
0.9666 -10.6106 -2.0026 0.9576
3.7503 -9.9891 -2.0055 0.9575
4.6296 -9.6186 -2.0064 0.9575
6.2724 -8.6487 -2.0081 0.9574
7.0225 -8.0570 -2.0089 0.9574
8.3496 -6.6836 -2.0103 0.9574
9.4106 -5.0941 -2.0114 0.9574
9.8301 -4.2342 -2.0118 0.9574
10.1707 -3.3398 -2.0121 0.9574
10.4297 -2.4183 -2.0124 0.9574
10.6049 -1.4772 -2.0126 0.9574
10.6949 -0.5242 -2.0126 0.9574
10.6990 0.4331 -2.0126 0.9574
10.6170 1.3869 -2.0125 0.9574
10.4498 2.3295 -2.0124 0.9574
10.1985 3.2531 -2.0121 0.9574
9.8655 4.1502 -2.0117 0.9574
8.2837 5.3927 -1.8579 0.9606
7.1876 6.7763 -1.8567 0.9606
6.5513 7.3885 -1.8561 0.9606
4.3528 8.8499 -1.8537 0.9607
3.5433 9.1991 -1.8529 0.9607
2.7062 9.4743 -1.8520 0.9607
1.8483 9.6735 -1.8511 0.9607
0.9765 9.7952 -1.8502 0.9607
0.0976 9.8384 -1.8493 0.9607
-5.6673 8.0038 -1.8433 0.9609
-6.3571 7.4627 -1.8426 0.9609
-8.1001 5.5051 -1.8408 0.9609
-8.5573 4.7584 -1.8404 0.9609
-9.5259 4.2318 -1.9592 0.9585
-10.2901 2.5092 -1.9908 0.9578
-10.4721 1.5799 -1.9906 0.9578
-10.5709 0.6383 -1.9905 0.9578
-10.3632 -2.1872 -1.9908 0.9578
-10.1277 -3.1044 -1.9910 0.9578
-9.8116 -3.9973 -1.9914 0.9578
-8.4071 -6.4601 -1.9929 0.9578
-7.7990 -7.1875 -1.9935 0.9578
-6.4005 -8.4667 -1.9950 0.9577
-4.7960 -9.4783 -1.9966 0.9577
-3.9321 -9.8733 -1.9975 0.9577
-3.0359 -10.1898 -1.9985 0.9576
-1.1757 -10.5776 -2.0004 0.9576
-0.2263 -10.6456 -2.0014 0.9576
1.6730 -10.5263 -2.0034 0.9575
2.6078 -10.3399 -2.0043 0.9575
9.1794 2.5002 -2.0110 0.9619
6.6415 5.7445 -1.8562 0.9647
4.8762 7.2923 -1.8543 0.9648
4.2038 7.6958 -1.8536 0.9648
3.4982 8.0373 -1.8529 0.9648
1.2408 8.6661 -1.8505 0.9648
0.4616 8.7385 -1.8497 0.9649
-0.3206 8.7409 -1.8489 0.9649
-1.8690 8.5370 -1.8473 0.9649
-3.3553 8.0615 -1.8457 0.9649
-4.0603 7.7265 -1.8450 0.9649
-4.7324 7.3302 -1.8443 0.9650
-6.4999 5.8077 -1.8425 0.9650
-6.9908 5.2025 -1.8420 0.9650
-9.2490 1.8037 -1.9919 0.9622
-9.3726 0.9703 -1.9918 0.9622
-9.4216 0.1293 -1.9917 0.9622
-9.2950 -1.5492 -1.9919 0.9622
-9.1204 -2.3734 -1.9921 0.9622
-8.8731 -3.1789 -1.9923 0.9622
-8.5552 -3.9594 -1.9927 0.9622
-8.1690 -4.7087 -1.9931 0.9622
-7.2046 -6.0901 -1.9941 0.9622
-6.6338 -6.7113 -1.9947 0.9622
-6.0099 -7.2794 -1.9954 0.9621
-5.3376 -7.7898 -1.9961 0.9621
-4.6222 -8.2385 -1.9968 0.9621
-2.2756 -9.1803 -1.9993 0.9621
-1.4472 -9.3509 -2.0001 0.9621
0.2398 -9.4675 -2.0019 0.9620
1.0850 -9.4123 -2.0028 0.9620
1.9221 -9.2818 -2.0036 0.9620
2.7446 -9.0769 -2.0045 0.9620
3.5459 -8.7991 -2.0053 0.9620
4.3193 -8.4506 -2.0061 0.9619
5.0588 -8.0341 -2.0069 0.9619
5.7582 -7.5529 -2.0076 0.9619
7.5614 -5.7615 -2.0094 0.9619
8.0478 -5.0643 -2.0099 0.9619
8.8239 -3.5531 -2.0107 0.9619
9.1073 -2.7511 -2.0110 0.9619
9.5126 -0.2384 -2.0114 0.9618
9.4027 1.4578 -2.0113 0.9618
9.2340 2.2915 -2.0111 0.9618
8.9913 3.1067 -2.0108 0.9619
8.6724 3.8949 -2.0096 0.9619
6.7705 5.5929 -1.8563 0.9647
2.2037 8.4775 -1.8515 0.9648
-0.1224 8.7469 -1.8491 0.9649
-1.6752 8.5781 -1.8475 0.9649
-2.4337 8.3906 -1.8467 0.9649
-3.8845 7.8174 -1.8452 0.9649
-5.2096 6.9963 -1.8438 0.9650
-6.3671 5.9540 -1.8426 0.9650
-8.0552 4.2303 -1.9232 0.9635
-8.7032 3.6196 -1.9924 0.9622
-8.9904 2.8274 -1.9921 0.9622
-9.3483 1.1825 -1.9918 0.9622
-9.4163 0.3428 -1.9917 0.9622
-9.4093 -0.4996 -1.9917 0.9622
-9.3276 -1.3380 -1.9918 0.9622
-9.1716 -2.1660 -1.9920 0.9622
-8.9426 -2.9769 -1.9923 0.9622
-8.6423 -3.7643 -1.9926 0.9622
-8.2732 -4.5220 -1.9930 0.9622
-7.3403 -5.9248 -1.9940 0.9622
-5.5123 -7.6661 -1.9959 0.9621
-4.0635 -8.5310 -1.9974 0.9621
-3.2866 -8.8634 -1.9982 0.9621
0.0252 -9.4694 -2.0017 0.9620
2.5379 -9.1358 -2.0043 0.9620
3.3451 -8.8763 -2.0051 0.9620
4.1262 -8.5455 -2.0059 0.9619
4.8749 -8.1460 -2.0067 0.9619
6.8670 -6.5689 -2.0087 0.9619
8.7407 -3.7520 -2.0106 0.9619
9.0423 -2.9568 -2.0110 0.9619
9.4259 -1.3011 -2.0113 0.9618
9.4334 1.2443 -2.0113 0.9618
9.2839 2.0817 -2.0111 0.9618
9.0597 2.9022 -2.0109 0.9619
7.8282 4.1643 -1.8743 0.9644
2.3955 8.4262 -1.8517 0.9648
-0.7055 8.7164 -1.8485 0.9649
-2.2431 8.4445 -1.8469 0.9649
-4.3962 7.5386 -1.8447 0.9650
-5.6633 6.6315 -1.8434 0.9650
-6.2310 6.0972 -1.8428 0.9650
-6.7487 5.5147 -1.8422 0.9650
-7.2124 4.8887 -1.8418 0.9650
-7.6505 4.2417 -1.8491 0.9649
-8.6161 3.8148 -1.9918 0.9622
-8.9243 3.0306 -1.9922 0.9622
-9.1582 2.2211 -1.9920 0.9622
-9.0074 -2.7733 -1.9922 0.9622
-8.7250 -3.5673 -1.9925 0.9622
-8.3731 -4.3331 -1.9929 0.9622
-7.4722 -5.7565 -1.9938 0.9622
-6.9301 -6.4027 -1.9944 0.9622
-5.6841 -7.5385 -1.9957 0.9621
-4.2554 -8.4358 -1.9972 0.9621
-1.0338 -9.4076 -2.0006 0.9620
0.6571 -9.4497 -2.0023 0.9620
1.4991 -9.3574 -2.0032 0.9620
2.3299 -9.1900 -2.0040 0.9620
3.1427 -8.9489 -2.0049 0.9620
4.6885 -8.2536 -2.0065 0.9619
6.7158 -6.7223 -2.0086 0.9619
8.2641 -4.7052 -2.0102 0.9619
8.6531 -3.9490 -2.0106 0.9619
8.9726 -3.1609 -2.0109 0.9619
9.2202 -2.3471 -2.0111 0.9618
9.4920 -0.6693 -2.0114 0.9618
9.3289 1.8708 -2.0112 0.9618
9.1235 2.6962 -2.0110 0.9619
8.4520 4.2532 -2.0000 0.9621
7.4636 4.6342 -1.8570 0.9647
5.9629 6.4415 -1.8554 0.9647
4.0375 7.7833 -1.8534 0.9648
3.3249 8.1096 -1.8527 0.9648
1.8274 8.5646 -1.8511 0.9648
1.0547 8.6898 -1.8503 0.9648
0.2742 8.7454 -1.8495 0.9649
-0.5078 8.7311 -1.8487 0.9649
-2.8006 8.2735 -1.8463 0.9649
-3.5269 7.9870 -1.8456 0.9649
-4.2245 7.6371 -1.8448 0.9649
-5.5120 6.7587 -1.8435 0.9650
-6.0916 6.2374 -1.8429 0.9650
-6.6224 5.6667 -1.8424 0.9650
-9.4222 -0.0726 -1.9917 0.9622
-8.8033 -3.3684 -1.9924 0.9622
-8.4688 -4.1420 -1.9928 0.9622
-7.0729 -6.2435 -1.9942 0.9622
-5.8530 -7.4070 -1.9955 0.9621
-5.1699 -7.9030 -1.9962 0.9621
-2.8933 -9.0015 -1.9986 0.9621
1.2865 -9.3879 -2.0030 0.9620
2.1208 -9.2395 -2.0038 0.9620
4.4998 -8.3569 -2.0063 0.9619
5.2302 -7.9246 -2.0070 0.9619
6.5612 -6.8723 -2.0084 0.9619
7.1509 -6.2607 -2.0090 0.9619
7.6836 -5.5985 -2.0096 0.9619
8.5609 -4.1440 -2.0105 0.9619
9.1644 -2.5555 -2.0111 0.9618
9.5156 -0.0346 -2.0114 0.9618
8.9223 3.2985 -2.0108 0.9619
8.5724 4.0729 -2.0062 0.9619
7.5671 4.4641 -1.8571 0.9647
4.8853 7.2863 -1.8543 0.9648
2.7756 8.3108 -1.8521 0.9648
0.4725 8.7379 -1.8497 0.9649
-0.3097 8.7414 -1.8489 0.9649
-2.6126 8.3357 -1.8465 0.9649
-4.7233 7.3362 -1.8443 0.9650
-5.3578 6.8825 -1.8437 0.9650
-6.4927 5.8158 -1.8425 0.9650
-7.4200 4.5655 -1.8416 0.9650
-8.4084 4.1884 -1.9857 0.9623
-8.7784 3.4322 -1.9924 0.9622
-9.0486 2.6341 -1.9921 0.9622
-9.3714 0.9820 -1.9918 0.9622
-9.3966 -0.7010 -1.9918 0.9622
-9.2969 -1.5376 -1.9919 0.9622
-9.1233 -2.3621 -1.9921 0.9622
-8.8770 -3.1679 -1.9923 0.9622
-8.5601 -3.9488 -1.9927 0.9622
-8.1748 -4.6985 -1.9931 0.9622
-4.6324 -8.2327 -1.9968 0.9621
-3.0962 -8.9327 -1.9984 0.9621
-0.6182 -9.4461 -2.0010 0.9620
0.2281 -9.4677 -2.0019 0.9620
1.0732 -9.4136 -2.0027 0.9620
2.7333 -9.0803 -2.0045 0.9620
3.5349 -8.8035 -2.0053 0.9620
5.7488 -7.5600 -2.0076 0.9619
7.0066 -6.4207 -2.0089 0.9619
7.5542 -5.7709 -2.0094 0.9619
8.0415 -5.0743 -2.0099 0.9619
8.4644 -4.3368 -2.0104 0.9619
8.8195 -3.5641 -2.0107 0.9619
9.3152 -1.9385 -2.0112 0.9618
9.4965 0.6004 -2.0114 0.9618
9.4045 1.4461 -2.0113 0.9618
9.2369 2.2801 -2.0111 0.9618
8.6781 3.8845 -2.0098 0.9619
7.2512 4.9581 -1.8568 0.9647
6.7775 5.5845 -1.8563 0.9647
5.0496 7.1744 -1.8545 0.9648
4.3870 7.5939 -1.8538 0.9648
0.6705 8.7259 -1.8499 0.9649
-0.1115 8.7471 -1.8491 0.9649
-2.4232 8.3937 -1.8467 0.9649
-3.1619 8.1403 -1.8459 0.9649
-5.2008 7.0028 -1.8438 0.9650
-6.8649 5.3685 -1.8421 0.9650
-7.3151 4.7328 -1.8417 0.9650
-8.0321 4.2309 -1.9190 0.9636
-8.6987 3.6305 -1.9924 0.9622
-9.2035 2.0244 -1.9919 0.9622
-9.3468 1.1942 -1.9918 0.9622
-9.4100 -0.4878 -1.9917 0.9622
-9.3292 -1.3264 -1.9918 0.9622
-8.2788 -4.5117 -1.9930 0.9622
-7.8445 -5.2343 -1.9934 0.9622
-7.3476 -5.9156 -1.9940 0.9622
-6.7919 -6.5502 -1.9945 0.9622
-6.1817 -7.1329 -1.9952 0.9621
-3.2976 -8.8593 -1.9982 0.9621
-2.4942 -9.1222 -1.9990 0.9621
-1.6702 -9.3125 -1.9999 0.9621
0.0134 -9.4694 -2.0016 0.9620
3.3341 -8.8804 -2.0051 0.9620
4.8647 -8.1520 -2.0067 0.9619
6.2419 -7.1614 -2.0081 0.9619
6.8588 -6.5774 -2.0087 0.9619
7.4210 -5.9402 -2.0093 0.9619
9.2686 -2.1491 -2.0112 0.9618
9.4242 -1.3128 -2.0113 0.9618
9.5078 0.3849 -2.0114 0.9618
9.4350 1.2325 -2.0113 0.9618
9.2865 2.0701 -2.0112 0.9618
9.0633 2.8910 -2.0109 0.9619
8.7675 3.6883 -2.0106 0.9619
7.8560 4.1666 -1.8797 0.9643
7.3621 4.7928 -1.8569 0.9647
6.9029 5.4298 -1.8564 0.9647
6.3884 6.0228 -1.8559 0.9647
4.5585 7.4932 -1.8540 0.9648
3.8695 7.8673 -1.8533 0.9648
0.8682 8.7095 -1.8501 0.9648
-2.2326 8.4473 -1.8469 0.9649
-4.3868 7.5441 -1.8447 0.9650
-5.0412 7.1196 -1.8440 0.9650
-5.6551 6.6385 -1.8434 0.9650
-6.2234 6.1050 -1.8428 0.9650
-7.6330 4.2445 -1.8461 0.9649
-8.9205 3.0417 -1.9922 0.9622
-9.4054 0.5679 -1.9917 0.9622
-9.3567 -1.1146 -1.9918 0.9622
-9.2205 -1.9460 -1.9920 0.9622
-8.7295 -3.5564 -1.9925 0.9622
-7.9607 -5.0549 -1.9933 0.9622
-7.4793 -5.7472 -1.9938 0.9622
-6.9381 -6.3940 -1.9944 0.9622
-6.3412 -6.9904 -1.9950 0.9621
-4.9999 -8.0127 -1.9964 0.9621
-1.8806 -9.2713 -1.9997 0.9621
-1.0455 -9.4063 -2.0005 0.9620
0.6453 -9.4505 -2.0023 0.9620
8.0173 2.9753 -2.0098 0.9655
7.7181 3.6788 -2.0095 0.9655
6.4102 4.6118 -1.8559 0.9681
5.9712 5.1647 -1.8555 0.9681
4.8878 5.0582 -1.6531 0.9715
4.9542 6.1411 -1.8544 0.9681
4.3844 6.5569 -1.8538 0.9681
3.7800 6.9200 -1.8532 0.9681
1.1159 7.7938 -1.8504 0.9682
-0.2884 7.8618 -1.8489 0.9682
-2.3595 7.4953 -1.8468 0.9682
-4.2575 6.5946 -1.8448 0.9683
-4.8280 6.1860 -1.8442 0.9683
-5.8482 5.2254 -1.8432 0.9683
-6.8908 4.2280 -1.9000 0.9673
-7.5970 3.7725 -1.9935 0.9657
-8.3226 1.6230 -1.9929 0.9658
-8.4339 0.8731 -1.9927 0.9658
-8.4780 0.1164 -1.9927 0.9658
-8.4546 -0.6413 -1.9927 0.9658
-8.3640 -1.3940 -1.9928 0.9658
-8.2068 -2.1356 -1.9930 0.9658
-7.6979 -3.5627 -1.9936 0.9657
-7.3503 -4.2368 -1.9939 0.9657
-6.4822 -5.4795 -1.9948 0.9657
-5.4070 -6.5491 -1.9960 0.9657
-4.8019 -7.0081 -1.9966 0.9657
-3.4808 -7.7560 -1.9980 0.9657
-2.7752 -8.0388 -1.9987 0.9657
-2.0469 -8.2577 -1.9995 0.9656
-1.3017 -8.4108 -2.0003 0.9656
2.4682 -8.1626 -2.0042 0.9656
3.1885 -7.9124 -2.0049 0.9656
4.5486 -7.2240 -2.0063 0.9655
5.1773 -6.7910 -2.0070 0.9655
6.3067 -5.7649 -2.0081 0.9655
7.2351 -4.5530 -2.0091 0.9655
7.6143 -3.8893 -2.0095 0.9655
8.3762 -1.7322 -2.0102 0.9655
8.4979 -0.9772 -2.0104 0.9655
8.5363 0.5503 -2.0104 0.9655
8.4526 1.3105 -2.0103 0.9655
8.3011 2.0600 -2.0101 0.9655
7.8001 3.5031 -2.0096 0.9655
7.2758 4.0847 -1.9610 0.9663
6.5135 4.4656 -1.8560 0.9681
6.0871 5.0283 -1.8556 0.9681
3.3090 7.1548 -1.8527 0.9681
1.2924 7.7673 -1.8506 0.9682
0.5933 7.8486 -1.8499 0.9682
-0.1101 7.8671 -1.8491 0.9682
-1.5069 7.7159 -1.8477 0.9682
-2.8535 7.3192 -1.8463 0.9682
-5.7286 5.3569 -1.8433 0.9683
-6.1826 4.8227 -1.8428 0.9683
-7.4993 3.9383 -1.9908 0.9658
-7.8312 3.2570 -1.9933 0.9657
-8.0898 2.5442 -1.9931 0.9658
-8.2838 1.8113 -1.9929 0.9658
-8.4120 1.0641 -1.9928 0.9658
-8.4732 0.3085 -1.9927 0.9658
-8.4669 -0.4495 -1.9927 0.9658
-8.3933 -1.2040 -1.9928 0.9658
-8.2529 -1.9490 -1.9930 0.9658
-8.0467 -2.6787 -1.9932 0.9658
-7.0524 -4.7185 -1.9942 0.9657
-6.1034 -5.9009 -1.9952 0.9657
-4.9591 -6.8968 -1.9964 0.9657
-3.6554 -7.6744 -1.9978 0.9657
-2.2333 -8.2084 -1.9993 0.9656
1.5388 -8.3834 -2.0032 0.9656
4.3833 -7.3246 -2.0062 0.9655
5.6202 -6.4319 -2.0074 0.9655
6.1739 -5.9059 -2.0080 0.9655
6.6785 -5.3323 -2.0085 0.9655
7.5239 -4.0607 -2.0094 0.9655
7.8578 -3.3730 -2.0097 0.9655
8.3346 -1.9216 -2.0102 0.9655
8.5443 -0.4081 -2.0104 0.9655
8.4803 1.1186 -2.0103 0.9655
8.3459 1.8714 -2.0102 0.9655
8.1445 2.6090 -2.0100 0.9655
7.8778 3.3256 -2.0097 0.9655
7.5257 4.0034 -2.0034 0.9656
5.7369 5.4221 -1.8552 0.9681
5.2282 5.9112 -1.8547 0.9681
4.0905 6.7427 -1.8535 0.9681
0.0683 7.8683 -1.8493 0.9682
-1.3317 7.7488 -1.8479 0.9682
-2.6871 7.3827 -1.8464 0.9682
-3.9549 6.7820 -1.8451 0.9683
-4.5433 6.3995 -1.8445 0.9683
-5.6061 5.4858 -1.8434 0.9683
-6.4895 4.3987 -1.8425 0.9683
-7.3981 4.1018 -1.9881 0.9658
-8.0302 2.7270 -1.9931 0.9658
-8.2408 1.9987 -1.9929 0.9658
-8.4640 0.5005 -1.9927 0.9658
-8.4749 -0.2575 -1.9927 0.9658
-8.2947 -1.7614 -1.9929 0.9658
-8.1051 -2.4955 -1.9931 0.9658
-7.5341 -3.8989 -1.9937 0.9657
-7.1572 -4.5571 -1.9941 0.9657
-6.7231 -5.1794 -1.9946 0.9657
-6.2352 -5.7606 -1.9951 0.9657
-5.1138 -6.7821 -1.9963 0.9657
-3.8281 -7.5888 -1.9976 0.9657
-3.1361 -7.9033 -1.9983 0.9657
-0.1704 -8.5142 -2.0014 0.9656
0.5910 -8.4988 -2.0022 0.9656
1.3482 -8.4153 -2.0030 0.9656
2.0953 -8.2645 -2.0038 0.9656
3.5349 -7.7656 -2.0053 0.9655
4.8634 -7.0176 -2.0067 0.9655
6.0381 -6.0439 -2.0079 0.9655
6.5555 -5.4819 -2.0084 0.9655
8.0662 -2.8416 -2.0099 0.9655
8.2887 -2.1100 -2.0102 0.9655
8.3863 1.6817 -2.0102 0.9655
8.2018 2.4238 -2.0100 0.9655
7.9514 3.1463 -2.0098 0.9655
7.6263 3.8377 -2.0065 0.9655
6.3096 4.7478 -1.8558 0.9681
5.8588 5.2911 -1.8554 0.9681
2.3257 7.5275 -1.8517 0.9681
0.2467 7.8656 -1.8495 0.9682
