ply
format ascii 1.0
element vertex 1585
property float32 x
property float32 y
property float32 z
property float32 I
end_header
-6.6984 10.1608 -1.7244 0.9520
-9.8679 8.6524 -1.8595 0.9484
-11.2639 6.7694 -1.8620 0.9483
-13.2214 3.7026 -1.9454 0.9460
-14.1931 1.3427 -2.0200 0.9440
-14.2126 -1.2025 -2.0210 0.9440
-12.8943 -6.0997 -2.0211 0.9440
-12.2964 -7.2248 -2.0207 0.9440
-11.5997 -8.2914 -2.0202 0.9440
-10.8100 -9.2905 -2.0196 0.9440
-7.9521 -11.8061 -2.0169 0.9441
-6.8628 -12.4616 -2.0157 0.9441
-5.7197 -13.0161 -2.0145 0.9442
-4.5322 -13.4656 -2.0131 0.9442
-3.3100 -13.8064 -2.0117 0.9443
-2.0631 -14.0361 -2.0101 0.9443
-0.8016 -14.1532 -2.0086 0.9443
1.7244 -14.0472 -2.0053 0.9444
6.5086 -12.5139 -1.9986 0.9446
7.5932 -11.8734 -1.9969 0.9447
8.6157 -11.1396 -1.9954 0.9447
9.5681 -10.3183 -1.9938 0.9447
10.4432 -9.4164 -1.9924 0.9448
11.2341 -8.4410 -1.9910 0.9448
11.9348 -7.3999 -1.9897 0.9448
13.0454 -5.1545 -1.9874 0.9449
13.4469 -3.9678 -1.9865 0.9449
13.8218 2.2290 -1.9837 0.9450
13.5669 3.4534 -1.9836 0.9450
11.5066 7.9859 -1.9845 0.9450
8.3067 9.9426 -1.8357 0.9490
7.3899 10.6495 -1.8366 0.9490
6.4136 11.2728 -1.8377 0.9490
4.8373 10.6061 -1.6517 0.9540
3.7192 10.5629 -1.5867 0.9558
2.6777 10.5227 -1.5385 0.9571
1.6901 10.4845 -1.5047 0.9580
-0.1969 10.4117 -1.4755 0.9588
-3.0406 10.3019 -1.5219 0.9575
-7.6093 10.1257 -1.7946 0.9501
-8.6715 9.6157 -1.8346 0.9490
-9.6218 8.9209 -1.8591 0.9484
-10.3868 8.0323 -1.8604 0.9483
-11.0696 7.0780 -1.8617 0.9483
-12.1658 5.0031 -1.8638 0.9482
-13.9325 2.9906 -2.0190 0.9441
-14.1490 1.7359 -2.0198 0.9440
-14.2517 0.4664 -2.0204 0.9440
-14.2397 -0.8075 -2.0209 0.9440
-14.1130 -2.0754 -2.0212 0.9440
-13.0591 -5.7397 -2.0212 0.9440
-12.4929 -6.8813 -2.0209 0.9440
-11.8263 -7.9670 -2.0204 0.9440
-8.2780 -11.5828 -2.0172 0.9441
-7.2073 -12.2685 -2.0161 0.9441
-4.9052 -13.3375 -2.0135 0.9442
-2.4525 -13.9768 -2.0106 0.9443
-1.1943 -14.1290 -2.0091 0.9443
0.0713 -14.1678 -2.0075 0.9444
1.3343 -14.0933 -2.0058 0.9444
3.8121 -13.6088 -2.0024 0.9445
8.3052 -11.3772 -1.9958 0.9447
9.2802 -10.5824 -1.9943 0.9447
10.1801 -9.7047 -1.9928 0.9448
10.9978 -8.7513 -1.9914 0.9448
12.3627 -6.6483 -1.9889 0.9449
12.8994 -5.5154 -1.9878 0.9449
13.6616 -3.1314 -1.9859 0.9449
13.9903 0.5988 -1.9841 0.9450
11.7228 7.6629 -1.9844 0.9450
9.4064 8.8988 -1.8347 0.9490
8.5782 9.7068 -1.8355 0.9490
7.6814 10.4386 -1.8363 0.9490
5.4681 -10.8344 -1.9993 0.9520
6.4087 -10.2959 -1.9979 0.9520
7.2969 -9.6762 -1.9965 0.9521
10.7296 -5.5567 -1.9906 0.9522
11.5363 -3.5575 -1.9888 0.9522
11.8034 -2.5129 -1.9881 0.9523
11.9768 -1.4490 -1.9874 0.9523
12.0383 0.7029 -1.9866 0.9523
11.7193 2.8313 -1.9862 0.9523
9.3398 7.6127 -1.9850 0.9523
7.2558 8.4724 -1.8376 0.9558
6.4734 9.0899 -1.8384 0.9558
5.6390 9.6359 -1.8393 0.9557
3.8403 10.4963 -1.8412 0.9557
2.8163 10.5281 -1.7954 0.9568
1.8225 10.4897 -1.7540 0.9578
-0.0698 10.4167 -1.7161 0.9586
-1.0003 10.3808 -1.7180 0.9586
-1.9405 10.3445 -1.7339 0.9582
-2.9059 10.3072 -1.7642 0.9575
-5.8139 9.6358 -1.8540 0.9554
-7.4444 8.4603 -1.8565 0.9553
-8.1750 7.7672 -1.8577 0.9553
-8.8410 7.0109 -1.8588 0.9553
-11.5982 3.7537 -2.0083 0.9518
-12.1348 1.6393 -2.0172 0.9516
-12.2360 0.5499 -2.0178 0.9516
-10.8026 -5.7795 -2.0183 0.9515
-8.8792 -8.4283 -2.0168 0.9516
-7.2337 -9.8649 -2.0152 0.9516
-6.3215 -10.4662 -2.0143 0.9516
-5.3595 -10.9829 -2.0132 0.9517
-0.0874 -12.1821 -2.0069 0.9518
0.9995 -12.1327 -2.0055 0.9518
3.1359 -11.7448 -2.0026 0.9519
4.1686 -11.4098 -2.0012 0.9519
6.1218 -10.4721 -1.9983 0.9520
8.6597 -8.4594 -1.9943 0.9521
10.0137 -6.7771 -1.9919 0.9522
11.0478 -4.8839 -1.9899 0.9522
11.4345 -3.8768 -1.9890 0.9522
11.9331 -1.7810 -1.9876 0.9523
12.0412 -0.7087 -1.9871 0.9523
10.7101 5.5403 -1.9865 0.9523
9.5584 7.3590 -1.9873 0.9523
8.1922 7.5629 -1.8367 0.9558
7.4872 8.2667 -1.8374 0.9558
5.9034 9.4743 -1.8390 0.9558
5.0368 9.9683 -1.8399 0.9557
4.1294 10.3838 -1.8409 0.9557
3.1355 10.5404 -1.8116 0.9564
2.1263 10.5015 -1.7651 0.9575
0.5809 5.2398 -0.8685 0.9789
-0.7110 10.3919 -1.7160 0.9587
-1.6466 10.3558 -1.7274 0.9584
-2.6024 10.3189 -1.7532 0.9578
-3.5951 10.2806 -1.7942 0.9568
-4.6438 10.2396 -1.8522 0.9554
-5.5430 9.7913 -1.8536 0.9554
-6.3992 9.2640 -1.8548 0.9554
-7.2053 8.6618 -1.8561 0.9554
-7.9548 7.9895 -1.8573 0.9553
-8.6414 7.2522 -1.8585 0.9553
-9.8041 5.6068 -1.8606 0.9552
-11.8550 3.0447 -2.0164 0.9516
-12.0835 1.9752 -2.0171 0.9516
-12.2151 0.8892 -2.0176 0.9516
-12.0200 -2.3793 -2.0186 0.9515
-11.7601 -3.4427 -2.0187 0.9515
-11.4055 -4.4783 -2.0186 0.9515
-10.9592 -5.4777 -2.0184 0.9515
-10.4250 -6.4329 -2.0180 0.9516
-9.8070 -7.3359 -2.0176 0.9516
-8.3414 -8.9569 -2.0163 0.9516
-3.6431 -11.6527 -2.0113 0.9517
-1.5116 -12.0992 -2.0087 0.9518
-0.4255 -12.1776 -2.0073 0.9518
0.6625 -12.1585 -2.0059 0.9518
2.8094 -11.8300 -2.0031 0.9519
3.8512 -11.5237 -2.0016 0.9519
5.8301 -10.6402 -1.9987 0.9520
8.4233 -8.6981 -1.9947 0.9521
9.8235 -7.0536 -1.9923 0.9522
10.4081 -6.1454 -1.9912 0.9522
10.9096 -5.1894 -1.9902 0.9522
12.0601 0.0340 -1.9868 0.9523
12.0070 1.1100 -1.9865 0.9523
11.8588 2.1769 -1.9862 0.9523
11.6167 3.2264 -1.9862 0.9523
9.7582 7.0904 -1.9871 0.9523
8.3981 7.3320 -1.8366 0.9558
6.1631 9.3054 -1.8387 0.9558
5.3107 9.8231 -1.8396 0.9557
3.4608 10.5530 -1.8296 0.9560
2.4342 10.5133 -1.7778 0.9572
0.5099 10.4390 -1.7218 0.9585
-1.3546 10.3671 -1.7224 0.9585
-2.3024 10.3305 -1.7436 0.9580
-3.2817 10.2927 -1.7797 0.9571
-4.3109 10.2530 -1.8323 0.9559
-6.1383 9.4360 -1.8544 0.9554
-6.9607 8.8566 -1.8557 0.9554
-7.7284 8.2055 -1.8569 0.9553
-9.0752 6.7091 -1.8592 0.9553
-12.0811 -2.0448 -2.0185 0.9515
-11.5256 -4.1601 -2.0186 0.9515
-11.1075 -5.1717 -2.0185 0.9515
-10.0076 -7.0615 -2.0177 0.9516
-7.7720 -9.4509 -2.0158 0.9516
-6.8945 -10.1023 -2.0149 0.9516
-5.9625 -10.6721 -2.0139 0.9516
-2.9175 -11.8498 -2.0104 0.9517
-1.8472 -12.0551 -2.0091 0.9518
0.3250 -12.1748 -2.0064 0.9518
4.5511 -11.2591 -2.0006 0.9520
5.5338 -10.8003 -1.9992 0.9520
6.4711 -10.2561 -1.9978 0.9520
8.1803 -8.9303 -1.9951 0.9521
8.9390 -8.1595 -1.9938 0.9521
9.6257 -7.3248 -1.9926 0.9521
11.2048 -4.5064 -1.9896 0.9522
11.8182 -2.4408 -1.9880 0.9523
11.9852 -1.3759 -1.9874 0.9523
12.0572 -0.3007 -1.9869 0.9523
12.0337 0.7764 -1.9865 0.9523
11.9149 1.8470 -1.9863 0.9523
11.3961 3.9355 -1.9862 0.9523
11.0002 4.9372 -1.9863 0.9523
10.5171 5.9000 -1.9866 0.9523
9.2875 7.6649 -1.9838 0.9524
4.6975 10.1352 -1.8403 0.9557
3.7764 10.5199 -1.8413 0.9557
-0.1334 10.4142 -1.7158 0.9587
-1.0640 10.3783 -1.7187 0.9586
-2.0054 10.3420 -1.7355 0.9582
-2.9732 10.3046 -1.7668 0.9575
-3.9847 10.2656 -1.8141 0.9563
-4.9890 10.0793 -1.8527 0.9554
-8.2226 7.7175 -1.8578 0.9553
-8.8839 6.9571 -1.8589 0.9553
-9.4748 6.1400 -1.8600 0.9553
-9.9902 5.2727 -1.8609 0.9552
-10.4259 4.3622 -1.8618 0.9552
-12.1449 1.5653 -2.0173 0.9516
-12.2393 0.4753 -2.0178 0.9516
-12.1329 -1.7087 -2.0185 0.9515
-11.9328 -2.7849 -2.0186 0.9515
-11.2471 -4.8616 -2.0185 0.9515
-10.7670 -5.8453 -2.0183 0.9515
-9.5521 -7.6629 -2.0174 0.9516
-8.0322 -9.2327 -2.0160 0.9516
-6.2573 -10.5042 -2.0142 0.9516
-5.2921 -11.0149 -2.0132 0.9517
-4.2856 -11.4368 -2.0120 0.9517
-3.2459 -11.7666 -2.0108 0.9517
-2.1814 -12.0017 -2.0095 0.9518
4.2379 -11.3836 -2.0011 0.9520
5.2331 -10.9521 -1.9996 0.9520
6.1853 -10.4340 -1.9982 0.9520
7.0869 -9.8336 -1.9968 0.9520
7.9309 -9.1558 -1.9955 0.9521
10.0545 -6.7156 -1.9919 0.9522
10.6081 -5.7884 -1.9908 0.9522
11.0770 -4.8163 -1.9898 0.9522
11.4577 -3.8069 -1.9890 0.9522
11.7472 -2.7681 -1.9882 0.9523
11.9435 -1.7081 -1.9876 0.9523
12.0451 -0.6352 -1.9871 0.9523
12.0512 0.4421 -1.9866 0.9523
11.7780 2.5770 -1.9862 0.9523
11.5009 3.6178 -1.9862 0.9523
10.1351 6.5372 -1.9868 0.9523
9.5135 7.4173 -1.9873 0.9523
6.6680 8.9467 -1.8382 0.9558
5.8457 9.5104 -1.8390 0.9558
4.9761 9.9992 -1.8400 0.9557
3.0648 10.5377 -1.8079 0.9565
2.0592 10.4989 -1.7625 0.9576
0.1549 10.3601 -1.7069 0.9589
-0.7746 10.3895 -1.7163 0.9586
-1.7110 10.3533 -1.7287 0.9584
-3.6647 10.2779 -1.7976 0.9567
-4.7064 10.2116 -1.8523 0.9554
-7.2583 8.6181 -1.8562 0.9554
-8.0037 7.9411 -1.8574 0.9553
-8.6858 7.1996 -1.8585 0.9553
-9.8385 5.5470 -1.8606 0.9552
-10.9459 3.8063 -1.9091 0.9541
-11.8736 2.9724 -2.0164 0.9516
-12.0956 1.9015 -2.0171 0.9516
-12.2205 0.8147 -2.0177 0.9516
-12.0053 -2.4526 -2.0186 0.9515
-11.7389 -3.5143 -2.0187 0.9515
-11.3779 -4.5478 -2.0186 0.9515
-10.9255 -5.5445 -2.0184 0.9515
-10.3854 -6.4964 -2.0180 0.9516
-8.2864 -9.0073 -2.0163 0.9516
-7.4464 -9.7070 -2.0154 0.9516
-4.6021 -11.3155 -2.0124 0.9517
-2.5142 -11.9389 -2.0099 0.9517
-0.3512 -12.1794 -2.0073 0.9518
1.8171 -12.0307 -2.0044 0.9519
5.8946 -10.6039 -1.9987 0.9520
6.8127 -10.0286 -1.9973 0.9520
7.6753 -9.3742 -1.9959 0.9521
9.2079 -7.8504 -1.9934 0.9521
9.8660 -6.9933 -1.9922 0.9522
10.9407 -5.1226 -1.9901 0.9522
11.6672 -3.0934 -1.9884 0.9522
11.9999 1.1832 -1.9864 0.9523
11.8452 2.2492 -1.9862 0.9523
11.5968 3.2972 -1.9862 0.9523
11.2566 4.3191 -1.9862 0.9523
10.3120 6.2530 -1.9867 0.9523
9.7149 7.1499 -1.9871 0.9523
8.3534 7.3832 -1.8366 0.9558
6.1064 9.3432 -1.8388 0.9558
5.2508 9.8557 -1.8397 0.9557
4.3526 10.2905 -1.8407 0.9557
0.4460 10.4366 -1.7209 0.9585
-6.1961 9.3988 -1.8545 0.9554
-8.4811 7.4365 -1.8582 0.9553
-9.1164 6.6538 -1.8593 0.9553
-10.1649 4.9325 -1.8613 0.9552
-12.0370 2.2362 -2.0169 0.9516
-11.5000 -4.2304 -2.0186 0.9515
-11.0756 -5.2394 -2.0184 0.9515
-10.5623 -6.2059 -2.0181 0.9516
-5.8970 -10.7079 -2.0138 0.9517
-4.9152 -11.1854 -2.0127 0.9517
-1.7735 -12.0656 -2.0090 0.9518
-0.6892 -12.1675 -2.0077 0.9518
2.5531 -11.8901 -2.0034 0.9519
3.6014 -11.6064 -2.0020 0.9519
4.6195 -11.2306 -2.0005 0.9520
7.4138 -9.5856 -1.9963 0.9521
8.2342 -8.8798 -1.9950 0.9521
8.9882 -8.1045 -1.9938 0.9521
9.6698 -7.2656 -1.9926 0.9521
10.7959 -5.4250 -1.9904 0.9522
11.2318 -4.4379 -1.9895 0.9522
11.8326 -2.3686 -1.9880 0.9523
11.9932 -1.3027 -1.9874 0.9523
12.0586 -0.2271 -1.9869 0.9523
12.0286 0.8498 -1.9865 0.9523
11.3719 4.0050 -1.9862 0.9523
10.4810 5.9641 -1.9866 0.9523
7.8847 7.8853 -1.8370 0.9558
3.7123 10.5432 -1.8414 0.9557
2.6777 10.5228 -1.7888 0.9569
1.6901 10.4846 -1.7495 0.9579
0.7373 10.4478 -1.7254 0.9584
-0.1969 10.4118 -1.7155 0.9587
-1.1278 10.3758 -1.7194 0.9586
-3.0406 10.3020 -1.7695 0.9574
-5.0507 10.0492 -1.8528 0.9554
-6.7662 9.0038 -1.8554 0.9554
-7.5478 8.3696 -1.8567 0.9553
-8.9266 6.9031 -1.8590 0.9553
-10.4527 4.2986 -1.8619 0.9552
-11.6571 3.6162 -2.0107 0.9517
-11.9691 2.5691 -2.0167 0.9516
-12.1544 1.4912 -2.0173 0.9516
-12.2422 0.4006 -2.0178 0.9516
-12.2314 -0.6937 -2.0182 0.9515
-11.6131 -3.9096 -2.0186 0.9515
-10.7310 -5.9108 -2.0182 0.9515
-10.1587 -6.8436 -2.0179 0.9516
-9.5050 -7.7209 -2.0173 0.9516
-8.7753 -8.5357 -2.0167 0.9516
-6.1929 -10.5418 -2.0141 0.9516
-4.2156 -11.4623 -2.0119 0.9517
-1.0267 -12.1463 -2.0081 0.9518
0.0613 -12.1811 -2.0067 0.9518
3.2787 -11.7045 -2.0024 0.9519
4.3070 -11.3570 -2.0010 0.9520
6.2485 -10.3956 -1.9981 0.9520
8.7615 -8.3524 -1.9941 0.9521
10.0949 -6.6539 -1.9918 0.9522
10.6429 -5.7234 -1.9907 0.9522
11.1058 -4.7485 -1.9898 0.9522
11.4803 -3.7368 -1.9889 0.9522
11.7636 -2.6963 -1.9882 0.9523
12.0481 0.5156 -1.9866 0.9523
11.9524 1.5886 -1.9863 0.9523
11.7620 2.6488 -1.9862 0.9523
10.0952 6.5990 -1.9869 0.9523
8.0997 7.6626 -1.8368 0.9558
7.3861 8.3579 -1.8375 0.9558
4.7934 -9.4976 -1.9997 0.9576
7.7952 -7.2031 -1.9949 0.9577
9.4109 -4.8737 -1.9920 0.9578
9.8042 -4.0128 -1.9912 0.9578
10.1194 -3.1206 -1.9904 0.9578
10.5068 -1.2712 -1.9893 0.9578
10.5760 -0.3283 -1.9888 0.9578
10.2817 2.4840 -1.9882 0.9579
9.6769 4.2725 -1.9883 0.9579
8.7656 5.9264 -1.9888 0.9578
8.1811 6.6682 -1.9838 0.9580
7.0002 6.8320 -1.8385 0.9610
5.6781 7.9731 -1.8398 0.9609
4.9459 8.4515 -1.8406 0.9609
4.1738 8.8633 -1.8414 0.9609
0.8106 9.7845 -1.8454 0.9608
-0.0659 9.8237 -1.8465 0.9608
-0.9429 9.7846 -1.8476 0.9608
-3.5077 9.2028 -1.8512 0.9607
-5.0943 8.4432 -1.8535 0.9607
-5.8310 7.9597 -1.8546 0.9606
-7.1614 6.8041 -1.8567 0.9606
-8.7210 4.6711 -1.8595 0.9605
-10.1951 3.2996 -2.0141 0.9573
-10.4524 2.3773 -2.0148 0.9573
-10.6258 1.4354 -2.0154 0.9573
-10.7162 -0.4766 -2.0162 0.9573
-10.2091 -3.2989 -2.0166 0.9573
-9.8735 -4.1966 -2.0165 0.9573
-8.9678 -5.8835 -2.0160 0.9573
-8.4051 -6.6589 -2.0155 0.9573
-7.7752 -7.3804 -2.0150 0.9573
-7.0833 -8.0423 -2.0144 0.9573
-4.6941 -9.6195 -2.0119 0.9574
-3.8150 -9.9951 -2.0109 0.9574
-1.9752 -10.5028 -2.0087 0.9574
0.8758 -10.6317 -2.0051 0.9575
1.8200 -10.5045 -2.0038 0.9575
2.7484 -10.2936 -2.0026 0.9576
3.6538 -10.0009 -2.0013 0.9576
5.3668 -9.1805 -1.9988 0.9576
8.2209 -6.7070 -1.9942 0.9577
9.2732 -5.1337 -1.9923 0.9578
10.0300 -3.4006 -1.9907 0.9578
10.2900 -2.4911 -1.9900 0.9578
10.4683 -1.5624 -1.9894 0.9578
10.5634 -0.6218 -1.9889 0.9578
10.3468 2.1978 -1.9882 0.9579
10.1092 3.1123 -1.9881 0.9579
9.7915 4.0022 -1.9882 0.9579
8.3833 6.4543 -1.9886 0.9579
7.1865 6.6345 -1.8384 0.9610
6.5677 7.2516 -1.8389 0.9610
5.8965 7.8116 -1.8396 0.9609
2.7957 9.3982 -1.8430 0.9609
1.9469 9.6154 -1.8440 0.9609
0.2067 9.8199 -1.8462 0.9608
-0.6709 9.8051 -1.8473 0.9608
-3.2504 9.2948 -1.8508 0.9607
-4.8571 8.5797 -1.8531 0.9607
-6.3126 7.5887 -1.8554 0.9606
-7.5696 6.3526 -1.8574 0.9606
-8.1105 5.6546 -1.8584 0.9606
-8.5868 4.9106 -1.8593 0.9605
-8.9948 4.1265 -1.8601 0.9605
-10.0811 3.5746 -2.0104 0.9574
-10.3813 2.6662 -2.0146 0.9573
-10.6958 0.7786 -2.0157 0.9573
-10.5244 -2.0833 -2.0166 0.9573
-9.9864 -3.9211 -2.0166 0.9573
-9.1281 -5.6327 -2.0161 0.9573
-8.5873 -6.4235 -2.0157 0.9573
-7.9778 -7.1625 -2.0152 0.9573
-7.3045 -7.8435 -2.0146 0.9573
-6.5730 -8.4611 -2.0139 0.9573
-5.7894 -9.0103 -2.0131 0.9573
-4.9600 -9.4869 -2.0122 0.9574
-4.0916 -9.8869 -2.0112 0.9574
-3.1913 -10.2074 -2.0102 0.9574
0.5806 -10.6539 -2.0055 0.9575
3.3755 -10.1004 -2.0017 0.9576
5.1110 -9.3277 -1.9992 0.9576
6.6797 -8.2605 -1.9968 0.9577
7.3861 -7.6271 -1.9956 0.9577
8.0329 -6.9337 -1.9945 0.9577
9.1285 -5.3899 -1.9926 0.9578
9.9330 -3.6781 -1.9909 0.9578
10.4218 -1.8524 -1.9896 0.9578
10.5428 -0.9147 -1.9891 0.9578
10.5803 0.0298 -1.9887 0.9579
10.5338 0.9738 -1.9884 0.9579
10.4040 1.9098 -1.9882 0.9579
10.1917 2.8306 -1.9881 0.9579
9.8986 3.7289 -1.9882 0.9579
9.5270 4.5978 -1.9883 0.9579
9.0799 5.4304 -1.9886 0.9579
8.5606 6.2202 -1.9890 0.9578
7.3672 6.4319 -1.8382 0.9610
6.7658 7.0658 -1.8388 0.9610
4.6578 8.6156 -1.8409 0.9609
1.3517 9.7209 -1.8447 0.9608
0.4791 9.8085 -1.8458 0.9608
-0.3716 9.1562 -1.7224 0.9634
-1.2739 9.7494 -1.8481 0.9608
-2.1402 9.6029 -1.8493 0.9607
-2.9906 9.3795 -1.8504 0.9607
-7.3891 6.5592 -1.8571 0.9606
-7.9492 5.8766 -1.8581 0.9606
-10.5280 2.0224 -2.0150 0.9573
-10.6693 1.0751 -2.0156 0.9573
-10.6944 -0.8391 -2.0163 0.9573
-10.5779 -1.7904 -2.0165 0.9573
-10.0915 -3.6425 -2.0166 0.9573
-9.2814 -5.3774 -2.0162 0.9573
-8.7629 -6.1832 -2.0158 0.9573
-8.1741 -6.9389 -2.0153 0.9573
-7.5201 -7.6385 -2.0148 0.9573
-6.8061 -8.2764 -2.0141 0.9573
-6.0380 -8.8474 -2.0133 0.9573
-3.4739 -10.1165 -2.0105 0.9574
-0.6689 -10.6573 -2.0071 0.9575
0.2847 -10.6680 -2.0059 0.9575
1.2349 -10.5934 -2.0046 0.9575
6.4491 -8.4443 -1.9971 0.9577
7.1728 -7.8305 -1.9960 0.9577
8.4415 -6.4237 -1.9938 0.9577
9.8282 -3.9528 -1.9911 0.9578
10.3673 -2.1411 -1.9898 0.9578
10.5142 -1.2070 -1.9892 0.9578
10.5572 0.6811 -1.9885 0.9579
10.4532 1.6204 -1.9883 0.9579
10.2663 2.5467 -1.9882 0.9579
9.6507 4.3315 -1.9883 0.9579
9.2267 5.1761 -1.9885 0.9579
8.7294 5.9799 -1.9888 0.9578
8.1359 6.7145 -1.9828 0.9580
6.3193 7.4707 -1.8392 0.9610
4.8944 8.4818 -1.8406 0.9609
3.3118 9.2256 -1.8424 0.9609
1.6207 9.6779 -1.8444 0.9608
-0.1258 9.8235 -1.8466 0.9608
-2.7286 9.4570 -1.8501 0.9607
-3.5640 9.1816 -1.8512 0.9607
-6.5673 7.3723 -1.8558 0.9606
-8.2987 5.3779 -1.8587 0.9606
-8.7496 4.6179 -1.8596 0.9605
-10.4669 2.3136 -2.0149 0.9573
-10.7169 0.4162 -2.0159 0.9573
-10.6233 -1.4961 -2.0165 0.9573
-10.1888 -3.3611 -2.0166 0.9573
-9.8477 -4.2567 -2.0165 0.9573
-9.4275 -5.1181 -2.0163 0.9573
-8.9316 -5.9380 -2.0159 0.9573
-8.3642 -6.7099 -2.0155 0.9573
-7.7299 -7.4276 -2.0150 0.9573
-7.0339 -8.0852 -2.0143 0.9573
-6.2820 -8.6775 -2.0136 0.9573
-5.4802 -9.1997 -2.0127 0.9574
-4.6352 -9.6476 -2.0118 0.9574
-2.8434 -10.3074 -2.0098 0.9574
-1.9111 -10.5142 -2.0086 0.9574
-0.0114 -10.6738 -2.0063 0.9575
2.8111 -10.2762 -2.0025 0.9576
5.4225 -9.1472 -1.9987 0.9576
6.2134 -8.6216 -1.9975 0.9577
8.2613 -6.6565 -1.9941 0.9577
9.7159 -4.2245 -1.9914 0.9578
10.0504 -3.3393 -1.9906 0.9578
10.3048 -2.4282 -1.9900 0.9578
9.7669 4.0619 -1.9882 0.9579
9.3664 4.9178 -1.9884 0.9579
8.8915 5.7350 -1.9887 0.9579
7.1460 6.6783 -1.8384 0.9610
5.8488 7.8476 -1.8397 0.9609
3.5659 9.1287 -1.8421 0.9609
2.7384 9.4154 -1.8431 0.9609
0.1468 9.8214 -1.8462 0.9608
-1.6035 9.7030 -1.8485 0.9608
-3.3071 9.2752 -1.8509 0.9607
-4.1243 8.9487 -1.8520 0.9607
-4.9095 8.5502 -1.8532 0.9607
-5.6565 8.0829 -1.8543 0.9606
-7.0114 6.9566 -1.8565 0.9606
-8.6169 4.8583 -1.8593 0.9605
-10.1080 3.5149 -2.0115 0.9574
-10.3976 2.6029 -2.0147 0.9573
-10.7005 0.7134 -2.0157 0.9573
-10.2782 -3.0771 -2.0166 0.9573
-9.9622 -3.9819 -2.0165 0.9573
-9.0935 -5.6882 -2.0161 0.9573
-8.5478 -6.4757 -2.0157 0.9573
-6.5211 -8.5008 -2.0138 0.9573
-5.7342 -9.0452 -2.0130 0.9573
-4.9019 -9.5167 -2.0121 0.9574
-2.2025 -10.4590 -2.0090 0.9574
-1.2596 -10.6077 -2.0078 0.9575
-0.3077 -10.6714 -2.0066 0.9575
1.5924 -10.5430 -2.0042 0.9575
2.5253 -10.3523 -2.0029 0.9576
4.3200 -9.7261 -2.0003 0.9576
5.1675 -9.2960 -1.9991 0.9576
6.7297 -8.2193 -1.9967 0.9577
7.4322 -7.5816 -1.9956 0.9577
8.0747 -6.8843 -1.9945 0.9577
8.6525 -6.1331 -1.9934 0.9578
9.1609 -5.3339 -1.9925 0.9578
9.5962 -4.4931 -1.9916 0.9578
9.9550 -3.6173 -1.9908 0.9578
10.2345 -2.7135 -1.9901 0.9578
10.5480 -0.8504 -1.9891 0.9578
10.5798 0.0944 -1.9887 0.9579
10.1742 2.8927 -1.9881 0.9579
9.8757 3.7892 -1.9882 0.9579
9.4989 4.6558 -1.9884 0.9579
8.5226 6.2724 -1.9890 0.9578
7.3280 6.4769 -1.8383 0.9610
6.7227 7.1071 -1.8388 0.9610
5.3560 8.1950 -1.8402 0.9609
4.6053 8.6441 -1.8410 0.9609
2.9982 9.3342 -1.8428 0.9609
0.4193 9.8117 -1.8459 0.9608
-0.4284 9.1731 -1.7261 0.9633
-1.3334 9.7419 -1.8482 0.9608
-2.1989 9.5901 -1.8493 0.9607
-3.0479 9.3615 -1.8505 0.9607
-6.1459 7.7224 -1.8551 0.9606
-7.9852 5.8282 -1.8582 0.9606
-8.9024 4.3198 -1.8599 0.9605
-9.9829 3.7851 -2.0067 0.9575
-10.5404 1.9582 -2.0151 0.9573
-10.5669 -1.8549 -2.0165 0.9573
-9.2483 -5.4339 -2.0162 0.9573
-8.7248 -6.2364 -2.0158 0.9573
-7.4732 -7.6841 -2.0147 0.9573
-5.1648 -9.3783 -2.0124 0.9574
-4.3052 -9.7972 -2.0114 0.9574
-2.4923 -10.3956 -2.0093 0.9574
-0.6038 -10.6608 -2.0070 0.9575
0.3498 -10.6656 -2.0058 0.9575
1.2994 -10.5852 -2.0045 0.9575
3.1565 -10.1727 -2.0020 0.9576
5.7277 -8.9564 -1.9983 0.9577
6.5002 -8.4044 -1.9971 0.9577
9.0107 -5.5869 -1.9928 0.9578
9.4691 -4.7583 -1.9919 0.9578
10.5211 -1.1428 -1.9892 0.9578
10.4430 1.6841 -1.9882 0.9579
9.9769 3.5137 -1.9882 0.9579
9.6241 4.3903 -1.9883 0.9579
8.6929 6.0331 -1.9889 0.9578
6.9166 6.9172 -1.8386 0.9610
6.2738 7.5093 -1.8392 0.9610
4.0656 8.9141 -1.8415 0.9609
1.5617 9.6880 -1.8445 0.9608
0.6912 9.7944 -1.8455 0.9608
-2.7864 9.4406 -1.8501 0.9607
-3.6201 9.1601 -1.8513 0.9607
-5.9282 7.8886 -1.8548 0.9606
-6.6124 7.3324 -1.8558 0.9606
-7.2444 6.7167 -1.8569 0.9606
-8.3317 5.3273 -1.8588 0.9605
-8.7779 4.5646 -1.8596 0.9605
-10.4810 2.2497 -2.0149 0.9573
-10.6429 1.3057 -2.0155 0.9573
-10.7194 0.3508 -2.0159 0.9573
-10.4330 -2.5021 -2.0166 0.9573
-10.1681 -3.4232 -2.0166 0.9573
-9.3960 -5.1754 -2.0163 0.9573
-8.8951 -5.9923 -2.0159 0.9573
-7.6843 -7.4745 -2.0149 0.9573
-6.9843 -8.1278 -2.0143 0.9573
-4.5761 -9.6754 -2.0117 0.9574
-1.8468 -10.5252 -2.0086 0.9574
2.8736 -10.2584 -2.0024 0.9576
5.4779 -9.1136 -1.9986 0.9576
6.2656 -8.5832 -1.9974 0.9577
7.0025 -7.9851 -1.9963 0.9577
8.3015 -6.6057 -1.9941 0.9577
8.8535 -5.8356 -1.9931 0.9578
9.3346 -5.0199 -1.9922 0.9578
9.7413 -4.1650 -1.9913 0.9578
10.4860 1.3937 -1.9883 0.9579
10.3191 2.3238 -1.9882 0.9579
10.0705 3.2355 -1.9881 0.9579
9.3363 4.9749 -1.9884 0.9579
8.2951 6.5491 -1.9865 0.9579
7.1053 6.7219 -1.8385 0.9610
6.4791 7.3315 -1.8390 0.9610
5.0764 8.3730 -1.8404 0.9609
4.9970 -8.0280 -1.9988 0.9621
6.9343 -6.4077 -1.9958 0.9621
7.4750 -5.7605 -1.9948 0.9622
8.3730 -4.3362 -1.9931 0.9622
8.7233 -3.5704 -1.9924 0.9622
9.0042 -2.7767 -1.9917 0.9622
9.2134 -1.9615 -1.9912 0.9622
9.3494 -1.1311 -1.9907 0.9622
9.4112 -0.2922 -1.9903 0.9622
9.3984 0.5488 -1.9900 0.9622
8.9159 3.0183 -1.9897 0.9622
8.6114 3.8021 -1.9898 0.9622
8.2386 4.5559 -1.9900 0.9622
7.8002 5.2738 -1.9903 0.9622
7.2808 5.9345 -1.9855 0.9623
6.2290 6.0792 -1.8398 0.9650
3.7133 7.8854 -1.8424 0.9650
-0.0586 8.7372 -1.8469 0.9649
-0.8386 8.7019 -1.8479 0.9649
-4.5289 7.5062 -1.8531 0.9648
-7.7504 4.1512 -1.8585 0.9647
-9.0596 2.9321 -2.0128 0.9618
-9.4417 1.2755 -2.0139 0.9618
-9.5216 -0.4235 -2.0147 0.9618
-9.4468 -1.2717 -2.0149 0.9618
-8.4041 -4.4963 -2.0147 0.9618
-7.9682 -5.2277 -2.0144 0.9618
-5.6296 -7.6773 -2.0124 0.9618
-3.3908 -8.8835 -2.0099 0.9619
-2.5832 -9.1464 -2.0090 0.9619
-1.7558 -9.3358 -2.0080 0.9619
-0.9151 -9.4504 -2.0070 0.9619
0.7787 -9.4523 -2.0048 0.9620
3.2492 -8.8934 -2.0014 0.9620
4.7731 -8.1650 -1.9992 0.9621
5.4798 -7.7023 -1.9981 0.9621
6.1421 -7.1787 -1.9971 0.9621
9.3151 -1.3903 -1.9908 0.9622
9.3460 1.1263 -1.9899 0.9622
9.2076 1.9558 -1.9897 0.9622
8.9962 2.7697 -1.9897 0.9622
8.7134 3.5616 -1.9898 0.9622
8.3615 4.3254 -1.9899 0.9622
7.4586 5.7424 -1.9897 0.9622
6.3948 5.9036 -1.8397 0.9650
5.8440 6.4525 -1.8402 0.9650
5.2465 6.9505 -1.8408 0.9650
3.9302 7.7783 -1.8421 0.9650
1.7318 8.5532 -1.8447 0.9650
-1.3733 8.6370 -1.8486 0.9649
-2.8901 8.2646 -1.8507 0.9648
-3.6182 7.9782 -1.8518 0.9648
-4.3182 7.6277 -1.8528 0.9648
-4.9844 7.2158 -1.8538 0.9648
-6.1942 6.2212 -1.8557 0.9647
-8.4725 3.8869 -1.9704 0.9626
-9.4020 1.5369 -2.0138 0.9618
-9.5038 0.6918 -2.0142 0.9618
-9.5292 -0.1591 -2.0146 0.9618
-9.1487 -2.6782 -2.0150 0.9618
-8.8730 -3.4839 -2.0150 0.9618
-8.5260 -4.2615 -2.0148 0.9618
-7.6302 -5.7076 -2.0142 0.9618
-5.1449 -8.0073 -2.0119 0.9618
-3.6365 -8.7872 -2.0102 0.9619
-2.8365 -9.0725 -2.0093 0.9619
-2.0145 -9.2849 -2.0083 0.9619
1.3586 -9.3828 -2.0040 0.9620
2.1893 -9.2189 -2.0029 0.9620
3.7891 -8.6731 -2.0006 0.9620
4.5455 -8.2957 -1.9995 0.9621
5.2648 -7.8527 -1.9984 0.9621
5.9415 -7.3476 -1.9974 0.9621
6.5702 -6.7846 -1.9964 0.9621
7.6644 -5.5033 -1.9945 0.9622
8.1215 -4.7953 -1.9936 0.9622
8.5137 -4.0497 -1.9929 0.9622
9.0920 -2.4701 -1.9915 0.9622
9.3740 0.8666 -1.9899 0.9622
9.0696 2.5189 -1.9897 0.9622
7.6178 5.5352 -1.9904 0.9622
6.5556 5.7234 -1.8395 0.9650
5.4368 6.8015 -1.8406 0.9650
4.8097 7.2620 -1.8412 0.9650
3.4449 8.0078 -1.8427 0.9650
1.9682 8.5006 -1.8444 0.9650
0.4261 8.7241 -1.8463 0.9649
-0.3544 8.7320 -1.8473 0.9649
-1.9032 8.5394 -1.8493 0.9649
-2.6592 8.3402 -1.8504 0.9648
-3.3948 8.0741 -1.8514 0.9648
-4.1041 7.7433 -1.8525 0.9648
-6.0182 6.3897 -1.8554 0.9647
-7.0651 5.2230 -1.8572 0.9647
-7.5063 4.5737 -1.8580 0.9647
-8.8802 3.4291 -2.0122 0.9618
-9.4803 0.9553 -2.0141 0.9618
-9.5295 0.1054 -2.0145 0.9618
-9.5022 -0.7456 -2.0148 0.9618
-9.3986 -1.5908 -2.0149 0.9618
-8.6412 -4.0234 -2.0149 0.9618
-8.2467 -4.7780 -2.0146 0.9618
-7.7862 -5.4940 -2.0143 0.9618
-6.6823 -6.7876 -2.0134 0.9618
-4.6409 -8.3067 -2.0113 0.9618
-1.4385 -9.3881 -2.0076 0.9619
-0.5946 -9.4740 -2.0066 0.9619
1.0979 -9.4185 -2.0044 0.9620
1.9330 -9.2777 -2.0032 0.9620
2.7517 -9.0631 -2.0021 0.9620
3.5476 -8.7764 -2.0010 0.9620
5.7362 -7.5109 -1.9977 0.9621
6.9731 -6.3650 -1.9957 0.9621
7.5098 -5.7147 -1.9948 0.9622
9.2250 -1.9052 -1.9911 0.9622
9.3560 -1.0741 -1.9907 0.9622
9.3948 0.6061 -1.9900 0.9622
9.3023 1.4420 -1.9898 0.9622
7.2411 5.9760 -1.9846 0.9623
5.6229 6.6473 -1.8404 0.9650
4.3546 7.5464 -1.8417 0.9650
3.6653 7.9081 -1.8424 0.9650
1.4416 8.6086 -1.8450 0.9649
0.6679 8.7074 -1.8460 0.9649
-2.4263 8.4093 -1.8501 0.9648
-4.5748 7.4787 -1.8532 0.9648
-5.2268 7.0444 -1.8542 0.9648
-5.8377 6.5532 -1.8551 0.9648
-7.3755 4.7796 -1.8578 0.9647
-7.7758 4.1040 -1.8585 0.9647
-8.7633 3.6666 -2.0080 0.9619
-9.0775 2.8768 -2.0129 0.9618
-9.3008 2.0558 -2.0135 0.9618
-9.5224 0.3698 -2.0144 0.9618
-9.4389 -1.3293 -2.0149 0.9618
-8.3765 -4.5475 -2.0147 0.9618
-7.9361 -5.2761 -2.0144 0.9618
-7.4321 -5.9622 -2.0140 0.9618
-6.8687 -6.6001 -2.0135 0.9618
-6.2505 -7.1846 -2.0130 0.9618
-5.5825 -7.7113 -2.0123 0.9618
-4.8702 -8.1757 -2.0116 0.9618
-4.1195 -8.5742 -2.0108 0.9619
1.6751 -9.3295 -2.0036 0.9620
4.0796 -8.5380 -2.0002 0.9621
5.5265 -7.6684 -1.9980 0.9621
6.7948 -6.5571 -1.9960 0.9621
7.3494 -5.9217 -1.9950 0.9621
7.8450 -5.2398 -1.9942 0.9622
8.2779 -4.5169 -1.9933 0.9622
8.6447 -3.7587 -1.9926 0.9622
8.9426 -2.9712 -1.9919 0.9622
9.3233 -1.3334 -1.9908 0.9622
9.3389 1.1833 -1.9898 0.9622
8.6916 3.6147 -1.9898 0.9622
8.3350 4.3763 -1.9899 0.9622
7.9123 5.1034 -1.9902 0.9622
6.3587 5.9426 -1.8397 0.9650
5.8046 6.4881 -1.8402 0.9650
3.8828 7.8023 -1.8422 0.9650
0.5479 5.2337 -1.1123 0.9787
0.1306 8.7352 -1.8467 0.9649
-2.1916 8.4719 -1.8497 0.9649
-3.6669 7.9563 -1.8518 0.9648
-5.0285 7.1855 -1.8539 0.9648
-6.2323 6.1835 -1.8558 0.9647
-6.7625 5.6054 -1.8567 0.9647
-8.9933 3.1273 -2.0127 0.9618
-9.4114 1.4795 -2.0138 0.9618
-9.5079 0.6338 -2.0142 0.9618
-8.8515 -3.5380 -2.0150 0.9618
-7.0498 -6.4074 -2.0137 0.9618
-6.4480 -7.0091 -2.0132 0.9618
-4.3564 -8.4577 -2.0110 0.9619
-3.5827 -8.8090 -2.0101 0.9619
-2.7810 -9.0894 -2.0092 0.9619
2.2455 -9.2050 -2.0028 0.9620
3.0563 -8.9628 -2.0017 0.9620
5.3124 -7.8201 -1.9984 0.9621
5.9860 -7.3110 -1.9973 0.9621
7.1832 -6.1242 -1.9953 0.9621
8.1504 -4.7455 -1.9936 0.9622
8.5380 -3.9976 -1.9928 0.9622
8.8576 -3.2186 -1.9921 0.9622
9.1067 -2.4145 -1.9915 0.9622
9.3863 -0.7567 -1.9905 0.9622
9.3685 0.9237 -1.9899 0.9622
9.0541 2.5742 -1.9897 0.9622
8.0505 4.8817 -1.9901 0.9622
7.5840 5.5816 -1.9905 0.9622
5.9819 6.3240 -1.8400 0.9650
4.7655 7.2914 -1.8412 0.9650
2.6672 8.3037 -1.8436 0.9650
1.9164 8.5127 -1.8445 0.9650
-0.4077 8.7300 -1.8474 0.9649
-1.9553 8.5280 -1.8494 0.9649
-3.4441 8.0536 -1.8515 0.9648
-4.8264 7.3211 -1.8535 0.9648
-5.4634 6.8648 -1.8545 0.9648
-6.6034 5.7900 -1.8564 0.9647
-8.0671 3.9145 -1.8954 0.9640
-9.1708 2.5682 -2.0131 0.9618
-9.4861 0.8974 -2.0141 0.9618
-8.9464 -3.2910 -2.0150 0.9618
-8.6164 -4.0760 -2.0149 0.9618
-8.2174 -4.8282 -2.0146 0.9618
-7.7524 -5.5414 -2.0143 0.9618
-7.2254 -6.2098 -2.0139 0.9618
-5.3176 -7.8947 -2.0120 0.9618
-3.0326 -9.0100 -2.0095 0.9619
-1.3811 -9.3964 -2.0075 0.9619
0.3110 -9.4821 -2.0054 0.9620
1.9895 -9.2654 -2.0032 0.9620
3.6009 -8.7543 -2.0009 0.9620
5.7817 -7.4754 -1.9976 0.9621
6.4225 -6.9261 -1.9966 0.9621
7.5443 -5.6685 -1.9947 0.9622
8.0166 -4.9705 -1.9938 0.9622
8.7658 -3.4635 -1.9923 0.9622
9.0370 -2.6665 -1.9917 0.9622
9.3623 -1.0169 -1.9906 0.9622
9.1220 2.3220 -1.9897 0.9622
8.8785 3.1268 -1.9897 0.9622
7.7355 5.3687 -1.9904 0.9622
6.1545 6.1550 -1.8399 0.9650
5.5823 6.6817 -1.8404 0.9650
4.9654 7.1556 -1.8410 0.9650
4.3086 7.5730 -1.8417 0.9650
2.8962 8.2253 -1.8433 0.9650
1.3891 8.6175 -1.8451 0.9649
-0.1652 8.7365 -1.8470 0.9649
-2.4777 8.3947 -1.8501 0.9648
-5.8777 6.5177 -1.8552 0.9648
-6.4392 5.9702 -1.8561 0.9647
-7.8009 4.0566 -1.8586 0.9647
-8.7896 3.6147 -2.0089 0.9619
-9.0951 2.8214 -2.0129 0.9618
-9.4569 1.1602 -2.0140 0.9618
-9.5246 0.3117 -2.0144 0.9618
-9.5158 -0.5397 -2.0147 0.9618
-8.3485 -4.5985 -2.0147 0.9618
-7.3954 -6.0073 -2.0140 0.9618
-6.8282 -6.6417 -2.0135 0.9618
-6.2064 -7.2225 -2.0129 0.9618
-4.8201 -8.2050 -2.0115 0.9618
-4.0670 -8.5990 -2.0107 0.9619
-1.6416 -9.3559 -2.0079 0.9619
-0.7997 -9.4602 -2.0068 0.9619
0.8939 -9.4414 -2.0046 0.9620
2.5552 -9.1218 -2.0024 0.9620
6.2288 -7.1028 -1.9969 0.9621
6.8344 -6.5153 -1.9959 0.9621
7.8766 -5.1917 -1.9941 0.9622
8.6673 -3.7058 -1.9925 0.9622
8.9604 -2.9166 -1.9919 0.9622
9.1822 -2.1046 -1.9913 0.9622
9.3315 1.2402 -1.9898 0.9622
9.1830 2.0680 -1.9897 0.9622
8.9617 2.8793 -1.9897 0.9622
7.8811 5.1517 -1.9902 0.9622
5.7650 6.5235 -1.8403 0.9650
4.4951 -7.2216 -1.9992 0.9657
5.7019 -6.3015 -1.9973 0.9657
7.1584 -4.5603 -1.9948 0.9657
7.5341 -3.9018 -1.9941 0.9657
7.8497 -3.2128 -1.9934 0.9657
8.1027 -2.4987 -1.9928 0.9658
8.2912 -1.7652 -1.9923 0.9658
8.4138 -1.0179 -1.9919 0.9658
8.4696 -0.2630 -1.9915 0.9658
8.4581 0.4939 -1.9912 0.9658
8.2345 1.9894 -1.9910 0.9658
7.7500 3.4218 -1.9911 0.9658
5.0962 5.9507 -1.8413 0.9683
3.3412 7.0951 -1.8431 0.9683
2.6957 7.3679 -1.8439 0.9683
2.0283 7.5822 -1.8447 0.9683
1.3441 7.7364 -1.8455 0.9682
0.4289 5.1770 -1.2209 0.9789
-0.0527 7.8596 -1.8472 0.9682
-2.1360 7.5762 -1.8500 0.9682
-2.8050 7.3591 -1.8509 0.9682
-3.4523 7.0830 -1.8519 0.9681
-5.7232 5.4377 -1.8554 0.9681
-6.1883 4.9073 -1.8562 0.9681
-7.3336 3.9280 -1.9552 0.9664
-7.8738 3.3510 -2.0111 0.9654
-8.3489 1.8989 -2.0123 0.9654
-8.4869 1.1465 -2.0127 0.9654
-8.5584 -0.3807 -2.0134 0.9654
-8.1531 -2.6345 -2.0137 0.9654
-7.8852 -3.3515 -2.0136 0.9654
-7.1622 -4.6989 -2.0132 0.9654
-6.7131 -5.3184 -2.0129 0.9654
-6.2104 -5.8950 -2.0124 0.9654
-5.6581 -6.4241 -2.0119 0.9654
-4.4231 -7.3231 -2.0107 0.9655
-2.3226 -8.2235 -2.0083 0.9655
-1.5787 -8.3942 -2.0074 0.9655
0.7002 -8.5003 -2.0045 0.9656
1.4553 -8.3997 -2.0035 0.9656
2.1980 -8.2321 -2.0025 0.9656
2.9224 -7.9990 -2.0015 0.9656
4.2936 -7.3447 -1.9995 0.9656
4.9296 -6.9289 -1.9985 0.9657
5.5257 -6.4582 -1.9976 0.9657
6.0772 -5.9367 -1.9967 0.9657
7.0300 -4.7577 -1.9950 0.9657
7.4237 -4.1098 -1.9943 0.9657
8.2396 -1.9947 -1.9924 0.9658
8.4594 -0.4979 -1.9916 0.9658
8.4689 0.2590 -1.9913 0.9658
8.4111 1.0137 -1.9911 0.9658
7.5250 3.8927 -1.9912 0.9658
7.1484 4.5492 -1.9914 0.9658
6.7150 5.1699 -1.9917 0.9658
5.7547 5.3127 -1.8407 0.9683
2.2376 7.5220 -1.8444 0.9683
1.5581 7.6951 -1.8452 0.9683
-1.2352 7.7688 -1.8488 0.9682
-2.5993 7.4330 -1.8506 0.9682
-3.2539 7.1750 -1.8516 0.9681
-4.4820 6.4886 -1.8534 0.9681
-6.0490 5.0765 -1.8560 0.9681
-6.9188 3.9567 -1.8732 0.9678
-8.5426 0.6219 -2.0130 0.9654
-7.9753 -3.1314 -2.0137 0.9654
-7.2902 -4.4985 -2.0133 0.9654
-6.8585 -5.1304 -2.0130 0.9654
-6.3720 -5.7208 -2.0126 0.9654
-5.2507 -6.7590 -2.0115 0.9654
-4.6251 -7.1983 -2.0109 0.9655
-3.9629 -7.5797 -2.0102 0.9655
-2.5502 -8.1570 -2.0086 0.9655
-0.2980 -8.5294 -2.0058 0.9655
1.9690 -8.2912 -2.0028 0.9656
3.4082 -7.8012 -2.0008 0.9656
5.3451 -6.6101 -1.9979 0.9657
5.9110 -6.1039 -1.9970 0.9657
6.4293 -5.5496 -1.9961 0.9657
7.3077 -4.3148 -1.9945 0.9657
8.1818 -2.2228 -1.9926 0.9658
8.3454 -1.4834 -1.9921 0.9658
8.4428 -0.7325 -1.9917 0.9658
8.4731 0.0239 -1.9914 0.9658
8.4362 0.7799 -1.9912 0.9658
8.3323 1.5295 -1.9910 0.9658
8.1624 2.2670 -1.9910 0.9658
7.9276 2.9864 -1.9910 0.9658
6.8555 4.9813 -1.9916 0.9658
5.4176 5.6578 -1.8410 0.9683
4.8924 6.1204 -1.8415 0.9683
4.3280 6.5346 -1.8421 0.9683
2.4452 7.4560 -1.8442 0.9683
1.7708 7.6478 -1.8450 0.9683
0.3833 7.8480 -1.8467 0.9682
-0.3188 7.8547 -1.8476 0.9682
-1.0190 7.7988 -1.8485 0.9682
-1.7118 7.6807 -1.8494 0.9682
-2.3916 7.5010 -1.8504 0.9682
-3.0531 7.2614 -1.8513 0.9682
-3.6908 6.9634 -1.8522 0.9681
-4.2996 6.6095 -1.8531 0.9681
-5.4112 5.7452 -1.8549 0.9681
-5.9050 5.2417 -1.8557 0.9681
-6.7615 4.1199 -1.8609 0.9680
-7.9837 3.0829 -2.0114 0.9654
-8.2293 2.3588 -2.0120 0.9654
-8.5656 0.0947 -2.0132 0.9654
-8.2867 -2.1781 -2.0137 0.9654
-7.7670 -3.6164 -2.0136 0.9654
-7.4125 -4.2947 -2.0134 0.9654
-6.9986 -4.9383 -2.0131 0.9654
-6.5288 -5.5422 -2.0127 0.9654
-6.0067 -6.1013 -2.0123 0.9654
-4.8236 -7.0679 -2.0111 0.9655
-4.1721 -7.4676 -2.0104 0.9655
-3.4877 -7.8073 -2.0097 0.9655
-1.2934 -8.4414 -2.0071 0.9655
-0.5347 -8.5191 -2.0061 0.9655
0.2276 -8.5287 -2.0052 0.9656
4.5389 -7.1938 -1.9991 0.9657
5.1604 -6.7568 -1.9982 0.9657
6.2737 -5.7266 -1.9964 0.9657
7.5576 -3.8557 -1.9940 0.9657
7.8689 -3.1648 -1.9934 0.9657
8.1176 -2.4492 -1.9928 0.9658
8.0073 2.7653 -1.9910 0.9658
7.3892 4.1453 -1.9912 0.9658
3.2979 7.1155 -1.8432 0.9683
2.6508 7.3844 -1.8439 0.9683
1.2969 7.7447 -1.8455 0.9682
0.4107 5.3549 -1.2622 0.9782
-0.1007 7.8594 -1.8473 0.9682
-2.1822 7.5633 -1.8501 0.9682
-2.8499 7.3421 -1.8510 0.9682
-4.1139 6.7252 -1.8529 0.9681
-4.7000 6.3343 -1.8538 0.9681
-5.2490 5.8924 -1.8546 0.9681
-5.7565 5.4028 -1.8555 0.9681
-6.2183 4.8696 -1.8562 0.9681
-6.6307 4.2970 -1.8570 0.9681
-7.4296 3.9213 -1.9744 0.9661
-8.1600 2.5860 -2.0118 0.9654
-8.3604 1.8480 -2.0123 0.9654
-8.4939 1.0947 -2.0128 0.9654
-8.5593 0.3324 -2.0131 0.9654
-8.4840 -1.1948 -2.0136 0.9654
-8.3439 -1.9473 -2.0137 0.9654
-8.1369 -2.6842 -2.0137 0.9654
-7.8645 -3.3995 -2.0136 0.9654
-7.5291 -4.0875 -2.0135 0.9654
-6.6805 -5.3592 -2.0128 0.9654
-6.1742 -5.9327 -2.0124 0.9654
-5.6187 -6.4584 -2.0119 0.9654
-4.3782 -7.3498 -2.0106 0.9655
-0.7710 -8.5023 -2.0064 0.9655
0.7521 -8.4956 -2.0045 0.9656
1.5065 -8.3904 -2.0035 0.9656
3.6696 -7.6799 -2.0004 0.9656
4.3382 -7.3181 -1.9994 0.9656
4.9716 -6.8984 -1.9985 0.9657
6.6124 -5.3279 -1.9958 0.9657
7.0587 -4.7146 -1.9950 0.9657
7.4485 -4.0644 -1.9942 0.9657
8.3902 -1.1999 -1.9920 0.9658
8.4622 -0.4463 -1.9916 0.9658
8.4671 0.3107 -1.9913 0.9658
8.0810 2.5420 -1.9910 0.9658
7.8221 3.2531 -1.9910 0.9658
7.5012 3.9385 -1.9912 0.9658
7.1206 4.5928 -1.9914 0.9658
2.1917 7.5357 -1.8445 0.9683
0.5419 5.1766 -1.2233 0.9788
0.1175 7.8579 -1.8470 0.9682
-0.5846 7.8409 -1.8479 0.9682
-3.9251 6.8358 -1.8526 0.9681
-5.6036 5.5598 -1.8552 0.9681
-6.0800 5.0397 -1.8560 0.9681
-6.5082 4.4788 -1.8568 0.9681
-7.0070 3.9506 -1.8905 0.9675
-8.4597 1.3299 -2.0126 0.9654
-8.5463 0.5697 -2.0130 0.9654
-8.5137 -0.9589 -2.0136 0.9654
-8.3947 -1.7150 -2.0137 0.9654
-7.9560 -3.1800 -2.0137 0.9654
-7.6399 -3.8771 -2.0135 0.9654
-7.2625 -4.5429 -2.0133 0.9654
-6.8270 -5.1721 -2.0130 0.9654
-6.3369 -5.7595 -2.0126 0.9654
-5.7962 -6.3005 -2.0121 0.9654
-2.5003 -8.1721 -2.0085 0.9655
-1.7603 -8.3590 -2.0076 0.9655
1.2733 -8.4303 -2.0038 0.9656
2.0195 -8.2788 -2.0028 0.9656
3.4556 -7.7800 -2.0007 0.9656
4.1341 -7.4369 -1.9997 0.9656
5.3851 -6.5771 -1.9978 0.9657
5.9479 -6.0675 -1.9969 0.9657
7.9706 -2.8963 -1.9931 0.9658
8.1950 -2.1728 -1.9926 0.9658
8.3542 -1.4324 -1.9921 0.9658
8.4312 0.8313 -1.9911 0.9658
7.6074 3.7287 -1.9911 0.9658
7.2450 4.3932 -1.9913 0.9658
5.3831 5.6909 -1.8411 0.9683
3.0556 7.2241 -1.8435 0.9683
2.3997 7.4710 -1.8442 0.9683
0.6897 5.1921 -1.2310 0.9787
0.3355 7.8505 -1.8467 0.9682
-0.3667 7.8529 -1.8476 0.9682
-1.7587 7.6703 -1.8495 0.9682
-2.4374 7.4866 -1.8504 0.9682
-3.0974 7.2429 -1.8514 0.9682
-3.7333 6.9410 -1.8523 0.9681
-5.4464 5.7123 -1.8549 0.9681
-5.9370 5.2057 -1.8558 0.9681
-6.7734 4.0706 -1.8573 0.9681
-8.2437 2.3086 -2.0120 0.9654
-8.5267 0.8067 -2.0129 0.9654
-8.5661 0.0425 -2.0133 0.9654
-8.5368 -0.7223 -2.0135 0.9654
-8.4389 -1.4814 -2.0137 0.9654
-8.0413 -2.9581 -2.0137 0.9654
-7.3861 -4.3398 -2.0134 0.9654
-5.9693 -6.1377 -2.0122 0.9654
-5.3963 -6.6442 -2.0117 0.9654
-4.1264 -7.4928 -2.0104 0.9655
-2.7265 -8.1007 -2.0088 0.9655
-1.9918 -8.3081 -2.0079 0.9655
-1.2419 -8.4489 -2.0070 0.9655
-0.4827 -8.5219 -2.0061 0.9655
0.2796 -8.5269 -2.0051 0.9656
3.2389 -7.8741 -2.0010 0.9656
5.7781 -6.2311 -1.9972 0.9657
8.1322 -2.3996 -1.9927 0.9658
8.4720 -0.1596 -1.9915 0.9658
8.4513 0.5971 -1.9912 0.9658
8.3636 1.3488 -1.9910 0.9658
8.2095 2.0897 -1.9910 0.9658
7.9903 2.8141 -1.9910 0.9658
4.4681 6.4389 -1.8419 0.9683
3.2545 7.1357 -1.8432 0.9683
2.6058 7.4006 -1.8440 0.9683
0.5531 7.8370 -1.8465 0.9682
-2.8948 7.3248 -1.8511 0.9682
-4.1550 6.7002 -1.8529 0.9681
-5.2850 5.8604 -1.8547 0.9681
-5.7895 5.3678 -1.8555 0.9681
-6.6570 4.2566 -1.8570 0.9681
-7.5276 3.9144 -1.9941 0.9657
-8.1758 2.5362 -2.0118 0.9654
-8.3717 1.7969 -2.0124 0.9654
-8.5532 -0.4851 -2.0134 0.9654
-8.4766 -1.2466 -2.0136 0.9654
-8.1203 -2.7338 -2.0137 0.9654
-7.8436 -3.4474 -2.0136 0.9654
-7.5040 -4.1333 -2.0134 0.9654
-7.1042 -4.7859 -2.0132 0.9654
-6.6476 -5.3998 -2.0128 0.9654
-4.3332 -7.3762 -2.0106 0.9655
-1.4761 -8.4123 -2.0073 0.9655
0.8039 -8.4906 -2.0044 0.9656
1.5576 -8.3807 -2.0034 0.9656
3.7163 -7.6571 -2.0004 0.9656
4.3826 -7.2913 -1.9994 0.9656
5.0134 -6.8678 -1.9984 0.9657
6.1488 -5.8617 -1.9966 0.9657
7.4730 -4.0187 -1.9942 0.9657
7.7992 -3.3347 -1.9935 0.9657
8.0632 -2.6245 -1.9929 0.9658
8.2631 -1.8940 -1.9924 0.9658
8.0653 2.5912 -1.9910 0.9658
7.8022 3.3008 -1.9910 0.9658
7.0925 4.6362 -1.9914 0.9658
6.6476 5.2484 -1.9906 0.9658
5.1879 5.8704 -1.8412 0.9683
4.0641 6.7033 -1.8424 0.9683
3.4509 7.0418 -1.8430 0.9683
5.1769 -5.7213 -1.9978 0.9686
6.1068 -4.7061 -1.9962 0.9686
6.5000 -4.1409 -1.9955 0.9687
6.8414 -3.5431 -1.9948 0.9687
7.3581 -2.2691 -1.9937 0.9687
7.6814 0.4485 -1.9922 0.9687
7.6101 1.1322 -1.9921 0.9687
7.4784 1.8067 -1.9920 0.9687
7.2873 2.4669 -1.9920 0.9687
7.0384 3.1076 -1.9921 0.9687
6.3751 4.3102 -1.9925 0.9687
5.9634 4.8606 -1.9920 0.9687
3.5955 6.1440 -1.8432 0.9710
3.0339 6.4425 -1.8438 0.9710
0.4271 5.1556 -1.3395 0.9789
-0.0478 7.1352 -1.8475 0.9709
-1.3168 7.0194 -1.8492 0.9709
-1.9388 6.8771 -1.8500 0.9709
-3.6963 6.1262 -1.8525 0.9709
-4.2302 5.7744 -1.8534 0.9709
-4.7306 5.3762 -1.8541 0.9708
-5.1937 4.9346 -1.8549 0.9708
-7.3891 2.3914 -2.0109 0.9684
-7.5749 1.7229 -2.0114 0.9684
-7.7000 1.0402 -2.0118 0.9684
-6.8533 -3.6666 -2.0124 0.9684
-4.5917 -6.2619 -2.0105 0.9684
-4.0134 -6.6447 -2.0099 0.9684
-3.4032 -6.9741 -2.0092 0.9684
-2.1076 -7.4625 -2.0078 0.9685
1.3209 -7.6241 -2.0034 0.9685
3.8979 -6.6677 -1.9998 0.9686
5.9745 -4.8743 -1.9964 0.9686
6.7411 -3.7319 -1.9950 0.9687
7.0451 -3.1145 -1.9944 0.9687
7.2929 -2.4726 -1.9938 0.9687
7.4826 -1.8114 -1.9933 0.9687
7.6128 -1.1362 -1.9929 0.9687
7.6825 -0.4522 -1.9926 0.9687
7.6388 0.9206 -1.9921 0.9687
7.3530 2.2638 -1.9920 0.9687
7.1218 2.9110 -1.9921 0.9687
6.0983 4.6951 -1.9927 0.9687
5.5413 5.1156 -1.9526 0.9693
4.7757 5.2730 -1.8420 0.9710
4.2872 5.6796 -1.8425 0.9710
3.7643 6.0413 -1.8430 0.9710
2.6321 6.6187 -1.8442 0.9710
1.4146 6.9866 -1.8457 0.9710
0.5727 5.1655 -1.3456 0.9788
0.1502 7.1328 -1.8472 0.9710
-0.4872 7.1210 -1.8481 0.9709
-2.3593 6.7468 -1.8506 0.9709
-2.9534 6.5123 -1.8514 0.9709
-5.4891 4.6067 -1.8554 0.9708
-7.0564 3.2373 -2.0101 0.9684
-7.5236 1.9323 -2.0112 0.9684
-7.7291 -0.8228 -2.0125 0.9684
-7.6253 -1.5094 -2.0126 0.9684
-7.2354 -2.8409 -2.0126 0.9684
-6.9526 -3.4751 -2.0125 0.9684
-5.7812 -5.1904 -2.0116 0.9684
-5.2938 -5.6844 -2.0112 0.9684
-4.7641 -6.1326 -2.0107 0.9684
-3.5958 -6.8777 -2.0094 0.9684
-0.9606 -7.6893 -2.0064 0.9685
-0.2705 -7.7410 -2.0055 0.9685
1.1090 -7.6589 -2.0037 0.9685
1.7873 -7.5259 -2.0028 0.9685
2.4507 -7.3330 -2.0019 0.9686
3.0939 -7.0817 -2.0009 0.9686
3.7119 -6.7743 -2.0000 0.9686
4.2997 -6.4132 -1.9991 0.9686
4.8528 -6.0012 -1.9983 0.9686
5.3668 -5.5419 -1.9974 0.9686
6.2617 -4.4961 -1.9959 0.9687
6.6356 -3.9180 -1.9952 0.9687
6.9566 -3.3091 -1.9946 0.9687
7.6950 0.0217 -1.9924 0.9687
7.6616 0.7083 -1.9922 0.9687
7.5673 1.3891 -1.9920 0.9687
7.4129 2.0588 -1.9920 0.9687
7.1997 2.7122 -1.9920 0.9687
6.9293 3.3441 -1.9921 0.9687
5.7838 5.0495 -1.9879 0.9688
4.4428 5.5580 -1.8423 0.9710
0.9821 7.0625 -1.8462 0.9710
0.3480 7.1250 -1.8470 0.9710
-0.9250 7.0797 -1.8486 0.9709
-1.5539 6.9720 -1.8495 0.9709
-2.1709 6.8087 -1.8503 0.9709
-3.3498 6.3201 -1.8520 0.9709
-4.9107 5.2138 -1.8544 0.9708
-5.3585 4.7566 -1.8552 0.9708
-5.7638 4.2611 -1.8559 0.9708
-6.9632 3.4315 -2.0099 0.9684
-7.2438 2.7972 -2.0105 0.9684
-7.6295 1.4656 -2.0115 0.9684
-7.7712 0.0859 -2.0122 0.9684
-6.7250 -3.8963 -2.0124 0.9684
-5.4499 -5.5357 -2.0113 0.9684
-4.9329 -5.9985 -2.0108 0.9684
-3.7857 -6.7759 -2.0097 0.9684
-3.1648 -7.0843 -2.0090 0.9684
-1.8536 -7.5284 -2.0075 0.9685
-0.4853 -7.7315 -2.0058 0.9685
0.2066 -7.7406 -2.0049 0.9685
0.8962 -7.6878 -2.0040 0.9685
1.5780 -7.5737 -2.0031 0.9685
4.1206 -6.5309 -1.9994 0.9686
4.6850 -6.1344 -1.9985 0.9686
5.2116 -5.6894 -1.9977 0.9686
5.6962 -5.1995 -1.9969 0.9686
6.5250 -4.1010 -1.9954 0.9687
7.3717 -2.2241 -1.9936 0.9687
7.6464 -0.8778 -1.9928 0.9687
7.6785 0.4954 -1.9922 0.9687
7.6031 1.1786 -1.9921 0.9687
6.7107 3.7647 -1.9923 0.9687
6.3487 4.3491 -1.9925 0.9687
5.0602 4.9992 -1.8417 0.9710
4.0929 5.8221 -1.8427 0.9710
3.5581 6.1660 -1.8432 0.9710
1.7996 6.8956 -1.8452 0.9710
0.4097 5.3410 -1.3869 0.9781
-0.7281 7.1016 -1.8484 0.9709
-4.2654 5.7487 -1.8534 0.9709
-4.7635 5.3474 -1.8542 0.9708
-5.2238 4.9029 -1.8550 0.9708
-6.1391 3.9784 -1.8941 0.9702
-7.7655 0.3016 -2.0121 0.9684
-7.7624 -0.3927 -2.0124 0.9684
-7.3821 -2.4352 -2.0127 0.9684
-7.1350 -3.0842 -2.0126 0.9684
-6.4718 -4.3026 -2.0122 0.9684
-5.6018 -5.3827 -2.0115 0.9684
-4.5533 -6.2897 -2.0105 0.9684
-3.9727 -6.6689 -2.0099 0.9684
-3.3605 -6.9945 -2.0092 0.9684
0.6826 -7.7108 -2.0043 0.9685
1.3674 -7.6156 -2.0034 0.9685
3.3312 -6.9718 -2.0006 0.9686
4.5136 -6.2629 -1.9988 0.9686
5.0523 -5.8326 -1.9980 0.9686
6.0040 -4.8377 -1.9964 0.9686
6.7636 -3.6906 -1.9950 0.9687
7.6195 -1.0897 -1.9929 0.9687
7.6895 0.2821 -1.9923 0.9687
7.6330 0.9672 -1.9921 0.9687
7.5158 1.6444 -1.9920 0.9687
6.0696 4.7322 -1.9927 0.9687
5.4252 5.0701 -1.9226 0.9698
4.7435 5.3021 -1.8420 0.9710
3.7275 6.0643 -1.8430 0.9710
2.5917 6.6348 -1.8443 0.9710
1.9900 6.8422 -1.8450 0.9710
1.3720 6.9953 -1.8457 0.9710
0.5407 5.1644 -1.3445 0.9788
0.1066 7.1339 -1.8473 0.9710
-1.1643 7.0455 -1.8490 0.9709
-1.7893 6.9167 -1.8498 0.9709
-3.5624 6.2041 -1.8523 0.9709
-4.6127 5.4768 -1.8540 0.9708
-5.5173 4.5732 -1.8555 0.9708
-5.9056 4.0641 -1.8561 0.9708
-6.7429 3.8017 -2.0042 0.9685
-7.0762 3.1942 -2.0102 0.9684
-7.3351 2.5507 -2.0107 0.9684
-7.5354 1.8864 -2.0112 0.9684
-7.6753 1.2066 -2.0117 0.9684
-7.7537 0.5169 -2.0120 0.9684
-7.7240 -0.8700 -2.0125 0.9684
-7.2180 -2.8850 -2.0126 0.9684
-6.9312 -3.5174 -2.0125 0.9684
-6.5889 -4.1215 -2.0123 0.9684
-6.1939 -4.6924 -2.0120 0.9684
-4.1566 -6.5567 -2.0100 0.9684
1.8331 -7.5146 -2.0027 0.9685
3.1369 -7.0625 -2.0009 0.9686
3.7530 -6.7513 -2.0000 0.9686
4.3386 -6.3866 -1.9991 0.9686
4.8892 -5.9714 -1.9982 0.9686
5.8681 -5.0030 -1.9966 0.9686
6.6593 -3.8773 -1.9952 0.9687
7.2381 -2.6301 -1.9940 0.9687
7.5868 -1.3008 -1.9930 0.9687
7.6712 -0.6184 -1.9927 0.9687
7.6571 0.7550 -1.9922 0.9687
7.5587 1.4352 -1.9920 0.9687
7.4002 2.1040 -1.9920 0.9687
6.1983 4.5617 -1.9926 0.9687
4.4089 5.5851 -1.8423 0.9710
2.1789 6.7835 -1.8448 0.9710
1.5654 6.9537 -1.8455 0.9710
-0.9682 7.0741 -1.8487 0.9709
-1.5964 6.9627 -1.8495 0.9709
-3.3884 6.2997 -1.8521 0.9709
-5.7899 4.2259 -1.8559 0.9708
-6.5687 3.9476 -1.9843 0.9688
-7.4796 2.0946 -2.0111 0.9684
-7.6384 1.4191 -2.0116 0.9684
-7.7360 0.7319 -2.0119 0.9684
-7.7716 0.0385 -2.0122 0.9684
-7.7449 -0.6553 -2.0125 0.9684
-7.5058 -2.0219 -2.0127 0.9684
-5.8925 -5.0643 -2.0117 0.9684
-4.8961 -6.0284 -2.0108 0.9684
-4.3374 -6.4395 -2.0102 0.9684
-3.1214 -7.1033 -2.0089 0.9684
-2.4741 -7.3509 -2.0082 0.9685
-1.8075 -7.5394 -2.0074 0.9685
-1.1270 -7.6674 -2.0066 0.9685
-0.4381 -7.7341 -2.0057 0.9685
0.9430 -7.6819 -2.0039 0.9685
1.6241 -7.5637 -2.0030 0.9685
2.9401 -7.1479 -2.0012 0.9686
4.7222 -6.1055 -1.9985 0.9686
5.7277 -5.1645 -1.9968 0.9686
7.1629 -2.8302 -1.9941 0.9687
7.5483 -1.5110 -1.9931 0.9687
7.6939 -0.1449 -1.9925 0.9687
7.4558 1.8979 -1.9920 0.9687
7.2567 2.5557 -1.9920 0.9687
5.8993 4.9294 -1.9905 0.9687
5.0296 5.0300 -1.8417 0.9710
4.5618 5.4601 -1.8422 0.9710
2.3660 6.7197 -1.8445 0.9710
1.7576 6.9067 -1.8453 0.9710
-0.1349 7.1346 -1.8476 0.9709
-2.6275 6.6485 -1.8510 0.9709
-3.7710 6.0810 -1.8527 0.9709
-4.3005 5.7227 -1.8535 0.9709
-4.7961 5.3184 -1.8543 0.9708
-6.2137 3.9731 -1.9096 0.9700
-6.8813 3.5783 -2.0082 0.9685
-7.1811 2.9532 -2.0104 0.9684
-7.1160 -3.1276 -2.0126 0.9684
-6.8079 -3.7499 -2.0124 0.9684
-5.5688 -5.4167 -2.0114 0.9684
-5.0619 -5.8907 -2.0110 0.9684
-3.3177 -7.0147 -2.0091 0.9684
-2.0163 -7.4872 -2.0076 0.9685
-1.3396 -7.6342 -2.0068 0.9685
0.0390 -7.7441 -2.0051 0.9685
1.4138 -7.6069 -2.0033 0.9685
2.0860 -7.4469 -2.0024 0.9686
3.9787 -6.6193 -1.9996 0.9686
4.5516 -6.2351 -1.9988 0.9686
5.0877 -5.8015 -1.9979 0.9686
5.5828 -5.3222 -1.9971 0.9686
7.0823 -3.0281 -1.9943 0.9687
7.5039 -1.7200 -1.9933 0.9687
7.6873 -0.3584 -1.9925 0.9687
7.6876 0.3290 -1.9923 0.9687
7.6269 1.0137 -1.9921 0.9687
7.3248 2.3533 -1.9920 0.9687
6.7905 3.6184 -1.9922 0.9687
5.3127 5.0260 -1.8936 0.9702
4.7112 5.3310 -1.8420 0.9710
4.2177 5.7317 -1.8425 0.9710
3.6905 6.0870 -1.8431 0.9710
3.1335 6.3942 -1.8437 0.9710
3.7328 -5.9970 -1.9997 0.9711
4.2514 -5.6377 -1.9989 0.9711
4.7357 -5.2337 -1.9981 0.9711
5.5867 -4.3053 -1.9967 0.9711
6.2592 -3.2415 -1.9954 0.9711
6.5217 -2.6693 -1.9949 0.9711
6.7322 -2.0761 -1.9944 0.9711
6.9913 -0.8458 -1.9936 0.9711
3.2896 5.6211 -1.8438 0.9733
2.7756 5.8941 -1.8443 0.9733
2.2393 6.1203 -1.8449 0.9733
1.6847 6.2979 -1.8456 0.9733
1.1163 6.4255 -1.8463 0.9733
0.4255 5.1365 -1.4591 0.9788
-0.6263 6.4994 -1.8485 0.9732
-1.2044 6.4203 -1.8492 0.9732
-1.7733 6.2898 -1.8500 0.9732
-2.8656 5.8793 -1.8516 0.9732
-4.7491 4.5122 -1.8545 0.9731
-6.2560 3.3508 -2.0091 0.9709
-6.5319 2.7799 -2.0096 0.9709
-6.7556 2.1864 -2.0101 0.9709
-7.0396 0.9510 -2.0110 0.9709
-7.0975 0.3190 -2.0113 0.9709
-7.0984 -0.3157 -2.0115 0.9709
-7.0425 -0.9480 -2.0117 0.9709
-6.9301 -1.5728 -2.0118 0.9709
-6.7621 -2.1850 -2.0118 0.9709
-6.5399 -2.7797 -2.0117 0.9709
-6.2653 -3.3520 -2.0116 0.9709
-5.9405 -3.8974 -2.0114 0.9709
-5.1514 -4.8898 -2.0107 0.9709
-4.6935 -5.3289 -2.0103 0.9709
-4.1981 -5.7251 -2.0098 0.9709
-0.6829 -7.0522 -2.0058 0.9710
-0.0508 -7.0822 -2.0050 0.9710
0.5812 -7.0556 -2.0042 0.9710
2.4264 -6.6412 -2.0016 0.9710
3.0081 -6.3955 -2.0008 0.9710
4.5892 -5.3637 -1.9984 0.9711
5.4657 -4.4592 -1.9969 0.9711
6.1674 -3.4143 -1.9956 0.9711
6.4456 -2.8494 -1.9951 0.9711
6.6725 -2.2623 -1.9946 0.9711
6.8462 -1.6574 -1.9941 0.9711
6.9655 -1.0396 -1.9937 0.9711
6.8861 1.4627 -1.9929 0.9712
6.5165 2.6636 -1.9929 0.9712
6.2531 3.2347 -1.9930 0.9712
5.9401 3.7803 -1.9932 0.9712
4.3695 4.8245 -1.8427 0.9733
1.8586 6.2480 -1.8454 0.9733
1.2941 6.3913 -1.8460 0.9733
0.5713 5.1531 -1.4677 0.9787
0.1374 6.5246 -1.8475 0.9732
-0.4457 6.5135 -1.8482 0.9732
-1.0256 6.4504 -1.8490 0.9732
-1.5978 6.3358 -1.8498 0.9732
-2.1578 6.1705 -1.8506 0.9732
-2.7010 5.9558 -1.8513 0.9732
-3.7198 5.3852 -1.8528 0.9732
-4.6215 4.6417 -1.8543 0.9731
-5.0191 4.2122 -1.8550 0.9731
-5.7066 3.9786 -1.9694 0.9715
-6.4517 2.9598 -2.0095 0.9709
-7.0101 1.1459 -2.0108 0.9709
-7.0856 0.5158 -2.0112 0.9709
-7.1042 -0.1186 -2.0114 0.9709
-6.9710 -1.3799 -2.0117 0.9709
-6.8202 -1.9966 -2.0118 0.9709
-6.0466 -3.7312 -2.0114 0.9709
-5.2854 -4.7453 -2.0108 0.9709
-4.3557 -5.6069 -2.0100 0.9709
-3.8370 -5.9717 -2.0094 0.9709
-2.1160 -6.7683 -2.0075 0.9710
-1.5030 -6.9276 -2.0068 0.9710
-0.2473 -7.0789 -2.0052 0.9710
0.3853 -7.0699 -2.0044 0.9710
1.0142 -7.0044 -2.0036 0.9710
2.2414 -6.7069 -2.0019 0.9710
2.8298 -6.4774 -2.0011 0.9710
4.4391 -5.4897 -1.9986 0.9711
4.9095 -5.0697 -1.9979 0.9711
6.0708 -3.5845 -1.9958 0.9711
6.3646 -3.0275 -1.9952 0.9711
6.6077 -2.4467 -1.9947 0.9711
7.0155 -0.6087 -1.9935 0.9712
6.5878 2.4817 -1.9929 0.9712
6.3403 3.0599 -1.9930 0.9712
6.0425 3.6138 -1.9932 0.9712
5.6966 4.1392 -1.9934 0.9712
4.0648 5.0852 -1.8430 0.9733
3.5957 5.4290 -1.8434 0.9733
2.5748 5.9854 -1.8445 0.9733
2.0311 6.1933 -1.8452 0.9733
0.7188 5.1696 -1.4776 0.9785
0.3183 6.5175 -1.8472 0.9732
-0.2647 6.5225 -1.8480 0.9732
-1.9855 6.2272 -1.8503 0.9732
-2.5344 6.0277 -1.8511 0.9732
-3.5685 5.4856 -1.8526 0.9732
-4.8998 4.3494 -1.8547 0.9731
-5.4110 4.0002 -1.9050 0.9724
-6.0503 3.6866 -2.0057 0.9710
-6.8264 1.9567 -2.0103 0.9709
-7.0682 0.7122 -2.0111 0.9709
-7.1045 0.0786 -2.0114 0.9709
-5.8049 -4.0960 -2.0113 0.9709
-4.9825 -5.0610 -2.0106 0.9709
-4.5100 -5.4843 -2.0101 0.9709
-2.8937 -6.4775 -2.0084 0.9709
-2.3033 -6.7077 -2.0077 0.9709
-1.6949 -6.8840 -2.0070 0.9710
-0.4437 -7.0702 -2.0055 0.9710
0.8196 -7.0308 -2.0038 0.9710
2.0547 -6.7674 -2.0022 0.9710
2.6493 -6.5542 -2.0013 0.9710
3.2224 -6.2890 -2.0005 0.9711
3.7692 -5.9739 -1.9997 0.9711
4.2856 -5.6115 -1.9989 0.9711
5.6127 -4.2711 -1.9967 0.9711
6.5377 -2.6294 -1.9949 0.9711
6.7446 -2.0349 -1.9944 0.9711
6.8979 -1.4246 -1.9940 0.9711
6.9962 -0.8032 -1.9936 0.9711
7.0390 -0.1756 -1.9933 0.9712
7.0258 0.4533 -1.9931 0.9712
6.9568 1.0784 -1.9929 0.9712
6.8326 1.6949 -1.9929 0.9712
6.6541 2.2979 -1.9929 0.9712
6.4227 2.8827 -1.9930 0.9712
6.1403 3.4446 -1.9931 0.9712
4.9175 4.8582 -1.9569 0.9717
