ply
format ascii 1.0
element vertex 1593
property float32 x
property float32 y
property float32 z
property float32 I
end_header
4.6449 3.7669 -1.9879 0.9751
4.2927 4.1685 -1.9890 0.9751
3.8973 4.5273 -1.9857 0.9751
3.2725 4.5701 -1.8684 0.9766
2.8106 4.7738 -1.8414 0.9769
2.3753 5.0092 -1.8428 0.9769
1.9204 5.2051 -1.8442 0.9769
0.9665 5.4724 -1.8472 0.9768
0.4748 5.5414 -1.8487 0.9768
-1.4983 5.3755 -1.8549 0.9768
-3.6868 4.2167 -1.8619 0.9767
-4.2028 4.0188 -1.9330 0.9758
-5.0646 3.3499 -2.0184 0.9747
-5.3456 2.8860 -2.0193 0.9747
-5.7773 1.8915 -2.0207 0.9747
-6.0771 -0.2487 -2.0217 0.9747
-5.7919 -1.8482 -2.0209 0.9747
-4.7723 -3.7513 -2.0178 0.9747
-2.6752 -5.4271 -2.0113 0.9748
-2.1788 -5.6397 -2.0097 0.9748
-1.6656 -5.8069 -2.0081 0.9749
-0.6062 -6.0006 -2.0048 0.9749
-0.0684 -6.0256 -2.0031 0.9749
0.4690 -6.0027 -2.0014 0.9749
1.0017 -5.9319 -1.9997 0.9750
1.5256 -5.8141 -1.9981 0.9750
3.0036 -5.1905 -1.9934 0.9750
3.4522 -4.8984 -1.9920 0.9751
3.8728 -4.5678 -1.9907 0.9751
5.2146 -2.9185 -1.9864 0.9751
5.4520 -2.4408 -1.9856 0.9751
5.6463 -1.9441 -1.9850 0.9751
5.9291 0.6850 -1.9840 0.9752
5.8451 1.2114 -1.9842 0.9752
5.5394 2.2318 -1.9852 0.9751
5.3200 2.7180 -1.9858 0.9751
4.7565 3.6233 -1.9876 0.9751
4.0376 4.4116 -1.9879 0.9751
3.5295 4.6251 -1.9339 0.9758
2.5258 4.9334 -1.8423 0.9769
1.6114 5.3119 -1.8452 0.9769
1.1321 5.4389 -1.8467 0.9769
0.6429 5.5228 -1.8482 0.9768
-1.3338 5.4170 -1.8544 0.9768
-2.2788 5.1020 -1.8574 0.9767
-3.1539 4.6227 -1.8602 0.9767
-3.5561 4.3259 -1.8614 0.9767
-4.6101 3.9155 -2.0106 0.9748
-4.9595 3.5017 -2.0181 0.9747
-5.2546 3.0468 -2.0190 0.9747
-5.5076 2.5669 -2.0198 0.9747
-5.7166 2.0660 -2.0205 0.9747
-5.9955 1.0178 -2.0214 0.9747
-5.8459 -1.6713 -2.0211 0.9747
-5.6720 -2.1856 -2.0205 0.9747
-5.4526 -2.6820 -2.0199 0.9747
-5.1896 -3.1564 -2.0191 0.9747
-4.1620 -4.4109 -2.0159 0.9748
-3.7495 -4.7616 -2.0146 0.9748
-3.3076 -5.0736 -2.0132 0.9748
-2.8397 -5.3446 -2.0118 0.9748
-2.3498 -5.5723 -2.0102 0.9748
-0.2517 -6.0225 -2.0037 0.9749
0.2863 -6.0159 -2.0020 0.9749
0.8211 -5.9613 -2.0003 0.9750
1.3485 -5.8594 -1.9986 0.9750
2.3645 -5.5177 -1.9954 0.9750
2.8451 -5.2807 -1.9939 0.9750
3.3025 -5.0023 -1.9925 0.9751
3.7330 -4.6845 -1.9911 0.9751
4.5005 -3.9418 -1.9887 0.9751
4.8316 -3.5227 -1.9876 0.9751
5.3760 -2.6058 -1.9859 0.9751
5.5851 -2.1151 -1.9852 0.9751
5.8693 -1.0884 -1.9842 0.9752
5.9471 0.5044 -1.9839 0.9752
5.8790 1.0330 -1.9841 0.9752
5.7644 1.5536 -1.9845 0.9751
5.6041 2.0621 -1.9850 0.9751
5.1521 3.0273 -1.9863 0.9751
4.8637 3.4764 -1.9872 0.9751
4.5365 3.8984 -1.9882 0.9751
4.1730 4.2900 -1.9894 0.9751
3.0941 4.5919 -1.8405 0.9769
2.2321 5.0761 -1.8432 0.9769
0.8103 5.4992 -1.8477 0.9768
-1.1681 5.4535 -1.8539 0.9768
-1.6513 5.3320 -1.8554 0.9767
-2.1220 5.1675 -1.8569 0.9767
-2.5766 4.9615 -1.8583 0.9767
-3.0111 4.7153 -1.8597 0.9767
-3.4221 4.4310 -1.8610 0.9767
-3.8062 4.1108 -1.8622 0.9767
-4.4286 3.9994 -1.9835 0.9752
-4.8450 3.6465 -2.0157 0.9748
-5.1587 3.2046 -2.0187 0.9747
-5.4263 2.7328 -2.0196 0.9747
-5.6505 2.2387 -2.0203 0.9747
-5.8294 1.7262 -2.0209 0.9747
-5.9614 1.1995 -2.0213 0.9747
-6.0809 0.1211 -2.0217 0.9747
-5.8944 -1.4929 -2.0212 0.9747
-5.5323 -2.5153 -2.0201 0.9747
-4.6627 -3.8852 -2.0174 0.9747
-3.4611 -4.9719 -2.0137 0.9748
-2.5189 -5.4998 -2.0108 0.9748
-1.4991 -5.8505 -2.0076 0.9749
-0.4348 -6.0138 -2.0042 0.9749
0.1033 -6.0235 -2.0025 0.9749
2.6839 -5.3662 -1.9944 0.9750
4.0006 -4.4547 -1.9902 0.9751
4.3794 -4.0776 -1.9890 0.9751
4.7231 -3.6686 -1.9879 0.9751
5.2949 -2.7684 -1.9861 0.9751
5.6989 -1.7822 -1.9848 0.9751
5.9227 -0.7409 -1.9841 0.9752
5.8085 1.3776 -1.9843 0.9752
5.6637 1.8906 -1.9848 0.9751
5.2410 2.8689 -1.9861 0.9751
4.9663 3.3264 -1.9869 0.9751
4.6521 3.7580 -1.9879 0.9751
4.3006 4.1603 -1.9890 0.9751
1.9303 5.2014 -1.8442 0.9769
-0.0100 5.1308 -1.7055 0.9786
-1.4880 5.3782 -1.8549 0.9768
-1.9634 5.2283 -1.8564 0.9767
-2.4239 5.0362 -1.8579 0.9767
-3.2851 4.5320 -1.8606 0.9767
-4.7256 3.7871 -2.0130 0.9748
-5.0581 3.3595 -2.0184 0.9747
-5.3400 2.8962 -2.0193 0.9747
-5.9218 1.3801 -2.0212 0.9747
-6.0744 0.3059 -2.0217 0.9747
-6.0318 -0.7783 -2.0216 0.9747
-5.6069 -2.3461 -2.0203 0.9747
-5.0968 -3.3026 -2.0188 0.9747
-4.7795 -3.7423 -2.0178 0.9747
-3.1609 -5.1646 -2.0128 0.9748
-2.6856 -5.4220 -2.0113 0.9748
-2.1895 -5.6356 -2.0097 0.9748
-0.0799 -6.0256 -2.0031 0.9749
0.9904 -5.9339 -1.9998 0.9750
1.5146 -5.8171 -1.9981 0.9750
2.5202 -5.4467 -1.9949 0.9750
5.7930 -1.4433 -1.9845 0.9751
5.9666 0.1420 -1.9839 0.9752
5.9304 0.6737 -1.9840 0.9752
5.7181 1.7174 -1.9846 0.9751
5.3251 2.7078 -1.9858 0.9751
5.0644 3.1733 -1.9866 0.9751
2.5352 4.9285 -1.8423 0.9769
2.0870 5.1389 -1.8437 0.9769
1.1424 5.4367 -1.8466 0.9769
-2.2690 5.1062 -1.8574 0.9767
-2.7176 4.8872 -1.8588 0.9767
-3.5478 4.3326 -1.8614 0.9767
-4.6023 3.9240 -2.0104 0.9748
-4.9528 3.5111 -2.0181 0.9747
-5.2487 3.0567 -2.0190 0.9747
-5.5027 2.5774 -2.0198 0.9747
-5.7126 2.0769 -2.0205 0.9747
-5.8767 1.5595 -2.0210 0.9747
-5.9935 1.0292 -2.0214 0.9747
-6.0621 0.4905 -2.0217 0.9747
-5.9750 -1.1320 -2.0215 0.9747
-5.6762 -2.1748 -2.0206 0.9747
-5.4578 -2.6716 -2.0199 0.9747
-5.1956 -3.1466 -2.0191 0.9747
-4.5493 -4.0158 -2.0171 0.9747
-3.3173 -5.0674 -2.0133 0.9748
-2.3605 -5.5679 -2.0103 0.9748
-1.8529 -5.7518 -2.0087 0.9748
-1.3314 -5.8893 -2.0070 0.9749
3.2930 -5.0086 -1.9925 0.9750
4.4930 -3.9504 -1.9887 0.9751
4.8249 -3.5319 -1.9876 0.9751
5.5811 -2.1257 -1.9852 0.9751
5.7469 -1.6190 -1.9847 0.9751
5.9412 -0.5718 -1.9840 0.9752
5.9682 -0.0395 -1.9839 0.9752
5.6080 2.0514 -1.9849 0.9751
5.4043 2.5444 -1.9856 0.9751
4.1811 4.2819 -1.9893 0.9751
3.7721 4.6251 -1.9839 0.9752
3.1027 4.5860 -1.8405 0.9769
2.6832 4.8479 -1.8418 0.9769
2.2417 5.0717 -1.8432 0.9769
1.7817 5.2556 -1.8446 0.9769
-0.1566 5.1403 -1.7095 0.9786
-0.6658 5.5326 -1.8523 0.9768
-3.7984 4.1179 -1.8622 0.9767
-4.4131 4.0007 -1.9800 0.9752
-4.8376 3.6555 -2.0155 0.9748
-5.4211 2.7432 -2.0196 0.9747
-5.6462 2.2494 -2.0203 0.9747
-5.8260 1.7373 -2.0209 0.9747
-5.9591 1.2109 -2.0213 0.9747
-6.0442 0.6746 -2.0216 0.9747
-6.0807 0.1327 -2.0217 0.9747
-6.0069 -0.9499 -2.0215 0.9747
-5.8973 -1.4817 -2.0212 0.9747
-5.5372 -2.5047 -2.0201 0.9747
-4.6701 -3.8763 -2.0175 0.9747
-2.5294 -5.4950 -2.0108 0.9748
-1.5102 -5.8478 -2.0076 0.9749
0.0918 -6.0238 -2.0026 0.9749
0.6283 -5.9866 -2.0009 0.9749
1.6793 -5.7701 -1.9976 0.9750
2.1856 -5.5928 -1.9960 0.9750
2.6737 -5.3714 -1.9944 0.9750
3.1399 -5.1077 -1.9930 0.9750
-2.8063 4.3762 -1.8591 0.9782
-3.1876 4.1111 -1.8603 0.9781
-3.7482 4.0326 -1.9688 0.9769
-4.1830 3.7632 -2.0121 0.9764
-4.7982 2.9680 -2.0176 0.9763
-5.2530 2.0696 -2.0191 0.9763
-5.6169 0.6052 -2.0203 0.9763
-5.6488 0.1017 -2.0204 0.9763
-5.6353 -0.4026 -2.0204 0.9763
-5.3252 -1.8795 -2.0194 0.9763
-4.9033 -2.7941 -2.0182 0.9763
-4.6326 -3.2190 -2.0173 0.9763
-3.6092 -4.3239 -2.0141 0.9764
-3.2071 -4.6258 -2.0129 0.9764
-2.7798 -4.8902 -2.0116 0.9764
-2.3309 -5.1151 -2.0102 0.9764
-1.3828 -5.4398 -2.0072 0.9764
-0.8913 -5.5373 -2.0057 0.9765
1.5816 -5.3582 -1.9979 0.9765
2.0518 -5.1919 -1.9964 0.9766
2.5050 -4.9846 -1.9950 0.9766
3.3464 -4.4542 -1.9923 0.9766
3.7281 -4.1354 -1.9911 0.9766
4.0799 -3.7842 -1.9900 0.9766
4.3990 -3.4034 -1.9890 0.9766
5.3037 -1.6475 -1.9860 0.9767
5.4284 -1.1676 -1.9856 0.9767
5.5102 -0.6786 -1.9854 0.9767
5.5483 -0.1843 -1.9852 0.9767
5.4932 0.8046 -1.9854 0.9767
5.0872 2.2317 -1.9866 0.9767
4.8695 2.6775 -1.9872 0.9767
3.9921 3.8766 -1.9900 0.9766
3.6312 4.2182 -1.9904 0.9766
3.2318 4.5132 -1.9851 0.9767
2.6180 4.4467 -1.8453 0.9783
0.8985 5.0874 -1.8474 0.9783
-0.0197 5.1177 -1.8302 0.9785
-0.4818 5.1557 -1.8518 0.9782
-1.8339 4.8553 -1.8560 0.9782
-3.5412 4.0502 -1.9239 0.9774
-4.4066 3.5177 -2.0163 0.9763
-4.7050 3.1121 -2.0173 0.9763
-5.3668 1.7570 -2.0194 0.9763
-5.5033 1.2716 -2.0199 0.9763
-5.6430 0.2734 -2.0204 0.9763
-5.6450 -0.2310 -2.0204 0.9763
-4.9866 -2.6440 -2.0184 0.9763
-4.7290 -3.0771 -2.0176 0.9763
-3.7398 -4.2130 -2.0146 0.9764
-3.3470 -4.5271 -2.0133 0.9764
-2.9279 -4.8045 -2.0120 0.9764
-2.4859 -5.0431 -2.0106 0.9764
-2.0247 -5.2410 -2.0092 0.9764
-1.5479 -5.3967 -2.0077 0.9764
-0.5634 -5.5773 -2.0046 0.9765
-0.0636 -5.6009 -2.0031 0.9765
0.9312 -5.5144 -1.9999 0.9765
1.4183 -5.4052 -1.9984 0.9765
1.8935 -5.2532 -1.9969 0.9766
2.3528 -5.0597 -1.9954 0.9766
2.7929 -4.8263 -1.9941 0.9766
3.2101 -4.5549 -1.9927 0.9766
3.9637 -3.9072 -1.9903 0.9766
4.2942 -3.5362 -1.9893 0.9766
4.5903 -3.1375 -1.9883 0.9767
4.8499 -2.7144 -1.9875 0.9767
5.0709 -2.2701 -1.9868 0.9767
5.2516 -1.8082 -1.9862 0.9767
5.3907 -1.3322 -1.9858 0.9767
5.5149 0.6372 -1.9853 0.9767
5.3155 1.6075 -1.9859 0.9767
4.9480 2.5279 -1.9870 0.9767
4.4236 3.3697 -1.9886 0.9767
4.1074 3.7527 -1.9896 0.9766
3.3705 4.4168 -1.9868 0.9767
2.3485 4.5871 -1.8429 0.9783
1.9313 4.7817 -1.8442 0.9783
1.4982 4.9386 -1.8455 0.9783
0.5977 5.1340 -1.8484 0.9783
0.1358 5.1121 -1.8288 0.9785
-0.3247 5.1666 -1.8513 0.9782
-0.7849 5.1210 -1.8527 0.9782
-1.6850 4.9076 -1.8555 0.9782
-2.5339 4.5366 -1.8582 0.9782
-3.3430 4.0667 -1.8826 0.9779
-4.6075 3.2532 -2.0170 0.9763
-5.4618 1.4382 -2.0197 0.9763
-5.5693 0.9454 -2.0201 0.9763
-5.6320 0.4449 -2.0203 0.9763
-5.6494 -0.0593 -2.0204 0.9763
-5.6214 -0.5630 -2.0203 0.9763
-5.5482 -1.0621 -2.0201 0.9763
-5.2690 -2.0303 -2.0193 0.9763
-5.0653 -2.4915 -2.0186 0.9763
-4.8211 -2.9323 -2.0179 0.9763
-4.5383 -3.3492 -2.0170 0.9763
-4.2194 -3.7389 -2.0160 0.9763
-3.0733 -4.7143 -2.0125 0.9764
-2.6388 -4.9663 -2.0111 0.9764
-2.1837 -5.1783 -2.0097 0.9764
-1.7118 -5.3485 -2.0082 0.9764
-0.7330 -5.5590 -2.0052 0.9765
-0.2340 -5.5979 -2.0036 0.9765
0.2661 -5.5921 -2.0020 0.9765
1.7333 -5.3097 -1.9974 0.9766
2.1984 -5.1302 -1.9959 0.9766
3.4713 -4.3561 -1.9919 0.9766
3.8438 -4.0267 -1.9907 0.9766
4.1854 -3.6658 -1.9896 0.9766
4.4935 -3.2762 -1.9887 0.9767
4.7657 -2.8610 -1.9878 0.9767
5.0001 -2.4235 -1.9870 0.9767
5.1947 -1.9672 -1.9864 0.9767
5.3481 -1.4956 -1.9859 0.9767
5.5271 -0.5213 -1.9853 0.9767
5.5513 -0.0261 -1.9852 0.9767
5.4682 0.9609 -1.9854 0.9767
5.3615 1.4451 -1.9857 0.9767
5.2124 1.9180 -1.9862 0.9767
5.0220 2.3760 -1.9868 0.9767
4.2189 3.6255 -1.9893 0.9766
3.0269 4.4922 -1.9371 0.9773
2.4864 4.5125 -1.8425 0.9784
1.6472 4.8895 -1.8451 0.9783
1.2054 5.0207 -1.8465 0.9783
-0.1658 5.1234 -1.8331 0.9785
-0.6287 5.1412 -1.8522 0.9782
-1.0856 5.0685 -1.8537 0.9782
-1.5346 4.9553 -1.8551 0.9782
-3.7349 4.0337 -1.9659 0.9769
-4.5057 3.3912 -2.0167 0.9763
-4.7925 2.9771 -2.0176 0.9763
-5.2491 2.0796 -2.0191 0.9763
-5.4151 1.6035 -2.0196 0.9763
-5.6486 0.1125 -2.0204 0.9763
-5.6361 -0.3918 -2.0204 0.9763
-4.3318 -3.6095 -2.0164 0.9763
-3.9905 -3.9795 -2.0153 0.9763
-3.6175 -4.3171 -2.0142 0.9764
-3.2160 -4.6197 -2.0129 0.9764
-2.7892 -4.8849 -2.0116 0.9764
-0.4042 -5.5897 -2.0041 0.9765
0.5946 -5.5638 -2.0010 0.9765
1.0877 -5.4843 -1.9994 0.9765
2.0419 -5.1959 -1.9964 0.9766
2.4955 -4.9895 -1.9950 0.9766
2.9286 -4.7437 -1.9936 0.9766
3.3380 -4.4606 -1.9923 0.9766
4.6772 -3.0050 -1.9881 0.9767
5.1330 -2.1245 -1.9866 0.9767
5.3006 -1.6577 -1.9861 0.9767
5.4262 -1.1779 -1.9856 0.9767
5.5480 -0.1949 -1.9852 0.9767
5.4027 1.2813 -1.9856 0.9767
5.2679 1.7585 -1.9860 0.9767
4.6189 3.0937 -1.9880 0.9767
3.6395 4.2116 -1.9905 0.9766
3.2406 4.5073 -1.9852 0.9767
2.6273 4.4431 -1.8459 0.9783
1.7947 4.8360 -1.8446 0.9783
-0.0099 5.1182 -1.8303 0.9785
-1.3829 4.9984 -1.8546 0.9782
-2.6628 4.4635 -1.8586 0.9782
-3.0524 4.2110 -1.8599 0.9781
-4.6990 3.1210 -2.0173 0.9763
-4.9608 2.6905 -2.0181 0.9763
-5.1828 2.2380 -2.0188 0.9763
-5.3634 1.7673 -2.0194 0.9763
-5.5942 0.7864 -2.0202 0.9763
-5.6425 0.2842 -2.0204 0.9763
-5.6030 -0.7230 -2.0203 0.9763
-4.9917 -2.6345 -2.0184 0.9763
-4.7349 -3.0681 -2.0176 0.9763
-3.3557 -4.5208 -2.0134 0.9764
-2.9371 -4.7990 -2.0121 0.9764
-2.0347 -5.2372 -2.0092 0.9764
-1.0701 -5.5071 -2.0062 0.9764
0.4253 -5.5808 -2.0015 0.9765
0.9207 -5.5163 -2.0000 0.9765
1.4081 -5.4080 -1.9984 0.9765
1.8835 -5.2569 -1.9969 0.9766
2.7837 -4.8317 -1.9941 0.9766
3.5933 -4.2546 -1.9915 0.9766
4.2875 -3.5444 -1.9893 0.9766
4.8447 -2.7237 -1.9875 0.9767
5.0666 -2.2798 -1.9868 0.9767
5.2482 -1.8182 -1.9862 0.9767
5.3882 -1.3425 -1.9858 0.9767
5.5498 0.1321 -1.9852 0.9767
5.5161 0.6267 -1.9853 0.9767
5.3185 1.5974 -1.9859 0.9767
4.9528 2.5185 -1.9870 0.9767
4.4300 3.3612 -1.9886 0.9767
2.8257 4.4632 -1.8891 0.9778
2.3572 4.5826 -1.8429 0.9783
1.9404 4.7780 -1.8442 0.9783
1.5076 4.9356 -1.8455 0.9783
1.0621 5.0543 -1.8469 0.9783
0.6074 5.1328 -1.8483 0.9783
-0.7751 5.1225 -1.8527 0.9782
-1.2299 5.0368 -1.8541 0.9782
-1.6756 4.9107 -1.8555 0.9782
-2.5252 4.5413 -1.8582 0.9782
-2.9223 4.3009 -1.8595 0.9782
-3.3309 4.0677 -1.8801 0.9779
-5.1118 2.3943 -2.0186 0.9763
-5.3067 1.9293 -2.0192 0.9763
-5.5674 0.9561 -2.0201 0.9763
-5.6495 -0.0485 -2.0204 0.9763
-5.5502 -1.0515 -2.0201 0.9763
-5.4334 -1.5422 -2.0198 0.9763
-5.2729 -2.0203 -2.0193 0.9763
-5.0701 -2.4818 -2.0187 0.9763
-4.8267 -2.9231 -2.0179 0.9763
-4.5447 -3.3406 -2.0170 0.9763
-4.2265 -3.7309 -2.0161 0.9763
-3.0824 -4.7085 -2.0125 0.9764
-2.6483 -4.9613 -2.0112 0.9764
-2.1936 -5.1742 -2.0097 0.9764
-0.7436 -5.5577 -2.0052 0.9765
0.2555 -5.5926 -2.0021 0.9765
0.7528 -5.5432 -2.0005 0.9765
1.2433 -5.4498 -1.9989 0.9765
2.1887 -5.1344 -1.9960 0.9766
3.0620 -4.6573 -1.9932 0.9766
3.4630 -4.3628 -1.9919 0.9766
4.4873 -3.2848 -1.9887 0.9767
4.7603 -2.8701 -1.9878 0.9767
5.3453 -1.5058 -1.9859 0.9767
5.5261 -0.5318 -1.9853 0.9767
5.4700 0.9504 -1.9854 0.9767
5.0265 2.3665 -1.9868 0.9767
4.7971 2.8064 -1.9875 0.9767
4.5295 3.2245 -1.9883 0.9767
4.2258 3.6174 -1.9892 0.9766
3.0414 4.4953 -1.9409 0.9772
2.4949 4.5077 -1.8424 0.9784
1.6565 4.8863 -1.8451 0.9783
0.7630 5.1106 -1.8478 0.9783
0.3043 5.1623 -1.8493 0.9783
-0.1557 5.1119 -1.8289 0.9785
-1.5252 4.9581 -1.8550 0.9782
-2.3854 4.6149 -1.8578 0.9782
-3.1718 4.1231 -1.8602 0.9781
-4.1680 3.7785 -2.0118 0.9764
-4.4992 3.3998 -2.0166 0.9763
-4.7867 2.9862 -2.0176 0.9763
-5.2450 2.0896 -2.0190 0.9763
-5.4120 1.6138 -2.0196 0.9763
-5.6145 0.6266 -2.0203 0.9763
-5.6484 0.1233 -2.0204 0.9763
-5.6368 -0.3811 -2.0204 0.9763
-5.5799 -0.8823 -2.0202 0.9763
-5.1438 -2.3268 -2.0189 0.9763
-4.6449 -3.2014 -2.0174 0.9763
-2.3504 -5.1063 -2.0102 0.9764
-1.4036 -5.4347 -2.0073 0.9764
0.5840 -5.5650 -2.0010 0.9765
2.0320 -5.1999 -1.9965 0.9766
2.4860 -4.9943 -1.9950 0.9766
2.9196 -4.7493 -1.9937 0.9766
3.7124 -4.1497 -1.9911 0.9766
4.0655 -3.7998 -1.9900 0.9766
-2.6302 4.1015 -1.8672 0.9793
-3.5697 3.8406 -2.0094 0.9778
-3.9086 3.5163 -2.0148 0.9777
-4.2087 3.1551 -2.0157 0.9777
-4.8993 1.9302 -2.0180 0.9777
-5.1666 1.0294 -2.0188 0.9777
-5.2682 0.0949 -2.0192 0.9777
-5.2007 -0.8427 -2.0190 0.9777
-4.9665 -1.7529 -2.0183 0.9777
-4.7890 -2.1883 -2.0178 0.9777
-4.3209 -3.0024 -2.0163 0.9777
-3.7151 -3.7190 -2.0145 0.9777
-2.9918 -4.3151 -2.0122 0.9778
-2.1746 -4.7720 -2.0097 0.9778
-1.7390 -4.9437 -2.0083 0.9778
-1.2902 -5.0755 -2.0069 0.9778
-0.8317 -5.1667 -2.0055 0.9778
-0.3672 -5.2165 -2.0040 0.9778
0.0995 -5.2246 -2.0025 0.9779
0.5648 -5.1911 -2.0011 0.9779
1.0249 -5.1163 -1.9996 0.9779
1.9151 -4.8460 -1.9968 0.9779
3.1238 -4.1579 -1.9930 0.9780
3.4803 -3.8605 -1.9919 0.9780
4.1068 -3.1774 -1.9899 0.9780
4.6024 -2.3952 -1.9883 0.9780
4.9520 -1.5383 -1.9871 0.9780
5.1449 -0.6336 -1.9865 0.9780
5.1805 -0.1721 -1.9864 0.9780
5.1290 0.7513 -1.9865 0.9780
5.0422 1.2060 -1.9868 0.9780
4.7498 2.0837 -1.9876 0.9780
4.3068 2.8966 -1.9890 0.9780
4.0330 3.2706 -1.9899 0.9780
3.7269 3.6191 -1.9908 0.9780
3.3910 3.9392 -1.9918 0.9780
1.6665 4.5170 -1.8450 0.9796
-0.4496 4.8109 -1.8517 0.9795
-0.8776 4.7551 -1.8530 0.9795
-1.2992 4.6612 -1.8543 0.9795
-1.7110 4.5299 -1.8556 0.9795
-2.1097 4.3622 -1.8569 0.9795
-2.4921 4.1593 -1.8581 0.9794
-2.9654 4.0746 -1.9312 0.9786
-3.4478 3.9434 -2.0073 0.9778
-4.1102 3.2811 -2.0154 0.9777
-4.6317 2.5006 -2.0171 0.9777
-5.0053 1.6387 -2.0183 0.9777
-5.2187 0.7234 -2.0190 0.9777
-5.2628 0.2550 -2.0192 0.9777
-5.2241 -0.6842 -2.0191 0.9777
-5.1417 -1.1474 -2.0188 0.9777
-5.0179 -1.6012 -2.0185 0.9777
-4.6509 -2.4660 -2.0173 0.9777
-3.8271 -3.6049 -2.0148 0.9777
-3.4885 -3.9299 -2.0137 0.9777
-2.7314 -4.4820 -2.0114 0.9778
-2.3192 -4.7048 -2.0101 0.9778
-1.8890 -4.8896 -2.0088 0.9778
-1.4443 -5.0352 -2.0074 0.9778
-0.5258 -5.2042 -2.0045 0.9778
0.8691 -5.1464 -2.0001 0.9779
2.1961 -4.7227 -1.9959 0.9779
2.6069 -4.5050 -1.9946 0.9780
2.9966 -4.2519 -1.9934 0.9780
3.7003 -3.6476 -1.9912 0.9780
4.0090 -3.3013 -1.9902 0.9780
4.2856 -2.9293 -1.9893 0.9780
4.5280 -2.5343 -1.9885 0.9780
4.9033 -1.6883 -1.9873 0.9780
5.0333 -1.2439 -1.9869 0.9780
5.1234 -0.7898 -1.9866 0.9780
5.1493 0.5949 -1.9864 0.9780
4.9630 1.5009 -1.9870 0.9780
3.8346 3.5035 -1.9905 0.9780
2.2335 4.3623 -1.8781 0.9792
1.3983 4.6093 -1.8459 0.9796
0.9822 4.7190 -1.8472 0.9796
0.5578 4.7913 -1.8485 0.9795
-1.1566 4.6974 -1.8539 0.9795
-1.5721 4.5788 -1.8552 0.9795
-1.9757 4.4233 -1.8565 0.9795
-2.3639 4.2322 -1.8577 0.9794
-3.3230 4.0424 -2.0053 0.9778
-4.0079 3.4040 -2.0151 0.9777
-4.2975 3.0343 -2.0160 0.9777
-4.5529 2.6399 -2.0168 0.9777
-4.7719 2.2240 -2.0175 0.9777
-4.9527 1.7900 -2.0181 0.9777
-5.1940 0.8817 -2.0189 0.9777
-5.2427 -0.5251 -2.0191 0.9777
-4.9141 -1.8936 -2.0182 0.9777
-4.2330 -3.1239 -2.0161 0.9777
-3.2498 -4.1270 -2.0130 0.9777
-2.4617 -4.6331 -2.0106 0.9778
-2.0372 -4.8311 -2.0092 0.9778
-1.5971 -4.9901 -2.0078 0.9778
-1.1448 -5.1091 -2.0064 0.9778
-0.2183 -5.2236 -2.0035 0.9779
0.7124 -5.1717 -2.0006 0.9779
1.6177 -4.9557 -1.9978 0.9779
2.0520 -4.7884 -1.9964 0.9779
3.2405 -4.0665 -1.9926 0.9780
4.1951 -3.0586 -1.9896 0.9780
4.4494 -2.6711 -1.9888 0.9780
4.9935 -1.3964 -1.9870 0.9780
5.0973 -0.9453 -1.9867 0.9780
5.1607 -0.4867 -1.9865 0.9780
5.1833 -0.0244 -1.9864 0.9780
5.1649 0.4381 -1.9864 0.9780
5.1057 0.8972 -1.9866 0.9780
4.8668 1.7908 -1.9873 0.9780
4.6889 2.2184 -1.9878 0.9780
4.4738 2.6287 -1.9885 0.9780
4.2231 3.0185 -1.9893 0.9780
3.9387 3.3847 -1.9901 0.9780
3.6228 3.7244 -1.9911 0.9780
2.4168 4.3863 -1.9192 0.9788
1.9371 4.4053 -1.8442 0.9796
1.5375 4.5636 -1.8454 0.9796
-0.1562 4.8270 -1.8507 0.9795
-1.0130 4.7293 -1.8534 0.9795
-1.8398 4.4803 -1.8560 0.9795
-2.2337 4.3012 -1.8573 0.9795
-3.1360 4.0605 -1.9661 0.9783
-3.9019 3.5237 -2.0148 0.9777
-4.2027 3.1631 -2.0157 0.9777
-4.7016 2.3678 -2.0173 0.9777
-4.8956 1.9396 -2.0179 0.9777
-5.0503 1.4955 -2.0184 0.9777
-5.1646 1.0392 -2.0188 0.9777
-5.2373 0.5744 -2.0191 0.9777
-5.2680 0.1049 -2.0192 0.9777
-5.2563 -0.3654 -2.0192 0.9777
-5.2023 -0.8328 -2.0190 0.9777
-5.1066 -1.2934 -2.0187 0.9777
-4.7932 -2.1792 -2.0178 0.9777
-4.0405 -3.3667 -2.0155 0.9777
-3.7222 -3.7119 -2.0145 0.9777
-3.0000 -4.3095 -2.0122 0.9778
-1.2999 -5.0731 -2.0069 0.9778
-0.3771 -5.2158 -2.0040 0.9778
0.0896 -5.2249 -2.0026 0.9779
1.4667 -5.0038 -1.9982 0.9779
3.1160 -4.1639 -1.9930 0.9780
3.8021 -3.5401 -1.9908 0.9780
4.5979 -2.4039 -1.9883 0.9780
5.0664 -1.0998 -1.9868 0.9780
5.1758 0.2808 -1.9864 0.9780
5.1304 0.7415 -1.9865 0.9780
4.9186 1.6419 -1.9871 0.9780
4.7537 2.0746 -1.9876 0.9780
3.7338 3.6119 -1.9908 0.9780
3.3985 3.9326 -1.9918 0.9780
2.6085 4.4114 -1.9640 0.9783
1.2667 4.6484 -1.8463 0.9796
0.8475 4.7462 -1.8476 0.9796
-0.0094 4.8283 -1.8503 0.9795
-0.4404 4.8117 -1.8516 0.9795
-1.2903 4.6636 -1.8543 0.9795
-2.9542 4.0756 -1.9290 0.9787
-3.4401 3.9497 -2.0072 0.9778
-4.1039 3.2889 -2.0154 0.9777
-4.8339 2.0873 -2.0177 0.9777
-5.0021 1.6482 -2.0183 0.9777
-5.1303 1.1957 -2.0187 0.9777
-5.2173 0.7334 -2.0190 0.9777
-5.2623 0.2650 -2.0192 0.9777
-5.2650 -0.2054 -2.0192 0.9777
-5.2254 -0.6743 -2.0191 0.9777
-5.1438 -1.1376 -2.0188 0.9777
-5.0209 -1.5916 -2.0185 0.9777
-4.8577 -2.0327 -2.0180 0.9777
-4.4162 -2.8616 -2.0166 0.9777
-4.1416 -3.2428 -2.0158 0.9777
-3.8340 -3.5977 -2.0148 0.9777
-3.1303 -4.2171 -2.0126 0.9778
-2.7400 -4.4768 -2.0114 0.9778
-2.3282 -4.7004 -2.0101 0.9778
-0.9984 -5.1384 -2.0060 0.9778
-0.5357 -5.2033 -2.0045 0.9778
-0.0693 -5.2265 -2.0031 0.9779
0.3969 -5.2080 -2.0016 0.9779
1.3141 -5.0473 -1.9987 0.9779
1.7579 -4.9065 -1.9973 0.9779
2.1871 -4.7269 -1.9960 0.9779
2.5984 -4.5100 -1.9947 0.9780
2.9885 -4.2576 -1.9934 0.9780
4.2800 -2.9374 -1.9893 0.9780
4.5232 -2.5429 -1.9885 0.9780
4.7305 -2.1286 -1.9879 0.9780
5.1219 -0.7996 -1.9866 0.9780
5.1504 0.5851 -1.9864 0.9780
4.9659 1.4915 -1.9870 0.9780
3.8412 3.4961 -1.9904 0.9780
3.1603 4.1250 -1.9914 0.9780
2.2447 4.3638 -1.8806 0.9792
1.4071 4.6066 -1.8458 0.9796
0.9912 4.7171 -1.8471 0.9796
0.1374 4.8251 -1.8498 0.9795
-1.5633 4.5817 -1.8552 0.9795
-1.9672 4.4270 -1.8565 0.9795
-2.3558 4.2367 -1.8577 0.9794
-3.3128 4.0456 -2.0038 0.9779
-4.0013 3.4116 -2.0151 0.9777
-4.2917 3.0425 -2.0160 0.9777
-4.5478 2.6486 -2.0168 0.9777
-4.9493 1.7994 -2.0181 0.9777
-5.0912 1.3510 -2.0186 0.9777
-5.1923 0.8916 -2.0189 0.9777
-5.2689 -0.0453 -2.0192 0.9777
-5.2436 -0.5151 -2.0191 0.9777
-4.9177 -1.8842 -2.0182 0.9777
-4.5018 -2.7264 -2.0169 0.9777
-3.9423 -3.4800 -2.0152 0.9777
-3.6143 -3.8159 -2.0141 0.9777
-3.2577 -4.1208 -2.0130 0.9777
-1.1545 -5.1070 -2.0065 0.9778
-0.6938 -5.1858 -2.0050 0.9778
0.2384 -5.2190 -2.0021 0.9779
1.6083 -4.9589 -1.9978 0.9779
2.0429 -4.7923 -1.9964 0.9779
2.8583 -4.3474 -1.9938 0.9780
3.5812 -3.7660 -1.9915 0.9780
3.9009 -3.4297 -1.9905 0.9780
4.4444 -2.6796 -1.9888 0.9780
4.8467 -1.8460 -1.9875 0.9780
5.0955 -0.9550 -1.9867 0.9780
5.1657 0.4283 -1.9864 0.9780
5.0086 1.3397 -1.9869 0.9780
4.8701 1.7815 -1.9873 0.9780
4.2288 3.0104 -1.9892 0.9780
3.9451 3.3772 -1.9901 0.9780
3.6299 3.7175 -1.9911 0.9780
2.9076 4.2976 -1.9884 0.9780
1.5461 4.5606 -1.8454 0.9796
0.7121 4.7695 -1.8480 0.9796
0.2840 4.8175 -1.8494 0.9795
-0.1470 4.8272 -1.8507 0.9795
-0.5775 4.7983 -1.8521 0.9795
-1.8313 4.4837 -1.8560 0.9795
-2.6102 4.1047 -1.8641 0.9794
-3.5546 3.8537 -2.0091 0.9778
-3.8951 3.5311 -2.0147 0.9777
-4.8918 1.9489 -2.0179 0.9777
-5.0475 1.5051 -2.0184 0.9777
-5.2362 0.5844 -2.0191 0.9777
-5.2039 -0.8229 -2.0190 0.9777
-5.1091 -1.2837 -2.0187 0.9777
-4.9732 -1.7340 -2.0183 0.9777
-4.7974 -2.1701 -2.0178 0.9777
-4.5832 -2.5886 -2.0171 0.9777
-4.0469 -3.3590 -2.0155 0.9777
-3.0083 -4.3038 -2.0123 0.9778
-2.6107 -4.5522 -2.0110 0.9778
-1.7579 -4.9371 -2.0084 0.9778
-0.8514 -5.1636 -2.0055 0.9778
-0.3871 -5.2152 -2.0041 0.9778
0.0796 -5.2251 -2.0026 0.9779
0.5450 -5.1934 -2.0011 0.9779
1.0054 -5.1203 -1.9997 0.9779
1.4571 -5.0067 -1.9983 0.9779
1.8966 -4.8534 -1.9969 0.9779
2.3205 -4.6617 -1.9955 0.9779
3.1081 -4.1699 -1.9930 0.9780
3.4657 -3.8738 -1.9919 0.9780
3.7954 -3.5474 -1.9909 0.9780
-3.3483 3.6024 -2.0129 0.9790
-3.6584 3.2912 -2.0140 0.9790
-3.9391 2.9530 -2.0149 0.9789
-1.9569 0.2109 -0.8055 0.9915
-1.9158 0.0345 -0.7842 0.9918
-1.9524 -0.1395 -0.8011 0.9916
-4.4820 -2.0480 -2.0168 0.9789
-4.0440 -2.8100 -2.0155 0.9789
-2.8004 -4.0392 -2.0116 0.9790
-2.4275 -4.2704 -2.0104 0.9790
-1.6280 -4.6281 -2.0079 0.9790
0.0932 -4.8920 -2.0025 0.9791
0.5289 -4.8608 -2.0012 0.9791
0.9597 -4.7910 -1.9998 0.9791
1.7935 -4.5383 -1.9972 0.9791
3.2599 -3.6160 -1.9925 0.9792
3.8469 -2.9763 -1.9907 0.9792
4.6390 -1.4411 -1.9881 0.9792
4.7482 -1.0213 -1.9878 0.9792
4.8198 -0.5936 -1.9875 0.9792
4.4495 1.9520 -1.9886 0.9792
4.2589 2.3418 -1.9892 0.9792
3.7777 3.0636 -1.9907 0.9792
2.4673 4.1907 -1.9903 0.9792
2.0510 4.3253 -1.9592 0.9795
1.5865 4.3000 -1.8759 0.9804
1.1779 4.3554 -1.8466 0.9807
-0.4209 4.5045 -1.8516 0.9806
-1.9965 4.1282 -1.8768 0.9804
-2.4527 4.0936 -1.9531 0.9796
-2.8837 3.9623 -2.0057 0.9790
-3.2341 3.6990 -2.0110 0.9790
-3.8470 3.0710 -2.0146 0.9789
-4.3348 2.3403 -2.0162 0.9789
-4.6843 1.5336 -2.0173 0.9789
-1.9475 0.2700 -0.8047 0.9915
-1.9347 -0.0792 -0.7925 0.9917
-1.9507 -0.2555 -0.8052 0.9915
-4.8118 -1.0738 -2.0178 0.9789
-4.6960 -1.4985 -2.0174 0.9789
-4.5426 -1.9110 -2.0170 0.9789
-3.5821 -3.3741 -2.0140 0.9790
-3.2652 -3.6784 -2.0130 0.9790
-2.9225 -3.9529 -2.0120 0.9790
-2.1710 -4.4042 -2.0096 0.9790
-1.3521 -4.7139 -2.0071 0.9790
-0.9256 -4.8125 -2.0057 0.9790
-0.0556 -4.8937 -2.0030 0.9791
0.3809 -4.8758 -2.0016 0.9791
1.6550 -4.5917 -1.9976 0.9791
2.0567 -4.4230 -1.9964 0.9791
2.4416 -4.2193 -1.9951 0.9792
2.8066 -3.9823 -1.9940 0.9792
3.4660 -3.4166 -1.9919 0.9792
4.0144 -2.7439 -1.9901 0.9792
4.2417 -2.3740 -1.9894 0.9792
4.7152 -1.1653 -1.9879 0.9792
4.8462 -0.3087 -1.9874 0.9792
4.8240 0.5573 -1.9875 0.9792
4.5064 1.8156 -1.9884 0.9792
4.3276 2.2110 -1.9890 0.9792
4.1145 2.5891 -1.9896 0.9792
3.8686 2.9469 -1.9904 0.9792
3.2863 3.5907 -1.9922 0.9792
2.9545 3.8716 -1.9932 0.9792
2.5951 4.1162 -1.9915 0.9792
2.2138 4.3239 -1.9881 0.9792
1.7403 4.3087 -1.9018 0.9801
0.9204 4.4220 -1.8486 0.9807
0.5223 4.4865 -1.8486 0.9807
-1.4718 4.2865 -1.8549 0.9806
-4.0222 2.8399 -2.0152 0.9789
-4.4660 2.0814 -2.0166 0.9789
-4.7671 1.2553 -2.0176 0.9789
-2.1277 0.3612 -0.8833 0.9907
-1.9554 0.1545 -0.8028 0.9916
-1.9577 -0.1961 -0.8053 0.9915
-4.8425 -0.9270 -2.0179 0.9789
-4.5990 -1.7721 -2.0172 0.9789
-4.2084 -2.5597 -2.0160 0.9789
-3.9618 -2.9238 -2.0152 0.9789
-3.6836 -3.2641 -2.0143 0.9790
-3.3761 -3.5780 -2.0134 0.9790
-3.0419 -3.8629 -2.0123 0.9790
-2.6837 -4.1166 -2.0112 0.9790
-1.9071 -4.5225 -2.0088 0.9790
-1.4951 -4.6716 -2.0075 0.9790
-1.0717 -4.7832 -2.0062 0.9790
-0.2044 -4.8909 -2.0035 0.9791
0.2325 -4.8863 -2.0021 0.9791
0.6671 -4.8427 -2.0007 0.9791
1.0957 -4.7607 -1.9994 0.9791
1.5150 -4.6409 -1.9981 0.9791
2.3126 -4.2924 -1.9955 0.9791
3.0351 -3.8088 -1.9933 0.9792
3.3611 -3.5210 -1.9922 0.9792
3.6600 -3.2056 -1.9913 0.9792
4.1680 -2.5022 -1.9896 0.9792
4.3731 -2.1197 -1.9890 0.9792
4.5435 -1.7206 -1.9884 0.9792
4.8346 -0.4560 -1.9875 0.9792
4.8558 -0.0229 -1.9874 0.9792
4.8386 0.4104 -1.9874 0.9792
4.6897 1.2640 -1.9879 0.9792
3.6894 3.1705 -1.9909 0.9792
3.3934 3.4886 -1.9919 0.9792
3.0703 3.7793 -1.9929 0.9792
2.7208 4.0380 -1.9928 0.9792
2.3455 4.2570 -1.9892 0.9792
1.0535 4.3881 -1.8470 0.9807
0.6583 4.4676 -1.8482 0.9807
-0.1463 4.5196 -1.8507 0.9806
-0.5492 4.4916 -1.8520 0.9806
-0.9484 4.4277 -1.8533 0.9806
-1.7224 4.1942 -1.8557 0.9806
-2.1384 4.1177 -1.8990 0.9801
-2.9979 3.8817 -2.0073 0.9790
-3.3412 3.6085 -2.0128 0.9790
-4.1835 2.5988 -2.0157 0.9789
-4.7264 1.3996 -2.0174 0.9789
-4.8333 0.9725 -2.0178 0.9789
-1.9175 0.0382 -0.7850 0.9917
-1.9516 -0.1357 -0.8007 0.9916
-4.7790 -1.2104 -2.0177 0.9789
-4.6511 -1.6316 -2.0173 0.9789
-4.4859 -2.0395 -2.0168 0.9789
-4.0494 -2.8023 -2.0155 0.9789
-3.4839 -3.4743 -2.0137 0.9790
-2.0442 -4.4634 -2.0092 0.9790
-1.6369 -4.6250 -2.0080 0.9790
-1.2169 -4.7495 -2.0066 0.9790
1.3735 -4.6859 -1.9985 0.9791
2.9185 -3.9000 -1.9936 0.9792
3.2530 -3.6222 -1.9926 0.9792
4.4895 -1.8582 -1.9886 0.9792
4.6363 -1.4499 -1.9881 0.9792
4.7463 -1.0303 -1.9878 0.9792
4.8529 -0.1705 -1.9874 0.9792
4.8488 0.2631 -1.9874 0.9792
4.8063 0.6946 -1.9875 0.9792
4.7257 1.1207 -1.9878 0.9792
4.6077 1.5381 -1.9881 0.9792
4.4532 1.9435 -1.9886 0.9792
4.2633 2.3337 -1.9892 0.9792
3.4974 3.3832 -1.9915 0.9792
2.4753 4.1861 -1.9904 0.9792
1.1862 4.3530 -1.8465 0.9807
0.7937 4.4445 -1.8478 0.9807
-0.0088 4.5209 -1.8503 0.9807
-1.9872 4.1289 -1.8754 0.9804
-2.4426 4.0944 -1.9513 0.9796
-2.8760 3.9676 -2.0056 0.9790
-3.5495 3.4071 -2.0137 0.9790
-4.1020 2.7245 -2.0154 0.9789
-4.3303 2.3485 -2.0162 0.9789
-4.8012 1.1190 -2.0177 0.9789
-1.9465 0.2736 -0.8045 0.9915
-1.9411 0.0978 -0.7955 0.9916
-1.9333 -0.0754 -0.7919 0.9917
-1.9514 -0.2518 -0.8053 0.9915
-4.8139 -1.0646 -2.0178 0.9789
-4.5463 -1.9023 -2.0170 0.9789
-4.1333 -2.6783 -2.0157 0.9789
-3.2722 -3.6722 -2.0131 0.9790
-2.1794 -4.4001 -2.0097 0.9790
-0.5016 -4.8717 -2.0044 0.9791
-0.0649 -4.8937 -2.0030 0.9791
0.8046 -4.8207 -2.0003 0.9791
1.2306 -4.7266 -1.9990 0.9791
1.6463 -4.5949 -1.9976 0.9791
2.0483 -4.4269 -1.9964 0.9791
2.7991 -3.9877 -1.9940 0.9792
3.1419 -3.7201 -1.9929 0.9792
3.4595 -3.4233 -1.9919 0.9792
3.7493 -3.0996 -1.9910 0.9792
4.0092 -2.7516 -1.9902 0.9792
4.7983 -0.7490 -1.9876 0.9792
4.8456 -0.3180 -1.9874 0.9792
4.7574 0.9765 -1.9877 0.9792
4.6520 1.3972 -1.9880 0.9792
4.5098 1.8070 -1.9884 0.9792
4.1194 2.5812 -1.9896 0.9792
3.5981 3.2748 -1.9912 0.9792
0.1287 4.5180 -1.8499 0.9807
-0.2751 4.5146 -1.8511 0.9806
-1.8418 4.1449 -1.8563 0.9806
-2.7517 4.0498 -2.0039 0.9791
-3.7451 3.1932 -2.0143 0.9790
-4.0168 2.8476 -2.0152 0.9789
-4.4620 2.0899 -2.0166 0.9789
-4.6319 1.6840 -2.0171 0.9789
-4.7647 1.2644 -2.0176 0.9789
-2.1355 0.3667 -0.8868 0.9907
-1.9067 -0.0164 -0.7804 0.9918
-4.7423 -1.3461 -2.0176 0.9789
-4.4255 -2.1663 -2.0166 0.9789
-4.2133 -2.5516 -2.0160 0.9789
-3.9674 -2.9162 -2.0152 0.9789
-3.6898 -3.2571 -2.0144 0.9790
-3.3830 -3.5716 -2.0134 0.9790
-3.0493 -3.8572 -2.0124 0.9790
-2.3127 -4.3327 -2.0101 0.9790
-1.9158 -4.5189 -2.0088 0.9790
-1.5041 -4.6688 -2.0075 0.9790
0.2232 -4.8868 -2.0021 0.9791
1.0866 -4.7629 -1.9994 0.9791
1.5061 -4.6439 -1.9981 0.9791
1.9132 -4.4881 -1.9968 0.9791
3.0279 -3.8146 -1.9933 0.9792
3.6539 -3.2126 -1.9913 0.9792
4.3691 -2.1280 -1.9890 0.9792
4.6754 -1.3171 -1.9880 0.9792
4.8338 -0.4652 -1.9875 0.9792
4.8394 0.4012 -1.9874 0.9792
4.6921 1.2550 -1.9879 0.9792
4.3964 2.0698 -1.9888 0.9792
3.9612 2.8200 -1.9901 0.9792
3.4000 3.4821 -1.9918 0.9792
2.7286 4.0330 -1.9929 0.9792
2.3537 4.2526 -1.9893 0.9792
1.9085 4.3178 -1.9321 0.9798
1.4552 4.2924 -1.8550 0.9806
0.6668 4.4662 -1.8482 0.9807
0.2659 4.5110 -1.8494 0.9807
-1.3322 4.3308 -1.8545 0.9806
-1.7143 4.1974 -1.8557 0.9806
-2.1288 4.1184 -1.8974 0.9802
-2.9903 3.8872 -2.0072 0.9790
-1.9193 0.0419 -0.7857 0.9917
-1.9507 -0.1319 -0.8002 0.9916
-4.7813 -1.2013 -2.0177 0.9789
-4.6542 -1.6228 -2.0173 0.9789
-4.4898 -2.0310 -2.0168 0.9789
-4.2894 -2.4226 -2.0162 0.9789
-4.0548 -2.7946 -2.0155 0.9789
-3.7877 -3.1439 -2.0147 0.9789
-2.8159 -4.0286 -2.0116 0.9790
-2.4439 -4.2612 -2.0105 0.9790
-2.0527 -4.4596 -2.0093 0.9790
-1.2260 -4.7472 -2.0067 0.9790
-0.7971 -4.8344 -2.0053 0.9790
0.0746 -4.8925 -2.0026 0.9791
1.3646 -4.6886 -1.9985 0.9791
1.7762 -4.5452 -1.9972 0.9791
2.1732 -4.3659 -1.9960 0.9791
2.5525 -4.1521 -1.9948 0.9792
3.2461 -3.6285 -1.9926 0.9792
3.5551 -3.3228 -1.9916 0.9792
-2.4849 3.8750 -2.0062 0.9801
-3.1436 3.3822 -2.0124 0.9801
-3.4344 3.0897 -2.0133 0.9800
-4.1345 2.0723 -2.0155 0.9800
-1.5248 0.1643 -0.6684 0.9933
-1.5293 -0.1092 -0.6682 0.9933
-1.5083 -0.2444 -0.6659 0.9934
-1.5938 -0.5625 -0.7366 0.9927
-3.7962 -2.6379 -2.0147 0.9800
-3.5444 -2.9648 -2.0139 0.9800
-3.2644 -3.2678 -2.0130 0.9800
-2.9585 -3.5443 -2.0121 0.9801
-1.1342 -4.4618 -2.0064 0.9801
-0.3228 -4.5865 -2.0038 0.9801
0.0875 -4.5941 -2.0025 0.9802
0.9014 -4.4997 -2.0000 0.9802
1.6845 -4.2626 -1.9975 0.9802
2.7484 -3.6583 -1.9941 0.9802
3.0623 -3.3968 -1.9932 0.9802
3.8475 -2.4616 -1.9907 0.9803
4.0505 -2.1079 -1.9900 0.9803
4.4610 -0.9595 -1.9887 0.9803
4.5551 0.2559 -1.9883 0.9803
4.5144 0.6612 -1.9884 0.9803
4.3263 1.4533 -1.9890 0.9803
4.1803 1.8339 -1.9894 0.9803
3.7902 2.5491 -1.9906 0.9803
3.2795 3.1845 -1.9922 0.9803
2.9837 3.4660 -1.9931 0.9802
1.9581 4.1295 -1.9918 0.9803
-1.1607 4.1643 -1.8841 0.9813
-1.9867 4.1079 -1.9887 0.9803
-2.3642 3.9458 -2.0047 0.9801
-3.3383 3.1922 -2.0130 0.9800
-3.8556 2.5502 -2.0147 0.9800
-4.2501 1.8256 -2.0159 0.9800
-1.5856 0.5191 -0.7271 0.9927
-1.5293 0.0741 -0.6673 0.9933
-1.5289 -0.0626 -0.6669 0.9933
-1.5192 -0.1990 -0.6677 0.9933
-4.2641 -1.7938 -2.0161 0.9800
-3.6334 -2.8561 -2.0142 0.9800
-2.7437 -3.7111 -2.0114 0.9801
-2.4005 -3.9390 -2.0103 0.9801
-1.6604 -4.2979 -2.0080 0.9801
-0.4623 -4.5756 -2.0043 0.9801
0.3577 -4.5790 -2.0017 0.9802
0.7643 -4.5260 -2.0004 0.9802
1.5545 -4.3127 -1.9979 0.9802
1.9318 -4.1544 -1.9967 0.9802
2.2934 -3.9632 -1.9956 0.9802
2.6364 -3.7408 -1.9945 0.9802
4.1668 -1.8654 -1.9896 0.9803
4.3155 -1.4859 -1.9891 0.9803
4.5094 -0.6951 -1.9885 0.9803
4.5531 -0.2901 -1.9884 0.9803
4.4679 0.9260 -1.9886 0.9803
4.3682 1.3210 -1.9889 0.9803
4.0658 2.0772 -1.9898 0.9803
3.8655 2.4324 -1.9904 0.9803
3.3743 3.0829 -1.9919 0.9803
2.0836 4.0697 -1.9926 0.9802
0.8855 4.2543 -1.8938 0.9812
-2.5962 3.8054 -2.0076 0.9801
-4.1922 1.9538 -2.0157 0.9800
-1.5959 0.5768 -0.7396 0.9926
-1.5535 0.4091 -0.7001 0.9930
-1.5288 0.1208 -0.6684 0.9933
-1.5245 -0.0160 -0.6645 0.9934
-1.5262 -0.1529 -0.6685 0.9933
-1.4996 -0.2871 -0.6654 0.9934
-1.5666 -0.4479 -0.7101 0.9929
-4.1503 -2.0414 -2.0158 0.9800
-3.9505 -2.4028 -2.0151 0.9800
-2.8558 -3.6266 -2.0118 0.9801
-2.1636 -4.0720 -2.0096 0.9801
-1.4039 -4.3865 -2.0072 0.9801
-1.0064 -4.4914 -2.0060 0.9801
-0.6013 -4.5604 -2.0047 0.9801
1.0290 -4.4712 -1.9996 0.9802
2.1723 -4.0319 -1.9960 0.9802
2.5219 -3.8199 -1.9949 0.9802
3.4383 -3.0114 -1.9920 0.9803
3.6917 -2.6916 -1.9912 0.9803
4.3950 -1.2291 -1.9889 0.9803
4.5622 -0.0215 -1.9883 0.9803
4.4061 1.1875 -1.9888 0.9803
3.9372 2.3135 -1.9902 0.9803
3.7164 2.6564 -1.9909 0.9803
3.4660 2.9785 -1.9916 0.9803
3.1878 3.2772 -1.9925 0.9802
1.8390 4.1822 -1.9911 0.9803
1.4388 4.2707 -1.9640 0.9805
0.2418 4.2389 -1.8504 0.9816
-1.2872 4.1564 -1.8963 0.9812
-2.1170 4.0765 -2.0019 0.9802
-2.8202 3.6516 -2.0108 0.9801
-3.1371 3.3881 -2.0124 0.9801
-3.6925 2.7792 -2.0141 0.9800
-4.3008 1.7039 -2.0161 0.9800
-1.5080 0.3034 -0.6704 0.9933
-1.5245 0.1672 -0.6684 0.9933
-1.5472 -0.3919 -0.6956 0.9931
-4.2109 -1.9145 -2.0159 0.9800
-2.9653 -3.5387 -2.0121 0.9801
-2.2868 -4.0051 -2.0100 0.9801
-1.5369 -4.3427 -2.0076 0.9801
-0.3316 -4.5860 -2.0039 0.9801
0.4880 -4.5660 -2.0013 0.9802
0.8928 -4.5014 -2.0000 0.9802
1.2900 -4.4011 -1.9988 0.9802
1.6764 -4.2658 -1.9975 0.9802
2.0491 -4.0969 -1.9964 0.9802
2.4050 -3.8956 -1.9952 0.9802
2.7415 -3.6635 -1.9942 0.9802
3.6087 -2.8030 -1.9914 0.9803
3.8429 -2.4690 -1.9907 0.9803
4.0465 -2.1156 -1.9900 0.9803
4.3558 -1.3622 -1.9890 0.9803
4.4592 -0.9680 -1.9887 0.9803
4.5595 -0.1602 -1.9883 0.9803
4.5156 0.6526 -1.9884 0.9803
4.1838 1.8259 -1.9894 0.9803
4.0053 2.1924 -1.9900 0.9803
3.7950 2.5418 -1.9906 0.9803
2.9902 3.4603 -1.9931 0.9802
2.6710 3.7151 -1.9941 0.9802
1.5880 4.2791 -1.9892 0.9803
1.1611 4.2609 -1.9247 0.9809
0.3714 4.2399 -1.8549 0.9816
-0.0082 4.2456 -1.8503 0.9816
-0.3872 4.2307 -1.8515 0.9816
-0.7651 4.1904 -1.8564 0.9816
-1.5543 4.1387 -1.9267 0.9809
-1.9774 4.1086 -1.9872 0.9803
-2.3565 3.9502 -2.0046 0.9801
-3.3322 3.1985 -2.0130 0.9800
-3.6058 2.8898 -2.0139 0.9800
-3.8507 2.5576 -2.0146 0.9800
-4.2466 1.8337 -2.0159 0.9800
-1.5863 0.5227 -0.7279 0.9927
-1.5162 0.2131 -0.6673 0.9933
-1.5197 -0.1961 -0.6678 0.9933
-1.5814 -0.5013 -0.7230 0.9928
-4.2675 -1.7857 -2.0161 0.9800
-3.8800 -2.5141 -2.0149 0.9800
-3.6389 -2.8492 -2.0142 0.9800
-3.0720 -3.4475 -2.0124 0.9801
-2.4080 -3.9344 -2.0104 0.9801
-1.6686 -4.2948 -2.0080 0.9801
0.3490 -4.5798 -2.0017 0.9802
0.7557 -4.5275 -2.0004 0.9802
1.1558 -4.4392 -1.9992 0.9802
1.9239 -4.1581 -1.9968 0.9802
2.2859 -3.9676 -1.9956 0.9802
2.6293 -3.7458 -1.9945 0.9802
2.9514 -3.4946 -1.9935 0.9802
3.2499 -3.2158 -1.9926 0.9802
3.5223 -2.9118 -1.9917 0.9803
3.7665 -2.5850 -1.9909 0.9803
3.9807 -2.2379 -1.9902 0.9803
4.1632 -1.8733 -1.9896 0.9803
4.3127 -1.4941 -1.9892 0.9803
4.4280 -1.1032 -1.9888 0.9803
4.5526 -0.2987 -1.9884 0.9803
4.5610 0.1086 -1.9883 0.9803
4.5333 0.5150 -1.9884 0.9803
4.3707 1.3127 -1.9889 0.9803
4.2370 1.6977 -1.9893 0.9803
4.0697 2.0694 -1.9898 0.9803
3.6396 2.7615 -1.9911 0.9803
2.7822 3.6315 -1.9938 0.9802
2.4484 3.8672 -1.9948 0.9802
2.0914 4.0658 -1.9927 0.9802
1.3024 4.2639 -1.9430 0.9807
0.5021 4.2430 -1.8621 0.9815
0.1208 4.2430 -1.8499 0.9816
-0.2583 4.2396 -1.8511 0.9816
-0.6359 4.2023 -1.8523 0.9816
-1.0190 4.1729 -1.8721 0.9814
-2.5888 3.8101 -2.0075 0.9801
-2.9244 3.5713 -2.0117 0.9801
-4.1885 1.9618 -2.0157 0.9800
-1.5964 0.5804 -0.7403 0.9926
-1.5548 0.4126 -0.7011 0.9930
-1.5287 0.1237 -0.6684 0.9933
-1.5265 -0.1500 -0.6685 0.9933
-3.9551 -2.3953 -2.0152 0.9800
-3.7243 -2.7376 -2.0144 0.9800
-3.4639 -3.0577 -2.0136 0.9800
-3.1759 -3.3530 -2.0127 0.9801
-2.5270 -3.8601 -2.0107 0.9801
-2.1714 -4.0679 -2.0096 0.9801
-1.4123 -4.3838 -2.0072 0.9801
-1.0149 -4.4896 -2.0060 0.9801
-0.6100 -4.5593 -2.0047 0.9801
-0.2007 -4.5926 -2.0034 0.9801
1.0205 -4.4732 -1.9996 0.9802
1.4146 -4.3617 -1.9984 0.9802
1.7970 -4.2155 -1.9972 0.9802
2.1646 -4.0361 -1.9960 0.9802
2.5146 -3.8248 -1.9949 0.9802
3.1511 -3.3137 -1.9929 0.9802
3.4326 -3.0180 -1.9920 0.9803
4.2656 -1.6247 -1.9893 0.9803
4.4848 -0.8405 -1.9886 0.9803
4.5415 -0.4371 -1.9884 0.9803
4.5622 -0.0302 -1.9883 0.9803
4.4083 1.1791 -1.9888 0.9803
3.4716 2.9718 -1.9916 0.9803
3.1940 3.2711 -1.9925 0.9802
2.8909 3.5446 -1.9934 0.9802
2.5644 3.7903 -1.9944 0.9802
1.4480 4.2712 -1.9655 0.9805
1.0309 4.2579 -1.9093 0.9811
0.6341 4.2471 -1.8715 0.9814
-0.1293 4.2445 -1.8507 0.9816
-0.5077 4.2188 -1.8519 0.9816
-0.8871 4.1806 -1.8625 0.9815
-1.2787 4.1569 -1.8954 0.9812
-1.6866 4.1296 -1.9441 0.9807
-2.4699 3.8841 -2.0060 0.9801
-3.1306 3.3941 -2.0123 0.9801
-3.4225 3.1027 -2.0133 0.9800
-3.6872 2.7862 -2.0141 0.9800
-3.9225 2.4471 -2.0149 0.9800
-4.1265 2.0881 -2.0155 0.9800
-4.2975 1.7121 -2.0161 0.9800
-1.5729 0.4690 -0.7153 0.9929
-1.5097 0.3068 -0.6714 0.9933
-1.5241 0.1701 -0.6683 0.9933
-1.5266 0.0333 -0.6655 0.9934
-1.5295 -0.1034 -0.6681 0.9933
-1.5099 -0.2387 -0.6662 0.9934
-1.5926 -0.5553 -0.7351 0.9927
-4.0265 -2.2742 -2.0154 0.9800
-3.5558 -2.9514 -2.0139 0.9800
-2.6437 -3.7822 -2.0111 0.9801
-2.2945 -4.0008 -2.0100 0.9801
-1.5452 -4.3398 -2.0077 0.9801
-1.1512 -4.4576 -2.0064 0.9801
2.0413 -4.1008 -1.9964 0.9802
2.3976 -3.9002 -1.9953 0.9802
2.7345 -3.6688 -1.9942 0.9802
3.3397 -3.1215 -1.9923 0.9803
-2.6619 3.4331 -2.0109 0.9810
-3.2325 2.9081 -2.0127 0.9810
-3.7006 2.2891 -2.0142 0.9810
-3.8912 1.9504 -2.0148 0.9810
-1.3299 0.5240 -0.6616 0.9937
-1.3089 0.2608 -0.6178 0.9941
-1.3359 0.0241 -0.6185 0.9941
-1.3384 -0.0956 -0.6211 0.9941
-1.3335 -0.4707 -0.6546 0.9938
-3.7814 -2.1548 -2.0146 0.9810
-3.5730 -2.4827 -2.0140 0.9810
-3.0726 -3.0758 -2.0124 0.9810
-1.7992 -3.9483 -2.0084 0.9811
-1.4390 -4.0908 -2.0073 0.9811
-0.6884 -4.2764 -2.0050 0.9811
0.4677 -4.2983 -2.0013 0.9811
0.8487 -4.2369 -2.0001 0.9811
1.5863 -4.0139 -1.9978 0.9812
2.2718 -3.6642 -1.9956 0.9812
2.8840 -3.1990 -1.9937 0.9812
3.1565 -2.9277 -1.9928 0.9812
3.4037 -2.6334 -1.9921 0.9812
4.1052 -1.2752 -1.9898 0.9812
4.2019 -0.9038 -1.9895 0.9812
4.2653 -0.5253 -1.9893 0.9812
4.2949 -0.1427 -1.9892 0.9812
4.2905 0.2410 -1.9892 0.9812
4.2522 0.6228 -1.9893 0.9812
4.0749 1.3689 -1.9898 0.9812
3.9374 1.7273 -1.9902 0.9812
3.7686 2.0722 -1.9907 0.9812
3.0886 2.9992 -1.9928 0.9812
2.8100 3.2642 -1.9937 0.9812
2.5088 3.5035 -1.9946 0.9812
2.1873 3.7152 -1.9956 0.9812
1.8475 3.8961 -1.9959 0.9812
1.4911 4.0416 -1.9941 0.9812
1.1240 4.1560 -1.9929 0.9812
0.3615 4.2185 -1.9598 0.9815
-0.0162 4.2041 -1.9460 0.9816
-1.1552 4.1446 -1.9916 0.9812
-1.8853 3.8982 -2.0044 0.9811
-2.8603 3.2715 -2.0115 0.9810
-3.1422 3.0046 -2.0124 0.9810
-3.6289 2.4003 -2.0139 0.9810
-1.3017 0.3008 -0.6184 0.9941
-1.3286 0.1842 -0.6209 0.9941
-1.3383 0.0649 -0.6202 0.9941
-1.3379 -0.0548 -0.6198 0.9941
-1.3304 -0.1743 -0.6211 0.9941
-1.2988 -0.2898 -0.6160 0.9942
-1.3300 -0.4244 -0.6462 0.9939
-1.3249 -0.5574 -0.6653 0.9937
-3.6472 -2.3732 -2.0142 0.9810
-2.8853 -3.2504 -2.0118 0.9810
-1.9188 -3.8925 -2.0088 0.9811
-1.5630 -4.0460 -2.0077 0.9811
-1.1952 -4.1669 -2.0066 0.9811
-0.8182 -4.2544 -2.0054 0.9811
-0.0492 -4.3269 -2.0030 0.9811
0.3368 -4.3114 -2.0017 0.9811
1.0963 -4.1779 -1.9994 0.9811
1.4638 -4.0611 -1.9982 0.9812
2.1598 -3.7322 -1.9960 0.9812
2.4828 -3.5229 -1.9950 0.9812
2.7858 -3.2858 -1.9940 0.9812
3.3225 -2.7361 -1.9923 0.9812
3.9246 -1.7570 -1.9904 0.9812
4.2475 -0.6548 -1.9893 0.9812
4.2887 -0.2732 -1.9892 0.9812
4.2959 0.1104 -1.9891 0.9812
4.2084 0.8722 -1.9894 0.9812
3.8295 1.9565 -1.9905 0.9812
3.6407 2.2909 -1.9911 0.9812
3.4230 2.6075 -1.9918 0.9812
3.1779 2.9035 -1.9925 0.9812
2.9075 3.1768 -1.9934 0.9812
2.6137 3.4251 -1.9943 0.9812
1.9654 3.8389 -1.9963 0.9812
1.6138 3.9955 -1.9946 0.9812
1.2500 4.1205 -1.9932 0.9812
0.8771 4.2141 -1.9925 0.9812
0.1118 4.2093 -1.9491 0.9816
-0.2635 4.1933 -1.9448 0.9817
-1.4032 4.0866 -2.0000 0.9811
-2.1142 3.7851 -2.0068 0.9811
-3.0489 3.0983 -2.0121 0.9810
-3.5538 2.5092 -2.0137 0.9810
-1.3332 0.4818 -0.6562 0.9938
-1.3146 0.3462 -0.6293 0.9940
-1.3196 0.2240 -0.6196 0.9941
-1.3349 -0.0140 -0.6179 0.9941
-1.3120 -0.2512 -0.6183 0.9941
-1.3219 -0.3779 -0.6364 0.9940
-1.3311 -0.5129 -0.6603 0.9937
-3.7181 -2.2615 -2.0144 0.9810
-2.9833 -3.1617 -2.0121 0.9810
-0.9474 -4.2284 -2.0058 0.9811
0.5899 -4.2823 -2.0010 0.9811
0.9689 -4.2101 -1.9998 0.9811
1.3399 -4.1045 -1.9986 0.9811
1.6997 -3.9664 -1.9975 0.9812
2.0456 -3.7969 -1.9964 0.9812
2.6851 -3.3695 -1.9943 0.9812
3.6881 -2.2140 -1.9911 0.9812
3.8697 -1.8757 -1.9906 0.9812
4.1396 -1.1577 -1.9897 0.9812
4.2972 -0.0202 -1.9891 0.9812
4.2820 0.3632 -1.9892 0.9812
4.2328 0.7438 -1.9893 0.9812
4.0345 1.4846 -1.9899 0.9812
3.8868 1.8390 -1.9904 0.9812
3.2643 2.8052 -1.9923 0.9812
3.0023 3.0865 -1.9931 0.9812
2.7162 3.3435 -1.9940 0.9812
2.4083 3.5742 -1.9949 0.9812
2.0809 3.7767 -1.9960 0.9812
1.7351 3.9459 -1.9953 0.9812
0.6228 4.2269 -1.9777 0.9813
-0.1359 4.1990 -1.9447 0.9817
-0.8912 4.1606 -1.9695 0.9814
-1.2776 4.1254 -1.9991 0.9811
-2.3365 3.6589 -2.0095 0.9810
-3.8875 1.9578 -2.0148 0.9810
-1.3296 0.5268 -0.6620 0.9937
-1.3247 0.3923 -0.6395 0.9939
-1.3347 0.1464 -0.6215 0.9941
-1.3361 0.0266 -0.6186 0.9941
-1.3385 -0.0931 -0.6211 0.9941
-1.3227 -0.2117 -0.6200 0.9941
-1.3109 -0.3320 -0.6260 0.9941
-3.7855 -2.1476 -2.0146 0.9810
-3.0784 -3.0700 -2.0124 0.9810
-2.7911 -3.3308 -2.0115 0.9810
-2.1526 -3.7701 -2.0095 0.9810
-1.8068 -3.9450 -2.0085 0.9811
-1.0758 -4.1985 -2.0062 0.9811
0.8407 -4.2385 -2.0002 0.9811
1.2147 -4.1442 -1.9990 0.9811
1.5786 -4.0170 -1.9978 0.9812
1.9296 -3.8580 -1.9967 0.9812
2.5818 -3.4501 -1.9947 0.9812
2.8779 -3.2046 -1.9937 0.9812
3.1509 -2.9338 -1.9929 0.9812
3.3988 -2.6400 -1.9921 0.9812
3.6194 -2.3254 -1.9914 0.9812
3.8113 -1.9927 -1.9907 0.9812
4.1028 -1.2831 -1.9898 0.9812
4.2643 -0.5334 -1.9893 0.9812
4.2533 0.6147 -1.9893 0.9812
3.7725 2.0650 -1.9907 0.9812
3.5743 2.3940 -1.9913 0.9812
3.0943 2.9933 -1.9928 0.9812
2.8162 3.2588 -1.9937 0.9812
2.5154 3.4987 -1.9946 0.9812
2.1944 3.7110 -1.9956 0.9812
1.4989 4.0388 -1.9941 0.9812
1.1319 4.1539 -1.9929 0.9812
0.3696 4.2188 -1.9603 0.9815
-0.0082 4.2045 -1.9462 0.9816
-0.3833 4.1876 -1.9465 0.9816
-0.7610 4.1679 -1.9612 0.9815
-1.5198 4.0469 -2.0010 0.9811
-2.5492 3.5167 -2.0105 0.9810
-2.8541 3.2769 -2.0115 0.9810
-3.1364 3.0106 -2.0124 0.9810
-3.3939 2.7199 -2.0132 0.9810
-3.6243 2.4072 -2.0139 0.9810
-1.3378 -0.0522 -0.6197 0.9941
-1.3309 -0.1717 -0.6211 0.9941
-1.3254 -0.5546 -0.6650 0.9937
-3.4249 -2.6817 -2.0135 0.9810
-2.8915 -3.2449 -2.0118 0.9810
-2.2667 -3.7035 -2.0099 0.9810
-1.9262 -3.8889 -2.0088 0.9811
-1.5708 -4.0430 -2.0077 0.9811
-1.2032 -4.1646 -2.0066 0.9811
-0.8264 -4.2529 -2.0054 0.9811
-0.0574 -4.3268 -2.0030 0.9811
0.3286 -4.3121 -2.0018 0.9811
1.0883 -4.1800 -1.9994 0.9811
1.8118 -3.9156 -1.9971 0.9812
2.4761 -3.5276 -1.9950 0.9812
3.5475 -2.4347 -1.9916 0.9812
3.9213 -1.7645 -1.9904 0.9812
4.0621 -1.4073 -1.9899 0.9812
4.2881 -0.2814 -1.9892 0.9812
3.9908 1.5991 -1.9900 0.9812
3.1835 2.8974 -1.9925 0.9812
2.9135 3.1712 -1.9934 0.9812
2.6202 3.4200 -1.9943 0.9812
2.3058 3.6419 -1.9953 0.9812
0.8852 4.2125 -1.9925 0.9812
-0.6318 4.1750 -1.9545 0.9816
-1.0142 4.1533 -1.9790 0.9813
-1.3953 4.0892 -2.0000 0.9811
-1.7573 3.9546 -2.0031 0.9811
-2.7527 3.3616 -2.0112 0.9810
-3.0430 3.1041 -2.0121 0.9810
-3.3091 2.8214 -2.0129 0.9810
-3.5490 2.5159 -2.0137 0.9810
-3.7605 2.1901 -2.0144 0.9810
-1.3331 0.4847 -0.6566 0.9938
-1.3381 0.1083 -0.6214 0.9941
-1.3365 -0.1313 -0.6216 0.9941
-1.3127 -0.2487 -0.6184 0.9941
-3.9098 -1.9139 -2.0150 0.9810
-3.5053 -2.5766 -2.0138 0.9810
-2.9893 -3.1560 -2.0122 0.9810
-2.6946 -3.4085 -2.0112 0.9810
-2.0440 -3.8293 -2.0092 0.9810
-1.3295 -4.1269 -2.0070 0.9811
0.5817 -4.2835 -2.0010 0.9811
1.6922 -3.9697 -1.9975 0.9812
2.3681 -3.6019 -1.9953 0.9812
2.6787 -3.3746 -1.9944 0.9812
3.2329 -2.8424 -1.9926 0.9812
3.4722 -2.5417 -1.9918 0.9812
3.8662 -1.8831 -1.9906 0.9812
4.0177 -1.5303 -1.9901 0.9812
4.1374 -1.1655 -1.9897 0.9812
4.2243 -0.7917 -1.9894 0.9812
4.2972 -0.0284 -1.9891 0.9812
4.2827 0.3550 -1.9892 0.9812
4.2342 0.7357 -1.9893 0.9812
4.1522 1.1106 -1.9896 0.9812
4.0373 1.4769 -1.9899 0.9812
3.0081 3.0807 -1.9931 0.9812
2.7226 3.3382 -1.9940 0.9812
1.7427 3.9426 -1.9953 0.9812
1.3828 4.0789 -1.9936 0.9812
0.2484 4.2145 -1.9542 0.9816
-0.8830 4.1610 -1.9690 0.9814
-2.3294 3.6632 -2.0094 0.9810
-2.6487 3.4432 -2.0108 0.9810
-3.4704 2.6224 -2.0134 0.9810
-3.6918 2.3031 -2.0142 0.9810
-1.3292 0.5296 -0.6623 0.9937
-1.3253 0.3952 -0.6401 0.9939
-1.3363 0.0292 -0.6187 0.9941
-1.3233 -0.2092 -0.6201 0.9941
-1.3101 -0.3292 -0.6253 0.9941
-1.3336 -0.4650 -0.6538 0.9938
-3.7897 -2.1404 -2.0146 0.9810
-3.3467 -2.7779 -2.0133 0.9810
-2.7975 -3.3256 -2.0116 0.9810
-1.8143 -3.9416 -2.0085 0.9811
-1.4546 -4.0854 -2.0074 0.9811
-1.0838 -4.1965 -2.0062 0.9811
-0.7047 -4.2739 -2.0050 0.9811
-0.3204 -4.3171 -2.0038 0.9811
0.8326 -4.2402 -2.0002 0.9811
1.2068 -4.1465 -1.9990 0.9811
1.5710 -4.0200 -1.9979 0.9812
2.8718 -3.2101 -1.9937 0.9812
3.1454 -2.9398 -1.9929 0.9812
-3.0495 2.7435 -2.0121 0.9819
-1.1516 0.4537 -0.6072 0.9945
-1.1590 0.3408 -0.5926 0.9946
-1.1832 -0.1917 -0.5879 0.9947
-1.1578 -0.2956 -0.5862 0.9947
-1.1400 -0.5209 -0.6148 0.9944
-3.3706 -2.3421 -2.0133 0.9819
-3.1472 -2.6325 -2.0126 0.9819
-2.8986 -2.9017 -2.0119 0.9819
-2.6271 -3.1474 -2.0110 0.9819
-2.3348 -3.3677 -2.0101 0.9819
-1.3578 -3.8598 -2.0071 0.9819
-0.6495 -4.0352 -2.0048 0.9820
1.1538 -3.9088 -1.9992 0.9820
1.4971 -3.7883 -1.9981 0.9820
1.8281 -3.6377 -1.9970 0.9820
2.4431 -3.2518 -1.9951 0.9820
2.7222 -3.0196 -1.9942 0.9821
2.9795 -2.7635 -1.9934 0.9821
3.2129 -2.4858 -1.9926 0.9821
3.4207 -2.1885 -1.9920 0.9821
3.6013 -1.8741 -1.9914 0.9821
3.8753 -1.2038 -1.9905 0.9821
3.9666 -0.8532 -1.9902 0.9821
4.0545 -0.1347 -1.9899 0.9821
4.0503 0.2275 -1.9899 0.9821
4.0141 0.5879 -1.9900 0.9821
3.8467 1.2922 -1.9905 0.9821
3.1551 2.5587 -1.9926 0.9821
2.9154 2.8310 -1.9934 0.9821
2.6523 3.0811 -1.9942 0.9821
2.0645 3.5066 -1.9960 0.9820
1.7443 3.6786 -1.9970 0.9820
1.4098 3.8213 -1.9979 0.9820
0.3475 4.0551 -1.9964 0.9820
-0.3790 4.0558 -1.9981 0.9820
-1.7821 3.6848 -2.0078 0.9819
-2.6985 3.0864 -2.0110 0.9819
-3.2066 2.5598 -2.0126 0.9819
-3.4233 2.2643 -2.0133 0.9819
-1.1581 0.3792 -0.5978 0.9946
-1.1876 0.1646 -0.5881 0.9947
-1.1964 -0.0490 -0.5874 0.9947
-1.1888 -0.1557 -0.5881 0.9947
-1.1678 -0.2606 -0.5869 0.9947
-1.1585 -0.3697 -0.5965 0.9946
-1.1473 -0.4826 -0.6105 0.9945
-1.1183 -0.5929 -0.6209 0.9944
-3.2261 -2.5359 -2.0129 0.9819
-2.9859 -2.8126 -2.0121 0.9819
-2.4366 -3.2956 -2.0104 0.9819
-2.1318 -3.4982 -2.0095 0.9819
-1.4748 -3.8174 -2.0074 0.9819
-0.7721 -4.0143 -2.0052 0.9820
1.3815 -3.8328 -1.9985 0.9820
2.0384 -3.5226 -1.9964 0.9820
2.3434 -3.3251 -1.9954 0.9820
2.6295 -3.1014 -1.9945 0.9820
3.5430 -1.9829 -1.9916 0.9821
3.7048 -1.6585 -1.9911 0.9821
3.8371 -1.3212 -1.9906 0.9821
4.0097 -0.6181 -1.9901 0.9821
3.7644 1.5167 -1.9908 0.9821
3.4367 2.1626 -1.9918 0.9821
3.2311 2.4613 -1.9924 0.9821
2.9997 2.7407 -1.9931 0.9821
2.7444 2.9986 -1.9939 0.9821
2.4670 3.2328 -1.9948 0.9820
2.1698 3.4416 -1.9957 0.9820
1.8550 3.6232 -1.9967 0.9820
0.8294 3.9847 -1.9965 0.9820
0.1081 4.0692 -1.9968 0.9820
-0.2554 4.0646 -1.9977 0.9820
-1.6683 3.7352 -2.0066 0.9819
-2.3091 3.3845 -2.0098 0.9819
-2.6030 3.1665 -2.0107 0.9819
-3.5514 2.0592 -2.0137 0.9819
-1.1583 0.3050 -0.5875 0.9947
-1.1948 0.0944 -0.5879 0.9947
-1.1960 -0.0125 -0.5867 0.9947
-1.1765 -0.2252 -0.5876 0.9947
-1.1528 -0.4442 -0.6060 0.9945
-3.0705 -2.7208 -2.0124 0.9819
-2.2376 -3.4323 -2.0098 0.9819
-1.2470 -3.8963 -2.0067 0.9819
-0.8940 -3.9898 -2.0056 0.9819
0.1940 -4.0771 -2.0022 0.9820
1.2645 -3.8737 -1.9988 0.9820
1.9307 -3.5836 -1.9967 0.9820
2.8068 -2.9403 -1.9939 0.9821
3.2821 -2.3930 -1.9924 0.9821
3.6529 -1.7706 -1.9912 0.9821
3.9892 -0.7398 -1.9901 0.9821
4.0389 -0.3809 -1.9900 0.9821
3.9958 0.7021 -1.9901 0.9821
3.9177 1.0559 -1.9903 0.9821
3.8085 1.4014 -1.9906 0.9821
3.6691 1.7359 -1.9911 0.9821
3.5005 2.0569 -1.9916 0.9821
3.3041 2.3617 -1.9922 0.9821
3.0813 2.6479 -1.9929 0.9821
1.6390 3.7274 -1.9974 0.9820
