ply
format ascii 1.0
element vertex 1595
property float32 x
property float32 y
property float32 z
property float32 I
end_header
-5.4895 0.9999 -1.9954 0.9766
-5.5799 0.0086 -1.9954 0.9766
-5.4932 -0.9832 -1.9956 0.9766
-5.3841 -1.4694 -1.9958 0.9766
-5.2321 -1.9441 -1.9960 0.9766
-4.8048 -2.8437 -1.9966 0.9766
-4.5328 -3.2615 -1.9970 0.9766
-1.7693 -5.3064 -2.0003 0.9765
-0.3014 -5.5901 -2.0020 0.9765
1.6745 -5.3483 -2.0041 0.9765
3.4424 -4.4291 -2.0060 0.9765
3.8245 -4.1051 -2.0064 0.9764
4.1762 -3.7483 -2.0067 0.9764
4.4946 -3.3613 -2.0071 0.9764
4.7771 -2.9474 -2.0073 0.9764
5.0215 -2.5098 -2.0075 0.9764
5.2258 -2.0520 -2.0077 0.9764
5.5078 -1.0908 -2.0079 0.9764
5.5999 0.4064 -2.0078 0.9764
5.5410 0.9042 -2.0077 0.9764
5.2911 1.8740 -2.0073 0.9764
4.8725 2.7836 -2.0067 0.9764
4.6039 3.2066 -2.0064 0.9764
4.2987 3.6038 -2.0060 0.9765
3.5234 4.2305 -1.9688 0.9769
2.1416 4.7130 -1.8512 0.9782
1.7122 4.8839 -1.8507 0.9783
1.2693 5.0158 -1.8502 0.9783
0.8166 5.1076 -1.8497 0.9783
0.3576 5.1586 -1.8492 0.9783
-0.1039 5.1685 -1.8487 0.9783
-1.9029 4.8007 -1.8467 0.9783
-3.1151 4.1375 -1.8521 0.9782
-4.4186 3.4115 -1.9963 0.9766
-4.3856 -2.8150 -1.9971 0.9779
-4.1178 -3.1955 -1.9974 0.9779
-3.8170 -3.5508 -1.9978 0.9779
-3.4858 -3.8779 -1.9982 0.9779
-1.4707 -5.0091 -2.0006 0.9779
-0.5575 -5.1934 -2.0016 0.9779
-0.0921 -5.2238 -2.0022 0.9779
0.3744 -5.2125 -2.0027 0.9779
0.8380 -5.1597 -2.0032 0.9779
4.0208 -3.3539 -2.0065 0.9778
4.3045 -2.9823 -2.0068 0.9778
4.5539 -2.5867 -2.0070 0.9778
4.7669 -2.1704 -2.0072 0.9778
5.0773 -1.2889 -2.0074 0.9778
5.2257 -0.3662 -2.0075 0.9778
5.1355 1.0303 -2.0072 0.9778
5.0227 1.4842 -2.0070 0.9778
4.8697 1.9261 -2.0068 0.9778
4.4487 2.7600 -2.0063 0.9778
3.1903 4.1258 -1.9986 0.9779
2.7015 4.2249 -1.9217 0.9787
2.2291 4.2862 -1.8514 0.9795
1.8375 4.4668 -1.8509 0.9795
1.4313 4.6117 -1.8505 0.9795
0.1591 4.8223 -1.8490 0.9795
-0.2717 4.8161 -1.8485 0.9795
-1.1226 4.6888 -1.8476 0.9796
-1.9369 4.4126 -1.8467 0.9796
-3.2735 4.0349 -1.9911 0.9780
-3.6288 3.7354 -1.9957 0.9779
-3.9496 3.3987 -1.9968 0.9779
-4.4896 2.6421 -1.9963 0.9779
-4.7069 2.2308 -1.9961 0.9779
-4.8868 1.8020 -1.9960 0.9779
-5.1288 0.9049 -1.9958 0.9779
-5.1890 0.4437 -1.9958 0.9779
-5.2080 -0.0209 -1.9958 0.9779
-5.1220 -0.9461 -1.9960 0.9779
-4.8733 -1.8415 -1.9964 0.9779
-4.6902 -2.2692 -1.9967 0.9779
-4.2137 -3.0675 -1.9973 0.9779
-3.6029 -3.7688 -1.9981 0.9779
-3.2530 -4.0761 -1.9985 0.9779
-2.8771 -4.3510 -1.9990 0.9779
-2.4781 -4.5914 -1.9994 0.9779
-2.0592 -4.7953 -1.9999 0.9779
-1.1749 -5.0875 -2.0009 0.9779
-0.7166 -5.1734 -2.0015 0.9779
0.2142 -5.2211 -2.0025 0.9779
2.0286 -4.8212 -2.0045 0.9778
2.4512 -4.6221 -2.0049 0.9778
2.8543 -4.3859 -2.0053 0.9778
3.2348 -4.1146 -2.0057 0.9778
3.5896 -3.8104 -2.0061 0.9778
4.4722 -2.7251 -2.0069 0.9778
4.6979 -2.3156 -2.0072 0.9778
5.0353 -1.4441 -2.0074 0.9778
5.2381 -0.0594 -2.0075 0.9778
5.1648 0.8723 -2.0073 0.9778
4.9267 1.7758 -2.0069 0.9778
4.7481 2.2079 -2.0067 0.9778
3.6735 3.7265 -2.0053 0.9778
1.9739 4.4087 -1.8511 0.9795
1.5723 4.5660 -1.8506 0.9795
0.7356 4.7703 -1.8497 0.9795
0.3070 4.8156 -1.8492 0.9795
-0.5533 4.7911 -1.8482 0.9796
-0.9782 4.7214 -1.8478 0.9796
-1.3951 4.6142 -1.8473 0.9796
-1.8007 4.4703 -1.8469 0.9796
-2.6055 4.1413 -1.8750 0.9793
-3.1322 4.1125 -1.9810 0.9781
-3.8437 3.5185 -1.9969 0.9779
-4.8293 1.9511 -1.9960 0.9779
-4.9838 1.5125 -1.9959 0.9779
-5.0986 1.0619 -1.9958 0.9779
-5.1980 -0.3260 -1.9959 0.9779
-5.1485 -0.7884 -1.9960 0.9779
-4.7574 -2.1241 -1.9966 0.9779
-4.5496 -2.5403 -1.9969 0.9779
-4.0272 -3.3095 -1.9975 0.9779
-3.7166 -3.6562 -1.9979 0.9779
-3.3764 -3.9740 -1.9983 0.9779
-3.0091 -4.2603 -1.9988 0.9779
-2.6177 -4.5128 -1.9993 0.9779
-2.2052 -4.7294 -1.9997 0.9779
-0.8750 -5.1485 -2.0013 0.9779
-0.4124 -5.2074 -2.0018 0.9779
0.5198 -5.2005 -2.0028 0.9779
0.9819 -5.1347 -2.0034 0.9779
2.3080 -4.6948 -2.0048 0.9778
3.8071 -3.5939 -2.0063 0.9778
4.1131 -3.2404 -2.0066 0.9778
4.3863 -2.8610 -2.0069 0.9778
4.6245 -2.4586 -2.0071 0.9778
4.8258 -2.0365 -2.0073 0.9778
4.9885 -1.5980 -2.0074 0.9778
5.1114 -1.1466 -2.0075 0.9778
5.1893 0.7133 -2.0073 0.9778
4.9791 1.6238 -2.0070 0.9778
4.6101 2.4821 -2.0065 0.9778
4.3696 2.8830 -2.0061 0.9778
4.0943 3.2607 -2.0058 0.9778
3.4439 3.9296 -2.0024 0.9779
3.0714 4.2099 -1.9970 0.9779
2.5400 4.2279 -1.8901 0.9791
1.7119 4.5160 -1.8508 0.9795
0.8817 4.7459 -1.8498 0.9795
0.4547 4.8044 -1.8493 0.9795
0.0244 4.8245 -1.8489 0.9795
-0.4060 4.8062 -1.8484 0.9796
-0.8329 4.7496 -1.8479 0.9796
-1.2529 4.6552 -1.8475 0.9796
-1.6628 4.5238 -1.8470 0.9796
-2.0592 4.3565 -1.8466 0.9796
-4.3193 2.9128 -1.9965 0.9779
-5.0637 1.2179 -1.9958 0.9779
-5.1520 0.7613 -1.9958 0.9779
-5.2054 -0.1663 -1.9958 0.9779
-4.9767 -1.5389 -1.9963 0.9779
-4.8201 -1.9770 -1.9965 0.9779
-3.8268 -3.5402 -1.9978 0.9779
-3.4965 -3.8682 -1.9982 0.9779
-2.3492 -4.6591 -1.9996 0.9779
-1.9247 -4.8513 -2.0001 0.9779
-0.5719 -5.1918 -2.0016 0.9779
-0.1066 -5.2235 -2.0021 0.9779
1.7287 -4.9358 -2.0042 0.9778
2.5794 -4.5522 -2.0051 0.9778
3.3486 -4.0230 -2.0059 0.9778
4.0115 -3.3650 -2.0065 0.9778
4.5467 -2.5993 -2.0070 0.9778
4.9371 -1.7503 -2.0073 0.9778
5.1699 -0.8452 -2.0075 0.9778
5.2247 -0.3807 -2.0075 0.9778
5.2377 0.0869 -2.0075 0.9778
5.2088 0.5537 -2.0074 0.9778
5.0268 1.4703 -2.0071 0.9778
4.8750 1.9126 -2.0068 0.9778
3.8958 3.4945 -2.0055 0.9778
3.5663 3.8257 -2.0043 0.9778
2.7178 4.2246 -1.9250 0.9787
1.8498 4.4617 -1.8509 0.9795
0.1725 4.8219 -1.8490 0.9795
-0.2583 4.8168 -1.8486 0.9795
-1.1096 4.6919 -1.8476 0.9796
-1.5233 4.5731 -1.8472 0.9796
-1.9247 4.4180 -1.8467 0.9796
-2.3106 4.2278 -1.8463 0.9796
-3.2621 4.0437 -1.9910 0.9780
-3.6181 3.7452 -1.9956 0.9779
-4.2281 3.0441 -1.9965 0.9779
-4.7007 2.2439 -1.9961 0.9779
-4.8818 1.8155 -1.9960 0.9779
-5.1263 0.9191 -1.9958 0.9779
-5.2080 -0.0065 -1.9958 0.9779
-5.1246 -0.9319 -1.9960 0.9779
-4.8783 -1.8280 -1.9964 0.9779
-4.4771 -2.6665 -1.9970 0.9779
-3.2643 -4.0670 -1.9985 0.9779
-2.4908 -4.5845 -1.9994 0.9779
-2.0725 -4.7895 -1.9999 0.9779
-1.6374 -4.9566 -2.0004 0.9779
-1.1890 -5.0842 -2.0009 0.9779
-0.7310 -5.1713 -2.0014 0.9779
0.6649 -5.1843 -2.0030 0.9779
1.1249 -5.1057 -2.0035 0.9779
3.5790 -3.8203 -2.0061 0.9778
4.2021 -3.1245 -2.0067 0.9778
4.6915 -2.3286 -2.0071 0.9778
5.0313 -1.4581 -2.0074 0.9778
5.2380 -0.0739 -2.0075 0.9778
5.2235 0.3936 -2.0074 0.9778
5.1672 0.8579 -2.0073 0.9778
4.7542 2.1948 -2.0067 0.9778
4.5388 2.6097 -2.0064 0.9778
4.2872 3.0037 -2.0060 0.9778
3.3299 4.0207 -2.0006 0.9779
2.9023 4.2207 -1.9630 0.9783
2.3834 4.2306 -1.8608 0.9794
1.9861 4.4032 -1.8511 0.9795
0.7488 4.7683 -1.8497 0.9795
0.3204 4.8148 -1.8492 0.9795
-0.1103 4.8229 -1.8487 0.9795
-0.9651 4.7242 -1.8478 0.9796
-1.3823 4.6181 -1.8473 0.9796
-1.7883 4.4753 -1.8469 0.9796
-2.5900 4.1421 -1.8721 0.9793
-3.4986 3.8513 -1.9939 0.9780
-3.8339 3.5291 -1.9969 0.9779
-4.1328 3.1726 -1.9966 0.9779
-4.3988 2.7910 -1.9964 0.9779
-4.6298 2.3872 -1.9962 0.9779
-4.9796 1.5263 -1.9959 0.9779
-5.0957 1.0760 -1.9958 0.9779
-5.1713 0.6171 -1.9958 0.9779
-5.2057 0.1534 -1.9958 0.9779
-5.1988 -0.3116 -1.9959 0.9779
-5.1506 -0.7741 -1.9960 0.9779
-5.0614 -1.2306 -1.9961 0.9779
-4.9320 -1.6774 -1.9963 0.9779
-4.7633 -2.1109 -1.9966 0.9779
-3.7267 -3.6459 -1.9979 0.9779
-3.0209 -4.2519 -1.9988 0.9779
-2.2183 -4.7233 -1.9997 0.9779
-1.3444 -5.0448 -2.0007 0.9779
-0.4268 -5.2062 -2.0018 0.9779
2.2949 -4.7012 -2.0048 0.9778
2.7057 -4.4787 -2.0052 0.9778
3.4598 -3.9281 -2.0060 0.9778
3.7971 -3.6044 -2.0063 0.9778
4.3783 -2.8732 -2.0069 0.9778
4.6177 -2.4714 -2.0071 0.9778
4.8201 -2.0498 -2.0073 0.9778
4.9841 -1.6118 -2.0074 0.9778
5.1915 -0.7005 -2.0075 0.9778
5.1078 1.1592 -2.0072 0.9778
4.8195 2.0479 -2.0068 0.9778
4.6170 2.4693 -2.0065 0.9778
4.1034 3.2493 -2.0058 0.9778
3.0833 4.2017 -1.9972 0.9779
2.5558 4.2276 -1.8931 0.9791
1.7244 4.5113 -1.8508 0.9795
-0.3927 4.8074 -1.8484 0.9796
-1.2400 4.6587 -1.8475 0.9796
-3.7240 3.6454 -1.9970 0.9779
-4.3113 2.9248 -1.9965 0.9779
-4.5545 2.5283 -1.9962 0.9779
-4.9305 1.6784 -1.9959 0.9779
-5.1986 0.3131 -1.9958 0.9779
-5.2059 -0.1519 -1.9958 0.9779
-5.0967 -1.0746 -1.9961 0.9779
-4.9809 -1.5251 -1.9963 0.9779
-4.6318 -2.3865 -1.9968 0.9779
-4.4011 -2.7906 -1.9971 0.9779
-4.1354 -3.1726 -1.9974 0.9779
-3.8366 -3.5295 -1.9978 0.9779
-3.5072 -3.8585 -1.9982 0.9779
-2.7670 -4.4223 -1.9991 0.9779
-1.4985 -5.0008 -2.0006 0.9779
-1.0467 -5.1158 -2.0011 0.9779
-0.1211 -5.2231 -2.0021 0.9779
0.3454 -5.2144 -2.0027 0.9779
0.8094 -5.1642 -2.0032 0.9779
1.2672 -5.0726 -2.0037 0.9779
1.7150 -4.9406 -2.0041 0.9778
2.1494 -4.7690 -2.0046 0.9778
4.0021 -3.3761 -2.0065 0.9778
4.5395 -2.6119 -2.0070 0.9778
5.0701 -1.3170 -2.0074 0.9778
5.1411 1.0019 -2.0072 0.9778
5.0308 1.4563 -2.0071 0.9778
4.8803 1.8991 -2.0068 0.9778
4.4639 2.7353 -2.0063 0.9778
4.2014 3.1221 -2.0059 0.9778
3.5772 3.8162 -2.0045 0.9778
2.2529 4.2738 -1.8514 0.9795
1.8622 4.4566 -1.8510 0.9795
0.6153 4.7869 -1.8495 0.9795
0.1858 4.8215 -1.8490 0.9795
-0.6736 4.7753 -1.8481 0.9796
-1.0966 4.6950 -1.8476 0.9796
-1.5106 4.5774 -1.8472 0.9796
-1.9125 4.4233 -1.8468 0.9796
-2.2989 4.2342 -1.8463 0.9796
-4.2196 3.0558 -1.9965 0.9779
-4.4749 2.6669 -1.9963 0.9779
-4.6945 2.2569 -1.9961 0.9779
-4.8767 1.8290 -1.9960 0.9779
-5.0202 1.3867 -1.9959 0.9779
-5.1237 0.9333 -1.9958 0.9779
-5.1271 -0.9177 -1.9960 0.9779
-5.0252 -1.3715 -1.9962 0.9779
-4.8834 -1.8145 -1.9964 0.9779
-3.9429 -3.4099 -1.9976 0.9779
-3.2756 -4.0579 -1.9985 0.9779
-2.9012 -4.3349 -1.9989 0.9779
-2.5035 -4.5775 -1.9994 0.9779
-0.2813 -5.2165 -2.0020 0.9779
1.1108 -5.1087 -2.0035 0.9779
2.0018 -4.8323 -2.0045 0.9778
2.4254 -4.6356 -2.0049 0.9778
2.8299 -4.4016 -2.0053 0.9778
3.5683 -3.8302 -2.0061 0.9778
3.8964 -3.4972 -2.0064 0.9778
4.1934 -3.1361 -2.0067 0.9778
4.4570 -2.7499 -2.0069 0.9778
4.6850 -2.3416 -2.0071 0.9778
4.8756 -1.9145 -2.0073 0.9778
5.1387 -1.0177 -2.0075 0.9778
5.2090 -0.5553 -2.0075 0.9778
5.2246 0.3791 -2.0074 0.9778
5.0733 1.3013 -2.0071 0.9778
4.5460 2.5971 -2.0064 0.9778
4.0108 3.3625 -2.0057 0.9778
3.6942 3.7061 -2.0053 0.9778
3.3414 4.0118 -2.0008 0.9779
1.9983 4.3977 -1.8511 0.9795
1.5977 4.5573 -1.8507 0.9795
0.7620 4.7662 -1.8497 0.9795
-0.0970 4.8232 -1.8487 0.9795
-0.5267 4.7941 -1.8483 0.9796
-0.9520 4.7268 -1.8478 0.9796
-1.3695 4.6220 -1.8473 0.9796
-1.7759 4.4803 -1.8469 0.9796
-3.0978 4.1145 -1.9737 0.9782
-3.4876 3.8607 -1.9938 0.9780
-3.8241 3.5398 -1.9969 0.9779
-4.1240 3.1841 -1.9966 0.9779
-4.1070 -2.6362 -1.9974 0.9791
-3.8561 -2.9925 -1.9977 0.9791
-3.5744 -3.3251 -1.9980 0.9791
-3.2642 -3.6314 -1.9984 0.9791
-2.5681 -4.1554 -1.9993 0.9791
-1.3771 -4.6903 -2.0007 0.9791
-0.0862 -4.8911 -2.0021 0.9791
0.3505 -4.8805 -2.0026 0.9791
0.7846 -4.8309 -2.0031 0.9791
1.2127 -4.7428 -2.0036 0.9791
1.6313 -4.6168 -2.0040 0.9791
2.7972 -4.0225 -2.0052 0.9790
3.1454 -3.7576 -2.0056 0.9790
4.0298 -2.7919 -2.0065 0.9790
4.2633 -2.4216 -2.0067 0.9790
4.4627 -2.0318 -2.0069 0.9790
4.6264 -1.6258 -2.0070 0.9790
4.7532 -1.2066 -2.0071 0.9790
4.8420 -0.7778 -2.0071 0.9790
4.8921 -0.3428 -2.0071 0.9790
4.9031 0.0949 -2.0071 0.9790
4.8749 0.5319 -2.0070 0.9790
4.8077 0.9646 -2.0069 0.9790
4.7021 1.3895 -2.0067 0.9790
3.6382 3.2817 -2.0053 0.9790
2.9933 3.8710 -2.0027 0.9791
2.6300 4.1130 -1.9981 0.9791
1.7352 4.2183 -1.8668 0.9805
1.3401 4.3180 -1.8504 0.9806
0.5513 4.4852 -1.8495 0.9807
-0.2544 4.5096 -1.8486 0.9807
-1.0511 4.3905 -1.8477 0.9807
-1.4383 4.2783 -1.8473 0.9807
-1.8251 4.1579 -1.8584 0.9806
-2.2756 4.1364 -1.9322 0.9798
-3.4006 3.5005 -1.9974 0.9791
-3.6988 3.1828 -1.9971 0.9791
-4.2044 2.4743 -1.9966 0.9791
-4.5765 1.6875 -1.9963 0.9791
-4.7085 1.2725 -1.9962 0.9791
-1.9576 0.1674 -0.8041 0.9915
-1.9020 -0.0076 -0.7784 0.9918
-1.9579 -0.1833 -0.8048 0.9915
-4.6989 -1.3105 -1.9965 0.9791
-4.3923 -2.1251 -1.9970 0.9791
-4.1858 -2.5087 -1.9973 0.9791
-3.6746 -3.2136 -1.9979 0.9791
-3.3739 -3.5293 -1.9983 0.9791
-1.5203 -4.6454 -2.0005 0.9791
-1.1002 -4.7637 -2.0010 0.9791
-0.6710 -4.8440 -2.0015 0.9791
0.2005 -4.8886 -2.0024 0.9791
1.0665 -4.7774 -2.0034 0.9791
1.4888 -4.6643 -2.0039 0.9791
1.8993 -4.5139 -2.0043 0.9791
2.2949 -4.3274 -2.0047 0.9791
2.6722 -4.1062 -2.0051 0.9790
3.3605 -3.5673 -2.0058 0.9790
3.6659 -3.2538 -2.0061 0.9790
4.1868 -2.5512 -2.0066 0.9790
4.8890 0.3820 -2.0070 0.9790
4.7426 1.2445 -2.0068 0.9790
4.6123 1.6625 -2.0066 0.9790
4.2424 2.4550 -2.0061 0.9790
4.0059 2.8232 -2.0058 0.9790
3.4392 3.4888 -2.0050 0.9790
2.7571 4.0335 -1.9996 0.9791
2.3560 4.2092 -1.9742 0.9794
1.0847 4.3884 -1.8501 0.9807
0.2875 4.5091 -1.8492 0.9807
-0.1158 4.5156 -1.8487 0.9807
-0.5181 4.4862 -1.8483 0.9807
-1.3064 4.3208 -1.8474 0.9807
-1.6862 4.1861 -1.8470 0.9807
-2.1169 4.1443 -1.9046 0.9801
-2.9523 3.8764 -1.9943 0.9792
-4.1267 2.6023 -1.9967 0.9791
-4.3419 2.2236 -1.9965 0.9791
-4.6673 1.4165 -1.9962 0.9791
-4.7749 0.9944 -1.9962 0.9791
-1.9552 0.2278 -0.8056 0.9915
-1.9235 0.0513 -0.7875 0.9917
-4.6144 -1.5836 -1.9967 0.9791
-4.4552 -1.9892 -1.9969 0.9791
-3.4804 -3.4238 -1.9982 0.9791
-2.8178 -3.9894 -1.9990 0.9791
-2.0650 -4.4286 -1.9999 0.9791
-1.6621 -4.5962 -2.0003 0.9791
-0.8193 -4.8208 -2.0013 0.9791
2.1608 -4.3955 -2.0046 0.9791
3.8506 -3.0337 -2.0063 0.9790
4.3293 -2.3017 -2.0067 0.9790
4.5178 -1.9065 -2.0069 0.9790
4.6701 -1.4960 -2.0070 0.9790
4.8985 0.2318 -2.0071 0.9790
4.8580 0.6678 -2.0070 0.9790
4.6613 1.5202 -2.0066 0.9790
4.5066 1.9297 -2.0064 0.9790
4.0909 2.6990 -2.0059 0.9790
3.8332 3.0527 -2.0055 0.9790
3.2285 3.6838 -2.0048 0.9791
2.8819 3.9501 -2.0012 0.9791
2.0444 4.2143 -1.9171 0.9800
1.6028 4.2283 -1.8507 0.9806
1.2190 4.3534 -1.8503 0.9807
0.8256 4.4437 -1.8498 0.9807
-1.1733 4.3592 -1.8476 0.9807
-3.1786 3.7017 -1.9969 0.9791
-3.7860 3.0781 -1.9970 0.9791
-4.2718 2.3559 -1.9966 0.9791
-4.4645 1.9652 -1.9964 0.9791
-4.6217 1.5591 -1.9963 0.9791
-4.7422 1.1405 -1.9962 0.9791
-1.9428 0.2871 -0.8038 0.9915
-4.6607 -1.4412 -1.9966 0.9791
-4.3314 -2.2470 -1.9971 0.9791
-3.8644 -2.9818 -1.9977 0.9791
-3.5836 -3.3152 -1.9980 0.9791
-2.9387 -3.9008 -1.9988 0.9791
-2.1997 -4.3628 -1.9997 0.9791
-1.8022 -4.5427 -2.0002 0.9791
-0.9668 -4.7929 -2.0011 0.9791
-0.5355 -4.8612 -2.0016 0.9791
0.3370 -4.8814 -2.0026 0.9791
0.7713 -4.8331 -2.0031 0.9791
1.1996 -4.7461 -2.0035 0.9791
2.0247 -4.4594 -2.0044 0.9791
2.4149 -4.2619 -2.0048 0.9791
4.0221 -2.8031 -2.0065 0.9790
4.2565 -2.4334 -2.0067 0.9790
4.4570 -2.0442 -2.0068 0.9790
4.6219 -1.6386 -2.0070 0.9790
4.7498 -1.2198 -2.0071 0.9790
4.8911 -0.3564 -2.0071 0.9790
4.5639 1.7905 -2.0065 0.9790
4.3854 2.1902 -2.0063 0.9790
3.9253 2.9338 -2.0056 0.9790
3.6473 3.2716 -2.0053 0.9790
3.3403 3.5833 -2.0049 0.9791
2.2053 4.2118 -1.9458 0.9797
1.7488 4.2181 -1.8689 0.9805
-0.6431 4.4697 -1.8482 0.9807
-1.0390 4.3935 -1.8477 0.9807
-1.8117 4.1585 -1.8565 0.9806
-2.2611 4.1371 -1.9296 0.9798
-2.7055 4.0451 -1.9917 0.9792
-3.3909 3.5100 -1.9974 0.9791
-3.6899 3.1930 -1.9971 0.9791
-4.4022 2.1014 -1.9965 0.9791
-4.7050 1.2856 -1.9962 0.9791
-2.1658 0.3883 -0.9005 0.9905
-1.9578 0.1729 -0.8044 0.9915
-1.9579 -0.1778 -0.8046 0.9915
-2.1761 -0.3957 -0.9052 0.9905
-4.7025 -1.2974 -1.9965 0.9791
-3.9539 -2.8616 -1.9976 0.9791
-2.7055 -4.0668 -1.9991 0.9791
-2.3324 -4.2929 -1.9996 0.9791
-1.1134 -4.7606 -2.0010 0.9791
-0.6844 -4.8421 -2.0015 0.9791
0.1870 -4.8891 -2.0024 0.9791
1.0533 -4.7803 -2.0034 0.9791
1.8868 -4.5191 -2.0043 0.9791
2.6608 -4.1136 -2.0051 0.9790
3.9340 -2.9251 -2.0064 0.9790
4.1797 -2.5628 -2.0066 0.9790
4.3920 -2.1800 -2.0068 0.9790
4.7101 -1.3650 -2.0070 0.9790
4.8779 -0.5063 -2.0071 0.9790
4.8900 0.3685 -2.0070 0.9790
4.8374 0.8032 -2.0069 0.9790
4.7461 1.2314 -2.0068 0.9790
4.6169 1.6497 -2.0066 0.9790
3.7462 3.1583 -2.0054 0.9790
3.1241 3.7722 -2.0046 0.9791
2.7685 4.0261 -1.9998 0.9791
2.3712 4.2089 -1.9771 0.9793
1.9018 4.2163 -1.8930 0.9802
1.4840 4.2711 -1.8506 0.9806
1.0969 4.3854 -1.8501 0.9807
-0.1033 4.5160 -1.8488 0.9807
-0.5056 4.4877 -1.8483 0.9807
-4.1195 2.6137 -1.9967 0.9791
-4.3358 2.2356 -1.9965 0.9791
-4.5175 1.8398 -1.9964 0.9791
-4.7721 1.0077 -1.9962 0.9791
-1.9258 0.0567 -0.7885 0.9917
-1.9613 -0.2948 -0.8117 0.9915
-4.4607 -1.9768 -1.9969 0.9791
-2.8288 -3.9816 -1.9990 0.9791
-2.0772 -4.4228 -1.9999 0.9791
-1.6748 -4.5916 -2.0003 0.9791
-0.3996 -4.8747 -2.0018 0.9791
0.0368 -4.8921 -2.0023 0.9791
0.4732 -4.8705 -2.0028 0.9791
0.9060 -4.8100 -2.0032 0.9791
1.3317 -4.7111 -2.0037 0.9791
1.7471 -4.5745 -2.0041 0.9791
2.1486 -4.4014 -2.0046 0.9791
2.5332 -4.1930 -2.0050 0.9790
3.2391 -3.6775 -2.0057 0.9790
3.8422 -3.0443 -2.0063 0.9790
4.0989 -2.6898 -2.0065 0.9790
4.7821 -1.0867 -2.0071 0.9790
4.8601 -0.6558 -2.0071 0.9790
4.8992 -0.2197 -2.0071 0.9790
4.6655 1.5072 -2.0066 0.9790
4.5120 1.9172 -2.0064 0.9790
4.3224 2.3117 -2.0062 0.9790
3.8416 3.0421 -2.0055 0.9790
3.5543 3.3720 -2.0052 0.9790
2.8930 3.9424 -2.0014 0.9791
2.0587 4.2141 -1.9195 0.9799
0.8379 4.4414 -1.8498 0.9807
0.4383 4.4973 -1.8494 0.9807
0.0353 4.5174 -1.8489 0.9807
-0.3677 4.5015 -1.8485 0.9807
-0.7676 4.4496 -1.8480 0.9807
-1.1612 4.3624 -1.8476 0.9807
-1.5453 4.2405 -1.8472 0.9807
-1.9486 4.1523 -1.8773 0.9804
-3.4874 3.4138 -1.9973 0.9791
-4.0374 2.7390 -1.9968 0.9791
-4.4590 1.9776 -1.9964 0.9791
-4.6174 1.5719 -1.9963 0.9791
-1.9469 0.1173 -0.7983 0.9916
-1.9256 -0.0562 -0.7884 0.9917
-4.7730 -1.0064 -1.9964 0.9791
-4.6646 -1.4283 -1.9966 0.9791
-4.3376 -2.2349 -1.9971 0.9791
-4.1215 -2.6133 -1.9974 0.9791
-2.2118 -4.3566 -1.9997 0.9791
-1.4031 -4.6825 -2.0006 0.9791
-0.9801 -4.7902 -2.0011 0.9791
-0.1133 -4.8905 -2.0021 0.9791
0.3234 -4.8823 -2.0026 0.9791
1.1864 -4.7494 -2.0035 0.9791
2.4031 -4.2685 -2.0048 0.9791
2.7748 -4.0379 -2.0052 0.9790
3.4494 -3.4818 -2.0059 0.9790
3.7467 -3.1607 -2.0062 0.9790
4.0143 -2.8142 -2.0064 0.9790
4.6173 -1.6514 -2.0070 0.9790
4.7464 -1.2330 -2.0071 0.9790
4.8376 -0.8047 -2.0071 0.9790
4.8130 0.9379 -2.0069 0.9790
4.5689 1.7779 -2.0065 0.9790
4.1791 2.5608 -2.0060 0.9790
3.9334 2.9229 -2.0057 0.9790
3.6564 3.2615 -2.0053 0.9790
2.6531 4.0990 -1.9984 0.9791
1.7625 4.2180 -1.8710 0.9804
1.3641 4.3105 -1.8504 0.9806
0.9739 4.4140 -1.8500 0.9807
0.5761 4.4821 -1.8495 0.9807
-0.2294 4.5110 -1.8486 0.9807
-0.6307 4.4715 -1.8482 0.9807
-2.6941 4.0524 -1.9916 0.9792
-3.0506 3.8031 -1.9954 0.9791
-3.6811 3.2033 -1.9971 0.9791
-3.9516 2.8618 -1.9969 0.9791
-4.1907 2.4976 -1.9966 0.9791
-4.3964 2.1136 -1.9965 0.9791
-2.1773 0.3966 -0.9058 0.9905
-1.9579 0.1784 -0.8046 0.9915
-1.8994 0.0029 -0.7774 0.9918
-2.1646 -0.3874 -0.9000 0.9905
-4.7061 -1.2844 -1.9965 0.9791
-4.4040 -2.1006 -1.9970 0.9791
-3.9617 -2.8506 -1.9976 0.9791
-3.0673 -3.7999 -1.9987 0.9791
-2.7167 -4.0593 -1.9991 0.9791
-2.3443 -4.2864 -1.9995 0.9791
-1.9530 -4.4794 -2.0000 0.9791
-1.5461 -4.6369 -2.0005 0.9791
-1.1265 -4.7575 -2.0010 0.9791
-0.2634 -4.8843 -2.0019 0.9791
0.1734 -4.8895 -2.0024 0.9791
0.6090 -4.8557 -2.0029 0.9791
1.0400 -4.7832 -2.0034 0.9791
1.8742 -4.5243 -2.0043 0.9791
3.3407 -3.5858 -2.0058 0.9790
4.3860 -2.1921 -2.0068 0.9790
4.7063 -1.3781 -2.0070 0.9790
4.8106 -0.9528 -2.0071 0.9790
4.8765 -0.5198 -2.0071 0.9790
4.9034 -0.0828 -2.0071 0.9790
4.6215 1.6369 -2.0066 0.9790
4.4565 2.0423 -2.0063 0.9790
4.2560 2.4314 -2.0061 0.9790
3.7550 3.1480 -2.0054 0.9790
3.4586 3.4697 -2.0051 0.9790
0.7135 4.4627 -1.8497 0.9807
-0.0908 4.5163 -1.8488 0.9807
-0.4932 4.4891 -1.8483 0.9807
-2.5612 4.1215 -1.9860 0.9792
-2.9305 3.8923 -1.9940 0.9792
-3.2717 3.6217 -1.9975 0.9791
-3.8621 2.9818 -1.9970 0.9791
-3.8574 -2.4759 -1.9976 0.9802
-3.3571 -3.1230 -1.9983 0.9802
-3.0657 -3.4106 -1.9986 0.9802
-2.7498 -3.6712 -1.9990 0.9802
-2.4118 -3.9026 -1.9994 0.9802
-1.2933 -4.4048 -2.0007 0.9802
-0.8955 -4.5036 -2.0012 0.9802
-0.4903 -4.5666 -2.0016 0.9802
-0.0810 -4.5932 -2.0021 0.9802
0.3292 -4.5831 -2.0026 0.9802
0.7368 -4.5365 -2.0030 0.9801
1.1388 -4.4537 -2.0034 0.9801
1.5319 -4.3353 -2.0039 0.9801
2.9535 -3.5284 -2.0054 0.9801
3.2570 -3.2513 -2.0057 0.9801
3.5345 -2.9482 -2.0059 0.9801
4.0030 -2.2738 -2.0064 0.9801
4.1902 -1.9078 -2.0065 0.9801
4.4630 -1.1330 -2.0067 0.9801
4.5772 0.4994 -2.0067 0.9801
4.4150 1.3046 -2.0064 0.9801
3.6781 2.7650 -2.0054 0.9801
3.4162 3.0815 -2.0051 0.9801
2.8133 3.6382 -2.0043 0.9801
1.3040 4.2014 -1.9172 0.9810
0.9029 4.2026 -1.8733 0.9814
0.5177 4.2120 -1.8495 0.9817
-0.9984 4.1703 -1.8689 0.9815
-1.3970 4.1557 -1.9107 0.9811
-1.8162 4.1375 -1.9693 0.9805
-2.2044 4.0069 -1.9931 0.9802
-2.5569 3.8001 -1.9961 0.9802
-3.1939 3.2878 -1.9977 0.9802
-3.4740 2.9894 -1.9974 0.9802
-3.9490 2.3240 -1.9969 0.9802
-4.1402 1.9623 -1.9968 0.9802
-1.5976 0.5891 -0.7421 0.9926
-1.5578 0.4210 -0.7033 0.9930
-1.5282 0.1307 -0.6685 0.9933
-1.5231 -0.0061 -0.6638 0.9934
-1.4981 -0.2767 -0.6639 0.9934
-4.2865 -1.6198 -1.9970 0.9802
-4.1254 -1.9959 -1.9973 0.9802
-3.9314 -2.3563 -1.9975 0.9802
-3.4512 -3.0183 -1.9981 0.9802
-3.1688 -3.3147 -1.9985 0.9802
-2.8610 -3.5848 -1.9989 0.9802
-2.5303 -3.8265 -1.9993 0.9802
-2.1793 -4.0378 -1.9997 0.9802
1.7835 -4.2386 -2.0041 0.9801
2.1549 -4.0634 -2.0045 0.9801
2.5092 -3.8557 -2.0049 0.9801
2.8437 -3.6171 -2.0052 0.9801
3.1555 -3.3496 -2.0056 0.9801
3.4422 -3.0552 -2.0058 0.9801
3.7015 -2.7363 -2.0061 0.9801
4.1296 -2.0354 -2.0065 0.9801
4.4261 -1.2694 -2.0067 0.9801
4.5814 -0.4627 -2.0068 0.9801
4.5399 0.7667 -2.0066 0.9801
3.9835 2.3051 -2.0058 0.9801
3.7614 2.6509 -2.0055 0.9801
3.5094 2.9754 -2.0052 0.9801
3.2295 3.2760 -2.0048 0.9801
2.5942 3.7951 -2.0035 0.9801
2.2407 4.0033 -1.9994 0.9802
0.6483 4.2044 -1.8540 0.9816
-0.1088 4.2407 -1.8488 0.9817
-0.4865 4.2132 -1.8484 0.9817
-0.8649 4.1747 -1.8580 0.9816
-1.2581 4.1611 -1.8945 0.9812
-1.6694 4.1442 -1.9471 0.9807
-2.0794 4.0708 -1.9922 0.9803
-2.4377 3.8746 -1.9950 0.9802
-3.3807 3.0947 -1.9975 0.9802
-4.0781 2.0885 -1.9968 0.9802
-4.2479 1.7162 -1.9967 0.9802
-1.5139 0.3153 -0.6739 0.9933
-4.1845 -1.8683 -1.9972 0.9802
-3.7869 -2.5828 -1.9977 0.9802
-3.5420 -2.9108 -1.9980 0.9802
-2.6464 -3.7468 -1.9991 0.9802
-1.9393 -4.1591 -2.0000 0.9802
-1.5609 -4.3165 -2.0004 0.9802
0.4570 -4.5725 -2.0027 0.9801
1.2628 -4.4204 -2.0036 0.9801
1.6524 -4.2911 -2.0040 0.9801
2.0290 -4.1274 -2.0044 0.9801
2.7311 -3.7025 -2.0051 0.9801
3.0510 -3.4447 -2.0055 0.9801
3.3466 -3.1593 -2.0057 0.9801
3.6156 -2.8485 -2.0060 0.9801
4.0650 -2.1612 -2.0064 0.9801
4.2419 -1.7901 -2.0066 0.9801
4.3850 -1.4046 -2.0067 0.9801
4.4929 -1.0079 -2.0068 0.9801
4.5650 -0.6031 -2.0068 0.9801
4.6006 -0.1935 -2.0068 0.9801
4.5614 0.6270 -2.0066 0.9801
4.2315 1.8119 -2.0061 0.9801
4.0525 2.1819 -2.0059 0.9801
3.8412 2.5343 -2.0056 0.9801
3.5993 2.8664 -2.0053 0.9801
3.0316 3.4592 -2.0046 0.9801
1.5917 4.1990 -1.9571 0.9806
0.3999 4.2246 -1.8494 0.9817
-1.5255 4.1504 -1.9271 0.9809
-2.6634 3.7292 -1.9972 0.9802
-3.5559 2.8911 -1.9973 0.9802
-3.7992 2.5621 -1.9971 0.9802
-4.0122 2.2127 -1.9969 0.9802
-1.5891 0.5360 -0.7309 0.9927
-1.5386 0.3700 -0.6897 0.9931
-1.5137 0.2237 -0.6669 0.9933
-1.5280 -0.0488 -0.6663 0.9934
-1.5217 -0.1854 -0.6681 0.9933
-1.5184 -0.3246 -0.6767 0.9932
-4.2397 -1.7389 -1.9971 0.9802
-3.6295 -2.8005 -1.9979 0.9802
-3.3657 -3.1136 -1.9983 0.9802
-3.0751 -3.4021 -1.9986 0.9802
-2.4226 -3.8959 -1.9994 0.9802
-1.3055 -4.4012 -2.0007 0.9802
-0.9079 -4.5011 -2.0012 0.9802
0.7243 -4.5385 -2.0030 0.9801
1.1265 -4.4568 -2.0034 0.9801
1.9013 -4.1875 -2.0043 0.9801
2.2676 -4.0019 -2.0046 0.9801
3.5263 -2.9580 -2.0059 0.9801
3.9967 -2.2848 -2.0064 0.9801
4.1849 -1.9194 -2.0065 0.9801
4.5443 -0.7429 -2.0068 0.9801
4.1178 2.0566 -2.0060 0.9801
3.9174 2.4154 -2.0057 0.9801
3.6858 2.7548 -2.0054 0.9801
3.1365 3.3647 -2.0047 0.9801
2.8234 3.6304 -2.0043 0.9801
1.3167 4.2013 -1.9188 0.9810
0.9151 4.2026 -1.8745 0.9814
0.5294 4.2106 -1.8495 0.9817
0.1516 4.2401 -1.8491 0.9817
-0.2271 4.2357 -1.8487 0.9817
-0.9863 4.1707 -1.8678 0.9815
-1.3844 4.1562 -1.9092 0.9811
-1.8028 4.1382 -1.9672 0.9805
-2.5462 3.8069 -1.9960 0.9802
-3.4657 2.9990 -1.9974 0.9802
-3.7189 2.6776 -1.9972 0.9802
-4.1348 1.9737 -1.9968 0.9802
-1.5982 0.5944 -0.7431 0.9926
-1.5595 0.4261 -0.7046 0.9930
-1.5007 0.2691 -0.6645 0.9934
-1.5225 -0.0019 -0.6635 0.9934
-1.5611 -0.4307 -0.7058 0.9930
-4.1309 -1.9845 -1.9973 0.9802
-3.9379 -2.3453 -1.9975 0.9802
-3.7135 -2.6877 -1.9978 0.9802
-3.1779 -3.3059 -1.9985 0.9802
-2.1905 -4.0317 -1.9997 0.9802
-1.8225 -4.2119 -2.0001 0.9802
-1.4399 -4.3587 -2.0006 0.9802
-0.2346 -4.5875 -2.0019 0.9802
0.1756 -4.5912 -2.0024 0.9802
2.4985 -3.8627 -2.0049 0.9801
3.1462 -3.3583 -2.0055 0.9801
3.4337 -3.0647 -2.0058 0.9801
3.9245 -2.4064 -2.0063 0.9801
4.1239 -2.0469 -2.0065 0.9801
4.2904 -1.6710 -2.0066 0.9801
4.5915 0.3460 -2.0067 0.9801
4.5421 0.7541 -2.0066 0.9801
4.4564 1.1562 -2.0065 0.9801
3.5177 2.9657 -2.0052 0.9801
2.2520 3.9973 -1.9995 0.9802
1.4594 4.2003 -1.9379 0.9808
0.6602 4.2040 -1.8546 0.9816
0.2817 4.2338 -1.8492 0.9817
-1.2457 4.1615 -1.8932 0.9812
-1.6562 4.1448 -1.9452 0.9807
-2.4268 3.8812 -1.9949 0.9802
-3.0823 3.3930 -1.9978 0.9802
-3.6352 2.7906 -1.9972 0.9802
-3.8692 2.4549 -1.9970 0.9802
-4.0723 2.0998 -1.9968 0.9802
-1.5163 0.3202 -0.6754 0.9933
-1.5223 0.1817 -0.6681 0.9933
-1.5296 -0.0917 -0.6678 0.9933
-1.5128 -0.2274 -0.6667 0.9933
-4.1897 -1.8567 -1.9972 0.9802
-3.5500 -2.9009 -1.9980 0.9802
-2.9791 -3.4868 -1.9987 0.9802
-2.6567 -3.7394 -1.9991 0.9802
-2.3131 -3.9623 -1.9995 0.9802
-1.5729 -4.3121 -2.0004 0.9802
-1.1822 -4.4362 -2.0009 0.9802
-0.7820 -4.5250 -2.0013 0.9802
0.4444 -4.5737 -2.0027 0.9801
0.8508 -4.5168 -2.0031 0.9801
1.2505 -4.4239 -2.0036 0.9801
2.0176 -4.1330 -2.0044 0.9801
2.3786 -3.9373 -2.0048 0.9801
3.0415 -3.4531 -2.0054 0.9801
3.3378 -3.1685 -2.0057 0.9801
3.8487 -2.5256 -2.0062 0.9801
4.0590 -2.1724 -2.0064 0.9801
4.3810 -1.4168 -2.0067 0.9801
4.4901 -1.0204 -2.0068 0.9801
4.5633 -0.6158 -2.0068 0.9801
4.6000 0.2049 -2.0067 0.9801
4.5632 0.6144 -2.0066 0.9801
3.3375 3.1663 -2.0050 0.9801
2.7207 3.7076 -2.0042 0.9801
2.0115 4.1174 -1.9971 0.9802
1.6050 4.1989 -1.9591 0.9806
0.4116 4.2235 -1.8494 0.9817
-1.5127 4.1509 -1.9254 0.9809
-2.3054 3.9518 -1.9939 0.9802
-2.6529 3.7363 -1.9971 0.9802
-2.9768 3.4862 -1.9979 0.9802
-3.2754 3.2063 -1.9976 0.9802
-3.5479 2.9009 -1.9973 0.9802
-3.7921 2.5726 -1.9971 0.9802
-4.1882 1.8575 -1.9967 0.9802
-1.5406 0.3750 -0.6910 0.9931
-1.5127 0.2278 -0.6667 0.9933
-1.5276 -0.0446 -0.6661 0.9934
-1.5223 -0.1812 -0.6682 0.9933
-1.5767 -0.4828 -0.7187 0.9928
-4.0740 -2.0991 -1.9973 0.9802
-3.6372 -2.7904 -1.9979 0.9802
-2.7701 -3.6558 -1.9990 0.9802
-2.4334 -3.8891 -1.9994 0.9802
-2.0772 -4.0916 -1.9998 0.9802
-1.3177 -4.3975 -2.0007 0.9802
-0.5156 -4.5637 -2.0016 0.9802
-0.1064 -4.5926 -2.0021 0.9802
0.7117 -4.5405 -2.0030 0.9801
1.1141 -4.4599 -2.0034 0.9801
1.5078 -4.3436 -2.0038 0.9801
1.8896 -4.1927 -2.0042 0.9801
2.2565 -4.0082 -2.0046 0.9801
2.6056 -3.7916 -2.0050 0.9801
2.9339 -3.5446 -2.0053 0.9801
3.9903 -2.2959 -2.0064 0.9801
4.3354 -1.5506 -2.0067 0.9801
4.5422 -0.7555 -2.0068 0.9801
4.2900 1.6694 -2.0062 0.9801
3.4333 3.0626 -2.0051 0.9801
2.1382 4.0562 -1.9984 0.9802
1.7538 4.1972 -1.9825 0.9803
0.9273 4.2026 -1.8756 0.9814
-0.2154 4.2364 -1.8487 0.9817
-0.5923 4.1993 -1.8483 0.9817
-0.9742 4.1712 -1.8668 0.9815
-2.1819 4.0187 -1.9929 0.9802
-2.5355 3.8138 -1.9959 0.9802
-3.4574 3.0086 -1.9974 0.9802
-3.7115 2.6879 -1.9972 0.9802
-3.9361 2.3458 -1.9970 0.9802
-4.1293 1.9852 -1.9968 0.9802
-1.5612 0.4312 -0.7059 0.9930
-1.4993 0.2731 -0.6642 0.9934
-1.5276 0.1392 -0.6685 0.9933
-1.5225 0.0023 -0.6635 0.9934
-1.5279 -0.1345 -0.6685 0.9933
-1.5008 -0.2686 -0.6645 0.9934
-1.5593 -0.4256 -0.7044 0.9930
-1.5981 -0.5938 -0.7430 0.9926
-4.1363 -1.9730 -1.9973 0.9802
-3.9443 -2.3344 -1.9975 0.9802
-3.1870 -3.2970 -1.9985 0.9802
-2.8808 -3.5688 -1.9989 0.9802
-2.5514 -3.8123 -1.9992 0.9802
-2.2017 -4.0256 -1.9997 0.9802
-1.8342 -4.2068 -2.0001 0.9802
-0.6553 -4.5454 -2.0015 0.9802
0.1629 -4.5916 -2.0024 0.9802
0.5719 -4.5598 -2.0028 0.9801
0.9766 -4.4916 -2.0033 0.9801
3.1368 -3.3670 -2.0055 0.9801
3.4252 -3.0742 -2.0058 0.9801
3.6862 -2.7568 -2.0061 0.9801
3.9178 -2.4172 -2.0063 0.9801
4.1182 -2.0583 -2.0065 0.9801
4.4190 -1.2939 -2.0067 0.9801
4.5924 0.3332 -2.0067 0.9801
4.5441 0.7415 -2.0066 0.9801
4.4596 1.1439 -2.0065 0.9801
4.3393 1.5370 -2.0063 0.9801
1.8947 4.1698 -1.9961 0.9802
1.4725 4.2002 -1.9397 0.9808
1.0635 4.2024 -1.8892 0.9813
0.6720 4.2036 -1.8552 0.9816
0.2935 4.2330 -1.8492 0.9817
-0.0853 4.2413 -1.8488 0.9817
-0.4632 4.2159 -1.8484 0.9817
-0.8410 4.1754 -1.8563 0.9816
-1.6432 4.1453 -1.9434 0.9807
-2.0566 4.0819 -1.9920 0.9803
-2.4159 3.8877 -1.9948 0.9802
-2.7576 3.6627 -1.9981 0.9802
-3.6323 -2.3314 -1.9979 0.9812
-3.1611 -2.9406 -1.9985 0.9811
-2.5892 -3.4568 -1.9992 0.9811
-1.2177 -4.1473 -2.0008 0.9811
-0.8431 -4.2403 -2.0012 0.9811
0.3099 -4.3150 -2.0025 0.9811
0.6937 -4.2711 -2.0029 0.9811
1.4422 -4.0815 -2.0037 0.9811
1.8009 -3.9373 -2.0041 0.9811
2.1453 -3.7617 -2.0045 0.9811
2.4727 -3.5559 -2.0048 0.9811
2.7805 -3.3217 -2.0051 0.9811
3.3274 -2.7755 -2.0057 0.9811
3.5621 -2.4679 -2.0059 0.9811
3.7684 -2.1405 -2.0061 0.9811
3.9446 -1.7960 -2.0062 0.9811
4.2014 -1.0665 -2.0064 0.9811
4.2799 -0.6875 -2.0065 0.9811
4.3339 0.0839 -2.0065 0.9811
4.0298 1.5939 -2.0059 0.9811
3.8711 1.9468 -2.0057 0.9811
3.6815 2.2840 -2.0055 0.9811
3.2161 2.9010 -2.0049 0.9811
1.9955 3.8369 -2.0019 0.9811
1.2782 4.1185 -1.9961 0.9812
0.5140 4.1816 -1.9502 0.9816
-0.9937 4.1507 -1.9756 0.9814
-1.3720 4.0811 -1.9930 0.9812
-2.0797 3.7802 -1.9971 0.9812
-2.4102 3.5821 -1.9985 0.9811
-3.0075 3.0959 -1.9979 0.9812
-3.2712 2.8149 -1.9976 0.9812
-3.8986 1.8478 -1.9971 0.9812
-1.3327 0.4914 -0.6575 0.9938
-1.3174 0.2324 -0.6192 0.9941
-1.3340 -0.0054 -0.6175 0.9941
-1.3145 -0.2428 -0.6187 0.9941
-1.3198 -0.3681 -0.6342 0.9940
-3.8846 -1.8794 -1.9975 0.9812
-3.4897 -2.5405 -1.9980 0.9812
-3.2497 -2.8421 -1.9984 0.9812
-2.6939 -3.3754 -1.9990 0.9811
-2.3825 -3.6030 -1.9994 0.9811
-2.0520 -3.8019 -1.9998 0.9811
-0.2089 -4.3198 -2.0019 0.9811
0.5623 -4.2900 -2.0028 0.9811
1.3162 -4.1235 -2.0036 0.9811
2.0287 -3.8255 -2.0044 0.9811
2.9706 -3.1534 -2.0053 0.9811
3.4846 -2.5760 -2.0058 0.9811
3.7008 -2.2551 -2.0060 0.9811
4.3344 -0.0492 -2.0065 0.9811
4.3214 0.3377 -2.0064 0.9811
4.0769 1.4695 -2.0060 0.9811
3.9292 1.8271 -2.0058 0.9811
3.5411 2.4956 -2.0053 0.9811
3.3039 2.8011 -2.0050 0.9811
3.0403 3.0841 -2.0046 0.9811
2.4430 3.5740 -2.0039 0.9811
2.1136 3.7761 -2.0031 0.9811
0.6449 4.1823 -1.9588 0.9815
0.2665 4.1794 -1.9385 0.9817
-0.1071 4.1740 -1.9327 0.9818
-0.4811 4.1660 -1.9412 0.9817
-1.2458 4.1203 -1.9925 0.9812
-1.6097 3.9960 -1.9941 0.9812
-2.2993 3.6546 -1.9986 0.9811
-2.6157 3.4344 -1.9983 0.9812
-2.9112 3.1869 -1.9980 0.9812
-3.6498 2.3015 -1.9973 0.9812
-1.3283 0.5366 -0.6631 0.9937
-1.3266 0.4026 -0.6417 0.9939
-1.3052 0.2718 -0.6171 0.9941
-1.3385 -0.0840 -0.6208 0.9941
-1.3247 -0.2029 -0.6203 0.9941
-1.3081 -0.3219 -0.6236 0.9941
-1.3182 -0.5885 -0.6682 0.9937
-3.0779 -3.0279 -1.9986 0.9811
-2.1676 -3.7368 -1.9997 0.9811
-1.8260 -3.9161 -2.0001 0.9811
-1.1015 -4.1800 -2.0009 0.9811
-0.7244 -4.2625 -2.0013 0.9811
-0.3414 -4.3111 -2.0018 0.9811
0.0446 -4.3253 -2.0022 0.9811
1.1889 -4.1617 -2.0035 0.9811
1.5557 -4.0399 -2.0039 0.9811
1.9102 -3.8857 -2.0042 0.9811
2.8723 -3.2429 -2.0052 0.9811
3.1506 -2.9742 -2.0055 0.9811
3.4037 -2.6816 -2.0058 0.9811
3.6297 -2.3675 -2.0060 0.9811
3.8268 -2.0345 -2.0061 0.9811
3.9933 -1.6851 -2.0063 0.9811
4.3309 -0.1822 -2.0065 0.9811
4.3298 0.2049 -2.0064 0.9811
4.2941 0.5903 -2.0063 0.9811
3.9836 1.7057 -2.0059 0.9811
3.6162 2.3858 -2.0054 0.9811
2.8541 3.2566 -2.0044 0.9811
2.2291 3.7105 -2.0037 0.9811
1.5299 4.0358 -1.9978 0.9812
0.7771 4.1826 -1.9692 0.9814
-1.4858 4.0423 -1.9935 0.9812
-2.5092 3.5132 -1.9984 0.9812
-2.8121 3.2749 -1.9981 0.9812
-1.3331 0.4497 -0.6512 0.9938
-1.3058 0.3141 -0.6217 0.9941
-1.3262 0.1960 -0.6206 0.9941
-1.3385 0.0769 -0.6206 0.9941
-1.3373 -0.0427 -0.6193 0.9941
-1.3029 -0.2785 -0.6167 0.9941
-1.3279 -0.4106 -0.6434 0.9939
-3.8308 -1.9872 -1.9976 0.9812
-3.6387 -2.3213 -1.9979 0.9812
-3.4176 -2.6370 -1.9981 0.9812
-2.8956 -3.2034 -1.9988 0.9811
-2.5987 -3.4496 -1.9992 0.9811
-0.8548 -4.2380 -2.0012 0.9811
0.2979 -4.3158 -2.0025 0.9811
0.6819 -4.2729 -2.0029 0.9811
1.0605 -4.1960 -2.0033 0.9811
1.4309 -4.0854 -2.0037 0.9811
2.1349 -3.7676 -2.0045 0.9811
2.4628 -3.5627 -2.0048 0.9811
2.7713 -3.3294 -2.0051 0.9811
3.3197 -2.7847 -2.0057 0.9811
3.7624 -2.1509 -2.0061 0.9811
4.0853 -1.4483 -2.0064 0.9811
4.1984 -1.0782 -2.0064 0.9811
4.2779 -0.6994 -2.0065 0.9811
4.3233 -0.3150 -2.0065 0.9811
4.3102 0.4582 -2.0064 0.9811
4.2519 0.8408 -2.0063 0.9811
4.1597 1.2167 -2.0061 0.9811
3.6879 2.2738 -2.0055 0.9811
2.9529 3.1677 -2.0045 0.9811
2.6581 3.4178 -2.0042 0.9811
2.0062 3.8316 -2.0020 0.9811
1.6538 3.9889 -1.9988 0.9811
1.2897 4.1151 -1.9962 0.9812
0.1494 4.1780 -1.9352 0.9817
-2.4003 3.5888 -1.9985 0.9811
-2.7104 3.3598 -1.9982 0.9812
-2.9989 3.1042 -1.9979 0.9812
-1.3164 0.2360 -0.6191 0.9941
-1.3376 0.1181 -0.6216 0.9941
-1.3374 -0.1215 -0.6216 0.9941
-1.3188 -0.3639 -0.6333 0.9940
-1.3322 -0.4992 -0.6585 0.9937
-3.4968 -2.5308 -1.9980 0.9812
-2.7032 -3.3679 -1.9990 0.9811
-2.0625 -3.7961 -1.9998 0.9811
-1.7160 -3.9658 -2.0002 0.9811
-1.3557 -4.1039 -2.0006 0.9811
-0.9844 -4.2094 -2.0010 0.9811
-0.6052 -4.2814 -2.0015 0.9811
-0.2209 -4.3192 -2.0019 0.9811
0.5504 -4.2916 -2.0028 0.9811
0.9312 -4.2262 -2.0032 0.9811
1.6680 -3.9951 -2.0040 0.9811
2.6676 -3.4127 -2.0050 0.9811
2.9619 -3.1616 -2.0053 0.9811
3.2325 -2.8851 -2.0056 0.9811
3.6945 -2.2653 -2.0060 0.9811
4.1633 -1.2065 -2.0064 0.9811
4.3343 -0.0612 -2.0065 0.9811
4.2758 0.7099 -2.0063 0.9811
4.0810 1.4582 -2.0060 0.9811
3.9343 1.8162 -2.0058 0.9811
3.7561 2.1597 -2.0056 0.9811
3.3116 2.7919 -2.0050 0.9811
2.4529 3.5672 -2.0039 0.9811
1.7764 3.9383 -1.9999 0.9811
1.4160 4.0753 -1.9970 0.9812
0.6568 4.1823 -1.9597 0.9815
0.2781 4.1796 -1.9389 0.9817
-0.0955 4.1742 -1.9327 0.9818
-1.5985 4.0003 -1.9941 0.9812
-1.9511 3.8459 -1.9962 0.9812
-2.2892 3.6610 -1.9986 0.9811
-2.6062 3.4416 -1.9983 0.9812
-3.4230 2.6277 -1.9975 0.9812
-1.3277 0.5407 -0.6636 0.9937
-1.3273 0.4068 -0.6426 0.9939
-1.3040 0.2754 -0.6169 0.9941
-1.3329 0.1591 -0.6214 0.9941
-1.3371 0.0394 -0.6192 0.9941
-1.3385 -0.0802 -0.6207 0.9941
-1.3069 -0.3177 -0.6226 0.9941
-3.5726 -2.4221 -1.9979 0.9812
-3.3428 -2.7316 -1.9982 0.9812
-3.0863 -3.0193 -1.9986 0.9811
-2.5016 -3.5210 -1.9993 0.9811
-1.8368 -3.9110 -2.0001 0.9811
-0.3533 -4.3101 -2.0018 0.9811
0.0326 -4.3253 -2.0022 0.9811
0.4184 -4.3061 -2.0026 0.9811
0.8010 -4.2525 -2.0030 0.9811
2.2394 -3.7067 -2.0046 0.9811
2.5615 -3.4927 -2.0049 0.9811
3.1423 -2.9829 -2.0055 0.9811
3.3963 -2.6910 -2.0057 0.9811
3.6231 -2.3776 -2.0060 0.9811
3.8211 -2.0451 -2.0061 0.9811
3.9886 -1.6962 -2.0063 0.9811
4.2269 -0.9605 -2.0065 0.9811
4.2958 -0.5797 -2.0065 0.9811
4.1240 1.3323 -2.0061 0.9811
3.9883 1.6947 -2.0059 0.9811
3.6228 2.3758 -2.0054 0.9811
3.1420 2.9809 -2.0048 0.9811
2.5614 3.4905 -2.0041 0.9811
2.2394 3.7044 -2.0037 0.9811
1.5411 4.0318 -1.9979 0.9812
0.7891 4.1827 -1.9702 0.9814
0.4074 4.1808 -1.9444 0.9817
-0.3405 4.1693 -1.9363 0.9817
-1.8314 3.9024 -1.9954 0.9812
-2.1749 3.7281 -1.9979 0.9812
-2.4994 3.5202 -1.9984 0.9812
-2.8031 3.2827 -1.9981 0.9812
-3.0843 3.0192 -1.9978 0.9812
-3.7723 2.0941 -1.9972 0.9812
-1.3070 0.3182 -0.6227 0.9941
-1.3371 -0.0390 -0.6192 0.9941
-1.3042 -0.2750 -0.6169 0.9941
-1.3272 -0.4064 -0.6425 0.9939
-3.8362 -1.9766 -1.9976 0.9812
-3.6451 -2.3112 -1.9978 0.9812
-3.4249 -2.6275 -1.9981 0.9812
-2.6083 -3.4423 -1.9991 0.9811
-2.2913 -3.6619 -1.9995 0.9811
-1.6047 -4.0124 -2.0003 0.9811
1.0489 -4.1989 -2.0033 0.9811
2.1244 -3.7734 -2.0045 0.9811
2.4529 -3.5695 -2.0048 0.9811
2.7620 -3.3370 -2.0051 0.9811
3.0491 -3.0778 -2.0054 0.9811
3.7565 -2.1613 -2.0061 0.9811
3.9346 -1.8178 -2.0062 0.9811
4.2760 -0.7113 -2.0065 0.9811
4.3224 -0.3270 -2.0065 0.9811
4.2543 0.8290 -2.0063 0.9811
4.1630 1.2051 -2.0061 0.9811
4.0386 1.5715 -2.0059 0.9811
3.8819 1.9253 -2.0057 0.9811
2.3522 3.6341 -2.0038 0.9811
2.0170 3.8262 -2.0021 0.9811
0.5375 4.1817 -1.9516 0.9816
0.1610 4.1782 -1.9355 0.9817
-0.2121 4.1720 -1.9337 0.9818
-0.5872 4.1632 -1.9462 0.9816
-2.3904 3.5954 -1.9985 0.9811
-2.7011 3.3674 -1.9982 0.9812
-3.7064 2.2090 -1.9972 0.9812
-1.3189 0.3643 -0.6334 0.9940
-1.3154 0.2396 -0.6189 0.9941
-1.3374 0.1218 -0.6216 0.9941
-1.3335 0.0020 -0.6173 0.9941
-1.3376 -0.1177 -0.6216 0.9941
-3.8950 -1.8579 -1.9975 0.9812
-3.7141 -2.1982 -1.9978 0.9812
-3.5037 -2.5211 -1.9980 0.9812
-2.4024 -3.5897 -1.9994 0.9811
-1.3671 -4.1001 -2.0006 0.9811
-0.9961 -4.2066 -2.0010 0.9811
-0.6170 -4.2796 -2.0015 0.9811
-0.2329 -4.3185 -2.0019 0.9811
0.1533 -4.3230 -2.0023 0.9811
0.5384 -4.2930 -2.0028 0.9811
0.9195 -4.2288 -2.0032 0.9811
1.2933 -4.1307 -2.0036 0.9811
2.3421 -3.6429 -2.0047 0.9811
2.6581 -3.4200 -2.0050 0.9811
3.2245 -2.8941 -2.0056 0.9811
3.4702 -2.5952 -2.0058 0.9811
4.2521 -0.8421 -2.0065 0.9811
4.3103 -0.4595 -2.0065 0.9811
4.1982 1.0768 -2.0062 0.9811
3.9393 1.8053 -2.0058 0.9811
3.5549 2.4759 -2.0053 0.9811
3.3194 2.7828 -2.0050 0.9811
2.4628 3.5604 -2.0039 0.9811
2.1348 3.7648 -2.0033 0.9811
1.4273 4.0715 -1.9971 0.9812
1.0572 4.1777 -1.9948 0.9812
0.6687 4.1824 -1.9605 0.9815
0.2898 4.1797 -1.9394 0.9817
-0.8370 4.1558 -1.9623 0.9815
-1.2229 4.1270 -1.9924 0.9812
-1.9403 3.8512 -1.9961 0.9812
-2.8935 3.2030 -1.9980 0.9812
-3.1672 2.9317 -1.9977 0.9812
-3.2185 -2.4976 -1.9983 0.9820
-2.9833 -2.7752 -1.9986 0.9820
-2.4435 -3.2622 -1.9993 0.9820
-2.1431 -3.4678 -1.9997 0.9820
-1.8256 -3.6458 -2.0000 0.9820
-1.4934 -3.7949 -2.0004 0.9820
-1.1491 -3.9137 -2.0008 0.9820
-0.4356 -4.0573 -2.0016 0.9820
0.6546 -4.0303 -2.0029 0.9820
1.0117 -3.9566 -2.0032 0.9820
1.3609 -3.8513 -2.0036 0.9820
1.6993 -3.7152 -2.0040 0.9820
2.0243 -3.5494 -2.0043 0.9820
2.8931 -2.8881 -2.0052 0.9820
3.3610 -2.3286 -2.0057 0.9819
4.0799 -0.2859 -2.0062 0.9819
4.0096 0.8044 -2.0060 0.9819
3.6526 1.8369 -2.0055 0.9819
3.4737 2.1551 -2.0052 0.9820
3.0347 2.7373 -2.0047 0.9820
2.7779 2.9966 -2.0044 0.9820
1.8844 3.6233 -2.0033 0.9820
0.8555 3.9820 -1.9978 0.9820
0.1341 4.0656 -1.9954 0.9820
-0.2290 4.0605 -1.9950 0.9820
-0.5904 4.0242 -1.9951 0.9820
-1.2972 3.8587 -1.9969 0.9820
-2.2746 3.3806 -1.9987 0.9820
-2.8383 2.9217 -1.9981 0.9820
-3.3116 2.3704 -1.9976 0.9820
-3.5095 2.0653 -1.9975 0.9820
-1.1548 0.4258 -0.6038 0.9945
-1.1956 -0.0048 -0.5865 0.9947
-1.1936 -0.1117 -0.5880 0.9947
-1.1781 -0.2176 -0.5877 0.9947
-1.1588 -0.3232 -0.5901 0.9947
-1.1538 -0.4360 -0.6050 0.9945
-1.1336 -0.5484 -0.6177 0.9944
-3.2934 -2.3976 -1.9982 0.9820
-2.8158 -2.9455 -1.9988 0.9820
-2.5423 -3.1855 -1.9992 0.9820
-1.6090 -3.7470 -2.0003 0.9820
-1.2686 -3.8764 -2.0007 0.9820
-0.5599 -4.0417 -2.0015 0.9820
-0.1971 -4.0764 -2.0019 0.9820
0.5306 -4.0482 -2.0027 0.9820
1.2419 -3.8910 -2.0035 0.9820
3.2878 -2.4305 -2.0056 0.9819
3.4919 -2.1278 -2.0058 0.9819
3.6680 -1.8079 -2.0059 0.9819
4.0163 -0.7723 -2.0062 0.9819
4.0692 -0.4110 -2.0062 0.9819
4.0896 -0.0464 -2.0062 0.9819
4.0774 0.3186 -2.0061 0.9819
4.0325 0.6810 -2.0060 0.9819
3.9554 1.0379 -2.0059 0.9819
3.8467 1.3865 -2.0057 0.9819
3.5384 2.0476 -2.0053 0.9820
3.3412 2.3547 -2.0051 0.9820
2.3052 3.3724 -2.0038 0.9820
1.3279 3.8563 -2.0006 0.9820
0.9776 3.9551 -1.9984 0.9820
0.2589 4.0602 -1.9956 0.9820
-0.8253 3.9834 -1.9954 0.9820
-1.1779 3.8958 -1.9964 0.9820
-1.8539 3.6294 -1.9991 0.9820
-2.1699 3.4490 -1.9988 0.9820
-2.4685 3.2412 -1.9985 0.9820
-2.7474 3.0076 -1.9982 0.9820
-3.0044 2.7502 -1.9979 0.9820
-1.1501 0.4647 -0.6085 0.9945
-1.1721 0.2441 -0.5873 0.9947
-1.1909 0.1388 -0.5881 0.9947
-1.1958 -0.0750 -0.5877 0.9947
-1.1423 -0.5100 -0.6136 0.9944
-1.1057 -0.6174 -0.6212 0.9944
-2.3516 -3.3294 -1.9994 0.9820
-2.0456 -3.5265 -1.9998 0.9820
-1.7232 -3.6956 -2.0002 0.9820
-1.3869 -3.8353 -2.0006 0.9820
-0.3221 -4.0681 -2.0018 0.9820
0.0420 -4.0815 -2.0022 0.9820
0.4060 -4.0623 -2.0026 0.9820
0.7669 -4.0107 -2.0030 0.9820
1.1219 -3.9270 -2.0034 0.9820
1.4680 -3.8120 -2.0037 0.9820
2.4261 -3.2889 -2.0047 0.9820
2.9727 -2.8063 -2.0053 0.9820
3.2116 -2.5302 -2.0055 0.9819
3.4248 -2.2339 -2.0057 0.9819
4.0863 -0.1719 -2.0062 0.9819
4.0516 0.5569 -2.0061 0.9819
3.7587 1.6094 -2.0056 0.9819
3.1972 2.5462 -2.0049 0.9820
2.4078 3.3003 -2.0039 0.9820
2.1034 3.5013 -2.0035 0.9820
-0.3423 4.0525 -1.9949 0.9820
-0.7025 4.0064 -1.9952 0.9820
-1.0576 3.9293 -1.9960 0.9820
-1.4048 3.8219 -1.9974 0.9820
-1.7417 3.6848 -1.9992 0.9820
-2.0631 3.5142 -1.9989 0.9820
-2.3680 3.3156 -1.9986 0.9820
-2.9187 2.8412 -1.9980 0.9820
-3.3764 2.2769 -1.9976 0.9820
-1.1088 0.6115 -0.6211 0.9944
-1.1859 0.1752 -0.5880 0.9947
-1.1960 0.0687 -0.5877 0.9947
-1.1705 -0.2502 -0.5871 0.9947
-1.1491 -0.4713 -0.6092 0.9945
-1.1233 -0.5827 -0.6207 0.9944
-3.4340 -2.1908 -1.9981 0.9820
-1.8357 -3.6407 -2.0000 0.9820
-1.1600 -3.9105 -2.0008 0.9820
-0.0832 -4.0806 -2.0020 0.9820
0.2811 -4.0726 -2.0024 0.9820
1.0007 -3.9594 -2.0032 0.9820
1.6890 -3.7199 -2.0040 0.9820
2.0144 -3.5550 -2.0043 0.9820
2.3239 -3.3617 -2.0046 0.9820
2.6149 -3.1415 -2.0049 0.9820
2.8850 -2.8961 -2.0052 0.9820
3.1323 -2.6275 -2.0054 0.9819
3.5500 -2.0295 -2.0058 0.9819
3.7172 -1.7048 -2.0060 0.9819
3.8546 -1.3666 -2.0061 0.9819
4.0791 -0.2972 -2.0062 0.9819
4.0893 0.0678 -2.0062 0.9819
3.9248 1.1480 -2.0059 0.9819
2.5081 3.2250 -2.0040 0.9820
2.2100 3.4353 -2.0037 0.9820
1.8944 3.6180 -2.0033 0.9820
1.5634 3.7709 -2.0024 0.9820
0.8665 3.9797 -1.9979 0.9820
-0.5792 4.0257 -1.9951 0.9820
-0.9363 3.9593 -1.9957 0.9820
-1.6273 3.7352 -1.9985 0.9820
-1.9544 3.5760 -1.9990 0.9820
-3.3050 2.3795 -1.9977 0.9820
-3.5038 2.0750 -1.9975 0.9820
-1.1941 0.1054 -0.5880 0.9947
-1.1788 -0.2144 -0.5877 0.9947
-1.1587 -0.3197 -0.5896 0.9947
-1.1541 -0.4325 -0.6046 0.9945
-1.1344 -0.5450 -0.6173 0.9944
-3.3001 -2.3884 -1.9982 0.9820
-3.0743 -2.6737 -1.9985 0.9820
-2.8240 -2.9377 -1.9988 0.9820
-2.5511 -3.1784 -1.9992 0.9820
-0.5711 -4.0401 -2.0015 0.9820
0.1560 -4.0790 -2.0023 0.9820
1.2311 -3.8944 -2.0035 0.9820
1.5739 -3.7697 -2.0038 0.9820
3.0500 -2.7223 -2.0054 0.9820
3.8108 -1.4842 -2.0061 0.9819
4.0142 -0.7835 -2.0062 0.9819
4.0895 -0.0577 -2.0062 0.9819
4.0782 0.3073 -2.0061 0.9819
4.0344 0.6698 -2.0060 0.9819
3.9583 1.0270 -2.0059 0.9819
3.5441 2.0378 -2.0053 0.9820
3.3477 2.3455 -2.0051 0.9820
3.1247 2.6344 -2.0048 0.9820
2.3146 3.3660 -2.0038 0.9820
2.0047 3.5584 -2.0034 0.9820
1.6790 3.7223 -2.0030 0.9820
1.3387 3.8528 -2.0007 0.9820
0.6315 4.0215 -1.9968 0.9820
-0.0930 4.0661 -1.9950 0.9820
-0.4554 4.0414 -1.9950 0.9820
-1.1671 3.8990 -1.9964 0.9820
-1.5114 3.7822 -1.9979 0.9820
-2.1604 3.4550 -1.9988 0.9820
-2.4596 3.2480 -1.9985 0.9820
-2.7391 3.0152 -1.9982 0.9820
-3.4385 2.1817 -1.9975 0.9820
-1.1964 0.0353 -0.5871 0.9947
-1.1959 -0.0717 -0.5877 0.9947
-1.1616 -0.2824 -0.5864 0.9947
-1.1574 -0.3936 -0.5997 0.9946
-1.1429 -0.5065 -0.6132 0.9944
-1.1073 -0.6143 -0.6212 0.9944
-3.1547 -2.5779 -1.9984 0.9820
-2.3608 -3.3228 -1.9994 0.9820
-2.0553 -3.5208 -1.9998 0.9820
-1.7334 -3.6908 -2.0001 0.9820
-1.0504 -3.9416 -2.0009 0.9820
-0.6948 -4.0204 -2.0013 0.9820
-0.3334 -4.0672 -2.0018 0.9820
1.4574 -3.8160 -2.0037 0.9820
2.1130 -3.4976 -2.0044 0.9820
2.9649 -2.8145 -2.0053 0.9820
3.2045 -2.5391 -2.0055 0.9819
3.4186 -2.2433 -2.0057 0.9819
3.6054 -1.9296 -2.0059 0.9819
3.7634 -1.6004 -2.0060 0.9819
3.9882 -0.9063 -2.0062 0.9819
4.0532 -0.5469 -2.0062 0.9819
4.0858 -0.1832 -2.0062 0.9819
4.0858 0.1820 -2.0062 0.9819
4.0531 0.5457 -2.0061 0.9819
3.9880 0.9050 -2.0060 0.9819
3.8911 1.2571 -2.0058 0.9819
3.7631 1.5990 -2.0056 0.9819
2.7016 3.0654 -2.0043 0.9820
2.4169 3.2936 -2.0039 0.9820
2.1131 3.4954 -2.0036 0.9820
1.7926 3.6693 -2.0032 0.9820
0.7549 4.0013 -1.9973 0.9820
0.0318 4.0674 -1.9952 0.9820
-0.6914 4.0083 -1.9952 0.9820
-1.0466 3.9322 -1.9960 0.9820
-1.3942 3.8257 -1.9973 0.9820
-1.7315 3.6895 -1.9992 0.9820
-2.0534 3.5199 -1.9989 0.9820
-3.3700 2.2863 -1.9976 0.9820
-1.1429 0.5069 -0.6133 0.9944
-1.1574 0.3940 -0.5997 0.9946
-1.1615 0.2828 -0.5864 0.9947
-1.1854 0.1785 -0.5880 0.9947
-1.1959 0.0720 -0.5877 0.9947
-1.1964 -0.0349 -0.5871 0.9947
-1.1248 -0.5795 -0.6206 0.9944
-3.2322 -2.4797 -1.9983 0.9820
-2.7410 -3.0155 -1.9989 0.9820
-2.1623 -3.4558 -1.9996 0.9820
-1.8457 -3.6356 -2.0000 0.9820
-1.5144 -3.7865 -2.0004 0.9820
-1.1708 -3.9073 -2.0008 0.9820
-0.4581 -4.0548 -2.0016 0.9820
0.9897 -3.9621 -2.0032 0.9820
1.3395 -3.8587 -2.0036 0.9820
2.6061 -3.1487 -2.0049 0.9820
2.8770 -2.9040 -2.0052 0.9820
3.1250 -2.6361 -2.0054 0.9819
3.9585 -1.0283 -2.0062 0.9819
4.0783 -0.3085 -2.0062 0.9819
4.0895 0.0565 -2.0062 0.9819
4.0680 0.4211 -2.0061 0.9819
4.0140 0.7822 -2.0060 0.9819
3.9280 1.1371 -2.0059 0.9819
3.8106 1.4828 -2.0057 0.9819
3.6627 1.8166 -2.0055 0.9819
3.4857 2.1358 -2.0053 0.9820
3.0498 2.7205 -2.0047 0.9820
2.5170 3.2181 -2.0040 0.9820
1.5740 3.7668 -2.0025 0.9820
-0.5680 4.0273 -1.9950 0.9820
-0.9253 3.9618 -1.9957 0.9820
-1.9445 3.5815 -1.9990 0.9820
-2.5492 3.1779 -1.9984 0.9820
-2.8221 2.9375 -1.9981 0.9820
-3.0725 2.6737 -1.9979 0.9820
-3.2984 2.3887 -1.9977 0.9820
-1.1587 0.3201 -0.5897 0.9947
-1.1787 0.2147 -0.5877 0.9947
-1.1938 0.1088 -0.5880 0.9947
-1.1955 0.0018 -0.5864 0.9947
-1.1941 -0.1051 -0.5880 0.9947
-1.1795 -0.2111 -0.5877 0.9947
-1.1545 -0.4290 -0.6041 0.9945
-1.1353 -0.5415 -0.6170 0.9944
-3.3067 -2.3792 -1.9982 0.9820
-3.0817 -2.6651 -1.9985 0.9820
-2.8321 -2.9298 -1.9988 0.9820
-2.5599 -3.1713 -1.9992 0.9820
-2.2672 -3.3876 -1.9995 0.9820
-0.9400 -3.9697 -2.0011 0.9820
0.5081 -4.0510 -2.0027 0.9820
0.8676 -3.9903 -2.0031 0.9820
1.5634 -3.7741 -2.0038 0.9820
2.2099 -3.4374 -2.0045 0.9820
3.0424 -2.7307 -2.0054 0.9820
3.2743 -2.4487 -2.0056 0.9819
3.6579 -1.8282 -2.0059 0.9819
3.8067 -1.4947 -2.0061 0.9819
3.9250 -1.1493 -2.0061 0.9819
4.0669 -0.4335 -2.0062 0.9819
4.0893 -0.0690 -2.0062 0.9819
4.0791 0.2960 -2.0061 0.9819
3.3542 2.3362 -2.0051 0.9820
3.1320 2.6257 -2.0048 0.9820
2.8849 2.8942 -2.0045 0.9820
2.6148 3.1395 -2.0042 0.9820
2.3239 3.3596 -2.0038 0.9820
2.0146 3.5529 -2.0034 0.9820
1.6893 3.7177 -2.0031 0.9820
0.9996 3.9498 -1.9986 0.9820
0.6427 4.0198 -1.9969 0.9820
-1.1562 3.9021 -1.9964 0.9820
-2.1508 3.4610 -1.9988 0.9820
-2.4506 3.2548 -1.9985 0.9820
-2.9891 2.7668 -1.9980 0.9820
-3.0434 -2.3618 -1.9985 0.9828
-2.8210 -2.6242 -1.9988 0.9828
-2.5761 -2.8659 -1.9991 0.9828
-2.0265 -3.2791 -1.9998 0.9828
-1.7262 -3.4474 -2.0001 0.9828
-1.4121 -3.5883 -2.0005 0.9828
0.2765 -3.8499 -2.0024 0.9828
1.6066 -3.5126 -2.0038 0.9827
2.2059 -3.1722 -2.0045 0.9827
2.4804 -2.9632 -2.0048 0.9827
2.7352 -2.7305 -2.0050 0.9827
3.1776 -2.2015 -2.0054 0.9827
3.7477 -0.9514 -2.0059 0.9827
3.8177 -0.6133 -2.0060 0.9827
3.8572 -0.2703 -2.0060 0.9827
3.8437 0.4194 -2.0059 0.9827
3.7908 0.7605 -2.0058 0.9827
3.0890 2.3221 -2.0048 0.9827
2.8691 2.5880 -2.0045 0.9827
2.6264 2.8332 -2.0042 0.9827
2.3629 3.0557 -2.0039 0.9827
2.0805 3.2537 -2.0036 0.9827
1.4687 3.5704 -2.0028 0.9828
1.1442 3.6865 -2.0025 0.9828
0.8103 3.7717 -2.0013 0.9828
-0.2170 3.8464 -1.9986 0.9828
-1.2284 3.6539 -1.9998 0.9828
-1.8575 3.3763 -1.9991 0.9828
-2.4271 2.9917 -1.9986 0.9828
-2.6840 2.7629 -1.9983 0.9828
-3.1315 2.2415 -1.9979 0.9828
-0.9938 0.5848 -0.5982 0.9948
-1.0390 0.4925 -0.5965 0.9948
-1.0581 0.3902 -0.5851 0.9949
-1.0655 0.2880 -0.5726 0.9950
-1.1060 -0.0044 -0.5738 0.9950
-1.1038 -0.1033 -0.5752 0.9950
-1.0896 -0.2013 -0.5748 0.9950
-1.0638 -0.2967 -0.5729 0.9950
-1.0570 -0.3994 -0.5862 0.9949
-1.0360 -0.5012 -0.5970 0.9948
-3.1144 -2.2672 -1.9984 0.9828
-2.6627 -2.7853 -1.9990 0.9828
-2.4040 -3.0122 -1.9993 0.9828
-2.1261 -3.2152 -1.9996 0.9828
-1.8311 -3.3926 -2.0000 0.9828
-1.5215 -3.5430 -2.0004 0.9828
-0.8680 -3.7584 -2.0011 0.9828
-0.1864 -3.8543 -2.0019 0.9828
0.8412 -3.7683 -2.0030 0.9828
1.1742 -3.6789 -2.0034 0.9827
1.4980 -3.5601 -2.0037 0.9827
1.8099 -3.4128 -2.0041 0.9827
3.1084 -2.2979 -2.0054 0.9827
3.3013 -2.0116 -2.0056 0.9827
3.4678 -1.7093 -2.0057 0.9827
3.7167 -1.0660 -2.0059 0.9827
3.7971 -0.7302 -2.0060 0.9827
3.8471 -0.3886 -2.0060 0.9827
3.8664 -0.0438 -2.0059 0.9827
3.5051 1.6299 -2.0053 0.9827
3.3453 1.9358 -2.0051 0.9827
2.7123 2.7514 -2.0043 0.9827
2.1795 3.1885 -2.0037 0.9827
1.5777 3.5238 -2.0030 0.9828
1.2568 3.6498 -2.0026 0.9828
