ply
format ascii 1.0
element vertex 1594
property float32 x
property float32 y
property float32 z
property float32 I
end_header
-3.6884 4.2011 -1.8583 0.9767
-5.3409 2.8690 -2.0153 0.9748
-5.5778 2.3819 -2.0161 0.9748
-5.7700 1.8754 -2.0167 0.9748
-5.9160 1.3535 -2.0173 0.9747
-6.0647 0.2806 -2.0181 0.9747
-5.7798 -1.8586 -2.0181 0.9747
-5.5900 -2.3665 -2.0178 0.9747
-5.3555 -2.8552 -2.0174 0.9747
-5.0780 -3.3207 -2.0168 0.9747
-4.4038 -4.1673 -2.0154 0.9748
-4.0127 -4.5417 -2.0145 0.9748
-3.5897 -4.8792 -2.0135 0.9748
-3.1384 -5.1773 -2.0125 0.9748
-1.6523 -5.8131 -2.0088 0.9748
-1.1263 -5.9334 -2.0075 0.9749
-0.5921 -6.0062 -2.0062 0.9749
-0.0538 -6.0309 -2.0048 0.9749
1.0175 -5.9361 -2.0020 0.9749
2.5479 -5.4434 -1.9978 0.9750
4.2804 -4.1978 -1.9929 0.9750
4.6354 -3.7972 -1.9918 0.9751
4.9533 -3.3668 -1.9908 0.9751
5.2316 -2.9102 -1.9900 0.9751
4.6176 3.1025 -1.9894 0.9766
4.3237 3.5032 -1.9900 0.9766
3.9953 3.8764 -1.9907 0.9766
3.6247 4.2072 -1.9859 0.9767
2.6149 4.4375 -1.8419 0.9784
2.2097 4.6555 -1.8429 0.9783
1.7865 4.8368 -1.8439 0.9783
-0.0183 5.1689 -1.8485 0.9783
-0.4798 5.1500 -1.8497 0.9783
-0.9380 5.0900 -1.8509 0.9783
-1.3893 4.9893 -1.8521 0.9782
-2.2568 4.6689 -1.8544 0.9782
-3.0543 4.1985 -1.8567 0.9782
-3.5016 4.0063 -1.9028 0.9776
-4.0523 3.8762 -2.0054 0.9765
-4.6958 3.1069 -2.0135 0.9764
-5.1772 2.2246 -2.0151 0.9763
-5.3567 1.7543 -2.0157 0.9763
-5.4933 1.2697 -2.0162 0.9763
-5.5859 0.7747 -2.0167 0.9763
-5.6336 0.2733 -2.0170 0.9763
-5.5932 -0.7324 -2.0172 0.9763
-5.5054 -1.2285 -2.0172 0.9763
-5.3734 -1.7146 -2.0170 0.9763
-4.1003 -3.8628 -2.0145 0.9764
-3.7378 -4.2115 -2.0137 0.9764
-3.3456 -4.5262 -2.0128 0.9764
-2.9270 -4.8043 -2.0118 0.9764
-2.4854 -5.0436 -2.0107 0.9764
-2.0243 -5.2423 -2.0096 0.9764
-1.5476 -5.3988 -2.0084 0.9764
-1.0591 -5.5120 -2.0072 0.9764
-0.0625 -5.6054 -2.0046 0.9765
0.4375 -5.5850 -2.0033 0.9765
0.9335 -5.5200 -2.0020 0.9765
1.4213 -5.4112 -2.0007 0.9765
1.8973 -5.2594 -1.9994 0.9765
2.3574 -5.0660 -1.9982 0.9765
3.6085 -4.2533 -1.9946 0.9766
3.9714 -3.9123 -1.9936 0.9766
5.3999 -1.3321 -1.9889 0.9766
5.4961 -0.8448 -1.9885 0.9767
5.5573 0.1454 -1.9880 0.9767
5.5219 0.6406 -1.9879 0.9767
5.1562 2.0806 -1.9884 0.9767
4.7064 2.9651 -1.9892 0.9766
4.1071 3.7568 -1.9905 0.9766
3.2902 4.3170 -1.9411 0.9772
1.0483 5.0538 -1.8457 0.9783
0.1336 5.1661 -1.8481 0.9783
-1.2417 5.0269 -1.8517 0.9782
-1.6863 4.8992 -1.8529 0.9782
-2.9290 4.2857 -1.8563 0.9782
-3.3135 4.0241 -1.8641 0.9781
-3.9116 3.9683 -1.9926 0.9766
-5.1090 2.3756 -2.0149 0.9763
-5.4532 1.4306 -2.0161 0.9763
-5.5603 0.9386 -2.0165 0.9763
-5.6228 0.4388 -2.0169 0.9763
-5.6402 -0.0646 -2.0171 0.9763
-5.6122 -0.5676 -2.0172 0.9763
-5.5392 -1.0661 -2.0172 0.9763
-5.2605 -2.0332 -2.0168 0.9763
-4.2126 -3.7410 -2.0147 0.9764
-3.8605 -4.1004 -2.0139 0.9764
-3.0675 -4.7169 -2.0121 0.9764
-2.6331 -4.9692 -2.0111 0.9764
-2.1780 -5.1815 -2.0100 0.9764
-1.7061 -5.3520 -2.0088 0.9764
-0.7268 -5.5632 -2.0063 0.9764
-0.2274 -5.6023 -2.0051 0.9765
0.2732 -5.5966 -2.0038 0.9765
0.7709 -5.5463 -2.0025 0.9765
2.2079 -5.1342 -1.9986 0.9765
2.6555 -4.9136 -1.9973 0.9766
3.0815 -4.6543 -1.9962 0.9766
3.4825 -4.3583 -1.9950 0.9766
4.1972 -3.6661 -1.9929 0.9766
4.5054 -3.2755 -1.9920 0.9766
4.7777 -2.8592 -1.9911 0.9766
5.0118 -2.4206 -1.9903 0.9766
5.2060 -1.9631 -1.9897 0.9766
5.5384 0.4780 -1.9879 0.9767
4.5212 3.2423 -1.9896 0.9766
2.8977 4.3156 -1.8589 0.9782
2.4786 4.5160 -1.8422 0.9784
1.6384 4.8901 -1.8443 0.9783
1.1962 5.0197 -1.8454 0.9783
0.2854 5.1589 -1.8477 0.9783
-0.1761 5.1671 -1.8489 0.9783
-0.6369 5.1341 -1.8501 0.9783
-1.0931 5.0601 -1.8513 0.9782
-1.9776 4.7915 -1.8537 0.9782
-2.3987 4.5988 -1.8548 0.9782
-2.8012 4.3691 -1.8560 0.9782
-3.1816 4.1041 -1.8570 0.9782
-4.5037 3.3765 -2.0129 0.9764
-5.0363 2.5244 -2.0146 0.9764
-5.2433 2.0657 -2.0153 0.9763
-5.6072 0.6039 -2.0168 0.9763
-5.6264 -0.4024 -2.0172 0.9763
-5.1287 -2.3444 -2.0166 0.9763
-4.8980 -2.7920 -2.0162 0.9763
-4.3213 -3.6160 -2.0150 0.9763
-3.9799 -3.9856 -2.0142 0.9764
-2.3298 -5.1161 -2.0103 0.9764
-1.8630 -5.3006 -2.0092 0.9764
0.1085 -5.6034 -2.0042 0.9765
1.1013 -5.4877 -2.0016 0.9765
1.5855 -5.3641 -2.0003 0.9765
2.0564 -5.1979 -1.9990 0.9765
2.9439 -4.7438 -1.9965 0.9766
3.7359 -4.1404 -1.9943 0.9766
4.0883 -3.7886 -1.9932 0.9766
4.4078 -3.4071 -1.9923 0.9766
4.9390 -2.5672 -1.9906 0.9766
5.3132 -1.6475 -1.9893 0.9766
5.4377 -1.1666 -1.9888 0.9767
5.2691 1.7737 -1.9882 0.9767
5.0906 2.2371 -1.9885 0.9767
4.8717 2.6829 -1.9889 0.9767
4.6141 3.1077 -1.9894 0.9766
4.3198 3.5080 -1.9900 0.9766
3.6199 4.2111 -1.9858 0.9767
2.6099 4.4404 -1.8419 0.9784
2.2045 4.6580 -1.8429 0.9783
1.3431 4.9814 -1.8450 0.9783
0.8938 5.0845 -1.8461 0.9783
-0.0241 5.1689 -1.8485 0.9783
-0.4855 5.1495 -1.8497 0.9783
-0.9437 5.0890 -1.8509 0.9783
-1.3948 4.9877 -1.8521 0.9782
-1.8355 4.8465 -1.8533 0.9782
-2.2620 4.6664 -1.8545 0.9782
-4.0568 3.8718 -2.0054 0.9765
-4.4012 3.5065 -2.0123 0.9764
-4.9593 2.6711 -2.0144 0.9764
-5.1797 2.2188 -2.0151 0.9763
-5.3587 1.7483 -2.0157 0.9763
-5.5867 0.7685 -2.0167 0.9763
-5.6339 0.2670 -2.0170 0.9763
-5.5923 -0.7387 -2.0172 0.9763
-5.5040 -1.2346 -2.0172 0.9763
-5.1958 -2.1927 -2.0167 0.9763
-4.9784 -2.6470 -2.0163 0.9763
-4.7212 -3.0798 -2.0158 0.9763
-4.4262 -3.4877 -2.0152 0.9763
-3.7330 -4.2157 -2.0137 0.9764
-3.3405 -4.5299 -2.0128 0.9764
-2.9216 -4.8075 -2.0118 0.9764
-2.0185 -5.2445 -2.0096 0.9764
-1.5416 -5.4005 -2.0084 0.9764
-1.0530 -5.5131 -2.0072 0.9764
-0.5565 -5.5816 -2.0059 0.9765
0.9396 -5.5189 -2.0020 0.9765
1.4274 -5.4096 -2.0007 0.9765
1.9031 -5.2573 -1.9994 0.9765
2.8037 -4.8293 -1.9969 0.9766
3.2215 -4.5572 -1.9958 0.9766
3.6132 -4.2492 -1.9946 0.9766
3.9758 -3.9078 -1.9936 0.9766
4.3064 -3.5357 -1.9926 0.9766
5.0827 -2.2663 -1.9901 0.9766
5.4970 -0.8386 -1.9885 0.9767
5.5490 -0.3448 -1.9882 0.9767
5.5571 0.1516 -1.9880 0.9767
5.5212 0.6468 -1.9879 0.9767
5.4416 1.1369 -1.9880 0.9767
5.3188 1.6180 -1.9881 0.9767
5.1539 2.0863 -1.9884 0.9767
4.9481 2.5383 -1.9887 0.9767
4.1029 3.7614 -1.9905 0.9766
3.7452 4.1061 -1.9874 0.9767
2.3401 4.5904 -1.8426 0.9783
1.4886 4.9388 -1.8446 0.9783
0.1278 5.1663 -1.8481 0.9783
-3.3200 4.0228 -1.8652 0.9781
-3.9196 3.9676 -1.9944 0.9766
-5.4548 1.4245 -2.0161 0.9763
-5.5614 0.9324 -2.0165 0.9763
-5.6233 0.4325 -2.0169 0.9763
-5.0544 -2.4997 -2.0165 0.9763
-4.8101 -2.9400 -2.0160 0.9763
-4.2084 -3.7457 -2.0147 0.9764
-3.8559 -4.1046 -2.0139 0.9764
-3.4728 -4.4304 -2.0131 0.9764
-3.0622 -4.7203 -2.0121 0.9764
-2.6275 -4.9721 -2.0111 0.9764
-1.7001 -5.3539 -2.0088 0.9764
-0.2211 -5.6025 -2.0051 0.9765
0.2795 -5.5963 -2.0038 0.9765
0.7771 -5.5454 -2.0024 0.9765
1.2680 -5.4504 -2.0011 0.9765
1.7481 -5.3121 -1.9998 0.9765
2.2136 -5.1316 -1.9986 0.9765
4.2013 -3.6614 -1.9929 0.9766
4.5091 -3.2704 -1.9920 0.9766
4.7808 -2.8539 -1.9911 0.9766
5.0145 -2.4150 -1.9903 0.9766
5.5368 -0.5078 -1.9883 0.9767
5.5379 0.4842 -1.9879 0.9767
5.4726 0.9764 -1.9879 0.9767
5.2128 1.9338 -1.9883 0.9767
4.5176 3.2474 -1.9896 0.9766
3.4870 4.3162 -1.9843 0.9767
2.8907 4.3156 -1.8575 0.9782
1.1906 5.0211 -1.8454 0.9783
-0.1819 5.1669 -1.8489 0.9783
-1.9830 4.7893 -1.8537 0.9782
-2.4039 4.5962 -1.8548 0.9782
-3.1863 4.1006 -1.8571 0.9782
-4.1779 3.7505 -2.0077 0.9764
-4.7924 2.9572 -2.0138 0.9764
-5.0392 2.5188 -2.0146 0.9764
-5.5312 1.0954 -2.0164 0.9763
-5.6260 -0.4087 -2.0172 0.9763
-5.4636 -1.4020 -2.0171 0.9763
-4.6245 -3.2222 -2.0156 0.9763
-4.3172 -3.6208 -2.0150 0.9763
-3.9755 -3.9900 -2.0142 0.9764
-3.6021 -4.3270 -2.0134 0.9764
-2.7730 -4.8936 -2.0114 0.9764
-1.8571 -5.3026 -2.0092 0.9764
-1.3758 -5.4439 -2.0080 0.9764
-0.8840 -5.5415 -2.0067 0.9764
0.1148 -5.6032 -2.0042 0.9765
2.0622 -5.1956 -1.9990 0.9765
2.5160 -4.9878 -1.9977 0.9765
4.4116 -3.4021 -1.9923 0.9766
5.1489 -2.1098 -1.9899 0.9766
5.5197 -0.6705 -1.9884 0.9767
5.5568 -0.1753 -1.9881 0.9767
5.5498 0.3212 -1.9880 0.9767
5.4044 1.3024 -1.9880 0.9767
5.2671 1.7796 -1.9882 0.9767
5.0881 2.2428 -1.9885 0.9767
4.3159 3.5129 -1.9900 0.9766
3.9867 3.8853 -1.9907 0.9766
3.6151 4.2150 -1.9858 0.9767
2.1993 4.6605 -1.8429 0.9783
1.7757 4.8409 -1.8439 0.9783
1.3375 4.9829 -1.8450 0.9783
0.8881 5.0855 -1.8461 0.9783
-1.4004 4.9862 -1.8521 0.9782
-1.8409 4.8445 -1.8533 0.9782
-2.2672 4.6639 -1.8545 0.9782
-3.5162 4.0050 -1.9059 0.9776
-4.0613 3.8675 -2.0055 0.9765
-4.4053 3.5017 -2.0124 0.9764
-5.1822 2.2130 -2.0151 0.9763
-5.3607 1.7424 -2.0157 0.9763
-5.6355 -0.2430 -2.0172 0.9763
-5.5915 -0.7449 -2.0172 0.9763
-5.5026 -1.2408 -2.0172 0.9763
-4.9754 -2.6526 -2.0163 0.9763
-4.4223 -3.4927 -2.0152 0.9763
-1.5355 -5.4022 -2.0084 0.9764
-0.0500 -5.6054 -2.0046 0.9765
1.4334 -5.4079 -2.0007 0.9765
3.2265 -4.5535 -1.9957 0.9766
4.6061 -3.1308 -1.9917 0.9766
4.8650 -2.7062 -1.9908 0.9766
4.0364 3.2704 -1.9908 0.9780
3.3912 3.9361 -1.9910 0.9780
3.0203 4.2143 -1.9869 0.9780
2.0625 4.3456 -1.8434 0.9796
1.6675 4.5146 -1.8443 0.9796
0.4131 4.8032 -1.8475 0.9796
-0.4477 4.8059 -1.8497 0.9795
-1.2963 4.6555 -1.8520 0.9795
-2.9348 4.0343 -1.9118 0.9789
-4.3803 2.8982 -2.0128 0.9778
-4.6232 2.4968 -2.0136 0.9777
-4.8292 2.0750 -2.0142 0.9777
-4.9965 1.6364 -2.0148 0.9777
-5.2101 0.7226 -2.0157 0.9777
-5.2545 0.2549 -2.0160 0.9777
-5.0118 -1.5993 -2.0160 0.9777
-3.8247 -3.6032 -2.0137 0.9777
-3.4867 -3.9286 -2.0129 0.9778
-1.8886 -4.8908 -2.0091 0.9778
-0.9882 -5.1428 -2.0069 0.9778
-0.0583 -5.2304 -2.0045 0.9778
1.7706 -4.9084 -1.9996 0.9779
4.0163 -3.3050 -1.9932 0.9780
4.2933 -2.9323 -1.9924 0.9780
4.5360 -2.5365 -1.9916 0.9780
4.7426 -2.1210 -1.9909 0.9780
4.9115 -1.6889 -1.9903 0.9780
5.0413 -1.2436 -1.9898 0.9780
5.1884 0.1358 -1.9890 0.9780
5.1554 0.5981 -1.9889 0.9780
5.0815 1.0557 -1.9889 0.9780
4.9674 1.5050 -1.9891 0.9780
4.1304 3.1500 -1.9906 0.9780
3.8341 3.5071 -1.9913 0.9780
3.1449 4.1263 -1.9882 0.9780
2.7020 4.2917 -1.9435 0.9785
1.3946 4.6081 -1.8450 0.9796
0.9784 4.7168 -1.8460 0.9796
-1.1586 4.6907 -1.8516 0.9795
-2.7672 4.0490 -1.8794 0.9792
-4.9066 -1.8964 -2.0159 0.9777
-4.7171 -2.3263 -2.0155 0.9777
-4.4897 -2.7372 -2.0151 0.9777
-4.2265 -3.1261 -2.0145 0.9777
-3.6011 -3.8248 -2.0132 0.9777
-2.8616 -4.4002 -2.0115 0.9778
-1.1392 -5.1125 -2.0073 0.9778
-0.6781 -5.1907 -2.0061 0.9778
-0.2122 -5.2274 -2.0049 0.9778
0.2549 -5.2223 -2.0037 0.9779
0.7194 -5.1756 -2.0025 0.9779
1.1776 -5.0877 -2.0012 0.9779
1.6259 -4.9593 -2.0000 0.9779
2.0606 -4.7917 -1.9988 0.9779
2.4785 -4.5860 -1.9977 0.9779
2.8762 -4.3442 -1.9966 0.9779
3.9180 -3.4222 -1.9935 0.9780
4.8602 -1.8327 -1.9905 0.9780
5.0030 -1.3914 -1.9900 0.9780
5.1061 -0.9393 -1.9896 0.9780
5.1687 -0.4799 -1.9892 0.9780
5.1903 -0.0168 -1.9890 0.9780
5.1708 0.4463 -1.9889 0.9780
5.1103 0.9058 -1.9889 0.9780
4.6894 2.2275 -1.9895 0.9780
4.2208 3.0269 -1.9904 0.9780
3.9351 3.3925 -1.9910 0.9780
2.3544 4.2896 -1.8752 0.9793
1.5292 4.5642 -1.8447 0.9796
1.1165 4.6851 -1.8457 0.9796
-0.1644 4.8220 -1.8490 0.9795
-0.5943 4.7910 -1.8501 0.9795
-1.4381 4.6147 -1.8523 0.9795
-1.8452 4.4707 -1.8534 0.9795
-2.6134 4.0763 -1.8556 0.9795
-3.1150 4.0181 -1.9483 0.9785
-4.4673 2.7635 -2.0131 0.9777
-4.6978 2.3548 -2.0138 0.9777
-4.8908 1.9269 -2.0144 0.9777
-5.1580 1.0275 -2.0155 0.9777
-5.2600 0.0944 -2.0161 0.9777
-4.7837 -2.1867 -2.0157 0.9777
-4.3170 -3.0007 -2.0147 0.9777
-4.0308 -3.3729 -2.0141 0.9777
-3.3647 -4.0326 -2.0126 0.9778
-2.9902 -4.3149 -2.0118 0.9778
-2.1736 -4.7730 -2.0098 0.9778
-1.2893 -5.0777 -2.0076 0.9778
-0.3658 -5.2200 -2.0053 0.9778
0.5671 -5.1956 -2.0029 0.9779
1.0277 -5.1211 -2.0016 0.9779
1.4796 -5.0060 -2.0004 0.9779
1.9192 -4.8511 -1.9992 0.9779
3.4872 -3.8647 -1.9948 0.9779
4.8046 -1.9750 -1.9907 0.9780
4.9603 -1.5380 -1.9902 0.9780
5.0766 -1.0891 -1.9897 0.9780
5.1877 -0.1694 -1.9891 0.9780
5.1817 0.2941 -1.9889 0.9780
4.7526 2.0886 -1.9894 0.9780
4.5482 2.5047 -1.9898 0.9780
4.3076 2.9012 -1.9903 0.9780
4.0328 3.2750 -1.9908 0.9780
3.7257 3.6229 -1.9915 0.9780
3.3867 3.9398 -1.9910 0.9780
3.0155 4.2176 -1.9869 0.9780
2.5219 4.2907 -1.9073 0.9789
2.0577 4.3479 -1.8434 0.9796
0.8342 4.7454 -1.8464 0.9796
-0.4531 4.8055 -1.8497 0.9795
-0.8806 4.7488 -1.8508 0.9795
-1.3015 4.6541 -1.8520 0.9795
-1.7126 4.5221 -1.8531 0.9795
-2.1105 4.3539 -1.8542 0.9795
-3.4446 3.9323 -2.0034 0.9779
-3.7931 3.6201 -2.0093 0.9778
-4.1062 3.2715 -2.0119 0.9778
-4.8315 2.0696 -2.0142 0.9777
-4.9984 1.6308 -2.0148 0.9777
-5.1252 1.1786 -2.0153 0.9777
-5.2109 0.7168 -2.0157 0.9777
-5.2548 0.2490 -2.0160 0.9777
-5.2565 -0.2208 -2.0162 0.9777
-5.2160 -0.6890 -2.0162 0.9777
-5.0100 -1.6049 -2.0160 0.9777
-4.8462 -2.0452 -2.0158 0.9777
-3.4822 -3.9324 -2.0129 0.9778
-3.1162 -4.2257 -2.0121 0.9778
-2.7255 -4.4848 -2.0111 0.9778
-2.3134 -4.7078 -2.0102 0.9778
-1.8831 -4.8929 -2.0091 0.9778
-1.4383 -5.0386 -2.0080 0.9778
-0.5193 -5.2080 -2.0057 0.9778
0.8769 -5.1502 -2.0020 0.9779
1.3321 -5.0483 -2.0008 0.9779
1.7761 -4.9064 -1.9996 0.9779
3.3726 -3.9663 -1.9952 0.9779
4.0199 -3.3005 -1.9932 0.9780
4.2966 -2.9274 -1.9924 0.9780
4.5389 -2.5315 -1.9916 0.9780
4.7450 -2.1157 -1.9909 0.9780
4.9134 -1.6834 -1.9903 0.9780
5.0427 -1.2380 -1.9898 0.9780
5.1882 0.1416 -1.9890 0.9780
5.1547 0.6039 -1.9889 0.9780
4.9657 1.5106 -1.9891 0.9780
4.3907 2.7731 -1.9901 0.9780
4.1269 3.1546 -1.9906 0.9780
3.5029 3.8405 -1.9920 0.9780
2.6953 4.2916 -1.9421 0.9785
0.9732 4.7179 -1.8460 0.9796
-0.7404 4.7717 -1.8505 0.9795
-1.1639 4.6894 -1.8516 0.9795
-1.5786 4.5696 -1.8527 0.9795
-2.3730 4.2294 -1.8585 0.9794
-3.6813 3.7263 -2.0073 0.9778
-4.0077 3.3903 -2.0116 0.9778
-4.5502 2.6262 -2.0133 0.9777
-4.7681 2.2106 -2.0140 0.9777
-5.1873 0.8696 -2.0156 0.9777
-5.2450 0.4034 -2.0159 0.9777
-5.0552 -1.4569 -2.0161 0.9777
-3.9255 -3.4939 -2.0139 0.9777
-2.8566 -4.4034 -2.0115 0.9778
-2.4512 -4.6385 -2.0105 0.9778
-1.5861 -4.9950 -2.0084 0.9778
-1.1335 -5.1137 -2.0072 0.9778
0.7252 -5.1748 -2.0024 0.9779
1.6314 -4.9575 -2.0000 0.9779
2.4836 -4.5832 -1.9977 0.9779
2.8810 -4.3409 -1.9966 0.9779
3.6029 -3.7559 -1.9945 0.9780
3.9217 -3.4178 -1.9935 0.9780
4.2092 -3.0529 -1.9927 0.9780
4.4630 -2.6641 -1.9919 0.9780
4.8622 -1.8273 -1.9905 0.9780
5.0045 -1.3858 -1.9900 0.9780
5.1692 -0.4741 -1.9892 0.9780
5.1703 0.4521 -1.9889 0.9780
5.0078 1.3638 -1.9890 0.9780
4.4700 2.6426 -1.9899 0.9780
4.2175 3.0317 -1.9904 0.9780
3.9314 3.3969 -1.9911 0.9780
3.6139 3.7354 -1.9918 0.9780
3.2625 4.0384 -1.9895 0.9780
2.8751 4.2923 -1.9798 0.9781
1.9244 4.4095 -1.8437 0.9796
1.1113 4.6864 -1.8457 0.9796
0.2610 4.8149 -1.8479 0.9796
-0.1698 4.8219 -1.8490 0.9795
-1.0253 4.7207 -1.8512 0.9795
-1.4433 4.6132 -1.8523 0.9795
-2.2428 4.2883 -1.8545 0.9795
-2.6180 4.0734 -1.8556 0.9795
-3.1217 4.0175 -1.9497 0.9784
-3.5666 3.8292 -2.0053 0.9778
-4.2048 3.1451 -2.0122 0.9778
-4.7005 2.3496 -2.0138 0.9777
-4.8929 1.9214 -2.0145 0.9777
-5.0463 1.4776 -2.0150 0.9777
-5.2474 -0.3812 -2.0162 0.9777
-5.0960 -1.3077 -2.0161 0.9777
-4.9585 -1.7569 -2.0159 0.9777
-4.7813 -2.1920 -2.0156 0.9777
-4.5657 -2.6093 -2.0152 0.9777
-4.0270 -3.3774 -2.0141 0.9777
-2.9853 -4.3182 -2.0118 0.9778
-2.5869 -4.5652 -2.0108 0.9778
-2.1682 -4.7754 -2.0098 0.9778
-1.7326 -4.9471 -2.0087 0.9778
-0.3600 -5.2203 -2.0053 0.9778
1.4852 -5.0043 -2.0004 0.9779
2.3482 -4.6552 -1.9981 0.9779
3.1347 -4.1591 -1.9958 0.9779
3.4915 -3.8608 -1.9948 0.9779
3.8201 -3.5322 -1.9938 0.9780
4.3833 -2.7946 -1.9921 0.9780
4.9620 -1.5325 -1.9902 0.9780
5.1532 -0.6259 -1.9893 0.9780
5.1879 -0.1636 -1.9891 0.9780
5.1339 0.7609 -1.9889 0.9780
5.0457 1.2160 -1.9890 0.9780
4.3044 2.9061 -1.9903 0.9780
3.3822 3.9435 -1.9909 0.9780
2.5155 4.2907 -1.9060 0.9789
2.0529 4.3502 -1.8434 0.9796
1.6574 4.5184 -1.8443 0.9796
0.8289 4.7463 -1.8464 0.9796
-0.4585 4.8050 -1.8497 0.9795
-1.3067 4.6527 -1.8520 0.9795
-1.7177 4.5202 -1.8531 0.9795
-2.4966 4.1478 -1.8552 0.9795
-2.9478 4.0331 -1.9144 0.9788
-3.4492 3.9286 -2.0034 0.9779
-3.7973 3.6160 -2.0094 0.9778
-4.1099 3.2669 -2.0119 0.9778
-4.3869 2.8884 -2.0128 0.9778
-5.2117 0.7110 -2.0157 0.9777
-5.2551 0.2431 -2.0160 0.9777
-5.2563 -0.2267 -2.0162 0.9777
-5.2152 -0.6948 -2.0162 0.9777
-5.1323 -1.1573 -2.0162 0.9777
-4.8439 -2.0506 -2.0158 0.9777
-4.4005 -2.8777 -2.0149 0.9777
-3.8166 -3.6117 -2.0137 0.9777
-3.1115 -4.2291 -2.0120 0.9778
-2.7205 -4.4878 -2.0111 0.9778
-1.8776 -4.8949 -2.0091 0.9778
-0.0466 -5.2304 -2.0045 0.9778
0.4199 -5.2105 -2.0033 0.9779
2.2107 -4.7231 -1.9984 0.9779
2.6218 -4.5044 -1.9973 0.9779
3.0116 -4.2502 -1.9962 0.9779
3.3770 -3.9625 -1.9951 0.9779
4.2998 -2.9226 -1.9924 0.9780
3.7808 3.0634 -1.9916 0.9792
3.1783 3.6890 -1.9929 0.9792
1.1788 4.3527 -1.8456 0.9807
-0.8195 4.4472 -1.8508 0.9806
-1.5987 4.2356 -1.8529 0.9806
-2.4292 4.0563 -1.9351 0.9798
-2.8776 3.9556 -2.0020 0.9791
-3.2273 3.6925 -2.0071 0.9790
-3.5497 3.3955 -2.0104 0.9790
-3.8402 3.0665 -2.0113 0.9790
-4.1001 2.7128 -2.0121 0.9790
-4.5200 1.9422 -2.0135 0.9790
-4.6766 1.5316 -2.0140 0.9790
-4.7957 1.1085 -2.0145 0.9790
-1.9399 0.0941 -0.7949 0.9916
-4.8059 -1.0724 -2.0153 0.9789
-4.6907 -1.4968 -2.0152 0.9789
-3.8678 -3.0407 -2.0136 0.9790
-3.5799 -3.3726 -2.0130 0.9790
-3.2636 -3.6772 -2.0122 0.9790
-2.1705 -4.4046 -2.0097 0.9790
-1.3517 -4.7155 -2.0077 0.9790
1.2420 -4.7286 -2.0009 0.9791
1.6581 -4.5963 -1.9998 0.9791
2.8115 -3.9867 -1.9966 0.9791
4.0213 -2.7465 -1.9930 0.9792
4.2487 -2.3759 -1.9923 0.9792
4.7223 -1.1649 -1.9906 0.9792
4.8065 -0.7388 -1.9903 0.9792
4.8525 -0.3070 -1.9900 0.9792
4.8602 0.1272 -1.9898 0.9792
4.7600 0.9889 -1.9898 0.9792
4.6531 1.4098 -1.9899 0.9792
4.5093 1.8195 -1.9901 0.9792
3.8689 2.9506 -1.9914 0.9792
3.2850 3.5935 -1.9927 0.9792
2.9517 3.8729 -1.9929 0.9792
2.1809 4.2664 -1.9610 0.9795
1.7181 4.2617 -1.8806 0.9803
1.3060 4.3155 -1.8453 0.9807
0.1168 4.5146 -1.8483 0.9807
-0.2867 4.5096 -1.8494 0.9807
-0.6883 4.4686 -1.8504 0.9806
-1.0848 4.3919 -1.8515 0.9806
-1.8502 4.1338 -1.8536 0.9806
-2.2771 4.0692 -1.9085 0.9800
-2.7529 4.0280 -1.9968 0.9791
-3.1146 3.7825 -2.0054 0.9790
-3.4479 3.4978 -2.0101 0.9790
-4.0181 2.8318 -2.0119 0.9790
-4.2563 2.4629 -2.0126 0.9790
-4.4605 2.0740 -2.0133 0.9790
-2.1159 0.3572 -0.8782 0.9908
-4.7328 -1.3583 -2.0152 0.9789
-4.4149 -2.1773 -2.0147 0.9789
-3.9559 -2.9259 -2.0138 0.9790
-3.6779 -3.2662 -2.0132 0.9790
-3.3707 -3.5801 -2.0125 0.9790
-3.0367 -3.8651 -2.0117 0.9790
-1.9021 -4.5252 -2.0090 0.9790
-1.4901 -4.6745 -2.0080 0.9790
-1.0665 -4.7863 -2.0070 0.9790
-0.1986 -4.8942 -2.0047 0.9791
0.6736 -4.8461 -2.0025 0.9791
1.5225 -4.6440 -2.0002 0.9791
1.9297 -4.4871 -1.9991 0.9791
2.3210 -4.2947 -1.9980 0.9791
2.6936 -4.0684 -1.9969 0.9791
3.0443 -3.8099 -1.9959 0.9791
3.3704 -3.5214 -1.9950 0.9792
3.6696 -3.2052 -1.9941 0.9792
4.3824 -2.1166 -1.9919 0.9792
4.6863 -1.3033 -1.9908 0.9792
4.7829 -0.8799 -1.9904 0.9792
4.8416 -0.4495 -1.9901 0.9792
4.8619 -0.0158 -1.9899 0.9792
4.6924 1.2723 -1.9898 0.9792
4.5606 1.6861 -1.9900 0.9792
3.9536 2.8353 -1.9912 0.9792
3.6859 3.1776 -1.9918 0.9792
3.0646 3.7848 -1.9932 0.9792
2.7112 4.0378 -1.9905 0.9792
2.3365 4.2570 -1.9874 0.9792
1.4321 4.2745 -1.8450 0.9807
1.0473 4.3947 -1.8490 0.9807
0.2494 4.5084 -1.8480 0.9807
-0.1539 4.5152 -1.8490 0.9807
-0.5565 4.4860 -1.8501 0.9807
-0.9550 4.4210 -1.8512 0.9806
-1.3465 4.3206 -1.8522 0.9806
-1.7275 4.1856 -1.8532 0.9806
-2.1289 4.0815 -1.8840 0.9803
-2.9995 3.8692 -2.0037 0.9791
-3.3416 3.5957 -2.0090 0.9790
-3.6523 3.2860 -2.0108 0.9790
-4.1815 2.5867 -2.0124 0.9790
-4.5777 1.8035 -2.0137 0.9790
-4.7215 1.3883 -2.0142 0.9790
-4.8276 0.9617 -2.0146 0.9789
-1.9525 -0.1396 -0.8011 0.9916
-4.7708 -1.2186 -2.0153 0.9789
-4.0405 -2.8086 -2.0139 0.9790
-3.1494 -3.7746 -2.0120 0.9790
-2.7990 -4.0389 -2.0112 0.9790
-2.4264 -4.2707 -2.0103 0.9790
-1.6271 -4.6295 -2.0083 0.9790
-1.2070 -4.7537 -2.0073 0.9790
-0.7776 -4.8398 -2.0062 0.9790
0.0948 -4.8955 -2.0040 0.9791
0.9623 -4.7952 -2.0017 0.9791
1.7972 -4.5427 -1.9994 0.9791
2.1941 -4.3619 -1.9983 0.9791
2.5732 -4.1465 -1.9973 0.9791
2.9314 -3.8984 -1.9963 0.9791
3.2660 -3.6196 -1.9953 0.9791
3.8539 -2.9788 -1.9935 0.9792
4.1027 -2.6221 -1.9928 0.9792
4.5004 -1.8500 -1.9915 0.9792
4.8265 -0.5917 -1.9902 0.9792
4.8539 0.2755 -1.9898 0.9792
4.4519 1.9564 -1.9902 0.9792
3.7774 3.0676 -1.9916 0.9792
2.0185 4.2650 -1.9312 0.9798
1.5678 4.2594 -1.8576 0.9806
0.3818 4.4983 -1.8477 0.9807
-0.0211 4.5170 -1.8487 0.9807
-1.6034 4.2338 -1.8529 0.9806
-1.9841 4.0932 -1.8617 0.9805
-2.4351 4.0558 -1.9362 0.9798
-2.8821 3.9525 -2.0020 0.9791
-3.5535 3.3915 -2.0105 0.9790
-3.8436 3.0623 -2.0113 0.9790
-4.1032 2.7082 -2.0121 0.9790
-4.3300 2.3321 -2.0129 0.9790
-4.6783 1.5264 -2.0140 0.9790
-1.9480 0.2679 -0.8048 0.9915
-1.9392 0.0919 -0.7946 0.9916
-1.9503 -0.2576 -0.8051 0.9915
-4.3461 -2.3108 -2.0146 0.9790
-3.8643 -3.0450 -2.0136 0.9790
-3.5761 -3.3766 -2.0129 0.9790
-3.2595 -3.6809 -2.0122 0.9790
-2.9169 -3.9554 -2.0114 0.9790
-2.5513 -4.1981 -2.0106 0.9790
-0.9198 -4.8157 -2.0066 0.9790
-0.0492 -4.8971 -2.0044 0.9791
2.0653 -4.4253 -1.9987 0.9791
2.4506 -4.2211 -1.9976 0.9791
2.8160 -3.9836 -1.9966 0.9791
3.4758 -3.4164 -1.9947 0.9792
4.0243 -2.7419 -1.9930 0.9792
4.2514 -2.3711 -1.9923 0.9792
4.4445 -1.9817 -1.9917 0.9792
4.7236 -1.1596 -1.9906 0.9792
4.8073 -0.7334 -1.9903 0.9792
4.8529 -0.3015 -1.9900 0.9792
4.8600 0.1326 -1.9898 0.9792
4.8286 0.5657 -1.9897 0.9792
4.5073 1.8246 -1.9901 0.9792
4.3272 2.2198 -1.9905 0.9792
3.5876 3.2890 -1.9920 0.9792
3.2810 3.5972 -1.9927 0.9792
1.7125 4.2616 -1.8797 0.9803
0.9114 4.4182 -1.8463 0.9807
0.5138 4.4843 -1.8473 0.9807
0.1117 4.5148 -1.8484 0.9807
-1.0898 4.3907 -1.8515 0.9806
-2.2828 4.0687 -1.9094 0.9800
-3.1189 3.7792 -2.0054 0.9790
-3.4518 3.4940 -2.0102 0.9790
-3.7514 3.1735 -2.0110 0.9790
-4.2591 2.4582 -2.0126 0.9790
-4.4629 2.0691 -2.0133 0.9790
-4.7621 1.2436 -2.0144 0.9790
-2.1002 0.3521 -0.8715 0.9908
-1.9106 -0.0240 -0.7820 0.9918
-1.9576 -0.2002 -0.8054 0.9915
-4.8344 -0.9360 -2.0153 0.9789
-4.5903 -1.7801 -2.0150 0.9789
-4.1993 -2.5666 -2.0143 0.9790
-3.9526 -2.9303 -2.0138 0.9790
-3.3667 -3.5839 -2.0125 0.9790
-3.0324 -3.8685 -2.0117 0.9790
-2.6740 -4.1219 -2.0109 0.9790
-1.8971 -4.5273 -2.0090 0.9790
-1.4848 -4.6761 -2.0080 0.9790
-0.6294 -4.8604 -2.0058 0.9790
-0.1932 -4.8944 -2.0047 0.9791
1.5277 -4.6422 -2.0002 0.9791
2.3258 -4.2921 -1.9980 0.9791
2.6981 -4.0653 -1.9969 0.9791
3.0485 -3.8065 -1.9959 0.9791
3.6731 -3.2011 -1.9941 0.9792
4.1803 -2.4954 -1.9925 0.9792
4.6878 -1.2981 -1.9908 0.9792
4.7839 -0.8745 -1.9904 0.9792
4.8432 0.4235 -1.9898 0.9792
4.7861 0.8539 -1.9898 0.9792
4.6910 1.2776 -1.9898 0.9792
3.9505 2.8397 -1.9912 0.9792
3.6824 3.1818 -1.9918 0.9792
3.3850 3.4988 -1.9924 0.9792
3.0604 3.7882 -1.9932 0.9792
2.3317 4.2595 -1.9874 0.9792
1.8606 4.2634 -1.9038 0.9801
1.4274 4.2761 -1.8450 0.9807
1.0421 4.3949 -1.8486 0.9807
-0.1590 4.5151 -1.8491 0.9807
-0.5615 4.4854 -1.8501 0.9807
-0.9600 4.4200 -1.8512 0.9806
-3.3457 3.5921 -2.0091 0.9790
-3.6560 3.2820 -2.0108 0.9790
-3.9359 2.9440 -2.0116 0.9790
-4.5797 1.7984 -2.0137 0.9790
-4.8287 0.9563 -2.0146 0.9789
-1.9147 0.0322 -0.7838 0.9918
-4.7695 -1.2239 -2.0153 0.9789
-4.6408 -1.6444 -2.0151 0.9789
-4.4750 -2.0516 -2.0148 0.9789
-4.0374 -2.8131 -2.0139 0.9790
-3.7692 -3.1612 -2.0134 0.9790
-2.0297 -4.4703 -2.0093 0.9790
-0.7722 -4.8406 -2.0062 0.9790
-0.3371 -4.8875 -2.0051 0.9790
0.9677 -4.7941 -2.0017 0.9791
2.1990 -4.3594 -1.9983 0.9791
2.5778 -4.1436 -1.9973 0.9791
2.9357 -3.8951 -1.9963 0.9791
3.2700 -3.6159 -1.9953 0.9791
3.8572 -2.9745 -1.9935 0.9792
4.1056 -2.6175 -1.9928 0.9792
4.5025 -1.8449 -1.9915 0.9792
4.6479 -1.4355 -1.9909 0.9792
4.7564 -1.0149 -1.9905 0.9792
4.8091 0.7128 -1.9897 0.9792
4.7265 1.1391 -1.9898 0.9792
4.6064 1.5563 -1.9900 0.9792
4.4497 1.9614 -1.9902 0.9792
4.0319 2.7221 -1.9910 0.9792
3.4860 3.3974 -1.9922 0.9792
3.1701 3.6962 -1.9929 0.9792
2.8258 3.9617 -1.9916 0.9792
2.4571 4.1911 -1.9884 0.9792
2.0126 4.2650 -1.9301 0.9798
1.5624 4.2594 -1.8568 0.9806
0.7762 4.4447 -1.8467 0.9807
-1.2235 4.3562 -1.8519 0.9806
-1.6082 4.2321 -1.8529 0.9806
-1.9896 4.0927 -1.8625 0.9805
-2.4410 4.0553 -1.9372 0.9798
-3.2358 3.6856 -2.0073 0.9790
-3.5574 3.3876 -2.0105 0.9790
-3.8471 3.0580 -2.0113 0.9790
-4.3326 2.3273 -2.0129 0.9790
-1.9485 0.2658 -0.8048 0.9915
-1.9385 0.0897 -0.7942 0.9916
-1.9363 -0.0835 -0.7932 0.9917
-1.9498 -0.2598 -0.8051 0.9915
-4.8035 -1.0832 -2.0153 0.9789
-4.5336 -1.9193 -2.0149 0.9789
-4.1187 -2.6934 -2.0141 0.9790
-3.8609 -3.0493 -2.0136 0.9790
-3.2553 -3.6845 -2.0122 0.9790
-2.1606 -4.4094 -2.0097 0.9790
-1.7577 -4.5823 -2.0087 0.9790
-1.3412 -4.7184 -2.0076 0.9790
-0.9144 -4.8167 -2.0066 0.9790
-0.4807 -4.8764 -2.0055 0.9790
0.3932 -4.8787 -2.0032 0.9791
1.2526 -4.7257 -2.0009 0.9791
1.6683 -4.5926 -1.9998 0.9791
2.8204 -3.9804 -1.9966 0.9791
3.1627 -3.7111 -1.9956 0.9791
4.0273 -2.7374 -1.9930 0.9792
4.2540 -2.3663 -1.9923 0.9792
3.5517 2.8777 -1.9922 0.9803
2.6655 3.7193 -1.9942 0.9802
1.9583 4.1259 -1.9904 0.9803
1.1459 4.2313 -1.9105 0.9811
0.7470 4.2218 -1.8685 0.9815
0.3633 4.2243 -1.8478 0.9817
-0.0151 4.2421 -1.8488 0.9817
-0.3937 4.2261 -1.8498 0.9817
-1.1509 4.1333 -1.8699 0.9815
-1.5499 4.1064 -1.9129 0.9810
-2.3594 3.9398 -2.0014 0.9802
-2.7074 3.7217 -2.0057 0.9801
-3.3328 3.1879 -2.0100 0.9801
-3.8493 2.5468 -2.0115 0.9801
-1.5318 0.3541 -0.6852 0.9932
-1.5168 0.2104 -0.6674 0.9933
-1.5294 0.0742 -0.6673 0.9933
-1.5258 -0.3405 -0.6813 0.9932
-1.5823 -0.5049 -0.7239 0.9928
-4.2599 -1.7922 -2.0142 0.9800
-3.6310 -2.8545 -2.0129 0.9800
-3.3608 -3.1662 -2.0123 0.9801
-2.3997 -3.9388 -2.0101 0.9801
-0.8687 -4.5209 -2.0063 0.9801
-0.4616 -4.5780 -2.0053 0.9801
-0.0513 -4.5985 -2.0043 0.9801
1.5572 -4.3168 -2.0000 0.9802
1.9351 -4.1585 -1.9989 0.9802
2.2973 -3.9672 -1.9979 0.9802
2.6408 -3.7446 -1.9970 0.9802
2.9630 -3.4924 -1.9960 0.9802
3.2613 -3.2127 -1.9952 0.9802
3.7774 -2.5799 -1.9936 0.9802
3.9912 -2.2319 -1.9929 0.9802
4.1732 -1.8663 -1.9923 0.9803
4.3219 -1.4861 -1.9918 0.9803
4.4363 -1.0944 -1.9914 0.9803
4.5154 -0.6941 -1.9910 0.9803
4.5588 -0.2884 -1.9908 0.9803
4.5659 0.1195 -1.9906 0.9803
4.4719 0.9291 -1.9905 0.9803
4.3714 1.3244 -1.9907 0.9803
4.2363 1.7094 -1.9909 0.9803
4.0675 2.0808 -1.9912 0.9803
3.3737 3.0859 -1.9926 0.9802
1.7065 4.2329 -1.9890 0.9803
1.2814 4.2340 -1.9279 0.9809
0.8765 4.2252 -1.8806 0.9813
0.4880 4.2174 -1.8503 0.9816
0.1097 4.2399 -1.8485 0.9817
-0.6463 4.1964 -1.8504 0.9816
-1.0229 4.1413 -1.8591 0.9816
-1.4167 4.1159 -1.8970 0.9812
-2.5949 3.7968 -2.0042 0.9801
-3.2371 3.2841 -2.0097 0.9801
-3.5187 2.9834 -2.0105 0.9801
-3.9958 2.3122 -2.0120 0.9801
-1.5957 0.5751 -0.7392 0.9926
-1.5529 0.4074 -0.6997 0.9930
-1.5247 -0.0175 -0.6645 0.9934
-4.1445 -2.0439 -2.0139 0.9800
-3.7137 -2.7468 -2.0131 0.9800
-2.5148 -3.8671 -2.0104 0.9801
-2.1589 -4.0743 -2.0095 0.9801
-0.5961 -4.5633 -2.0057 0.9801
-0.1865 -4.5959 -2.0046 0.9801
1.0356 -4.4740 -2.0014 0.9802
1.4298 -4.3614 -2.0003 0.9802
1.8123 -4.2143 -1.9993 0.9802
2.1800 -4.0337 -1.9983 0.9802
3.4470 -3.0108 -1.9946 0.9802
3.9243 -2.3485 -1.9931 0.9802
4.1169 -1.9884 -1.9925 0.9802
4.2767 -1.6127 -1.9920 0.9803
4.5485 -0.4223 -1.9908 0.9803
4.5676 -0.0148 -1.9906 0.9803
4.5504 0.3928 -1.9905 0.9803
4.4084 1.1953 -1.9906 0.9803
4.2845 1.5840 -1.9908 0.9803
2.8788 3.5553 -1.9937 0.9802
1.0076 4.2283 -1.8944 0.9812
0.6142 4.2180 -1.8577 0.9816
-0.1446 4.2404 -1.8491 0.9817
-0.5226 4.2129 -1.8501 0.9816
-0.8973 4.1539 -1.8521 0.9816
-2.4803 3.8687 -2.0028 0.9801
-2.8220 3.6402 -2.0073 0.9801
-3.1387 3.3773 -2.0094 0.9801
-3.9257 2.4284 -2.0118 0.9801
-4.2974 1.6931 -2.0130 0.9800
-1.5709 0.4619 -0.7136 0.9929
-1.5063 0.3001 -0.6694 0.9933
-1.5249 0.1642 -0.6684 0.9933
-1.5293 -0.1094 -0.6682 0.9933
-1.5083 -0.2445 -0.6659 0.9934
-1.5486 -0.3955 -0.6966 0.9931
-1.5938 -0.5627 -0.7366 0.9927
-4.2030 -1.9212 -2.0141 0.9800
-4.0141 -2.2882 -2.0137 0.9800
-2.9568 -3.5437 -2.0114 0.9801
-2.6278 -3.7920 -2.0106 0.9801
-2.2781 -4.0096 -2.0098 0.9801
-1.9104 -4.1950 -2.0089 0.9801
-1.5278 -4.3467 -2.0080 0.9801
-1.1333 -4.4635 -2.0070 0.9801
-0.7302 -4.5446 -2.0060 0.9801
0.0891 -4.5971 -2.0039 0.9801
0.9037 -4.5033 -2.0017 0.9802
1.3012 -4.4024 -2.0007 0.9802
1.6879 -4.2665 -1.9996 0.9802
2.4169 -3.8946 -1.9976 0.9802
2.7534 -3.6617 -1.9966 0.9802
3.0677 -3.3999 -1.9957 0.9802
3.6201 -2.7982 -1.9941 0.9802
3.8540 -2.4631 -1.9934 0.9802
4.0570 -2.1088 -1.9927 0.9802
4.4673 -0.9584 -1.9912 0.9803
4.5653 -0.1491 -1.9907 0.9803
4.5601 0.2588 -1.9906 0.9803
4.5187 0.6646 -1.9905 0.9803
4.4415 1.0651 -1.9906 0.9803
4.3291 1.4573 -1.9907 0.9803
4.0023 2.2041 -1.9913 0.9803
3.7905 2.5530 -1.9917 0.9803
2.6614 3.7223 -1.9942 0.9802
2.3171 3.9423 -1.9929 0.9802
1.9537 4.1281 -1.9904 0.9803
1.5601 4.2386 -1.9684 0.9805
0.7421 4.2217 -1.8681 0.9815
0.3586 4.2247 -1.8478 0.9817
-0.0198 4.2421 -1.8488 0.9817
-0.3984 4.2257 -1.8498 0.9817
-0.7743 4.1755 -1.8508 0.9816
-1.1558 4.1330 -1.8703 0.9814
-3.3363 3.1842 -2.0100 0.9801
-3.6086 2.8750 -2.0108 0.9801
-4.0650 2.1894 -2.0122 0.9801
-1.5851 0.5172 -0.7267 0.9928
-1.5293 0.0725 -0.6672 0.9933
-1.5189 -0.2006 -0.6677 0.9933
-4.0799 -2.1693 -2.0138 0.9800
-3.3573 -3.1699 -2.0123 0.9801
-3.0601 -3.4557 -2.0116 0.9801
-2.7385 -3.7135 -2.0109 0.9801
-2.3953 -3.9415 -2.0101 0.9801
-2.0332 -4.1377 -2.0092 0.9801
-0.8636 -4.5219 -2.0063 0.9801
-0.0462 -4.5986 -2.0042 0.9801
1.9398 -4.1563 -1.9989 0.9802
2.3017 -3.9646 -1.9979 0.9802
2.9669 -3.4891 -1.9960 0.9802
3.2649 -3.2091 -1.9952 0.9802
3.5368 -2.9038 -1.9943 0.9802
3.7803 -2.5757 -1.9936 0.9802
3.9937 -2.2274 -1.9929 0.9802
4.4375 -1.0894 -1.9914 0.9803
4.5162 -0.6890 -1.9910 0.9803
4.5591 -0.2833 -1.9908 0.9803
4.5658 0.1246 -1.9906 0.9803
4.5363 0.5314 -1.9905 0.9803
4.3699 1.3293 -1.9907 0.9803
4.0652 2.0854 -1.9912 0.9803
3.6314 2.7759 -1.9921 0.9803
3.3702 3.0897 -1.9926 0.9802
3.0821 3.3792 -1.9933 0.9802
2.0750 4.0704 -1.9912 0.9803
0.4832 4.2174 -1.8501 0.9816
0.1049 4.2401 -1.8485 0.9817
-0.6510 4.1957 -1.8504 0.9816
-1.0278 4.1410 -1.8595 0.9816
-2.5992 3.7940 -2.0043 0.9801
-3.2408 3.2805 -2.0097 0.9801
-3.5220 2.9795 -2.0105 0.9801
-3.7753 2.6544 -2.0113 0.9801
-3.9984 2.3078 -2.0120 0.9801
-4.1897 1.9424 -2.0126 0.9801
-1.5954 0.5729 -0.7388 0.9926
-1.5522 0.4054 -0.6992 0.9930
-1.5059 0.2525 -0.6655 0.9934
-1.5290 0.1176 -0.6683 0.9933
-1.5015 -0.2907 -0.6665 0.9933
-3.9422 -2.4095 -2.0135 0.9800
-3.7106 -2.7509 -2.0131 0.9800
-2.8469 -3.6319 -2.0111 0.9801
-2.1543 -4.0767 -2.0095 0.9801
-1.3942 -4.3906 -2.0077 0.9801
-0.5910 -4.5639 -2.0056 0.9801
0.2293 -4.5914 -2.0035 0.9801
0.6377 -4.5502 -2.0024 0.9802
1.4347 -4.3598 -2.0003 0.9802
1.8170 -4.2122 -1.9993 0.9802
2.1845 -4.0312 -1.9983 0.9802
2.8634 -3.5754 -1.9963 0.9802
3.1696 -3.3042 -1.9954 0.9802
3.9269 -2.3441 -1.9931 0.9802
4.4038 -1.2195 -1.9915 0.9803
4.4942 -0.8215 -1.9911 0.9803
4.5500 0.3978 -1.9905 0.9803
4.4070 1.2002 -1.9906 0.9803
4.1245 1.9648 -1.9911 0.9803
3.7111 2.6677 -1.9919 0.9803
3.4593 2.9890 -1.9924 0.9802
3.1798 3.2867 -1.9930 0.9802
1.4141 4.2363 -1.9464 0.9807
1.0026 4.2282 -1.8938 0.9812
0.6094 4.2179 -1.8573 0.9816
-0.1493 4.2403 -1.8491 0.9817
-0.5273 4.2123 -1.8501 0.9816
-0.9021 4.1534 -1.8523 0.9816
-2.1239 4.0608 -1.9972 0.9802
-2.4847 3.8660 -2.0029 0.9801
-3.1425 3.3739 -2.0094 0.9801
-3.9284 2.4241 -2.0118 0.9801
-4.2993 1.6883 -2.0130 0.9800
-1.5053 0.2981 -0.6688 0.9933
-1.5078 -0.2462 -0.6658 0.9934
-1.5494 -0.3976 -0.6971 0.9930
-1.5942 -0.5649 -0.7371 0.9926
-4.2009 -1.9259 -2.0140 0.9800
-4.0116 -2.2926 -2.0137 0.9800
-3.7902 -2.6408 -2.0132 0.9800
-3.5385 -2.9677 -2.0127 0.9801
-3.2586 -3.2705 -2.0121 0.9801
-2.6236 -3.7949 -2.0106 0.9801
-2.2736 -4.0122 -2.0098 0.9801
-1.5229 -4.3484 -2.0080 0.9801
-1.1283 -4.4648 -2.0070 0.9801
-0.3165 -4.5895 -2.0049 0.9801
0.0942 -4.5970 -2.0039 0.9801
0.9087 -4.5023 -2.0017 0.9802
1.3061 -4.4009 -2.0007 0.9802
1.6927 -4.2646 -1.9996 0.9802
2.0653 -4.0944 -1.9986 0.9802
2.4212 -3.8919 -1.9976 0.9802
2.7575 -3.6586 -1.9966 0.9802
3.3608 -3.1075 -1.9949 0.9802
3.6233 -2.7941 -1.9941 0.9802
4.0594 -2.1042 -1.9927 0.9802
4.2297 -1.7332 -1.9921 0.9803
4.3664 -1.3485 -1.9916 0.9803
4.4684 -0.9534 -1.9912 0.9803
4.5654 -0.1440 -1.9907 0.9803
4.5598 0.2639 -1.9906 0.9803
4.5180 0.6696 -1.9905 0.9803
3.9999 2.2086 -1.9913 0.9803
3.2747 3.1915 -1.9928 0.9802
0.7372 4.2215 -1.8677 0.9815
-0.0245 4.2421 -1.8488 0.9817
-0.4031 4.2252 -1.8498 0.9817
-0.7789 4.1747 -1.8508 0.9816
-1.1607 4.1327 -1.8708 0.9814
-1.5601 4.1056 -1.9141 0.9810
-1.9798 4.0727 -1.9736 0.9804
-2.3683 3.9347 -2.0015 0.9802
-2.7159 3.7158 -2.0059 0.9801
-3.0415 3.4643 -2.0091 0.9801
-3.6118 2.8710 -2.0108 0.9801
-3.8550 2.5382 -2.0115 0.9801
-4.2474 1.8138 -2.0128 0.9800
-1.5847 0.5151 -0.7262 0.9928
-1.5301 0.3501 -0.6841 0.9932
-1.5175 0.2070 -0.6675 0.9933
-1.5185 -0.2023 -0.6676 0.9933
-4.2559 -1.8017 -2.0141 0.9800
-3.6246 -2.8626 -2.0129 0.9800
-2.7344 -3.7166 -2.0109 0.9801
-2.0286 -4.1399 -2.0092 0.9801
-1.2593 -4.4304 -2.0073 0.9801
-0.8586 -4.5228 -2.0063 0.9801
0.3692 -4.5815 -2.0032 0.9801
0.7761 -4.5278 -2.0021 0.9802
1.5668 -4.3132 -2.0000 0.9802
1.9444 -4.1541 -1.9989 0.9802
2.3061 -3.9620 -1.9979 0.9802
2.6491 -3.7386 -1.9969 0.9802
2.9707 -3.4858 -1.9960 0.9802
3.5400 -2.8998 -1.9943 0.9802
3.9961 -2.2229 -1.9929 0.9802
2.8118 3.2636 -1.9940 0.9812
2.5102 3.5027 -1.9947 0.9812
1.8477 3.8929 -1.9947 0.9812
1.4916 4.0385 -1.9928 0.9812
1.1246 4.1528 -1.9915 0.9812
0.7435 4.2019 -1.9752 0.9814
0.3603 4.1897 -1.9465 0.9816
-0.0148 4.1748 -1.9325 0.9818
-0.7624 4.1371 -1.9473 0.9816
-1.1455 4.1138 -1.9767 0.9814
-1.8816 3.8928 -2.0014 0.9811
-3.1372 3.0008 -2.0095 0.9810
-3.6232 2.3973 -2.0110 0.9810
-3.8239 2.0651 -2.0116 0.9810
-1.3228 0.5684 -0.6664 0.9937
-1.3018 0.3009 -0.6185 0.9941
-1.3383 0.0649 -0.6202 0.9941
-1.3379 -0.0547 -0.6198 0.9941
-3.1634 -2.9802 -2.0117 0.9810
-1.1948 -4.1681 -2.0071 0.9811
-0.8178 -4.2561 -2.0061 0.9811
-0.4346 -4.3100 -2.0051 0.9811
-0.0483 -4.3294 -2.0041 0.9811
1.0983 -4.1813 -2.0011 0.9811
1.4662 -4.0646 -2.0001 0.9811
3.0713 -3.0255 -1.9956 0.9812
4.2528 -0.6537 -1.9917 0.9812
4.3004 0.1125 -1.9913 0.9812
4.2731 0.4958 -1.9912 0.9812
4.2118 0.8750 -1.9912 0.9812
4.1172 1.2474 -1.9913 0.9812
3.9899 1.6099 -1.9915 0.9812
3.8309 1.9598 -1.9918 0.9812
3.6414 2.2942 -1.9922 0.9812
3.4230 2.6105 -1.9927 0.9812
2.9062 3.1792 -1.9938 0.9812
1.9621 3.8383 -1.9954 0.9812
1.6102 3.9940 -1.9934 0.9812
1.2465 4.1187 -1.9919 0.9812
0.8723 4.2051 -1.9879 0.9812
0.4853 4.1941 -1.9543 0.9816
0.1081 4.1800 -1.9355 0.9817
-1.0181 4.1218 -1.9653 0.9815
-1.7654 3.9443 -2.0003 0.9811
-2.4471 3.5806 -2.0075 0.9811
-2.7581 3.3495 -2.0084 0.9811
-3.0472 3.0914 -2.0093 0.9810
-1.3333 0.4805 -0.6560 0.9938
-1.3199 0.2228 -0.6196 0.9941
-1.3382 0.1044 -0.6213 0.9941
-1.3361 -0.1351 -0.6216 0.9941
-1.3116 -0.2524 -0.6182 0.9941
-1.3222 -0.3795 -0.6367 0.9940
-1.3309 -0.5144 -0.6605 0.9937
-3.9008 -1.9237 -2.0133 0.9810
-3.2500 -2.8861 -2.0119 0.9810
-2.9786 -3.1636 -2.0113 0.9810
-2.6836 -3.4156 -2.0106 0.9810
-2.0322 -3.8353 -2.0091 0.9811
-1.6812 -3.9996 -2.0083 0.9811
-1.3171 -4.1318 -2.0074 0.9811
-0.9427 -4.2309 -2.0064 0.9811
-0.1756 -4.3268 -2.0045 0.9811
0.5956 -4.2848 -2.0025 0.9811
1.3463 -4.1067 -2.0005 0.9811
1.7065 -3.9682 -1.9995 0.9811
2.0528 -3.7983 -1.9985 0.9811
2.6927 -3.3699 -1.9967 0.9812
3.2461 -2.8354 -1.9951 0.9812
3.6958 -2.2118 -1.9937 0.9812
4.0278 -1.5189 -1.9926 0.9812
4.2320 -0.7785 -1.9918 0.9812
4.2839 -0.3977 -1.9915 0.9812
4.2858 0.3699 -1.9912 0.9812
4.2357 0.7508 -1.9912 0.9812
3.8867 1.8462 -1.9917 0.9812
3.7071 2.1860 -1.9921 0.9812
3.2611 2.8114 -1.9930 0.9812
2.7112 3.3483 -1.9942 0.9812
2.0745 3.7796 -1.9957 0.9812
0.6113 4.1982 -1.9638 0.9815
0.2315 4.1849 -1.9401 0.9817
-0.5149 4.1508 -1.9361 0.9817
-0.8921 4.1295 -1.9556 0.9816
-1.2793 4.1050 -1.9903 0.9812
-2.0008 3.8358 -2.0026 0.9811
-2.6580 3.4287 -2.0081 0.9811
-2.9546 3.1792 -2.0090 0.9811
-3.4753 2.6055 -2.0105 0.9810
-3.6951 2.2858 -2.0112 0.9810
-1.3299 0.5240 -0.6616 0.9937
-1.3089 0.2607 -0.6178 0.9941
-1.3350 0.1438 -0.6215 0.9941
-1.3359 0.0240 -0.6185 0.9941
-1.3221 -0.2143 -0.6199 0.9941
-1.3149 -0.6011 -0.6692 0.9936
-3.5702 -2.4817 -2.0126 0.9810
-2.1444 -3.7744 -2.0094 0.9810
-1.7983 -3.9490 -2.0085 0.9811
-1.0669 -4.2020 -2.0067 0.9811
-0.6874 -4.2784 -2.0058 0.9811
0.0838 -4.3281 -2.0038 0.9811
0.8509 -4.2400 -2.0018 0.9811
1.9405 -3.8576 -1.9988 0.9811
2.8889 -3.2017 -1.9961 0.9812
3.1618 -2.9300 -1.9953 0.9812
3.4093 -2.6352 -1.9946 0.9812
3.8209 -1.9860 -1.9933 0.9812
4.1109 -1.2747 -1.9923 0.9812
4.2706 -0.5236 -1.9916 0.9812
4.1832 1.0032 -1.9913 0.9812
3.9391 1.7310 -1.9916 0.9812
3.5700 2.4044 -1.9923 0.9812
2.5063 3.5055 -1.9947 0.9812
2.1844 3.7165 -1.9955 0.9812
1.8433 3.8949 -1.9946 0.9812
-1.1504 4.1135 -1.9771 0.9813
-1.5290 4.0372 -1.9983 0.9812
-2.2297 3.7137 -2.0051 0.9811
-2.8594 3.2642 -2.0087 0.9811
-3.3967 2.7062 -2.0103 0.9810
-1.3231 0.5668 -0.6663 0.9937
-1.3313 0.4344 -0.6482 0.9938
-1.3289 0.1828 -0.6209 0.9941
-1.3382 0.0634 -0.6201 0.9941
-1.3380 -0.0562 -0.6199 0.9941
-1.3246 -0.5590 -0.6655 0.9937
-3.8401 -2.0418 -2.0132 0.9810
-3.6419 -2.3758 -2.0128 0.9810
-3.4146 -2.6906 -2.0123 0.9810
-2.8803 -3.2527 -2.0111 0.9810
-1.9139 -3.8950 -2.0088 0.9811
-0.8130 -4.2570 -2.0061 0.9811
0.7260 -4.2639 -2.0021 0.9811
1.4708 -4.0630 -2.0001 0.9811
2.1674 -3.7333 -1.9982 0.9812
2.4907 -3.5234 -1.9973 0.9812
2.7939 -3.2857 -1.9964 0.9812
3.0746 -3.0221 -1.9956 0.9812
3.3307 -2.7346 -1.9948 0.9812
4.1793 -1.0260 -1.9920 0.9812
4.2109 0.8798 -1.9912 0.9812
4.1158 1.2520 -1.9913 0.9812
3.1740 2.9099 -1.9932 0.9812
2.9027 3.1824 -1.9938 0.9812
2.6080 3.4299 -1.9945 0.9812
1.2419 4.1200 -1.9919 0.9812
0.8674 4.2050 -1.9874 0.9813
-0.2693 4.1632 -1.9311 0.9818
-0.6430 4.1438 -1.9411 0.9817
-2.1182 3.7753 -2.0038 0.9811
-2.7618 3.3464 -2.0084 0.9811
-3.3153 2.8046 -2.0101 0.9810
-3.5536 2.4985 -2.0108 0.9810
-3.7636 2.1722 -2.0114 0.9810
-1.3333 0.4788 -0.6558 0.9938
-1.3138 0.3431 -0.6285 0.9940
-1.3111 -0.2539 -0.6182 0.9941
-1.3308 -0.5161 -0.6607 0.9937
-3.7104 -2.2678 -2.0129 0.9810
-3.4925 -2.5892 -2.0124 0.9810
-3.2467 -2.8898 -2.0119 0.9810
-2.9751 -3.1670 -2.0113 0.9810
-2.3631 -3.6427 -2.0099 0.9810
-2.0279 -3.8375 -2.0091 0.9811
-1.6767 -4.0015 -2.0082 0.9811
-1.3124 -4.1333 -2.0074 0.9811
-0.5564 -4.2966 -2.0055 0.9811
1.3509 -4.1051 -2.0004 0.9811
2.0570 -3.7960 -1.9985 0.9811
2.9848 -3.1116 -1.9958 0.9812
4.1476 -1.1485 -1.9921 0.9812
4.2328 -0.7738 -1.9918 0.9812
4.3020 -0.0091 -1.9913 0.9812
4.2349 0.7556 -1.9912 0.9812
4.0337 1.4964 -1.9915 0.9812
3.8846 1.8505 -1.9917 0.9812
3.7046 2.1901 -1.9921 0.9812
3.4952 2.5125 -1.9925 0.9812
2.9947 3.0954 -1.9936 0.9812
2.7074 3.3513 -1.9942 0.9812
1.7230 3.9480 -1.9939 0.9812
1.3628 4.0826 -1.9923 0.9812
-0.8969 4.1292 -1.9559 0.9815
-2.3436 3.6464 -2.0064 0.9811
-2.6619 3.4257 -2.0081 0.9811
-3.2310 2.9005 -2.0098 0.9810
-1.3094 0.2593 -0.6179 0.9941
-1.3352 0.1423 -0.6216 0.9941
-1.3358 0.0225 -0.6184 0.9941
-1.3384 -0.0972 -0.6212 0.9941
-1.3217 -0.2158 -0.6199 0.9941
-1.3122 -0.3367 -0.6271 0.9940
-1.3335 -0.4725 -0.6549 0.9938
-1.3145 -0.6026 -0.6694 0.9936
-3.5674 -2.4856 -2.0126 0.9810
-3.3306 -2.7933 -2.0121 0.9810
-2.4696 -3.5721 -2.0102 0.9810
-2.1402 -3.7767 -2.0094 0.9810
-0.2980 -4.3208 -2.0048 0.9811
0.4742 -4.3007 -2.0028 0.9811
0.8556 -4.2391 -2.0018 0.9811
2.8925 -3.1984 -1.9961 0.9812
3.1650 -2.9264 -1.9953 0.9812
3.4122 -2.6314 -1.9946 0.9812
3.9836 -1.6323 -1.9927 0.9812
4.2085 -0.8979 -1.9919 0.9812
4.2711 -0.5188 -1.9916 0.9812
4.2999 -0.1356 -1.9914 0.9812
4.2946 0.2485 -1.9912 0.9812
4.1821 1.0079 -1.9913 0.9812
4.0758 1.3771 -1.9914 0.9812
3.9372 1.7354 -1.9916 0.9812
3.7672 2.0801 -1.9920 0.9812
3.5673 2.4084 -1.9924 0.9812
2.8045 3.2699 -1.9940 0.9812
2.5024 3.5083 -1.9947 0.9812
2.1803 3.7190 -1.9955 0.9812
1.8390 3.8970 -1.9946 0.9812
0.7338 4.2016 -1.9743 0.9814
0.3509 4.1894 -1.9460 0.9816
-0.3966 4.1569 -1.9329 0.9818
-3.1439 2.9938 -2.0095 0.9810
-3.3998 2.7024 -2.0103 0.9810
-3.6286 2.3892 -2.0110 0.9810
-1.3234 0.5651 -0.6661 0.9937
-1.3292 0.1813 -0.6209 0.9941
-1.3382 0.0619 -0.6201 0.9941
-1.3381 -0.0577 -0.6199 0.9941
-1.2992 -0.2930 -0.6165 0.9941
-1.3243 -0.5606 -0.6657 0.9937
-3.8378 -2.0460 -2.0131 0.9810
-3.6392 -2.3798 -2.0128 0.9810
-3.4116 -2.6944 -2.0123 0.9810
-2.2506 -3.7127 -2.0096 0.9810
-1.1855 -4.1707 -2.0070 0.9811
-0.8083 -4.2579 -2.0061 0.9811
-0.0386 -4.3295 -2.0041 0.9811
0.3476 -4.3135 -2.0031 0.9811
0.7307 -4.2631 -2.0021 0.9811
1.8309 -3.9116 -1.9991 0.9811
2.1715 -3.7308 -1.9982 0.9812
3.5629 -2.4217 -1.9941 0.9812
3.3723 2.2658 -1.9929 0.9821
3.1574 2.5583 -1.9934 0.9821
2.6540 3.0804 -1.9945 0.9820
2.3693 3.3060 -1.9951 0.9820
1.4104 3.8185 -1.9968 0.9820
-0.0144 4.0672 -1.9951 0.9820
-0.3774 4.0515 -1.9960 0.9820
-1.4412 3.8183 -2.0019 0.9820
-1.7787 3.6799 -2.0049 0.9820
-2.1018 3.5096 -2.0067 0.9819
-2.4076 3.3095 -2.0075 0.9819
-2.9598 2.8312 -2.0091 0.9819
-3.2018 2.5567 -2.0098 0.9819
-3.4183 2.2616 -2.0105 0.9819
-1.1140 0.6016 -0.6210 0.9944
-1.1655 0.2694 -0.5868 0.9947
-1.1876 0.1647 -0.5881 0.9947
-1.1963 0.0580 -0.5875 0.9947
-1.1888 -0.1557 -0.5881 0.9947
-1.1585 -0.3697 -0.5965 0.9946
-1.1473 -0.4827 -0.6105 0.9945
-1.1183 -0.5930 -0.6209 0.9944
-2.7208 -3.0657 -2.0106 0.9819
-2.1312 -3.4981 -2.0092 0.9819
-1.1274 -3.9327 -2.0068 0.9819
1.3837 -3.8359 -2.0003 0.9820
1.7196 -3.6954 -1.9993 0.9820
2.0416 -3.5257 -1.9984 0.9820
2.6335 -3.1040 -1.9968 0.9820
2.8988 -2.8556 -1.9960 0.9820
3.1409 -2.5846 -1.9953 0.9820
3.3578 -2.2933 -1.9946 0.9820
3.8422 -1.3212 -1.9930 0.9821
3.9439 -0.9729 -1.9926 0.9821
4.0144 -0.6171 -1.9923 0.9821
4.0530 -0.2564 -1.9921 0.9821
4.0336 0.4680 -1.9918 0.9821
3.9758 0.8260 -1.9919 0.9821
3.7662 1.5197 -1.9922 0.9821
3.6161 1.8499 -1.9924 0.9821
3.4373 2.1656 -1.9928 0.9821
3.2310 2.4641 -1.9932 0.9821
2.7431 3.0008 -1.9943 0.9820
2.4652 3.2346 -1.9949 0.9820
1.8525 3.6238 -1.9964 0.9820
1.5223 3.7762 -1.9972 0.9820
0.1051 4.0655 -1.9949 0.9820
-0.2581 4.0601 -1.9956 0.9820
-0.6197 4.0235 -1.9969 0.9820
-1.3277 3.8573 -2.0010 0.9820
-1.9974 3.5694 -2.0064 0.9819
-2.3089 3.3784 -2.0072 0.9819
-2.6022 3.1603 -2.0081 0.9819
-3.1249 2.6495 -2.0096 0.9819
-3.3499 2.3609 -2.0103 0.9819
-3.5483 2.0532 -2.0109 0.9819
-1.1381 0.5292 -0.6157 0.9944
-1.1557 0.4165 -0.6026 0.9945
-1.1949 0.0932 -0.5879 0.9947
-1.1762 -0.2264 -0.5875 0.9947
-1.1527 -0.4455 -0.6062 0.9945
-3.5027 -2.1355 -2.0123 0.9819
-3.0660 -2.7228 -2.0114 0.9819
-2.2334 -3.4343 -2.0095 0.9819
-1.2427 -3.8985 -2.0071 0.9819
-0.8895 -3.9920 -2.0062 0.9819
-0.5296 -4.0536 -2.0053 0.9820
-0.1657 -4.0828 -2.0044 0.9820
0.5620 -4.0434 -2.0025 0.9820
0.9201 -3.9753 -2.0015 0.9820
2.2484 -3.3961 -1.9979 0.9820
3.0639 -2.6762 -1.9955 0.9820
3.2893 -2.3913 -1.9948 0.9820
3.4884 -2.0877 -1.9942 0.9821
3.6598 -1.7676 -1.9936 0.9821
3.8019 -1.4337 -1.9931 0.9821
3.9139 -1.0885 -1.9927 0.9821
3.9947 -0.7349 -1.9924 0.9821
4.0456 0.3492 -1.9919 0.9821
3.9193 1.0627 -1.9919 0.9821
3.6688 1.7427 -1.9923 0.9821
3.3018 2.3679 -1.9931 0.9821
2.2676 3.3772 -1.9954 0.9820
1.9580 3.5673 -1.9961 0.9820
1.6325 3.7293 -1.9969 0.9820
0.9429 3.9568 -1.9952 0.9820
0.5860 4.0241 -1.9947 0.9820
-0.1386 4.0654 -1.9953 0.9820
-0.5010 4.0390 -1.9964 0.9820
-1.5578 3.7743 -2.0029 0.9820
-1.8913 3.6259 -2.0060 0.9819
-2.2083 3.4444 -2.0070 0.9819
-2.5078 3.2350 -2.0078 0.9819
-3.0452 2.7399 -2.0094 0.9819
-1.1290 0.5659 -0.6195 0.9944
-1.1578 -0.2957 -0.5862 0.9947
-1.1399 -0.5211 -0.6148 0.9944
-3.5642 -2.0317 -2.0124 0.9819
-2.0232 -3.5610 -2.0090 0.9819
-1.6967 -3.7258 -2.0082 0.9819
-1.3570 -3.8608 -2.0074 0.9819
-1.0067 -3.9647 -2.0065 0.9819
-0.6486 -4.0369 -2.0056 0.9819
-0.2857 -4.0768 -2.0047 0.9820
0.4430 -4.0588 -2.0028 0.9820
1.1562 -3.9118 -2.0009 0.9820
1.8313 -3.6406 -1.9990 0.9820
2.1479 -3.4612 -1.9981 0.9820
2.4471 -3.2544 -1.9973 0.9820
2.7266 -3.0218 -1.9965 0.9820
3.2179 -2.4873 -1.9950 0.9820
3.4259 -2.1896 -1.9944 0.9820
3.7584 -1.5450 -1.9933 0.9821
4.0312 -0.4942 -1.9922 0.9821
4.0174 0.5909 -1.9918 0.9821
3.3698 2.2696 -1.9929 0.9821
3.1546 2.5618 -1.9934 0.9821
1.0590 3.9279 -1.9955 0.9820
0.3439 4.0519 -1.9947 0.9820
-0.0190 4.0672 -1.9951 0.9820
-0.3820 4.0511 -1.9960 0.9820
-0.7424 4.0038 -1.9975 0.9820
-1.0978 3.9255 -1.9994 0.9820
-1.7829 3.6780 -2.0049 0.9820
-2.1057 3.5073 -2.0067 0.9819
-2.9630 2.8279 -2.0091 0.9819
-3.2047 2.5532 -2.0099 0.9819
-3.4208 2.2578 -2.0105 0.9819
-1.1459 0.4908 -0.6115 0.9945
-1.1658 0.2681 -0.5868 0.9947
-1.1877 0.1634 -0.5881 0.9947
-1.1963 0.0567 -0.5875 0.9947
-1.1964 -0.0503 -0.5874 0.9947
-1.1675 -0.2619 -0.5869 0.9947
-1.1585 -0.3711 -0.5967 0.9946
-3.4357 -2.2413 -2.0122 0.9819
-2.7174 -3.0687 -2.0106 0.9819
-2.4320 -3.2978 -2.0100 0.9819
-1.8058 -3.6748 -2.0085 0.9819
-1.4701 -3.8197 -2.0076 0.9819
-0.4055 -4.0673 -2.0050 0.9820
-0.0410 -4.0853 -2.0040 0.9820
0.3235 -4.0707 -2.0031 0.9820
2.0455 -3.5233 -1.9984 0.9820
2.3507 -3.3254 -1.9976 0.9820
2.9020 -2.8523 -1.9960 0.9820
3.5502 -1.9800 -1.9940 0.9821
3.9450 -0.9685 -1.9926 0.9821
4.0593 0.1108 -1.9919 0.9821
4.0331 0.4725 -1.9918 0.9821
3.9749 0.8304 -1.9919 0.9821
3.8851 1.1818 -1.9920 0.9821
3.7646 1.5239 -1.9922 0.9821
3.2283 2.4677 -1.9932 0.9821
2.9960 2.7466 -1.9937 0.9821
2.7398 3.0038 -1.9943 0.9820
2.4616 3.2373 -1.9949 0.9820
1.5181 3.7779 -1.9972 0.9820
0.4629 4.0400 -1.9947 0.9820
-0.2626 4.0599 -1.9956 0.9820
-0.9815 3.9547 -1.9987 0.9820
-1.3320 3.8559 -2.0011 0.9820
-2.0014 3.5672 -2.0064 0.9819
-2.3127 3.3758 -2.0072 0.9819
-3.3526 2.3572 -2.0103 0.9819
-3.5506 2.0493 -2.0109 0.9819
-1.1385 0.5278 -0.6155 0.9944
-1.1582 0.3024 -0.5872 0.9947
-1.1820 0.1982 -0.5879 0.9947
-1.1960 -0.0150 -0.5867 0.9947
-2.8067 -2.9878 -2.0108 0.9819
-1.5820 -3.7754 -2.0079 0.9819
-1.2383 -3.8998 -2.0071 0.9819
-0.5250 -4.0542 -2.0053 0.9820
-0.1611 -4.0830 -2.0044 0.9820
0.2037 -4.0791 -2.0034 0.9820
0.9246 -3.9742 -2.0015 0.9820
1.2749 -3.8740 -2.0006 0.9820
1.6147 -3.7431 -1.9996 0.9820
1.9413 -3.5825 -1.9987 0.9820
3.0668 -2.6727 -1.9955 0.9820
3.4907 -2.0838 -1.9942 0.9821
3.6617 -1.7635 -1.9936 0.9821
3.9955 -0.7304 -1.9924 0.9821
4.0442 -0.3709 -1.9921 0.9821
4.0608 -0.0086 -1.9919 0.9821
4.0452 0.3537 -1.9919 0.9821
3.6668 1.7468 -1.9923 0.9821
3.4969 2.0673 -1.9927 0.9821
3.0752 2.6571 -1.9935 0.9821
2.2638 3.3797 -1.9954 0.9820
0.5815 4.0247 -1.9947 0.9820
-0.5055 4.0385 -1.9964 0.9820
-0.8646 3.9806 -1.9981 0.9820
-1.5620 3.7726 -2.0029 0.9820
-1.8953 3.6239 -2.0060 0.9819
-2.2121 3.4419 -2.0070 0.9819
-2.7909 2.9964 -2.0086 0.9819
-1.1293 0.5645 -0.6193 0.9944
-1.1518 0.4523 -0.6070 0.9945
-1.1590 0.3394 -0.5924 0.9946
-1.1748 0.2326 -0.5874 0.9947
-1.1962 0.0201 -0.5868 0.9947
-1.1563 -0.4097 -0.6017 0.9945
-1.1396 -0.5225 -0.6150 0.9944
-3.5620 -2.0357 -2.0124 0.9819
-3.3654 -2.3449 -2.0120 0.9819
-2.8936 -2.9042 -2.0110 0.9819
-2.3299 -3.3701 -2.0097 0.9819
-2.0192 -3.5632 -2.0090 0.9819
-1.0022 -3.9658 -2.0065 0.9819
-0.2812 -4.0771 -2.0047 0.9820
0.0837 -4.0840 -2.0037 0.9820
0.4475 -4.0583 -2.0028 0.9820
0.8074 -4.0003 -2.0018 0.9820
1.1606 -3.9105 -2.0009 0.9820
1.5041 -3.7895 -1.9999 0.9820
2.4507 -3.2516 -1.9973 0.9820
2.9873 -2.7621 -1.9957 0.9820
3.7601 -1.5408 -1.9933 0.9821
4.0317 -0.4897 -1.9922 0.9821
4.0589 -0.1280 -1.9920 0.9821
3.9477 0.9514 -1.9919 0.9821
3.7164 1.6381 -1.9922 0.9821
3.5560 1.9635 -1.9925 0.9821
3.3673 2.2734 -1.9929 0.9821
3.1517 2.5653 -1.9934 0.9821
2.6471 3.0864 -1.9945 0.9820
0.6996 4.0061 -1.9948 0.9820
-0.3865 4.0507 -1.9960 0.9820
-0.7469 4.0030 -1.9975 0.9820
-1.4498 3.8152 -2.0020 0.9820
-1.7870 3.6761 -2.0050 0.9820
-2.4150 3.3042 -2.0075 0.9819
-2.7013 3.0768 -2.0084 0.9819
-2.9662 2.8246 -2.0091 0.9819
-1.1153 0.5991 -0.6210 0.9944
-1.1461 0.4894 -0.6113 0.9945
-1.1879 0.1621 -0.5881 0.9947
-1.1964 -0.0516 -0.5874 0.9947
-1.1885 -0.1583 -0.5881 0.9947
-1.1672 -0.2632 -0.5869 0.9947
-1.1468 -0.4855 -0.6109 0.9945
-2.9781 -2.8182 -2.0112 0.9819
-2.7139 -3.0717 -2.0106 0.9819
-1.8017 -3.6768 -2.0085 0.9819
-1.4658 -3.8214 -2.0076 0.9819
-1.1186 -3.9352 -2.0068 0.9819
-0.7627 -4.0175 -2.0059 0.9819
-0.0364 -4.0853 -2.0040 0.9820
0.3280 -4.0704 -2.0031 0.9820
0.6896 -4.0229 -2.0021 0.9820
2.0494 -3.5210 -1.9984 0.9820
3.1466 -2.5776 -1.9952 0.9820
3.3629 -2.2858 -1.9946 0.9820
2.9862 2.4195 -1.9939 0.9828
2.7591 2.6770 -1.9944 0.9828
