ply
format ascii 1.0
element vertex 1593
property float32 x
property float32 y
property float32 z
property float32 I
end_header
4.2525 4.5900 -1.7714 0.9743
3.7024 4.7922 -1.7144 0.9751
3.2347 5.0649 -1.7013 0.9753
1.9826 3.8185 -1.2180 0.9823
0.9679 3.1288 -0.9272 0.9865
0.6794 3.1791 -0.9203 0.9866
0.7885 6.4788 -1.8476 0.9732
0.2156 6.8074 -1.9281 0.9721
-1.8558 7.6936 -2.2405 0.9676
-2.5036 7.4023 -2.2122 0.9680
-3.6772 6.6511 -2.1515 0.9689
-4.6601 5.7165 -2.0879 0.9698
-6.1797 4.3979 -2.1472 0.9690
-6.9016 1.8412 -2.0221 0.9707
-6.9416 1.2006 -1.9943 0.9711
-6.9289 0.5681 -1.9681 0.9715
-6.8656 -0.0525 -1.9437 0.9719
-6.7541 -0.6578 -1.9211 0.9722
-6.3952 -1.8113 -1.8817 0.9727
-3.4919 -5.3391 -1.8060 0.9738
-2.4891 -5.8823 -1.8082 0.9738
-1.9583 -6.0955 -1.8125 0.9737
-0.8493 -6.3987 -1.8273 0.9735
0.3067 -6.5298 -1.8506 0.9732
1.4887 -6.4794 -1.8821 0.9727
2.6729 -6.2394 -1.9216 0.9722
3.2575 -6.0461 -1.9442 0.9719
4.9357 -5.1667 -2.0228 0.9707
5.9482 -4.3311 -2.0830 0.9699
6.6911 -2.5263 -2.0247 0.9707
7.4588 -0.6931 -2.1206 0.9693
7.6025 -0.0244 -2.1522 0.9689
7.6829 0.6642 -2.1831 0.9685
7.6963 1.3663 -2.2128 0.9680
5.9145 3.4932 -1.9446 0.9718
4.8026 4.1480 -1.7965 0.9740
4.3731 4.5193 -1.7803 0.9742
3.8172 4.7252 -1.7196 0.9751
3.3476 4.9991 -1.7032 0.9753
2.4157 5.5405 -1.7111 0.9752
0.3592 6.7251 -1.9065 0.9724
-0.2234 6.1879 -1.7529 0.9746
-1.6934 7.7549 -2.2471 0.9675
-2.3498 7.4786 -2.2192 0.9679
-3.5444 6.7531 -2.1591 0.9688
-4.0733 6.3160 -2.1276 0.9692
-4.5519 5.8380 -2.0957 0.9697
-2.2338 2.3897 -0.9261 0.9865
-6.3878 3.9231 -2.1222 0.9693
-6.6108 3.2861 -2.0899 0.9698
-6.7756 2.6425 -2.0588 0.9702
-6.8838 1.9974 -2.0291 0.9706
-6.8855 0.0968 -1.9494 0.9718
-6.4480 -1.6759 -1.8860 0.9727
-5.6335 -3.2453 -1.8405 0.9733
-3.1222 -5.5626 -1.8058 0.9738
-2.0887 -6.0474 -1.8112 0.9738
-0.9868 -6.3709 -1.8251 0.9736
-0.4160 -6.4691 -1.8351 0.9734
0.1647 -6.5234 -1.8473 0.9732
1.9383 -6.4112 -1.8961 0.9725
3.6939 -5.8666 -1.9626 0.9716
4.2585 -5.5857 -1.9884 0.9712
5.3319 -4.8735 -2.0449 0.9704
5.8315 -4.4429 -2.0754 0.9700
6.2778 -3.9500 -2.0997 0.9696
6.2473 -3.1904 -1.9858 0.9713
2.3098 -0.9298 -0.7049 0.9897
6.9282 -2.0921 -2.0488 0.9704
7.5733 -0.1887 -2.1446 0.9690
7.6694 0.4956 -2.1757 0.9686
7.6601 1.9025 -2.2344 0.9677
6.7173 3.0186 -2.0848 0.9698
6.0629 3.4056 -1.9686 0.9715
5.4725 3.7539 -1.8787 0.9728
3.9328 4.6577 -1.7257 0.9750
0.7699 2.9661 -0.8675 0.9873
-1.5291 7.8123 -2.2536 0.9674
-3.4089 6.8522 -2.1666 0.9687
-3.9495 6.4261 -2.1353 0.9691
-4.4405 5.9574 -2.1034 0.9696
-2.1661 2.4205 -0.9196 0.9866
-6.9025 0.2470 -1.9553 0.9717
-6.8141 -0.3662 -1.9318 0.9720
-6.4982 -1.5392 -1.8905 0.9726
-6.2754 -2.0938 -1.8728 0.9729
-5.3758 -3.6024 -1.8319 0.9735
-5.0065 -4.0472 -1.8225 0.9736
-4.6063 -4.4602 -1.8151 0.9737
-2.7401 -5.7646 -1.8069 0.9738
-1.1235 -6.3406 -1.8229 0.9736
1.7943 -6.4361 -1.8915 0.9726
3.5548 -5.9272 -1.9566 0.9717
4.1229 -5.6584 -1.9820 0.9713
4.6749 -5.3395 -2.0091 0.9709
5.7130 -4.5519 -2.0679 0.9701
6.1756 -4.0754 -2.0946 0.9697
6.1534 -3.3128 -1.9784 0.9714
7.3674 -1.0087 -2.1051 0.9696
7.6984 1.0243 -2.1986 0.9682
7.6761 1.7305 -2.2276 0.9678
6.8881 2.9174 -2.1177 0.9694
6.2150 3.3157 -1.9942 0.9711
5.0573 3.9983 -1.8251 0.9736
4.1186 4.6683 -1.7624 0.9745
3.5744 4.8669 -1.7095 0.9752
3.1083 5.1385 -1.7001 0.9753
1.8918 3.8711 -1.2197 0.9822
0.6373 6.5656 -1.8674 0.9729
0.0505 6.9019 -1.9539 0.9717
-1.3630 7.8658 -2.2599 0.9674
-3.2706 6.9485 -2.1741 0.9686
-4.3260 6.0747 -2.1112 0.9695
-2.1420 2.5007 -0.9321 0.9864
-5.1760 5.0499 -2.0471 0.9704
-5.9477 4.8453 -2.1717 0.9686
-6.5099 3.5963 -2.1054 0.9696
-6.8383 2.3104 -2.0434 0.9704
-6.9178 1.6663 -2.0144 0.9709
-6.8400 -0.2188 -1.9373 0.9720
-6.7157 -0.8195 -1.9153 0.9723
-6.5460 -1.4012 -1.8951 0.9726
-5.0990 -3.9421 -1.8246 0.9736
-3.3606 -5.4218 -1.8058 0.9738
-2.3464 -5.9442 -1.8091 0.9738
-1.8109 -6.1465 -1.8140 0.9737
-0.6943 -6.4269 -1.8300 0.9735
1.0570 -6.5193 -1.8697 0.9729
1.6502 -6.4581 -1.8870 0.9727
2.2433 -6.3492 -1.9063 0.9724
3.4150 -5.9849 -1.9507 0.9718
3.9864 -5.7283 -1.9757 0.9714
-6.4046 0.3854 -1.9735 0.9735
-6.2321 -0.7438 -1.9305 0.9741
-6.0805 -1.2849 -1.9115 0.9743
-5.8884 -1.8066 -1.8945 0.9746
-5.0890 -3.2336 -1.8545 0.9751
-4.3920 -4.0503 -1.8376 0.9753
-4.0007 -4.4133 -1.8322 0.9754
-3.1430 -5.0410 -1.8272 0.9754
-2.1994 -5.5289 -1.8302 0.9754
-1.1875 -5.8671 -1.8412 0.9753
-0.1258 -6.0462 -1.8601 0.9750
0.4176 -6.0734 -1.8725 0.9748
1.5159 -5.9982 -1.9029 0.9744
3.1472 -5.5495 -1.9623 0.9737
3.6733 -5.3081 -1.9855 0.9733
4.1843 -5.0206 -2.0102 0.9730
4.6762 -4.6871 -2.0364 0.9727
5.1449 -4.3081 -2.0640 0.9723
5.9077 -2.7005 -1.9979 0.9732
6.2138 -2.1932 -2.0268 0.9728
7.0045 1.4009 -2.1971 0.9705
6.9296 2.0441 -2.2222 0.9702
6.7897 2.6827 -2.2455 0.9699
6.3815 3.2075 -2.1968 0.9706
5.7619 3.5740 -2.0855 0.9720
4.6723 4.2159 -1.9356 0.9740
3.6980 4.7865 -1.8604 0.9750
3.2309 5.0589 -1.8463 0.9752
1.9304 3.7178 -1.2885 0.9826
0.9819 3.1740 -1.0219 0.9862
0.7875 6.4705 -2.0049 0.9731
-0.3558 6.1493 -1.8946 0.9746
-3.8360 5.6739 -2.1066 0.9717
-4.2677 5.2352 -2.0775 0.9721
-4.6519 4.7650 -2.0482 0.9725
-5.3631 4.5907 -2.1714 0.9709
-5.6813 4.0431 -2.1448 0.9712
-5.9346 3.4697 -2.1144 0.9716
-6.1341 2.8849 -2.0850 0.9720
-6.2805 2.2937 -2.0565 0.9724
-6.3749 1.7007 -2.0293 0.9728
-6.4131 0.5258 -1.9792 0.9734
-6.2624 -0.6100 -1.9353 0.9740
-6.1211 -1.1553 -1.9160 0.9743
-5.9386 -1.6819 -1.8984 0.9745
-5.7170 -2.1875 -1.8828 0.9747
-5.4585 -2.6698 -1.8690 0.9749
-4.8393 -3.5566 -1.8472 0.9752
-4.4829 -3.9576 -1.8393 0.9753
-4.0981 -4.3281 -1.8333 0.9754
-3.2519 -4.9721 -1.8274 0.9754
-2.7948 -5.2428 -1.8274 0.9754
-2.3178 -5.4775 -1.8294 0.9754
0.2852 -6.0707 -1.8693 0.9749
0.8324 -6.0655 -1.8831 0.9747
1.3824 -6.0167 -1.8988 0.9745
1.9321 -5.9235 -1.9164 0.9743
3.0177 -5.6011 -1.9569 0.9737
3.5469 -5.3709 -1.9797 0.9734
4.0619 -5.0946 -2.0041 0.9731
5.4815 -3.9912 -2.0856 0.9720
6.1434 -2.3195 -2.0198 0.9729
6.4173 -1.7868 -2.0489 0.9725
6.6448 -1.2236 -2.0782 0.9721
6.8218 -0.6339 -2.1073 0.9717
7.0129 1.2449 -2.1908 0.9706
6.9536 1.8881 -2.2162 0.9703
6.5422 3.1123 -2.2283 0.9701
5.9066 3.4885 -2.1099 0.9717
4.7966 4.1428 -1.9494 0.9738
2.8795 5.2633 -1.8453 0.9752
1.9362 5.8095 -1.8835 0.9747
0.9195 6.3948 -1.9871 0.9733
-0.2234 6.1878 -1.9045 0.9744
-1.5409 7.0566 -2.2216 0.9702
-2.1406 6.8128 -2.1965 0.9706
-2.7075 6.5145 -2.1699 0.9709
-3.2367 6.1668 -2.1422 0.9713
-3.7243 5.7750 -2.1136 0.9717
-2.2310 2.3867 -1.0049 0.9864
-4.9102 4.3912 -2.0261 0.9728
-5.8781 3.6100 -2.1217 0.9715
-6.2498 2.4375 -2.0633 0.9723
-6.4188 0.6668 -1.9849 0.9734
-6.2903 -0.4751 -1.9403 0.9739
-6.1593 -1.0246 -1.9205 0.9742
-5.9866 -1.5560 -1.9025 0.9744
-5.7743 -2.0669 -1.8864 0.9747
-5.5245 -2.5550 -1.8721 0.9748
-5.2395 -3.0183 -1.8598 0.9750
-4.5720 -3.8630 -1.8410 0.9753
-2.9076 -5.1804 -1.8272 0.9754
-2.4353 -5.4240 -1.8287 0.9754
-1.4383 -5.7993 -1.8378 0.9753
-0.3870 -6.0178 -1.8548 0.9751
0.1531 -6.0655 -1.8662 0.9749
0.6993 -6.0707 -1.8796 0.9748
1.7989 -5.9502 -1.9120 0.9743
2.3462 -5.8229 -1.9309 0.9741
2.8877 -5.6499 -1.9516 0.9738
3.4196 -5.4310 -1.9740 0.9735
3.9385 -5.1659 -1.9980 0.9732
4.4402 -4.8547 -2.0236 0.9728
5.3756 -4.0956 -2.0786 0.9721
5.7449 -2.9339 -1.9841 0.9734
2.3116 -0.9306 -0.7664 0.9896
6.3549 -1.9190 -2.0418 0.9726
6.7837 -0.7792 -2.1002 0.9718
6.9198 -0.1724 -2.1290 0.9714
6.9739 1.7320 -2.2102 0.9704
6.6921 3.0073 -2.2566 0.9698
5.4654 3.7490 -2.0385 0.9726
3.9281 4.6521 -1.8727 0.9748
3.4568 4.9273 -1.8513 0.9751
2.9921 5.1979 -1.8447 0.9752
2.0532 5.7419 -1.8756 0.9748
0.7693 2.9638 -0.9418 0.9873
0.4991 6.6359 -2.0468 0.9725
-0.6597 6.3309 -1.9578 0.9737
-1.3911 7.1070 -2.2275 0.9701
-1.9979 6.8772 -2.2027 0.9705
-2.5732 6.5916 -2.1765 0.9708
-2.1656 2.4200 -0.9989 0.9865
-4.8306 4.5124 -2.0332 0.9727
-6.0440 3.1697 -2.0991 0.9718
-6.2160 2.5811 -2.0702 0.9722
-6.3155 -0.3394 -1.9453 0.9739
-6.1950 -0.8928 -1.9251 0.9741
-6.0322 -1.4289 -1.9067 0.9744
-5.8293 -1.9449 -1.8901 0.9746
-5.3117 -2.9083 -1.8626 0.9750
-5.0014 -3.3515 -1.8518 0.9751
-3.4660 -4.8282 -1.8281 0.9754
-2.0653 -5.5840 -1.8312 0.9754
-1.5626 -5.7620 -1.8363 0.9753
-1.0456 -5.9010 -1.8433 0.9752
2.2139 -5.8579 -1.9261 0.9741
2.7570 -5.6961 -1.9464 0.9739
3.8140 -5.2345 -1.9921 0.9733
4.8063 -4.5884 -2.0438 0.9726
5.2678 -4.1972 -2.0717 0.9722
5.6861 -3.7524 -2.0954 0.9719
6.2899 -2.0493 -2.0347 0.9727
6.5404 -1.5005 -2.0640 0.9723
6.8980 2.2186 -2.2287 0.9701
6.7403 2.8548 -2.2514 0.9698
6.2065 3.3111 -2.1636 0.9710
5.0509 3.9932 -1.9804 0.9734
4.5348 4.2966 -1.9215 0.9742
3.5702 4.8612 -1.8551 0.9751
3.1046 5.1324 -1.8450 0.9752
2.1693 5.6749 -1.8686 0.9749
1.1769 6.2469 -1.9552 0.9737
-0.5106 6.2033 -1.9145 0.9743
-2.4368 6.6658 -2.1830 0.9707
-2.1444 2.5035 -1.0139 0.9863
-4.7480 4.6323 -2.0403 0.9726
-5.4584 4.4467 -2.1655 0.9710
-6.1792 2.7244 -2.0771 0.9721
-6.3113 2.1323 -2.0490 0.9725
-6.3917 1.5396 -2.0222 0.9729
-6.4218 0.9503 -1.9967 0.9732
-6.3382 -0.2028 -1.9505 0.9738
-6.2282 -0.7600 -1.9299 0.9741
-6.0755 -1.3005 -1.9110 0.9743
-5.8821 -1.8217 -1.8940 0.9746
-5.3821 -2.7967 -1.8656 0.9749
-5.0797 -3.2465 -1.8542 0.9751
-3.9888 -4.4235 -1.8320 0.9754
-3.5710 -4.7532 -1.8286 0.9754
-2.6669 -5.3103 -1.8277 0.9754
-2.1849 -5.5350 -1.8303 0.9754
-1.6859 -5.7223 -1.8349 0.9753
-1.1722 -5.8709 -1.8414 0.9753
-0.1099 -6.0476 -1.8604 0.9750
0.4337 -6.0735 -1.8728 0.9748
0.9819 -6.0566 -1.8872 0.9746
2.0812 -5.8903 -1.9215 0.9742
2.6259 -5.7396 -1.9414 0.9739
3.1629 -5.5430 -1.9629 0.9736
3.6886 -5.3003 -1.9862 0.9733
4.1991 -5.0114 -2.0110 0.9730
-5.9016 -0.1732 -1.9626 0.9754
-5.8047 -0.6928 -1.9432 0.9757
-5.6674 -1.1976 -1.9255 0.9759
-5.2793 -2.1525 -1.8951 0.9763
-5.0324 -2.5982 -1.8826 0.9764
-4.7529 -3.0200 -1.8718 0.9765
-4.4429 -3.4162 -1.8629 0.9767
-2.5061 -4.9576 -1.8465 0.9769
-1.5896 -5.3435 -1.8531 0.9768
-1.1096 -5.4822 -1.8593 0.9767
0.3897 -5.6686 -1.8887 0.9763
0.9009 -5.6511 -1.9022 0.9762
1.4133 -5.5923 -1.9174 0.9760
2.4301 -5.3488 -1.9529 0.9755
2.9281 -5.1631 -1.9730 0.9753
3.4147 -4.9345 -1.9947 0.9750
3.8864 -4.6631 -2.0178 0.9747
4.3393 -4.3493 -2.0422 0.9744
4.7695 -3.9937 -2.0678 0.9741
5.1651 -3.5920 -2.0913 0.9738
5.1463 -2.9343 -1.9692 0.9753
5.4595 -2.4956 -1.9954 0.9750
5.9723 -1.5241 -2.0488 0.9744
6.1643 -0.9973 -2.0757 0.9740
6.3085 -0.4484 -2.1023 0.9737
6.4018 0.1184 -2.1284 0.9734
6.4412 0.6980 -2.1536 0.9731
6.4244 1.2849 -2.1778 0.9728
6.3497 1.8730 -2.2006 0.9725
6.2161 2.4561 -2.2217 0.9722
5.1904 3.9021 -2.1585 0.9730
4.4436 4.0095 -1.9895 0.9751
4.0835 4.4075 -1.9972 0.9750
3.2270 5.0529 -1.9929 0.9750
2.0025 3.8568 -1.4445 0.9818
2.2956 5.5934 -2.0098 0.9748
-0.3554 6.1430 -2.0454 0.9744
-0.9782 6.5952 -2.2163 0.9723
-2.0930 6.1883 -2.1715 0.9728
-2.6077 5.9092 -2.1470 0.9731
-4.2907 4.3950 -2.0417 0.9744
-4.6049 3.9417 -2.0149 0.9748
-5.2517 3.7374 -2.1426 0.9732
-5.9169 1.5785 -2.0356 0.9745
-5.9189 -0.0452 -1.9675 0.9754
-5.5377 -1.5684 -1.9132 0.9760
-5.3340 -2.0410 -1.8984 0.9762
-4.5208 -3.3225 -1.8649 0.9766
-3.4466 -4.3624 -1.8481 0.9768
-2.1667 -5.1203 -1.8481 0.9768
-1.7041 -5.3043 -1.8519 0.9768
-1.2272 -5.4519 -1.8576 0.9767
-0.2396 -5.6342 -1.8745 0.9765
0.2662 -5.6667 -1.8857 0.9764
2.8082 -5.2121 -1.9680 0.9754
3.7735 -4.7329 -2.0121 0.9748
5.9189 -1.6480 -2.0423 0.9744
6.2781 -0.5834 -2.0959 0.9738
6.4367 0.5565 -2.1476 0.9731
6.3732 1.7305 -2.1952 0.9725
4.5428 3.9236 -1.9953 0.9750
3.8081 4.7139 -2.0143 0.9748
2.8761 5.2570 -1.9919 0.9751
2.4100 5.5273 -2.0043 0.9749
0.7037 2.9751 -1.0162 0.9872
0.9183 6.3866 -2.1448 0.9732
0.3582 6.7072 -2.2327 0.9721
-0.2234 6.1876 -2.0581 0.9742
-1.9634 6.2488 -2.1773 0.9728
-2.4858 5.9812 -2.1530 0.9731
-2.9748 5.6678 -2.1278 0.9734
-3.8385 4.9230 -2.0751 0.9740
-2.2282 2.3837 -1.0846 0.9863
-5.1828 3.8605 -2.1482 0.9731
-5.4381 3.3398 -2.1213 0.9735
-5.7939 2.2596 -2.0672 0.9741
-5.9672 0.6199 -1.9942 0.9750
-5.5816 -1.4507 -1.9170 0.9760
-5.1564 -2.3847 -1.8884 0.9763
-4.8925 -2.8184 -1.8768 0.9765
-4.5970 -3.2272 -1.8670 0.9766
-3.9197 -3.9638 -1.8530 0.9768
-3.5419 -4.2883 -1.8488 0.9768
-3.1407 -4.5818 -1.8465 0.9769
-1.8178 -5.2629 -1.8508 0.9768
-1.3441 -5.4195 -1.8560 0.9767
-0.8579 -5.5390 -1.8631 0.9767
-0.3614 -5.6203 -1.8721 0.9765
0.1430 -5.6625 -1.8828 0.9764
0.6525 -5.6647 -1.8954 0.9763
1.6766 -5.5458 -1.9259 0.9759
2.6876 -5.2586 -1.9630 0.9754
3.1802 -5.0508 -1.9840 0.9752
4.5638 -4.1714 -2.0553 0.9743
4.9824 -3.1349 -1.9567 0.9755
2.3134 -0.9313 -0.8290 0.9895
5.8630 -1.7704 -2.0358 0.9745
5.9012 3.3147 -2.2499 0.9719
5.4582 3.7441 -2.2002 0.9725
4.2635 4.2189 -1.9938 0.9750
2.9885 5.1917 -1.9912 0.9751
1.8164 3.9308 -1.4394 0.9819
1.0479 6.3122 -2.1269 0.9734
0.4984 6.6271 -2.2091 0.9724
-0.6584 6.3183 -2.1116 0.9736
-1.8321 6.3063 -2.1829 0.9727
-2.8595 5.7478 -2.1340 0.9733
-2.1651 2.4194 -1.0792 0.9864
-4.4581 4.1645 -2.0279 0.9746
-5.3814 3.4681 -2.1281 0.9734
-5.5960 2.9348 -2.1004 0.9737
-5.9464 1.2965 -2.0231 0.9747
-5.8794 -0.3159 -1.9572 0.9755
-5.7713 -0.8318 -1.9382 0.9757
-5.2154 -2.2760 -1.8915 0.9763
-4.9595 -2.7154 -1.8795 0.9764
-4.0076 -3.8805 -1.8543 0.9768
-0.9769 -5.5134 -1.8612 0.9767
0.5285 -5.6679 -1.8922 0.9763
2.0624 -5.4571 -1.9392 0.9757
3.0618 -5.1052 -1.9788 0.9752
4.4587 -4.2567 -2.0491 0.9744
5.2631 -3.4732 -2.0961 0.9738
5.2349 -2.8183 -1.9763 0.9753
2.2794 -0.9756 -0.8242 0.9896
6.0291 -1.3832 -2.0562 0.9743
6.4423 0.8572 -2.1603 0.9730
6.4099 1.4450 -2.1841 0.9727
6.1695 2.6130 -2.2271 0.9722
5.9607 3.1800 -2.2457 0.9719
5.0445 3.9881 -2.1375 0.9733
4.3499 4.1214 -1.9919 0.9751
3.9783 4.5093 -1.9989 0.9750
1.8810 3.8490 -1.4240 0.9821
2.1666 5.6680 -2.0170 0.9747
1.1754 6.2390 -2.1104 0.9736
0.6357 6.5485 -2.1870 0.9726
0.0495 6.7655 -2.2490 0.9719
-1.1355 6.5526 -2.2106 0.9724
-1.6991 6.3609 -2.1885 0.9726
-3.2123 5.4902 -2.1144 0.9735
-2.1511 2.5113 -1.0991 0.9862
-4.3807 4.2739 -2.0344 0.9745
-5.3219 3.5955 -2.1349 0.9733
-5.7256 2.5245 -2.0800 0.9740
-5.9674 0.8831 -2.0052 0.9749
-5.8994 -0.1887 -1.9620 0.9754
-5.8012 -0.7079 -1.9427 0.9757
-5.6628 -1.2122 -1.9250 0.9759
-5.2725 -2.1659 -1.8947 0.9763
-5.0246 -2.6109 -1.8822 0.9764
-3.3382 -4.4433 -1.8474 0.9768
-2.9258 -4.7203 -1.8460 0.9769
-2.4931 -4.9643 -1.8466 0.9769
-2.0424 -5.1739 -1.8490 0.9768
0.9160 -5.6499 -1.9026 0.9762
1.4284 -5.5900 -1.9178 0.9760
1.9391 -5.4881 -1.9348 0.9758
2.4449 -5.3439 -1.9534 0.9755
3.4289 -4.9271 -1.9954 0.9750
3.9000 -4.6545 -2.0185 0.9747
-4.9437 -2.0156 -1.9092 0.9776
-4.7145 -2.4340 -1.8974 0.9777
-3.8486 -3.5491 -1.8722 0.9780
-3.5069 -3.8686 -1.8673 0.9781
-2.7560 -4.4203 -1.8628 0.9781
-2.3507 -4.6500 -1.8633 0.9781
-1.9282 -4.8472 -1.8655 0.9781
-1.0403 -5.1399 -1.8753 0.9780
2.2712 -4.9991 -1.9636 0.9769
2.7348 -4.8223 -1.9825 0.9767
3.1870 -4.6055 -2.0028 0.9765
3.6244 -4.3488 -2.0245 0.9762
4.4406 -3.7183 -2.0712 0.9757
4.8032 -3.3403 -2.0922 0.9755
5.0691 -2.3171 -1.9931 0.9766
5.5346 -1.4124 -2.0426 0.9760
5.7070 -0.9234 -2.0674 0.9757
5.9158 0.1094 -2.1159 0.9752
5.9469 0.6444 -2.1391 0.9749
5.0233 3.7764 -2.2474 0.9737
0.9687 3.1314 -1.1722 0.9862
0.6831 3.1962 -1.1688 0.9862
-0.3551 6.1368 -2.1982 0.9742
-1.4273 5.9171 -2.1767 0.9745
-1.9311 5.7097 -2.1555 0.9747
-2.4081 5.4570 -2.1330 0.9750
-2.8543 5.1627 -2.1096 0.9753
-3.2662 4.8312 -2.0854 0.9755
-3.6413 4.4668 -2.0609 0.9758
-4.2726 3.6573 -2.0112 0.9764
-5.1051 2.9847 -2.1147 0.9752
-5.4234 1.9807 -2.0647 0.9758
-5.5621 0.9620 -2.0186 0.9763
-5.5665 0.4564 -1.9973 0.9766
-5.5292 -0.0423 -1.9773 0.9768
-4.7730 -2.3345 -1.9001 0.9777
-4.5201 -2.7362 -1.8895 0.9778
-4.2377 -3.1145 -1.8807 0.9779
-3.9277 -3.4675 -1.8736 0.9780
-3.5920 -3.7937 -1.8683 0.9781
-2.4507 -4.5972 -1.8630 0.9781
-2.0322 -4.8024 -1.8648 0.9781
-0.6920 -5.2139 -1.8809 0.9779
0.7272 -5.2987 -1.9126 0.9775
1.2064 -5.2505 -1.9266 0.9774
1.6841 -5.1631 -1.9421 0.9772
2.1574 -5.0360 -1.9592 0.9770
3.5198 -4.4147 -2.0191 0.9763
3.9437 -4.1282 -2.0416 0.9760
4.3465 -3.8030 -2.0653 0.9758
4.7206 -3.4372 -2.0882 0.9755
4.7152 -2.8258 -1.9658 0.9769
5.2631 -1.9871 -2.0118 0.9764
5.6692 -1.0440 -2.0614 0.9758
5.8082 -0.5397 -2.0860 0.9755
5.9007 -0.0189 -2.1101 0.9752
5.9440 0.5139 -2.1335 0.9750
5.9361 1.0538 -2.1560 0.9747
5.8754 1.5954 -2.1772 0.9745
5.7610 2.1329 -2.1968 0.9742
5.5927 2.6606 -2.2148 0.9740
5.3710 3.1722 -2.2307 0.9738
5.0973 3.6617 -2.2444 0.9737
4.5208 3.9045 -2.1362 0.9749
3.3356 4.9812 -2.1438 0.9749
2.4070 5.5206 -2.1537 0.9747
0.7021 2.9683 -1.0908 0.9871
0.3332 6.2379 -2.2339 0.9738
-0.2234 6.1875 -2.2141 0.9740
-1.8112 5.7644 -2.1607 0.9747
-2.2951 5.5222 -2.1386 0.9749
-2.7490 5.2377 -2.1153 0.9752
-4.2048 3.7603 -2.0172 0.9763
-5.0540 3.1039 -2.1210 0.9751
-5.3945 2.1039 -2.0706 0.9757
-5.4967 1.5950 -2.0467 0.9760
-5.5547 1.0853 -2.0240 0.9762
-5.5420 0.0779 -1.9820 0.9767
-5.3672 -0.8928 -1.9457 0.9772
-5.2230 -1.3575 -1.9298 0.9773
-5.0432 -1.8052 -1.9155 0.9775
-4.3089 -3.0250 -1.8827 0.9779
-4.0054 -3.3842 -1.8752 0.9780
-3.6757 -3.7170 -1.8694 0.9780
-3.3219 -4.0220 -1.8654 0.9781
-2.9459 -4.2976 -1.8632 0.9781
-2.5496 -4.5425 -1.8628 0.9781
-0.8042 -5.1924 -1.8790 0.9779
0.6110 -5.3045 -1.9095 0.9776
1.5684 -5.1879 -1.9382 0.9772
2.0431 -5.0705 -1.9549 0.9770
2.5111 -4.9131 -1.9731 0.9768
3.4142 -4.4783 -2.0138 0.9764
4.6352 -3.5315 -2.0839 0.9755
5.6287 -1.1634 -2.0554 0.9759
5.8827 -0.1466 -2.1043 0.9753
5.9428 0.9224 -2.1506 0.9748
5.6385 2.5338 -2.2106 0.9741
5.1684 3.5453 -2.2413 0.9737
4.7992 3.9665 -2.2265 0.9739
3.9185 4.6408 -2.1721 0.9745
2.5206 5.4548 -2.1489 0.9748
2.0482 5.7280 -2.1754 0.9745
0.4692 6.2387 -2.2373 0.9738
-1.6897 5.8163 -2.1659 0.9746
-2.6419 5.3104 -2.1211 0.9751
-3.0708 4.9964 -2.0972 0.9754
-2.1646 2.4189 -1.1608 0.9863
-4.4084 3.4349 -1.9985 0.9765
-5.2044 2.7294 -2.1016 0.9753
-5.3629 2.2268 -2.0766 0.9756
-5.5446 1.2089 -2.0294 0.9762
-5.5524 0.1987 -1.9868 0.9767
-5.4942 -0.2952 -1.9676 0.9769
-5.3966 -0.7778 -1.9498 0.9771
-5.2613 -1.2462 -1.9335 0.9773
-3.7580 -3.6388 -1.8707 0.9780
-2.6475 -4.4860 -1.8628 0.9781
-1.3693 -5.0494 -1.8709 0.9780
0.0187 -5.2990 -1.8950 0.9777
0.9739 -5.2788 -1.9196 0.9775
1.4526 -5.2105 -1.9344 0.9773
2.8591 -4.7673 -1.9879 0.9767
3.3076 -4.5396 -2.0086 0.9764
3.7404 -4.2721 -2.0306 0.9762
4.1539 -3.9656 -2.0537 0.9759
4.5443 -3.6208 -2.0778 0.9756
4.8936 -3.2293 -2.0967 0.9754
4.8639 -2.6185 -1.9754 0.9768
2.2786 -0.9752 -0.8863 0.9895
5.8618 -0.2735 -2.0985 0.9754
5.9464 0.7912 -2.1452 0.9748
3.5616 4.8494 -2.1517 0.9748
3.0972 5.1201 -2.1399 0.9749
0.8700 3.0758 -1.1431 0.9865
1.1662 6.1902 -2.2526 0.9736
0.6054 6.2362 -2.2406 0.9737
0.0456 6.2251 -2.2262 0.9739
-1.0462 6.0374 -2.1912 0.9743
-2.9699 5.0760 -2.1031 0.9753
-2.1603 2.5222 -1.1876 0.9860
-4.9431 3.3396 -2.1333 0.9750
-5.3286 2.3494 -2.0825 0.9756
-5.5320 1.3325 -2.0349 0.9761
-5.5604 0.3199 -1.9917 0.9766
-5.5120 -0.1763 -1.9721 0.9768
-5.4238 -0.6619 -1.9540 0.9771
-4.9374 -2.0283 -1.9088 0.9776
-4.7072 -2.4460 -1.8970 0.9777
-4.4461 -2.8416 -1.8870 0.9778
-4.1560 -3.2131 -1.8786 0.9779
-3.8388 -3.5589 -1.8720 0.9780
-3.1310 -4.1676 -1.8641 0.9781
-1.4776 -5.0152 -1.8697 0.9780
-0.5656 -5.2354 -1.8831 0.9779
2.7483 -4.8165 -1.9831 0.9767
3.2001 -4.5985 -2.0035 0.9765
-5.2100 0.3135 -2.0002 0.9779
-4.8261 -1.4807 -1.9345 0.9786
-4.4300 -2.2872 -1.9106 0.9789
-4.1869 -2.6604 -1.9010 0.9790
-2.5926 -4.1582 -1.8779 0.9792
-2.2113 -4.3742 -1.8783 0.9792
-1.8137 -4.5594 -1.8804 0.9792
-0.1035 -4.9717 -1.9057 0.9789
0.7921 -4.9685 -1.9281 0.9787
3.3920 -4.0700 -2.0304 0.9776
4.1498 -3.4748 -2.0742 0.9771
4.4624 -2.5444 -1.9685 0.9782
4.9562 -1.7493 -2.0141 0.9777
5.1510 -1.3145 -2.0372 0.9775
5.3070 -0.8586 -2.0602 0.9772
5.4215 -0.3853 -2.0829 0.9770
5.5166 0.5978 -2.1264 0.9765
5.4933 1.0987 -2.1468 0.9763
5.2997 2.0940 -2.1837 0.9759
3.9309 4.2429 -2.2165 0.9755
3.1605 4.9487 -2.2502 0.9752
2.2262 5.4241 -2.2469 0.9752
1.7284 5.5875 -2.2413 0.9753
0.6422 3.0046 -1.1774 0.9869
0.1826 5.7649 -2.2103 0.9756
-0.8343 5.6250 -2.1792 0.9759
-3.0354 4.4898 -2.0769 0.9771
-3.3868 4.1546 -2.0541 0.9773
-2.2991 2.3550 -1.2613 0.9860
-4.5370 3.2288 -2.1340 0.9764
-4.9379 2.3223 -2.0911 0.9769
-5.1586 1.3762 -2.0460 0.9774
-5.1824 -0.0396 -1.9861 0.9780
-5.1128 -0.4980 -1.9686 0.9782
-3.9842 -2.9281 -1.8948 0.9790
-3.0408 -3.8487 -1.8797 0.9792
-2.6824 -4.1013 -1.8780 0.9792
-2.3053 -4.3246 -1.8780 0.9792
-1.9115 -4.5174 -1.8797 0.9792
-1.0821 -4.8070 -1.8882 0.9791
-0.6506 -4.9019 -1.8950 0.9790
-0.2111 -4.9623 -1.9034 0.9789
0.6830 -4.9766 -1.9250 0.9787
1.1325 -4.9292 -1.9382 0.9786
1.5802 -4.8447 -1.9529 0.9784
2.0232 -4.7229 -1.9690 0.9782
2.8836 -4.3666 -2.0053 0.9778
3.2947 -4.1324 -2.0253 0.9776
3.6888 -3.8615 -2.0465 0.9774
4.4087 -2.6422 -1.9697 0.9782
4.6647 -2.2559 -1.9857 0.9780
4.9034 -1.8513 -2.0086 0.9778
5.1072 -1.4220 -2.0316 0.9775
5.2729 -0.9710 -2.0546 0.9773
5.4791 -0.0176 -2.0997 0.9768
5.4433 1.4780 -2.1615 0.9761
5.1748 2.4618 -2.1960 0.9758
4.9670 2.9336 -2.2107 0.9756
4.7117 3.3847 -2.2232 0.9755
4.4100 3.8089 -2.2331 0.9753
4.0193 4.1537 -2.2150 0.9755
3.6838 4.5600 -2.2464 0.9752
2.3443 5.3768 -2.2478 0.9752
0.7034 2.9737 -1.1710 0.9870
-0.2071 5.7356 -2.1994 0.9757
-1.6789 5.3434 -2.1464 0.9763
-2.1291 5.1228 -2.1259 0.9765
-2.2223 2.3774 -1.2471 0.9862
-3.9167 3.5027 -2.0136 0.9777
-4.8997 2.4355 -2.0968 0.9768
-5.0413 1.9661 -2.0736 0.9771
-5.1986 1.0158 -2.0299 0.9776
-5.2159 0.5418 -2.0096 0.9778
-5.1331 -0.3877 -1.9727 0.9782
-5.0356 -0.8377 -1.9563 0.9784
-4.7362 -1.6953 -1.9278 0.9787
-4.5375 -2.0985 -1.9158 0.9788
-4.3084 -2.4820 -1.9054 0.9789
-4.0508 -2.8438 -1.8967 0.9790
-3.7664 -3.1823 -1.8896 0.9791
-3.1247 -3.7832 -1.8803 0.9792
-2.3985 -4.2732 -1.8779 0.9792
-2.0085 -4.4735 -1.8792 0.9792
-0.7562 -4.8820 -1.8932 0.9791
1.9163 -4.7559 -1.9649 0.9783
2.7817 -4.4178 -2.0006 0.9779
3.5950 -3.9305 -2.0413 0.9774
4.3290 -3.2982 -2.0856 0.9770
4.3239 -2.7206 -1.9577 0.9784
4.6018 -2.3501 -1.9801 0.9781
2.3172 -0.9328 -0.9572 0.9894
5.0611 -1.5283 -2.0260 0.9776
5.2363 -1.0822 -2.0491 0.9774
5.3713 -0.6170 -2.0719 0.9771
5.4635 -0.1361 -2.0944 0.9769
5.5106 0.3561 -2.1162 0.9766
5.0219 2.8208 -2.2073 0.9756
3.7362 4.4248 -2.2193 0.9755
2.9295 5.0892 -2.2503 0.9752
1.9719 5.5146 -2.2443 0.9752
0.8005 3.0839 -1.2210 0.9864
0.4338 5.7682 -2.2167 0.9755
-0.0827 5.7482 -2.2030 0.9757
-0.5916 5.6773 -2.1874 0.9758
-1.0877 5.5572 -2.1700 0.9760
-2.8527 4.6415 -2.0878 0.9769
-2.1641 2.4183 -1.2436 0.9862
-3.8504 3.5968 -2.0192 0.9777
-4.1090 3.2016 -1.9962 0.9779
-5.0108 2.0806 -2.0792 0.9770
-5.1204 1.6070 -2.0566 0.9773
-5.1512 -0.2768 -1.9769 0.9781
-4.7796 -1.5947 -1.9309 0.9786
-4.3667 -2.3908 -1.9078 0.9789
-3.5343 -3.4222 -1.8853 0.9791
-2.8588 -3.9823 -1.8786 0.9792
-2.4906 -4.2200 -1.8778 0.9792
-2.1046 -4.4277 -1.8787 0.9792
-1.7030 -4.6043 -1.8813 0.9792
-0.8611 -4.8601 -1.8915 0.9791
-0.4252 -4.9374 -1.8991 0.9790
1.3634 -4.8904 -1.9455 0.9785
2.6789 -4.4668 -1.9960 0.9779
3.0971 -4.2507 -2.0155 0.9777
3.4999 -3.9975 -2.0361 0.9775
3.8840 -3.7079 -2.0578 0.9773
4.5676 -3.0143 -2.0972 0.9768
4.5371 -2.4426 -1.9747 0.9782
5.0129 -1.6332 -2.0204 0.9777
5.4452 -0.2540 -2.0890 0.9769
5.5150 0.7338 -2.1321 0.9764
5.0739 2.7069 -2.2038 0.9757
4.1891 3.9690 -2.2115 0.9756
3.8073 4.3155 -2.2054 0.9756
3.4736 4.7296 -2.2488 0.9752
2.0923 5.4736 -2.2456 0.9752
0.8799 3.1106 -1.2388 0.9862
0.5596 5.7652 -2.2197 0.9755
0.0421 5.7578 -2.2065 0.9756
-0.9688 5.5908 -2.1744 0.9760
-2.3505 4.9936 -2.1150 0.9766
-3.1345 4.4015 -2.0707 0.9771
-3.7819 3.6898 -2.0248 0.9776
-4.6043 3.1107 -2.1294 0.9765
-4.9778 2.1948 -2.0848 0.9770
-5.1757 1.2467 -2.0401 0.9775
-5.2126 0.7714 -2.0193 0.9777
-5.2093 0.2997 -1.9996 0.9779
-5.1672 -0.1653 -1.9812 0.9781
-5.0875 -0.6208 -1.9641 0.9783
-4.8212 -1.4931 -1.9341 0.9786
-4.6378 -1.9052 -1.9214 0.9788
-4.4233 -2.2985 -1.9103 0.9789
-4.1793 -2.6710 -1.9007 0.9790
-2.9452 -3.9203 -1.8791 0.9792
-2.5816 -4.1650 -1.8779 0.9792
-1.3897 -4.7168 -1.8844 0.9792
-0.9656 -4.8362 -1.8899 0.9791
-0.5317 -4.9218 -1.8971 0.9790
0.3562 -4.9881 -1.9164 0.9788
1.2546 -4.9099 -1.9420 0.9785
2.5755 -4.5136 -1.9915 0.9780
3.4038 -4.0623 -2.0310 0.9776
-1.9469 0.1172 -0.7983 0.9916
-1.9257 -0.0565 -0.7885 0.9917
-4.5437 -1.3941 -1.9452 0.9797
-3.6915 -2.8385 -1.9058 0.9801
-3.4125 -3.1470 -1.8999 0.9801
-2.7874 -3.6899 -1.8926 0.9802
-2.4451 -3.9217 -1.8914 0.9802
-2.0854 -4.1253 -1.8919 0.9802
-0.5134 -4.6372 -1.9095 0.9800
-0.0975 -4.6849 -1.9178 0.9800
0.3231 -4.6990 -1.9277 0.9798
1.1685 -4.6237 -1.9519 0.9796
1.5884 -4.5336 -1.9661 0.9795
2.0028 -4.4082 -1.9817 0.9793
2.8037 -4.0515 -2.0165 0.9789
3.5477 -3.5559 -2.0558 0.9785
4.1777 -2.3821 -1.9683 0.9794
4.4209 -2.0209 -1.9894 0.9792
4.6332 -1.6353 -2.0109 0.9790
4.8116 -1.2279 -2.0324 0.9788
4.9537 -0.8015 -2.0538 0.9785
5.1383 0.5568 -2.1153 0.9779
5.1133 1.0227 -2.1342 0.9777
5.0431 1.4876 -2.1519 0.9775
4.9273 1.9469 -2.1683 0.9774
2.9321 4.5911 -2.2295 0.9767
1.6040 5.1852 -2.2214 0.9768
0.6340 2.9667 -1.2416 0.9870
-1.6669 4.9283 -2.1293 0.9778
-2.2568 2.3116 -1.3222 0.9861
-4.6271 2.1761 -2.0927 0.9781
-4.7534 1.7360 -2.0711 0.9784
-1.9565 0.1604 -0.8034 0.9916
-1.9579 -0.1907 -0.8051 0.9915
-2.2039 -0.4160 -0.9179 0.9904
-3.7556 -2.7601 -1.9075 0.9801
-3.1857 -3.3644 -1.8964 0.9802
-2.8676 -3.6296 -1.8932 0.9802
-0.1989 -4.6764 -1.9157 0.9800
0.6432 -4.6868 -1.9362 0.9798
2.3112 -4.2897 -1.9943 0.9792
2.7091 -4.1023 -2.0120 0.9790
3.0935 -3.8800 -2.0309 0.9788
3.4613 -3.6233 -2.0508 0.9786
3.8094 -3.3331 -2.0716 0.9784
4.1144 -2.4658 -1.9632 0.9795
4.5846 -1.7310 -2.0057 0.9790
5.0356 -0.4679 -2.0698 0.9784
5.1079 -0.0164 -2.0905 0.9782
5.0643 1.3751 -2.1478 0.9776
4.9596 1.8362 -2.1645 0.9774
4.3750 3.1428 -2.2047 0.9770
3.7745 3.9007 -2.2215 0.9768
3.0306 4.5258 -2.2292 0.9767
2.6145 4.7790 -2.2295 0.9767
2.1751 4.9886 -2.2273 0.9768
1.7173 5.1525 -2.2228 0.9768
0.7024 2.9695 -1.2489 0.9869
-0.1924 5.3298 -2.1828 0.9772
-0.6632 5.2554 -2.1680 0.9774
-2.3789 4.5324 -2.0950 0.9781
-2.7470 4.2595 -2.0744 0.9783
-4.8229 1.3994 -2.0553 0.9785
-4.8804 0.9536 -2.0352 0.9787
-2.0893 -0.3475 -0.8668 0.9909
-4.4600 -1.5965 -1.9388 0.9797
-4.2744 -1.9769 -1.9275 0.9799
-3.5509 -3.0002 -1.9026 0.9801
-2.2620 -4.0301 -1.8915 0.9802
-1.5120 -4.3777 -1.8955 0.9802
0.1186 -4.6964 -1.9227 0.9799
0.5406 -4.6929 -1.9334 0.9798
1.3852 -4.5818 -1.9590 0.9795
1.8025 -4.4735 -1.9739 0.9794
3.0016 -3.9371 -2.0262 0.9788
4.3066 -2.1993 -1.9791 0.9793
2.3191 -0.9336 -1.0232 0.9893
5.0118 -0.5757 -2.0647 0.9784
5.1344 0.3318 -2.1058 0.9780
5.1311 0.7964 -2.1252 0.9778
5.0829 1.2624 -2.1435 0.9776
4.6654 2.6206 -2.1900 0.9771
4.4369 3.0435 -2.2021 0.9770
3.1275 4.4581 -2.2288 0.9767
1.8298 5.1170 -2.2241 0.9768
0.8044 3.0991 -1.3104 0.9863
0.8841 5.3253 -2.2094 0.9769
0.4029 5.3571 -2.1987 0.9770
-0.0768 5.3409 -2.1861 0.9772
-1.8833 4.8242 -2.1195 0.9779
-2.2853 4.5937 -2.0999 0.9781
-3.0058 4.0326 -2.0585 0.9785
-2.1317 2.3821 -1.3083 0.9863
-3.5989 3.3619 -2.0156 0.9789
-3.8434 2.9947 -1.9941 0.9792
-4.5515 2.3870 -2.1034 0.9780
-4.6971 1.9503 -2.0815 0.9783
-1.9447 -0.2803 -0.8042 0.9915
-4.6478 -1.1009 -1.9549 0.9796
-4.5005 -1.5016 -1.9418 0.9797
-4.1146 -2.2528 -1.9199 0.9799
-3.8792 -2.5995 -1.9112 0.9800
-3.3325 -3.2268 -1.8985 0.9802
-2.3488 -3.9799 -1.8914 0.9802
-1.2142 -4.4776 -1.8988 0.9801
-0.8118 -4.5817 -1.9044 0.9801
0.4380 -4.6969 -1.9306 0.9798
0.8610 -4.6672 -1.9424 0.9797
1.2832 -4.6027 -1.9556 0.9796
4.8540 -1.1136 -2.0382 0.9787
4.7143 2.5150 -2.1868 0.9772
4.4963 2.9428 -2.1993 0.9770
4.2356 3.3487 -2.2099 0.9769
2.8197 4.6614 -2.2297 0.9767
1.9414 5.0788 -2.2253 0.9768
0.0391 5.3492 -2.1893 0.9771
-0.4361 5.2972 -2.1754 0.9773
-0.9010 5.1994 -2.1597 0.9775
-1.3510 5.0577 -2.1426 0.9776
-2.9248 4.1071 -2.0636 0.9784
-2.4323 2.3730 -1.3908 0.9854
-3.7874 3.0854 -1.9993 0.9791
-4.3049 2.9084 -2.1263 0.9778
-4.7810 1.6153 -2.0654 0.9784
-1.9437 0.2876 -0.8042 0.9915
-1.9279 -0.0617 -0.7894 0.9917
-4.1675 -2.1656 -1.9222 0.9799
-3.9388 -2.5173 -1.9132 0.9800
-3.4039 -3.1557 -1.8997 0.9801
-3.1012 -3.4392 -1.8953 0.9802
-2.4347 -3.9281 -1.8914 0.9802
-1.6991 -4.3044 -1.8940 0.9802
0.7584 -4.6776 -1.9394 0.9797
1.1810 -4.6216 -1.9523 0.9796
1.6007 -4.5305 -1.9665 0.9794
2.0149 -4.4040 -1.9821 0.9793
3.1953 -3.8135 -2.0362 0.9787
-1.5296 0.0920 -0.6678 0.9933
-1.5223 -0.1817 -0.6681 0.9933
-4.1291 -1.6835 -1.9434 0.9807
-3.9417 -2.0350 -1.9333 0.9808
-3.7274 -2.3684 -1.9247 0.9809
-3.2247 -2.9738 -1.9118 0.9810
-2.9397 -3.2429 -1.9076 0.9811
-2.6346 -3.4877 -1.9049 0.9811
-1.2493 -4.1996 -1.9095 0.9811
-0.0921 -4.4249 -1.9289 0.9809
0.3051 -4.4369 -1.9382 0.9808
1.1026 -4.3628 -1.9612 0.9806
2.9974 -3.5965 -2.0404 0.9798
3.9228 -2.2367 -1.9680 0.9805
2.2964 -1.0497 -1.1004 0.9890
4.3447 -1.5335 -2.0080 0.9801
4.7878 0.0886 -2.0870 0.9793
4.8029 0.5205 -2.1054 0.9791
4.7086 1.3889 -2.1395 0.9788
4.5981 1.8168 -2.1547 0.9787
4.0179 3.0206 -2.1907 0.9783
3.4390 3.7119 -2.2053 0.9782
1.9241 4.6880 -2.2085 0.9781
0.6066 4.9840 -2.1882 0.9783
0.1581 4.9936 -2.1774 0.9784
-1.5574 4.6046 -2.1184 0.9790
-2.3114 4.1807 -2.0819 0.9794
-2.6508 3.9208 -2.0626 0.9796
-2.0347 2.4959 -1.4034 0.9860
-3.7064 2.6377 -1.9826 0.9803
-4.1858 2.4472 -2.1132 0.9791
-4.3483 2.0450 -2.0942 0.9793
-1.5968 0.5832 -0.7409 0.9926
-1.5286 0.1253 -0.6684 0.9933
-1.5267 -0.1487 -0.6685 0.9933
-1.5652 -0.4433 -0.7090 0.9929
-4.1704 -1.5957 -1.9460 0.9807
-3.9897 -1.9514 -1.9356 0.9808
-3.7818 -2.2893 -1.9266 0.9809
-2.7104 -3.4306 -1.9054 0.9811
-2.0551 -3.8551 -1.9039 0.9811
-1.3395 -4.1694 -1.9086 0.9811
-0.9640 -4.2826 -1.9131 0.9810
-0.5794 -4.3655 -1.9192 0.9810
0.6072 -4.4243 -1.9463 0.9807
1.7942 -4.1881 -1.9857 0.9803
2.5518 -3.8641 -2.0181 0.9800
3.2567 -3.4091 -2.0547 0.9796
3.5820 -3.1341 -2.0743 0.9794
3.8788 -2.8243 -2.0911 0.9793
3.8640 -2.3157 -1.9632 0.9805
4.6108 -0.8491 -2.0433 0.9798
4.7134 -0.4380 -2.0631 0.9796
4.7781 -0.0153 -2.0824 0.9794
4.7869 0.8498 -2.1188 0.9790
4.6288 1.7138 -2.1511 0.9787
4.4864 2.1343 -2.1652 0.9786
3.5166 3.6342 -2.2039 0.9782
3.1846 3.9421 -2.2086 0.9781
2.4353 4.4513 -2.2113 0.9781
2.0261 4.6469 -2.2093 0.9781
0.7326 3.0975 -1.3872 0.9862
0.7154 4.9750 -2.1905 0.9783
-0.1795 4.9715 -2.1681 0.9785
-0.6189 4.9043 -2.1543 0.9787
-1.0471 4.7953 -2.1391 0.9788
-1.4600 4.6465 -2.1226 0.9790
-1.8537 4.4602 -2.1050 0.9791
-2.1485 2.2985 -1.3712 0.9864
-3.6572 2.7241 -1.9874 0.9803
-4.3132 2.1440 -2.0992 0.9792
-1.5689 0.4552 -0.7119 0.9929
-1.5030 0.2937 -0.6674 0.9933
-1.5256 0.1585 -0.6684 0.9933
-1.5252 0.0215 -0.6648 0.9934
-1.5291 -0.1155 -0.6683 0.9933
-1.5514 -0.4032 -0.6986 0.9930
-1.5951 -0.5710 -0.7384 0.9926
-3.3553 -2.8349 -1.9144 0.9810
-3.0807 -3.1153 -1.9094 0.9811
-2.7851 -3.3720 -1.9060 0.9811
-2.4703 -3.6037 -1.9041 0.9811
-2.1381 -3.8093 -1.9038 0.9811
-1.7903 -3.9875 -1.9050 0.9811
-1.4290 -4.1374 -1.9077 0.9811
-1.0560 -4.2579 -1.9119 0.9810
0.5104 -4.4304 -1.9436 0.9807
0.9094 -4.3929 -1.9551 0.9806
2.0858 -4.0810 -1.9974 0.9802
2.8262 -3.7069 -2.0315 0.9799
3.5050 -3.2037 -2.0695 0.9795
3.8106 -2.9032 -2.0878 0.9793
3.8036 -2.3932 -1.9585 0.9806
4.5805 -0.9467 -2.0384 0.9798
4.6920 -0.5389 -2.0583 0.9796
4.8007 0.3103 -2.0966 0.9792
4.7469 1.1790 -2.1316 0.9789
4.3508 2.4439 -2.1748 0.9785
4.1362 2.8372 -2.1860 0.9784
3.8826 3.2089 -2.1952 0.9783
3.5923 3.5547 -2.2025 0.9782
3.2680 3.8704 -2.2077 0.9781
2.9132 4.1525 -2.2107 0.9781
2.5315 4.3977 -2.2114 0.9781
2.1271 4.6033 -2.2100 0.9781
1.7046 4.7670 -2.2064 0.9782
0.8092 3.1175 -1.4037 0.9860
-0.5132 4.9245 -2.1578 0.9786
-0.9445 4.8255 -2.1429 0.9788
-1.3614 4.6861 -2.1267 0.9789
-2.4895 4.0506 -2.0721 0.9795
-3.3743 3.1521 -2.0124 0.9801
-3.6060 2.8097 -1.9923 0.9803
-4.0892 2.6353 -2.1201 0.9790
-4.2759 2.2425 -2.1042 0.9792
-1.5801 0.4959 -0.7218 0.9928
-1.5218 0.3318 -0.6788 0.9932
-1.5284 0.0547 -0.6665 0.9933
-1.5360 -0.3638 -0.6879 0.9931
-1.5878 -0.5298 -0.7295 0.9927
-4.0809 -1.7809 -1.9405 0.9808
-3.8860 -2.1276 -1.9308 0.9809
-3.6646 -2.4557 -1.9226 0.9809
-3.4185 -2.7635 -1.9158 0.9810
-3.1493 -3.0494 -1.9105 0.9811
-2.5483 -3.5499 -1.9045 0.9811
-1.5178 -4.1037 -1.9069 0.9811
-1.1475 -4.2314 -1.9107 0.9811
0.4135 -4.4345 -1.9410 0.9808
1.2106 -4.3425 -1.9647 0.9805
1.9929 -4.1174 -1.9936 0.9802
2.3719 -3.9549 -2.0098 0.9801
3.0917 -3.5312 -2.0455 0.9797
3.4267 -3.2714 -2.0647 0.9795
3.7409 -2.9806 -2.0846 0.9793
2.2762 -0.9742 -1.0790 0.9893
4.7516 -0.2217 -2.0731 0.9795
4.7999 0.6387 -2.1103 0.9791
4.7624 1.0736 -2.1276 0.9789
4.3968 2.3457 -2.1718 0.9785
3.9476 3.1210 -2.1932 0.9783
3.3496 3.7968 -2.2066 0.9781
2.6263 4.3418 -2.2115 0.9781
1.8085 4.7312 -2.2074 0.9781
0.9159 3.2380 -1.4665 0.9854
0.9324 4.9490 -2.1948 0.9783
-0.4068 4.9423 -2.1612 0.9786
-0.8410 4.8533 -2.1467 0.9787
-2.0478 4.3506 -2.0956 0.9792
-2.7383 3.8451 -2.0573 0.9796
-2.3961 2.3377 -1.4589 0.9855
-3.5528 2.8943 -1.9972 0.9802
-4.2363 2.3403 -2.1092 0.9791
-1.5388 0.3707 -0.6898 0.9931
-1.5137 0.2240 -0.6669 0.9933
-1.5296 0.0880 -0.6677 0.9933
-1.5280 -0.0489 -0.6663 0.9934
-1.5216 -0.1857 -0.6681 0.9933
-1.5186 -0.3251 -0.6768 0.9932
-1.5783 -0.4888 -0.7201 0.9928
-4.1240 -1.6941 -1.9430 0.9807
-3.4804 -2.6908 -1.9173 0.9810
-2.9310 -3.2505 -1.9075 0.9811
-2.6253 -3.4945 -1.9049 0.9811
-2.3013 -3.7129 -1.9038 0.9811
-1.2383 -4.2032 -1.9097 0.9811
-0.8602 -4.3082 -1.9147 0.9810
-0.4735 -4.3827 -1.9211 0.9809
-0.0804 -4.4257 -1.9291 0.9809
0.7158 -4.4152 -1.9494 0.9807
1.1143 -4.3607 -1.9615 0.9806
1.8995 -4.1519 -1.9898 0.9803
2.6513 -3.8098 -2.0229 0.9800
3.0077 -3.5895 -2.0409 0.9798
-1.3371 -0.0392 -0.6192 0.9941
-1.3274 -0.4072 -0.6427 0.9939
-1.3276 -0.5413 -0.6636 0.9937
-3.3021 -2.5390 -1.9281 0.9818
-3.0534 -2.8159 -1.9227 0.9819
-1.8669 -3.6929 -1.9154 0.9819
-1.1831 -3.9768 -1.9205 0.9819
-0.8251 -4.0765 -1.9252 0.9818
-0.4591 -4.1471 -1.9314 0.9818
-0.0871 -4.1879 -1.9389 0.9817
1.4161 -4.0419 -1.9824 0.9813
3.1473 -3.1546 -2.0626 0.9806
3.4475 -2.8867 -2.0813 0.9804
3.7157 -2.5840 -2.0949 0.9802
3.6930 -2.1057 -1.9678 0.9814
2.2856 -1.0448 -1.1633 0.9890
4.0853 -1.4419 -2.0054 0.9811
4.2373 -1.0813 -2.0243 0.9809
4.4102 1.3009 -2.1284 0.9799
4.3048 1.7009 -2.1425 0.9798
3.5026 3.1604 -2.1837 0.9794
2.8970 3.7498 -2.1934 0.9793
1.9869 3.8267 -1.9958 0.9812
1.7985 4.3820 -2.1926 0.9793
0.6732 3.1498 -1.4909 0.9859
0.5673 4.6615 -2.1737 0.9795
0.1480 4.6720 -2.1637 0.9796
-0.2685 4.6414 -2.1520 0.9797
-1.0762 4.4616 -2.1244 0.9800
-1.8248 4.1350 -2.0921 0.9803
-2.1874 2.2406 -1.4494 0.9863
-3.9381 2.3024 -2.1116 0.9801
-4.0965 1.9266 -2.0955 0.9802
-1.3330 0.4868 -0.6569 0.9938
-1.3158 0.3510 -0.6304 0.9940
-1.3186 0.2280 -0.6194 0.9941
-1.3345 -0.0102 -0.6177 0.9941
-1.3366 -0.1302 -0.6216 0.9941
-1.3211 -0.3742 -0.6356 0.9940
-1.3314 -0.5094 -0.6599 0.9937
-3.7753 -1.8465 -1.9453 0.9816
-3.5794 -2.1668 -1.9368 0.9817
-2.2647 -3.4626 -1.9152 0.9819
-1.9463 -3.6511 -1.9152 0.9819
-1.6136 -3.8133 -1.9167 0.9819
0.1972 -4.1985 -1.9455 0.9816
0.9514 -4.1409 -1.9667 0.9814
1.6954 -3.9575 -1.9929 0.9812
2.0573 -3.8185 -2.0077 0.9811
2.4091 -3.6481 -2.0236 0.9809
3.0715 -3.2152 -2.0582 0.9806
3.3765 -2.9543 -2.0767 0.9804
3.6533 -2.6601 -2.0919 0.9803
3.6381 -2.1803 -1.9633 0.9815
4.2033 -1.1704 -2.0197 0.9810
4.4864 0.7964 -2.1091 0.9801
4.4299 1.2028 -2.1248 0.9800
4.3340 1.6046 -2.1392 0.9798
3.8142 2.7400 -2.1739 0.9795
3.2875 3.3974 -2.1883 0.9794
1.8938 4.3435 -2.1933 0.9793
0.6690 4.6527 -2.1758 0.9795
0.2496 4.6732 -2.1663 0.9796
-0.9808 4.4915 -2.1280 0.9799
-2.4132 3.7419 -2.0610 0.9806
-2.7133 3.4799 -2.0426 0.9807
-3.2286 2.8874 -2.0049 0.9811
-3.8932 2.3910 -2.1148 0.9801
-1.3305 0.5189 -0.6610 0.9937
-1.3357 0.1388 -0.6216 0.9941
-1.3354 0.0188 -0.6182 0.9941
-1.3207 -0.2197 -0.6197 0.9941
-1.3134 -0.3414 -0.6281 0.9940
-1.3131 -0.6073 -0.6697 0.9936
-3.6292 -2.0907 -1.9387 0.9817
-3.4147 -2.3972 -1.9312 0.9818
-3.1768 -2.6842 -1.9251 0.9818
-2.6376 -3.1934 -1.9172 0.9819
-2.3396 -3.4130 -1.9154 0.9819
-2.0250 -3.6078 -1.9150 0.9819
-1.6956 -3.7764 -1.9162 0.9819
-1.3533 -3.9181 -1.9187 0.9819
-0.2683 -4.1719 -1.9351 0.9817
0.4828 -4.1914 -1.9529 0.9816
1.9703 -3.8551 -2.0040 0.9811
2.3248 -3.6923 -2.0197 0.9810
2.6672 -3.4984 -2.0363 0.9808
3.5895 -2.7347 -2.0888 0.9803
3.5818 -2.2536 -1.9588 0.9815
3.8045 -1.9429 -1.9774 0.9813
4.1675 -1.2584 -2.0151 0.9810
4.3031 -0.8894 -2.0339 0.9808
4.4053 -0.5060 -2.0525 0.9806
4.5022 0.2910 -2.0884 0.9803
4.4942 0.6976 -2.1052 0.9802
4.3609 1.5078 -2.1358 0.9799
4.2352 1.9032 -2.1493 0.9797
3.8688 2.6538 -2.1716 0.9795
3.6306 3.0006 -2.1802 0.9795
3.3584 3.3232 -2.1870 0.9794
1.9882 4.3026 -2.1940 0.9793
1.5934 4.4561 -2.1906 0.9794
0.8157 3.1424 -1.5028 0.9858
0.3514 4.6721 -2.1687 0.9796
-0.0671 4.6613 -2.1579 0.9797
-0.8846 4.5193 -2.1316 0.9799
-1.2756 4.3909 -2.1165 0.9800
-1.6500 4.2268 -2.1003 0.9802
-2.6430 3.5458 -2.0471 0.9807
-2.1045 2.3517 -1.4608 0.9862
-3.1724 2.9635 -2.0095 0.9810
-3.8464 2.4788 -2.1181 0.9800
-1.3261 0.5506 -0.6646 0.9937
-1.3384 -0.0719 -0.6204 0.9941
-1.3210 -0.5765 -0.6672 0.9937
-3.4690 -2.3246 -1.9329 0.9818
-3.2366 -2.6164 -1.9265 0.9818
-2.4135 -3.3620 -1.9157 0.9819
-2.1027 -3.5629 -1.9150 0.9819
-1.4374 -3.8862 -1.9180 0.9819
-0.3584 -4.1612 -1.9333 0.9818
0.3912 -4.1956 -1.9505 0.9816
0.7686 -4.1664 -1.9611 0.9815
1.1446 -4.1058 -1.9730 0.9814
3.2309 -3.0845 -2.0677 0.9805
3.5241 -2.8079 -2.0857 0.9803
3.7837 -2.4970 -2.0984 0.9802
4.1298 -1.3455 -2.0105 0.9810
4.3836 -0.6002 -2.0481 0.9807
4.4593 -0.2080 -2.0664 0.9805
4.4997 0.5987 -2.1012 0.9802
4.4622 1.0060 -2.1173 0.9800
4.3854 1.4105 -2.1324 0.9799
4.2693 1.8082 -2.1461 0.9798
3.9212 2.5664 -2.1693 0.9796
3.4274 3.2474 -2.1855 0.9794
2.8058 3.8203 -2.1941 0.9793
2.4547 4.0580 -2.1953 0.9793
1.9036 3.8952 -2.0068 0.9811
1.6905 4.4225 -2.1916 0.9793
0.0342 4.6677 -2.1607 0.9796
-0.3808 4.6261 -2.1486 0.9797
-0.7876 4.5448 -2.1351 0.9799
-1.1821 4.4254 -2.1203 0.9800
-2.2581 3.8595 -2.0698 0.9805
-2.3602 2.3027 -1.5263 0.9856
-3.5380 2.3903 -1.9764 0.9814
-3.9860 2.2020 -2.1079 0.9801
-1.3198 0.5819 -0.6677 0.9937
-1.3332 0.4504 -0.6514 0.9938
-1.3262 0.1962 -0.6205 0.9941
-1.3270 -0.5451 -0.6640 0.9937
-3.7245 -1.9354 -1.9429 0.9817
-2.7757 -3.0782 -1.9186 0.9819
-1.8571 -3.6979 -1.9154 0.9819
-0.8144 -4.0790 -1.9254 0.9818
-0.4482 -4.1488 -1.9316 0.9818
2.5027 -3.5963 -2.0281 0.9809
2.8377 -3.3867 -2.0452 0.9807
-1.1959 0.0720 -0.5877 0.9947
-1.1905 -0.1421 -0.5881 0.9947
-1.1712 -0.2475 -0.5872 0.9947
-1.1589 -0.3556 -0.5946 0.9946
-1.1243 -0.5805 -0.6207 0.9944
-3.3455 -2.1258 -1.9443 0.9825
-3.1317 -2.4080 -1.9378 0.9826
-2.8963 -2.6710 -1.9326 0.9826
-2.6410 -2.9133 -1.9288 0.9826
-2.3672 -3.1336 -1.9264 0.9827
-2.0767 -3.3308 -1.9254 0.9827
-1.4524 -3.6511 -1.9275 0.9826
0.6311 -3.9588 -1.9664 0.9823
1.3411 -3.8278 -1.9895 0.9821
2.6739 -3.2083 -2.0486 0.9816
2.2779 -1.0413 -1.2286 0.9889
3.8506 -1.3591 -2.0030 0.9820
3.9917 -1.0186 -2.0208 0.9818
4.2333 0.4587 -2.0887 0.9812
4.2061 0.8412 -2.1040 0.9811
4.0416 1.5969 -2.1316 0.9808
3.2846 2.9637 -2.1701 0.9805
3.0142 3.2534 -2.1755 0.9804
2.7159 3.5154 -2.1791 0.9804
2.3929 3.7468 -2.1807 0.9804
2.0102 3.8717 -2.1399 0.9808
1.6861 4.1082 -2.1783 0.9804
1.3099 4.2345 -2.1742 0.9804
0.9239 4.3228 -2.1683 0.9805
0.5322 4.3726 -2.1607 0.9806
-0.2521 4.3564 -2.1405 0.9807
-0.6365 4.2918 -2.1282 0.9809
-1.0109 4.1909 -2.1147 0.9810
-1.3717 4.0556 -2.1001 0.9811
-2.0399 3.6898 -2.0681 0.9814
-2.3420 3.4641 -2.0511 0.9815
-2.0178 2.4752 -1.5665 0.9859
-3.0948 2.6491 -1.9983 0.9820
-1.1369 0.5347 -0.6163 0.9944
-1.1552 0.4219 -0.6033 0.9945
-1.1958 -0.0091 -0.5866 0.9947
-1.1932 -0.1162 -0.5881 0.9947
-1.1589 -0.3282 -0.5908 0.9946
-1.1532 -0.4412 -0.6056 0.9945
-1.1322 -0.5538 -0.6182 0.9944
-3.1856 -2.3412 -1.9393 0.9825
-2.9554 -2.6090 -1.9338 0.9826
-2.4352 -3.0823 -1.9269 0.9827
-1.8466 -3.4640 -1.9255 0.9827
-1.5309 -3.6177 -1.9269 0.9827
-1.2033 -3.7454 -1.9297 0.9826
-0.8658 -3.8462 -1.9339 0.9826
-0.1686 -3.9642 -1.9463 0.9825
0.5444 -3.9665 -1.9639 0.9823
0.9014 -3.9233 -1.9746 0.9822
1.2558 -3.8501 -1.9865 0.9821
1.6051 -3.7469 -1.9995 0.9820
2.2790 -3.4510 -2.0286 0.9817
2.5985 -3.2591 -2.0446 0.9816
2.9029 -3.0388 -2.0614 0.9815
3.4486 -2.5111 -2.0926 0.9812
3.4332 -2.0575 -1.9634 0.9823
2.3382 -1.1308 -1.2740 0.9885
3.9602 -1.1027 -2.0165 0.9819
4.0783 -0.7510 -2.0341 0.9817
4.1644 -0.3870 -2.0515 0.9815
4.2169 -0.0135 -2.0685 0.9814
3.9410 1.8748 -2.1408 0.9807
3.7768 2.2306 -2.1516 0.9806
3.5778 2.5701 -2.1609 0.9806
3.3456 2.8896 -2.1685 0.9805
1.4022 4.2073 -2.1754 0.9804
0.7378 3.1195 -1.5724 0.9858
0.2342 4.3845 -2.1538 0.9806
-0.1577 4.3665 -2.1433 0.9807
-0.5440 4.3108 -2.1313 0.9808
-1.2856 4.0915 -2.1037 0.9811
-1.9632 3.7404 -2.0721 0.9814
-3.0431 2.7215 -2.0026 0.9820
-3.2450 2.4171 -1.9848 0.9821
-3.6713 2.2547 -2.1134 0.9810
-1.1301 0.5617 -0.6190 0.9944
-1.1522 0.4494 -0.6066 0.9945
-1.1755 0.2297 -0.5875 0.9947
-1.1925 0.1239 -0.5881 0.9947
-1.1961 0.0168 -0.5868 0.9947
-1.1951 -0.0903 -0.5879 0.9947
-3.4410 -1.9823 -1.9480 0.9825
-3.0132 -2.5459 -1.9350 0.9826
-2.7673 -2.7984 -1.9305 0.9826
-2.5022 -3.0296 -1.9274 0.9826
-1.9212 -3.4228 -1.9254 0.9827
-1.6086 -3.5828 -1.9264 0.9827
0.4576 -3.9725 -1.9615 0.9823
0.8149 -3.9365 -1.9719 0.9822
1.1702 -3.8706 -1.9835 0.9821
2.1995 -3.4932 -2.0249 0.9818
2.5223 -3.3084 -2.0407 0.9816
2.8306 -3.0948 -2.0573 0.9815
3.1218 -2.8535 -2.0746 0.9813
3.3805 -2.1270 -1.9591 0.9824
3.5887 -1.8327 -1.9766 0.9822
4.0525 -0.8376 -2.0299 0.9817
4.2239 0.6556 -2.0967 0.9811
4.1778 1.0376 -2.1116 0.9810
3.9755 1.7865 -2.1379 0.9808
3.8199 2.1457 -2.1491 0.9807
2.5526 3.6385 -2.1802 0.9804
1.8639 4.0336 -2.1796 0.9804
1.4940 4.1779 -2.1764 0.9804
0.8169 3.1471 -1.5949 0.9856
0.7227 4.3533 -2.1646 0.9805
0.3296 4.3831 -2.1561 0.9806
-2.1984 3.5769 -2.0594 0.9815
-2.0970 2.3433 -1.5425 0.9861
-2.9898 2.7929 -2.0069 0.9819
-3.1987 2.4924 -1.9891 0.9821
-3.3783 2.1771 -1.9714 0.9823
-1.1483 0.4768 -0.6099 0.9945
-1.1587 0.3637 -0.5957 0.9946
-1.1693 0.2549 -0.5871 0.9947
-1.1962 -0.0643 -0.5876 0.9947
-1.1866 -0.1710 -0.5881 0.9947
-1.1578 -0.3863 -0.5987 0.9946
-1.1106 -0.6081 -0.6211 0.9944
-3.2896 -2.2044 -1.9424 0.9825
-2.8288 -2.7390 -1.9315 0.9826
-2.5682 -2.9755 -1.9280 0.9826
-1.9949 -3.3803 -1.9253 0.9827
-1.6856 -3.5463 -1.9261 0.9827
-1.0307 -3.8007 -1.9317 0.9826
0.3708 -3.9768 -1.9592 0.9824
0.7283 -3.9480 -1.9693 0.9823
1.4364 -3.8007 -1.9930 0.9821
1.7822 -3.6821 -2.0066 0.9819
2.1193 -3.5337 -2.0212 0.9818
2.4452 -3.3559 -2.0368 0.9817
3.3682 -2.2227 -1.9795 0.9822
4.1267 -0.5650 -2.0431 0.9816
4.1957 -0.1957 -2.0603 0.9815
4.2304 0.1813 -2.0770 0.9813
4.2295 0.5628 -2.0930 0.9812
4.1924 0.9451 -2.1081 0.9810
4.1185 1.3246 -2.1221 0.9809
4.0078 1.6975 -2.1350 0.9808
3.8609 2.0598 -2.1465 0.9807
3.6786 2.4077 -2.1566 0.9806
3.2139 3.0451 -2.1717 0.9805
2.6304 3.5815 -2.1797 0.9804
2.3011 3.8041 -2.1808 0.9804
1.8899 3.8672 -2.1114 0.9810
1.2057 4.2623 -2.1728 0.9805
0.8177 4.3402 -2.1664 0.9805
-0.3575 4.3425 -2.1373 0.9808
-1.1106 4.1574 -2.1108 0.9810
-1.8060 3.8368 -2.0801 0.9813
-2.1244 3.6310 -2.0635 0.9814
-2.3247 2.2681 -1.5932 0.9856
-3.3375 2.2548 -1.9757 0.9822
-1.1623 0.2800 -0.5865 0.9947
-1.1859 0.1755 -0.5880 0.9947
-1.1964 -0.0383 -0.5872 0.9947
-1.1704 -0.2506 -0.5871 0.9947
-3.3396 -2.1343 -1.9441 0.9825
-3.1251 -2.4160 -1.9376 0.9826
-2.8891 -2.6785 -1.9325 0.9826
-2.3588 -3.1398 -1.9264 0.9827
-2.0679 -3.3362 -1.9254 0.9827
-0.7725 -3.8689 -1.9352 0.9826
-0.4251 -3.9344 -1.9411 0.9825
0.2841 -3.9793 -1.9569 0.9824
2.3673 -3.4017 -2.0329 0.9817
-1.1061 0.0666 -0.5748 0.9950
-1.1066 -0.0325 -0.5743 0.9950
-1.1010 -0.1314 -0.5752 0.9950
-1.0525 -0.4291 -0.5897 0.9949
-1.0237 -0.5285 -0.5977 0.9948
-0.9728 -0.6181 -0.5980 0.9948
-2.9748 -2.2874 -1.9468 0.9832
-1.6829 -3.3291 -1.9352 0.9833
-1.3800 -3.4692 -1.9369 0.9833
0.2598 -3.7783 -1.9647 0.9831
0.5991 -3.7577 -1.9740 0.9830
1.2722 -3.6312 -1.9961 0.9828
1.6016 -3.5252 -2.0087 0.9827
1.9230 -3.3909 -2.0223 0.9826
2.5326 -3.0388 -2.0522 0.9823
3.0809 -2.5798 -2.0847 0.9821
3.3169 -2.3067 -2.0960 0.9820
2.2211 -1.0153 -1.2669 0.9891
3.6369 -1.2837 -2.0008 0.9828
3.7684 -0.9616 -2.0176 0.9826
3.8708 -0.6263 -2.0342 0.9825
3.9426 -0.2802 -2.0505 0.9823
3.9823 0.0737 -2.0663 0.9822
3.8999 1.1504 -2.1094 0.9818
3.8038 1.5029 -2.1218 0.9817
3.6735 1.8464 -2.1329 0.9816
3.0880 2.7864 -2.1578 0.9814
2.8334 3.0582 -2.1628 0.9814
2.5528 3.3042 -2.1662 0.9814
1.9253 3.7080 -2.1675 0.9813
0.8686 4.0644 -2.1561 0.9814
0.5004 4.1120 -2.1490 0.9815
0.1306 4.1235 -2.1403 0.9816
-0.2372 4.0991 -2.1301 0.9817
-0.5991 4.0396 -2.1186 0.9818
-0.9519 3.9462 -2.1059 0.9819
-1.9233 3.4788 -2.0622 0.9822
-2.0104 2.4661 -1.6506 0.9858
-0.9955 0.5820 -0.5982 0.9948
-1.0399 0.4891 -0.5962 0.9948
-1.0586 0.3866 -0.5846 0.9949
-1.1048 0.0906 -0.5751 0.9950
-1.1061 -0.0084 -0.5738 0.9950
-1.1035 -0.1075 -0.5752 0.9950
-3.0260 -2.2239 -1.9481 0.9832
-2.8076 -2.4786 -1.9429 0.9833
-2.5697 -2.7140 -1.9390 0.9833
-1.7546 -3.2915 -1.9350 0.9833
-0.1601 -3.7647 -1.9548 0.9832
0.1775 -3.7790 -1.9626 0.9831
0.8554 -3.7232 -1.9818 0.9829
1.8459 -3.4260 -2.0189 0.9826
2.1598 -3.2705 -2.0332 0.9825
2.7487 -2.8773 -2.0644 0.9822
3.0188 -2.6414 -2.0810 0.9821
3.8487 -0.7087 -2.0302 0.9825
3.9281 -0.3650 -2.0466 0.9824
3.9757 -0.0128 -2.0625 0.9822
3.9714 0.7050 -2.0925 0.9820
3.9181 1.0639 -2.1062 0.9819
3.8302 1.4181 -2.1189 0.9818
3.7082 1.7641 -2.1303 0.9817
3.3646 2.4170 -2.1492 0.9815
3.1456 2.7168 -2.1563 0.9814
2.0055 3.6657 -2.1677 0.9813
1.6688 3.8274 -2.1661 0.9814
1.3181 3.9550 -2.1627 0.9814
0.7357 3.1105 -1.6582 0.9857
0.2203 4.1240 -2.1425 0.9816
-0.8673 3.9719 -2.1091 0.9818
-1.2109 3.8537 -2.0956 0.9820
-2.1418 3.3211 -2.0501 0.9823
-2.1257 2.2741 -1.6149 0.9861
-2.8743 2.5705 -2.0005 0.9828
-3.0665 2.2842 -1.9837 0.9829
-0.9825 0.6034 -0.5981 0.9948
-1.0553 0.4116 -0.5876 0.9949
-1.1028 0.1146 -0.5752 0.9950
-1.1063 0.0156 -0.5740 0.9950
-1.1052 -0.0835 -0.5750 0.9950
-1.0934 -0.1819 -0.5750 0.9950
-1.0689 -0.2778 -0.5729 0.9950
-1.0594 -0.3792 -0.5837 0.9949
-3.0758 -2.1593 -1.9496 0.9832
-2.8624 -2.4185 -1.9441 0.9833
-1.5285 -3.4043 -1.9359 0.9833
-0.5744 -3.7086 -1.9469 0.9832
0.4344 -3.7712 -1.9694 0.9830
1.1102 -3.6723 -1.9903 0.9829
1.4426 -3.5802 -2.0024 0.9828
1.7682 -3.4596 -2.0156 0.9826
2.0846 -3.3108 -2.0297 0.9825
2.6805 -2.9307 -2.0604 0.9823
2.9550 -2.7010 -2.0769 0.9821
3.2053 -2.4420 -2.0905 0.9820
3.9117 -0.4493 -2.0426 0.9824
3.9900 0.2579 -2.0742 0.9821
3.9792 0.6176 -2.0890 0.9820
3.9342 0.9771 -2.1030 0.9819
3.8547 1.3328 -2.1159 0.9818
3.7410 1.6811 -2.1277 0.9817
3.4131 2.3412 -2.1472 0.9815
2.9604 2.9294 -2.1606 0.9814
2.6920 3.1883 -2.1648 0.9814
2.0847 3.6215 -2.1678 0.9813
0.8092 3.1176 -1.6710 0.9856
-0.4244 4.0728 -2.1243 0.9817
-0.7821 3.9957 -2.1122 0.9818
-1.4614 3.7434 -2.0847 0.9821
-2.0894 2.3348 -1.6254 0.9860
-1.1066 0.0396 -0.5744 0.9950
-1.1063 -0.0594 -0.5747 0.9950
-1.0974 -0.1581 -0.5752 0.9950
-1.0760 -0.2549 -0.5736 0.9950
-1.0616 -0.3542 -0.5806 0.9950
-1.0473 -0.4570 -0.5928 0.9949
-3.1244 -2.0937 -1.9512 0.9832
-2.9161 -2.3573 -1.9453 0.9832
-2.6875 -2.6023 -1.9407 0.9833
-2.4402 -2.8271 -1.9374 0.9833
-1.6017 -3.3697 -1.9355 0.9833
-1.2956 -3.5029 -1.9376 0.9833
-0.9792 -3.6109 -1.9409 0.9833
0.0133 -3.7756 -1.9587 0.9831
0.3521 -3.7755 -1.9671 0.9831
0.6913 -3.7472 -1.9767 0.9830
1.0288 -3.6904 -1.9875 0.9829
1.3625 -3.6052 -1.9994 0.9828
2.0088 -3.3494 -2.0262 0.9826
2.3168 -3.1796 -2.0409 0.9824
2.6113 -2.9826 -2.0565 0.9823
2.8900 -2.7591 -2.0728 0.9822
3.1474 -2.5077 -2.0877 0.9820
2.2636 -0.9688 -1.2773 0.9890
3.8934 -0.5331 -2.0387 0.9824
3.9566 -0.1846 -2.0549 0.9823
3.9875 0.1709 -2.0705 0.9822
3.9483 0.8901 -2.0997 0.9819
3.8772 1.2470 -2.1129 0.9818
3.2556 2.5739 -2.1530 0.9815
3.0215 2.8627 -2.1593 0.9814
0.9225 3.2611 -1.7582 0.9848
-0.3364 4.0864 -2.1271 0.9817
-0.6962 4.0175 -2.1153 0.9818
-1.0458 3.9151 -2.1023 0.9819
-1.7021 3.6162 -2.0734 0.9822
-2.0032 3.4238 -2.0579 0.9823
-2.0525 2.3962 -1.6368 0.9859
-2.2895 2.2337 -1.6594 0.9857
-3.1547 2.1313 -1.9751 0.9830
-1.0092 0.5575 -0.5981 0.9948
-1.0464 0.4613 -0.5932 0.9949
-1.0613 0.3586 -0.5811 0.9950
-1.0967 0.1623 -0.5752 0.9950
-1.1062 0.0636 -0.5748 0.9950
-1.1006 -0.1343 -0.5752 0.9950
