ply
format ascii 1.0
element vertex 1593
property float32 x
property float32 y
property float32 z
property float32 I
end_header
9.3786 -0.4324 -1.9845 0.9623
9.3913 0.4060 -1.9870 0.9623
9.1941 2.0730 -1.9922 0.9622
8.9535 2.8784 -1.9880 0.9623
7.7179 4.1128 -1.8486 0.9649
7.3310 4.7915 -1.8513 0.9648
6.3817 6.0346 -1.8566 0.9647
5.8263 6.5888 -1.8592 0.9647
3.3645 4.5685 -1.1993 0.9771
4.5756 7.5390 -1.8641 0.9646
3.8901 7.9268 -1.8665 0.9645
3.1716 8.2518 -1.8687 0.9645
1.6590 8.7023 -1.8726 0.9644
0.8773 8.8237 -1.8743 0.9644
0.0871 8.8739 -1.8759 0.9644
-1.4923 8.7595 -1.8783 0.9643
-6.2331 7.3340 -2.0345 0.9614
-8.3870 4.6830 -2.0305 0.9615
-9.5434 -0.2524 -2.0180 0.9617
-9.4705 -1.1009 -2.0154 0.9618
-9.0995 -2.7579 -2.0098 0.9619
-8.4408 -4.3179 -2.0041 0.9620
-5.0124 -7.9548 -1.9875 0.9623
-2.7189 -8.9662 -1.9805 0.9624
-1.9067 -9.1637 -1.9785 0.9625
-1.0810 -9.2887 -1.9767 0.9625
3.5253 -7.8978 -1.8282 0.9653
7.6223 -5.3876 -1.9730 0.9626
8.0775 -4.6895 -1.9743 0.9625
8.4698 -3.9536 -1.9758 0.9625
8.7961 -3.1853 -1.9775 0.9625
9.2404 -1.5755 -1.9814 0.9624
9.3547 -0.7462 -1.9837 0.9624
9.3952 0.0910 -1.9861 0.9623
9.3616 0.9295 -1.9886 0.9623
9.2537 1.7628 -1.9912 0.9622
7.0590 5.1972 -1.8529 0.9648
6.0408 6.3865 -1.8582 0.9647
3.5729 4.5255 -1.2188 0.9767
3.4449 8.1373 -1.8679 0.9645
0.3844 8.8634 -1.8753 0.9644
-1.1976 8.8028 -1.8779 0.9643
-1.9787 8.6654 -1.8788 0.9643
-3.7756 8.8545 -2.0347 0.9614
-5.2889 8.0441 -2.0350 0.9614
-5.9843 7.5395 -2.0347 0.9614
-6.6310 6.9740 -2.0342 0.9614
-7.2235 6.3525 -2.0334 0.9614
-7.7572 5.6802 -2.0323 0.9615
-8.2275 4.9628 -2.0310 0.9615
-8.6308 4.2063 -2.0295 0.9615
-8.9637 3.4171 -2.0278 0.9615
-9.2238 2.6018 -2.0258 0.9616
-9.4092 1.7671 -2.0237 0.9616
-9.5184 0.9201 -2.0214 0.9617
-8.9237 -3.2578 -2.0081 0.9619
-8.1797 -4.7773 -2.0023 0.9620
-6.5955 -6.7428 -1.9938 0.9622
-3.8025 -8.5787 -1.9835 0.9624
-3.0191 -8.8736 -1.9813 0.9624
-2.2136 -9.0980 -1.9792 0.9624
-1.3923 -9.2503 -1.9774 0.9625
-0.5209 -8.6560 -1.8330 0.9652
1.0234 -8.5990 -1.8305 0.9652
5.5662 -7.2593 -1.9336 0.9633
6.3108 -6.8642 -1.9710 0.9626
-7.1858 4.7825 -2.0287 0.9652
-7.5789 4.1202 -2.0274 0.9652
-8.1776 2.7044 -2.0243 0.9652
-8.5765 0.4424 -2.0183 0.9653
-8.5721 -0.3237 -2.0161 0.9654
-8.4991 -1.0854 -2.0137 0.9654
-8.3583 -1.8367 -2.0113 0.9654
-7.5453 -3.9680 -2.0036 0.9656
-7.1522 -4.6190 -2.0010 0.9656
-6.2021 -5.8009 -1.9959 0.9657
-3.7650 -7.5672 -1.9864 0.9659
-3.0721 -7.8645 -1.9844 0.9659
-2.3564 -8.0992 -1.9824 0.9659
-0.1193 -7.8060 -1.8348 0.9684
0.5768 -7.7807 -1.8337 0.9684
1.9478 -7.5476 -1.8320 0.9685
2.6122 -7.3416 -1.8314 0.9685
3.2558 -7.0782 -1.8311 0.9685
4.0770 -7.1140 -1.9271 0.9669
4.8083 -6.8842 -1.9735 0.9661
5.4038 -6.4291 -1.9738 0.9661
5.9571 -5.9232 -1.9744 0.9661
6.4639 -5.3705 -1.9751 0.9661
7.6683 -3.4745 -1.9786 0.9660
7.9537 -2.7791 -1.9801 0.9660
8.1769 -2.0606 -1.9819 0.9659
8.4296 -0.5767 -1.9858 0.9659
8.4566 0.1774 -1.9879 0.9658
8.4168 0.9318 -1.9902 0.9658
8.3102 1.6806 -1.9926 0.9658
8.1373 2.4178 -1.9951 0.9657
7.0202 3.5430 -1.8481 0.9682
6.6851 4.1602 -1.8505 0.9682
6.2956 4.7458 -1.8529 0.9681
3.6521 7.0416 -1.8643 0.9679
1.6633 7.7805 -1.8699 0.9678
0.2553 7.9649 -1.8729 0.9678
-1.8648 7.7613 -1.8760 0.9677
-4.1720 7.5711 -2.0316 0.9651
-5.4495 6.7086 -2.0313 0.9651
-6.0244 6.1945 -2.0308 0.9651
-7.0230 5.0217 -2.0291 0.9651
-7.4384 4.3730 -2.0279 0.9652
-8.0849 2.9779 -2.0249 0.9652
-8.3110 2.2432 -2.0232 0.9652
-8.4698 1.4918 -2.0212 0.9653
-8.5818 -0.0362 -2.0169 0.9654
-7.6778 -3.7147 -2.0046 0.9656
-7.3065 -4.3788 -2.0020 0.9656
-6.8781 -5.0063 -1.9994 0.9656
-4.6709 -7.0598 -1.9895 0.9658
-4.0182 -7.4398 -1.9872 0.9659
-2.6275 -8.0185 -1.9831 0.9659
-1.9003 -8.2132 -1.9813 0.9660
-0.3810 -7.7996 -1.8353 0.9684
1.6940 -7.6097 -1.8322 0.9685
2.3649 -7.4258 -1.8316 0.9685
3.0179 -7.1861 -1.8318 0.9685
3.7533 -7.0898 -1.8854 0.9676
6.7551 -5.0034 -1.9757 0.9660
7.1783 -4.3836 -1.9768 0.9660
7.8537 -3.0432 -1.9795 0.9660
8.1005 -2.3328 -1.9812 0.9660
8.4022 -0.8586 -1.9850 0.9659
8.4396 0.6489 -1.9894 0.9658
8.3580 1.4004 -1.9917 0.9658
8.2099 2.1427 -1.9941 0.9657
6.4481 4.5299 -1.8520 0.9681
6.0262 5.0934 -1.8544 0.9681
5.5552 5.6175 -1.8568 0.9681
5.0384 6.0980 -1.8591 0.9680
3.8844 6.9123 -1.8635 0.9679
2.6005 7.5083 -1.8675 0.9679
1.9225 7.7177 -1.8693 0.9678
1.2278 7.8653 -1.8709 0.9678
-0.1890 7.9701 -1.8737 0.9678
-0.8994 7.9262 -1.8748 0.9678
-1.6033 7.8182 -1.8757 0.9677
-2.4794 8.2619 -2.0273 0.9652
-3.9157 7.7065 -2.0316 0.9651
-5.8141 6.3936 -2.0310 0.9651
-6.3589 5.8479 -2.0304 0.9651
-8.2339 2.5214 -2.0239 0.9652
-8.4181 1.7756 -2.0220 0.9653
-8.5344 1.0169 -2.0200 0.9653
-8.5604 -0.5140 -2.0155 0.9654
-8.3129 -2.0213 -2.0106 0.9655
-7.4528 -4.1334 -2.0029 0.9656
-6.5832 -5.3775 -1.9978 0.9657
-5.5095 -6.4451 -1.9928 0.9658
-4.9070 -6.9023 -1.9904 0.9658
-3.5950 -7.6469 -1.9859 0.9659
-2.8958 -7.9288 -1.9839 0.9659
-2.1753 -8.1477 -1.9820 0.9659
-1.4389 -8.3019 -1.9802 0.9660
-0.6424 -7.7846 -1.8358 0.9684
1.4382 -7.6634 -1.8325 0.9685
2.1149 -7.5018 -1.8318 0.9685
2.7746 -7.2813 -1.8313 0.9685
3.4426 -7.0663 -1.8473 0.9682
4.2998 -7.1305 -1.9569 0.9664
5.5457 -6.3077 -1.9739 0.9661
6.0878 -5.7899 -1.9745 0.9661
6.5824 -5.2261 -1.9753 0.9661
7.7450 -3.3038 -1.9789 0.9660
8.0152 -2.6021 -1.9805 0.9660
8.2226 -1.8788 -1.9823 0.9659
8.4426 -0.3893 -1.9863 0.9659
8.3965 1.1190 -1.9908 0.9658
8.2733 1.8654 -1.9932 0.9658
7.3207 3.0980 -1.8682 0.9679
6.9420 3.6993 -1.8487 0.9682
6.5931 4.3091 -1.8511 0.9682
6.1906 4.8861 -1.8535 0.9681
5.7376 5.4256 -1.8559 0.9681
5.2376 5.9230 -1.8582 0.9680
4.1121 6.7753 -1.8627 0.9680
3.4956 7.1230 -1.8648 0.9679
1.4903 7.8172 -1.8703 0.9678
0.7879 7.9255 -1.8719 0.9678
-2.1644 8.2015 -1.9935 0.9657
-2.9415 8.1263 -2.0311 0.9651
-5.5970 6.5855 -2.0312 0.9651
-6.1601 6.0585 -2.0307 0.9651
-7.1319 4.8637 -2.0288 0.9652
-7.8719 3.5150 -2.0262 0.9652
-8.1474 2.7969 -2.0245 0.9652
-8.4987 1.3029 -2.0207 0.9653
-8.5721 0.5394 -2.0186 0.9653
-8.5121 -0.9895 -2.0140 0.9654
-8.3798 -1.7424 -2.0116 0.9654
-7.2051 -4.5386 -2.0013 0.9656
-6.7630 -5.1563 -1.9987 0.9657
-5.7251 -6.2597 -1.9937 0.9657
-5.1379 -6.7370 -1.9913 0.9658
-4.5115 -7.1599 -1.9889 0.9658
-3.8508 -7.5252 -1.9867 0.9659
-3.1612 -7.8303 -1.9846 0.9659
-0.2075 -7.8048 -1.8350 0.9684
0.4889 -7.7873 -1.8338 0.9684
3.1757 -7.1146 -1.8311 0.9685
4.7302 -6.9381 -1.9735 0.9661
5.3307 -6.4896 -1.9738 0.9661
5.8895 -5.9899 -1.9743 0.9661
6.8655 -4.8527 -1.9759 0.9660
8.1522 -2.1526 -1.9816 0.9659
8.4214 -0.6718 -1.9855 0.9659
8.4256 0.8365 -1.9899 0.9658
8.3273 1.5863 -1.9923 0.9658
8.1628 2.3254 -1.9948 0.9657
7.8673 3.0225 -1.9808 0.9660
7.0587 3.4629 -1.8478 0.9682
5.4306 5.7414 -1.8574 0.9680
2.4335 7.5662 -1.8679 0.9679
1.7509 7.7603 -1.8697 0.9678
1.0529 7.8923 -1.8713 0.9678
0.3452 7.9608 -1.8727 0.9678
-1.0755 7.9053 -1.8750 0.9677
-2.6669 8.2185 -2.0307 0.9651
-4.7490 7.2230 -2.0316 0.9651
-5.3735 6.7699 -2.0314 0.9651
-6.9662 5.1011 -2.0292 0.9651
-7.3891 4.4571 -2.0281 0.9652
-7.7519 3.7780 -2.0267 0.9652
-8.0516 3.0694 -2.0252 0.9652
-8.2861 2.3372 -2.0234 0.9652
-8.5526 0.8267 -2.0194 0.9653
-8.5829 0.0608 -2.0172 0.9653
-8.5443 -0.7039 -2.0149 0.9654
-8.4374 -1.4612 -2.0125 0.9654
-8.0236 -2.9292 -2.0075 0.9655
-6.9354 -4.9291 -1.9997 0.9656
-5.9345 -6.0671 -1.9946 0.9657
-4.7510 -7.0076 -1.9898 0.9658
-2.7182 -7.9893 -1.9834 0.9659
0.2277 -7.8011 -1.8342 0.9684
0.9218 -7.7453 -1.8332 0.9685
1.6080 -7.6287 -1.8323 0.9685
4.4948 -7.0925 -1.9735 0.9661
5.1098 -6.6642 -1.9737 0.9661
-6.5147 4.3358 -2.0262 0.9682
-7.4154 2.4523 -2.0222 0.9682
-7.7791 0.4013 -2.0168 0.9683
-7.7760 -0.2936 -2.0148 0.9684
-7.5838 -1.6665 -2.0104 0.9684
-7.1507 -2.9801 -2.0058 0.9685
-6.0856 -4.7495 -1.9987 0.9686
-5.1335 -5.7417 -1.9942 0.9687
-4.0234 -6.5481 -1.9899 0.9687
-2.1409 -7.3584 -1.9842 0.9688
-0.7986 -7.6099 -1.9811 0.9689
-0.1084 -7.0936 -1.8369 0.9711
0.5242 -7.0711 -1.8358 0.9711
1.7815 -6.9032 -1.8459 0.9710
4.3703 -6.2572 -1.9761 0.9690
5.4142 -5.3835 -1.9769 0.9689
5.8747 -4.8810 -1.9776 0.9689
6.2893 -4.3396 -1.9784 0.9689
6.6547 -3.7636 -1.9795 0.9689
6.9681 -3.1572 -1.9807 0.9689
7.6574 -0.5238 -1.9873 0.9688
7.6812 0.1612 -1.9892 0.9688
7.6442 0.8463 -1.9913 0.9687
7.5466 1.5261 -1.9935 0.9687
6.3729 3.2163 -1.8483 0.9709
5.3132 4.8051 -1.8548 0.9708
4.8692 5.2657 -1.8569 0.9708
3.4722 4.5016 -1.4720 0.9768
3.8649 6.0601 -1.8610 0.9707
1.5083 7.0554 -1.8680 0.9706
0.8739 7.1673 -1.8695 0.9706
0.2315 7.2216 -1.8708 0.9706
-1.0560 7.1557 -1.8728 0.9706
-1.8228 7.5866 -2.0202 0.9683
-3.7818 6.8630 -2.0289 0.9681
-4.9399 6.0813 -2.0286 0.9681
-6.3669 4.5526 -2.0266 0.9682
-7.0662 3.3455 -2.0243 0.9682
-7.5367 2.0342 -2.0212 0.9683
-7.6814 1.3530 -2.0195 0.9683
-7.7642 0.6621 -2.0176 0.9683
-7.7425 -0.7260 -2.0135 0.9684
-7.6386 -1.4119 -2.0113 0.9684
-7.2498 -2.7399 -2.0067 0.9685
-6.6323 -3.9747 -2.0020 0.9686
-6.2441 -4.5449 -1.9996 0.9686
-5.8073 -5.0776 -1.9973 0.9686
-4.2423 -6.4120 -1.9907 0.9687
-3.0299 -7.0494 -1.9867 0.9688
-2.3871 -7.2849 -1.9849 0.9688
-1.0535 -7.5808 -1.9817 0.9689
0.2870 -7.0861 -1.8362 0.9711
0.9172 -7.0287 -1.8353 0.9711
1.5396 -6.9161 -1.8345 0.9711
2.2096 -6.9381 -1.8853 0.9704
3.5708 -6.7452 -1.9761 0.9690
4.7126 -6.0044 -1.9763 0.9690
5.7070 -5.0744 -1.9773 0.9689
6.1392 -4.5472 -1.9781 0.9689
6.8567 -3.3882 -1.9802 0.9689
7.3601 -2.1195 -1.9831 0.9688
7.6328 -0.7799 -1.9866 0.9688
7.6653 0.5893 -1.9905 0.9687
7.4550 1.9457 -1.9949 0.9687
7.2601 2.6056 -1.9972 0.9686
6.7765 3.1395 -1.9337 0.9696
6.1884 3.5690 -1.8497 0.9709
5.8524 4.1114 -1.8518 0.9709
1.1133 7.1320 -1.8690 0.9706
0.4733 7.2080 -1.8703 0.9706
-0.8154 7.1858 -1.8725 0.9706
-1.4636 7.1366 -1.8862 0.9703
-3.5496 6.9858 -2.0288 0.9681
-4.7336 6.2439 -2.0287 0.9681
-5.7645 5.3013 -2.0277 0.9682
-6.2118 4.7643 -2.0269 0.9682
-6.6086 4.1894 -2.0259 0.9682
-6.9517 3.5814 -2.0247 0.9682
-7.4666 2.2864 -2.0218 0.9682
-7.7404 0.9223 -2.0183 0.9683
-7.7842 0.2282 -2.0163 0.9683
-7.6848 -1.1555 -2.0121 0.9684
-7.3408 -2.4965 -2.0076 0.9685
-6.7648 -3.7518 -2.0029 0.9685
-6.3958 -4.3349 -2.0005 0.9686
-5.5113 -5.3895 -1.9959 0.9687
-5.0032 -5.8528 -1.9936 0.9687
-4.4566 -6.2687 -1.9915 0.9687
-3.2656 -6.9464 -1.9874 0.9688
-2.6308 -7.2032 -1.9855 0.9688
-1.9764 -7.4026 -1.9838 0.9688
0.0493 -7.0957 -1.8373 0.9711
0.6812 -7.0568 -1.8356 0.9711
1.9501 -6.9170 -1.8608 0.9707
2.6573 -6.9735 -1.9322 0.9696
3.3428 -6.8613 -1.9761 0.9690
3.9411 -6.5357 -1.9761 0.9690
4.5084 -6.1586 -1.9762 0.9690
5.0404 -5.7331 -1.9765 0.9690
5.5330 -5.2622 -1.9770 0.9689
5.9823 -4.7497 -1.9778 0.9689
6.3850 -4.1993 -1.9787 0.9689
6.7377 -3.6153 -1.9798 0.9689
7.4706 -1.7070 -1.9841 0.9688
7.5997 -1.0350 -1.9859 0.9688
7.6777 0.3319 -1.9898 0.9687
7.6256 1.0162 -1.9919 0.9687
7.5128 1.6940 -1.9940 0.9687
7.3402 2.3597 -1.9963 0.9686
4.7523 5.3741 -1.8575 0.9708
3.1706 6.4608 -1.8634 0.9707
2.5844 6.7243 -1.8652 0.9707
0.7145 7.1862 -1.8698 0.9706
0.0709 7.2261 -1.8710 0.9706
-1.2149 7.1312 -1.8730 0.9706
-3.9334 6.7773 -2.0289 0.9681
-4.5218 6.3993 -2.0288 0.9681
-5.0737 5.9697 -2.0285 0.9681
-5.5843 5.4922 -2.0280 0.9682
-6.0496 4.9706 -2.0273 0.9682
-6.4657 4.4094 -2.0263 0.9682
-7.1375 3.1871 -2.0239 0.9682
-7.3879 2.5361 -2.0224 0.9682
-7.7751 0.4892 -2.0171 0.9683
-7.7224 -0.8977 -2.0129 0.9684
-7.4235 -2.2500 -2.0084 0.9685
-6.8898 -3.5245 -2.0037 0.9685
-6.5404 -4.1199 -2.0014 0.9686
-6.1398 -4.6812 -1.9990 0.9686
-4.0976 -6.5031 -1.9901 0.9687
-2.2241 -7.3345 -1.9844 0.9688
-1.5600 -7.4975 -1.9828 0.9689
0.4443 -7.0770 -1.8360 0.9711
1.0730 -7.0058 -1.8351 0.9711
1.6973 -6.8982 -1.8393 0.9711
3.1111 -6.9698 -1.9762 0.9690
3.7198 -6.6641 -1.9761 0.9690
4.2993 -6.3061 -1.9761 0.9690
5.3529 -5.4441 -1.9768 0.9689
6.9314 -3.2355 -1.9806 0.9689
7.1973 -2.6064 -1.9819 0.9689
7.4068 -1.9558 -1.9835 0.9688
7.6501 -0.6102 -1.9870 0.9688
7.5622 1.4406 -1.9932 0.9687
7.4120 2.1115 -1.9954 0.9687
5.7612 4.2417 -1.8524 0.9709
5.3664 4.7441 -1.8545 0.9708
3.9326 6.0153 -1.8608 0.9707
1.5877 7.0372 -1.8679 0.9706
-0.3320 7.2214 -1.8717 0.9706
-0.9750 7.1667 -1.8727 0.9706
-4.8710 6.1369 -2.0286 0.9681
-5.8804 5.1714 -2.0276 0.9682
-6.6992 4.0409 -2.0257 0.9682
-7.0285 3.4254 -2.0244 0.9682
-7.3008 2.7832 -2.0230 0.9682
-7.5140 2.1195 -2.0214 0.9683
-7.6665 1.4398 -2.0197 0.9683
-7.7571 0.7498 -2.0178 0.9683
-7.7854 0.0551 -2.0158 0.9683
-7.6551 -1.3257 -2.0115 0.9684
-7.4980 -2.0007 -2.0093 0.9684
-7.2814 -2.6582 -2.0070 0.9685
-7.0071 -3.2930 -2.0046 0.9685
-6.6778 -3.9001 -2.0023 0.9686
-5.8651 -5.0124 -1.9976 0.9686
-5.3887 -5.5091 -1.9953 0.9687
-4.3150 -6.3646 -1.9909 0.9687
-3.7265 -6.7170 -1.9889 0.9688
-2.4695 -7.2583 -1.9851 0.9688
-1.8110 -7.4432 -1.9834 0.9688
-0.4323 -7.1833 -1.8633 0.9707
2.1214 -6.9310 -1.8767 0.9705
3.4944 -6.7852 -1.9761 0.9690
4.0854 -6.4465 -1.9761 0.9690
4.6443 -6.0571 -1.9762 0.9690
5.1669 -5.6199 -1.9766 0.9689
-5.9523 3.9615 -2.0241 0.9707
-6.2785 3.4132 -2.0231 0.9707
-6.5539 2.8381 -2.0219 0.9707
-6.7763 2.2409 -2.0205 0.9708
-6.9439 1.6266 -2.0190 0.9708
-7.0555 1.0002 -2.0173 0.9708
-7.1104 0.3668 -2.0156 0.9708
-7.1081 -0.2684 -2.0137 0.9709
-7.0490 -0.9002 -2.0117 0.9709
-5.5667 -4.3446 -1.9990 0.9711
-4.2054 -5.6454 -1.9928 0.9712
-3.6817 -5.9920 -1.9909 0.9712
-3.1299 -6.2906 -1.9891 0.9712
-2.5543 -6.5389 -1.9873 0.9712
0.5055 -6.8192 -1.9358 0.9720
1.7470 -6.7695 -1.9792 0.9714
2.3431 -6.5851 -1.9787 0.9714
2.9204 -6.3490 -1.9784 0.9714
4.9572 -4.9291 -1.9790 0.9714
6.0923 -3.4455 -1.9814 0.9713
6.6155 -2.3115 -1.9838 0.9713
7.0291 0.1475 -1.9903 0.9712
6.9947 0.7744 -1.9922 0.9712
5.2252 3.9389 -1.8524 0.9732
4.4519 4.8145 -1.8563 0.9731
2.4976 6.0904 -1.8635 0.9730
1.9462 6.2941 -1.8650 0.9730
0.7985 6.5493 -1.8678 0.9729
0.2115 6.5985 -1.8690 0.9729
-1.6688 6.9453 -2.0221 0.9707
-2.8819 6.5523 -2.0264 0.9707
-4.5130 5.5557 -2.0263 0.9707
-5.4252 4.6634 -2.0253 0.9707
-6.1619 3.6225 -2.0235 0.9707
-7.0202 1.2365 -2.0180 0.9708
-7.1157 -0.0300 -2.0144 0.9709
-7.0779 -0.6637 -2.0125 0.9709
-6.9835 -1.2908 -2.0105 0.9709
-6.8336 -1.9064 -2.0084 0.9709
-6.6294 -2.5055 -2.0063 0.9710
-6.0660 -3.6353 -2.0020 0.9710
-5.3124 -4.6449 -1.9977 0.9711
-4.8720 -5.0948 -1.9956 0.9711
-4.3939 -5.5033 -1.9936 0.9711
-3.8819 -5.8673 -1.9916 0.9712
-3.3401 -6.1843 -1.9898 0.9712
-2.1848 -6.6677 -1.9863 0.9713
-1.5804 -6.8307 -1.9848 0.9713
3.2695 -6.1761 -1.9783 0.9714
3.8072 -5.8600 -1.9783 0.9714
4.3149 -5.4977 -1.9785 0.9714
5.2252 -4.6460 -1.9794 0.9714
6.5326 -2.5313 -1.9833 0.9713
6.7370 -1.9401 -1.9847 0.9713
6.9856 -0.7138 -1.9879 0.9712
7.0277 -0.0882 -1.9896 0.9712
6.9449 1.1637 -1.9935 0.9712
6.6415 2.3836 -1.9976 0.9711
5.6679 3.2689 -1.8523 0.9732
3.2208 5.7315 -1.8612 0.9730
2.1554 6.2234 -1.8645 0.9730
1.5932 6.3959 -1.8660 0.9730
0.4325 6.5862 -1.8685 0.9729
-1.4322 6.9837 -2.0182 0.9708
-2.0570 6.8541 -2.0259 0.9707
-2.6605 6.6449 -2.0263 0.9707
-3.7989 6.0675 -2.0266 0.9707
-4.8150 5.2950 -2.0261 0.9707
-5.2665 4.8433 -2.0255 0.9707
-6.0381 3.8277 -2.0239 0.9707
-6.3520 3.2724 -2.0228 0.9707
-6.6143 2.6913 -2.0215 0.9708
-7.0745 0.8429 -2.0169 0.9708
-7.1152 0.2086 -2.0151 0.9708
-7.0987 -0.4262 -2.0132 0.9709
-6.8963 -1.6769 -2.0092 0.9709
-6.4752 -2.8691 -2.0050 0.9710
-5.8500 -3.9650 -2.0006 0.9710
-5.0420 -4.9305 -1.9964 0.9711
-4.5776 -5.3549 -1.9943 0.9711
-4.0779 -5.7360 -1.9924 0.9712
-3.5468 -6.0709 -1.9904 0.9712
-2.9886 -6.3572 -1.9886 0.9712
-1.8090 -6.7758 -1.9854 0.9713
-0.5760 -6.9797 -1.9826 0.9713
0.0480 -6.9067 -1.9553 0.9717
0.6573 -6.8095 -1.9367 0.9720
1.2821 -6.8317 -1.9678 0.9715
1.8969 -6.7285 -1.9790 0.9714
3.6085 -5.9842 -1.9783 0.9714
4.1280 -5.6389 -1.9784 0.9714
4.6150 -5.2492 -1.9787 0.9714
5.0659 -4.8180 -1.9792 0.9714
6.1682 -3.3097 -1.9817 0.9713
6.8379 -1.5624 -1.9856 0.9713
6.9556 -0.9473 -1.9872 0.9712
7.0184 -0.3236 -1.9890 0.9712
7.0258 0.3038 -1.9908 0.9712
6.9774 0.9299 -1.9927 0.9712
6.8736 1.5498 -1.9947 0.9711
6.5001 2.7507 -1.9981 0.9711
5.1377 4.0551 -1.8529 0.9732
3.4099 5.6183 -1.8605 0.9730
2.8981 5.9054 -1.8622 0.9730
2.3621 6.1457 -1.8639 0.9730
1.8062 6.3370 -1.8654 0.9730
1.2349 6.4777 -1.8668 0.9730
-0.5244 6.5855 -1.8702 0.9729
-1.1402 6.6922 -1.9218 0.9722
-3.0269 6.4868 -2.0265 0.9707
-4.1310 5.8462 -2.0265 0.9707
-5.5271 4.5413 -2.0251 0.9707
-6.2400 3.4842 -2.0232 0.9707
-6.5220 2.9122 -2.0220 0.9707
-6.7511 2.3176 -2.0207 0.9708
-7.1066 0.4471 -2.0158 0.9708
-7.1116 -0.1881 -2.0139 0.9709
-6.7878 -2.0573 -2.0079 0.9709
-6.3010 -3.2233 -2.0036 0.9710
-3.7496 -5.9508 -1.9912 0.9712
-3.2011 -6.2556 -1.9893 0.9712
-2.6283 -6.5104 -1.9876 0.9712
-0.8098 -6.9581 -1.9831 0.9713
1.0438 -6.8147 -1.9517 0.9717
1.6705 -6.7891 -1.9793 0.9714
2.2686 -6.6114 -1.9787 0.9714
2.8485 -6.3817 -1.9784 0.9714
4.4362 -5.4006 -1.9785 0.9714
4.9011 -4.9846 -1.9790 0.9714
6.0526 -3.5139 -1.9813 0.9713
6.3453 -2.9619 -1.9824 0.9713
6.7797 -1.7902 -1.9851 0.9713
7.0013 -0.5585 -1.9883 0.9712
7.0021 0.6952 -1.9920 0.9712
6.5886 2.5313 -1.9981 0.9711
6.3231 3.1020 -1.9938 0.9711
3.5339 4.4762 -1.6145 0.9766
3.5950 5.4988 -1.8598 0.9731
2.0170 6.2710 -1.8649 0.9730
-2.2089 6.8071 -2.0260 0.9707
-2.8076 6.5843 -2.0264 0.9707
-4.9312 5.1864 -2.0259 0.9707
-5.3724 4.7246 -2.0254 0.9707
-6.4222 3.1299 -2.0225 0.9707
-7.0065 1.3159 -2.0182 0.9708
-7.1164 0.0504 -2.0147 0.9708
-6.4081 -3.0115 -2.0044 0.9710
-6.1075 -3.5670 -2.0023 0.9710
-5.7589 -4.0930 -2.0001 0.9711
-4.9299 -5.0401 -1.9959 0.9711
-0.4206 -6.9897 -1.9823 0.9713
0.8102 -6.8073 -1.9407 0.9719
1.4422 -6.8421 -1.9795 0.9713
2.0459 -6.6843 -1.9789 0.9714
3.1996 -6.2127 -1.9783 0.9714
3.7407 -5.9026 -1.9783 0.9714
4.2524 -5.5460 -1.9784 0.9714
-6.3868 1.4961 -2.0176 0.9729
-6.5408 0.3374 -2.0145 0.9730
-6.3798 -1.4019 -2.0091 0.9730
-6.2234 -1.9633 -2.0072 0.9731
-5.4658 -3.5299 -2.0013 0.9731
-5.1242 -3.9992 -1.9993 0.9732
-4.7426 -4.4358 -1.9973 0.9732
-2.8822 -5.7928 -1.9901 0.9733
-2.3524 -6.0219 -1.9885 0.9733
-1.2436 -6.3349 -1.9857 0.9733
-0.6734 -6.4166 -1.9844 0.9734
-0.0985 -6.4475 -1.9833 0.9734
1.6094 -6.2363 -1.9810 0.9734
2.1585 -6.0666 -1.9805 0.9734
2.6905 -5.8491 -1.9803 0.9734
3.2011 -5.5856 -1.9801 0.9734
4.5668 -4.5409 -1.9808 0.9734
4.9549 -4.1168 -1.9814 0.9734
5.6119 -3.1739 -1.9830 0.9734
6.2630 -1.5783 -1.9866 0.9733
6.4535 -0.4415 -1.9896 0.9733
6.4726 0.1358 -1.9913 0.9733
6.4404 0.7130 -1.9930 0.9732
6.3570 1.2856 -1.9949 0.9732
6.2229 1.8490 -1.9967 0.9732
6.0391 2.3988 -1.9987 0.9732
4.4707 4.0432 -1.8540 0.9751
3.2504 5.0965 -1.8593 0.9750
2.7855 5.3707 -1.8609 0.9750
1.7901 5.7893 -1.8638 0.9750
1.2677 5.9300 -1.8652 0.9749
-0.3475 6.0645 -1.8684 0.9749
-2.1018 6.2361 -2.0241 0.9728
-3.1768 5.7651 -2.0246 0.9728
-4.5878 4.7173 -2.0240 0.9728
-5.6665 3.3313 -2.0218 0.9729
-6.1612 2.2693 -2.0195 0.9729
-6.3348 1.7098 -2.0182 0.9729
-6.4573 1.1374 -2.0167 0.9729
-6.5279 0.5566 -2.0151 0.9730
-6.5117 -0.6106 -2.0117 0.9730
-6.2880 -1.7542 -2.0079 0.9731
-5.5831 -3.3459 -2.0020 0.9731
-5.2573 -3.8266 -2.0000 0.9732
-3.5744 -5.4025 -1.9925 0.9733
-2.0122 -6.1407 -1.9876 0.9733
-1.4556 -6.2912 -1.9862 0.9733
-0.8883 -6.3918 -1.9849 0.9734
-0.3147 -6.4419 -1.9837 0.9734
0.2608 -6.4410 -1.9827 0.9734
0.8337 -6.3894 -1.9819 0.9734
1.3996 -6.2874 -1.9812 0.9734
1.9541 -6.1360 -1.9807 0.9734
2.4930 -5.9363 -1.9803 0.9734
3.0121 -5.6898 -1.9802 0.9734
3.9751 -5.0648 -1.9803 0.9734
4.8136 -4.2800 -1.9812 0.9734
5.1778 -3.8351 -1.9818 0.9734
5.5014 -3.3596 -1.9827 0.9734
6.3441 -1.2274 -1.9875 0.9733
6.3943 1.0714 -1.9942 0.9732
6.2792 1.6388 -1.9960 0.9732
6.1139 2.1942 -1.9979 0.9732
5.8997 2.7333 -1.9999 0.9732
4.9257 3.4604 -1.8515 0.9751
4.6021 3.8896 -1.8534 0.9751
3.2569 4.7478 -1.7709 0.9762
2.4831 5.5204 -1.8618 0.9750
1.4654 5.8827 -1.8647 0.9749
0.9356 5.9939 -1.8659 0.9749
-1.8914 6.3026 -2.0239 0.9728
-2.4463 6.1100 -2.0243 0.9728
-2.9817 5.8682 -2.0246 0.9728
-4.8428 4.4536 -2.0236 0.9728
-5.2188 4.0027 -2.0230 0.9729
-5.5527 3.5200 -2.0221 0.9729
-6.4173 1.3535 -2.0173 0.9729
-6.5454 0.1919 -2.0141 0.9730
-6.5307 -0.3921 -2.0123 0.9730
-6.4639 -0.9720 -2.0105 0.9730
-6.3456 -1.5430 -2.0086 0.9730
-5.6942 -3.1581 -2.0027 0.9731
-5.3846 -3.6496 -2.0008 0.9731
-5.0328 -4.1111 -1.9988 0.9732
-4.2145 -4.9302 -1.9950 0.9732
-3.7547 -5.2814 -1.9931 0.9732
-3.2660 -5.5903 -1.9914 0.9733
-2.7522 -5.8543 -1.9897 0.9733
-1.6661 -6.2405 -1.9867 0.9733
-1.1023 -6.3600 -1.9853 0.9733
1.7475 -6.1986 -1.9809 0.9734
3.3244 -5.5131 -1.9801 0.9734
4.2516 -4.8359 -1.9805 0.9734
4.6669 -4.4385 -1.9810 0.9734
5.0456 -4.0060 -1.9816 0.9734
5.6818 -3.0487 -1.9833 0.9734
6.4694 0.2797 -1.9917 0.9733
6.4244 0.8562 -1.9935 0.9732
6.3283 1.4269 -1.9953 0.9732
6.1818 1.9873 -1.9972 0.9732
4.3808 4.1426 -1.8545 0.9751
3.9978 4.5210 -1.8563 0.9751
3.2793 4.4528 -1.7009 0.9771
2.6660 5.4324 -1.8613 0.9750
2.1727 5.6531 -1.8628 0.9750
1.6613 5.8287 -1.8642 0.9750
0.6004 6.0390 -1.8666 0.9749
-0.4822 6.0559 -1.8686 0.9749
-1.1014 6.4647 -2.0171 0.9729
-1.6789 6.3618 -2.0237 0.9728
-2.2400 6.1882 -2.0242 0.9728
-2.7832 5.9647 -2.0245 0.9728
-3.3041 5.6930 -2.0246 0.9728
-3.7985 5.3756 -2.0245 0.9728
-4.2621 5.0149 -2.0243 0.9728
-5.0824 4.1760 -2.0232 0.9728
-6.2091 2.1315 -2.0192 0.9729
-6.3701 1.5683 -2.0178 0.9729
-6.4798 0.9934 -2.0163 0.9729
-6.5424 -0.1731 -2.0130 0.9730
-6.4951 -0.7550 -2.0112 0.9730
-6.3960 -1.3299 -2.0093 0.9730
-5.1697 -3.9415 -1.9995 0.9732
-4.7930 -4.3825 -1.9976 0.9732
-3.9310 -5.1544 -1.9938 0.9732
-3.4526 -5.4794 -1.9920 0.9733
-2.9478 -5.7605 -1.9903 0.9733
-1.8749 -6.1828 -1.9872 0.9733
-1.3152 -6.3210 -1.9858 0.9733
0.9754 -6.3687 -1.9817 0.9734
2.0899 -6.0907 -1.9806 0.9734
2.6243 -5.8792 -1.9803 0.9734
3.1378 -5.6214 -1.9801 0.9734
4.0869 -4.9753 -1.9804 0.9734
5.2622 -3.7194 -1.9820 0.9734
6.0684 -2.1976 -1.9851 0.9734
6.4475 -0.5143 -1.9894 0.9733
6.4473 0.6401 -1.9928 0.9733
6.3703 1.2135 -1.9946 0.9732
5.3972 3.2747 -1.9417 0.9739
4.8488 3.5699 -1.8520 0.9751
4.5156 3.9919 -1.8538 0.9751
3.4903 4.4208 -1.7325 0.9767
2.8457 5.3383 -1.8607 0.9750
1.8552 5.7681 -1.8637 0.9750
1.3345 5.9148 -1.8650 0.9749
0.2630 6.0653 -1.8673 0.9749
-2.0312 6.2593 -2.0241 0.9728
-2.5816 6.0543 -2.0244 0.9728
-4.9402 4.3445 -2.0235 0.9728
-5.3060 3.8854 -2.0228 0.9729
-5.6289 3.3953 -2.0219 0.9729
-6.1357 2.3390 -2.0197 0.9729
-6.5466 0.0464 -2.0136 0.9730
-6.3082 -1.6833 -2.0081 0.9730
-6.1271 -2.2368 -2.0062 0.9731
-5.8974 -2.7715 -2.0042 0.9731
-5.6212 -3.2830 -2.0023 0.9731
-5.3009 -3.7674 -2.0003 0.9732
-4.9390 -4.2209 -1.9983 0.9732
-4.5386 -4.6400 -1.9964 0.9732
-3.1402 -5.6603 -1.9909 0.9733
-2.6209 -5.9128 -1.9893 0.9733
-2.0816 -6.1182 -1.9878 0.9733
0.1881 -6.4439 -1.9829 0.9734
1.3285 -6.3031 -1.9813 0.9734
1.8848 -6.1578 -1.9807 0.9734
2.9477 -5.7235 -1.9802 0.9734
3.9176 -5.1093 -1.9803 0.9734
-5.0610 3.3683 -2.0208 0.9747
-5.5735 2.4136 -2.0189 0.9747
-5.7632 1.9059 -2.0178 0.9747
-6.0495 0.3121 -2.0136 0.9748
-6.0485 -0.2284 -2.0120 0.9748
-5.7575 -1.8163 -2.0068 0.9749
-5.5676 -2.3203 -2.0050 0.9749
-5.3337 -2.8049 -2.0032 0.9749
-5.0577 -3.2663 -2.0013 0.9749
-4.0021 -4.4763 -1.9959 0.9750
-2.1778 -5.5750 -1.9895 0.9751
-1.6709 -5.7430 -1.9882 0.9751
-0.0912 -5.9701 -1.9847 0.9751
0.9698 -5.8867 -1.9831 0.9752
3.8366 -4.5645 -1.9820 0.9752
4.5884 -3.8122 -1.9829 0.9752
4.9117 -3.3891 -1.9836 0.9752
5.1965 -2.9389 -1.9845 0.9751
5.4405 -2.4651 -1.9854 0.9751
5.6417 -1.9713 -1.9865 0.9751
5.7986 -1.4613 -1.9877 0.9751
5.9743 -0.4087 -1.9905 0.9751
5.9614 0.6600 -1.9937 0.9750
5.7593 1.7112 -1.9971 0.9750
5.5888 2.2199 -1.9989 0.9750
5.1007 3.1742 -1.9970 0.9750
4.5111 3.4006 -1.8778 0.9765
4.1361 3.7406 -1.8537 0.9768
2.5763 4.9674 -1.8600 0.9767
1.1723 5.4837 -1.8640 0.9766
0.6791 5.5697 -1.8651 0.9766
0.1799 5.6111 -1.8661 0.9766
-1.9432 5.7656 -2.0225 0.9747
-2.4499 5.5703 -2.0228 0.9747
-2.9370 5.3300 -2.0229 0.9747
-3.8366 4.7231 -2.0227 0.9747
-4.2417 4.3614 -2.0223 0.9747
-5.2394 3.0802 -2.0203 0.9747
-5.4906 2.5995 -2.0193 0.9747
-5.6973 2.0985 -2.0182 0.9747
-5.8581 1.5812 -2.0170 0.9747
-6.0374 0.5148 -2.0141 0.9748
-5.9438 -1.0987 -2.0092 0.9748
-5.8171 -1.6228 -2.0075 0.9749
-5.6442 -2.1331 -2.0057 0.9749
-5.4266 -2.6255 -2.0038 0.9749
-4.8650 -3.5411 -2.0002 0.9750
-4.1513 -4.3411 -1.9966 0.9750
-3.7444 -4.6898 -1.9949 0.9750
-3.3086 -5.0008 -1.9932 0.9750
-0.2914 -5.9648 -1.9851 0.9751
0.7720 -5.9166 -1.9834 0.9752
1.2961 -5.8224 -1.9828 0.9752
2.7894 -5.2692 -1.9818 0.9752
3.2481 -4.9995 -1.9818 0.9752
3.6812 -4.6903 -1.9819 0.9752
4.0854 -4.3441 -1.9823 0.9752
4.7947 -3.5514 -1.9834 0.9752
5.0942 -3.1109 -1.9841 0.9752
5.5713 -2.1588 -1.9861 0.9751
5.8735 -1.1363 -1.9886 0.9751
5.9556 -0.6086 -1.9900 0.9751
5.9907 -0.0752 -1.9915 0.9751
5.8115 1.5167 -1.9965 0.9750
5.6581 2.0307 -1.9983 0.9750
5.4595 2.5294 -2.0001 0.9750
5.2094 3.0044 -1.9990 0.9750
4.7672 3.3491 -1.9366 0.9757
3.9235 3.9675 -1.8548 0.9768
3.5572 4.3053 -1.8564 0.9767
2.2966 5.1057 -1.8609 0.9767
1.8335 5.2940 -1.8623 0.9767
0.8652 5.5426 -1.8647 0.9766
-1.2219 5.9582 -2.0218 0.9747
-2.2617 5.6490 -2.0227 0.9747
-2.7567 5.4254 -2.0229 0.9747
-3.2295 5.1581 -2.0229 0.9747
-3.6763 4.8492 -2.0228 0.9747
-4.0934 4.5015 -2.0225 0.9747
-5.4014 2.7827 -2.0197 0.9747
-5.6250 2.2888 -2.0186 0.9747
-5.8032 1.7771 -2.0174 0.9747
-5.9347 1.2517 -2.0161 0.9748
-6.0184 0.7171 -2.0147 0.9748
-6.0538 0.1775 -2.0132 0.9748
-5.8702 -1.4274 -2.0081 0.9749
-5.2688 -2.9221 -2.0027 0.9749
-3.4754 -4.8886 -1.9938 0.9750
-3.0232 -5.1748 -1.9922 0.9751
-2.5478 -5.4195 -1.9906 0.9751
-2.0529 -5.6210 -1.9892 0.9751
-1.5426 -5.7778 -1.9878 0.9751
-1.0206 -5.8886 -1.9866 0.9751
0.0415 -5.9700 -1.9845 0.9751
1.6183 -5.7402 -1.9824 0.9752
3.5218 -4.8109 -1.9819 0.9752
4.6723 -3.7096 -1.9831 0.9752
4.9863 -3.2794 -1.9838 0.9752
5.2611 -2.8230 -1.9847 0.9751
5.4946 -2.3439 -1.9857 0.9751
5.9831 -0.2759 -1.9909 0.9751
5.9885 0.2589 -1.9925 0.9751
5.8571 1.3206 -1.9958 0.9750
5.3126 2.8310 -2.0010 0.9749
5.0258 3.2848 -1.9958 0.9750
4.3745 3.4527 -1.8525 0.9768
3.2753 4.4473 -1.8360 0.9770
2.9016 4.7807 -1.8589 0.9767
2.0094 5.2281 -1.8618 0.9767
1.5363 5.3902 -1.8631 0.9767
0.5552 5.5842 -1.8654 0.9766
0.0551 5.6144 -1.8663 0.9766
-0.4730 5.9396 -1.9806 0.9752
-1.5523 5.8819 -2.0221 0.9747
-3.5118 4.9699 -2.0228 0.9747
-4.3374 4.2658 -2.0222 0.9747
-4.6991 3.8610 -2.0216 0.9747
-5.3060 2.9627 -2.0201 0.9747
-5.8909 1.4503 -2.0166 0.9748
-5.9926 0.9187 -2.0152 0.9748
-6.0462 0.3804 -2.0138 0.9748
-5.7783 -1.7513 -2.0070 0.9749
-5.3656 -2.7448 -2.0034 0.9749
-5.0949 -3.2093 -2.0016 0.9749
-4.4358 -4.0559 -1.9979 0.9750
-4.0529 -4.4313 -1.9961 0.9750
-3.6385 -4.7709 -1.9944 0.9750
-3.1960 -5.0721 -1.9928 0.9750
-2.7288 -5.3326 -1.9912 0.9751
-1.7358 -5.7242 -1.9883 0.9751
0.9033 -5.8975 -1.9832 0.9752
3.3585 -4.9261 -1.9818 0.9752
4.5448 -3.8637 -1.9829 0.9752
5.1627 -2.9972 -1.9843 0.9752
5.4119 -2.5262 -1.9853 0.9751
5.6187 -2.0347 -1.9864 0.9751
5.7812 -1.5266 -1.9876 0.9751
5.9920 0.0580 -1.9919 0.9751
5.9678 0.5925 -1.9935 0.9750
5.8962 1.1232 -1.9952 0.9750
5.6129 2.1564 -1.9987 0.9750
5.4031 2.6507 -2.0005 0.9750
4.1777 3.6932 -1.8535 0.9768
3.8352 4.0546 -1.8552 0.9767
3.0593 4.6794 -1.8584 0.9767
2.6320 4.9375 -1.8599 0.9767
2.1829 5.1564 -1.8613 0.9767
0.7419 5.5613 -1.8650 0.9766
-0.2647 5.7577 -1.9159 0.9760
-1.3541 5.9300 -2.0219 0.9747
-2.8766 5.3628 -2.0229 0.9747
-3.3433 5.0850 -2.0229 0.9747
-3.7831 4.7662 -2.0227 0.9747
-4.1923 4.4092 -2.0224 0.9747
-4.5676 4.0168 -2.0219 0.9747
-5.8404 1.6474 -2.0171 0.9747
-5.9600 1.1193 -2.0158 0.9748
-6.0317 0.5830 -2.0143 0.9748
-6.0299 -0.4968 -2.0112 0.9748
-5.9565 -1.0315 -2.0095 0.9748
-5.6686 -2.0694 -2.0059 0.9749
-5.4565 -2.5643 -2.0041 0.9749
-4.9053 -3.4863 -2.0004 0.9750
-4.5708 -3.9062 -1.9986 0.9750
-3.7976 -4.6477 -1.9951 0.9750
-2.9069 -5.2397 -1.9918 0.9751
-2.4263 -5.4738 -1.9903 0.9751
-1.9272 -5.6643 -1.9888 0.9751
-0.8894 -5.9090 -1.9863 0.9751
0.1741 -5.9669 -1.9843 0.9752
0.7052 -5.9252 -1.9835 0.9752
1.7454 -5.7025 -1.9823 0.9752
2.2465 -5.5232 -1.9820 0.9752
2.7297 -5.3004 -1.9818 0.9752
3.1914 -5.0358 -1.9818 0.9752
3.6280 -4.7315 -1.9819 0.9752
-4.7012 3.1289 -2.0195 0.9763
-4.9595 2.6961 -2.0187 0.9763
-5.1777 2.2421 -2.0177 0.9763
-5.4874 1.2854 -2.0154 0.9763
-5.6209 0.2900 -2.0128 0.9764
-5.6203 -0.2122 -2.0113 0.9764
-5.5747 -0.7119 -2.0097 0.9764
-5.4846 -1.2052 -2.0081 0.9764
-5.1747 -2.1566 -2.0048 0.9765
-4.9576 -2.6072 -2.0031 0.9765
-4.7014 -3.0362 -2.0014 0.9765
-4.4082 -3.4404 -1.9997 0.9765
-4.0805 -3.8165 -1.9980 0.9765
-3.7209 -4.1617 -1.9964 0.9766
-2.9180 -4.7490 -1.9932 0.9766
-2.0252 -5.1844 -1.9904 0.9766
-1.0708 -5.4549 -1.9880 0.9767
-0.5799 -5.5257 -1.9869 0.9767
0.9021 -5.4755 -1.9845 0.9767
1.3863 -5.3718 -1.9839 0.9767
2.3176 -5.0385 -1.9833 0.9767
2.7575 -4.8116 -1.9832 0.9767
3.1756 -4.5467 -1.9832 0.9767
3.5687 -4.2458 -1.9834 0.9767
3.9338 -3.9114 -1.9838 0.9767
4.2679 -3.5460 -1.9843 0.9767
4.5685 -3.1523 -1.9849 0.9767
5.0600 -2.2927 -1.9866 0.9767
5.2470 -1.8333 -1.9876 0.9767
5.4958 -0.8733 -1.9900 0.9766
5.5713 0.1169 -1.9928 0.9766
5.3544 1.5909 -1.9975 0.9766
4.9950 2.5209 -2.0009 0.9765
3.5217 3.8085 -1.8550 0.9782
3.1707 4.1107 -1.8565 0.9782
1.9741 4.8140 -1.8606 0.9781
1.5381 4.9741 -1.8619 0.9781
1.0891 5.0945 -1.8630 0.9781
0.1722 5.3727 -1.9223 0.9774
-1.3200 5.4939 -2.0206 0.9763
-1.8050 5.3555 -2.0210 0.9763
-2.2756 5.1739 -2.0213 0.9763
-3.9400 4.0512 -2.0209 0.9763
-4.5943 3.2851 -2.0198 0.9763
-4.8671 2.8613 -2.0190 0.9763
-5.2928 1.9495 -2.0171 0.9763
-5.5483 0.9772 -2.0146 0.9764
-5.6095 0.4783 -2.0133 0.9764
-5.5236 -1.0210 -2.0087 0.9764
-5.2458 -1.9825 -2.0054 0.9765
-4.8021 -2.8778 -2.0020 0.9765
-4.5225 -3.2917 -2.0003 0.9765
-4.2074 -3.6788 -1.9986 0.9765
-3.8595 -4.0359 -1.9970 0.9766
-3.4814 -4.3604 -1.9954 0.9766
-3.0764 -4.6499 -1.9938 0.9766
-2.1984 -5.1149 -1.9909 0.9766
-1.7324 -5.2870 -1.9896 0.9766
-1.2534 -5.4171 -1.9884 0.9767
-0.7650 -5.5043 -1.9873 0.9767
-0.2710 -5.5478 -1.9863 0.9767
1.6833 -5.2855 -1.9837 0.9767
3.8002 -4.0408 -1.9836 0.9767
4.9795 -2.4606 -1.9862 0.9767
5.1816 -2.0078 -1.9872 0.9767
5.3429 -1.5386 -1.9883 0.9767
5.4621 -1.0568 -1.9895 0.9766
5.5382 -0.5659 -1.9908 0.9766
5.5706 -0.0699 -1.9922 0.9766
5.2601 1.8878 -1.9985 0.9765
5.0751 2.3513 -2.0002 0.9765
4.8494 2.7968 -2.0019 0.9765
2.9381 4.2831 -1.8574 0.9782
2.1338 4.7439 -1.8602 0.9781
1.7035 4.9186 -1.8614 0.9781
0.8038 5.1491 -1.8637 0.9781
-0.6363 5.6069 -2.0179 0.9763
-1.1350 5.5345 -2.0204 0.9763
-2.1008 5.2471 -2.0212 0.9763
-2.9997 4.7910 -2.0214 0.9763
-3.4148 4.5042 -2.0213 0.9763
-4.1590 3.8248 -2.0206 0.9763
-4.7692 3.0233 -2.0193 0.9763
-5.5137 1.1630 -2.0151 0.9763
-5.6250 0.1649 -2.0124 0.9764
-5.5564 -0.8355 -2.0093 0.9764
-4.6318 -3.1393 -2.0010 0.9765
-3.2315 -4.5454 -1.9944 0.9766
-1.4346 -5.3733 -1.9888 0.9767
-0.9492 -5.4766 -1.9877 0.9767
1.0235 -5.4537 -1.9843 0.9767
1.5053 -5.3393 -1.9838 0.9767
2.8638 -4.7491 -1.9832 0.9767
3.2760 -4.4750 -1.9833 0.9767
3.6623 -4.1656 -1.9835 0.9767
4.3460 -3.4505 -1.9844 0.9767
4.6379 -3.0503 -1.9851 0.9767
4.8934 -2.6257 -1.9859 0.9767
5.1104 -2.1799 -1.9868 0.9767
5.2872 -1.7165 -1.9879 0.9767
5.4224 -1.2390 -1.9891 0.9766
5.5636 -0.2565 -1.9917 0.9766
5.5684 0.2407 -1.9932 0.9766
5.5290 0.7368 -1.9947 0.9766
5.4456 1.2278 -1.9963 0.9766
5.3188 1.7099 -1.9979 0.9765
5.1494 2.1792 -1.9996 0.9765
4.9388 2.6318 -2.0013 0.9765
4.3283 3.4163 -1.9719 0.9768
3.7717 3.5666 -1.8563 0.9782
3.4369 3.8867 -1.8554 0.9782
3.0791 4.1810 -1.8569 0.9782
2.6962 4.4423 -1.8583 0.9782
2.2910 4.6684 -1.8597 0.9782
1.8670 4.8575 -1.8610 0.9781
1.4274 5.0079 -1.8622 0.9781
0.9757 5.1182 -1.8633 0.9781
0.5158 5.1876 -1.8643 0.9781
-0.9487 5.5688 -2.0201 0.9763
-2.8374 4.8889 -2.0214 0.9763
-4.0288 3.9624 -2.0208 0.9763
-4.9290 2.7521 -2.0188 0.9763
-5.3341 1.8311 -2.0168 0.9763
-5.4729 1.3474 -2.0156 0.9763
-5.5677 0.8535 -2.0143 0.9764
-5.6178 0.3535 -2.0129 0.9764
-5.5829 -0.6490 -2.0099 0.9764
-5.3702 -1.6276 -2.0067 0.9764
-4.9873 -2.5513 -2.0033 0.9765
-4.7359 -2.9832 -2.0016 0.9765
-4.1238 -3.7706 -1.9982 0.9765
-3.7680 -4.1199 -1.9966 0.9766
-3.3830 -4.4359 -1.9950 0.9766
-2.9717 -4.7162 -1.9934 0.9766
-1.1325 -5.4429 -1.9881 0.9767
-0.6423 -5.5192 -1.9870 0.9767
-0.1476 -5.5518 -1.9861 0.9767
0.8402 -5.4855 -1.9845 0.9767
1.8003 -5.2465 -1.9836 0.9767
2.7030 -4.8424 -1.9832 0.9767
4.5324 -3.2036 -1.9848 0.9767
4.8018 -2.7878 -1.9856 0.9767
5.2256 -1.8924 -1.9875 0.9767
5.4852 -0.9352 -1.9898 0.9766
5.5489 0.5509 -1.9941 0.9766
5.4820 1.0443 -1.9957 0.9766
3.9677 3.5076 -1.8938 0.9778
2.4456 4.5878 -1.8592 0.9782
2.0282 4.7910 -1.8605 0.9781
0.6892 5.1664 -1.8639 0.9781
0.2310 5.3269 -1.9067 0.9776
-0.7614 5.5964 -2.0197 0.9763
-1.7443 5.3754 -2.0210 0.9763
-2.2170 5.1993 -2.0213 0.9763
-3.5139 4.4271 -2.0213 0.9763
-5.0732 2.4725 -2.0182 0.9763
-5.2708 2.0093 -2.0172 0.9763
-5.6043 0.5417 -2.0135 0.9764
-5.6262 0.0398 -2.0120 0.9764
-5.5353 -0.9586 -2.0089 0.9764
-5.2684 -1.9233 -2.0056 0.9765
-4.8348 -2.8237 -2.0022 0.9765
-4.5599 -3.2408 -2.0005 0.9765
-4.2492 -3.6314 -1.9988 0.9765
-3.9052 -3.9925 -1.9972 0.9766
-3.1290 -4.6153 -1.9940 0.9766
-2.2562 -5.0902 -1.9911 0.9766
-1.3146 -5.4030 -1.9885 0.9767
0.1620 -5.5499 -1.9855 0.9767
0.6559 -5.5113 -1.9848 0.9767
2.0896 -5.1376 -1.9834 0.9767
2.5392 -4.9304 -1.9832 0.9767
2.9686 -4.6843 -1.9832 0.9767
-4.3845 2.9181 -2.0183 0.9777
-4.6255 2.5146 -2.0176 0.9777
-4.8291 2.0912 -2.0167 0.9777
-5.2018 0.7374 -2.0133 0.9777
-5.2434 0.2705 -2.0120 0.9778
-5.2008 -0.6642 -2.0092 0.9778
-5.1170 -1.1244 -2.0077 0.9778
-4.9925 -1.5750 -2.0062 0.9778
-4.6261 -2.4328 -2.0030 0.9779
-4.1139 -3.2107 -1.9998 0.9779
-3.8083 -3.5620 -1.9983 0.9779
-3.4729 -3.8844 -1.9967 0.9779
-2.7238 -4.4329 -1.9938 0.9780
-1.8906 -4.8398 -1.9912 0.9780
-1.4507 -4.9861 -1.9900 0.9780
-0.9998 -5.0928 -1.9889 0.9780
-0.5414 -5.1591 -1.9879 0.9780
0.8423 -5.1126 -1.9856 0.9780
1.2944 -5.0158 -1.9851 0.9781
1.7362 -4.8795 -1.9848 0.9781
2.1641 -4.7047 -1.9845 0.9781
2.9652 -4.2455 -1.9845 0.9781
3.6731 -3.6522 -1.9850 0.9781
4.5127 -2.5522 -1.9868 0.9780
4.7243 -2.1406 -1.9876 0.9780
4.8987 -1.7117 -1.9886 0.9780
5.1738 0.5728 -1.9948 0.9779
4.9973 1.4848 -1.9978 0.9779
4.6614 2.3525 -2.0009 0.9779
4.1705 3.1438 -2.0014 0.9779
3.8675 3.4976 -1.9983 0.9779
2.6063 4.0865 -1.8574 0.9795
2.2331 4.3056 -1.8587 0.9794
1.8415 4.4905 -1.8599 0.9794
1.0196 4.7697 -1.8691 0.9793
-0.3011 5.2544 -2.0169 0.9777
-0.7691 5.2115 -2.0188 0.9777
-1.6833 4.9944 -2.0197 0.9777
-2.5441 4.6169 -2.0201 0.9777
-2.9456 4.3716 -2.0201 0.9777
-3.3234 4.0913 -2.0199 0.9777
-3.6744 3.7781 -2.0196 0.9777
-3.9957 3.4346 -2.0192 0.9777
-4.2848 3.0638 -2.0186 0.9777
-4.5393 2.6686 -2.0179 0.9777
-4.9366 1.8183 -2.0161 0.9777
-5.0764 1.3702 -2.0150 0.9777
-5.1753 0.9116 -2.0138 0.9777
-5.2215 -0.4896 -2.0098 0.9778
-5.0440 -1.4072 -2.0068 0.9778
-4.8946 -1.8498 -2.0052 0.9778
-4.7065 -2.2771 -2.0036 0.9779
-3.6022 -3.7668 -1.9973 0.9779
-2.8716 -4.3403 -1.9944 0.9780
-1.1701 -5.0574 -1.9893 0.9780
-0.2530 -5.1798 -1.9873 0.9780
0.2098 -5.1796 -1.9865 0.9780
1.1257 -5.0568 -1.9853 0.9781
2.8212 -4.3424 -1.9845 0.9781
3.8715 -3.4424 -1.9853 0.9781
4.1641 -3.0843 -1.9858 0.9780
4.4240 -2.7016 -1.9865 0.9780
4.6492 -2.2974 -1.9873 0.9780
5.1701 -0.5283 -1.9916 0.9780
5.2000 -0.0653 -1.9929 0.9780
5.1362 0.8606 -1.9957 0.9779
5.0428 1.3161 -1.9972 0.9779
4.9092 1.7619 -1.9988 0.9779
4.7362 2.1943 -2.0003 0.9779
4.2766 3.0044 -2.0028 0.9779
3.9847 3.3679 -1.9994 0.9779
3.5613 3.6013 -1.9409 0.9785
3.1037 3.7564 -1.8673 0.9793
2.3755 4.2273 -1.8582 0.9794
1.9905 4.4252 -1.8595 0.9794
1.5890 4.5879 -1.8607 0.9794
1.1743 4.7141 -1.8617 0.9794
-1.9592 4.8933 -2.0199 0.9777
-2.7974 4.4680 -2.0201 0.9777
-3.1845 4.2005 -2.0200 0.9777
-3.5459 3.8994 -2.0198 0.9777
-3.8787 3.5670 -2.0194 0.9777
-4.4479 2.8196 -2.0182 0.9777
-5.0287 1.5399 -2.0154 0.9777
-5.1430 1.0848 -2.0143 0.9777
-5.2160 0.6215 -2.0130 0.9777
-5.2364 -0.3144 -2.0103 0.9778
-5.1838 -0.7795 -2.0089 0.9778
-4.7816 -2.1187 -2.0042 0.9778
-4.5700 -2.5346 -2.0026 0.9779
-4.0408 -3.3007 -1.9995 0.9779
-3.7275 -3.6450 -1.9979 0.9779
-3.3850 -3.9598 -1.9964 0.9779
-3.0163 -4.2428 -1.9949 0.9779
-2.2117 -4.7045 -1.9921 0.9780
-0.8862 -5.1131 -1.9886 0.9780
3.0589 -4.1786 -1.9845 0.9781
3.4197 -3.8896 -1.9847 0.9781
3.7536 -3.5699 -1.9851 0.9781
4.0579 -3.2218 -1.9856 0.9780
4.5688 -2.4515 -1.9870 0.9780
5.0622 -1.1567 -1.9899 0.9780
5.1978 0.2247 -1.9937 0.9780
4.9640 1.5958 -1.9982 0.9779
4.8057 2.0337 -1.9997 0.9779
4.6089 2.4560 -2.0013 0.9779
4.3750 2.8594 -2.0029 0.9779
4.0978 3.2343 -2.0005 0.9779
3.7484 3.5446 -1.9770 0.9781
2.8726 3.9006 -1.8564 0.9795
2.5152 4.1442 -1.8577 0.9794
1.3314 4.6711 -1.8613 0.9794
0.9208 4.8299 -1.8842 0.9792
0.5074 5.1040 -1.9656 0.9783
0.0515 5.2512 -2.0125 0.9778
-2.2290 4.7768 -2.0200 0.9777
-2.6461 4.5592 -2.0201 0.9777
-4.8055 2.1458 -2.0168 0.9777
-4.9752 1.7079 -2.0158 0.9777
-5.1935 0.7962 -2.0135 0.9777
-5.2084 -0.6054 -2.0094 0.9778
-5.1299 -1.0666 -2.0079 0.9778
-5.0105 -1.5186 -2.0064 0.9778
-4.6538 -2.3807 -2.0032 0.9779
-4.4195 -2.7839 -2.0016 0.9779
-3.5169 -3.8452 -1.9969 0.9779
-2.3687 -4.6289 -1.9926 0.9780
-1.9453 -4.8185 -1.9913 0.9780
-0.5997 -5.1529 -1.9880 0.9780
0.7845 -5.1219 -1.9857 0.9780
1.6810 -4.8989 -1.9848 0.9781
2.1108 -4.7290 -1.9846 0.9781
2.5239 -4.5217 -1.9844 0.9781
2.9171 -4.2787 -1.9845 0.9781
3.2872 -4.0019 -1.9846 0.9781
3.6315 -3.6934 -1.9850 0.9781
3.9473 -3.3557 -1.9854 0.9781
4.8788 -1.7668 -1.9884 0.9780
5.1207 -0.8731 -1.9907 0.9780
5.1814 -0.4133 -1.9919 0.9780
5.2011 0.0504 -1.9932 0.9780
5.1795 0.5142 -1.9946 0.9780
4.2067 3.0972 -2.0019 0.9779
3.0016 3.8019 -1.8563 0.9795
2.6520 4.0564 -1.8572 0.9795
1.8919 4.4691 -1.8598 0.9794
1.4869 4.6228 -1.8609 0.9794
0.6661 4.9932 -1.9304 0.9787
-0.7102 5.2197 -2.0187 0.9777
-1.6267 5.0130 -2.0197 0.9777
-2.0675 4.8487 -2.0200 0.9777
-2.4918 4.6453 -2.0201 0.9777
-2.8960 4.4047 -2.0201 0.9777
-3.9568 3.4797 -2.0192 0.9777
-4.7317 2.3060 -2.0171 0.9777
-4.9161 1.8741 -2.0162 0.9777
-5.0610 1.4275 -2.0151 0.9777
-5.2277 0.5053 -2.0127 0.9778
-5.2272 -0.4306 -2.0100 0.9778
-4.9157 -1.7946 -2.0054 0.9778
-4.5117 -2.6350 -2.0022 0.9779
-4.2554 -3.0244 -2.0006 0.9779
-3.6448 -3.7263 -1.9975 0.9779
-2.1062 -4.7517 -1.9918 0.9780
-1.6731 -4.9176 -1.9906 0.9780
-1.2273 -5.0442 -1.9894 0.9780
0.6124 -5.1459 -1.9859 0.9780
1.0685 -5.0694 -1.9854 0.9781
1.5159 -4.9528 -1.9849 0.9781
2.3710 -4.6038 -1.9845 0.9781
3.1511 -4.1097 -1.9846 0.9781
3.5055 -3.8128 -1.9848 0.9781
-4.1033 2.7309 -2.0173 0.9789
-4.3289 2.3533 -2.0166 0.9789
-4.6739 1.5457 -2.0148 0.9789
-4.7906 1.1222 -2.0138 0.9790
-1.9419 0.1002 -0.7958 0.9916
-1.9324 -0.0730 -0.7914 0.9917
-4.6741 -1.4745 -2.0059 0.9790
-4.5207 -1.8840 -2.0045 0.9791
-4.3315 -2.2779 -2.0030 0.9791
-4.1081 -2.6530 -2.0015 0.9791
-3.5663 -3.3356 -1.9985 0.9791
-3.2523 -3.6377 -1.9971 0.9791
-2.9130 -3.9104 -1.9957 0.9791
-2.5510 -4.1518 -1.9944 0.9792
-1.7708 -4.5333 -1.9919 0.9792
-1.3588 -4.6705 -1.9908 0.9792
-0.5072 -4.8328 -1.9888 0.9792
-0.0742 -4.8568 -1.9880 0.9792
1.2127 -4.6990 -1.9862 0.9792
2.0275 -4.4077 -1.9856 0.9792
2.4123 -4.2092 -1.9856 0.9793
2.7780 -3.9774 -1.9856 0.9792
3.1219 -3.7142 -1.9858 0.9792
3.4411 -3.4216 -1.9861 0.9792
3.7333 -3.1018 -1.9865 0.9792
3.9961 -2.7574 -1.9871 0.9792
4.2275 -2.3909 -1.9877 0.9792
4.8057 -0.7636 -1.9915 0.9792
4.8708 0.1022 -1.9940 0.9792
4.7817 0.9670 -1.9967 0.9791
4.6798 1.3905 -1.9981 0.9791
4.5405 1.8035 -1.9995 0.9791
3.9100 2.9474 -2.0040 0.9791
3.3185 3.5888 -2.0005 0.9791
2.9309 3.7999 -1.9641 0.9795
2.5274 3.9629 -1.9237 0.9799
2.1438 4.1334 -1.9057 0.9801
1.7704 4.3173 -1.9097 0.9800
1.3974 4.5193 -1.9360 0.9798
1.0146 4.7462 -1.9864 0.9792
0.5943 4.8748 -2.0099 0.9790
0.1577 4.9199 -2.0146 0.9789
-0.2819 4.9204 -2.0171 0.9789
-0.7197 4.8772 -2.0177 0.9789
-1.5753 4.6738 -2.0186 0.9789
-3.7393 3.2142 -2.0181 0.9789
-4.2481 2.4974 -2.0169 0.9789
-4.4522 2.1079 -2.0161 0.9789
-4.6203 1.7018 -2.0152 0.9789
-4.7513 1.2824 -2.0142 0.9790
-2.1531 0.3792 -0.8948 0.9906
-1.9575 0.1669 -0.8041 0.9915
-4.7222 -1.3174 -2.0065 0.9790
-4.1959 -2.5146 -2.0020 0.9791
-3.9520 -2.8765 -2.0005 0.9791
-1.9222 -4.4723 -1.9923 0.9792
-0.2370 -4.8523 -1.9883 0.9792
0.1965 -4.8522 -1.9875 0.9792
1.4725 -4.6236 -1.9860 0.9792
1.8786 -4.4733 -1.9857 0.9792
2.2698 -4.2877 -1.9856 0.9793
3.3243 -3.5348 -1.9860 0.9792
4.1444 -2.5309 -1.9875 0.9792
4.3552 -2.1521 -1.9882 0.9792
4.8425 -0.4948 -1.9923 0.9792
4.8596 0.3736 -1.9948 0.9792
4.5971 1.6499 -1.9990 0.9791
4.2372 2.4438 -2.0019 0.9791
3.0888 3.7384 -1.9847 0.9793
2.6745 3.8988 -1.9351 0.9798
2.2864 4.0687 -1.9101 0.9800
1.5385 4.4421 -1.9240 0.9799
0.7568 4.8483 -2.0083 0.9790
0.3222 4.9074 -2.0128 0.9790
-0.1168 4.9264 -2.0168 0.9789
-0.5558 4.8980 -2.0175 0.9789
-2.6178 4.1811 -2.0190 0.9789
-2.9801 3.9308 -2.0189 0.9789
-4.1626 2.6388 -2.0171 0.9789
-4.7065 1.4412 -2.0145 0.9790
-4.8137 1.0153 -2.0135 0.9790
-1.9546 0.2329 -0.8056 0.9915
-1.9257 0.0565 -0.7885 0.9917
-1.9618 -0.2950 -0.8119 0.9915
-4.7650 -1.1586 -2.0070 0.9790
-4.4769 -1.9837 -2.0041 0.9791
-3.7838 -3.0908 -1.9996 0.9791
-3.4906 -3.4134 -1.9982 0.9791
-3.1701 -3.7084 -1.9967 0.9791
-2.8249 -3.9735 -1.9954 0.9791
-2.4577 -4.2068 -1.9940 0.9792
-2.0715 -4.4064 -1.9928 0.9792
-0.8301 -4.7896 -1.9895 0.9792
0.0337 -4.8567 -1.9878 0.9792
0.4665 -4.8327 -1.9871 0.9792
0.8953 -4.7705 -1.9865 0.9792
1.7277 -4.5340 -1.9858 0.9792
2.8658 -3.9147 -1.9856 0.9792
3.2038 -3.6440 -1.9858 0.9792
4.2800 -2.2966 -1.9879 0.9792
4.4696 -1.9066 -1.9888 0.9792
4.6239 -1.5012 -1.9897 0.9792
4.8222 -0.6567 -1.9918 0.9792
4.8682 0.2105 -1.9943 0.9792
4.8332 0.6441 -1.9956 0.9791
4.6485 1.4944 -1.9984 0.9791
4.5001 1.9044 -1.9999 0.9791
4.3156 2.2997 -2.0014 0.9791
4.0964 2.6773 -2.0029 0.9791
3.5541 3.3608 -2.0020 0.9791
3.2372 3.6609 -2.0001 0.9791
2.8279 3.8398 -1.9517 0.9796
2.0510 4.1794 -1.9054 0.9801
1.6778 4.3653 -1.9140 0.9800
1.3028 4.5709 -1.9452 0.9797
0.9163 4.8065 -2.0026 0.9791
0.0483 4.9252 -2.0159 0.9789
-0.3913 4.9133 -2.0173 0.9789
-0.8280 4.8603 -2.0179 0.9789
-1.6788 4.6378 -2.0187 0.9789
-2.0859 4.4702 -2.0189 0.9789
-2.8467 4.0286 -2.0189 0.9789
-3.1943 3.7584 -2.0187 0.9789
-3.5161 3.4581 -2.0184 0.9789
-4.6564 1.5985 -2.0149 0.9789
-1.9844 0.3042 -0.8217 0.9914
-1.9553 -0.2273 -0.8056 0.9915
-4.6909 -1.4217 -2.0061 0.9790
-4.1382 -2.6067 -2.0017 0.9791
-3.8864 -2.9631 -2.0002 0.9791
-3.6041 -3.2954 -1.9987 0.9791
-3.2935 -3.6010 -1.9973 0.9791
-2.9573 -3.8776 -1.9959 0.9791
-2.5980 -4.1231 -1.9945 0.9792
-1.8221 -4.5133 -1.9920 0.9792
-0.9904 -4.7600 -1.9899 0.9792
-0.1291 -4.8558 -1.9881 0.9792
0.7349 -4.7983 -1.9867 0.9792
1.1595 -4.7126 -1.9863 0.9792
1.5748 -4.5896 -1.9859 0.9792
1.9775 -4.4304 -1.9857 0.9792
2.7329 -4.0085 -1.9856 0.9792
3.0797 -3.7492 -1.9858 0.9792
3.4022 -3.4602 -1.9860 0.9792
3.9646 -2.8022 -1.9870 0.9792
4.4024 -2.0550 -1.9884 0.9792
4.8531 -0.3871 -1.9926 0.9792
4.8713 0.0472 -1.9938 0.9792
4.8509 0.4816 -1.9951 0.9792
4.7919 0.9129 -1.9965 0.9791
4.3890 2.1532 -2.0008 0.9791
4.1827 2.5378 -2.0023 0.9791
3.6665 3.2413 -2.0029 0.9791
3.3592 3.5514 -2.0007 0.9791
2.9838 3.7794 -1.9708 0.9794
2.1910 4.1103 -1.9063 0.9801
1.8179 4.2941 -1.9084 0.9800
1.0640 4.7158 -1.9786 0.9793
0.6492 4.8664 -2.0093 0.9790
-0.2263 4.9230 -2.0170 0.9789
-0.6646 4.8848 -2.0176 0.9789
-1.0978 4.8073 -2.0182 0.9789
-1.5223 4.6912 -2.0186 0.9789
-1.9348 4.5374 -2.0188 0.9789
-2.3318 4.3471 -2.0190 0.9789
-2.7101 4.1219 -2.0190 0.9789
-3.0666 3.8636 -2.0188 0.9789
-1.9579 0.1893 -0.8051 0.9915
-1.9566 -0.1612 -0.8035 0.9916
-4.7372 -1.2641 -2.0067 0.9790
-4.4309 -2.0823 -2.0037 0.9791
-4.2244 -2.4672 -2.0022 0.9791
-3.7135 -3.1736 -1.9993 0.9791
-3.4133 -3.4895 -1.9978 0.9791
-3.0864 -3.7773 -1.9964 0.9791
-2.3632 -4.2597 -1.9937 0.9792
-1.9728 -4.4507 -1.9925 0.9792
-1.5672 -4.6062 -1.9913 0.9792
-1.1496 -4.7250 -1.9902 0.9792
-0.7234 -4.8063 -1.9893 0.9792
0.1417 -4.8544 -1.9876 0.9792
0.5737 -4.8208 -1.9870 0.9792
1.8280 -4.4943 -1.9857 0.9792
2.5970 -4.0978 -1.9856 0.9793
-4.2426 1.8372 -2.0149 0.9800
-1.5868 0.5247 -0.7284 0.9927
-1.5231 -0.3347 -0.6796 0.9932
-4.2451 -1.7691 -2.0043 0.9801
-4.0676 -2.1391 -2.0029 0.9801
-3.6179 -2.8236 -2.0001 0.9802
-3.3495 -3.1328 -1.9987 0.9802
-3.0547 -3.4167 -1.9974 0.9802
-2.7361 -3.6730 -1.9961 0.9802
-2.3962 -3.8999 -1.9948 0.9802
-1.6635 -4.2585 -1.9925 0.9802
-0.8798 -4.4817 -1.9905 0.9803
-0.4765 -4.5403 -1.9896 0.9803
-0.0697 -4.5629 -1.9888 0.9803
0.3373 -4.5495 -1.9882 0.9803
1.5282 -4.2951 -1.9868 0.9803
1.9049 -4.1413 -1.9866 0.9803
2.6101 -3.7371 -1.9866 0.9803
3.2332 -3.2148 -1.9871 0.9803
3.5076 -2.9143 -1.9875 0.9803
3.7545 -2.5906 -1.9880 0.9803
3.9718 -2.2463 -1.9886 0.9803
4.1578 -1.8839 -1.9894 0.9803
4.3110 -1.5063 -1.9902 0.9803
4.4303 -1.1164 -1.9911 0.9803
4.5630 -0.3121 -1.9933 0.9802
4.5514 0.5039 -1.9957 0.9802
4.2643 1.6938 -1.9997 0.9802
4.0991 2.0687 -2.0011 0.9802
3.9011 2.4277 -2.0025 0.9802
2.1165 4.0809 -2.0035 0.9801
1.7454 4.2561 -2.0048 0.9801
0.9641 4.5098 -2.0099 0.9801
0.5591 4.5860 -2.0134 0.9800
-0.2647 4.6186 -2.0162 0.9800
-0.6756 4.5780 -2.0168 0.9800
-1.8641 4.2382 -2.0178 0.9800
-2.5873 3.8399 -2.0179 0.9800
-2.9191 3.5936 -2.0178 0.9800
-3.2275 3.3186 -2.0175 0.9800
-1.5975 0.5884 -0.7419 0.9926
-1.5022 0.2646 -0.6647 0.9934
-1.5283 0.1303 -0.6685 0.9933
-1.5272 -0.1432 -0.6685 0.9933
-1.4980 -0.2769 -0.6639 0.9934
-1.5628 -0.4360 -0.7071 0.9929
-4.3031 -1.6263 -2.0048 0.9801
-3.9403 -2.3614 -2.0020 0.9802
-3.7115 -2.7015 -2.0006 0.9802
-3.4535 -3.0195 -1.9993 0.9802
-3.1683 -3.3132 -1.9979 0.9802
-2.8584 -3.5801 -1.9966 0.9802
-2.1744 -4.0258 -1.9941 0.9802
-1.8057 -4.2012 -1.9929 0.9802
-0.2227 -4.5587 -1.9891 0.9803
0.1846 -4.5587 -1.9884 0.9803
0.9908 -4.4510 -1.9873 0.9803
1.3835 -4.3442 -1.9870 0.9803
2.1327 -4.0286 -1.9866 0.9803
3.6651 -2.7147 -1.9878 0.9803
3.8938 -2.3778 -1.9884 0.9803
4.2574 -1.6497 -1.9899 0.9803
4.4870 -0.8681 -1.9918 0.9803
4.5490 -0.4648 -1.9929 0.9802
4.5750 -0.0574 -1.9940 0.9802
4.5181 0.7570 -1.9965 0.9802
4.4355 1.1576 -1.9978 0.9802
4.3175 1.5495 -1.9992 0.9802
3.9792 2.2949 -2.0020 0.9802
3.7614 2.6424 -2.0034 0.9801
3.5132 2.9694 -2.0047 0.9801
2.6000 3.7901 -2.0031 0.9801
1.8865 4.1941 -2.0043 0.9801
1.5064 4.3495 -2.0061 0.9801
0.3030 4.6139 -2.0152 0.9800
-0.1097 4.6243 -2.0159 0.9800
-2.0974 4.1279 -2.0179 0.9800
-3.1146 3.4251 -2.0176 0.9800
-3.6720 2.8163 -2.0168 0.9800
-3.9073 2.4770 -2.0162 0.9800
-1.5161 0.3198 -0.6753 0.9933
-1.5223 0.1814 -0.6681 0.9933
-1.5277 0.0448 -0.6661 0.9934
-1.5128 -0.2275 -0.6667 0.9933
-1.5404 -0.3746 -0.6909 0.9931
-4.0183 -2.2286 -2.0026 0.9802
-3.5537 -2.9028 -1.9998 0.9802
-2.3086 -3.9516 -1.9945 0.9802
-1.9459 -4.1392 -1.9933 0.9802
-0.7799 -4.4996 -1.9903 0.9803
0.0317 -4.5630 -1.9887 0.9803
0.4383 -4.5405 -1.9880 0.9803
1.6233 -4.2600 -1.9868 0.9803
1.9965 -4.0979 -1.9866 0.9803
3.0101 -3.4238 -1.9868 0.9803
3.3039 -3.1423 -1.9871 0.9803
3.5717 -2.8358 -1.9876 0.9803
4.3439 -1.4103 -1.9904 0.9803
4.5299 -0.6169 -1.9924 0.9802
4.5728 0.1977 -1.9948 0.9802
4.5398 0.6050 -1.9960 0.9802
4.2263 1.7885 -2.0000 0.9802
4.0528 2.1597 -2.0014 0.9802
3.8468 2.5142 -2.0028 0.9801
3.3437 3.1619 -2.0056 0.9801
3.0463 3.4450 -2.0042 0.9801
2.7258 3.7012 -2.0033 0.9801
2.3848 3.9292 -2.0031 0.9801
2.0256 4.1275 -2.0038 0.9801
1.6507 4.2948 -2.0052 0.9801
1.2626 4.4300 -2.0076 0.9801
0.4573 4.5996 -2.0145 0.9800
-0.3673 4.6119 -2.0163 0.9800
-2.3242 4.0046 -2.0179 0.9800
-2.6720 3.7814 -2.0179 0.9800
-3.3003 3.2459 -2.0174 0.9800
-4.0384 2.2549 -2.0158 0.9800
-4.2218 1.8851 -2.0150 0.9800
-1.5910 0.5462 -0.7331 0.9927
-1.5296 0.0962 -0.6679 0.9933
-1.5273 -0.0404 -0.6658 0.9934
-1.5230 -0.1770 -0.6682 0.9933
-1.5136 -0.3147 -0.6738 0.9933
-1.5753 -0.4774 -0.7174 0.9928
-4.2652 -1.7212 -2.0045 0.9801
-4.0919 -2.0932 -2.0031 0.9801
-3.8862 -2.4480 -2.0017 0.9802
-3.3849 -3.0950 -1.9989 0.9802
-2.7777 -3.6422 -1.9963 0.9802
-2.4403 -3.8729 -1.9950 0.9802
-2.0840 -4.0726 -1.9938 0.9802
-1.7116 -4.2397 -1.9926 0.9802
-0.1213 -4.5621 -1.9889 0.9803
0.2858 -4.5532 -1.9882 0.9803
1.0895 -4.4277 -1.9872 0.9803
1.4797 -4.3122 -1.9869 0.9803
1.8580 -4.1626 -1.9867 0.9803
2.8936 -3.5226 -1.9867 0.9803
3.7248 -2.6328 -1.9879 0.9803
