ply
format ascii 1.0
element vertex 1580
property float32 x
property float32 y
property float32 z
property float32 I
end_header
8.8220 -10.9141 -1.9884 0.9449
13.2781 -4.9163 -2.0062 0.9444
13.6844 -3.7168 -2.0092 0.9443
13.9821 -2.4838 -2.0121 0.9442
14.1682 -1.2273 -2.0150 0.9442
14.2407 0.0426 -2.0178 0.9441
14.0418 2.5812 -2.0229 0.9440
12.2992 7.3623 -2.0310 0.9437
9.9265 10.3771 -2.0347 0.9436
8.9634 11.2258 -2.0354 0.9436
7.9270 11.9837 -2.0358 0.9436
6.8259 12.6444 -2.0360 0.9436
2.9837 12.9286 -1.8800 0.9478
1.8166 13.1372 -1.8791 0.9478
-1.3462 10.2336 -1.4625 0.9592
-3.4094 10.6586 -1.5856 0.9558
-5.9401 11.1798 -1.7938 0.9501
-6.5464 10.0403 -1.6983 0.9527
-8.1309 10.3225 -1.8618 0.9483
-6.7223 5.9533 -1.2723 0.9644
-10.5294 7.7647 -1.8537 0.9485
-11.1638 6.7834 -1.8509 0.9486
-13.8054 2.6323 -1.9913 0.9448
-13.9655 1.3872 -1.9885 0.9449
-13.7803 -2.3540 -1.9808 0.9451
-13.4997 -3.5708 -1.9785 0.9451
-12.6243 -5.9030 -1.9746 0.9453
-11.3554 -8.0416 -1.9715 0.9453
-8.8059 -10.7478 -1.9687 0.9454
-6.7519 -12.1389 -1.9681 0.9454
-3.2956 -13.5014 -1.9692 0.9454
-2.0779 -13.7477 -1.9700 0.9454
-0.8427 -13.8862 -1.9711 0.9453
2.8741 -13.6458 -1.9759 0.9452
4.0851 -13.3482 -1.9779 0.9452
6.4087 -12.4376 -1.9825 0.9450
8.5408 -11.1286 -1.9877 0.9449
9.5136 -10.3361 -1.9904 0.9448
10.4135 -9.4591 -1.9933 0.9448
11.9654 -7.4785 -1.9993 0.9446
13.9093 -2.8342 -2.0113 0.9443
14.1271 -1.5833 -2.0142 0.9442
14.2318 -0.3161 -2.0170 0.9441
14.0976 2.2257 -2.0222 0.9440
13.5075 4.7081 -2.0268 0.9438
13.0460 5.9011 -2.0288 0.9438
12.4780 7.0485 -2.0306 0.9437
11.0410 9.1681 -2.0334 0.9437
8.2261 11.7796 -2.0357 0.9436
5.5442 12.0630 -1.8811 0.9478
3.3089 12.8507 -1.8802 0.9478
0.9697 13.2211 -1.8783 0.9479
-2.0498 10.3786 -1.4989 0.9582
-3.0968 10.5942 -1.5639 0.9564
-5.5426 11.0979 -1.7577 0.9511
-6.9093 11.2041 -1.8651 0.9482
-8.7675 9.7697 -1.8599 0.9483
-6.4904 6.0466 -1.2569 0.9648
-10.3348 8.0310 -1.8545 0.9485
-11.5634 6.0466 -1.8489 0.9486
-13.4390 4.2015 -1.9950 0.9447
-13.9316 1.7394 -1.9893 0.9449
-13.9811 -0.7640 -1.9839 0.9450
-12.2121 -6.6967 -1.9734 0.9453
-11.5567 -7.7544 -1.9719 0.9453
-9.0747 -10.5234 -1.9689 0.9454
-8.0968 -11.2887 -1.9684 0.9454
-7.0558 -11.9650 -1.9681 0.9454
-4.8160 -13.0311 -1.9684 0.9454
-3.6344 -13.4127 -1.9690 0.9454
-2.4234 -13.6891 -1.9698 0.9454
-1.1921 -13.8581 -1.9708 0.9454
4.9369 -13.0689 -1.9794 0.9451
7.2000 -12.0117 -1.9843 0.9450
8.2545 -11.3359 -1.9869 0.9449
10.1676 -9.7145 -1.9925 0.9448
12.4340 -6.7028 -2.0014 0.9445
13.0025 -5.5743 -2.0045 0.9444
13.8278 -3.1825 -2.0105 0.9443
14.0771 -1.9381 -2.0134 0.9442
14.2138 -0.6744 -2.0162 0.9441
14.2365 0.5981 -2.0189 0.9441
14.1443 1.8691 -2.0215 0.9440
12.6487 6.7302 -2.0301 0.9438
10.4341 9.8613 -2.0342 0.9436
7.4542 12.2842 -2.0359 0.9436
6.3190 12.8829 -2.0331 0.9437
2.4769 13.0327 -1.8796 0.9478
1.3027 13.1948 -1.8786 0.9478
0.0981 10.8814 -1.5418 0.9570
-3.9112 10.7620 -1.6224 0.9548
-6.5891 11.3134 -1.8550 0.9485
-8.5220 9.9915 -1.8607 0.9483
-10.1334 8.2924 -1.8553 0.9485
-10.8170 7.3435 -1.8525 0.9486
-11.4122 6.3388 -1.8497 0.9486
-13.3344 4.5408 -1.9959 0.9447
-13.6664 3.3272 -1.9929 0.9448
-14.0010 -0.4115 -1.9847 0.9450
-13.8908 -1.6579 -1.9821 0.9451
-13.3440 -4.0925 -1.9776 0.9452
-11.0302 -8.4758 -1.9710 0.9454
-10.2238 -9.4216 -1.9699 0.9454
-7.3552 -11.7837 -1.9682 0.9454
-3.9709 -13.3156 -1.9688 0.9454
-1.5407 -13.8215 -1.9705 0.9454
0.9432 -13.8940 -1.9732 0.9453
2.1818 -13.7660 -1.9748 0.9452
3.4054 -13.5292 -1.9767 0.9452
6.8925 -12.1850 -1.9835 0.9450
7.9632 -11.5360 -1.9861 0.9449
8.9736 -10.7937 -1.9889 0.9449
12.2559 -7.0110 -2.0006 0.9446
12.8524 -5.8977 -2.0036 0.9445
13.3477 -4.7338 -2.0066 0.9444
14.0181 -2.2912 -2.0126 0.9442
14.1868 -1.0320 -2.0154 0.9442
14.2417 0.2391 -2.0182 0.9441
14.1819 1.5116 -2.0208 0.9440
13.7193 4.0192 -2.0256 0.9439
12.8111 6.4077 -2.0296 0.9438
12.1980 7.5322 -2.0313 0.9437
11.4849 8.5972 -2.0327 0.9437
10.6777 9.5939 -2.0339 0.9437
7.7611 12.0921 -2.0359 0.9436
4.2930 10.3903 -1.5929 0.9556
3.9529 12.6701 -1.8806 0.9478
-0.6355 11.5045 -1.6325 0.9545
-1.4945 10.2642 -1.4697 0.9590
-3.5843 10.6946 -1.5982 0.9555
-4.7926 10.9435 -1.6928 0.9529
-7.3365 10.9199 -1.8640 0.9482
-9.9254 8.5487 -1.8560 0.9485
-10.6331 7.6170 -1.8533 0.9485
-13.2213 4.8774 -1.9967 0.9447
-13.5838 3.6721 -1.9938 0.9447
-13.8373 2.4411 -1.9909 0.9448
-13.9803 1.1942 -1.9881 0.9449
-13.9330 -1.3077 -1.9828 0.9450
-13.7440 -2.5434 -1.9804 0.9451
-13.4469 -3.7560 -1.9782 0.9452
-11.9376 -7.1652 -1.9727 0.9453
-11.2423 -8.1966 -1.9713 0.9453
-10.4595 -9.1623 -1.9702 0.9454
-9.5953 -10.0548 -1.9693 0.9454
-8.6564 -10.8678 -1.9686 0.9454
-6.5839 -12.2308 -1.9681 0.9454
-4.3049 -13.2103 -1.9686 0.9454
-0.6512 -13.8978 -1.9713 0.9453
4.2695 -13.2928 -1.9782 0.9452
7.6671 -11.7286 -1.9854 0.9450
8.6954 -11.0121 -1.9881 0.9449
11.3519 -8.3503 -1.9967 0.9447
12.0702 -7.3145 -1.9997 0.9446
12.6942 -6.2171 -2.0028 0.9445
13.2186 -5.0666 -2.0058 0.9444
14.1507 -1.3886 -2.0146 0.9442
14.2378 -0.1199 -2.0174 0.9441
13.4434 4.8947 -2.0271 0.9438
12.9652 6.0813 -2.0291 0.9438
12.3812 7.2208 -2.0308 0.9437
10.9144 9.3204 -2.0336 0.9437
9.0906 11.1223 -2.0353 0.9436
6.9698 12.5657 -2.0360 0.9436
5.3772 12.1382 -1.8811 0.9478
3.1311 12.8944 -1.8801 0.9478
1.9665 13.1165 -1.8792 0.9478
-0.3819 12.7351 -1.8052 0.9498
-1.2246 10.2086 -1.4568 0.9593
-2.2057 10.4107 -1.5078 0.9579
-3.2669 10.6293 -1.5756 0.9561
-6.3999 10.0648 -1.6900 0.9530
-8.0141 10.4165 -1.8622 0.9483
-10.4422 7.8859 -1.8541 0.9485
-13.0998 5.2113 -1.9976 0.9446
-13.4926 4.0149 -1.9946 0.9447
-13.7770 2.7901 -1.9917 0.9448
-13.8083 -2.1969 -1.9811 0.9451
-13.1684 -4.6076 -1.9767 0.9452
-12.6923 -5.7593 -1.9748 0.9452
-12.1170 -6.8636 -1.9732 0.9453
-11.4474 -7.9122 -1.9717 0.9453
-10.6887 -8.8971 -1.9705 0.9454
-8.9283 -10.6470 -1.9688 0.9454
-7.9402 -11.3990 -1.9683 0.9454
-6.8900 -12.0611 -1.9681 0.9454
-5.7859 -12.6284 -1.9682 0.9454
-2.2345 -13.7222 -1.9699 0.9454
-0.9342 10.1482 -1.6789 0.9595
-2.9291 10.5591 -1.8052 0.9566
-4.9186 10.1981 -1.8652 0.9551
-5.8031 9.7076 -1.8632 0.9552
-6.6390 9.1402 -1.8610 0.9552
-6.4283 6.1565 -1.4663 0.9646
-8.7910 7.0279 -1.8541 0.9554
-10.6498 5.7573 -1.9944 0.9521
-11.1465 4.7944 -1.9989 0.9520
-11.7912 2.7286 -1.9938 0.9521
-11.9730 1.6629 -1.9913 0.9522
-12.0497 -0.4918 -1.9867 0.9523
-11.7455 -2.6215 -1.9825 0.9524
-9.4226 -7.4130 -1.9751 0.9526
-7.9475 -8.9633 -1.9735 0.9526
-7.1138 -9.6348 -1.9730 0.9526
-6.2245 -10.2302 -1.9727 0.9526
-4.3062 -11.1751 -1.9729 0.9526
-3.2920 -11.5175 -1.9734 0.9526
-2.2513 -11.7693 -1.9740 0.9526
-1.1921 -11.9285 -1.9749 0.9526
-0.1224 -11.9939 -1.9760 0.9525
2.0154 -11.8409 -1.9787 0.9525
3.0671 -11.6234 -1.9804 0.9524
4.0964 -11.3136 -1.9822 0.9524
5.0952 -10.9136 -1.9842 0.9523
7.8316 -9.2043 -1.9909 0.9522
10.0285 -6.8257 -1.9984 0.9520
11.5236 -3.9395 -2.0063 0.9518
12.2011 -0.7477 -2.0138 0.9517
12.0028 2.5206 -2.0205 0.9515
11.7411 3.5856 -2.0224 0.9515
10.9346 5.6260 -2.0258 0.9514
10.3959 6.5844 -2.0272 0.9513
9.0689 8.3373 -2.0294 0.9513
4.1409 10.3553 -1.8373 0.9558
2.2796 11.1537 -1.8754 0.9549
-0.7351 11.0219 -1.8198 0.9562
-4.6615 10.3219 -1.8658 0.9551
-5.5584 9.8539 -1.8638 0.9552
-7.9426 8.0001 -1.8571 0.9553
-8.6142 7.2498 -1.8548 0.9554
-11.4205 4.0656 -1.9971 0.9520
-11.7229 3.0259 -1.9945 0.9521
-11.9314 1.9648 -1.9920 0.9522
-12.0446 0.8906 -1.9896 0.9522
-11.9839 -1.2629 -1.9852 0.9523
-11.5452 -3.3673 -1.9812 0.9524
-11.1887 -4.3808 -1.9795 0.9525
-5.5552 -10.6082 -1.9727 0.9526
-4.5863 -11.0626 -1.9728 0.9526
-3.5809 -11.4300 -1.9732 0.9526
-2.5469 -11.7076 -1.9738 0.9526
-1.4921 -11.8931 -1.9746 0.9526
1.7160 -11.8853 -1.9783 0.9525
5.7893 -10.5723 -1.9857 0.9523
7.5946 -9.3956 -1.9902 0.9522
8.4133 -8.6906 -1.9927 0.9521
9.8497 -7.0736 -1.9977 0.9520
10.4555 -6.1740 -2.0003 0.9520
10.9792 -5.2227 -2.0029 0.9519
11.4165 -4.2270 -2.0055 0.9518
11.7634 -3.1950 -2.0081 0.9518
12.2342 0.0366 -2.0155 0.9516
12.0590 2.2167 -2.0199 0.9515
11.8246 3.2877 -2.0219 0.9515
11.4943 4.3342 -2.0237 0.9514
11.0705 5.3475 -2.0254 0.9514
5.8501 10.8367 -2.0288 0.9513
4.4219 10.2973 -1.8462 0.9556
3.5415 10.8242 -1.8762 0.9549
1.5589 11.2736 -1.8749 0.9549
-0.4704 11.3582 -1.8727 0.9550
-1.3461 10.2330 -1.7003 0.9590
-2.3360 10.4369 -1.7619 0.9576
-3.4092 10.6580 -1.8434 0.9557
-4.4012 10.4391 -1.8663 0.9551
-9.0532 6.6761 -1.8531 0.9554
-9.6006 5.8335 -1.8507 0.9555
-11.3185 4.3537 -1.9978 0.9520
-11.6471 3.3216 -1.9952 0.9521
-11.8822 2.2656 -1.9927 0.9521
-12.0156 -0.9608 -1.9858 0.9523
-11.6295 -3.0761 -1.9817 0.9524
-10.3733 -6.0332 -1.9769 0.9525
-9.7871 -6.9309 -1.9757 0.9525
-7.5912 -9.2652 -1.9732 0.9526
-6.7323 -9.9041 -1.9729 0.9526
-2.8409 -11.6386 -1.9736 0.9526
0.3454 -11.9928 -1.9765 0.9525
4.5363 -11.1501 -1.9830 0.9524
5.5193 -10.7116 -1.9851 0.9523
8.1888 -8.8967 -1.9920 0.9522
10.8401 -5.4957 -2.0022 0.9519
11.3022 -4.5118 -2.0048 0.9519
11.9550 -2.4360 -2.0099 0.9517
12.1397 -1.3606 -2.0124 0.9517
9.4750 7.8678 -2.0289 0.9513
8.7386 8.6861 -2.0298 0.9513
7.9307 9.4347 -2.0304 0.9513
7.0582 10.1072 -2.0309 0.9513
3.8134 10.7321 -1.8763 0.9549
2.8393 11.0269 -1.8758 0.9549
1.8427 11.2321 -1.8751 0.9549
-1.0787 10.1780 -1.6861 0.9594
-2.0496 10.3780 -1.7427 0.9580
-5.0580 10.1276 -1.8649 0.9551
-6.7632 9.0461 -1.8607 0.9552
-6.4726 6.0300 -1.4573 0.9648
-10.7403 5.6162 -1.9966 0.9521
-11.2093 4.6392 -1.9985 0.9520
-11.5638 3.6153 -1.9959 0.9521
-11.9925 1.4973 -1.9910 0.9522
-12.0640 0.4201 -1.9886 0.9522
-12.0397 -0.6579 -1.9864 0.9523
-11.9201 -1.7283 -1.9842 0.9523
-11.7065 -2.7828 -1.9823 0.9524
-11.4007 -3.8134 -1.9804 0.9524
-11.0055 -4.8120 -1.9788 0.9525
-10.5240 -5.7710 -1.9773 0.9525
-9.9603 -6.6832 -1.9760 0.9525
-6.9801 -9.7317 -1.9729 0.9526
-6.0827 -10.3149 -1.9727 0.9526
-4.1518 -11.2337 -1.9730 0.9526
-3.1330 -11.5623 -1.9734 0.9526
-1.0275 -11.9448 -1.9750 0.9526
3.2276 -11.5816 -1.9806 0.9524
10.6943 -5.7650 -2.0014 0.9519
11.1808 -4.7934 -2.0041 0.9519
11.5791 -3.7809 -2.0066 0.9518
11.8856 -2.7355 -2.0092 0.9518
12.0974 -1.6655 -2.0117 0.9517
12.2296 0.5138 -2.0165 0.9516
11.6922 3.7477 -2.0227 0.9514
10.8572 5.7770 -2.0260 0.9514
10.3051 6.7278 -2.0274 0.9513
9.6689 7.6254 -2.0286 0.9513
8.1653 9.2311 -2.0303 0.9513
7.3103 9.9256 -2.0308 0.9513
5.0164 10.2273 -1.8766 0.9549
3.1165 10.9528 -1.8760 0.9549
1.1180 11.3234 -1.8745 0.9549
-0.8450 10.4886 -1.7335 0.9582
-1.7693 10.3202 -1.7249 0.9584
-6.5352 9.2167 -1.8613 0.9552
-7.3233 8.5861 -1.8591 0.9553
-10.3091 5.7261 -1.9427 0.9533
-11.9551 1.7997 -1.9917 0.9522
-12.0536 0.7243 -1.9893 0.9522
-11.7761 -2.4877 -1.9828 0.9524
-11.1258 -4.5342 -1.9792 0.9525
-9.5072 -7.3055 -1.9752 0.9526
-8.0496 -8.8724 -1.9735 0.9526
-6.3408 -10.1586 -1.9728 0.9526
-3.4231 -11.4788 -1.9733 0.9526
-2.3853 -11.7423 -1.9739 0.9526
2.9340 -11.6564 -1.9802 0.9524
3.9666 -11.3582 -1.9820 0.9524
5.9355 -10.4932 -1.9860 0.9523
6.8564 -9.9325 -1.9883 0.9523
7.7249 -9.2916 -1.9906 0.9522
9.9483 -6.9385 -1.9981 0.9520
11.0524 -5.0718 -2.0033 0.9519
11.4760 -4.0700 -2.0059 0.9518
11.8086 -3.0330 -2.0085 0.9518
12.0474 -1.9691 -2.0110 0.9517
12.1899 -0.8867 -2.0135 0.9517
12.1811 1.2983 -2.0181 0.9516
12.0292 2.3832 -2.0202 0.9515
11.4349 4.4930 -2.0240 0.9514
10.9970 5.5004 -2.0256 0.9514
8.3946 9.0216 -2.0301 0.9513
7.5577 9.7377 -2.0307 0.9513
6.6592 10.3753 -2.0310 0.9512
4.2678 10.3291 -1.8411 0.9557
3.3917 10.8716 -1.8761 0.9549
2.4069 11.1275 -1.8755 0.9549
1.4032 11.2932 -1.8747 0.9549
0.3891 11.3673 -1.8737 0.9549
-0.6269 11.3494 -1.8725 0.9550
-3.5841 10.6940 -1.8580 0.9553
-10.9693 5.2019 -2.0000 0.9520
-11.6895 3.1600 -1.9948 0.9521
-11.9100 2.1011 -1.9923 0.9522
-11.8384 -2.1907 -1.9834 0.9524
-11.5843 -3.2357 -1.9814 0.9524
-11.2391 -4.2533 -1.9797 0.9525
-10.2880 -6.1750 -1.9767 0.9525
-9.0157 -7.8976 -1.9745 0.9526
-8.2714 -8.6675 -1.9737 0.9526
-7.4624 -9.3687 -1.9732 0.9526
-6.5950 -9.9958 -1.9728 0.9526
-5.6759 -10.5441 -1.9727 0.9526
-4.7121 -11.0094 -1.9728 0.9526
-3.7110 -11.3881 -1.9732 0.9526
-0.5612 -11.9785 -1.9755 0.9525
0.5108 -11.9881 -1.9767 0.9525
1.5802 -11.9030 -1.9781 0.9525
2.6386 -11.7238 -1.9797 0.9525
4.6904 -11.0881 -1.9834 0.9524
7.4857 -9.4802 -1.9899 0.9522
8.3123 -8.7846 -1.9923 0.9522
9.7668 -7.1843 -1.9974 0.9520
10.3826 -6.2919 -2.0000 0.9520
10.9171 -5.3467 -2.0026 0.9519
11.9897 -2.2713 -2.0103 0.9517
12.1596 -1.1932 -2.0128 0.9517
12.0819 2.0787 -2.0196 0.9515
11.1297 5.2204 -2.0252 0.9514
10.6270 6.1977 -2.0267 0.9514
9.3663 7.9983 -2.0290 0.9513
8.6184 8.8063 -2.0299 0.9513
7.8002 9.5435 -2.0305 0.9513
6.9183 10.2038 -2.0309 0.9513
4.6137 10.4148 -1.8765 0.9549
2.6868 11.0644 -1.8757 0.9549
0.6755 11.3557 -1.8740 0.9549
-1.2245 10.2080 -1.6937 0.9592
-2.2056 10.4101 -1.7530 0.9578
-3.2667 10.6286 -1.8318 0.9559
-6.0666 9.5405 -1.8625 0.9552
-6.8860 8.9503 -1.8603 0.9553
-7.6483 8.2896 -1.8581 0.9553
-6.5088 5.8981 -1.4470 0.9650
-9.5350 5.9437 -1.8510 0.9555
-11.6103 3.4548 -1.9956 0.9521
-12.0665 0.2537 -1.9883 0.9523
-12.0274 -0.8237 -1.9860 0.9523
-11.6652 -2.9436 -1.9820 0.9524
-11.3455 -3.9697 -1.9802 0.9524
-9.8662 -6.8193 -1.9758 0.9525
-8.4880 -8.4572 -1.9739 0.9526
-5.9398 -10.3978 -1.9727 0.9526
-4.9879 -10.8868 -1.9728 0.9526
-3.9966 -11.2903 -1.9730 0.9526
-1.9261 -11.8284 -1.9743 0.9526
-2.6544 9.5688 -1.8665 0.9604
-4.3064 8.9287 -1.8632 0.9605
-5.8142 8.0046 -1.8596 0.9605
-6.4988 7.4457 -1.8576 0.9606
-6.4080 6.1370 -1.6677 0.9645
-9.3670 5.0639 -2.0014 0.9576
-10.0957 3.3098 -1.9970 0.9577
-10.5775 0.5145 -1.9905 0.9578
-10.4799 -1.3722 -1.9866 0.9579
-9.7177 -4.0902 -1.9818 0.9580
-9.3075 -4.9382 -1.9804 0.9580
-8.8243 -5.7461 -1.9793 0.9580
-6.9777 -7.8695 -1.9769 0.9581
-5.4651 -8.9822 -1.9762 0.9581
-4.6413 -9.4342 -1.9762 0.9581
-3.7809 -9.8118 -1.9764 0.9581
-2.8903 -10.1121 -1.9768 0.9581
-1.9765 -10.3327 -1.9774 0.9581
0.8334 -10.5022 -1.9802 0.9580
2.6917 -10.2007 -1.9830 0.9580
6.1140 -8.6444 -1.9901 0.9578
7.5699 -7.4350 -1.9944 0.9577
8.2126 -6.7369 -1.9966 0.9577
10.0969 -3.4517 -2.0057 0.9575
10.3764 -2.5393 -2.0079 0.9575
10.7123 0.3021 -2.0143 0.9573
10.6529 1.2585 -2.0163 0.9573
10.2773 3.1385 -2.0198 0.9572
9.5693 4.9236 -2.0228 0.9571
9.0971 5.7618 -2.0240 0.9571
8.5508 6.5543 -2.0251 0.9571
7.9348 7.2947 -2.0259 0.9571
5.7220 9.1429 -2.0273 0.9571
4.5117 8.8861 -1.8732 0.9603
3.7000 9.2527 -1.8730 0.9603
2.8586 9.5444 -1.8727 0.9603
0.2269 9.9493 -1.8706 0.9603
-0.6619 9.9241 -1.8695 0.9603
-2.4129 9.6348 -1.8669 0.9604
-3.2608 9.3732 -1.8654 0.9604
-4.0811 9.0367 -1.8637 0.9604
-6.9576 7.0080 -1.8562 0.9606
-7.5472 6.3518 -1.8541 0.9606
-8.0750 5.6462 -1.8520 0.9607
-9.2198 5.2888 -1.9978 0.9577
-10.0123 3.5643 -1.9976 0.9577
-10.2790 2.6532 -1.9954 0.9577
-10.4634 1.7230 -1.9932 0.9578
-10.5811 -0.1650 -1.9891 0.9578
-10.3636 -2.0404 -1.9854 0.9579
-10.1316 -2.9550 -1.9837 0.9580
-9.8197 -3.8448 -1.9822 0.9580
-8.4344 -6.2980 -1.9785 0.9581
-7.8351 -7.0229 -1.9777 0.9581
-5.6899 -8.8418 -1.9763 0.9581
-4.8776 -9.3141 -1.9762 0.9581
-4.0268 -9.7130 -1.9763 0.9581
-3.1440 -10.0354 -1.9767 0.9581
-2.2361 -10.2787 -1.9772 0.9581
-1.3099 -10.4411 -1.9779 0.9581
-0.3727 -10.5211 -1.9788 0.9581
1.5062 -10.4319 -1.9811 0.9580
2.4333 -10.2631 -1.9825 0.9580
3.3425 -10.0127 -1.9841 0.9579
5.8925 -8.7933 -1.9896 0.9578
6.6609 -8.2405 -1.9916 0.9578
8.0377 -6.9395 -1.9959 0.9577
9.1644 -5.4116 -2.0005 0.9576
10.0035 -3.7039 -2.0050 0.9575
10.3059 -2.7991 -2.0073 0.9575
10.5262 -1.8699 -2.0095 0.9574
10.6625 -0.9236 -2.0116 0.9574
10.6783 0.9894 -2.0157 0.9573
10.5572 1.9406 -2.0176 0.9573
10.3507 2.8779 -2.0193 0.9572
10.0604 3.7936 -2.0209 0.9572
9.2378 5.5298 -2.0237 0.9571
8.7120 6.3359 -2.0248 0.9571
7.4523 7.7907 -2.0264 0.9571
6.7287 8.4270 -2.0269 0.9571
3.9321 9.1568 -1.8731 0.9603
3.0984 9.4699 -1.8728 0.9603
1.3640 9.8639 -1.8717 0.9603
-0.4116 9.9394 -1.8698 0.9603
-3.0243 9.4547 -1.8658 0.9604
-3.8531 9.1390 -1.8642 0.9604
-5.4066 8.2922 -1.8606 0.9605
-6.7809 7.1833 -1.8567 0.9606
-6.6806 5.9164 -1.6773 0.9643
-8.9476 5.4368 -1.9679 0.9583
-10.2121 2.9123 -1.9960 0.9577
-10.4198 1.9867 -1.9938 0.9577
-10.5443 1.0474 -1.9917 0.9578
-10.5849 0.1017 -1.9896 0.9578
-10.5413 -0.8429 -1.9877 0.9579
-10.4144 -1.7790 -1.9858 0.9579
-10.2052 -2.6994 -1.9841 0.9579
-9.5480 -4.4646 -1.9812 0.9580
-6.6649 -8.1347 -1.9767 0.9581
-5.9110 -8.6959 -1.9763 0.9581
-4.2702 -9.6082 -1.9763 0.9581
-2.4942 -10.2182 -1.9770 0.9581
-1.5725 -10.4036 -1.9777 0.9581
0.3032 -10.5273 -1.9795 0.9580
1.2426 -10.4646 -1.9807 0.9580
2.1734 -10.3190 -1.9821 0.9580
3.0884 -10.0915 -1.9836 0.9580
3.9804 -9.7836 -1.9853 0.9579
7.1813 -7.8022 -1.9931 0.9578
7.8578 -7.1376 -1.9953 0.9577
9.0222 -5.6390 -1.9998 0.9576
9.5005 -4.8165 -2.0021 0.9576
10.2288 -3.0570 -2.0066 0.9575
10.4725 -2.1339 -2.0089 0.9574
10.7078 -0.2379 -2.0131 0.9573
10.6970 0.7198 -2.0152 0.9573
10.1506 3.5381 -2.0205 0.9572
5.3613 9.3592 -2.0274 0.9570
3.3362 9.3893 -1.8729 0.9603
1.6123 9.8275 -1.8719 0.9603
0.7281 9.9280 -1.8711 0.9603
-0.1611 9.9482 -1.8701 0.9603
-2.7858 9.5301 -1.8662 0.9604
-3.6224 9.2355 -1.8647 0.9604
-4.4285 8.8671 -1.8630 0.9605
-5.1974 8.4282 -1.8612 0.9605
-7.7852 6.0498 -1.8532 0.9607
-8.2888 5.3270 -1.8520 0.9607
-10.5177 1.3132 -1.9923 0.9578
-10.5819 0.3685 -1.9902 0.9578
-10.5621 -0.5772 -1.9882 0.9579
-10.4585 -1.5164 -1.9864 0.9579
-10.2724 -2.4419 -1.9846 0.9579
-9.6593 -4.2234 -1.9815 0.9580
-9.2376 -5.0656 -1.9802 0.9580
-7.5541 -7.3218 -1.9774 0.9581
-6.8682 -7.9647 -1.9768 0.9581
-6.1285 -8.5445 -1.9764 0.9581
-5.3407 -9.0566 -1.9762 0.9581
-3.6452 -9.8632 -1.9765 0.9581
-1.8339 -10.3596 -1.9775 0.9581
1.9123 -10.3684 -1.9817 0.9580
2.8325 -10.1638 -1.9832 0.9580
3.7317 -9.8784 -1.9848 0.9579
4.6028 -9.5143 -1.9866 0.9579
5.4390 -9.0739 -1.9885 0.9579
6.2336 -8.5606 -1.9905 0.9578
6.9803 -7.9782 -1.9925 0.9578
7.6730 -7.3311 -1.9947 0.9577
9.3731 -5.0528 -2.0014 0.9576
10.1453 -3.3127 -2.0060 0.9575
10.6953 -0.5075 -2.0126 0.9574
10.4775 2.3516 -2.0184 0.9572
9.9081 4.1842 -2.0216 0.9572
7.8339 7.4039 -2.0260 0.9571
5.5954 9.2210 -2.0273 0.9571
4.3887 8.9474 -1.8732 0.9603
3.5719 9.3026 -1.8730 0.9603
1.8596 9.7847 -1.8721 0.9603
0.0897 9.9506 -1.8704 0.9603
-0.7986 9.9131 -1.8693 0.9603
-2.5453 9.5994 -1.8667 0.9604
-4.2047 8.9783 -1.8635 0.9605
-6.4143 7.5204 -1.8579 0.9606
-7.6327 6.2460 -1.8538 0.9607
-10.3129 2.5107 -1.9950 0.9577
-10.5724 0.6353 -1.9908 0.9578
-10.5762 -0.3109 -1.9888 0.9578
-10.4962 -1.2527 -1.9869 0.9579
-9.7647 -3.9794 -1.9819 0.9580
-8.8899 -5.6454 -1.9794 0.9580
-8.3461 -6.4133 -1.9784 0.9581
-5.5673 -8.9193 -1.9763 0.9581
-3.8925 -9.7678 -1.9764 0.9581
-2.0942 -10.3091 -1.9773 0.9581
-1.1659 -10.4588 -1.9780 0.9581
0.7135 -10.5102 -1.9801 0.9580
1.6501 -10.4112 -1.9813 0.9580
2.5749 -10.2297 -1.9828 0.9580
3.4807 -9.9669 -1.9843 0.9579
4.3604 -9.6248 -1.9861 0.9579
8.1340 -6.8292 -1.9963 0.9577
9.2398 -5.2856 -2.0008 0.9576
9.6858 -4.4447 -2.0031 0.9576
10.0554 -3.5662 -2.0054 0.9575
10.5528 -1.7248 -2.0098 0.9574
10.7137 0.1798 -2.0140 0.9573
10.6653 1.1367 -2.0160 0.9573
10.5309 2.0863 -2.0179 0.9572
9.6240 4.8136 -2.0226 0.9571
9.1615 5.6572 -2.0239 0.9571
8.0171 7.2033 -2.0258 0.9571
7.3445 7.8931 -2.0265 0.9571
5.8259 9.0769 -2.0273 0.9571
3.8054 9.2100 -1.8731 0.9603
2.1058 9.7357 -1.8722 0.9603
1.2277 9.8812 -1.8716 0.9603
-1.4322 9.8368 -1.8684 0.9603
-2.3031 9.6626 -1.8671 0.9604
-3.1540 9.4109 -1.8656 0.9604
-6.2246 7.6820 -1.8584 0.9606
-7.4752 6.4384 -1.8544 0.9606
-9.1515 5.3893 -1.9962 0.9577
-9.6150 4.5597 -2.0002 0.9576
-10.2495 2.7707 -1.9957 0.9577
-10.5561 0.9017 -1.9914 0.9578
-10.5836 -0.0443 -1.9893 0.9578
-10.3874 -1.9222 -1.9856 0.9579
-9.4845 -4.5954 -1.9809 0.9580
-7.9151 -6.9334 -1.9778 0.9581
-5.7904 -8.7764 -1.9763 0.9581
-3.2583 -9.9986 -1.9766 0.9581
0.4484 -10.5231 -1.9797 0.9580
1.3869 -10.4475 -1.9809 0.9580
4.1155 -9.7291 -1.9856 0.9579
6.5656 -8.3149 -1.9914 0.9578
7.2894 -7.7037 -1.9935 0.9578
8.5623 -6.2983 -1.9979 0.9577
9.1007 -5.5150 -2.0002 0.9576
9.5677 -4.6858 -2.0024 0.9576
9.9592 -3.8173 -2.0047 0.9575
10.7118 -0.0902 -2.0135 0.9573
10.6876 0.8674 -2.0155 0.9573
10.3818 2.7593 -2.0191 0.9572
9.2996 5.4236 -2.0235 0.9571
8.1952 6.9983 -2.0256 0.9571
6.8243 8.3495 -2.0269 0.9571
6.0526 8.9269 -2.0272 0.9571
3.2063 9.4341 -1.8729 0.9603
2.3507 9.6804 -1.8724 0.9603
1.4765 9.8482 -1.8718 0.9603
-0.2982 9.9441 -1.8700 0.9603
-1.1841 9.8717 -1.8688 0.9603
-2.9166 9.4896 -1.8660 0.9604
-3.7490 9.1834 -1.8644 0.9604
-5.3123 8.3544 -1.8609 0.9605
-6.0308 7.8387 -1.8590 0.9605
-9.5001 4.8020 -2.0008 0.9576
-9.8796 3.9302 -1.9985 0.9576
-10.1796 3.0291 -1.9963 0.9577
-10.5331 1.1678 -1.9919 0.9578
-10.5844 0.2225 -1.9899 0.9578
-10.2364 -2.5830 -1.9843 0.9579
-8.6610 -5.9863 -1.9789 0.9581
-7.4520 -7.4250 -1.9773 0.9581
-6.0100 -8.6280 -1.9764 0.9581
-0.7574 -10.4983 -1.9784 0.9581
0.1830 -10.5294 -1.9794 0.9580
-4.5152 7.5531 -1.8601 0.9647
-5.1668 7.1134 -1.8584 0.9647
-5.7759 6.6175 -1.8567 0.9647
-6.8473 5.4740 -1.8530 0.9648
-7.8576 5.2044 -1.9922 0.9622
-8.6894 3.7375 -1.9995 0.9621
-8.9794 2.9439 -1.9975 0.9621
-9.3416 1.2974 -1.9936 0.9622
-9.4113 0.4578 -1.9917 0.9622
-9.4062 -0.3839 -1.9899 0.9622
-8.9470 -2.8561 -1.9852 0.9623
-8.6505 -3.6410 -1.9839 0.9624
-7.3649 -5.7942 -1.9808 0.9624
-4.8665 -7.9982 -1.9790 0.9624
-4.1329 -8.4007 -1.9790 0.9624
-3.3667 -8.7368 -1.9792 0.9624
-2.5736 -9.0040 -1.9795 0.9624
-1.7599 -9.2002 -1.9800 0.9624
-0.0957 -9.3738 -1.9815 0.9624
1.5747 -9.2514 -1.9837 0.9624
3.1993 -8.8360 -1.9864 0.9623
4.7274 -8.1393 -1.9896 0.9622
5.4400 -7.6915 -1.9914 0.9622
6.1107 -7.1818 -1.9932 0.9622
7.8183 -5.3214 -1.9991 0.9621
8.2706 -4.6067 -2.0011 0.9620
8.6576 -3.8538 -2.0032 0.9620
8.9762 -3.0686 -2.0052 0.9620
9.2235 -2.2572 -2.0072 0.9619
9.4960 -0.5819 -2.0110 0.9619
9.3348 1.9603 -2.0162 0.9618
9.1294 2.7880 -2.0178 0.9617
8.8501 3.5944 -2.0191 0.9617
8.4991 4.3729 -2.0204 0.9617
6.4416 7.0830 -2.0238 0.9616
1.7711 8.6656 -1.8696 0.9645
0.2015 8.8357 -1.8682 0.9645
-0.5878 8.8139 -1.8672 0.9645
-1.3716 8.7212 -1.8661 0.9645
-2.1433 8.5583 -1.8649 0.9646
-4.3245 7.6663 -1.8606 0.9647
-4.9872 7.2432 -1.8589 0.9647
-5.6088 6.7627 -1.8572 0.9647
-6.1842 6.2290 -1.8554 0.9648
-6.7090 5.6464 -1.8536 0.9648
-7.3084 5.1102 -1.8850 0.9642
-8.2157 4.7128 -2.0021 0.9620
-8.5949 3.9565 -2.0000 0.9621
-9.3992 0.6950 -1.9922 0.9622
-9.2237 -1.8159 -1.9871 0.9623
-8.3955 -4.1867 -1.9831 0.9624
-7.9838 -4.9168 -1.9820 0.9624
-5.7499 -7.3903 -1.9793 0.9624
-5.0665 -7.8732 -1.9790 0.9624
-1.9910 -9.1522 -1.9798 0.9624
-1.1663 -9.2964 -1.9805 0.9624
-0.3318 -9.3672 -1.9813 0.9624
1.3408 -9.2866 -1.9834 0.9624
4.5197 -8.2539 -1.9892 0.9623
5.2431 -7.8242 -1.9909 0.9622
5.9261 -7.3315 -1.9927 0.9622
6.5633 -6.7796 -1.9946 0.9622
7.1494 -6.1726 -1.9965 0.9621
8.1495 -4.8123 -2.0006 0.9620
8.5553 -4.0696 -2.0026 0.9620
8.8935 -3.2929 -2.0046 0.9620
9.1611 -2.4882 -2.0066 0.9619
9.3558 -1.6620 -2.0086 0.9619
9.4759 -0.8208 -2.0105 0.9619
9.5201 0.0285 -2.0124 0.9618
9.4878 0.8791 -2.0141 0.9618
9.3792 1.7241 -2.0158 0.9618
9.1949 2.5565 -2.0173 0.9617
8.9362 3.3696 -2.0188 0.9617
8.6052 4.1566 -2.0200 0.9617
8.2043 4.9111 -2.0212 0.9617
7.7368 5.6267 -2.0222 0.9616
6.6175 6.9179 -2.0236 0.9616
5.2836 7.9875 -2.0244 0.9616
3.4915 8.1307 -1.8704 0.9645
1.9891 8.6189 -1.8698 0.9645
1.2112 8.7593 -1.8692 0.9645
0.4242 8.8289 -1.8684 0.9645
-1.1516 8.7545 -1.8665 0.9645
-3.4231 8.1192 -1.8625 0.9646
-4.8043 7.3685 -1.8594 0.9647
-8.4950 4.1730 -2.0006 0.9620
-8.8247 3.3944 -1.9986 0.9621
-9.3812 0.9319 -1.9928 0.9622
-9.4183 0.0905 -1.9909 0.9622
-9.3806 -0.7501 -1.9892 0.9623
-9.2685 -1.5833 -1.9876 0.9623
-8.4997 -3.9744 -1.9834 0.9624
-7.6493 -5.4170 -1.9813 0.9624
-7.1323 -6.0759 -1.9805 0.9624
-5.9347 -7.2434 -1.9794 0.9624
-5.2635 -7.7432 -1.9791 0.9624
-2.2209 -9.0985 -1.9797 0.9624
0.2699 -9.3724 -1.9820 0.9624
1.1062 -9.3159 -1.9830 0.9624
4.3093 -8.3632 -1.9887 0.9623
6.3886 -6.9409 -1.9941 0.9622
6.9896 -6.3490 -1.9960 0.9621
7.5360 -5.7053 -1.9980 0.9621
8.4476 -4.2827 -2.0020 0.9620
9.0929 -2.7175 -2.0061 0.9619
9.4497 -1.0591 -2.0100 0.9619
9.5153 -0.2114 -2.0118 0.9618
9.5046 0.6396 -2.0136 0.9618
8.7056 3.9378 -2.0197 0.9617
7.8751 5.4293 -2.0219 0.9616
7.3621 6.1133 -2.0228 0.9616
4.7605 8.3104 -2.0245 0.9616
3.6953 8.0403 -1.8705 0.9645
2.9624 8.3372 -1.8703 0.9645
0.6466 8.8165 -1.8686 0.9645
-0.1430 8.8350 -1.8678 0.9645
-2.4746 8.4656 -1.8643 0.9646
-4.6183 7.4891 -1.8598 0.9647
-5.8657 6.5362 -1.8564 0.9647
-6.4196 5.9806 -1.8546 0.9648
-7.9496 5.1090 -1.9975 0.9621
-9.3988 -0.5136 -1.9897 0.9622
-9.3076 -1.3495 -1.9880 0.9623
-8.2238 -4.5097 -1.9826 0.9624
-6.7262 -6.5193 -1.9800 0.9624
-5.4571 -7.6084 -1.9792 0.9624
-4.7556 -8.0645 -1.9790 0.9624
-2.4493 -9.0390 -1.9796 0.9624
-0.8032 -9.3364 -1.9808 0.9624
0.0336 -9.3749 -1.9817 0.9624
0.8709 -9.3393 -1.9827 0.9624
2.5212 -9.0469 -1.9852 0.9623
4.8399 -8.0744 -1.9899 0.9622
5.5464 -7.6168 -1.9917 0.9622
6.8255 -6.5213 -1.9954 0.9621
9.0190 -2.9450 -2.0055 0.9620
9.2551 -2.1301 -2.0075 0.9619
9.4175 -1.2965 -2.0094 0.9619
9.5045 -0.4510 -2.0113 0.9618
9.4498 1.2487 -2.0149 0.9618
9.0911 2.9140 -2.0180 0.9617
6.9565 6.5746 -2.0233 0.9616
5.6790 7.7107 -2.0242 0.9616
3.9846 8.1236 -1.9126 0.9637
3.1717 8.2602 -1.8703 0.9645
0.8687 8.7984 -1.8689 0.9645
0.0797 8.8370 -1.8680 0.9645
-0.7093 8.8043 -1.8671 0.9645
-1.4916 8.7006 -1.8660 0.9646
-2.2609 8.5270 -1.8647 0.9646
-3.0110 8.2850 -1.8634 0.9646
-6.7852 5.5525 -1.8533 0.9648
-8.2786 4.5983 -2.0018 0.9620
-9.1735 2.2334 -1.9957 0.9621
-9.4066 0.5652 -1.9920 0.9622
-9.4111 -0.2766 -1.9902 0.9622
-9.1966 -1.9427 -1.9869 0.9623
-8.6922 -3.5424 -1.9841 0.9624
-8.3362 -4.3017 -1.9829 0.9624
-5.6473 -7.4687 -1.9792 0.9624
-4.9574 -7.9422 -1.9790 0.9624
-2.6761 -8.9739 -1.9794 0.9624
-1.8647 -9.1792 -1.9799 0.9624
-1.0381 -9.3121 -1.9806 0.9624
0.6352 -9.3568 -1.9824 0.9624
1.4689 -9.2681 -1.9835 0.9624
3.8806 -8.5657 -1.9878 0.9623
4.6337 -8.1918 -1.9894 0.9623
5.3513 -7.7522 -1.9912 0.9622
7.7561 -5.4095 -1.9989 0.9621
8.6120 -3.9519 -2.0029 0.9620
9.3793 -1.5330 -2.0089 0.9619
9.4877 -0.6902 -2.0108 0.9619
9.5201 0.1598 -2.0126 0.9618
9.4760 1.0100 -2.0144 0.9618
9.3556 1.8535 -2.0160 0.9618
9.1598 2.6834 -2.0176 0.9617
7.1193 6.3967 -2.0231 0.9616
5.1730 8.0597 -2.0244 0.9616
3.3790 8.1780 -1.8704 0.9645
2.6349 8.4457 -1.8701 0.9645
-0.4872 8.8207 -1.8674 0.9645
-2.0457 8.5829 -1.8651 0.9646
-2.8018 8.3600 -1.8638 0.9646
-3.5343 8.0702 -1.8623 0.9646
-4.2372 7.7160 -1.8608 0.9647
-4.9048 7.3005 -1.8591 0.9647
-5.5319 6.8271 -1.8574 0.9647
-8.1625 4.8069 -2.0023 0.9620
-8.5504 4.0548 -2.0003 0.9621
-8.8693 3.2719 -1.9983 0.9621
-9.1169 2.4646 -1.9963 0.9621
-9.3918 0.8023 -1.9925 0.9622
-9.2447 -1.7108 -1.9873 0.9623
-5.8340 -7.3244 -1.9793 0.9624
-4.4376 -8.2437 -1.9790 0.9624
-3.6840 -8.6073 -1.9791 0.9624
-0.4387 -9.3623 -1.9812 0.9624
1.2347 -9.3006 -1.9832 0.9624
2.0614 -9.1589 -1.9844 0.9623
5.1529 -7.8826 -1.9907 0.9622
5.8415 -7.3978 -1.9925 0.9622
6.4847 -6.8532 -1.9944 0.9622
8.0930 -4.9044 -2.0003 0.9621
8.8542 -3.3937 -2.0044 0.9620
9.1310 -2.5923 -2.0064 0.9619
9.3351 -1.7684 -2.0083 0.9619
9.4648 -0.9288 -2.0103 0.9619
7.8001 5.5377 -2.0221 0.9616
6.6958 6.8417 -2.0236 0.9616
6.0597 7.4140 -2.0240 0.9616
4.6419 8.3688 -2.0229 0.9616
3.5841 8.0904 -1.8704 0.9645
2.8471 8.3771 -1.8702 0.9645
-0.2649 8.8315 -1.8676 0.9645
-1.0517 8.7677 -1.8666 0.9645
-1.8291 8.6334 -1.8654 0.9646
-2.5908 8.4297 -1.8641 0.9646
-4.0424 7.8222 -1.8612 0.9646
-6.4624 5.8560 -1.8434 0.9650
-6.9935 5.2814 -1.8525 0.9648
-8.0262 5.0032 -1.9992 0.9621
-8.4479 4.2702 -2.0009 0.9620
-9.0544 2.6942 -1.9969 0.9621
-9.2497 1.8733 -1.9949 0.9622
-9.4177 0.1980 -1.9912 0.9622
-9.2870 -1.4776 -1.9878 0.9623
-8.8629 -3.1011 -1.9848 0.9623
-8.5452 -3.8775 -1.9835 0.9624
-5.3516 -7.6827 -1.9791 0.9624
-3.1245 -8.8267 -1.9792 0.9624
-0.6744 -9.3471 -1.9809 0.9624
0.1629 -9.3742 -1.9818 0.9624
0.9997 -9.3272 -1.9829 0.9624
-1.4293 7.8018 -1.8641 0.9679
-2.1189 7.6384 -1.8630 0.9680
-3.4388 7.1300 -1.8604 0.9680
-5.1927 5.9494 -1.8559 0.9681
-7.0997 4.7024 -2.0014 0.9656
-7.8161 3.3619 -1.9997 0.9656
-8.0777 2.6482 -1.9979 0.9657
-8.2745 1.9148 -1.9961 0.9657
-8.4051 1.1674 -1.9944 0.9657
-8.4649 -0.3455 -1.9911 0.9658
-8.3938 -1.0991 -1.9896 0.9658
-8.2563 -1.8428 -1.9882 0.9658
-8.0535 -2.5708 -1.9869 0.9659
-7.7872 -3.2776 -1.9857 0.9659
-7.0730 -4.6057 -1.9837 0.9659
-6.6309 -5.2167 -1.9829 0.9659
-6.1367 -5.7860 -1.9822 0.9659
-5.0077 -6.7823 -1.9814 0.9660
-3.7213 -7.5641 -1.9812 0.9660
-3.0314 -7.8667 -1.9814 0.9660
-2.3173 -8.1072 -1.9817 0.9659
0.6680 -8.4171 -1.9844 0.9659
1.4175 -8.3282 -1.9855 0.9659
2.1567 -8.1732 -1.9866 0.9659
2.8797 -7.9531 -1.9879 0.9658
3.5807 -7.6697 -1.9893 0.9658
4.2544 -7.3249 -1.9908 0.9658
4.8952 -6.9213 -1.9924 0.9658
5.4982 -6.4620 -1.9941 0.9657
6.5713 -5.3905 -1.9975 0.9657
8.2932 -2.0295 -2.0066 0.9655
8.4487 -1.2821 -2.0084 0.9655
8.5366 -0.5231 -2.0101 0.9655
8.5562 0.2413 -2.0117 0.9654
8.3895 1.7618 -2.0147 0.9654
8.2043 2.5055 -2.0161 0.9654
7.6368 3.9293 -2.0185 0.9653
7.2590 4.5976 -2.0194 0.9653
6.8224 5.2295 -2.0203 0.9653
6.3304 5.8197 -2.0210 0.9653
5.7871 6.3634 -2.0215 0.9653
5.1968 6.8559 -2.0219 0.9653
2.2804 7.6138 -1.8680 0.9679
1.5911 7.7853 -1.8675 0.9679
0.1811 7.9387 -1.8663 0.9679
-0.5282 7.9195 -1.8654 0.9679
-1.2325 7.8367 -1.8644 0.9679
-1.9261 7.6908 -1.8633 0.9679
-2.6033 7.4832 -1.8621 0.9680
-3.2588 7.2158 -1.8608 0.9680
-3.8871 6.8909 -1.8594 0.9680
-4.4832 6.5111 -1.8579 0.9680
-5.0424 6.0798 -1.8564 0.9681
-6.9692 4.8730 -1.9986 0.9657
-7.7308 3.5587 -2.0002 0.9656
-8.4206 -0.8874 -1.9900 0.9658
-7.8686 -3.0809 -1.9860 0.9659
-6.2811 -5.6300 -1.9824 0.9659
-4.5620 -7.0891 -1.9813 0.9660
-3.2286 -7.7876 -1.9813 0.9660
-2.5207 -8.0458 -1.9816 0.9659
-1.7927 -8.2405 -1.9820 0.9659
-1.0501 -8.3700 -1.9826 0.9659
-0.2987 -8.4334 -1.9833 0.9659
1.9497 -8.2235 -1.9863 0.9659
2.6778 -8.0217 -1.9875 0.9658
4.0676 -7.4281 -1.9904 0.9658
4.7182 -7.0408 -1.9919 0.9658
5.9051 -6.0997 -1.9953 0.9657
6.4317 -5.5530 -1.9970 0.9657
7.3300 -4.3284 -2.0007 0.9656
7.6942 -3.6600 -2.0025 0.9656
8.5187 -0.7379 -2.0096 0.9655
8.5577 0.0256 -2.0113 0.9654
8.5279 0.7902 -2.0128 0.9654
8.4296 1.5495 -2.0143 0.9654
8.0302 3.0280 -2.0170 0.9654
6.9513 5.0554 -2.0201 0.9653
5.9452 6.2151 -2.0214 0.9653
5.3677 6.7224 -2.0218 0.9653
4.7466 7.1757 -2.0220 0.9653
1.7870 7.7432 -1.8677 0.9679
-1.0348 7.8664 -1.8647 0.9679
-1.7320 7.7382 -1.8637 0.9679
-3.0765 7.2972 -1.8612 0.9680
-3.7130 6.9882 -1.8598 0.9680
-5.4187 5.7403 -1.8552 0.9681
-5.9043 5.2289 -1.8536 0.9681
-7.2817 4.4246 -2.0025 0.9656
-7.6407 3.7533 -2.0007 0.9656
-8.1716 2.3304 -1.9971 0.9657
-8.3397 1.5901 -1.9953 0.9657
-8.4412 0.8385 -1.9936 0.9657
-8.4421 -0.6750 -1.9904 0.9658
-8.1758 -2.1626 -1.9876 0.9658
-7.6516 -3.5778 -1.9852 0.9659
-5.9058 -6.0201 -1.9820 0.9659
-4.0977 -7.3670 -1.9812 0.9660
-2.7225 -7.9794 -1.9815 0.9660
-1.9996 -8.1921 -1.9819 0.9659
-1.2606 -8.3402 -1.9824 0.9659
0.2430 -8.4378 -1.9839 0.9659
0.9958 -8.3865 -1.9849 0.9659
3.1885 -7.8372 -1.9885 0.9658
3.8783 -7.5267 -1.9900 0.9658
5.1632 -6.7276 -1.9931 0.9658
5.7481 -6.2450 -1.9948 0.9657
7.5976 -3.8518 -2.0020 0.9656
8.1763 -2.4436 -2.0056 0.9655
8.3692 -1.7054 -2.0074 0.9655
8.5433 0.5749 -2.0124 0.9654
8.4642 1.3363 -2.0139 0.9654
8.1026 2.8242 -2.0167 0.9654
7.0756 4.8781 -2.0198 0.9653
6.6144 5.4924 -2.0206 0.9653
4.2767 7.4657 -2.0221 0.9653
3.4468 7.4995 -1.9398 0.9667
2.6614 7.4899 -1.8681 0.9679
1.2863 7.8404 -1.8673 0.9679
0.5810 7.9212 -1.8667 0.9679
-0.1285 7.9382 -1.8659 0.9679
-0.8363 7.8912 -1.8650 0.9679
-2.8922 7.3738 -1.8616 0.9680
-3.5364 7.0810 -1.8602 0.9680
-5.7721 5.3774 -1.8541 0.9681
-6.3092 4.9028 -1.8779 0.9677
-7.1693 4.6076 -2.0029 0.9656
-8.2990 1.8002 -1.9958 0.9657
-8.4193 1.0512 -1.9941 0.9657
-8.4725 0.2951 -1.9924 0.9658
-8.4583 -0.4622 -1.9909 0.9658
-8.2293 -1.9562 -1.9880 0.9658
-7.7405 -3.3844 -1.9855 0.9659
-7.0083 -4.7025 -1.9835 0.9659
-6.5580 -5.3074 -1.9828 0.9659
-4.9136 -6.8506 -1.9814 0.9660
-4.2821 -7.2614 -1.9812 0.9660
-3.6167 -7.6148 -1.9812 0.9660
-1.4702 -8.3051 -1.9822 0.9659
0.0303 -8.4402 -1.9836 0.9659
1.5324 -8.3086 -1.9856 0.9659
2.2694 -8.1434 -1.9868 0.9659
2.9894 -7.9135 -1.9881 0.9658
3.6866 -7.6204 -1.9895 0.9658
5.5875 -6.3863 -1.9943 0.9657
7.0990 -4.6898 -1.9996 0.9656
7.4962 -4.0410 -2.0015 0.9656
7.8342 -3.3586 -2.0033 0.9656
8.4667 -1.1657 -2.0086 0.9655
8.3653 1.8776 -2.0150 0.9654
8.1697 2.6187 -2.0163 0.9654
7.5825 4.0345 -2.0186 0.9653
6.2498 5.9068 -2.0211 0.9653
5.6989 6.4428 -2.0216 0.9653
5.1018 6.9270 -2.0219 0.9653
3.7774 7.7013 -2.0160 0.9654
2.8493 7.4208 -1.8682 0.9679
1.4836 7.8061 -1.8675 0.9679
0.0716 7.9399 -1.8661 0.9679
-1.3403 7.8182 -1.8643 0.9679
-2.0318 7.6627 -1.8632 0.9680
-2.7060 7.4458 -1.8619 0.9680
-4.5720 6.4479 -1.8577 0.9680
-5.1251 6.0089 -1.8561 0.9681
-7.4457 4.1356 -2.0017 0.9656
-8.0479 2.7405 -1.9981 0.9657
-8.2531 2.0093 -1.9963 0.9657
-8.4691 -0.2489 -1.9913 0.9658
-8.0830 -2.4790 -1.9870 0.9659
-7.1255 -4.5249 -1.9838 0.9659
-6.6903 -5.1409 -1.9830 0.9659
-6.2025 -5.7158 -1.9823 0.9659
-5.6660 -6.2452 -1.9818 0.9659
-5.0849 -6.7248 -1.9815 0.9660
-4.4637 -7.1513 -1.9813 0.9660
-3.1209 -7.8315 -1.9813 0.9660
-2.4096 -8.0800 -1.9816 0.9659
-1.6789 -8.2647 -1.9821 0.9659
-0.9346 -8.3841 -1.9827 0.9659
-0.1824 -8.4373 -1.9834 0.9659
0.5719 -8.4236 -1.9843 0.9659
1.3223 -8.3432 -1.9853 0.9659
2.7885 -7.9848 -1.9878 0.9658
3.4927 -7.7093 -1.9891 0.9658
4.8155 -6.9759 -1.9922 0.9658
6.5086 -5.4645 -1.9973 0.9657
8.4326 -1.3783 -2.0081 0.9655
8.5292 -0.6204 -2.0099 0.9655
8.5576 0.1436 -2.0115 0.9654
8.5172 0.9078 -2.0131 0.9654
8.2316 2.4115 -2.0159 0.9654
7.9884 3.1388 -2.0172 0.9653
6.8813 5.1511 -2.0202 0.9653
6.3962 5.7469 -2.0209 0.9653
5.8591 6.2967 -2.0214 0.9653
4.6473 7.2406 -2.0221 0.9653
3.9772 7.6169 -2.0195 0.9653
2.3672 7.5875 -1.8680 0.9679
1.6800 7.7668 -1.8676 0.9679
0.9795 7.8835 -1.8670 0.9679
-0.4378 7.9255 -1.8655 0.9679
-1.8384 7.7129 -1.8635 0.9679
-2.5180 7.5131 -1.8623 0.9680
-4.4090 6.5626 -1.8581 0.9680
-4.9732 6.1376 -1.8566 0.9681
-5.4966 5.6642 -1.8550 0.9681
-7.3410 4.3231 -2.0022 0.9656
-8.2018 2.2172 -1.9968 0.9657
-8.3597 1.4748 -1.9951 0.9657
-8.4508 0.7219 -1.9934 0.9657
-8.1444 -2.2749 -1.9874 0.9659
-7.9038 -2.9911 -1.9861 0.9659
-7.6009 -3.6827 -1.9850 0.9659
-7.2382 -4.3445 -1.9840 0.9659
-6.3451 -5.5582 -1.9825 0.9659
-5.8220 -6.1008 -1.9819 0.9659
-3.9957 -7.4228 -1.9812 0.9660
-3.3172 -7.7502 -1.9813 0.9660
1.1115 -8.3726 -1.9850 0.9659
1.8556 -8.2446 -1.9861 0.9659
2.5859 -8.0510 -1.9874 0.9659
3.9821 -7.4733 -1.9902 0.9658
5.8344 -6.1660 -1.9951 0.9657
6.3672 -5.6254 -1.9968 0.9657
6.8502 -5.0389 -1.9986 0.9657
7.6510 -3.7471 -2.0022 0.9656
8.5088 -0.8350 -2.0094 0.9655
8.5565 -0.0720 -2.0111 0.9655
8.5355 0.6927 -2.0126 0.9654
8.4459 1.4531 -2.0141 0.9654
8.0636 2.9360 -2.0168 0.9654
7.7738 3.6463 -2.0180 0.9653
7.4210 4.3280 -2.0191 0.9653
7.0081 4.9755 -2.0200 0.9653
5.4439 6.6606 -2.0217 0.9653
4.1733 7.5240 -2.0221 0.9653
3.2334 7.2989 -1.8762 0.9677
2.5578 7.5257 -1.8681 0.9679
1.1780 7.8570 -1.8672 0.9679
0.4716 7.9280 -1.8666 0.9679
-0.2380 7.9351 -1.8658 0.9679
-0.9450 7.8783 -1.8648 0.9679
-2.3283 7.5756 -1.8626 0.9680
-4.2432 6.6731 -1.8585 0.9680
-4.8181 6.2625 -1.8570 0.9681
-5.3534 5.8023 -1.8554 0.9681
-5.8450 5.2966 -1.8538 0.9681
-6.5446 4.9425 -1.9275 0.9669
-7.2316 4.5079 -2.0028 0.9656
-7.9036 3.1442 -1.9991 0.9657
-8.1454 2.4238 -1.9973 0.9657
-8.3219 1.6854 -1.9956 0.9657
-8.3585 -1.3298 -1.9891 0.9658
-7.9780 -2.7915 -1.9865 0.9659
-6.4838 -5.3970 -1.9827 0.9659
-4.8186 -6.9176 -1.9813 0.9660
-4.1815 -7.3198 -1.9812 0.9660
-3.5114 -7.6640 -1.9813 0.9660
-2.8133 -7.9476 -1.9815 0.9660
-2.0929 -8.1685 -1.9818 0.9659
-0.6598 7.1676 -1.8637 0.9707
-1.2965 7.0766 -1.8628 0.9707
-1.9220 6.9288 -1.8617 0.9707
-3.1198 6.4683 -1.8594 0.9708
-4.7120 5.3985 -1.8553 0.9708
-6.4501 4.2722 -2.0032 0.9685
-6.8002 3.6762 -2.0015 0.9686
-7.0953 3.0519 -1.9998 0.9686
-7.3334 2.4042 -1.9982 0.9686
-7.5128 1.7385 -1.9966 0.9686
-7.6874 -0.3138 -1.9920 0.9687
-7.3152 -2.3352 -1.9882 0.9688
-5.5753 -5.2567 -1.9840 0.9688
-5.0826 -5.7322 -1.9836 0.9688
-3.3811 -6.8725 -1.9831 0.9688
-2.1053 -7.3657 -1.9835 0.9688
-0.7622 -7.6265 -1.9845 0.9688
-0.0782 -7.6668 -1.9852 0.9688
0.6068 -7.6463 -1.9860 0.9688
1.9590 -7.4240 -1.9880 0.9688
3.2521 -6.9658 -1.9904 0.9687
3.8636 -6.6521 -1.9918 0.9687
4.4453 -6.2852 -1.9932 0.9687
5.5007 -5.4027 -1.9963 0.9686
5.9659 -4.8939 -1.9979 0.9686
6.3842 -4.3453 -1.9995 0.9686
6.7523 -3.7610 -2.0012 0.9686
7.6665 -1.1634 -2.0077 0.9685
7.7457 -0.4747 -2.0093 0.9684
7.7629 0.2189 -2.0108 0.9684
7.7178 0.9118 -2.0122 0.9684
7.6106 1.5982 -2.0135 0.9684
7.4421 2.2727 -2.0147 0.9684
6.5837 4.1699 -2.0178 0.9683
5.7410 5.2779 -2.0192 0.9683
3.5316 6.9559 -2.0198 0.9683
-1.1179 7.1080 -1.8630 0.9707
-2.3616 6.7883 -1.8609 0.9707
-2.9563 6.5461 -1.8597 0.9708
-5.6549 4.7593 -1.9137 0.9699
-6.3415 4.4341 -2.0035 0.9685
-6.7069 3.8473 -2.0020 0.9686
-7.0178 3.2305 -2.0003 0.9686
-7.2722 2.5889 -1.9987 0.9686
-7.4682 1.9277 -1.9970 0.9686
-7.6045 1.2522 -1.9955 0.9687
-7.6800 0.5679 -1.9939 0.9687
-7.6476 -0.8059 -1.9911 0.9687
-7.5401 -1.4845 -1.9897 0.9687
-7.1475 -2.7985 -1.9874 0.9688
-5.7064 -5.1149 -1.9842 0.9688
-2.2902 -7.3100 -1.9834 0.9688
-0.9540 -7.6042 -1.9843 0.9688
-0.2714 -7.6615 -1.9850 0.9688
1.7710 -7.4698 -1.9877 0.9688
2.4323 -7.2860 -1.9888 0.9688
3.0749 -7.0442 -1.9901 0.9687
4.2847 -6.3938 -1.9928 0.9687
5.3616 -5.5383 -1.9959 0.9687
5.8394 -5.0415 -1.9974 0.9686
6.9838 -3.3221 -2.0024 0.9686
7.6331 -1.3560 -2.0073 0.9685
7.7297 -0.6696 -2.0088 0.9685
7.7644 0.0232 -2.0104 0.9684
7.6471 1.4057 -2.0131 0.9684
7.4957 2.0841 -2.0144 0.9684
5.8717 5.1311 -2.0190 0.9683
5.3916 5.6363 -2.0195 0.9683
4.8677 6.0963 -2.0199 0.9683
3.7065 6.8659 -2.0202 0.9683
2.2415 6.8507 -1.8663 0.9707
1.6206 7.0222 -1.8660 0.9707
0.3456 7.1943 -1.8649 0.9707
-1.5710 7.0190 -1.8623 0.9707
-2.7909 6.6198 -1.8601 0.9708
-3.3685 6.3399 -1.8588 0.9708
-4.4359 5.6315 -1.8561 0.9708
-4.9171 5.2089 -1.8547 0.9708
-5.3583 4.7453 -1.8532 0.9709
-6.2200 4.5868 -2.0010 0.9686
-6.6094 4.0160 -2.0024 0.9685
-6.9358 3.4071 -2.0008 0.9686
-7.6965 0.0740 -1.9929 0.9687
-7.5765 -1.2942 -1.9901 0.9687
-7.4260 -1.9643 -1.9889 0.9688
-7.2170 -2.6185 -1.9877 0.9688
-6.9507 -3.2501 -1.9867 0.9688
-5.8340 -4.9699 -1.9843 0.9688
-4.8549 -5.9255 -1.9834 0.9688
-4.3059 -6.3345 -1.9832 0.9688
-3.7230 -6.6933 -1.9831 0.9688
-3.1106 -6.9992 -1.9831 0.9688
-1.1453 -7.5771 -1.9841 0.9688
-0.4643 -7.6515 -1.9848 0.9688
0.2207 -7.6653 -1.9855 0.9688
0.9046 -7.6184 -1.9864 0.9688
2.2475 -7.3438 -1.9885 0.9688
4.6885 -6.1091 -1.9939 0.9687
5.2192 -5.6704 -1.9954 0.9687
5.7091 -5.1859 -1.9970 0.9686
6.1544 -4.6593 -1.9986 0.9686
6.5511 -4.0946 -2.0003 0.9686
6.8962 -3.4962 -2.0019 0.9686
7.4203 -2.2176 -2.0052 0.9685
7.5948 -1.5475 -2.0068 0.9685
7.7609 -0.1724 -2.0099 0.9684
7.3497 2.5618 -2.0152 0.9684
6.7838 3.8319 -2.0173 0.9683
5.9987 4.9811 -2.0188 0.9683
5.5315 5.4983 -2.0194 0.9683
5.0196 5.9715 -2.0198 0.9683
4.4670 6.3966 -2.0201 0.9683
3.8783 6.7703 -2.0202 0.9683
3.2500 7.0714 -2.0150 0.9684
1.1665 7.1104 -1.8656 0.9707
0.5269 7.1840 -1.8651 0.9707
-2.6237 6.6892 -1.8604 0.9707
-4.2935 5.7427 -1.8565 0.9708
-5.2382 4.8800 -1.8536 0.9709
-6.8493 3.5816 -2.0012 0.9686
-7.1358 2.9533 -1.9996 0.9686
-7.5351 1.6345 -1.9963 0.9686
-7.6449 0.9545 -1.9948 0.9687
-7.6938 0.2679 -1.9933 0.9687
-7.4745 -1.7768 -1.9892 0.9688
-6.3668 -4.2720 -1.9852 0.9688
-5.9579 -4.8217 -1.9845 0.9688
-5.0029 -5.8016 -1.9835 0.9688
-4.4643 -6.2242 -1.9832 0.9688
-3.8905 -6.5974 -1.9831 0.9688
-3.2860 -6.9185 -1.9831 0.9688
-0.6569 -7.6367 -1.9846 0.9688
0.0275 -7.6676 -1.9853 0.9688
0.7123 -7.6377 -1.9861 0.9688
3.3482 -6.9210 -1.9906 0.9687
4.5321 -6.2239 -1.9935 0.9687
5.0736 -5.7989 -1.9950 0.9687
5.5754 -5.3269 -1.9965 0.9686
6.8044 -3.6680 -2.0015 0.9686
7.1106 -3.0484 -2.0031 0.9685
7.5517 -1.7380 -2.0064 0.9685
7.7524 -0.3678 -2.0095 0.9684
7.7600 0.3260 -2.0110 0.9684
7.7053 1.0182 -2.0124 0.9684
7.5886 1.7032 -2.0137 0.9684
7.4107 2.3754 -2.0149 0.9684
6.8773 3.6593 -2.0170 0.9683
6.5259 4.2605 -2.0179 0.9683
5.6679 5.3568 -2.0192 0.9683
4.6266 6.2818 -2.0200 0.9683
4.0476 6.6703 -2.0202 0.9683
3.4325 6.9980 -2.0181 0.9683
2.5840 6.7296 -1.8664 0.9707
1.9725 6.9324 -1.8662 0.9707
1.3454 7.0793 -1.8658 0.9707
-0.5780 7.1751 -1.8638 0.9707
-1.2157 7.0914 -1.8629 0.9707
-2.4547 6.7544 -1.8608 0.9707
-3.0460 6.5041 -1.8595 0.9708
-3.6120 6.2019 -1.8583 0.9708
-4.6505 5.4525 -1.8555 0.9708
-5.1147 5.0116 -1.8540 0.9708
-5.8567 4.7926 -1.9594 0.9692
-7.0608 3.1330 -2.0001 0.9686
-7.4932 1.8243 -1.9968 0.9686
-7.6201 1.1471 -1.9952 0.9687
-7.6862 0.4618 -1.9937 0.9687
-7.3419 -2.2517 -1.9883 0.9688
-6.8173 -3.5179 -1.9863 0.9688
-6.4732 -4.1107 -1.9854 0.9688
-5.6351 -5.1929 -1.9841 0.9688
-1.5253 -7.5087 -1.9838 0.9688
-0.8491 -7.6170 -1.9844 0.9688
-0.1657 -7.6650 -1.9851 0.9688
3.1721 -7.0018 -1.9903 0.9687
3.7872 -6.6952 -1.9916 0.9687
4.3729 -6.3349 -1.9930 0.9687
4.9247 -5.9236 -1.9945 0.9687
5.4382 -5.4645 -1.9961 0.9686
5.9091 -4.9611 -1.9977 0.9686
6.3336 -4.4174 -1.9993 0.9686
7.2958 -2.5875 -2.0043 0.9685
7.7270 0.8236 -2.0120 0.9684
7.6277 1.5112 -2.0133 0.9684
7.4670 2.1875 -2.0146 0.9684
6.9664 3.4844 -2.0168 0.9683
6.2408 4.6717 -2.0184 0.9683
5.8007 5.2119 -2.0191 0.9683
4.2144 6.5661 -2.0201 0.9683
2.8688 6.9432 -1.9451 0.9694
2.1467 6.8808 -1.8663 0.9707
1.5235 7.0436 -1.8659 0.9707
0.8883 7.1496 -1.8654 0.9707
0.2464 7.1979 -1.8648 0.9707
-0.3971 7.1883 -1.8640 0.9707
-1.0368 7.1208 -1.8631 0.9707
-2.8817 6.5800 -1.8599 0.9708
-4.9879 5.1400 -1.8545 0.9708
-5.5014 4.7383 -1.8799 0.9704
-6.2870 4.5037 -2.0024 0.9686
-6.9812 3.3107 -2.0005 0.9686
-7.4465 2.0130 -1.9972 0.9686
-7.5905 1.3391 -1.9957 0.9687
-7.6738 0.6555 -1.9941 0.9687
-7.5572 -1.3985 -1.9899 0.9687
-6.5755 -3.9467 -1.9856 0.9688
-6.1944 -4.5163 -1.9849 0.9688
-5.7646 -5.0496 -1.9842 0.9688
-4.7726 -5.9918 -1.9834 0.9688
-3.0138 -7.0415 -1.9831 0.9688
-2.3734 -7.2832 -1.9834 0.9688
-1.7140 -7.4674 -1.9837 0.9688
-0.3588 -7.6576 -1.9849 0.9688
0.3264 -7.6620 -1.9856 0.9688
1.0097 -7.6057 -1.9865 0.9688
1.6855 -7.4890 -1.9875 0.9688
2.3488 -7.3128 -1.9887 0.9688
2.9941 -7.0782 -1.9899 0.9687
3.6165 -6.7872 -1.9912 0.9687
4.2110 -6.4417 -1.9926 0.9687
5.2976 -5.5986 -1.9957 0.9687
6.2188 -4.5745 -1.9989 0.9686
6.6078 -4.0043 -2.0005 0.9686
7.2266 -2.7699 -2.0038 0.9685
7.7208 -0.7576 -2.0086 0.9685
7.7438 0.6285 -2.0116 0.9684
7.5184 1.9983 -2.0142 0.9684
7.3143 2.6631 -2.0154 0.9683
7.0510 3.3073 -2.0165 0.9683
6.7307 3.9254 -2.0174 0.9683
6.3559 4.5125 -2.0182 0.9683
5.9297 5.0636 -2.0189 0.9683
4.3784 6.4577 -2.0201 0.9683
3.1496 7.1096 -2.0133 0.9684
1.7006 7.0034 -1.8660 0.9707
0.4277 7.1902 -1.8650 0.9707
-0.2158 7.1969 -1.8642 0.9707
-1.4909 7.0370 -1.8624 0.9707
-2.1120 6.8719 -1.8614 0.9707
-2.7155 6.6517 -1.8602 0.9708
-3.8499 6.0544 -1.8577 0.9708
-4.3718 5.6823 -1.8563 0.9708
-4.8579 5.2652 -1.8549 0.9708
-6.1639 4.6549 -1.9999 0.9686
-6.8972 3.4864 -2.0010 0.9686
-7.1750 2.8543 -1.9993 0.9686
-7.6565 0.8489 -1.9945 0.9687
-7.4485 -1.8796 -1.9890 0.9688
-6.9878 -3.1708 -1.9868 0.9688
-4.3780 -6.2851 -1.9832 0.9688
-2.5561 -7.2208 -1.9833 0.9688
-1.9015 -7.4214 -1.9836 0.9688
0.1333 -7.6669 -1.9854 0.9688
0.8176 -7.6277 -1.9863 0.9688
-0.6031 6.5512 -1.8624 0.9730
-3.8531 5.3048 -1.8561 0.9731
-4.3084 4.9361 -1.8548 0.9731
-5.8989 3.9071 -2.0030 0.9710
-6.2194 3.3623 -2.0015 0.9710
-6.7081 2.1992 -1.9985 0.9711
-6.8726 1.5904 -1.9970 0.9711
-6.9821 0.9697 -1.9956 0.9711
-7.0359 0.3422 -1.9942 0.9711
-6.9756 -0.9134 -1.9916 0.9712
-6.2017 -3.2903 -1.9874 0.9712
-5.8809 -3.8295 -1.9867 0.9712
-4.1645 -5.6403 -1.9848 0.9713
-1.3177 -6.8883 -1.9854 0.9713
-0.6976 -6.9803 -1.9859 0.9713
0.5553 -6.9979 -1.9873 0.9712
1.1784 -6.9234 -1.9882 0.9712
1.7927 -6.7939 -1.9891 0.9712
2.9758 -6.3739 -1.9914 0.9712
3.5352 -6.0866 -1.9926 0.9712
5.4573 -4.4767 -1.9982 0.9711
5.8395 -3.9745 -1.9997 0.9711
6.1757 -3.4399 -2.0012 0.9710
7.0100 -1.0638 -2.0072 0.9710
7.0819 -0.4340 -2.0086 0.9709
7.0972 0.2001 -2.0100 0.9709
7.0555 0.8335 -2.0113 0.9709
6.9571 1.4610 -2.0125 0.9709
6.8027 2.0775 -2.0136 0.9709
6.3309 3.2574 -2.0156 0.9708
6.0173 3.8111 -2.0164 0.9708
5.2468 4.8235 -2.0176 0.9708
4.3069 5.6819 -2.0184 0.9708
3.7827 6.0442 -2.0185 0.9708
3.2280 6.3579 -2.0186 0.9708
2.6396 6.6009 -2.0125 0.9709
0.7372 6.5428 -1.8639 0.9730
-0.4378 6.5650 -1.8626 0.9730
-1.0218 6.4969 -1.8618 0.9730
-2.1587 6.2052 -1.8599 0.9731
-3.2240 5.7155 -1.8577 0.9731
-3.7190 5.4012 -1.8564 0.9731
-4.1834 5.0441 -1.8552 0.9731
-4.6142 4.6476 -1.8540 0.9731
-5.7998 4.0553 -2.0034 0.9710
-6.1340 3.5187 -2.0019 0.9710
-6.4188 2.9547 -2.0004 0.9711
-6.6520 2.3681 -1.9989 0.9711
-6.8318 1.7634 -1.9974 0.9711
-7.0400 -0.1098 -1.9932 0.9712
-6.7470 -1.9679 -1.9896 0.9712
-5.9761 -3.6804 -1.9869 0.9712
-5.6217 -4.1978 -1.9862 0.9713
-5.2230 -4.6816 -1.9856 0.9713
-3.7939 -5.8955 -1.9847 0.9713
-2.0962 -6.6909 -1.9849 0.9713
-0.8732 -6.9599 -1.9858 0.9713
-0.2484 -7.0122 -1.9864 0.9713
1.6207 -6.8359 -1.9889 0.9712
2.2257 -6.6674 -1.9899 0.9712
2.8137 -6.4458 -1.9910 0.9712
3.3800 -6.1726 -1.9923 0.9712
3.9202 -5.8500 -1.9936 0.9711
4.4299 -5.4804 -1.9949 0.9711
4.9049 -5.0666 -1.9963 0.9711
5.7363 -4.1195 -1.9993 0.9711
6.0858 -3.5937 -2.0008 0.9710
6.3871 -3.0383 -2.0023 0.9710
6.6379 -2.4577 -2.0038 0.9710
6.8359 -1.8567 -2.0053 0.9710
7.0674 -0.6122 -2.0082 0.9709
7.0986 0.0212 -2.0096 0.9709
7.0730 0.6554 -2.0109 0.9709
6.6579 2.5105 -2.0144 0.9709
6.4102 3.0964 -2.0153 0.9708
6.1107 3.6579 -2.0162 0.9708
4.9274 5.1510 -2.0180 0.9708
3.9338 5.9469 -2.0185 0.9708
2.8088 6.5409 -2.0152 0.9708
0.9019 6.5226 -1.8641 0.9730
-0.2723 6.5747 -1.8629 0.9730
-2.5513 6.0515 -1.8592 0.9731
-3.0795 5.7959 -1.8580 0.9731
-3.5823 5.4943 -1.8568 0.9731
-4.0558 5.1490 -1.8555 0.9731
-4.4961 4.7629 -1.8542 0.9731
-6.3437 3.1162 -2.0008 0.9710
-6.7866 1.9354 -1.9978 0.9711
-7.0152 -0.5609 -1.9923 0.9712
-6.6044 -2.3958 -1.9889 0.9712
-6.3611 -2.9744 -1.9879 0.9712
-4.4437 -5.4237 -1.9849 0.9713
-1.0482 -6.9352 -1.9856 0.9713
-0.4250 -7.0031 -1.9862 0.9713
0.2020 -7.0155 -1.9869 0.9712
1.4477 -6.8737 -1.9886 0.9712
3.2229 -6.2547 -1.9919 0.9712
5.2226 -4.7440 -1.9974 0.9711
5.9920 -3.7451 -2.0004 0.9711
6.5725 -2.6237 -2.0034 0.9710
7.0483 -0.7900 -2.0078 0.9709
7.0860 0.4768 -2.0105 0.9709
7.0195 1.1082 -2.0118 0.9709
6.8966 1.7315 -2.0130 0.9709
6.7181 2.3416 -2.0141 0.9709
6.4854 2.9335 -2.0150 0.9708
6.2003 3.5023 -2.0159 0.9708
5.8650 4.0434 -2.0167 0.9708
5.4823 4.5524 -2.0173 0.9708
5.0553 5.0249 -2.0178 0.9708
3.5443 6.1872 -2.0186 0.9708
2.3034 6.4825 -1.9476 0.9718
-0.1065 6.5802 -1.8631 0.9730
-0.6933 6.5418 -1.8623 0.9730
-1.8439 6.3081 -1.8605 0.9730
-2.3984 6.1148 -1.8595 0.9731
-3.4434 5.5838 -1.8571 0.9731
-3.9255 5.2506 -1.8559 0.9731
-4.3756 4.8757 -1.8546 0.9731
-4.9848 4.6440 -1.9287 0.9721
-6.5270 2.7014 -1.9997 0.9711
-6.7371 2.1063 -1.9982 0.9711
-7.0284 -0.3841 -1.9926 0.9712
-6.9617 -1.0094 -1.9914 0.9712
-6.8397 -1.6259 -1.9902 0.9712
-6.4349 -2.8136 -1.9882 0.9712
-6.1553 -3.3754 -1.9873 0.9712
-5.8272 -3.9099 -1.9866 0.9712
-4.0862 -5.6971 -1.9848 0.9713
-3.0077 -6.3326 -1.9846 0.9713
-2.4305 -6.5763 -1.9848 0.9713
-1.8339 -6.7680 -1.9851 0.9713
-1.2226 -6.9061 -1.9855 0.9713
-0.6013 -6.9895 -1.9860 0.9713
0.0252 -7.0176 -1.9867 0.9712
1.2739 -6.9070 -1.9883 0.9712
1.8864 -6.7691 -1.9893 0.9712
3.6191 -6.0378 -1.9928 0.9712
4.6416 -5.3051 -1.9955 0.9711
5.1003 -4.8731 -1.9970 0.9711
6.5029 -2.7879 -2.0030 0.9710
6.9053 -1.5893 -2.0060 0.9710
7.0247 -0.9671 -2.0074 0.9710
7.0945 0.2980 -2.0102 0.9709
7.0440 0.9308 -2.0114 0.9709
6.7740 2.1713 -2.0138 0.9709
6.2858 3.3446 -2.0157 0.9708
5.5949 4.4124 -2.0172 0.9708
5.1800 4.8956 -2.0177 0.9708
3.1400 6.4018 -2.0186 0.9708
1.8027 6.3354 -1.8647 0.9730
1.2296 6.4698 -1.8643 0.9730
0.0593 6.5815 -1.8632 0.9730
-2.7846 5.9458 -1.8587 0.9731
-3.7927 5.3489 -1.8563 0.9731
-4.7115 4.6165 -1.8673 0.9730
-5.4702 4.4764 -2.0010 0.9710
-6.1813 3.4333 -2.0017 0.9710
-6.4582 2.8656 -2.0002 0.9711
