ply
format ascii 1.0
element vertex 1595
property float32 x
property float32 y
property float32 z
property float32 I
end_header
-7.8782 -9.0952 -1.9823 0.9524
-7.0336 -9.7582 -1.9816 0.9524
-3.1771 -11.5954 -1.9806 0.9524
-0.9903 -11.1132 -1.8380 0.9558
3.9123 -10.4730 -1.8418 0.9557
4.8335 -10.0887 -1.8429 0.9557
7.0684 -9.7898 -1.9892 0.9522
7.9193 -9.1278 -1.9908 0.9522
8.7089 -8.3924 -1.9924 0.9522
10.0788 -6.7241 -1.9960 0.9521
10.6481 -5.8041 -1.9978 0.9520
11.5315 -3.8279 -2.0016 0.9519
11.2427 -0.5927 -1.8547 0.9554
7.5550 0.9561 -1.2545 0.9696
11.0279 2.4101 -1.8596 0.9553
10.4409 4.3372 -1.8625 0.9552
9.5174 6.1309 -1.8650 0.9551
5.4128 5.0509 -1.2196 0.9704
6.6943 7.4699 -1.6524 0.9602
2.6462 3.5437 -0.7286 0.9822
3.3948 8.6603 -1.5324 0.9630
2.1991 11.1329 -1.8695 0.9550
1.1976 11.2829 -1.8692 0.9550
-1.8293 11.1868 -1.8674 0.9551
-4.0945 11.5513 -2.0190 0.9515
-6.9912 10.0354 -2.0149 0.9516
2.9948 8.8042 -1.7480 0.9629
2.3477 9.6518 -1.8671 0.9604
-1.1734 9.8553 -1.8655 0.9604
-2.0467 9.7077 -1.8648 0.9604
-3.1416 10.2626 -2.0173 0.9573
-4.0420 9.9365 -2.0163 0.9573
-4.9090 9.5311 -2.0151 0.9573
-6.5154 8.4967 -2.0125 0.9574
-7.2418 7.8763 -2.0111 0.9574
-7.9093 7.1939 -2.0096 0.9574
-9.0469 5.6658 -2.0064 0.9575
-10.1983 3.0620 -2.0014 0.9576
-10.5907 -0.6940 -1.9949 0.9577
-10.0077 -3.4644 -1.9906 0.9578
-9.6527 -4.3401 -1.9893 0.9578
-9.2219 -5.1804 -1.9881 0.9579
-8.7186 -5.9788 -1.9871 0.9579
-4.8931 -8.4808 -1.8403 0.9609
-3.3084 -9.2131 -1.8400 0.9609
-2.4738 -9.4715 -1.8400 0.9609
-0.7524 -9.7626 -1.8404 0.9609
0.9940 -9.7462 -1.8414 0.9609
2.7114 -9.4222 -1.8429 0.9609
5.5150 -9.0352 -1.9896 0.9578
7.7256 -7.2687 -1.9938 0.9577
8.3493 -6.5560 -1.9953 0.9577
9.3960 -4.9769 -1.9985 0.9576
10.1475 -3.2343 -2.0019 0.9576
10.4041 -2.3186 -2.0035 0.9575
7.5736 1.0506 -1.4372 0.9694
7.7522 6.1861 -1.8642 0.9604
7.1729 6.8556 -1.8650 0.9604
6.5355 7.4706 -1.8657 0.9604
2.5709 3.5301 -0.8208 0.9824
4.8733 8.1265 -1.7811 0.9622
3.6870 7.6151 -1.5903 0.9662
3.2900 8.6977 -1.7479 0.9629
2.6720 9.5673 -1.8671 0.9604
0.9301 9.8876 -1.8667 0.9604
0.0448 9.9290 -1.8663 0.9604
-0.8404 9.8906 -1.8657 0.9604
-1.7183 9.7727 -1.8651 0.9604
-2.7931 10.3608 -2.0170 0.9573
-3.7052 10.0692 -2.0167 0.9573
-6.2266 8.7139 -2.0131 0.9573
-6.9739 8.1184 -2.0116 0.9574
-9.3427 5.1523 -2.0054 0.9575
-9.7567 4.2952 -2.0037 0.9575
-10.0924 3.4054 -2.0021 0.9576
-10.3472 2.4899 -2.0004 0.9576
-10.5192 1.5561 -1.9987 0.9576
-10.6074 0.6115 -1.9971 0.9577
-10.6112 -0.3364 -1.9955 0.9577
-10.5308 -1.2801 -1.9940 0.9577
-10.3671 -2.2123 -1.9925 0.9578
-10.1214 -3.1256 -1.9911 0.9578
-9.7960 -4.0130 -1.9898 0.9578
-9.3934 -4.8674 -1.9886 0.9579
-5.5798 -8.9585 -1.9838 0.9580
-4.4144 -8.7385 -1.8402 0.9609
-1.9443 -9.5946 -1.8401 0.9609
-1.0813 -9.7310 -1.8403 0.9609
-0.2094 -9.7907 -1.8407 0.9609
1.5338 -9.6781 -1.8418 0.9609
3.2311 -9.2600 -1.8434 0.9609
4.2544 -9.4002 -1.9394 0.9589
5.2058 -9.2139 -1.9892 0.9578
6.0104 -8.7186 -1.9904 0.9578
8.7046 -6.0854 -1.9963 0.9577
9.2199 -5.2894 -1.9979 0.9577
9.6628 -4.4499 -1.9996 0.9576
10.0294 -3.5737 -2.0012 0.9576
10.5222 -1.7385 -2.0046 0.9575
9.8243 1.0264 -1.8566 0.9606
9.4998 2.7590 -1.8594 0.9605
9.2222 3.5974 -1.8606 0.9605
8.4468 5.1844 -1.8629 0.9605
7.9551 5.9199 -1.8638 0.9604
5.3886 4.8130 -1.3580 0.9710
6.0244 7.7112 -1.8393 0.9610
2.9933 9.4718 -1.8671 0.9604
2.1368 9.7005 -1.8670 0.9604
1.2632 9.8513 -1.8668 0.9604
-1.3878 9.8266 -1.8653 0.9604
-6.6978 8.3513 -2.0122 0.9574
-8.0626 7.0185 -2.0092 0.9574
-8.6495 6.2668 -2.0076 0.9575
-9.1664 5.4663 -2.0060 0.9575
-9.9749 3.7451 -2.0027 0.9576
-10.2605 2.8385 -2.0010 0.9576
-10.5711 -0.9244 -1.9945 0.9577
-9.1056 -5.3794 -1.9878 0.9579
-8.5852 -6.1665 -1.9868 0.9579
-5.8793 -8.7658 -1.9839 0.9580
-4.7070 -8.5850 -1.8403 0.9609
-1.4089 -9.6884 -1.8402 0.9609
-0.5396 -9.7772 -1.8405 0.9609
0.3344 -9.7888 -1.8410 0.9609
2.0691 -9.5804 -1.8423 0.9609
3.8181 -9.2554 -1.8819 0.9601
6.4877 -8.3751 -1.9913 0.9578
7.8835 -7.1000 -1.9942 0.9577
8.4917 -6.3738 -1.9957 0.9577
9.5042 -4.7719 -1.9989 0.9576
9.9000 -3.9088 -2.0006 0.9576
10.2176 -3.0131 -2.0023 0.9576
10.4543 -2.0918 -2.0039 0.9575
9.8505 0.6941 -1.8561 0.9606
9.7568 1.5708 -1.8575 0.9606
9.3360 3.2834 -1.8602 0.9605
8.1487 5.6471 -1.8635 0.9605
7.6164 6.3542 -1.8644 0.9604
7.0225 7.0109 -1.8652 0.9604
3.0994 8.7665 -1.7477 0.9629
2.4629 9.6232 -1.8671 0.9604
1.5950 9.8035 -1.8669 0.9604
0.7144 9.9051 -1.8666 0.9604
-0.1715 9.9270 -1.8662 0.9604
-1.0556 9.8691 -1.8656 0.9604
-1.9306 9.7320 -1.8649 0.9604
-3.9232 9.9848 -2.0164 0.9573
-7.1478 7.9631 -2.0113 0.9574
-8.4357 6.5570 -2.0082 0.9574
-9.4508 4.9465 -2.0050 0.9575
-10.1621 3.1840 -2.0016 0.9576
-10.5485 1.3263 -1.9983 0.9577
-10.6161 0.3802 -1.9967 0.9577
-10.5993 -0.5674 -1.9951 0.9577
-10.4985 -1.5090 -1.9936 0.9577
-9.2838 -5.0702 -1.9883 0.9579
-8.7900 -5.8745 -1.9872 0.9579
-8.2273 -6.6316 -1.9862 0.9579
-7.6000 -7.3356 -1.9854 0.9579
-6.9132 -7.9812 -1.9847 0.9579
-6.1723 -8.5633 -1.9841 0.9579
-1.7349 -9.6350 -1.8401 0.9609
0.0039 -9.7935 -1.8408 0.9609
0.8774 -9.7570 -1.8413 0.9609
1.7444 -9.6433 -1.8420 0.9609
5.4061 -9.0997 -1.9895 0.9578
7.6373 -7.3598 -1.9936 0.9578
8.8368 -5.8955 -1.9967 0.9577
9.3348 -5.0883 -1.9983 0.9577
10.1069 -3.3550 -2.0016 0.9576
10.5597 -1.5091 -2.0050 0.9575
10.5926 -0.5585 -1.9938 0.9577
9.1431 3.7981 -1.8609 0.9605
8.7734 4.6010 -1.8621 0.9605
8.3330 5.3679 -1.8631 0.9605
7.8251 6.0926 -1.8641 0.9604
7.2540 6.7690 -1.8649 0.9604
4.9821 8.0872 -1.7854 0.9621
3.7942 7.6034 -1.5972 0.9660
3.3946 8.6600 -1.7483 0.9628
-0.7221 9.9003 -1.8658 0.9604
-1.6014 9.7931 -1.8652 0.9604
-2.6663 10.3829 -2.0149 0.9573
-6.1225 8.7885 -2.0132 0.9573
2.8416 8.3536 -1.8652 0.9646
-0.2578 8.8157 -1.8643 0.9646
-5.0968 8.0418 -2.0125 0.9618
-5.7901 7.5508 -2.0113 0.9618
-6.4362 7.0001 -2.0101 0.9619
-7.0300 6.3941 -2.0087 0.9619
-7.5668 5.7379 -2.0073 0.9619
-8.0425 5.0368 -2.0059 0.9619
-8.4534 4.2965 -2.0044 0.9620
-8.7963 3.5231 -2.0030 0.9620
-9.3941 1.0672 -1.9985 0.9621
-9.4451 0.2253 -1.9971 0.9621
-9.3221 -1.4538 -1.9943 0.9622
-9.1494 -2.2777 -1.9930 0.9622
-8.5892 -3.8620 -1.9907 0.9622
-7.7590 -5.3207 -1.9887 0.9623
-6.0675 -7.1764 -1.9865 0.9623
-5.4022 -7.6869 -1.9860 0.9623
-4.3554 -7.5488 -1.8422 0.9650
-2.9449 -8.2008 -1.8419 0.9650
-2.2020 -8.4308 -1.8419 0.9650
0.1077 -8.7166 -1.8427 0.9650
1.6551 -8.5640 -1.8437 0.9650
3.3979 -8.7743 -1.9889 0.9623
4.9073 -8.0396 -1.9910 0.9622
6.2647 -7.0486 -1.9934 0.9622
6.8727 -6.4662 -1.9947 0.9622
7.4269 -5.8317 -1.9960 0.9621
8.3566 -4.4263 -1.9989 0.9621
8.7243 -3.6663 -2.0004 0.9620
9.0232 -2.8759 -2.0019 0.9620
9.2505 -2.0615 -2.0033 0.9620
8.7656 0.4260 -1.8551 0.9648
7.5532 1.0478 -1.6119 0.9693
8.3568 2.7359 -1.8587 0.9647
7.7467 4.1814 -1.8608 0.9646
6.8873 5.4959 -1.8625 0.9646
5.8058 6.6365 -1.8639 0.9646
3.1218 8.2529 -1.8651 0.9646
0.8262 8.7832 -1.8648 0.9646
-0.7466 8.7863 -1.8639 0.9646
-1.5265 8.6820 -1.8633 0.9646
-2.4774 9.1898 -2.0119 0.9618
-4.8236 8.2109 -2.0130 0.9618
-5.5333 7.7437 -2.0118 0.9618
-6.1978 7.2150 -2.0106 0.9619
-7.3709 5.9915 -2.0079 0.9619
-8.6748 3.8189 -2.0035 0.9620
-8.9741 3.0280 -2.0020 0.9620
-9.2015 2.2142 -2.0005 0.9620
-9.4389 -0.2992 -1.9962 0.9621
-9.3682 -1.1388 -1.9948 0.9622
-9.2233 -1.9682 -1.9935 0.9622
-9.0054 -2.7810 -1.9923 0.9622
-8.7165 -3.5707 -1.9911 0.9622
-7.9354 -5.0568 -1.9890 0.9623
-5.6589 -7.5009 -1.9862 0.9623
-4.6079 -7.3980 -1.8423 0.9650
-1.7307 -8.5404 -1.8420 0.9650
-0.1864 -8.7145 -1.8425 0.9650
1.3651 -8.6138 -1.8435 0.9650
2.1806 -8.6684 -1.8894 0.9641
3.8808 -8.5747 -1.9895 0.9623
4.6323 -8.1988 -1.9906 0.9622
5.3478 -7.7575 -1.9917 0.9622
7.2241 -6.0774 -1.9955 0.9621
8.2002 -4.7044 -1.9983 0.9621
8.5933 -3.9574 -1.9998 0.9621
9.3550 -1.5456 -2.0043 0.9620
8.7727 0.1300 -1.8546 0.9648
7.7657 0.8113 -1.6505 0.9686
8.4424 2.4519 -1.8583 0.9647
7.8818 3.9169 -1.8604 0.9647
5.4009 4.8241 -1.5307 0.9708
6.0257 6.4361 -1.8637 0.9646
4.7893 7.4078 -1.8646 0.9646
4.1104 7.8066 -1.8649 0.9646
1.8981 8.6168 -1.8651 0.9646
-2.0055 8.5819 -1.8629 0.9646
-2.9888 9.0538 -2.0154 0.9618
-4.5448 8.3708 -2.0134 0.9618
-5.2701 7.9277 -2.0122 0.9618
-5.9523 7.4218 -2.0110 0.9619
-6.5861 6.8571 -2.0097 0.9619
-7.1664 6.2384 -2.0084 0.9619
-7.6887 5.5707 -2.0070 0.9619
-8.1489 4.8595 -2.0055 0.9620
-8.8694 3.3300 -2.0026 0.9620
-9.3059 1.6993 -1.9996 0.9621
-9.4135 0.8622 -1.9982 0.9621
-9.4037 -0.8223 -1.9953 0.9621
-9.2867 -1.6563 -1.9940 0.9622
-9.0962 -2.4761 -1.9927 0.9622
-8.8339 -3.2753 -1.9915 0.9622
-8.5019 -4.0476 -1.9904 0.9622
-8.1030 -4.7871 -1.9894 0.9623
-7.6404 -5.4879 -1.9885 0.9623
-7.1177 -6.1447 -1.9876 0.9623
-5.2331 -7.8024 -1.9859 0.9623
-4.1897 -7.6416 -1.8421 0.9650
-3.4403 -7.8671 -1.8150 0.9655
-2.7655 -8.2630 -1.8419 0.9650
-0.4803 -8.7026 -1.8424 0.9650
1.0735 -8.6539 -1.8433 0.9650
2.7604 -8.8616 -1.9619 0.9628
3.5886 -8.6992 -1.9891 0.9623
5.0820 -7.9318 -1.9912 0.9622
5.7723 -7.4516 -1.9924 0.9622
6.4177 -6.9116 -1.9937 0.9622
7.0131 -6.3160 -1.9950 0.9621
7.5535 -5.6695 -1.9964 0.9621
8.4525 -4.2439 -1.9993 0.9621
8.8037 -3.4759 -2.0007 0.9620
9.2950 -1.8598 -2.0037 0.9620
9.4571 -0.1790 -1.9994 0.9621
8.7557 0.6170 -1.8554 0.9648
7.2399 5.0173 -1.8619 0.9646
6.2387 6.2284 -1.8634 0.9646
5.6603 6.7619 -1.8640 0.9646
4.3712 7.6631 -1.8648 0.9646
2.9412 8.3191 -1.8651 0.9646
2.1878 8.5480 -1.8651 0.9646
1.4168 8.7084 -1.8650 0.9646
-0.1524 8.8184 -1.8643 0.9646
-1.7151 8.6459 -1.8632 0.9646
-5.6999 7.6202 -2.0115 0.9618
-7.4984 5.8285 -2.0075 0.9619
-7.9825 5.1331 -2.0061 0.9619
-8.4023 4.3977 -2.0046 0.9620
-8.7544 3.6284 -2.0032 0.9620
-9.2459 2.0128 -2.0002 0.9621
-9.4285 -0.5047 -1.9959 0.9621
-9.1767 -2.1684 -1.9932 0.9622
-8.9414 -2.9761 -1.9920 0.9622
-8.2615 -4.5118 -1.9898 0.9622
-7.8225 -5.2279 -1.9888 0.9623
-7.3221 -5.9020 -1.9879 0.9623
-6.7641 -6.5288 -1.9872 0.9623
-3.0427 -8.1651 -1.8419 0.9650
-2.3026 -8.4038 -1.8419 0.9650
-1.5442 -8.5762 -1.8420 0.9650
1.5526 -8.5827 -1.8437 0.9650
3.2925 -8.8137 -1.9888 0.9623
4.8104 -8.0970 -1.9908 0.9622
5.5164 -7.6403 -1.9920 0.9622
6.1794 -7.1224 -1.9932 0.9622
6.7943 -6.5474 -1.9945 0.9622
7.3560 -5.9195 -1.9958 0.9621
7.8600 -5.2438 -1.9973 0.9621
8.3022 -4.5254 -1.9987 0.9621
8.6790 -3.7699 -2.0002 0.9621
9.3881 -1.3417 -2.0046 0.9620
8.1246 3.3750 -1.8597 0.9647
7.7956 4.0882 -1.8607 0.9647
7.4037 4.7693 -1.8616 0.9646
6.9522 5.4129 -1.8624 0.9646
5.8845 6.5664 -1.8638 0.9646
2.6457 3.5429 -0.9346 0.9821
4.6270 7.5107 -1.8647 0.9646
3.7943 7.6036 -1.7963 0.9659
2.4749 8.4695 -1.8651 0.9646
1.7098 8.6559 -1.8650 0.9646
0.9312 8.7729 -1.8648 0.9646
0.1452 8.8193 -1.8645 0.9646
-2.3652 9.2104 -2.0101 0.9619
-3.9715 8.6616 -2.0142 0.9618
2.5535 7.5069 -1.8636 0.9679
1.1795 7.8403 -1.8634 0.9679
-0.2316 7.9225 -1.8628 0.9680
-0.9369 7.8683 -1.8623 0.9680
-1.6341 7.7510 -1.8617 0.9680
-2.5086 8.1948 -2.0142 0.9654
-4.5816 7.2289 -2.0115 0.9654
-5.7863 6.2933 -2.0092 0.9655
-6.3206 5.7489 -2.0080 0.9655
-6.8037 5.1592 -2.0068 0.9655
-7.6020 3.8638 -2.0042 0.9656
-7.9109 3.1685 -2.0028 0.9656
-8.4758 -0.5554 -1.9963 0.9657
-8.3874 -1.3081 -1.9951 0.9657
-8.2326 -2.0495 -1.9939 0.9657
-8.0127 -2.7738 -1.9928 0.9658
-7.7295 -3.4754 -1.9918 0.9658
-6.5258 -5.3901 -1.9892 0.9658
-5.4613 -6.4595 -1.9880 0.9658
-4.8626 -6.9191 -1.9876 0.9658
-1.9821 -7.5890 -1.8434 0.9683
0.0980 -7.9288 -1.8636 0.9679
0.8341 -8.1786 -1.9321 0.9668
1.6057 -8.3081 -1.9887 0.9658
2.3409 -8.1347 -1.9894 0.9658
3.0580 -7.8967 -1.9902 0.9658
3.7516 -7.5959 -1.9911 0.9658
4.4160 -7.2347 -1.9921 0.9658
7.1274 -4.6329 -1.9979 0.9657
8.3193 -1.8540 -2.0032 0.9656
8.5275 -0.3474 -2.0058 0.9655
8.0044 0.3890 -1.8834 0.9676
7.5328 1.0449 -1.7873 0.9692
7.6974 1.7789 -1.8567 0.9681
7.2670 3.1211 -1.8588 0.9680
6.6032 4.3662 -1.8605 0.9680
2.5706 3.5297 -1.0262 0.9822
4.0772 6.7990 -1.8632 0.9679
3.4552 7.1363 -1.8634 0.9679
2.8053 7.4164 -1.8636 0.9679
2.1329 7.6370 -1.8636 0.9679
1.4434 7.7964 -1.8635 0.9679
0.0358 7.9265 -1.8629 0.9680
-0.6709 7.8962 -1.8625 0.9680
-1.3719 7.8027 -1.8619 0.9680
-2.9589 8.0409 -2.0137 0.9654
-3.6624 7.7417 -2.0128 0.9654
-4.3360 7.3808 -2.0118 0.9654
-4.9742 6.9612 -2.0108 0.9655
-5.5719 6.4863 -2.0097 0.9655
-6.1244 5.9602 -2.0085 0.9655
-7.8015 3.4345 -2.0033 0.9656
-8.0712 2.7234 -2.0020 0.9656
-8.2989 -1.7710 -1.9943 0.9657
-7.8438 -3.2132 -1.9922 0.9658
-7.5224 -3.8979 -1.9912 0.9658
-6.7048 -5.1676 -1.9895 0.9658
-6.2152 -5.7428 -1.9888 0.9658
-3.5369 -7.0015 -1.8436 0.9683
-2.8984 -7.2884 -1.8434 0.9683
-0.1678 -7.8441 -1.8440 0.9683
2.0648 -8.2079 -1.9891 0.9658
2.7894 -7.9941 -1.9899 0.9658
3.4925 -7.7169 -1.9907 0.9658
4.1686 -7.3782 -1.9917 0.9658
4.8123 -6.9807 -1.9927 0.9658
5.4185 -6.5274 -1.9938 0.9657
5.9823 -6.0218 -1.9949 0.9657
8.2499 -2.1331 -2.0027 0.9656
8.4129 -1.3900 -2.0040 0.9656
8.5089 -0.6347 -2.0053 0.9655
8.5086 0.1261 -1.9999 0.9656
7.7431 0.8089 -1.8297 0.9685
7.5895 2.2042 -1.8574 0.9680
6.7457 4.1403 -1.8602 0.9680
5.4154 5.7842 -1.8622 0.9680
4.8794 6.2456 -1.8627 0.9680
3.0539 7.3174 -1.8635 0.9679
2.3894 7.5608 -1.8636 0.9679
1.7057 7.7434 -1.8635 0.9679
0.3032 7.9213 -1.8631 0.9680
-0.4042 7.9151 -1.8627 0.9680
-1.1080 7.8455 -1.8622 0.9680
-1.8025 7.7130 -1.8616 0.9680
-4.7374 7.1265 -2.0112 0.9654
-5.9212 6.1648 -2.0089 0.9655
-6.4434 5.6090 -2.0077 0.9655
-7.9768 2.9949 -2.0025 0.9656
-8.2065 2.2702 -2.0012 0.9656
-8.4681 0.7756 -1.9985 0.9657
-8.4604 -0.7398 -1.9960 0.9657
-8.3557 -1.4903 -1.9948 0.9657
-8.1849 -2.2281 -1.9936 0.9657
-7.9493 -2.9473 -1.9926 0.9658
-5.8857 -6.0777 -1.9884 0.9658
-3.7713 -6.8785 -1.8436 0.9683
-1.8163 -7.6304 -1.8434 0.9683
-1.1288 -7.7626 -1.8436 0.9683
-0.4323 -7.8334 -1.8438 0.9683
0.2729 -7.9884 -1.8785 0.9677
1.7865 -8.2718 -1.9889 0.9658
3.2297 -7.8290 -1.9904 0.9658
4.5731 -7.1377 -1.9923 0.9658
5.1941 -6.7051 -1.9934 0.9657
5.7745 -6.2188 -1.9945 0.9657
6.3097 -5.6826 -1.9957 0.9657
8.1712 -2.4096 -2.0022 0.9656
8.3591 -1.6726 -2.0035 0.9656
8.4805 -0.9212 -2.0048 0.9656
7.8724 0.5547 -1.8548 0.9681
7.6579 1.9465 -1.8570 0.9681
7.4580 2.6229 -1.8580 0.9680
7.1981 3.2791 -1.8590 0.9680
6.5072 4.5095 -1.8607 0.9680
6.0816 5.0737 -1.8614 0.9680
2.5019 3.5975 -1.0298 0.9822
3.9282 6.8865 -1.8633 0.9679
2.6431 7.4758 -1.8636 0.9679
1.9660 7.6816 -1.8636 0.9679
1.2732 7.8258 -1.8634 0.9679
-0.8427 7.8792 -1.8624 0.9680
-3.1330 7.9737 -2.0135 0.9654
-3.8298 7.6592 -2.0126 0.9654
-4.4952 7.2837 -2.0116 0.9654
-6.2519 5.8245 -2.0082 0.9655
-6.7421 5.2406 -2.0069 0.9655
-7.1779 4.6157 -2.0057 0.9655
-7.5559 3.9548 -2.0043 0.9656
-7.8732 3.2631 -2.0030 0.9656
-8.1273 2.5465 -2.0017 0.9656
-8.4825 -0.4541 -1.9964 0.9657
-8.4031 -1.2078 -1.9952 0.9657
-8.2572 -1.9511 -1.9941 0.9657
-7.7710 -3.3830 -1.9919 0.9658
-7.0402 -4.7051 -1.9901 0.9658
-6.5900 -5.3119 -1.9893 0.9658
-6.0881 -5.8764 -1.9886 0.9658
-5.5384 -6.3939 -1.9881 0.9658
-3.3835 -7.0767 -1.8435 0.9683
-2.7389 -7.3498 -1.8434 0.9683
-2.0727 -7.5647 -1.8434 0.9683
-1.3900 -7.7198 -1.8435 0.9683
-0.6965 -7.8163 -1.8443 0.9683
1.5062 -8.3264 -1.9886 0.9658
3.6602 -7.6398 -1.9910 0.9658
4.3289 -7.2865 -1.9919 0.9658
4.9639 -6.8751 -1.9930 0.9658
5.5602 -6.4087 -1.9941 0.9657
6.1130 -5.8909 -1.9952 0.9657
7.0709 -4.7174 -1.9977 0.9657
7.4682 -4.0708 -1.9990 0.9657
7.8066 -3.3910 -2.0003 0.9656
8.0832 -2.6832 -2.0017 0.9656
8.2958 -1.9532 -2.0030 0.9656
8.4425 -1.2065 -2.0043 0.9656
8.5220 -0.4493 -2.0057 0.9655
7.3033 3.0338 -1.8586 0.9680
6.2484 4.8649 -1.8611 0.9680
5.7918 5.4046 -1.8618 0.9680
4.1581 6.7496 -1.8632 0.9680
2.2241 7.6110 -1.8636 0.9679
0.1305 7.9257 -1.8630 0.9680
-1.2786 7.8189 -1.8620 0.9680
-2.1252 8.2757 -2.0081 0.9655
-4.2477 7.4326 -2.0120 0.9654
-4.8909 7.0206 -2.0109 0.9655
2.3163 6.8094 -1.8623 0.9707
1.6999 6.9886 -1.8622 0.9707
1.0699 7.1119 -1.8621 0.9707
0.4315 7.1780 -1.8619 0.9707
-0.2101 7.1866 -1.8615 0.9707
-0.8499 7.1376 -1.8611 0.9707
-1.4824 7.0315 -1.8606 0.9707
-2.2758 7.4343 -2.0130 0.9684
-3.5572 6.9065 -2.0115 0.9684
-4.1570 6.5589 -2.0106 0.9684
-4.7229 6.1591 -2.0096 0.9684
-5.2505 5.7105 -2.0085 0.9685
-5.7356 5.2168 -2.0074 0.9685
-7.1805 2.8759 -2.0027 0.9685
-7.4038 2.2229 -2.0015 0.9686
-7.5680 1.5530 -2.0003 0.9686
-7.4756 -1.8610 -1.9946 0.9687
-6.7072 -3.7678 -1.9918 0.9687
-5.9270 -4.8955 -1.9904 0.9687
-4.9605 -5.8671 -1.9893 0.9688
-4.4167 -6.2847 -1.9889 0.9688
-3.8382 -6.6524 -1.9886 0.9688
-3.1581 -6.8135 -1.9444 0.9694
-2.5085 -6.9856 -1.9218 0.9698
-1.8826 -7.2079 -1.9288 0.9697
-1.2465 -7.4310 -1.9509 0.9693
0.0949 -7.6812 -1.9890 0.9688
0.7796 -7.6439 -1.9894 0.9688
1.4584 -7.5459 -1.9899 0.9687
2.1260 -7.3882 -1.9906 0.9687
2.7773 -7.1718 -1.9913 0.9687
4.0103 -6.5700 -1.9929 0.9687
4.5822 -6.1892 -1.9939 0.9687
5.1184 -5.7590 -1.9949 0.9687
6.4708 -4.2061 -1.9982 0.9686
7.1235 -2.9935 -2.0006 0.9686
7.3665 -2.3479 -2.0018 0.9686
7.5510 -1.6828 -2.0031 0.9685
7.7391 -0.3153 -2.0055 0.9685
7.7172 0.3751 -2.0005 0.9686
7.0968 0.9845 -1.8551 0.9708
6.9845 1.6142 -1.8561 0.9708
6.5933 2.8318 -1.8579 0.9708
6.3174 3.4099 -1.8587 0.9708
5.9906 3.9611 -1.8595 0.9708
5.6156 4.4811 -1.8602 0.9708
3.1342 6.4733 -1.8622 0.9707
2.5447 6.7273 -1.8623 0.9707
1.9347 6.9274 -1.8623 0.9707
1.3093 7.0720 -1.8622 0.9707
0.6735 7.1598 -1.8620 0.9707
-2.0197 7.4920 -2.0091 0.9684
-3.3227 7.0237 -2.0118 0.9684
-5.0558 5.8856 -2.0089 0.9684
-6.0142 4.8887 -2.0067 0.9685
-6.4224 4.3305 -2.0056 0.9685
-6.7790 3.7385 -2.0044 0.9685
-7.0810 3.1173 -2.0032 0.9685
-7.3263 2.4720 -2.0020 0.9686
-7.6396 1.1301 -1.9996 0.9686
-7.7054 0.4442 -1.9984 0.9686
-7.5356 -1.6081 -1.9950 0.9687
-7.3584 -2.2724 -1.9940 0.9687
-6.8315 -3.5399 -1.9922 0.9687
-6.4861 -4.1332 -1.9914 0.9687
-6.0895 -4.6933 -1.9906 0.9687
-5.6450 -5.2159 -1.9900 0.9687
-5.1561 -5.6969 -1.9895 0.9688
-2.7472 -6.9082 -1.9249 0.9697
-0.8414 -7.5717 -1.9725 0.9690
0.5212 -7.6651 -1.9892 0.9688
1.2028 -7.5900 -1.9897 0.9687
1.8753 -7.4548 -1.9903 0.9687
3.1718 -7.0083 -1.9918 0.9687
3.7857 -6.7004 -1.9926 0.9687
4.3700 -6.3391 -1.9935 0.9687
4.9203 -5.9272 -1.9945 0.9687
5.9011 -4.9644 -1.9967 0.9686
6.6967 -3.8419 -1.9990 0.9686
7.0168 -3.2314 -2.0002 0.9686
7.2814 -2.5945 -2.0014 0.9686
7.0336 1.3773 -1.8557 0.9708
6.1199 3.7562 -1.8592 0.9708
5.3593 4.7868 -1.8605 0.9707
4.4262 5.6655 -1.8615 0.9707
3.3506 6.3636 -1.8621 0.9707
2.7701 6.6375 -1.8622 0.9707
-0.3666 7.1800 -1.8614 0.9707
-1.0051 7.1170 -1.8610 0.9707
-1.6948 7.2521 -1.9283 0.9697
-2.4370 7.3823 -2.0129 0.9684
-3.0843 7.1329 -2.0121 0.9684
-5.3730 5.5941 -2.0083 0.9685
-5.8471 5.0899 -2.0072 0.9685
-6.2741 4.5457 -2.0060 0.9685
-6.6505 3.9659 -2.0049 0.9685
-7.2404 2.7184 -2.0024 0.9685
-7.5989 1.3876 -2.0000 0.9686
-7.7154 0.0159 -1.9977 0.9686
-7.2188 -2.6765 -1.9934 0.9687
-6.9482 -3.3079 -1.9925 0.9687
-3.6923 -6.7343 -1.9885 0.9688
-2.9936 -6.8457 -1.9345 0.9696
-2.3561 -7.0399 -1.9221 0.9698
-1.7287 -7.2621 -1.9328 0.9696
-1.0886 -7.4860 -1.9586 0.9692
-0.4232 -7.6692 -1.9887 0.9688
0.2623 -7.6777 -1.9891 0.9688
1.6226 -7.5129 -1.9901 0.9687
3.5569 -6.8232 -1.9923 0.9687
4.1529 -6.4818 -1.9932 0.9687
5.7290 -5.1596 -1.9962 0.9686
6.5618 -4.0647 -1.9985 0.9686
7.1881 -2.8380 -2.0009 0.9686
7.4170 -2.1872 -2.0021 0.9686
7.5870 -1.5181 -2.0034 0.9685
7.5590 0.5327 -1.9620 0.9692
6.7669 2.3799 -1.8573 0.9708
6.5308 2.9751 -1.8581 0.9708
6.2422 3.5471 -1.8589 0.9708
2.4726 3.5554 -1.1213 0.9823
3.5633 6.2467 -1.8620 0.9707
2.9924 6.5401 -1.8622 0.9707
2.3975 6.7812 -1.8623 0.9707
1.1549 7.0987 -1.8621 0.9707
-0.1242 7.1888 -1.8616 0.9707
-1.3983 7.0490 -1.8607 0.9707
-2.1853 7.4562 -2.0117 0.9684
-2.8424 7.2340 -2.0124 0.9684
-4.0785 6.6085 -2.0107 0.9684
-4.6492 6.2155 -2.0097 0.9684
-5.1822 5.7733 -2.0087 0.9685
-5.6733 5.2854 -2.0076 0.9685
-6.5143 4.1890 -2.0053 0.9685
-6.8578 3.5894 -2.0041 0.9685
-7.6613 0.9633 -1.9993 0.9686
-7.7121 0.2762 -1.9981 0.9686
-7.4978 -1.7717 -1.9948 0.9687
-7.3063 -2.4319 -1.9938 0.9687
-7.0571 -3.0722 -1.9928 0.9687
-6.7521 -3.6875 -1.9920 0.9687
-5.9853 -4.8245 -1.9905 0.9687
-5.5296 -5.3373 -1.9899 0.9687
-5.0304 -5.8075 -1.9893 0.9688
-3.9175 -6.6062 -1.9886 0.9688
-3.2522 -6.8021 -1.9521 0.9693
-2.5929 -6.9579 -1.9226 0.9698
0.0031 -7.6816 -1.9889 0.9688
1.3680 -7.5625 -1.9899 0.9687
2.0375 -7.4127 -1.9905 0.9687
3.3241 -6.9382 -1.9920 0.9687
3.9312 -6.6171 -1.9928 0.9687
5.5505 -5.3488 -1.9958 0.9687
6.4196 -4.2828 -1.9981 0.9686
7.3373 -2.4356 -2.0017 0.9686
7.5298 -1.7728 -2.0029 0.9685
7.6625 -1.0951 -2.0041 0.9685
7.7342 -0.4078 -2.0053 0.9685
7.1076 0.8995 -1.8550 0.9708
7.0028 1.5304 -1.8560 0.9708
6.8420 2.1498 -1.8569 0.9708
5.6685 4.4134 -1.8601 0.9708
5.2541 4.9028 -1.8607 0.9707
4.7974 5.3532 -1.8612 0.9707
3.7718 6.1226 -1.8619 0.9707
3.2113 6.4352 -1.8621 0.9707
2.0174 6.9038 -1.8623 0.9707
0.7591 7.1513 -1.8620 0.9707
-1.1599 7.0929 -1.8609 0.9707
-1.9286 7.5101 -2.0076 0.9685
-2.5971 7.3268 -2.0127 0.9684
1.5538 6.3881 -1.8612 0.9730
0.9780 6.5008 -1.8610 0.9730
0.3945 6.5613 -1.8608 0.9730
-0.1921 6.5693 -1.8605 0.9730
-0.7769 6.5246 -1.8601 0.9731
-1.3760 6.5264 -1.8882 0.9727
-2.0805 6.7962 -2.0121 0.9709
-2.6772 6.5814 -2.0114 0.9709
-4.3181 5.6313 -2.0089 0.9709
-4.8007 5.2214 -2.0080 0.9709
-5.2446 4.7702 -2.0070 0.9710
-5.6460 4.2814 -2.0059 0.9710
-6.0021 3.7589 -2.0049 0.9710
-6.3099 3.2071 -2.0038 0.9710
-6.9221 1.4205 -2.0004 0.9711
-7.0399 -0.4613 -1.9972 0.9711
-6.9672 -1.0866 -1.9962 0.9711
-6.6572 -2.3046 -1.9943 0.9711
-6.1370 -3.4475 -1.9927 0.9712
-5.0011 -4.9440 -1.9908 0.9712
-3.5124 -6.0878 -1.9897 0.9712
-2.3750 -6.6139 -1.9894 0.9712
-1.7759 -6.7994 -1.9894 0.9712
0.0869 -7.0291 -1.9901 0.9712
0.7134 -6.9948 -1.9905 0.9712
1.3345 -6.9050 -1.9909 0.9712
1.9454 -6.7605 -1.9915 0.9712
4.6827 -5.2687 -1.9955 0.9711
6.2420 -3.3062 -1.9996 0.9711
6.5155 -2.7380 -2.0007 0.9710
6.7374 -2.1474 -2.0018 0.9710
6.9058 -1.5390 -2.0030 0.9710
6.5550 0.9093 -1.8734 0.9729
6.3862 1.4759 -1.8555 0.9731
6.2321 2.0403 -1.8564 0.9731
6.0279 2.5890 -1.8572 0.9731
5.7754 3.1174 -1.8580 0.9731
5.4765 3.6212 -1.8586 0.9731
5.1335 4.0964 -1.8593 0.9731
4.7492 4.5391 -1.8598 0.9731
4.3266 4.9457 -1.8602 0.9731
3.3806 5.6375 -1.8609 0.9730
1.7685 6.3321 -1.8612 0.9730
0.6156 6.5446 -1.8609 0.9730
-0.5563 6.5477 -1.8603 0.9731
-1.1376 6.4705 -1.8598 0.9731
-3.0377 6.4211 -2.0109 0.9709
-4.1264 5.7747 -2.0093 0.9709
-4.6227 5.3813 -2.0083 0.9709
-5.0816 4.9453 -2.0073 0.9710
-6.4759 2.8509 -2.0031 0.9710
-6.7006 2.2609 -2.0020 0.9710
-6.8717 1.6536 -2.0009 0.9710
-6.9879 1.0337 -1.9998 0.9711
-7.0484 0.4064 -1.9987 0.9711
-7.0528 -0.2236 -1.9976 0.9711
-6.8941 -1.4712 -1.9956 0.9711
-6.5172 -2.6698 -1.9938 0.9711
-6.2507 -3.2389 -1.9930 0.9712
-5.9348 -3.7819 -1.9922 0.9712
-5.5721 -4.2946 -1.9916 0.9712
-4.7182 -5.2131 -1.9905 0.9712
-4.2338 -5.6119 -1.9901 0.9712
-3.7160 -5.9661 -1.9898 0.9712
-2.0042 -6.7356 -1.9894 0.9712
-1.3958 -6.8877 -1.9895 0.9712
-0.7762 -6.9853 -1.9897 0.9712
1.7160 -6.8215 -1.9913 0.9712
2.9022 -6.4125 -1.9926 0.9712
4.5015 -5.4227 -1.9951 0.9711
5.3983 -4.5415 -1.9971 0.9711
5.7848 -4.0442 -1.9981 0.9711
6.4180 -2.9557 -2.0003 0.9711
6.8485 -1.7707 -2.0025 0.9710
6.9908 0.7303 -1.9898 0.9712
6.4312 1.2593 -1.8552 0.9731
5.8765 2.9203 -1.8577 0.9731
5.5948 3.4339 -1.8584 0.9731
4.8991 4.3758 -1.8596 0.9731
2.6713 3.4193 -1.2284 0.9821
3.5687 5.5199 -1.8608 0.9730
0.8361 6.5204 -1.8610 0.9730
0.2514 6.5681 -1.8608 0.9730
-0.9188 6.5058 -1.8600 0.9731
-2.2279 6.7487 -2.0119 0.9709
-3.9299 5.9117 -2.0096 0.9709
-4.9128 5.1149 -2.0077 0.9709
-5.3466 4.6542 -2.0067 0.9710
-7.0578 0.0145 -1.9980 0.9711
-6.6047 -2.4488 -1.9941 0.9711
-6.3574 -3.0267 -1.9933 0.9712
-5.3242 -4.5964 -1.9912 0.9712
-3.3789 -6.1627 -1.9896 0.9712
-1.6273 -6.8365 -1.9894 0.9712
0.2400 -7.0259 -1.9901 0.9712
1.4847 -6.8748 -1.9911 0.9712
2.0924 -6.7170 -1.9917 0.9712
2.6838 -6.5059 -1.9923 0.9712
3.7997 -5.9305 -1.9939 0.9711
4.3152 -5.5705 -1.9948 0.9711
4.7969 -5.1660 -1.9957 0.9711
5.2410 -4.7201 -1.9967 0.9711
5.6439 -4.2362 -1.9977 0.9711
6.0023 -3.7181 -1.9988 0.9711
6.3134 -3.1699 -1.9999 0.9711
6.5745 -2.5958 -2.0010 0.9710
7.0826 -0.1341 -2.0054 0.9710
6.1868 2.1759 -1.8566 0.9731
5.9707 2.7200 -1.8574 0.9731
5.7067 3.2428 -1.8581 0.9731
5.3968 3.7400 -1.8588 0.9731
4.6495 4.6418 -1.8599 0.9731
4.2181 5.0390 -1.8603 0.9731
3.2571 5.7100 -1.8609 0.9730
1.0557 6.4887 -1.8611 0.9730
0.4729 6.5563 -1.8609 0.9730
-1.9988 6.8196 -2.0118 0.9709
-2.5985 6.6132 -2.0115 0.9709
-4.2507 5.6828 -2.0090 0.9709
-5.1875 4.8329 -2.0071 0.9710
-5.5949 4.3489 -2.0061 0.9710
-5.9571 3.8307 -2.0050 0.9710
-6.7474 2.1141 -2.0017 0.9710
-7.0547 0.2527 -1.9984 0.9711
-7.0454 -0.3771 -1.9974 0.9711
-6.9802 -1.0033 -1.9963 0.9711
-6.6846 -2.2250 -1.9945 0.9711
-6.1781 -3.3740 -1.9928 0.9712
-5.8505 -3.9100 -1.9921 0.9712
-5.4768 -4.4146 -1.9914 0.9712
-5.0600 -4.8840 -1.9909 0.9712
-4.6033 -5.3144 -1.9904 0.9712
-4.1103 -5.7026 -1.9900 0.9712
-3.0314 -6.3404 -1.9895 0.9712
-0.6238 -7.0008 -1.9897 0.9712
0.0028 -7.0295 -1.9900 0.9712
1.2518 -6.9202 -1.9909 0.9712
3.5969 -6.0543 -1.9936 0.9711
4.6191 -5.3240 -1.9954 0.9711
5.0778 -4.8933 -1.9963 0.9711
5.4967 -4.4233 -1.9974 0.9711
6.4818 -2.8155 -2.0006 0.9710
7.0074 -1.0014 -2.0039 0.9710
7.0727 -0.3729 -2.0050 0.9710
7.0792 0.2592 -2.0054 0.9710
6.2556 1.9656 -1.8563 0.9731
6.0581 2.5166 -1.8571 0.9731
5.8120 3.0479 -1.8579 0.9731
5.5192 3.5553 -1.8586 0.9731
5.1819 4.0346 -1.8592 0.9731
4.3853 4.8935 -1.8602 0.9731
2.3993 6.1209 -1.8612 0.9730
1.8441 6.3106 -1.8612 0.9730
1.2740 6.4496 -1.8611 0.9730
0.6939 6.5369 -1.8609 0.9730
0.1082 6.5718 -1.8607 0.9730
-0.4780 6.5541 -1.8603 0.9731
-1.0602 6.4838 -1.8599 0.9731
-2.9608 6.4573 -2.0110 0.9709
-3.5234 6.1652 -2.0102 0.9709
0.8997 5.9803 -1.8601 0.9750
-0.1767 6.0435 -1.8596 0.9750
-0.7147 6.0025 -1.8593 0.9750
-1.3444 6.3768 -2.0045 0.9731
-1.9141 6.2526 -2.0113 0.9730
-2.4631 6.0551 -2.0106 0.9730
-2.9922 5.8094 -2.0099 0.9730
-3.4969 5.5174 -2.0092 0.9730
-3.9733 5.1815 -2.0083 0.9730
-4.8261 4.3895 -2.0066 0.9731
-6.0441 2.4208 -2.0026 0.9731
-6.4593 0.7338 -1.9995 0.9732
-6.4958 0.1549 -1.9985 0.9732
-6.4806 -0.4247 -1.9976 0.9732
-6.4140 -1.0003 -1.9967 0.9732
-5.6505 -3.1742 -1.9934 0.9732
-5.3432 -3.6641 -1.9928 0.9733
-4.6050 -4.5524 -1.9917 0.9733
-4.1798 -4.9438 -1.9912 0.9733
-3.7218 -5.2958 -1.9909 0.9733
-3.2344 -5.6058 -1.9906 0.9733
-2.7214 -5.8714 -1.9905 0.9733
-2.1870 -6.0904 -1.9904 0.9733
-1.0706 -6.3824 -1.9905 0.9733
-0.4973 -6.4530 -1.9907 0.9733
0.6569 -6.4409 -1.9913 0.9733
2.3398 -6.0422 -1.9929 0.9732
2.8702 -5.8115 -1.9936 0.9732
3.8597 -5.2133 -1.9951 0.9732
4.7284 -4.4488 -1.9969 0.9732
5.1087 -4.0114 -1.9978 0.9732
5.4486 -3.5417 -1.9988 0.9732
5.7456 -3.0433 -1.9998 0.9732
5.9970 -2.5202 -2.0008 0.9731
6.2010 -1.9764 -2.0018 0.9731
6.3558 -1.4164 -2.0029 0.9731
6.4601 -0.8445 -2.0039 0.9731
6.5129 -0.2653 -2.0049 0.9731
6.5138 0.3166 -2.0059 0.9731
6.4397 0.8933 -1.9997 0.9732
5.5463 2.3821 -1.8566 0.9751
5.0386 3.3316 -1.8579 0.9750
4.7229 3.7688 -1.8585 0.9750
4.3692 4.1759 -1.8590 0.9750
2.5171 3.4562 -1.3151 0.9823
2.6355 5.4433 -1.8602 0.9750
1.6269 5.8251 -1.8603 0.9750
0.0273 6.0464 -1.8598 0.9750
-1.7010 6.3098 -2.0100 0.9730
-2.7948 5.9078 -2.0102 0.9730
-5.4048 3.6443 -2.0050 0.9731
-5.7053 3.1464 -2.0040 0.9731
-5.9601 2.6238 -2.0030 0.9731
-6.1672 2.0809 -2.0020 0.9731
-6.3249 1.5220 -2.0009 0.9731
-6.4321 0.9515 -1.9999 0.9732
-6.4881 0.3741 -1.9989 0.9732
-6.4925 -0.2058 -1.9979 0.9732
-6.4452 -0.7835 -1.9970 0.9732
-6.3468 -1.3544 -1.9961 0.9732
-5.7551 -2.9821 -1.9937 0.9732
-5.1306 -3.9543 -1.9924 0.9733
-3.8986 -5.1676 -1.9910 0.9733
-3.4218 -5.4938 -1.9907 0.9733
-2.3913 -6.0132 -1.9904 0.9733
-1.8456 -6.2024 -1.9904 0.9733
-1.2853 -6.3425 -1.9905 0.9733
0.4392 -6.4589 -1.9912 0.9733
1.0135 -6.3953 -1.9916 0.9733
1.5801 -6.2811 -1.9921 0.9733
2.1344 -6.1170 -1.9927 0.9733
2.6722 -5.9042 -1.9933 0.9732
3.6811 -5.3397 -1.9948 0.9732
4.5749 -4.6050 -1.9965 0.9732
5.9075 -2.7205 -2.0004 0.9731
6.1296 -2.1841 -2.0015 0.9731
6.3032 -1.6297 -2.0025 0.9731
6.4266 -1.0618 -2.0035 0.9731
5.7934 1.6826 -1.8556 0.9751
5.6226 2.1933 -1.8563 0.9751
5.4068 2.6869 -1.8570 0.9750
5.1475 3.1594 -1.8577 0.9750
4.8468 3.6069 -1.8583 0.9750
4.5072 4.0258 -1.8588 0.9750
2.6601 3.4049 -1.3290 0.9821
2.8175 5.3511 -1.8601 0.9750
-0.8453 5.9852 -1.8592 0.9750
-3.1177 5.7423 -2.0097 0.9730
-3.6159 5.4394 -2.0090 0.9730
-4.0848 5.0932 -2.0081 0.9730
-4.5206 4.7066 -2.0073 0.9731
-5.2797 3.8253 -2.0054 0.9731
-5.8693 2.8240 -2.0034 0.9731
-6.0946 2.2882 -2.0023 0.9731
-6.2711 1.7348 -2.0013 0.9731
-6.3976 1.1682 -2.0003 0.9732
-6.4730 0.5929 -1.9993 0.9732
-6.4691 -0.5657 -1.9974 0.9732
-6.3900 -1.1397 -1.9964 0.9732
-6.2602 -1.7041 -1.9956 0.9732
-6.0808 -2.2545 -1.9947 0.9732
-5.8533 -2.7866 -1.9940 0.9732
-5.5795 -3.2963 -1.9933 0.9732
-4.9024 -4.2323 -1.9920 0.9733
-4.0710 -5.0334 -1.9912 0.9733
-3.6054 -5.3755 -1.9908 0.9733
-1.4985 -6.2954 -1.9904 0.9733
-0.3566 -6.4625 -1.9908 0.9733
1.3671 -6.3302 -1.9919 0.9733
2.4711 -5.9902 -1.9931 0.9732
2.9964 -5.7481 -1.9938 0.9732
3.4983 -5.4601 -1.9945 0.9732
3.9728 -5.1285 -1.9953 0.9732
4.4161 -4.7559 -1.9962 0.9732
4.8248 -4.3452 -1.9971 0.9732
5.8112 -2.9177 -2.0000 0.9732
6.2434 -1.8411 -2.0021 0.9731
6.3859 -1.2778 -2.0031 0.9731
6.5179 -0.1234 -2.0051 0.9731
6.5043 0.4583 -2.0056 0.9731
5.6926 2.0020 -1.8560 0.9751
5.2505 2.9835 -1.8574 0.9750
4.9652 3.4409 -1.8581 0.9750
4.6400 3.8710 -1.8586 0.9750
4.2774 4.2704 -1.8591 0.9750
3.8805 4.6358 -1.8595 0.9750
2.4270 3.4898 -1.3074 0.9824
2.9964 5.2528 -1.8600 0.9750
2.5163 5.4995 -1.8602 0.9750
0.9711 5.9692 -1.8601 0.9750
0.4350 6.0314 -1.8600 0.9750
-0.1044 6.0453 -1.8597 0.9750
-2.9226 5.8450 -2.0100 0.9730
-3.4308 5.5591 -2.0093 0.9730
-4.3600 4.8573 -2.0076 0.9731
-5.1486 4.0020 -2.0057 0.9731
-5.7718 3.0209 -2.0037 0.9731
-6.0151 2.4930 -2.0027 0.9731
-6.2103 1.9458 -2.0017 0.9731
-6.3558 1.3837 -2.0007 0.9731
-6.4505 0.8110 -1.9997 0.9732
-6.3151 -1.4922 -1.9959 0.9732
-5.9448 -2.5880 -1.9942 0.9732
-5.6883 -3.1065 -1.9935 0.9732
-5.3869 -3.6001 -1.9928 0.9732
-5.0429 -4.0649 -1.9923 0.9733
-4.2387 -4.8936 -1.9913 0.9733
-3.3012 -5.5669 -1.9907 0.9733
-2.2597 -6.0639 -1.9904 0.9733
-1.7100 -6.2412 -1.9904 0.9733
-0.5745 -6.4465 -1.9907 0.9733
0.0026 -6.4730 -1.9909 0.9733
1.1527 -6.3721 -1.9917 0.9733
2.2673 -6.0695 -1.9928 0.9732
2.8004 -5.8451 -1.9935 0.9732
3.3116 -5.5742 -1.9942 0.9732
4.2525 -4.9014 -1.9959 0.9732
5.0600 -4.0719 -1.9977 0.9732
5.4055 -3.6063 -1.9987 0.9732
5.7084 -3.1115 -1.9997 0.9732
5.9661 -2.5915 -2.0007 0.9731
6.5088 -0.3432 -2.0047 0.9731
5.8918 1.2876 -1.8549 0.9751
5.5741 2.3155 -1.8565 0.9751
5.3474 2.8043 -1.8572 0.9750
5.0779 3.2710 -1.8578 0.9750
4.7674 3.7119 -1.8584 0.9750
3.1717 5.1485 -1.8600 0.9750
2.7004 5.4114 -1.8601 0.9750
2.2072 5.6309 -1.8602 0.9750
1.6964 5.8053 -1.8603 0.9750
1.1720 5.9332 -1.8602 0.9750
0.6383 6.0136 -1.8600 0.9750
0.0996 6.0458 -1.8598 0.9750
-2.7241 5.9411 -2.0103 0.9730
-3.2418 5.6725 -2.0096 0.9730
-3.7332 5.3588 -2.0088 0.9730
1.8015 5.2959 -1.8595 0.9767
1.3221 5.4354 -1.8594 0.9767
0.8322 5.5313 -1.8593 0.9767
0.3356 5.5829 -1.8591 0.9767
-1.7705 5.7835 -2.0105 0.9748
-3.6756 4.7933 -2.0079 0.9749
-4.4648 4.0610 -2.0062 0.9749
-4.8070 3.6451 -2.0053 0.9749
-5.1105 3.2006 -2.0044 0.9749
-5.5925 2.2399 -2.0025 0.9749
-5.7672 1.7315 -2.0016 0.9749
-5.9361 -0.9258 -1.9970 0.9750
-5.8275 -1.4507 -1.9962 0.9750
-5.6727 -1.9638 -1.9954 0.9750
-5.4730 -2.4608 -1.9947 0.9750
-5.2301 -2.9380 -1.9940 0.9750
-4.9458 -3.3916 -1.9934 0.9750
-4.2626 -4.2140 -1.9924 0.9751
-3.8692 -4.5763 -1.9920 0.9751
-1.5138 -5.7960 -1.9913 0.9751
-0.9911 -5.9082 -1.9914 0.9751
-0.4604 -5.9735 -1.9915 0.9751
0.6081 -5.9621 -1.9921 0.9751
1.6581 -5.7620 -1.9930 0.9750
3.1267 -5.1225 -1.9949 0.9750
3.5723 -4.8251 -1.9956 0.9750
5.0422 -3.2775 -1.9990 0.9750
5.8809 -1.3106 -2.0028 0.9749
5.9771 -0.7814 -2.0037 0.9749
6.0257 -0.2455 -2.0046 0.9749
6.0263 0.2929 -2.0056 0.9749
5.9687 0.8280 -2.0030 0.9749
5.5227 1.2763 -1.8841 0.9764
5.3046 1.7367 -1.8554 0.9767
4.9154 2.6531 -1.8567 0.9767
4.3686 3.4860 -1.8578 0.9767
4.0413 3.8626 -1.8583 0.9767
2.5088 3.4448 -1.4166 0.9822
2.4376 5.0346 -1.8594 0.9767
1.9791 5.2321 -1.8594 0.9767
1.0183 5.5002 -1.8594 0.9767
-0.4734 5.5716 -1.8587 0.9767
-1.0302 5.8595 -1.9776 0.9752
-2.0884 5.6754 -2.0102 0.9748
-2.5853 5.4649 -2.0096 0.9748
-3.9350 4.5808 -2.0074 0.9749
-4.6821 3.8059 -2.0057 0.9749
-5.8527 1.4084 -2.0010 0.9749
-5.9649 -0.7251 -1.9974 0.9750
-5.8740 -1.2535 -1.9965 0.9750
-5.5537 -2.2751 -1.9950 0.9750
-5.3269 -2.7602 -1.9943 0.9750
-4.7491 -3.6602 -1.9931 0.9750
-4.4027 -4.0681 -1.9926 0.9750
-4.0217 -4.4435 -1.9922 0.9751
-3.6088 -4.7835 -1.9918 0.9751
-3.1675 -5.0855 -1.9916 0.9751
-1.7085 -5.7416 -1.9912 0.9751
-1.1898 -5.8712 -1.9913 0.9751
-0.6616 -5.9544 -1.9915 0.9751
-0.1281 -5.9903 -1.9917 0.9751
0.4065 -5.9788 -1.9920 0.9751
0.9382 -5.9199 -1.9924 0.9751
1.9757 -5.6620 -1.9934 0.9750
2.9517 -5.2244 -1.9946 0.9750
3.8356 -4.6205 -1.9961 0.9750
4.2340 -4.2619 -1.9969 0.9750
4.5991 -3.8691 -1.9978 0.9750
4.9279 -3.4452 -1.9987 0.9750
5.2179 -2.9934 -1.9996 0.9750
5.4665 -2.5175 -2.0005 0.9750
5.9463 -0.9824 -2.0034 0.9749
4.7615 2.9224 -1.8571 0.9767
4.4833 3.3363 -1.8576 0.9767
3.8212 4.0815 -1.8585 0.9767
2.6499 3.3919 -1.4308 0.9820
2.1545 5.1623 -1.8594 0.9767
1.6856 5.3339 -1.8595 0.9767
1.2033 5.4629 -1.8594 0.9767
0.7114 5.5480 -1.8593 0.9767
-1.3747 5.8825 -2.0081 0.9749
-1.8959 5.7432 -2.0104 0.9748
-2.3997 5.5497 -2.0098 0.9748
-3.3449 5.0318 -2.0084 0.9749
-4.5517 3.9623 -2.0060 0.9749
-5.1785 3.0881 -2.0042 0.9749
-5.6393 2.1173 -2.0023 0.9749
-5.8029 1.6053 -2.0014 0.9749
-5.9201 1.0810 -2.0004 0.9750
-5.9901 0.5486 -1.9995 0.9750
-6.0124 0.0124 -1.9986 0.9750
-5.9139 -1.0548 -1.9968 0.9750
-5.6281 -2.0867 -1.9953 0.9750
-5.4177 -2.5793 -1.9945 0.9750
-4.8704 -3.4983 -1.9933 0.9750
-0.8621 -5.9285 -1.9914 0.9751
-0.3302 -5.9823 -1.9916 0.9751
1.2655 -5.8596 -1.9927 0.9750
2.2873 -5.5446 -1.9937 0.9750
2.7734 -5.3203 -1.9944 0.9750
4.0872 -4.4016 -1.9966 0.9750
4.8081 -3.6089 -1.9983 0.9750
5.1130 -3.1672 -1.9993 0.9750
5.7770 -1.7036 -2.0021 0.9749
5.9934 -0.6511 -2.0040 0.9749
6.0303 -0.1142 -2.0049 0.9749
5.9442 0.9570 -2.0013 0.9749
5.2660 1.8520 -1.8556 0.9767
5.0818 2.3150 -1.8562 0.9767
4.2919 3.5806 -1.8579 0.9767
2.4190 3.4783 -1.4083 0.9823
1.8646 5.2740 -1.8595 0.9767
1.3870 5.4192 -1.8594 0.9767
0.8982 5.5210 -1.8593 0.9767
0.4024 5.5786 -1.8592 0.9767
-0.5946 5.5597 -1.8586 0.9767
-1.1737 5.9165 -2.0050 0.9749
-2.2114 5.6281 -2.0100 0.9748
-2.7035 5.4068 -2.0094 0.9748
-3.6182 4.8372 -2.0080 0.9749
-4.0335 4.4935 -2.0072 0.9749
-4.7633 3.7025 -2.0054 0.9749
-5.3403 2.7951 -2.0036 0.9749
-5.7464 1.8005 -2.0017 0.9749
-5.9692 0.7505 -1.9998 0.9750
-6.0022 -0.3213 -1.9980 0.9750
-5.8447 -1.3810 -1.9963 0.9750
-5.6961 -1.8959 -1.9955 0.9750
-5.5023 -2.3953 -1.9948 0.9750
-5.2651 -2.8754 -1.9941 0.9750
-4.9862 -3.3324 -1.9935 0.9750
-4.6679 -3.7626 -1.9930 0.9750
-4.3128 -4.1628 -1.9925 0.9751
-3.5036 -4.8608 -1.9917 0.9751
-2.5841 -5.4047 -1.9913 0.9751
0.0024 -5.9919 -1.9917 0.9751
1.0670 -5.8984 -1.9925 0.9751
1.5890 -5.7812 -1.9930 0.9750
3.0651 -5.1593 -1.9948 0.9750
3.9357 -4.5363 -1.9963 0.9750
4.3263 -4.1691 -1.9971 0.9750
4.6828 -3.7684 -1.9980 0.9750
5.2824 -2.8794 -1.9998 0.9750
5.7152 -1.8972 -2.0017 0.9749
5.6320 1.2308 -1.9163 0.9760
4.9465 2.5941 -1.8566 0.9767
4.6970 3.0257 -1.8572 0.9767
4.4098 3.4334 -1.8577 0.9767
3.7316 4.1640 -1.8586 0.9767
2.4976 5.0051 -1.8593 0.9767
2.0415 5.2081 -1.8594 0.9767
1.5690 5.3694 -1.8595 0.9767
0.0921 5.5919 -1.8590 0.9767
-0.4068 5.5770 -1.8587 0.9767
-0.9350 5.7182 -1.9260 0.9759
-2.5199 5.4956 -2.0097 0.9748
1.2284 5.0505 -1.8587 0.9782
-0.6271 5.2672 -1.8969 0.9777
-2.1173 5.2048 -2.0094 0.9764
-3.4158 4.4546 -2.0074 0.9764
-3.7980 4.1308 -2.0067 0.9764
-4.1495 3.7742 -2.0059 0.9765
-4.4677 3.3878 -2.0051 0.9765
-4.9941 2.5383 -2.0034 0.9765
-5.1982 2.0820 -2.0025 0.9765
-5.3608 1.6095 -2.0016 0.9765
-5.4805 1.1247 -2.0007 0.9765
-5.5566 0.6313 -1.9999 0.9765
-5.5883 0.1333 -1.9990 0.9765
-5.2741 -1.8258 -1.9959 0.9766
-5.0886 -2.2880 -1.9952 0.9766
-2.7841 -4.8254 -1.9922 0.9766
-2.3426 -5.0540 -1.9921 0.9766
-1.8826 -5.2426 -1.9920 0.9766
-1.4077 -5.3896 -1.9920 0.9766
0.5654 -5.5439 -1.9928 0.9766
1.0576 -5.4724 -1.9932 0.9766
2.0138 -5.2001 -1.9942 0.9766
2.4701 -5.0013 -1.9947 0.9766
2.9071 -4.7627 -1.9954 0.9766
3.7094 -4.1736 -1.9968 0.9766
4.0683 -3.8277 -1.9976 0.9765
4.6874 -3.0468 -1.9992 0.9765
4.9424 -2.6179 -2.0001 0.9765
5.5555 -0.7263 -2.0036 0.9765
5.6009 0.2722 -2.0053 0.9765
5.5563 0.7708 -2.0060 0.9765
5.4479 1.2591 -1.9996 0.9765
4.9297 1.6140 -1.8550 0.9782
4.7678 2.0478 -1.8556 0.9782
4.3310 2.8638 -1.8567 0.9782
3.4210 3.9105 -1.8580 0.9782
2.5004 3.4333 -1.5189 0.9821
2.6728 4.4571 -1.8585 0.9782
1.3982 5.0062 -1.8588 0.9782
-0.4399 5.1771 -1.8580 0.9782
-2.8448 4.8424 -2.0084 0.9764
-4.0204 3.9126 -2.0062 0.9764
-4.9064 2.7058 -2.0037 0.9765
-5.3043 1.7898 -2.0019 0.9765
-5.4404 1.3091 -2.0011 0.9765
-5.5330 0.8185 -2.0002 0.9765
-5.5454 -0.6741 -1.9977 0.9765
-4.7029 -2.9969 -1.9942 0.9766
-4.4158 -3.4033 -1.9937 0.9766
-3.3557 -4.4480 -1.9925 0.9766
-2.9454 -4.7289 -1.9923 0.9766
-2.5118 -4.9722 -1.9921 0.9766
-1.1064 -5.4595 -1.9920 0.9766
-0.6152 -5.5368 -1.9922 0.9766
-0.1191 -5.5702 -1.9924 0.9766
0.8723 -5.5046 -1.9930 0.9766
1.3600 -5.4060 -1.9935 0.9766
1.8370 -5.2646 -1.9940 0.9766
2.2997 -5.0812 -1.9945 0.9766
3.1676 -4.5950 -1.9958 0.9766
3.9363 -3.9622 -1.9973 0.9766
4.5812 -3.2027 -1.9989 0.9765
4.8505 -2.7827 -1.9998 0.9765
5.2722 -1.8786 -2.0015 0.9765
5.4211 -1.4017 -2.0024 0.9765
5.4939 1.0758 -2.0020 0.9765
5.0215 1.4584 -1.8699 0.9780
4.8336 1.8855 -1.8554 0.9782
4.6478 2.3097 -1.8560 0.9782
4.4247 2.7157 -1.8566 0.9782
4.1660 3.1002 -1.8571 0.9782
3.5507 3.7926 -1.8579 0.9782
2.6410 3.3805 -1.5341 0.9819
2.3923 3.7003 -1.5757 0.9815
1.5663 4.9562 -1.8588 0.9782
1.1181 5.0760 -1.8587 0.9782
0.6610 5.1551 -1.8586 0.9782
-0.2650 5.1893 -1.8582 0.9782
-2.2300 5.1571 -2.0092 0.9764
-3.1085 4.6761 -2.0080 0.9764
-3.5118 4.3787 -2.0072 0.9764
-3.8867 4.0466 -2.0065 0.9764
-4.2303 3.6825 -2.0057 0.9765
-4.5400 3.2893 -2.0049 0.9765
-5.2418 1.9680 -2.0023 0.9765
-5.5032 1.0049 -2.0005 0.9765
-5.5658 -0.4867 -1.9980 0.9765
-5.3867 -1.4664 -1.9964 0.9766
-5.0372 -2.3981 -1.9951 0.9766
-4.5285 -3.2527 -1.9939 0.9766
-4.2195 -3.6426 -1.9934 0.9766
-3.8770 -4.0035 -1.9930 0.9766
-2.6782 -4.8848 -1.9922 0.9766
-2.2319 -5.1038 -1.9920 0.9766
-1.7679 -5.2823 -1.9920 0.9766
-1.2899 -5.4190 -1.9920 0.9766
-0.3070 -5.5627 -1.9923 0.9766
0.1902 -5.5687 -1.9926 0.9766
0.6861 -5.5305 -1.9929 0.9766
1.1767 -5.4484 -1.9933 0.9766
2.5787 -4.9467 -1.9949 0.9766
3.7998 -4.0922 -1.9970 0.9766
4.4698 -3.3549 -1.9986 0.9765
4.7531 -2.9443 -1.9994 0.9765
4.9988 -2.5099 -2.0003 0.9765
5.3698 -1.5835 -2.0020 0.9765
5.5706 -0.6051 -2.0038 0.9765
5.6047 -0.1061 -2.0047 0.9765
5.5942 0.3942 -2.0055 0.9765
5.5337 0.8909 -2.0044 0.9765
4.7225 2.1513 -1.8558 0.9782
4.5133 2.5646 -1.8563 0.9782
4.2678 2.9576 -1.8569 0.9782
3.6764 3.6703 -1.8577 0.9782
3.3351 3.9842 -1.8581 0.9782
2.4110 3.4668 -1.5101 0.9822
2.1625 4.7264 -1.8587 0.9782
1.7326 4.9005 -1.8588 0.9782
1.2887 5.0354 -1.8587 0.9782
0.8346 5.1300 -1.8587 0.9782
-0.0898 5.1956 -1.8583 0.9782
-1.5809 5.3938 -2.0100 0.9764
-2.0550 5.2300 -2.0095 0.9764
-2.9493 4.7789 -2.0082 0.9764
-3.7485 4.1761 -2.0068 0.9764
-4.1043 3.8237 -2.0060 0.9765
-4.4271 3.4412 -2.0052 0.9765
-5.1733 2.1441 -2.0026 0.9765
-5.4670 1.1902 -2.0008 0.9765
-5.5867 0.2001 -1.9991 0.9765
-5.5288 -0.7947 -1.9975 0.9766
-5.4339 -1.2840 -1.9967 0.9766
-5.2958 -1.7627 -1.9960 0.9766
-5.1158 -2.2271 -1.9953 0.9766
-4.8953 -2.6735 -1.9947 0.9766
-2.8416 -4.7918 -1.9922 0.9766
-2.4028 -5.0257 -1.9921 0.9766
-0.9872 -5.4824 -1.9921 0.9766
-0.4945 -5.5490 -1.9922 0.9766
0.9921 -5.4845 -1.9931 0.9766
1.4775 -5.3754 -1.9936 0.9766
1.9514 -5.2236 -1.9941 0.9766
2.4100 -5.0303 -1.9947 0.9766
2.8498 -4.7969 -1.9953 0.9766
3.6591 -4.2175 -1.9967 0.9766
4.0221 -3.8759 -1.9975 0.9766
4.9105 -2.6766 -2.0000 0.9765
5.4510 -1.2834 -2.0026 0.9765
5.5461 -0.7926 -2.0035 0.9765
5.5971 -0.2951 -2.0043 0.9765
5.5651 0.7043 -2.0060 0.9765
5.4649 1.1943 -2.0004 0.9765
4.3647 2.8117 -1.8567 0.9782
4.0977 3.1905 -1.8572 0.9782
3.4674 3.8692 -1.8580 0.9782
2.5499 3.4147 -1.5240 0.9821
2.7259 4.4248 -1.8585 0.9782
0.5486 5.1682 -1.8586 0.9782
0.0856 5.1960 -1.8584 0.9782
-0.3791 5.1976 -1.8636 0.9781
-0.9044 5.5305 -2.0040 0.9765
-1.3981 5.4445 -2.0102 0.9764
-1.8775 5.2969 -2.0097 0.9764
-2.3417 5.1069 -2.0091 0.9764
-2.7868 4.8763 -2.0085 0.9764
-3.2094 4.6068 -2.0078 0.9764
1.1460 4.7114 -1.8581 0.9794
-1.0817 5.1309 -2.0095 0.9778
-1.5348 5.0138 -2.0094 0.9778
-1.9753 4.8558 -2.0089 0.9778
-2.3996 4.6590 -2.0083 0.9778
-2.8046 4.4252 -2.0077 0.9778
-3.1870 4.1561 -2.0070 0.9778
-3.8717 3.5215 -2.0056 0.9778
-4.6601 2.3685 -2.0033 0.9779
-4.8507 1.9428 -2.0024 0.9779
-5.0567 -1.2589 -1.9970 0.9779
-4.9226 -1.7041 -1.9963 0.9779
-4.0119 -3.3137 -1.9941 0.9780
-3.3583 -3.9721 -1.9933 0.9780
-2.9904 -4.2551 -1.9930 0.9780
-2.1867 -4.7178 -1.9927 0.9780
-1.7573 -4.8938 -1.9926 0.9780
-1.3140 -5.0310 -1.9926 0.9780
-0.8602 -5.1283 -1.9927 0.9780
-0.3996 -5.1850 -1.9929 0.9780
0.0643 -5.2006 -1.9931 0.9780
0.9872 -5.1082 -1.9938 0.9780
3.0999 -4.1871 -1.9965 0.9779
3.4621 -3.8953 -1.9971 0.9779
4.1019 -3.2209 -1.9986 0.9779
4.3745 -2.8435 -1.9994 0.9779
5.1839 -0.6777 -2.0035 0.9779
5.2258 -0.2129 -2.0043 0.9778
5.1845 0.7192 -2.0058 0.9778
4.2614 2.3002 -1.8558 0.9795
4.0405 2.6717 -1.8563 0.9795
2.1129 4.3640 -1.8581 0.9794
1.7155 4.5352 -1.8581 0.9794
0.0219 4.8477 -1.8577 0.9794
-0.4233 4.9823 -1.9162 0.9788
-0.9069 5.1579 -2.0069 0.9778
-1.3649 5.0631 -2.0096 0.9778
-1.8105 4.9201 -2.0091 0.9778
-2.2413 4.7378 -2.0085 0.9778
-3.0453 4.2618 -2.0073 0.9778
-3.4120 3.9720 -2.0066 0.9778
-4.0602 3.3004 -2.0051 0.9778
-4.3366 2.9241 -2.0044 0.9778
-4.9498 1.6702 -2.0019 0.9779
-5.0769 1.2217 -2.0011 0.9779
-5.1635 0.7639 -2.0003 0.9779
-5.2090 0.3003 -1.9995 0.9779
-5.2129 -0.1652 -1.9987 0.9779
-5.1755 -0.6291 -1.9979 0.9779
-5.0969 -1.0877 -1.9972 0.9779
-4.9779 -1.5372 -1.9965 0.9779
-4.8195 -1.9743 -1.9959 0.9779
-4.3897 -2.7973 -1.9947 0.9779
-4.1218 -3.1768 -1.9942 0.9780
-3.8213 -3.5308 -1.9938 0.9780
-3.4906 -3.8568 -1.9934 0.9780
-3.1324 -4.1520 -1.9931 0.9780
-2.7494 -4.4142 -1.9929 0.9780
-2.3447 -4.6414 -1.9927 0.9780
-1.4830 -4.9838 -1.9926 0.9780
-0.5743 -5.1684 -1.9928 0.9780
0.3529 -5.1894 -1.9933 0.9780
0.8143 -5.1382 -1.9936 0.9780
1.2694 -5.0461 -1.9940 0.9780
2.5616 -4.5338 -1.9956 0.9779
2.9565 -4.2887 -1.9962 0.9779
3.3283 -4.0094 -1.9969 0.9779
3.9904 -3.3570 -1.9983 0.9779
4.2754 -2.9890 -1.9991 0.9779
4.5267 -2.5969 -1.9999 0.9779
4.7421 -2.1839 -2.0007 0.9779
4.9199 -1.7531 -2.0015 0.9779
5.0587 -1.3080 -2.0023 0.9779
5.1573 -0.8521 -2.0032 0.9779
5.2148 -0.3890 -2.0040 0.9778
5.2051 0.5438 -2.0055 0.9778
3.8866 2.8923 -1.8566 0.9795
3.6140 3.2280 -1.8570 0.9795
3.3124 3.5380 -1.8573 0.9795
2.3631 3.6552 -1.6680 0.9815
0.6167 4.8090 -1.8580 0.9794
-0.7314 5.1792 -2.0044 0.9778
-1.1934 5.1067 -2.0097 0.9778
-1.6436 4.9789 -2.0093 0.9778
-3.6264 3.7756 -2.0062 0.9778
-3.9471 3.4360 -2.0054 0.9778
-5.1967 0.4760 -1.9998 0.9779
-5.2163 0.0107 -1.9990 0.9779
-5.1945 -0.4542 -1.9982 0.9779
-4.8839 -1.8108 -1.9961 0.9779
-3.9386 -3.4002 -1.9940 0.9780
-0.7483 -5.1459 -1.9928 0.9780
1.0984 -5.0857 -1.9939 0.9780
1.5477 -4.9686 -1.9943 0.9780
2.4069 -4.6172 -1.9954 0.9779
2.8098 -4.3855 -1.9960 0.9779
3.5464 -3.8193 -1.9973 0.9779
3.8743 -3.4892 -1.9980 0.9779
4.4358 -2.7477 -1.9996 0.9779
4.8572 -1.9178 -2.0012 0.9779
5.0109 -1.4777 -2.0020 0.9779
5.2297 -0.0990 -2.0045 0.9778
5.2197 0.3678 -2.0052 0.9778
5.0611 1.2864 -2.0012 0.9779
4.5893 1.6140 -1.8643 0.9794
4.4059 2.0071 -1.8554 0.9795
4.2106 2.3926 -1.8559 0.9795
3.9816 2.7592 -1.8564 0.9795
2.4029 3.4552 -1.6128 0.9821
2.4023 4.2113 -1.8580 0.9794
1.6163 4.5715 -1.8581 0.9794
1.2022 4.6974 -1.8581 0.9794
0.7786 4.7856 -1.8581 0.9794
-0.0837 4.8469 -1.8577 0.9794
-0.5490 5.1332 -1.9783 0.9781
-1.4748 5.0319 -2.0094 0.9778
-3.1372 4.1941 -2.0071 0.9778
-3.4974 3.8963 -2.0064 0.9778
-5.1018 1.1107 -2.0009 0.9779
-5.2138 0.1867 -1.9993 0.9779
-4.5693 -2.4954 -1.9951 0.9779
-3.7433 -3.6131 -1.9937 0.9780
-3.4056 -3.9317 -1.9934 0.9780
-1.8157 -4.8724 -1.9926 0.9780
-1.3741 -5.0149 -1.9926 0.9780
-0.9215 -5.1177 -1.9927 0.9780
1.3791 -5.0176 -1.9941 0.9780
2.2495 -4.6952 -1.9951 0.9779
3.0495 -4.2236 -1.9964 0.9779
4.0629 -3.2695 -1.9985 0.9779
4.3399 -2.8954 -1.9993 0.9779
4.7890 -2.0802 -2.0009 0.9779
5.0865 -1.1976 -2.0025 0.9779
4.8237 1.5156 -1.9376 0.9786
3.8228 2.9764 -1.8567 0.9795
3.2347 3.6095 -1.8574 0.9795
1.7696 4.5143 -1.8581 0.9794
1.3600 4.6542 -1.8581 0.9794
0.5117 4.8212 -1.8580 0.9794
0.0798 4.8472 -1.8578 0.9794
-0.8448 5.1661 -2.0061 0.9778
-1.3043 5.0793 -2.0096 0.9778
-2.1846 4.7645 -2.0086 0.9778
-2.9943 4.2981 -2.0074 0.9778
-0.1355 4.6340 -1.8974 0.9802
-1.0128 4.8038 -2.0093 0.9790
-2.2464 4.3615 -2.0079 0.9790
-2.9836 3.8909 -2.0067 0.9790
-3.6247 3.2969 -2.0054 0.9790
-4.6841 1.4064 -2.0016 0.9791
-4.7890 0.9827 -2.0009 0.9791
-1.9211 0.0458 -0.7865 0.9917
-4.7355 -1.1789 -1.9973 0.9791
-4.2509 -2.3879 -1.9955 0.9791
-4.0200 -2.7568 -1.9950 0.9792
-3.7574 -3.1035 -1.9946 0.9792
-3.1454 -3.7202 -1.9939 0.9792
-2.0481 -4.4187 -1.9933 0.9792
-1.6459 -4.5836 -1.9932 0.9792
-1.2307 -4.7121 -1.9932 0.9792
-0.8057 -4.8032 -1.9933 0.9792
0.0602 -4.8708 -1.9937 0.9792
0.9246 -4.7842 -1.9943 0.9792
1.7604 -4.5458 -1.9951 0.9792
2.5411 -4.1631 -1.9962 0.9791
2.9031 -3.9212 -1.9968 0.9791
3.2422 -3.6479 -1.9974 0.9791
3.5557 -3.3454 -1.9981 0.9791
4.3190 -2.2877 -2.0003 0.9791
4.5075 -1.8942 -2.0011 0.9791
4.7759 -1.0643 -2.0026 0.9791
4.8536 -0.6345 -2.0034 0.9791
4.8928 0.2378 -2.0048 0.9791
4.7738 1.1032 -2.0053 0.9790
3.9893 2.1533 -1.8554 0.9806
3.5451 2.8289 -1.8563 0.9806
3.2794 3.1344 -1.8566 0.9806
2.9874 3.4148 -1.8569 0.9806
2.4576 3.3745 -1.7085 0.9821
2.3340 3.8921 -1.8574 0.9806
1.6058 4.2452 -1.8576 0.9806
1.2209 4.3715 -1.8576 0.9806
0.8262 4.4628 -1.8575 0.9806
0.4250 4.5183 -1.8574 0.9806
0.0205 4.5378 -1.8572 0.9806
-0.4143 4.8762 -2.0029 0.9791
-0.8499 4.8342 -2.0089 0.9790
-1.2777 4.7396 -2.0091 0.9790
-2.0982 4.4352 -2.0081 0.9790
-2.4846 4.2293 -2.0076 0.9790
-2.8509 3.9898 -2.0070 0.9790
-3.1943 3.7185 -2.0063 0.9790
-3.5119 3.4177 -2.0056 0.9790
-3.8013 3.0899 -2.0049 0.9790
-4.0602 2.7377 -2.0042 0.9791
-4.6347 1.5638 -2.0019 0.9791
-4.7538 1.1439 -2.0011 0.9791
-1.9433 0.2875 -0.8040 0.9915
-1.9455 0.1122 -0.7976 0.9916
-1.9539 -0.2375 -0.8056 0.9915
-4.7731 -1.0186 -1.9975 0.9791
-4.3295 -2.2434 -1.9957 0.9791
-4.1111 -2.6198 -1.9952 0.9792
-3.2693 -3.6122 -1.9940 0.9792
-0.1042 -4.8699 -1.9936 0.9792
0.7626 -4.8123 -1.9941 0.9792
1.6059 -4.6022 -1.9949 0.9792
2.3990 -4.2460 -1.9960 0.9791
2.7688 -4.0164 -1.9966 0.9791
4.0035 -2.7989 -1.9993 0.9791
4.4403 -2.0449 -2.0008 0.9791
4.8287 -0.7978 -2.0031 0.9791
4.8825 -0.3642 -2.0038 0.9791
4.8973 0.0726 -2.0046 0.9791
4.6974 1.3642 -2.0020 0.9791
4.3422 1.6938 -1.9076 0.9801
4.0592 2.0172 -1.8552 0.9806
3.6382 2.7075 -1.8561 0.9806
3.3831 3.0217 -1.8565 0.9806
3.1007 3.3119 -1.8568 0.9806
2.5957 3.3224 -1.7256 0.9819
2.2596 3.4950 -1.7033 0.9822
1.3677 4.3278 -1.8576 0.9806
0.9764 4.4324 -1.8576 0.9806
0.5772 4.5016 -1.8575 0.9806
-1.1172 4.7804 -2.0092 0.9790
-1.5386 4.6608 -2.0088 0.9790
-1.9475 4.5039 -2.0083 0.9790
-2.7150 4.0842 -2.0072 0.9790
-3.0674 3.8246 -2.0066 0.9790
-3.6954 3.2169 -2.0052 0.9790
-4.2049 2.5075 -2.0037 0.9791
-4.4101 2.1218 -2.0030 0.9791
-4.7132 1.3038 -2.0014 0.9791
-2.1791 0.3979 -0.9066 0.9905
-1.9579 0.1793 -0.8047 0.9915
-1.8999 0.0039 -0.7776 0.9918
-1.9577 -0.1712 -0.8043 0.9915
-2.1620 -0.3856 -0.8988 0.9906
-4.5738 -1.6958 -1.9965 0.9791
-4.1976 -2.4798 -1.9954 0.9791
-3.6887 -3.1845 -1.9945 0.9792
-3.3895 -3.5000 -1.9941 0.9792
-2.7132 -4.0453 -1.9935 0.9792
-2.3415 -4.2707 -1.9934 0.9792
-1.5457 -4.6183 -1.9932 0.9792
-0.2684 -4.8634 -1.9935 0.9792
2.2541 -4.3241 -1.9958 0.9791
2.6314 -4.1071 -1.9963 0.9791
