ply
format ascii 1.0
element vertex 1594
property float32 x
property float32 y
property float32 z
property float32 I
end_header
-0.2592 6.0453 -1.8611 0.9750
-0.7974 5.9968 -1.8607 0.9750
-1.3586 6.0323 -1.9019 0.9745
-2.0016 6.2300 -2.0127 0.9730
-3.5757 5.4710 -2.0103 0.9730
-4.0477 5.1278 -2.0094 0.9730
-4.4868 4.7439 -2.0084 0.9730
-5.2528 3.8668 -2.0062 0.9731
-5.5738 3.3808 -2.0051 0.9731
-5.8498 2.8684 -2.0039 0.9731
-6.3893 1.2147 -2.0004 0.9731
-6.4960 0.0598 -1.9981 0.9732
-6.4718 -0.5197 -1.9970 0.9732
-6.3962 -1.0945 -1.9959 0.9732
-6.0938 -2.2116 -1.9939 0.9732
-5.8695 -2.7452 -1.9930 0.9732
-4.9273 -4.1968 -1.9908 0.9733
-3.6373 -5.3478 -1.9893 0.9733
-2.6283 -5.9076 -1.9888 0.9733
-2.0906 -6.1182 -1.9887 0.9733
-1.5364 -6.2803 -1.9887 0.9733
-0.9700 -6.3927 -1.9888 0.9733
-0.3959 -6.4545 -1.9890 0.9733
2.9610 -5.7609 -1.9923 0.9733
3.4646 -5.4760 -1.9931 0.9732
4.3869 -4.7776 -1.9950 0.9732
4.7981 -4.3694 -1.9960 0.9732
5.1716 -3.9260 -1.9971 0.9732
5.5043 -3.4509 -1.9982 0.9732
5.7935 -2.9477 -1.9994 0.9732
6.0369 -2.4205 -2.0005 0.9731
6.2325 -1.8733 -2.0017 0.9731
6.3785 -1.3106 -2.0029 0.9731
6.5141 -0.1562 -2.0042 0.9731
6.2175 0.4070 -1.9165 0.9743
5.9582 0.9292 -1.8548 0.9751
5.8546 1.4578 -1.8557 0.9751
5.2668 2.9603 -1.8583 0.9750
4.9837 3.4197 -1.8591 0.9750
2.2656 3.2274 -1.2129 0.9836
2.5417 5.4931 -1.8617 0.9750
2.0416 5.6983 -1.8618 0.9750
-1.8144 6.2785 -2.0101 0.9730
-2.9033 5.8598 -2.0114 0.9730
-4.3455 4.8751 -2.0087 0.9730
-4.7606 4.4657 -2.0077 0.9731
-5.1373 4.0210 -2.0066 0.9731
-5.4725 3.5446 -2.0055 0.9731
-5.7636 3.0405 -2.0043 0.9731
-6.0084 2.5127 -2.0031 0.9731
-6.2050 1.9654 -2.0020 0.9731
-6.3519 1.4032 -2.0008 0.9731
-6.4480 0.8304 -1.9996 0.9732
-6.4926 0.2517 -1.9985 0.9732
-6.4855 -0.3284 -1.9974 0.9732
-6.4269 -0.9053 -1.9963 0.9732
-5.9488 -2.5711 -1.9933 0.9732
-5.3927 -3.5844 -1.9917 0.9733
-3.3108 -5.5550 -1.9890 0.9733
-2.2704 -6.0538 -1.9887 0.9733
-1.7212 -6.2322 -1.9886 0.9733
0.5677 -6.4435 -1.9896 0.9733
1.1406 -6.3687 -1.9900 0.9733
1.7048 -6.2433 -1.9906 0.9733
2.2557 -6.0683 -1.9913 0.9733
3.3009 -5.5752 -1.9928 0.9732
3.7869 -5.2608 -1.9937 0.9732
4.2431 -4.9043 -1.9947 0.9732
4.6662 -4.5084 -1.9957 0.9732
5.7029 -3.1169 -1.9990 0.9732
5.9617 -2.5972 -2.0001 0.9732
6.3358 -1.4981 -2.0025 0.9731
5.9820 0.7527 -1.8545 0.9751
5.8941 1.2841 -1.8554 0.9751
5.7589 1.8058 -1.8564 0.9751
5.3512 2.8031 -1.8581 0.9750
4.4227 4.1246 -1.8601 0.9750
4.0382 4.5040 -1.8606 0.9750
2.7027 5.4155 -1.8616 0.9750
2.2090 5.6355 -1.8618 0.9750
1.6974 5.8102 -1.8618 0.9750
1.1722 5.9383 -1.8617 0.9750
0.0982 6.0508 -1.8613 0.9750
-0.4420 6.0343 -1.8610 0.9750
-1.6258 6.3198 -2.0071 0.9731
-2.7293 5.9438 -2.0117 0.9730
-3.2474 5.6742 -2.0109 0.9730
-4.2003 5.0021 -2.0090 0.9730
-5.6724 3.2100 -2.0047 0.9731
-6.1454 2.1482 -2.0024 0.9731
-6.4836 0.4434 -1.9989 0.9732
-5.7829 -2.9212 -1.9927 0.9733
-5.4969 -3.4241 -1.9919 0.9733
-5.1676 -3.8994 -1.9912 0.9733
-4.7975 -4.3435 -1.9905 0.9733
-3.9472 -5.1243 -1.9895 0.9733
-3.4736 -5.4551 -1.9891 0.9733
-2.9727 -5.7424 -1.9889 0.9733
-2.4483 -5.9843 -1.9887 0.9733
-1.9045 -6.1786 -1.9886 0.9733
-0.7762 -6.4193 -1.9888 0.9733
-0.2004 -6.4638 -1.9891 0.9733
0.3772 -6.4570 -1.9894 0.9733
0.9520 -6.3990 -1.9899 0.9733
1.5195 -6.2903 -1.9904 0.9733
2.6150 -5.9241 -1.9918 0.9733
3.1344 -5.6694 -1.9925 0.9733
3.6293 -5.3695 -1.9934 0.9732
4.0958 -5.0266 -1.9943 0.9732
4.5302 -4.6435 -1.9953 0.9732
5.6073 -3.2834 -1.9986 0.9732
5.8812 -2.7716 -1.9998 0.9732
6.4165 -1.1172 -2.0033 0.9731
6.0006 0.5756 -1.8541 0.9751
5.9285 1.1093 -1.8551 0.9751
5.4309 2.6435 -1.8578 0.9750
4.8785 3.5694 -1.8593 0.9750
3.7624 4.7381 -1.8609 0.9750
2.1520 3.2719 -1.2045 0.9837
2.8614 5.3331 -1.8615 0.9750
2.3744 5.5677 -1.8617 0.9750
0.8152 5.9975 -1.8617 0.9750
-2.0061 6.2285 -2.0127 0.9730
-3.0788 5.7685 -2.0112 0.9730
-4.4902 4.7406 -2.0083 0.9730
-5.2556 3.8629 -2.0062 0.9731
-5.5762 3.3767 -2.0051 0.9731
-5.8518 2.8641 -2.0039 0.9731
-6.3902 1.2101 -2.0004 0.9731
-6.4689 0.6347 -1.9992 0.9732
-6.4960 0.0550 -1.9981 0.9732
-6.3954 -1.0991 -1.9959 0.9732
-6.0921 -2.2160 -1.9939 0.9732
-5.2811 -3.7455 -1.9914 0.9733
-4.5285 -4.6215 -1.9902 0.9733
-4.2778 4.2633 -2.0075 0.9749
-4.9624 3.4317 -2.0055 0.9749
-5.2460 2.9737 -2.0045 0.9749
-5.4875 2.4925 -2.0034 0.9749
-5.8367 1.4759 -2.0012 0.9749
-5.9419 0.9488 -2.0002 0.9750
-6.0096 -0.1222 -1.9980 0.9750
-5.9717 -0.6576 -1.9970 0.9750
-5.8863 -1.1871 -1.9960 0.9750
-4.7862 -3.6061 -1.9920 0.9751
-3.6575 -4.7411 -1.9904 0.9751
-1.7673 -5.7187 -1.9896 0.9751
-1.2501 -5.8536 -1.9897 0.9751
-0.7229 -5.9422 -1.9898 0.9751
0.8769 -5.9244 -1.9907 0.9751
1.4024 -5.8240 -1.9912 0.9751
1.9169 -5.6773 -1.9918 0.9751
3.7875 -4.6552 -1.9949 0.9750
4.1897 -4.3007 -1.9958 0.9750
4.8922 -3.4911 -1.9978 0.9750
6.0083 -0.5045 -2.0042 0.9749
6.0301 0.0336 -2.0045 0.9749
5.4852 1.0222 -1.8547 0.9768
5.3746 1.5082 -1.8556 0.9767
5.2210 1.9826 -1.8564 0.9767
5.0254 2.4415 -1.8572 0.9767
4.5148 3.2982 -1.8585 0.9767
4.2038 3.6890 -1.8591 0.9767
3.8590 4.0505 -1.8596 0.9767
2.1477 3.2603 -1.2977 0.9837
2.6500 4.9305 -1.8606 0.9767
2.1997 5.1477 -1.8608 0.9767
1.7318 5.3236 -1.8609 0.9767
1.2498 5.4568 -1.8609 0.9767
-0.7375 5.5464 -1.8599 0.9767
-2.3573 5.5723 -2.0112 0.9748
-3.3076 5.0608 -2.0097 0.9748
-3.7443 4.7435 -2.0088 0.9748
-4.1506 4.3885 -2.0079 0.9749
-4.5234 3.9987 -2.0069 0.9749
-5.6246 2.1593 -2.0027 0.9749
-5.9859 0.5918 -1.9994 0.9750
-5.9198 -1.0129 -1.9964 0.9750
-5.8030 -1.5363 -1.9954 0.9750
-5.6403 -2.0470 -1.9945 0.9750
-3.7962 -4.6313 -1.9906 0.9751
-2.9117 -5.2306 -1.9899 0.9751
-2.4332 -5.4690 -1.9897 0.9751
-1.4224 -5.8141 -1.9896 0.9751
-0.8980 -5.9181 -1.9897 0.9751
-0.3665 -5.9752 -1.9899 0.9751
0.1681 -5.9850 -1.9902 0.9751
3.2069 -5.0687 -1.9938 0.9750
3.6479 -4.7644 -1.9946 0.9750
4.0602 -4.4219 -1.9955 0.9750
5.0939 -3.1936 -1.9985 0.9750
5.3613 -2.7278 -1.9995 0.9750
5.9019 -1.2126 -2.0028 0.9749
5.9897 -0.6816 -2.0039 0.9749
6.0299 -0.1446 -2.0049 0.9749
6.0030 0.3930 -1.9997 0.9750
5.5121 0.8596 -1.8544 0.9768
5.4160 1.3486 -1.8553 0.9767
5.0946 2.2917 -1.8569 0.9767
4.6097 3.1631 -1.8583 0.9767
4.3105 3.5629 -1.8589 0.9767
3.9766 3.9344 -1.8595 0.9767
2.2565 3.2144 -1.3055 0.9836
2.3507 5.0804 -1.8608 0.9767
1.8882 5.2701 -1.8609 0.9767
0.9215 5.5216 -1.8608 0.9767
-0.0745 5.5962 -1.8604 0.9767
-1.0724 5.5169 -1.8682 0.9766
-1.6793 5.8110 -2.0107 0.9748
-2.1919 5.6402 -2.0114 0.9748
-2.6855 5.4202 -2.0107 0.9748
-3.1571 5.1570 -2.0099 0.9748
-3.6031 4.8527 -2.0091 0.9748
-4.0199 4.5098 -2.0082 0.9749
-4.4041 4.1312 -2.0072 0.9749
-4.7527 3.7200 -2.0062 0.9749
-5.0631 3.2794 -2.0052 0.9749
-5.3326 2.8131 -2.0041 0.9749
-5.8777 1.2984 -2.0009 0.9749
-6.0084 0.2329 -1.9987 0.9750
-5.6991 -1.8798 -1.9948 0.9750
-5.2699 -2.8604 -1.9931 0.9750
-4.9918 -3.3180 -1.9924 0.9751
-3.9316 -4.5175 -1.9907 0.9751
-3.5121 -4.8493 -1.9903 0.9751
-3.0650 -5.1425 -1.9900 0.9751
-2.1019 -5.6044 -1.9896 0.9751
-1.5935 -5.7695 -1.9896 0.9751
-1.0724 -5.8889 -1.9897 0.9751
1.5781 -5.7794 -1.9914 0.9751
3.9273 -4.5392 -1.9952 0.9750
4.3186 -4.1726 -1.9961 0.9750
4.9965 -3.3420 -1.9981 0.9750
5.7123 -1.9026 -2.0013 0.9749
5.8624 -1.3861 -2.0024 0.9749
5.9659 -0.8580 -2.0035 0.9749
6.0219 -0.3225 -2.0046 0.9749
6.0190 0.2158 -2.0020 0.9749
5.5539 0.6988 -1.8607 0.9767
5.3274 1.6704 -1.8559 0.9767
4.9499 2.5928 -1.8574 0.9767
4.4134 3.4337 -1.8588 0.9767
4.0906 3.8149 -1.8593 0.9767
3.3491 4.4833 -1.8602 0.9767
2.0382 3.3077 -1.2915 0.9838
2.4997 5.0086 -1.8607 0.9767
1.5699 5.3736 -1.8609 0.9767
1.0841 5.4921 -1.8608 0.9767
0.5898 5.5665 -1.8607 0.9767
0.0908 5.5962 -1.8605 0.9767
-0.9080 5.5398 -1.8660 0.9766
-1.5049 5.8500 -2.0079 0.9749
-3.0038 5.2486 -2.0102 0.9748
-5.2482 2.9699 -2.0045 0.9749
-5.4893 2.4885 -2.0034 0.9749
-5.6863 1.9877 -2.0023 0.9749
-5.9426 0.9445 -2.0001 0.9750
-6.0095 -0.1266 -1.9980 0.9750
-5.5749 -2.2164 -1.9942 0.9750
-5.0882 -3.1695 -1.9927 0.9750
-4.7835 -3.6096 -1.9920 0.9751
-4.0636 -4.3998 -1.9909 0.9751
-2.7520 -5.3161 -1.9898 0.9751
-2.2665 -5.5400 -1.9897 0.9751
-1.2458 -5.8546 -1.9897 0.9751
-0.1855 -5.9838 -1.9900 0.9751
0.3492 -5.9775 -1.9903 0.9751
0.8813 -5.9237 -1.9908 0.9751
3.3593 -4.9700 -1.9940 0.9750
4.5618 -3.9084 -1.9968 0.9750
5.1891 -3.0385 -1.9988 0.9750
5.4424 -2.5648 -1.9999 0.9750
5.6526 -2.0701 -2.0010 0.9749
5.9369 -1.0337 -2.0032 0.9749
6.0087 -0.5001 -2.0042 0.9749
6.0299 0.0380 -2.0044 0.9749
5.8383 0.5600 -1.9496 0.9756
5.4844 1.0262 -1.8547 0.9768
5.3736 1.5121 -1.8556 0.9767
5.0236 2.4452 -1.8572 0.9767
4.7873 2.8848 -1.8579 0.9767
4.5124 3.3015 -1.8586 0.9767
2.1451 3.2614 -1.2976 0.9837
2.1960 5.1493 -1.8608 0.9767
1.7279 5.3249 -1.8609 0.9767
0.7539 5.5468 -1.8607 0.9767
0.2560 5.5913 -1.8605 0.9767
-0.7415 5.5458 -1.8599 0.9767
-1.3297 5.8839 -2.0052 0.9749
-1.8555 5.7610 -2.0119 0.9748
-2.3614 5.5706 -2.0112 0.9748
-5.1591 3.1241 -2.0048 0.9749
-5.4143 2.6500 -2.0038 0.9749
-5.7928 1.6437 -2.0016 0.9749
-5.9132 1.1197 -2.0005 0.9750
-5.9891 -0.4854 -1.9973 0.9750
-4.3112 3.5899 -2.0062 0.9764
-4.6121 3.1895 -2.0053 0.9765
-5.1005 2.3167 -2.0033 0.9765
-5.4255 1.3720 -2.0013 0.9765
-5.5868 -0.1136 -1.9983 0.9765
-5.4726 -1.1037 -1.9964 0.9766
-4.9788 -2.5104 -1.9940 0.9766
-4.7333 -2.9436 -1.9933 0.9766
-4.4504 -3.3531 -1.9927 0.9766
-4.1323 -3.7358 -1.9921 0.9766
-3.7817 -4.0885 -1.9916 0.9766
-2.5627 -4.9417 -1.9907 0.9766
-2.1114 -5.1502 -1.9905 0.9766
-1.6435 -5.3179 -1.9905 0.9766
-1.1625 -5.4434 -1.9905 0.9766
0.8154 -5.5090 -1.9915 0.9766
1.3040 -5.4155 -1.9920 0.9766
1.7825 -5.2790 -1.9925 0.9766
2.6941 -4.8814 -1.9938 0.9766
3.1200 -4.6233 -1.9946 0.9766
3.8952 -3.9985 -1.9962 0.9766
4.8218 -2.8282 -1.9990 0.9765
5.0574 -2.3879 -2.0000 0.9765
5.2529 -1.9281 -2.0010 0.9765
5.5175 -0.9648 -2.0031 0.9765
5.5844 -0.4689 -2.0041 0.9765
5.6067 0.0312 -2.0050 0.9765
5.5688 0.5301 -2.0004 0.9765
4.1952 3.0647 -1.8579 0.9782
3.2362 4.0693 -1.8593 0.9782
2.4622 4.5811 -1.8599 0.9781
1.6090 4.9463 -1.8601 0.9781
0.7043 5.1532 -1.8599 0.9781
0.2417 5.1950 -1.8598 0.9781
-0.2227 5.1951 -1.8595 0.9782
-0.6852 5.1535 -1.8591 0.9782
-1.2327 5.4733 -2.0063 0.9764
-2.1904 5.1779 -2.0105 0.9764
-3.0736 4.7028 -2.0091 0.9764
-3.4795 4.4081 -2.0083 0.9764
-4.5166 3.3248 -2.0056 0.9765
-5.0306 2.4667 -2.0036 0.9765
-5.3835 1.5318 -2.0016 0.9765
-5.4960 1.0449 -2.0006 0.9765
-5.5645 0.5501 -1.9996 0.9765
-5.5886 0.0514 -1.9986 0.9765
-5.5036 -0.9417 -1.9967 0.9766
-5.2441 -1.9033 -1.9950 0.9766
-5.0514 -2.3626 -1.9942 0.9766
-3.5301 -4.3066 -1.9913 0.9766
-0.8351 -5.5034 -1.9906 0.9766
0.1563 -5.5654 -1.9910 0.9766
0.6524 -5.5303 -1.9914 0.9766
1.6256 -5.3288 -1.9923 0.9766
2.5484 -4.9582 -1.9936 0.9766
2.9817 -4.7128 -1.9943 0.9766
3.3916 -4.4297 -1.9951 0.9766
4.4495 -3.3779 -1.9978 0.9765
5.1928 -2.0820 -2.0007 0.9765
5.5672 -0.6335 -2.0037 0.9765
5.6043 -0.1344 -2.0047 0.9765
5.2489 0.8186 -1.8997 0.9777
4.2834 2.9392 -1.8577 0.9782
4.0053 3.3107 -1.8583 0.9782
3.3548 3.9717 -1.8592 0.9782
2.0244 3.5136 -1.4501 0.9829
0.3950 5.1858 -1.8598 0.9781
-0.0692 5.1996 -1.8596 0.9782
-0.5328 5.1718 -1.8593 0.9782
-1.0595 5.4506 -1.9857 0.9767
-2.4954 5.0366 -2.0101 0.9764
-2.9338 4.7922 -2.0093 0.9764
-3.3483 4.5095 -2.0086 0.9764
-4.4171 3.4573 -2.0059 0.9765
-4.7057 3.0479 -2.0049 0.9765
-4.9564 2.6147 -2.0040 0.9765
-5.1673 2.1609 -2.0030 0.9765
-5.5799 -0.2826 -1.9980 0.9765
-5.5298 -0.7789 -1.9970 0.9766
-5.4359 -1.2686 -1.9961 0.9766
-5.2987 -1.7478 -1.9953 0.9766
-4.3465 -3.4859 -1.9925 0.9766
-4.0171 -3.8588 -1.9919 0.9766
-3.6559 -4.2008 -1.9915 0.9766
-3.2660 -4.5094 -1.9911 0.9766
-2.8502 -4.7821 -1.9908 0.9766
-2.4119 -5.0168 -1.9906 0.9766
-1.4818 -5.3652 -1.9905 0.9766
-0.5047 -5.5438 -1.9907 0.9766
0.4887 -5.5468 -1.9913 0.9766
0.9819 -5.4822 -1.9917 0.9766
1.4674 -5.3740 -1.9922 0.9766
2.8409 -4.7982 -1.9941 0.9766
3.2589 -4.5273 -1.9948 0.9766
3.6513 -4.2203 -1.9957 0.9766
4.0151 -3.8793 -1.9965 0.9766
4.3471 -3.5073 -1.9974 0.9766
5.1282 -2.2341 -2.0004 0.9765
5.3098 -1.7686 -2.0014 0.9765
5.5970 -0.2998 -2.0044 0.9765
5.6024 0.2008 -2.0048 0.9765
5.5063 0.6928 -1.9846 0.9767
4.7944 1.9886 -1.8562 0.9782
3.1118 4.1657 -1.8594 0.9782
2.0316 3.2970 -1.3849 0.9837
1.4586 4.9927 -1.8601 0.9781
1.0073 5.1028 -1.8600 0.9781
-2.7913 4.8773 -2.0096 0.9764
-3.2141 4.6071 -2.0088 0.9764
-3.9784 3.9591 -2.0071 0.9764
-4.3137 3.5868 -2.0062 0.9764
-4.6144 3.1861 -2.0053 0.9765
-4.8778 2.7603 -2.0043 0.9765
-5.1021 2.3130 -2.0033 0.9765
-5.5776 0.3814 -1.9993 0.9765
-5.3488 -1.5908 -1.9956 0.9766
-4.9770 -2.5141 -1.9940 0.9766
-4.7312 -2.9471 -1.9933 0.9766
-4.4480 -3.3563 -1.9927 0.9766
-4.1296 -3.7388 -1.9921 0.9766
-3.3979 -4.4112 -1.9912 0.9766
-1.1585 -5.4443 -1.9905 0.9766
0.3247 -5.5585 -1.9911 0.9766
1.3080 -5.4146 -1.9920 0.9766
1.7863 -5.2777 -1.9925 0.9766
2.2508 -5.0989 -1.9931 0.9766
3.1234 -4.6210 -1.9946 0.9766
3.5246 -4.3256 -1.9954 0.9766
3.8982 -3.9956 -1.9962 0.9766
4.2410 -3.6336 -1.9971 0.9766
4.5504 -3.2422 -1.9981 0.9765
4.8239 -2.8247 -1.9990 0.9765
5.5183 -0.9608 -2.0031 0.9765
5.5848 -0.4648 -2.0041 0.9765
5.5683 0.5342 -2.0004 0.9765
5.0969 0.9537 -1.8543 0.9782
4.9937 1.4053 -1.8551 0.9782
4.8504 1.8460 -1.8559 0.9782
4.1929 3.0678 -1.8579 0.9782
3.5829 3.7662 -1.8589 0.9782
2.1381 3.2508 -1.3914 0.9836
2.0403 4.7843 -1.8600 0.9781
1.1576 5.0709 -1.8600 0.9781
0.7005 5.1537 -1.8599 0.9781
-0.2265 5.1949 -1.8595 0.9782
-1.7241 5.3531 -2.0111 0.9764
-2.1942 5.1763 -2.0105 0.9764
-2.6464 4.9582 -2.0098 0.9764
-3.4827 4.4055 -2.0083 0.9764
-3.8603 4.0755 -2.0074 0.9764
-4.2066 3.7132 -2.0065 0.9764
-5.3846 1.5279 -2.0016 0.9765
-5.2427 -1.9071 -1.9950 0.9766
-4.8167 -2.8064 -1.9935 0.9766
-4.5456 -3.2239 -1.9929 0.9766
-4.2386 -3.6155 -1.9923 0.9766
-3.3659 4.0144 -2.0076 0.9778
-4.7593 2.1618 -2.0032 0.9779
-4.9309 1.7277 -2.0022 0.9779
-5.1546 0.8231 -2.0004 0.9779
-5.2140 -0.1060 -1.9985 0.9779
-5.1815 -0.5705 -1.9976 0.9779
-5.1078 -1.0301 -1.9968 0.9779
-4.9935 -1.4811 -1.9960 0.9779
-4.8395 -1.9200 -1.9952 0.9779
-3.5301 -3.8166 -1.9923 0.9780
-2.7947 -4.3817 -1.9916 0.9780
-2.3923 -4.6131 -1.9914 0.9780
-1.9711 -4.8078 -1.9913 0.9780
0.2993 -5.1890 -1.9918 0.9780
1.6638 -4.9277 -1.9931 0.9780
2.0975 -4.7610 -1.9937 0.9780
2.5147 -4.5563 -1.9943 0.9780
2.9122 -4.3153 -1.9950 0.9779
3.2868 -4.0398 -1.9958 0.9779
3.6356 -3.7319 -1.9966 0.9779
4.9020 -1.7993 -2.0011 0.9779
5.0453 -1.3554 -2.0020 0.9779
4.5265 1.7189 -1.8555 0.9795
4.1518 2.4977 -1.8568 0.9795
3.9136 2.8591 -1.8573 0.9795
3.6439 3.1977 -1.8578 0.9794
2.1337 3.2389 -1.4863 0.9835
2.2968 4.2733 -1.8592 0.9794
1.9065 4.4615 -1.8593 0.9794
1.5009 4.6140 -1.8594 0.9794
1.0833 4.7295 -1.8593 0.9794
0.2254 4.8460 -1.8591 0.9794
-0.2078 4.8461 -1.8588 0.9794
-2.8675 4.3875 -2.0086 0.9778
-3.2463 4.1126 -2.0078 0.9778
-3.5988 3.8050 -2.0070 0.9778
-4.8785 1.8729 -2.0026 0.9779
-5.1930 0.5134 -1.9997 0.9779
-5.1968 -0.4173 -1.9979 0.9779
-5.1367 -0.8790 -1.9971 0.9779
-4.7150 -2.2053 -1.9947 0.9779
-3.6415 -3.7109 -1.9924 0.9780
-2.5276 -4.5406 -1.9915 0.9780
-2.1122 -4.7476 -1.9913 0.9780
-1.2348 -5.0472 -1.9912 0.9780
-0.7796 -5.1375 -1.9913 0.9780
-0.3181 -5.1870 -1.9915 0.9780
1.0674 -5.0886 -1.9925 0.9780
1.5175 -4.9743 -1.9930 0.9780
3.5233 -3.8372 -1.9963 0.9779
3.8532 -3.5090 -1.9972 0.9779
4.1527 -3.1526 -1.9980 0.9779
4.8460 -1.9430 -2.0008 0.9779
5.0023 -1.5036 -2.0017 0.9779
5.1189 -1.0518 -2.0027 0.9779
5.1948 -0.5911 -2.0036 0.9779
5.2292 -0.1254 -2.0045 0.9778
5.2211 0.3418 -2.0051 0.9778
5.1545 0.8039 -1.9992 0.9779
4.6959 1.1693 -1.8545 0.9795
3.9959 2.7420 -1.8572 0.9795
3.7364 3.0884 -1.8577 0.9794
3.1295 3.7050 -1.8585 0.9794
2.2408 3.1922 -1.4946 0.9834
1.9846 3.4446 -1.5235 0.9831
1.6365 4.5676 -1.8593 0.9794
1.2225 4.6954 -1.8594 0.9794
0.7986 4.7856 -1.8593 0.9794
0.3685 4.8374 -1.8591 0.9794
-0.9985 5.1368 -2.0054 0.9778
-1.4567 5.0406 -2.0107 0.9778
-1.9001 4.8892 -2.0101 0.9778
-2.3280 4.6987 -2.0095 0.9778
-3.4854 3.9102 -2.0073 0.9778
-4.1213 3.2258 -2.0056 0.9778
-4.6248 2.4397 -2.0038 0.9779
-5.0986 1.1263 -2.0010 0.9779
-5.2077 -0.2637 -1.9982 0.9779
-5.0735 -1.1840 -1.9965 0.9779
-4.5737 -2.4826 -1.9943 0.9780
-4.3326 -2.8798 -1.9936 0.9780
-4.0573 -3.2539 -1.9931 0.9780
-3.0488 -4.2095 -1.9918 0.9780
-2.6607 -4.4641 -1.9915 0.9780
-2.2516 -4.6833 -1.9914 0.9780
1.3698 -5.0165 -1.9928 0.9780
2.6517 -4.4787 -1.9946 0.9780
3.0418 -4.2257 -1.9953 0.9779
3.7474 -3.6207 -1.9969 0.9779
4.9550 -1.6504 -2.0014 0.9779
5.0849 -1.2023 -2.0023 0.9779
5.1743 -0.7442 -2.0033 0.9779
5.1810 0.6519 -2.0011 0.9779
4.6189 1.4483 -1.8550 0.9795
4.4730 1.8553 -1.8557 0.9795
4.2911 2.2478 -1.8564 0.9795
4.0748 2.6225 -1.8570 0.9795
3.8257 2.9765 -1.8575 0.9795
3.2373 3.6107 -1.8584 0.9794
2.9028 3.8859 -1.8588 0.9794
2.1665 4.3410 -1.8592 0.9794
0.9396 4.7600 -1.8593 0.9794
0.5112 4.8245 -1.8592 0.9794
-1.3067 5.0797 -2.0100 0.9778
-1.7550 4.9436 -2.0103 0.9778
-2.1885 4.7659 -2.0097 0.9778
-2.6041 4.5502 -2.0091 0.9778
-2.9986 4.2981 -2.0084 0.9778
-3.3688 4.0119 -2.0076 0.9778
-4.0249 3.3465 -2.0059 0.9778
-4.3055 2.9728 -2.0050 0.9778
-4.5515 2.5756 -2.0041 0.9778
-5.0639 1.2766 -2.0013 0.9779
-5.1552 0.8193 -2.0004 0.9779
-5.2053 0.3559 -1.9994 0.9779
-5.2139 -0.1098 -1.9985 0.9779
-4.6456 -2.3467 -1.9945 0.9780
-4.4162 -2.7509 -1.9939 0.9780
-3.5273 -3.8192 -1.9923 0.9780
-2.7915 -4.3838 -1.9916 0.9780
-2.3889 -4.6149 -1.9914 0.9780
-1.9675 -4.8093 -1.9913 0.9780
-1.0815 -5.0823 -1.9913 0.9780
-0.6238 -5.1589 -1.9914 0.9780
-0.1610 -5.1944 -1.9916 0.9780
0.3031 -5.1888 -1.9918 0.9780
1.6674 -4.9265 -1.9931 0.9780
2.5180 -4.5545 -1.9944 0.9780
2.9153 -4.3132 -1.9951 0.9779
3.2898 -4.0374 -1.9958 0.9779
3.9582 -3.3912 -1.9974 0.9779
4.7213 -2.2250 -2.0001 0.9779
5.0463 -1.3517 -2.0020 0.9779
5.1492 -0.8965 -2.0030 0.9779
4.9677 0.9295 -1.9368 0.9786
4.6590 1.3111 -1.8548 0.9795
4.5252 1.7222 -1.8555 0.9795
4.1500 2.5008 -1.8568 0.9795
3.6416 3.2004 -1.8579 0.9794
3.3423 3.5133 -1.8583 0.9794
2.1310 3.2401 -1.4861 0.9835
1.4975 4.6151 -1.8594 0.9794
0.6534 4.8075 -1.8592 0.9794
-0.6492 4.8553 -1.8772 0.9792
-1.1549 5.1102 -2.0077 0.9778
-1.6084 4.9937 -2.0105 0.9778
-2.4688 4.6256 -2.0093 0.9778
-2.8707 4.3854 -2.0086 0.9778
-3.2493 4.1102 -2.0078 0.9778
-4.2164 3.0991 -2.0053 0.9778
-4.4741 2.7093 -2.0044 0.9778
-4.8798 1.8693 -2.0026 0.9779
-5.1933 0.5096 -1.9997 0.9779
-5.1360 -0.8827 -1.9971 0.9779
-5.0347 -1.3369 -1.9962 0.9779
-4.4960 -2.6195 -1.9941 0.9780
-3.9566 -3.3749 -1.9929 0.9780
-3.6388 -3.7136 -1.9924 0.9780
-3.1510 3.7581 -2.0072 0.9790
-3.4724 3.4607 -2.0065 0.9790
-3.7658 3.1358 -2.0057 0.9790
-4.2596 2.4146 -2.0040 0.9791
-4.4561 2.0240 -2.0031 0.9791
-4.6169 1.6177 -2.0022 0.9791
-4.7407 1.1988 -2.0013 0.9791
-2.0348 0.3249 -0.8433 0.9911
-1.9179 -0.0390 -0.7851 0.9917
-1.9565 -0.2154 -0.8056 0.9915
-4.7833 -0.9647 -1.9971 0.9791
-4.6764 -1.3871 -1.9963 0.9791
-4.1380 -2.5734 -1.9944 0.9792
-3.8908 -2.9315 -1.9938 0.9792
-3.3064 -3.5747 -1.9929 0.9792
-2.9737 -3.8547 -1.9925 0.9792
-2.6176 -4.1041 -1.9923 0.9792
-1.4370 -4.6499 -1.9919 0.9792
-1.0164 -4.7596 -1.9919 0.9792
-0.5878 -4.8316 -1.9920 0.9792
1.1401 -4.7348 -1.9932 0.9792
1.5583 -4.6153 -1.9937 0.9792
2.7273 -4.0414 -1.9955 0.9791
3.0781 -3.7833 -1.9962 0.9791
3.4047 -3.4949 -1.9969 0.9791
3.7044 -3.1785 -1.9977 0.9791
3.9748 -2.8365 -1.9985 0.9791
4.2138 -2.4716 -1.9994 0.9791
4.4194 -2.0867 -2.0002 0.9791
4.5900 -1.6848 -2.0011 0.9791
4.7241 -1.2691 -2.0020 0.9791
4.8787 -0.4097 -2.0038 0.9791
4.8979 0.0273 -2.0046 0.9791
4.3625 1.2242 -1.8544 0.9806
4.2374 1.6091 -1.8551 0.9806
3.1310 3.2864 -1.8577 0.9806
2.8258 3.5532 -1.8581 0.9806
1.0140 4.4269 -1.8587 0.9806
0.2110 4.5360 -1.8585 0.9806
-1.5022 4.6756 -2.0099 0.9790
-2.6843 4.1072 -2.0082 0.9790
-3.3692 3.5622 -2.0067 0.9790
-3.9454 2.9044 -2.0051 0.9790
-4.3950 2.1551 -2.0034 0.9791
-1.9073 0.0176 -0.7806 0.9918
-2.1331 -0.3650 -0.8857 0.9907
-4.7159 -1.2485 -1.9966 0.9791
-4.2126 -2.4503 -1.9946 0.9792
-3.9760 -2.8155 -1.9940 0.9792
-3.0864 -3.7654 -1.9926 0.9792
-2.7378 -4.0252 -1.9923 0.9792
-2.3674 -4.2529 -1.9921 0.9792
-1.5737 -4.6054 -1.9919 0.9792
-1.1565 -4.7275 -1.9919 0.9792
1.4213 -4.6589 -1.9935 0.9792
1.8317 -4.5147 -1.9940 0.9792
2.2278 -4.3345 -1.9946 0.9792
2.6065 -4.1198 -1.9952 0.9792
2.9647 -3.8721 -1.9959 0.9791
3.2996 -3.5935 -1.9967 0.9791
3.8888 -2.9522 -1.9983 0.9791
4.5376 -1.8193 -2.0008 0.9791
4.6839 -1.4079 -2.0017 0.9791
4.8638 -0.5535 -2.0035 0.9791
4.8959 -0.1174 -2.0043 0.9791
4.8327 0.7537 -2.0018 0.9791
4.5185 1.1251 -1.9058 0.9801
3.7406 2.5667 -1.8567 0.9806
3.4976 2.8910 -1.8572 0.9806
3.2264 3.1922 -1.8576 0.9806
2.9293 3.4680 -1.8580 0.9806
1.9457 3.3771 -1.5952 0.9833
1.5318 4.2754 -1.8587 0.9806
1.1442 4.3950 -1.8587 0.9806
-0.0605 4.5401 -1.8583 0.9806
-0.9357 4.8134 -2.0069 0.9790
-1.3636 4.7183 -2.0101 0.9790
-3.2629 3.6606 -2.0070 0.9790
-3.5751 3.3536 -2.0062 0.9790
-3.8585 3.0200 -2.0054 0.9790
-4.1108 2.6626 -2.0045 0.9791
-4.5147 1.8880 -2.0028 0.9791
-4.6631 1.4770 -2.0019 0.9791
-4.7741 1.0546 -2.0010 0.9791
-1.9331 0.0749 -0.7918 0.9917
-1.9413 -0.0983 -0.7955 0.9916
-1.9464 -0.2742 -0.8045 0.9915
-4.7513 -1.1088 -1.9968 0.9791
-4.2835 -2.3251 -1.9948 0.9792
-3.8000 -3.0476 -1.9936 0.9792
-3.1965 -3.6729 -1.9928 0.9792
-2.8556 -3.9428 -1.9924 0.9792
-0.0071 -4.8678 -1.9923 0.9792
1.2829 -4.6985 -1.9934 0.9792
2.4834 -4.1945 -1.9950 0.9792
2.8487 -3.9575 -1.9957 0.9791
3.1916 -3.6889 -1.9964 0.9791
3.5093 -3.3907 -1.9972 0.9791
4.0594 -2.7153 -1.9988 0.9791
4.2873 -2.3432 -1.9997 0.9791
4.6395 -1.5453 -2.0014 0.9791
4.8896 -0.2619 -2.0041 0.9791
4.1873 1.7368 -1.8553 0.9806
3.5811 2.7862 -1.8570 0.9806
2.7171 3.6373 -1.8582 0.9806
2.0181 3.2752 -1.5745 0.9835
1.6574 4.2282 -1.8587 0.9806
0.8795 4.4555 -1.8587 0.9806
0.4785 4.5159 -1.8586 0.9806
-1.6428 4.6276 -2.0098 0.9790
-2.0486 4.4613 -2.0092 0.9790
-2.4377 4.2595 -2.0086 0.9790
-3.1538 3.7558 -2.0072 0.9790
-3.7681 3.1331 -2.0056 0.9790
-4.0309 2.7832 -2.0048 0.9791
-4.2614 2.4115 -2.0040 0.9791
-4.4576 2.0208 -2.0031 0.9791
-4.6181 1.6143 -2.0022 0.9791
-1.9510 0.1334 -0.8004 0.9916
-1.9186 -0.0404 -0.7854 0.9917
-1.9564 -0.2169 -0.8056 0.9915
-4.7826 -0.9682 -1.9971 0.9791
-4.5310 -1.8014 -1.9956 0.9791
-3.6105 -3.2688 -1.9933 0.9792
-3.3037 -3.5771 -1.9929 0.9792
-2.6146 -4.1060 -1.9923 0.9792
-2.2376 -4.3225 -1.9921 0.9792
-1.0130 -4.7604 -1.9919 0.9792
-0.1508 -4.8653 -1.9922 0.9792
0.2839 -4.8600 -1.9925 0.9792
0.7165 -4.8161 -1.9928 0.9792
1.5617 -4.6141 -1.9937 0.9792
2.3583 -4.2655 -1.9948 0.9792
2.7303 -4.0395 -1.9955 0.9791
3.4072 -3.4924 -1.9969 0.9791
3.9769 -2.8336 -1.9985 0.9791
4.5912 -1.6814 -2.0011 0.9791
4.8212 -0.8394 -2.0029 0.9791
4.8790 -0.4061 -2.0038 0.9791
4.8979 0.0308 -2.0046 0.9791
4.8776 0.4679 -2.0054 0.9790
4.8033 0.8988 -2.0000 0.9791
3.6615 2.6790 -1.8569 0.9806
3.4088 2.9958 -1.8573 0.9806
3.1286 3.2886 -1.8577 0.9806
1.7815 4.1774 -1.8587 0.9806
1.4017 4.3198 -1.8587 0.9806
1.0107 4.4276 -1.8587 0.9806
0.2077 4.5361 -1.8585 0.9806
-0.1978 4.5360 -1.8582 0.9806
-0.6435 4.8124 -1.9871 0.9792
-1.5056 4.6745 -2.0099 0.9790
-1.9161 4.5203 -2.0094 0.9790
-2.3111 4.3301 -2.0088 0.9790
-2.6873 4.1053 -2.0082 0.9790
-3.3717 3.5597 -2.0067 0.9790
-3.6744 3.2434 -2.0059 0.9790
-3.9475 2.9015 -2.0051 0.9790
-4.7049 1.3350 -2.0016 0.9791
-1.9066 0.0162 -0.7803 0.9918
-4.7150 -1.2520 -1.9966 0.9791
-4.4143 -2.0685 -1.9952 0.9792
-4.2108 -2.4534 -1.9945 0.9792
-3.7057 -3.1609 -1.9935 0.9792
-3.2605 3.2495 -2.0062 0.9801
-3.7832 2.6163 -2.0046 0.9801
-4.1846 1.9007 -2.0030 0.9801
-1.5469 0.3912 -0.6954 0.9931
-1.5294 0.1057 -0.6681 0.9933
-1.5244 -0.1678 -0.6684 0.9933
-1.5722 -0.4663 -0.7147 0.9929
-4.2571 -1.6889 -1.9960 0.9802
-3.8869 -2.4172 -1.9948 0.9802
-3.6547 -2.7536 -1.9943 0.9802
-3.1058 -3.3579 -1.9934 0.9802
-2.7934 -3.6210 -1.9931 0.9802
-2.1049 -4.0589 -1.9926 0.9802
-1.3499 -4.3680 -1.9925 0.9802
0.2633 -4.5655 -1.9930 0.9802
0.6697 -4.5245 -1.9933 0.9802
1.4638 -4.3352 -1.9942 0.9802
1.8452 -4.1884 -1.9947 0.9802
2.5617 -3.7960 -1.9959 0.9802
2.8912 -3.5535 -1.9965 0.9802
3.4792 -2.9853 -1.9980 0.9802
3.7331 -2.6640 -1.9987 0.9802
4.1505 -1.9597 -2.0003 0.9802
4.4363 -1.1918 -2.0020 0.9802
4.5268 -0.7916 -2.0028 0.9801
4.5813 -0.3847 -2.0036 0.9801
4.5992 0.0256 -2.0044 0.9801
4.5804 0.4360 -2.0052 0.9801
4.3029 1.2075 -1.9477 0.9807
3.9786 1.5108 -1.8548 0.9816
3.8292 1.8604 -1.8554 0.9816
3.4395 2.5127 -1.8564 0.9816
3.2024 2.8102 -1.8568 0.9816
2.6530 3.3359 -1.8575 0.9816
2.0183 3.7552 -1.8580 0.9816
0.5773 4.2242 -1.8581 0.9816
0.1981 4.2585 -1.8579 0.9816
-0.1827 4.2610 -1.8587 0.9816
-0.6062 4.5595 -2.0046 0.9801
-1.0133 4.4991 -2.0099 0.9801
-2.1669 4.0671 -2.0084 0.9801
-2.5204 3.8563 -2.0078 0.9801
-3.1635 3.3447 -2.0064 0.9801
-3.4480 3.0480 -2.0057 0.9801
-3.7048 2.7272 -2.0049 0.9801
-4.1272 2.0237 -2.0033 0.9801
-1.5659 0.4456 -0.7095 0.9929
-1.5265 0.1509 -0.6685 0.9933
-1.5243 0.0140 -0.6643 0.9934
-1.5044 -0.2574 -0.6652 0.9934
-1.5544 -0.4115 -0.7008 0.9930
-4.1477 -1.9399 -1.9956 0.9802
-3.7348 -2.6447 -1.9945 0.9802
-3.4831 -2.9667 -1.9940 0.9802
-3.2038 -3.2649 -1.9936 0.9802
-2.8993 -3.5371 -1.9932 0.9802
-2.5718 -3.7811 -1.9929 0.9802
-1.4783 -4.3262 -1.9925 0.9802
-0.6859 -4.5203 -1.9926 0.9802
0.5358 -4.5421 -1.9932 0.9802
1.3350 -4.3762 -1.9940 0.9802
1.7206 -4.2407 -1.9945 0.9802
2.0926 -4.0714 -1.9950 0.9802
3.0991 -3.3752 -1.9970 0.9802
4.0902 -2.0811 -2.0001 0.9802
4.3986 -1.3221 -2.0017 0.9802
4.5906 0.3005 -2.0050 0.9801
4.5437 0.7086 -2.0042 0.9801
4.4514 1.1084 -1.9992 0.9802
4.0211 1.3925 -1.8546 0.9816
3.8821 1.7463 -1.8552 0.9816
3.7119 2.0863 -1.8557 0.9816
3.2837 2.7142 -1.8567 0.9816
3.0291 2.9970 -1.8571 0.9816
2.7502 3.2559 -1.8574 0.9816
2.2233 3.1672 -1.6864 0.9833
1.9012 3.2997 -1.6597 0.9835
1.4381 4.0138 -1.8582 0.9816
0.3238 4.2509 -1.8580 0.9816
-0.0567 4.2624 -1.8578 0.9816
-0.4707 4.5695 -2.0020 0.9802
-0.8794 4.5238 -2.0085 0.9801
-1.2802 4.4298 -2.0096 0.9801
-2.4056 3.9295 -2.0080 0.9801
-2.7458 3.6980 -2.0073 0.9801
-3.0637 3.4371 -2.0066 0.9801
-3.6231 2.8358 -2.0052 0.9801
-4.0662 2.1450 -2.0036 0.9801
-4.2396 1.7729 -2.0027 0.9801
-1.5814 0.5009 -0.7229 0.9928
-1.5241 0.3367 -0.6802 0.9932
-1.5198 0.1957 -0.6678 0.9933
-1.5294 -0.0774 -0.6674 0.9933
-4.0235 -2.1839 -1.9952 0.9802
-3.8116 -2.5335 -1.9946 0.9802
-3.5695 -2.8627 -1.9941 0.9802
-3.2991 -3.1691 -1.9937 0.9802
-3.0026 -3.4501 -1.9933 0.9802
-2.3410 -3.9278 -1.9928 0.9802
-1.2171 -4.4068 -1.9925 0.9802
-0.8191 -4.4980 -1.9925 0.9802
0.4014 -4.5557 -1.9931 0.9802
1.2051 -4.4134 -1.9939 0.9802
1.5944 -4.2893 -1.9943 0.9802
3.5684 -2.8790 -1.9982 0.9802
3.8125 -2.5501 -1.9990 0.9802
4.2084 -1.8334 -2.0006 0.9802
4.3570 -1.4512 -2.0014 0.9802
4.4710 -1.0572 -2.0023 0.9802
4.4858 0.9773 -2.0008 0.9802
4.1273 1.2941 -1.8851 0.9813
3.9315 1.6307 -1.8550 0.9816
3.3622 2.6159 -1.8566 0.9816
2.8450 3.1731 -1.8573 0.9816
2.3205 3.1063 -1.6898 0.9832
1.5560 3.9695 -1.8581 0.9816
0.4492 4.2396 -1.8580 0.9816
-0.3224 4.4014 -1.9233 0.9809
-0.7447 4.5434 -2.0065 0.9801
-1.1489 4.4660 -2.0097 0.9801
-1.5424 4.3447 -2.0093 0.9801
-1.9234 4.1887 -2.0088 0.9801
-2.2888 3.9992 -2.0082 0.9801
-2.6356 3.7779 -2.0076 0.9801
-3.5382 2.9419 -2.0054 0.9801
-4.0016 2.2645 -2.0038 0.9801
-4.1859 1.8976 -2.0030 0.9801
-1.5929 0.5568 -0.7354 0.9927
-1.5295 0.1046 -0.6681 0.9933
-1.5265 -0.0322 -0.6654 0.9934
-4.2559 -1.6920 -1.9960 0.9802
-4.0867 -2.0643 -1.9954 0.9802
-3.3915 -3.0705 -1.9938 0.9802
-2.7908 -3.6230 -1.9931 0.9802
-2.4560 -3.8571 -1.9928 0.9802
-1.7312 -4.2315 -1.9925 0.9802
-0.9516 -4.4718 -1.9925 0.9802
-0.5488 -4.5391 -1.9926 0.9802
-0.1417 -4.5703 -1.9928 0.9802
1.8483 -4.1871 -1.9947 0.9802
2.5645 -3.7942 -1.9959 0.9802
3.2002 -3.2802 -1.9972 0.9802
3.9592 -2.3183 -1.9995 0.9802
4.1519 -1.9566 -2.0003 0.9802
4.3117 -1.5791 -2.0012 0.9802
4.5274 -0.7882 -2.0028 0.9801
4.5816 -0.3813 -2.0036 0.9801
4.5992 0.0290 -2.0045 0.9801
4.5801 0.4394 -2.0052 0.9801
4.5163 0.8451 -2.0025 0.9802
3.4377 2.5152 -1.8564 0.9816
3.2003 2.8126 -1.8568 0.9816
2.9373 3.0875 -1.8572 0.9816
2.1137 3.2137 -1.6764 0.9834
2.0156 3.7567 -1.8580 0.9816
0.5742 4.2246 -1.8581 0.9816
-0.6096 4.5591 -2.0046 0.9801
-1.0166 4.4983 -2.0099 0.9801
-2.1699 4.0655 -2.0084 0.9801
-2.5232 3.8545 -2.0078 0.9801
-2.8561 3.6128 -2.0071 0.9801
-3.1659 3.3424 -2.0064 0.9801
-1.4978 0.2836 -0.6644 0.9934
-1.5266 0.1498 -0.6685 0.9933
-1.5241 0.0129 -0.6643 0.9934
-1.5041 -0.2585 -0.6651 0.9934
-1.5549 -0.4129 -0.7011 0.9930
-1.5965 -0.5807 -0.7404 0.9926
-4.1463 -1.9430 -1.9956 0.9802
-3.9552 -2.3045 -1.9950 0.9802
-3.7328 -2.6474 -1.9944 0.9802
-3.4809 -2.9692 -1.9940 0.9802
-3.2015 -3.2672 -1.9936 0.9802
-2.7852 3.3218 -2.0066 0.9811
-3.3289 2.7720 -2.0052 0.9811
-1.3159 0.5977 -0.6690 0.9937
-1.3336 0.4673 -0.6541 0.9938
-1.3108 0.3315 -0.6258 0.9941
-1.3385 0.0925 -0.6210 0.9941
-1.3362 -0.0272 -0.6186 0.9941
-3.1960 -2.8893 -1.9943 0.9812
-2.3157 -3.6308 -1.9934 0.9812
-1.6333 -3.9839 -1.9931 0.9812
-0.5200 -4.2744 -1.9931 0.9812
-0.1366 -4.3041 -1.9933 0.9812
0.2480 -4.2996 -1.9935 0.9812
0.6307 -4.2610 -1.9938 0.9812
1.0085 -4.1885 -1.9942 0.9812
1.3785 -4.0826 -1.9946 0.9812
1.7377 -3.9443 -1.9951 0.9812
3.2761 -2.8110 -1.9982 0.9812
3.9079 -1.8451 -2.0004 0.9811
4.0585 -1.4897 -2.0012 0.9811
4.1769 -1.1221 -2.0020 0.9811
4.2620 -0.7452 -2.0028 0.9811
4.2576 0.7934 -2.0047 0.9811
3.7887 1.4387 -1.8759 0.9823
3.6046 1.7513 -1.8550 0.9825
3.4349 2.0665 -1.8555 0.9825
3.2377 2.3653 -1.8560 0.9825
2.4972 3.1400 -1.8571 0.9825
2.0909 3.1740 -1.7593 0.9834
1.8998 3.5347 -1.8575 0.9825
1.5769 3.6903 -1.8576 0.9825
1.2415 3.8164 -1.8577 0.9825
0.5434 3.9761 -1.8576 0.9825
0.1865 4.0084 -1.8574 0.9825
-0.5713 4.2964 -2.0063 0.9811
-0.9538 4.2350 -2.0094 0.9810
-2.0398 3.8285 -2.0080 0.9811
-3.4878 2.5675 -2.0047 0.9811
-1.3313 0.5111 -0.6601 0.9937
-1.3364 0.1321 -0.6216 0.9941
-1.3381 -0.1075 -0.6214 0.9941
-1.3192 -0.2257 -0.6195 0.9941
-3.7262 -2.1674 -1.9954 0.9812
-3.0172 -3.0747 -1.9940 0.9812
-2.7304 -3.3311 -1.9937 0.9812
-2.0944 -3.7624 -1.9932 0.9812
-1.3922 -4.0744 -1.9930 0.9812
-0.6460 -4.2571 -1.9931 0.9812
-0.2636 -4.2981 -1.9932 0.9812
1.2572 -4.1213 -1.9945 0.9812
1.9706 -3.8341 -1.9954 0.9812
2.6222 -3.4248 -1.9966 0.9812
3.8512 -1.9595 -2.0002 0.9811
4.0123 -1.6087 -2.0009 0.9811
4.3000 -0.4893 -2.0033 0.9811
4.3218 0.2829 -2.0048 0.9811
4.1961 1.0449 -2.0016 0.9811
3.6544 1.6439 -1.8548 0.9825
3.0910 2.5549 -1.8563 0.9825
2.8513 2.8211 -1.8567 0.9825
1.3536 3.7780 -1.8577 0.9825
1.0111 3.8838 -1.8577 0.9825
0.6606 3.9584 -1.8576 0.9825
0.3048 4.0012 -1.8575 0.9825
-0.4438 4.3078 -2.0046 0.9811
-1.2051 4.1698 -2.0091 0.9811
-1.5719 4.0448 -2.0087 0.9811
-1.9260 3.8874 -2.0082 0.9811
-2.2646 3.6990 -2.0076 0.9811
-2.8841 3.2357 -2.0064 0.9811
-3.4109 2.6697 -2.0050 0.9811
-1.2998 0.2871 -0.6162 0.9941
-1.3378 0.0519 -0.6197 0.9941
-1.3384 -0.0678 -0.6203 0.9941
-1.3319 -0.4393 -0.6492 0.9938
-1.3221 -0.5714 -0.6667 0.9937
-3.1069 -2.9845 -1.9942 0.9812
-2.5262 -3.4880 -1.9935 0.9812
-1.8657 -3.8807 -1.9931 0.9812
-1.5120 -4.0315 -1.9930 0.9812
-1.1462 -4.1503 -1.9930 0.9812
-0.7714 -4.2361 -1.9931 0.9812
0.3780 -4.2903 -1.9936 0.9812
0.7594 -4.2402 -1.9939 0.9812
1.5015 -4.0394 -1.9948 0.9812
1.8564 -3.8902 -1.9953 0.9812
2.1967 -3.7101 -1.9958 0.9812
2.5197 -3.5004 -1.9964 0.9812
3.3601 -2.7109 -1.9984 0.9812
3.5899 -2.4012 -1.9992 0.9811
4.1023 -1.3664 -2.0015 0.9811
4.3227 -0.2315 -2.0038 0.9811
4.3277 0.1551 -2.0045 0.9811
4.2283 0.9212 -2.0031 0.9811
3.7010 1.5351 -1.8547 0.9825
3.5503 1.8597 -1.8552 0.9825
2.9332 2.7355 -1.8565 0.9825
2.6779 2.9868 -1.8569 0.9825
1.7920 3.5906 -1.8575 0.9825
1.4646 3.7364 -1.8576 0.9825
0.4228 3.9906 -1.8575 0.9825
0.0651 4.0121 -1.8574 0.9825
-0.3161 4.3155 -2.0029 0.9811
-0.7017 4.2810 -2.0081 0.9811
-1.4519 4.0898 -2.0088 0.9811
-2.4811 3.5564 -2.0072 0.9811
-2.7876 3.3198 -2.0066 0.9811
-3.3309 2.7696 -2.0052 0.9811
-3.5634 2.4605 -2.0045 0.9811
-3.7673 2.1319 -2.0037 0.9811
-1.3105 0.3304 -0.6256 0.9941
-1.3345 -0.1479 -0.6215 0.9941
-1.3251 -0.3941 -0.6399 0.9939
-3.8484 -1.9440 -1.9957 0.9812
-3.4399 -2.5957 -1.9947 0.9812
-3.1939 -2.8916 -1.9943 0.9812
-2.9226 -3.1644 -1.9939 0.9812
-2.6282 -3.4120 -1.9936 0.9812
-1.9795 -3.8240 -1.9932 0.9812
-1.2683 -4.1146 -1.9930 0.9812
-0.8962 -4.2114 -1.9930 0.9812
1.3815 -4.0816 -1.9946 0.9812
2.0860 -3.7730 -1.9956 0.9812
2.4150 -3.5729 -1.9962 0.9812
3.0135 -3.0888 -1.9975 0.9812
3.5170 -2.5058 -1.9989 0.9811
3.9093 -1.8423 -2.0004 0.9811
4.0596 -1.4867 -2.0012 0.9811
4.1777 -1.1191 -2.0020 0.9811
4.2626 -0.7421 -2.0028 0.9811
4.3299 0.0273 -2.0043 0.9811
4.1595 1.1705 -2.0002 0.9811
3.0125 2.6475 -1.8564 0.9825
2.7648 2.9063 -1.8568 0.9825
2.4949 3.1419 -1.8571 0.9825
2.0883 3.1751 -1.7591 0.9834
1.8972 3.5361 -1.8575 0.9825
0.8931 3.9126 -1.8576 0.9825
-1.3306 4.1312 -2.0090 0.9811
-2.0426 3.8270 -2.0080 0.9811
-2.9804 3.1465 -2.0061 0.9811
-3.2481 2.8671 -2.0054 0.9811
-1.3314 0.5100 -0.6599 0.9937
-1.3127 0.2486 -0.6184 0.9941
-1.3189 -0.2267 -0.6195 0.9941
-1.3331 -0.4849 -0.6566 0.9938
-1.3111 -0.6144 -0.6702 0.9936
-3.2781 -2.7962 -1.9944 0.9812
-3.0150 -3.0769 -1.9940 0.9812
-2.6279 3.1342 -2.0063 0.9819
-3.1411 2.6156 -2.0050 0.9820
-3.3607 2.3241 -2.0043 0.9820
-1.1406 0.5181 -0.6145 0.9944
-3.0165 -2.7270 -1.9947 0.9820
-2.4831 -3.2187 -1.9941 0.9821
-2.1857 -3.4270 -1.9938 0.9821
-0.8488 -3.9745 -1.9935 0.9821
-0.4908 -4.0345 -1.9936 0.9821
-0.1289 -4.0625 -1.9938 0.9821
0.2341 -4.0583 -1.9940 0.9821
0.5953 -4.0218 -1.9943 0.9820
2.2768 -3.3738 -1.9965 0.9820
2.5695 -3.1581 -1.9971 0.9820
2.8419 -2.9172 -1.9977 0.9820
3.5165 -2.0626 -1.9998 0.9820
3.9415 -1.0589 -2.0020 0.9820
4.0217 -0.7032 -2.0027 0.9820
4.0687 0.3873 -2.0048 0.9820
4.0193 0.7490 -2.0055 0.9819
3.9304 1.1029 -2.0024 0.9820
3.2408 1.9497 -1.8552 0.9833
2.8440 2.4957 -1.8560 0.9833
2.3559 2.9624 -1.8566 0.9833
2.0825 3.1612 -1.8569 0.9833
0.8453 3.6906 -1.8572 0.9833
0.5126 3.7511 -1.8571 0.9833
0.1784 3.8343 -1.8828 0.9830
-0.5396 4.0579 -2.0080 0.9819
-0.8999 3.9955 -2.0090 0.9819
-1.9245 3.6121 -2.0076 0.9819
-3.2910 2.4226 -2.0045 0.9820
-3.4928 2.1186 -2.0038 0.9820
-1.1589 0.3298 -0.5910 0.9946
-1.1768 0.2237 -0.5876 0.9947
-1.1959 0.0110 -0.5866 0.9947
-1.1812 -0.2021 -0.5878 0.9947
-1.1583 -0.3067 -0.5878 0.9947
-1.1554 -0.4193 -0.6029 0.9945
-1.1375 -0.5320 -0.6160 0.9944
-1.3141 -3.8457 -1.9935 0.9821
-0.6097 -4.0182 -1.9936 0.9821
0.4763 -4.0374 -1.9942 0.9821
1.1867 -3.8898 -1.9949 0.9820
1.8599 -3.6187 -1.9958 0.9820
2.1760 -3.4392 -1.9963 0.9820
3.4537 -2.1653 -1.9995 0.9820
3.9987 -0.8216 -2.0025 0.9820
4.0576 -0.4617 -2.0032 0.9820
4.0841 -0.0979 -2.0039 0.9820
4.0392 0.6299 -2.0053 0.9820
3.9640 0.9871 -2.0038 0.9820
3.8523 1.3341 -1.9998 0.9820
3.4843 1.5674 -1.8741 0.9831
3.1190 2.1402 -1.8555 0.9833
2.6901 2.6616 -1.8563 0.9833
2.1749 3.0982 -1.8568 0.9833
1.8829 3.2680 -1.8501 0.9833
1.2770 3.5643 -1.8572 0.9833
0.9539 3.6640 -1.8572 0.9833
0.6232 3.7344 -1.8571 0.9833
-0.0541 4.0593 -1.9914 0.9821
-0.4192 4.0688 -2.0064 0.9819
-0.7815 4.0206 -2.0091 0.9819
-2.1366 3.4900 -2.0073 0.9819
-2.9818 2.7971 -2.0054 0.9819
-3.2184 2.5190 -2.0048 0.9820
-3.4291 2.2211 -2.0041 0.9820
-1.1477 0.4800 -0.6102 0.9945
-1.1586 0.3670 -0.5961 0.9946
-1.1685 0.2581 -0.5870 0.9947
-1.1892 0.1531 -0.5881 0.9947
-1.1963 -0.0606 -0.5875 0.9947
-1.1872 -0.1672 -0.5881 0.9947
-1.1580 -0.3820 -0.5981 0.9946
-2.0810 -3.4915 -1.9938 0.9821
-1.0819 -3.9174 -1.9935 0.9821
0.3568 -4.0495 -1.9941 0.9821
0.7168 -4.0022 -1.9944 0.9820
1.0712 -3.9229 -1.9947 0.9820
1.7521 -3.6717 -1.9956 0.9820
2.0733 -3.5017 -1.9961 0.9820
2.3781 -3.3037 -1.9967 0.9820
2.6641 -3.0792 -1.9973 0.9820
2.9292 -2.8302 -1.9979 0.9820
3.1710 -2.5584 -1.9986 0.9820
3.3878 -2.2661 -1.9993 0.9820
3.5778 -1.9555 -2.0000 0.9820
3.7393 -1.6290 -2.0007 0.9820
3.8712 -1.2894 -2.0015 0.9820
4.0556 0.5103 -2.0051 0.9820
3.9943 0.8702 -2.0052 0.9820
3.6188 1.5010 -1.9217 0.9827
3.3497 1.7546 -1.8549 0.9833
2.7673 2.5808 -1.8561 0.9833
2.5265 2.8179 -1.8565 0.9833
2.2653 3.0325 -1.8567 0.9833
1.3817 3.5250 -1.8572 0.9833
1.0617 3.6343 -1.8572 0.9833
0.7332 3.7144 -1.8572 0.9833
-0.2986 4.0762 -2.0048 0.9820
-0.6625 4.0421 -2.0092 0.9819
-1.3698 3.8586 -2.0084 0.9819
-1.7082 3.7201 -2.0080 0.9819
-2.3409 3.3555 -2.0069 0.9819
-2.6302 3.1323 -2.0063 0.9819
-3.3624 2.3216 -2.0043 0.9820
-3.5549 2.0117 -2.0036 0.9820
-1.1408 0.5172 -0.6144 0.9944
-1.1586 0.2921 -0.5861 0.9947
-1.1955 0.0818 -0.5878 0.9947
-1.1511 -0.4576 -0.6076 0.9945
-3.2467 -2.4499 -1.9951 0.9820
-3.0145 -2.7292 -1.9947 0.9820
-2.1832 -3.4286 -1.9938 0.9821
-1.5389 -3.7615 -1.9936 0.9821
-1.1971 -3.8837 -1.9935 0.9821
-0.4879 -4.0349 -1.9936 0.9821
-0.1259 -4.0626 -1.9938 0.9821
0.9548 -3.9526 -1.9946 0.9820
1.3039 -3.8524 -1.9950 0.9820
1.9688 -3.5610 -1.9960 0.9820
2.2792 -3.3721 -1.9965 0.9820
3.0938 -2.6506 -1.9984 0.9820
3.3191 -2.3648 -1.9991 0.9820
3.5181 -2.0600 -1.9998 0.9820
3.8309 -1.4030 -2.0012 0.9820
4.0223 -0.7003 -2.0027 0.9820
4.0856 0.0257 -2.0041 0.9820
4.0685 0.3903 -2.0048 0.9820
4.0188 0.7520 -2.0055 0.9819
3.9296 1.1058 -2.0024 0.9820
3.7600 1.4310 -1.9734 0.9822
3.0530 2.2338 -1.8556 0.9833
2.8422 2.4978 -1.8560 0.9833
2.3538 2.9642 -1.8567 0.9833
2.0802 3.1627 -1.8569 0.9833
1.7899 3.3360 -1.8570 0.9833
1.1686 3.6013 -1.8572 0.9833
0.8426 3.6912 -1.8572 0.9833
0.1757 3.8368 -1.8840 0.9830
-0.5425 4.0575 -2.0080 0.9819
-0.9028 3.9948 -2.0090 0.9819
-1.9272 3.6107 -2.0076 0.9819
-2.5368 3.2089 -2.0065 0.9819
-2.8121 2.9689 -2.0059 0.9819
-3.2928 2.4202 -2.0045 0.9820
-3.4943 2.1160 -2.0038 0.9820
-1.1531 0.4417 -0.6057 0.9945
-1.1589 0.3288 -0.5909 0.9946
-1.1770 0.2229 -0.5876 0.9947
-1.1584 -0.3076 -0.5879 0.9947
-1.1554 -0.4203 -0.6031 0.9945
-1.1373 -0.5329 -0.6161 0.9944
-3.5154 -2.0482 -1.9957 0.9820
-2.8457 -2.9042 -1.9945 0.9820
-2.9697 2.4729 -2.0048 0.9827
-3.1775 2.1974 -2.0042 0.9827
-1.0436 0.4740 -0.5946 0.9948
-1.0947 0.1748 -0.5751 0.9950
-1.1056 0.0764 -0.5749 0.9950
-1.1021 -0.1214 -0.5752 0.9950
-1.0635 -0.3155 -0.5755 0.9950
-2.0671 -3.2410 -1.9943 0.9828
-1.7696 -3.4123 -1.9941 0.9828
-1.1349 -3.6722 -1.9940 0.9828
-0.8027 -3.7588 -1.9940 0.9828
-0.4642 -3.8156 -1.9941 0.9828
1.8594 -3.3690 -1.9963 0.9828
2.4298 -2.9865 -1.9973 0.9828
2.6874 -2.7586 -1.9979 0.9828
2.9237 -2.5086 -1.9986 0.9828
3.6214 -1.3292 -2.0013 0.9828
3.7268 -1.0012 -2.0019 0.9828
3.8468 0.3662 -2.0047 0.9827
3.8000 0.7082 -2.0053 0.9827
3.3352 1.6204 -1.9236 0.9834
2.4678 2.5903 -1.8560 0.9840
2.2271 2.8005 -1.8563 0.9840
1.4064 3.2912 -1.8567 0.9840
1.1072 3.4036 -1.8568 0.9840
0.7991 3.4888 -1.8568 0.9840
0.1772 3.8095 -1.9784 0.9830
-0.1656 3.8615 -2.0051 0.9827
-0.5104 3.8386 -2.0089 0.9827
-1.1841 3.6855 -2.0082 0.9827
-1.5079 3.5644 -2.0078 0.9827
-1.8194 3.4149 -2.0073 0.9827
-2.1163 3.2381 -2.0068 0.9827
-2.3961 3.0355 -2.0062 0.9827
-2.8957 2.5598 -2.0050 0.9827
-3.1115 2.2905 -2.0044 0.9827
-1.0336 0.5068 -0.5972 0.9948
-1.0562 0.4055 -0.5869 0.9949
-1.0884 0.2069 -0.5747 0.9950
-1.1033 0.1091 -0.5752 0.9950
-1.1049 -0.0887 -0.5751 0.9950
-1.0673 -0.2826 -0.5728 0.9950
-1.0405 -0.4867 -0.5959 0.9948
-3.1393 -2.2231 -1.9956 0.9828
-2.6933 -2.7446 -1.9949 0.9828
-2.1620 -3.1787 -1.9943 0.9828
-1.8696 -3.3586 -1.9941 0.9828
-0.9134 -3.7335 -1.9940 0.9828
-0.5766 -3.8002 -1.9940 0.9828
-0.2353 -3.8367 -1.9942 0.9828
1.1222 -3.6787 -1.9952 0.9828
2.0577 -3.2524 -1.9966 0.9828
3.2658 -2.0475 -1.9997 0.9828
3.4366 -1.7485 -2.0003 0.9828
3.7809 -0.7768 -2.0024 0.9828
3.8364 -0.4366 -2.0031 0.9828
3.8555 0.2524 -2.0045 0.9827
3.4621 1.5574 -1.9694 0.9830
3.1166 1.7518 -1.8547 0.9840
2.5431 2.5161 -1.8559 0.9840
2.3088 2.7334 -1.8562 0.9840
2.0560 2.9288 -1.8564 0.9840
1.7866 3.1009 -1.8566 0.9840
1.5029 3.2481 -1.8567 0.9840
0.5891 3.5302 -1.8567 0.9840
-0.0514 3.8620 -2.0037 0.9827
-0.3967 3.8504 -2.0081 0.9827
-2.8191 2.6445 -2.0052 0.9827
-3.0429 2.3816 -2.0046 0.9827
-1.0627 0.3366 -0.5783 0.9950
-1.0805 0.2387 -0.5741 0.9950
-1.0997 0.1416 -0.5752 0.9950
-1.1066 0.0429 -0.5745 0.9950
-1.1064 -0.0560 -0.5747 0.9950
-1.0979 -0.1546 -0.5752 0.9950
-1.0770 -0.2513 -0.5737 0.9950
-1.0619 -0.3503 -0.5801 0.9950
-1.0131 -0.5499 -0.5980 0.9948
-3.2039 -2.1295 -1.9958 0.9828
-2.7733 -2.6640 -1.9950 0.9828
-2.5241 -2.9003 -1.9947 0.9828
-2.2550 -3.1136 -1.9944 0.9828
-1.9680 -3.3020 -1.9942 0.9828
-1.6655 -3.4642 -1.9941 0.9828
-1.3497 -3.5988 -1.9940 0.9828
-1.0232 -3.7048 -1.9940 0.9828
-0.0056 -3.8442 -1.9943 0.9828
0.3374 -3.8298 -1.9945 0.9828
1.0130 -3.7100 -1.9951 0.9828
1.3403 -3.6055 -1.9955 0.9828
1.6570 -3.4723 -1.9960 0.9828
2.2488 -3.1241 -1.9970 0.9828
2.7699 -2.6763 -1.9981 0.9828
3.3831 -1.8490 -2.0001 0.9828
3.6604 -1.2192 -2.0015 0.9828
3.7558 -0.8881 -2.0022 0.9828
3.8214 -0.5496 -2.0029 0.9828
3.7772 0.8229 -2.0055 0.9827
3.5602 1.4767 -1.9996 0.9828
3.2144 1.6838 -1.8825 0.9838
3.0069 1.9352 -1.8550 0.9840
0.6931 3.5113 -1.8568 0.9840
0.3832 3.6170 -1.8869 0.9837
-0.2826 3.8576 -2.0066 0.9827
-0.6263 3.8212 -2.0088 0.9827
-1.6149 3.5169 -2.0076 0.9827
-2.2131 3.1723 -2.0066 0.9827
-2.4866 2.9613 -2.0061 0.9827
-2.7401 2.7268 -2.0055 0.9827
-3.1791 2.1950 -2.0042 0.9827
-1.0437 0.4732 -0.5945 0.9948
-1.0948 0.1740 -0.5751 0.9950
-1.1057 0.0756 -0.5749 0.9950
-1.1065 -0.0233 -0.5742 0.9950
-1.1021 -0.1222 -0.5752 0.9950
-1.0635 -0.3163 -0.5756 0.9950
-2.8509 -2.5811 -1.9951 0.9828
-2.6088 -2.8247 -1.9948 0.9828
-2.3461 -3.0457 -1.9945 0.9828
-2.0648 -3.2425 -1.9943 0.9828
-1.4554 -3.5574 -1.9940 0.9828
-1.1322 -3.6730 -1.9940 0.9828
-0.8000 -3.7594 -1.9940 0.9828
-0.4614 -3.8160 -1.9941 0.9828
-0.1191 -3.8422 -1.9942 0.9828
0.2242 -3.8379 -1.9944 0.9828
0.9030 -3.7381 -1.9950 0.9828
1.5536 -3.5195 -1.9958 0.9828
2.1554 -3.1889 -1.9968 0.9828
3.1385 -2.2362 -1.9992 0.9828
3.6223 -1.3266 -2.0013 0.9828
3.7275 -0.9985 -2.0020 0.9828
3.8031 -0.6621 -2.0026 0.9828
3.8629 0.0243 -2.0040 0.9827
3.8465 0.3690 -2.0047 0.9827
3.7194 1.0467 -2.0045 0.9827
3.3322 1.6219 -1.9226 0.9834
3.0624 1.8454 -1.8549 0.9840
2.8862 2.1118 -1.8553 0.9840
2.6868 2.3613 -1.8557 0.9840
1.1047 3.4044 -1.8568 0.9840
0.7965 3.4894 -1.8568 0.9840
0.1745 3.8120 -1.9796 0.9830
-0.1684 3.8614 -2.0051 0.9827
-0.5132 3.8382 -2.0089 0.9827
-0.8535 3.7765 -2.0086 0.9827
-2.1187 3.2365 -2.0068 0.9827
-2.3983 3.0338 -2.0062 0.9827
-3.1132 2.2882 -2.0044 0.9827
-1.0563 0.4046 -0.5868 0.9949
-1.0638 0.3019 -0.5737 0.9950
-1.0885 0.2061 -0.5747 0.9950
-1.1062 0.0094 -0.5739 0.9950
-1.1049 -0.0895 -0.5751 0.9950
-1.0923 -0.1877 -0.5750 0.9950
-1.0671 -0.2833 -0.5728 0.9950
-3.1377 -2.2253 -1.9956 0.9828
-2.6912 -2.7465 -1.9949 0.9828
-2.3530 2.8063 -2.0058 0.9834
-2.8127 2.3421 -2.0047 0.9834
-0.9189 0.5209 -0.5785 0.9952
-0.9588 0.4355 -0.5768 0.9952
-0.9768 0.3423 -0.5669 0.9953
-0.9945 0.2515 -0.5618 0.9953
-1.0164 0.1623 -0.5637 0.9953
-1.0275 -0.0209 -0.5629 0.9953
-0.9707 -0.3851 -0.5719 0.9952
-0.8968 -0.5577 -0.5784 0.9952
-2.7026 -2.4432 -1.9954 0.9835
-2.4735 -2.6742 -1.9951 0.9835
-2.2247 -2.8838 -1.9949 0.9835
-1.9583 -3.0705 -1.9946 0.9835
-1.3813 -3.3692 -1.9944 0.9835
-1.0752 -3.4790 -1.9944 0.9835
0.2097 -3.6361 -1.9948 0.9835
0.8529 -3.5419 -1.9954 0.9835
1.4693 -3.3352 -1.9961 0.9835
1.7614 -3.1915 -1.9966 0.9835
2.0396 -3.0224 -1.9971 0.9835
2.3018 -2.8291 -1.9976 0.9835
2.5457 -2.6132 -1.9981 0.9835
2.7695 -2.3763 -1.9987 0.9835
3.1497 -1.8474 -2.0000 0.9835
3.5300 -0.9483 -2.0019 0.9835
3.6017 -0.6298 -2.0026 0.9835
3.6586 0.0204 -2.0039 0.9835
3.6434 0.3468 -2.0045 0.9834
3.2839 1.5954 -1.9996 0.9835
2.5461 2.2344 -1.8553 0.9847
1.3318 3.1167 -1.8564 0.9847
0.7567 3.3039 -1.8564 0.9847
-0.1570 3.6609 -2.0069 0.9834
-1.4280 3.3756 -2.0075 0.9834
-1.7231 3.2340 -2.0070 0.9834
-2.7425 2.4244 -2.0049 0.9834
-0.9726 0.3734 -0.5706 0.9953
-1.0245 0.1013 -0.5638 0.9953
-1.0273 0.0095 -0.5627 0.9953
-1.0260 -0.0824 -0.5637 0.9953
-1.0142 -0.1735 -0.5636 0.9953
-0.9910 -0.2624 -0.5615 0.9953
-0.9545 -0.4464 -0.5771 0.9952
-0.9131 -0.5311 -0.5785 0.9952
-0.8601 -0.6091 -0.5772 0.9952
-2.3090 -2.8170 -1.9949 0.9835
-2.0482 -3.0114 -1.9947 0.9835
-1.4802 -3.3270 -1.9944 0.9835
-0.8653 -3.5370 -1.9944 0.9835
-0.5463 -3.6002 -1.9944 0.9835
-0.2229 -3.6348 -1.9946 0.9835
0.1023 -3.6406 -1.9947 0.9835
0.4267 -3.6173 -1.9950 0.9835
1.3701 -3.3769 -1.9960 0.9835
1.9493 -3.0810 -1.9969 0.9835
2.9072 -2.2070 -1.9991 0.9835
3.3911 -1.3597 -2.0011 0.9835
3.5001 -1.0520 -2.0017 0.9835
3.5811 -0.7358 -2.0024 0.9835
3.6573 -0.0877 -2.0037 0.9835
3.6517 0.2390 -2.0043 0.9834
3.6169 0.5641 -2.0049 0.9834
3.5532 0.8848 -2.0055 0.9834
3.3312 1.4985 -2.0006 0.9835
3.0825 1.7326 -1.9367 0.9840
2.7924 1.9161 -1.8549 0.9847
2.4083 2.3828 -1.8556 0.9847
1.9470 2.7736 -1.8560 0.9847
1.1432 3.1908 -1.8564 0.9847
0.5728 3.4322 -1.9058 0.9843
-0.0488 3.6616 -2.0056 0.9834
-0.3758 3.6480 -2.0086 0.9834
-1.0179 3.5221 -2.0080 0.9834
-1.3278 3.4166 -2.0076 0.9834
-1.6270 3.2838 -2.0072 0.9834
-1.9130 3.1248 -2.0067 0.9834
-2.6700 2.5046 -2.0051 0.9834
-2.8820 2.2557 -2.0045 0.9834
-0.8860 0.5739 -0.5782 0.9952
-0.9338 0.4926 -0.5782 0.9952
-1.0276 0.0398 -0.5632 0.9953
-1.0194 -0.1436 -0.5639 0.9953
-0.9999 -0.2333 -0.5623 0.9953
-0.9788 -0.3228 -0.5645 0.9953
-0.9644 -0.4168 -0.5754 0.9952
-0.9281 -0.5038 -0.5784 0.9952
-0.8789 -0.5841 -0.5780 0.9952
-2.8425 -2.2797 -1.9957 0.9835
-1.8645 -3.1283 -1.9946 0.9835
-1.5778 -3.2819 -1.9945 0.9835
-1.2787 -3.4095 -1.9944 0.9835
-0.9694 -3.5099 -1.9944 0.9835
-0.6524 -3.5825 -1.9944 0.9835
0.3197 -3.6282 -1.9949 0.9835
0.6422 -3.5857 -1.9952 0.9835
0.9597 -3.5147 -1.9955 0.9835
1.2697 -3.4157 -1.9958 0.9835
1.8573 -3.1370 -1.9967 0.9835
2.1304 -2.9595 -1.9972 0.9835
3.0345 -2.0297 -1.9996 0.9835
3.3491 -1.4590 -2.0008 0.9835
3.4671 -1.1548 -2.0015 0.9835
3.5575 -0.8411 -2.0022 0.9835
3.6195 -0.5206 -2.0028 0.9835
3.6527 -0.1956 -2.0035 0.9835
3.6567 0.1311 -2.0041 0.9835
3.5774 0.7794 -2.0053 0.9834
3.3758 1.4002 -2.0017 0.9835
3.1948 1.6735 -1.9754 0.9837
2.2618 2.5227 -1.8557 0.9847
1.5135 3.0325 -1.8563 0.9847
1.2369 3.1556 -1.8564 0.9847
0.6624 3.3555 -1.8733 0.9845
-0.9134 3.5508 -2.0081 0.9834
-1.2264 3.4545 -2.0077 0.9834
-1.5294 3.3306 -2.0073 0.9834
-1.8200 3.1802 -2.0069 0.9834
-2.0960 3.0044 -2.0064 0.9834
-0.8678 0.5992 -0.5776 0.9952
-0.9193 0.5202 -0.5785 0.9952
-0.9591 0.4348 -0.5767 0.9952
-0.9947 0.2508 -0.5619 0.9953
-1.0165 0.1616 -0.5637 0.9953
-1.0267 0.0702 -0.5636 0.9953
-1.0233 -0.1134 -0.5639 0.9953
-0.9705 -0.3859 -0.5720 0.9952
-0.9418 -0.4757 -0.5779 0.9952
-2.9087 -2.1949 -1.9958 0.9835
-2.7008 -2.4452 -1.9954 0.9835
-2.2226 -2.8854 -1.9949 0.9835
-1.3788 -3.3702 -1.9944 0.9835
-1.0726 -3.4798 -1.9944 0.9835
-0.7579 -3.5616 -1.9944 0.9835
0.2124 -3.6359 -1.9948 0.9835
0.5360 -3.6029 -1.9951 0.9835
1.7638 -3.1902 -1.9966 0.9835
2.0419 -3.0209 -1.9971 0.9835
2.3038 -2.8274 -1.9976 0.9835
2.5476 -2.6113 -1.9981 0.9835
3.1511 -1.8451 -2.0000 0.9835
3.4311 -1.2566 -2.0013 0.9835
3.5307 -0.9457 -2.0019 0.9835
3.6449 -0.3034 -2.0033 0.9835
3.5985 0.6733 -2.0051 0.9834
3.4176 1.3007 -2.0028 0.9835
3.2826 1.5978 -1.9996 0.9835
2.9714 1.7906 -1.9001 0.9843
2.5445 2.2362 -1.8553 0.9847
2.1072 2.6536 -1.8559 0.9847
1.8622 2.8314 -1.8561 0.9847
1.6023 2.9865 -1.8563 0.9847
0.1673 3.6536 -2.0032 0.9835
-0.1596 3.6608 -2.0069 0.9834
-0.8082 3.5764 -2.0082 0.9834
-1.1239 3.4894 -2.0079 0.9834
-1.4305 3.3746 -2.0075 0.9834
-1.7254 3.2328 -2.0070 0.9834
-2.0065 3.0652 -2.0065 0.9834
-2.2714 2.8732 -2.0060 0.9834
-2.5180 2.6584 -2.0054 0.9834
-0.8484 0.6236 -0.5767 0.9952
-0.9035 0.5471 -0.5785 0.9952
-0.9473 0.4636 -0.5776 0.9952
-0.9852 0.2796 -0.5609 0.9953
-1.0105 0.1913 -0.5633 0.9953
-1.0273 0.0087 -0.5627 0.9953
-0.9753 -0.3548 -0.5684 0.9953
-0.9542 -0.4471 -0.5771 0.9952
-2.2319 2.6620 -2.0056 0.9841
-2.4599 2.4516 -2.0051 0.9841
-0.8016 0.5543 -0.5627 0.9955
-0.8461 0.4796 -0.5615 0.9955
-0.9566 0.0661 -0.5536 0.9956
-0.9575 -0.0195 -0.5529 0.9956
-0.8258 -0.5135 -0.5614 0.9955
-2.5643 -2.3182 -1.9958 0.9842
-1.8581 -2.9134 -1.9950 0.9842
-1.3106 -3.1968 -1.9948 0.9842
-0.7216 -3.3788 -1.9948 0.9842
-0.4173 -3.4299 -1.9948 0.9842
-0.1096 -3.4537 -1.9950 0.9842
1.3941 -3.1644 -1.9964 0.9842
1.6712 -3.0280 -1.9968 0.9842
