ply
format ascii 1.0
element vertex 1584
property float32 x
property float32 y
property float32 z
property float32 I
end_header
14.1650 -9.7868 -2.0452 0.9330
14.4351 -8.1744 -1.9705 0.9354
16.9483 -5.9301 -2.1329 0.9302
15.7229 -2.5034 -1.8912 0.9379
10.0025 1.1060 -1.1954 0.9603
8.9288 1.8050 -1.0821 0.9640
8.0521 2.3924 -0.9978 0.9667
7.2040 2.8619 -0.9208 0.9693
6.6646 3.3644 -0.8868 0.9704
5.8311 3.6301 -0.8159 0.9727
3.6865 4.7834 -0.7174 0.9760
3.1922 5.0105 -0.7057 0.9764
2.7649 5.3379 -0.7141 0.9761
2.3592 5.7627 -0.7397 0.9752
1.8626 6.0377 -0.7505 0.9749
0.6891 3.2346 -0.3928 0.9868
-0.4218 7.2486 -0.8625 0.9712
-1.1109 7.4785 -0.8981 0.9700
-2.2686 2.3263 -0.3860 0.9870
-14.6958 12.5958 -2.2991 0.9250
-15.6002 5.7165 -1.9736 0.9353
-15.5091 4.1573 -1.9073 0.9374
-15.3158 2.6694 -1.8467 0.9393
-14.2218 -1.3618 -1.6971 0.9441
-12.5165 -4.7611 -1.5907 0.9475
-11.8389 -5.7602 -1.5639 0.9483
-8.8807 -7.8024 -1.4042 0.9535
-8.0878 -8.4991 -1.3936 0.9538
-4.5745 -10.7226 -1.3848 0.9541
-3.6153 -11.1366 -1.3908 0.9539
-2.6250 -11.4922 -1.4003 0.9536
-1.6037 -11.7878 -1.4131 0.9532
5.5285 -13.0462 -1.6831 0.9445
10.9190 -11.5300 -1.8863 0.9380
15.0943 -9.1423 -2.0962 0.9314
2.3520 -0.9012 -0.2992 0.9899
17.7563 -5.0399 -2.1925 0.9283
11.7470 -0.1003 -1.3954 0.9538
10.5222 0.8521 -1.2540 0.9584
9.2010 1.5808 -1.1090 0.9631
7.4658 2.7153 -0.9437 0.9685
5.4327 3.8527 -0.7911 0.9735
4.8490 4.1358 -0.7570 0.9747
4.4365 4.5273 -0.7529 0.9748
3.8021 4.6451 -0.7130 0.9761
2.5195 5.6739 -0.7374 0.9753
2.0273 5.9466 -0.7463 0.9750
0.7770 3.1859 -0.3895 0.9869
0.4028 6.6446 -0.7907 0.9735
-0.2069 7.1804 -0.8533 0.9715
-2.1956 2.3876 -0.3853 0.9870
-14.5137 13.1973 -2.3302 0.9240
-15.6059 6.2434 -1.9966 0.9345
-15.5508 4.6612 -1.9284 0.9367
-15.3898 3.1498 -1.8660 0.9387
-15.1340 1.7104 -1.8091 0.9405
-14.7927 0.3433 -1.7576 0.9421
-14.3746 -0.9521 -1.7112 0.9436
-13.3362 -3.3318 -1.6328 0.9461
-12.7279 -4.4189 -1.6004 0.9472
-11.3568 -6.3950 -1.5482 0.9489
-10.0990 -6.9416 -1.4557 0.9518
-9.1330 -7.5613 -1.4084 0.9534
-8.3520 -8.2767 -1.3967 0.9537
-7.5352 -8.9354 -1.3884 0.9540
-6.6840 -9.5379 -1.3835 0.9542
-5.7994 -10.0843 -1.3818 0.9542
-13.1130 2.3040 -1.8864 0.9476
-12.9258 1.0960 -1.8380 0.9489
-12.6605 -0.0602 -1.7939 0.9501
-12.3237 -1.1630 -1.7539 0.9512
-9.7556 -5.8584 -1.6123 0.9551
-9.0950 -6.6332 -1.5950 0.9555
-8.3930 -7.3535 -1.5811 0.9559
-7.6521 -8.0193 -1.5705 0.9562
-3.3949 -10.4090 -1.5513 0.9567
-2.4930 -10.8458 -1.5768 0.9560
0.4827 -11.4596 -1.6251 0.9547
1.5246 -11.5329 -1.6483 0.9541
2.5890 -11.5356 -1.6751 0.9534
3.6738 -11.4643 -1.7057 0.9525
5.8947 -11.0836 -1.7787 0.9505
7.0244 -10.7653 -1.8213 0.9494
9.3007 -9.8481 -1.9193 0.9467
11.5592 -8.5221 -2.0348 0.9436
12.7448 -6.2607 -2.0119 0.9442
2.3486 -0.9036 -0.3565 0.9899
15.4304 -2.9450 -2.2258 0.9385
14.8849 -1.4822 -2.1195 0.9414
10.7632 0.8567 -1.5299 0.9573
9.3056 1.5856 -1.3375 0.9626
6.6977 3.1270 -1.0473 0.9706
6.0368 3.5058 -0.9891 0.9722
5.4346 3.8428 -0.9431 0.9735
3.8049 4.6356 -0.8497 0.9761
3.3929 4.9812 -0.8540 0.9759
2.0326 5.9353 -0.8889 0.9750
0.9642 6.3262 -0.9067 0.9745
0.4111 6.6312 -0.9414 0.9735
-0.1954 7.1200 -1.0092 0.9716
-0.8579 7.3135 -1.0433 0.9707
-7.1971 17.7713 -2.7167 0.9255
-9.5813 15.1649 -2.5416 0.9301
-12.4640 9.4743 -2.2183 0.9387
-12.8309 8.0554 -2.1466 0.9406
-13.2037 5.3033 -2.0161 0.9441
-13.1561 2.7115 -1.9033 0.9472
-12.9962 1.4869 -1.8534 0.9485
-12.7558 0.3135 -1.8079 0.9498
-12.0602 -1.8735 -1.7293 0.9519
-10.5641 -4.7447 -1.6409 0.9543
-9.3165 -6.3849 -1.6003 0.9554
-8.6278 -7.1231 -1.5853 0.9558
-7.0819 -8.3746 -1.5540 0.9567
-6.2217 -8.8524 -1.5331 0.9572
-4.5339 -9.7842 -1.5279 0.9574
-3.6799 -10.2529 -1.5435 0.9569
-2.8009 -10.7335 -1.5718 0.9562
-1.8474 -11.0325 -1.5849 0.9558
3.3156 -11.4961 -1.6953 0.9528
4.4129 -11.3729 -1.7285 0.9519
7.7878 -10.5002 -1.8523 0.9486
8.9269 -10.0256 -1.9020 0.9472
11.1923 -8.7695 -2.0146 0.9442
12.3029 -7.9777 -2.0776 0.9425
12.4223 -6.5612 -1.9905 0.9448
2.2991 -0.9628 -0.3532 0.9900
15.1660 -3.3582 -2.2009 0.9392
12.1766 -0.4780 -1.7266 0.9520
9.7662 1.3708 -1.3973 0.9609
7.5332 2.4808 -1.1238 0.9685
6.8920 2.9748 -1.0636 0.9701
6.3841 3.4613 -1.0290 0.9711
5.6261 3.7357 -0.9569 0.9731
4.6086 4.4229 -0.9051 0.9745
3.5484 4.8947 -0.8566 0.9759
2.1796 5.8037 -0.8784 0.9753
1.6461 5.9496 -0.8747 0.9754
1.1375 6.2306 -0.8974 0.9747
0.0133 7.0477 -0.9986 0.9719
-0.6317 7.2052 -1.0248 0.9712
-6.7437 18.1653 -2.7455 0.9247
-9.2347 15.6121 -2.5701 0.9293
-10.2363 14.2330 -2.4841 0.9316
-11.0792 12.8162 -2.4004 0.9338
-12.3150 9.9440 -2.2427 0.9381
-12.7246 8.5187 -2.1697 0.9400
-13.0075 7.1162 -2.1008 0.9419
-13.1732 5.7452 -2.0363 0.9436
-13.2310 4.4128 -1.9762 0.9452
-13.1898 3.1242 -1.9206 0.9467
-12.8431 0.6928 -1.8224 0.9494
-12.5525 -0.4451 -1.7797 0.9505
-12.1925 -1.5294 -1.7411 0.9516
-11.2869 -3.5344 -1.6758 0.9533
-10.1654 -5.3200 -1.6257 0.9547
-9.5335 -6.1307 -1.6060 0.9552
-8.1428 -7.5884 -1.5771 0.9560
-7.3700 -8.2142 -1.5637 0.9564
-6.5017 -8.6971 -1.5386 0.9571
-4.8111 -9.6316 -1.5255 0.9574
-3.0931 -10.5740 -1.5610 0.9565
-1.1896 -11.1913 -1.5946 0.9556
0.8380 -11.4925 -1.6327 0.9545
1.8878 -11.5420 -1.6571 0.9539
2.9595 -11.5197 -1.6852 0.9531
4.0508 -11.4220 -1.7171 0.9522
5.1592 -11.2450 -1.7530 0.9512
6.2817 -10.9843 -1.7929 0.9502
8.5529 -10.1922 -1.8852 0.9477
9.6915 -9.6506 -1.9379 0.9462
10.8235 -9.0050 -1.9949 0.9447
11.9409 -8.2501 -2.0564 0.9431
12.0959 -6.8497 -1.9696 0.9454
13.0777 -5.9332 -2.0348 0.9436
14.0147 -4.9036 -2.1038 0.9418
14.8931 -3.7590 -2.1764 0.9398
10.2681 1.1354 -1.4638 0.9591
7.8157 2.3222 -1.1552 0.9676
7.0909 2.8170 -1.0811 0.9696
6.6081 3.3358 -1.0488 0.9705
5.8234 3.6253 -0.9719 0.9727
5.2397 3.9517 -0.9299 0.9738
4.6589 4.2158 -0.8903 0.9749
3.6822 4.7778 -0.8547 0.9759
3.1885 5.0047 -0.8408 0.9763
2.7617 5.3318 -0.8508 0.9760
1.8604 6.0306 -0.8942 0.9748
0.6911 3.2441 -0.4700 0.9867
0.2166 6.9378 -0.9835 0.9723
-0.4212 7.2387 -1.0274 0.9711
-8.8707 16.0529 -2.5987 0.9286
-9.9253 14.6908 -2.5121 0.9309
-10.8197 13.2841 -2.4275 0.9331
-12.9280 7.5734 -2.1229 0.9413
-13.2234 4.8455 -1.9954 0.9447
-13.1107 2.2851 -1.8857 0.9477
-12.9223 1.0779 -1.8373 0.9490
-12.3180 -1.1795 -1.7533 0.9512
-11.9147 -2.2273 -1.7174 0.9522
-11.4513 -3.2204 -1.6855 0.9531
-10.9326 -4.1587 -1.6573 0.9538
-9.0845 -6.6447 -1.5947 0.9555
-8.3819 -7.3641 -1.5809 0.9559
-5.9303 -9.0137 -1.5288 0.9573
-5.0876 -9.4793 -1.5243 0.9575
-4.2425 -9.9444 -1.5319 0.9573
-3.3815 -10.4163 -1.5517 0.9567
-2.4784 -10.8504 -1.5770 0.9560
-0.5198 -11.3216 -1.6058 0.9552
0.4984 -11.4613 -1.6255 0.9547
1.5408 -11.5335 -1.6487 0.9541
2.6054 -11.5351 -1.6756 0.9533
3.6906 -11.4626 -1.7062 0.9525
10.4532 -9.2287 -1.9757 0.9452
12.6620 -7.6691 -2.0975 0.9419
2.3568 -0.9030 -0.3576 0.9899
14.6122 -4.1474 -2.1522 0.9405
9.2850 1.5952 -1.3349 0.9627
3.3856 4.9852 -0.8538 0.9759
0.7769 3.1854 -0.4646 0.9868
0.4022 6.6361 -0.9420 0.9735
-0.2051 7.1198 -1.0092 0.9716
-0.8685 7.3173 -1.0441 0.9707
-5.7856 18.9160 -2.8028 0.9232
-10.5435 13.7494 -2.4550 0.9324
-2.1962 2.3882 -0.4597 0.9870
-11.9728 10.8868 -2.2929 0.9367
-12.4706 9.4524 -2.2172 0.9387
-12.8356 8.0338 -2.1455 0.9407
-13.2048 5.2828 -2.0151 0.9442
-13.2276 3.9649 -1.9566 0.9457
-12.9931 1.4685 -1.8527 0.9485
-12.7515 0.2959 -1.8072 0.9498
-12.4364 -0.8237 -1.7660 0.9509
-11.6097 -2.9005 -1.6955 0.9528
-9.9533 -5.6047 -1.6185 0.9549
-7.8880 -7.8168 -1.5735 0.9561
-7.0686 -8.3821 -1.5536 0.9567
-6.2086 -8.8596 -1.5329 0.9572
-5.3638 -9.3269 -1.5245 0.9575
-4.5210 -9.7913 -1.5281 0.9574
-3.6667 -10.2602 -1.5438 0.9569
-11.4528 2.0123 -1.9156 0.9540
-11.3262 0.9604 -1.8726 0.9550
-11.1267 -0.0529 -1.8330 0.9559
-10.8600 -1.0249 -1.7970 0.9567
-10.5311 -1.9537 -1.7645 0.9575
-9.7048 -3.6764 -1.7096 0.9588
-8.6802 -5.2126 -1.6680 0.9598
-8.1020 -5.9090 -1.6520 0.9602
-6.1372 -7.7047 -1.6227 0.9609
-5.4133 -8.2033 -1.6191 0.9609
-3.8737 -9.0456 -1.6211 0.9609
-3.0616 -9.3871 -1.6266 0.9608
-2.2235 -9.6737 -1.6352 0.9606
-0.4764 -10.0758 -1.6617 0.9599
0.4291 -10.1874 -1.6798 0.9595
1.3532 -10.2364 -1.7010 0.9590
2.2937 -10.2201 -1.7255 0.9584
4.2133 -9.9804 -1.7847 0.9570
6.1620 -9.4436 -1.8576 0.9553
8.1054 -8.5824 -1.9447 0.9533
9.9962 -7.3698 -2.0459 0.9509
10.8831 -6.6120 -2.0978 0.9497
13.0291 -2.4867 -2.1852 0.9476
13.5854 -1.3528 -2.2491 0.9462
11.7376 -0.1163 -1.9337 0.9535
10.7408 0.8550 -1.7750 0.9573
8.3085 2.1935 -1.4156 0.9658
6.5101 3.0394 -1.1836 0.9713
5.3503 3.7832 -1.0795 0.9738
4.7927 4.0765 -1.0365 0.9748
3.3889 4.9754 -0.9917 0.9759
2.9194 5.2363 -0.9876 0.9760
2.5032 5.6163 -1.0130 0.9754
2.0157 5.8862 -1.0250 0.9751
0.7495 3.0548 -0.5182 0.9873
0.9593 6.2941 -1.0489 0.9745
-4.3996 14.4553 -2.4892 0.9406
-5.9541 14.7022 -2.6131 0.9377
-8.8582 11.5846 -2.4024 0.9426
-2.1952 2.3938 -0.5351 0.9869
-10.1711 9.2741 -2.2675 0.9457
-11.0142 6.9148 -2.1424 0.9486
-11.4325 4.5920 -2.0296 0.9513
-11.4985 3.4638 -1.9783 0.9525
-11.4775 2.3655 -1.9305 0.9536
-11.1999 0.2753 -1.8456 0.9556
-10.9547 -0.7105 -1.8085 0.9565
-10.2775 -2.5527 -1.7446 0.9580
-9.8548 -3.4063 -1.7177 0.9586
-9.3813 -4.2135 -1.6942 0.9592
-7.6910 -6.3496 -1.6430 0.9604
-4.9093 -8.5095 -1.6184 0.9610
-4.1343 -8.9218 -1.6199 0.9609
-3.3311 -9.2810 -1.6244 0.9608
-2.5014 -9.5858 -1.6320 0.9606
-0.7692 -10.0260 -1.6565 0.9601
0.1297 -10.1576 -1.6735 0.9597
1.0480 -10.2274 -1.6937 0.9592
1.9834 -10.2328 -1.7171 0.9586
3.8955 -10.0395 -1.7740 0.9573
4.8661 -9.8346 -1.8076 0.9565
6.8174 -9.1919 -1.8853 0.9547
10.6092 -6.8794 -2.0830 0.9500
10.6646 -5.6328 -1.9869 0.9523
2.2970 -0.9620 -0.4103 0.9900
12.8282 -2.8406 -2.1645 0.9481
5.5149 3.6619 -1.0906 0.9735
5.0189 4.0214 -1.0595 0.9743
3.5443 4.8890 -0.9948 0.9758
3.0732 5.1509 -0.9881 0.9760
1.1351 6.2178 -1.0412 0.9747
0.0126 6.6769 -1.1000 0.9733
-1.3261 7.4228 -1.2422 0.9699
-4.0069 14.6992 -2.5099 0.9401
-5.5689 15.0007 -2.6360 0.9372
-7.7117 13.0374 -2.4954 0.9404
-8.5956 11.9517 -2.4252 0.9421
-9.9889 9.6593 -2.2891 0.9452
-10.9063 7.3014 -2.1621 0.9482
-11.1996 6.1271 -2.1031 0.9496
-11.3909 4.9679 -2.0472 0.9509
-11.4936 2.7224 -1.9458 0.9532
-11.2656 0.6077 -1.8586 0.9553
-11.0424 -0.3916 -1.8203 0.9562
-9.5421 -3.9537 -1.7015 0.9590
-9.0366 -4.7293 -1.6802 0.9595
-7.2626 -6.7682 -1.6354 0.9606
-6.5946 -7.3500 -1.6268 0.9608
-5.1573 -8.3628 -1.6186 0.9610
-3.5977 -9.1690 -1.6226 0.9609
-1.9300 -9.7593 -1.6389 0.9605
-1.0597 -9.9696 -1.6516 0.9602
0.7446 -10.2114 -1.6867 0.9593
1.6746 -10.2383 -1.7091 0.9588
2.6202 -10.1989 -1.7347 0.9582
3.5786 -10.0906 -1.7638 0.9575
6.4974 -9.3195 -1.8716 0.9550
7.4707 -8.9025 -1.9146 0.9540
8.4354 -8.3998 -1.9611 0.9529
10.3115 -7.1243 -2.0647 0.9505
10.4137 -5.8971 -1.9715 0.9526
11.1920 -5.0777 -2.0247 0.9514
11.9356 -4.1762 -2.0831 0.9500
12.6190 -3.1850 -2.1440 0.9486
13.2301 -2.1065 -2.2070 0.9471
13.7554 -0.9445 -2.2714 0.9456
10.2477 1.1331 -1.6985 0.9591
9.0222 1.8239 -1.5164 0.9634
7.0168 2.7875 -1.2438 0.9699
6.2784 3.1694 -1.1586 0.9719
5.6815 3.5370 -1.1025 0.9732
4.2592 4.6093 -1.0339 0.9749
3.2016 5.0252 -0.9816 0.9761
0.7721 6.3734 -1.0576 0.9743
-0.3705 6.3676 -1.0508 0.9745
-1.0789 7.2630 -1.2096 0.9707
-3.3481 13.8733 -2.3511 0.9438
-8.3194 12.3138 -2.4482 0.9415
-2.2630 2.3205 -0.5340 0.9869
-10.3483 8.8695 -2.2453 0.9462
-11.1149 6.5112 -2.1221 0.9491
-11.3389 5.3462 -2.0652 0.9504
-11.4514 1.9959 -1.9149 0.9540
-11.1231 -0.0681 -1.8325 0.9559
-10.8554 -1.0395 -1.7965 0.9568
-10.1382 -2.8511 -1.7350 0.9582
-9.6976 -3.6889 -1.7093 0.9588
-9.2076 -4.4799 -1.6869 0.9593
-8.6716 -5.2236 -1.6677 0.9598
-6.8178 -7.1645 -1.6293 0.9607
-6.1264 -7.7128 -1.6227 0.9609
-4.6463 -8.6570 -1.6186 0.9610
-2.2105 -9.6777 -1.6354 0.9606
1.3675 -10.2366 -1.7014 0.9590
4.2281 -9.9775 -1.7852 0.9570
6.1770 -9.4383 -1.8582 0.9553
8.1201 -8.5745 -1.9454 0.9533
9.0754 -8.0123 -1.9944 0.9521
10.0104 -7.3590 -2.0468 0.9509
2.3616 -0.9049 -0.4166 0.9898
13.0383 -2.4700 -2.1861 0.9476
13.5933 -1.3348 -2.2501 0.9461
9.3946 1.6140 -1.5703 0.9621
7.2998 2.6549 -1.2796 0.9690
5.8515 3.4089 -1.1156 0.9729
5.3427 3.7888 -1.0790 0.9738
4.4258 4.5164 -1.0417 0.9747
3.8006 4.6433 -0.9885 0.9760
2.4958 5.6204 -1.0131 0.9754
2.0081 5.8904 -1.0252 0.9751
0.7452 3.0555 -0.5181 0.9873
0.9510 6.2976 -1.0492 0.9745
0.3957 6.5275 -1.0773 0.9738
-0.1949 6.7651 -1.1149 0.9729
-0.7443 6.2708 -1.0403 0.9747
-8.8702 11.5673 -2.4014 0.9426
-11.0189 6.8967 -2.1415 0.9487
-11.4988 3.4467 -1.9776 0.9525
-11.1966 0.2598 -1.8450 0.9556
-10.9504 -0.7253 -1.8079 0.9565
-10.6404 -1.6678 -1.7743 0.9573
-10.2714 -2.5662 -1.7441 0.9580
-9.8479 -3.4190 -1.7173 0.9586
-9.3736 -4.2255 -1.6939 0.9592
-8.8524 -4.9848 -1.6736 0.9597
-7.6814 -6.3594 -1.6428 0.9604
-7.0371 -6.9737 -1.6321 0.9606
-6.3570 -7.5383 -1.6245 0.9608
-4.8976 -8.5162 -1.6184 0.9610
-3.3185 -9.2861 -1.6245 0.9608
-2.4884 -9.5900 -1.6322 0.9606
-10.1573 1.7847 -1.9384 0.9589
-9.6995 -0.9154 -1.8312 0.9611
-9.4239 -1.7483 -1.8016 0.9617
-9.0938 -2.5440 -1.7749 0.9623
-8.7130 -3.3006 -1.7513 0.9628
-7.2991 -5.3235 -1.6981 0.9639
-6.7474 -5.9117 -1.6862 0.9641
-4.2050 -7.8090 -1.6671 0.9645
-1.2267 -8.9252 -1.6934 0.9640
-0.4290 -9.0721 -1.7071 0.9637
2.0574 -9.1669 -1.7659 0.9625
2.9085 -9.0762 -1.7914 0.9620
4.6256 -8.6973 -1.8516 0.9607
7.9991 -7.0816 -2.0081 0.9575
2.3583 -0.9073 -0.4749 0.9898
11.2633 -2.1497 -2.1553 0.9544
11.6978 -1.1648 -2.2096 0.9533
10.7183 0.8532 -2.0210 0.9572
7.4440 2.6958 -1.4881 0.9683
6.6272 3.0941 -1.3747 0.9707
5.2798 3.7333 -1.2154 0.9740
3.7549 4.5746 -1.1124 0.9762
3.3035 4.8500 -1.1030 0.9764
2.8491 5.1101 -1.0997 0.9765
2.3878 5.3574 -1.1025 0.9764
1.9156 5.5938 -1.1114 0.9762
0.9350 6.1349 -1.1664 0.9751
0.3995 6.4442 -1.2136 0.9741
-0.7458 6.3576 -1.2032 0.9743
-2.6791 12.8137 -2.4606 0.9481
-3.7330 12.2649 -2.4097 0.9492
-4.7066 11.6218 -2.3568 0.9502
-5.5930 10.8987 -2.3025 0.9514
-6.8828 10.8939 -2.4221 0.9489
-7.6367 9.9870 -2.3631 0.9501
-8.8369 8.0575 -2.2478 0.9525
-9.2863 7.0589 -2.1925 0.9536
-10.0715 4.0453 -2.0400 0.9568
-10.1601 3.0606 -1.9945 0.9577
-9.5206 -1.4790 -1.8110 0.9615
-8.8433 -3.0567 -1.7587 0.9626
-7.9722 -4.4747 -1.7184 0.9635
-7.4720 -5.1208 -1.7026 0.9638
-6.9326 -5.7235 -1.6898 0.9641
-5.7462 -6.7950 -1.6727 0.9644
-5.1039 -7.2620 -1.6684 0.9645
-4.4317 -7.6817 -1.6669 0.9645
-3.0060 -8.3751 -1.6725 0.9644
-2.2562 -8.6462 -1.6796 0.9643
-1.4845 -8.8651 -1.6895 0.9641
0.1167 -9.1393 -1.7180 0.9635
0.9418 -9.1909 -1.7366 0.9631
9.3340 -4.9300 -1.9841 0.9579
2.2950 -0.9611 -0.4677 0.9899
10.5720 -3.3546 -2.0848 0.9559
11.5641 -1.4951 -2.1917 0.9537
11.2309 0.5632 -2.1136 0.9553
4.9053 3.9303 -1.1815 0.9747
4.5974 4.4121 -1.1977 0.9744
4.0901 4.6953 -1.1704 0.9750
3.4518 4.7614 -1.1054 0.9763
2.5402 5.2775 -1.1009 0.9764
1.1031 6.0423 -1.1545 0.9753
0.5793 6.3315 -1.1950 0.9745
0.0127 6.6892 -1.2573 0.9731
-2.3173 12.9709 -2.4766 0.9478
-5.3120 11.1440 -2.3204 0.9510
-6.6130 11.1799 -2.4415 0.9485
-7.4006 10.2900 -2.3824 0.9497
-9.1497 7.3881 -2.2104 0.9533
-10.0244 4.3719 -2.0556 0.9565
-10.1399 3.3818 -2.0091 0.9574
-10.0250 0.5408 -1.8870 0.9600
-9.8488 -0.3492 -1.8523 0.9607
-8.9685 -2.8084 -1.7664 0.9625
-8.5710 -3.5513 -1.7438 0.9629
-7.6406 -4.9135 -1.7075 0.9637
-7.1138 -5.5305 -1.6937 0.9640
-6.5495 -6.1036 -1.6827 0.9642
-5.9501 -6.6317 -1.6747 0.9644
-5.3181 -7.1139 -1.6695 0.9645
-3.9645 -7.9367 -1.6675 0.9645
-2.5048 -8.5629 -1.6769 0.9643
-1.7401 -8.7991 -1.6859 0.9642
-0.1508 -9.1096 -1.7125 0.9636
0.6694 -9.1804 -1.7301 0.9632
2.3489 -9.1429 -1.7743 0.9623
3.2025 -9.0301 -1.8009 0.9618
4.0611 -8.8515 -1.8305 0.9611
6.6260 -7.8960 -1.9375 0.9589
8.2765 -6.8860 -2.0237 0.9571
9.1126 -5.1603 -1.9684 0.9583
10.3836 -3.6331 -2.0677 0.9562
10.9367 -2.7604 -2.1201 0.9551
10.2271 1.1308 -1.9340 0.9590
9.0061 1.8206 -1.7270 0.9633
8.0131 2.3808 -1.5712 0.9665
7.1650 2.8464 -1.4491 0.9691
6.3682 3.2147 -1.3408 0.9714
4.2541 4.6038 -1.1782 0.9748
3.5999 4.6711 -1.1085 0.9763
3.1479 4.9409 -1.1012 0.9764
2.6916 5.1964 -1.1000 0.9765
1.7534 5.6835 -1.1180 0.9761
0.6789 3.1867 -0.6124 0.9868
0.2051 6.5669 -1.2349 0.9736
-3.0497 12.6366 -2.4434 0.9485
-5.8764 10.6344 -2.2837 0.9518
-7.1534 10.5880 -2.4018 0.9493
-7.8719 9.6650 -2.3430 0.9505
-9.0024 7.7160 -2.2286 0.9529
-9.7388 5.7051 -2.1215 0.9551
-9.9682 4.6999 -2.0715 0.9561
-10.1111 3.7051 -2.0241 0.9571
-10.1722 2.7267 -1.9795 0.9580
-10.1565 1.7702 -1.9378 0.9589
-10.0687 0.8398 -1.8991 0.9597
-9.9136 -0.0607 -1.8634 0.9605
-9.6957 -0.9284 -1.8307 0.9611
-7.8049 -4.7015 -1.7126 0.9636
-6.7387 -5.9204 -1.6860 0.9642
-6.1505 -6.4633 -1.6770 0.9643
-5.5290 -6.9607 -1.6709 0.9645
-4.8762 -7.4116 -1.6676 0.9645
-2.7510 -8.4741 -1.6746 0.9644
1.2284 -9.1950 -1.7437 0.9629
3.7790 -8.9175 -1.8204 0.9613
5.4969 -8.3991 -1.8867 0.9600
7.1889 -7.5912 -1.9651 0.9583
8.0115 -7.0731 -2.0087 0.9574
8.8098 -6.4764 -2.0552 0.9565
9.5523 -5.7856 -2.0991 0.9556
10.7622 -3.0547 -2.1028 0.9555
11.7038 -1.1492 -2.2104 0.9533
11.7463 -0.1003 -2.2079 0.9533
10.6954 0.8661 -2.0169 0.9573
9.3772 1.6110 -1.7884 0.9620
8.3189 2.2084 -1.6178 0.9656
7.4315 2.7028 -1.4864 0.9683
6.6154 3.0996 -1.3731 0.9707
5.8982 3.4362 -1.2831 0.9726
5.2707 3.7378 -1.2145 0.9740
4.7258 4.0307 -1.1675 0.9750
4.4205 4.5110 -1.1871 0.9746
2.3807 5.3611 -1.1026 0.9764
1.9084 5.5978 -1.1116 0.9762
0.7397 3.0328 -0.5868 0.9874
0.9271 6.1393 -1.1670 0.9750
-0.1966 6.8232 -1.2830 0.9726
-0.7525 6.3395 -1.1999 0.9744
-5.6059 10.8871 -2.3017 0.9514
-7.6474 9.9728 -2.3622 0.9501
-9.2925 7.0435 -2.1917 0.9537
-9.7739 -0.6474 -1.8411 0.9609
-9.5162 -1.4916 -1.8105 0.9616
-9.2027 -2.2992 -1.7829 0.9621
-8.8374 -3.0682 -1.7583 0.9626
-8.4236 -3.7972 -1.7367 0.9631
-7.9648 -4.4850 -1.7181 0.9635
-5.7366 -6.8026 -1.6726 0.9644
-5.0938 -7.2688 -1.6683 0.9645
-3.7208 -8.0585 -1.6683 0.9645
-9.1172 1.6019 -1.9567 0.9629
-8.9362 -0.0425 -1.8889 0.9641
-8.5205 -1.5807 -1.8318 0.9652
-7.0971 -4.2619 -1.7499 0.9667
-6.1383 -5.3780 -1.7251 0.9672
-2.5146 -7.7100 -1.7142 0.9674
-1.8246 -7.9379 -1.7217 0.9672
-1.1156 -8.1164 -1.7318 0.9671
-0.3898 -8.2438 -1.7445 0.9668
2.6311 -8.2105 -1.8225 0.9654
4.1710 -7.8426 -1.8777 0.9643
4.9358 -7.5644 -1.9093 0.9637
5.6913 -7.2211 -1.9435 0.9631
6.4325 -6.8110 -1.9803 0.9624
7.1536 -6.3332 -2.0196 0.9617
8.4873 -5.1565 -2.0992 0.9602
8.4757 -4.1636 -1.9961 0.9621
2.3692 -0.9115 -0.5366 0.9897
9.4889 -2.7073 -2.0858 0.9605
10.2601 -1.0217 -2.1795 0.9587
10.5340 -0.1044 -2.2268 0.9578
10.6957 0.8514 -2.2680 0.9571
9.3777 1.5979 -2.0108 0.9619
8.3195 2.1964 -1.8188 0.9654
7.4324 2.6916 -1.6709 0.9682
5.3758 3.8013 -1.3917 0.9734
4.7979 4.0809 -1.3314 0.9746
3.3028 4.8490 -1.2402 0.9763
2.3877 5.3573 -1.2398 0.9763
0.7388 3.0113 -0.6554 0.9874
0.4067 6.5612 -1.3896 0.9735
-0.7320 6.2404 -1.3281 0.9746
-3.2381 10.6390 -2.3507 0.9556
-4.0946 10.1106 -2.3058 0.9564
-4.8804 9.5101 -2.2595 0.9572
-2.1964 2.3951 -0.6869 0.9868
-8.5613 5.3749 -2.1368 0.9595
-8.8159 4.4923 -2.0915 0.9604
-8.9919 3.6117 -2.0483 0.9612
-9.1224 1.8801 -1.9688 0.9626
-9.0844 1.0393 -1.9328 0.9633
-8.9828 0.2208 -1.8994 0.9639
-8.8213 -0.5722 -1.8686 0.9645
-7.2400 -4.0638 -1.7550 0.9666
-6.7915 -4.6544 -1.7404 0.9669
-6.3055 -5.2058 -1.7284 0.9671
-5.7846 -5.7167 -1.7191 0.9673
-5.2312 -6.1861 -1.7125 0.9674
-4.6476 -6.6127 -1.7085 0.9675
-4.0358 -6.9955 -1.7071 0.9675
-3.3982 -7.3332 -1.7084 0.9675
-2.7366 -7.6246 -1.7124 0.9674
-2.0533 -7.8685 -1.7189 0.9673
-0.6297 -8.2077 -1.7400 0.9669
2.3787 -8.2477 -1.8145 0.9655
3.1485 -8.1144 -1.8398 0.9650
5.4447 -7.3410 -1.9320 0.9633
6.1911 -6.9531 -1.9679 0.9627
6.9195 -6.4976 -2.0064 0.9619
8.2937 -5.3780 -2.0894 0.9604
2.2939 -0.9606 -0.5257 0.9899
9.3375 -2.9628 -2.0707 0.9607
9.7782 -2.1652 -2.1170 0.9599
10.1529 -1.3126 -2.1640 0.9590
10.4531 -0.4103 -2.2113 0.9581
10.6706 0.5351 -2.2584 0.9573
9.7763 1.3722 -2.0868 0.9604
7.7118 2.5396 -1.7162 0.9674
6.9137 2.9841 -1.5917 0.9697
5.5793 3.7046 -1.4157 0.9730
4.9814 3.9912 -1.3493 0.9742
4.5918 4.4067 -1.3453 0.9743
4.0852 4.6897 -1.3147 0.9749
1.1163 6.1148 -1.3139 0.9749
0.5896 6.4447 -1.3680 0.9739
0.0129 6.8152 -1.4406 0.9725
-4.6306 9.7145 -2.2748 0.9570
-5.3659 9.0716 -2.2279 0.9578
-6.0233 8.3751 -2.1806 0.9587
-7.6477 7.3954 -2.2488 0.9574
-8.0964 6.5376 -2.1997 0.9583
-8.4601 5.6637 -2.1520 0.9592
-8.7411 4.7821 -2.1061 0.9601
-9.0678 3.0243 -2.0205 0.9617
-9.1203 2.1603 -1.9812 0.9624
-8.8806 -0.3149 -1.8784 0.9643
-7.7733 -3.2208 -1.7786 0.9662
-7.3786 -3.8616 -1.7604 0.9665
-6.9429 -4.4648 -1.7449 0.9668
-6.4690 -5.0292 -1.7320 0.9671
-5.9593 -5.5536 -1.7219 0.9672
-4.8423 -6.4775 -1.7095 0.9675
-3.6102 -7.2274 -1.7077 0.9675
-0.8680 -8.1660 -1.7358 0.9670
1.3631 -8.3336 -1.7850 0.9661
2.1268 -8.2785 -1.8067 0.9657
2.8956 -8.1648 -1.8312 0.9652
3.6661 -7.9907 -1.8584 0.9647
4.4346 -7.7543 -1.8882 0.9641
5.1967 -7.4539 -1.9207 0.9635
5.9478 -7.0878 -1.9558 0.9629
7.3957 -6.1531 -2.0336 0.9614
8.0803 -5.5828 -2.0760 0.9606
8.1013 -4.5876 -1.9680 0.9627
9.1799 -3.2120 -2.0558 0.9610
9.6404 -2.4333 -2.1017 0.9602
10.0377 -1.5982 -2.1485 0.9593
10.2065 1.1286 -2.1706 0.9589
8.9898 1.8173 -1.9387 0.9632
8.0000 2.3769 -1.7641 0.9665
6.4400 3.2510 -1.5249 0.9709
5.7909 3.6051 -1.4419 0.9725
4.2490 4.5982 -1.3234 0.9747
3.6106 4.6849 -1.2503 0.9761
3.1441 4.9349 -1.2369 0.9764
2.6870 5.1876 -1.2349 0.9764
2.2303 5.4479 -1.2443 0.9762
1.7650 5.7211 -1.2656 0.9758
0.6683 3.1372 -0.6780 0.9870
0.7672 6.3326 -1.3484 0.9743
0.2089 6.6883 -1.4145 0.9730
-1.1044 7.4348 -1.5888 0.9697
-3.5400 10.4663 -2.3355 0.9558
-4.3729 9.9119 -2.2900 0.9567
-5.1330 9.2891 -2.2434 0.9575
-7.9586 6.8213 -2.2157 0.9581
-8.6578 5.0719 -2.1210 0.9598
-8.8850 4.1892 -2.0764 0.9606
-9.1108 2.4422 -1.9938 0.9622
-9.1168 1.5890 -1.9561 0.9629
-9.0565 0.7554 -1.9210 0.9635
-8.9338 -0.0547 -1.8885 0.9641
-8.7526 -0.8381 -1.8586 0.9647
-8.5165 -1.5920 -1.8314 0.9652
-8.2290 -2.3142 -1.8069 0.9657
-7.8933 -3.0025 -1.7851 0.9661
-6.6286 -4.8483 -1.7360 0.9670
-6.1304 -5.3860 -1.7249 0.9672
-5.0340 -6.3375 -1.7108 0.9675
-4.4405 -6.7492 -1.7077 0.9675
-3.8196 -7.1166 -1.7073 0.9675
-3.1734 -7.4386 -1.7095 0.9675
-1.8138 -7.9410 -1.7218 0.9672
-1.1046 -8.1187 -1.7319 0.9671
1.1141 -8.3393 -1.7784 0.9662
1.8754 -8.3029 -1.7993 0.9658
3.4133 -8.0546 -1.8491 0.9649
4.1828 -7.8389 -1.8781 0.9643
4.9475 -7.5597 -1.9098 0.9637
5.7028 -7.2153 -1.9440 0.9631
6.4437 -6.8042 -1.9809 0.9624
7.1645 -6.3253 -2.0202 0.9617
8.4843 -4.1534 -1.9968 0.9621
9.0163 -3.4546 -2.0410 0.9613
9.4959 -2.6953 -2.0865 0.9604
9.9148 -1.8782 -2.1331 0.9596
10.5375 -0.0900 -2.2275 0.9578
10.6729 0.8643 -2.2634 0.9572
9.3597 1.6080 -2.0074 0.9619
7.4200 2.6986 -1.6690 0.9682
6.6663 3.1235 -1.5561 0.9704
5.3665 3.8057 -1.3907 0.9735
4.7895 4.0851 -1.3306 0.9746
4.4151 4.5055 -1.3334 0.9745
3.7673 4.6026 -1.2573 0.9760
3.2957 4.8528 -1.2400 0.9763
2.8366 5.1041 -1.2343 0.9764
2.3807 5.3613 -1.2400 0.9763
0.7344 3.0113 -0.6552 0.9874
0.9400 6.2243 -1.3306 0.9746
-0.7418 6.2493 -1.3303 0.9746
-3.2517 10.6315 -2.3501 0.9556
-4.1072 10.1020 -2.3051 0.9564
-4.8918 9.5003 -2.2588 0.9573
-5.6007 8.8378 -2.2117 0.9581
-7.8116 7.1031 -2.2318 0.9578
-8.2308 6.2388 -2.1831 0.9587
-8.5658 5.3613 -2.1361 0.9595
-8.9940 3.5982 -2.0476 0.9612
-9.0938 2.7258 -2.0067 0.9619
-9.1223 1.8671 -1.9682 0.9626
-9.0833 1.0266 -1.9323 0.9633
-8.9807 0.2084 -1.8989 0.9639
-8.3288 -2.0808 -1.8147 0.9655
-7.2334 -4.0731 -1.7547 0.9666
-6.7843 -4.6632 -1.7402 0.9669
-5.7763 -5.7243 -1.7190 0.9673
-4.0262 -7.0010 -1.7071 0.9675
-3.3882 -7.3380 -1.7085 0.9675
-2.7263 -7.6287 -1.7124 0.9674
-2.0426 -7.8718 -1.7190 0.9673
-8.2418 2.2214 -2.0061 0.9655
-8.2630 1.4518 -1.9717 0.9661
-8.1253 -0.0386 -1.9096 0.9672
-7.9728 -0.7524 -1.8821 0.9676
-7.5161 -2.1026 -1.8343 0.9684
-7.2180 -2.7343 -1.8140 0.9688
-5.6255 -4.9288 -1.7578 0.9697
-5.1403 -5.3869 -1.7499 0.9699
-4.6248 -5.8060 -1.7445 0.9700
-2.9198 -6.8182 -1.7432 0.9700
-2.3058 -7.0697 -1.7477 0.9699
-1.6724 -7.2760 -1.7546 0.9698
-0.3569 -7.5481 -1.7760 0.9694
1.0077 -7.6232 -1.8072 0.9689
4.4836 -6.8713 -1.9283 0.9668
5.1614 -6.5486 -1.9597 0.9663
5.8232 -6.1659 -1.9932 0.9658
7.0780 -5.2183 -2.0667 0.9645
7.6108 -3.7387 -1.9929 0.9658
8.0710 -3.1051 -2.0324 0.9651
8.4817 -2.4200 -2.0730 0.9644
8.8362 -1.6865 -2.1142 0.9637
9.1275 -0.9089 -2.1558 0.9630
9.3600 1.5949 -2.2315 0.9617
6.6674 3.1128 -1.7294 0.9702
4.4175 4.4956 -1.4813 0.9744
3.3578 4.9297 -1.4018 0.9758
1.9589 5.7203 -1.4210 0.9755
0.7338 2.9909 -0.7238 0.9874
0.9594 6.2947 -1.4965 0.9742
0.4089 6.5969 -1.5534 0.9732
-0.7308 6.2301 -1.4743 0.9746
-2.0395 9.7548 -2.3422 0.9599
-3.6195 8.9374 -2.2662 0.9612
-4.9650 7.8586 -2.1847 0.9625
-2.1986 2.3974 -0.7645 0.9867
-6.9811 6.3653 -2.2203 0.9619
-7.6928 4.8296 -2.1348 0.9634
-8.1138 3.2590 -2.0550 0.9647
-8.2210 2.4765 -2.0179 0.9653
-8.2427 0.9430 -1.9499 0.9665
-7.8412 -1.2181 -1.8650 0.9679
-7.6042 -1.8887 -1.8415 0.9683
-7.3207 -2.5304 -1.8204 0.9687
-6.9936 -3.1410 -1.8018 0.9690
-6.6257 -3.7190 -1.7857 0.9693
-5.3030 -5.2407 -1.7523 0.9698
-4.7972 -5.6728 -1.7460 0.9699
-3.7019 -6.4167 -1.7411 0.9700
-3.1168 -6.7261 -1.7423 0.9700
-0.5767 -7.5167 -1.7718 0.9695
0.7813 -7.6249 -1.8014 0.9690
1.4735 -7.6022 -1.8199 0.9687
3.5668 -7.2087 -1.8902 0.9675
4.9404 -6.6611 -1.9491 0.9665
5.6080 -6.2982 -1.9820 0.9659
6.2563 -5.8748 -2.0170 0.9654
6.8797 -5.3905 -2.0541 0.9647
2.2931 -0.9603 -0.5843 0.9898
8.7265 -1.9323 -2.1006 0.9639
9.0393 -1.1687 -2.1421 0.9632
9.2843 -0.3644 -2.1837 0.9625
9.5450 1.3397 -2.2653 0.9612
7.6994 2.5355 -1.9051 0.9672
6.2135 3.3688 -1.6611 0.9714
5.5965 3.7160 -1.5788 0.9728
4.5861 4.4012 -1.4939 0.9742
4.0802 4.6840 -1.4599 0.9748
3.0431 5.1005 -1.3959 0.9759
1.8774 3.9005 -1.0174 0.9824
2.1139 5.6287 -1.4131 0.9756
0.8509 3.0754 -0.7500 0.9870
-0.5371 6.1263 -1.4454 0.9750
-4.7619 8.0505 -2.1983 0.9623
-5.3581 7.4502 -2.1568 0.9630
-7.2534 5.8569 -2.1911 0.9624
-7.8659 4.3033 -2.1072 0.9638
-8.1931 2.7326 -2.0298 0.9651
-8.2560 1.1907 -1.9604 0.9663
-8.1958 0.4421 -1.9290 0.9668
-8.0789 -0.2865 -1.8999 0.9673
-7.9083 -0.9920 -1.8732 0.9678
-7.1056 -2.9441 -1.8076 0.9689
-6.3569 -4.0880 -1.7763 0.9694
-5.9266 -4.6076 -1.7643 0.9696
-5.4623 -5.0905 -1.7548 0.9698
-4.9665 -5.5353 -1.7478 0.9699
-4.4412 -5.9409 -1.7433 0.9700
-3.8888 -6.3059 -1.7412 0.9700
-3.3114 -6.6292 -1.7416 0.9700
-2.7112 -6.9096 -1.7445 0.9700
-2.0902 -7.1457 -1.7498 0.9699
-1.4508 -7.3363 -1.7576 0.9697
0.5557 -7.6210 -1.7959 0.9691
1.2456 -7.6154 -1.8136 0.9688
3.3384 -7.2763 -1.8815 0.9676
4.0323 -7.0509 -1.9090 0.9672
4.7179 -6.7672 -1.9388 0.9667
5.3908 -6.4240 -1.9709 0.9661
6.0460 -6.0205 -2.0053 0.9655
6.6782 -5.5562 -2.0417 0.9649
7.2817 -5.0310 -2.0801 0.9643
8.6102 -2.1732 -2.0871 0.9642
9.4075 0.1956 -2.2115 0.9621
9.5246 1.0532 -2.2522 0.9614
8.9735 1.8140 -2.1516 0.9631
6.4307 3.2463 -1.6930 0.9708
5.2129 3.9315 -1.5345 0.9735
3.1903 5.0075 -1.3954 0.9759
2.2676 5.5388 -1.4066 0.9757
1.0297 3.3376 -0.8209 0.9858
0.7748 6.3961 -1.5142 0.9739
0.2094 6.7063 -1.5769 0.9728
-1.1027 7.4237 -1.7639 0.9696
-2.3255 9.6361 -2.3297 0.9601
-3.1245 9.2380 -2.2920 0.9607
-3.8685 8.7687 -2.2525 0.9614
-4.5517 8.2370 -2.2118 0.9621
-5.7202 7.0231 -2.1288 0.9635
-2.2581 2.3155 -0.7601 0.9868
-7.1246 6.1065 -2.2053 0.9622
-7.7854 4.5608 -2.1206 0.9636
-8.1582 2.9894 -2.0420 0.9649
-8.2220 0.6858 -1.9391 0.9667
-8.1233 -0.0497 -1.9092 0.9672
-7.9700 -0.7632 -1.8817 0.9676
-7.5119 -2.1125 -1.8339 0.9684
-6.0717 -4.4410 -1.7680 0.9696
-5.1326 -5.3936 -1.7498 0.9699
-4.6167 -5.8122 -1.7445 0.9700
-2.9106 -6.8224 -1.7432 0.9700
-2.2962 -7.0732 -1.7478 0.9699
-1.6626 -7.2789 -1.7548 0.9698
-0.3466 -7.5495 -1.7762 0.9694
1.0184 -7.6230 -1.8075 0.9689
2.4107 -7.4875 -1.8487 0.9682
4.4941 -6.8668 -1.9288 0.9668
5.1716 -6.5432 -1.9602 0.9663
6.4736 -5.7153 -2.0295 0.9651
7.0871 -5.2101 -2.0673 0.9645
7.6431 -4.6293 -2.1001 0.9639
7.6182 -3.7294 -1.9935 0.9657
8.0777 -3.0950 -2.0330 0.9651
9.1314 -0.8966 -2.1564 0.9630
9.3516 -0.0798 -2.1979 0.9623
9.3421 1.6050 -2.2278 0.9618
8.2907 2.2009 -2.0160 0.9654
7.4084 2.6944 -1.8527 0.9681
6.6566 3.1189 -1.7277 0.9702
5.9944 3.4922 -1.6305 0.9719
5.3976 3.8278 -1.5552 0.9732
2.4204 5.4505 -1.4016 0.9758
1.9516 5.7246 -1.4215 0.9755
0.7293 2.9904 -0.7234 0.9874
0.4001 6.6017 -1.5544 0.9732
-0.7405 6.2382 -1.4764 0.9745
-2.0524 9.7497 -2.3416 0.9599
-2.8680 9.3770 -2.3046 0.9605
-3.6308 8.9300 -2.2656 0.9612
-4.3345 8.4179 -2.2253 0.9618
-4.9744 7.8495 -2.1840 0.9625
-5.5472 7.2339 -2.1425 0.9632
-6.9877 6.3539 -2.2197 0.9619
-7.6972 4.8176 -2.1341 0.9634
-8.1160 3.2469 -2.0544 0.9647
-8.2221 2.4645 -2.0173 0.9653
-8.2419 0.9315 -1.9494 0.9665
-8.1619 0.1894 -1.9188 0.9670
-8.0262 -0.5316 -1.8905 0.9675
-7.3160 -2.5400 -1.8201 0.9687
-6.6197 -3.7276 -1.7855 0.9693
-5.7708 -4.7777 -1.7608 0.9697
-5.2954 -5.2477 -1.7521 0.9698
-4.7892 -5.6791 -1.7460 0.9699
-3.6931 -6.4218 -1.7411 0.9700
-3.1077 -6.7305 -1.7423 0.9700
-1.8725 -7.2164 -1.7522 0.9698
-7.5224 0.6378 -1.9547 0.9693
-7.3119 -0.6900 -1.9016 0.9701
-7.1326 -1.3232 -1.8783 0.9705
-6.6396 -2.5152 -1.8383 0.9711
-5.6027 -4.0862 -1.7955 0.9718
-5.1876 -4.5451 -1.7858 0.9719
-4.7418 -4.9692 -1.7784 0.9720
-4.2673 -5.3572 -1.7733 0.9721
-3.7665 -5.7078 -1.7706 0.9721
-2.6943 -6.2915 -1.7721 0.9721
-2.1272 -6.5223 -1.7763 0.9721
-0.9422 -6.8552 -1.7916 0.9718
-0.3289 -6.9550 -1.8028 0.9716
0.2952 -7.0084 -1.8162 0.9714
0.9273 -7.0144 -1.8320 0.9712
2.2043 -6.8788 -1.8703 0.9706
2.8431 -6.7348 -1.8928 0.9702
3.4775 -6.5385 -1.9175 0.9699
4.1036 -6.2889 -1.9443 0.9694
4.7174 -5.9854 -1.9732 0.9690
5.3145 -5.6273 -2.0041 0.9685
6.9320 -4.2115 -2.1001 0.9670
7.3029 -2.8096 -2.0260 0.9682
7.9648 -1.5202 -2.0995 0.9671
8.5482 1.4565 -2.2452 0.9648
8.2911 2.1889 -2.2203 0.9652
7.4090 2.6832 -2.0403 0.9680
6.6576 3.1082 -1.9024 0.9701
5.3992 3.8178 -1.7121 0.9730
4.4120 4.4900 -1.6299 0.9743
2.9057 5.2116 -1.5449 0.9756
0.7290 2.9713 -0.7921 0.9874
-0.1897 6.9154 -1.7912 0.9718
-0.7296 6.2198 -1.6215 0.9745
-1.8191 8.7003 -2.3014 0.9639
-2.5515 8.3832 -2.2689 0.9644
-3.8775 7.5558 -2.1989 0.9655
-4.4607 7.0603 -2.1623 0.9661
-2.2010 2.4001 -0.8432 0.9866
-6.6762 5.0748 -2.1713 0.9659
-6.9775 4.3805 -2.1331 0.9665
-7.2133 3.6757 -2.0961 0.9671
-7.4746 0.1837 -1.9359 0.9696
-7.1966 -1.1179 -1.8857 0.9704
-6.9863 -1.7352 -1.8638 0.9707
-6.4366 -2.8909 -1.8269 0.9713
-6.1023 -3.4252 -1.8119 0.9715
-5.7318 -3.9282 -1.7991 0.9717
-4.8914 -4.8340 -1.7806 0.9720
-4.4260 -5.2339 -1.7748 0.9721
-3.9336 -5.5969 -1.7713 0.9721
-2.8762 -6.2067 -1.7712 0.9721
-1.7362 -6.6535 -1.7804 0.9720
-1.1408 -6.8127 -1.7885 0.9719
1.3550 -6.9911 -1.8438 0.9710
3.2699 -6.6087 -1.9091 0.9700
5.7038 -5.3560 -2.0259 0.9682
6.7796 -4.3962 -2.0921 0.9672
6.7577 -3.5693 -1.9787 0.9689
2.2923 -0.9600 -0.6435 0.9898
7.8709 -1.7429 -2.0873 0.9672
8.1372 -1.0520 -2.1244 0.9667
8.3416 -0.3274 -2.1615 0.9661
8.4787 0.4252 -2.1980 0.9655
8.5434 1.1992 -2.2337 0.9650
5.5889 3.7110 -1.7370 0.9727
4.5803 4.3957 -1.6437 0.9741
4.0752 4.6782 -1.6064 0.9747
3.5275 4.8658 -1.5561 0.9755
3.0587 5.1266 -1.5457 0.9756
1.8684 3.8817 -1.1154 0.9824
0.5950 3.2592 -0.8578 0.9864
0.5935 6.4867 -1.6865 0.9734
0.0129 6.8046 -1.7618 0.9723
-0.5365 6.1191 -1.5904 0.9749
-2.3157 8.4950 -2.2798 0.9643
-4.2755 7.2282 -2.1744 0.9659
-5.3051 6.1368 -2.1003 0.9670
-6.1664 5.9629 -2.2210 0.9652
-6.5628 5.2993 -2.1840 0.9657
-6.8859 4.6099 -2.1455 0.9663
-7.3356 3.1993 -2.0721 0.9675
-7.4654 2.4898 -2.0376 0.9680
-7.5456 1.0883 -1.9739 0.9690
-7.5010 0.4047 -1.9450 0.9694
-7.4034 -0.2625 -1.9181 0.9699
-7.2556 -0.9101 -1.8933 0.9702
-6.8202 -2.1357 -1.8504 0.9709
-6.5380 -2.7090 -1.8324 0.9712
-5.8573 -3.7667 -1.8031 0.9716
-5.4637 -4.2477 -1.7919 0.9718
-5.0378 -4.6948 -1.7830 0.9719
-4.5819 -5.1067 -1.7764 0.9720
-3.5887 -5.8193 -1.7702 0.9721
-3.0558 -6.1176 -1.7706 0.9721
-1.3379 -6.7653 -1.7856 0.9719
-0.1155 -6.9786 -1.8071 0.9716
2.4241 -6.8352 -1.8777 0.9705
3.6937 -6.4588 -1.9264 0.9697
4.9246 -5.8685 -1.9836 0.9688
5.5149 -5.4916 -2.0151 0.9684
6.0819 -5.0600 -2.0484 0.9678
6.6203 -4.5741 -2.0835 0.9673
6.6118 -3.7442 -1.9674 0.9691
7.0428 -3.1953 -2.0024 0.9685
7.4311 -2.6001 -2.0384 0.9680
7.7709 -1.9614 -2.0751 0.9674
8.2817 -0.5687 -2.1493 0.9663
8.4415 0.1755 -2.1861 0.9657
8.5304 0.9432 -2.2221 0.9652
8.5441 1.7272 -2.2570 0.9646
7.9734 2.3690 -2.1537 0.9662
6.4215 3.2416 -1.8625 0.9707
5.7843 3.6010 -1.7642 0.9722
5.2061 3.9264 -1.6883 0.9734
4.6710 4.2267 -1.6310 0.9743
3.6831 4.7790 -1.5622 0.9754
2.7455 5.3004 -1.5456 0.9756
2.2763 5.5602 -1.5556 0.9755
0.2091 6.6973 -1.7349 0.9727
-0.3575 6.1433 -1.5933 0.9749
-1.1011 7.4126 -1.9403 0.9695
-2.0753 8.5993 -2.2904 0.9641
-3.4647 7.8533 -2.2224 0.9652
-4.6479 6.8795 -2.1496 0.9663
-5.1526 6.3262 -2.1125 0.9668
-2.2565 2.3139 -0.8368 0.9867
-6.7872 4.8379 -2.1581 0.9661
-7.4296 2.7225 -2.0487 0.9678
-7.5184 2.0154 -2.0154 0.9683
-7.5482 1.3156 -1.9838 0.9688
-6.9038 -1.9415 -1.8569 0.9708
-6.3260 -3.0779 -1.8215 0.9714
-5.9790 -3.6016 -1.8072 0.9716
-5.1810 -4.5519 -1.7856 0.9719
-4.7347 -4.9755 -1.7783 0.9720
-4.2598 -5.3629 -1.7733 0.9721
-3.7586 -5.7128 -1.7706 0.9721
-2.1184 -6.5255 -1.7764 0.9721
-1.5334 -6.7131 -1.7829 0.9719
-0.9329 -6.8571 -1.7918 0.9718
-0.3194 -6.9561 -1.8030 0.9716
0.3048 -7.0089 -1.8164 0.9714
0.9370 -7.0141 -1.8322 0.9712
1.5744 -6.9706 -1.8503 0.9709
2.2142 -6.8770 -1.8706 0.9706
2.8529 -6.7322 -1.8931 0.9702
4.7267 -5.9803 -1.9737 0.9690
5.3235 -5.6214 -2.0046 0.9685
6.4471 -4.7395 -2.0718 0.9675
6.9390 -4.2028 -2.1005 0.9670
6.9058 -3.3807 -1.9908 0.9687
7.9690 -1.5096 -2.1000 0.9670
8.2147 -0.8066 -2.1372 0.9665
8.5482 1.4686 -2.2457 0.9648
8.2765 2.1971 -2.2171 0.9652
7.3967 2.6902 -2.0379 0.9680
6.6468 3.1143 -1.9005 0.9701
5.9861 3.4873 -1.7937 0.9718
5.3904 3.8227 -1.7110 0.9731
4.4042 4.4943 -1.6292 0.9743
3.3657 4.9559 -1.5511 0.9756
2.8985 5.2155 -1.5449 0.9756
1.7670 3.9793 -1.1273 0.9822
0.3996 6.5930 -1.7102 0.9731
-2.5624 8.3778 -2.2684 0.9644
-3.2498 7.9929 -2.2340 0.9650
-6.3145 5.7418 -2.2098 0.9653
-6.6813 5.0643 -2.1707 0.9660
-6.9816 4.3698 -2.1325 0.9665
-7.2164 3.6648 -2.0956 0.9671
-7.5448 1.5442 -1.9940 0.9687
-7.5364 0.8518 -1.9637 0.9691
-7.4733 0.1734 -1.9355 0.9696
-7.3581 -0.4874 -1.9093 0.9700
-6.9828 -1.7445 -1.8635 0.9707
-6.7279 -2.3358 -1.8440 0.9710
-6.0969 -3.4332 -1.8117 0.9715
-5.7258 -3.9356 -1.7990 0.9717
-4.4187 -5.2398 -1.7747 0.9721
-2.8677 -6.2108 -1.7712 0.9721
-2.3067 -6.4546 -1.7747 0.9721
-1.7272 -6.6563 -1.7805 0.9720
-6.9408 1.2195 -1.9950 0.9711
-6.8597 -0.0326 -1.9420 0.9719
-6.7461 -0.6366 -1.9183 0.9722
-6.5870 -1.2220 -1.8965 0.9725
-4.3969 -4.6078 -1.8030 0.9739
-3.4937 -5.2943 -1.7957 0.9740
-0.8732 -6.3532 -1.8155 0.9737
0.2733 -6.4887 -1.8385 0.9734
1.4466 -6.4457 -1.8701 0.9729
2.6241 -6.2159 -1.9101 0.9723
3.2063 -6.0287 -1.9330 0.9720
3.7795 -5.7922 -1.9579 0.9717
4.3398 -5.5062 -1.9847 0.9713
5.4045 -4.7847 -2.0434 0.9704
5.8999 -4.3498 -2.0751 0.9700
6.2263 -3.7828 -2.0624 0.9702
6.3031 -3.0963 -1.9880 0.9712
6.6615 -2.5629 -2.0206 0.9708
6.9762 -1.9904 -2.0537 0.9703
7.6787 2.0272 -2.2483 0.9675
7.3972 2.6789 -2.2272 0.9678
5.9872 3.4770 -1.9600 0.9716
5.3920 3.8127 -1.8695 0.9729
4.8445 4.1205 -1.8004 0.9739
3.8427 4.6816 -1.7146 0.9751
1.9609 5.7262 -1.7135 0.9752
0.7286 2.9696 -0.8656 0.9874
0.4079 6.5793 -1.8661 0.9730
-0.7284 6.2094 -1.7699 0.9743
-1.6397 7.8425 -2.2682 0.9672
-3.5106 6.8409 -2.1767 0.9685
-4.0451 6.4024 -2.1439 0.9690
-4.5286 5.9223 -2.1106 0.9695
-2.2035 2.4029 -0.9230 0.9865
-6.6029 3.3646 -2.0979 0.9697
-6.9361 0.7935 -1.9764 0.9714
-6.6441 -1.0321 -1.9034 0.9724
-6.4557 -1.6034 -1.8831 0.9727
-6.2257 -2.1519 -1.8648 0.9730
-5.9567 -2.6753 -1.8486 0.9732
-5.3104 -3.6394 -1.8225 0.9736
-4.9378 -4.0767 -1.8127 0.9737
-4.5352 -4.4820 -1.8051 0.9738
-4.1048 -4.8540 -1.7996 0.9739
-3.6486 -5.1914 -1.7963 0.9740
-3.1689 -5.4928 -1.7952 0.9740
-2.6678 -5.7570 -1.7963 0.9740
-2.1473 -5.9829 -1.7995 0.9739
-1.6098 -6.1691 -1.8049 0.9738
0.6655 -6.4946 -1.8482 0.9732
1.2531 -6.4654 -1.8644 0.9730
3.0160 -6.0955 -1.9253 0.9721
3.5926 -5.8753 -1.9496 0.9718
4.1575 -5.6056 -1.9757 0.9714
5.7405 -4.4979 -2.0645 0.9701
6.2037 -4.0227 -2.0931 0.9697
2.2916 -0.9597 -0.7033 0.9897
7.3910 -0.9556 -2.1098 0.9695
7.5646 -0.2969 -2.1431 0.9690
7.7235 1.0841 -2.2079 0.9681
7.7014 1.7934 -2.2386 0.9677
7.6079 2.5054 -2.2675 0.9673
6.8825 2.9707 -2.1221 0.9693
5.5813 3.7060 -1.8966 0.9725
5.0198 4.0221 -1.8210 0.9736
4.5745 4.3902 -1.7949 0.9740
3.5232 4.8598 -1.6993 0.9754
3.0550 5.1204 -1.6879 0.9755
2.1179 5.6395 -1.7054 0.9753
0.8550 3.0905 -0.9078 0.9868
0.5920 3.2426 -0.9331 0.9864
0.0129 6.7952 -1.9237 0.9721
-0.5358 6.1117 -1.7368 0.9748
-1.4147 7.9187 -2.2772 0.9671
-2.0893 7.6646 -2.2490 0.9675
-2.7278 7.3479 -2.2189 0.9679
-3.3246 6.9747 -2.1873 0.9684
-3.8751 6.5512 -2.1548 0.9689
-4.3757 6.0841 -2.1215 0.9693
-4.8236 5.5798 -2.0880 0.9698
-5.2171 5.0450 -2.0545 0.9703
-5.9862 4.8337 -2.1782 0.9685
-6.2906 4.2114 -2.1431 0.9690
-6.5354 3.5754 -2.1089 0.9695
-6.8498 2.2845 -2.0441 0.9704
-6.9084 0.3727 -1.9586 0.9716
-6.8260 -0.2421 -1.9336 0.9720
-6.5222 -1.4183 -1.8895 0.9726
-6.3056 -1.9745 -1.8706 0.9729
-6.0491 -2.5064 -1.8536 0.9731
-5.7551 -3.0119 -1.8389 0.9734
-5.4258 -3.4892 -1.8262 0.9735
-4.2490 -4.7357 -1.8012 0.9739
-3.3288 -5.3979 -1.7953 0.9740
-2.8345 -5.6745 -1.7957 0.9740
-2.3202 -5.9131 -1.7982 0.9739
-1.7880 -6.1124 -1.8029 0.9739
0.4735 -6.4942 -1.8434 0.9733
1.6493 -6.4198 -1.8764 0.9728
2.2387 -6.3124 -1.8960 0.9725
2.8249 -6.1571 -1.9177 0.9722
3.4044 -5.9530 -1.9414 0.9719
3.9736 -5.6996 -1.9669 0.9715
4.5285 -5.3964 -1.9943 0.9711
6.0620 -4.1883 -2.0859 0.9698
6.7748 -2.3705 -2.0319 0.9706
7.3214 -1.1657 -2.0988 0.9697
7.6470 0.1590 -2.1653 0.9687
7.7156 0.8531 -2.1976 0.9682
7.1278 2.8316 -2.1712 0.9686
5.7763 3.5960 -1.9262 0.9721
5.1992 3.9212 -1.8435 0.9733
4.6650 4.2213 -1.7811 0.9742
3.1826 4.9954 -1.6768 0.9757
0.6409 3.0083 -0.8707 0.9873
-0.3575 6.1433 -1.7421 0.9747
-1.0994 7.4013 -2.1183 0.9694
-1.8716 7.7552 -2.2585 0.9674
-3.6998 6.6954 -2.1655 0.9687
-2.2550 2.3123 -0.9143 0.9867
-6.1973 4.4175 -2.1545 0.9689
-6.4616 3.7853 -2.1200 0.9693
-6.8139 2.4969 -2.0544 0.9703
-6.9409 1.2097 -1.9946 0.9711
-6.9248 0.5776 -1.9672 0.9715
-6.3812 -1.7946 -1.8766 0.9728
-5.8556 -2.8490 -1.8435 0.9733
-5.1859 -3.7931 -1.8189 0.9736
-4.8028 -4.2196 -1.8098 0.9738
-1.9645 -6.0514 -1.8011 0.9739
-0.8646 -6.3549 -1.8156 0.9737
-0.2958 -6.4437 -1.8261 0.9735
0.8670 -6.4897 -1.8535 0.9731
1.4557 -6.4447 -1.8704 0.9729
2.0454 -6.3529 -1.8894 0.9726
2.6330 -6.2134 -1.9104 0.9723
3.2152 -6.0254 -1.9334 0.9720
4.8911 -5.1648 -2.0137 0.9709
5.9073 -4.3427 -2.0756 0.9700
6.3089 -3.0885 -1.9885 0.9712
7.4573 -0.7323 -2.1213 0.9693
7.7004 0.6236 -2.1871 0.9684
7.7239 1.3270 -2.2186 0.9679
7.6775 2.0381 -2.2487 0.9675
7.3849 2.6859 -2.2246 0.9679
4.8364 4.1251 -1.7995 0.9739
3.8353 4.6857 -1.7142 0.9751
3.3616 4.9498 -1.6939 0.9754
1.7601 3.9637 -1.2277 0.9821
1.9535 5.7302 -1.7139 0.9751
0.7238 2.9677 -0.8648 0.9874
0.3991 6.5841 -1.8673 0.9730
-0.1991 6.9109 -1.9572 0.9717
-0.7379 6.2172 -1.7724 0.9743
-2.3131 7.5626 -2.2388 0.9677
-2.9378 7.2258 -2.2082 0.9681
-4.0529 6.3953 -2.1434 0.9690
-4.5356 5.9147 -2.1100 0.9695
-5.3396 4.8553 -2.0431 0.9704
-6.3814 3.9941 -2.1312 0.9692
-6.6058 3.3548 -2.0974 0.9697
-6.9349 1.4194 -2.0039 0.9710
-6.9357 0.7839 -1.9760 0.9714
-6.7867 -0.4495 -1.9255 0.9721
-6.6415 -1.0410 -1.9031 0.9724
-6.4524 -1.6120 -1.8828 0.9727
-6.2219 -2.1601 -1.8645 0.9730
-5.6458 -3.1792 -1.8343 0.9734
-4.9319 -4.0831 -1.8126 0.9737
-4.5288 -4.4880 -1.8050 0.9738
-4.0979 -4.8594 -1.7995 0.9739
-3.6414 -5.1963 -1.7963 0.9740
-3.1614 -5.4971 -1.7952 0.9740
-2.6599 -5.7608 -1.7963 0.9740
-1.6014 -6.1717 -1.8050 0.9738
-6.3764 1.7186 -2.0312 0.9727
-6.4177 1.1276 -2.0042 0.9731
-6.3555 -0.0302 -1.9548 0.9738
-6.2558 -0.5904 -1.9327 0.9740
-6.1133 -1.1341 -1.9124 0.9743
-5.9300 -1.6589 -1.8940 0.9746
-5.7081 -2.1623 -1.8774 0.9748
-5.1571 -3.0969 -1.8503 0.9751
-4.4778 -3.9232 -1.8311 0.9754
-4.0952 -4.2917 -1.8246 0.9755
-3.6869 -4.6286 -1.8201 0.9755
-2.3281 -5.4363 -1.8190 0.9756
-0.8129 -5.9145 -1.8363 0.9753
0.2542 -6.0354 -1.8580 0.9750
1.3439 -5.9882 -1.8877 0.9746
2.4341 -5.7660 -1.9250 0.9741
2.9716 -5.5874 -1.9465 0.9739
3.4996 -5.3632 -1.9697 0.9736
4.0143 -5.0932 -1.9946 0.9732
4.5118 -4.7773 -2.0211 0.9729
6.3978 -1.8254 -2.0464 0.9725
6.9494 -0.0689 -2.1376 0.9713
7.0234 0.5591 -2.1671 0.9709
6.6377 3.0989 -2.2532 0.9698
5.9787 3.4721 -2.1265 0.9715
5.3846 3.8075 -2.0284 0.9728
4.8382 4.1152 -1.9536 0.9738
4.3832 4.4607 -1.9235 0.9742
2.8986 5.1989 -1.8308 0.9754
1.7560 3.9398 -1.3267 0.9821
0.4073 6.5704 -2.0248 0.9728
-0.1892 6.8959 -2.1218 0.9715
-2.0965 6.8882 -2.2146 0.9703
-4.8940 4.4623 -2.0371 0.9727
-5.5949 4.2529 -2.1616 0.9710
-5.8666 3.6831 -2.1306 0.9714
-6.3519 1.9134 -2.0404 0.9726
-6.4179 0.7343 -1.9869 0.9733
-6.3785 0.1568 -1.9625 0.9737
-6.1647 -0.9576 -1.9189 0.9742
-5.9945 -1.4889 -1.8998 0.9745
-5.7850 -1.9996 -1.8826 0.9747
-5.5384 -2.4875 -1.8674 0.9749
-4.9424 -3.3872 -1.8429 0.9752
-3.8236 -4.5216 -1.8213 0.9755
-2.4854 -5.3634 -1.8182 0.9756
-1.4993 -5.7454 -1.8264 0.9755
0.0770 -6.0268 -1.8539 0.9751
3.8470 -5.1869 -1.9863 0.9733
4.3506 -4.8861 -2.0123 0.9730
5.2940 -4.1480 -2.0686 0.9722
5.7122 -3.7040 -2.0940 0.9719
5.6821 -3.0012 -1.9765 0.9735
2.2908 -0.9593 -0.7639 0.9897
6.3105 -2.0024 -2.0364 0.9727
6.5609 -1.4528 -2.0669 0.9723
6.7629 -0.8744 -2.0974 0.9719
6.9124 -0.2713 -2.1277 0.9715
7.0393 0.9880 -2.1864 0.9707
6.9173 2.2780 -2.2400 0.9700
5.5736 3.7009 -2.0578 0.9724
3.5188 4.8539 -1.8440 0.9752
3.0512 5.1141 -1.8317 0.9754
1.1275 6.1761 -1.9310 0.9741
0.5919 6.4695 -1.9982 0.9732
0.0129 6.7858 -2.0872 0.9720
-0.5352 6.1043 -1.8848 0.9747
-1.9011 6.9741 -2.2233 0.9702
-3.0326 6.3621 -2.1678 0.9709
-4.4175 5.1101 -2.0776 0.9721
-4.7844 4.6265 -2.0471 0.9725
-5.7842 3.8723 -2.1410 0.9713
-6.3219 2.1085 -2.0498 0.9725
-6.3962 1.5150 -2.0218 0.9729
-6.4205 0.9260 -1.9952 0.9732
-6.3965 0.3451 -1.9703 0.9735
-6.3262 -0.2243 -1.9470 0.9739
-5.3529 -2.8015 -1.8583 0.9750
-4.3494 -4.0533 -1.8286 0.9754
-3.9577 -4.4111 -1.8228 0.9755
-3.5410 -4.7368 -1.8190 0.9756
-2.6408 -5.2866 -1.8176 0.9756
-2.1614 -5.5084 -1.8200 0.9755
-1.1548 -5.8396 -1.8309 0.9754
-0.6321 -5.9469 -1.8394 0.9753
0.4404 -6.0394 -1.8625 0.9750
2.0777 -5.8586 -1.9119 0.9743
3.1542 -5.5155 -1.9543 0.9738
3.6781 -5.2756 -1.9781 0.9734
5.5833 -3.8576 -2.0873 0.9720
5.5646 -3.1512 -1.9669 0.9736
6.4839 -1.6365 -2.0568 0.9724
6.8694 -0.4717 -2.1178 0.9716
6.9815 0.1451 -2.1478 0.9712
7.0350 0.7779 -2.1770 0.9708
7.0270 1.4205 -2.2051 0.9704
6.9551 2.0665 -2.2317 0.9701
6.8179 2.7085 -2.2564 0.9698
5.1923 3.9159 -2.0003 0.9732
4.6590 4.2159 -1.9326 0.9740
3.1787 4.9893 -1.8196 0.9755
0.7718 6.3711 -1.9739 0.9735
-1.0780 7.2572 -2.2566 0.9698
-3.3778 6.1126 -2.1481 0.9712
-2.2534 2.3106 -0.9927 0.9866
-6.3774 1.7095 -2.0308 0.9727
-6.4096 0.5346 -1.9783 0.9734
-6.2540 -0.5989 -1.9324 0.9741
-4.8272 -3.5308 -1.8395 0.9753
-4.0892 -4.2971 -1.8245 0.9755
-3.6804 -4.6335 -1.8200 0.9755
-2.7941 -5.2060 -1.8173 0.9756
0.2625 -6.0356 -1.8582 0.9750
2.4424 -5.7636 -1.9254 0.9741
2.9798 -5.5843 -1.9468 0.9739
4.5193 -4.7721 -2.0215 0.9729
4.9952 -4.4101 -2.0495 0.9725
5.4435 -3.2970 -1.9574 0.9737
6.4017 -1.8170 -2.0468 0.9725
6.8204 -0.6697 -2.1079 0.9717
7.0241 0.5688 -2.1675 0.9709
7.0366 1.2089 -2.1960 0.9706
6.9859 1.8545 -2.2231 0.9702
6.8702 2.4987 -2.2485 0.9699
6.6270 3.1050 -2.2510 0.9698
4.8301 4.1197 -1.9526 0.9738
4.3774 4.4670 -1.9237 0.9742
3.8305 4.6799 -1.8601 0.9750
2.8915 5.2028 -1.8308 0.9754
1.7585 3.9600 -1.3327 0.9820
1.9511 5.7231 -1.8598 0.9750
0.9476 6.2748 -1.9519 0.9738
0.3985 6.5752 -2.0261 0.9728
-0.1988 6.9011 -2.1235 0.9715
-1.5004 7.1272 -2.2402 0.9700
-2.6776 6.5856 -2.1866 0.9707
-3.7034 5.8439 -2.1280 0.9715
-2.2055 2.3983 -1.0022 0.9865
-4.8990 4.4546 -2.0366 0.9727
-5.5998 4.2445 -2.1612 0.9710
-5.8703 3.6742 -2.1301 0.9714
-6.2451 2.4984 -2.0689 0.9722
-6.3532 1.9043 -2.0400 0.9726
-6.4176 0.7253 -1.9865 0.9733
-6.3775 0.1480 -1.9621 0.9737
-6.2917 -0.4167 -1.9394 0.9740
-5.2522 -2.9575 -1.8540 0.9751
-4.9373 -3.3937 -1.8428 0.9752
-4.5918 -3.8016 -1.8336 0.9754
-4.2178 -4.1797 -1.8264 0.9755
-3.8173 -4.5267 -1.8213 0.9755
-1.9927 -5.5761 -1.8213 0.9755
-1.4914 -5.7478 -1.8264 0.9755
-5.9621 1.0476 -2.0122 0.9748
-5.9605 0.5054 -1.9884 0.9751
-5.9146 -0.0281 -1.9661 0.9754
-5.5306 -1.5472 -1.9090 0.9761
-5.0883 -2.4671 -1.8797 0.9764
-4.8173 -2.8929 -1.8678 0.9766
-4.1856 -3.6672 -1.8498 0.9768
-3.0439 -4.6128 -1.8371 0.9770
-1.7181 -5.2678 -1.8418 0.9769
-1.2449 -5.4161 -1.8473 0.9768
-0.7597 -5.5275 -1.8547 0.9768
-0.2649 -5.6012 -1.8640 0.9766
2.2677 -5.3717 -1.9382 0.9757
3.2551 -4.9886 -1.9800 0.9752
3.7305 -4.7332 -2.0033 0.9749
4.1890 -4.4355 -2.0280 0.9746
4.6267 -4.0960 -2.0540 0.9743
5.0395 -3.7154 -2.0812 0.9740
5.6494 -2.1735 -2.0121 0.9748
6.1113 -1.1664 -2.0681 0.9741
6.3884 -0.0633 -2.1236 0.9734
6.4492 0.5134 -2.1505 0.9731
6.4025 1.6903 -2.2011 0.9725
6.1207 2.8576 -2.2454 0.9719
4.8318 4.1097 -2.1085 0.9736
4.2343 4.3092 -2.0082 0.9749
3.8331 4.6699 -2.0082 0.9749
3.3605 4.9336 -1.9842 0.9752
1.7429 3.9105 -1.4231 0.9821
1.9560 5.7118 -2.0069 0.9749
-1.3652 6.5294 -2.2174 0.9723
-2.4490 6.0472 -2.1687 0.9729
-2.9427 5.7343 -2.1424 0.9732
-3.8147 4.9888 -2.0876 0.9739
-4.5160 4.1177 -2.0315 0.9746
-5.1593 3.9218 -2.1542 0.9731
-5.4258 3.4064 -2.1296 0.9734
-5.6309 2.8693 -2.1007 0.9737
-5.8934 1.7753 -2.0460 0.9744
-5.9344 0.1458 -1.9732 0.9753
-5.8600 -0.3801 -1.9520 0.9756
-5.5896 -1.3883 -1.9145 0.9760
-5.3976 -1.8657 -1.8983 0.9762
-4.9097 -2.7558 -1.8715 0.9765
-4.2969 -3.5475 -1.8522 0.9768
-3.9487 -3.9024 -1.8454 0.9769
-3.5754 -4.2280 -1.8405 0.9769
-1.8704 -5.2113 -1.8405 0.9769
-1.4016 -5.3714 -1.8453 0.9769
-0.4282 -5.5812 -1.8607 0.9767
0.0719 -5.6290 -1.8713 0.9766
0.5776 -5.6373 -1.8837 0.9764
2.1024 -5.4184 -1.9319 0.9758
2.6036 -5.2619 -1.9515 0.9756
3.0960 -5.0631 -1.9727 0.9753
3.5762 -4.8217 -1.9955 0.9750
4.0406 -4.5379 -2.0197 0.9747
4.4855 -4.2120 -2.0453 0.9744
4.9070 -3.8448 -2.0722 0.9741
5.2554 -2.7758 -1.9756 0.9753
2.2900 -0.9590 -0.8252 0.9896
6.2264 -0.8050 -2.0869 0.9739
6.4353 0.3227 -2.1418 0.9732
6.4591 0.9066 -2.1681 0.9729
6.4260 1.4964 -2.1932 0.9726
6.3344 2.0860 -2.2168 0.9723
5.9726 3.2382 -2.2583 0.9718
5.5659 3.6957 -2.2208 0.9722
5.0065 4.0114 -2.1325 0.9733
3.9777 4.5663 -2.0130 0.9748
3.5144 4.8478 -1.9903 0.9751
3.0475 5.1078 -1.9771 0.9752
1.1261 6.1680 -2.0842 0.9739
-1.1771 6.5885 -2.2247 0.9722
-1.7420 6.3904 -2.2017 0.9725
-3.2535 5.5004 -2.1243 0.9734
-5.3477 3.5801 -2.1392 0.9732
-5.7408 2.5037 -2.0819 0.9739
-5.8636 1.9556 -2.0546 0.9743
-5.9385 1.4066 -2.0286 0.9746
-5.8890 -0.2088 -1.9588 0.9755
-5.7867 -0.7259 -1.9386 0.9757
-5.6446 -1.2275 -1.9202 0.9759
-5.4646 -1.7112 -1.9034 0.9762
-5.2486 -2.1747 -1.8885 0.9763
-3.3114 -4.4296 -1.8384 0.9770
-2.9004 -4.7032 -1.8367 0.9770
-2.4696 -4.9440 -1.8370 0.9770
-2.0211 -5.1509 -1.8393 0.9769
-1.5570 -5.3228 -1.8435 0.9769
-0.5907 -5.5572 -1.8576 0.9767
0.4112 -5.6390 -1.8794 0.9764
0.9193 -5.6204 -1.8931 0.9763
1.9366 -5.4605 -1.9259 0.9759
3.4201 -4.9057 -1.9878 0.9751
3.8901 -4.6357 -2.0116 0.9748
4.3419 -4.3236 -2.0368 0.9745
4.7715 -3.9698 -2.0632 0.9742
5.1485 -2.9155 -1.9668 0.9754
5.4626 -2.4783 -1.9939 0.9750
5.9786 -1.5090 -2.0497 0.9743
6.4575 0.7140 -2.1596 0.9730
6.4433 1.3025 -2.1851 0.9727
6.2394 2.4787 -2.2317 0.9721
5.7601 3.5859 -2.2554 0.9718
4.1054 4.4429 -2.0108 0.9748
3.6694 4.7613 -1.9982 0.9750
3.1748 4.9831 -1.9640 0.9754
2.7354 5.2810 -1.9769 0.9752
1.7903 5.8031 -2.0187 0.9747
0.6326 2.9696 -1.0093 0.9873
0.2083 6.6697 -2.2181 0.9723
-0.3575 6.1432 -2.0455 0.9744
-0.9865 6.6414 -2.2319 0.9721
-2.1064 6.2277 -2.1853 0.9727
-2.6226 5.9447 -2.1598 0.9730
-3.1038 5.6169 -2.1332 0.9733
-2.2518 2.3090 -1.0721 0.9865
-4.6183 3.9584 -2.0219 0.9747
-5.5019 3.2231 -2.1196 0.9735
-5.6899 2.6827 -2.0910 0.9738
-5.9624 1.0392 -2.0118 0.9748
-5.9601 0.4971 -1.9880 0.9751
-5.3233 -2.0249 -1.8932 0.9763
-4.8129 -2.8992 -1.8677 0.9766
-4.5108 -3.2994 -1.8577 0.9767
-4.1803 -3.6727 -1.8497 0.9768
-3.4416 -4.3328 -1.8393 0.9769
-3.0376 -4.6169 -1.8371 0.9770
