ply
format ascii 1.0
element vertex 1586
property float32 x
property float32 y
property float32 z
property float32 I
end_header
9.5649 1.4822 -1.1497 0.9618
6.3679 3.5691 -0.8671 0.9710
4.0139 4.7382 -0.7376 0.9753
3.4603 4.9136 -0.7139 0.9761
2.9862 5.1641 -0.7086 0.9763
2.0996 5.8293 -0.7360 0.9754
1.0440 6.1870 -0.7453 0.9750
-0.7183 7.1111 -0.8490 0.9716
-2.3653 2.2298 -0.3861 0.9870
-14.9350 11.7505 -2.2573 0.9263
-15.6060 6.5759 -2.0116 0.9341
-15.5715 4.9797 -1.9420 0.9363
-15.4293 3.4541 -1.8781 0.9383
-14.8645 0.6200 -1.7672 0.9418
-14.4604 -0.6888 -1.7196 0.9434
-13.9858 -1.9263 -1.6770 0.9447
-13.4471 -3.0940 -1.6391 0.9459
-12.8501 -4.1933 -1.6056 0.9470
-12.1997 -5.2258 -1.5765 0.9479
-11.5000 -6.1929 -1.5515 0.9487
-10.7545 -7.0962 -1.5305 0.9494
-9.2846 -7.3942 -1.4099 0.9533
-6.8615 -9.4023 -1.3826 0.9542
-4.1368 -10.9046 -1.3854 0.9541
-2.1628 -11.6192 -1.4039 0.9535
-0.0667 -12.1790 -1.4467 0.9521
1.0722 -12.7653 -1.5217 0.9497
3.5450 -13.2007 -1.6236 0.9464
4.8119 -13.1158 -1.6595 0.9453
6.1077 -12.9430 -1.7000 0.9440
7.4305 -12.6763 -1.7454 0.9425
10.1453 -11.8334 -1.8515 0.9391
11.5293 -11.2418 -1.9128 0.9372
12.9232 -10.5255 -1.9798 0.9351
14.3193 -9.6754 -2.0528 0.9328
15.6552 -8.6532 -2.1248 0.9305
15.8474 -6.9948 -2.0577 0.9326
17.0854 -5.7833 -2.1426 0.9299
17.5931 -2.6199 -2.1129 0.9309
14.6757 -0.8603 -1.7463 0.9425
10.0673 1.2139 -1.2045 0.9600
8.9571 1.9024 -1.0877 0.9638
6.6322 3.4285 -0.8869 0.9704
5.1938 3.9950 -0.7784 0.9740
4.5674 4.2121 -0.7380 0.9753
4.2050 4.6370 -0.7436 0.9751
3.6191 4.7876 -0.7129 0.9761
3.1646 5.0699 -0.7099 0.9762
1.7895 5.9925 -0.7429 0.9751
0.6377 3.1314 -0.3796 0.9872
0.7130 6.3608 -0.7603 0.9745
-0.4816 7.1845 -0.8553 0.9714
-1.1560 7.3401 -0.8827 0.9705
-14.7548 12.4372 -2.2922 0.9252
-15.1812 10.6352 -2.2018 0.9281
-15.5885 7.1971 -2.0395 0.9332
-15.4950 4.0223 -1.9016 0.9376
-14.9973 1.1333 -1.7865 0.9412
-14.6218 -0.2026 -1.7370 0.9428
-11.7700 -5.8350 -1.5605 0.9485
-11.0415 -6.7623 -1.5380 0.9492
-8.0137 -8.5429 -1.3914 0.9539
-7.1839 -9.1772 -1.3844 0.9541
-5.4242 -10.2776 -1.3804 0.9543
-2.5453 -11.5022 -1.3994 0.9537
-1.5238 -11.7927 -1.4124 0.9532
1.8459 -13.1627 -1.5788 0.9479
4.3296 -13.1579 -1.6454 0.9457
8.2657 -12.4601 -1.7761 0.9415
12.3956 -10.8115 -1.9538 0.9359
15.1847 -9.0751 -2.1013 0.9312
15.3703 -7.4135 -2.0271 0.9336
16.6223 -6.2591 -2.1098 0.9310
14.8212 -1.3719 -1.7681 0.9418
10.6968 0.9250 -1.2754 0.9577
8.5926 2.3302 -1.0575 0.9648
7.5013 2.7730 -0.9500 0.9683
6.8460 3.2512 -0.9003 0.9699
6.2032 3.6567 -0.8554 0.9714
2.8712 5.2248 -0.7082 0.9763
2.3998 5.4735 -0.7099 0.9762
1.9786 5.8930 -0.7384 0.9753
0.7614 3.1851 -0.3890 0.9869
0.9157 6.2544 -0.7509 0.9749
-0.2342 7.0550 -0.8385 0.9720
-14.5505 13.1297 -2.3280 0.9241
-15.3681 9.5402 -2.1487 0.9297
-15.5531 7.8278 -2.0683 0.9323
-15.6082 6.1799 -1.9941 0.9346
-15.5463 4.6007 -1.9258 0.9368
-15.3795 3.0927 -1.8634 0.9388
-13.8600 -2.2178 -1.6673 0.9450
-13.3066 -3.3686 -1.6305 0.9462
-12.6961 -4.4514 -1.5981 0.9472
-12.0333 -5.4678 -1.5700 0.9482
-11.3221 -6.4193 -1.5460 0.9489
-5.7667 -10.0868 -1.3802 0.9543
-3.9025 -11.0043 -1.3869 0.9541
-2.9234 -11.3768 -1.3953 0.9538
-0.8729 -11.9422 -1.4224 0.9529
0.2009 -12.3170 -1.4633 0.9516
1.3691 -12.9179 -1.5431 0.9490
5.1256 -13.0820 -1.6690 0.9450
6.4282 -12.8868 -1.7107 0.9436
7.7571 -12.5962 -1.7572 0.9422
13.2641 -10.3306 -1.9971 0.9345
14.6594 -9.4465 -2.0716 0.9322
14.8894 -7.8113 -1.9973 0.9345
2.3069 -0.9587 -0.2967 0.9900
15.1066 -4.7491 -1.8810 0.9382
18.5549 -4.0581 -2.2562 0.9263
15.4052 -1.9520 -1.8446 0.9394
8.7555 2.0600 -1.0684 0.9644
7.8300 2.5978 -0.9799 0.9673
6.9949 3.0371 -0.9058 0.9697
5.0566 4.0679 -0.7709 0.9742
4.0812 4.7025 -0.7396 0.9752
3.5010 4.8474 -0.7103 0.9762
3.0090 5.0629 -0.6996 0.9766
2.1656 5.7945 -0.7348 0.9754
0.5793 6.4310 -0.7670 0.9743
0.0039 6.9302 -0.8232 0.9725
-1.3376 7.4351 -0.8974 0.9700
-15.2615 10.2029 -2.1807 0.9287
-15.6018 6.7948 -2.0214 0.9337
-15.4542 3.6542 -1.8864 0.9380
-15.2275 2.1911 -1.8274 0.9399
-14.9128 0.8006 -1.7740 0.9416
-14.5188 -0.5178 -1.7257 0.9432
-14.0532 -1.7648 -1.6824 0.9445
5.9326 3.5934 -0.9828 0.9724
5.3269 3.9157 -0.9367 0.9736
4.7412 4.1848 -0.8960 0.9748
4.3248 4.5652 -0.8910 0.9749
3.6916 4.6683 -0.8433 0.9762
3.2764 5.0030 -0.8474 0.9761
2.8050 5.2520 -0.8436 0.9762
2.4022 5.6618 -0.8714 0.9755
1.9096 5.9211 -0.8815 0.9752
0.7091 3.1311 -0.4549 0.9871
0.8434 6.2840 -0.8984 0.9747
0.2904 6.5740 -0.9324 0.9738
-0.3203 7.0908 -1.0057 0.9717
-8.7108 16.2714 -2.6151 0.9281
-9.7888 14.9148 -2.5278 0.9305
-11.4665 12.0799 -2.3599 0.9349
-13.2174 5.0514 -2.0049 0.9444
-13.1308 2.4776 -1.8933 0.9474
-12.6982 0.1008 -1.7993 0.9500
-12.3704 -1.0084 -1.7586 0.9511
-11.9764 -2.0634 -1.7219 0.9521
-10.4499 -4.8998 -1.6353 0.9544
-9.8405 -5.7357 -1.6138 0.9550
-8.4913 -7.2438 -1.5814 0.9559
-6.9843 -8.5323 -1.5623 0.9564
-6.1097 -8.9944 -1.5406 0.9570
-4.3963 -9.8943 -1.5341 0.9572
-0.6891 -11.2790 -1.6011 0.9554
1.3596 -11.5138 -1.6427 0.9542
3.4988 -11.4690 -1.6990 0.9527
4.5973 -11.3330 -1.7329 0.9518
5.7116 -11.1158 -1.7707 0.9508
7.9733 -10.4189 -1.8589 0.9484
9.1116 -9.9292 -1.9095 0.9470
12.4793 -7.8322 -2.0876 0.9422
15.3000 -3.1551 -2.2135 0.9388
11.3018 0.7296 -1.6047 0.9553
8.4364 2.0916 -1.2315 0.9655
7.4833 2.5824 -1.1217 0.9685
6.8426 3.0687 -1.0626 0.9702
4.9762 4.1021 -0.9138 0.9743
4.0091 4.7326 -0.8788 0.9753
3.4562 4.9079 -0.8505 0.9760
2.9827 5.1582 -0.8442 0.9762
2.5123 5.4064 -0.8447 0.9762
1.5504 5.9128 -0.8661 0.9756
0.5043 6.4619 -0.9184 0.9742
-0.0794 6.9647 -0.9869 0.9723
-1.4186 7.3782 -1.0646 0.9701
-8.2609 16.7670 -2.6484 0.9273
-12.3881 9.7467 -2.2334 0.9383
-12.7773 8.3230 -2.1606 0.9403
-13.0413 6.9238 -2.0921 0.9421
-13.1895 5.5577 -2.0279 0.9438
-13.2314 4.2313 -1.9683 0.9454
-13.0304 1.7163 -1.8622 0.9483
-12.8037 0.5340 -1.8157 0.9495
-12.5023 -0.5955 -1.7735 0.9507
-11.7005 -2.6921 -1.7011 0.9527
-10.0762 -5.4262 -1.6215 0.9548
-9.4388 -6.2281 -1.6023 0.9553
-8.7588 -6.9755 -1.5865 0.9558
-8.0389 -7.6684 -1.5741 0.9561
-7.2813 -8.3069 -1.5652 0.9564
-6.4375 -8.8214 -1.5473 0.9568
-5.5748 -9.2761 -1.5334 0.9572
-4.7201 -9.7248 -1.5316 0.9573
-3.8599 -10.1746 -1.5419 0.9570
-0.0624 -11.3805 -1.6125 0.9551
0.9651 -11.4900 -1.6337 0.9545
3.0883 -11.5001 -1.6872 0.9530
4.1801 -11.3937 -1.7196 0.9522
7.5437 -10.5787 -1.8410 0.9489
8.6814 -10.1259 -1.8898 0.9475
9.8187 -9.5739 -1.9431 0.9461
10.9489 -8.9175 -2.0008 0.9445
12.0638 -8.1514 -2.0629 0.9429
14.6350 -0.8579 -2.0772 0.9425
11.8136 0.3631 -1.6746 0.9534
8.8924 1.8886 -1.2881 0.9639
7.0764 2.8909 -1.0831 0.9696
6.5754 3.3991 -1.0488 0.9705
5.7793 3.6750 -0.9704 0.9727
4.1999 4.6315 -0.8859 0.9751
3.1609 5.0640 -0.8458 0.9762
2.6902 5.3126 -0.8437 0.9762
0.6367 3.1266 -0.4521 0.9872
0.7121 6.3529 -0.9058 0.9745
-6.4231 18.4650 -2.7701 0.9241
-7.7875 17.2510 -2.6818 0.9264
-10.0273 14.5756 -2.5067 0.9310
-2.2632 2.2825 -0.4554 0.9871
-12.6454 8.8587 -2.1876 0.9395
-12.9556 7.4491 -2.1175 0.9414
-13.2076 3.4285 -1.9334 0.9464
-12.6246 -0.1749 -1.7889 0.9503
-11.4023 -3.2996 -1.6819 0.9532
-9.0206 -6.6994 -1.5921 0.9556
-7.5720 -8.0720 -1.5682 0.9563
-5.8992 -9.1053 -1.5372 0.9571
-5.0430 -9.5555 -1.5309 0.9573
-4.1865 -10.0040 -1.5366 0.9571
-2.4034 -10.8607 -1.5761 0.9561
-1.4372 -11.1224 -1.5890 0.9557
-0.4443 -11.3218 -1.6054 0.9553
0.5739 -11.4565 -1.6253 0.9547
1.6161 -11.5238 -1.6488 0.9541
7.1148 -10.7251 -1.8236 0.9493
8.2511 -10.3084 -1.8709 0.9481
12.8200 -6.1834 -2.0167 0.9441
13.7709 -5.1854 -2.0849 0.9423
14.6675 -4.0728 -2.1569 0.9404
15.4946 -2.8448 -2.2321 0.9383
14.8151 -1.3713 -2.1081 0.9417
10.9035 0.9429 -1.5507 0.9567
9.3946 1.6662 -1.3519 0.9622
7.3171 2.7049 -1.1053 0.9690
6.6950 3.1795 -1.0501 0.9705
5.4048 3.8743 -0.9422 0.9735
4.7603 4.1016 -0.8903 0.9749
4.3940 4.5286 -0.8940 0.9748
3.8874 4.7970 -0.8748 0.9754
2.8679 5.2188 -0.8437 0.9762
2.3971 5.4671 -0.8458 0.9762
1.9763 5.8861 -0.8797 0.9752
0.7626 3.1902 -0.4648 0.9868
0.3669 6.5339 -0.9272 0.9739
-0.2339 7.0456 -0.9988 0.9719
-7.2909 17.7220 -2.7152 0.9255
-8.5542 16.4482 -2.6269 0.9278
-9.6539 15.0997 -2.5394 0.9302
-10.5921 13.7006 -2.4537 0.9324
-11.3735 12.2723 -2.3708 0.9346
-12.0051 10.8328 -2.2911 0.9368
-12.4952 9.3974 -2.2153 0.9388
-13.2092 5.2301 -2.0130 0.9442
-13.2264 3.9142 -1.9544 0.9458
-12.9824 1.4229 -1.8505 0.9486
-12.7368 0.2534 -1.8050 0.9498
-12.0328 -1.9254 -1.7266 0.9520
-11.0830 -3.8858 -1.6641 0.9537
-7.0909 -8.4545 -1.5635 0.9564
-6.2255 -8.9333 -1.5428 0.9570
-5.3660 -9.3859 -1.5319 0.9573
-2.7613 -10.7460 -1.5721 0.9562
-1.8055 -11.0307 -1.5837 0.9558
-0.8226 -11.2539 -1.5988 0.9554
0.1862 -11.4134 -1.6174 0.9549
1.2195 -11.5065 -1.6395 0.9543
3.3531 -11.4813 -1.6947 0.9528
4.4493 -11.3558 -1.7281 0.9519
5.5617 -11.1497 -1.7654 0.9509
12.3326 -7.9471 -2.0788 0.9425
12.4492 -6.5311 -1.9919 0.9448
2.3048 -0.9578 -0.3536 0.9900
14.3359 -4.5069 -2.1293 0.9411
15.1912 -3.3224 -2.2033 0.9391
15.4045 -1.9519 -2.2001 0.9392
12.7074 -0.4673 -1.8017 0.9499
9.9517 1.4206 -1.4243 0.9602
8.5930 2.0217 -1.2508 0.9650
7.5984 2.5210 -1.1343 0.9682
6.4050 3.4900 -1.0335 0.9710
5.6297 3.7546 -0.9588 0.9730
4.5919 4.4236 -0.9034 0.9746
4.0764 4.6969 -0.8812 0.9752
3.0055 5.0571 -0.8335 0.9765
0.5755 3.1787 -0.4577 0.9870
-1.3216 7.3464 -1.0576 0.9703
-3.8057 13.8983 -2.0417 0.9434
-6.7710 18.1786 -2.7486 0.9246
-8.0959 16.9398 -2.6602 0.9270
-10.2563 14.2339 -2.4858 0.9316
-11.0962 12.8143 -2.4018 0.9338
-12.3260 9.9386 -2.2435 0.9380
-12.7327 8.5123 -2.1701 0.9400
-13.0548 1.8785 -1.8688 0.9481
-12.8385 0.6892 -1.8217 0.9494
-11.7618 -2.5586 -1.7055 0.9525
-11.2795 -3.5322 -1.6747 0.9534
5.7711 3.4956 -1.1115 0.9730
4.3196 4.5597 -1.0347 0.9749
3.6872 4.6628 -0.9793 0.9762
3.2726 4.9971 -0.9840 0.9761
2.8017 5.2459 -0.9797 0.9762
1.8937 5.8718 -1.0164 0.9753
0.6803 3.0042 -0.5074 0.9876
0.8405 6.2624 -1.0409 0.9747
0.2861 6.4779 -1.0682 0.9741
-0.3022 6.6902 -1.1033 0.9732
-0.8331 6.1605 -1.0241 0.9751
-3.4241 15.0514 -2.5429 0.9393
-4.6349 14.3228 -2.4800 0.9408
-6.1846 14.5369 -2.6025 0.9380
-7.2533 13.5488 -2.5317 0.9396
-8.1967 12.4890 -2.4610 0.9412
-9.7064 10.2256 -2.3226 0.9444
-10.2775 9.0534 -2.2563 0.9460
-10.7318 7.8722 -2.1926 0.9475
-11.4529 4.3771 -2.0198 0.9515
-11.5007 3.2545 -1.9690 0.9527
-10.8977 -0.8884 -1.8012 0.9566
-10.5769 -1.8223 -1.7681 0.9574
-9.2833 -4.3528 -1.6891 0.9593
-8.7548 -5.1029 -1.6694 0.9598
-7.5712 -6.4589 -1.6395 0.9605
-6.9217 -7.0638 -1.6292 0.9607
-6.2368 -7.6191 -1.6221 0.9609
-4.7692 -8.5784 -1.6169 0.9610
-3.9903 -8.9805 -1.6189 0.9609
-3.1836 -9.3295 -1.6240 0.9608
1.2072 -10.2233 -1.6959 0.9591
4.0571 -10.0013 -1.7780 0.9572
6.0023 -9.4907 -1.8499 0.9555
6.9767 -9.1166 -1.8912 0.9545
7.9458 -8.6587 -1.9360 0.9535
10.7542 -6.7495 -2.0917 0.9498
10.7931 -5.4989 -1.9955 0.9521
2.3137 -0.9293 -0.4108 0.9899
12.2795 -3.6998 -2.1127 0.9493
11.2768 0.7280 -1.8616 0.9552
7.5665 2.6112 -1.3186 0.9681
5.4487 3.7287 -1.0877 0.9736
4.5158 4.4556 -1.0451 0.9746
4.0043 4.7269 -1.0206 0.9752
2.0797 5.7739 -1.0110 0.9754
1.0414 6.1719 -1.0311 0.9749
0.4992 6.3970 -1.0570 0.9743
-0.6255 6.1921 -1.0253 0.9751
-4.1893 14.6114 -2.5041 0.9402
-7.8550 12.8968 -2.4877 0.9406
-8.7198 11.8016 -2.4173 0.9422
-2.3566 2.2215 -0.5335 0.9870
-11.2351 5.9649 -2.0955 0.9497
-11.4113 4.8084 -2.0400 0.9510
-11.3992 1.5014 -1.8941 0.9545
-11.2360 0.4686 -1.8526 0.9554
-11.0029 -0.5241 -1.8147 0.9563
-10.7052 -1.4745 -1.7802 0.9571
-8.4040 -5.5453 -1.6587 0.9600
-4.2880 -8.8347 -1.6178 0.9610
-1.8203 -9.7791 -1.6387 0.9605
2.7338 -10.1803 -1.7365 0.9582
3.6922 -10.0639 -1.7660 0.9575
4.6600 -9.8752 -1.7989 0.9567
6.6088 -9.2677 -1.8752 0.9549
8.5431 -8.3301 -1.9657 0.9528
9.4899 -7.7292 -2.0163 0.9516
10.4903 -5.7984 -1.9746 0.9526
12.6927 -3.0673 -2.1512 0.9484
13.8125 -0.8097 -2.2794 0.9455
10.3156 1.2439 -1.7117 0.9588
9.0507 1.9223 -1.5243 0.9632
7.9454 2.4452 -1.3695 0.9669
4.5562 4.2017 -1.0210 0.9752
3.6106 4.7763 -0.9864 0.9760
2.6871 5.3064 -0.9799 0.9762
2.2716 5.6962 -1.0102 0.9754
0.6117 3.0036 -0.5050 0.9877
-1.1203 7.1136 -1.1863 0.9712
-3.5040 13.9860 -2.3753 0.9432
-5.2958 15.2244 -2.6555 0.9367
-6.4569 14.3034 -2.5853 0.9384
-7.4952 13.2960 -2.5144 0.9400
-8.4078 12.2215 -2.4438 0.9416
-9.1943 11.0977 -2.3742 0.9433
-11.1426 6.4067 -2.1174 0.9492
-11.3561 5.2431 -2.0606 0.9506
-11.4992 2.9850 -1.9571 0.9530
-11.4416 1.9017 -1.9107 0.9541
-11.0989 -0.1538 -1.8286 0.9560
-10.8250 -1.1204 -1.7928 0.9568
-10.4896 -2.0436 -1.7605 0.9576
-9.6523 -3.7545 -1.7062 0.9589
-8.6191 -5.2787 -1.6650 0.9599
-7.4160 -6.6111 -1.6367 0.9605
-6.7577 -7.2039 -1.6272 0.9607
-6.0645 -7.7471 -1.6208 0.9609
-4.5817 -8.6814 -1.6171 0.9610
-1.2808 -9.9121 -1.6465 0.9603
2.3747 -10.2061 -1.7263 0.9584
5.2652 -9.7199 -1.8211 0.9562
7.2140 -9.0127 -1.9018 0.9543
10.9855 -5.2986 -2.0093 0.9518
11.7435 -4.4220 -2.0672 0.9504
12.4449 -3.4556 -2.1277 0.9490
10.8803 0.9409 -1.7991 0.9567
8.3567 2.2662 -1.4264 0.9655
7.3299 2.7097 -1.2874 0.9688
5.8417 3.4436 -1.1171 0.9729
2.3942 5.4608 -0.9823 0.9761
0.9126 6.2332 -1.0378 0.9748
0.3621 6.4493 -1.0641 0.9742
-0.7526 6.1144 -1.0149 0.9753
-3.2545 15.1401 -2.5511 0.9392
-6.0323 14.6627 -2.6119 0.9377
-10.2079 9.2111 -2.2651 0.9458
-11.2872 5.6808 -2.0817 0.9501
-11.4397 4.5294 -2.0269 0.9513
-11.4728 2.3071 -1.9279 0.9537
-11.3661 1.2458 -1.8837 0.9547
-10.9360 -0.7600 -1.8059 0.9565
-10.6233 -1.6999 -1.7723 0.9573
-9.8265 -3.4453 -1.7154 0.9587
-8.2620 -5.7139 -1.6549 0.9601
-7.6554 -6.3742 -1.6411 0.9604
-7.0107 -6.9857 -1.6304 0.9607
-6.3304 -7.5477 -1.6228 0.9609
-5.6166 -8.0596 -1.6183 0.9610
-4.8712 -8.5206 -1.6169 0.9610
-4.0962 -8.9297 -1.6185 0.9610
-3.2931 -9.2859 -1.6231 0.9608
-1.6096 -9.8340 -1.6416 0.9604
0.1656 -10.1517 -1.6726 0.9597
2.0176 -10.2222 -1.7165 0.9586
2.9667 -10.1584 -1.7434 0.9580
4.8973 -9.8178 -1.8074 0.9565
5.8717 -9.5346 -1.8447 0.9556
6.8465 -9.1715 -1.8855 0.9547
7.8166 -8.7250 -1.9298 0.9536
12.8473 -2.8098 -2.1665 0.9481
13.4307 -1.7018 -2.2303 0.9466
12.6737 -0.4661 -2.0893 0.9499
11.5062 0.6048 -1.8981 0.9544
7.6973 2.5538 -1.3360 0.9677
5.0123 4.0323 -1.0598 0.9743
3.4990 4.8446 -0.9845 0.9761
3.0179 5.0780 -0.9731 0.9763
1.1109 6.1355 -1.0272 0.9750
-1.2995 7.2237 -1.2091 0.9707
-6.7218 14.0647 -2.5680 0.9388
-7.7296 13.0392 -2.4971 0.9404
-8.6114 11.9510 -2.4267 0.9420
-10.5135 8.4772 -2.2249 0.9467
-11.2040 6.1211 -2.1032 0.9496
-11.4873 3.8255 -1.9946 0.9521
-11.4926 2.7174 -1.9455 0.9533
-10.7486 -1.3498 -1.7846 0.9570
-10.3989 -2.2622 -1.7532 0.9578
-9.5361 -3.9506 -1.7005 0.9590
5.7976 3.5116 -1.2740 0.9728
4.3144 4.5542 -1.1791 0.9748
3.6510 4.6170 -1.1064 0.9763
3.1964 4.8808 -1.0966 0.9765
2.7394 5.1293 -1.0930 0.9766
2.2762 5.3648 -1.0954 0.9766
-0.3043 6.7366 -1.2675 0.9729
-2.8958 12.7290 -2.4537 0.9483
-3.9348 12.1592 -2.4021 0.9493
-5.7602 10.7597 -2.2940 0.9515
-7.0427 10.7306 -2.4125 0.9491
-7.7759 9.8134 -2.3534 0.9503
-9.6984 5.8612 -2.1299 0.9549
-10.0952 3.8582 -2.0314 0.9570
-10.1677 2.8773 -1.9862 0.9579
-9.9395 0.0789 -1.8683 0.9604
-9.7307 -0.7932 -1.8351 0.9610
-9.1401 -2.4304 -1.7777 0.9622
-8.7663 -3.1917 -1.7535 0.9627
-3.6020 -8.1066 -1.6674 0.9645
-1.3462 -8.8899 -1.6900 0.9641
-0.5526 -9.0451 -1.7033 0.9638
1.0847 -9.1860 -1.7386 0.9631
4.4862 -8.7309 -1.8450 0.9608
6.1965 -8.0970 -1.9164 0.9594
7.0384 -7.6700 -1.9567 0.9585
7.8641 -7.1667 -1.9999 0.9576
8.6669 -6.5853 -2.0459 0.9567
9.4395 -5.9244 -2.0948 0.9557
9.4414 -4.8102 -1.9917 0.9578
2.3138 -0.9293 -0.4687 0.9899
10.6631 -3.2127 -2.0932 0.9557
11.1848 -2.3065 -2.1465 0.9546
11.6334 -1.3330 -2.2009 0.9535
11.9986 -0.2978 -2.2560 0.9523
11.2518 0.7264 -2.1193 0.9551
9.7835 1.5161 -1.8609 0.9605
8.6252 2.1384 -1.6703 0.9645
7.6745 2.6484 -1.5260 0.9675
6.8210 3.0590 -1.4051 0.9700
6.0576 3.3952 -1.3052 0.9721
4.8243 3.9769 -1.1752 0.9749
4.5102 4.4501 -1.1909 0.9745
3.9995 4.7212 -1.1630 0.9751
3.3683 4.7830 -1.0996 0.9765
2.9127 5.0370 -1.0937 0.9766
2.4522 5.2772 -1.0938 0.9766
1.9831 5.5056 -1.0999 0.9765
0.8430 3.2149 -0.6247 0.9866
0.5419 3.2112 -0.6121 0.9868
-0.6129 6.0677 -1.1463 0.9755
-2.4836 12.9177 -2.4725 0.9479
-3.5513 12.3861 -2.4219 0.9489
-4.5402 11.7578 -2.3690 0.9500
-6.2537 10.2677 -2.2597 0.9522
-8.1801 9.2217 -2.3170 0.9511
-2.3536 2.2187 -0.6080 0.9869
-9.5833 6.2424 -2.1497 0.9545
-10.1497 3.2458 -2.0029 0.9576
-10.1734 2.2775 -1.9595 0.9585
-9.2683 -2.1325 -1.7876 0.9620
-8.9134 -2.9086 -1.7623 0.9626
-8.0601 -4.3405 -1.7207 0.9634
-7.5682 -4.9938 -1.7043 0.9638
-5.2300 -7.1667 -1.6676 0.9645
-3.8710 -7.9756 -1.6663 0.9646
-3.1513 -8.3069 -1.6700 0.9645
-1.6412 -8.8171 -1.6857 0.9642
-0.8547 -8.9929 -1.6979 0.9639
-0.0499 -9.1135 -1.7130 0.9636
0.7708 -9.1772 -1.7310 0.9632
1.6052 -9.1818 -1.7520 0.9628
2.4505 -9.1252 -1.7760 0.9623
3.3038 -9.0051 -1.8029 0.9617
5.0202 -8.5644 -1.8659 0.9604
5.8752 -8.2390 -1.9020 0.9597
9.1516 -6.1836 -2.0760 0.9560
9.1885 -5.0789 -1.9734 0.9582
10.4491 -3.5369 -2.0735 0.9561
11.8711 -0.6959 -2.2351 0.9528
5.0287 3.8680 -1.1925 0.9745
4.4997 4.1497 -1.1505 0.9754
4.1898 4.6203 -1.1723 0.9749
2.6271 5.1879 -1.0930 0.9766
1.6849 5.6425 -1.1069 0.9763
0.6904 6.1592 -1.1649 0.9751
-1.1430 7.2577 -1.3810 0.9705
-4.1762 12.0057 -2.3892 0.9496
-5.9581 10.5693 -2.2805 0.9518
-7.2311 10.5111 -2.3981 0.9494
-7.9393 9.5829 -2.3391 0.9506
-9.4548 6.6235 -2.1698 0.9541
-9.7658 5.6150 -2.1174 0.9552
-10.1203 3.6171 -2.0201 0.9572
-10.1734 2.6409 -1.9756 0.9581
-10.0556 0.7599 -1.8954 0.9598
-8.6677 -3.3715 -1.7481 0.9629
-7.7589 -4.7519 -1.7101 0.9636
-6.0971 -6.4997 -1.6751 0.9644
-4.8195 -7.4387 -1.6660 0.9646
-1.1542 -8.9328 -1.6930 0.9640
0.4589 -9.1600 -1.7239 0.9634
2.9805 -9.0581 -1.7924 0.9619
4.6959 -8.6688 -1.8531 0.9607
6.4032 -7.9997 -1.9260 0.9592
7.2418 -7.5543 -1.9670 0.9583
10.2267 -3.8508 -2.0540 0.9565
10.7966 -2.9980 -2.1061 0.9554
11.3014 -2.0749 -2.1597 0.9543
11.6588 -0.0352 -2.1914 0.9537
10.8569 0.9388 -2.0483 0.9566
8.3769 2.2717 -1.6314 0.9653
7.4600 2.7578 -1.4949 0.9681
6.6232 3.1454 -1.3782 0.9706
4.6953 4.0456 -1.1649 0.9751
2.8009 5.0969 -1.0931 0.9766
0.7367 3.0819 -0.5956 0.9872
-0.8724 7.0882 -1.3424 0.9714
-2.7510 12.7976 -2.4604 0.9481
-4.7687 11.5913 -2.3559 0.9503
-6.9367 10.8497 -2.4205 0.9489
-7.6838 9.9387 -2.3613 0.9502
-8.3279 8.9860 -2.3028 0.9514
-8.8701 8.0040 -2.2457 0.9525
-9.3128 7.0040 -2.1902 0.9537
-9.9132 4.9892 -2.0860 0.9558
-10.0794 3.9908 -2.0376 0.9568
-10.1626 3.0075 -1.9921 0.9578
-10.0995 1.1069 -1.9097 0.9595
-9.9628 0.1982 -1.8730 0.9603
-9.7621 -0.6785 -1.8393 0.9610
-9.5020 -1.5204 -1.8087 0.9616
-9.1864 -2.3256 -1.7811 0.9622
-8.8191 -3.0921 -1.7566 0.9627
-8.4038 -3.8186 -1.7350 0.9631
-7.9438 -4.5039 -1.7164 0.9635
-6.9013 -5.7463 -1.6880 0.9641
-6.3241 -6.3016 -1.6781 0.9643
-5.7131 -6.8117 -1.6710 0.9645
-5.0702 -7.2756 -1.6668 0.9646
-4.3978 -7.6924 -1.6655 0.9646
-1.4510 -8.8650 -1.6884 0.9641
-0.6599 -9.0275 -1.7013 0.9638
1.8107 -9.1737 -1.7576 0.9627
2.6582 -9.1018 -1.7823 0.9621
4.3712 -8.7632 -1.8407 0.9609
5.2294 -8.4916 -1.8745 0.9602
6.0829 -8.1485 -1.9113 0.9595
7.7548 -7.2386 -1.9939 0.9577
9.3525 -4.9065 -1.9851 0.9579
2.3017 -0.9565 -0.4685 0.9899
9.9591 1.4217 -1.8909 0.9599
7.7922 2.5853 -1.5431 0.9671
6.9331 3.0103 -1.4207 0.9697
6.1531 3.3527 -1.3171 0.9719
4.5806 4.4127 -1.1955 0.9744
4.0666 4.6857 -1.1662 0.9751
2.9739 5.0039 -1.0941 0.9766
2.5143 5.2458 -1.0934 0.9766
1.5675 5.6994 -1.1110 0.9762
0.5681 3.1380 -0.5994 0.9871
0.5609 6.2270 -1.1752 0.9749
0.0037 6.5488 -1.2309 0.9737
-0.5403 6.0735 -1.1461 0.9755
-3.4127 12.4631 -2.4288 0.9488
-5.3271 11.1463 -2.3220 0.9510
-6.1506 10.3754 -2.2671 0.9521
-7.4135 10.2886 -2.3836 0.9497
-2.3101 2.2304 -0.6036 0.9870
-9.1570 7.3834 -2.2110 0.9533
-10.1406 3.3770 -2.0089 0.9574
-10.1746 2.4058 -1.9652 0.9583
-10.0222 0.5380 -1.8865 0.9600
-9.6070 -1.2064 -1.8199 0.9614
-9.3119 -2.0257 -1.7912 0.9620
5.2615 3.8676 -1.3803 0.9737
4.6826 4.1331 -1.3202 0.9748
1.8072 5.6035 -1.2445 0.9762
0.2870 6.4965 -1.3746 0.9738
-0.3099 6.8608 -1.4517 0.9723
-0.8336 6.1645 -1.3149 0.9749
-2.5059 11.0150 -2.3878 0.9549
-3.4146 10.5517 -2.3443 0.9557
-5.7231 8.7200 -2.2048 0.9583
-7.4060 7.8021 -2.2739 0.9570
-7.8951 6.9548 -2.2240 0.9579
-8.2985 6.0873 -2.1755 0.9588
-8.8566 4.3256 -2.0835 0.9605
-9.0172 3.4462 -2.0405 0.9613
-9.1035 2.5762 -1.9999 0.9621
-9.1194 1.7207 -1.9617 0.9628
-8.5542 -1.4738 -1.8348 0.9651
-8.2744 -2.2002 -1.8098 0.9656
-7.9462 -2.8931 -1.7875 0.9660
-7.5727 -3.5508 -1.7679 0.9664
-6.7018 -4.7542 -1.7369 0.9670
-6.2097 -5.2974 -1.7253 0.9672
-5.1250 -6.2610 -1.7103 0.9675
-3.9213 -7.0532 -1.7058 0.9675
-3.2801 -7.3822 -1.7076 0.9675
-1.9296 -7.8998 -1.7190 0.9673
-1.2244 -8.0857 -1.7286 0.9671
0.9840 -8.3333 -1.7737 0.9663
1.7429 -8.3069 -1.7942 0.9659
4.0468 -7.8757 -1.8717 0.9644
5.5684 -7.2763 -1.9368 0.9632
6.3116 -6.8780 -1.9732 0.9626
7.7355 -5.8776 -2.0536 0.9611
8.4005 -5.2723 -2.0965 0.9603
8.3826 -4.2707 -1.9886 0.9623
2.3140 -0.9294 -0.5271 0.9899
9.8446 -2.0301 -2.1247 0.9597
10.4968 -0.2605 -2.2195 0.9580
10.7012 0.6908 -2.2667 0.9571
9.7643 1.5131 -2.0886 0.9604
6.8524 3.0731 -1.5875 0.9698
6.1522 3.4482 -1.4908 0.9716
5.4970 3.7618 -1.4080 0.9731
4.8947 4.0349 -1.3409 0.9744
3.9947 4.7155 -1.3064 0.9750
2.8982 5.0120 -1.2238 0.9766
2.4416 5.2542 -1.2247 0.9766
1.9829 5.5053 -1.2369 0.9764
0.5265 3.1200 -0.6688 0.9871
-0.0766 6.7202 -1.4206 0.9729
-0.6123 6.0618 -1.2879 0.9754
-2.1470 11.1667 -2.4036 0.9546
-3.0785 10.7369 -2.3610 0.9554
-5.4698 8.9807 -2.2227 0.9579
-7.1985 8.1151 -2.2930 0.9566
-2.3506 2.2159 -0.6829 0.9869
-8.7757 4.6592 -2.1002 0.9602
-8.9654 3.7778 -2.0565 0.9610
-9.1214 2.0420 -1.9758 0.9625
-9.0953 1.1980 -1.9392 0.9632
-9.0050 0.3756 -1.9051 0.9638
-8.8542 -0.4217 -1.8737 0.9644
-7.7190 -3.3065 -1.7750 0.9663
-6.3998 -5.0968 -1.7294 0.9671
-5.3397 -6.0917 -1.7123 0.9674
-4.7626 -6.5262 -1.7078 0.9675
-2.8693 -7.5636 -1.7100 0.9675
-1.4931 -8.0213 -1.7247 0.9672
-0.0454 -8.2789 -1.7500 0.9667
2.2186 -8.2617 -1.8082 0.9656
4.5234 -7.7169 -1.8908 0.9641
6.7648 -6.5962 -1.9972 0.9621
7.4745 -6.0877 -2.0377 0.9614
8.7246 -3.8509 -2.0159 0.9618
9.2348 -3.1259 -2.0608 0.9609
9.6891 -2.3414 -2.1070 0.9601
10.0794 -1.5010 -2.1541 0.9592
10.3973 -0.6095 -2.2015 0.9583
10.2734 1.2388 -2.1873 0.9586
6.4067 3.3119 -1.5245 0.9709
4.5494 4.1954 -1.3081 0.9750
4.1847 4.6147 -1.3168 0.9749
2.6139 5.1619 -1.2230 0.9766
2.1571 5.4090 -1.2309 0.9765
0.7002 6.2466 -1.3287 0.9746
-0.4653 6.9418 -1.4706 0.9720
-2.7333 10.9100 -2.3774 0.9551
-4.4526 9.8635 -2.2875 0.9567
-5.2053 9.2338 -2.2406 0.9576
-6.9786 8.4233 -2.3122 0.9563
-2.2652 2.2846 -0.6801 0.9869
-8.0014 6.7446 -2.2121 0.9581
-8.6836 4.9929 -2.1173 0.9599
-9.0450 3.2327 -2.0304 0.9615
-9.1130 1.5146 -1.9527 0.9629
-8.9180 -0.1235 -1.8853 0.9642
-8.4906 -1.6541 -1.8285 0.9653
-6.5849 -4.8905 -1.7338 0.9670
-6.0843 -5.4239 -1.7229 0.9672
-3.7670 -7.1377 -1.7060 0.9675
-1.7592 -7.9498 -1.7211 0.9673
-1.0496 -8.1234 -1.7314 0.9671
0.4166 -8.3162 -1.7601 0.9665
1.1685 -8.3321 -1.7785 0.9662
2.6961 -8.1937 -1.8233 0.9653
3.4656 -8.0359 -1.8499 0.9649
4.9975 -7.5334 -1.9109 0.9637
5.7513 -7.1853 -1.9454 0.9631
6.4904 -6.7705 -1.9825 0.9624
7.9017 -5.7367 -2.0640 0.9609
8.5433 -5.1058 -2.1038 0.9601
8.5189 -4.1089 -1.9992 0.9621
9.0480 -3.4071 -2.0437 0.9612
9.5245 -2.6447 -2.0895 0.9604
9.9400 -1.8249 -2.1362 0.9595
10.2862 -0.9521 -2.1836 0.9586
10.5547 -0.0319 -2.2311 0.9578
9.4589 1.6777 -2.0306 0.9615
8.3625 2.2678 -1.8315 0.9652
5.3437 3.8305 -1.3898 0.9735
4.7569 4.0986 -1.3273 0.9747
3.2474 4.8317 -1.2306 0.9765
2.7864 5.0706 -1.2230 0.9766
2.3301 5.3145 -1.2266 0.9766
1.8696 5.5685 -1.2416 0.9763
0.8973 6.1291 -1.3094 0.9750
0.3622 6.4506 -1.3657 0.9739
-0.2262 6.8133 -1.4410 0.9725
-3.2966 10.6187 -2.3503 0.9556
-4.9297 9.4790 -2.2584 0.9573
-6.2606 8.0979 -2.1636 0.9590
-7.3339 7.9135 -2.2806 0.9568
-8.5800 5.3263 -2.1347 0.9596
-9.0001 3.5635 -2.0461 0.9612
-9.0961 2.6919 -2.0052 0.9620
-9.1212 1.8342 -1.9666 0.9627
-8.9736 0.1785 -1.8972 0.9640
-8.5878 -1.3742 -1.8384 0.9651
-8.3148 -2.1049 -1.8130 0.9655
-7.9928 -2.8024 -1.7904 0.9660
-6.2776 -5.2270 -1.7267 0.9672
-4.6173 -6.6256 -1.7071 0.9675
-4.0052 -7.0057 -1.7058 0.9675
-2.7058 -7.6298 -1.7112 0.9674
-2.0226 -7.8712 -1.7179 0.9673
-0.5998 -8.2058 -1.7392 0.9669
0.8831 -8.3326 -1.7712 0.9663
3.1747 -8.1027 -1.8395 0.9650
4.7098 -7.6479 -1.8986 0.9639
7.6435 -5.9531 -2.0479 0.9612
8.3067 -4.3579 -1.9828 0.9624
2.3008 -0.9562 -0.5267 0.9899
9.7906 -2.1413 -2.1185 0.9599
10.1640 -1.2879 -2.1656 0.9590
10.6790 0.5613 -2.2604 0.9572
9.9393 1.4189 -2.1223 0.9598
7.7796 2.5811 -1.7326 0.9670
5.5830 3.7234 -1.4185 0.9729
4.9716 3.9995 -1.3488 0.9743
3.4248 4.7418 -1.2364 0.9764
2.5026 5.2214 -1.2239 0.9766
2.0447 5.4710 -1.2346 0.9764
0.5697 6.3250 -1.3424 0.9744
-1.3297 7.3912 -1.5874 0.9698
-2.9572 10.7996 -2.3669 0.9553
-3.8348 10.2955 -2.3223 0.9561
-4.6433 9.7156 -2.2762 0.9569
-5.3774 9.0712 -2.2291 0.9578
-8.7444 4.7773 -2.1063 0.9601
-9.0684 3.0199 -2.0204 0.9617
-9.1026 1.3098 -1.9439 0.9631
-8.1200 -2.5428 -1.7986 0.9658
-7.7693 -3.2187 -1.7776 0.9662
5.2992 3.8952 -1.5457 0.9733
2.7704 5.1873 -1.3821 0.9761
2.3067 5.4367 -1.3880 0.9760
1.8376 5.6979 -1.4071 0.9757
0.6684 2.9515 -0.7112 0.9876
0.8392 6.2526 -1.4827 0.9744
-0.8293 6.1325 -1.4544 0.9749
-2.2060 9.6967 -2.3372 0.9600
-3.0125 9.3093 -2.2996 0.9606
-5.6450 7.1241 -2.1362 0.9633
-7.0650 6.2235 -2.2128 0.9621
-7.9783 3.8967 -2.0868 0.9642
-8.2309 0.8027 -1.9436 0.9666
-8.1407 0.0646 -1.9133 0.9671
-7.9954 -0.6518 -1.8853 0.9676
-7.5523 -2.0082 -1.8366 0.9684
-7.2605 -2.6435 -1.8160 0.9687
-6.9258 -3.2474 -1.7978 0.9691
-6.1385 -4.3546 -1.7688 0.9695
-3.5971 -6.4701 -1.7398 0.9700
-1.1220 -7.4090 -1.7611 0.9697
-0.4599 -7.5285 -1.7727 0.9695
0.2148 -7.5990 -1.7867 0.9692
1.5920 -7.5877 -1.8221 0.9686
2.2888 -7.5028 -1.8435 0.9683
2.9868 -7.3630 -1.8674 0.9679
3.6826 -7.1670 -1.8938 0.9674
5.7157 -6.2286 -1.9868 0.9659
6.3599 -5.7959 -2.0223 0.9653
7.5579 -4.7435 -2.0971 0.9640
7.5300 -3.8364 -1.9862 0.9659
2.3142 -0.9295 -0.5861 0.9898
9.4781 0.6119 -2.2322 0.9617
8.5947 2.1308 -2.0811 0.9643
6.8421 3.0685 -1.7624 0.9697
6.1435 3.4433 -1.6552 0.9715
5.5197 3.7773 -1.5719 0.9729
3.9898 4.7098 -1.4507 0.9750
3.4179 4.8534 -1.3951 0.9759
1.8007 3.8752 -1.0043 0.9826
2.0161 5.5975 -1.3983 0.9759
0.7992 3.0480 -0.7406 0.9871
-0.6117 6.0555 -1.4304 0.9753
-1.8885 9.8225 -2.3508 0.9597
-3.4873 9.0311 -2.2753 0.9610
-4.2028 8.5304 -2.2350 0.9617
-2.3476 2.2131 -0.7583 0.9868
-7.3089 5.7505 -2.1857 0.9625
-7.8992 4.1938 -2.1019 0.9639
-8.0868 3.4075 -2.0624 0.9646
-8.2058 2.6242 -2.0248 0.9652
-8.1814 0.3412 -1.9245 0.9669
-6.2986 -4.1561 -1.7735 0.9695
-5.8641 -4.6701 -1.7618 0.9697
-5.3960 -5.1473 -1.7526 0.9698
-4.3684 -5.9860 -1.7416 0.9700
-3.8134 -6.3452 -1.7399 0.9700
-3.2337 -6.6625 -1.7405 0.9700
-2.0091 -7.1669 -1.7493 0.9699
-1.3684 -7.3514 -1.7574 0.9697
-0.7118 -7.4890 -1.7680 0.9696
-0.0415 -7.5782 -1.7811 0.9693
0.6398 -7.6176 -1.7966 0.9691
1.3297 -7.6058 -1.8147 0.9688
2.0251 -7.5412 -1.8352 0.9684
2.7231 -7.4224 -1.8581 0.9680
3.4202 -7.2478 -1.8835 0.9676
4.1126 -7.0161 -1.9113 0.9671
4.7963 -6.7259 -1.9415 0.9666
7.3475 -4.9646 -2.0841 0.9642
7.3465 -4.0607 -1.9728 0.9661
7.8264 -3.4544 -2.0106 0.9655
9.4273 0.2897 -2.2167 0.9620
7.1310 2.9132 -1.8104 0.9688
6.3974 3.3071 -1.6926 0.9708
5.7481 3.6551 -1.6009 0.9724
5.1605 3.9694 -1.5301 0.9736
4.1796 4.6090 -1.4623 0.9748
2.6572 5.2474 -1.3824 0.9761
1.7212 5.7641 -1.4138 0.9756
0.1478 6.6134 -1.5547 0.9732
-0.4646 6.9321 -1.6329 0.9719
-1.1476 7.2867 -1.7337 0.9701
-2.4075 9.6093 -2.3282 0.9601
-3.2014 9.2033 -2.2901 0.9608
-4.6164 8.1892 -2.2094 0.9621
-5.2279 7.5992 -2.1678 0.9628
-5.7712 6.9660 -2.1260 0.9635
-2.2660 2.2853 -0.7564 0.9869
-7.1642 6.0388 -2.2021 0.9622
-7.5240 5.2709 -2.1590 0.9630
-8.0241 3.7047 -2.0771 0.9643
-8.2466 2.1407 -2.0024 0.9656
-8.2142 0.6207 -1.9360 0.9667
-8.1102 -0.1124 -1.9063 0.9672
-7.4852 -2.1661 -1.8314 0.9685
-6.8379 -3.3899 -1.7937 0.9691
-6.0324 -4.4801 -1.7660 0.9696
-4.0262 -6.2143 -1.7402 0.9700
-3.4556 -6.5476 -1.7400 0.9700
-2.8617 -6.8383 -1.7422 0.9700
-0.2963 -7.5502 -1.7758 0.9694
1.0681 -7.6164 -1.8075 0.9689
4.5392 -6.8425 -1.9298 0.9668
7.6836 -4.5921 -2.1038 0.9639
7.6483 -3.6890 -1.9957 0.9657
8.1050 -3.0519 -2.0354 0.9650
8.8622 -1.6271 -2.1176 0.9637
9.1488 -0.8468 -2.1594 0.9630
9.3652 -0.0283 -2.2010 0.9622
9.5047 0.8219 -2.2422 0.9616
8.3480 2.2638 -2.0328 0.9651
6.6633 3.1644 -1.7337 0.9701
5.9852 3.5282 -1.6329 0.9719
4.3725 4.5064 -1.4757 0.9745
3.8688 4.7741 -1.4442 0.9751
1.7130 3.9071 -1.0026 0.9826
0.7203 3.0131 -0.7281 0.9874
-0.2260 6.8080 -1.6009 0.9724
-4.3681 8.3991 -2.2250 0.9618
-5.0047 7.8278 -2.1836 0.9625
-5.5740 7.2098 -2.1418 0.9632
-6.0741 6.5541 -2.1001 0.9639
-7.0087 6.3243 -2.2187 0.9620
-7.3967 5.5630 -2.1752 0.9627
-7.7104 4.7865 -2.1329 0.9634
-8.1220 3.2158 -2.0530 0.9647
-8.2627 1.6616 -1.9808 0.9660
-8.2387 0.9030 -1.9479 0.9665
-8.1560 0.1623 -1.9172 0.9670
-8.0179 -0.5572 -1.8889 0.9675
-7.3021 -2.5602 -1.8186 0.9687
-6.9730 -3.1685 -1.8001 0.9690
-6.6033 -3.7439 -1.7840 0.9693
-6.1958 -4.2849 -1.7704 0.9695
-5.7528 -4.7900 -1.7594 0.9697
-5.2769 -5.2580 -1.7508 0.9699
-4.2353 -6.0775 -1.7410 0.9700
-2.4814 -6.9972 -1.7448 0.9700
-1.8543 -7.2162 -1.7511 0.9698
-0.5493 -7.5153 -1.7710 0.9695
1.4990 -7.5950 -1.8194 0.9687
4.9614 -6.6462 -1.9492 0.9665
6.8973 -5.3719 -2.0547 0.9647
7.4878 -4.8251 -2.0935 0.9641
7.4641 -3.9158 -1.9810 0.9660
9.0484 -1.1465 -2.1436 0.9632
9.4614 0.4974 -2.2267 0.9618
9.5500 1.3633 -2.2672 0.9611
6.9427 3.0144 -1.7789 0.9694
6.2322 3.3958 -1.6680 0.9713
5.5997 3.7346 -1.5819 0.9727
3.4821 4.8212 -1.3977 0.9759
2.5441 5.3079 -1.3834 0.9761
0.9032 3.2841 -0.8005 0.9861
0.5544 3.0620 -0.7313 0.9873
0.5756 6.3903 -1.5079 0.9740
0.0037 6.6884 -1.5719 0.9729
-0.5395 6.0655 -1.4312 0.9753
-1.3277 7.3801 -1.7623 0.9697
-3.3870 9.0932 -2.2805 0.9609
-4.1106 8.6010 -2.2404 0.9616
-2.3070 2.2275 -0.7537 0.9869
-7.8688 4.2989 -2.1073 0.9638
-8.1938 2.7287 -2.0297 0.9651
-8.2548 1.1878 -1.9601 0.9663
-8.1940 0.4399 -1.9285 0.9668
-8.0765 -0.2880 -1.8994 0.9673
-7.9054 -0.9927 -1.8726 0.9678
-7.4154 -2.3221 -1.8262 0.9686
-7.1023 -2.9423 -1.8068 0.9689
4.7409 4.1846 -1.6373 0.9742
4.2984 4.5373 -1.6183 0.9745
3.2570 4.9734 -1.5393 0.9757
1.8441 5.7181 -1.5556 0.9755
0.6651 2.9370 -0.7797 0.9876
0.8382 6.2446 -1.6313 0.9743
-3.3706 7.9226 -2.2292 0.9651
-3.9979 7.4679 -2.1932 0.9656
-4.5698 6.9628 -2.1564 0.9662
-5.0830 6.4149 -2.1191 0.9667
-6.3856 5.6251 -2.2034 0.9654
-6.7407 4.9446 -2.1645 0.9660
-7.5084 2.1248 -2.0204 0.9683
-7.5467 1.4240 -1.9885 0.9688
-7.1589 -1.2334 -1.8809 0.9704
-6.6781 -2.4314 -1.8401 0.9711
-6.3754 -2.9893 -1.8231 0.9713
-6.0345 -3.5173 -1.8085 0.9716
-5.6578 -4.0136 -1.7961 0.9717
-4.8069 -4.9055 -1.7783 0.9720
-4.3370 -5.2983 -1.7728 0.9721
-3.8406 -5.6540 -1.7697 0.9722
-3.3197 -5.9712 -1.7689 0.9722
-2.2131 -6.4854 -1.7743 0.9721
-1.0345 -6.8312 -1.7889 0.9719
-0.4238 -6.9378 -1.7997 0.9717
0.8280 -7.0121 -1.8282 0.9712
2.1027 -6.8925 -1.8658 0.9707
3.3756 -6.5695 -1.9124 0.9699
4.0027 -6.3290 -1.9389 0.9695
4.6182 -6.0347 -1.9675 0.9691
5.7969 -5.2828 -2.0307 0.9681
6.3502 -4.8250 -2.0649 0.9676
6.8282 -3.4788 -1.9842 0.9688
7.6045 -2.2912 -2.0564 0.9677
8.1758 -0.9368 -2.1307 0.9666
8.4965 0.5485 -2.2045 0.9654
8.5499 1.3250 -2.2402 0.9649
8.5262 2.1138 -2.2744 0.9644
7.6372 2.6356 -2.0918 0.9672
6.1348 3.4384 -1.8209 0.9714
5.5123 3.7722 -1.7294 0.9728
3.4357 4.8787 -1.5450 0.9756
2.9651 5.1277 -1.5337 0.9758
1.7997 3.8730 -1.1058 0.9825
2.0253 5.6229 -1.5474 0.9756
0.8033 3.0637 -0.8201 0.9870
0.5215 3.0906 -0.8115 0.9871
-0.6111 6.0495 -1.5743 0.9752
-1.6837 8.7572 -2.3089 0.9638
-2.4235 8.4525 -2.2767 0.9643
-4.3604 7.1591 -2.1704 0.9660
-4.8961 6.6265 -2.1332 0.9665
-5.3718 6.0558 -2.0959 0.9671
-6.6146 5.2042 -2.1792 0.9658
-6.9276 4.5126 -2.1407 0.9664
-7.4786 2.3916 -2.0329 0.9681
-7.5391 1.6878 -2.0003 0.9686
-7.5417 0.9934 -1.9696 0.9691
-7.4893 0.3124 -1.9408 0.9695
-7.3843 -0.3517 -1.9141 0.9699
-7.2297 -0.9958 -1.8896 0.9703
-7.0280 -1.6171 -1.8672 0.9706
-6.7821 -2.2131 -1.8471 0.9710
-6.4944 -2.7819 -1.8293 0.9712
-4.5179 -5.1542 -1.7746 0.9721
-2.9843 -6.1486 -1.7696 0.9722
-1.8534 -6.6115 -1.7778 0.9720
-1.2619 -6.7792 -1.7854 0.9719
1.2231 -6.9961 -1.8389 0.9711
1.8611 -6.9304 -1.8580 0.9708
3.1364 -6.6465 -1.9029 0.9701
3.7668 -6.4262 -1.9286 0.9697
4.9934 -5.8243 -1.9864 0.9688
5.5808 -5.4416 -2.0182 0.9683
6.1444 -5.0044 -2.0518 0.9678
7.4720 -2.5292 -2.0425 0.9679
8.5445 1.8148 -2.2617 0.9646
6.3881 3.3023 -1.8619 0.9707
5.7402 3.6501 -1.7613 0.9723
4.1744 4.6033 -1.6090 0.9747
3.1422 5.0341 -1.5365 0.9758
2.6743 5.2813 -1.5327 0.9758
2.2047 5.5286 -1.5411 0.9757
1.7260 5.7801 -1.5619 0.9754
0.5952 2.9226 -0.7722 0.9878
0.7076 6.3127 -1.6447 0.9741
0.1476 6.6045 -1.7104 0.9731
-1.1459 7.2758 -1.9071 0.9700
-2.1486 8.5760 -2.2891 0.9641
-2.8622 8.2282 -2.2556 0.9646
-5.1992 6.2755 -2.1100 0.9669
-2.2667 2.2860 -0.8335 0.9868
-6.8171 4.7757 -2.1551 0.9662
-7.0891 4.0760 -2.1173 0.9668
-7.2963 3.3686 -2.0808 0.9673
-7.4402 2.6592 -2.0457 0.9679
-7.5473 1.2544 -1.9809 0.9689
-7.5154 0.5679 -1.9514 0.9693
-7.4300 -0.1029 -1.9239 0.9698
-7.2938 -0.7549 -1.8986 0.9702
-6.8801 -1.9910 -1.8545 0.9708
-5.1430 -4.5848 -1.7839 0.9719
-3.7156 -5.7350 -1.7693 0.9722
-3.1891 -6.0426 -1.7691 0.9722
-0.8866 -6.8614 -1.7913 0.9718
-0.2730 -6.9569 -1.8027 0.9716
0.3510 -7.0062 -1.8163 0.9714
0.9828 -7.0081 -1.8323 0.9712
1.6197 -6.9611 -1.8505 0.9709
3.5295 -6.5157 -1.9187 0.9698
6.4807 -4.7050 -2.0736 0.9675
6.9744 -4.1682 -2.1037 0.9670
6.9324 -3.3436 -1.9928 0.9687
7.9869 -1.4664 -2.1025 0.9670
8.2292 -0.7617 -2.1398 0.9664
8.4075 -0.0254 -2.1769 0.9659
8.5165 0.7365 -2.2133 0.9653
8.5514 1.5167 -2.2487 0.9648
7.4244 2.7446 -2.0495 0.9678
4.8124 4.1465 -1.6447 0.9741
4.3670 4.5008 -1.6237 0.9744
3.8641 4.7682 -1.5891 0.9750
3.3202 4.9399 -1.5411 0.9757
2.8510 5.1880 -1.5327 0.9758
1.7012 3.8801 -1.0969 0.9826
0.7215 3.0183 -0.8035 0.9873
0.9088 6.2077 -1.6244 0.9744
0.3645 6.4916 -1.6834 0.9735
-0.2257 6.7986 -1.7612 0.9723
-2.5977 8.3675 -2.2685 0.9644
-3.2827 7.9792 -2.2340 0.9650
-3.9171 7.5318 -2.1981 0.9655
-4.4966 7.0330 -2.1613 0.9661
-5.0178 6.4904 -2.1241 0.9667
-5.4787 5.9116 -2.0869 0.9672
-7.2255 3.6365 -2.0944 0.9671
-7.4988 2.2192 -2.0248 0.9682
-7.5449 1.5172 -1.9926 0.9687
-7.5339 0.8257 -1.9623 0.9692
-7.1847 -1.1496 -1.8839 0.9704
-6.7156 -2.3546 -1.8426 0.9710
-5.3046 -4.4169 -1.7872 0.9719
-4.8676 -4.8502 -1.7792 0.9720
-3.3908 -5.9310 -1.7689 0.9722
-2.8504 -6.2139 -1.7701 0.9721
-1.7104 -6.6564 -1.7795 0.9720
-1.1152 -6.8135 -1.7876 0.9719
0.1141 -6.9931 -1.8109 0.9715
2.0171 -6.9068 -1.8630 0.9707
3.2910 -6.5977 -1.9090 0.9700
3.9193 -6.3643 -1.9352 0.9696
4.5367 -6.0773 -1.9636 0.9692
5.1387 -5.7359 -1.9940 0.9687
5.7207 -5.3400 -2.0262 0.9682
6.2778 -4.8894 -2.0603 0.9677
7.5584 -2.3762 -2.0514 0.9678
8.1449 -1.0320 -2.1257 0.9666
8.3480 -0.3070 -2.1629 0.9661
8.5340 2.0078 -2.2699 0.9644
6.2232 3.3909 -1.8350 0.9711
5.5920 3.7295 -1.7403 0.9726
4.5634 4.3962 -1.6406 0.9742
4.0517 4.6685 -1.6005 0.9748
3.4993 4.8450 -1.5474 0.9756
2.5601 5.3415 -1.5337 0.9758
0.5404 2.9849 -0.7854 0.9875
0.5749 6.3820 -1.6591 0.9739
-1.3257 7.3689 -1.9386 0.9695
-3.0294 8.1333 -2.2472 0.9648
-3.6835 7.7074 -2.2118 0.9653
-4.2842 7.2271 -2.1753 0.9659
-5.3117 6.1341 -2.1009 0.9670
-2.3055 2.2260 -0.8298 0.9868
-6.8896 4.6059 -2.1458 0.9663
-7.1456 3.9039 -2.1082 0.9669
-7.4660 2.4863 -2.0375 0.9680
-7.5344 1.7815 -2.0046 0.9685
-7.5446 1.0856 -1.9736 0.9690
-7.4013 -0.2639 -1.9176 0.9699
-7.0577 -1.5353 -1.8701 0.9706
5.8836 3.5637 -1.9473 0.9718
3.7286 4.7151 -1.7017 0.9753
3.2531 4.9673 -1.6809 0.9756
2.7850 5.2147 -1.6736 0.9757
0.2881 6.5224 -1.8483 0.9732
-0.3086 6.8323 -1.9361 0.9720
-0.8268 6.1138 -1.7465 0.9747
-1.7743 7.7991 -2.2643 0.9673
-3.6205 6.7630 -2.1716 0.9686
-4.1450 6.3155 -2.1386 0.9691
-6.1533 4.5137 -2.1604 0.9688
-6.4261 3.8836 -2.1256 0.9693
-6.6397 3.2429 -2.0919 0.9697
-6.7952 2.5970 -2.0594 0.9702
-6.9297 0.6758 -1.9711 0.9715
-6.8707 0.0546 -1.9451 0.9718
-6.1768 -2.2489 -1.8609 0.9730
-5.5887 -3.2575 -1.8313 0.9735
-5.2426 -3.7190 -1.8196 0.9736
-4.8647 -4.1500 -1.8102 0.9738
-3.0794 -5.5390 -1.7941 0.9740
0.1832 -6.4804 -1.8353 0.9734
0.7662 -6.4889 -1.8497 0.9732
1.3537 -6.4519 -1.8663 0.9730
1.9428 -6.3685 -1.8849 0.9727
3.6874 -5.8304 -1.9529 0.9717
4.2495 -5.5529 -1.9795 0.9714
5.8201 -4.4223 -2.0693 0.9701
6.2398 -3.1790 -1.9825 0.9713
2.3145 -0.9296 -0.7061 0.9897
7.2021 -1.4852 -2.0818 0.9699
7.5884 -0.1883 -2.1489 0.9689
7.6908 0.4965 -2.1817 0.9685
7.7273 1.1975 -2.2136 0.9680
7.6945 1.9076 -2.2442 0.9676
6.1259 3.4335 -1.9880 0.9712
5.5047 3.7670 -1.8883 0.9727
4.9379 4.0706 -1.8116 0.9737
3.4315 4.8728 -1.6872 0.9755
-0.0765 6.7118 -1.9002 0.9725
-0.6105 6.0435 -1.7196 0.9751
-1.5172 7.8913 -2.2749 0.9671
-3.9527 6.4897 -2.1511 0.9689
-4.4454 6.0165 -2.1177 0.9694
-4.8852 5.5073 -2.0841 0.9699
-6.3300 4.1233 -2.1386 0.9691
-6.5659 3.4859 -2.1045 0.9696
-6.8633 2.1948 -2.0399 0.9705
-6.9279 1.5509 -2.0098 0.9709
-6.9390 0.9140 -1.9813 0.9713
-6.8988 0.2877 -1.9547 0.9717
-6.6735 -0.9192 -1.9071 0.9724
-6.4933 -1.4940 -1.8862 0.9727
-6.2712 -2.0464 -1.8675 0.9729
-5.7108 -3.0754 -1.8362 0.9734
-5.0111 -3.9908 -1.8135 0.9737
-3.7392 -5.1239 -1.7957 0.9740
-3.2646 -5.4321 -1.7941 0.9740
-2.2522 -5.9367 -1.7975 0.9739
-1.7186 -6.1308 -1.8025 0.9739
-1.1698 -6.2844 -1.8096 0.9738
-0.6079 -6.3964 -1.8189 0.9736
1.1313 -6.4713 -1.8598 0.9731
2.8936 -6.1319 -1.9195 0.9722
3.4715 -5.9224 -1.9434 0.9719
4.0387 -5.6636 -1.9692 0.9715
6.0917 -3.3671 -1.9704 0.9715
2.3128 -1.0208 -0.7157 0.9895
6.8109 -2.3054 -2.0356 0.9705
7.1042 -1.7168 -2.0690 0.9701
7.5333 -0.4416 -2.1363 0.9691
7.6596 0.2354 -2.1694 0.9686
7.7215 0.9311 -2.2017 0.9682
7.6380 2.3506 -2.2623 0.9673
7.1087 2.9041 -2.1739 0.9686
5.7321 3.6450 -1.9230 0.9722
5.1468 3.9588 -1.8382 0.9734
4.6062 4.2478 -1.7738 0.9743
3.6114 4.7773 -1.6954 0.9754
3.1384 5.0280 -1.6779 0.9757
2.6711 5.2748 -1.6738 0.9757
2.2021 5.5219 -1.6829 0.9756
0.1474 6.5955 -1.8676 0.9729
-0.4633 6.9125 -1.9613 0.9716
-1.1441 7.2648 -2.0820 0.9699
-1.9378 7.7346 -2.2573 0.9674
-4.2653 6.2000 -2.1304 0.9692
-2.2674 2.2867 -0.9116 0.9867
-5.8956 4.9695 -2.1828 0.9685
-6.2254 4.3612 -2.1518 0.9689
-6.4837 3.7279 -2.1173 0.9694
-6.6830 3.0855 -2.0838 0.9699
-6.8245 2.4391 -2.0516 0.9703
-6.9098 1.7937 -2.0210 0.9708
-6.8488 -0.0949 -1.9390 0.9719
-6.7303 -0.6966 -1.9155 0.9723
-6.5665 -1.2793 -1.8939 0.9726
-6.3599 -1.8404 -1.8743 0.9729
-5.5073 -3.3729 -1.8282 0.9735
-5.1532 -3.8271 -1.8171 0.9737
-4.7679 -4.2503 -1.8082 0.9738
-2.9583 -5.6053 -1.7943 0.9740
-2.4494 -5.8531 -1.7962 0.9740
-1.9222 -6.0621 -1.8004 0.9739
-1.3789 -6.2312 -1.8067 0.9738
-0.8217 -6.3590 -1.8152 0.9737
0.3250 -6.4866 -1.8386 0.9734
0.9093 -6.4841 -1.8536 0.9731
2.0865 -6.3409 -1.8898 0.9726
2.6732 -6.1984 -1.9109 0.9723
3.2542 -6.0074 -1.9341 0.9720
3.8259 -5.7672 -1.9593 0.9716
6.3787 -3.8122 -2.1037 0.9696
6.9991 -1.9435 -2.0564 0.9703
7.2613 -1.3331 -2.0900 0.9698
7.6193 -0.0230 -2.1570 0.9688
7.7258 1.3703 -2.2212 0.9679
7.6757 2.0815 -2.2514 0.9675
6.6433 3.1550 -2.0820 0.9699
5.9683 3.5182 -1.9613 0.9716
5.3620 3.8436 -1.8676 0.9729
4.8061 4.1410 -1.7960 0.9740
3.8593 4.7623 -1.7353 0.9748
3.3161 4.9339 -1.6829 0.9756
2.8475 5.1817 -1.6738 0.9757
1.6894 3.8531 -1.1910 0.9827
0.7234 3.0260 -0.8808 0.9871
0.9077 6.1997 -1.7738 0.9743
0.3640 6.4829 -1.8382 0.9734
-2.9676 7.2134 -2.2081 0.9681
-3.5466 6.8195 -2.1760 0.9686
-4.0777 6.3779 -2.1430 0.9690
-4.9843 5.3782 -2.0758 0.9700
-5.3560 4.8330 -2.0423 0.9705
-6.1122 4.5969 -2.1651 0.9687
-6.6145 3.3290 -2.0963 0.9697
-6.7777 2.6836 -2.0636 0.9702
-6.9354 1.3947 -2.0027 0.9710
-6.8814 0.1369 -1.9485 0.9718
-6.4428 -1.6310 -1.8815 0.9727
-6.2109 -2.1776 -1.8632 0.9730
-5.9400 -2.6991 -1.8470 0.9732
-5.6325 -3.1935 -1.8330 0.9734
-4.9170 -4.0941 -1.8113 0.9738
-4.5134 -4.4973 -1.8038 0.9739
-3.6255 -5.2024 -1.7951 0.9740
-2.6440 -5.7639 -1.7952 0.9740
-2.1235 -5.9878 -1.7985 0.9739
-1.5860 -6.1721 -1.8040 0.9739
-0.4691 -6.4173 -1.8215 0.9736
0.1056 -6.4759 -1.8335 0.9734
3.6111 -5.8638 -1.9495 0.9718
4.1751 -5.5929 -1.9758 0.9714
4.7233 -5.2723 -2.0039 0.9710
5.2514 -4.9019 -2.0337 0.9706
6.1880 -3.2463 -1.9782 0.9714
6.8869 -2.1651 -2.0437 0.9704
7.5699 -0.2784 -2.1444 0.9690
7.6808 0.4038 -2.1774 0.9685
7.7263 1.1030 -2.2094 0.9681
7.6081 2.5242 -2.2693 0.9672
6.2142 3.3860 -2.0034 0.9710
5.5843 3.7243 -1.9002 0.9725
5.0112 4.0314 -1.8207 0.9736
3.4950 4.8391 -1.6899 0.9755
3.0000 5.0478 -1.6623 0.9759
2.0865 5.5826 -1.6872 0.9755
1.6049 5.8353 -1.7133 0.9752
0.5741 6.3736 -1.8116 0.9737
0.0037 6.6702 -1.8883 0.9727
-2.0992 7.6663 -2.2502 0.9675
-2.7371 7.3485 -2.2199 0.9679
-3.8828 6.5500 -2.1556 0.9688
-4.3825 6.0821 -2.1222 0.9693
-2.3039 2.2244 -0.9066 0.9868
-5.9852 4.8259 -2.1766 0.9685
-6.7228 2.9279 -2.0758 0.9700
-6.8504 2.2813 -2.0440 0.9704
-6.9405 0.9987 -1.9850 0.9713
-6.5199 -1.4183 -1.8889 0.9726
-6.0468 -2.5051 -1.8529 0.9732
5.2778 3.8795 -2.0147 0.9730
4.2875 4.5258 -1.9175 0.9742
3.7239 4.7093 -1.8466 0.9752
2.7816 5.2083 -1.8161 0.9756
1.6463 3.8803 -1.2965 0.9825
1.8396 5.7039 -1.8434 0.9752
0.6853 3.0263 -0.9544 0.9871
-1.6134 7.0921 -2.2371 0.9700
-2.7782 6.5301 -2.1827 0.9707
-4.9569 4.3665 -2.0318 0.9727
-6.2678 2.3954 -2.0638 0.9723
-6.4144 1.2103 -2.0077 0.9731
-6.4132 0.6255 -1.9819 0.9734
-6.2712 -0.5112 -1.9353 0.9740
-6.1346 -1.0569 -1.9147 0.9743
-5.9569 -1.5840 -1.8959 0.9745
-5.7404 -2.0900 -1.8790 0.9748
-4.8798 -3.4617 -1.8402 0.9753
-4.1515 -4.2367 -1.8245 0.9755
-3.7473 -4.5779 -1.8196 0.9755
-3.3192 -4.8863 -1.8169 0.9756
-2.3994 -5.4000 -1.8175 0.9756
-1.9119 -5.6029 -1.8209 0.9755
-1.4090 -5.7683 -1.8264 0.9755
0.7124 -6.0330 -1.8685 0.9749
1.2578 -5.9948 -1.8840 0.9747
1.8039 -5.9131 -1.9015 0.9745
2.3476 -5.7871 -1.9209 0.9742
2.8857 -5.6161 -1.9421 0.9739
3.9315 -5.1374 -1.9898 0.9733
4.9115 -4.4759 -2.0439 0.9726
5.3664 -4.0775 -2.0730 0.9722
5.7790 -3.6270 -2.0986 0.9719
5.7389 -2.9238 -1.9811 0.9734
2.3146 -0.9297 -0.7672 0.9896
6.5975 -1.3605 -2.0719 0.9722
6.9325 -0.1720 -2.1330 0.9714
7.0168 0.4530 -2.1627 0.9710
6.8995 2.3810 -2.2449 0.9699
6.7306 3.0184 -2.2688 0.9696
5.4971 3.7618 -2.0488 0.9725
4.9314 4.0652 -1.9657 0.9736
4.4513 4.3919 -1.9233 0.9742
3.9750 4.6923 -1.8915 0.9746
3.4272 4.8667 -1.8308 0.9754
1.7306 3.7243 -1.2631 0.9830
2.0203 5.6091 -1.8337 0.9754
0.8749 3.3365 -1.0609 0.9857
0.5218 3.0925 -0.9646 0.9870
0.4998 6.4034 -1.9755 0.9735
-0.0764 6.7025 -2.0617 0.9723
-0.6098 6.0373 -1.8664 0.9749
-1.3791 7.1729 -2.2466 0.9699
-1.9901 6.9409 -2.2209 0.9702
-3.1105 6.3133 -2.1647 0.9710
-4.0663 5.5034 -2.1047 0.9718
-4.4747 5.0444 -2.0740 0.9722
-5.1434 4.0467 -2.0130 0.9730
-5.8214 3.7920 -2.1369 0.9713
-6.0460 3.2099 -2.1055 0.9718
-6.3353 2.0260 -2.0458 0.9725
-6.3886 0.2665 -1.9667 0.9736
-6.3118 -0.3006 -1.9436 0.9739
-6.1912 -0.8527 -1.9222 0.9742
-6.0287 -1.3871 -1.9027 0.9744
-5.5871 -2.3932 -1.8695 0.9749
-4.2976 -4.0995 -1.8268 0.9755
-3.0417 -5.0611 -1.8162 0.9756
-2.0981 -5.5306 -1.8194 0.9755
-1.0893 -5.8517 -1.8308 0.9754
-0.5659 -5.9539 -1.8396 0.9753
-0.0330 -6.0158 -1.8503 0.9751
0.5070 -6.0362 -1.8631 0.9750
1.5976 -5.9492 -1.8947 0.9746
2.1426 -5.8400 -1.9133 0.9743
2.6832 -5.6860 -1.9338 0.9740
4.7328 -4.6148 -2.0332 0.9727
6.5111 -1.5734 -2.0603 0.9724
7.0247 1.4920 -2.2088 0.9704
6.9462 2.1377 -2.2354 0.9700
6.8022 2.7789 -2.2601 0.9697
4.6002 4.2423 -1.9247 0.9742
4.1639 4.5917 -1.9065 0.9744
3.6069 4.7714 -1.8397 0.9753
3.1346 5.0218 -1.8208 0.9755
2.6678 5.2684 -1.8164 0.9756
1.7217 5.7657 -1.8508 0.9751
-1.1410 7.2450 -2.2559 0.9698
-1.7626 7.0354 -2.2308 0.9701
-2.9104 6.4472 -2.1757 0.9708
-4.3260 5.2216 -2.0856 0.9720
-2.2681 2.2875 -0.9908 0.9866
-5.0324 4.2419 -2.0244 0.9728
-6.3828 1.6569 -2.0283 0.9728
-5.9075 -1.7095 -1.8916 0.9746
-4.0551 -4.3229 -1.8231 0.9755
-3.6449 -4.6562 -1.8188 0.9756
-3.2112 -4.9565 -1.8165 0.9756
-2.7562 -5.2225 -1.8163 0.9756
-1.7905 -5.6468 -1.8221 0.9755
-1.2841 -5.8028 -1.8280 0.9754
-0.7649 -5.9200 -1.8360 0.9753
-0.2353 -5.9972 -1.8460 0.9752
0.3023 -6.0334 -1.8581 0.9750
0.8453 -6.0276 -1.8721 0.9748
1.9369 -5.8865 -1.9060 0.9744
3.0159 -5.5674 -1.9475 0.9738
3.5423 -5.3398 -1.9709 0.9735
4.5509 -4.7473 -2.0227 0.9729
5.0250 -4.3828 -2.0509 0.9725
6.4180 -1.7821 -2.0487 0.9725
6.6495 -1.2208 -2.0794 0.9721
7.0284 0.6078 -2.1699 0.9709
6.6332 3.1501 -2.2586 0.9697
5.9597 3.5131 -2.1279 0.9715
4.7998 4.1356 -1.9487 0.9738
4.3559 4.4894 -1.9240 0.9742
3.8544 4.7564 -1.8830 0.9747
3.3120 4.9278 -1.8262 0.9755
2.8440 5.1754 -1.8164 0.9756
1.6243 3.7046 -1.2442 0.9832
1.9038 5.6702 -1.8397 0.9753
0.3635 6.4742 -1.9945 0.9732
-1.5309 7.1217 -2.2405 0.9700
-2.1345 6.8755 -2.2143 0.9703
-3.2365 6.2233 -2.1575 0.9711
-3.7261 5.8280 -2.1276 0.9715
-4.1704 5.3943 -2.0972 0.9719
-4.5670 4.9279 -2.0665 0.9723
-4.9142 4.4343 -2.0359 0.9727
-5.6067 4.2167 -2.1578 0.9711
-5.8812 3.6509 -2.1291 0.9714
-6.0927 3.0664 -2.0979 0.9719
-6.3563 1.8810 -2.0389 0.9726
-6.4162 0.7032 -1.9853 0.9733
-6.3740 0.1268 -1.9609 0.9737
-4.2037 -4.1887 -1.8253 0.9755
-3.8028 -4.5341 -1.8202 0.9755
-2.9306 -5.1260 -1.8161 0.9756
-1.9781 -5.5779 -1.8203 0.9755
-0.4366 -5.9728 -1.8420 0.9752
0.6396 -6.0348 -1.8666 0.9749
1.1847 -6.0024 -1.8818 0.9747
1.7309 -5.9266 -1.8990 0.9745
2.2751 -5.8065 -1.9182 0.9742
2.8141 -5.6416 -1.9391 0.9740
3.8632 -5.1751 -1.9864 0.9733
5.3071 -4.1334 -2.0690 0.9722
5.7277 -3.6909 -2.0958 0.9719
5.6922 -2.9863 -1.9771 0.9735
2.2975 -0.9548 -0.7652 0.9896
6.3184 -1.9864 -2.0372 0.9727
6.5677 -1.4364 -2.0678 0.9723
6.7685 -0.8576 -2.0985 0.9719
6.9169 -0.2544 -2.1289 0.9714
6.7570 2.9338 -2.2658 0.9696
6.2050 3.3810 -2.1735 0.9709
5.5765 3.7192 -2.0617 0.9723
5.0045 4.0260 -1.9756 0.9735
3.4907 4.8331 -1.8337 0.9754
2.9963 5.0416 -1.8039 0.9758
1.6028 5.8279 -1.8591 0.9750
0.5351 2.9553 -0.9238 0.9875
0.5734 6.3651 -1.9657 0.9736
-2.4934 6.6943 -2.1972 0.9705
-4.0080 5.5624 -2.1087 0.9717
-4.4228 5.1076 -2.0781 0.9721
-2.3023 2.2229 -0.9843 0.9867
-5.1049 4.1162 -2.0170 0.9729
-6.0191 3.2884 -2.1096 0.9717
-6.1972 2.6990 -2.0790 0.9721
-6.3954 0.3433 -1.9699 0.9736
-5.8559 -1.8338 -1.8874 0.9746
5.2705 3.8742 -2.1743 0.9728
4.1608 4.3921 -2.0111 0.9748
2.7782 5.2018 -1.9603 0.9754
0.6846 3.0232 -1.0304 0.9870
0.8349 6.2202 -2.0862 0.9739
-0.8242 6.0953 -2.0445 0.9744
-1.4776 6.4951 -2.2142 0.9723
-2.0286 6.2689 -2.1902 0.9726
-3.4843 5.3089 -2.1108 0.9736
-3.8916 4.9113 -2.0829 0.9739
-4.2557 4.4833 -2.0548 0.9743
-4.8485 3.5566 -1.9988 0.9750
-5.4695 3.3055 -2.1243 0.9734
-5.9081 1.6719 -2.0410 0.9745
-5.9583 1.1243 -2.0155 0.9748
-5.9627 0.5815 -1.9914 0.9751
-5.9227 0.0470 -1.9688 0.9753
-5.8403 -0.4761 -1.9478 0.9756
-5.7172 -0.9850 -1.9284 0.9758
-5.5553 -1.4772 -1.9108 0.9761
-5.3566 -1.9503 -1.8949 0.9763
-5.1231 -2.4022 -1.8809 0.9764
-4.2340 -3.6120 -1.8500 0.9768
-2.2439 -5.0501 -1.8369 0.9770
-1.7878 -5.2392 -1.8401 0.9769
-1.3172 -5.3928 -1.8453 0.9769
-0.8344 -5.5098 -1.8524 0.9768
0.6650 -5.6317 -1.8850 0.9764
1.6819 -5.5134 -1.9161 0.9760
2.1874 -5.3922 -1.9342 0.9758
3.1769 -5.0232 -1.9757 0.9753
4.5564 -4.1523 -2.0492 0.9743
4.9733 -3.7788 -2.0762 0.9740
2.3160 -0.9302 -0.8296 0.9895
5.8628 -1.7664 -2.0354 0.9745
6.2515 -0.7163 -2.0916 0.9738
6.4442 0.4160 -2.1466 0.9731
6.4595 1.0010 -2.1728 0.9728
6.3169 2.1799 -2.2213 0.9722
6.1567 2.7611 -2.2429 0.9720
5.9371 3.3276 -2.2624 0.9717
5.4894 3.7566 -2.2111 0.9724
4.3001 4.2427 -2.0080 0.9749
3.9020 4.6061 -2.0066 0.9749
3.4229 4.8606 -1.9761 0.9753
2.0178 5.6020 -1.9793 0.9752
-0.6092 6.0311 -2.0150 0.9748
-1.8236 6.3605 -2.1995 0.9725
-3.3195 5.4502 -2.1213 0.9735
-4.1233 4.6483 -2.0654 0.9741
-4.7505 3.7376 -2.0093 0.9748
-5.3811 3.5052 -2.1347 0.9733
-5.5967 2.9714 -2.1063 0.9736
-5.7612 2.4276 -2.0781 0.9740
-5.8769 1.8794 -2.0510 0.9743
-5.9448 1.3309 -2.0250 0.9746
-5.9663 0.7858 -2.0004 0.9750
-5.8764 -0.2799 -1.9555 0.9755
-5.2153 -2.2340 -1.8860 0.9764
-4.9612 -2.6717 -1.8731 0.9765
-4.6756 -3.0851 -1.8620 0.9767
-4.0177 -3.8326 -1.8457 0.9769
