ply
format ascii 1.0
element vertex 1590
property float32 x
property float32 y
property float32 z
property float32 I
end_header
-5.8196 -9.2026 -1.5428 0.9570
-4.9529 -9.6418 -1.5358 0.9572
-4.0865 -10.0790 -1.5410 0.9570
-1.3138 -11.1648 -1.5928 0.9556
0.7078 -11.4823 -1.6300 0.9546
1.7550 -11.5404 -1.6539 0.9539
3.9132 -11.4389 -1.7130 0.9523
5.0198 -11.2719 -1.7483 0.9514
6.1408 -11.0217 -1.7877 0.9503
8.4105 -10.2524 -1.8789 0.9478
9.5493 -9.7233 -1.9310 0.9464
12.8985 -7.4947 -2.1137 0.9415
15.5990 -2.6611 -2.2421 0.9381
9.3362 1.7804 -1.3467 0.9623
7.2622 2.7928 -1.1024 0.9691
6.6374 3.2595 -1.0477 0.9706
6.1185 3.7163 -1.0143 0.9715
5.3265 3.9261 -0.9376 0.9736
4.6803 4.1427 -0.8856 0.9751
4.3100 4.5628 -0.8893 0.9750
3.8014 4.8224 -0.8701 0.9755
2.7800 5.2264 -0.8388 0.9764
2.3079 5.4663 -0.8407 0.9763
1.8837 5.8773 -0.8745 0.9754
0.8222 6.2189 -0.8888 0.9750
-0.3308 6.9964 -0.9924 0.9721
-0.9797 7.1276 -1.0194 0.9714
-6.0941 18.6829 -2.7844 0.9237
-8.7313 16.2127 -2.6091 0.9283
-9.8059 14.8579 -2.5224 0.9306
-10.7197 13.4557 -2.4376 0.9329
-12.5576 9.1566 -2.2021 0.9391
-12.8964 7.7425 -2.1313 0.9410
-13.1138 6.3563 -2.0648 0.9428
-13.2191 5.0057 -2.0028 0.9445
-12.6934 0.0582 -1.7985 0.9500
-11.9679 -2.1052 -1.7218 0.9521
-11.5114 -3.1051 -1.6893 0.9530
-8.4688 -7.2825 -1.5826 0.9559
-7.7317 -7.9541 -1.5717 0.9562
-6.9575 -8.5709 -1.5642 0.9564
-6.0995 -9.0603 -1.5476 0.9568
-4.3649 -9.9387 -1.5380 0.9571
-3.4909 -10.3785 -1.5515 0.9567
-0.6383 -11.3019 -1.6039 0.9553
1.4170 -11.5294 -1.6459 0.9542
3.5622 -11.4756 -1.7025 0.9526
5.7802 -11.1112 -1.7746 0.9507
8.0455 -10.4010 -1.8632 0.9483
9.1847 -9.9038 -1.9138 0.9469
10.3204 -9.3050 -1.9689 0.9454
11.4452 -8.5991 -2.0284 0.9438
12.6443 -6.3538 -2.0050 0.9444
2.3249 -0.9186 -0.3542 0.9900
13.9185 -4.1072 -2.0562 0.9431
15.3472 -3.0726 -2.2177 0.9387
15.3315 -1.6661 -2.1851 0.9396
12.2958 -0.2324 -1.7425 0.9515
11.4011 0.8046 -1.6194 0.9549
9.8076 1.5808 -1.4076 0.9607
6.2907 3.5785 -1.0254 0.9712
5.5176 3.8282 -0.9515 0.9732
3.9620 4.7405 -0.8754 0.9753
3.4067 4.9073 -0.8464 0.9762
2.8922 5.0809 -0.8284 0.9767
2.0426 5.7967 -0.8708 0.9755
1.5302 6.0072 -0.8783 0.9753
0.9904 6.1339 -0.8804 0.9752
0.4538 6.4050 -0.9098 0.9744
-0.1284 6.8944 -0.9770 0.9725
-8.3525 16.6330 -2.6372 0.9276
-2.3410 2.1722 -0.4525 0.9872
-12.8015 8.1930 -2.1535 0.9404
-13.0568 6.7969 -2.0857 0.9423
-13.1970 5.4342 -2.0222 0.9440
-13.1686 2.8331 -1.9085 0.9470
-13.0169 1.6034 -1.8583 0.9484
-12.4768 -0.7012 -1.7706 0.9508
-11.1690 -3.7533 -1.6695 0.9535
-10.0242 -5.5140 -1.6210 0.9548
-8.6969 -7.0558 -1.5868 0.9558
-7.9720 -7.7448 -1.5748 0.9561
-6.3814 -8.9170 -1.5536 0.9567
-5.5074 -9.3610 -1.5389 0.9571
-3.7727 -10.2369 -1.5458 0.9569
-2.8846 -10.6826 -1.5678 0.9563
-0.9583 -11.2409 -1.5985 0.9554
1.0813 -11.5112 -1.6382 0.9544
3.2132 -11.5043 -1.6924 0.9529
5.4210 -11.1918 -1.7620 0.9510
7.6808 -10.5396 -1.8478 0.9487
9.9573 -9.5082 -1.9508 0.9459
11.0865 -8.8372 -2.0088 0.9443
13.2370 -7.1333 -2.1305 0.9411
2.3203 -0.9945 -0.3577 0.9899
14.2247 -4.6442 -2.1202 0.9413
15.0867 -3.4724 -2.1935 0.9394
10.3213 1.3618 -1.4751 0.9588
8.8548 1.9850 -1.2858 0.9640
5.7146 3.7272 -0.9667 0.9728
5.1186 4.0326 -0.9233 0.9740
4.1247 4.6574 -0.8815 0.9752
3.5388 4.7983 -0.8448 0.9762
2.6107 5.3125 -0.8387 0.9764
2.2003 5.7167 -0.8679 0.9756
0.5896 3.0872 -0.4453 0.9874
0.6296 6.3162 -0.8994 0.9747
-6.6151 18.2697 -2.7531 0.9245
-10.1524 14.3586 -2.4916 0.9314
-12.2722 10.0730 -2.2496 0.9379
-12.6939 8.6460 -2.1762 0.9398
-11.8106 -2.4707 -1.7097 0.9524
-10.8021 -4.3762 -1.6514 0.9540
-10.2205 -5.2467 -1.6278 0.9546
-9.5924 -6.0624 -1.6078 0.9552
-8.9208 -6.8235 -1.5913 0.9556
-8.2084 -7.5300 -1.5783 0.9560
-7.4578 -8.1820 -1.5686 0.9563
-6.6655 -8.7722 -1.5610 0.9565
-5.7858 -9.2197 -1.5423 0.9570
-4.9194 -9.6587 -1.5358 0.9572
-4.0527 -10.0960 -1.5414 0.9570
-3.1721 -10.5385 -1.5594 0.9565
-2.2483 -10.9215 -1.5799 0.9560
4.7367 -9.8663 -1.8030 0.9566
5.7118 -9.5951 -1.8396 0.9557
7.6600 -8.8107 -1.9233 0.9538
8.6222 -8.2907 -1.9705 0.9527
10.5749 -5.7461 -1.9827 0.9524
2.3285 -1.0076 -0.4180 0.9898
12.0731 -3.9881 -2.0946 0.9498
13.8446 -0.7066 -2.2837 0.9454
9.0626 1.9986 -1.5288 0.9631
7.9375 2.5113 -1.3715 0.9668
6.2121 3.2746 -1.1569 0.9719
4.5055 4.2240 -1.0174 0.9753
4.1396 4.6417 -1.0246 0.9751
3.0976 5.0571 -0.9770 0.9762
2.6259 5.2970 -0.9740 0.9763
2.2167 5.7004 -1.0076 0.9755
0.5770 2.9655 -0.4977 0.9878
-1.1719 7.0277 -1.1737 0.9715
-3.8488 14.7901 -2.5176 0.9399
-5.0235 14.0258 -2.4543 0.9414
-6.5622 14.1854 -2.5748 0.9386
-7.5882 13.1725 -2.5043 0.9402
-8.4886 12.0941 -2.4341 0.9419
-9.2632 10.9679 -2.3650 0.9435
-10.4452 8.6342 -2.2325 0.9465
-11.4805 3.9755 -2.0015 0.9519
-11.4985 2.8627 -1.9521 0.9531
-11.4331 1.7824 -1.9062 0.9542
-11.0760 -0.2664 -1.8252 0.9561
-10.4536 -2.1490 -1.7581 0.9577
-10.0552 -3.0236 -1.7297 0.9583
-9.6042 -3.8522 -1.7047 0.9589
-7.9724 -6.0544 -1.6492 0.9602
-7.3457 -6.6918 -1.6370 0.9605
-5.9836 -7.8182 -1.6219 0.9609
-5.2525 -8.3058 -1.6189 0.9609
-2.8817 -9.4551 -1.6284 0.9607
-2.0381 -9.7296 -1.6376 0.9605
-1.1706 -9.9472 -1.6500 0.9602
0.6290 -10.2042 -1.6842 0.9594
4.4253 -9.9369 -1.7920 0.9569
6.3754 -9.3656 -1.8664 0.9551
8.3154 -8.4669 -1.9550 0.9530
10.1968 -7.2140 -2.0577 0.9506
11.8447 -4.2924 -2.0755 0.9502
12.5360 -3.3123 -2.1360 0.9488
13.1564 -2.2444 -2.1987 0.9473
10.8437 1.0780 -1.7952 0.9568
9.4449 1.8011 -1.5840 0.9618
7.2585 2.7914 -1.2811 0.9690
6.4348 3.1600 -1.1810 0.9714
5.7757 3.5081 -1.1132 0.9730
5.2533 3.8722 -1.0751 0.9739
4.6745 4.1375 -1.0284 0.9750
3.7970 4.8167 -1.0104 0.9754
2.3052 5.4599 -0.9763 0.9763
0.7000 3.1186 -0.5265 0.9871
0.8208 6.2083 -1.0316 0.9749
-0.3128 6.6161 -1.0911 0.9735
-8.2138 12.4456 -2.4565 0.9413
-9.0286 11.3329 -2.3870 0.9430
-9.7188 10.1834 -2.3190 0.9445
-10.2878 9.0120 -2.2531 0.9461
-10.7402 7.8314 -2.1897 0.9475
-11.3180 5.4859 -2.0720 0.9503
-11.5021 3.2160 -1.9675 0.9527
-11.1521 0.0511 -1.8372 0.9558
-10.1887 -2.7483 -1.7385 0.9581
-9.2697 -4.3886 -1.6896 0.9593
-8.1649 -5.8398 -1.6537 0.9601
-7.5506 -6.4929 -1.6405 0.9604
-6.8985 -7.0969 -1.6305 0.9607
-4.7380 -8.6079 -1.6187 0.9610
-3.9562 -9.0083 -1.6208 0.9609
-0.5682 -10.0618 -1.6602 0.9600
0.3354 -10.1795 -1.6779 0.9596
2.1970 -10.2253 -1.7230 0.9585
3.1501 -10.1480 -1.7505 0.9578
5.0866 -9.7778 -1.8157 0.9563
7.0379 -9.0984 -1.8949 0.9544
8.0071 -8.6340 -1.9399 0.9534
9.9018 -7.4395 -2.0403 0.9510
10.8119 -6.7035 -2.0957 0.9497
10.8439 -5.4491 -1.9993 0.9520
12.9661 -2.5959 -2.1784 0.9478
13.5309 -1.4704 -2.2422 0.9463
9.8561 1.5886 -1.6446 0.9603
7.5706 2.6653 -1.3222 0.9680
5.9728 3.3977 -1.1320 0.9725
4.9097 4.1012 -1.0539 0.9744
2.9278 5.1435 -0.9750 0.9763
2.4566 5.3831 -0.9748 0.9763
2.0279 5.7552 -1.0052 0.9756
0.9892 6.1264 -1.0223 0.9752
-0.6738 6.2157 -1.0300 0.9750
-4.0568 13.7615 -2.3635 0.9435
-6.9451 13.8303 -2.5495 0.9392
-10.9839 7.0297 -2.1483 0.9485
-11.2533 5.8581 -2.0900 0.9499
-11.4970 3.5723 -1.9833 0.9524
-11.4843 2.4707 -1.9352 0.9535
-11.3904 1.4031 -1.8906 0.9545
-10.6794 -1.5648 -1.7781 0.9572
-10.3168 -2.4683 -1.7475 0.9579
-9.8990 -3.3266 -1.7204 0.9585
-9.4302 -4.1384 -1.6965 0.9591
-5.7246 -7.9993 -1.6205 0.9609
-4.2098 -8.8858 -1.6198 0.9609
-1.7291 -9.8144 -1.6417 0.9604
0.0437 -10.1485 -1.6719 0.9597
2.8434 -10.1803 -1.7413 0.9581
12.1004 -3.9506 -2.0970 0.9497
13.3595 -1.8401 -2.2216 0.9468
11.7871 0.4933 -1.9435 0.9533
10.3003 1.3590 -1.7116 0.9588
6.9387 2.9274 -1.2406 0.9699
6.1858 3.2882 -1.1541 0.9720
5.5854 3.6429 -1.0985 0.9733
5.0707 3.9949 -1.0634 0.9742
3.5347 4.7927 -0.9810 0.9761
3.0792 5.0664 -0.9767 0.9763
2.1965 5.7069 -1.0074 0.9755
0.5667 2.9677 -0.4977 0.9878
0.6263 6.2828 -1.0402 0.9747
0.0649 6.4871 -1.0687 0.9740
-0.5333 6.7068 -1.1084 0.9731
-1.1993 7.0415 -1.1767 0.9715
-3.8963 14.7624 -2.5152 0.9400
-5.0670 13.9940 -2.4518 0.9414
-7.6255 13.1318 -2.5016 0.9403
-9.2907 10.9234 -2.3624 0.9435
-10.4635 8.5884 -2.2300 0.9466
-11.3786 5.0710 -2.0522 0.9508
-11.4828 3.9317 -1.9995 0.9520
-11.4975 2.8202 -1.9502 0.9531
-11.4290 1.7412 -1.9045 0.9542
-11.2833 0.6986 -1.8624 0.9552
-10.7832 -1.2659 -1.7886 0.9569
-10.0386 -3.0566 -1.7287 0.9584
-9.5857 -3.8834 -1.7038 0.9589
-9.0842 -4.6634 -1.6822 0.9594
-7.9488 -6.0800 -1.6486 0.9602
-4.4605 -8.7578 -1.6191 0.9609
-3.6686 -9.1392 -1.6224 0.9609
-2.8495 -9.4668 -1.6287 0.9607
1.6676 -9.1879 -1.7552 0.9627
3.3699 -9.0007 -1.8065 0.9616
5.9440 -8.2161 -1.9061 0.9596
9.2153 -6.1315 -2.0805 0.9559
11.0360 -2.5804 -2.1303 0.9549
11.8955 -0.6071 -2.2388 0.9527
11.8087 0.4532 -2.2212 0.9530
8.0061 2.5330 -1.5784 0.9664
7.1221 2.9757 -1.4508 0.9691
6.2985 3.3201 -1.3383 0.9714
5.5950 3.6216 -1.2527 0.9732
4.4494 4.1714 -1.1464 0.9755
4.1346 4.6361 -1.1676 0.9750
3.4864 4.6930 -1.0989 0.9765
3.0292 4.9455 -1.0901 0.9767
2.5694 5.1831 -1.0874 0.9767
0.5723 2.9412 -0.5632 0.9879
0.0862 6.4006 -1.2032 0.9743
-0.5135 6.7541 -1.2732 0.9728
-3.2599 12.5272 -2.4330 0.9487
-4.2714 11.9257 -2.3810 0.9497
-5.1985 11.2377 -2.3273 0.9509
-6.0355 10.4772 -2.2727 0.9520
-7.3047 10.4073 -2.3899 0.9496
-8.0029 9.4757 -2.3313 0.9508
-2.3217 2.2973 -0.6139 0.9868
-9.7923 5.5039 -2.1114 0.9553
-10.1759 2.5335 -1.9711 0.9582
-10.0438 0.6568 -1.8919 0.9599
-9.6458 -1.0985 -1.8248 0.9613
-9.0167 -2.7113 -1.7697 0.9624
-8.6252 -3.4595 -1.7467 0.9629
-8.1871 -4.1670 -1.7267 0.9633
-7.1836 -5.4553 -1.6954 0.9640
-6.0285 -6.5681 -1.6757 0.9644
-5.4004 -7.0562 -1.6702 0.9645
-3.3392 -8.2358 -1.6704 0.9645
-2.5999 -8.5302 -1.6762 0.9644
-1.8377 -8.7730 -1.6848 0.9642
0.5656 -9.1753 -1.7279 0.9633
1.3982 -9.1945 -1.7481 0.9629
5.6707 -8.3304 -1.8941 0.9598
6.5206 -7.9486 -1.9324 0.9590
8.1758 -6.9576 -2.0179 0.9572
8.9681 -6.3447 -2.0649 0.9563
9.6919 -4.5275 -2.0107 0.9574
10.3095 -3.7361 -2.0611 0.9564
10.8701 -2.8721 -2.1133 0.9553
11.3638 -1.9386 -2.1668 0.9542
11.7802 -0.9399 -2.2212 0.9530
11.6493 0.1134 -2.1897 0.9537
9.4271 1.7977 -1.8039 0.9617
7.3941 2.8436 -1.4890 0.9683
6.5473 3.2152 -1.3710 0.9707
5.8097 3.5288 -1.2777 0.9727
4.6162 4.0859 -1.1587 0.9752
3.7924 4.8110 -1.1515 0.9754
3.1758 4.8664 -1.0922 0.9766
2.2534 5.3371 -1.0889 0.9767
1.7801 5.5543 -1.0963 0.9765
0.6843 3.0486 -0.5873 0.9874
0.7970 6.0285 -1.1430 0.9756
-0.3138 6.6355 -1.2486 0.9733
-2.9193 12.6992 -2.4492 0.9483
-4.9111 11.4667 -2.3446 0.9505
-7.0592 10.6961 -2.4088 0.9492
-8.9458 7.8364 -2.2354 0.9527
-9.3735 6.8349 -2.1805 0.9539
-9.7055 5.8268 -2.1278 0.9550
-9.9459 4.8208 -2.0775 0.9560
-10.0990 3.8242 -2.0298 0.9570
-10.1631 1.8839 -1.9428 0.9588
-10.0838 0.9500 -1.9038 0.9596
-9.9366 0.0455 -1.8677 0.9604
-9.4563 -1.6634 -1.8047 0.9617
-9.1317 -2.4632 -1.7777 0.9622
-6.8071 -5.8535 -1.6875 0.9641
-5.6051 -6.9049 -1.6716 0.9645
-4.9557 -7.3614 -1.6680 0.9645
-1.3077 -8.9077 -1.6922 0.9640
0.3017 -9.1566 -1.7220 0.9634
2.8213 -9.0887 -1.7887 0.9620
4.5380 -8.7232 -1.8482 0.9608
7.9161 -7.1372 -2.0034 0.9575
8.7175 -6.5497 -2.0495 0.9566
9.4835 -4.7655 -1.9949 0.9577
10.6972 -3.1567 -2.0964 0.9556
11.2135 -2.2450 -2.1495 0.9545
12.0137 -0.2270 -2.2585 0.9523
11.3501 0.8010 -2.1387 0.9547
8.6487 2.2006 -1.6774 0.9643
7.6773 2.7029 -1.5299 0.9674
4.7867 3.9984 -1.1723 0.9749
3.3222 4.7856 -1.0950 0.9766
2.4028 5.2652 -1.0878 0.9767
0.8088 3.1752 -0.6159 0.9868
-0.1215 6.5222 -1.2261 0.9738
-5.5098 10.9721 -2.3077 0.9513
-6.3134 10.1890 -2.2530 0.9524
-7.5673 10.0776 -2.3688 0.9500
-2.3380 2.1694 -0.5995 0.9871
-9.6093 6.1500 -2.1444 0.9546
-10.0591 4.1421 -2.0447 0.9567
-9.9909 0.3319 -1.8789 0.9601
-9.8001 -0.5508 -1.8449 0.9608
-9.5489 -1.3992 -1.8140 0.9615
-8.8816 -2.9847 -1.7611 0.9626
-8.4730 -3.7184 -1.7392 0.9630
-8.0190 -4.4110 -1.7202 0.9634
-5.8066 -6.7487 -1.6734 0.9644
-5.1671 -7.2202 -1.6688 0.9645
-3.8000 -8.0207 -1.6682 0.9645
-0.7687 -9.0174 -1.7011 0.9638
0.8632 -9.1890 -1.7348 0.9631
2.5480 -9.1226 -1.7803 0.9622
5.1219 -8.5365 -1.8712 0.9603
8.4637 -6.7466 -2.0344 0.9569
9.2450 -6.1051 -2.0824 0.9559
9.2706 -4.9959 -1.9794 0.9580
2.3122 -0.9910 -0.4728 0.9898
10.5179 -3.4340 -2.0796 0.9560
11.7863 0.4933 -2.2173 0.9531
7.0873 2.9901 -1.4458 0.9692
5.5696 3.6326 -1.2499 0.9733
4.4294 4.1817 -1.1450 0.9755
4.1148 4.6463 -1.1666 0.9751
3.4686 4.7031 -1.0984 0.9765
3.0115 4.9550 -1.0899 0.9767
2.5515 5.1920 -1.0874 0.9767
2.0847 5.4164 -1.0909 0.9767
1.6070 5.6298 -1.1004 0.9765
0.5621 2.9432 -0.5632 0.9879
0.0642 6.4135 -1.2055 0.9742
-0.5382 6.7688 -1.2763 0.9727
-1.0601 6.2243 -1.1868 0.9746
-4.3090 11.9005 -2.3789 0.9498
-8.0279 9.4387 -2.3290 0.9508
-9.5036 6.4731 -2.1613 0.9543
-9.8022 5.4648 -2.1094 0.9554
-10.0106 4.4614 -2.0600 0.9564
-10.0385 0.6215 -1.8905 0.9599
-9.6357 -1.1312 -1.8236 0.9613
-9.3458 -1.9550 -1.7947 0.9619
-9.0024 -2.7411 -1.7688 0.9624
-8.6091 -3.4877 -1.7459 0.9629
-8.1692 -4.1936 -1.7260 0.9633
-7.6861 -4.8576 -1.7090 0.9637
-7.1625 -5.4786 -1.6950 0.9640
-6.6012 -6.0557 -1.6838 0.9642
-5.3754 -7.0742 -1.6700 0.9645
-4.0264 -7.9055 -1.6676 0.9645
-3.3109 -8.2482 -1.6706 0.9645
-2.5707 -8.5406 -1.6764 0.9643
-1.8077 -8.7813 -1.6852 0.9642
-1.0239 -8.9688 -1.6967 0.9639
2.2765 -8.2612 -1.8113 0.9656
3.0460 -8.1357 -1.8363 0.9651
3.8165 -7.9495 -1.8640 0.9646
4.5841 -7.7006 -1.8943 0.9640
5.3445 -7.3874 -1.9274 0.9634
6.8239 -6.5615 -2.0011 0.9620
7.5318 -6.0465 -2.0416 0.9613
8.2100 -5.4626 -2.0845 0.9605
8.2143 -4.4635 -1.9761 0.9625
2.3145 -1.0016 -0.5331 0.9897
9.2738 -3.0634 -2.0645 0.9609
10.1062 -1.4277 -2.1575 0.9591
10.4165 -0.5316 -2.2047 0.9583
10.6452 0.4086 -2.2518 0.9574
10.3139 1.3244 -2.1981 0.9584
9.0294 1.9913 -1.9545 0.9629
7.1200 2.9748 -1.6311 0.9689
6.3743 3.3601 -1.5231 0.9710
5.7017 3.6906 -1.4357 0.9726
5.0669 3.9635 -1.3598 0.9740
4.4970 4.2161 -1.3030 0.9751
4.1296 4.6305 -1.3115 0.9750
3.4824 4.6878 -1.2344 0.9764
3.0121 4.9175 -1.2190 0.9767
2.5526 5.1493 -1.2149 0.9768
2.0951 5.3876 -1.2219 0.9766
1.6304 5.6374 -1.2405 0.9763
0.5690 2.9244 -0.6297 0.9879
0.6392 6.1948 -1.3164 0.9749
-0.5223 6.8702 -1.4564 0.9722
-1.0295 6.1741 -1.3231 0.9747
-2.8242 10.8526 -2.3704 0.9552
-4.5300 9.7923 -2.2807 0.9568
-5.2752 9.1573 -2.2339 0.9577
-7.5838 7.5040 -2.2552 0.9573
-8.0437 6.6490 -2.2060 0.9582
-8.7100 4.8956 -2.1120 0.9600
-8.9216 4.0131 -2.0678 0.9608
-9.0564 3.1361 -2.0259 0.9616
-8.1661 -2.4556 -1.8025 0.9657
-7.8212 -3.1370 -1.7813 0.9661
-6.5318 -4.9604 -1.7337 0.9670
-6.0264 -5.4900 -1.7232 0.9672
-3.0403 -7.4986 -1.7104 0.9675
-2.3664 -7.7643 -1.7158 0.9674
-1.6719 -7.9816 -1.7238 0.9672
0.5134 -8.3283 -1.7638 0.9665
1.2678 -8.3368 -1.7825 0.9661
2.7992 -8.1824 -1.8280 0.9653
7.3079 -6.2190 -2.0284 0.9615
8.6322 -5.0158 -2.1103 0.9600
9.1177 -3.3042 -2.0499 0.9611
9.5854 -2.5327 -2.0957 0.9603
10.3256 -0.8238 -2.1896 0.9585
10.5813 0.1030 -2.2368 0.9577
10.7501 1.0686 -2.2835 0.9568
9.4091 1.7943 -2.0247 0.9616
8.3034 2.3678 -1.8251 0.9653
7.3825 2.8391 -1.6719 0.9682
6.6024 3.2423 -1.5548 0.9704
5.9188 3.5951 -1.4638 0.9721
4.6738 4.1369 -1.3194 0.9748
4.2943 4.5462 -1.3219 0.9748
2.6992 5.0745 -1.2150 0.9768
2.2420 5.3103 -1.2184 0.9767
1.7806 5.5558 -1.2332 0.9764
0.8063 6.0986 -1.3003 0.9752
0.2700 6.4101 -1.3562 0.9741
-2.5268 10.9919 -2.3841 0.9549
-3.4339 10.5276 -2.3407 0.9557
-5.0447 9.3673 -2.2489 0.9574
-5.7376 8.6936 -2.2018 0.9583
-7.9057 6.9253 -2.2216 0.9579
-8.6254 5.1784 -2.1266 0.9597
-8.8623 4.2956 -2.0818 0.9605
-9.0678 0.8543 -1.9252 0.9634
-7.9367 -2.9225 -1.7878 0.9660
-7.5612 -3.5798 -1.7684 0.9664
-7.1435 -4.2001 -1.7517 0.9667
-6.6862 -4.7822 -1.7376 0.9670
-5.1030 -6.2864 -1.7115 0.9674
-4.5128 -6.7033 -1.7081 0.9675
-3.8948 -7.0761 -1.7074 0.9675
-3.2515 -7.4035 -1.7092 0.9675
-2.5847 -7.6844 -1.7137 0.9674
-1.8966 -7.9173 -1.7209 0.9673
-0.4650 -8.2337 -1.7432 0.9668
1.0250 -8.3402 -1.7762 0.9662
1.7856 -8.3104 -1.7967 0.9658
4.0928 -7.8674 -1.8746 0.9644
6.3578 -6.8555 -1.9764 0.9625
7.0812 -6.3845 -2.0154 0.9618
8.4185 -4.2303 -1.9915 0.9622
2.3252 -0.9188 -0.5285 0.9898
9.4419 -2.7862 -2.0809 0.9606
9.8682 -1.9757 -2.1273 0.9597
10.7058 0.7555 -2.2686 0.9571
9.8173 1.5824 -2.1020 0.9602
8.6334 2.1967 -1.8831 0.9642
7.6649 2.6985 -1.7177 0.9673
6.1291 3.4866 -1.4905 0.9716
5.4648 3.7915 -1.4059 0.9732
4.8558 4.0562 -1.3374 0.9745
2.8463 5.0003 -1.2162 0.9768
2.3885 5.2339 -1.2161 0.9768
-1.4682 7.3439 -1.5831 0.9698
-4.0133 10.1652 -2.3101 0.9563
-5.5241 8.9152 -2.2169 0.9580
-8.7950 4.5784 -2.0959 0.9603
-9.0868 2.8235 -2.0114 0.9618
-9.0917 1.1199 -1.9363 0.9632
-8.9961 0.2989 -1.9026 0.9639
-8.8402 -0.4968 -1.8716 0.9644
-8.6278 -1.2642 -1.8432 0.9650
-8.0475 -2.7044 -1.7946 0.9659
-7.6863 -3.3731 -1.7743 0.9663
-7.2818 -4.0054 -1.7567 0.9666
-6.8369 -4.5999 -1.7418 0.9669
-5.8365 -5.6702 -1.7201 0.9673
-4.7050 -6.5745 -1.7089 0.9675
-4.0957 -6.9615 -1.7073 0.9675
-3.4603 -7.3036 -1.7083 0.9675
-1.4178 -8.0475 -1.7273 0.9671
0.0357 -8.2940 -1.7532 0.9667
1.5410 -8.3262 -1.7899 0.9660
3.8464 -7.9410 -1.8651 0.9646
4.6138 -7.6897 -1.8956 0.9640
5.3738 -7.3739 -1.9287 0.9634
6.1216 -6.9921 -1.9644 0.9627
6.8519 -6.5428 -2.0026 0.9620
7.5587 -6.0252 -2.0433 0.9613
2.3081 -0.9893 -0.5308 0.9898
9.7386 -2.2415 -2.1124 0.9600
10.4270 -0.4959 -2.2065 0.9582
7.9564 2.5476 -1.7659 0.9664
6.3473 3.3740 -1.5195 0.9710
5.6756 3.7017 -1.4323 0.9727
4.4760 4.2256 -1.3011 0.9751
4.1098 4.6406 -1.3103 0.9750
0.5588 2.9262 -0.6297 0.9879
0.0653 6.5311 -1.3806 0.9737
-4.5603 9.7689 -2.2789 0.9569
-5.3026 9.1315 -2.2321 0.9577
-2.3098 2.2697 -0.6845 0.9868
-8.7196 4.8613 -2.1102 0.9600
-8.9282 3.9790 -2.0662 0.9608
-9.1191 2.2368 -1.9847 0.9623
-9.1089 1.3878 -1.9477 0.9630
-8.8965 -0.2448 -1.8812 0.9643
-8.7018 -1.0216 -1.8520 0.9648
-8.4530 -1.7683 -1.8255 0.9653
-7.8069 -3.1627 -1.7805 0.9661
-6.5128 -4.9817 -1.7332 0.9670
-3.6666 -7.1990 -1.7077 0.9675
-2.3398 -7.7736 -1.7160 0.9674
-1.6446 -7.9890 -1.7241 0.9672
1.3809 -7.6085 -1.8174 0.9687
2.0777 -7.5396 -1.8380 0.9684
2.7766 -7.4162 -1.8611 0.9680
3.4743 -7.2368 -1.8867 0.9676
4.8505 -6.7046 -1.9449 0.9666
6.1715 -5.9341 -2.0122 0.9654
7.3955 -4.9207 -2.0877 0.9642
7.3836 -4.0121 -1.9750 0.9661
2.3104 -0.9998 -0.5917 0.9897
8.2984 -2.7412 -2.0540 0.9647
9.2549 -0.4723 -2.1779 0.9626
9.4355 0.3621 -2.2192 0.9619
9.5364 1.2246 -2.2597 0.9613
7.1090 2.9702 -1.8108 0.9688
6.3651 3.3552 -1.6911 0.9709
5.7079 3.6947 -1.5980 0.9724
5.1143 4.0006 -1.5260 0.9737
4.1245 4.6249 -1.4564 0.9749
3.5411 4.7667 -1.3956 0.9759
2.5949 5.2346 -1.3731 0.9763
2.1300 5.4774 -1.3812 0.9761
0.5657 2.9076 -0.6962 0.9879
0.0883 6.5550 -1.5407 0.9734
-1.0274 6.1613 -1.4680 0.9747
-4.6800 8.1241 -2.2035 0.9622
-5.8217 6.8930 -2.1205 0.9636
-6.7740 6.7028 -2.2397 0.9616
-7.2040 5.9550 -2.1967 0.9623
-7.5567 5.1854 -2.1539 0.9630
-8.0429 3.6179 -2.0727 0.9644
-8.1808 2.8328 -2.0347 0.9651
-8.0975 -0.1948 -1.9037 0.9673
-7.9336 -0.9035 -1.8766 0.9677
-7.7188 -1.5868 -1.8520 0.9681
-6.7987 -3.4603 -1.7929 0.9691
-5.9837 -4.5441 -1.7659 0.9696
-5.0314 -5.4816 -1.7487 0.9699
-3.3859 -6.5913 -1.7415 0.9700
-2.1697 -7.1189 -1.7491 0.9699
-1.5324 -7.3153 -1.7566 0.9698
-0.2103 -7.5665 -1.7790 0.9694
1.1587 -7.6193 -1.8113 0.9688
2.5526 -7.4618 -1.8535 0.9681
3.9459 -7.0822 -1.9054 0.9672
4.6328 -6.8057 -1.9349 0.9667
6.6005 -5.6171 -2.0370 0.9650
7.7609 -4.5095 -2.1096 0.9638
7.7150 -3.6040 -2.0013 0.9656
8.5636 -2.2627 -2.0817 0.9643
8.9047 -1.5191 -2.1231 0.9636
9.1811 -0.7325 -2.1646 0.9629
9.3911 1.7908 -2.2469 0.9615
6.5927 3.2375 -1.7262 0.9703
5.2987 3.9056 -1.5470 0.9733
4.2890 4.5406 -1.4680 0.9747
2.7439 5.1586 -1.3732 0.9763
1.8106 5.6493 -1.3942 0.9759
0.2722 6.4626 -1.5202 0.9738
-0.3196 6.7595 -1.5904 0.9726
-2.2248 9.6783 -2.3339 0.9600
-3.0301 9.2896 -2.2965 0.9606
-3.7812 8.8286 -2.2572 0.9613
-4.4721 8.3041 -2.2167 0.9620
-5.0985 7.7252 -2.1754 0.9627
-6.1466 6.4405 -2.0924 0.9641
-8.1440 3.0839 -2.0466 0.9649
-8.2642 1.5319 -1.9754 0.9661
-7.7930 -1.3708 -1.8596 0.9680
-7.5453 -2.0353 -1.8367 0.9684
-6.9152 -3.2739 -1.7982 0.9691
-6.1240 -4.3801 -1.7695 0.9695
-2.3701 -7.0464 -1.7472 0.9699
-1.0896 -7.4222 -1.7631 0.9696
-0.4258 -7.5393 -1.7747 0.9694
0.2506 -7.6072 -1.7888 0.9692
0.9371 -7.6246 -1.8054 0.9689
1.6307 -7.5899 -1.8245 0.9686
3.0276 -7.3583 -1.8700 0.9678
3.7239 -7.1584 -1.8964 0.9674
4.4138 -6.9007 -1.9252 0.9669
5.7566 -6.2074 -1.9897 0.9658
7.5973 -4.7104 -2.1009 0.9639
7.5611 -3.7995 -1.9888 0.9658
9.3286 -0.1763 -2.1928 0.9624
9.4812 0.6691 -2.2339 0.9617
7.6524 2.6941 -1.9067 0.9672
6.8300 3.1147 -1.7642 0.9696
6.1204 3.4817 -1.6549 0.9715
5.4883 3.8079 -1.5699 0.9729
4.9131 4.1041 -1.5046 0.9740
4.4561 4.4549 -1.4809 0.9744
3.9430 4.7178 -1.4451 0.9751
2.4282 5.3207 -1.3745 0.9763
0.4515 6.3726 -1.5015 0.9741
-0.1241 6.6615 -1.5659 0.9730
-4.2576 8.4785 -2.2298 0.9618
-5.9974 6.6556 -2.1056 0.9639
-2.3368 2.1683 -0.7492 0.9870
-7.3393 5.6804 -2.1812 0.9626
-7.9182 4.1219 -2.0980 0.9640
-8.1002 3.3354 -2.0588 0.9646
-8.2621 1.7775 -1.9862 0.9659
-8.2479 1.0160 -1.9531 0.9664
-8.1743 0.2716 -1.9222 0.9670
-8.0447 -0.4521 -1.8937 0.9674
-7.8621 -1.1520 -1.8675 0.9679
-7.6298 -1.8255 -1.8438 0.9683
-7.3506 -2.4702 -1.8225 0.9686
-7.0275 -3.0840 -1.8037 0.9690
-6.6633 -3.6653 -1.7873 0.9692
-5.8222 -4.7236 -1.7621 0.9697
-5.3503 -5.1978 -1.7531 0.9698
-3.7568 -6.3855 -1.7412 0.9700
-2.5684 -6.9692 -1.7456 0.9699
-1.9428 -7.1948 -1.7515 0.9698
0.7162 -7.6247 -1.7999 0.9690
4.8768 -6.6920 -1.9461 0.9665
5.5460 -6.3346 -1.9787 0.9660
6.1963 -5.9168 -2.0136 0.9654
6.8222 -5.4381 -2.0504 0.9648
2.3045 -0.9877 -0.5893 0.9898
8.3143 -2.7145 -2.0556 0.9647
8.6932 -2.0008 -2.0965 0.9640
9.0118 -1.2412 -2.1380 0.9633
9.2633 -0.4406 -2.1795 0.9626
7.9430 2.5433 -1.9602 0.9663
5.6838 3.7071 -1.5948 0.9725
5.0922 4.0119 -1.5236 0.9737
4.5467 4.2923 -1.4695 0.9746
4.1048 4.6350 -1.4551 0.9749
3.0438 5.0083 -1.3774 0.9762
0.5556 2.9091 -0.6961 0.9879
-0.5465 6.8732 -1.6204 0.9721
-3.3065 9.1319 -2.2826 0.9609
-4.0365 8.6470 -2.2428 0.9615
-5.3071 7.5058 -2.1605 0.9629
-2.3185 2.2783 -0.7639 0.9867
-8.0495 3.5874 -2.0712 0.9644
-8.2536 2.0245 -1.9973 0.9657
-8.2590 1.2583 -1.9635 0.9663
-8.2042 0.5080 -1.9319 0.9668
-7.9262 -0.9305 -1.8756 0.9677
-7.4449 -2.2669 -1.8290 0.9685
-7.1356 -2.8908 -1.8094 0.9689
-6.7843 -3.4827 -1.7923 0.9692
-6.3937 -4.0408 -1.7776 0.9694
-5.9665 -4.5637 -1.7654 0.9696
-5.5050 -5.0500 -1.7557 0.9698
-5.0117 -5.4983 -1.7485 0.9699
-3.9385 -6.2761 -1.7414 0.9700
1.2701 -6.9977 -1.8414 0.9710
5.0416 -5.7989 -1.9895 0.9687
6.7216 -4.4723 -2.0904 0.9672
7.5011 -2.4778 -2.0454 0.9679
8.1046 -1.1449 -2.1193 0.9667
8.4635 0.3248 -2.1930 0.9656
8.5380 1.0964 -2.2288 0.9651
8.5363 1.8826 -2.2633 0.9645
7.0979 2.9656 -1.9917 0.9687
6.3558 3.3503 -1.8603 0.9707
5.1075 3.9953 -1.6790 0.9736
4.5613 4.2764 -1.6189 0.9745
4.1194 4.6191 -1.6025 0.9748
3.5586 4.7904 -1.5451 0.9756
1.6639 5.7533 -1.5507 0.9756
0.6466 6.2660 -1.6310 0.9743
0.0882 6.5462 -1.6951 0.9733
-3.5921 7.7651 -2.2152 0.9653
-4.2010 7.2925 -2.1791 0.9658
-5.2460 6.2114 -2.1051 0.9670
-6.5166 5.3867 -2.1891 0.9657
-6.8483 4.6993 -2.1505 0.9663
-7.5478 1.1767 -1.9779 0.9689
-7.4192 -0.1784 -1.9215 0.9698
-7.2777 -0.8288 -1.8965 0.9702
-7.0883 -1.4572 -1.8737 0.9705
-6.8538 -2.0609 -1.8530 0.9709
-6.2597 -3.1860 -1.8186 0.9714
-5.0939 -4.6405 -1.7841 0.9719
-4.6416 -5.0570 -1.7773 0.9720
-3.1246 -6.0826 -1.7705 0.9721
0.4324 -7.0141 -1.8195 0.9714
1.0660 -7.0095 -1.8358 0.9711
2.3440 -6.8519 -1.8750 0.9705
2.9822 -6.6964 -1.8980 0.9702
3.6151 -6.4885 -1.9231 0.9698
4.2389 -6.2271 -1.9504 0.9694
4.8495 -5.9115 -1.9797 0.9689
5.4423 -5.5414 -2.0110 0.9684
6.9909 -3.2658 -1.9978 0.9686
7.7308 -2.0427 -2.0703 0.9675
8.2562 -0.6587 -2.1445 0.9664
8.5222 0.8472 -2.2174 0.9652
8.5454 1.6296 -2.2524 0.9647
5.9023 3.5850 -1.7880 0.9719
3.2343 4.9560 -1.5323 0.9758
2.7637 5.1957 -1.5237 0.9760
0.6689 2.9800 -0.7908 0.9875
0.8171 6.1803 -1.6141 0.9746
0.2719 6.4541 -1.6726 0.9737
-1.9851 8.6353 -2.2941 0.9641
-2.7083 8.3029 -2.2612 0.9646
-4.0119 7.4495 -2.1907 0.9656
-4.5826 6.9436 -2.1541 0.9662
-5.0947 6.3950 -2.1170 0.9668
-5.5461 5.8112 -2.0799 0.9674
-2.4562 2.1516 -0.8455 0.9866
-6.7492 4.9213 -2.1627 0.9661
-7.4151 2.8079 -2.0529 0.9678
-7.5481 1.3991 -1.9876 0.9688
-7.5282 0.7092 -1.9578 0.9692
-6.9337 -1.8703 -1.8594 0.9708
-6.6699 -2.4561 -1.8403 0.9711
-6.3654 -3.0136 -1.8235 0.9713
-5.6443 -4.0370 -1.7967 0.9717
-5.2325 -4.4996 -1.7868 0.9719
-4.7896 -4.9274 -1.7792 0.9720
-4.3180 -5.3193 -1.7739 0.9721
-3.8197 -5.6738 -1.7709 0.9721
-3.2969 -5.9897 -1.7703 0.9721
-2.1866 -6.5009 -1.7759 0.9721
-1.0046 -6.8428 -1.7907 0.9718
-0.3923 -6.9472 -1.8016 0.9717
2.1390 -6.8907 -1.8681 0.9706
2.7781 -6.7519 -1.8904 0.9703
4.0403 -6.3167 -1.9414 0.9695
5.2546 -5.6660 -2.0008 0.9686
6.3843 -4.7967 -2.0676 0.9675
6.8556 -3.4450 -1.9865 0.9688
8.1884 -0.8898 -2.1326 0.9665
8.3779 -0.1583 -2.1696 0.9660
8.4988 0.5998 -2.2060 0.9654
8.5463 1.3775 -2.2414 0.9649
7.6398 2.6897 -2.0971 0.9671
6.8196 3.1100 -1.9407 0.9695
5.4809 3.8027 -1.7272 0.9728
4.9067 4.0987 -1.6554 0.9739
4.4505 4.4493 -1.6294 0.9743
3.3866 4.8783 -1.5376 0.9758
2.9140 5.1192 -1.5252 0.9760
1.7750 3.8895 -1.1070 0.9825
0.7766 3.0487 -0.8146 0.9871
0.4905 3.0379 -0.7967 0.9874
-0.6519 6.0140 -1.5663 0.9753
-2.4813 8.4168 -2.2720 0.9644
-4.4060 7.1107 -2.1659 0.9660
-4.9371 6.5749 -2.1289 0.9666
-6.6434 5.1418 -2.1751 0.9659
-6.9512 4.4488 -2.1368 0.9665
-7.3714 3.0353 -2.0641 0.9676
-7.4835 0.2486 -1.9387 0.9695
-7.3741 -0.4144 -1.9123 0.9699
-6.7590 -2.2714 -1.8462 0.9710
-6.4673 -2.8382 -1.8286 0.9712
-5.3680 -4.3551 -1.7897 0.9718
-4.4721 -5.1977 -1.7754 0.9721
0.6592 -7.0180 -1.8251 0.9713
1.2948 -6.9959 -1.8421 0.9710
2.5736 -6.8020 -1.8830 0.9704
3.2103 -6.6278 -1.9068 0.9700
3.8404 -6.4008 -1.9327 0.9696
5.6499 -5.3951 -2.0227 0.9682
6.7161 -3.6193 -1.9753 0.9690
2.3022 -0.9868 -0.6485 0.9897
7.5149 -2.4535 -2.0468 0.9679
8.1141 -1.1176 -2.1207 0.9667
8.3244 -0.3959 -2.1578 0.9662
8.4678 0.3544 -2.1944 0.9656
7.9296 2.5390 -2.1558 0.9662
5.6760 3.7020 -1.7546 0.9724
5.0856 4.0066 -1.6763 0.9736
4.5409 4.2869 -1.6169 0.9745
3.0647 5.0425 -1.5278 0.9759
2.1246 5.5202 -1.5315 0.9759
1.6450 5.7629 -1.5517 0.9755
0.6256 6.2765 -1.6332 0.9743
-0.5457 6.8636 -1.7827 0.9720
-1.0527 6.1809 -1.6234 0.9744
-2.2497 8.5238 -2.2825 0.9642
-4.2234 7.2732 -2.1776 0.9658
-4.7734 6.7510 -2.1408 0.9664
-7.1229 3.9711 -2.1115 0.9669
-7.3212 3.2628 -2.0753 0.9674
-7.5312 1.8473 -2.0078 0.9685
-7.4147 -0.2041 -1.9205 0.9698
-7.2712 -0.8536 -1.8956 0.9702
-7.0800 -1.4811 -1.8728 0.9706
-6.8438 -2.0838 -1.8523 0.9709
-2.5510 -6.3550 -1.7731 0.9721
-1.9791 -6.5750 -1.7778 0.9720
-1.3900 -6.7523 -1.7849 0.9719
-0.7861 -6.8855 -1.7944 0.9718
1.1747 -6.4721 -1.8621 0.9730
1.7644 -6.4026 -1.8801 0.9728
2.3535 -6.2859 -1.9001 0.9725
2.9387 -6.1211 -1.9222 0.9722
4.0833 -5.6441 -1.9721 0.9715
4.6349 -5.3311 -1.9998 0.9711
5.6750 -4.5559 -2.0602 0.9702
6.1542 -4.0948 -2.0926 0.9697
6.1244 -3.3278 -1.9732 0.9714
2.3021 -0.9962 -0.7101 0.9896
7.1255 -1.6661 -2.0716 0.9700
7.6647 0.2942 -2.1714 0.9686
7.7202 0.9914 -2.2035 0.9682
7.7073 1.6997 -2.2343 0.9677
7.6232 2.4118 -2.2635 0.9673
5.6921 3.6844 -1.9195 0.9722
4.5555 4.2709 -1.7678 0.9744
3.0792 5.0271 -1.6689 0.9758
2.6104 5.2657 -1.6638 0.9759
0.5593 2.8743 -0.8290 0.9879
0.0881 6.5374 -1.8509 0.9732
-2.0039 7.7005 -2.2526 0.9675
-2.6474 7.3917 -2.2227 0.9679
-3.2500 7.0255 -2.1914 0.9683
-5.1696 5.1152 -2.0588 0.9702
-5.5150 4.5588 -2.0256 0.9707
-6.9422 1.0823 -1.9890 0.9712
-6.8396 -0.1645 -1.9368 0.9720
-6.0844 -2.4404 -1.8558 0.9731
-4.7223 -4.3020 -1.8084 0.9738
-3.8594 -5.0427 -1.7977 0.9739
-2.8982 -5.6420 -1.7956 0.9740
-1.3100 -6.2540 -1.8089 0.9738
-0.1795 -6.4567 -1.8286 0.9735
0.9861 -6.4845 -1.8568 0.9731
5.5152 -4.6934 -2.0501 0.9703
6.0041 -4.2478 -2.0821 0.9699
7.0383 -1.8597 -2.0609 0.9702
7.4926 -0.5978 -2.1278 0.9692
7.6580 2.1837 -2.2543 0.9674
5.8939 3.5799 -1.9522 0.9717
5.2845 3.8951 -1.8585 0.9731
4.7260 4.1831 -1.7867 0.9741
3.7741 4.7877 -1.7258 0.9750
3.2304 4.9500 -1.6733 0.9757
1.6248 3.8484 -1.1826 0.9828
1.8166 5.6681 -1.6850 0.9756
0.6710 2.9896 -0.8674 0.9873
0.2715 6.4456 -1.8263 0.9735
-0.3188 6.7409 -1.9104 0.9723
-2.4455 7.4972 -2.2325 0.9677
-3.6336 6.7470 -2.1694 0.9686
-4.1570 6.2987 -2.1365 0.9691
-5.0472 5.2885 -2.0695 0.9701
-2.4442 2.1411 -0.9199 0.9866
-6.4331 3.8622 -2.1241 0.9693
-6.7995 2.5748 -2.0583 0.9702
-6.8970 1.9284 -2.0274 0.9707
-6.9398 1.2864 -1.9981 0.9711
-6.8693 0.0315 -1.9447 0.9718
-6.6061 -1.1620 -1.8988 0.9725
-6.4081 -1.7285 -1.8789 0.9728
-5.5778 -3.2795 -1.8317 0.9735
-5.2299 -3.7406 -1.8203 0.9736
-4.8503 -4.1709 -1.8109 0.9738
-4.0046 -4.9333 -1.7988 0.9739
-3.0581 -5.5559 -1.7954 0.9740
-0.9310 -6.3419 -1.8146 0.9737
-0.3635 -6.4358 -1.8248 0.9736
0.2137 -6.4862 -1.8372 0.9734
1.3864 -6.4525 -1.8684 0.9729
1.9762 -6.3662 -1.8871 0.9727
2.5643 -6.2323 -1.9078 0.9724
3.1473 -6.0500 -1.9306 0.9720
4.8285 -5.2065 -2.0102 0.9709
6.3082 -3.9111 -2.1012 0.9696
6.2642 -3.1478 -1.9846 0.9713
7.2170 -1.4449 -2.0836 0.9699
7.5948 -0.1435 -2.1504 0.9689
7.6923 0.5429 -2.1831 0.9685
7.7236 1.2449 -2.2147 0.9680
7.6854 1.9555 -2.2450 0.9676
5.4734 3.7975 -1.8859 0.9727
2.9105 5.1131 -1.6655 0.9758
1.9699 5.5905 -1.6780 0.9757
0.7913 3.1062 -0.9074 0.9868
0.4503 6.3560 -1.8038 0.9739
-0.1237 6.6434 -1.8810 0.9728
-0.6515 6.0103 -1.7114 0.9752
-2.8689 7.2664 -2.2116 0.9680
-3.9948 6.4471 -2.1471 0.9690
-2.3360 2.1675 -0.9021 0.9868
-6.7563 2.7821 -2.0685 0.9701
-6.9319 1.4913 -2.0073 0.9710
-6.8940 0.2290 -1.9527 0.9717
-6.8005 -0.3822 -1.9282 0.9721
-6.4761 -1.5494 -1.8851 0.9727
-5.3449 -3.5961 -1.8237 0.9736
-4.9752 -4.0364 -1.8137 0.9737
-4.1474 -4.8203 -1.8002 0.9739
-3.2158 -5.4660 -1.7953 0.9740
-2.7165 -5.7339 -1.7962 0.9740
-2.1978 -5.9634 -1.7992 0.9739
0.6101 -6.4952 -1.8468 0.9732
2.3763 -6.2804 -1.9010 0.9725
2.9613 -6.1137 -1.9231 0.9722
3.5388 -5.8980 -1.9472 0.9718
4.1050 -5.6329 -1.9732 0.9714
5.1872 -4.9532 -2.0304 0.9706
6.1722 -4.0759 -2.0939 0.9697
6.1397 -3.3087 -1.9744 0.9714
6.8487 -2.2360 -2.0395 0.9705
7.5501 -0.3591 -2.1398 0.9691
7.6681 0.3209 -2.1727 0.9686
7.7054 1.7273 -2.2355 0.9677
7.6184 2.4394 -2.2646 0.9673
5.6681 3.6968 -1.9157 0.9723
5.0788 4.0013 -1.8304 0.9735
3.0609 5.0364 -1.6684 0.9758
2.5922 5.2750 -1.6639 0.9759
0.5492 2.8755 -0.8287 0.9879
0.0655 6.5487 -1.8540 0.9731
-0.5450 6.8539 -1.9464 0.9718
-1.0504 6.1676 -1.7712 0.9743
-2.0295 7.6897 -2.2514 0.9675
-2.6716 7.3785 -2.2215 0.9679
-3.8273 6.5910 -2.1577 0.9688
-4.3326 6.1276 -2.1245 0.9693
-5.5273 4.5368 -2.0243 0.9707
-6.2659 4.2678 -2.1462 0.9690
-6.5161 3.6328 -2.1120 0.9695
-6.8409 2.3423 -2.0470 0.9704
-6.9186 1.6970 -2.0167 0.9708
-6.9421 1.0576 -1.9879 0.9712
-6.9137 0.4281 -1.9610 0.9716
-6.7102 -0.7878 -1.9127 0.9723
-6.0738 -2.4606 -1.8552 0.9731
-5.7829 -2.9686 -1.8402 0.9733
-5.0971 -3.8988 -1.8167 0.9737
-4.7066 -4.3176 -1.8081 0.9738
-4.2874 -4.7037 -1.8017 0.9739
-3.8416 -5.0557 -1.7975 0.9739
-2.8787 -5.6522 -1.7957 0.9740
-1.8352 -6.0970 -1.8025 0.9739
-1.2886 -6.2595 -1.8092 0.9738
-0.7284 -6.3806 -1.8180 0.9737
2.7247 -5.6754 -1.9364 0.9740
3.2575 -5.4722 -1.9588 0.9737
4.2848 -4.9284 -2.0087 0.9730
5.2344 -4.2022 -2.0646 0.9723
6.2736 -2.0723 -2.0322 0.9727
6.5300 -1.5268 -2.0626 0.9723
6.8951 -0.3519 -2.1235 0.9715
6.9959 0.2685 -2.1534 0.9711
7.0375 0.9037 -2.1824 0.9707
7.0171 1.5475 -2.2102 0.9704
6.7821 2.8336 -2.2608 0.9697
5.6841 3.6792 -2.0826 0.9721
3.0754 5.0209 -1.8110 0.9757
2.6072 5.2593 -1.8055 0.9757
1.6598 5.7391 -1.8376 0.9753
0.0880 6.5286 -2.0082 0.9730
-0.5194 6.8317 -2.1073 0.9717
-1.8231 7.0058 -2.2266 0.9702
-2.4115 6.7328 -2.1997 0.9705
-2.9640 6.4073 -2.1714 0.9709
-3.4763 6.0346 -2.1421 0.9713
-5.9903 3.3669 -2.1136 0.9717
-6.1761 2.7782 -2.0830 0.9721
-6.3089 2.1846 -2.0535 0.9724
-6.3898 1.5909 -2.0254 0.9728
-6.3381 -0.1524 -1.9500 0.9738
-6.2290 -0.7094 -1.9283 0.9741
-5.8855 -1.7698 -1.8903 0.9746
-5.3896 -2.7431 -1.8601 0.9750
-4.7584 -3.6136 -1.8378 0.9753
-4.3974 -4.0060 -1.8296 0.9754
-3.5953 -4.6977 -1.8195 0.9755
-3.1583 -4.9943 -1.8175 0.9756
-1.7288 -5.6722 -1.8239 0.9755
-0.6985 -5.9358 -1.8383 0.9753
0.3722 -6.0387 -1.8609 0.9750
2.0095 -5.8741 -1.9095 0.9744
2.5521 -5.7308 -1.9296 0.9741
3.0879 -5.5423 -1.9514 0.9738
3.6133 -5.3080 -1.9750 0.9735
6.1821 -2.2403 -2.0225 0.9729
6.4528 -1.7050 -2.0529 0.9725
6.8508 -0.5466 -2.1139 0.9716
6.9699 0.0678 -2.1439 0.9713
7.0308 0.6989 -2.1732 0.9709
7.0305 1.3407 -2.2014 0.9705
6.9666 1.9866 -2.2282 0.9701
6.5630 3.2229 -2.2489 0.9699
5.8855 3.5748 -2.1180 0.9716
4.2728 4.5235 -1.9139 0.9743
3.7694 4.7818 -1.8728 0.9748
3.2264 4.9439 -1.8158 0.9756
2.7570 5.1831 -1.8057 0.9757
1.5663 3.7097 -1.2386 0.9833
0.8150 6.1644 -1.9125 0.9743
-2.7912 6.5170 -2.1806 0.9708
-3.7996 5.7572 -2.1217 0.9715
-4.2367 5.3180 -2.0913 0.9719
-2.4376 2.1353 -0.9967 0.9865
-5.6515 4.1209 -2.1513 0.9712
-5.9193 3.5538 -2.1236 0.9715
-6.1224 2.9675 -2.0927 0.9719
-6.2721 2.3750 -2.0628 0.9723
-6.2687 -0.5327 -1.9351 0.9740
-6.1305 -1.0784 -1.9145 0.9743
-5.9513 -1.6053 -1.8959 0.9745
-5.7333 -2.1112 -1.8792 0.9748
-5.1894 -3.0512 -1.8516 0.9751
-4.1363 -4.2553 -1.8253 0.9755
-3.7305 -4.5956 -1.8206 0.9755
-3.3007 -4.9030 -1.8179 0.9756
-2.8491 -5.1762 -1.8173 0.9756
-1.3844 -5.7793 -1.8279 0.9754
1.2880 -5.9949 -1.8860 0.9747
2.9172 -5.6076 -1.9442 0.9739
3.9625 -5.1227 -1.9920 0.9733
4.9407 -4.4545 -2.0461 0.9725
5.3942 -4.0528 -2.0752 0.9722
6.3709 -1.8800 -2.0431 0.9726
6.6106 -1.3235 -2.0736 0.9722
6.8010 -0.7391 -2.1041 0.9718
6.9379 -0.1311 -2.1343 0.9714
7.0374 1.1343 -2.1925 0.9706
2.9069 5.1068 -1.8074 0.9757
0.8370 3.2857 -1.0429 0.9859
0.4497 6.3476 -1.9573 0.9737
-0.6511 6.0065 -1.8583 0.9750
-1.4296 7.1506 -2.2429 0.9699
-2.0382 6.9141 -2.2171 0.9703
-3.1529 6.2786 -2.1610 0.9710
-4.1018 5.4625 -2.1011 0.9718
-4.5064 5.0009 -2.0706 0.9722
-2.3355 2.1671 -0.9800 0.9868
-6.2299 2.5653 -2.0723 0.9722
-6.4065 1.3783 -2.0156 0.9729
-6.4195 0.7907 -1.9894 0.9733
-6.3847 0.2121 -1.9649 0.9736
-5.8072 -1.9515 -1.8843 0.9747
-4.2610 -4.1396 -1.8272 0.9754
-3.4409 -4.8081 -1.8186 0.9756
-1.5476 -5.7310 -1.8259 0.9755
-1.0339 -5.8685 -1.8328 0.9754
0.0260 -6.0238 -1.8528 0.9751
2.7456 -5.6683 -1.9372 0.9740
3.2780 -5.4634 -1.9597 0.9737
3.7988 -5.2127 -1.9839 0.9734
5.2519 -4.1864 -2.0658 0.9723
5.6830 -3.7529 -2.0947 0.9719
2.2977 -0.9848 -0.7689 0.9896
6.2844 -2.0518 -2.0334 0.9727
6.9987 0.2929 -2.1545 0.9711
7.0379 0.9286 -2.1835 0.9707
7.0150 1.5726 -2.2112 0.9704
6.7749 2.8582 -2.2617 0.9697
6.3102 3.3543 -2.1981 0.9705
3.5313 4.7881 -1.8299 0.9754
3.0572 5.0302 -1.8105 0.9757
0.5496 2.8779 -0.9012 0.9878
0.0654 6.5398 -2.0116 0.9730
-1.0482 6.1544 -1.9202 0.9742
-1.8465 6.9962 -2.2256 0.9702
-2.4336 6.7212 -2.1986 0.9705
-2.9847 6.3937 -2.1703 0.9709
-3.4953 6.0193 -2.1409 0.9713
-3.9620 5.6035 -2.1108 0.9717
-5.0750 4.1655 -2.0194 0.9729
-6.3919 1.5679 -2.0243 0.9728
-6.4207 0.9782 -1.9976 0.9732
-6.4009 0.3963 -1.9726 0.9735
-5.8773 -1.7896 -1.8897 0.9746
-5.6459 -2.2873 -1.8736 0.9748
-5.0775 -3.2090 -1.8475 0.9752
-4.3828 -4.0206 -1.8294 0.9754
-3.9934 -4.3812 -1.8234 0.9755
-3.5788 -4.7098 -1.8194 0.9755
-2.6820 -5.2658 -1.8176 0.9756
-2.2041 -5.4908 -1.8198 0.9755
-1.7093 -5.6788 -1.8241 0.9755
-1.1999 -5.8287 -1.8304 0.9754
1.0186 -5.6122 -1.8960 0.9762
2.0352 -5.4360 -1.9295 0.9758
2.5374 -5.2852 -1.9488 0.9756
3.0312 -5.0919 -1.9698 0.9753
3.9800 -4.5778 -2.0164 0.9748
4.4277 -4.2574 -2.0418 0.9744
5.2125 -2.8323 -1.9719 0.9753
2.2966 -0.9938 -0.8318 0.9895
6.3418 -0.3236 -2.1108 0.9736
6.4329 1.4187 -2.1897 0.9726
6.2056 2.5928 -2.2356 0.9720
6.0027 3.1642 -2.2556 0.9718
5.6760 3.6740 -2.2475 0.9719
5.0869 3.9792 -2.1468 0.9731
4.5436 4.2598 -2.0703 0.9741
4.0285 4.5171 -2.0119 0.9748
3.5454 4.7726 -1.9763 0.9753
2.6040 5.2528 -1.9488 0.9756
0.0878 6.5196 -2.1673 0.9729
-0.5127 6.7440 -2.2482 0.9719
-1.6703 6.4186 -2.2046 0.9724
-2.7213 5.8825 -2.1545 0.9730
-3.1951 5.5465 -2.1277 0.9734
-3.6298 5.1716 -2.1002 0.9737
-4.3716 4.3256 -2.0443 0.9744
-4.6753 3.8647 -2.0163 0.9748
-5.3032 3.6391 -2.1379 0.9733
-5.5435 3.1158 -2.1138 0.9736
-5.8508 2.0260 -2.0581 0.9742
-5.9318 1.4768 -2.0319 0.9746
-5.9658 0.9301 -2.0070 0.9749
-5.9545 0.3894 -1.9835 0.9752
-5.8024 -0.6608 -1.9412 0.9757
-5.6652 -1.1646 -1.9225 0.9759
-4.4468 -3.3770 -1.8561 0.9767
-4.1106 -3.7448 -1.8484 0.9768
-3.3621 -4.3929 -1.8388 0.9770
-2.9536 -4.6706 -1.8369 0.9770
-2.5252 -4.9157 -1.8370 0.9770
-1.6164 -5.3034 -1.8429 0.9769
-1.1403 -5.4437 -1.8488 0.9768
-0.6528 -5.5470 -1.8566 0.9767
0.3476 -5.6386 -1.8779 0.9765
0.8554 -5.6251 -1.8913 0.9763
2.3773 -5.3381 -1.9424 0.9757
2.8741 -5.1585 -1.9629 0.9754
3.3603 -4.9363 -1.9849 0.9751
5.1260 -3.6265 -2.0872 0.9739
5.4251 -2.5343 -1.9904 0.9751
5.7078 -2.0684 -2.0180 0.9747
5.9509 -1.5724 -2.0460 0.9744
6.3034 -0.5029 -2.1019 0.9737
6.4057 0.0623 -2.1294 0.9734
6.4474 1.2295 -2.1818 0.9727
6.0742 2.9829 -2.2494 0.9719
5.2700 3.8845 -2.1762 0.9728
4.7135 4.1721 -2.0924 0.9738
3.6998 4.6935 -1.9866 0.9751
3.2224 4.9377 -1.9599 0.9755
1.8121 5.6540 -1.9736 0.9753
0.2708 6.4282 -2.1387 0.9732
-0.3179 6.7219 -2.2369 0.9720
-0.8253 6.0040 -2.0145 0.9748
-1.4909 6.4857 -2.2121 0.9723
-4.2646 4.4685 -2.0533 0.9743
-2.4309 2.1295 -1.0742 0.9865
-4.8555 3.5405 -1.9975 0.9750
-5.4760 3.2876 -2.1231 0.9734
-5.6700 2.7483 -2.0945 0.9738
-5.9110 1.6527 -2.0402 0.9745
-5.9599 1.1048 -2.0149 0.9748
-5.9630 0.5618 -1.9909 0.9751
-5.9217 0.0271 -1.9684 0.9753
-5.7134 -1.0050 -1.9283 0.9758
-4.8472 -2.8500 -1.8691 0.9766
-4.2213 -3.6300 -1.8506 0.9768
-3.8672 -3.9784 -1.8443 0.9769
-3.0868 -4.5852 -1.8373 0.9770
-1.7661 -5.2507 -1.8415 0.9769
-0.3160 -5.5956 -1.8630 0.9767
0.6924 -5.6338 -1.8868 0.9764
1.7106 -5.5106 -1.9180 0.9760
2.7159 -5.2206 -1.9561 0.9755
3.2058 -5.0121 -1.9777 0.9752
4.1432 -4.4676 -2.0254 0.9746
4.5831 -4.1322 -2.0512 0.9743
2.3334 -0.9220 -0.8340 0.9895
5.8775 -1.7344 -2.0370 0.9745
6.0916 -1.2196 -2.0651 0.9742
6.2598 -0.6803 -2.0930 0.9738
6.4559 1.0406 -2.1737 0.9728
6.4096 1.6309 -2.1985 0.9725
6.3044 2.2195 -2.2217 0.9722
6.1396 2.7999 -2.2430 0.9720
5.9154 3.3651 -2.2622 0.9717
4.8872 4.0824 -2.1168 0.9735
1.9650 5.5767 -1.9654 0.9754
0.4900 3.0346 -1.0218 0.9871
-0.1234 6.6250 -2.2026 0.9725
-0.6506 6.0019 -2.0068 0.9749
-1.3090 6.5473 -2.2194 0.9722
-2.8958 5.7666 -2.1450 0.9732
-3.7758 5.0284 -2.0902 0.9738
-4.1531 4.6089 -2.0623 0.9742
-2.3351 2.1667 -1.0589 0.9867
-4.7732 3.6943 -2.0064 0.9749
-5.3983 3.4550 -2.1305 0.9733
-5.7737 2.3774 -2.0755 0.9740
-5.8853 1.8287 -2.0486 0.9744
-5.9669 0.7350 -1.9984 0.9750
-5.7576 -0.8436 -1.9343 0.9758
-5.6065 -1.3414 -1.9162 0.9760
-5.1939 -2.2794 -1.8854 0.9764
-4.9364 -2.7154 -1.8728 0.9765
-4.6475 -3.1269 -1.8620 0.9767
-4.3292 -3.5123 -1.8531 0.9768
-3.9834 -3.8699 -1.8461 0.9769
-3.6123 -4.1984 -1.8410 0.9769
-3.2178 -4.4964 -1.8379 0.9770
-2.8019 -4.7625 -1.8367 0.9770
-2.3668 -4.9956 -1.8375 0.9770
-1.4468 -5.3580 -1.8448 0.9769
-0.9664 -5.4852 -1.8514 0.9768
-0.4753 -5.5749 -1.8599 0.9767
0.5296 -5.6384 -1.8825 0.9764
1.5477 -5.5414 -1.9125 0.9760
2.5567 -5.2785 -1.9496 0.9756
3.9977 -4.5662 -2.0173 0.9747
4.4446 -4.2442 -2.0428 0.9744
4.8684 -3.8807 -2.0695 0.9741
5.2600 -3.4735 -2.0953 0.9738
5.7999 -1.8936 -2.0281 0.9746
6.4585 0.8521 -2.1654 0.9729
6.4307 1.4416 -2.1907 0.9726
6.3445 2.0315 -2.2144 0.9723
6.1989 2.6152 -2.2364 0.9720
5.0651 3.9905 -2.1434 0.9732
3.5268 4.7821 -1.9751 0.9753
3.0534 5.0240 -1.9542 0.9755
2.5858 5.2620 -1.9489 0.9756
0.5503 2.8814 -0.9751 0.9877
-0.5359 6.7399 -2.2474 0.9719
-1.0460 6.1414 -2.0708 0.9741
-1.6918 6.4101 -2.2037 0.9724
-2.2320 6.1643 -2.1792 0.9727
-2.7403 5.8703 -2.1535 0.9731
-3.2127 5.5326 -2.1267 0.9734
-3.6458 5.1563 -2.0992 0.9737
-4.0370 4.7464 -2.0712 0.9741
-4.6862 3.8464 -2.0152 0.9748
-5.3138 3.6193 -2.1371 0.9733
-5.5514 3.0950 -2.1127 0.9736
-5.7276 2.5526 -2.0844 0.9739
-5.8548 2.0047 -2.0571 0.9743
-5.9662 0.9090 -2.0061 0.9749
-5.8965 -0.1623 -1.9608 0.9754
-5.4823 -1.6693 -1.9050 0.9761
-5.2694 -2.1348 -1.8899 0.9763
-5.0225 -2.5783 -1.8766 0.9765
-4.7434 -2.9978 -1.8652 0.9766
-4.4343 -3.3918 -1.8557 0.9767
-4.0971 -3.7585 -1.8481 0.9768
-3.7339 -4.0964 -1.8425 0.9769
-2.9374 -4.6808 -1.8369 0.9770
-2.5082 -4.9246 -1.8370 0.9770
-1.1216 -5.4484 -1.8491 0.9768
-0.6336 -5.5503 -1.8569 0.9767
0.9538 -5.2553 -1.9101 0.9776
1.4301 -5.1895 -1.9250 0.9774
2.3718 -4.9404 -1.9598 0.9770
2.8314 -4.7564 -1.9795 0.9768
3.2792 -4.5327 -2.0006 0.9765
3.7119 -4.2695 -2.0232 0.9763
4.8777 -3.2454 -2.0951 0.9754
4.8439 -2.6320 -1.9714 0.9769
2.2942 -0.9928 -0.8940 0.9894
5.5775 -1.3041 -2.0484 0.9760
5.7432 -0.8113 -2.0742 0.9757
5.9606 0.7654 -2.1490 0.9748
5.8493 1.8506 -2.1939 0.9743
5.7128 2.3869 -2.2141 0.9740
5.5221 2.9108 -2.2323 0.9738
5.2780 3.4164 -2.2484 0.9736
4.9822 3.8973 -2.2620 0.9735
3.5409 4.7665 -2.1234 0.9751
2.6007 5.2462 -2.0939 0.9754
2.1324 5.4837 -2.1041 0.9753
1.6556 5.7246 -2.1310 0.9750
0.6432 6.2331 -2.2408 0.9737
0.0845 6.2702 -2.2425 0.9737
-1.0149 6.0864 -2.2066 0.9741
-1.5393 5.9153 -2.1858 0.9744
-2.0400 5.6956 -2.1635 0.9746
-2.5124 5.4310 -2.1399 0.9749
-2.9527 5.1256 -2.1153 0.9752
-3.3577 4.7839 -2.0901 0.9755
-4.0519 4.0093 -2.0384 0.9761
-5.5658 0.8677 -2.0144 0.9764
-5.5122 -0.1326 -1.9718 0.9768
-5.4252 -0.6179 -1.9526 0.9771
-5.3003 -1.0896 -1.9351 0.9773
-5.1392 -1.5453 -1.9191 0.9775
-4.9437 -1.9829 -1.9048 0.9776
-4.4570 -2.7952 -1.8814 0.9779
-4.1696 -3.1665 -1.8723 0.9780
-3.8554 -3.5123 -1.8651 0.9781
-2.7713 -4.3823 -1.8542 0.9782
-2.3693 -4.6123 -1.8543 0.9782
-1.9503 -4.8102 -1.8562 0.9782
-1.5163 -4.9750 -1.8599 0.9781
-1.0695 -5.1057 -1.8655 0.9781
-0.6121 -5.2012 -1.8728 0.9780
0.3257 -5.2833 -1.8929 0.9778
1.2776 -5.2149 -1.9200 0.9774
1.7524 -5.1226 -1.9361 0.9773
2.2226 -4.9909 -1.9538 0.9771
3.5752 -4.3581 -2.0158 0.9763
3.9956 -4.0684 -2.0392 0.9761
4.7695 -3.3743 -2.0893 0.9755
4.7472 -2.7584 -1.9634 0.9769
5.0381 -2.3535 -1.9886 0.9767
5.2954 -1.9190 -2.0142 0.9764
5.5154 -1.4573 -2.0400 0.9761
5.6949 -0.9715 -2.0659 0.9758
5.8305 -0.4652 -2.0916 0.9755
5.9193 0.0576 -2.1169 0.9752
5.9587 0.5924 -2.1414 0.9749
5.7625 2.2161 -2.2078 0.9741
5.5890 2.7447 -2.2267 0.9739
4.7072 4.1665 -2.2480 0.9736
3.9526 4.1845 -2.0584 0.9758
1.5860 3.7565 -1.4582 0.9828
1.8098 5.6468 -2.1205 0.9751
0.8129 6.1481 -2.2177 0.9740
-0.2947 6.2324 -2.2312 0.9738
-0.8242 5.9961 -2.1644 0.9746
-2.3643 5.5204 -2.1476 0.9748
-2.4242 2.1236 -1.1525 0.9864
-4.5080 3.2871 -1.9952 0.9766
-5.0828 3.0515 -2.1201 0.9751
-5.2744 2.5565 -2.0960 0.9754
-5.4140 2.0501 -2.0702 0.9757
-5.4573 -0.4637 -1.9586 0.9770
-5.1946 -1.4012 -1.9240 0.9774
-5.0099 -1.8448 -1.9092 0.9776
-4.2647 -3.0502 -1.8750 0.9780
-3.9589 -3.4043 -1.8672 0.9781
-3.2727 -4.0316 -1.8570 0.9782
-2.8962 -4.3021 -1.8546 0.9782
-2.5000 -4.5421 -1.8541 0.9782
-1.2139 -5.0676 -1.8635 0.9781
-0.2962 -5.2456 -1.8789 0.9779
1.1250 -5.2362 -1.9152 0.9775
2.0726 -5.0374 -1.9479 0.9771
2.9938 -4.6806 -1.9869 0.9767
3.8630 -4.1654 -2.0316 0.9762
4.2695 -3.8494 -2.0557 0.9759
2.3351 -0.9227 -0.8979 0.9894
5.4492 -1.6080 -2.0317 0.9762
5.6420 -1.1296 -2.0577 0.9759
5.8961 -0.1114 -2.1089 0.9753
5.9516 0.4200 -2.1336 0.9750
5.9563 0.9600 -2.1575 0.9747
5.9083 1.5033 -2.1802 0.9744
5.8065 2.0442 -2.2014 0.9742
5.6505 2.5768 -2.2209 0.9740
5.1776 3.5923 -2.2535 0.9736
4.8638 4.0628 -2.2663 0.9734
3.6341 4.3482 -2.0265 0.9762
3.3698 4.8541 -2.1131 0.9752
1.7359 3.8039 -1.4952 0.9824
1.9625 5.5696 -2.1118 0.9752
1.4807 5.8127 -2.1450 0.9748
0.4696 2.9084 -1.0535 0.9876
0.4450 6.2820 -2.2521 0.9736
-0.6501 5.9972 -2.1572 0.9747
-1.2057 6.0308 -2.1993 0.9742
-1.7221 5.8418 -2.1780 0.9745
-2.2131 5.6055 -2.1551 0.9747
-3.4940 4.6531 -2.0809 0.9756
-3.8470 4.2691 -2.0551 0.9759
-4.4302 3.4288 -2.0034 0.9765
-5.3742 2.2129 -2.0784 0.9756
-5.4831 1.7037 -2.0533 0.9759
-5.5475 1.1935 -2.0292 0.9762
-5.5684 0.6859 -2.0063 0.9764
-5.5472 0.1843 -1.9848 0.9767
-4.3570 -2.9314 -1.8779 0.9779
-4.0598 -3.2937 -1.8695 0.9780
-3.3889 -3.9387 -1.8581 0.9782
-3.0191 -4.2187 -1.8552 0.9782
-2.6290 -4.4686 -1.8540 0.9782
-1.7960 -4.8733 -1.8573 0.9782
-0.9063 -5.1441 -1.8679 0.9781
-0.4456 -5.2268 -1.8759 0.9780
0.0227 -5.2731 -1.8857 0.9778
1.4485 -5.1862 -1.9256 0.9774
1.9220 -5.0798 -1.9423 0.9772
3.2963 -4.5232 -2.0015 0.9765
4.1416 -3.9548 -2.0479 0.9760
4.8905 -3.2296 -2.0958 0.9754
4.8553 -2.6165 -1.9724 0.9768
2.2930 -0.9828 -0.8921 0.9895
5.3789 -1.7561 -2.0235 0.9762
5.8679 -0.2791 -2.1008 0.9754
5.9392 0.2486 -2.1258 0.9751
5.8450 1.8716 -2.1948 0.9743
5.7064 2.4075 -2.2148 0.9740
3.5223 4.7760 -2.1222 0.9751
2.5826 5.2554 -2.0940 0.9754
2.1141 5.4930 -2.1048 0.9753
1.6368 5.7341 -2.1324 0.9750
0.0627 6.2688 -2.2419 0.9737
-0.4931 6.2020 -2.2249 0.9739
-1.5592 5.9077 -2.1850 0.9744
-2.0588 5.6861 -2.1626 0.9746
-2.5301 5.4199 -2.1390 0.9749
-3.3726 4.7699 -2.0891 0.9755
-4.5900 3.1264 -1.9860 0.9767
-5.1609 2.8773 -2.1130 0.9752
-5.4531 1.8671 -2.0612 0.9758
-5.5096 -0.1516 -1.9710 0.9769
-5.4211 -0.6364 -1.9519 0.9771
-4.7062 -2.4159 -1.8918 0.9778
-4.4464 -2.8101 -1.8810 0.9779
-3.5027 -3.8429 -1.8594 0.9782
-2.3533 -4.6206 -1.8543 0.9782
-1.4992 -4.9807 -1.8601 0.9781
0.8959 -4.9364 -1.9226 0.9787
1.3426 -4.8723 -1.9367 0.9786
1.7864 -4.7713 -1.9524 0.9784
3.4741 -3.9960 -2.0292 0.9776
3.8588 -3.7104 -2.0515 0.9773
4.2219 -3.3893 -2.0748 0.9771
4.5528 -3.0293 -2.0956 0.9768
2.2918 -0.9917 -0.9570 0.9894
5.0014 -1.6521 -2.0185 0.9777
5.5106 0.2115 -2.1133 0.9767
5.5275 0.7098 -2.1356 0.9764
5.4964 1.2122 -2.1569 0.9762
4.6027 3.6004 -2.2394 0.9753
3.4783 4.6822 -2.2352 0.9753
0.5986 5.8010 -2.2349 0.9753
-0.4364 5.7399 -2.2060 0.9756
-0.9393 5.6333 -2.1886 0.9758
-2.3264 2.3020 -1.2542 0.9861
-2.5869 2.1384 -1.2862 0.9857
-4.2720 2.9315 -1.9855 0.9781
-4.8028 2.6995 -2.1113 0.9767
-4.9729 2.2369 -2.0896 0.9769
-5.0938 1.7639 -2.0658 0.9772
-5.0890 -0.5796 -1.9628 0.9783
-4.9746 -1.0226 -1.9462 0.9785
-4.8259 -1.4511 -1.9312 0.9786
-4.6444 -1.8628 -1.9176 0.9788
-4.4319 -2.2557 -1.9057 0.9789
-3.3082 -3.6043 -1.8749 0.9793
-2.6077 -4.1237 -1.8697 0.9793
-2.2294 -4.3400 -1.8698 0.9793
-1.0060 -4.8026 -1.8804 0.9792
-0.5756 -4.8913 -1.8874 0.9791
-0.1375 -4.9458 -1.8961 0.9790
0.7526 -4.9492 -1.9184 0.9788
1.1997 -4.8968 -1.9320 0.9786
2.9390 -4.3175 -2.0015 0.9779
3.3469 -4.0799 -2.0223 0.9776
4.1081 -3.4960 -2.0672 0.9772
4.4531 -3.1504 -2.0904 0.9769
4.4301 -2.5741 -1.9635 0.9783
4.9332 -1.7877 -2.0108 0.9778
5.2960 -0.9035 -2.0588 0.9772
5.4174 -0.4322 -2.0826 0.9770
5.4952 0.0535 -2.1060 0.9767
4.3377 3.8394 -2.2199 0.9755
3.5565 4.5117 -2.2015 0.9757
1.7973 5.6078 -2.2567 0.9751
0.6735 3.0007 -1.1785 0.9869
0.2445 5.8036 -2.2260 0.9754
-0.2725 5.7636 -2.2112 0.9756
-1.2720 5.5333 -2.1758 0.9760
-3.0023 4.5491 -2.0887 0.9769
-3.3577 4.2147 -2.0650 0.9772
-3.6772 3.8530 -2.0410 0.9774
-4.2024 3.0642 -1.9931 0.9780
-4.9251 2.3872 -2.0974 0.9768
-5.0596 1.9159 -2.0733 0.9771
-5.1520 1.4405 -2.0501 0.9773
-5.1848 0.0238 -1.9869 0.9780
-5.0151 -0.8822 -1.9514 0.9784
-4.8772 -1.3156 -1.9358 0.9786
-4.7060 -1.7329 -1.9218 0.9787
-4.5033 -2.1320 -1.9094 0.9789
-3.7237 -3.2021 -1.8820 0.9792
-3.4127 -3.5109 -1.8763 0.9792
-2.3525 -4.2740 -1.8696 0.9793
-1.9630 -4.4698 -1.8708 0.9793
-1.5588 -4.6345 -1.8738 0.9793
-0.7144 -4.8666 -1.8850 0.9792
-0.2785 -4.9321 -1.8931 0.9791
0.6094 -4.9583 -1.9144 0.9788
1.0566 -4.9176 -1.9275 0.9787
1.5025 -4.8402 -1.9422 0.9785
2.8052 -4.3858 -1.9951 0.9779
3.2179 -4.1600 -2.0155 0.9777
3.6146 -3.8976 -2.0371 0.9775
3.9919 -3.5991 -2.0597 0.9772
4.3464 -3.2656 -2.0834 0.9770
4.6152 -2.3192 -1.9794 0.9781
2.3388 -0.9241 -0.9637 0.9893
5.2483 -1.0508 -2.0512 0.9773
5.4752 -0.1035 -2.0986 0.9768
5.5220 0.8900 -2.1434 0.9763
5.4733 1.3927 -2.1643 0.9761
5.0301 2.8614 -2.2177 0.9755
4.4926 3.7528 -2.2433 0.9752
3.3654 4.8479 -2.2616 0.9750
2.8960 5.0876 -2.2434 0.9752
1.7237 3.7771 -1.5911 0.9824
1.9587 5.5588 -2.2586 0.9751
0.4674 2.8948 -1.1237 0.9875
-0.6187 5.7073 -2.1999 0.9757
-1.5955 5.4121 -2.1623 0.9761
-2.0519 5.1972 -2.1413 0.9763
-2.4816 4.9418 -2.1192 0.9766
-3.2476 4.3250 -2.0727 0.9771
-4.1287 3.1955 -2.0007 0.9779
-4.3452 2.7810 -1.9770 0.9781
-5.0212 2.0676 -2.0809 0.9770
-5.1270 1.5931 -2.0574 0.9773
-5.1911 1.1168 -2.0348 0.9775
-5.2145 0.6423 -2.0134 0.9777
-5.1436 -0.2891 -1.9742 0.9782
-4.7643 -1.6011 -1.9261 0.9787
