ply
format ascii 1.0
element vertex 1582
property float32 x
property float32 y
property float32 z
property float32 I
end_header
10.4751 0.8802 -0.2960 0.9588
7.3778 2.7117 -0.2213 0.9690
6.8405 3.2345 -0.2131 0.9702
6.0033 3.5267 -0.1961 0.9725
4.7962 4.1231 -0.1781 0.9750
4.4442 4.5717 -0.1795 0.9748
3.8585 4.7540 -0.1724 0.9758
3.3636 4.9984 -0.1696 0.9762
2.5372 5.7836 -0.1778 0.9750
2.0406 6.0773 -0.1805 0.9747
0.9518 6.5172 -0.1855 0.9740
-0.2455 7.2371 -0.2039 0.9714
2.3070 -0.9328 -0.0701 0.9901
18.4226 -3.8365 -0.5299 0.9275
14.9202 -1.7364 -0.4230 0.9417
11.1193 0.7023 -0.3137 0.9564
7.5620 2.6025 -0.2252 0.9685
5.5497 3.7955 -0.1893 0.9735
4.9696 4.0959 -0.1813 0.9746
4.5620 4.5020 -0.1805 0.9747
3.9695 4.6883 -0.1730 0.9757
1.6005 6.1337 -0.1785 0.9750
-0.7763 7.5385 -0.2134 0.9701
14.9775 -2.0590 -0.4257 0.9413
11.9012 -0.5616 -0.3355 0.9534
5.6835 3.7162 -0.1912 0.9732
5.1243 4.0477 -0.1839 0.9742
4.6810 4.4314 -0.1815 0.9745
3.6270 4.9345 -0.1724 0.9758
-0.6104 7.4405 -0.2102 0.9706
-2.1242 2.4809 -0.0920 0.9870
17.3834 -9.8433 -0.5625 0.9232
15.4204 -2.4471 -0.4396 0.9394
12.7877 -0.8698 -0.3609 0.9500
10.0673 1.1222 -0.2852 0.9603
7.9571 2.3740 -0.2338 0.9673
7.1460 2.8492 -0.2166 0.9697
6.6309 3.3588 -0.2093 0.9707
4.8015 4.3601 -0.1826 0.9744
3.2651 5.1487 -0.1717 0.9759
1.3244 6.2969 -0.1812 0.9746
0.7833 6.6168 -0.1876 0.9737
0.2019 7.1132 -0.2004 0.9719
15.9327 -2.9743 -0.8220 0.9371
14.6224 -1.3947 -0.7449 0.9429
11.8454 -0.0667 -0.6007 0.9537
9.2192 1.6139 -0.4747 0.9632
8.2161 2.2100 -0.4315 0.9665
7.3678 2.7080 -0.3981 0.9690
5.4122 3.8689 -0.3374 0.9737
3.3601 4.9931 -0.3052 0.9762
2.5345 5.7774 -0.3200 0.9750
2.0384 6.0708 -0.3248 0.9747
2.3062 -0.9325 -0.1262 0.9901
18.3628 -3.8241 -0.9512 0.9276
11.7952 -0.3114 -0.5984 0.9538
11.0985 0.7009 -0.5640 0.9564
9.4820 1.4577 -0.4865 0.9623
8.6752 2.1413 -0.4532 0.9648
7.5515 2.5989 -0.4050 0.9685
5.5432 3.7911 -0.3406 0.9735
3.5136 4.9942 -0.3097 0.9758
3.0441 5.2721 -0.3087 0.9759
2.6478 5.7104 -0.3192 0.9751
2.1549 6.0019 -0.3234 0.9748
1.5987 6.1269 -0.3211 0.9750
0.5322 6.9606 -0.3540 0.9724
-0.7753 7.5286 -0.3838 0.9701
2.3048 -0.9881 -0.1272 0.9900
14.9369 -2.0534 -0.7646 0.9414
11.3426 0.4802 -0.5757 0.9555
7.7482 2.4879 -0.4127 0.9679
6.4676 3.4466 -0.3717 0.9711
5.0326 3.9752 -0.3252 0.9746
4.1721 4.7252 -0.3197 0.9751
3.6232 4.9293 -0.3102 0.9758
3.1528 5.2077 -0.3087 0.9759
1.7158 6.0578 -0.3193 0.9751
1.2007 6.3621 -0.3283 0.9744
-0.6096 7.4309 -0.3781 0.9706
12.3440 -0.8396 -0.6274 0.9517
7.9457 2.3706 -0.4205 0.9673
7.1364 2.8454 -0.3896 0.9697
6.6226 3.3546 -0.3765 0.9707
5.8131 3.6310 -0.3476 0.9729
4.7962 4.3553 -0.3286 0.9744
3.2617 5.1433 -0.3089 0.9759
2.3685 5.8243 -0.3189 0.9751
1.8315 5.9893 -0.3176 0.9752
1.3229 6.2899 -0.3260 0.9746
0.7824 6.6092 -0.3375 0.9737
0.2016 7.1046 -0.3604 0.9719
-0.4487 7.3360 -0.3727 0.9710
15.6781 -2.8228 -0.8079 0.9382
14.4355 -1.2835 -0.7350 0.9436
15.8840 -2.9652 -1.1848 0.9372
14.5863 -1.3912 -1.0744 0.9429
8.2040 2.2067 -0.6229 0.9665
6.8231 3.2263 -0.5534 0.9702
4.7855 4.1139 -0.4627 0.9750
4.4346 4.5618 -0.4665 0.9748
3.3565 4.9878 -0.4408 0.9762
2.5318 5.7713 -0.4621 0.9750
2.0362 6.0642 -0.4690 0.9747
1.4786 6.1901 -0.4666 0.9748
0.3912 7.0352 -0.5166 0.9721
-7.2622 -16.0982 -1.2949 0.9316
-5.8347 -16.7972 -1.3038 0.9312
-2.8164 -17.9781 -1.3343 0.9296
0.4438 -18.8549 -1.3829 0.9271
2.1753 -19.1700 -1.4146 0.9255
11.0777 0.6996 -0.8139 0.9565
9.4663 1.4552 -0.7022 0.9623
5.5368 3.7867 -0.4918 0.9735
3.9610 4.6783 -0.4495 0.9757
3.5098 4.9889 -0.4473 0.9758
2.1526 5.9954 -0.4671 0.9748
1.5969 6.1202 -0.4638 0.9750
1.0755 6.4281 -0.4779 0.9742
0.5316 6.9524 -0.5113 0.9724
-0.0963 7.3227 -0.5370 0.9711
-0.7742 7.5188 -0.5542 0.9701
-2.1877 2.4502 -0.2408 0.9869
-19.1948 -4.5271 -1.4460 0.9239
-18.2432 -6.0675 -1.4097 0.9258
-17.2407 -7.5045 -1.3787 0.9274
-13.9543 -11.2597 -1.3147 0.9306
-10.2702 -14.2807 -1.2898 0.9319
-7.5862 -15.9259 -1.2934 0.9317
-6.1706 -16.6414 -1.3014 0.9313
-3.1784 -17.8562 -1.3298 0.9298
0.0520 -18.7696 -1.3762 0.9275
3.5553 -19.3514 -1.4426 0.9241
2.3014 -0.9866 -0.1836 0.9900
19.3727 -4.4559 -1.4575 0.9234
11.3420 0.4802 -0.8324 0.9555
7.7372 2.4844 -0.5958 0.9679
5.6701 3.7075 -0.4967 0.9732
5.0269 3.9707 -0.4697 0.9746
4.6708 4.4217 -0.4716 0.9745
4.1676 4.7201 -0.4617 0.9751
3.6193 4.9240 -0.4481 0.9758
3.1495 5.2022 -0.4459 0.9759
2.2681 5.9272 -0.4653 0.9749
1.1994 6.3549 -0.4742 0.9744
-0.6088 7.4213 -0.5460 0.9706
-2.1234 2.4800 -0.2394 0.9870
-18.4687 -5.7195 -1.4176 0.9254
-13.0490 -12.0989 -1.3048 0.9311
-11.8314 -13.1227 -1.2955 0.9316
-9.2621 -14.9463 -1.2893 0.9319
-3.5373 -17.7303 -1.3256 0.9301
-0.3362 -18.6799 -1.3699 0.9278
1.3627 -19.0345 -1.3992 0.9263
3.1334 -19.3023 -1.4338 0.9246
15.3663 -2.4385 -1.1408 0.9395
11.4934 0.2477 -0.8429 0.9549
9.1354 1.8564 -0.6835 0.9633
7.9343 2.3672 -0.6071 0.9673
5.8062 3.6267 -0.5019 0.9729
5.2383 3.9639 -0.4817 0.9740
3.2582 5.1379 -0.4461 0.9759
2.7896 5.4152 -0.4466 0.9759
2.3659 5.8181 -0.4605 0.9751
0.7815 6.6016 -0.4874 0.9737
-2.0983 2.5563 -0.2425 0.9868
-17.7121 -6.8499 -1.3924 0.9267
-15.6087 -9.5257 -1.3408 0.9293
-13.3253 -11.8502 -1.3075 0.9310
-10.8663 -13.8576 -1.2912 0.9318
-9.5696 -14.7496 -1.2892 0.9319
-6.8340 -16.3181 -1.2972 0.9315
-5.3906 -16.9953 -1.3073 0.9310
-0.7207 -18.5858 -1.3638 0.9281
15.6310 -2.8144 -1.1645 0.9383
14.4003 -1.2804 -1.0600 0.9437
14.5503 -1.3878 -1.4032 0.9430
11.6672 -0.0657 -1.1201 0.9542
10.4181 0.8754 -1.0037 0.9589
9.1893 1.6086 -0.8956 0.9632
8.1919 2.2034 -0.8144 0.9665
7.3478 2.7007 -0.7516 0.9690
5.9816 3.5140 -0.6660 0.9725
5.3997 3.8599 -0.6372 0.9737
4.7802 4.1094 -0.6052 0.9750
4.4298 4.5569 -0.6101 0.9748
3.8462 4.7388 -0.5859 0.9758
0.7761 3.2489 -0.3207 0.9867
0.9485 6.4949 -0.6302 0.9740
0.3908 7.0269 -0.6757 0.9721
-16.3512 -2.6877 -1.5909 0.9356
-14.9473 -5.3184 -1.5231 0.9382
-11.5701 -8.0906 -1.3554 0.9448
-10.6935 -9.0014 -1.3419 0.9454
-9.7741 -9.8479 -1.3321 0.9458
-7.8114 -11.3517 -1.3229 0.9461
-4.5640 -13.1392 -1.3354 0.9456
-2.1949 -14.0104 -1.3615 0.9446
-0.9471 -14.3444 -1.3801 0.9439
0.3438 -14.6068 -1.4027 0.9430
4.8138 -16.0189 -1.6058 0.9350
6.3934 -15.9429 -1.6491 0.9333
8.0224 -15.7601 -1.6978 0.9314
11.4252 -15.0362 -1.8130 0.9269
13.1950 -14.4731 -1.8803 0.9243
2.3061 -0.9325 -0.2388 0.9901
14.9181 -1.7361 -1.4419 0.9414
9.4505 1.4528 -0.9180 0.9623
8.6490 2.1349 -0.8553 0.9648
7.5306 2.5917 -0.7646 0.9685
6.1245 3.4289 -0.6739 0.9722
4.9529 4.0821 -0.6162 0.9745
3.0376 5.2610 -0.5832 0.9759
2.6421 5.6983 -0.6030 0.9751
2.1502 5.9890 -0.6109 0.9748
0.8372 3.2085 -0.3183 0.9868
1.0743 6.4208 -0.6250 0.9742
-0.0962 7.3136 -0.7022 0.9710
-0.7732 7.5089 -0.7247 0.9701
-2.1852 2.4475 -0.3150 0.9869
-18.3532 4.0213 -1.8038 0.9273
-17.5952 0.6473 -1.6904 0.9317
-17.0844 -0.9010 -1.6425 0.9336
-15.8416 -3.7362 -1.5626 0.9367
-14.3455 -6.2443 -1.5021 0.9391
-13.5144 -7.3831 -1.4784 0.9400
-9.9912 -9.6571 -1.3340 0.9457
-9.0398 -10.4549 -1.3269 0.9460
-8.0475 -11.1900 -1.3233 0.9461
-7.0147 -11.8629 -1.3231 0.9461
-5.9417 -12.4735 -1.3264 0.9460
-2.4783 -13.9230 -1.3577 0.9448
2.7343 -14.8832 -1.4528 0.9410
4.4542 -16.0221 -1.5965 0.9354
9.3065 -15.5415 -1.7391 0.9298
12.7804 -14.6167 -1.8640 0.9249
2.2980 -0.9852 -0.2400 0.9900
19.3237 -4.4447 -1.9036 0.9234
11.8211 -0.5578 -1.1362 0.9536
9.7251 1.2890 -0.9418 0.9613
7.7263 2.4809 -0.7791 0.9679
5.6635 3.7032 -0.6496 0.9732
3.6155 4.9188 -0.5861 0.9758
2.7353 5.5920 -0.5976 0.9753
2.2656 5.9208 -0.6086 0.9748
0.9125 3.2219 -0.3215 0.9866
0.6496 6.6711 -0.6435 0.9734
0.0550 7.2246 -0.6936 0.9714
-0.6080 7.4117 -0.7139 0.9706
-2.1231 2.4796 -0.3134 0.9870
-17.7020 1.0196 -1.7023 0.9312
-17.2101 -0.5497 -1.6531 0.9331
-13.7119 -7.1254 -1.4835 0.9398
-12.8415 -8.2076 -1.4632 0.9406
-10.2061 -9.4629 -1.3362 0.9456
-8.2814 -11.0250 -1.3238 0.9461
-5.0903 -12.8997 -1.3314 0.9458
-2.7595 -13.8319 -1.3541 0.9449
-1.5316 -14.1981 -1.3710 0.9442
-0.2608 -14.4942 -1.3917 0.9434
1.0536 -14.7166 -1.4165 0.9424
2.4125 -14.8612 -1.4454 0.9413
10.6188 -15.2500 -1.7840 0.9280
12.3682 -14.7524 -1.8482 0.9256
11.2658 0.2428 -1.0818 0.9557
9.1211 1.8534 -0.8936 0.9633
7.9229 2.3638 -0.7938 0.9673
5.2323 3.9594 -0.6299 0.9740
4.7856 4.3457 -0.6206 0.9744
4.2780 4.6469 -0.6064 0.9749
3.7253 4.8537 -0.5874 0.9757
2.7867 5.4095 -0.5842 0.9758
1.3200 6.2759 -0.6157 0.9746
-2.1006 2.5590 -0.3178 0.9868
-18.1878 3.0801 -1.7710 0.9286
-17.3314 -0.1935 -1.6640 0.9327
-16.7789 -1.6942 -1.6191 0.9345
-15.4639 -4.4393 -1.5446 0.9374
-13.9067 -6.8637 -1.4889 0.9396
-13.0479 -7.9629 -1.4675 0.9404
-10.4186 -9.2653 -1.3386 0.9455
-7.4991 -11.5583 -1.3227 0.9461
-5.3501 -12.7748 -1.3297 0.9459
-4.2149 -13.2884 -1.3384 0.9455
-3.0385 -13.7372 -1.3507 0.9450
-1.8203 -14.1192 -1.3667 0.9444
-0.5596 -14.4319 -1.3866 0.9436
0.7446 -14.6717 -1.4104 0.9427
2.0931 -14.8349 -1.4383 0.9416
3.7431 -16.0130 -1.5788 0.9361
5.2884 -16.0066 -1.6184 0.9345
15.6089 -2.8104 -1.5226 0.9383
8.4258 -12.8305 -1.8233 0.9400
9.8171 -12.3777 -1.8766 0.9383
11.2217 -11.8067 -1.9349 0.9365
12.6324 -11.1093 -1.9983 0.9345
14.0406 -10.2775 -2.0669 0.9323
15.5923 -7.5887 -2.0599 0.9325
16.8230 -6.3992 -2.1380 0.9301
11.8800 -0.0669 -1.4112 0.9533
10.1344 0.8516 -1.2081 0.9599
8.1797 2.2002 -1.0062 0.9665
5.9743 3.5097 -0.8231 0.9725
4.7749 4.1047 -0.7480 0.9750
3.8421 4.7337 -0.7242 0.9757
3.3494 4.9773 -0.7126 0.9761
2.9259 5.3196 -0.7212 0.9758
2.5264 5.7590 -0.7470 0.9750
2.0318 6.0511 -0.7582 0.9746
0.7729 3.2356 -0.3952 0.9867
0.9474 6.4875 -0.7788 0.9739
0.3903 7.0185 -0.8350 0.9721
-0.2456 7.2394 -0.8604 0.9712
-0.9423 7.5989 -0.9096 0.9696
-13.4131 14.4090 -2.3384 0.9238
-14.1071 12.6683 -2.2522 0.9265
-15.2460 7.6169 -2.0245 0.9337
-15.0126 1.5893 -1.7933 0.9410
-13.8732 -2.2804 -1.6701 0.9449
-13.3499 -3.4427 -1.6377 0.9460
-12.1211 -5.5781 -1.5850 0.9477
-11.4240 -6.5526 -1.5644 0.9483
-9.9453 -6.9544 -1.4415 0.9523
-9.2046 -7.7482 -1.4292 0.9527
-8.4219 -8.4854 -1.4201 0.9530
-7.5988 -9.1663 -1.4143 0.9532
-5.8379 -10.3577 -1.4123 0.9532
-4.9024 -10.8671 -1.4161 0.9531
-1.8854 -12.0353 -1.4471 0.9521
-0.8120 -12.2985 -1.4641 0.9516
2.7920 -13.6018 -1.6494 0.9456
4.0784 -13.5718 -1.6834 0.9445
6.7379 -13.2368 -1.7643 0.9419
8.1054 -12.9194 -1.8117 0.9404
9.4928 -12.4931 -1.8638 0.9388
10.8948 -11.9502 -1.9209 0.9369
15.0969 -9.5318 -2.1208 0.9306
15.3005 -7.8436 -2.0424 0.9331
17.7309 -5.3836 -2.2011 0.9281
11.7934 -0.3113 -1.4014 0.9536
8.4121 2.0764 -1.0292 0.9657
6.9697 3.1202 -0.9071 0.9697
6.1170 3.4247 -0.8327 0.9722
5.5239 3.7779 -0.7949 0.9734
4.9473 4.0775 -0.7615 0.9745
4.5421 4.4823 -0.7580 0.9746
3.9525 4.6683 -0.7266 0.9757
3.5024 4.9783 -0.7230 0.9758
2.6393 5.6922 -0.7453 0.9750
2.1479 5.9825 -0.7551 0.9747
0.5303 6.9360 -0.8263 0.9724
-13.9612 13.0710 -2.2718 0.9259
-14.5269 11.3447 -2.1894 0.9284
-15.2034 7.9942 -2.0404 0.9331
-15.3389 6.3882 -1.9737 0.9353
-15.3549 4.8368 -1.9123 0.9372
-15.0703 1.9126 -1.8045 0.9406
-14.7884 0.5441 -1.7578 0.9421
-14.4243 -0.7607 -1.7158 0.9435
-13.9852 -2.0015 -1.6782 0.9447
-12.9055 -4.2922 -1.6156 0.9467
-12.2753 -5.3432 -1.5903 0.9475
-10.1109 -6.7621 -1.4449 0.9522
-8.6072 -8.3194 -1.4219 0.9529
-7.7933 -9.0133 -1.4154 0.9531
-6.9405 -9.6507 -1.4120 0.9532
-6.0499 -10.2312 -1.4119 0.9532
-5.1227 -10.7541 -1.4150 0.9532
-4.1598 -11.2183 -1.4212 0.9529
-3.1619 -11.6225 -1.4308 0.9526
5.0866 -13.4882 -1.7123 0.9436
9.1693 -12.6021 -1.8513 0.9392
10.5685 -12.0870 -1.9072 0.9374
11.9773 -11.4492 -1.9682 0.9354
13.3879 -10.6808 -2.0344 0.9333
14.7904 -9.7736 -2.1058 0.9311
18.5967 -4.2775 -2.2667 0.9260
7.7154 2.4774 -0.9626 0.9679
5.6568 3.6988 -0.8028 0.9731
4.1586 4.7099 -0.7463 0.9750
3.1428 5.1912 -0.7208 0.9759
2.2632 5.9144 -0.7522 0.9748
0.6489 6.6633 -0.7953 0.9734
0.0549 7.2157 -0.8572 0.9714
-13.8063 13.4746 -2.2916 0.9252
-14.4100 11.7431 -2.2081 0.9279
-15.1536 8.3741 -2.0566 0.9326
-15.3185 6.7562 -1.9887 0.9348
-15.3613 5.1917 -1.9261 0.9368
-15.2928 3.6851 -1.8686 0.9386
-15.1232 2.2392 -1.8160 0.9403
-14.8614 0.8560 -1.7683 0.9418
-14.5158 -0.4636 -1.7251 0.9432
-14.0934 -1.7193 -1.6865 0.9444
-13.0436 -4.0394 -1.6220 0.9465
-12.4266 -5.1048 -1.5958 0.9473
-10.3212 -6.5968 -1.4550 0.9519
-9.5538 -7.3868 -1.4345 0.9525
-8.7903 -8.1502 -1.4239 0.9529
-7.9857 -8.8573 -1.4166 0.9531
-7.1418 -9.5079 -1.4125 0.9532
-6.2599 -10.1016 -1.4116 0.9533
-5.3411 -10.6379 -1.4140 0.9532
-4.3864 -11.1159 -1.4195 0.9530
-3.3966 -11.5342 -1.4283 0.9527
-2.3723 -11.8911 -1.4403 0.9523
-0.2234 -12.4120 -1.4746 0.9512
2.2056 -13.5867 -1.6350 0.9461
3.4775 -13.5966 -1.6671 0.9450
6.1112 -13.3490 -1.7439 0.9426
7.4679 -13.0798 -1.7891 0.9411
8.8467 -12.7050 -1.8390 0.9395
13.0609 -10.8712 -2.0186 0.9338
14.4662 -9.9969 -2.0888 0.9316
15.9710 -7.2430 -2.0831 0.9318
13.6719 -4.7795 -1.7204 0.9433
15.1007 -2.3964 -1.8162 0.9403
11.3209 0.2440 -1.3451 0.9554
8.7476 1.7776 -1.0603 0.9647
6.5977 3.3420 -0.8785 0.9706
5.7924 3.6180 -0.8112 0.9729
4.7803 4.3408 -0.7670 0.9743
3.2513 5.1270 -0.7212 0.9758
2.7837 5.4037 -0.7221 0.9758
1.3185 6.2689 -0.7609 0.9745
0.2009 7.0789 -0.8412 0.9719
-2.1028 2.5617 -0.3937 0.9867
-13.6421 13.8790 -2.3117 0.9246
-14.2845 12.1429 -2.2270 0.9273
-14.7651 10.4315 -2.1474 0.9298
-15.2915 7.1271 -2.0040 0.9343
-15.3616 5.5498 -1.9402 0.9363
-14.9300 1.1714 -1.7789 0.9415
-14.1979 -1.4336 -1.6951 0.9441
-10.8770 -6.6380 -1.5136 0.9500
-9.7249 -7.2015 -1.4374 0.9524
-6.4679 -9.9689 -1.4116 0.9533
-0.4795 -12.3652 -1.4699 0.9514
4.4752 -13.5452 -1.6945 0.9442
7.1510 -13.1515 -1.7782 0.9415
8.5250 -12.8018 -1.8270 0.9399
9.9175 -12.3408 -1.8806 0.9382
14.4200 -8.5654 -1.9923 0.9347
18.0790 -4.9569 -2.2268 0.9273
15.6082 -2.8103 -1.8839 0.9381
7.2241 -11.0005 -1.8647 0.9482
10.6845 -9.3963 -2.0160 0.9441
11.8130 -8.6469 -2.0743 0.9426
13.9008 -5.2876 -2.1073 0.9417
15.5644 -2.9055 -2.2434 0.9380
14.4782 -1.3809 -2.0607 0.9429
11.8794 -0.0669 -1.6832 0.9531
7.9426 2.1364 -1.1654 0.9673
7.1696 2.6352 -1.0823 0.9696
6.5867 3.1145 -1.0323 0.9710
5.3872 3.8510 -0.9383 0.9736
3.8379 4.7286 -0.8629 0.9757
3.3458 4.9719 -0.8491 0.9761
2.5237 5.7528 -0.8901 0.9749
0.7794 3.2627 -0.4753 0.9865
-0.9219 7.4341 -1.0614 0.9702
-5.6319 18.0592 -2.6803 0.9264
-7.0132 16.9762 -2.6025 0.9285
-10.2660 13.2233 -2.3720 0.9346
-11.0547 11.8755 -2.2988 0.9366
-11.7024 10.5089 -2.2286 0.9384
-13.0773 3.8228 -1.9305 0.9464
-12.9018 1.3659 -1.8383 0.9489
-12.3984 -0.9123 -1.7615 0.9510
-12.0389 -1.9789 -1.7287 0.9519
-11.1302 -3.9602 -1.6739 0.9534
-9.9971 -5.7342 -1.6330 0.9545
-9.3556 -6.5420 -1.6175 0.9549
-6.0807 -8.8367 -1.5199 0.9576
-5.2549 -9.3233 -1.5164 0.9577
-3.5795 -10.3049 -1.5457 0.9569
-2.7026 -10.8157 -1.5796 0.9560
-1.7728 -11.3164 -1.6230 0.9548
-0.7624 -11.5470 -1.6396 0.9543
0.2756 -11.7102 -1.6597 0.9538
3.5354 -11.7650 -1.7406 0.9516
4.6622 -11.6260 -1.7748 0.9507
5.8037 -11.4015 -1.8127 0.9496
9.2702 -10.1682 -1.9496 0.9459
12.6378 -7.9792 -2.1177 0.9414
12.7418 -6.5319 -2.0288 0.9438
2.3063 -0.9325 -0.3525 0.9900
14.9167 -1.7360 -2.1278 0.9411
11.7928 -0.3113 -1.6715 0.9535
10.7072 0.6762 -1.5201 0.9576
7.3109 2.5161 -1.0955 0.9692
6.7186 3.0078 -1.0430 0.9707
5.5174 3.7734 -0.9471 0.9734
4.9417 4.0729 -0.9073 0.9745
3.9482 4.6632 -0.8657 0.9756
3.4986 4.9730 -0.8615 0.9757
3.0312 5.2498 -0.8589 0.9758
2.6365 5.6861 -0.8881 0.9750
2.1456 5.9760 -0.8997 0.9747
0.8366 3.2061 -0.4695 0.9867
1.0718 6.4062 -0.9203 0.9741
0.5290 6.9188 -0.9832 0.9724
-0.0939 7.1390 -1.0116 0.9716
-0.7590 7.3705 -1.0498 0.9705
-2.7785 14.2875 -2.0623 0.9429
-5.2909 18.2937 -2.6983 0.9260
-7.9741 16.0759 -2.5426 0.9301
-9.0930 14.8334 -2.4652 0.9321
-10.0622 13.5318 -2.3893 0.9341
-2.1804 2.4421 -0.4639 0.9869
-12.5233 8.0900 -2.1125 0.9415
-12.8174 6.7396 -2.0518 0.9432
-12.9983 5.4134 -1.9951 0.9447
-13.0739 4.1183 -1.9422 0.9461
-12.9400 1.6422 -1.8482 0.9487
-12.7445 0.4689 -1.8070 0.9498
-12.4720 -0.6578 -1.7696 0.9508
-12.1282 -1.7358 -1.7360 0.9517
-11.7185 -2.7638 -1.7059 0.9525
-10.1392 -5.5391 -1.6370 0.9544
-6.2733 -8.7230 -1.5224 0.9575
-5.4464 -9.2107 -1.5161 0.9577
-4.6190 -9.6968 -1.5218 0.9575
-3.7781 -10.1890 -1.5397 0.9570
-0.9994 -11.4993 -1.6355 0.9544
1.0903 -11.7881 -1.6774 0.9533
2.1725 -11.8250 -1.7035 0.9526
3.2764 -11.7854 -1.7332 0.9518
4.3993 -11.6657 -1.7665 0.9509
6.6877 -11.1682 -1.8444 0.9488
9.0021 -10.2955 -1.9378 0.9462
10.1540 -9.7063 -1.9903 0.9448
11.2920 -9.0088 -2.0468 0.9433
12.4068 -8.1985 -2.1070 0.9417
12.5149 -6.7473 -2.0145 0.9442
2.2929 -0.9830 -0.3535 0.9900
15.2074 -3.4979 -2.2110 0.9389
14.7754 -2.0312 -2.1132 0.9415
11.7679 -0.5553 -1.6692 0.9535
11.0546 0.4680 -1.5677 0.9563
9.6194 1.2750 -1.3749 0.9616
8.4002 1.8894 -1.2199 0.9658
6.8524 2.8985 -1.0542 0.9704
6.3902 3.4054 -1.0260 0.9712
5.0097 3.9572 -0.9046 0.9745
4.6553 4.4071 -0.9083 0.9744
4.1541 4.7048 -0.8893 0.9750
2.6719 5.4623 -0.8616 0.9757
0.9116 3.2186 -0.4740 0.9866
-0.5994 7.3073 -1.0388 0.9708
-4.9425 18.5212 -2.7161 0.9255
-6.3901 17.4927 -2.6387 0.9275
-7.6930 16.3535 -2.5607 0.9296
-9.8505 13.8381 -2.4067 0.9337
-2.1224 2.4787 -0.4624 0.9869
-12.4381 8.4059 -2.1271 0.9412
-13.0655 3.1484 -1.9042 0.9472
-12.9737 1.9210 -1.8583 0.9484
-11.3622 -3.5187 -1.6853 0.9531
-9.6593 -6.1737 -1.6243 0.9547
-8.1845 -7.5885 -1.5814 0.9559
-6.4664 -8.6087 -1.5256 0.9574
-5.6379 -9.0979 -1.5165 0.9577
-4.8118 -9.5837 -1.5195 0.9576
-3.1144 -10.5761 -1.5621 0.9564
-1.2349 -11.4481 -1.6315 0.9545
-0.2095 -11.6430 -1.6500 0.9540
4.1372 -11.7009 -1.7585 0.9511
7.5756 -10.8796 -1.8784 0.9479
9.8876 -9.8525 -1.9778 0.9452
11.0297 -9.1805 -2.0333 0.9437
13.2560 -6.0117 -2.0624 0.9429
15.0218 -3.7852 -2.1950 0.9393
11.4246 0.2462 -1.6191 0.9549
9.9506 1.1092 -1.4186 0.9604
7.6825 2.2920 -1.1359 0.9681
6.9884 2.7864 -1.0660 0.9701
5.7854 3.6137 -0.9665 0.9728
5.2203 3.9503 -0.9276 0.9739
4.7750 4.3360 -0.9139 0.9743
3.2478 5.1215 -0.8593 0.9758
-0.4431 7.2445 -1.0284 0.9711
-1.1405 7.5181 -1.0774 0.9697
-4.5866 18.7414 -2.7338 0.9250
-7.4038 16.6264 -2.5788 0.9291
-8.5923 15.4188 -2.5010 0.9312
-9.6309 14.1420 -2.4243 0.9332
-2.1098 2.5703 -0.4712 0.9867
-11.2660 11.4616 -2.2772 0.9371
-11.8723 10.0923 -2.2078 0.9390
-12.6954 7.3638 -2.0795 0.9424
-13.0514 4.7152 -1.9662 0.9455
-13.0739 3.4391 -1.9154 0.9468
-12.8452 1.0078 -1.8256 0.9493
-12.2963 -1.2416 -1.7511 0.9513
-11.4736 -3.2937 -1.6913 0.9529
-9.1515 -6.7769 -1.6135 0.9550
-6.6605 -8.4939 -1.5294 0.9573
-5.8295 -8.9850 -1.5175 0.9577
-5.0039 -9.4709 -1.5177 0.9576
-4.1710 -9.9593 -1.5299 0.9573
-3.3171 -10.4580 -1.5545 0.9566
-1.4689 -11.3934 -1.6277 0.9547
0.5961 -11.7461 -1.6664 0.9536
1.6673 -11.8171 -1.6909 0.9529
6.1528 -11.3157 -1.8250 0.9493
7.3070 -10.9728 -1.8679 0.9481
10.7661 -9.3463 -2.0201 0.9440
12.0542 -7.1601 -1.9865 0.9449
13.9656 -5.2100 -2.1120 0.9416
15.4901 -2.7890 -2.2301 0.9384
6.3173 -9.6197 -1.8959 0.9544
7.3070 -9.2129 -1.9371 0.9534
8.2867 -8.7187 -1.9816 0.9524
9.2492 -8.1340 -2.0291 0.9513
10.2901 -6.2019 -1.9793 0.9525
11.0870 -5.3960 -2.0313 0.9512
11.8324 -4.5008 -2.0855 0.9500
13.1222 -2.4496 -2.1991 0.9473
13.6417 -1.3011 -2.2575 0.9460
10.3610 0.8706 -1.7129 0.9587
9.1444 1.6007 -1.5293 0.9631
7.1767 2.6378 -1.2596 0.9695
6.4162 3.0338 -1.1692 0.9716
4.8031 4.1290 -1.0434 0.9746
4.4152 4.5419 -1.0435 0.9746
3.3596 4.9925 -0.9914 0.9759
2.4860 5.6670 -1.0194 0.9752
1.9675 5.8598 -1.0183 0.9753
1.4598 6.1111 -1.0351 0.9749
0.9285 6.3579 -1.0585 0.9743
-0.2135 6.2932 -1.0373 0.9748
-3.0446 14.0880 -2.3744 0.9432
-5.8427 14.1429 -2.5209 0.9399
-6.9053 13.2241 -2.4577 0.9413
-8.6810 11.1817 -2.3320 0.9442
-9.3926 10.0900 -2.2709 0.9456
-11.3005 4.4333 -1.9998 0.9520
-11.3854 3.3282 -1.9541 0.9531
-11.1454 0.1785 -1.8363 0.9558
-10.6250 -1.7465 -1.7738 0.9573
-10.2709 -2.6486 -1.7474 0.9579
-9.3952 -4.3237 -1.7038 0.9589
-8.8808 -5.0939 -1.6866 0.9593
-8.3197 -5.8177 -1.6724 0.9597
-6.3834 -7.7001 -1.6477 0.9603
-4.9056 -8.7037 -1.6459 0.9603
-4.1171 -9.1264 -1.6494 0.9602
1.1858 -10.4494 -1.7325 0.9583
4.1019 -10.2286 -1.8155 0.9563
5.0930 -10.0054 -1.8495 0.9555
7.0780 -9.3150 -1.9273 0.9537
9.0277 -8.2779 -2.0178 0.9516
10.9063 -5.5910 -2.0190 0.9515
13.5296 -1.5745 -2.2439 0.9463
9.4031 1.4455 -1.5673 0.9622
6.5751 2.9435 -1.1868 0.9712
5.9337 3.3221 -1.1203 0.9728
5.3954 3.6900 -1.0768 0.9738
4.9133 4.0494 -1.0489 0.9745
3.9016 4.6082 -0.9947 0.9758
3.4949 4.9676 -1.0006 0.9757
3.0279 5.2442 -0.9976 0.9758
2.6063 5.6211 -1.0207 0.9752
1.0542 6.3009 -1.0524 0.9744
0.5005 6.5455 -1.0814 0.9737
-0.0906 6.8870 -1.1347 0.9725
-4.0651 14.0554 -2.4104 0.9424
-7.6427 12.4676 -2.4091 0.9424
-11.0691 5.8203 -2.0602 0.9506
-11.3736 3.5827 -1.9644 0.9528
-11.3919 2.4960 -1.9212 0.9538
-11.3284 1.4377 -1.8812 0.9548
-10.6986 -1.5312 -1.7804 0.9571
-9.9600 -3.3126 -1.7292 0.9583
-9.0045 -4.9193 -1.6903 0.9593
-5.0841 -8.5979 -1.6455 0.9603
-4.3029 -9.0331 -1.6483 0.9602
-3.4907 -9.4139 -1.6540 0.9601
-0.8877 -10.2135 -1.6889 0.9593
0.0287 -10.3590 -1.7065 0.9589
0.9656 -10.4401 -1.7272 0.9584
2.8908 -10.3982 -1.7780 0.9572
4.8626 -10.0642 -1.8414 0.9557
7.8336 -8.9592 -1.9606 0.9529
9.7551 -7.7826 -2.0558 0.9507
12.2066 -3.9849 -2.1154 0.9493
9.6751 1.2823 -1.6078 0.9612
6.7490 2.8547 -1.2072 0.9707
6.0753 3.2376 -1.1341 0.9725
4.6501 4.4022 -1.0549 0.9744
4.1496 4.6997 -1.0328 0.9749
2.2039 5.7594 -1.0159 0.9753
0.6319 6.4889 -1.0740 0.9739
0.0518 6.8035 -1.1208 0.9728
-0.5183 6.3176 -1.0443 0.9746
-3.7931 14.2141 -2.4236 0.9421
-7.4271 12.7003 -2.4237 0.9421
-8.3108 11.6751 -2.3609 0.9436
-10.6881 7.2232 -2.1251 0.9490
-11.0091 6.0838 -2.0721 0.9503
-11.2302 4.9531 -2.0220 0.9515
-10.0574 -3.1146 -1.7345 0.9582
-9.1256 -4.7421 -1.6942 0.9592
-8.5858 -5.4876 -1.6786 0.9595
-6.0011 -7.9893 -1.6461 0.9603
-4.4870 -8.9369 -1.6474 0.9603
-3.6818 -9.3305 -1.6524 0.9602
-2.8471 -9.6685 -1.6604 0.9600
-1.9849 -9.9493 -1.6713 0.9597
-1.0972 -10.1708 -1.6853 0.9594
-0.1859 -10.3309 -1.7022 0.9590
1.6975 -10.4570 -1.7452 0.9580
3.6439 -10.3059 -1.8008 0.9567
4.6324 -10.1188 -1.8333 0.9559
6.6186 -9.5052 -1.9081 0.9541
9.5370 -7.9381 -2.0441 0.9509
12.0469 -4.2114 -2.1024 0.9496
12.7079 -3.2021 -2.1589 0.9483
5.6242 3.5130 -1.0924 0.9735
4.7696 4.3311 -1.0614 0.9742
4.2640 4.6317 -1.0371 0.9748
3.2444 5.1160 -0.9980 0.9757
2.7778 5.3922 -0.9992 0.9757
1.0082 3.2969 -0.5680 0.9861
1.3011 6.1865 -1.0415 0.9747
-2.2683 14.9527 -2.4915 0.9405
-5.0367 14.7298 -2.5645 0.9388
-7.2052 12.9296 -2.4384 0.9418
-8.1163 11.9180 -2.3754 0.9432
-2.1182 2.5804 -0.5500 0.9866
-9.5858 9.7522 -2.2527 0.9461
-11.1875 5.2143 -2.0334 0.9512
-11.3357 4.0953 -1.9856 0.9523
-11.3939 2.9972 -1.9409 0.9534
-11.2625 0.8836 -1.8611 0.9552
-11.0835 -0.1238 -1.8260 0.9561
-10.8357 -1.0941 -1.7941 0.9568
-8.7152 -5.3187 -1.6820 0.9595
-7.5226 -6.6899 -1.6584 0.9600
-6.8644 -7.3028 -1.6511 0.9602
-6.1679 -7.8658 -1.6467 0.9603
-5.4356 -8.3779 -1.6452 0.9603
-3.0434 -9.5951 -1.6583 0.9600
-1.3054 -10.1248 -1.6818 0.9595
0.5283 -10.4106 -1.7172 0.9586
1.4753 -10.4561 -1.7396 0.9581
2.4388 -10.4330 -1.7651 0.9575
5.3949 -9.9218 -1.8605 0.9552
6.3885 -9.5934 -1.8988 0.9543
8.3563 -8.6798 -1.9849 0.9523
10.2525 -7.4042 -2.0834 0.9500
10.3487 -6.1471 -1.9829 0.9524
11.1423 -5.3347 -2.0351 0.9512
5.6081 -8.5398 -1.9203 0.9593
6.4709 -8.1588 -1.9573 0.9585
7.3193 -7.7009 -1.9969 0.9577
8.1466 -7.1644 -2.0391 0.9568
8.9456 -6.5481 -2.0838 0.9559
9.0085 -5.4295 -1.9770 0.9581
9.6744 -4.7085 -2.0223 0.9572
10.8453 -3.0485 -2.1175 0.9552
11.3311 -2.1153 -2.1666 0.9542
11.7371 -1.1195 -2.2161 0.9531
10.3418 0.8690 -1.9507 0.9586
8.1431 2.1903 -1.5850 0.9663
7.3074 2.6858 -1.4633 0.9688
2.3802 5.4257 -1.1136 0.9762
1.9141 5.7007 -1.1303 0.9758
0.7610 3.1858 -0.6157 0.9868
0.9212 6.3076 -1.1982 0.9744
-0.2102 6.1968 -1.1654 0.9751
-4.6411 11.2343 -2.2847 0.9517
-6.7706 10.5471 -2.3558 0.9503
-8.7048 7.8170 -2.1991 0.9535
-9.1572 6.8500 -2.1495 0.9545
-9.5167 5.8713 -2.1018 0.9555
-9.7866 4.8894 -2.0563 0.9565
-10.0477 1.0637 -1.8991 0.9597
-9.9292 0.1590 -1.8665 0.9604
-9.7457 -0.7171 -1.8368 0.9610
-8.4365 -3.8825 -1.7456 0.9629
-7.4848 -5.2338 -1.7167 0.9635
-6.9452 -5.8462 -1.7063 0.9637
-6.3665 -6.4146 -1.6987 0.9639
-5.7513 -6.9377 -1.6938 0.9640
-3.7090 -8.2218 -1.6954 0.9640
-2.2053 -8.8259 -1.7099 0.9637
1.9196 -9.3516 -1.7944 0.9619
3.6588 -9.1238 -1.8477 0.9608
4.5338 -8.9066 -1.8785 0.9601
5.4065 -8.6175 -1.9121 0.9594
7.1240 -7.8141 -1.9875 0.9579
7.9568 -7.2960 -2.0291 0.9570
8.7631 -6.6983 -2.0732 0.9561
9.5087 -6.0035 -2.1137 0.9553
10.7222 -3.2556 -2.1062 0.9554
11.7917 -0.3113 -2.2171 0.9531
10.6666 0.6737 -2.0089 0.9574
9.3872 1.4431 -1.7852 0.9621
8.3560 2.0626 -1.6177 0.9656
7.4885 2.5772 -1.4886 0.9683
6.7068 3.0025 -1.3812 0.9705
5.3804 3.6798 -1.2252 0.9738
3.8546 4.5527 -1.1212 0.9760
2.9413 5.0941 -1.1056 0.9763
2.4866 5.3629 -1.1111 0.9762
1.0420 6.2279 -1.1869 0.9746
-0.0919 6.9907 -1.3141 0.9719
-2.4276 12.4829 -2.3902 0.9496
-3.4648 11.9798 -2.3440 0.9505
-5.3121 10.7092 -2.2469 0.9525
-6.5847 10.7416 -2.3682 0.9500
-7.3489 9.8829 -2.3149 0.9511
-2.1762 2.4374 -0.6141 0.9868
-9.0606 7.0758 -2.1608 0.9543
-9.4414 6.0991 -2.1127 0.9553
-9.9353 4.1378 -2.0229 0.9571
-10.0560 3.1676 -1.9817 0.9580
-10.0979 2.2125 -1.9430 0.9588
-10.0654 1.2774 -1.9071 0.9595
-9.7939 -0.5165 -1.8434 0.9609
-8.0922 -4.4208 -1.7332 0.9632
-6.5042 -6.2867 -1.7003 0.9639
-5.8972 -6.8204 -1.6947 0.9640
-4.5813 -7.7476 -1.6918 0.9640
-3.8767 -8.1383 -1.6944 0.9640
-3.1439 -8.4785 -1.6997 0.9639
0.0258 -9.3004 -1.7481 0.9629
0.8659 -9.3616 -1.7671 0.9625
1.7198 -9.3608 -1.7889 0.9620
3.4559 -9.1641 -1.8409 0.9609
5.2044 -8.6911 -1.9041 0.9596
6.0719 -8.3451 -1.9398 0.9589
8.5788 -6.8441 -2.0628 0.9563
9.3509 -6.1791 -2.1067 0.9554
9.3711 -5.0523 -2.0011 0.9576
2.2890 -0.9813 -0.4681 0.9899
11.1149 -2.5566 -2.1437 0.9546
11.7144 -0.5528 -2.2043 0.9534
9.6583 1.2801 -1.8313 0.9611
5.5180 3.6080 -1.2392 0.9735
4.1450 4.6945 -1.1771 0.9748
3.0464 5.0319 -1.1056 0.9763
2.5926 5.3003 -1.1090 0.9763
1.1607 6.1500 -1.1764 0.9748
0.6329 6.4993 -1.2274 0.9738
-2.1773 12.5851 -2.4006 0.9493
-3.2303 12.1052 -2.3549 0.9503
-5.1145 10.8723 -2.2584 0.9523
-6.3935 10.9329 -2.3805 0.9498
-8.4625 8.2592 -2.2226 0.9530
-8.9589 7.3008 -2.1723 0.9541
-9.3612 6.3265 -2.1237 0.9551
-10.0950 2.4326 -1.9518 0.9586
-10.0794 1.4924 -1.9152 0.9594
-9.9926 0.5756 -1.8813 0.9601
-9.8387 -0.3142 -1.8502 0.9607
-9.6219 -1.1738 -1.8219 0.9613
-9.3459 -2.0004 -1.7965 0.9618
-8.1991 -4.2607 -1.7368 0.9631
-6.6398 -6.1563 -1.7019 0.9638
-6.0413 -6.7006 -1.6958 0.9639
-4.0428 -8.0521 -1.6935 0.9640
-3.3163 -8.4042 -1.6982 0.9639
-0.1669 -9.2776 -1.7441 0.9629
2.3829 -9.3167 -1.8076 0.9616
3.2532 -9.2008 -1.8343 0.9611
5.0020 -8.7608 -1.8962 0.9598
5.8714 -8.4321 -1.9313 0.9590
6.7305 -8.0279 -1.9691 0.9583
7.5731 -7.5463 -2.0095 0.9574
8.3927 -6.9857 -2.0524 0.9565
9.2156 -5.2183 -1.9906 0.9578
9.8671 -4.4748 -2.0364 0.9569
11.0007 -2.7720 -2.1323 0.9549
11.4633 -1.8191 -2.1816 0.9539
11.8430 -0.8056 -2.2312 0.9528
9.9438 1.1084 -1.8806 0.9601
8.8096 1.7902 -1.6897 0.9641
7.8770 2.3500 -1.5451 0.9671
6.3156 3.1991 -1.3307 0.9716
4.7642 4.3262 -1.2096 0.9741
4.2593 4.6266 -1.1820 0.9747
3.6070 4.6996 -1.1135 0.9762
3.1515 4.9696 -1.1061 0.9763
2.6983 5.2378 -1.1075 0.9763
2.2400 5.5085 -1.1177 0.9761
0.9596 3.1379 -0.6168 0.9867
1.2778 6.0754 -1.1669 0.9750
0.1929 6.7961 -1.2779 0.9727
-0.4424 7.2325 -1.3620 0.9709
-2.9920 12.2255 -2.3657 0.9501
-3.9909 11.6714 -2.3185 0.9510
-4.9124 11.0317 -2.2698 0.9520
-8.3336 8.4783 -2.2345 0.9528
-9.6080 5.5730 -2.0877 0.9558
-9.6776 -0.9772 -1.8283 0.9612
-8.7246 -3.3741 -1.7582 0.9626
-8.3035 -4.0983 -1.7405 0.9630
-7.8361 -4.7822 -1.7255 0.9633
-6.7734 -6.0236 -1.7037 0.9638
-4.8981 -7.5495 -1.6915 0.9640
-3.4874 -8.3270 -1.6969 0.9639
-2.7403 -8.6395 -1.7036 0.9638
-1.1737 -9.1036 -1.7253 0.9633
-0.3587 -9.2516 -1.7402 0.9630
2.1819 -9.3341 -1.8017 0.9617
3.0507 -9.2337 -1.8278 0.9612
3.9246 -9.0653 -1.8567 0.9606
4.7993 -8.8265 -1.8884 0.9599
5.6703 -8.5150 -1.9229 0.9592
9.0016 -6.5008 -2.0870 0.9558
9.7203 -4.6539 -2.0257 0.9571
10.3317 -3.8543 -2.0727 0.9561
11.7628 -1.0459 -2.2197 0.9531
7.9669 -5.8317 -2.0870 0.9604
9.5592 -2.6870 -2.0989 0.9602
10.2884 -0.9813 -2.1846 0.9586
10.5364 -0.0593 -2.2272 0.9578
10.3226 0.8674 -2.1897 0.9585
8.1308 2.1870 -1.7798 0.9662
4.4054 4.5318 -1.3360 0.9745
3.7816 4.6593 -1.2685 0.9758
2.4018 5.4750 -1.2638 0.9759
1.9363 5.7669 -1.2859 0.9754
0.7523 3.1495 -0.6845 0.9868
-0.9372 7.5578 -1.6098 0.9693
-3.2183 10.3197 -2.2850 0.9568
-4.0528 9.8102 -2.2437 0.9575
-7.2016 7.7364 -2.2342 0.9577
-7.7058 6.9199 -2.1892 0.9585
-8.9127 3.4966 -2.0238 0.9616
-9.0632 1.7895 -1.9528 0.9629
-8.9449 0.1432 -1.8910 0.9641
-8.7934 -0.6471 -1.8638 0.9646
-8.5849 -1.4111 -1.8390 0.9651
-8.0098 -2.8500 -1.7971 0.9658
-7.2441 -4.1551 -1.7653 0.9664
-6.7969 -4.7528 -1.7531 0.9667
-6.3103 -5.3118 -1.7435 0.9668
-5.7870 -5.8306 -1.7365 0.9670
-4.0194 -7.1313 -1.7304 0.9671
-3.3720 -7.4747 -1.7333 0.9670
-2.6992 -7.7707 -1.7388 0.9669
-2.0034 -8.0176 -1.7469 0.9668
-1.2868 -8.2138 -1.7574 0.9666
0.1988 -8.4473 -1.7861 0.9660
0.9624 -8.4810 -1.8042 0.9657
2.5161 -8.3730 -1.8481 0.9649
4.0817 -8.0186 -1.9019 0.9639
4.8587 -7.7444 -1.9325 0.9633
7.1067 -6.5164 -2.0381 0.9613
2.3066 -0.9327 -0.5259 0.9899
9.4567 -2.8713 -2.0891 0.9604
9.8731 -2.0561 -2.1318 0.9596
10.2191 -1.1893 -2.1747 0.9588
9.3712 1.4406 -2.0042 0.9620
7.4779 2.5736 -1.6717 0.9682
6.7390 3.0169 -1.5607 0.9703
6.0867 3.4077 -1.4745 0.9719
4.9074 4.0446 -1.3442 0.9743
4.5219 4.4624 -1.3429 0.9744
3.4224 4.8646 -1.2573 0.9760
2.5082 5.4094 -1.2604 0.9759
1.0604 6.3379 -1.3583 0.9741
-2.1075 10.8371 -2.3337 0.9559
-3.0157 10.4269 -2.2944 0.9566
-3.8649 9.9350 -2.2534 0.9574
-5.3614 8.7460 -2.1685 0.9589
-2.1749 2.4359 -0.6903 0.9867
-7.5962 7.1118 -2.1996 0.9583
-8.0367 6.2763 -2.1555 0.9592
-8.6748 4.5614 -2.0717 0.9607
-9.0601 1.9851 -1.9605 0.9628
-9.0481 1.1483 -1.9279 0.9634
-8.8338 -0.4659 -1.8699 0.9645
-8.3882 -1.9783 -1.8217 0.9654
-8.0867 -2.6896 -1.8014 0.9658
-7.7370 -3.3678 -1.7837 0.9661
-7.3419 -4.0110 -1.7684 0.9664
-5.9116 -5.7139 -1.7379 0.9669
-4.7788 -6.6450 -1.7301 0.9671
-2.8575 -7.7063 -1.7373 0.9670
-2.1668 -7.9648 -1.7448 0.9668
-1.4548 -8.1729 -1.7547 0.9666
0.7842 -8.4783 -1.7998 0.9658
1.5557 -8.4678 -1.8199 0.9654
2.3347 -8.3979 -1.8425 0.9650
3.1176 -8.2669 -1.8676 0.9645
4.6791 -7.8140 -1.9252 0.9634
6.2042 -7.0956 -1.9923 0.9622
7.6486 -6.1020 -2.0682 0.9608
8.3126 -5.4930 -2.1061 0.9601
8.3140 -4.4824 -1.9966 0.9621
2.2870 -0.9805 -0.5260 0.9899
9.3509 -3.0526 -2.0792 0.9606
10.1455 -1.3947 -2.1647 0.9590
10.4318 -0.4923 -2.2075 0.9582
7.6712 2.4632 -1.7031 0.9676
6.9017 2.9193 -1.5840 0.9698
6.2317 3.3209 -1.4926 0.9715
5.6198 3.6746 -1.4193 0.9729
5.0351 3.9772 -1.3563 0.9741
3.5301 4.8026 -1.2599 0.9759
3.0699 5.0708 -1.2530 0.9761
0.8593 3.0340 -0.6665 0.9872
0.6445 6.6181 -1.4056 0.9732
0.0531 6.9789 -1.4752 0.9719
-2.8099 10.5297 -2.3037 0.9564
-3.6734 10.0559 -2.2630 0.9572
-4.4727 9.5080 -2.2211 0.9580
-5.8587 8.2303 -2.1355 0.9595
-2.1212 2.4774 -0.6894 0.9868
-7.9418 6.4720 -2.1656 0.9590
-8.8366 3.8974 -2.0415 0.9613
-8.9810 3.0353 -2.0039 0.9620
-9.0532 2.1815 -1.9685 0.9626
-8.6886 -1.0599 -1.8502 0.9648
-8.4509 -1.8088 -1.8268 0.9653
-7.4375 -3.8649 -1.7717 0.9663
-5.4922 -6.0916 -1.7337 0.9670
-4.3106 -6.9561 -1.7298 0.9671
-3.0145 -7.6393 -1.7360 0.9670
-2.3291 -7.9092 -1.7428 0.9669
-1.6218 -8.1292 -1.7522 0.9667
-0.8951 -8.2975 -1.7641 0.9665
-0.1514 -8.4126 -1.7785 0.9662
1.3759 -8.4754 -1.8150 0.9655
2.1534 -8.4195 -1.8370 0.9651
3.7190 -8.1236 -1.8886 0.9641
4.4990 -7.8799 -1.9180 0.9636
8.1710 -5.6466 -2.0995 0.9602
8.7367 -3.9622 -2.0278 0.9615
9.2417 -3.2308 -2.0695 0.9608
9.9260 1.1064 -2.1112 0.9600
8.7954 1.7873 -1.8972 0.9640
6.3804 3.2319 -1.5118 0.9712
4.7588 4.3213 -1.3588 0.9741
3.6385 4.7406 -1.2632 0.9759
3.1760 5.0083 -1.2536 0.9760
2.7201 5.2802 -1.2555 0.9760
2.2618 5.5619 -1.2692 0.9758
1.2996 6.1793 -1.3348 0.9745
0.1957 6.8955 -1.4582 0.9722
-0.3803 6.2174 -1.3167 0.9749
-1.6682 10.9970 -2.3511 0.9555
-2.6010 10.6280 -2.3129 0.9563
-4.2933 9.6413 -2.2309 0.9578
-5.0395 9.0433 -2.1884 0.9586
-5.7131 8.3891 -2.1454 0.9594
-6.8016 8.2860 -2.2660 0.9571
-8.2391 5.8209 -2.1324 0.9596
-8.7924 4.0980 -2.0505 0.9611
-9.0427 2.3787 -1.9765 0.9625
-9.0619 1.5346 -1.9428 0.9631
-9.0149 0.7073 -1.9114 0.9637
-8.7360 -0.8821 -1.8560 0.9647
-7.1125 -4.3406 -1.7613 0.9665
-6.1551 -5.4738 -1.7411 0.9669
-5.6210 -5.9801 -1.7348 0.9670
-3.8256 -7.2405 -1.7310 0.9671
-1.7878 -8.0827 -1.7498 0.9667
0.4295 -8.4636 -1.7913 0.9659
1.1965 -8.4799 -1.8102 0.9656
2.7539 -8.3354 -1.8556 0.9647
3.5373 -8.1709 -1.8821 0.9643
4.3185 -7.9423 -1.9110 0.9637
5.8557 -7.2865 -1.9759 0.9625
7.3232 -6.3574 -2.0499 0.9611
8.0154 -5.7886 -2.0899 0.9604
8.0455 -4.7790 -1.9780 0.9625
9.1295 -3.4058 -2.0597 0.9609
9.9860 -1.7980 -2.1448 0.9594
10.3089 -0.9166 -2.1877 0.9586
4.5687 -6.9570 -1.9561 0.9664
5.9189 -6.2275 -2.0192 0.9653
7.1745 -5.2516 -2.0896 0.9641
8.1393 -3.0961 -2.0467 0.9649
8.5371 -2.3997 -2.0842 0.9642
8.8757 -1.6569 -2.1220 0.9636
9.3488 -0.0526 -2.1972 0.9623
9.0988 1.5928 -2.1710 0.9628
8.1184 2.1837 -1.9758 0.9660
7.2869 2.6783 -1.8246 0.9686
5.9376 3.4881 -1.6185 0.9721
4.8288 4.1511 -1.4966 0.9742
3.8447 4.7370 -1.4338 0.9752
3.3487 4.9763 -1.4097 0.9757
2.4423 5.5673 -1.4288 0.9753
0.9419 6.4498 -1.5319 0.9736
0.3771 6.7806 -1.5961 0.9725
-2.0511 9.4912 -2.2821 0.9609
-3.5930 8.6972 -2.2116 0.9621
-4.2826 8.2016 -2.1745 0.9627
-4.9116 7.6512 -2.1368 0.9633
-6.9056 6.2013 -2.1813 0.9626
-7.2985 5.4597 -2.1421 0.9632
-8.1646 2.3867 -1.9992 0.9657
-8.2143 1.6219 -1.9678 0.9662
-8.2022 0.8683 -1.9385 0.9667
-8.1311 0.1302 -1.9112 0.9671
-7.5926 -1.9580 -1.8428 0.9683
-7.3141 -2.6025 -1.8246 0.9686
-6.6251 -3.8001 -1.7950 0.9691
-4.2501 -6.1763 -1.7620 0.9697
-3.6822 -6.5330 -1.7625 0.9697
-3.0886 -6.8467 -1.7653 0.9696
-2.4718 -7.1158 -1.7704 0.9695
-1.8338 -7.3391 -1.7779 0.9694
-1.1773 -7.5149 -1.7877 0.9692
0.1817 -7.7178 -1.8144 0.9688
1.5831 -7.7121 -1.8503 0.9682
2.2920 -7.6270 -1.8717 0.9678
3.0017 -7.4852 -1.8954 0.9674
3.7084 -7.2853 -1.9213 0.9670
5.0955 -6.7059 -1.9794 0.9660
5.7662 -6.3248 -2.0115 0.9654
6.4147 -5.8819 -2.0455 0.9649
7.0351 -5.3774 -2.0811 0.9643
8.8028 -1.8332 -2.1132 0.9637
9.3091 -0.2457 -2.1886 0.9625
9.4498 0.5968 -2.2253 0.9618
8.3301 2.0562 -2.0165 0.9654
6.7300 3.0129 -1.7330 0.9702
6.0790 3.4034 -1.6374 0.9718
5.4911 3.7554 -1.5635 0.9730
4.9493 4.0792 -1.5074 0.9740
3.9551 4.6714 -1.4385 0.9752
3.4799 4.9463 -1.4214 0.9755
3.0137 5.2195 -1.4165 0.9755
2.0763 5.7831 -1.4441 0.9751
0.5124 6.7014 -1.5796 0.9728
-0.0928 7.0553 -1.6583 0.9714
-1.8600 9.5640 -2.2899 0.9608
-3.4247 8.8035 -2.2201 0.9619
-5.3514 7.1967 -2.1077 0.9638
-2.1736 2.4344 -0.7670 0.9867
-6.8041 6.3702 -2.1906 0.9624
-7.8176 4.1106 -2.0758 0.9644
-8.0145 3.3378 -2.0404 0.9650
-8.1439 2.5653 -2.0067 0.9655
-8.2103 1.0420 -1.9451 0.9666
-8.1527 0.2999 -1.9174 0.9670
-7.6505 -1.8044 -1.8474 0.9682
-7.0696 -3.0773 -1.8121 0.9688
-5.8831 -4.7471 -1.7767 0.9694
-4.3780 -6.0876 -1.7623 0.9697
-3.8163 -6.4540 -1.7622 0.9697
-3.2286 -6.7778 -1.7644 0.9696
-1.3312 -7.4784 -1.7852 0.9693
-0.6620 -7.6166 -1.7968 0.9691
0.0213 -7.7047 -1.8108 0.9688
0.7160 -7.7409 -1.8271 0.9686
2.1272 -7.6518 -1.8665 0.9679
4.2464 -7.0914 -1.9426 0.9666
4.9372 -6.7856 -1.9722 0.9661
5.6124 -6.4187 -2.0039 0.9656
6.8940 -5.5000 -2.0727 0.9644
7.4747 -4.9394 -2.1056 0.9639
7.4640 -4.0242 -1.9929 0.9658
2.2850 -0.9796 -0.5843 0.9898
8.7264 -2.0072 -2.1045 0.9639
9.4243 0.3990 -2.2169 0.9620
8.5508 1.9232 -2.0598 0.9646
7.6600 2.4596 -1.8908 0.9675
6.2237 3.3167 -1.6575 0.9714
5.0717 4.0061 -1.5190 0.9738
4.6344 4.3873 -1.4998 0.9741
3.1213 5.1556 -1.4165 0.9755
2.1878 5.7174 -1.4387 0.9752
1.1899 6.3043 -1.5078 0.9740
-1.6665 9.6326 -2.2975 0.9606
-2.4836 9.3069 -2.2639 0.9612
-3.2535 8.9063 -2.2285 0.9618
-3.9698 8.4389 -2.1918 0.9624
-4.6275 7.9129 -2.1544 0.9630
-5.2226 7.3367 -2.1165 0.9637
-6.6986 6.5377 -2.1999 0.9623
-7.9749 3.5173 -2.0485 0.9648
-8.1198 2.7443 -2.0144 0.9654
-7.9137 -0.9654 -1.8737 0.9678
-7.7058 -1.6493 -1.8521 0.9681
-6.7999 -3.5336 -1.8010 0.9690
-6.4127 -4.0986 -1.7887 0.9692
-5.9871 -4.6291 -1.7786 0.9694
-5.5256 -5.1233 -1.7710 0.9695
-4.5043 -5.9966 -1.7626 0.9697
-1.4842 -7.4393 -1.7829 0.9693
-0.8186 -7.5890 -1.7939 0.9691
-0.1384 -7.6888 -1.8073 0.9689
0.5539 -7.7372 -1.8231 0.9686
1.9626 -7.6735 -1.8615 0.9680
3.3810 -7.3854 -1.9090 0.9672
4.0844 -7.1537 -1.9360 0.9667
5.4573 -6.5093 -1.9964 0.9657
7.3511 -5.0800 -2.1001 0.9639
7.3480 -4.1608 -1.9846 0.9659
8.2660 -2.8897 -2.0580 0.9647
8.9659 -1.4228 -2.1335 0.9634
9.3944 0.2025 -2.2084 0.9621
7.8537 2.3431 -1.9262 0.9669
7.0597 2.8148 -1.7862 0.9693
5.7573 3.5961 -1.5954 0.9725
4.7534 4.3164 -1.5090 0.9740
4.2498 4.6163 -1.4747 0.9745
3.6998 4.8205 -1.4282 0.9753
3.2292 5.0921 -1.4171 0.9755
2.0025 3.8871 -1.0277 0.9822
0.7751 6.5475 -1.5496 0.9733
0.1955 6.8868 -1.6192 0.9721
-1.4710 9.6967 -2.3050 0.9605
-2.2979 9.3894 -2.2718 0.9611
-3.8087 8.5529 -2.2004 0.9623
-5.0902 7.4745 -2.1253 0.9635
-5.6354 6.8653 -2.0875 0.9642
-6.5892 6.7036 -2.2092 0.9621
-7.0327 5.9783 -2.1693 0.9628
-7.4036 5.2306 -2.1305 0.9634
-8.0921 2.9235 -2.0221 0.9653
-8.2170 1.3916 -1.9587 0.9663
-8.1867 0.6423 -1.9300 0.9668
-8.0983 -0.0904 -1.9034 0.9673
-7.5129 -2.1568 -1.8370 0.9684
-7.2205 -2.7924 -1.8195 0.9687
-6.8840 -3.3977 -1.8042 0.9689
-6.5061 -3.9705 -1.7913 0.9692
-6.0891 -4.5092 -1.7808 0.9693
-5.6358 -5.0119 -1.7725 0.9695
-5.1483 -5.4772 -1.7667 0.9696
-3.5045 -6.6329 -1.7631 0.9696
-2.9036 -6.9332 -1.7666 0.9696
-2.2801 -7.1886 -1.7724 0.9695
-1.6363 -7.3976 -1.7806 0.9693
-0.9745 -7.5586 -1.7912 0.9692
0.3923 -7.7307 -1.8192 0.9687
2.5077 -7.5900 -1.8787 0.9677
3.2169 -7.4307 -1.9030 0.9673
3.9219 -7.2128 -1.9296 0.9668
5.3013 -6.5967 -1.9890 0.9658
7.2171 -5.2121 -2.0923 0.9641
7.2298 -4.2945 -1.9763 0.9660
8.5635 -2.3479 -2.0869 0.9642
8.8976 -1.6020 -2.1248 0.9635
9.1653 -0.8149 -2.1625 0.9629
4.7946 -6.0452 -1.9977 0.9686
5.3949 -5.6761 -2.0276 0.9682
5.9715 -5.2515 -2.0590 0.9677
6.9634 -3.3891 -2.0052 0.9685
7.3585 -2.7991 -2.0384 0.9680
7.7046 -2.1657 -2.0722 0.9675
8.2272 -0.7847 -2.1398 0.9664
8.4879 0.7132 -2.2054 0.9654
8.5084 1.4894 -2.2365 0.9649
8.1059 2.1803 -2.1734 0.9659
5.9301 3.4837 -1.7808 0.9720
5.3553 3.8281 -1.7044 0.9732
4.3954 4.5215 -1.6327 0.9743
3.3450 4.9707 -1.5513 0.9755
2.9070 5.2851 -1.5617 0.9754
2.4396 5.5611 -1.5723 0.9752
1.9618 5.8427 -1.5958 0.9749
0.9408 6.4421 -1.6857 0.9735
0.3766 6.7722 -1.7561 0.9724
-0.2098 6.1847 -1.6023 0.9748
-0.9346 7.5368 -1.9664 0.9691
-3.8487 7.3706 -2.1529 0.9662
-4.4218 6.8881 -2.1193 0.9667
-4.9392 6.3621 -2.0854 0.9673
-6.2498 5.6124 -2.1749 0.9659
-6.9190 4.2687 -2.1050 0.9670
-7.1575 3.5759 -2.0716 0.9675
-7.3334 2.8770 -2.0396 0.9680
-7.4483 2.1773 -2.0092 0.9684
-7.4465 0.1192 -1.9283 0.9697
-7.1798 -1.1802 -1.8839 0.9704
-6.7239 -2.3924 -1.8479 0.9709
-6.0985 -3.4980 -1.8203 0.9714
-5.7282 -4.0055 -1.8098 0.9715
-5.3228 -4.4805 -1.8014 0.9717
-4.8844 -4.9213 -1.7953 0.9718
-3.9179 -5.6937 -1.7895 0.9718
-3.3944 -6.0223 -1.7899 0.9718
-2.2778 -6.5573 -1.7973 0.9717
-1.6893 -6.7608 -1.8043 0.9716
-0.4644 -7.0327 -1.8248 0.9713
0.1671 -7.0982 -1.8384 0.9711
0.8074 -7.1150 -1.8540 0.9708
2.1026 -6.9970 -1.8917 0.9703
3.3947 -6.6689 -1.9375 0.9696
4.6525 -6.1229 -1.9911 0.9687
5.2575 -5.7667 -2.0205 0.9683
6.3949 -4.8881 -2.0841 0.9673
6.8653 -3.5194 -1.9975 0.9686
7.9336 -1.6522 -2.0982 0.9671
8.1792 -0.9519 -2.1320 0.9665
8.4723 0.5351 -2.1980 0.9655
8.3171 2.0529 -2.2181 0.9652
6.7209 3.0088 -1.9066 0.9700
4.9435 4.0744 -1.6587 0.9739
3.9507 4.6661 -1.5830 0.9751
3.4796 4.9459 -1.5657 0.9753
3.0147 5.2213 -1.5611 0.9754
0.7801 2.9897 -0.8000 0.9873
-3.7081 7.4756 -2.1606 0.9661
-4.8242 6.4877 -2.0933 0.9671
-6.8546 4.4280 -2.1129 0.9668
-7.1078 3.7374 -2.0792 0.9674
-7.2981 3.0395 -2.0469 0.9679
-7.4269 2.3395 -2.0161 0.9683
-7.4961 1.6425 -1.9869 0.9688
-7.3677 -0.3886 -1.9103 0.9700
-7.0261 -1.6571 -1.8691 0.9706
-6.7859 -2.2569 -1.8516 0.9709
-6.5027 -2.8305 -1.8363 0.9711
-5.4199 -4.3733 -1.8032 0.9716
-4.5268 -5.2355 -1.7920 0.9718
-4.0358 -5.6118 -1.7897 0.9718
-3.5181 -5.9496 -1.7896 0.9718
-2.9760 -6.2475 -1.7917 0.9718
-2.4116 -6.5039 -1.7960 0.9717
-0.6093 -7.0106 -1.8220 0.9713
0.0196 -7.0873 -1.8350 0.9711
1.3033 -7.0939 -1.8675 0.9706
2.6007 -6.8963 -1.9083 0.9700
3.8835 -6.4853 -1.9572 0.9692
4.5094 -6.1976 -1.9845 0.9688
5.1189 -5.8543 -2.0135 0.9684
6.7837 -4.4827 -2.1053 0.9670
7.5504 -2.4648 -2.0565 0.9677
8.4527 0.3578 -2.1905 0.9656
8.5084 1.1277 -2.2222 0.9652
7.6488 2.4560 -2.0800 0.9674
5.6160 3.6721 -1.7373 0.9727
3.5881 4.8815 -1.5686 0.9753
1.9146 3.9141 -1.1282 0.9822
2.1854 5.7110 -1.5832 0.9751
0.8472 2.9913 -0.8050 0.9872
1.1885 6.2969 -1.6592 0.9739
0.6442 6.6157 -1.7210 0.9729
-0.5152 6.2804 -1.6316 0.9743
-1.4891 8.6073 -2.2617 0.9646
-3.5647 7.5778 -2.1683 0.9660
-4.1625 7.1179 -2.1350 0.9665
-6.4544 5.2599 -2.1558 0.9662
-6.7867 4.5866 -2.1208 0.9667
-7.0547 3.8985 -2.0869 0.9672
-7.4024 2.5018 -2.0231 0.9682
-7.5101 1.1120 -1.9657 0.9691
-7.4791 0.4308 -1.9397 0.9695
-7.3947 -0.2362 -1.9156 0.9699
-7.2593 -0.8856 -1.8935 0.9702
-6.5722 -2.6998 -1.8396 0.9711
-5.9046 -3.7739 -1.8144 0.9715
-4.1522 -5.5278 -1.7901 0.9718
-1.9647 -6.6718 -1.8008 0.9717
-1.3669 -6.8516 -1.8090 0.9715
0.5093 -7.1134 -1.8465 0.9710
1.8013 -7.0428 -1.8822 0.9704
2.4503 -6.9300 -1.9032 0.9701
3.0967 -6.7642 -1.9262 0.9697
4.3654 -6.2693 -1.9780 0.9689
6.1412 -5.1116 -2.0688 0.9675
6.6731 -4.6115 -2.1002 0.9670
6.6625 -3.7726 -1.9824 0.9689
7.0883 -3.2146 -2.0152 0.9684
7.7992 -1.9653 -2.0825 0.9673
8.0729 -1.2811 -2.1164 0.9668
8.2846 -0.5635 -2.1500 0.9663
8.4293 0.1817 -2.1830 0.9658
8.4993 1.7271 -2.2456 0.9648
4.2450 4.6111 -1.6228 0.9744
1.9930 3.8688 -1.1268 0.9822
2.2959 5.6459 -1.5781 0.9751
0.9509 3.1095 -0.8419 0.9867
0.6830 3.2472 -0.8592 0.9864
0.7742 6.5396 -1.7051 0.9732
0.1952 6.8782 -1.7816 0.9720
-0.3794 6.2028 -1.6090 0.9746
-1.3140 8.6616 -2.2683 0.9644
-2.0558 8.4000 -2.2391 0.9649
-2.7594 8.0697 -2.2082 0.9654
-4.0285 7.2291 -2.1427 0.9664
-4.5850 6.7326 -2.1090 0.9669
-5.9502 6.0535 -2.1977 0.9655
-6.3681 5.4133 -2.1640 0.9661
-6.7153 4.7444 -2.1289 0.9666
-6.9982 4.0592 -2.0947 0.9671
-7.2175 3.3640 -2.0618 0.9676
-7.2952 -0.7366 -1.8985 0.9702
-7.1223 -1.3704 -1.8779 0.9705
-6.9029 -1.9816 -1.8595 0.9708
-6.6394 -2.5677 -1.8431 0.9710
-6.3342 -3.1263 -1.8289 0.9712
-5.9899 -3.6555 -1.8169 0.9714
-5.6087 -4.1534 -1.8070 0.9716
-5.1930 -4.6181 -1.7993 0.9717
-4.7450 -5.0481 -1.7938 0.9718
-3.7616 -5.7977 -1.7894 0.9718
-2.6762 -6.3901 -1.7938 0.9718
1.6507 -7.0614 -1.8776 0.9705
2.2998 -6.9609 -1.8981 0.9702
2.9471 -6.8075 -1.9207 0.9698
3.5887 -6.6001 -1.9452 0.9694
4.8383 -6.0206 -1.9998 0.9686
6.0118 -5.2190 -2.0613 0.9676
6.5571 -4.7354 -2.0942 0.9671
7.3850 -2.7551 -2.0408 0.9680
7.7274 -2.1187 -2.0746 0.9674
8.2413 -0.7327 -2.1422 0.9664
3.8415 -5.8496 -1.9811 0.9713
4.9513 -5.2095 -2.0346 0.9706
5.4736 -4.8136 -2.0635 0.9702
5.9676 -4.3682 -2.0936 0.9697
5.9649 -3.5951 -1.9716 0.9715
7.2673 -1.3567 -2.0929 0.9697
7.4664 -0.7122 -2.1233 0.9693
7.6058 -0.0428 -2.1532 0.9689
7.2661 2.6707 -2.1915 0.9683
6.5546 3.0993 -2.0525 0.9703
5.9226 3.4793 -1.9446 0.9718
5.3488 3.8235 -1.8613 0.9730
4.8174 4.1414 -1.7984 0.9739
4.3904 4.5163 -1.7831 0.9742
3.8361 4.7263 -1.7232 0.9750
2.4368 5.5549 -1.7172 0.9751
0.7493 3.1368 -0.9130 0.9867
0.9397 6.4343 -1.8408 0.9733
-0.2097 6.1811 -1.7508 0.9746
-2.3065 7.3960 -2.1932 0.9683
-2.9195 7.0670 -2.1646 0.9687
-3.4909 6.6853 -2.1351 0.9691
-4.0165 6.2567 -2.1048 0.9696
-4.9184 5.2836 -2.0435 0.9704
-5.6983 5.1171 -2.1681 0.9687
-6.0452 4.5221 -2.1372 0.9691
-6.3303 3.9055 -2.1057 0.9696
-6.5574 3.2761 -2.0751 0.9700
-6.7272 2.6392 -2.0457 0.9704
-6.8410 1.9998 -2.0177 0.9708
-6.9002 1.3624 -1.9911 0.9712
-6.9065 0.7312 -1.9661 0.9715
-6.8619 0.1099 -1.9428 0.9719
-6.7684 -0.4981 -1.9213 0.9722
-6.2164 -2.2119 -1.8679 0.9729
-5.6445 -3.2376 -1.8421 0.9733
-4.9304 -4.1502 -1.8244 0.9736
-4.0916 -4.9356 -1.8149 0.9737
-2.6380 -5.8476 -1.8161 0.9737
-1.5646 -6.2617 -1.8271 0.9735
-1.0036 -6.4064 -1.8357 0.9734
0.1545 -6.5650 -1.8590 0.9731
1.9405 -6.4573 -1.9088 0.9724
3.7083 -5.9107 -1.9753 0.9714
2.3078 -0.9331 -0.7047 0.9897
6.9462 -2.1091 -2.0551 0.9703
7.5790 -0.2001 -2.1463 0.9690
7.6696 0.4844 -2.1755 0.9686
6.7117 3.0047 -2.0818 0.9699
5.4776 3.7463 -1.8787 0.9728
4.9377 4.0695 -1.8114 0.9738
4.5064 4.4471 -1.7923 0.9740
3.4757 4.9404 -1.7100 0.9752
3.0114 5.2155 -1.7049 0.9753
2.5458 5.4906 -1.7133 0.9752
1.0643 6.3613 -1.8259 0.9735
-0.0925 7.0370 -1.9923 0.9712
-0.7649 7.4284 -2.1140 0.9694
-1.5014 7.7202 -2.2265 0.9678
-2.7808 7.1483 -2.1714 0.9686
-3.8988 6.3601 -2.1119 0.9695
-4.3870 5.8997 -2.0813 0.9699
-5.6044 5.2470 -2.1734 0.9686
-5.9707 4.6628 -2.1446 0.9690
-6.2693 4.0499 -2.1129 0.9694
-6.5098 3.4230 -2.0821 0.9699
-6.9096 0.8769 -1.9718 0.9715
-6.8767 0.2530 -1.9481 0.9718
-6.7943 -0.3583 -1.9261 0.9721
-6.6648 -0.9539 -1.9060 0.9724
-6.2727 -2.0862 -1.8714 0.9729
-6.0148 -2.6181 -1.8571 0.9731
-5.7185 -3.1241 -1.8447 0.9733
-5.0200 -4.0506 -1.8261 0.9735
-3.7401 -5.2006 -1.8134 0.9737
-2.7577 -5.7892 -1.8153 0.9737
-2.2344 -6.0258 -1.8193 0.9736
0.0181 -6.5558 -1.8559 0.9731
0.6084 -6.5778 -1.8701 0.9729
3.5744 -5.9692 -1.9696 0.9715
4.7007 -5.3761 -2.0217 0.9707
5.7421 -4.5811 -2.0795 0.9699
6.2035 -4.0993 -2.1049 0.9696
6.8771 -2.2450 -2.0480 0.9704
7.5654 2.4292 -2.2494 0.9675
6.2076 3.3081 -1.9913 0.9712
5.0596 3.9966 -1.8253 0.9736
4.1265 4.6735 -1.7650 0.9744
3.5841 4.8760 -1.7132 0.9752
3.1190 5.1518 -1.7049 0.9753
0.8773 3.0975 -0.9114 0.9867
1.1870 6.2895 -1.8119 0.9737
-0.5145 6.2713 -1.7813 0.9742
-2.0092 7.5291 -2.2060 0.9681
-2.6399 7.2266 -2.1780 0.9685
-3.7784 6.4611 -2.1189 0.9694
-2.1229 2.4794 -0.9240 0.9865
-5.8931 4.8025 -2.1521 0.9689
-6.2052 4.1936 -2.1202 0.9693
-6.4592 3.5694 -2.0892 0.9698
-6.9100 1.0231 -1.9775 0.9714
-6.8888 0.3968 -1.9534 0.9717
-6.6989 -0.8172 -1.9105 0.9723
-6.5346 -1.3986 -1.8918 0.9726
-6.0782 -2.4969 -1.8602 0.9731
-5.7906 -3.0091 -1.8474 0.9732
-4.7171 -4.3737 -1.8211 0.9736
-4.2964 -4.7653 -1.8164 0.9737
-3.8479 -5.1227 -1.8138 0.9737
-3.3738 -5.4443 -1.8132 0.9737
-1.8199 -6.1801 -1.8238 0.9736
-0.6975 -6.4663 -1.8412 0.9733
-0.1178 -6.5442 -1.8529 0.9732
0.4709 -6.5768 -1.8666 0.9730
1.0654 -6.5632 -1.8823 0.9727
1.6630 -6.5021 -1.8999 0.9725
2.2603 -6.3925 -1.9195 0.9722
2.8538 -6.2337 -1.9409 0.9719
4.0146 -5.7655 -1.9889 0.9712
4.5737 -5.4553 -2.0153 0.9708
5.6269 -4.6835 -2.0725 0.9700
6.0879 -3.4472 -1.9805 0.9713
6.4677 -2.9332 -2.0105 0.9709
6.8053 -2.3790 -2.0409 0.9705
7.0956 -1.7880 -2.0715 0.9700
7.3339 -1.1638 -2.1021 0.9696
7.6356 0.1646 -2.1621 0.9687
7.6911 0.8573 -2.1908 0.9683
7.5950 2.2659 -2.2437 0.9676
7.0400 2.8070 -2.1455 0.9690
6.3553 3.2192 -2.0168 0.9708
4.2401 4.6058 -1.7723 0.9743
2.2933 5.6395 -1.7235 0.9750
0.9544 3.1211 -0.9240 0.9865
0.6838 3.2513 -0.9406 0.9863
-0.3789 6.1954 -1.7572 0.9745
-1.8577 7.5907 -2.2123 0.9680
-5.0372 5.1246 -2.0342 0.9706
-5.8123 4.9409 -2.1596 0.9688
-6.1380 4.3365 -2.1275 0.9692
-6.6150 3.0831 -2.0661 0.9701
-6.8647 1.8057 -2.0094 0.9709
-6.9076 1.1698 -1.9833 0.9713
-6.8982 0.5412 -1.9588 0.9716
-6.7306 -0.6796 -1.9151 0.9723
-5.8607 -2.8926 -1.8502 0.9732
-5.1940 -3.8463 -1.8297 0.9735
-4.8105 -4.2780 -1.8224 0.9736
-4.3966 -4.6774 -1.8173 0.9737
-3.4860 -5.3729 -1.8131 0.9737
-2.9937 -5.6661 -1.8141 0.9737
-2.4797 -5.9209 -1.8172 0.9737
-1.9462 -6.1360 -1.8224 0.9736
-0.8305 -6.4419 -1.8388 0.9734
0.9271 -6.5705 -1.8785 0.9728
1.5242 -6.5205 -1.8957 0.9725
2.1219 -6.4223 -1.9148 0.9723
2.7166 -6.2750 -1.9357 0.9720
4.4455 -5.5318 -2.0090 0.9709
5.5100 -4.7833 -2.0656 0.9701
6.0015 -4.3342 -2.0957 0.9697
6.7310 -2.5110 -2.0338 0.9706
3.5533 -5.4109 -1.9911 0.9733
4.0713 -5.1332 -2.0152 0.9730
5.4959 -4.0229 -2.0949 0.9719
5.4979 -3.3136 -1.9744 0.9735
5.8410 -2.8428 -1.9980 0.9732
6.1559 -2.3416 -2.0258 0.9728
6.4281 -1.8069 -2.0538 0.9724
6.9461 -0.0391 -2.1365 0.9713
7.0069 0.5888 -2.1628 0.9710
6.5457 3.0951 -2.2270 0.9702
