ply
format ascii 1.0
element vertex 1591
property float32 x
property float32 y
property float32 z
property float32 I
end_header
-10.8902 7.3705 -2.1663 0.9481
-11.1888 6.1930 -2.1068 0.9495
-11.3848 5.0305 -2.0505 0.9508
-11.4847 3.8903 -1.9976 0.9520
-11.4951 2.7782 -1.9482 0.9532
-10.7651 -1.3058 -1.7864 0.9570
-10.4175 -2.2222 -1.7548 0.9577
-10.0136 -3.0935 -1.7266 0.9584
-9.5576 -3.9185 -1.7017 0.9590
-9.0531 -4.6965 -1.6801 0.9595
-6.6141 -7.3257 -1.6259 0.9608
-5.9121 -7.8593 -1.6202 0.9609
-4.4127 -8.7734 -1.6178 0.9610
1.6534 -10.2310 -1.7073 0.9589
2.5994 -10.1933 -1.7330 0.9583
3.5583 -10.0865 -1.7620 0.9576
4.5271 -9.9075 -1.7945 0.9568
10.3910 -5.8938 -1.9680 0.9527
11.9310 -4.1806 -2.0827 0.9500
12.6168 -3.1890 -2.1439 0.9486
13.2303 -2.1094 -2.2071 0.9471
11.8631 0.2470 -1.9547 0.9530
9.0402 1.8301 -1.5195 0.9633
5.1771 3.9116 -1.0689 0.9740
4.6304 4.1984 -1.0297 0.9750
3.1915 5.0244 -0.9806 0.9762
2.7474 5.3235 -0.9869 0.9760
1.8322 5.9756 -1.0297 0.9750
1.2925 6.1227 -1.0309 0.9750
0.7588 6.3685 -1.0566 0.9743
-3.3804 13.8583 -2.3499 0.9438
-5.2116 15.2792 -2.6595 0.9367
-6.3830 14.3634 -2.5893 0.9383
-9.1498 11.1640 -2.3779 0.9432
-2.2665 2.3094 -0.5331 0.9870
-10.3712 8.8301 -2.2439 0.9463
-11.1286 6.4665 -2.1204 0.9492
-11.3480 5.2998 -2.0633 0.9505
-11.5004 3.0347 -1.9594 0.9529
-10.8376 -1.0857 -1.7943 0.9568
-8.0537 -5.9541 -1.6500 0.9602
-7.4319 -6.5987 -1.6373 0.9605
-5.3517 -8.2342 -1.6178 0.9610
-3.8064 -9.0684 -1.6202 0.9609
-2.9916 -9.4056 -1.6260 0.9608
-2.1509 -9.6878 -1.6348 0.9606
0.5088 -10.1867 -1.6802 0.9595
1.4351 -10.2302 -1.7018 0.9590
3.3337 -10.1177 -1.7549 0.9577
4.3005 -9.9559 -1.7866 0.9570
5.2746 -9.7194 -1.8217 0.9562
6.2518 -9.4047 -1.8604 0.9553
7.2275 -9.0085 -1.9027 0.9543
8.1961 -8.5273 -1.9485 0.9532
10.0859 -7.2963 -2.0507 0.9508
10.9635 -6.5244 -2.1017 0.9496
11.0041 -5.2796 -2.0107 0.9517
12.4630 -3.4281 -2.1294 0.9489
13.0944 -2.3688 -2.1922 0.9475
13.6433 -1.2244 -2.2566 0.9460
9.3042 1.6824 -1.5576 0.9624
5.8009 3.4515 -1.1120 0.9730
4.3698 4.5456 -1.0387 0.9748
1.9484 5.9118 -1.0254 0.9751
0.7129 3.0599 -0.5176 0.9873
-0.2680 6.7855 -1.1187 0.9728
-6.1207 14.5856 -2.6058 0.9379
-7.1982 13.6004 -2.5350 0.9395
-8.9755 11.4295 -2.3941 0.9428
-2.2141 2.3522 -0.5322 0.9870
-10.2535 9.1055 -2.2591 0.9459
-10.7141 7.9223 -2.1951 0.9474
-11.3058 5.5702 -2.0763 0.9502
-11.4497 4.4188 -2.0218 0.9515
-11.4663 2.1980 -1.9233 0.9538
-11.3517 1.1382 -1.8795 0.9548
-11.1633 0.1169 -1.8391 0.9558
-10.5869 -1.8005 -1.7691 0.9574
-9.7765 -3.5397 -1.7129 0.9587
-8.1930 -5.7968 -1.6534 0.9601
-6.9297 -7.0597 -1.6297 0.9607
-6.2436 -7.6168 -1.6225 0.9609
-5.5241 -8.1234 -1.6184 0.9610
-4.7731 -8.5789 -1.6173 0.9610
-3.9924 -8.9821 -1.6193 0.9609
-1.4898 -9.8659 -1.6437 0.9604
1.2175 -10.2258 -1.6965 0.9591
2.1565 -10.2193 -1.7206 0.9585
3.1097 -10.1451 -1.7480 0.9579
4.0744 -10.0002 -1.7789 0.9572
5.0471 -9.7814 -1.8132 0.9564
6.0239 -9.4853 -1.8511 0.9555
7.0004 -9.1084 -1.8925 0.9545
1.0377 -9.1871 -1.7378 0.9631
2.7279 -9.0949 -1.7847 0.9621
4.4453 -8.7442 -1.8438 0.9609
7.8322 -7.1893 -1.9983 0.9577
8.6376 -6.6096 -2.0443 0.9567
9.4193 -4.8351 -1.9901 0.9578
2.3064 -0.9340 -0.4677 0.9899
11.1710 -2.3326 -2.1450 0.9546
11.6224 -1.3589 -2.1994 0.9535
11.0467 0.6917 -2.0804 0.9560
8.5337 2.1015 -1.6519 0.9649
7.6148 2.6160 -1.5134 0.9678
6.7796 3.0307 -1.3958 0.9702
4.0132 4.7347 -1.1666 0.9751
0.8025 3.0684 -0.5961 0.9872
0.4905 6.3674 -1.2004 0.9743
-0.0847 6.7291 -1.2649 0.9730
-2.5023 12.9061 -2.4710 0.9479
-3.5706 12.3719 -2.4203 0.9489
-6.7589 11.0400 -2.4331 0.9487
-8.7628 8.2135 -2.2575 0.9523
-9.2274 7.2147 -2.2016 0.9534
-9.5945 6.2058 -2.1478 0.9546
-10.1732 2.2353 -1.9578 0.9585
-10.1193 1.2903 -1.9174 0.9593
-9.9956 0.3736 -1.8801 0.9601
-9.5574 -1.3621 -1.8146 0.9615
-9.2516 -2.1762 -1.7864 0.9621
-8.8931 -2.9519 -1.7612 0.9626
-8.0328 -4.3822 -1.7199 0.9634
-7.0022 -5.6432 -1.6904 0.9641
-6.4302 -6.2077 -1.6799 0.9643
-5.8236 -6.7271 -1.6724 0.9644
-4.5157 -7.6262 -1.6659 0.9646
-3.8186 -8.0040 -1.6669 0.9645
-3.0954 -8.3323 -1.6707 0.9645
-2.3479 -8.6099 -1.6774 0.9643
-1.5783 -8.8353 -1.6870 0.9641
-0.7884 -9.0070 -1.6994 0.9639
0.0197 -9.1232 -1.7148 0.9635
0.8436 -9.1819 -1.7331 0.9632
1.6809 -9.1811 -1.7544 0.9627
3.3847 -8.9921 -1.8059 0.9616
4.2446 -8.7990 -1.8363 0.9610
5.1049 -8.5371 -1.8696 0.9603
8.4522 -6.7518 -2.0333 0.9569
10.5149 -3.4399 -2.0795 0.9560
11.0549 -2.5501 -2.1324 0.9549
11.5242 -1.5917 -2.1867 0.9538
11.4296 0.4766 -2.1502 0.9545
9.9428 1.3114 -1.8850 0.9600
6.1996 3.2987 -1.3200 0.9718
3.4871 4.7377 -1.1057 0.9763
3.0333 5.0030 -1.0997 0.9765
2.5744 5.2544 -1.0998 0.9765
0.8964 3.1571 -0.6169 0.9867
0.6171 6.2937 -1.1886 0.9746
0.0549 6.6406 -1.2482 0.9733
-3.3283 12.5056 -2.4324 0.9487
-4.3366 11.8959 -2.3799 0.9498
-5.2597 11.2003 -2.3258 0.9509
-6.5644 11.2422 -2.4469 0.9484
-8.0512 9.4160 -2.3286 0.9508
-8.6402 8.4439 -2.2708 0.9520
-9.1279 7.4488 -2.2145 0.9532
-9.5174 6.4414 -2.1601 0.9543
-9.8124 5.4312 -2.1080 0.9554
-10.1752 2.4592 -1.9676 0.9583
-10.1383 1.5082 -1.9266 0.9591
-10.0304 0.5846 -1.8885 0.9599
-9.8564 -0.3081 -1.8535 0.9607
-9.6208 -1.1670 -1.8216 0.9613
-8.9812 -2.7746 -1.7668 0.9625
-8.1423 -4.2240 -1.7241 0.9634
-7.1304 -5.5052 -1.6932 0.9640
-5.9680 -6.6101 -1.6739 0.9644
-5.3365 -7.0941 -1.6686 0.9645
-1.7596 -8.7875 -1.6845 0.9642
-0.9742 -8.9719 -1.6963 0.9639
0.6502 -9.1734 -1.7286 0.9633
1.4846 -9.1867 -1.7491 0.9628
3.1847 -9.0274 -1.7993 0.9618
4.0440 -8.8501 -1.8289 0.9612
4.9046 -8.6044 -1.8616 0.9605
5.7622 -8.2879 -1.8973 0.9597
9.0557 -6.2676 -2.0700 0.9562
9.1053 -5.1646 -1.9676 0.9583
9.7670 -4.4379 -2.0164 0.9573
10.3800 -3.6372 -2.0673 0.9562
10.9349 -2.7638 -2.1200 0.9551
11.8297 -0.8133 -2.2288 0.9529
10.2560 1.1356 -1.9395 0.9589
9.0239 1.8268 -1.7305 0.9632
6.3687 3.2201 -1.3414 0.9714
5.6810 3.5427 -1.2584 0.9731
5.0765 3.8356 -1.1959 0.9744
4.6301 4.1981 -1.1747 0.9749
4.2462 4.6056 -1.1774 0.9748
3.1394 4.9424 -1.1006 0.9765
2.2166 5.4391 -1.1040 0.9764
0.6714 3.1804 -0.6110 0.9869
-0.3714 6.1475 -1.1576 0.9752
-5.0525 11.3694 -2.3385 0.9506
-7.1832 10.5652 -2.4014 0.9493
-7.8992 9.6381 -2.3423 0.9505
-2.2650 2.3079 -0.6078 0.9869
-9.0231 7.6823 -2.2274 0.9529
-10.1161 3.6636 -2.0223 0.9572
-10.1732 2.6845 -1.9776 0.9581
-10.0616 0.7973 -1.8971 0.9598
-9.6810 -0.9699 -1.8288 0.9612
-9.4010 -1.8013 -1.7992 0.9618
-9.0665 -2.5951 -1.7726 0.9623
-8.6815 -3.3496 -1.7490 0.9628
-7.7734 -4.7356 -1.7109 0.9636
-6.1106 -6.4906 -1.6756 0.9644
-5.4865 -6.9854 -1.6695 0.9645
-4.8313 -7.4335 -1.6664 0.9646
-3.4357 -8.1854 -1.6686 0.9645
-2.6993 -8.4869 -1.6739 0.9644
-1.9398 -8.7368 -1.6822 0.9642
1.2890 -9.1890 -1.7441 0.9629
2.1324 -9.1556 -1.7669 0.9625
4.7040 -8.6680 -1.8537 0.9607
7.2549 -7.5481 -1.9678 0.9583
8.0770 -7.0234 -2.0118 0.9574
8.8742 -6.4198 -2.0587 0.9564
9.6167 -4.6140 -2.0049 0.9575
10.2419 -3.8304 -2.0553 0.9565
10.8113 -2.9738 -2.1076 0.9554
11.7835 -0.0005 -2.2148 0.9532
10.5879 0.9493 -1.9981 0.9577
9.2870 1.6793 -1.7739 0.9623
8.2403 2.2659 -1.6063 0.9658
5.2100 3.7684 -1.2086 0.9742
4.6709 4.0610 -1.1634 0.9751
3.6980 4.6085 -1.1106 0.9762
2.7893 5.1387 -1.0990 0.9765
2.3260 5.3836 -1.1023 0.9764
0.7072 3.0353 -0.5858 0.9874
0.8644 6.1585 -1.1689 0.9750
0.3238 6.4714 -1.2179 0.9740
-0.2705 6.8476 -1.2881 0.9725
-0.8190 6.3165 -1.1972 0.9744
-2.8312 12.7566 -2.4561 0.9482
-3.8766 12.1918 -2.4046 0.9493
-4.8403 11.5344 -2.3512 0.9504
-5.7154 10.7987 -2.2965 0.9515
-10.1646 1.9485 -1.9453 0.9588
-10.0892 1.0116 -1.9059 0.9596
-9.7380 -0.7708 -1.8361 0.9610
-9.4712 -1.6107 -1.8058 0.9617
-8.7756 -3.1773 -1.7543 0.9627
-7.8882 -4.5827 -1.7147 0.9636
-6.8341 -5.8176 -1.6869 0.9641
-6.2514 -6.3686 -1.6774 0.9643
-4.9867 -7.3333 -1.6669 0.9645
-4.3090 -7.7449 -1.6659 0.9646
-3.6039 -8.1079 -1.6677 0.9645
-2.8732 -8.4211 -1.6724 0.9644
-2.1188 -8.6832 -1.6800 0.9643
1.0940 -9.1880 -1.7392 0.9630
4.5034 -8.7277 -1.8460 0.9608
6.2170 -8.0891 -1.9176 0.9593
0.1911 -8.3022 -1.7554 0.9666
0.9414 -8.3347 -1.7730 0.9663
3.2394 -8.0900 -1.8421 0.9650
4.0102 -7.8883 -1.8705 0.9645
5.5358 -7.2934 -1.9355 0.9633
6.2813 -6.8970 -1.9719 0.9626
7.7100 -5.8997 -2.0521 0.9611
8.3638 -4.2932 -1.9872 0.9623
2.3066 -0.9341 -0.5260 0.9899
9.8333 -2.0533 -2.1234 0.9598
10.6968 0.6698 -2.2655 0.9571
9.6280 1.4748 -2.0589 0.9610
8.5190 2.0979 -1.8545 0.9648
6.8158 3.0469 -1.5781 0.9699
5.4888 3.7495 -1.4051 0.9732
4.8973 4.0318 -1.3409 0.9744
4.5133 4.4490 -1.3396 0.9744
4.0084 4.7290 -1.3104 0.9750
2.0024 5.5675 -1.2507 0.9761
0.8050 3.0782 -0.6725 0.9871
0.4993 6.4819 -1.3742 0.9738
-0.0863 6.8568 -1.4495 0.9724
-2.1633 11.1577 -2.4024 0.9546
-3.0955 10.7256 -2.3597 0.9554
-4.7633 9.6166 -2.2685 0.9571
-5.4867 8.9620 -2.2212 0.9579
-6.1313 8.2554 -2.1737 0.9588
-7.2147 8.0898 -2.2913 0.9567
-8.9998 0.3364 -1.9037 0.9638
-8.8459 -0.4613 -1.8724 0.9644
-7.6978 -3.3453 -1.7742 0.9663
-6.8504 -4.5756 -1.7413 0.9669
-3.4775 -7.2889 -1.7071 0.9675
-2.8183 -7.5864 -1.7107 0.9675
-0.7167 -8.1881 -1.7374 0.9670
0.7655 -8.3320 -1.7686 0.9664
1.5236 -8.3219 -1.7883 0.9660
3.8307 -7.9409 -1.8636 0.9646
4.5989 -7.6908 -1.8942 0.9640
6.1089 -6.9954 -1.9632 0.9627
6.8405 -6.5471 -2.0015 0.9620
7.5489 -6.0302 -2.0423 0.9613
8.2274 -5.4441 -2.0854 0.9605
8.2306 -4.4442 -1.9772 0.9625
2.2963 -0.9861 -0.5283 0.9898
9.2898 -3.0391 -2.0661 0.9608
9.7379 -2.2463 -2.1125 0.9600
10.4298 -0.4988 -2.2072 0.9582
9.9232 1.3088 -2.1157 0.9599
6.9879 2.9505 -1.6034 0.9695
4.6345 4.3817 -1.3482 0.9743
4.1242 4.6648 -1.3162 0.9749
3.4904 4.7422 -1.2447 0.9762
3.0260 4.9910 -1.2338 0.9764
2.5691 5.2435 -1.2343 0.9764
0.6096 3.2186 -0.6924 0.9867
0.6276 6.4010 -1.3595 0.9740
0.0560 6.7649 -1.4300 0.9727
-2.8835 10.8344 -2.3699 0.9552
-5.3250 9.1197 -2.2323 0.9577
-7.0808 8.2811 -2.3031 0.9564
-8.4440 5.7149 -2.1553 0.9592
-8.7294 4.8317 -2.1090 0.9600
-8.9348 3.9479 -2.0648 0.9609
-9.1192 2.2040 -1.9831 0.9624
-8.6892 -1.0540 -1.8502 0.9648
-8.4375 -1.7999 -1.8236 0.9653
-8.1352 -2.5132 -1.7998 0.9658
-7.3922 -3.8349 -1.7603 0.9665
-6.9574 -4.4400 -1.7446 0.9668
-5.9752 -5.5324 -1.7213 0.9673
-5.4328 -6.0173 -1.7136 0.9674
-4.2569 -6.8587 -1.7063 0.9675
-2.9740 -7.5212 -1.7096 0.9675
-1.6009 -7.9949 -1.7235 0.9672
-0.8858 -8.1575 -1.7345 0.9670
-0.1547 -8.2685 -1.7481 0.9668
1.3461 -8.3293 -1.7835 0.9661
2.8797 -8.1630 -1.8297 0.9652
3.6510 -7.9901 -1.8569 0.9647
5.9357 -7.0902 -1.9546 0.9629
6.6718 -6.6577 -1.9923 0.9622
8.1155 -4.6031 -1.9722 0.9626
9.1769 -3.2156 -2.0554 0.9610
9.6390 -2.4363 -2.1016 0.9602
10.6115 0.2209 -2.2435 0.9575
10.2351 1.1333 -2.1767 0.9588
9.0075 1.8235 -1.9426 0.9631
8.0102 2.3834 -1.7666 0.9664
6.4409 3.2566 -1.5256 0.9709
5.7882 3.6095 -1.4419 0.9725
3.6007 4.6842 -1.2489 0.9761
2.6754 5.1840 -1.2331 0.9764
2.2181 5.4428 -1.2424 0.9763
0.6482 3.0703 -0.6633 0.9873
0.7533 6.3222 -1.3458 0.9743
0.1945 6.6759 -1.4117 0.9731
-0.3713 6.1472 -1.3018 0.9751
-1.1199 7.4200 -1.5862 0.9698
-2.6682 10.9383 -2.3799 0.9550
-5.8407 8.5906 -2.1958 0.9584
-6.9422 8.4704 -2.3150 0.9562
-2.2635 2.3063 -0.6831 0.9869
-8.3656 5.9200 -2.1663 0.9590
-8.6702 5.0380 -2.1196 0.9598
-9.1126 2.4046 -1.9922 0.9622
-9.0511 0.7172 -1.9192 0.9636
-8.7403 -0.8756 -1.8568 0.9647
-8.5008 -1.6288 -1.8296 0.9652
-8.2101 -2.3499 -1.8051 0.9657
-7.8713 -3.0370 -1.7834 0.9661
-7.4877 -3.6883 -1.7644 0.9665
-7.0623 -4.3024 -1.7480 0.9668
-5.5621 -5.9080 -1.7152 0.9674
-4.9957 -6.3604 -1.7096 0.9675
-3.7767 -7.1344 -1.7063 0.9675
-3.1285 -7.4535 -1.7087 0.9675
-2.4572 -7.7258 -1.7137 0.9674
-0.3264 -8.2474 -1.7447 0.9668
0.4154 -8.3177 -1.7604 0.9665
1.1690 -8.3336 -1.7788 0.9662
1.9315 -8.2932 -1.7999 0.9658
3.4712 -8.0359 -1.8503 0.9648
4.2413 -7.8153 -1.8796 0.9643
5.0063 -7.5310 -1.9116 0.9637
5.7615 -7.1813 -1.9461 0.9631
7.9152 -5.7260 -2.0650 0.9608
8.5464 -5.0860 -2.1022 0.9602
8.5320 -4.0936 -2.0003 0.9620
9.0609 -3.3887 -2.0449 0.9612
9.5366 -2.6232 -2.0907 0.9604
9.9509 -1.8001 -2.1376 0.9595
10.5616 -0.0004 -2.2325 0.9577
8.2264 2.2621 -1.8034 0.9657
7.3496 2.7480 -1.6586 0.9684
6.6016 3.1667 -1.5477 0.9705
5.9418 3.5353 -1.4615 0.9721
4.7307 4.1129 -1.3251 0.9747
4.3591 4.5345 -1.3296 0.9746
2.7818 5.1250 -1.2326 0.9764
2.3251 5.3815 -1.2392 0.9763
1.8620 5.6496 -1.2574 0.9760
0.7017 3.0119 -0.6537 0.9874
0.8766 6.2454 -1.3331 0.9745
-2.4496 11.0374 -2.3899 0.9548
-3.3637 10.5786 -2.3464 0.9556
-5.6889 8.7546 -2.2069 0.9582
-7.8746 6.9929 -2.2261 0.9579
-8.6065 5.2441 -2.1303 0.9596
-9.1021 2.6061 -2.0013 0.9620
-8.9597 0.0938 -1.8940 0.9640
-8.7884 -0.6957 -1.8635 0.9646
-8.5614 -1.4560 -1.8357 0.9651
-8.2822 -2.1848 -1.8106 0.9656
-7.5810 -3.5398 -1.7686 0.9664
-7.1651 -4.1626 -1.7516 0.9667
-6.2169 -5.2922 -1.7258 0.9672
-4.5412 -6.6781 -1.7071 0.9675
-3.9243 -7.0533 -1.7062 0.9675
-3.2818 -7.3832 -1.7079 0.9675
-2.6157 -7.6665 -1.7123 0.9674
-1.9282 -7.9019 -1.7193 0.9673
-1.2214 -8.0880 -1.7290 0.9671
0.9924 -8.3349 -1.7743 0.9663
1.7531 -8.3077 -1.7948 0.9659
2.5205 -8.2229 -1.8180 0.9654
3.2914 -8.0784 -1.8439 0.9650
4.0621 -7.8724 -1.8725 0.9644
4.8286 -7.6031 -1.9039 0.9638
5.5866 -7.2688 -1.9378 0.9632
0.1749 -7.5976 -1.7861 0.9693
0.8608 -7.6208 -1.8025 0.9690
3.6495 -7.1788 -1.8927 0.9675
6.9558 -5.3227 -2.0585 0.9647
7.5323 -4.7613 -2.0943 0.9640
8.4058 -2.5572 -2.0650 0.9645
8.7728 -1.8319 -2.1063 0.9638
9.3140 -0.2509 -2.1898 0.9624
9.5541 1.4633 -2.2716 0.9611
6.1238 3.4241 -1.6490 0.9716
3.4374 4.8801 -1.4029 0.9758
2.9675 5.1329 -1.3935 0.9759
-3.5029 9.0196 -2.2741 0.9610
-4.8708 7.9559 -2.1924 0.9624
-5.4561 7.3463 -2.1507 0.9631
-5.9724 6.6968 -2.1089 0.9638
-6.9162 6.4827 -2.2279 0.9618
-7.6511 4.9488 -2.1415 0.9633
-8.2096 2.5913 -2.0233 0.9652
-8.2487 1.0518 -1.9543 0.9664
-8.0496 -0.4198 -1.8944 0.9674
-7.8687 -1.1214 -1.8680 0.9679
-7.3600 -2.4430 -1.8226 0.9686
-6.6750 -3.6415 -1.7870 0.9692
-6.2733 -4.1901 -1.7730 0.9695
-5.8356 -4.7030 -1.7615 0.9697
-5.3644 -5.1788 -1.7524 0.9698
-4.8619 -5.6162 -1.7458 0.9699
-1.9592 -7.1846 -1.7502 0.9699
-1.3157 -7.3657 -1.7585 0.9697
-0.6564 -7.4997 -1.7693 0.9695
0.0164 -7.5849 -1.7826 0.9693
0.7001 -7.6200 -1.7984 0.9690
1.3921 -7.6035 -1.8167 0.9687
2.0895 -7.5338 -1.8375 0.9684
4.8646 -6.6945 -1.9449 0.9666
6.1864 -5.9210 -2.0126 0.9654
6.8137 -5.4429 -2.0496 0.9648
7.4092 -4.9027 -2.0880 0.9642
7.3979 -3.9945 -1.9759 0.9660
8.3121 -2.7193 -2.0554 0.9647
8.6925 -2.0052 -2.0966 0.9640
9.5431 1.2587 -2.2623 0.9612
6.9774 2.9461 -1.7800 0.9694
6.2757 3.3392 -1.6707 0.9712
4.6287 4.3762 -1.4971 0.9742
0.8767 3.0875 -0.7543 0.9869
0.6054 3.1964 -0.7646 0.9867
0.6331 6.4574 -1.5249 0.9737
-0.4969 6.1064 -1.4399 0.9751
-3.3274 9.1275 -2.2833 0.9609
-4.0571 8.6395 -2.2432 0.9615
-4.7246 8.0914 -2.2021 0.9622
-5.3258 7.4923 -2.1604 0.9629
-5.8583 6.8513 -2.1186 0.9636
-6.8110 6.6563 -2.2382 0.9616
-7.5808 5.1307 -2.1514 0.9631
-8.2544 1.9950 -1.9958 0.9657
-7.4288 -2.2950 -1.8274 0.9686
-5.9407 -4.5867 -1.7639 0.9696
-4.9818 -5.5177 -1.7471 0.9699
-2.7276 -6.8981 -1.7434 0.9700
-2.1068 -7.1357 -1.7486 0.9699
-1.4673 -7.3277 -1.7564 0.9698
-0.8114 -7.4727 -1.7666 0.9696
-0.1416 -7.5694 -1.7793 0.9694
2.6259 -7.4435 -1.8551 0.9681
4.7062 -6.7690 -1.9376 0.9667
5.3801 -6.4265 -1.9698 0.9661
6.6699 -5.5598 -2.0408 0.9649
7.2799 -4.1292 -1.9670 0.9662
8.6090 -2.1760 -2.0869 0.9642
8.9438 -1.4260 -2.1285 0.9635
7.9969 2.3794 -1.9609 0.9663
5.7901 3.6107 -1.6037 0.9724
3.6611 4.7628 -1.4119 0.9756
3.1802 5.0066 -1.3940 0.9759
1.0244 3.3411 -0.8213 0.9857
0.6403 3.0330 -0.7285 0.9873
0.1951 6.6960 -1.5744 0.9729
-0.3713 6.1472 -1.4474 0.9750
-3.1488 9.2317 -2.2924 0.9607
-4.5748 8.2240 -2.2118 0.9621
-5.7404 7.0041 -2.1283 0.9635
-7.5065 5.3120 -2.1612 0.9629
-7.7970 4.5306 -2.1194 0.9636
-8.1636 2.9565 -2.0406 0.9650
-8.2618 1.4057 -1.9696 0.9662
-8.2178 0.6512 -1.9374 0.9667
-7.9595 -0.7974 -1.8800 0.9677
-7.4952 -2.1453 -1.8323 0.9685
-7.1935 -2.7755 -1.8121 0.9688
-6.0440 -4.4684 -1.7665 0.9696
-5.5881 -4.9616 -1.7563 0.9698
-5.1000 -5.4171 -1.7486 0.9699
-4.5818 -5.8335 -1.7433 0.9700
-4.0359 -6.2097 -1.7406 0.9700
-1.6179 -7.2871 -1.7543 0.9698
1.0686 -7.6177 -1.8079 0.9689
1.7638 -7.5730 -1.8275 0.9686
2.4628 -7.4744 -1.8495 0.9682
3.1621 -7.3203 -1.8741 0.9678
5.8852 -6.1230 -1.9960 0.9657
7.6369 -4.5448 -2.0886 0.9641
8.1161 -3.0354 -2.0365 0.9650
8.8713 -1.6048 -2.1188 0.9636
9.3706 -0.0004 -2.2023 0.9622
7.3381 2.7437 -1.8412 0.9683
5.9336 3.5305 -1.6227 0.9720
5.3396 3.8622 -1.5488 0.9733
3.7746 4.7040 -1.4175 0.9755
3.2949 4.9558 -1.3987 0.9758
2.8279 5.2098 -1.3932 0.9759
2.3638 5.4711 -1.4007 0.9758
0.6965 2.9893 -0.7214 0.9875
-0.2746 6.9513 -1.6350 0.9718
-2.9673 9.3320 -2.3014 0.9606
-4.4214 8.3538 -2.2214 0.9619
-5.0539 7.7774 -2.1799 0.9626
-5.6187 7.1548 -2.1381 0.9633
-7.4281 5.4926 -2.1712 0.9628
-7.7358 4.7135 -2.1290 0.9635
-8.2317 2.3569 -2.0124 0.9654
-8.2334 0.8255 -1.9447 0.9666
-8.0007 -0.6333 -1.8862 0.9676
-7.8045 -1.3273 -1.8606 0.9680
-7.2678 -2.6314 -1.8166 0.9687
-6.9332 -3.2373 -1.7983 0.9690
-6.1454 -4.3481 -1.7693 0.9695
-5.6974 -4.8500 -1.7585 0.9697
-5.2165 -5.3144 -1.7502 0.9699
-4.1655 -6.1257 -1.7410 0.9700
-3.5998 -6.4701 -1.7401 0.9700
-3.0101 -6.7722 -1.7418 0.9700
-2.3987 -7.0305 -1.7459 0.9699
-1.7676 -7.2439 -1.7524 0.9698
-1.1191 -7.4110 -1.7615 0.9697
0.9073 -7.6205 -1.8037 0.9690
1.6013 -7.5882 -1.8227 0.9686
2.2996 -7.5023 -1.8442 0.9683
2.9992 -7.3613 -1.8681 0.9679
4.3873 -6.9082 -1.9234 0.9669
0.1611 -6.9974 -1.8122 0.9715
2.0693 -6.8993 -1.8650 0.9707
2.7092 -6.7661 -1.8871 0.9703
3.3454 -6.5807 -1.9114 0.9700
4.5917 -6.0496 -1.9664 0.9691
6.8401 -4.3237 -2.0952 0.9671
2.3070 -0.9343 -0.6445 0.9898
7.5943 -2.3103 -2.0553 0.9677
8.1697 -0.9552 -2.1297 0.9666
7.5783 2.6035 -2.0747 0.9674
6.1152 3.4193 -1.8140 0.9715
4.5020 4.4379 -1.6368 0.9742
3.9986 4.7174 -1.6012 0.9748
3.4527 4.9019 -1.5524 0.9755
2.9837 5.1609 -1.5435 0.9757
1.8110 3.9000 -1.1133 0.9824
0.8029 3.0702 -0.8217 0.9870
-0.6283 6.1358 -1.5970 0.9748
-1.6967 8.7511 -2.3080 0.9638
-2.4372 8.4446 -2.2757 0.9643
-3.1340 8.0699 -2.2415 0.9649
-4.9097 6.6106 -2.1320 0.9665
-6.2450 5.8535 -2.2162 0.9653
-6.6261 5.1808 -2.1778 0.9658
-6.9376 4.4873 -2.1393 0.9664
-7.4859 0.2798 -1.9396 0.9695
-7.2210 -1.0291 -1.8885 0.9703
-6.1474 -3.3537 -1.8131 0.9715
-5.3805 -4.3362 -1.7892 0.9719
-3.4815 -5.8796 -1.7692 0.9722
-2.9437 -6.1700 -1.7700 0.9721
-2.3849 -6.4197 -1.7732 0.9721
-1.2133 -6.7921 -1.7864 0.9719
-0.6050 -6.9123 -1.7966 0.9717
1.2804 -6.9934 -1.8408 0.9711
1.9200 -6.9229 -1.8601 0.9708
2.5602 -6.8017 -1.8817 0.9704
3.1976 -6.6286 -1.9055 0.9700
4.4490 -6.1227 -1.9596 0.9692
5.6411 -5.3992 -2.0218 0.9683
6.2031 -4.9552 -2.0556 0.9677
6.7301 -4.4533 -2.0895 0.9672
6.7116 -3.6240 -1.9749 0.9690
7.5130 -2.4579 -2.0467 0.9679
7.8417 -1.8089 -2.0837 0.9673
8.3262 -0.3982 -2.1583 0.9661
8.5430 1.1268 -2.2311 0.9650
7.7770 2.4917 -2.1144 0.9668
6.2667 3.3344 -1.8380 0.9711
5.6422 3.6840 -1.7447 0.9725
5.0730 4.0019 -1.6730 0.9737
3.5630 4.8408 -1.5563 0.9755
3.0926 5.1008 -1.5445 0.9757
1.9002 3.8784 -1.1182 0.9823
2.1538 5.6175 -1.5577 0.9754
0.6323 6.4490 -1.6778 0.9736
-0.4963 6.0999 -1.5846 0.9750
-1.5186 8.8120 -2.3152 0.9637
-2.2682 8.5224 -2.2834 0.9642
-4.2412 7.2636 -2.1778 0.9658
-4.7903 6.7389 -2.1407 0.9664
-2.3670 2.3133 -0.8568 0.9864
-6.8709 4.6502 -2.1481 0.9663
-7.1317 3.9474 -2.1105 0.9669
-7.3276 3.2378 -2.0742 0.9674
-7.4605 2.5271 -2.0395 0.9680
-7.5459 1.1225 -1.9753 0.9690
-7.4080 -0.2315 -1.9190 0.9698
-7.0682 -1.5078 -1.8713 0.9706
-5.8696 -3.7458 -1.8029 0.9716
-5.0515 -4.6772 -1.7825 0.9720
-3.6037 -5.8062 -1.7694 0.9722
-2.5169 -6.3652 -1.7722 0.9721
-1.3531 -6.7577 -1.7844 0.9719
-0.7480 -6.8883 -1.7940 0.9718
-0.1304 -6.9736 -1.8059 0.9716
1.1317 -7.0026 -1.8366 0.9711
3.6822 -6.4600 -1.9253 0.9697
4.3055 -6.1928 -1.9529 0.9693
5.5064 -5.4948 -2.0141 0.9684
6.6142 -4.5778 -2.0827 0.9673
7.4290 -2.6031 -2.0382 0.9680
8.4432 0.1758 -2.1866 0.9657
8.5328 0.9448 -2.2228 0.9651
8.5468 1.7302 -2.2578 0.9646
7.1437 2.8422 -1.9906 0.9687
6.4223 3.2472 -1.8633 0.9707
5.7822 3.6057 -1.7643 0.9722
5.2016 3.9301 -1.6880 0.9734
4.2306 4.5887 -1.6160 0.9745
3.1764 5.0006 -1.5339 0.9758
1.0260 3.3463 -0.9062 0.9856
-1.1165 7.3977 -1.9371 0.9696
-2.0969 8.5964 -2.2910 0.9641
-2.8149 8.2527 -2.2576 0.9646
-3.4860 7.8445 -2.2226 0.9652
-4.6675 6.8651 -2.1494 0.9663
-5.1708 6.3092 -2.1121 0.9669
-2.2604 2.3032 -0.8355 0.9868
-6.4581 5.4984 -2.1961 0.9656
-6.8006 4.8125 -2.1571 0.9662
-7.0767 4.1121 -2.1192 0.9667
-7.2876 3.4035 -2.0825 0.9673
-7.5210 1.9846 -2.0140 0.9684
-7.5479 1.2843 -1.9824 0.9689
-7.4349 -0.0772 -1.9251 0.9697
-7.3004 -0.7314 -1.8997 0.9701
-6.6176 -2.5533 -1.8365 0.9711
-6.3059 -3.1062 -1.8200 0.9714
-5.5714 -4.1189 -1.7939 0.9718
-4.7049 -4.9975 -1.7771 0.9720
-4.2278 -5.3829 -1.7722 0.9721
-1.4922 -6.7208 -1.7825 0.9720
-0.2754 -6.9578 -1.8029 0.9716
0.3500 -7.0073 -1.8166 0.9714
0.9832 -7.0092 -1.8326 0.9712
2.2619 -6.8646 -1.8714 0.9706
5.3705 -5.5875 -2.0066 0.9685
6.5010 -3.8688 -1.9587 0.9692
6.9424 -3.3309 -1.9937 0.9687
7.6950 -2.1166 -2.0664 0.9676
8.2356 -0.7391 -2.1409 0.9664
8.5185 0.7638 -2.2144 0.9653
8.1984 2.2544 -2.2015 0.9655
6.5823 3.1574 -1.8902 0.9703
5.9254 3.5256 -1.7852 0.9719
5.3326 3.8570 -1.7040 0.9732
4.3484 4.5233 -1.6246 0.9744
3.7856 4.7176 -1.5661 0.9753
3.3111 4.9801 -1.5484 0.9756
2.8433 5.2383 -1.5432 0.9757
2.3747 5.4962 -1.5502 0.9756
1.8977 5.7579 -1.5697 0.9753
0.6914 2.9675 -0.7889 0.9875
0.8858 6.3109 -1.6500 0.9740
0.3308 6.6130 -1.7144 0.9730
-0.2742 6.9415 -1.7987 0.9717
-0.8138 6.2764 -1.6387 0.9742
-2.6515 8.3389 -2.2656 0.9645
-3.3341 7.9450 -2.2309 0.9650
-7.2442 3.5691 -2.0909 0.9672
-7.5063 2.1492 -2.0216 0.9683
-7.5468 1.4466 -1.9896 0.9687
-6.9463 -1.8324 -1.8600 0.9708
-6.6846 -2.4202 -1.8407 0.9711
-5.6642 -4.0076 -1.7965 0.9717
-5.2537 -4.4723 -1.7864 0.9719
-4.8121 -4.9023 -1.7786 0.9720
-4.3415 -5.2963 -1.7732 0.9721
-3.3222 -5.9711 -1.7692 0.9722
-1.6304 -6.6816 -1.7807 0.9720
-0.4198 -6.9396 -1.8001 0.9717
0.2034 -7.0000 -1.8132 0.9715
2.7523 -6.7552 -1.8886 0.9703
4.0163 -6.3241 -1.9397 0.9695
4.6329 -6.0279 -1.9684 0.9691
0.1492 -6.4795 -1.8348 0.9734
0.7331 -6.4906 -1.8491 0.9732
1.3217 -6.4560 -1.8656 0.9730
2.5011 -6.2462 -1.9047 0.9724
3.0853 -6.0691 -1.9274 0.9721
3.6614 -5.8428 -1.9520 0.9717
4.7730 -5.2409 -2.0067 0.9710
5.3001 -4.8651 -2.0367 0.9705
6.2269 -3.1964 -1.9815 0.9713
2.3072 -0.9344 -0.7047 0.9897
7.4188 -0.8674 -2.1145 0.9694
7.5849 -0.2043 -2.1480 0.9689
7.7267 1.1835 -2.2129 0.9680
7.6950 1.8950 -2.2435 0.9676
6.1065 3.4144 -1.9806 0.9713
5.4977 3.7555 -1.8848 0.9727
3.9936 4.7116 -1.7485 0.9747
3.4485 4.8959 -1.6953 0.9754
2.9801 5.1546 -1.6856 0.9756
2.0399 5.6716 -1.7063 0.9753
0.8042 3.0750 -0.8998 0.9869
-1.5290 7.8861 -2.2741 0.9672
-2.1993 7.6205 -2.2453 0.9676
-2.8323 7.2930 -2.2148 0.9680
-3.4226 6.9099 -2.1830 0.9685
-4.4580 6.0024 -2.1166 0.9694
-6.3395 4.1004 -2.1373 0.9691
-6.5737 3.4615 -2.1032 0.9696
-6.9386 0.8847 -1.9802 0.9713
-6.4829 -1.5249 -1.8854 0.9727
-4.5877 -4.4290 -1.8052 0.9738
-4.1603 -4.8057 -1.7994 0.9739
-3.7068 -5.1478 -1.7958 0.9740
-3.2295 -5.4541 -1.7944 0.9740
-2.7305 -5.7233 -1.7952 0.9740
-2.2119 -5.9541 -1.7981 0.9739
-1.6759 -6.1455 -1.8033 0.9739
0.0140 -6.4705 -1.8318 0.9735
2.3640 -6.2805 -1.8998 0.9725
3.5280 -5.9000 -1.9461 0.9718
4.0951 -5.6356 -1.9721 0.9715
5.6875 -4.5433 -2.0607 0.9702
6.1590 -4.0754 -2.0907 0.9698
2.2899 -0.9834 -0.7055 0.9897
6.8470 -2.2400 -2.0394 0.9705
7.1352 -1.6459 -2.0730 0.9700
7.5516 -0.3612 -2.1402 0.9691
7.6704 0.3198 -2.1733 0.9686
7.7240 1.0187 -2.2055 0.9681
6.2577 3.3296 -2.0067 0.9710
5.6344 3.6790 -1.9050 0.9724
5.0664 3.9966 -1.8268 0.9735
2.1511 5.6106 -1.7011 0.9753
0.8834 3.1114 -0.9156 0.9866
0.6008 3.1720 -0.9139 0.9867
0.6315 6.4405 -1.8320 0.9735
-0.4958 6.0937 -1.7308 0.9749
-1.3680 7.9385 -2.2805 0.9671
-2.0462 7.6881 -2.2522 0.9675
-3.2891 7.0039 -2.1905 0.9683
-3.8435 6.5824 -2.1578 0.9688
-4.3479 6.1166 -2.1245 0.9693
-4.7997 5.6133 -2.0908 0.9698
-6.8448 2.3186 -2.0459 0.9704
-6.9201 1.6725 -2.0154 0.9708
-6.3141 -1.9506 -1.8708 0.9729
-6.0588 -2.4841 -1.8538 0.9731
-5.7657 -2.9911 -1.8388 0.9734
-5.4373 -3.4699 -1.8260 0.9735
-4.6834 -4.3363 -1.8069 0.9738
-4.2623 -4.7209 -1.8006 0.9739
-3.3428 -5.3859 -1.7945 0.9740
-2.8487 -5.6639 -1.7948 0.9740
-2.3345 -5.9038 -1.7972 0.9740
-0.6931 -6.3833 -1.8177 0.9737
-0.1208 -6.4591 -1.8289 0.9735
1.0469 -6.4779 -1.8576 0.9731
1.6368 -6.4186 -1.8752 0.9728
3.3940 -5.9544 -1.9403 0.9719
3.9641 -5.7017 -1.9659 0.9715
5.0572 -5.0465 -2.0225 0.9707
5.5714 -4.6442 -2.0533 0.9703
6.4279 -2.9207 -1.9987 0.9711
6.7729 -2.3732 -2.0317 0.9706
7.3214 -1.1673 -2.0988 0.9696
7.6484 0.1592 -2.1657 0.9687
5.7742 3.6007 -1.9264 0.9721
5.1947 3.9249 -1.8432 0.9733
3.1725 4.9945 -1.6750 0.9757
2.7311 5.2918 -1.6858 0.9755
0.6324 2.9955 -0.8667 0.9874
0.7591 6.3710 -1.8164 0.9737
0.1946 6.6778 -1.8912 0.9726
-1.8910 7.7524 -2.2590 0.9674
-4.2349 6.2288 -2.1323 0.9692
-4.6992 5.7337 -2.0987 0.9697
-5.8819 5.0079 -2.1869 0.9684
-6.2098 4.3944 -2.1536 0.9689
-6.4719 3.7606 -2.1190 0.9694
-6.8193 2.4696 -2.0532 0.9703
-6.9221 0.5485 -1.9658 0.9715
-6.1218 -2.3620 -1.8576 0.9731
-5.8373 -2.8754 -1.8421 0.9733
-5.5169 -3.3609 -1.8288 0.9735
-4.3629 -4.6342 -1.8018 0.9739
-3.9213 -4.9926 -1.7972 0.9740
-3.4549 -5.3158 -1.7948 0.9740
-2.4560 -5.8513 -1.7965 0.9740
-1.9278 -6.0612 -1.8006 0.9739
-1.3834 -6.2310 -1.8069 0.9738
-0.2551 -6.4453 -1.8261 0.9735
0.3240 -6.4876 -1.8389 0.9734
0.9097 -6.4850 -1.8538 0.9731
1.4991 -6.4366 -1.8709 0.9729
2.0894 -6.3413 -1.8901 0.9726
2.6773 -6.1981 -1.9113 0.9723
4.9338 -5.1332 -2.0156 0.9708
5.4538 -4.7424 -2.0460 0.9704
5.9472 -4.3023 -2.0780 0.9699
5.9474 -3.5393 -1.9593 0.9716
7.2681 -1.3148 -2.0910 0.9698
7.4750 -0.6708 -2.1246 0.9693
7.6229 -0.0003 -2.1580 0.9688
7.7246 1.3967 -2.2222 0.9679
7.6715 2.1095 -2.2524 0.9675
6.5725 3.1528 -2.0636 0.9702
5.9171 3.5206 -1.9492 0.9718
5.3254 3.8519 -1.8606 0.9730
4.3429 4.5176 -1.7740 0.9743
3.3071 4.9741 -1.6910 0.9755
2.8399 5.2319 -1.6852 0.9756
2.3718 5.4895 -1.6929 0.9754
1.8954 5.7508 -1.7141 0.9751
0.6899 2.9611 -0.8607 0.9874
0.8846 6.3027 -1.8017 0.9739
-0.2738 6.9317 -1.9639 0.9716
-0.8121 6.2633 -1.7879 0.9741
-2.3938 7.5283 -2.2363 0.9677
-3.0145 7.1834 -2.2054 0.9681
-5.3863 4.7832 -2.0393 0.9705
-6.1402 4.5402 -2.1618 0.9688
-6.6326 3.2678 -2.0932 0.9697
-6.7906 2.6207 -2.0606 0.9702
-6.8918 1.9732 -2.0294 0.9706
-6.9311 0.6950 -1.9720 0.9715
-6.8735 0.0720 -1.9459 0.9718
-6.7675 -0.5357 -1.9218 0.9722
-6.4196 -1.6934 -1.8795 0.9728
-6.1827 -2.2385 -1.8615 0.9730
-5.9069 -2.7581 -1.8455 0.9733
-5.2483 -3.7134 -1.8200 0.9736
-4.8700 -4.1457 -1.8106 0.9738
-4.0266 -4.9122 -1.7981 0.9739
-3.5658 -5.2437 -1.7952 0.9740
-3.0817 -5.5389 -1.7944 0.9740
-2.5766 -5.7967 -1.7958 0.9740
-1.5117 -6.1951 -1.8052 0.9738
-0.9564 -6.3332 -1.8132 0.9737
0.7727 -6.4897 -1.8502 0.9732
1.3615 -6.4521 -1.8668 0.9730
2.5406 -6.2358 -1.9062 0.9724
3.1245 -6.0554 -1.9290 0.9721
3.6998 -5.8257 -1.9537 0.9717
1.2281 -5.9988 -1.8834 0.9747
2.8601 -5.6261 -1.9412 0.9739
4.4113 -4.8438 -2.0151 0.9730
5.3499 -4.0938 -2.0720 0.9722
6.3466 -1.9307 -2.0404 0.9726
6.5913 -1.3763 -2.0711 0.9722
6.9296 -0.1867 -2.1322 0.9714
7.0153 0.4392 -2.1620 0.9710
6.9010 2.3708 -2.2444 0.9699
6.0977 3.4095 -2.1488 0.9712
5.4901 3.7504 -2.0450 0.9726
4.9337 4.0617 -1.9656 0.9736
4.4526 4.3891 -1.9230 0.9742
3.9886 4.7057 -1.8974 0.9745
2.0373 5.6645 -1.8516 0.9751
1.0423 6.2080 -1.9362 0.9740
0.5009 6.5024 -2.0059 0.9731
-0.0858 6.8204 -2.0980 0.9719
-0.6266 6.1190 -1.8919 0.9746
-2.0015 6.9350 -2.2201 0.9702
-2.5807 6.6451 -2.1926 0.9706
-3.6227 5.9174 -2.1341 0.9714
-4.4859 5.0300 -2.0730 0.9722
-4.8445 4.5409 -2.0423 0.9726
-5.5455 4.3359 -2.1652 0.9710
-5.8303 3.7711 -2.1357 0.9714
-6.0536 3.1876 -2.1043 0.9718
-6.2229 2.5959 -2.0739 0.9722
-6.3393 2.0010 -2.0447 0.9726
-6.4043 1.4071 -2.0168 0.9729
-6.3073 -0.3289 -1.9426 0.9739
-6.0193 -1.4159 -1.9019 0.9745
-5.2951 -2.8887 -1.8553 0.9751
-4.9846 -3.3293 -1.8437 0.9752
-4.6430 -3.7419 -1.8341 0.9754
-4.2726 -4.1248 -1.8266 0.9755
-3.4535 -4.7959 -1.8178 0.9756
-3.0090 -5.0815 -1.8164 0.9756
-1.5609 -5.7238 -1.8248 0.9755
-0.5218 -5.9615 -1.8407 0.9753
0.5546 -6.0369 -1.8646 0.9749
1.1005 -6.0111 -1.8796 0.9748
5.6452 -3.0481 -1.9733 0.9735
2.2877 -0.9825 -0.7658 0.9896
6.2829 -2.0554 -2.0333 0.9727
6.5385 -1.5083 -2.0639 0.9723
6.9013 -0.3301 -2.1251 0.9715
7.0006 0.2919 -2.1551 0.9711
7.0404 0.9286 -2.1842 0.9707
6.9307 2.2206 -2.2385 0.9700
6.7778 2.8618 -2.2629 0.9697
6.2485 3.3247 -2.1770 0.9708
3.0851 5.0883 -1.8303 0.9754
1.8165 3.7075 -1.2699 0.9829
2.1485 5.6036 -1.8459 0.9752
0.6306 6.4319 -1.9878 0.9733
0.0558 6.7437 -2.0743 0.9722
-0.4953 6.0875 -1.8786 0.9748
-2.9998 6.3879 -2.1706 0.9709
-3.9760 5.5935 -2.1108 0.9717
-6.0063 3.3245 -2.1115 0.9717
-6.1881 2.7343 -2.0809 0.9721
-6.3936 1.5453 -2.0232 0.9728
-6.4202 0.9551 -1.9964 0.9732
-6.2167 -0.7541 -1.9261 0.9741
-6.0613 -1.2930 -1.9063 0.9744
-5.8658 -1.8121 -1.8883 0.9746
-5.6322 -2.3092 -1.8723 0.9748
-5.0598 -3.2290 -1.8462 0.9752
-3.9703 -4.3974 -1.8223 0.9755
-3.5539 -4.7244 -1.8184 0.9756
-3.1145 -5.0180 -1.8166 0.9756
-0.6452 -5.9420 -1.8384 0.9753
-0.1124 -6.0101 -1.8489 0.9752
0.9730 -6.0209 -1.8759 0.9748
2.0668 -5.8587 -1.9108 0.9743
3.6694 -5.2778 -1.9771 0.9735
4.6712 -4.6614 -2.0297 0.9728
5.1402 -4.2847 -2.0583 0.9724
5.5793 -3.8615 -2.0870 0.9720
5.9081 -2.6845 -1.9960 0.9732
6.4830 -1.6386 -2.0568 0.9724
6.7021 -1.0686 -2.0875 0.9720
6.9827 0.1454 -2.1482 0.9712
7.0366 0.7791 -2.1775 0.9708
7.0288 1.4229 -2.2058 0.9704
6.8194 2.7132 -2.2574 0.9698
6.4034 3.2376 -2.2070 0.9704
5.7661 3.5957 -2.0901 0.9720
5.1878 3.9196 -1.9999 0.9732
4.6526 4.2186 -1.9317 0.9741
4.2200 4.5772 -1.9149 0.9743
3.1686 4.9884 -1.8177 0.9756
2.7277 5.2853 -1.8294 0.9754
0.6275 2.9726 -0.9345 0.9874
-0.3713 6.1471 -1.8942 0.9746
-1.0952 7.2567 -2.2573 0.9698
-1.7200 7.0511 -2.2324 0.9701
-2.3150 6.7870 -2.2056 0.9704
-3.3949 6.1030 -2.1480 0.9712
-5.0154 4.2701 -2.0260 0.9728
-5.7077 4.0391 -2.1507 0.9712
-6.1506 2.8725 -2.0879 0.9720
-6.4184 1.0921 -2.0025 0.9731
-6.3497 -0.0660 -1.9531 0.9738
-6.1012 -1.1690 -1.9107 0.9743
-5.9148 -1.6930 -1.8923 0.9746
-5.6900 -2.1954 -1.8759 0.9748
-5.4288 -2.6741 -1.8614 0.9750
-5.1334 -3.1273 -1.8488 0.9752
-4.0638 -4.3165 -1.8235 0.9755
-3.6531 -4.6511 -1.8191 0.9756
-2.7632 -5.2198 -1.8166 0.9756
-2.2881 -5.4512 -1.8184 0.9756
-1.7957 -5.6459 -1.8223 0.9755
-1.2883 -5.8026 -1.8282 0.9754
-0.7681 -5.9203 -1.8362 0.9753
0.8456 -6.0285 -1.8724 0.9748
2.4834 -5.7492 -1.9262 0.9741
3.0208 -5.5663 -1.9479 0.9738
3.5482 -5.3377 -1.9714 0.9735
4.0621 -5.0631 -1.9966 0.9732
4.5585 -4.7426 -2.0233 0.9728
5.0331 -4.3766 -2.0515 0.9725
5.4818 -3.9656 -2.0810 0.9721
5.4752 -3.2583 -1.9597 0.9737
6.4250 -1.7673 -2.0496 0.9725
6.6555 -1.2040 -2.0803 0.9721
7.0294 0.6303 -2.1708 0.9709
6.8573 2.5640 -2.2518 0.9698
6.5626 3.1480 -2.2387 0.9700
5.9087 3.5156 -2.1148 0.9716
5.3182 3.8467 -2.0188 0.9729
3.7762 4.7060 -1.8558 0.9751
3.3030 4.9680 -1.8349 0.9753
2.8364 5.2255 -1.8288 0.9754
1.8930 5.7436 -1.8601 0.9750
0.6918 2.9691 -0.9377 0.9873
0.8835 6.2944 -1.9550 0.9738
-0.2734 6.9218 -2.1307 0.9714
-2.1792 6.8535 -2.2120 0.9704
-2.7477 6.5477 -2.1841 0.9707
-3.2774 6.1924 -2.1550 0.9711
-3.7644 5.7931 -2.1250 0.9715
-2.2174 2.3557 -0.9951 0.9866
-5.6419 4.1718 -2.1582 0.9711
-5.9031 3.5969 -2.1262 0.9715
-6.1101 3.0103 -2.0950 0.9719
-6.2634 2.4172 -2.0650 0.9723
-6.3642 1.8222 -2.0361 0.9727
-6.3673 0.0667 -1.9586 0.9737
-6.2748 -0.4967 -1.9360 0.9740
-5.9618 -1.5727 -1.8965 0.9745
-5.7457 -2.0803 -1.8795 0.9748
-5.4928 -2.5647 -1.8646 0.9749
-5.2052 -3.0240 -1.8516 0.9751
-4.8851 -3.4564 -1.8406 0.9753
-4.1559 -4.2338 -1.8248 0.9755
-3.3221 -4.8854 -1.8171 0.9756
-2.8712 -5.1606 -1.8164 0.9756
-2.4005 -5.4005 -1.8178 0.9756
-1.9119 -5.6039 -1.8212 0.9755
-0.8904 -5.8964 -1.8342 0.9754
-0.3619 -5.9834 -1.8437 0.9752
0.1752 -6.0295 -1.8553 0.9751
0.7184 -6.0336 -1.8689 0.9749
1.2650 -5.9948 -1.8845 0.9747
1.8123 -5.9123 -1.9020 0.9745
1.1458 -5.5969 -1.8990 0.9762
2.1622 -5.3999 -1.9335 0.9758
3.6338 -4.7875 -1.9979 0.9750
4.0966 -4.4982 -2.0224 0.9747
4.9582 -3.7941 -2.0753 0.9740
5.2965 -2.7187 -1.9790 0.9752
2.3077 -0.9345 -0.8276 0.9896
5.8557 -1.7814 -2.0345 0.9745
6.0744 -1.2684 -2.0627 0.9742
6.3715 -0.1716 -2.1187 0.9735
6.4430 0.4034 -2.1459 0.9732
6.3184 2.1707 -2.2208 0.9722
6.1587 2.7531 -2.2424 0.9720
5.9393 3.3209 -2.2619 0.9717
5.4825 3.7452 -2.2070 0.9724
4.9271 4.0563 -2.1214 0.9735
4.3014 4.2401 -2.0077 0.9749
3.4399 4.8837 -1.9857 0.9751
1.7770 3.8267 -1.4025 0.9824
1.0409 6.1999 -2.0897 0.9738
0.5002 6.4935 -2.1649 0.9729
-0.0857 6.8076 -2.2631 0.9717
-1.2725 6.5629 -2.2222 0.9722
-1.8342 6.3553 -2.1988 0.9725
-3.3307 5.4404 -2.1204 0.9735
-3.7536 5.0539 -2.0926 0.9738
-5.3913 3.4872 -2.1343 0.9733
-5.6039 2.9508 -2.1052 0.9737
-5.8808 1.8562 -2.0499 0.9743
-5.9665 0.7608 -1.9994 0.9750
-5.6123 -1.3202 -1.9165 0.9760
-5.4249 -1.8007 -1.9000 0.9762
-5.2019 -2.2606 -1.8854 0.9764
-4.9453 -2.6979 -1.8726 0.9765
-4.6572 -3.1107 -1.8616 0.9767
-3.9944 -3.8562 -1.8455 0.9769
-3.6237 -4.1859 -1.8404 0.9769
-2.8141 -4.7524 -1.8359 0.9770
-2.3791 -4.9867 -1.8366 0.9770
-0.9788 -5.4798 -1.8503 0.9768
-0.4876 -5.5706 -1.8588 0.9767
0.0121 -5.6230 -1.8691 0.9766
0.5178 -5.6362 -1.8814 0.9764
1.0269 -5.6091 -1.8955 0.9763
1.5368 -5.5411 -1.9114 0.9761
4.4382 -4.2478 -2.0421 0.9744
4.8629 -3.8846 -2.0689 0.9741
5.2218 -2.8195 -1.9726 0.9753
2.2855 -0.9815 -0.8268 0.9896
6.0274 -1.3904 -2.0562 0.9743
6.3472 -0.3035 -2.1122 0.9736
6.4312 0.2682 -2.1396 0.9732
6.4606 0.8521 -2.1661 0.9729
6.2013 2.6184 -2.2375 0.9720
5.9957 3.1902 -2.2576 0.9718
5.6187 3.6687 -2.2306 0.9721
5.0528 3.9859 -2.1393 0.9732
3.5498 4.8229 -1.9906 0.9751
0.6298 6.4232 -2.1453 0.9732
0.0557 6.7342 -2.2386 0.9720
-0.4948 6.0811 -2.0281 0.9746
-2.7542 5.8649 -2.1538 0.9731
-3.6588 5.1471 -2.0991 0.9737
-4.0491 4.7355 -2.0711 0.9741
-2.3372 2.2842 -1.0863 0.9863
-4.6960 3.8322 -2.0148 0.9748
-5.3346 3.6105 -2.1412 0.9732
-5.5588 3.0768 -2.1120 0.9736
-5.7333 2.5333 -2.0835 0.9739
-5.8586 1.9845 -2.0561 0.9743
-5.4718 -1.6904 -1.9037 0.9761
-4.7271 -3.0167 -1.8640 0.9766
-4.4161 -3.4096 -1.8546 0.9768
-4.0772 -3.7751 -1.8470 0.9769
-3.3235 -4.4181 -1.8377 0.9770
-2.9128 -4.6930 -1.8360 0.9770
-1.5696 -5.3163 -1.8426 0.9769
-1.0919 -5.4531 -1.8486 0.9768
-0.6030 -5.5528 -1.8566 0.9767
-0.1050 -5.6143 -1.8666 0.9766
0.9081 -5.6190 -1.8920 0.9763
1.4180 -5.5607 -1.9075 0.9761
2.9268 -5.1347 -1.9646 0.9754
3.4122 -4.9078 -1.9869 0.9751
3.8830 -4.6383 -2.0108 0.9748
4.7662 -3.9730 -2.0625 0.9742
5.1657 -3.5753 -2.0883 0.9739
5.7391 -2.0110 -2.0214 0.9747
6.3200 -0.4345 -2.1058 0.9737
6.4164 0.1336 -2.1333 0.9733
6.2406 2.4829 -2.2326 0.9721
3.6603 4.7617 -1.9964 0.9750
3.1647 4.9822 -1.9620 0.9754
2.2561 5.5361 -1.9872 0.9751
0.1940 6.6593 -2.2145 0.9723
-0.3713 6.1471 -2.0471 0.9744
-1.0023 6.6409 -2.2325 0.9721
-1.5755 6.4588 -2.2099 0.9724
-2.1227 6.2230 -2.1856 0.9727
-2.6388 5.9379 -2.1599 0.9730
-3.9620 4.8342 -2.0776 0.9740
-5.2704 3.7296 -2.1462 0.9732
-5.5110 3.2023 -2.1187 0.9735
-5.6970 2.6607 -2.0901 0.9738
-5.9220 1.5627 -2.0359 0.9745
-5.9631 1.0146 -2.0107 0.9748
-5.9584 0.4721 -1.9868 0.9751
-5.6869 -1.0896 -1.9248 0.9759
-5.5168 -1.5791 -1.9075 0.9761
-5.0690 -2.4969 -1.8783 0.9765
-4.4912 -3.3204 -1.8566 0.9767
-4.1586 -3.6924 -1.8486 0.9768
-3.7996 -4.0359 -1.8425 0.9769
-3.4162 -4.3495 -1.8384 0.9770
-3.0104 -4.6318 -1.8362 0.9770
-2.5842 -4.8816 -1.8360 0.9770
-1.6791 -5.2791 -1.8414 0.9769
-0.7178 -5.5330 -1.8546 0.9768
-0.2218 -5.6034 -1.8641 0.9766
0.7893 -5.6268 -1.8887 0.9763
1.2991 -5.5779 -1.9038 0.9761
1.8082 -5.4878 -1.9207 0.9759
2.8119 -5.1815 -1.9596 0.9755
3.3002 -4.9645 -1.9816 0.9752
3.7748 -4.7050 -2.0051 0.9749
5.0788 -3.6741 -2.0837 0.9739
5.0672 -3.0155 -1.9601 0.9755
6.4539 0.5786 -2.1539 0.9731
6.4532 1.1668 -2.1799 0.9727
5.3109 3.8414 -2.1788 0.9727
4.1910 4.3596 -2.0102 0.9748
3.2989 4.9618 -1.9806 0.9752
1.8906 5.7363 -2.0077 0.9749
0.8823 6.2861 -2.1100 0.9736
0.3295 6.5860 -2.1920 0.9726
-0.8087 6.2376 -2.0908 0.9738
-1.4440 6.5062 -2.2153 0.9723
-1.9977 6.2826 -2.1914 0.9726
-2.5215 6.0086 -2.1660 0.9729
-4.5615 4.0508 -2.0278 0.9746
-5.4605 3.3272 -2.1255 0.9734
-5.6581 2.7877 -2.0967 0.9738
-5.9057 1.6909 -2.0420 0.9744
-5.9577 1.1420 -2.0164 0.9748
-5.9635 0.5979 -1.9922 0.9751
-5.8435 -0.4625 -1.9485 0.9756
-5.7211 -0.9730 -1.9290 0.9758
-5.3615 -1.9412 -1.8954 0.9763
-5.1282 -2.3945 -1.8813 0.9764
-4.2386 -3.6082 -1.8503 0.9768
-3.8856 -3.9584 -1.8438 0.9769
0.6706 -5.6323 -1.8854 0.9764
1.1803 -5.5930 -1.9001 0.9762
1.6897 -5.5126 -1.9166 0.9760
2.1962 -5.3904 -1.9348 0.9758
3.1874 -5.0189 -1.9763 0.9752
3.6655 -4.7693 -1.9995 0.9750
1.5492 -5.1650 -1.9283 0.9774
2.0222 -5.0502 -1.9454 0.9772
2.4889 -4.8959 -1.9641 0.9769
2.9463 -4.7017 -1.9842 0.9767
3.3911 -4.4678 -2.0058 0.9765
4.6152 -3.5316 -2.0782 0.9756
4.9581 -3.1341 -2.0976 0.9754
4.9207 -2.5258 -1.9780 0.9768
2.3084 -0.9348 -0.8906 0.9895
5.6266 -1.1749 -2.0555 0.9759
5.9503 0.3726 -2.1320 0.9750
5.9598 0.9129 -2.1561 0.9747
5.8196 1.9993 -2.2005 0.9742
5.6682 2.5338 -2.2203 0.9740
5.4625 3.0544 -2.2381 0.9738
5.2036 3.5547 -2.2536 0.9736
4.8933 4.0286 -2.2666 0.9734
4.1581 4.0988 -2.0879 0.9755
3.4356 4.8776 -2.1335 0.9750
2.9689 5.1354 -2.1213 0.9751
1.7532 3.7757 -1.4887 0.9825
2.0322 5.6502 -2.1473 0.9748
0.4842 6.2857 -2.2545 0.9736
-0.0788 6.2608 -2.2391 0.9738
-1.6907 5.8582 -2.1804 0.9744
-2.1842 5.6242 -2.1576 0.9747
-3.0788 5.0289 -2.1086 0.9753
-4.4172 3.4537 -2.0051 0.9765
-5.2111 2.7439 -2.1061 0.9753
-5.5679 0.7099 -2.0072 0.9764
-5.5484 0.2074 -1.9855 0.9767
-5.3887 -0.7680 -1.9465 0.9771
-5.2518 -1.2354 -1.9294 0.9773
-5.0793 -1.6860 -1.9138 0.9775
-4.8729 -2.1176 -1.9000 0.9777
-4.3661 -2.9162 -1.8776 0.9779
-4.0696 -3.2797 -1.8691 0.9780
-3.0303 -4.2082 -1.8544 0.9782
-2.6405 -4.4592 -1.8532 0.9782
-2.2323 -4.6790 -1.8539 0.9782
-0.9180 -5.1392 -1.8669 0.9781
0.0114 -5.2703 -1.8847 0.9779
0.4851 -5.2804 -1.8963 0.9777
1.4383 -5.1861 -1.9246 0.9774
1.9123 -5.0805 -1.9413 0.9772
3.2887 -4.5259 -2.0007 0.9765
3.7216 -4.2617 -2.0233 0.9763
4.8821 -3.2305 -2.0935 0.9754
4.8524 -2.6201 -1.9721 0.9768
2.2833 -0.9806 -0.8886 0.9895
5.3777 -1.7593 -2.0234 0.9763
5.7491 -0.7941 -2.0754 0.9756
5.9622 0.7864 -2.1506 0.9748
5.7084 2.4102 -2.2159 0.9740
5.5153 2.9346 -2.2341 0.9738
4.9702 3.9207 -2.2638 0.9735
4.2695 4.0366 -2.1012 0.9753
3.8001 4.2982 -2.0517 0.9759
3.5453 4.8168 -2.1388 0.9749
3.0774 5.0756 -2.1226 0.9751
1.8656 3.8076 -1.5163 0.9821
0.8822 3.1070 -1.1550 0.9864
0.6160 6.2832 -2.2577 0.9735
0.0519 6.2717 -2.2429 0.9737
-1.0479 6.0808 -2.2066 0.9741
-2.9815 5.1062 -2.1145 0.9752
-3.7494 4.3850 -2.0632 0.9758
-2.3309 2.2780 -1.1655 0.9862
-4.3573 3.5557 -2.0112 0.9764
-4.9472 3.3483 -2.1362 0.9749
-5.1680 2.8605 -2.1123 0.9752
-5.4568 1.8484 -2.0603 0.9758
-5.5058 -0.1721 -1.9699 0.9769
-4.9239 -2.0188 -1.9031 0.9776
-4.6929 -2.4345 -1.8906 0.9778
-4.1411 -3.1972 -1.8709 0.9780
-3.8243 -3.5409 -1.8638 0.9781
-3.1183 -4.1453 -1.8550 0.9782
-2.7331 -4.4035 -1.8534 0.9782
-2.3290 -4.6306 -1.8536 0.9782
-1.9081 -4.8255 -1.8557 0.9782
-1.4724 -4.9872 -1.8596 0.9782
-1.0241 -5.1146 -1.8653 0.9781
-0.0984 -5.2625 -1.8823 0.9779
0.8504 -5.2625 -1.9063 0.9776
1.3273 -5.2051 -1.9209 0.9774
2.2723 -4.9728 -1.9552 0.9770
3.6222 -4.3268 -2.0179 0.9763
4.0410 -4.0325 -2.0415 0.9760
4.8042 -3.3251 -2.0894 0.9755
4.7825 -2.7126 -1.9662 0.9769
5.0702 -2.3038 -1.9916 0.9766
5.3238 -1.8655 -2.0173 0.9763
5.5398 -1.4002 -2.0434 0.9760
5.8451 -0.4019 -2.0952 0.9754
5.8716 1.7471 -2.1907 0.9743
5.5651 2.8138 -2.2300 0.9739
5.3308 3.3243 -2.2466 0.9737
5.0443 3.8113 -2.2609 0.9735
3.9077 4.2384 -2.0616 0.9758
1.9696 3.8163 -1.5358 0.9819
0.7480 6.2776 -2.2608 0.9735
-0.9228 6.1141 -2.2112 0.9741
-2.4358 5.4811 -2.1449 0.9748
-2.8823 5.1816 -2.1204 0.9751
-3.2940 4.8448 -2.0950 0.9754
-2.2540 2.2966 -1.1508 0.9864
-4.2950 3.6568 -2.0172 0.9763
-4.8865 3.4580 -2.1407 0.9749
-5.3003 2.4754 -2.0920 0.9755
-5.5196 1.4565 -2.0414 0.9760
-5.5626 0.9465 -2.0178 0.9763
-5.5626 0.4408 -1.9955 0.9766
-5.4399 -0.5450 -1.9551 0.9770
-5.3202 -1.0194 -1.9372 0.9773
-5.1641 -1.4781 -1.9209 0.9774
-4.9732 -1.9188 -1.9062 0.9776
-4.7495 -2.3395 -1.8933 0.9778
-3.5644 -3.7861 -1.8595 0.9782
-2.8246 -4.3460 -1.8536 0.9782
-1.5752 -4.9525 -1.8585 0.9782
-0.6731 -5.1884 -1.8709 0.9780
-0.2079 -5.2528 -1.8799 0.9779
0.7393 -5.2703 -1.9032 0.9776
1.2162 -5.2219 -1.9174 0.9775
1.6918 -5.1347 -1.9333 0.9773
2.6275 -4.8417 -1.9700 0.9769
3.0815 -4.6356 -1.9906 0.9766
3.9452 -4.1046 -2.0359 0.9761
4.3478 -3.7807 -2.0604 0.9758
4.7245 -3.4178 -2.0853 0.9755
4.7109 -2.8035 -1.9604 0.9770
5.0061 -2.4019 -1.9856 0.9767
5.2680 -1.9702 -2.0113 0.9764
5.6776 -1.0271 -2.0633 0.9758
5.9586 0.5343 -2.1394 0.9749
5.9524 1.0763 -2.1632 0.9746
5.6120 2.6920 -2.2259 0.9739
5.3902 3.2071 -2.2430 0.9737
5.1157 3.7002 -2.2578 0.9735
1.8882 5.7290 -2.1571 0.9747
0.8799 6.2689 -2.2638 0.9735
-1.8419 5.7927 -2.1737 0.9745
-2.3269 5.5451 -2.1505 0.9748
-2.7812 5.2549 -2.1262 0.9751
-3.5842 4.5642 -2.0753 0.9756
-4.4911 3.3208 -1.9974 0.9766
-5.0743 3.0918 -2.1249 0.9751
-5.5033 1.5757 -2.0471 0.9760
-5.5345 0.0579 -1.9793 0.9768
-5.3514 -0.9101 -1.9412 0.9772
-5.0207 -1.8178 -1.9095 0.9776
-4.2798 -3.0281 -1.8749 0.9780
-3.9752 -3.3839 -1.8669 0.9781
-1.2346 -5.0595 -1.8624 0.9781
0.1533 -5.2773 -1.8880 0.9778
1.1050 -5.2367 -1.9139 0.9775
1.5812 -5.1585 -1.9294 0.9773
2.5201 -4.8840 -1.9654 0.9769
2.9768 -4.6872 -1.9856 0.9767
1.0077 -4.9220 -1.9253 0.9787
1.4543 -4.8487 -1.9399 0.9785
2.3339 -4.5909 -1.9736 0.9782
3.1757 -4.1839 -2.0129 0.9778
3.5746 -3.9250 -2.0344 0.9775
3.9546 -3.6300 -2.0571 0.9773
4.3121 -3.2996 -2.0808 0.9770
4.6277 -2.9253 -2.0980 0.9768
4.5898 -2.3560 -1.9771 0.9781
5.2344 -1.0930 -2.0492 0.9774
5.3734 -0.6283 -2.0732 0.9771
5.5212 0.3457 -2.1200 0.9766
5.5255 0.8464 -2.1422 0.9763
5.4813 1.3498 -2.1633 0.9761
5.3875 1.8509 -2.1830 0.9759
5.0505 2.8240 -2.2174 0.9755
4.8086 3.2848 -2.2317 0.9754
4.1375 4.0786 -2.2264 0.9754
3.6887 4.3518 -2.1862 0.9759
3.4024 4.8305 -2.2642 0.9750
1.7506 3.7699 -1.5929 0.9824
1.9962 5.5503 -2.2603 0.9751
0.9696 5.7755 -2.2443 0.9752
0.4474 5.8084 -2.2325 0.9754
-0.5854 5.7168 -2.2022 0.9757
-2.4570 4.9605 -2.1214 0.9766
-3.2280 4.3463 -2.0747 0.9771
-4.1163 3.2185 -2.0024 0.9779
-5.1226 1.6169 -2.0586 0.9773
-5.2138 0.6648 -2.0142 0.9777
-5.1460 -0.2684 -1.9747 0.9782
-4.7705 -1.5835 -1.9262 0.9787
-4.1054 -2.7421 -1.8919 0.9791
-3.8275 -3.0847 -1.8838 0.9792
-2.8514 -3.9598 -1.8699 0.9793
-1.7009 -4.5787 -1.8718 0.9793
-1.2879 -4.7227 -1.8759 0.9792
-0.8635 -4.8339 -1.8818 0.9792
-0.4299 -4.9114 -1.8893 0.9791
0.0107 -4.9544 -1.8986 0.9790
0.9033 -4.9338 -1.9222 0.9787
1.7945 -4.7675 -1.9521 0.9784
2.2328 -4.6286 -1.9694 0.9782
2.6624 -4.4524 -1.9880 0.9780
4.5573 -3.0156 -2.0942 0.9769
4.5270 -2.4444 -1.9716 0.9782
2.2816 -0.9798 -0.9516 0.9894
5.3447 -0.7382 -2.0676 0.9772
5.5288 0.7292 -2.1371 0.9764
5.0999 2.7136 -2.2138 0.9756
4.5913 3.6219 -2.2410 0.9753
4.2180 3.9879 -2.2245 0.9754
3.7951 4.2926 -2.1957 0.9758
3.5013 4.7569 -2.2635 0.9750
0.5645 2.9802 -1.1624 0.9871
0.0479 5.7977 -2.2219 0.9755
-0.4669 5.7380 -2.2062 0.9756
-0.9699 5.6281 -2.1886 0.9758
-2.3253 2.2725 -1.2460 0.9862
-4.0596 3.3129 -2.0080 0.9778
-4.6076 3.1184 -2.1321 0.9764
-4.8233 2.6697 -2.1126 0.9767
-4.9836 2.2020 -2.0879 0.9769
-5.1770 1.2512 -2.0410 0.9774
-5.2061 0.3034 -1.9985 0.9779
-5.1618 -0.1613 -1.9791 0.9781
-4.9625 -1.0586 -1.9445 0.9785
-4.8106 -1.4861 -1.9295 0.9787
-4.6261 -1.8967 -1.9160 0.9788
-4.4108 -2.2882 -1.9042 0.9789
-3.2767 -3.6292 -1.8738 0.9793
-2.1916 -4.3574 -1.8691 0.9793
-1.7954 -4.5405 -1.8711 0.9793
-0.9633 -4.8110 -1.8803 0.9792
-0.5317 -4.8964 -1.8874 0.9791
-0.0925 -4.9475 -1.8963 0.9790
0.3518 -4.9635 -1.9069 0.9789
0.7989 -4.9437 -1.9191 0.9788
1.2463 -4.8875 -1.9329 0.9786
2.9841 -4.2921 -2.0033 0.9779
4.4852 -3.1043 -2.0903 0.9769
4.4626 -2.5312 -1.9661 0.9783
5.4303 -0.3734 -2.0859 0.9770
5.5030 0.1146 -2.1093 0.9767
5.4374 1.6179 -2.1740 0.9760
5.3170 2.1154 -2.1929 0.9758
5.1467 2.6022 -2.2101 0.9756
4.9273 3.0726 -2.2253 0.9754
4.2962 3.8954 -2.2224 0.9755
3.5757 4.6516 -2.2484 0.9752
3.1566 4.9695 -2.2561 0.9751
2.7110 5.2531 -2.2654 0.9750
2.2282 5.4676 -2.2626 0.9750
0.6910 5.7997 -2.2383 0.9753
-0.8539 5.6581 -2.1928 0.9758
-2.6755 4.8098 -2.1092 0.9767
-3.0602 4.5011 -2.0858 0.9770
-3.4107 4.1614 -2.0619 0.9772
-4.0008 3.4063 -2.0136 0.9777
-4.2381 2.9991 -1.9896 0.9780
-5.0776 1.8389 -2.0695 0.9771
-5.2071 0.8860 -2.0241 0.9776
-5.1755 -0.0538 -1.9835 0.9781
-4.9930 -0.9567 -1.9482 0.9785
-4.8490 -1.3879 -1.9328 0.9786
-4.2258 -2.5744 -1.8963 0.9790
-3.9603 -2.9279 -1.8874 0.9791
-3.0159 -3.8398 -1.8711 0.9793
-2.6580 -4.0896 -1.8691 0.9793
-2.2817 -4.3102 -1.8689 0.9793
-1.8891 -4.5006 -1.8705 0.9793
-1.4820 -4.6596 -1.8738 0.9793
-1.0627 -4.7862 -1.8788 0.9792
-0.6331 -4.8795 -1.8856 0.9791
0.2479 -4.9629 -1.9043 0.9789
1.5880 -4.8195 -1.9446 0.9785
2.0293 -4.6980 -1.9611 0.9783
2.4634 -4.5392 -1.9792 0.9781
2.8871 -4.3431 -1.9986 0.9779
3.2974 -4.1099 -2.0193 0.9777
4.4114 -3.1913 -2.0865 0.9769
4.3967 -2.6165 -1.9607 0.9783
4.6682 -2.2397 -1.9842 0.9781
4.9081 -1.8356 -2.0081 0.9778
5.1132 -1.4065 -2.0323 0.9775
5.2805 -0.9552 -2.0564 0.9773
5.4070 -0.4852 -2.0804 0.9770
5.4901 -0.0002 -2.1039 0.9768
5.5174 0.9976 -2.1487 0.9763
5.3495 2.0002 -2.1887 0.9758
4.9828 2.9647 -2.2219 0.9755
4.0110 4.1723 -2.2179 0.9755
2.8204 5.1959 -2.2656 0.9750
1.8449 5.5976 -2.2586 0.9751
0.8128 5.7910 -2.2410 0.9753
-0.2280 5.7722 -2.2137 0.9756
-0.7372 5.6854 -2.1970 0.9757
-1.7067 5.3674 -2.1584 0.9762
-2.1578 5.1420 -2.1370 0.9764
-3.9399 3.4988 -2.0192 0.9777
-4.1863 3.0955 -1.9952 0.9779
-4.7299 2.8820 -2.1226 0.9766
-4.9142 2.4211 -2.0994 0.9768
-5.2135 0.5227 -2.0079 0.9778
-5.1872 0.0543 -1.9879 0.9780
-5.0217 -0.8540 -1.9520 0.9784
-4.7161 -1.7075 -1.9221 0.9787
-4.2838 -2.4887 -1.8986 0.9790
-3.7391 -3.1829 -1.8817 0.9792
-3.4291 -3.4934 -1.8759 0.9792
-3.0964 -3.7775 -1.8718 0.9793
-2.7431 -4.0339 -1.8694 0.9793
-2.3710 -4.2615 -1.8688 0.9793
-1.9820 -4.4590 -1.8700 0.9793
-0.7340 -4.8608 -1.8839 0.9792
-0.2981 -4.9280 -1.8920 0.9791
1.4843 -4.8424 -1.9409 0.9785
2.3630 -4.5796 -1.9748 0.9782
2.7894 -4.3922 -1.9939 0.9780
0.1076 -4.6740 -1.9135 0.9800
0.5277 -4.6718 -1.9242 0.9799
1.7852 -4.4583 -1.9655 0.9795
2.1948 -4.3172 -1.9821 0.9793
2.9828 -3.9299 -2.0192 0.9789
3.7095 -3.4050 -2.0608 0.9785
4.2958 -2.2051 -1.9763 0.9793
4.7243 -1.4372 -2.0210 0.9789
4.8877 -1.0206 -2.0436 0.9787
5.0997 -0.1374 -2.0879 0.9782
5.0995 1.2558 -2.1495 0.9776
5.0091 1.7209 -2.1677 0.9774
4.6905 2.6227 -2.1994 0.9770
4.4638 3.0493 -2.2125 0.9769
4.1943 3.4530 -2.2235 0.9768
3.1552 4.4795 -2.2425 0.9766
2.7440 4.7463 -2.2438 0.9766
1.8514 5.1476 -2.2389 0.9766
0.8457 3.2337 -1.3680 0.9857
-0.0677 5.3757 -2.2003 0.9770
-1.0086 5.2022 -2.1688 0.9774
-2.2890 4.6213 -2.1107 0.9780
-2.1381 2.3975 -1.3148 0.9862
-2.3541 2.2065 -1.3205 0.9862
-3.8496 3.0099 -1.9999 0.9791
-4.3593 2.8197 -2.1249 0.9778
-4.8702 1.0701 -2.0408 0.9787
-1.9520 0.2489 -0.8054 0.9915
-1.9422 -0.1013 -0.7960 0.9916
-1.9456 -0.2773 -0.8043 0.9915
-4.6408 -1.0916 -1.9512 0.9796
-4.4925 -1.4912 -1.9373 0.9797
-4.3136 -1.8746 -1.9249 0.9799
-3.6092 -2.9087 -1.8971 0.9802
-2.6898 -3.7355 -1.8840 0.9803
-2.3440 -3.9586 -1.8829 0.9803
-1.6045 -4.3190 -1.8857 0.9803
-0.8143 -4.5584 -1.8952 0.9802
-0.4053 -4.6304 -1.9024 0.9801
0.8508 -4.6470 -1.9335 0.9798
1.6886 -4.4862 -1.9618 0.9795
2.1000 -4.3532 -1.9781 0.9793
2.5026 -4.1852 -1.9958 0.9791
2.8936 -3.9822 -2.0147 0.9789
3.2701 -3.7446 -2.0347 0.9787
3.6287 -3.4731 -2.0558 0.9785
3.9665 -3.1686 -2.0778 0.9783
4.2378 -2.2882 -1.9711 0.9794
2.2807 -0.9795 -1.0159 0.9893
4.6811 -1.5314 -2.0158 0.9789
4.8529 -1.1195 -2.0383 0.9787
5.0833 -0.2431 -2.0829 0.9782
5.1481 0.6790 -2.1252 0.9778
5.0342 1.6129 -2.1636 0.9774
4.5206 2.9517 -2.2096 0.9769
4.2608 3.3612 -2.2211 0.9768
3.6208 4.0955 -2.2373 0.9767
1.8716 3.8200 -1.7410 0.9818
1.9593 5.1103 -2.2400 0.9766
