ply
format ascii 1.0
element vertex 1583
property float32 x
property float32 y
property float32 z
property float32 I
end_header
6.8837 -15.9394 -1.6669 0.9326
10.2435 -15.4124 -1.7767 0.9283
14.3880 -1.2926 -1.3869 0.9436
10.3334 0.9255 -0.9960 0.9592
8.1366 2.2365 -0.8101 0.9667
7.3009 2.7290 -0.7483 0.9692
6.7723 3.2478 -0.7211 0.9703
5.9451 3.5364 -0.6641 0.9726
4.8326 4.2006 -0.6147 0.9746
3.7770 4.7059 -0.5793 0.9760
2.4998 5.7841 -0.6049 0.9750
1.4461 6.2034 -0.6115 0.9747
0.9154 6.5165 -0.6318 0.9739
0.3536 7.0509 -0.6778 0.9720
-0.2844 7.2235 -0.6940 0.9714
-18.5076 7.1454 -1.9046 0.9234
-18.3654 5.2609 -1.8341 0.9261
-18.1102 3.4741 -1.7704 0.9286
-17.3088 0.1836 -1.6618 0.9328
-16.7825 -1.3261 -1.6162 0.9346
-16.1833 -2.7499 -1.5760 0.9362
-15.5177 -4.0911 -1.5407 0.9375
-14.7912 -5.3530 -1.5102 0.9387
-10.5901 -7.4906 -1.2453 0.9492
-10.5760 -9.0003 -1.3332 0.9457
-7.7142 -11.3406 -1.3168 0.9464
-6.6778 -11.9982 -1.3183 0.9463
-5.6004 -12.5947 -1.3233 0.9461
-4.4816 -13.1291 -1.3319 0.9458
-3.3208 -13.6001 -1.3440 0.9453
-2.1172 -14.0060 -1.3599 0.9447
-0.8699 -14.3441 -1.3796 0.9439
3.3763 -16.0124 -1.5711 0.9364
4.9142 -16.0412 -1.6107 0.9348
6.5041 -15.9710 -1.6556 0.9331
8.1461 -15.7936 -1.7061 0.9311
9.8398 -15.4993 -1.7625 0.9289
11.5841 -15.0773 -1.8254 0.9264
11.8332 -0.2494 -1.1363 0.9536
9.3821 1.4934 -0.9121 0.9625
8.5916 2.1692 -0.8507 0.9650
7.4836 2.6201 -0.7612 0.9686
6.0883 3.4512 -0.6719 0.9723
4.5178 4.5058 -0.6126 0.9747
3.9292 4.6909 -0.5875 0.9757
2.6140 5.7166 -0.6035 0.9751
0.8205 3.2138 -0.3184 0.9868
-11.5263 -6.2894 -1.5597 0.9485
-10.0585 -6.7197 -1.4369 0.9524
-6.0328 -10.1902 -1.4067 0.9534
-5.1115 -10.7163 -1.4103 0.9533
-4.1539 -11.1846 -1.4172 0.9531
-3.1606 -11.5937 -1.4274 0.9527
-2.1322 -11.9417 -1.4409 0.9523
0.0278 -12.4466 -1.4785 0.9511
1.2065 -13.1203 -1.5651 0.9483
3.7734 -13.6014 -1.6767 0.9447
5.0871 -13.5119 -1.7150 0.9435
9.1945 -12.6514 -1.8578 0.9389
12.0295 -11.5119 -1.9778 0.9351
13.4567 -10.7480 -2.0458 0.9330
17.6036 -5.7577 -2.2001 0.9281
18.7624 -4.3268 -2.2872 0.9254
14.8298 -2.0474 -1.7783 0.9415
11.8046 -0.5639 -1.4038 0.9535
7.7210 2.4742 -0.9631 0.9679
4.1626 4.7087 -0.7466 0.9750
3.6155 4.9126 -0.7245 0.9757
0.9044 3.1857 -0.3934 0.9867
0.0594 7.2152 -0.8571 0.9714
-0.6025 7.4015 -0.8821 0.9705
-2.1204 2.4797 -0.3876 0.9869
-14.3143 11.6805 -2.1946 0.9283
-14.7532 9.9845 -2.1161 0.9308
-15.0477 8.3284 -2.0430 0.9331
-15.2520 5.1660 -1.9128 0.9372
-14.7584 0.8599 -1.7561 0.9422
-13.5141 -2.8831 -1.6414 0.9459
-12.3542 -5.0654 -1.5861 0.9476
-11.6894 -6.0644 -1.5643 0.9483
-10.3290 -6.5919 -1.4555 0.9518
-7.1183 -9.4630 -1.4066 0.9534
-6.2431 -10.0589 -1.4063 0.9534
-5.3304 -10.5983 -1.4092 0.9533
-2.3759 -11.8658 -1.4375 0.9524
-1.3210 -12.1656 -1.4536 0.9519
-0.2319 -12.4000 -1.4732 0.9513
3.4705 -13.6094 -1.6683 0.9450
4.7769 -13.5411 -1.7056 0.9438
6.1138 -13.3800 -1.7474 0.9425
7.4782 -13.1197 -1.7938 0.9410
8.8666 -12.7533 -1.8451 0.9393
11.6957 -11.6712 -1.9627 0.9356
14.5466 -10.0682 -2.1014 0.9312
13.6706 -4.7904 -1.7207 0.9433
18.4982 -4.6758 -2.2664 0.9260
15.1217 -2.4112 -1.8189 0.9402
9.7313 1.0773 -1.1630 0.9613
8.7749 1.7762 -1.0635 0.9646
7.1145 2.8304 -0.9095 0.9696
5.7980 3.6154 -0.8116 0.9729
5.2316 3.9526 -0.7789 0.9739
3.7261 4.8470 -0.7262 0.9757
3.2560 5.1256 -0.7213 0.9758
2.7884 5.4024 -0.7222 0.9758
2.3657 5.8044 -0.7445 0.9751
1.3234 6.2678 -0.7609 0.9745
0.7849 6.5852 -0.7878 0.9736
0.2065 7.0777 -0.8411 0.9719
-0.4411 7.3066 -0.8695 0.9709
-2.1003 2.5630 -0.3936 0.9867
-14.1894 12.0821 -2.2137 0.9277
-14.6639 10.3781 -2.1340 0.9302
-14.9911 8.7119 -2.0596 0.9325
-15.1833 7.0920 -1.9906 0.9347
-14.1044 -1.4122 -1.6838 0.9445
-13.6338 -2.6115 -1.6490 0.9456
-13.0981 -3.7481 -1.6183 0.9466
-11.8498 -5.8361 -1.5690 0.9482
-9.6793 -7.1549 -1.4298 0.9527
-8.9332 -7.9306 -1.4190 0.9530
-7.3177 -9.3155 -1.4071 0.9534
-3.6299 -11.4097 -1.4222 0.9529
-1.5709 -12.1012 -1.4495 0.9520
0.6379 -12.7923 -1.5214 0.9497
5.7983 -13.4263 -1.7372 0.9428
7.1566 -13.1899 -1.7825 0.9413
9.9436 -12.3961 -1.8877 0.9380
11.3623 -11.8234 -1.9479 0.9361
14.2143 -10.2849 -2.0841 0.9318
14.5008 -8.6312 -2.0045 0.9343
15.7884 -7.5769 -2.0802 0.9319
18.2296 -5.0161 -2.2459 0.9267
15.6020 -2.8239 -1.8834 0.9381
11.7828 -0.0016 -1.3996 0.9536
10.0305 0.8983 -1.1963 0.9602
8.9592 1.6190 -1.0815 0.9640
8.1245 2.2332 -1.0009 0.9666
7.2908 2.7252 -0.9246 0.9691
6.7636 3.2436 -0.8910 0.9702
5.9378 3.5321 -0.8207 0.9726
4.3949 4.5708 -0.7532 0.9748
0.7675 3.2923 -0.4016 0.9865
-0.2841 7.2143 -0.8576 0.9713
-13.3818 14.2199 -2.3195 0.9244
-14.0557 12.4852 -2.2332 0.9271
-14.5666 10.7738 -2.1522 0.9296
-14.9271 9.0979 -2.0765 0.9320
-15.1498 7.4665 -2.0063 0.9342
-15.2467 5.8864 -1.9414 0.9363
-15.1070 2.8980 -1.8272 0.9399
-14.8901 1.4950 -1.7776 0.9415
-14.5868 0.1547 -1.7328 0.9429
-14.2045 -1.1224 -1.6926 0.9442
-13.7500 -2.3365 -1.6567 0.9454
-13.2290 -3.4877 -1.6251 0.9464
-12.6466 -4.5768 -1.5976 0.9473
-9.8476 -6.9654 -1.4328 0.9526
-9.1115 -7.7541 -1.4212 0.9529
-7.5149 -9.1650 -1.4079 0.9534
-5.7621 -10.3530 -1.4074 0.9534
-4.8300 -10.8619 -1.4121 0.9532
-3.8616 -11.3127 -1.4199 0.9530
-2.8578 -11.7038 -1.4311 0.9526
1.5861 -13.3391 -1.5957 0.9473
5.4845 -13.4673 -1.7273 0.9431
11.0293 -11.9686 -1.9333 0.9365
12.4548 -11.2985 -1.9975 0.9345
13.8814 -10.4936 -2.0670 0.9323
15.2702 -9.5276 -2.1380 0.9301
2.3169 -0.9225 -0.2962 0.9900
17.9221 -3.6329 -2.1722 0.9290
11.8324 -0.2494 -1.4058 0.9534
9.1487 1.4562 -1.1004 0.9634
7.4731 2.6164 -0.9405 0.9686
4.9170 4.0965 -0.7602 0.9746
3.9249 4.6858 -0.7261 0.9757
3.4753 4.9957 -0.7229 0.9758
3.0074 5.2728 -0.7211 0.9758
2.1190 6.0013 -0.7560 0.9747
1.0416 6.4339 -0.7742 0.9741
-10.6653 -4.6360 -1.6478 0.9541
-10.0903 -5.5058 -1.6287 0.9546
-7.9815 -7.7067 -1.5720 0.9562
-6.2770 -8.7187 -1.5222 0.9575
-5.4505 -9.2066 -1.5159 0.9577
-4.6234 -9.6929 -1.5216 0.9575
-2.9147 -10.6918 -1.5702 0.9562
-1.0044 -11.4853 -1.6336 0.9545
1.0838 -11.7862 -1.6770 0.9533
2.1668 -11.8295 -1.7040 0.9526
3.2727 -11.7967 -1.7346 0.9517
5.5418 -11.4860 -1.8070 0.9498
6.6978 -11.1990 -1.8489 0.9486
7.8619 -10.8177 -1.8948 0.9474
9.0284 -10.3371 -1.9446 0.9461
10.1905 -9.7520 -1.9985 0.9446
11.3400 -9.0574 -2.0564 0.9431
12.4674 -8.2486 -2.1181 0.9414
2.2948 -0.9853 -0.3539 0.9900
14.4726 -4.7337 -2.1575 0.9403
15.3173 -3.5324 -2.2273 0.9385
7.4912 2.4006 -1.1146 0.9687
5.0138 3.9556 -0.9049 0.9745
4.6594 4.4056 -0.9086 0.9744
2.6756 5.4615 -0.8617 0.9757
2.2646 5.9073 -0.8964 0.9748
0.9087 3.2010 -0.4715 0.9866
-0.5948 7.3068 -1.0387 0.9708
-3.3445 19.4036 -2.7898 0.9235
-6.3655 17.4595 -2.6331 0.9277
-7.6612 16.3128 -2.5536 0.9298
-8.8072 15.0823 -2.4747 0.9319
-9.8032 13.7902 -2.3973 0.9339
-2.1201 2.4793 -0.4622 0.9869
-11.3572 11.0986 -2.2500 0.9379
-11.9262 9.7318 -2.1810 0.9397
-12.3657 8.3687 -2.1156 0.9415
-12.8874 5.6940 -1.9963 0.9447
-12.9856 4.3983 -1.9426 0.9461
-12.9856 3.1382 -1.8929 0.9475
-12.7203 0.7411 -1.8054 0.9498
-12.4681 -0.3899 -1.7675 0.9509
-11.3018 -3.4917 -1.6760 0.9533
-10.2294 -5.3069 -1.6328 0.9545
-8.9559 -6.9148 -1.6032 0.9553
-8.1894 -7.5827 -1.5814 0.9559
-7.3157 -8.1029 -1.5468 0.9569
-5.6435 -9.0928 -1.5163 0.9577
-4.8177 -9.5789 -1.5192 0.9576
-3.1211 -10.5715 -1.5618 0.9564
0.8339 -11.7654 -1.6712 0.9535
1.9112 -11.8261 -1.6974 0.9528
3.0120 -11.8114 -1.7271 0.9519
4.1336 -11.7175 -1.7605 0.9510
12.2062 -8.4483 -2.1033 0.9418
12.3495 -7.0049 -2.0117 0.9443
13.3332 -6.0586 -2.0751 0.9426
13.6640 -4.7881 -2.0515 0.9432
15.0778 -2.4042 -2.1634 0.9402
8.6570 1.7523 -1.2515 0.9649
7.6896 2.2878 -1.1367 0.9681
7.0071 2.7877 -1.0685 0.9700
6.5239 3.2984 -1.0358 0.9709
3.7221 4.8417 -0.8653 0.9756
3.2525 5.1201 -0.8595 0.9758
2.7854 5.3966 -0.8605 0.9758
2.3631 5.7981 -0.8871 0.9750
0.7840 6.5774 -0.9385 0.9736
0.2062 7.0689 -1.0020 0.9718
-0.4373 7.2438 -1.0282 0.9711
-7.3714 16.5895 -2.5722 0.9293
-12.2740 8.6867 -2.1306 0.9411
-12.6195 7.3337 -2.0681 0.9427
-12.8495 6.0018 -2.0094 0.9443
-12.9940 3.4296 -1.9042 0.9472
-12.9239 2.1997 -1.8575 0.9484
-12.5337 -0.1295 -1.7760 0.9506
-12.2261 -1.2241 -1.7410 0.9516
-11.8508 -2.2700 -1.7097 0.9524
-11.4128 -3.2659 -1.6820 0.9532
-10.3658 -5.1052 -1.6372 0.9544
-9.7641 -5.9474 -1.6199 0.9549
-9.1145 -6.7375 -1.6060 0.9552
-7.5169 -7.9833 -1.5537 0.9567
-4.1787 -9.9536 -1.5296 0.9573
-3.3253 -10.4524 -1.5541 0.9567
-2.4365 -10.9700 -1.5922 0.9556
-1.4768 -11.3759 -1.6254 0.9547
-0.4597 -11.5922 -1.6438 0.9542
0.5855 -11.7408 -1.6656 0.9536
1.6569 -11.8185 -1.6909 0.9529
3.8694 -11.7468 -1.7524 0.9513
5.0050 -11.5893 -1.7887 0.9503
8.4826 -10.5748 -1.9208 0.9467
10.8042 -9.3964 -2.0288 0.9438
11.9432 -8.6416 -2.0887 0.9422
13.1073 -6.2902 -2.0599 0.9430
14.0517 -5.2567 -2.1257 0.9412
14.9319 -4.1087 -2.1943 0.9394
15.5186 -2.8088 -2.2345 0.9383
10.2955 0.9221 -1.4646 0.9591
7.8890 2.1684 -1.1592 0.9675
4.8307 4.1990 -0.9069 0.9745
2.8949 5.3318 -0.8596 0.9758
2.4944 5.7715 -0.8909 0.9749
1.4428 6.1894 -0.9005 0.9747
0.9133 6.5013 -0.9302 0.9738
0.3502 6.9843 -0.9908 0.9721
-0.2828 7.1811 -1.0183 0.9714
-5.7086 17.9607 -2.6703 0.9267
-7.0733 16.8613 -2.5908 0.9288
-8.2896 15.6671 -2.5114 0.9309
-9.3556 14.4012 -2.4333 0.9330
-10.2727 13.0847 -2.3571 0.9350
-12.1756 9.0054 -2.1458 0.9407
-12.5494 7.6487 -2.0823 0.9424
-12.8056 6.3112 -2.0228 0.9440
-12.9523 5.0006 -1.9672 0.9455
-12.9973 3.7232 -1.9157 0.9468
-12.9482 2.4839 -1.8681 0.9481
-12.8120 1.2864 -1.8245 0.9493
-12.5954 0.1336 -1.7847 0.9504
-12.3043 -0.9723 -1.7488 0.9514
-11.5207 -3.0374 -1.6881 0.9530
-11.0377 -3.9946 -1.6632 0.9537
-10.4993 -4.9006 -1.6417 0.9543
-9.9093 -5.7550 -1.6236 0.9548
-9.2706 -6.5573 -1.6089 0.9552
-8.5862 -7.3070 -1.5975 0.9555
-4.3749 -9.8386 -1.5256 0.9574
-3.5276 -10.3343 -1.5472 0.9568
-1.7105 -11.3158 -1.6215 0.9548
-0.7003 -11.5475 -1.6392 0.9543
0.3385 -11.7122 -1.6602 0.9538
2.4940 -11.8279 -1.7127 0.9523
3.6062 -11.7716 -1.7444 0.9515
4.7378 -11.6338 -1.7798 0.9505
7.0440 -11.0955 -1.8622 0.9483
11.6787 -8.8285 -2.0744 0.9426
12.8786 -6.5156 -2.0450 0.9434
14.9353 -1.6576 -2.1292 0.9411
11.8315 -0.2494 -1.6768 0.9533
9.2205 1.4676 -1.3229 0.9630
5.4844 3.7937 -0.9449 0.9734
2.1166 5.9947 -0.9008 0.9746
1.0404 6.4265 -0.9224 0.9740
-9.9129 -3.2914 -1.7207 0.9585
-7.8300 -6.3115 -1.6568 0.9600
-7.1980 -6.9502 -1.6483 0.9602
-6.5265 -7.5403 -1.6429 0.9604
-5.8177 -8.0807 -1.6403 0.9604
-5.0737 -8.5703 -1.6407 0.9604
-4.2965 -9.0076 -1.6441 0.9604
-2.6497 -9.7195 -1.6596 0.9600
0.9599 -10.4385 -1.7269 0.9584
1.9155 -10.4577 -1.7514 0.9578
2.8871 -10.4070 -1.7792 0.9572
3.8716 -10.2833 -1.8101 0.9564
4.8651 -10.0833 -1.8444 0.9556
5.8632 -9.8036 -1.8818 0.9547
6.8611 -9.4406 -1.9226 0.9538
8.8317 -8.4517 -2.0138 0.9517
10.7175 -7.0908 -2.1170 0.9492
2.2928 -0.9845 -0.4111 0.9899
12.2753 -4.0150 -2.1276 0.9490
12.9283 -2.9814 -2.1857 0.9476
13.4990 -1.8636 -2.2449 0.9463
11.7505 -0.5613 -1.9380 0.9534
11.0410 0.4610 -1.8205 0.9562
9.6818 1.2775 -1.6088 0.9612
8.5973 1.9284 -1.4515 0.9649
6.7484 2.8498 -1.2068 0.9707
6.0797 3.2353 -1.1345 0.9725
4.1535 4.6983 -1.0331 0.9749
3.6076 4.9019 -1.0027 0.9756
2.6727 5.4556 -1.0008 0.9757
1.1828 6.2459 -1.0472 0.9746
-0.5142 6.3168 -1.0441 0.9746
-5.2926 14.5168 -2.5455 0.9393
-8.2758 11.6416 -2.3530 0.9437
-2.1197 2.4789 -0.5373 0.9869
-10.2116 8.3327 -2.1713 0.9480
-11.1707 4.9355 -2.0119 0.9517
-11.2962 3.8261 -1.9648 0.9528
-11.2895 1.6792 -1.8803 0.9548
-11.1681 0.6507 -1.8429 0.9557
-10.9748 -0.3432 -1.8089 0.9565
-10.7144 -1.2998 -1.7780 0.9572
-10.3915 -2.2169 -1.7504 0.9578
-9.0871 -4.7143 -1.6865 0.9593
-7.9720 -6.1551 -1.6592 0.9600
-7.3495 -6.8050 -1.6501 0.9602
-6.6870 -7.4066 -1.6439 0.9604
-5.9868 -7.9588 -1.6407 0.9604
-5.2509 -8.4603 -1.6404 0.9604
-4.4813 -8.9100 -1.6430 0.9604
-3.6798 -9.3064 -1.6486 0.9602
-2.8484 -9.6477 -1.6572 0.9600
-0.1931 -10.3230 -1.7009 0.9590
1.6903 -10.4593 -1.7454 0.9580
2.6585 -10.4253 -1.7724 0.9573
5.6295 -9.8764 -1.8728 0.9550
6.6279 -9.5332 -1.9128 0.9540
7.6216 -9.1042 -1.9560 0.9530
9.5681 -7.9759 -2.0521 0.9508
10.5051 -7.2710 -2.1047 0.9495
12.1120 -4.2442 -2.1143 0.9493
12.7824 -3.2310 -2.1720 0.9480
13.3736 -2.1325 -2.2310 0.9466
11.4131 0.2374 -1.8806 0.9548
9.9710 1.1039 -1.6527 0.9601
8.8318 1.7877 -1.4844 0.9641
7.8052 2.3222 -1.3415 0.9675
6.2261 3.1478 -1.1493 0.9721
5.6377 3.5154 -1.0945 0.9734
4.7746 4.3289 -1.0617 0.9742
3.2490 5.1145 -0.9982 0.9757
1.0091 3.2907 -0.5670 0.9861
1.3066 6.1882 -1.0419 0.9747
0.7668 6.4333 -1.0673 0.9741
0.1961 6.7207 -1.1076 0.9731
-3.5010 14.3553 -2.4342 0.9419
-5.0169 14.7102 -2.5604 0.9389
-6.1530 13.8475 -2.4963 0.9404
-2.1168 2.5831 -0.5502 0.9866
-9.5400 9.7214 -2.2438 0.9463
-10.0973 8.5977 -2.1847 0.9477
-11.1280 5.1978 -2.0233 0.9514
-11.3070 1.9245 -1.8895 0.9546
-11.2031 0.8884 -1.8514 0.9555
-10.7811 -1.0794 -1.7850 0.9570
-10.1044 -2.8915 -1.7314 0.9583
-9.6809 -3.7346 -1.7094 0.9588
-9.2055 -4.5338 -1.6905 0.9593
-6.8455 -7.2702 -1.6451 0.9603
-5.4262 -8.3476 -1.6402 0.9604
-4.6643 -8.8095 -1.6421 0.9604
-3.0455 -9.5729 -1.6549 0.9601
-2.1924 -9.8710 -1.6658 0.9598
-0.4080 -10.2900 -1.6965 0.9591
0.5190 -10.4064 -1.7165 0.9586
1.4660 -10.4572 -1.7396 0.9581
3.4095 -10.3505 -1.7953 0.9568
5.3958 -9.9446 -1.8639 0.9552
7.3898 -9.2125 -1.9456 0.9533
9.3447 -8.1271 -2.0402 0.9510
10.3912 -6.1851 -1.9921 0.9522
11.9450 -4.4686 -2.1010 0.9496
12.6321 -3.4759 -2.1584 0.9483
13.7644 -1.2366 -2.2767 0.9455
11.8107 -0.0016 -1.9457 0.9532
9.0773 1.6404 -1.5196 0.9633
8.0337 2.2082 -1.3725 0.9668
7.1195 2.6611 -1.2521 0.9697
6.3764 3.0579 -1.1650 0.9717
5.7599 3.4263 -1.1041 0.9732
4.3852 4.5606 -1.0423 0.9747
3.3319 5.0101 -0.9912 0.9759
2.8917 5.3260 -0.9984 0.9757
2.4634 5.6998 -1.0229 0.9751
1.9387 5.8799 -1.0199 0.9752
-3.1363 14.1395 -2.3859 0.9430
-4.3937 13.8238 -2.3896 0.9429
-5.8971 14.0576 -2.5114 0.9401
-6.9465 13.1288 -2.4469 0.9416
-7.8796 12.1292 -2.3828 0.9431
-9.3932 9.9815 -2.2580 0.9460
-9.9769 8.8621 -2.1984 0.9473
-10.4495 7.7287 -2.1411 0.9487
-10.8155 6.5920 -2.0866 0.9499
-11.0801 5.4608 -2.0350 0.9512
-11.3269 3.2447 -1.9410 0.9534
-10.8443 -0.8569 -1.7921 0.9569
-10.5502 -1.7927 -1.7629 0.9575
-10.1957 -2.6880 -1.7370 0.9582
-9.7848 -3.5412 -1.7143 0.9587
-9.3213 -4.3507 -1.6946 0.9592
-8.2489 -5.8346 -1.6645 0.9599
-7.6459 -6.5068 -1.6540 0.9601
-5.5996 -8.2320 -1.6401 0.9604
-0.6218 -10.2536 -1.6923 0.9592
0.3001 -10.3850 -1.7115 0.9588
1.2428 -10.4513 -1.7339 0.9582
4.1669 -10.2319 -1.8200 0.9562
5.1622 -10.0085 -1.8552 0.9554
6.1608 -9.7043 -1.8936 0.9545
7.1575 -9.3159 -1.9354 0.9535
8.1461 -8.8399 -1.9803 0.9524
10.0705 -7.6128 -2.0797 0.9501
2.3179 -0.9229 -0.4110 0.9899
11.1596 -3.3235 -1.9182 0.9539
11.8307 -0.2493 -1.9494 0.9532
10.6000 0.7260 -1.7503 0.9578
9.3348 1.4858 -1.5572 0.9624
8.2737 2.0889 -1.4058 0.9660
5.8985 3.3436 -1.1170 0.9729
4.8923 4.0759 -1.0490 0.9745
3.8743 4.6254 -0.9940 0.9758
3.4677 4.9848 -1.0004 0.9757
3.0009 5.2614 -0.9978 0.9757
2.5860 5.6552 -1.0244 0.9751
0.7880 3.0866 -0.5248 0.9872
-8.5006 -3.6951 -1.7422 0.9630
-8.0613 -4.3987 -1.7261 0.9633
-7.5771 -5.0619 -1.7128 0.9636
-4.5732 -7.7248 -1.6873 0.9641
-3.8719 -8.1174 -1.6904 0.9641
-3.1420 -8.4599 -1.6963 0.9639
-2.3856 -8.7507 -1.7048 0.9638
-0.8019 -9.1703 -1.7302 0.9632
0.0208 -9.2950 -1.7471 0.9629
0.8607 -9.3603 -1.7668 0.9625
1.7151 -9.3637 -1.7893 0.9620
4.3321 -8.9787 -1.8738 0.9602
7.7858 -7.4508 -2.0256 0.9571
9.3847 -6.2090 -2.1151 0.9552
9.4086 -5.0794 -2.0097 0.9574
10.6468 -3.4823 -2.1055 0.9554
11.6232 -1.6047 -2.2054 0.9534
11.7234 -0.5600 -2.2060 0.9534
8.5836 1.9253 -1.6535 0.9648
7.6875 2.4635 -1.5173 0.9677
6.8858 2.9078 -1.4049 0.9700
5.5184 3.6037 -1.2388 0.9735
4.1488 4.6931 -1.1774 0.9748
3.0500 5.0309 -1.1058 0.9763
2.5962 5.2994 -1.1092 0.9763
2.1358 5.5713 -1.1215 0.9760
0.8644 3.0447 -0.5949 0.9872
0.6368 6.4976 -1.2271 0.9738
0.0567 6.8904 -1.2952 0.9723
-0.5296 6.5061 -1.2269 0.9738
-2.1684 12.5805 -2.3995 0.9494
-4.1982 11.5149 -2.3037 0.9513
-2.1194 2.4785 -0.6130 0.9868
-8.4270 8.2351 -2.2147 0.9532
-8.9197 7.2785 -2.1639 0.9542
-9.9873 3.3828 -1.9820 0.9580
-10.0313 1.4921 -1.9062 0.9596
-9.7931 -0.3063 -1.8416 0.9609
-9.3050 -1.9851 -1.7883 0.9620
-8.1682 -4.2376 -1.7296 0.9632
-6.0262 -6.6747 -1.6903 0.9641
-5.3962 -7.1737 -1.6873 0.9641
-4.7330 -7.6259 -1.6870 0.9641
-3.3152 -8.3843 -1.6946 0.9640
-2.5648 -8.6874 -1.7026 0.9638
-1.7896 -8.9375 -1.7132 0.9636
-0.1734 -9.2711 -1.7429 0.9630
0.6628 -9.3505 -1.7619 0.9626
3.2495 -9.2113 -1.8359 0.9610
5.0043 -8.7796 -1.8995 0.9597
5.8779 -8.4545 -1.9354 0.9590
6.7419 -8.0534 -1.9741 0.9582
9.2502 -5.2469 -1.9989 0.9576
11.0561 -2.7947 -2.1435 0.9546
11.5251 -1.8377 -2.1936 0.9536
11.9107 -0.8191 -2.2440 0.9526
8.8175 1.7848 -1.6909 0.9640
7.8839 2.3456 -1.5461 0.9671
7.0740 2.8143 -1.4310 0.9695
5.6606 3.5297 -1.2539 0.9732
4.2641 4.6246 -1.1824 0.9747
3.6115 4.6979 -1.1138 0.9762
3.1560 4.9681 -1.1063 0.9763
-0.4365 7.2304 -1.3615 0.9709
-3.9760 11.6584 -2.3152 0.9511
-4.8943 11.0148 -2.2655 0.9521
-6.9786 10.2654 -2.3331 0.9507
-8.2979 8.4558 -2.2268 0.9529
-8.8129 7.5041 -2.1756 0.9540
-9.2337 6.5350 -2.1263 0.9550
-9.8047 4.5797 -2.0340 0.9569
-9.9621 3.6084 -1.9915 0.9578
-9.3740 -1.7955 -1.7940 0.9619
-9.0583 -2.5921 -1.7709 0.9624
-8.6900 -3.3523 -1.7507 0.9628
-7.8091 -4.7566 -1.7187 0.9635
-7.3022 -5.3978 -1.7068 0.9637
-6.1686 -6.5513 -1.6913 0.9640
-4.2038 -7.9398 -1.6886 0.9641
-3.4870 -8.3059 -1.6932 0.9640
-2.7427 -8.6212 -1.7005 0.9638
-1.9731 -8.8838 -1.7105 0.9636
-1.1803 -9.0921 -1.7233 0.9634
-0.3666 -9.2439 -1.7389 0.9630
0.4656 -9.3373 -1.7572 0.9627
3.0449 -9.2435 -1.8293 0.9612
3.9211 -9.0795 -1.8589 0.9605
4.7991 -8.8449 -1.8915 0.9599
11.8285 -1.0627 -2.2322 0.9528
10.2574 0.9187 -1.9357 0.9590
9.0622 1.6377 -1.7309 0.9632
8.0879 2.2231 -1.5766 0.9664
7.2605 2.7139 -1.4569 0.9689
3.2621 4.9052 -1.1072 0.9763
2.8089 5.1736 -1.1065 0.9763
2.3526 5.4433 -1.1146 0.9762
1.0927 3.3140 -0.6559 0.9859
0.8891 6.3294 -1.2014 0.9743
0.3360 6.7003 -1.2610 0.9731
-0.2438 6.1925 -1.1648 0.9751
-1.6544 12.7719 -2.4207 0.9489
-2.7360 12.3346 -2.3748 0.9499
-6.7989 10.4657 -2.3458 0.9505
-7.5298 9.5910 -2.2919 0.9516
-9.7558 4.8081 -2.0443 0.9567
-9.9326 3.8348 -2.0013 0.9576
-10.0284 2.8727 -1.9608 0.9584
-9.8724 0.1047 -1.8557 0.9606
-9.4400 -1.6041 -1.7998 0.9618
-9.1370 -2.4089 -1.7761 0.9623
-8.7807 -3.1778 -1.7552 0.9627
-7.4245 -5.2515 -1.7093 0.9637
-6.8862 -5.8602 -1.6996 0.9639
-6.3090 -6.4254 -1.6926 0.9640
-5.6953 -6.9459 -1.6883 0.9641
-4.3673 -7.8469 -1.6880 0.9641
-3.6573 -8.2247 -1.6919 0.9640
-2.9193 -8.5520 -1.6985 0.9639
-2.1554 -8.8272 -1.7079 0.9637
-1.3678 -9.0483 -1.7200 0.9634
1.1139 -9.3679 -1.7732 0.9623
1.9720 -9.3524 -1.7965 0.9618
2.8405 -9.2720 -1.8227 0.9613
4.5937 -8.9063 -1.8836 0.9600
5.4699 -8.6159 -1.9183 0.9593
6.3391 -8.2507 -1.9557 0.9585
7.1956 -7.8084 -1.9958 0.9577
8.0329 -7.2871 -2.0386 0.9568
8.8437 -6.6854 -2.0838 0.9559
9.5887 -5.9828 -2.1243 0.9550
9.6066 -4.8602 -2.0236 0.9571
10.8108 -3.2197 -2.1202 0.9551
11.3153 -2.2937 -2.1701 0.9541
11.7413 -1.3031 -2.2204 0.9531
6.6564 3.0224 -1.3741 0.9707
5.9572 3.3768 -1.2871 0.9725
3.3685 4.8421 -1.1087 0.9763
2.9150 5.1108 -1.1059 0.9763
1.0116 6.2485 -1.1898 0.9746
-7.3166 -3.9924 -1.7619 0.9665
-6.8821 -4.5976 -1.7495 0.9667
-6.4077 -5.1650 -1.7397 0.9669
-5.8959 -5.6929 -1.7324 0.9670
-5.3491 -6.1800 -1.7277 0.9671
-4.7695 -6.6248 -1.7255 0.9672
-4.1594 -7.0258 -1.7259 0.9672
-0.7277 -8.3213 -1.7657 0.9664
0.0188 -8.4270 -1.7813 0.9661
0.7795 -8.4772 -1.7995 0.9658
2.3314 -8.4037 -1.8435 0.9650
3.1159 -8.2761 -1.8693 0.9645
4.6826 -7.8295 -1.9284 0.9634
6.9552 -6.6559 -2.0349 0.9614
7.6692 -6.1255 -2.0747 0.9607
8.3389 -5.5171 -2.1135 0.9599
8.3432 -4.5042 -2.0042 0.9620
9.3904 -3.0714 -2.0884 0.9604
10.4848 -0.5008 -2.2188 0.9580
10.6899 0.4464 -2.2616 0.9572
6.9063 2.9165 -1.5847 0.9698
6.2360 3.3185 -1.4932 0.9715
5.6202 3.6701 -1.4189 0.9729
5.0359 3.9730 -1.3559 0.9741
4.6435 4.3906 -1.3508 0.9742
4.1442 4.6879 -1.3226 0.9747
3.0723 5.0677 -1.2527 0.9761
1.1846 6.2556 -1.3458 0.9743
0.0575 6.9780 -1.4751 0.9719
-0.5127 6.2980 -1.3357 0.9745
-1.8816 10.9161 -2.3415 0.9557
-3.6621 10.0445 -2.2599 0.9572
-4.4587 9.4938 -2.2171 0.9580
-2.1191 2.4781 -0.6892 0.9868
-7.4537 7.2840 -2.2030 0.9583
-8.9423 3.0288 -1.9957 0.9621
-9.0141 2.1784 -1.9603 0.9628
-8.4175 -1.7958 -1.8193 0.9654
-7.4123 -3.8454 -1.7651 0.9664
-6.9874 -4.4593 -1.7522 0.9667
-6.5221 -5.0357 -1.7418 0.9669
-6.0189 -5.5730 -1.7339 0.9670
-5.4801 -6.0698 -1.7286 0.9671
-4.3048 -6.9360 -1.7256 0.9672
-3.6728 -7.3025 -1.7278 0.9671
-2.3308 -7.8949 -1.7400 0.9669
-0.9000 -8.2888 -1.7624 0.9665
-0.1572 -8.4071 -1.7774 0.9662
2.1483 -8.4247 -1.8378 0.9651
4.5003 -7.8953 -1.9210 0.9635
5.2759 -7.5885 -1.9536 0.9629
6.7841 -6.7699 -2.0259 0.9616
8.1944 -5.6717 -2.1066 0.9601
8.2077 -4.6556 -1.9946 0.9622
8.7689 -3.9846 -2.0359 0.9614
9.2792 -3.2516 -2.0784 0.9606
9.7307 -2.4596 -2.1216 0.9598
10.1151 -1.6129 -2.1651 0.9590
10.6499 0.2215 -2.2517 0.9574
9.9349 1.0999 -2.1129 0.9600
7.8721 2.3421 -1.7361 0.9670
7.0756 2.8149 -1.6096 0.9693
4.7637 4.3190 -1.3592 0.9741
4.2593 4.6194 -1.3282 0.9746
3.6413 4.7366 -1.2629 0.9759
3.1791 5.0046 -1.2533 0.9761
2.7236 5.2768 -1.2552 0.9760
1.3041 6.1765 -1.3344 0.9745
0.7781 6.5282 -1.3897 0.9735
-0.3753 6.2166 -1.3165 0.9749
-2.5905 10.6220 -2.3111 0.9563
-4.2784 9.6287 -2.2272 0.9578
-5.0218 9.0287 -2.1838 0.9586
-6.7761 8.2686 -2.2597 0.9572
-8.5189 4.9507 -2.0827 0.9605
-8.7547 4.0892 -2.0425 0.9613
-8.9153 3.2292 -2.0043 0.9620
-9.0036 2.3764 -1.9683 0.9626
-9.0228 1.5358 -1.9347 0.9633
-8.9765 0.7118 -1.9034 0.9639
-8.8679 -0.0916 -1.8746 0.9644
-8.7004 -0.8711 -1.8483 0.9649
-8.4774 -1.6238 -1.8245 0.9653
-7.8770 -3.0386 -1.7846 0.9661
-7.5056 -3.6965 -1.7685 0.9664
-6.6345 -4.9043 -1.7440 0.9668
-5.6092 -5.9572 -1.7296 0.9671
-3.8231 -7.2208 -1.7271 0.9671
-3.1705 -7.5520 -1.7313 0.9671
-1.0714 -8.2534 -1.7593 0.9665
3.5338 -8.1826 -1.8840 0.9642
5.0953 -7.6663 -1.9458 0.9631
5.8618 -7.3076 -1.9802 0.9624
6.6117 -6.8800 -2.0170 0.9617
7.3387 -6.3825 -2.0559 0.9610
8.0362 -5.8147 -2.0967 0.9603
8.6418 -4.1472 -2.0262 0.9616
10.0316 -1.8157 -2.1549 0.9592
10.6050 -0.0015 -2.2417 0.9576
10.2382 0.9170 -2.1728 0.9588
8.0756 2.2197 -1.7703 0.9663
5.9084 3.5147 -1.4532 0.9723
5.3019 3.8340 -1.3830 0.9736
3.2863 4.9417 -1.2545 0.9760
2.8300 5.2124 -1.2537 0.9760
1.0362 3.1427 -0.6995 0.9866
0.3416 6.8116 -1.4416 0.9725
-1.4339 11.0692 -2.3594 0.9554
-2.3772 10.7173 -2.3205 0.9561
-4.0943 9.7600 -2.2372 0.9577
-4.8542 9.1744 -2.1940 0.9585
-5.5421 8.5311 -2.1504 0.9593
-8.7064 4.2909 -2.0517 0.9611
-8.9892 2.5750 -1.9766 0.9625
-9.0243 1.7311 -1.9423 0.9631
-8.9930 0.9029 -1.9105 0.9637
-8.8987 0.0944 -1.8811 0.9643
-8.5344 -1.4502 -1.8299 0.9652
-7.9572 -2.8797 -1.7888 0.9660
-7.1915 -4.1766 -1.7579 0.9666
-6.2590 -5.3265 -1.7373 0.9670
-5.1797 -6.3170 -1.7268 0.9672
-4.5908 -6.7489 -1.7254 0.9672
-3.9720 -7.1366 -1.7265 0.9672
-3.3255 -7.4787 -1.7301 0.9671
0.2442 -8.4478 -1.7864 0.9660
1.0085 -8.4812 -1.8054 0.9657
1.7831 -8.4566 -1.8269 0.9653
2.5648 -8.3722 -1.8509 0.9648
3.3500 -8.2260 -1.8775 0.9643
4.1345 -8.0160 -1.9065 0.9638
4.9141 -7.7405 -1.9381 0.9632
6.4380 -6.9863 -2.0082 0.9619
7.1709 -6.5052 -2.0466 0.9612
7.8760 -5.9538 -2.0870 0.9604
8.5160 -5.3135 -2.1218 0.9598
2.3210 -0.9241 -0.5280 0.9898
9.5272 -2.8374 -2.1013 0.9602
9.9441 -2.0157 -2.1447 0.9594
10.2895 -1.1420 -2.1883 0.9586
10.5552 -0.2225 -2.2316 0.9578
9.3029 1.4808 -1.9912 0.9622
8.2873 2.0924 -1.8067 0.9657
7.4308 2.6016 -1.6642 0.9683
5.4397 3.7628 -1.3981 0.9733
4.8725 4.0594 -1.3405 0.9744
0.7760 3.0397 -0.6631 0.9873
-7.3571 -2.4428 -1.8219 0.9686
-7.0461 -3.0628 -1.8057 0.9689
-6.2988 -4.2079 -1.7803 0.9694
-5.8674 -4.7295 -1.7712 0.9695
-4.3703 -6.0704 -1.7580 0.9697
-3.8112 -6.4377 -1.7583 0.9697
-2.6162 -7.0441 -1.7660 0.9696
-1.9847 -7.2802 -1.7734 0.9695
-1.3336 -7.4693 -1.7832 0.9693
-0.6655 -7.6101 -1.7954 0.9691
3.5450 -7.3474 -1.9173 0.9670
5.6210 -6.4358 -2.0082 0.9655
6.2789 -6.0087 -2.0425 0.9649
6.9104 -5.5194 -2.0785 0.9643
7.4956 -4.9592 -2.1123 0.9637
8.7616 -2.0205 -2.1132 0.9637
9.0691 -1.2521 -2.1517 0.9631
6.8968 2.9125 -1.7595 0.9697
6.2279 3.3142 -1.6580 0.9714
4.1395 4.6826 -1.4689 0.9746
3.5914 4.8798 -1.4240 0.9754
3.1236 5.1524 -1.4161 0.9755
1.9318 3.9433 -1.0320 0.9821
2.1914 5.7164 -1.4388 0.9752
0.6491 6.6228 -1.5640 0.9730
0.0574 6.9691 -1.6379 0.9718
-3.2439 8.8975 -2.2258 0.9618
-4.6133 7.9003 -2.1501 0.9631
-2.1196 2.4787 -0.7665 0.9867
-7.0995 5.7932 -2.1535 0.9630
-7.4515 5.0429 -2.1146 0.9637
-7.7325 4.2797 -2.0771 0.9643
-7.1228 -2.9204 -1.8093 0.9689
-6.7789 -3.5169 -1.7949 0.9691
-6.3944 -4.0808 -1.7828 0.9693
-5.9716 -4.6106 -1.7731 0.9695
-5.5129 -5.1045 -1.7658 0.9696
-4.4971 -5.9784 -1.7582 0.9697
-3.9445 -6.3555 -1.7580 0.9697
-2.1343 -7.2291 -1.7715 0.9695
-1.4876 -7.4294 -1.7807 0.9693
-0.1437 -7.6842 -1.8063 0.9689
2.6689 -7.5655 -1.8855 0.9676
3.3793 -7.3956 -1.9110 0.9671
4.7814 -6.8773 -1.9686 0.9662
6.1271 -6.1142 -2.0343 0.9651
7.8564 -3.5699 -2.0281 0.9652
8.2957 -2.9069 -2.0659 0.9645
9.2578 -0.6367 -2.1809 0.9626
9.4377 0.1963 -2.2186 0.9620
8.7886 1.7790 -2.1074 0.9638
5.7625 3.5932 -1.5960 0.9725
5.2008 3.9293 -1.5319 0.9736
4.2544 4.6142 -1.4751 0.9745
0.7802 6.5459 -1.5493 0.9733
-0.3748 6.2093 -1.4620 0.9748
-2.2888 9.3847 -2.2703 0.9611
-3.0688 8.9981 -2.2344 0.9617
-3.7961 8.5433 -2.1972 0.9623
-5.0730 7.4622 -2.1207 0.9636
-7.0067 5.9661 -2.1628 0.9629
-7.6730 4.4591 -2.0857 0.9642
-7.9006 3.6903 -2.0494 0.9648
-8.0601 2.9195 -2.0148 0.9654
-8.1847 1.3931 -1.9513 0.9665
-7.9251 -0.7935 -1.8719 0.9678
-7.7308 -1.4808 -1.8499 0.9682
-7.1971 -2.7764 -1.8130 0.9688
-5.6233 -4.9922 -1.7673 0.9696
-5.1388 -5.4576 -1.7618 0.9697
-4.6223 -5.8843 -1.7586 0.9697
-4.0763 -6.2710 -1.7578 0.9697
-2.9043 -6.9180 -1.7634 0.9696
-2.2828 -7.1754 -1.7697 0.9695
-0.3039 -7.6647 -1.8028 0.9690
1.7918 -7.6959 -1.8571 0.9681
2.5025 -7.5969 -1.8798 0.9677
3.2133 -7.4406 -1.9048 0.9672
4.6195 -6.9505 -1.9614 0.9663
5.9739 -6.2163 -2.0262 0.9652
6.6185 -5.7561 -2.0615 0.9646
7.7464 -3.7175 -2.0194 0.9653
8.1975 -3.0667 -2.0570 0.9647
8.5955 -2.3652 -2.0952 0.9640
9.2047 -0.8269 -2.1720 0.9627
9.4026 -0.0013 -2.2098 0.9621
9.5212 0.8527 -2.2467 0.9615
9.0318 1.6322 -2.1571 0.9630
8.0632 2.2163 -1.9653 0.9662
7.2399 2.7062 -1.8165 0.9687
5.9010 3.5102 -1.6137 0.9722
4.8269 4.1956 -1.5031 0.9741
3.8147 4.7529 -1.4323 0.9753
2.8774 5.2996 -1.4173 0.9755
2.4134 5.5842 -1.4297 0.9753
0.7369 3.1612 -0.7629 0.9868
-1.2638 9.7562 -2.3121 0.9604
-2.0993 9.4645 -2.2784 0.9609
-4.3143 8.1539 -2.1681 0.9628
-5.4947 6.9988 -2.0912 0.9641
-6.4519 6.8560 -2.2126 0.9621
-6.9100 6.1379 -2.1722 0.9627
-8.0288 3.0997 -2.0227 0.9653
-8.1671 0.8200 -1.9291 0.9668
-7.9632 -0.6292 -1.8774 0.9677
-7.5485 -1.9901 -1.8347 0.9684
-7.2690 -2.6307 -1.8168 0.9687
-6.5793 -3.8211 -1.7881 0.9692
-5.7319 -4.8779 -1.7689 0.9695
-5.2551 -5.3521 -1.7628 0.9696
-4.2066 -6.1842 -1.7578 0.9697
-3.0465 -6.8513 -1.7622 0.9697
-1.1362 -7.5164 -1.7866 0.9692
-0.4634 -7.6425 -1.7995 0.9690
0.9205 -7.7414 -1.8322 0.9685
1.6259 -7.7110 -1.8521 0.9681
3.0472 -7.4824 -1.8988 0.9673
3.7556 -7.2812 -1.9255 0.9669
4.4569 -7.0203 -1.9543 0.9664
5.1465 -6.6985 -1.9853 0.9659
7.0925 -5.3616 -2.0896 0.9641
7.2014 -4.4933 -1.9949 0.9657
7.6340 -3.8622 -2.0107 0.9655
8.5075 -2.5337 -2.0862 0.9642
8.8601 -1.7960 -2.1247 0.9635
9.1475 -1.0153 -2.1631 0.9629
9.5009 0.6508 -2.2382 0.9616
9.2869 1.4782 -2.2101 0.9621
8.2743 2.0891 -2.0057 0.9655
7.4200 2.5978 -1.8477 0.9682
6.6891 3.0373 -1.7266 0.9703
4.9187 4.0979 -1.5046 0.9740
3.9273 4.6886 -1.4374 0.9752
2.9856 5.2345 -1.4163 0.9755
2.5225 5.5164 -1.4256 0.9754
2.0482 5.8008 -1.4458 0.9750
0.7702 3.0167 -0.7317 0.9873
-6.4829 -2.8180 -1.8303 0.9712
-6.1613 -3.3620 -1.8173 0.9714
-4.0295 -5.5970 -1.7857 0.9719
-3.5140 -5.9356 -1.7860 0.9719
-2.9738 -6.2346 -1.7885 0.9719
-2.4113 -6.4925 -1.7932 0.9718
1.2997 -7.0956 -1.8677 0.9706
1.9490 -7.0254 -1.8877 0.9703
2.5989 -6.9029 -1.9098 0.9700
3.2456 -6.7269 -1.9338 0.9696
5.7170 -5.4710 -2.0488 0.9678
6.2821 -5.0176 -2.0817 0.9673
6.8006 -4.4993 -2.1113 0.9669
6.7838 -3.6624 -1.9961 0.9686
7.5758 -2.4779 -2.0638 0.9676
8.3579 -0.3992 -2.1665 0.9660
8.4881 0.3544 -2.1996 0.9655
8.5450 1.1275 -2.2316 0.9650
6.8873 2.9084 -1.9357 0.9696
6.2198 3.3098 -1.8242 0.9713
5.6198 3.6699 -1.7378 0.9726
4.6328 4.3805 -1.6508 0.9740
4.1348 4.6772 -1.6164 0.9745
1.1923 6.2959 -1.6591 0.9739
-1.4832 8.6051 -2.2609 0.9646
-2.2158 8.3244 -2.2304 0.9650
-2.9083 7.9769 -2.1983 0.9655
-4.6921 6.6005 -2.0968 0.9671
-2.1203 2.4795 -0.8447 0.9866
-6.0381 5.9006 -2.1859 0.9657
-7.0299 3.8908 -2.0804 0.9673
-7.2336 3.1960 -2.0476 0.9679
-7.4524 0.4342 -1.9328 0.9696
-7.3688 -0.2305 -1.9088 0.9700
-7.2345 -0.8777 -1.8869 0.9703
-6.8238 -2.1082 -1.8492 0.9709
-6.5524 -2.6866 -1.8336 0.9712
-6.2401 -3.2373 -1.8202 0.9714
-5.5022 -4.2482 -1.7998 0.9717
-5.0812 -4.7048 -1.7930 0.9718
-3.1023 -6.1682 -1.7877 0.9719
-1.9666 -6.6613 -1.7983 0.9717
-0.1322 -7.0698 -1.8308 0.9712
0.5041 -7.1119 -1.8460 0.9710
1.7969 -7.0465 -1.8828 0.9704
2.4470 -6.9363 -1.9044 0.9701
3.7364 -6.5552 -1.9536 0.9693
4.3677 -6.2823 -1.9811 0.9689
6.1525 -5.1287 -2.0739 0.9674
6.6883 -4.6292 -2.1061 0.9669
6.6796 -3.7888 -1.9883 0.9688
7.8263 -1.9783 -2.0901 0.9672
8.3173 -0.5720 -2.1586 0.9661
8.4640 0.1760 -2.1920 0.9656
8.5385 0.9453 -2.2243 0.9651
8.5366 1.7279 -2.2551 0.9647
7.8483 2.3350 -2.1201 0.9667
7.0557 2.8070 -1.9661 0.9691
5.1945 3.9246 -1.6857 0.9735
4.7526 4.3090 -1.6610 0.9738
3.2346 5.0919 -1.5619 0.9754
1.9957 3.8666 -1.1266 0.9822
0.9498 3.0972 -0.8388 0.9867
0.6886 3.2612 -0.8630 0.9863
0.2006 6.8764 -1.7812 0.9720
-1.3067 8.6605 -2.2677 0.9645
-2.0477 8.3963 -2.2377 0.9649
-2.7501 8.0638 -2.2060 0.9654
-3.4078 7.6695 -2.1730 0.9659
-5.9296 6.0424 -2.1920 0.9656
-6.3463 5.4038 -2.1581 0.9661
-6.6918 4.7360 -2.1227 0.9667
-7.4823 1.2735 -1.9652 0.9691
-7.3930 -0.0764 -1.9143 0.9699
-7.0989 -1.3598 -1.8715 0.9706
-6.8812 -1.9691 -1.8532 0.9709
-5.5959 -4.1365 -1.8018 0.9717
-5.1827 -4.6010 -1.7944 0.9718
-4.7372 -5.0311 -1.7892 0.9719
-3.2295 -6.0997 -1.7870 0.9719
-2.1037 -6.6124 -1.7966 0.9717
-1.5113 -6.8045 -1.8047 0.9716
-0.2797 -7.0530 -1.8276 0.9713
0.3544 -7.1064 -1.8423 0.9710
2.2949 -6.9668 -1.8992 0.9701
3.5870 -6.6110 -1.9474 0.9694
4.2212 -6.3511 -1.9745 0.9690
4.8415 -6.0356 -2.0034 0.9685
5.4432 -5.6641 -2.0340 0.9681
6.0213 -5.2367 -2.0661 0.9676
6.5701 -4.7539 -2.0997 0.9670
6.5733 -3.9126 -1.9806 0.9689
7.0122 -3.3652 -2.0138 0.9684
7.4074 -2.7711 -2.0477 0.9678
7.7532 -2.1334 -2.0820 0.9673
8.5440 1.5440 -2.2480 0.9648
8.0507 2.2129 -2.1618 0.9661
7.2296 2.7023 -1.9983 0.9686
5.3218 3.8484 -1.7004 0.9732
4.3653 4.5400 -1.6307 0.9743
3.8118 4.7493 -1.5768 0.9752
2.4111 5.5789 -1.5736 0.9752
1.0995 3.3347 -0.9091 0.9856
0.7354 3.1546 -0.8387 0.9867
-0.2433 6.1779 -1.6008 0.9748
-1.1285 8.7118 -2.2745 0.9644
-3.2582 7.7670 -2.1808 0.9658
-4.4456 6.8432 -2.1129 0.9668
-5.4107 5.7496 -2.0442 0.9679
-6.2561 5.5571 -2.1666 0.9660
-6.6167 4.8939 -2.1309 0.9666
-6.9131 4.2135 -2.0962 0.9671
-7.1460 3.5219 -2.0627 0.9676
-7.3167 2.8248 -2.0307 0.9681
-7.4269 2.1275 -2.0003 0.9686
-7.1433 -1.2138 -1.8760 0.9705
-6.6847 -2.4192 -1.8406 0.9711
-6.3912 -2.9831 -1.8262 0.9713
-5.2823 -4.4953 -1.7959 0.9717
-3.8786 -5.7019 -1.7855 0.9719
-3.3555 -6.0289 -1.7865 0.9719
-2.8084 -6.3158 -1.7897 0.9718
-1.0463 -6.9215 -1.8125 0.9715
-0.4265 -7.0335 -1.8245 0.9713
0.8460 -7.1142 -1.8550 0.9708
1.4929 -7.0801 -1.8735 0.9705
2.7921 -6.8561 -1.9167 0.9699
3.4371 -6.6639 -1.9414 0.9695
4.0738 -6.4169 -1.9680 0.9691
6.4446 -4.8718 -2.0917 0.9672
6.4649 -4.0337 -1.9730 0.9690
2.3241 -0.9253 -0.6477 0.9897
7.6770 -2.2864 -2.0740 0.9674
8.5129 0.5831 -2.2093 0.9654
7.4092 2.5940 -2.0326 0.9681
6.6800 3.0332 -1.8995 0.9701
4.9129 4.0930 -1.6556 0.9739
4.4822 4.4703 -1.6390 0.9742
3.9228 4.6833 -1.5818 0.9751
2.0458 5.7942 -1.5910 0.9749
-5.3729 -3.5894 -1.8292 0.9735
-5.0087 -4.0373 -1.8212 0.9736
-4.1875 -4.8380 -1.8114 0.9738
-3.7348 -5.1877 -1.8096 0.9738
-3.2570 -5.5015 -1.8099 0.9738
-2.7560 -5.7780 -1.8123 0.9737
0.0147 -6.5529 -1.8551 0.9731
0.6048 -6.5771 -1.8698 0.9729
1.7990 -6.4846 -1.9051 0.9724
3.5756 -5.9786 -1.9721 0.9715
5.2425 -5.0169 -2.0542 0.9703
6.1950 -3.3445 -1.9930 0.9712
6.8979 -2.2562 -2.0545 0.9703
7.1791 -1.6556 -2.0857 0.9698
7.5763 -0.3619 -2.1472 0.9690
7.7242 1.0192 -2.2056 0.9681
7.6958 1.7262 -2.2327 0.9677
3.5875 4.8746 -1.7134 0.9752
1.9061 3.8908 -1.2265 0.9821
0.8770 3.0893 -0.9091 0.9867
1.1908 6.2883 -1.8118 0.9737
0.6475 6.6064 -1.8792 0.9728
-2.6327 7.2210 -2.1758 0.9686
-3.2225 6.8616 -2.1460 0.9690
-2.1209 2.4803 -0.9239 0.9865
-5.1092 4.9929 -2.0223 0.9707
-6.1855 4.1861 -2.1144 0.9694
-6.4381 3.5633 -2.0831 0.9699
-6.6334 2.9309 -2.0530 0.9703
-6.7724 2.2938 -2.0242 0.9707
-6.8563 1.6569 -1.9969 0.9711
-6.8869 1.0244 -1.9711 0.9715
-6.8660 0.4000 -1.9470 0.9718
-6.7956 -0.2125 -1.9247 0.9721
-6.6777 -0.8101 -1.9043 0.9724
-6.5146 -1.3898 -1.8857 0.9727
-6.0613 -2.4852 -1.8546 0.9731
-5.4534 -3.4803 -1.8314 0.9735
-5.0969 -3.9353 -1.8229 0.9736
-4.2896 -4.7512 -1.8121 0.9737
-3.8431 -5.1090 -1.8098 0.9738
-3.3709 -5.4313 -1.8096 0.9738
-2.3581 -5.9637 -1.8155 0.9737
-1.8219 -6.1710 -1.8215 0.9736
-0.1223 -6.5407 -1.8519 0.9732
0.4661 -6.5755 -1.8662 0.9730
2.2570 -6.3979 -1.9206 0.9722
2.8518 -6.2412 -1.9426 0.9719
3.4395 -6.0343 -1.9663 0.9715
5.1191 -5.1084 -2.0473 0.9704
5.6360 -4.6981 -2.0772 0.9700
6.1019 -3.4611 -1.9859 0.9713
6.4846 -2.9466 -2.0164 0.9708
7.3585 -1.1733 -2.1095 0.9695
7.5420 -0.5187 -2.1401 0.9691
7.6641 0.1594 -2.1701 0.9686
7.6257 2.2688 -2.2523 0.9675
7.0457 2.8030 -2.1466 0.9690
6.3606 3.2158 -2.0177 0.9708
5.7479 3.5841 -1.9176 0.9722
4.7470 4.3039 -1.8139 0.9737
3.6972 4.8094 -1.7173 0.9751
3.2310 5.0862 -1.7058 0.9753
1.9509 3.7799 -1.2042 0.9825
2.2978 5.6378 -1.7235 0.9750
0.6912 3.2735 -0.9471 0.9862
0.7783 6.5299 -1.8616 0.9730
-1.8505 7.5878 -2.2110 0.9681
-3.6447 6.5527 -2.1227 0.9693
-4.1541 6.1105 -2.0917 0.9698
-4.6137 5.6299 -2.0606 0.9702
-5.0214 5.1169 -2.0296 0.9706
-5.7938 4.9334 -2.1542 0.9689
-6.1180 4.3299 -2.1218 0.9693
-6.8415 1.8057 -2.0031 0.9710
-6.8845 1.1718 -1.9770 0.9714
-6.7095 -0.6718 -1.9089 0.9724
-6.3604 -1.8201 -1.8729 0.9729
-5.8458 -2.8791 -1.8447 0.9733
-5.5319 -3.3696 -1.8337 0.9734
-4.8019 -4.2630 -1.8178 0.9737
-3.9500 -5.0284 -1.8102 0.9738
-1.9490 -6.1261 -1.8199 0.9736
-1.3997 -6.3020 -1.8275 0.9735
-0.8355 -6.4357 -1.8372 0.9734
-0.2588 -6.5260 -1.8489 0.9732
0.3277 -6.5715 -1.8627 0.9730
1.5188 -6.5234 -1.8961 0.9725
2.1172 -6.4275 -1.9157 0.9723
3.8824 -5.8415 -1.9856 0.9713
4.4478 -5.5448 -2.0123 0.9709
4.9944 -5.1971 -2.0405 0.9705
5.5175 -4.7986 -2.0701 0.9701
6.0123 -4.3503 -2.1009 0.9696
6.0068 -3.5754 -1.9789 0.9714
7.5044 -0.6742 -2.1330 0.9692
7.7135 0.6908 -2.1924 0.9683
7.7179 1.3947 -2.2203 0.9679
6.5136 3.1237 -2.0450 0.9704
5.8859 3.5012 -1.9388 0.9719
5.3152 3.8436 -1.8569 0.9731
4.8249 4.1939 -1.8098 0.9738
4.3602 4.5347 -1.7809 0.9742
3.8075 4.7439 -1.7220 0.9750
3.3134 4.9824 -1.6939 0.9754
2.0991 3.8662 -1.2454 0.9819
0.7347 3.1515 -0.9161 0.9866
0.3403 6.7858 -1.9234 0.9721
-1.6962 7.6470 -2.2174 0.9680
-2.3426 7.3706 -2.1894 0.9684
-4.0392 6.2177 -2.0990 0.9696
-4.5107 5.7455 -2.0679 0.9701
-6.0473 4.4728 -2.1293 0.9692
-6.5491 3.2277 -2.0669 0.9701
-6.7143 2.5922 -2.0375 0.9705
-6.8238 1.9547 -2.0095 0.9709
-6.8791 1.3196 -1.9829 0.9713
-6.8346 0.0725 -1.9349 0.9720
-6.5965 -1.1209 -1.8942 0.9726
-6.4101 -1.6900 -1.8767 0.9728
-6.1819 -2.2372 -1.8611 0.9730
-5.6086 -3.2573 -1.8361 0.9734
-5.2678 -3.7260 -1.8266 0.9735
-4.0554 -4.9459 -1.8106 0.9738
-3.1100 -5.5878 -1.8104 0.9738
-2.0751 -6.0790 -1.8184 0.9737
-1.5297 -6.2646 -1.8256 0.9735
-0.9687 -6.4083 -1.8347 0.9734
0.1897 -6.5649 -1.8593 0.9731
1.3788 -6.5388 -1.8918 0.9726
4.8684 -5.2830 -2.0338 0.9706
5.3975 -4.8964 -2.0630 0.9702
5.8994 -4.4596 -2.0936 0.9697
7.2527 -1.4702 -2.0949 0.9697
7.4635 -0.8283 -2.1258 0.9693
7.7026 0.5276 -2.1857 0.9684
7.7231 1.2293 -2.2139 0.9680
7.6735 1.9374 -2.2405 0.9676
7.3983 2.5902 -2.2191 0.9679
6.6708 3.0290 -2.0740 0.9700
4.9070 4.0881 -1.8080 0.9738
4.4769 4.4651 -1.7900 0.9741
3.9183 4.6779 -1.7275 0.9750
3.4485 4.9572 -1.7095 0.9752
2.9843 5.2323 -1.7052 0.9753
2.5184 5.5076 -1.7144 0.9751
0.7632 2.9893 -0.8734 0.9873
1.0330 6.3808 -1.8299 0.9735
-5.8105 -1.9293 -1.8831 0.9747
-5.5753 -2.4235 -1.8699 0.9749
-5.3041 -2.8942 -1.8585 0.9750
-4.6612 -3.7573 -1.8415 0.9753
-3.8985 -4.5041 -1.8322 0.9754
-3.4773 -4.8299 -1.8305 0.9754
-2.5657 -5.3790 -1.8330 0.9754
-1.0580 -5.9256 -1.8514 0.9751
-0.5272 -6.0288 -1.8614 0.9750
0.0136 -6.0905 -1.8733 0.9748
2.2216 -5.9007 -1.9393 0.9740
3.3085 -5.5320 -1.9826 0.9734
3.8354 -5.2774 -2.0066 0.9731
4.8359 -4.6278 -2.0587 0.9724
5.3007 -4.2337 -2.0866 0.9720
5.7204 -3.7847 -2.1097 0.9717
2.2805 -0.9792 -0.7634 0.9897
6.5742 -1.5161 -2.0752 0.9722
7.0101 0.2927 -2.1580 0.9711
7.0393 0.9288 -2.1839 0.9707
6.9077 2.2136 -2.2311 0.9701
6.2032 3.3010 -2.1613 0.9710
5.0571 3.9897 -1.9812 0.9734
4.1001 4.6380 -1.9040 0.9744
3.5834 4.8690 -1.8595 0.9750
3.1189 5.1446 -1.8504 0.9751
1.8947 3.8675 -1.3246 0.9821
2.1839 5.6967 -1.8765 0.9748
1.1894 6.2807 -1.9661 0.9736
0.6467 6.5980 -2.0391 0.9726
-0.5097 6.2608 -1.9321 0.9741
-1.2190 7.0725 -2.2074 0.9704
-2.4021 6.5886 -2.1570 0.9711
-2.9438 6.2682 -2.1300 0.9714
-3.4466 5.9022 -2.1023 0.9718
-2.1216 2.4811 -1.0041 0.9864
-4.6907 4.5840 -2.0173 0.9729
-5.3972 4.4041 -2.1426 0.9713
-5.6928 3.8527 -2.1143 0.9716
-5.9323 3.2833 -2.0855 0.9720
-6.1192 2.7037 -2.0577 0.9724
-6.3593 0.3705 -1.9593 0.9737
-6.1949 -0.7515 -1.9194 0.9742
-5.8601 -1.8105 -1.8865 0.9747
-5.3707 -2.7863 -1.8610 0.9750
-5.0731 -3.2376 -1.8511 0.9751
-4.7430 -3.6620 -1.8431 0.9752
-4.3824 -4.0577 -1.8370 0.9753
-3.9934 -4.4231 -1.8329 0.9754
-3.5781 -4.7566 -1.8308 0.9754
-3.1385 -5.0568 -1.8306 0.9754
-2.6767 -5.3221 -1.8323 0.9754
-2.1950 -5.5512 -1.8361 0.9753
-1.6955 -5.7428 -1.8417 0.9753
-1.1805 -5.8956 -1.8494 0.9752
-0.6524 -6.0083 -1.8589 0.9750
-0.1137 -6.0798 -1.8704 0.9749
0.9849 -6.0946 -1.8989 0.9745
1.5391 -6.0358 -1.9159 0.9743
3.1833 -5.5848 -1.9772 0.9735
3.7135 -5.3412 -2.0009 0.9731
4.2282 -5.0507 -2.0260 0.9728
5.1944 -4.3300 -2.0800 0.9721
5.6282 -3.8955 -2.1053 0.9718
5.6104 -3.1823 -1.9839 0.9734
5.9549 -2.7059 -2.0118 0.9730
6.2596 -2.1935 -2.0401 0.9726
6.5201 -1.6481 -2.0685 0.9722
6.7321 -1.0735 -2.0968 0.9719
7.0380 0.7792 -2.1780 0.9708
7.0193 1.4208 -2.2028 0.9705
6.9365 2.0637 -2.2259 0.9702
6.7884 2.7007 -2.2471 0.9699
5.7405 3.5795 -2.0808 0.9721
4.6615 4.2264 -1.9354 0.9740
1.9021 3.6853 -1.2756 0.9828
0.9585 3.1255 -1.0055 0.9864
-1.6861 6.9135 -2.1888 0.9707
-2.8204 6.3475 -2.1364 0.9714
-3.3326 5.9917 -2.1088 0.9717
-4.2293 5.1608 -2.0523 0.9725
-5.3158 4.5263 -2.1475 0.9712
-5.6291 3.9839 -2.1211 0.9716
-5.8810 3.4177 -2.0921 0.9719
-6.2272 2.2556 -2.0371 0.9727
-6.3231 1.6689 -2.0115 0.9730
-6.3691 1.0841 -1.9872 0.9733
-6.3666 0.5049 -1.9644 0.9736
-6.3174 -0.0653 -1.9432 0.9739
-5.6900 -2.1950 -1.8758 0.9748
-4.8230 -3.5652 -1.8448 0.9752
-3.6775 -4.6815 -1.8311 0.9754
-1.3023 -5.8634 -1.8474 0.9752
-0.7770 -5.9856 -1.8565 0.9751
0.8555 -6.1019 -1.8952 0.9745
1.4094 -6.0536 -1.9117 0.9743
2.5138 -5.8208 -1.9502 0.9738
3.5906 -5.4024 -1.9952 0.9732
4.1093 -5.1229 -2.0200 0.9729
5.5339 -4.0041 -2.1009 0.9718
5.5245 -3.2883 -1.9774 0.9735
6.1921 -2.3165 -2.0335 0.9727
6.4633 -1.7785 -2.0619 0.9723
7.0333 0.6299 -2.1720 0.9709
7.0294 1.2703 -2.1971 0.9705
6.9617 1.9135 -2.2207 0.9702
6.8289 2.5526 -2.2424 0.9700
5.8782 3.4967 -2.1037 0.9718
3.8031 4.7384 -1.8688 0.9749
2.4056 5.5661 -1.8651 0.9749
1.9279 5.8474 -1.8938 0.9746
0.7365 3.1594 -0.9978 0.9865
-0.2429 6.1686 -1.8988 0.9745
-2.1363 6.7214 -2.1693 0.9709
-3.2164 6.0789 -2.1153 0.9716
-3.6969 5.6908 -2.0873 0.9720
-4.5243 4.8076 -2.0305 0.9728
-4.8672 4.3233 -2.0023 0.9731
-6.3627 1.2206 -1.9927 0.9733
-6.3715 0.6397 -1.9696 0.9736
-5.7443 -2.0789 -1.8790 0.9748
-5.4982 -2.5663 -1.8663 0.9749
-5.2165 -3.0296 -1.8555 0.9751
-4.5548 -3.8762 -1.8396 0.9753
-3.7756 -4.6046 -1.8315 0.9754
-0.9010 -5.9606 -1.8542 0.9751
-0.3670 -6.0516 -1.8648 0.9749
0.1763 -6.1007 -1.8772 0.9748
1.2797 -6.0689 -1.9077 0.9744
1.8338 -5.9861 -1.9256 0.9741
2.3854 -5.8576 -1.9453 0.9739
2.9311 -5.6827 -1.9667 0.9736
3.4670 -5.4611 -1.9896 0.9733
3.9895 -5.1925 -2.0141 0.9730
4.4943 -4.8770 -2.0399 0.9726
5.4368 -3.3922 -1.9710 0.9735
5.7984 -2.9335 -1.9987 0.9732
2.3273 -0.9266 -0.7705 0.9896
6.4040 -1.9072 -2.0552 0.9724
6.6392 -1.3458 -2.0836 0.9720
6.8237 -0.7573 -2.1117 0.9717
7.0360 1.1199 -2.1914 0.9706
6.9834 1.7631 -2.2153 0.9703
6.8659 2.4038 -2.2375 0.9700
4.9010 4.0831 -1.9620 0.9737
4.3964 4.3848 -1.9098 0.9743
3.4445 4.9515 -1.8552 0.9751
2.9809 5.2263 -1.8506 0.9751
2.5155 5.5012 -1.8606 0.9750
-5.4206 -1.7998 -1.8986 0.9762
-5.2037 -2.2619 -1.8861 0.9764
-4.9525 -2.7024 -1.8754 0.9765
-4.6689 -3.1191 -1.8664 0.9766
-4.3549 -3.5103 -1.8593 0.9767
-4.0125 -3.8743 -1.8540 0.9768
-3.6435 -4.2095 -1.8506 0.9768
-3.2500 -4.5143 -1.8490 0.9768
-2.8341 -4.7872 -1.8493 0.9768
-1.9432 -5.2323 -1.8553 0.9767
1.5548 -5.6044 -1.9333 0.9758
2.0683 -5.4937 -1.9513 0.9756
2.5764 -5.3399 -1.9708 0.9753
3.0756 -5.1426 -1.9918 0.9751
3.5624 -4.9017 -2.0142 0.9748
4.0329 -4.6175 -2.0379 0.9745
4.4833 -4.2904 -2.0627 0.9742
4.9094 -3.9212 -2.0886 0.9739
5.2916 -3.5010 -2.1091 0.9736
5.2631 -2.8414 -1.9882 0.9751
6.2344 -0.8607 -2.0920 0.9738
6.3626 -0.3039 -2.1174 0.9735
6.3267 2.0274 -2.2084 0.9724
5.0508 3.9847 -2.1385 0.9732
3.9640 4.4840 -1.9894 0.9751
3.1152 5.1386 -1.9975 0.9750
2.1813 5.6900 -2.0256 0.9746
0.8762 3.0865 -1.0665 0.9866
0.6458 6.5896 -2.2009 0.9725
0.0551 6.6976 -2.2264 0.9722
-0.5089 6.2517 -2.0850 0.9739
-1.1175 6.4833 -2.1869 0.9726
-1.6750 6.2928 -2.1646 0.9729
-2.7065 5.7629 -2.1164 0.9735
-3.5996 5.0636 -2.0651 0.9742
-4.3311 4.2325 -2.0130 0.9748
-5.2674 3.5648 -2.1142 0.9735
-5.4946 3.0411 -2.0875 0.9739
-5.8039 1.9658 -2.0369 0.9745
-5.8873 1.4227 -2.0133 0.9748
-5.9244 0.8812 -1.9910 0.9751
-5.9165 0.3447 -1.9700 0.9753
-5.8651 -0.1834 -1.9505 0.9756
-5.7717 -0.7002 -1.9326 0.9758
-5.6382 -1.2028 -1.9163 0.9760
-5.4662 -1.6888 -1.9017 0.9762
-5.2576 -2.1557 -1.8888 0.9763
-4.7381 -3.0238 -1.8684 0.9766
-3.7321 -4.1337 -1.8512 0.9768
-3.3442 -4.4458 -1.8492 0.9768
-2.9334 -4.7263 -1.8490 0.9768
-2.0511 -5.1874 -1.8542 0.9768
-1.5840 -5.3654 -1.8596 0.9767
-0.6091 -5.6100 -1.8758 0.9765
0.9183 -5.6824 -1.9134 0.9760
1.4342 -5.6242 -1.9293 0.9758
1.9485 -5.5235 -1.9469 0.9756
2.9598 -5.1926 -1.9868 0.9751
3.9244 -4.6879 -2.0322 0.9746
4.3799 -4.3707 -2.0568 0.9743
5.2071 -3.6040 -2.1050 0.9737
5.1868 -2.9420 -1.9822 0.9752
5.4994 -2.4989 -2.0079 0.9749
6.0085 -1.5188 -2.0601 0.9742
6.4254 0.1336 -2.1363 0.9733
6.4589 0.7150 -2.1601 0.9730
6.4358 1.3027 -2.1827 0.9727
6.3542 1.8905 -2.2037 0.9724
6.2136 2.4720 -2.2229 0.9722
5.1753 3.9100 -2.1561 0.9730
4.4205 4.0078 -1.9834 0.9752
3.2235 5.0744 -1.9983 0.9750
1.9839 3.8436 -1.4378 0.9819
2.2924 5.6246 -2.0190 0.9747
0.9526 3.1062 -1.0800 0.9864
1.3095 6.2018 -2.1070 0.9736
0.7763 6.5135 -2.1804 0.9727
-0.3731 6.1803 -2.0581 0.9742
-2.0845 6.1121 -2.1466 0.9731
-2.5924 5.8344 -2.1222 0.9734
-3.0664 5.5131 -2.0970 0.9738
-3.5031 5.1530 -2.0712 0.9741
-4.5653 3.8873 -1.9931 0.9750
-5.2072 3.6853 -2.1205 0.9735
-5.9223 0.4696 -1.9748 0.9753
-5.8809 -0.0608 -1.9550 0.9755
-5.6729 -1.0866 -1.9200 0.9759
-5.0742 -2.4991 -1.8802 0.9764
-4.5055 -3.3305 -1.8624 0.9767
-3.8194 -4.0563 -1.8520 0.9768
-3.4371 -4.3755 -1.8495 0.9768
-2.6044 -4.9190 -1.8501 0.9768
-1.6947 -5.3270 -1.8582 0.9767
-1.2164 -5.4769 -1.8649 0.9766
-0.7256 -5.5893 -1.8735 0.9765
0.7977 -5.6900 -1.9099 0.9761
1.3135 -5.6416 -1.9254 0.9759
2.3395 -5.4173 -1.9615 0.9754
3.8149 -4.7559 -2.0266 0.9746
4.2753 -4.4488 -2.0510 0.9743
4.7133 -4.0992 -2.0764 0.9740
5.1206 -3.7051 -2.1010 0.9737
5.1087 -3.0408 -1.9762 0.9753
5.4295 -2.6056 -2.0019 0.9749
5.7138 -2.1375 -2.0279 0.9746
5.9577 -1.6393 -2.0540 0.9743
6.4095 -0.0009 -2.1306 0.9733
6.4561 0.5782 -2.1546 0.9730
6.4464 1.1649 -2.1775 0.9728
5.3019 3.8340 -2.1749 0.9728
4.1438 4.3096 -1.9873 0.9751
2.1031 3.8735 -1.4651 0.9816
2.4028 5.5596 -2.0132 0.9748
1.9256 5.8404 -2.0442 0.9744
0.7018 3.0106 -1.0276 0.9871
0.3367 6.7137 -2.2345 0.9721
-0.8490 6.5540 -2.1968 0.9725
-1.9612 6.1704 -2.1522 0.9731
-2.4765 5.9034 -2.1280 0.9734
-3.4044 5.2405 -2.0773 0.9740
-3.8107 4.8538 -2.0513 0.9743
-4.4965 3.9941 -1.9992 0.9750
-5.5957 2.7578 -2.0737 0.9740
-5.8541 1.6770 -2.0242 0.9747
-5.9127 1.1342 -2.0012 0.9749
-5.9257 0.5949 -1.9796 0.9752
-5.8944 0.0625 -1.9595 0.9755
-5.7056 -0.9695 -1.9238 0.9759
-5.5513 -1.4636 -1.9084 0.9761
-5.1323 -2.3955 -1.8827 0.9764
-4.5784 -3.2384 -1.8641 0.9766
-3.9052 -3.9773 -1.8528 0.9768
-3.1284 -4.5990 -1.8489 0.9768
-2.7061 -4.8622 -1.8497 0.9768
-1.8046 -5.2866 -1.8568 0.9767
-1.3296 -5.4451 -1.8632 0.9767
-0.8414 -5.5664 -1.8713 0.9765
0.1645 -5.6925 -1.8930 0.9763
1.1928 -5.6567 -1.9217 0.9759
2.2205 -5.4524 -1.9569 0.9755
2.7263 -5.2856 -1.9769 0.9752
4.1694 -4.5245 -2.0452 0.9744
4.6130 -4.1847 -2.0703 0.9741
5.0311 -3.8033 -2.0964 0.9738
5.3575 -2.7105 -1.9958 0.9750
2.3318 -0.9284 -0.8343 0.9895
6.2779 -0.6968 -2.0996 0.9737
6.3907 -0.1347 -2.1248 0.9734
6.4502 0.4418 -2.1491 0.9731
6.2868 2.2011 -2.2141 0.9723
3.9092 4.6670 -2.0237 0.9747
3.4405 4.9457 -2.0026 0.9749
2.9774 5.2202 -1.9976 0.9750
2.0387 5.7740 -2.0354 0.9745
0.7614 2.9822 -1.0231 0.9871
-4.3759 -2.9233 -1.8819 0.9779
-4.0826 -3.2908 -1.8752 0.9780
-3.0479 -4.2334 -1.8654 0.9781
-2.6578 -4.4894 -1.8657 0.9781
-2.2485 -4.7139 -1.8677 0.9781
-0.9260 -5.1865 -1.8841 0.9779
-0.4611 -5.2733 -1.8930 0.9778
0.0119 -5.3230 -1.9035 0.9776
2.4063 -4.9872 -1.9802 0.9768
4.5672 -3.6479 -2.0903 0.9755
2.2783 -0.9783 -0.8867 0.9895
5.9457 0.2483 -2.1281 0.9750
5.6828 2.3998 -2.2060 0.9741
5.4831 2.9178 -2.2211 0.9740
4.2838 4.0506 -2.1083 0.9753
3.5750 4.8576 -2.1568 0.9747
3.1116 5.1326 -2.1464 0.9748
1.8796 3.8366 -1.5278 0.9820
2.1787 5.6833 -2.1766 0.9745
1.1622 6.1369 -2.2336 0.9738
-2.5018 5.3270 -2.1046 0.9753
-2.9348 5.0258 -2.0812 0.9756
-3.3334 4.6892 -2.0574 0.9759
-4.0183 3.9268 -2.0092 0.9764
-4.3012 3.5098 -1.9853 0.9767
-5.1118 2.8292 -2.0893 0.9755
-5.4087 1.8320 -2.0421 0.9760
-5.4907 1.3269 -2.0200 0.9763
-5.2755 -1.1255 -1.9290 0.9773
-5.1170 -1.5809 -1.9152 0.9775
-4.4404 -2.8338 -1.8837 0.9779
-3.8395 -3.5551 -1.8712 0.9780
-3.4997 -3.8763 -1.8676 0.9781
-3.1361 -4.1691 -1.8656 0.9781
-1.4850 -5.0298 -1.8754 0.9780
-1.0334 -5.1609 -1.8822 0.9779
-0.5707 -5.2563 -1.8907 0.9778
-0.0994 -5.3147 -1.9009 0.9777
0.8593 -5.3174 -1.9262 0.9774
3.2179 -4.6284 -2.0159 0.9763
3.6578 -4.3693 -2.0377 0.9761
4.0789 -4.0704 -2.0607 0.9758
4.4776 -3.7324 -2.0846 0.9755
4.8395 -3.3496 -2.1047 0.9753
5.3536 -1.8760 -2.0286 0.9762
5.7346 -0.9144 -2.0766 0.9756
5.9351 0.1234 -2.1229 0.9751
5.9611 0.6599 -2.1447 0.9748
5.8553 1.7421 -2.1846 0.9744
5.7218 2.2764 -2.2021 0.9742
5.2944 3.3014 -2.2313 0.9738
1.9754 3.8272 -1.5402 0.9819
2.2897 5.6179 -2.1695 0.9746
0.9512 3.1018 -1.1602 0.9863
1.2919 6.1187 -2.2363 0.9738
-0.3694 6.1194 -2.1923 0.9743
-1.4270 5.8512 -2.1537 0.9747
-2.3958 5.3919 -2.1100 0.9752
-2.8364 5.0996 -2.0868 0.9755
-3.2433 4.7709 -2.0630 0.9758
-3.6140 4.4100 -2.0390 0.9761
-3.9463 4.0213 -2.0148 0.9763
-4.2387 3.6092 -1.9908 0.9766
-5.0653 2.9436 -2.0951 0.9754
-5.2466 2.4506 -2.0708 0.9757
-5.3831 1.9498 -2.0474 0.9760
-5.4754 1.4452 -2.0251 0.9762
-5.5241 0.9402 -2.0039 0.9765
-5.4206 -0.5427 -1.9481 0.9771
-4.9721 -1.9181 -1.9058 0.9776
-4.5033 -2.7430 -1.8857 0.9778
-3.5814 -3.8036 -1.8683 0.9781
-3.2232 -4.1032 -1.8659 0.9781
-2.8429 -4.3734 -1.8653 0.9781
-2.4423 -4.6128 -1.8665 0.9781
-2.0236 -4.8201 -1.8694 0.9780
-1.5888 -4.9940 -1.8741 0.9780
0.2660 -5.3339 -1.9098 0.9776
0.7466 -5.3251 -1.9229 0.9774
1.2286 -5.2770 -1.9376 0.9772
1.7093 -5.1892 -1.9538 0.9771
2.1857 -5.0611 -1.9714 0.9769
2.6546 -4.8925 -1.9905 0.9766
3.1126 -4.6832 -2.0109 0.9764
3.5564 -4.4335 -2.0325 0.9761
