ply
format ascii 1.0
element vertex 1594
property float32 x
property float32 y
property float32 z
property float32 I
end_header
3.8634 -6.6802 -1.9981 0.9686
4.4465 -6.3121 -1.9991 0.9686
5.5035 -5.4269 -2.0012 0.9686
6.3874 -4.3668 -2.0034 0.9685
6.7551 -3.7813 -2.0044 0.9685
7.0692 -3.1650 -2.0054 0.9685
7.5266 -1.8598 -2.0074 0.9685
7.6661 -1.1812 -2.0083 0.9685
7.7442 -0.4926 -2.0092 0.9684
7.7604 0.2005 -2.0100 0.9684
7.4374 2.2511 -2.0119 0.9684
7.2086 2.9065 -2.0124 0.9684
6.5795 4.1431 -2.0132 0.9684
6.1842 4.7143 -2.0134 0.9684
5.7392 5.2477 -2.0135 0.9684
2.6862 6.6612 -1.8597 0.9708
-0.4549 7.1573 -1.8569 0.9708
-1.0913 7.0853 -1.8561 0.9708
-2.3314 6.7724 -1.8545 0.9708
-2.9250 6.5341 -1.8536 0.9709
-3.4947 6.2439 -1.8526 0.9709
-4.5442 5.5174 -1.8507 0.9709
-6.2973 4.4366 -1.9945 0.9687
-6.6824 3.8652 -1.9988 0.9686
-7.2557 2.6131 -1.9968 0.9686
-7.6782 0.5971 -1.9940 0.9687
-7.6978 -0.0905 -1.9932 0.9687
-7.6562 -0.7767 -1.9925 0.9687
-7.5538 -1.4564 -1.9918 0.9687
-7.1707 -2.7745 -1.9908 0.9687
-6.5609 -4.0035 -1.9900 0.9687
-4.7446 -6.0448 -1.9896 0.9687
-3.5952 -6.7932 -1.9900 0.9687
-2.9751 -7.0881 -1.9903 0.9687
-0.9921 -7.6287 -1.9918 0.9687
0.3801 -7.6889 -1.9932 0.9687
1.0651 -7.6274 -1.9940 0.9687
1.7423 -7.5051 -1.9949 0.9687
3.0515 -7.0825 -1.9967 0.9686
3.6732 -6.7853 -1.9977 0.9686
4.8259 -6.0305 -1.9998 0.9686
5.8272 -5.0820 -2.0019 0.9686
6.2608 -4.5441 -2.0030 0.9685
6.9762 -3.3623 -2.0051 0.9685
7.2521 -2.7277 -2.0061 0.9685
7.6287 -1.3965 -2.0080 0.9685
7.7262 -0.7104 -2.0089 0.9684
7.7355 0.6749 -2.0105 0.9684
7.2870 2.7022 -2.0123 0.9684
7.0183 3.3424 -2.0127 0.9684
2.2735 6.8121 -1.8594 0.9708
1.6561 6.9861 -1.8589 0.9708
0.3876 7.1648 -1.8578 0.9708
-0.2532 7.1682 -1.8571 0.9708
-1.5222 7.0032 -1.8556 0.9708
-2.1401 6.8363 -1.8547 0.9708
-4.3878 5.6442 -1.8510 0.9709
-4.8714 5.2273 -1.8500 0.9709
-6.0963 4.5571 -1.9707 0.9690
-6.5720 4.0525 -1.9991 0.9686
-6.9038 3.4480 -1.9981 0.9686
-7.6594 0.8131 -1.9943 0.9687
-7.6759 -0.5609 -1.9927 0.9687
-6.6713 -3.8174 -1.9901 0.9687
-5.4205 -5.4467 -1.9896 0.9687
-4.9129 -5.9087 -1.9896 0.9687
-4.3662 -6.3239 -1.9897 0.9687
-3.7849 -6.6890 -1.9899 0.9687
-3.1733 -7.0011 -1.9902 0.9687
-2.5364 -7.2578 -1.9906 0.9687
-1.8790 -7.4569 -1.9911 0.9687
-1.2064 -7.5970 -1.9916 0.9687
-0.5238 -7.6768 -1.9923 0.9687
0.1634 -7.6956 -1.9930 0.9687
0.8498 -7.6533 -1.9938 0.9687
1.5300 -7.5501 -1.9946 0.9687
2.1987 -7.3868 -1.9955 0.9687
2.8504 -7.1645 -1.9964 0.9686
4.6534 -6.1630 -1.9995 0.9686
5.1876 -5.7261 -2.0005 0.9686
5.6809 -5.2432 -2.0016 0.9686
6.1294 -4.7178 -2.0027 0.9685
6.5294 -4.1542 -2.0037 0.9685
6.8776 -3.5568 -2.0048 0.9685
7.1713 -2.9304 -2.0058 0.9685
7.4078 -2.2798 -2.0068 0.9685
7.7021 -0.9276 -2.0086 0.9685
7.7574 -0.2366 -2.0095 0.9684
7.5510 1.8285 -2.0116 0.9684
7.3597 2.4957 -2.0121 0.9684
6.4394 4.3584 -2.0133 0.9684
5.5628 5.4344 -2.0135 0.9684
5.0557 5.9092 -2.0135 0.9684
4.5079 6.3364 -2.0134 0.9684
2.4646 6.7458 -1.8595 0.9708
0.5893 7.1518 -1.8580 0.9708
-1.3246 7.0443 -1.8558 0.9708
-3.6983 6.1239 -1.8523 0.9709
-4.2278 5.7664 -1.8513 0.9709
-4.6843 5.3193 -1.8352 0.9711
-5.1800 4.9178 -1.8494 0.9709
-5.7246 4.5361 -1.8911 0.9703
-6.8051 3.6417 -1.9984 0.9686
-7.3367 2.3716 -1.9964 0.9686
-7.5156 1.7066 -1.9955 0.9687
-7.6345 1.0286 -1.9946 0.9687
-7.6895 -0.3446 -1.9930 0.9687
-6.4247 -4.2178 -1.9899 0.9687
-6.0221 -4.7738 -1.9897 0.9687
-5.0773 -5.7680 -1.9896 0.9687
-4.5425 -6.1983 -1.9897 0.9687
-3.3690 -6.9086 -1.9901 0.9687
-2.7395 -7.1830 -1.9905 0.9687
-2.0881 -7.4005 -1.9909 0.9687
-0.0534 -7.6963 -1.9928 0.9687
0.6339 -7.6733 -1.9935 0.9687
1.3167 -7.5892 -1.9943 0.9687
1.9895 -7.4447 -1.9952 0.9687
3.2844 -6.9791 -1.9971 0.9686
3.8960 -6.6615 -1.9981 0.9686
4.4773 -6.2905 -1.9992 0.9686
5.0234 -5.8690 -2.0002 0.9686
6.7737 -3.7485 -2.0045 0.9685
7.3395 -2.4872 -2.0065 0.9685
7.5358 -1.8232 -2.0074 0.9685
7.6719 -1.1439 -2.0084 0.9685
-7.0279 -0.4448 -1.9935 0.9711
-6.8328 -1.6860 -1.9923 0.9712
-6.6535 -2.2885 -1.9919 0.9712
-6.4214 -2.8725 -1.9914 0.9712
-6.1384 -3.4335 -1.9911 0.9712
-5.4291 -4.4691 -1.9907 0.9712
-4.5481 -5.3628 -1.9906 0.9712
-1.7857 -6.8059 -1.9919 0.9712
-1.1715 -6.9399 -1.9924 0.9712
0.7092 -7.0090 -1.9943 0.9711
1.9454 -6.7767 -1.9959 0.9711
2.5435 -6.5789 -1.9968 0.9711
3.6758 -6.0274 -1.9986 0.9711
4.2010 -5.6781 -1.9995 0.9711
4.6932 -5.2831 -2.0005 0.9710
5.1485 -4.8456 -2.0015 0.9710
5.9336 -3.8569 -2.0034 0.9710
6.2571 -3.3136 -2.0044 0.9710
6.9207 -1.5400 -2.0071 0.9710
7.0324 0.9801 -2.0101 0.9709
6.9189 1.6042 -2.0107 0.9709
6.7499 2.2158 -2.0112 0.9709
6.5266 2.8099 -2.0116 0.9709
5.9250 3.9266 -2.0122 0.9709
5.1333 4.9180 -2.0125 0.9709
2.9208 6.0561 -1.9034 0.9724
2.3131 6.1447 -1.8587 0.9731
1.7551 6.3253 -1.8583 0.9731
-0.5681 6.5317 -1.8561 0.9731
-1.1483 6.4525 -1.8554 0.9731
-2.2751 6.1405 -1.8538 0.9731
-4.2717 4.9472 -1.8504 0.9732
-4.6939 4.5440 -1.8494 0.9732
-5.8678 3.9327 -1.9997 0.9711
-6.1924 3.3918 -1.9988 0.9711
-6.8603 1.6283 -1.9961 0.9711
-6.9754 1.0091 -1.9952 0.9711
-7.0349 0.3825 -1.9945 0.9711
-7.0384 -0.2467 -1.9938 0.9711
-6.7158 -2.1004 -1.9920 0.9712
-6.5001 -2.6907 -1.9916 0.9712
-5.9164 -3.8021 -1.9909 0.9712
-5.1455 -4.7926 -1.9906 0.9712
-4.2117 -5.6310 -1.9907 0.9712
-3.6927 -5.9849 -1.9908 0.9712
-2.5707 -6.5478 -1.9914 0.9712
-1.3663 -6.9035 -1.9923 0.9712
0.5115 -7.0254 -1.9941 0.9711
1.7536 -6.8279 -1.9957 0.9711
4.0389 -5.7932 -1.9992 0.9711
4.5419 -5.4123 -2.0002 0.9711
5.8218 -4.0219 -2.0031 0.9710
6.1604 -3.4879 -2.0041 0.9710
6.4501 -2.9257 -2.0050 0.9710
6.6885 -2.3394 -2.0060 0.9710
6.8736 -1.7340 -2.0068 0.9710
7.0781 -0.4849 -2.0085 0.9709
7.0958 0.1487 -2.0092 0.9709
7.0565 0.7816 -2.0099 0.9709
6.9607 1.4086 -2.0105 0.9709
6.8091 2.0247 -2.0110 0.9709
6.6027 2.6249 -2.0115 0.9709
6.0330 3.7581 -2.0121 0.9709
4.3375 5.6322 -2.0125 0.9709
3.2440 6.2687 -1.9982 0.9711
2.4853 6.0775 -1.8588 0.9731
1.9327 6.2738 -1.8584 0.9731
1.3648 6.4197 -1.8580 0.9731
0.7862 6.5141 -1.8575 0.9731
-0.3840 6.5459 -1.8563 0.9731
-0.9663 6.4831 -1.8556 0.9731
-3.1680 5.7254 -1.8524 0.9732
-3.6645 5.4173 -1.8515 0.9732
-4.1314 5.0662 -1.8506 0.9732
-4.5648 4.6751 -1.8497 0.9732
-5.2305 4.4774 -1.9491 0.9718
-6.0953 3.5653 -1.9991 0.9711
-6.6259 2.4228 -1.9972 0.9711
-6.8127 1.8210 -1.9963 0.9711
-7.0433 -0.0485 -1.9940 0.9711
-7.0086 -0.6766 -1.9933 0.9712
-6.3226 -3.0828 -1.9913 0.9712
-5.2785 -4.6458 -1.9907 0.9712
-3.3200 -6.2000 -1.9910 0.9712
-2.7539 -6.4725 -1.9913 0.9712
-1.5601 -6.8618 -1.9921 0.9712
-0.9418 -6.9755 -1.9926 0.9712
0.3134 -7.0362 -1.9939 0.9711
0.9404 -6.9827 -1.9946 0.9711
1.5604 -6.8737 -1.9954 0.9711
2.1685 -6.7098 -1.9962 0.9711
2.7598 -6.4923 -1.9971 0.9711
4.3870 -5.5372 -1.9999 0.9711
4.8660 -5.1261 -2.0009 0.9710
5.3067 -4.6737 -2.0019 0.9710
5.7054 -4.1835 -2.0028 0.9710
6.0589 -3.6595 -2.0038 0.9710
6.6191 -2.5265 -2.0057 0.9710
7.0608 -0.6839 -2.0082 0.9709
7.0963 -0.0511 -2.0090 0.9709
7.0750 0.5826 -2.0097 0.9709
5.7923 4.1203 -2.0123 0.9709
5.4019 4.6211 -2.0125 0.9709
4.9681 5.0849 -2.0125 0.9709
4.4945 5.5079 -2.0125 0.9709
3.9848 5.8867 -2.0124 0.9709
2.1087 6.2173 -1.8586 0.9731
0.3863 6.5487 -1.8571 0.9731
-0.7834 6.5085 -1.8558 0.9731
-1.3606 6.4101 -1.8551 0.9731
-1.9264 6.2606 -1.8543 0.9731
-2.4763 6.0610 -1.8535 0.9731
-3.5111 5.5192 -1.8518 0.9732
-4.4320 4.8025 -1.8500 0.9732
-4.9231 4.4605 -1.8807 0.9728
-5.6295 4.2511 -1.9970 0.9711
-6.2999 3.1849 -1.9984 0.9711
-6.5560 2.6088 -1.9975 0.9711
-7.0039 0.7781 -1.9949 0.9711
-6.9526 -1.1037 -1.9929 0.9712
-6.8244 -1.7192 -1.9923 0.9712
-6.1215 -3.4633 -1.9911 0.9712
-5.7874 -3.9953 -1.9908 0.9712
-4.9844 -4.9599 -1.9906 0.9712
-4.5219 -5.3849 -1.9906 0.9712
-3.4931 -6.1038 -1.9909 0.9712
-0.5135 -7.0214 -1.9930 0.9712
0.1152 -7.0415 -1.9937 0.9711
1.3661 -6.9140 -1.9951 0.9711
1.9784 -6.7673 -1.9960 0.9711
3.1527 -6.3134 -1.9977 0.9711
3.7052 -6.0096 -1.9986 0.9711
4.2288 -5.6577 -1.9996 0.9711
4.7190 -5.2603 -2.0006 0.9710
5.1722 -4.8205 -2.0015 0.9710
5.5844 -4.3419 -2.0025 0.9710
6.2734 -3.2832 -2.0045 0.9710
6.5444 -2.7115 -2.0054 0.9710
6.7633 -2.1176 -2.0063 0.9710
6.9282 -1.5063 -2.0072 0.9710
7.0379 -0.8824 -2.0080 0.9709
7.0913 -0.2509 -2.0087 0.9709
6.9111 1.6379 -2.0107 0.9709
6.7391 2.2487 -2.0112 0.9709
6.5129 2.8417 -2.0116 0.9709
6.2344 3.4122 -2.0120 0.9709
5.9058 3.9555 -2.0122 0.9709
4.6478 5.3792 -2.0125 0.9709
4.1491 5.7723 -2.0124 0.9709
-1.1797 6.4467 -1.8553 0.9731
-3.3548 5.6167 -1.8521 0.9732
-3.8408 5.2924 -1.8512 0.9732
-4.2957 4.9262 -1.8503 0.9732
-5.5008 4.4025 -1.9946 0.9711
-5.8867 3.9040 -1.9997 0.9711
-6.2087 3.3615 -1.9987 0.9711
-6.7012 2.2022 -1.9969 0.9711
-6.8680 1.5948 -1.9960 0.9711
-6.7054 -2.1330 -1.9920 0.9712
-5.8978 -3.8309 -1.9909 0.9712
-5.5318 -4.3415 -1.9907 0.9712
-4.6717 -5.2554 -1.9906 0.9712
-4.1842 -5.6515 -1.9907 0.9712
-3.6635 -6.0028 -1.9908 0.9712
-2.5387 -6.5603 -1.9914 0.9712
-1.9436 -6.7621 -1.9918 0.9712
-1.3327 -6.9102 -1.9923 0.9712
-0.0831 -7.0412 -1.9935 0.9712
1.1707 -6.9489 -1.9949 0.9711
3.5340 -6.1107 -1.9984 0.9711
4.0672 -5.7736 -1.9993 0.9711
4.5684 -5.3903 -2.0003 0.9711
5.0336 -4.9635 -2.0012 0.9710
5.4591 -4.4967 -2.0022 0.9710
6.7000 -2.3069 -2.0060 0.9710
6.8822 -1.7005 -2.0069 0.9710
7.0094 -1.0800 -2.0077 0.9709
7.0806 -0.4504 -2.0085 0.9709
7.0528 0.8160 -2.0099 0.9709
5.6532 4.3095 -2.0124 0.9709
5.2464 4.7971 -2.0125 0.9709
4.7975 5.2462 -2.0125 0.9709
4.3100 5.6532 -2.0125 0.9709
3.7881 6.0149 -2.0123 0.9709
3.1859 6.2305 -1.9810 0.9713
1.9021 6.2831 -1.8584 0.9731
0.7545 6.5178 -1.8575 0.9731
0.1698 6.5571 -1.8569 0.9731
-0.4159 6.5438 -1.8562 0.9731
-0.9978 6.4782 -1.8556 0.9731
-1.5713 6.3608 -1.8548 0.9731
-2.6747 5.9749 -1.8532 0.9732
-5.2859 4.4804 -1.9616 0.9716
-5.7753 4.0689 -2.0000 0.9711
-6.1125 3.5355 -1.9990 0.9711
-6.8213 1.7878 -1.9963 0.9711
-7.0248 0.5463 -1.9947 0.9711
-6.9116 -1.3326 -1.9927 0.9712
-6.5614 -2.5387 -1.9917 0.9712
-6.3074 -3.1135 -1.9913 0.9712
-5.6520 -4.1841 -1.9908 0.9712
-5.2558 -4.6715 -1.9906 0.9712
-4.8178 -5.1218 -1.9906 0.9712
-4.3416 -5.5314 -1.9906 0.9712
-3.8310 -5.8971 -1.9908 0.9712
-3.2898 -6.2161 -1.9910 0.9712
-2.7223 -6.4859 -1.9913 0.9712
-2.1331 -6.7042 -1.9917 0.9712
-1.5267 -6.8694 -1.9921 0.9712
-0.9078 -6.9801 -1.9927 0.9712
-0.2813 -7.0354 -1.9933 0.9712
0.3477 -7.0348 -1.9939 0.9711
2.2012 -6.6993 -1.9963 0.9711
3.3601 -6.2068 -1.9981 0.9711
4.4141 -5.5159 -2.0000 0.9711
5.3295 -4.6479 -2.0019 0.9710
5.7258 -4.1558 -2.0029 0.9710
6.0768 -3.6300 -2.0039 0.9710
6.3795 -3.0747 -2.0048 0.9710
6.8306 -1.8934 -2.0066 0.9710
6.9753 -1.2769 -2.0075 0.9710
7.0966 -0.0165 -2.0090 0.9709
6.9911 1.2461 -2.0103 0.9709
6.4159 3.0555 -2.0118 0.9709
4.9433 5.1090 -2.0125 0.9709
4.4676 5.5297 -2.0125 0.9709
3.9560 5.9060 -2.0124 0.9709
2.6263 6.0182 -1.8589 0.9731
2.0784 6.2274 -1.8585 0.9731
1.5140 6.3866 -1.8581 0.9731
0.3544 6.5504 -1.8571 0.9731
-1.3918 6.4033 -1.8551 0.9731
-3.5378 5.5019 -1.8518 0.9732
-4.0127 5.1617 -1.8509 0.9732
-6.0114 3.7068 -1.9993 0.9711
-6.3152 3.1541 -1.9984 0.9711
-6.5684 2.5767 -1.9974 0.9711
-7.0074 0.7439 -1.9949 0.9711
-7.0230 -0.5132 -1.9935 0.9712
-6.8159 -1.7525 -1.9923 0.9712
-6.1046 -3.4931 -1.9911 0.9712
-5.7678 -4.0234 -1.9908 0.9712
-5.3853 -4.5217 -1.9907 0.9712
-4.9601 -4.9841 -1.9906 0.9712
-4.4956 -5.4069 -1.9906 0.9712
-3.4634 -6.1208 -1.9909 0.9712
-2.9037 -6.4063 -1.9912 0.9712
-2.3208 -6.6411 -1.9915 0.9712
-1.7193 -6.8232 -1.9920 0.9712
-1.1039 -6.9512 -1.9925 0.9712
0.1495 -7.0410 -1.9937 0.9711
0.7775 -7.0021 -1.9944 0.9711
1.3998 -6.9074 -1.9952 0.9711
2.0114 -6.7577 -1.9960 0.9711
3.7346 -5.9916 -1.9987 0.9711
4.2564 -5.6372 -1.9997 0.9711
5.6057 -4.3147 -2.0026 0.9710
6.5577 -2.6796 -2.0054 0.9710
7.0926 -0.2163 -2.0088 0.9709
7.0861 0.4176 -2.0095 0.9709
6.9032 1.6716 -2.0107 0.9709
6.7281 2.2816 -2.0112 0.9709
6.4990 2.8735 -2.0116 0.9709
5.8865 3.9842 -2.0122 0.9709
5.0851 4.9678 -2.0125 0.9709
4.6216 5.4018 -2.0125 0.9709
3.5830 6.1293 -2.0099 0.9709
1.6934 6.3419 -1.8583 0.9731
0.5388 6.5384 -1.8573 0.9731
-0.0469 6.5583 -1.8567 0.9731
-1.2111 6.4408 -1.8553 0.9731
-1.7803 6.3044 -1.8545 0.9731
-2.3348 6.1178 -1.8537 0.9731
-2.8701 5.8824 -1.8529 0.9732
-3.3820 5.6002 -1.8520 0.9732
-3.8664 5.2735 -1.8512 0.9732
-4.3195 4.9050 -1.8503 0.9732
-6.2248 3.3311 -1.9987 0.9711
-6.4942 2.7610 -1.9977 0.9711
-6.9846 0.9411 -1.9952 0.9711
-7.0380 0.3139 -1.9944 0.9711
-7.0354 -0.3153 -1.9937 0.9711
-6.8631 -1.5600 -1.9925 0.9712
-6.4735 -2.7538 -1.9915 0.9712
-6.2008 -3.3200 -1.9912 0.9712
-5.8790 -3.8596 -1.9909 0.9712
-4.6460 -5.2781 -1.9906 0.9712
-4.1567 -5.6719 -1.9907 0.9712
-3.0828 -6.3217 -1.9911 0.9712
-1.9106 -6.7716 -1.9918 0.9712
-1.2990 -6.9167 -1.9923 0.9712
-0.6768 -7.0070 -1.9929 0.9712
-0.0488 -7.0417 -1.9935 0.9711
0.5800 -7.0204 -1.9942 0.9711
1.8201 -6.8108 -1.9957 0.9711
3.0045 -6.3843 -1.9975 0.9711
3.5638 -6.0935 -1.9984 0.9711
5.0579 -4.9391 -2.0013 0.9710
5.4811 -4.4702 -2.0023 0.9710
5.8610 -3.9651 -2.0032 0.9710
6.1944 -3.4279 -2.0042 0.9710
6.8905 -1.6670 -2.0069 0.9710
7.0828 -0.4159 -2.0085 0.9709
-6.4833 0.1696 -1.9948 0.9732
-6.4705 -0.4095 -1.9942 0.9732
-6.2912 -1.5523 -1.9931 0.9732
-6.1262 -2.1071 -1.9926 0.9733
-5.6521 -3.1615 -1.9919 0.9733
-5.3468 -3.6528 -1.9917 0.9733
-4.9991 -4.1151 -1.9915 0.9733
-4.1878 -4.9380 -1.9915 0.9733
-3.7306 -5.2923 -1.9916 0.9733
-2.7310 -5.8723 -1.9920 0.9733
-1.6442 -6.2665 -1.9927 0.9733
-1.0786 -6.3897 -1.9931 0.9732
-0.5043 -6.4622 -1.9937 0.9732
1.7909 -6.2386 -1.9964 0.9732
2.3414 -6.0563 -1.9971 0.9732
3.3836 -5.5483 -1.9988 0.9732
3.8669 -5.2265 -1.9997 0.9732
4.7386 -4.4598 -2.0015 0.9731
5.4608 -3.5496 -2.0033 0.9731
5.7583 -3.0495 -2.0042 0.9731
6.0101 -2.5245 -2.0050 0.9731
6.2140 -1.9789 -2.0059 0.9731
6.3683 -1.4171 -2.0067 0.9731
6.5236 -0.2626 -2.0081 0.9730
6.5231 0.3207 -2.0088 0.9730
6.3658 1.4760 -2.0099 0.9730
6.2101 2.0386 -2.0104 0.9730
6.0046 2.5852 -2.0108 0.9730
4.7226 4.5245 -2.0116 0.9730
4.3000 4.9279 -2.0116 0.9730
3.8429 5.2918 -2.0116 0.9730
3.3551 5.6132 -2.0114 0.9730
2.8316 5.8710 -2.0049 0.9731
2.1281 5.6533 -1.8579 0.9750
1.6148 5.8195 -1.8576 0.9750
0.5543 6.0109 -1.8567 0.9751
-0.5227 6.0100 -1.8555 0.9751
-2.0936 5.6505 -1.8535 0.9751
-3.0622 5.1841 -1.8519 0.9751
-5.0551 4.0863 -1.9993 0.9732
-5.9533 2.5999 -1.9981 0.9732
-6.1590 2.0574 -1.9973 0.9732
-6.4801 -0.2272 -1.9944 0.9732
-6.4321 -0.8043 -1.9938 0.9732
-5.9850 -2.4775 -1.9924 0.9733
-5.7391 -3.0012 -1.9920 0.9733
-4.7379 -4.4130 -1.9915 0.9733
-3.8781 -5.1850 -1.9915 0.9733
-2.8951 -5.7929 -1.9919 0.9733
-2.3670 -6.0290 -1.9922 0.9733
-1.8198 -6.2173 -1.9925 0.9733
-0.6860 -6.4449 -1.9935 0.9732
-0.1081 -6.4822 -1.9941 0.9732
0.4709 -6.4680 -1.9947 0.9732
2.1697 -6.1190 -1.9969 0.9732
5.0041 -4.1629 -2.0021 0.9731
6.1550 -2.1528 -2.0056 0.9731
6.5129 -0.4462 -2.0079 0.9730
6.5289 0.1369 -2.0086 0.9730
6.4926 0.7192 -2.0092 0.9730
5.8359 2.9479 -2.0110 0.9730
5.2202 3.9393 -2.0115 0.9730
3.5119 5.5166 -2.0115 0.9730
2.9999 5.7970 -2.0076 0.9731
2.3218 5.6777 -1.8867 0.9747
1.7781 5.7721 -1.8577 0.9750
0.1856 6.0324 -1.8563 0.9751
-0.3533 6.0230 -1.8557 0.9751
-0.8891 5.9654 -1.8551 0.9751
-4.2940 4.3978 -1.8905 0.9746
-5.2977 3.7711 -2.0001 0.9732
-5.6106 3.2818 -1.9993 0.9732
-5.8786 2.7669 -1.9984 0.9732
-6.0994 2.2303 -1.9975 0.9732
-6.4649 0.5344 -1.9952 0.9732
-6.4846 -0.0446 -1.9946 0.9732
-6.4527 -0.6229 -1.9939 0.9732
-6.2359 -1.7591 -1.9929 0.9732
-4.8604 -4.2778 -1.9915 0.9733
-4.4591 -4.6944 -1.9915 0.9733
-4.0225 -5.0737 -1.9915 0.9733
-3.5539 -5.4127 -1.9916 0.9733
-3.0570 -5.7088 -1.9918 0.9733
-2.5357 -5.9597 -1.9921 0.9733
-1.9941 -6.1632 -1.9924 0.9733
-1.4364 -6.3179 -1.9928 0.9732
-0.8671 -6.4224 -1.9933 0.9732
-0.2906 -6.4760 -1.9939 0.9732
0.2886 -6.4781 -1.9945 0.9732
0.8658 -6.4286 -1.9952 0.9732
1.4366 -6.3280 -1.9959 0.9732
1.9963 -6.1769 -1.9966 0.9732
2.5406 -5.9765 -1.9974 0.9732
3.5656 -5.4343 -1.9991 0.9732
4.4788 -4.7182 -2.0009 0.9731
4.8842 -4.3016 -2.0018 0.9731
5.2509 -3.8503 -2.0027 0.9731
5.8569 -2.8581 -2.0045 0.9731
6.2769 -1.7729 -2.0062 0.9731
6.4970 -0.6293 -2.0077 0.9731
6.5097 0.5360 -2.0090 0.9730
6.4377 1.1151 -2.0096 0.9730
6.3142 1.6856 -2.0101 0.9730
5.9163 2.7823 -2.0109 0.9730
5.6453 3.2997 -2.0112 0.9730
5.3289 3.7907 -2.0114 0.9730
4.9697 4.2514 -2.0116 0.9730
4.5706 4.6781 -2.0116 0.9730
4.1349 5.0672 -2.0116 0.9730
3.1664 5.7183 -2.0105 0.9730
2.5702 5.8123 -1.9547 0.9738
1.9401 5.7201 -1.8578 0.9750
1.4216 5.8692 -1.8574 0.9750
0.8920 5.9712 -1.8570 0.9751
0.3554 6.0253 -1.8565 0.9751
-0.1836 6.0312 -1.8559 0.9751
-0.7209 5.9887 -1.8553 0.9751
-1.2520 5.8984 -1.8546 0.9751
-1.7727 5.7609 -1.8539 0.9751
-2.2788 5.5775 -1.8532 0.9751
-2.7662 5.3497 -1.8524 0.9751
-3.2312 5.0793 -1.8516 0.9751
-3.6700 4.7686 -1.8508 0.9751
-4.0790 4.4201 -1.8500 0.9751
-4.8065 4.3549 -1.9949 0.9732
-5.7991 2.9317 -1.9987 0.9732
-6.2227 1.8526 -1.9970 0.9732
-6.4839 0.1380 -1.9948 0.9732
-6.2835 -1.5830 -1.9930 0.9732
-6.1158 -2.1369 -1.9926 0.9733
-5.8996 -2.6736 -1.9922 0.9733
-5.6366 -3.1889 -1.9919 0.9733
-4.9790 -4.1394 -1.9915 0.9733
-2.1667 -6.1043 -1.9923 0.9733
-1.0475 -6.3950 -1.9932 0.9732
0.1060 -6.4830 -1.9943 0.9732
0.6844 -6.4498 -1.9949 0.9732
1.2577 -6.3652 -1.9956 0.9732
1.8213 -6.2299 -1.9964 0.9732
2.3710 -6.0449 -1.9972 0.9732
3.8924 -5.2077 -1.9998 0.9732
5.7733 -3.0214 -2.0042 0.9731
6.2237 -1.9487 -2.0059 0.9731
6.3753 -1.3860 -2.0067 0.9731
6.4760 -0.8119 -2.0075 0.9731
6.5249 -0.2308 -2.0082 0.9730
6.5216 0.3525 -2.0088 0.9730
6.4660 0.9333 -2.0094 0.9730
6.3586 1.5070 -2.0100 0.9730
5.9920 2.6145 -2.0108 0.9730
5.7357 3.1393 -2.0111 0.9730
5.4333 3.6390 -2.0114 0.9730
5.0873 4.1097 -2.0115 0.9730
4.7005 4.5475 -2.0116 0.9730
4.2759 4.9488 -2.0116 0.9730
3.3277 5.6294 -2.0114 0.9730
1.5864 5.8272 -1.8576 0.9750
1.0598 5.9442 -1.8571 0.9750
0.5250 6.0135 -1.8566 0.9751
-0.0137 6.0345 -1.8561 0.9751
-0.5520 6.0073 -1.8555 0.9751
-2.1211 5.6402 -1.8534 0.9751
-3.0873 5.1690 -1.8519 0.9751
-3.5347 4.8707 -1.8510 0.9751
-4.6048 4.4145 -1.9620 0.9737
-5.0759 4.0624 -1.9997 0.9732
-5.9658 2.5708 -1.9981 0.9732
-6.3226 1.4681 -1.9964 0.9732
-6.4788 -0.2587 -1.9943 0.9732
-5.9728 -2.5066 -1.9923 0.9733
-5.7244 -3.0291 -1.9920 0.9733
-5.4305 -3.5274 -1.9918 0.9733
-5.0937 -3.9976 -1.9916 0.9733
-3.8528 -5.2039 -1.9915 0.9733
-3.3733 -5.5273 -1.9917 0.9733
-2.8669 -5.8069 -1.9919 0.9733
-2.3376 -6.0405 -1.9922 0.9733
-1.2271 -6.3625 -1.9930 0.9732
-0.6546 -6.4482 -1.9935 0.9732
-0.0765 -6.4828 -1.9941 0.9732
1.0778 -6.3974 -1.9954 0.9732
1.6450 -6.2780 -1.9962 0.9732
2.7370 -5.8903 -1.9978 0.9732
3.2531 -5.6249 -1.9986 0.9732
5.6851 -3.1824 -2.0039 0.9731
5.9490 -2.6635 -2.0048 0.9731
6.1655 -2.1229 -2.0056 0.9731
6.3329 -1.5648 -2.0065 0.9731
6.4498 -0.9938 -2.0072 0.9731
6.5283 0.1687 -2.0086 0.9730
6.4891 0.7508 -2.0092 0.9730
5.5335 3.4845 -2.0113 0.9730
5.2009 3.9647 -2.0115 0.9730
4.4136 4.8265 -2.0116 0.9730
3.9652 5.2009 -2.0116 0.9730
3.4850 5.5337 -2.0114 0.9730
2.2806 5.6553 -1.8756 0.9748
1.2269 5.9124 -1.8573 0.9750
0.1562 6.0331 -1.8563 0.9751
-0.3827 6.0211 -1.8557 0.9751
-0.9181 5.9609 -1.8551 0.9751
-1.4459 5.8530 -1.8544 0.9751
-2.4613 5.4984 -1.8529 0.9751
-2.9410 5.2546 -1.8521 0.9751
-3.3967 4.9690 -1.8513 0.9751
-3.8248 4.6440 -1.8505 0.9751
-4.3385 4.4002 -1.9006 0.9745
-5.3159 3.7452 -2.0001 0.9732
-6.1101 2.2005 -1.9975 0.9732
-6.3989 1.0784 -1.9959 0.9732
-6.4673 0.5029 -1.9952 0.9732
-6.4495 -0.6543 -1.9939 0.9732
-6.3636 -1.2269 -1.9934 0.9732
-6.2272 -1.7895 -1.9929 0.9732
-6.0414 -2.3375 -1.9924 0.9733
-5.8077 -2.8668 -1.9921 0.9733
-4.8395 -4.3015 -1.9915 0.9733
-4.4362 -4.7161 -1.9915 0.9733
-3.9977 -5.0932 -1.9915 0.9733
-3.5275 -5.4300 -1.9916 0.9733
-3.0291 -5.7237 -1.9918 0.9733
-2.5066 -5.9720 -1.9921 0.9733
-1.4056 -6.3249 -1.9929 0.9732
2.0264 -6.1673 -1.9967 0.9732
3.5921 -5.4170 -1.9992 0.9732
4.5018 -4.6964 -2.0010 0.9731
4.9052 -4.2779 -2.0019 0.9731
6.1025 -2.2953 -2.0054 0.9731
6.4185 -1.1749 -2.0070 0.9731
6.5001 -0.5977 -2.0077 0.9731
6.5297 -0.0152 -2.0084 0.9730
6.5071 0.5677 -2.0090 0.9730
6.3059 1.7163 -2.0101 0.9730
6.1290 2.2727 -2.0106 0.9730
5.9028 2.8111 -2.0109 0.9730
4.9489 4.2756 -2.0116 0.9730
4.5478 4.7003 -2.0116 0.9730
4.1101 5.0873 -2.0116 0.9730
3.6395 5.4335 -2.0115 0.9730
3.1378 5.7322 -2.0100 0.9730
2.5260 5.7884 -1.9425 0.9739
1.9122 5.7294 -1.8578 0.9750
1.3930 5.8760 -1.8574 0.9750
0.3260 6.0269 -1.8565 0.9751
-0.2130 6.0301 -1.8559 0.9751
-0.7500 5.9850 -1.8553 0.9751
-1.2807 5.8921 -1.8546 0.9751
-3.2558 5.0633 -1.8516 0.9751
-3.6931 4.7505 -1.8507 0.9751
-4.8285 4.3322 -1.9953 0.9732
-5.8132 2.9033 -1.9986 0.9732
-6.2315 1.8222 -1.9969 0.9732
-6.3668 1.2583 -1.9962 0.9732
-6.4844 0.1064 -1.9947 0.9732
-6.4660 -0.4725 -1.9941 0.9732
-6.1052 -2.1666 -1.9926 0.9733
-5.8864 -2.7023 -1.9922 0.9733
-4.9587 -4.1635 -1.9915 0.9733
-4.1395 -4.9786 -1.9915 0.9733
-3.6789 -5.3284 -1.9916 0.9733
-3.1890 -5.6359 -1.9918 0.9733
-2.6737 -5.8988 -1.9920 0.9733
-1.5830 -6.2824 -1.9927 0.9733
-0.4413 -6.4670 -1.9937 0.9732
0.1376 -6.4825 -1.9943 0.9732
0.7158 -6.4465 -1.9950 0.9732
2.9305 -5.7976 -1.9981 0.9732
3.4376 -5.5153 -1.9989 0.9732
3.9178 -5.1888 -1.9998 0.9732
4.3672 -4.8206 -2.0007 0.9731
5.1592 -3.9711 -2.0025 0.9731
5.4954 -3.4964 -2.0034 0.9731
6.0347 -2.4659 -2.0051 0.9731
6.2332 -1.9184 -2.0060 0.9731
6.5260 -0.1991 -2.0082 0.9730
6.3513 1.5380 -2.0100 0.9730
6.1901 2.0991 -2.0104 0.9730
5.9793 2.6437 -2.0108 0.9730
5.4156 3.6655 -2.0114 0.9730
4.6783 4.5703 -2.0116 0.9730
3.7912 5.3289 -2.0115 0.9730
3.3002 5.6456 -2.0114 0.9730
2.0729 5.6736 -1.8579 0.9750
1.0308 5.9492 -1.8571 0.9750
-1.1144 5.9265 -1.8548 0.9751
-2.1485 5.6297 -1.8534 0.9751
-3.5583 4.8533 -1.8510 0.9751
-3.9755 4.5144 -1.8502 0.9751
-4.6526 4.4170 -1.9732 0.9735
-5.4358 3.5670 -1.9998 0.9732
-5.7299 3.0663 -1.9989 0.9732
-6.1785 1.9972 -1.9972 0.9732
-6.4302 0.8664 -1.9957 0.9732
-6.4795 0.2890 -1.9949 0.9732
-6.3190 -1.4363 -1.9932 0.9732
-6.1642 -1.9940 -1.9927 0.9733
-5.9605 -2.5356 -1.9923 0.9733
-5.7095 -3.0569 -1.9920 0.9733
-5.4133 -3.5538 -1.9917 0.9733
-5.0741 -4.0223 -1.9916 0.9733
-4.2780 -4.8600 -1.9915 0.9733
-3.3463 -5.5437 -1.9917 0.9733
-2.8386 -5.8209 -1.9919 0.9733
-1.7592 -6.2349 -1.9926 0.9733
-0.6231 -6.4514 -1.9936 0.9732
-0.0449 -6.4832 -1.9941 0.9732
2.2293 -6.0979 -1.9970 0.9732
3.2805 -5.6091 -1.9986 0.9732
3.7696 -5.2963 -1.9995 0.9732
4.2291 -4.9410 -2.0004 0.9731
5.3941 -3.6492 -2.0031 0.9731
5.7007 -3.1547 -2.0040 0.9731
6.1759 -2.0928 -2.0057 0.9731
6.3406 -1.5340 -2.0065 0.9731
6.4547 -0.9624 -2.0073 0.9731
6.5171 -0.3827 -2.0080 0.9730
-5.9295 -0.9117 -1.9942 0.9750
-5.6705 -1.9504 -1.9933 0.9750
-5.2318 -2.9264 -1.9926 0.9750
-4.2689 -4.2067 -1.9922 0.9751
-3.0025 -5.1878 -1.9925 0.9751
-2.0330 -5.6404 -1.9930 0.9750
0.0689 -6.0007 -1.9948 0.9750
0.6043 -5.9724 -1.9954 0.9750
1.6575 -5.7737 -1.9967 0.9750
2.1669 -5.6048 -1.9975 0.9750
2.6595 -5.3912 -1.9982 0.9750
3.1312 -5.1344 -1.9990 0.9750
3.9973 -4.4997 -2.0007 0.9749
4.3847 -4.1267 -2.0015 0.9749
4.7375 -3.7205 -2.0023 0.9749
5.8885 1.3653 -2.0093 0.9748
5.7444 1.8858 -2.0097 0.9748
5.5542 2.3913 -2.0101 0.9748
5.3195 2.8778 -2.0104 0.9748
4.3682 4.1850 -2.0109 0.9748
3.9773 4.5581 -2.0109 0.9748
3.5546 4.8947 -2.0108 0.9748
3.1034 5.1920 -2.0107 0.9748
2.6249 5.4424 -2.0085 0.9749
2.0757 5.5142 -1.9585 0.9755
1.4937 5.3831 -1.8570 0.9767
1.0071 5.4937 -1.8566 0.9767
0.5128 5.5603 -1.8561 0.9767
-0.4836 5.5597 -1.8551 0.9768
-1.4632 5.3816 -1.8538 0.9768
-2.3948 5.0320 -1.8524 0.9768
-3.2486 4.5226 -1.8510 0.9768
-5.2748 2.8892 -1.9992 0.9750
-5.6999 1.9040 -1.9976 0.9750
-5.8449 1.3873 -1.9969 0.9750
-5.9433 0.8598 -1.9962 0.9750
-5.9534 -0.7444 -1.9943 0.9750
-5.8617 -1.2724 -1.9938 0.9750
-5.7235 -1.7900 -1.9934 0.9750
-5.3123 -2.7780 -1.9927 0.9750
-5.0426 -3.2406 -1.9925 0.9750
-4.7329 -3.6774 -1.9923 0.9751
-4.3857 -4.0849 -1.9922 0.9751
-3.1473 -5.1011 -1.9924 0.9751
-2.6798 -5.3621 -1.9926 0.9750
-2.1909 -5.5806 -1.9929 0.9750
-1.6845 -5.7549 -1.9932 0.9750
-0.6349 -5.9653 -1.9941 0.9750
-0.1001 -5.9997 -1.9946 0.9750
0.4359 -5.9865 -1.9952 0.9750
0.9687 -5.9256 -1.9958 0.9750
2.0080 -5.6630 -1.9972 0.9750
3.8685 -4.6098 -2.0004 0.9750
4.2662 -4.2480 -2.0012 0.9749
5.2455 -2.9699 -2.0037 0.9749
5.4918 -2.4910 -2.0045 0.9749
5.6944 -1.9917 -2.0053 0.9749
5.8516 -1.4762 -2.0060 0.9749
6.0397 0.1266 -2.0081 0.9749
6.0060 0.6653 -2.0086 0.9749
5.9242 1.1989 -2.0091 0.9748
5.7949 1.7231 -2.0096 0.9748
4.8285 3.6437 -2.0107 0.9748
4.4843 4.0603 -2.0108 0.9748
4.1041 4.4444 -2.0109 0.9748
3.6911 4.7927 -2.0108 0.9748
3.2484 5.1027 -2.0107 0.9748
2.2812 5.5783 -2.0033 0.9749
0.6692 5.5441 -1.8563 0.9767
0.1717 5.5802 -1.8558 0.9767
-0.3269 5.5717 -1.8552 0.9767
-0.8225 5.5186 -1.8547 0.9768
-1.3113 5.4213 -1.8540 0.9768
-1.7892 5.2808 -1.8534 0.9768
-3.1203 4.6128 -1.8512 0.9768
-3.5355 4.3356 -1.8596 0.9767
-4.5732 3.9148 -2.0011 0.9749
-5.4401 2.5605 -1.9986 0.9750
-5.6447 2.0640 -1.9978 0.9750
-5.8042 1.5515 -1.9971 0.9750
-6.0018 -0.0413 -1.9951 0.9750
-5.9725 -0.5765 -1.9945 0.9750
-5.7720 -1.6283 -1.9935 0.9750
-5.6026 -2.1364 -1.9931 0.9750
-4.1276 -4.3454 -1.9922 0.9751
-3.7234 -4.6965 -1.9922 0.9751
-3.2896 -5.0103 -1.9924 0.9751
-2.8297 -5.2843 -1.9925 0.9750
-1.3296 -5.8479 -1.9935 0.9750
-0.8026 -5.9446 -1.9939 0.9750
-0.2690 -5.9940 -1.9944 0.9750
1.3295 -5.8566 -1.9963 0.9750
1.8475 -5.7166 -1.9970 0.9750
2.3512 -5.5310 -1.9978 0.9750
3.2995 -5.0289 -1.9993 0.9750
3.7367 -4.7163 -2.0001 0.9750
4.5193 -3.9803 -2.0018 0.9749
5.1591 -3.1161 -2.0035 0.9749
5.4188 -2.6443 -2.0043 0.9749
5.6354 -2.1510 -2.0051 0.9749
5.8071 -1.6402 -2.0058 0.9749
5.9324 -1.1158 -2.0065 0.9749
6.0104 -0.5822 -2.0072 0.9749
6.0218 0.4958 -2.0085 0.9749
5.8407 1.5592 -2.0095 0.9748
5.6794 2.0746 -2.0099 0.9748
5.2218 3.0521 -2.0105 0.9748
4.9290 3.5063 -2.0107 0.9748
4.2276 4.3270 -2.0109 0.9748
3.8246 4.6870 -2.0109 0.9748
3.3909 5.0093 -2.0108 0.9748
2.9301 5.2915 -2.0106 0.9748
1.8323 5.4023 -1.8962 0.9762
0.8251 5.5235 -1.8564 0.9767
0.3288 5.5737 -1.8559 0.9767
-0.1699 5.5792 -1.8554 0.9767
-0.6669 5.5401 -1.8548 0.9768
-1.6399 5.3297 -1.8536 0.9768
-2.5593 4.9495 -1.8522 0.9768
-4.0203 4.3564 -1.9705 0.9753
-4.4581 4.0392 -1.9997 0.9750
-5.1051 3.1824 -1.9997 0.9750
-5.8160 -1.4652 -1.9937 0.9750
-5.6609 -1.9779 -1.9933 0.9750
-4.6088 -3.8316 -1.9923 0.9751
-4.2484 -4.2275 -1.9922 0.9751
-2.9772 -5.2024 -1.9925 0.9751
0.0982 -6.0004 -1.9948 0.9750
0.6334 -5.9695 -1.9954 0.9750
1.1640 -5.8911 -1.9961 0.9750
1.6856 -5.7657 -1.9968 0.9750
2.1942 -5.5943 -1.9975 0.9750
3.6019 -4.8190 -1.9999 0.9750
4.0193 -4.4802 -2.0007 0.9749
4.4049 -4.1054 -2.0015 0.9749
5.3415 -2.7955 -2.0040 0.9749
5.7579 -1.8028 -2.0056 0.9749
5.9909 -0.7511 -2.0070 0.9749
6.0360 -0.2135 -2.0077 0.9749
5.5426 2.4184 -2.0101 0.9748
5.3054 2.9037 -2.0104 0.9748
5.0257 3.3660 -2.0106 0.9748
4.7056 3.8013 -2.0108 0.9748
3.5307 4.9120 -2.0108 0.9748
3.0780 5.2071 -2.0106 0.9748
2.0375 5.4935 -1.9476 0.9756
1.4674 5.3902 -1.8569 0.9767
0.9803 5.4985 -1.8566 0.9767
0.4856 5.5627 -1.8561 0.9767
-0.0127 5.5823 -1.8556 0.9767
-0.5107 5.5572 -1.8550 0.9768
-1.0042 5.4877 -1.8544 0.9768
-1.4894 5.3743 -1.8538 0.9768
-2.4192 5.0202 -1.8524 0.9768
-2.8564 4.7824 -1.8517 0.9768
-4.3384 4.1591 -1.9977 0.9750
-4.6993 3.7610 -2.0008 0.9749
-5.5209 2.3791 -1.9983 0.9750
-5.8515 1.3588 -1.9968 0.9750
-5.9473 0.8308 -1.9961 0.9750
-5.9958 0.2967 -1.9955 0.9750
-5.9965 -0.2395 -1.9949 0.9750
-5.9496 -0.7734 -1.9943 0.9750
-5.8554 -1.3009 -1.9938 0.9750
-5.7147 -1.8179 -1.9934 0.9750
-5.5286 -2.3202 -1.9930 0.9750
-5.2987 -2.8038 -1.9927 0.9750
-4.7150 -3.7004 -1.9923 0.9751
-3.9819 -4.4794 -1.9922 0.9751
-3.1225 -5.1164 -1.9924 0.9751
-2.1637 -5.5913 -1.9929 0.9750
-1.1358 -5.8891 -1.9936 0.9750
-0.6059 -5.9684 -1.9941 0.9750
0.4650 -5.9844 -1.9952 0.9750
0.9975 -5.9209 -1.9959 0.9750
1.5224 -5.8102 -1.9966 0.9750
2.5329 -5.4511 -1.9980 0.9750
3.0104 -5.2054 -1.9988 0.9750
3.4644 -4.9179 -1.9996 0.9750
3.8910 -4.5910 -2.0004 0.9750
4.2870 -4.2272 -2.0013 0.9749
4.9743 -3.4007 -2.0029 0.9749
5.2600 -2.9444 -2.0038 0.9749
5.5040 -2.4643 -2.0046 0.9749
5.7042 -1.9640 -2.0053 0.9749
6.0270 -0.3834 -2.0075 0.9749
6.0391 0.1560 -2.0081 0.9749
6.0027 0.6945 -2.0087 0.9749
5.9183 1.2277 -2.0092 0.9748
5.7864 1.7514 -2.0096 0.9748
5.3848 2.7531 -2.0103 0.9748
4.4645 4.0821 -2.0108 0.9748
3.6677 4.8107 -2.0108 0.9748
3.2235 5.1185 -2.0107 0.9748
2.7536 5.3852 -2.0105 0.9748
2.2535 5.5883 -2.0029 0.9749
1.6187 5.3471 -1.8571 0.9767
1.1349 5.4691 -1.8567 0.9767
-0.3540 5.5699 -1.8552 0.9767
-0.8494 5.5144 -1.8546 0.9768
-2.2772 5.0870 -1.8526 0.9768
-2.7210 4.8615 -1.8519 0.9768
-3.1427 4.5975 -1.8512 0.9768
-3.5712 4.3361 -1.8673 0.9766
-4.9191 3.4656 -2.0002 0.9750
-5.4524 2.5339 -1.9986 0.9750
-5.8116 1.5232 -1.9971 0.9750
-5.9222 0.9981 -1.9963 0.9750
-5.8901 -1.1356 -1.9940 0.9750
-5.5921 -2.1637 -1.9931 0.9750
-5.1169 -3.1224 -1.9925 0.9750
-4.8174 -3.5662 -1.9924 0.9751
-4.4797 -3.9817 -1.9923 0.9751
-4.1064 -4.3655 -1.9922 0.9751
-3.2652 -5.0263 -1.9924 0.9751
-2.8039 -5.2981 -1.9925 0.9750
-1.3011 -5.8544 -1.9935 0.9750
-0.7736 -5.9485 -1.9940 0.9750
-0.2398 -5.9953 -1.9945 0.9750
2.3781 -5.5196 -1.9978 0.9750
2.8623 -5.2874 -1.9986 0.9750
3.3241 -5.0129 -1.9994 0.9750
4.5387 -3.9583 -2.0018 0.9749
5.6459 -2.1236 -2.0051 0.9749
5.8151 -1.6119 -2.0059 0.9749
5.9379 -1.0869 -2.0066 0.9749
6.0405 -0.0141 -2.0079 0.9749
6.0194 0.5252 -2.0085 0.9749
5.9501 1.0605 -2.0090 0.9748
5.8331 1.5876 -2.0095 0.9748
4.9119 3.5302 -2.0107 0.9748
4.5776 3.9547 -2.0108 0.9748
4.2065 4.3475 -2.0109 0.9748
3.3665 5.0258 -2.0107 0.9748
2.9043 5.3057 -2.0106 0.9748
1.7980 5.3872 -1.8878 0.9763
1.2885 5.4353 -1.8568 0.9767
0.7981 5.5274 -1.8564 0.9767
-1.1848 5.4509 -1.8542 0.9768
-1.6659 5.3215 -1.8535 0.9768
-2.1333 5.1497 -1.8529 0.9768
-3.0124 4.6848 -1.8514 0.9768
-4.0618 4.3585 -1.9804 0.9752
-4.4785 4.0182 -2.0000 0.9750
-4.8202 3.6032 -2.0005 0.9750
-5.1204 3.1574 -1.9996 0.9750
-5.3796 2.6868 -1.9988 0.9750
-5.5957 2.1951 -1.9980 0.9750
-6.0016 0.0985 -1.9952 0.9750
-5.9847 -0.4373 -1.9947 0.9750
-5.9202 -0.9694 -1.9941 0.9750
-5.6511 -2.0055 -1.9932 0.9750
-4.5901 -3.8540 -1.9923 0.9751
-4.2277 -4.2481 -1.9922 0.9751
-3.4054 -4.9322 -1.9923 0.9751
-2.4748 -5.4601 -1.9927 0.9750
-1.9780 -5.6600 -1.9930 0.9750
-1.4653 -5.8151 -1.9934 0.9750
-0.4084 -5.9857 -1.9943 0.9750
0.6625 -5.9664 -1.9955 0.9750
1.7137 -5.7575 -1.9968 0.9750
2.7120 -5.3652 -1.9983 0.9750
4.4249 -4.0840 -2.0016 0.9749
5.5832 -2.2815 -2.0049 0.9749
5.9042 -1.2535 -2.0064 0.9749
5.9946 -0.7219 -2.0070 0.9749
5.8751 1.4227 -2.0093 0.9748
5.7259 1.9417 -2.0098 0.9748
5.5308 2.4454 -2.0101 0.9748
3.9327 4.5967 -2.0109 0.9748
3.5067 4.9291 -2.0108 0.9748
2.0008 5.4763 -1.9381 0.9757
1.4411 5.3972 -1.8569 0.9767
0.4585 5.5649 -1.8561 0.9767
-0.0399 5.5821 -1.8556 0.9767
-1.0309 5.4826 -1.8544 0.9768
-1.5155 5.3669 -1.8538 0.9768
-2.4436 5.0082 -1.8524 0.9768
-3.2923 4.4905 -1.8509 0.9768
-4.7175 3.7380 -2.0007 0.9749
-5.0301 3.3008 -1.9999 0.9750
-5.3025 2.8375 -1.9991 0.9750
-5.9512 0.8018 -1.9961 0.9750
-5.9971 0.2675 -1.9954 0.9750
-5.7057 -1.8457 -1.9934 0.9750
-5.5172 -2.3471 -1.9930 0.9750
-5.2849 -2.8296 -1.9927 0.9750
-4.3457 -4.1274 -1.9922 0.9751
-3.9600 -4.4987 -1.9922 0.9751
-3.0975 -5.1315 -1.9924 0.9751
-2.6275 -5.3881 -1.9926 0.9750
-2.1365 -5.6018 -1.9929 0.9750
-1.1071 -5.8946 -1.9937 0.9750
0.4942 -5.9821 -1.9953 0.9750
1.0264 -5.9161 -1.9959 0.9750
2.0631 -5.6434 -1.9973 0.9750
3.4884 -4.9011 -1.9997 0.9750
4.9909 -3.3765 -2.0030 0.9749
5.2744 -2.9188 -2.0038 0.9749
5.5161 -2.4375 -2.0046 0.9749
5.7138 -1.9362 -2.0054 0.9749
5.8659 -1.4192 -2.0061 0.9749
5.9713 -0.8903 -2.0068 0.9749
-5.4142 -1.3360 -1.9942 0.9766
-5.2724 -1.8134 -1.9939 0.9766
-5.0887 -2.2763 -1.9935 0.9766
-4.8646 -2.7210 -1.9933 0.9766
-4.6019 -3.1439 -1.9931 0.9766
-4.3027 -3.5418 -1.9929 0.9766
-3.6045 -4.2502 -1.9929 0.9766
-2.7918 -4.8237 -1.9931 0.9766
-2.3505 -5.0542 -1.9933 0.9766
-1.4151 -5.3931 -1.9939 0.9766
-0.9283 -5.4990 -1.9943 0.9766
-0.4340 -5.5612 -1.9948 0.9766
0.0641 -5.5791 -1.9953 0.9766
1.0554 -5.4821 -1.9964 0.9766
1.5409 -5.3678 -1.9971 0.9766
2.4723 -5.0118 -1.9985 0.9765
3.3263 -4.4958 -2.0000 0.9765
4.6963 -3.0526 -2.0030 0.9765
4.9518 -2.6223 -2.0038 0.9765
5.3430 -1.7016 -2.0053 0.9765
5.6083 -0.2258 -2.0072 0.9764
5.4720 1.2688 -2.0087 0.9764
5.3380 1.7524 -2.0091 0.9764
5.1612 2.2221 -2.0095 0.9764
4.9430 2.6742 -2.0098 0.9764
4.0590 3.8888 -2.0102 0.9764
1.9752 5.2472 -2.0050 0.9765
0.9359 5.1051 -1.8561 0.9782
0.4765 5.1671 -1.8556 0.9782
0.0135 5.1877 -1.8552 0.9782
-1.8002 4.8585 -1.8529 0.9782
-2.2258 4.6769 -1.8522 0.9782
-4.0216 3.8932 -2.0016 0.9765
-4.9035 2.6858 -1.9993 0.9765
-5.2990 1.7701 -1.9979 0.9765
-5.5255 0.7994 -1.9965 0.9766
-5.5731 0.3030 -1.9959 0.9766
-5.5763 -0.1955 -1.9954 0.9766
-5.5352 -0.6921 -1.9948 0.9766
-5.4501 -1.1831 -1.9944 0.9766
-5.1510 -2.1322 -1.9936 0.9766
-4.9395 -2.5830 -1.9933 0.9766
-4.6888 -3.0132 -1.9931 0.9766
-4.4008 -3.4193 -1.9930 0.9766
-4.0780 -3.7982 -1.9929 0.9766
-3.7227 -4.1470 -1.9929 0.9766
-3.3379 -4.4628 -1.9929 0.9766
-2.9265 -4.7431 -1.9930 0.9766
-2.4918 -4.9858 -1.9932 0.9766
-1.0827 -5.4703 -1.9942 0.9766
-0.0930 -5.5783 -1.9951 0.9766
0.9006 -5.5091 -1.9962 0.9766
1.3890 -5.4085 -1.9969 0.9766
1.8668 -5.2647 -1.9975 0.9766
2.7749 -4.8525 -1.9990 0.9765
3.1980 -4.5872 -1.9997 0.9765
3.9656 -3.9487 -2.0013 0.9765
5.1042 -2.3152 -2.0043 0.9765
5.4384 -1.3719 -2.0057 0.9765
5.5409 -0.8814 -2.0064 0.9764
5.5992 -0.3836 -2.0070 0.9764
5.6127 0.1177 -2.0076 0.9764
5.5813 0.6182 -2.0081 0.9764
5.5052 1.1141 -2.0086 0.9764
5.3849 1.6012 -2.0090 0.9764
5.2215 2.0758 -2.0094 0.9764
4.7706 2.9717 -2.0099 0.9764
4.1669 3.7729 -2.0102 0.9764
3.8136 4.1298 -2.0102 0.9764
2.5831 4.9916 -2.0099 0.9764
2.1243 5.1948 -2.0070 0.9764
1.6282 5.2852 -1.9777 0.9768
0.6218 5.1521 -1.8558 0.9782
-0.7644 5.1286 -1.8543 0.9782
-1.2186 5.0383 -1.8537 0.9782
-1.6628 4.9078 -1.8531 0.9782
-2.0934 4.7382 -1.8524 0.9782
-2.9108 4.3031 -1.8578 0.9782
-3.5149 4.3103 -1.9889 0.9766
-3.9071 4.0015 -2.0000 0.9765
-4.5570 3.2438 -2.0003 0.9765
-5.5014 0.9548 -1.9967 0.9766
-5.5629 0.4599 -1.9961 0.9766
-5.5801 -0.0384 -1.9955 0.9766
-4.4954 -3.2941 -1.9930 0.9766
-4.1833 -3.6820 -1.9929 0.9766
-3.8380 -4.0405 -1.9929 0.9766
-3.0588 -4.6587 -1.9930 0.9766
-2.1824 -5.1293 -1.9934 0.9766
-1.2362 -5.4373 -1.9940 0.9766
-0.7462 -5.5271 -1.9945 0.9766
0.7450 -5.5317 -1.9960 0.9766
1.2361 -5.4449 -1.9967 0.9766
2.1858 -5.1419 -1.9980 0.9765
2.6369 -4.9281 -1.9987 0.9765
4.2008 -3.6997 -2.0018 0.9765
4.5159 -3.3114 -2.0026 0.9765
4.7952 -2.8963 -2.0033 0.9765
5.0364 -2.4577 -2.0041 0.9765
5.2376 -1.9992 -2.0048 0.9765
5.3970 -1.5244 -2.0055 0.9765
5.6133 -0.0404 -2.0074 0.9764
5.5961 0.4608 -2.0080 0.9764
5.4275 1.4489 -2.0089 0.9764
5.0853 2.3915 -2.0096 0.9764
4.8522 2.8361 -2.0099 0.9764
4.2714 3.6541 -2.0102 0.9764
3.5539 4.3552 -2.0102 0.9764
3.1509 4.6548 -2.0101 0.9764
2.7227 4.9170 -2.0099 0.9764
2.2722 5.1383 -2.0091 0.9764
1.7988 5.3035 -2.0027 0.9765
1.2394 5.1168 -1.8827 0.9779
0.7667 5.1329 -1.8559 0.9782
0.3055 5.1796 -1.8555 0.9782
-0.1579 5.1848 -1.8550 0.9782
-1.0764 5.0712 -1.8539 0.9782
-1.5241 4.9533 -1.8533 0.9782
-1.9594 4.7958 -1.8526 0.9782
-2.3787 4.6002 -1.8520 0.9782
-2.7787 4.3679 -1.8513 0.9782
-4.1473 3.7577 -2.0013 0.9765
-4.4644 3.3713 -2.0006 0.9765
-4.9888 2.5221 -1.9991 0.9765
-5.5483 0.6164 -1.9963 0.9766
-5.5795 0.1188 -1.9957 0.9766
-5.5088 -0.8745 -1.9947 0.9766
-5.4076 -1.3623 -1.9942 0.9766
-5.2634 -1.8391 -1.9938 0.9766
-5.0775 -2.3011 -1.9935 0.9766
-4.8513 -2.7447 -1.9933 0.9766
-4.5865 -3.1663 -1.9931 0.9766
-4.2854 -3.5627 -1.9929 0.9766
-3.9502 -3.9308 -1.9929 0.9766
-1.8648 -5.2537 -1.9936 0.9766
-1.3887 -5.4000 -1.9939 0.9766
-0.4069 -5.5633 -1.9948 0.9766
0.0913 -5.5788 -1.9953 0.9766
2.0399 -5.2008 -1.9978 0.9765
2.4968 -4.9998 -1.9985 0.9765
2.9340 -4.7588 -1.9992 0.9765
3.3483 -4.4797 -2.0000 0.9765
4.0944 -3.8161 -2.0015 0.9765
4.4203 -3.4368 -2.0023 0.9765
5.1786 -2.1456 -2.0046 0.9765
5.5677 -0.6980 -2.0066 0.9764
5.6063 0.3030 -2.0078 0.9764
5.5583 0.8023 -2.0083 0.9764
5.4658 1.2954 -2.0088 0.9764
5.3295 1.7784 -2.0092 0.9764
5.1504 2.2472 -2.0095 0.9764
4.9300 2.6983 -2.0098 0.9764
4.3726 3.5323 -2.0101 0.9764
4.0400 3.9085 -2.0102 0.9764
3.6751 4.2535 -2.0102 0.9764
3.2808 4.5643 -2.0101 0.9764
1.4131 5.1908 -1.9238 0.9774
0.4513 5.1693 -1.8556 0.9782
-0.4746 5.1645 -1.8546 0.9782
-0.9333 5.1000 -1.8541 0.9782
-1.8238 4.8496 -1.8528 0.9782
-2.2485 4.6659 -1.8522 0.9782
-2.6549 4.4450 -1.8515 0.9782
-3.1246 4.3055 -1.9024 0.9777
-3.6694 4.2080 -1.9966 0.9766
-4.0404 3.8734 -2.0016 0.9765
-4.6610 3.0911 -2.0000 0.9765
-4.9164 2.6618 -1.9993 0.9765
-5.5293 0.7724 -1.9965 0.9766
-5.5744 0.2759 -1.9959 0.9766
-5.5752 -0.2226 -1.9953 0.9766
-4.9268 -2.6071 -1.9933 0.9766
-4.6740 -3.0360 -1.9931 0.9766
-4.0594 -3.8181 -1.9929 0.9766
-3.7025 -4.1651 -1.9929 0.9766
-2.9033 -4.7573 -1.9930 0.9766
-2.4675 -4.9979 -1.9932 0.9766
-1.0560 -5.4756 -1.9942 0.9766
-0.0659 -5.5787 -1.9951 0.9766
1.8924 -5.2556 -1.9976 0.9765
2.3547 -5.0676 -1.9983 0.9765
3.2204 -4.5716 -1.9998 0.9765
3.6169 -4.2676 -2.0005 0.9765
4.6235 -3.1609 -2.0028 0.9765
5.1156 -2.2903 -2.0043 0.9765
5.4451 -1.3454 -2.0058 0.9765
5.6011 -0.3563 -2.0070 0.9764
5.6122 0.1450 -2.0076 0.9764
5.5783 0.6454 -2.0082 0.9764
5.3771 1.6275 -2.0090 0.9764
5.2114 2.1012 -2.0094 0.9764
4.1485 3.7932 -2.0102 0.9764
3.7935 4.1483 -2.0102 0.9764
3.4081 4.4702 -2.0102 0.9764
2.9954 4.7562 -2.0101 0.9764
1.5957 5.2710 -1.9694 0.9769
1.0546 5.0822 -1.8562 0.9782
-1.2431 5.0322 -1.8537 0.9782
-1.6867 4.8996 -1.8530 0.9782
-2.1164 4.7279 -1.8524 0.9782
-3.5467 4.3064 -1.9951 0.9766
-4.2686 3.6181 -2.0011 0.9765
-5.2568 1.8932 -1.9981 0.9765
-5.5650 0.4327 -1.9961 0.9766
-5.5798 -0.0656 -1.9955 0.9766
-5.5502 -0.5631 -1.9950 0.9766
-5.4765 -1.0559 -1.9945 0.9766
-5.3593 -1.5401 -1.9941 0.9766
-4.1653 -3.7023 -1.9929 0.9766
-2.6071 -4.9263 -1.9932 0.9766
-0.7193 -5.5307 -1.9945 0.9766
-0.2229 -5.5742 -1.9950 0.9766
1.7435 -5.3063 -1.9974 0.9766
2.2108 -5.1313 -1.9981 0.9765
3.0900 -4.6600 -1.9995 0.9765
3.4949 -4.3673 -2.0003 0.9765
3.8722 -4.0395 -2.0010 0.9765
4.2188 -3.6793 -2.0018 0.9765
5.2474 -1.9737 -2.0048 0.9765
5.4044 -1.4981 -2.0055 0.9765
5.5184 -1.0102 -2.0062 0.9764
5.5883 -0.5138 -2.0069 0.9764
5.6135 -0.0131 -2.0074 0.9764
5.5938 0.4880 -2.0080 0.9764
5.5293 0.9855 -2.0085 0.9764
5.2682 1.9535 -2.0093 0.9764
5.0736 2.4163 -2.0096 0.9764
4.2536 3.6748 -2.0102 0.9764
3.9088 4.0398 -2.0102 0.9764
3.5326 4.3725 -2.0102 0.9764
2.6987 4.9302 -2.0099 0.9764
2.2467 5.1483 -2.0088 0.9764
1.7727 5.3113 -2.0024 0.9765
1.2106 5.1067 -1.8768 0.9780
0.7417 5.1365 -1.8559 0.9782
-0.6448 5.1454 -1.8544 0.9782
-1.1011 5.0658 -1.8539 0.9782
-1.9827 4.7861 -1.8526 0.9782
-4.7599 2.9351 -1.9998 0.9765
-5.2020 2.0407 -1.9983 0.9765
-5.5511 0.5893 -1.9963 0.9766
-5.5799 0.0916 -1.9957 0.9766
-5.5044 -0.9013 -1.9946 0.9766
-5.4008 -1.3886 -1.9942 0.9766
-5.2544 -1.8647 -1.9938 0.9766
-4.8378 -2.7682 -1.9932 0.9766
-3.1664 -4.5861 -1.9930 0.9766
-2.3011 -5.0769 -1.9933 0.9766
-1.8392 -5.2627 -1.9936 0.9766
-0.8747 -5.5079 -1.9944 0.9766
0.1184 -5.5784 -1.9953 0.9766
1.1088 -5.4717 -1.9965 0.9766
1.5932 -5.3527 -1.9971 0.9766
2.0652 -5.1909 -1.9978 0.9765
2.5211 -4.9877 -1.9985 0.9765
2.9573 -4.7446 -1.9993 0.9765
3.3701 -4.4634 -2.0000 0.9765
3.7564 -4.1464 -2.0008 0.9765
4.1131 -3.7962 -2.0016 0.9765
4.4371 -3.4153 -2.0024 0.9765
4.7260 -3.0068 -2.0031 0.9765
4.9774 -2.5741 -2.0039 0.9765
5.1891 -2.1204 -2.0046 0.9765
5.4872 -1.1650 -2.0060 0.9765
5.3208 1.8043 -2.0092 0.9764
5.1394 2.2723 -2.0095 0.9764
4.3553 3.5535 -2.0101 0.9764
4.0209 3.9282 -2.0102 0.9764
3.2585 4.5802 -2.0101 0.9764
2.8366 4.8524 -2.0100 0.9764
0.4261 5.1714 -1.8556 0.9782
-0.0371 5.1875 -1.8551 0.9782
-1.4085 4.9878 -1.8534 0.9782
-1.8473 4.8406 -1.8528 0.9782
-2.2711 4.6548 -1.8521 0.9782
-2.6765 4.4319 -1.8515 0.9782
-3.1570 4.3059 -1.9094 0.9776
-3.6904 4.1907 -1.9969 0.9766
-4.0591 3.8536 -2.0015 0.9765
-4.3851 3.4747 -2.0008 0.9765
-4.9292 2.6378 -1.9992 0.9765
-5.5329 0.7455 -1.9965 0.9766
-5.5756 0.2487 -1.9959 0.9766
-5.5740 -0.2498 -1.9953 0.9766
-5.5281 -0.7460 -1.9948 0.9766
-5.3051 -1.7161 -1.9939 0.9766
-5.1299 -2.1823 -1.9936 0.9766
-4.9140 -2.6310 -1.9933 0.9766
-4.6591 -3.0587 -1.9931 0.9766
-4.0407 -3.8378 -1.9929 0.9766
-3.6821 -4.1831 -1.9929 0.9766
-1.5141 -5.3660 -1.9938 0.9766
-1.0294 -5.4807 -1.9942 0.9766
-0.0387 -5.5791 -1.9952 0.9766
0.4595 -5.5618 -1.9957 0.9766
1.9180 -5.2464 -1.9976 0.9765
3.6377 -4.2501 -2.0006 0.9765
4.0040 -3.9100 -2.0013 0.9765
4.3387 -3.5384 -2.0021 0.9765
5.3104 -1.7995 -2.0051 0.9765
5.4517 -1.3189 -2.0058 0.9765
5.5494 -0.8274 -2.0065 0.9764
5.6029 -0.3290 -2.0071 0.9764
-5.2071 0.1362 -1.9961 0.9779
-5.1458 -0.7912 -1.9951 0.9779
-5.0536 -1.2470 -1.9947 0.9779
-4.9213 -1.6927 -1.9944 0.9780
-4.7499 -2.1248 -1.9941 0.9780
-4.5408 -2.5398 -1.9938 0.9780
-4.0163 -3.3061 -1.9935 0.9780
-2.1940 -4.7177 -1.9938 0.9780
-1.3208 -5.0340 -1.9944 0.9780
-0.8664 -5.1327 -1.9948 0.9779
-0.4050 -5.1907 -1.9952 0.9779
0.9851 -5.1166 -1.9968 0.9779
1.4382 -5.0098 -1.9974 0.9779
2.7164 -4.4543 -1.9994 0.9779
3.1042 -4.1956 -2.0001 0.9779
3.8033 -3.5795 -2.0015 0.9779
4.3822 -2.8485 -2.0029 0.9779
4.8221 -2.0255 -2.0043 0.9778
5.1087 -1.1368 -2.0056 0.9778
5.2325 -0.2106 -2.0068 0.9778
5.1892 0.7232 -2.0078 0.9778
5.1051 1.1837 -2.0083 0.9778
4.9800 1.6348 -2.0086 0.9778
4.6114 2.4948 -2.0092 0.9778
4.0952 3.2753 -2.0095 0.9778
3.7867 3.6278 -2.0096 0.9778
3.4478 3.9513 -2.0096 0.9778
3.0814 4.2431 -2.0096 0.9778
2.6903 4.5009 -2.0094 0.9778
2.2777 4.7225 -2.0093 0.9778
1.8467 4.9056 -2.0087 0.9778
0.4447 4.8222 -1.8558 0.9795
-0.4193 4.8206 -1.8543 0.9795
-0.8476 4.7626 -1.8538 0.9795
-1.6796 4.5333 -1.8526 0.9795
-2.5377 4.2962 -1.9121 0.9789
-3.4120 3.9515 -2.0007 0.9779
-4.0605 3.2824 -2.0009 0.9779
-4.5761 2.5065 -1.9995 0.9779
-4.7799 2.0874 -1.9988 0.9779
-4.9454 1.6520 -1.9981 0.9779
-5.0715 1.2037 -1.9975 0.9779
-5.1571 0.7461 -1.9969 0.9779
-5.2047 -0.1825 -1.9958 0.9779
-5.0871 -1.1043 -1.9949 0.9779
-4.9673 -1.5535 -1.9945 0.9780
-4.8080 -1.9903 -1.9942 0.9780
-4.6106 -2.4111 -1.9939 0.9780
-4.3766 -2.8126 -1.9937 0.9780
-3.8065 -3.5454 -1.9935 0.9780
-3.4749 -3.8709 -1.9934 0.9780
-2.7317 -4.4274 -1.9936 0.9780
-1.9015 -4.8434 -1.9940 0.9780
-1.0106 -5.1060 -1.9947 0.9780
-0.0868 -5.2066 -1.9955 0.9779
0.3782 -5.1949 -1.9960 0.9779
1.7422 -4.9135 -1.9978 0.9779
4.5493 -2.5758 -2.0034 0.9779
4.7627 -2.1602 -2.0041 0.9778
5.0742 -1.2801 -2.0054 0.9778
5.2366 0.1098 -2.0072 0.9778
5.0238 1.4939 -2.0085 0.9778
4.8712 1.9365 -2.0089 0.9778
4.6797 2.3639 -2.0091 0.9778
3.8873 3.5198 -2.0096 0.9778
3.1997 4.1547 -2.0096 0.9778
2.8160 4.4234 -2.0095 0.9778
1.9844 4.8526 -2.0091 0.9778
1.5402 4.9996 -2.0048 0.9778
1.0700 5.0331 -1.9719 0.9782
0.1489 4.8381 -1.8549 0.9795
-0.7132 4.7850 -1.8539 0.9795
-1.5515 4.5792 -1.8528 0.9795
-2.3825 4.3058 -1.8858 0.9791
-3.2970 4.0431 -1.9993 0.9779
-3.9669 3.3958 -2.0011 0.9779
-4.2526 3.0272 -2.0004 0.9779
-4.7197 2.2214 -1.9990 0.9779
-5.0361 1.3462 -1.9977 0.9779
-5.1921 0.4292 -1.9965 0.9779
-5.1829 -0.5003 -1.9954 0.9779
-5.0093 -1.4131 -1.9946 0.9780
-4.8624 -1.8542 -1.9942 0.9780
-4.4542 -2.6883 -1.9937 0.9780
-4.1962 -3.0748 -1.9936 0.9780
-3.9049 -3.4369 -1.9935 0.9780
-3.5825 -3.7716 -1.9934 0.9780
-2.8552 -4.3486 -1.9936 0.9780
-2.4559 -4.5864 -1.9937 0.9780
-1.6019 -4.9512 -1.9942 0.9780
-0.6965 -5.1589 -1.9949 0.9779
0.6953 -5.1630 -1.9964 0.9779
1.6030 -4.9601 -1.9976 0.9779
2.0399 -4.7988 -1.9982 0.9779
3.9200 -3.4524 -2.0018 0.9779
4.2140 -3.0900 -2.0025 0.9779
4.4745 -2.7025 -2.0032 0.9779
4.6995 -2.2933 -2.0039 0.9778
4.8870 -1.8654 -2.0046 0.9778
5.0356 -1.4223 -2.0052 0.9778
5.1441 -0.9675 -2.0059 0.9778
5.2114 -0.5048 -2.0065 0.9778
5.2371 -0.0377 -2.0070 0.9778
5.1629 0.8943 -2.0080 0.9778
5.0636 1.3517 -2.0084 0.9778
4.9236 1.7985 -2.0088 0.9778
4.5267 2.6458 -2.0093 0.9778
4.2729 3.0395 -2.0095 0.9778
3.9848 3.4089 -2.0096 0.9778
3.6648 3.7510 -2.0096 0.9778
3.3154 4.0630 -2.0096 0.9778
2.9395 4.3425 -2.0095 0.9778
2.5401 4.5871 -2.0094 0.9778
1.2293 5.0752 -2.0011 0.9779
0.7343 4.9157 -1.9047 0.9789
0.2851 4.8323 -1.8551 0.9795
-0.1473 4.8373 -1.8546 0.9795
-0.5782 4.8036 -1.8541 0.9795
-1.0043 4.7315 -1.8536 0.9795
-3.1797 4.1315 -1.9979 0.9779
-3.5431 3.8393 -2.0021 0.9779
-4.1662 3.1461 -2.0006 0.9779
-4.4287 2.7607 -1.9999 0.9779
-5.1784 0.5753 -1.9967 0.9779
-5.2076 0.1108 -1.9961 0.9779
-5.1954 -0.3542 -1.9956 0.9779
-4.7394 -2.1479 -1.9940 0.9780
-4.5283 -2.5619 -1.9938 0.9780
-4.2812 -2.9555 -1.9936 0.9780
-4.0002 -3.3256 -1.9935 0.9780
-3.6873 -3.6692 -1.9934 0.9780
-3.3452 -3.9836 -1.9935 0.9780
-2.5840 -4.5153 -1.9937 0.9780
-1.7406 -4.9039 -1.9941 0.9780
-1.2963 -5.0404 -1.9944 0.9780
-0.8414 -5.1369 -1.9948 0.9779
0.0852 -5.2071 -1.9957 0.9779
1.4626 -5.0028 -1.9974 0.9779
1.9038 -4.8538 -1.9980 0.9779
2.3301 -4.6661 -1.9987 0.9779
3.1247 -4.1805 -2.0001 0.9779
3.8208 -3.5610 -2.0015 0.9779
4.1248 -3.2070 -2.0023 0.9779
4.3961 -2.8271 -2.0030 0.9779
4.6325 -2.4244 -2.0037 0.9779
4.9931 -1.5634 -2.0050 0.9778
5.1143 -1.1119 -2.0057 0.9778
5.1947 -0.6513 -2.0063 0.9778
5.2336 -0.1852 -2.0068 0.9778
5.1857 0.7485 -2.0079 0.9778
4.8049 2.0965 -2.0090 0.9778
4.5992 2.5172 -2.0092 0.9778
4.3567 2.9179 -2.0094 0.9778
4.0792 3.2953 -2.0096 0.9778
3.4285 3.9680 -2.0096 0.9778
2.2546 4.7335 -2.0092 0.9778
1.8224 4.9138 -2.0084 0.9778
1.3728 5.0426 -2.0027 0.9779
-0.4428 4.8184 -1.8543 0.9795
-2.5650 4.2945 -1.9169 0.9788
-3.0600 4.2166 -1.9965 0.9779
-4.3497 2.8847 -2.0001 0.9779
-4.7899 2.0641 -1.9987 0.9779
-4.9533 1.6278 -1.9981 0.9779
-5.0772 1.1790 -1.9974 0.9779
-5.2029 0.2575 -1.9963 0.9779
-4.9596 -1.5777 -1.9945 0.9780
-4.3629 -2.8339 -1.9937 0.9780
-4.0923 -3.2117 -1.9935 0.9780
-3.7892 -3.5639 -1.9935 0.9780
-3.0954 -4.1808 -1.9935 0.9780
-2.3032 -4.6652 -1.9938 0.9780
-1.8779 -4.8527 -1.9940 0.9780
-1.4376 -5.0017 -1.9943 0.9780
-0.5258 -5.1795 -1.9951 0.9779
-0.0615 -5.2070 -1.9956 0.9779
0.8656 -5.1377 -1.9966 0.9779
1.3210 -5.0415 -1.9972 0.9779
1.7662 -4.9050 -1.9978 0.9779
3.3753 -3.9826 -2.0006 0.9779
4.0324 -3.3215 -2.0020 0.9779
4.5619 -2.5536 -2.0035 0.9779
4.9466 -1.7032 -2.0048 0.9778
5.0805 -1.2553 -2.0055 0.9778
5.1738 -0.7972 -2.0061 0.9778
5.2258 -0.3324 -2.0067 0.9778
5.2044 0.6022 -2.0077 0.9778
5.0165 1.5183 -2.0085 0.9778
4.8618 1.9603 -2.0089 0.9778
4.6681 2.3867 -2.0092 0.9778
4.1703 3.1790 -2.0095 0.9778
3.5389 3.8699 -2.0096 0.9778
2.3871 4.6683 -2.0093 0.9778
1.5156 5.0063 -2.0045 0.9778
0.5620 4.8550 -1.8729 0.9793
0.1253 4.8387 -1.8549 0.9795
-0.7365 4.7814 -1.8539 0.9795
-1.5737 4.5715 -1.8528 0.9795
-2.9251 4.2791 -1.9863 0.9780
-3.6675 3.7197 -2.0018 0.9779
-4.2672 3.0064 -2.0004 0.9779
-4.9060 1.7669 -1.9983 0.9779
-5.1940 0.4039 -1.9964 0.9779
-5.2079 -0.0612 -1.9959 0.9779
-5.1804 -0.5256 -1.9954 0.9779
-5.0023 -1.4375 -1.9946 0.9780
-4.8533 -1.8778 -1.9942 0.9780
-4.6657 -2.3031 -1.9939 0.9780
-4.1812 -3.0952 -1.9936 0.9780
-3.2118 -4.0920 -1.9935 0.9780
-2.8340 -4.3625 -1.9936 0.9780
-2.4336 -4.5983 -1.9937 0.9780
-1.5778 -4.9589 -1.9942 0.9780
-1.1292 -5.0808 -1.9946 0.9780
-0.6714 -5.1623 -1.9950 0.9779
0.2571 -5.2019 -1.9959 0.9779
1.1784 -5.0762 -1.9970 0.9779
1.6272 -4.9523 -1.9976 0.9779
2.4833 -4.5872 -1.9990 0.9779
2.8837 -4.3488 -1.9997 0.9779
3.2615 -4.0756 -2.0004 0.9779
4.2290 -3.0695 -2.0025 0.9779
4.8961 -1.8416 -2.0046 0.9778
5.0426 -1.3978 -2.0053 0.9778
5.1488 -0.9425 -2.0059 0.9778
5.2139 -0.4794 -2.0065 0.9778
5.2188 0.4553 -2.0076 0.9778
5.1586 0.9194 -2.0080 0.9778
4.2580 3.0603 -2.0095 0.9778
3.6465 3.7687 -2.0096 0.9778
3.2956 4.0791 -2.0096 0.9778
2.5177 4.5994 -2.0094 0.9778
1.2042 5.0796 -2.0005 0.9779
0.2615 4.8336 -1.8550 0.9795
-0.1708 4.8365 -1.8546 0.9795
-0.6016 4.8006 -1.8541 0.9795
-1.0273 4.7264 -1.8535 0.9795
-1.4445 4.6145 -1.8530 0.9795
-2.2571 4.3134 -1.8656 0.9794
-2.7537 4.2824 -1.9511 0.9784
-3.2001 4.1164 -1.9981 0.9779
-3.8872 3.4876 -2.0013 0.9779
-4.6671 2.3309 -1.9992 0.9779
