ply
format ascii 1.0
element vertex 1585
property float32 x
property float32 y
property float32 z
property float32 I
end_header
-9.8691 -5.6990 -1.6147 0.9550
-8.5231 -7.2122 -1.5820 0.9559
-7.7901 -7.8871 -1.5707 0.9562
-2.6751 -10.7733 -1.5728 0.9561
0.2802 -11.4232 -1.6190 0.9549
1.3159 -11.5100 -1.6415 0.9543
2.3743 -11.5272 -1.6676 0.9536
4.5516 -11.3384 -1.7311 0.9518
5.6655 -11.1244 -1.7689 0.9508
6.7919 -10.8248 -1.8107 0.9497
12.4352 -7.8645 -2.0847 0.9423
12.5416 -6.4439 -1.9979 0.9446
2.3082 -0.9362 -0.3529 0.9900
9.7226 1.4744 -1.3933 0.9611
8.4267 2.0604 -1.2292 0.9656
7.4834 2.5558 -1.1205 0.9686
6.8485 3.0453 -1.0620 0.9702
5.5642 3.7824 -0.9533 0.9732
4.9941 4.0911 -0.9147 0.9743
4.5415 4.4537 -0.9013 0.9746
4.0310 4.7293 -0.8805 0.9752
3.4791 4.9090 -0.8525 0.9760
2.5362 5.4161 -0.8474 0.9761
2.1216 5.8367 -0.8799 0.9752
1.5739 5.9321 -0.8696 0.9755
-0.0600 7.0028 -0.9923 0.9721
-0.7017 7.1466 -1.0175 0.9714
-1.4060 7.4237 -1.0706 0.9699
-9.3717 15.4797 -2.5639 0.9295
-11.1781 12.6680 -2.3938 0.9340
-11.8500 11.2289 -2.3131 0.9362
-12.3779 9.7901 -2.2361 0.9382
-12.7708 8.3649 -2.1631 0.9402
-13.1893 5.5962 -2.0300 0.9438
-13.1802 2.9843 -1.9148 0.9469
-13.0371 1.7491 -1.8638 0.9482
-12.8121 0.5649 -1.8171 0.9495
-12.1441 -1.6439 -1.7364 0.9517
-11.7130 -2.6666 -1.7021 0.9526
-11.2243 -3.6345 -1.6717 0.9535
-10.6825 -4.5475 -1.6450 0.9542
-8.7757 -6.9578 -1.5868 0.9558
-4.7333 -9.7016 -1.5295 0.9573
-3.0005 -10.6222 -1.5639 0.9564
-1.0863 -11.1994 -1.5943 0.9556
0.9430 -11.4868 -1.6330 0.9545
4.1572 -11.3949 -1.7186 0.9522
6.3881 -10.9420 -1.7952 0.9501
7.5205 -10.5849 -1.8398 0.9489
9.7959 -9.5837 -1.9418 0.9461
12.0420 -8.1651 -2.0615 0.9429
14.0995 -4.7969 -2.1102 0.9416
14.9732 -3.6424 -2.1834 0.9396
11.8521 0.3472 -1.6800 0.9532
10.2782 1.2246 -1.4666 0.9590
8.8521 1.8673 -1.2819 0.9641
7.0675 2.8763 -1.0811 0.9696
6.5703 3.3856 -1.0473 0.9706
5.1926 3.9837 -0.9273 0.9739
4.5705 4.2045 -0.8799 0.9752
3.6275 4.7869 -0.8510 0.9760
3.1327 5.0060 -0.8367 0.9764
2.7044 5.3258 -0.8463 0.9762
2.2973 5.7424 -0.8763 0.9753
0.6493 3.1712 -0.4586 0.9870
0.1608 6.8851 -0.9758 0.9726
-1.1483 7.3365 -1.0522 0.9704
-7.7775 17.2687 -2.6835 0.9263
-8.9812 15.9634 -2.5952 0.9287
-10.0215 14.5926 -2.5082 0.9310
-10.9015 13.1794 -2.4234 0.9332
-2.2628 2.2856 -0.4557 0.9871
-12.6453 8.8720 -2.1887 0.9395
-13.1480 6.0808 -2.0525 0.9432
-13.2100 3.4377 -1.9341 0.9463
-12.2832 -1.2651 -1.7496 0.9513
-11.8739 -2.3074 -1.7139 0.9523
-11.4053 -3.2949 -1.6821 0.9532
-10.8820 -4.2275 -1.6541 0.9539
-9.6875 -5.9281 -1.6092 0.9552
-9.0232 -6.6965 -1.5921 0.9556
-8.3179 -7.4103 -1.5784 0.9560
-5.0372 -9.5394 -1.5285 0.9574
-4.1845 -9.9940 -1.5352 0.9572
-2.4045 -10.8591 -1.5759 0.9561
-1.4382 -11.1208 -1.5888 0.9557
1.6155 -11.5222 -1.6485 0.9541
2.6801 -11.5188 -1.6757 0.9533
3.7650 -11.4413 -1.7066 0.9525
4.8678 -11.2858 -1.7415 0.9516
7.1149 -10.7230 -1.8234 0.9493
8.2514 -10.3061 -1.8706 0.9481
10.5237 -9.1755 -1.9783 0.9452
12.7379 -7.6087 -2.1023 0.9418
13.7721 -5.1814 -2.0849 0.9423
11.7057 -0.0308 -1.6586 0.9538
6.6775 3.1754 -1.0477 0.9706
3.7578 4.6432 -0.8464 0.9762
2.4541 5.6084 -0.8674 0.9756
0.7516 3.1551 -0.4596 0.9870
0.9149 6.2845 -0.8998 0.9747
0.3639 6.5787 -0.9336 0.9737
-0.8988 7.2499 -1.0351 0.9709
-5.8835 18.8890 -2.8032 0.9232
-7.3077 17.7145 -2.7151 0.9255
-8.5699 16.4387 -2.6267 0.9278
-10.6051 13.6880 -2.4534 0.9324
-11.3849 12.2584 -2.3704 0.9346
-12.5033 9.3817 -2.2148 0.9388
-12.8594 7.9625 -2.1430 0.9407
-13.0926 6.5703 -2.0756 0.9425
-13.2124 5.2130 -2.0125 0.9442
-13.2280 3.8971 -1.9539 0.9458
-13.1482 2.6269 -1.8998 0.9473
-12.7340 0.2367 -1.8046 0.9498
-10.5188 -4.7978 -1.6381 0.9544
-9.2654 -6.4281 -1.5978 0.9555
-8.5745 -7.1614 -1.5829 0.9559
-7.0655 -8.4508 -1.5608 0.9565
-6.1948 -8.9194 -1.5387 0.9571
-3.6295 -10.2889 -1.5459 0.9569
-1.7867 -11.0344 -1.5838 0.9558
-0.8030 -11.2563 -1.5989 0.9554
0.2064 -11.4144 -1.6176 0.9549
1.2404 -11.5061 -1.6397 0.9543
2.2972 -11.5283 -1.6656 0.9536
3.3751 -11.4778 -1.6951 0.9528
4.4718 -11.3506 -1.7286 0.9519
5.5846 -11.1427 -1.7660 0.9509
7.8448 -10.4660 -1.8532 0.9485
8.9831 -9.9873 -1.9033 0.9472
10.1194 -9.4079 -1.9577 0.9457
12.4705 -6.5092 -1.9932 0.9448
2.3032 -0.9515 -0.3531 0.9900
13.8207 -4.3125 -2.0514 0.9432
15.1645 -1.8878 -2.1652 0.9401
11.3800 0.6238 -1.6149 0.9550
9.8303 1.4260 -1.4074 0.9607
6.3735 3.4924 -1.0297 0.9711
5.6072 3.7591 -0.9565 0.9731
5.0337 4.0696 -0.9172 0.9742
4.5794 4.4332 -0.9031 0.9746
4.0671 4.7098 -0.8817 0.9752
3.0403 5.1452 -0.8468 0.9761
1.1028 6.1841 -0.8900 0.9749
0.5656 6.4711 -0.9204 0.9741
-1.3533 7.4061 -1.0667 0.9700
-11.1238 12.7714 -2.3997 0.9339
-2.3609 2.2662 -0.4637 0.9869
-13.1872 3.0753 -1.9186 0.9468
-13.0503 1.8365 -1.8673 0.9482
-12.8309 0.6486 -1.8203 0.9494
-12.5363 -0.4866 -1.7776 0.9506
-8.8260 -6.9056 -1.5878 0.9557
-7.3552 -8.2477 -1.5658 0.9563
-6.5033 -8.7536 -1.5451 0.9569
-5.6450 -9.2143 -1.5311 0.9573
-3.0647 -10.5882 -1.5618 0.9564
-1.1576 -11.1842 -1.5931 0.9556
1.9170 -11.5285 -1.6559 0.9539
2.9876 -11.5044 -1.6841 0.9531
6.3068 -10.9643 -1.7922 0.9502
-9.3066 -4.3175 -1.6901 0.9593
-8.2097 -5.7744 -1.6535 0.9601
-7.5993 -6.4305 -1.6400 0.9604
-6.9511 -7.0377 -1.6296 0.9607
-4.8022 -8.5591 -1.6168 0.9610
-4.0243 -8.9635 -1.6186 0.9610
-3.2186 -9.3148 -1.6235 0.9608
-1.5302 -9.8526 -1.6426 0.9604
0.2492 -10.1594 -1.6741 0.9596
1.1685 -10.2208 -1.6947 0.9592
4.0172 -10.0072 -1.7765 0.9572
5.9623 -9.5027 -1.8481 0.9555
6.9371 -9.1319 -1.8892 0.9546
8.8648 -8.1357 -1.9822 0.9524
9.8047 -7.5037 -2.0340 0.9512
10.7182 -6.7786 -2.0892 0.9499
12.2524 -3.7367 -2.1102 0.9494
12.9060 -2.7065 -2.1724 0.9479
9.7797 1.4831 -1.6295 0.9607
8.6307 2.1103 -1.4637 0.9646
6.0078 3.3426 -1.1326 0.9725
5.4625 3.7132 -1.0881 0.9736
4.5360 4.4482 -1.0466 0.9746
4.0262 4.7236 -1.0225 0.9752
3.4750 4.9032 -0.9900 0.9759
2.5333 5.4098 -0.9841 0.9761
1.0639 6.1966 -1.0358 0.9748
-0.6065 6.1766 -1.0224 0.9752
-4.1536 14.6383 -2.5067 0.9402
-7.8292 12.9319 -2.4904 0.9406
-8.6982 11.8376 -2.4200 0.9422
-10.5630 8.3546 -2.2186 0.9469
-10.9506 7.1727 -2.1565 0.9483
-11.2307 5.9987 -2.0975 0.9497
-11.4095 4.8411 -2.0418 0.9510
-11.4937 3.7068 -1.9895 0.9522
-11.2424 0.4957 -1.8539 0.9554
-11.0108 -0.4985 -1.8158 0.9563
-10.3583 -2.3582 -1.7501 0.9578
-9.4838 -4.0372 -1.6980 0.9591
-8.9732 -4.8065 -1.6769 0.9596
-7.1870 -6.8264 -1.6329 0.9606
-6.5157 -7.4018 -1.6245 0.9608
-5.8105 -7.9272 -1.6192 0.9609
-4.3056 -8.8250 -1.6176 0.9610
-0.0748 -10.1222 -1.6676 0.9598
3.6723 -10.0656 -1.7651 0.9575
6.5890 -9.2738 -1.8741 0.9549
7.5611 -8.8496 -1.9175 0.9539
8.5241 -8.3395 -1.9645 0.9528
9.4714 -7.7401 -2.0151 0.9516
12.6807 -3.0847 -2.1499 0.9485
10.2574 1.2221 -1.7018 0.9590
6.9824 2.8416 -1.2419 0.9699
6.2409 3.2159 -1.1566 0.9719
5.6456 3.5798 -1.1013 0.9733
5.1393 3.9428 -1.0671 0.9741
2.7012 5.3195 -0.9829 0.9761
2.2787 5.6957 -1.0106 0.9754
1.7862 5.9584 -1.0247 0.9751
0.7176 6.3430 -1.0516 0.9745
0.1532 6.5627 -1.0814 0.9737
-0.4501 6.8141 -1.1250 0.9727
-1.1234 7.1773 -1.1968 0.9710
-3.4710 13.9085 -2.3616 0.9435
-5.2851 15.2373 -2.6569 0.9367
-6.4480 14.3166 -2.5867 0.9383
-7.4880 13.3092 -2.5157 0.9400
-8.4021 12.2345 -2.4450 0.9416
-2.2623 2.2851 -0.5297 0.9870
-10.3971 8.7771 -2.2415 0.9463
-10.8248 7.5947 -2.1784 0.9478
-11.4741 4.1091 -2.0078 0.9518
-11.1013 -0.1479 -1.8290 0.9560
-10.8275 -1.1151 -1.7931 0.9568
-10.0999 -2.9178 -1.7319 0.9583
-9.6549 -3.7508 -1.7063 0.9589
-9.1609 -4.5370 -1.6841 0.9594
-8.6215 -5.2758 -1.6651 0.9599
-4.5832 -8.6798 -1.6170 0.9610
-3.7972 -9.0692 -1.6197 0.9609
-2.9839 -9.4051 -1.6255 0.9608
-2.1448 -9.6862 -1.6343 0.9606
-0.3963 -10.0773 -1.6614 0.9599
0.5096 -10.1833 -1.6797 0.9595
1.4339 -10.2267 -1.7012 0.9590
3.3285 -10.1149 -1.7542 0.9578
4.2933 -9.9538 -1.7858 0.9570
5.2653 -9.7184 -1.8209 0.9562
9.1351 -7.9647 -1.9966 0.9521
10.0683 -7.3065 -2.0494 0.9508
11.7053 -0.0308 -1.9283 0.9537
10.7799 0.9367 -1.7826 0.9571
8.3027 2.2557 -1.4174 0.9657
5.8315 3.4418 -1.1155 0.9729
4.3881 4.5282 -1.0388 0.9748
3.7533 4.6377 -0.9829 0.9761
3.3396 4.9762 -0.9873 0.9760
2.8690 5.2294 -0.9826 0.9761
0.9118 6.2635 -1.0427 0.9747
0.3587 6.4845 -1.0699 0.9740
-0.2283 6.7024 -1.1048 0.9732
-3.2684 15.1377 -2.5512 0.9391
-4.4924 14.4227 -2.4886 0.9406
-6.0462 14.6566 -2.6119 0.9377
-7.1306 13.6780 -2.5411 0.9394
-8.0900 12.6252 -2.4702 0.9410
-8.9229 11.5168 -2.4001 0.9426
-9.6307 10.3696 -2.3314 0.9442
-11.0412 6.8366 -2.1394 0.9487
-11.4429 4.5149 -2.0265 0.9514
-11.5012 3.3883 -1.9752 0.9526
-11.1832 0.2079 -1.8426 0.9557
-10.9327 -0.7744 -1.8056 0.9565
-10.2463 -2.6089 -1.7418 0.9580
-9.8197 -3.4584 -1.7151 0.9587
-8.8193 -5.0172 -1.6715 0.9597
-6.9991 -6.9955 -1.6302 0.9607
-6.3179 -7.5568 -1.6227 0.9609
-5.6033 -8.0678 -1.6182 0.9610
-4.0814 -8.9361 -1.6184 0.9610
-2.4475 -9.5921 -1.6308 0.9607
-1.5928 -9.8372 -1.6417 0.9604
-0.7152 -10.0246 -1.6556 0.9601
0.1836 -10.1525 -1.6728 0.9597
2.9862 -10.1550 -1.7438 0.9580
3.9475 -10.0197 -1.7741 0.9573
4.9173 -9.8113 -1.8079 0.9565
5.8920 -9.5263 -1.8453 0.9556
7.8369 -8.7130 -1.9306 0.9536
10.7040 -5.5871 -1.9891 0.9522
2.3024 -0.9511 -0.4104 0.9900
12.2026 -3.8076 -2.1058 0.9495
12.1995 -0.4216 -2.0109 0.9517
8.7058 2.0693 -1.4741 0.9644
6.7474 2.9485 -1.2131 0.9706
4.9980 4.0408 -1.0588 0.9743
4.0623 4.7042 -1.0239 0.9751
2.5672 5.3915 -0.9837 0.9761
2.1392 5.7692 -1.0137 0.9754
0.5599 6.4060 -1.0593 0.9743
-0.0141 6.6248 -1.0914 0.9735
-4.0666 14.6914 -2.5113 0.9401
-5.6290 14.9847 -2.6370 0.9372
-6.7573 14.0372 -2.5665 0.9388
-9.3920 10.7831 -2.3557 0.9437
-10.5307 8.4399 -2.2232 0.9468
-10.9264 7.2578 -2.1609 0.9482
-11.3999 4.9239 -2.0457 0.9509
-11.4906 3.7877 -1.9931 0.9521
-11.4127 1.6061 -1.8986 0.9544
-11.2565 0.5690 -1.8567 0.9553
-11.0297 -0.4282 -1.8184 0.9562
-10.7379 -1.3831 -1.7836 0.9571
-9.9781 -3.1601 -1.7243 0.9585
-9.5188 -3.9798 -1.6997 0.9590
-7.8663 -6.1547 -1.6454 0.9603
-7.2340 -6.7829 -1.6337 0.9606
-6.5653 -7.3619 -1.6250 0.9608
-5.8624 -7.8910 -1.6194 0.9609
-5.1274 -8.3694 -1.6169 0.9610
-4.3620 -8.7962 -1.6175 0.9610
-1.9010 -9.7561 -1.6374 0.9605
-1.0313 -9.9644 -1.6503 0.9602
-0.1399 -10.1138 -1.6663 0.9598
2.6453 -10.1862 -1.7337 0.9582
3.6028 -10.0763 -1.7629 0.9575
5.5434 -9.6372 -1.8315 0.9559
7.4912 -8.8830 -1.9143 0.9540
-8.3652 -3.8808 -1.7333 0.9632
-7.9011 -4.5625 -1.7149 0.9635
-6.2707 -6.3488 -1.6773 0.9643
-2.9046 -8.4061 -1.6717 0.9644
-1.3794 -8.8813 -1.6894 0.9641
-0.5863 -9.0388 -1.7025 0.9638
0.2242 -9.1405 -1.7186 0.9635
1.8885 -9.1687 -1.7595 0.9626
3.5923 -8.9487 -1.8125 0.9615
7.0046 -7.6875 -1.9548 0.9586
7.8312 -7.1871 -1.9979 0.9577
2.3071 -0.9357 -0.4680 0.9899
11.1657 -2.3415 -2.1444 0.9546
11.2093 0.6869 -2.1109 0.9553
9.7608 1.4802 -1.8556 0.9606
8.6156 2.1066 -1.6671 0.9645
7.6741 2.6210 -1.5242 0.9675
6.8275 3.0360 -1.4045 0.9700
6.0695 3.3769 -1.3055 0.9721
5.4125 3.6793 -1.2301 0.9737
4.8421 3.9666 -1.1765 0.9748
4.5304 4.4428 -1.1927 0.9745
3.3891 4.7820 -1.1017 0.9764
2.9342 5.0396 -1.0961 0.9765
2.4742 5.2836 -1.0966 0.9765
0.5093 6.2949 -1.1871 0.9746
-5.4180 11.0720 -2.3169 0.9511
-9.2034 7.2793 -2.2056 0.9534
-9.5757 6.2721 -2.1516 0.9545
-9.8545 5.2636 -2.0999 0.9555
-10.1493 3.2732 -2.0044 0.9575
-10.1749 2.3039 -1.9609 0.9584
-10.1260 1.3585 -1.9203 0.9593
-9.2773 -2.1121 -1.7884 0.9620
-8.9234 -2.8895 -1.7630 0.9625
-8.5205 -3.6271 -1.7406 0.9630
-8.0719 -4.3237 -1.7212 0.9634
-7.5808 -4.9782 -1.7047 0.9638
-6.4822 -6.1570 -1.6804 0.9643
-4.5801 -7.5853 -1.6655 0.9646
-3.8870 -7.9669 -1.6662 0.9646
-3.1676 -8.2994 -1.6697 0.9645
-2.4241 -8.5816 -1.6761 0.9644
-0.0673 -9.1107 -1.7125 0.9636
0.7533 -9.1755 -1.7304 0.9632
1.5876 -9.1814 -1.7513 0.9628
2.4328 -9.1260 -1.7752 0.9623
5.0027 -8.5691 -1.8650 0.9604
5.8581 -8.2450 -1.9011 0.9597
6.7050 -7.8477 -1.9401 0.9589
7.5381 -7.3748 -1.9822 0.9580
8.3510 -6.8245 -2.0271 0.9571
9.1366 -6.1951 -2.0749 0.9561
10.4382 -3.5513 -2.0724 0.9561
11.8647 -0.7130 -2.2341 0.9528
11.8302 0.3465 -2.2246 0.9530
8.9974 1.8979 -1.7284 0.9633
7.1305 2.9019 -1.4470 0.9692
4.5666 4.2009 -1.1663 0.9751
4.2007 4.6211 -1.1738 0.9749
3.5511 4.6861 -1.1051 0.9764
2.1740 5.4341 -1.1001 0.9765
0.1520 6.5086 -1.2237 0.9739
-1.1463 7.3239 -1.3934 0.9703
-3.1464 12.6078 -2.4424 0.9485
-4.1674 12.0150 -2.3903 0.9496
-7.2258 10.5217 -2.3991 0.9494
-2.2619 2.2846 -0.6043 0.9870
-9.4536 6.6327 -2.1706 0.9541
-9.7653 5.6237 -2.1181 0.9552
-9.9863 4.6186 -2.0680 0.9562
-10.1746 2.6477 -1.9761 0.9581
-10.0574 0.7656 -1.8959 0.9598
-9.8962 -0.1319 -1.8603 0.9605
-9.6727 -0.9962 -1.8277 0.9612
-9.0557 -2.6161 -1.7717 0.9624
-8.6699 -3.3681 -1.7482 0.9629
-7.7610 -4.7492 -1.7102 0.9636
-6.6892 -5.9593 -1.6839 0.9642
-6.0989 -6.4979 -1.6751 0.9644
-4.8210 -7.4372 -1.6659 0.9646
-3.4276 -8.1863 -1.6681 0.9645
-2.6925 -8.4866 -1.6735 0.9644
-1.9343 -8.7356 -1.6817 0.9642
-1.1551 -8.9318 -1.6928 0.9640
-0.3568 -9.0736 -1.7068 0.9637
0.4583 -9.1590 -1.7237 0.9634
2.1296 -9.1529 -1.7664 0.9625
2.9804 -9.0570 -1.7922 0.9619
3.8371 -8.8961 -1.8210 0.9613
4.6960 -8.6676 -1.8529 0.9607
5.5531 -8.3691 -1.8878 0.9599
8.0632 -7.0302 -2.0107 0.9574
8.8595 -6.4292 -2.0575 0.9564
9.6036 -5.7365 -2.1026 0.9555
9.6023 -4.6284 -2.0036 0.9575
10.2277 -3.8479 -2.0540 0.9565
11.3024 -2.0712 -2.1598 0.9543
11.7049 -0.0308 -2.2001 0.9535
10.7570 0.9347 -2.0295 0.9570
9.4085 1.6730 -1.7962 0.9619
8.3295 2.2630 -1.6224 0.9655
7.4275 2.7499 -1.4887 0.9683
4.6922 4.0478 -1.1648 0.9751
3.2597 4.8570 -1.0995 0.9765
1.8689 5.5804 -1.1062 0.9763
0.7160 3.0054 -0.5807 0.9875
0.8871 6.0935 -1.1574 0.9752
0.3532 6.3855 -1.2021 0.9743
-3.8118 12.2377 -2.4092 0.9492
-4.7798 11.5866 -2.3559 0.9503
-7.6935 9.9300 -2.3611 0.9502
-8.8779 7.9934 -2.2454 0.9525
-9.9174 4.9768 -2.0856 0.9558
-10.0990 1.0939 -1.9093 0.9595
-9.9611 0.1852 -1.8726 0.9603
-8.8133 -3.1040 -1.7563 0.9627
-8.3970 -3.8300 -1.7347 0.9631
-7.9360 -4.5147 -1.7162 0.9635
-7.4333 -5.1571 -1.7005 0.9638
-6.3138 -6.3106 -1.6779 0.9643
-5.7019 -6.8199 -1.6709 0.9645
-5.0583 -7.2831 -1.6667 0.9646
-4.3851 -7.6991 -1.6654 0.9646
-2.2078 -8.6526 -1.6785 0.9643
-1.4359 -8.8679 -1.6885 0.9641
-0.6442 -9.0293 -1.7015 0.9638
0.9900 -9.1833 -1.7361 0.9631
1.8276 -9.1719 -1.7579 0.9627
2.6755 -9.0986 -1.7826 0.9621
4.3890 -8.7571 -1.8412 0.9609
5.2473 -8.4840 -1.8750 0.9602
6.9443 -7.7206 -1.9518 0.9586
8.5782 -6.6531 -2.0405 0.9568
9.3672 -4.8894 -1.9861 0.9579
11.5876 -1.4425 -2.1948 0.9536
11.9626 -0.4134 -2.2499 0.9525
11.3295 0.6210 -2.1327 0.9549
9.8536 1.4294 -1.8715 0.9603
8.6905 2.0657 -1.6790 0.9643
4.8805 3.9458 -1.1796 0.9748
4.5681 4.4224 -1.1951 0.9745
2.5077 5.2664 -1.0964 0.9765
2.0393 5.4996 -1.1025 0.9764
0.8581 3.1520 -0.6140 0.9868
0.5483 6.2741 -1.1838 0.9747
-0.0141 6.6110 -1.2426 0.9735
-3.4457 12.4485 -2.4278 0.9488
-4.4436 11.8291 -2.3751 0.9499
-5.3557 11.1256 -2.3209 0.9510
-6.1766 10.3522 -2.2658 0.9521
-8.1186 9.3211 -2.3234 0.9509
-2.3491 2.2548 -0.6120 0.9868
-9.5520 6.3449 -2.1554 0.9544
-9.8374 5.3362 -2.1036 0.9555
-10.1444 3.3439 -2.0077 0.9575
-10.1756 2.3730 -1.9639 0.9584
-10.0180 0.5064 -1.8854 0.9600
-9.5981 -1.2363 -1.8190 0.9614
-9.3008 -2.0545 -1.7903 0.9620
-8.9506 -2.8347 -1.7647 0.9625
-7.6176 -4.9325 -1.7058 0.9637
-7.0896 -5.5470 -1.6920 0.9640
-4.6290 -7.5559 -1.6655 0.9646
-3.9379 -7.9410 -1.6660 0.9646
-3.2204 -8.2771 -1.6694 0.9645
-2.4785 -8.5629 -1.6756 0.9644
-0.9292 -8.9779 -1.6965 0.9639
1.5270 -9.1830 -1.7497 0.9628
2.3715 -9.1321 -1.7734 0.9623
3.2243 -9.0178 -1.8001 0.9618
4.0820 -8.8379 -1.8298 0.9612
6.6443 -7.8788 -1.9372 0.9589
-7.5909 -3.5216 -1.7688 0.9664
-5.7074 -5.7784 -1.7168 0.9673
-4.5632 -6.6614 -1.7068 0.9675
-3.9485 -7.0375 -1.7057 0.9675
-3.3082 -7.3685 -1.7073 0.9675
-2.6444 -7.6532 -1.7116 0.9674
-1.9592 -7.8902 -1.7185 0.9673
-0.5329 -8.2156 -1.7403 0.9669
0.9526 -8.3324 -1.7728 0.9663
1.7113 -8.3084 -1.7931 0.9659
2.4769 -8.2269 -1.8161 0.9655
3.2461 -8.0862 -1.8418 0.9650
4.7808 -7.6196 -1.9014 0.9639
8.3602 -4.2955 -1.9868 0.9623
2.3073 -0.9358 -0.5263 0.9899
9.3954 -2.8654 -2.0763 0.9606
9.8291 -2.0612 -2.1229 0.9598
10.1958 -1.2026 -2.1701 0.9589
10.4873 -0.2948 -2.2177 0.9580
9.7417 1.4773 -2.0827 0.9605
8.6005 2.1029 -1.8715 0.9644
7.6618 2.6168 -1.7114 0.9674
6.8588 3.0499 -1.5867 0.9698
6.1635 3.4292 -1.4909 0.9716
5.5128 3.7474 -1.4090 0.9731
4.5248 4.4373 -1.3396 0.9744
2.0071 5.5217 -1.2419 0.9763
0.8132 3.0652 -0.6703 0.9871
0.5181 6.4031 -1.3579 0.9741
-0.0580 6.7622 -1.4294 0.9727
-0.5978 6.0880 -1.2931 0.9753
-2.1176 11.1810 -2.4054 0.9545
-3.0514 10.7538 -2.3629 0.9553
-3.9225 10.2410 -2.3181 0.9562
-4.7239 9.6536 -2.2718 0.9570
-5.4504 9.0028 -2.2246 0.9579
-7.1832 8.1407 -2.2949 0.9566
-8.9624 3.8027 -2.0579 0.9610
-9.0089 0.3972 -1.9062 0.9638
-8.8595 -0.4011 -1.8746 0.9644
-8.6533 -1.1713 -1.8458 0.9649
-7.7288 -3.2901 -1.7756 0.9662
-7.3295 -3.9260 -1.7576 0.9666
-6.4119 -5.0837 -1.7297 0.9671
-5.8988 -5.6029 -1.7197 0.9673
-5.3529 -6.0807 -1.7124 0.9674
-2.8842 -7.5569 -1.7098 0.9675
-2.2064 -7.8111 -1.7157 0.9674
-0.7927 -8.1724 -1.7356 0.9670
0.6837 -8.3275 -1.7662 0.9664
2.9710 -8.1434 -1.8323 0.9652
3.7407 -7.9636 -1.8598 0.9647
4.5079 -7.7215 -1.8900 0.9641
6.7506 -6.6044 -1.9963 0.9621
8.1555 -4.5249 -1.9715 0.9626
8.7145 -3.8628 -2.0149 0.9618
10.0730 -1.5154 -2.1532 0.9592
10.3923 -0.6245 -2.2007 0.9583
10.6309 0.3114 -2.2481 0.9574
8.9810 1.8944 -1.9402 0.9632
7.9784 2.4435 -1.7638 0.9665
6.4023 3.2990 -1.5224 0.9710
5.7442 3.6423 -1.4377 0.9726
4.5661 4.2005 -1.3115 0.9750
3.0865 4.9321 -1.2299 0.9765
2.1719 5.4289 -1.2360 0.9764
1.7068 5.6934 -1.2564 0.9760
0.7110 6.2848 -1.3370 0.9745
0.1548 6.6285 -1.4015 0.9733
-1.1514 7.3562 -1.5739 0.9700
-5.1996 9.2419 -2.2415 0.9576
-5.8760 8.5562 -2.1940 0.9585
-6.9746 8.4320 -2.3131 0.9562
-7.9993 6.7528 -2.2128 0.9581
-8.3828 5.8814 -2.1646 0.9590
-8.6829 5.0004 -2.1180 0.9599
-8.9027 4.1174 -2.0734 0.9607
-9.0454 3.2393 -2.0309 0.9615
-9.1146 2.3719 -1.9908 0.9622
-9.1141 1.5203 -1.9532 0.9629
-9.0478 0.6888 -1.9181 0.9636
-8.9196 -0.1189 -1.8856 0.9642
-8.7333 -0.8995 -1.8558 0.9647
-6.0861 -5.4220 -1.7230 0.9672
-5.5516 -5.9148 -1.7147 0.9674
-4.9857 -6.3655 -1.7091 0.9675
-3.1212 -7.4545 -1.7083 0.9675
-2.4511 -7.7257 -1.7133 0.9674
-1.0504 -8.1226 -1.7313 0.9671
0.4161 -8.3155 -1.7599 0.9665
1.9291 -8.2911 -1.7994 0.9658
3.4657 -8.0349 -1.8497 0.9649
5.7517 -7.1840 -1.9453 0.9631
7.9025 -5.7348 -2.0639 0.9609
8.5198 -4.1066 -1.9992 0.9621
9.0490 -3.4045 -2.0437 0.9612
9.5254 -2.6418 -2.0895 0.9604
9.9409 -1.8217 -2.1363 0.9595
10.5554 -0.0278 -2.2312 0.9578
10.7340 0.9327 -2.2775 0.9569
9.3907 1.6698 -2.0161 0.9618
7.4158 2.7456 -1.6715 0.9682
6.6515 3.1630 -1.5569 0.9703
5.3350 3.8289 -1.3881 0.9735
4.7533 4.1005 -1.3270 0.9747
3.2519 4.8455 -1.2335 0.9764
2.3357 5.3377 -1.2316 0.9765
1.8746 5.5971 -1.2477 0.9762
0.7123 2.9902 -0.6497 0.9875
-0.2340 6.8700 -1.4530 0.9723
-2.3898 11.0685 -2.3936 0.9548
-4.9390 9.4739 -2.2584 0.9573
-6.2686 8.0909 -2.1635 0.9590
-8.2554 6.1943 -2.1816 0.9587
-8.8332 4.4328 -2.0891 0.9604
-9.0030 3.5522 -2.0458 0.9612
-8.8063 -0.6238 -1.8661 0.9645
-7.9877 -2.8132 -1.7901 0.9660
-6.7571 -4.6879 -1.7384 0.9669
-5.7463 -5.7434 -1.7174 0.9673
-5.1914 -6.2093 -1.7108 0.9675
-2.0093 -7.8747 -1.7179 0.9673
-1.3061 -8.0663 -1.7273 0.9671
0.1500 -8.2965 -1.7540 0.9666
0.8982 -8.3320 -1.7714 0.9663
1.6563 -8.3120 -1.7915 0.9659
3.1905 -8.0984 -1.8399 0.9650
4.7258 -7.6408 -1.8991 0.9639
5.4837 -7.3160 -1.9327 0.9633
6.2288 -6.9251 -1.9688 0.9626
7.6585 -5.9398 -2.0487 0.9612
8.3301 -5.3437 -2.0920 0.9603
2.3008 -0.9505 -0.5262 0.9899
10.4689 -0.3618 -2.2142 0.9581
10.6830 0.5856 -2.2616 0.9572
9.8342 1.4266 -2.1005 0.9602
8.6751 2.0621 -1.8848 0.9642
6.9125 3.0206 -1.5946 0.9696
6.2109 3.4033 -1.4970 0.9715
5.5586 3.7265 -1.4146 0.9730
2.0405 5.5029 -1.2406 0.9763
0.5575 6.3788 -1.3535 0.9742
-2.0480 11.2082 -2.4084 0.9545
-3.8619 10.2806 -2.3214 0.9561
-5.4006 9.0516 -2.2280 0.9578
-6.0544 8.3518 -2.1805 0.9587
-7.1420 8.1999 -2.2986 0.9565
-8.4768 5.6307 -2.1511 0.9592
-8.7537 4.7484 -2.1051 0.9601
-9.1214 2.1272 -1.9798 0.9624
-9.0174 0.4558 -1.9085 0.9638
-8.6700 -1.1168 -1.8478 0.9649
-8.4142 -1.8587 -1.8215 0.9654
-7.7559 -3.2428 -1.7770 0.9662
-6.4476 -5.0447 -1.7305 0.9671
-4.8188 -6.4863 -1.7080 0.9675
-3.5862 -7.2319 -1.7063 0.9675
-1.5595 -8.0035 -1.7236 0.9672
-0.8449 -8.1629 -1.7347 0.9670
0.6296 -8.3256 -1.7649 0.9664
1.3844 -8.3256 -1.7840 0.9661
2.9155 -8.1540 -1.8305 0.9652
5.9643 -7.0725 -1.9556 0.9629
-6.9421 -3.2206 -1.7986 0.9690
-5.7117 -4.8332 -1.7585 0.9697
-4.1857 -6.1104 -1.7407 0.9700
-3.6221 -6.4557 -1.7397 0.9700
-2.4251 -7.0185 -1.7452 0.9699
-1.7961 -7.2335 -1.7517 0.9698
0.1863 -7.5965 -1.7859 0.9693
0.8710 -7.6188 -1.8023 0.9690
1.5632 -7.5894 -1.8211 0.9687
2.2600 -7.5066 -1.8425 0.9683
3.6543 -7.1754 -1.8925 0.9675
4.3444 -6.9240 -1.9211 0.9670
7.5107 -3.8590 -1.9846 0.9659
2.3075 -0.9359 -0.5852 0.9898
8.7692 -1.8390 -2.1058 0.9639
9.0747 -1.0704 -2.1475 0.9631
9.4735 0.5805 -2.2307 0.9618
9.5541 1.4489 -2.2711 0.9611
7.6494 2.6125 -1.8997 0.9673
6.8485 3.0453 -1.7615 0.9697
6.1548 3.4243 -1.6553 0.9715
4.9687 4.0703 -1.5096 0.9740
4.5192 4.4318 -1.4876 0.9743
4.0116 4.7065 -1.4534 0.9749
2.9706 5.1022 -1.3876 0.9760
1.8253 3.8978 -1.0115 0.9825
2.0407 5.6143 -1.4039 0.9758
0.8092 3.0500 -0.7416 0.9871
0.5453 3.1762 -0.7574 0.9868
0.5226 6.4593 -1.5230 0.9737
-2.6896 9.4787 -2.3157 0.9603
-3.4652 9.0471 -2.2769 0.9610
-4.8377 7.9908 -2.1954 0.9623
-5.4260 7.3844 -2.1536 0.9630
-5.9453 6.7378 -2.1119 0.9638
-2.3812 2.2563 -0.7710 0.9866
-7.2994 5.7734 -2.1873 0.9625
-7.8940 4.2165 -2.1033 0.9639
-8.0835 3.4298 -2.0637 0.9646
-8.1847 0.3609 -1.9255 0.9669
-8.0611 -0.3649 -1.8965 0.9674
-7.8844 -1.0673 -1.8699 0.9678
-7.3838 -2.3909 -1.8241 0.9686
-7.0659 -3.0079 -1.8049 0.9689
-6.3089 -4.1430 -1.7739 0.9695
-5.8750 -4.6580 -1.7621 0.9697
-5.4075 -5.1362 -1.7528 0.9698
-4.3810 -5.9770 -1.7417 0.9700
-3.2471 -6.6554 -1.7404 0.9700
-0.7261 -7.4860 -1.7676 0.9696
-0.0560 -7.5762 -1.7806 0.9693
0.6253 -7.6167 -1.7961 0.9691
1.3151 -7.6060 -1.8141 0.9688
2.7087 -7.4247 -1.8575 0.9680
4.0987 -7.0205 -1.9106 0.9671
4.7827 -6.7315 -1.9407 0.9666
6.1065 -5.9743 -2.0078 0.9655
6.7360 -5.5048 -2.0445 0.9649
7.3325 -4.0682 -1.9708 0.9661
7.8177 -3.4653 -2.0098 0.9655
8.2574 -2.8093 -2.0499 0.9648
8.6448 -2.1030 -2.0910 0.9641
9.2352 -0.5550 -2.1744 0.9627
9.4247 0.2761 -2.2160 0.9620
9.5350 1.1361 -2.2568 0.9613
6.3930 3.2943 -1.6903 0.9709
5.7492 3.6455 -1.6000 0.9724
4.6266 4.2561 -1.4775 0.9745
2.6723 5.2626 -1.3872 0.9760
2.2081 5.5195 -1.3972 0.9759
0.6100 2.9792 -0.7147 0.9876
0.7189 6.3550 -1.5031 0.9741
-1.1497 7.3452 -1.7473 0.9699
-2.3995 9.6150 -2.3290 0.9601
-3.9334 8.7335 -2.2512 0.9614
-5.2236 7.6062 -2.1686 0.9628
-5.7677 6.9729 -2.1268 0.9635
-2.2609 2.2837 -0.7553 0.9869
-7.5225 5.2778 -2.1597 0.9629
-7.8091 4.4971 -2.1179 0.9636
-8.0238 3.7109 -2.0777 0.9643
-8.1689 2.9254 -2.0393 0.9650
-8.2616 1.3781 -1.9685 0.9662
-8.2153 0.6254 -1.9364 0.9667
-8.1116 -0.1081 -1.9066 0.9672
-7.4869 -2.1629 -1.8315 0.9685
-7.1844 -2.7910 -1.8114 0.9688
-6.8397 -3.3874 -1.7938 0.9691
-6.4553 -3.9502 -1.7787 0.9694
-6.0341 -4.4781 -1.7660 0.9696
-5.0905 -5.4234 -1.7481 0.9699
-4.5728 -5.8384 -1.7429 0.9700
-4.0275 -6.2131 -1.7402 0.9700
-2.8628 -6.8374 -1.7421 0.9700
-2.2476 -7.0844 -1.7468 0.9699
-0.9624 -7.4419 -1.7636 0.9696
0.3807 -7.6081 -1.7903 0.9692
1.7616 -7.5713 -1.8270 0.9686
2.4592 -7.4731 -1.8490 0.9682
3.1571 -7.3196 -1.8735 0.9678
3.8519 -7.1096 -1.9004 0.9673
4.5395 -6.8416 -1.9297 0.9668
5.8756 -6.1273 -1.9952 0.9657
7.6812 -4.5882 -2.1028 0.9639
7.6492 -3.6870 -1.9957 0.9657
8.5128 -2.3609 -2.0762 0.9644
9.3657 -0.0246 -2.2012 0.9622
9.5050 0.8259 -2.2423 0.9616
9.3728 1.6666 -2.2374 0.9616
8.3010 2.2552 -2.0216 0.9653
7.4041 2.7412 -1.8556 0.9681
5.3685 3.8529 -1.5530 0.9732
3.3060 4.9261 -1.3943 0.9759
1.9061 5.6913 -1.4106 0.9756
0.3620 6.5446 -1.5405 0.9734
-0.2336 6.8606 -1.6133 0.9722
-2.1032 9.7411 -2.3421 0.9599
-5.0124 7.8224 -2.1835 0.9625
-7.0150 6.3161 -2.2185 0.9620
-7.9552 3.9921 -2.0919 0.9641
-8.2636 1.6510 -1.9805 0.9660
-8.1551 0.1516 -1.9170 0.9670
-8.0160 -0.5678 -1.8887 0.9675
-7.8247 -1.2629 -1.8628 0.9680
-7.2975 -2.5701 -1.8183 0.9687
-6.9676 -3.1780 -1.7998 0.9690
-5.2683 -5.2657 -1.7506 0.9699
-4.7611 -5.6946 -1.7445 0.9700
-3.0776 -6.7384 -1.7410 0.9700
-1.8421 -7.2195 -1.7511 0.9698
0.8213 -7.6189 -1.8010 0.9690
2.2097 -7.5144 -1.8408 0.9683
2.9079 -7.3809 -1.8645 0.9679
3.6042 -7.1913 -1.8905 0.9675
4.2949 -6.9441 -1.9190 0.9670
4.9757 -6.6382 -1.9497 0.9665
6.2887 -5.8466 -2.0181 0.9653
6.9105 -5.3597 -2.0554 0.9647
7.4963 -4.8088 -2.0931 0.9641
2.3000 -0.9501 -0.5849 0.9898
8.3735 -2.6128 -2.0616 0.9646
8.7448 -1.8927 -2.1028 0.9639
9.2970 -0.3213 -2.1863 0.9625
9.4645 0.5188 -2.2277 0.9618
6.2021 3.3985 -1.6621 0.9714
5.0081 4.0489 -1.5136 0.9739
3.4762 4.8385 -1.4002 0.9758
1.8545 3.8946 -1.0138 0.9824
2.0746 5.5950 -1.4024 0.9758
0.5600 3.1401 -0.7496 0.9870
0.5627 6.4380 -1.5189 0.9738
-0.0143 6.7443 -1.5851 0.9727
-0.5572 6.0767 -1.4341 0.9752
-3.4111 9.0806 -2.2797 0.9609
-4.1332 8.5861 -2.2396 0.9616
-4.7927 8.0327 -2.1984 0.9623
-5.3858 7.4296 -2.1567 0.9630
-5.9102 6.7856 -2.1149 0.9637
-2.3402 2.2463 -0.7624 0.9868
-7.2725 5.8286 -2.1904 0.9624
-8.0721 3.4865 -2.0665 0.9645
-8.2544 1.1616 -1.9591 0.9663
-8.1915 0.4141 -1.9276 0.9669
-8.0719 -0.3133 -1.8985 0.9674
-7.6756 -1.6955 -1.8474 0.9682
-7.0903 -2.9645 -1.8062 0.9689
-5.9075 -4.6221 -1.7629 0.9696
-5.4423 -5.1030 -1.7534 0.9698
-4.9457 -5.5458 -1.7464 0.9699
-4.4200 -5.9494 -1.7419 0.9700
-1.4293 -7.3356 -1.7564 0.9698
-0.1047 -7.5714 -1.7796 0.9694
0.5758 -7.6155 -1.7949 0.9691
1.2651 -7.6085 -1.8127 0.9688
1.9604 -7.5488 -1.8330 0.9685
4.0490 -7.0391 -1.9085 0.9672
4.7338 -6.7544 -1.9385 0.9667
-6.3902 -2.9646 -1.8239 0.9713
-5.6756 -3.9920 -1.7966 0.9717
-5.2669 -4.4568 -1.7864 0.9719
-4.3583 -5.2816 -1.7730 0.9721
-2.8003 -6.2373 -1.7702 0.9721
-2.2376 -6.4758 -1.7740 0.9721
-1.6568 -6.6722 -1.7800 0.9720
-0.4498 -6.9338 -1.7991 0.9717
1.4375 -6.9790 -1.8449 0.9710
2.7149 -6.7630 -1.8869 0.9703
4.5936 -6.0470 -1.9662 0.9691
5.7741 -5.2992 -2.0292 0.9681
6.3287 -4.8435 -2.0634 0.9676
6.8414 -4.3267 -2.0959 0.9671
6.8112 -3.4996 -1.9827 0.9689
2.3077 -0.9360 -0.6448 0.9898
7.5912 -2.3151 -2.0549 0.9677
8.1671 -0.9633 -2.1293 0.9666
8.3640 -0.2351 -2.1665 0.9660
8.5494 1.2965 -2.2389 0.9649
8.5282 2.0855 -2.2732 0.9644
7.6369 2.6082 -2.0895 0.9672
5.5273 3.7573 -1.7305 0.9728
4.5135 4.4262 -1.6368 0.9742
2.9886 5.1330 -1.5379 0.9758
-0.0579 6.7582 -1.7499 0.9725
-0.5965 6.0749 -1.5805 0.9751
-1.6604 8.7670 -2.3103 0.9638
-3.1000 8.0934 -2.2440 0.9648
-3.7490 7.6613 -2.2084 0.9654
-5.3596 6.0740 -2.0974 0.9671
-6.6056 5.2246 -2.1806 0.9658
-6.9206 4.5330 -2.1420 0.9664
-7.1698 3.8296 -2.1046 0.9670
-7.4769 2.4113 -2.0341 0.9681
-7.4919 0.3303 -1.9417 0.9695
-7.3883 -0.3345 -1.9149 0.9699
-7.2348 -0.9793 -1.8903 0.9703
-7.0341 -1.6014 -1.8679 0.9706
-6.5023 -2.7680 -1.8298 0.9712
-5.8137 -3.8178 -1.8008 0.9717
-3.5313 -5.8484 -1.7689 0.9722
-2.9966 -6.1421 -1.7695 0.9722
-1.8663 -6.6069 -1.7776 0.9720
-1.2750 -6.7756 -1.7851 0.9719
-0.6693 -6.9002 -1.7950 0.9718
0.5757 -7.0119 -1.8216 0.9713
1.2097 -6.9964 -1.8384 0.9711
1.8479 -6.9317 -1.8574 0.9708
2.4869 -6.8166 -1.8787 0.9705
3.7542 -6.4305 -1.9280 0.9697
4.3750 -6.1576 -1.9558 0.9693
5.5695 -5.4489 -2.0174 0.9683
7.4654 -2.5399 -2.0417 0.9679
8.0812 -1.2158 -2.1159 0.9668
8.5379 1.0173 -2.2263 0.9651
8.5451 1.8025 -2.2612 0.9646
7.9517 2.4354 -2.1532 0.9662
6.3837 3.2895 -1.8594 0.9708
5.1590 3.9579 -1.6836 0.9735
4.6207 4.2507 -1.6256 0.9744
3.6284 4.7881 -1.5555 0.9755
3.1558 5.0430 -1.5403 0.9757
2.6884 5.2943 -1.5374 0.9758
1.7395 5.8026 -1.5685 0.9753
-2.1414 8.5808 -2.2899 0.9641
-2.8558 8.2334 -2.2564 0.9646
-3.5230 7.8223 -2.2213 0.9652
-4.6965 6.8387 -2.1480 0.9663
-5.1959 6.2816 -2.1107 0.9669
-6.4768 5.4676 -2.1946 0.9656
-7.0882 4.0820 -2.1178 0.9668
-7.2958 3.3743 -2.0813 0.9673
-7.5235 1.9579 -2.0129 0.9684
-7.5481 1.2590 -1.9813 0.9689
-7.4312 -0.0990 -1.9242 0.9698
-7.2952 -0.7513 -1.8988 0.9702
-6.6094 -2.5677 -1.8359 0.9711
-5.5623 -4.1280 -1.7935 0.9718
-3.7169 -5.7339 -1.7693 0.9722
-1.4881 -6.7203 -1.7822 0.9720
-0.8873 -6.8608 -1.7912 0.9718
0.3506 -7.0057 -1.8162 0.9714
2.2586 -6.8636 -1.8709 0.9706
2.8965 -6.7155 -1.8936 0.9702
4.1545 -6.2614 -1.9456 0.9694
4.7667 -5.9537 -1.9747 0.9690
5.3619 -5.5916 -2.0058 0.9685
5.9352 -5.1748 -2.0388 0.9680
6.9726 -4.1650 -2.1029 0.9670
6.9332 -3.3418 -1.9928 0.9687
7.3335 -2.7591 -2.0287 0.9681
7.6869 -2.1319 -2.0654 0.9676
8.2299 -0.7588 -2.1399 0.9664
8.5514 1.5206 -2.2489 0.9647
7.3923 2.7369 -2.0410 0.9680
3.8659 4.7769 -1.5911 0.9749
3.3237 4.9525 -1.5443 0.9757
2.8554 5.2046 -1.5371 0.9758
0.7061 2.9639 -0.7889 0.9875
0.9092 6.2451 -1.6340 0.9743
-0.2333 6.8511 -1.7749 0.9721
-0.7607 6.1363 -1.6010 0.9748
-3.9245 7.5279 -2.1981 0.9655
-5.4846 5.9054 -2.0867 0.9672
-7.3958 2.9180 -2.0586 0.9677
-7.5006 2.2097 -2.0246 0.9682
-7.5459 1.5076 -1.9924 0.9687
-7.5340 0.8160 -1.9621 0.9692
-6.7115 -2.3637 -1.8423 0.9710
-5.7038 -3.9572 -1.7974 0.9717
-5.2975 -4.4244 -1.7871 0.9719
-4.8598 -4.8573 -1.7790 0.9720
-4.3930 -5.2544 -1.7733 0.9721
-3.3810 -5.9363 -1.7688 0.9722
-2.8401 -6.2185 -1.7701 0.9721
-2.2788 -6.4600 -1.7736 0.9721
-0.4942 -6.9275 -1.7982 0.9717
0.7559 -7.0124 -1.8262 0.9713
1.3915 -6.9831 -1.8436 0.9710
2.0302 -6.9041 -1.8633 0.9707
2.6689 -6.7744 -1.8852 0.9704
6.2897 -4.8782 -2.0609 0.9676
2.2991 -0.9498 -0.6441 0.9898
7.5663 -2.3609 -2.0522 0.9678
7.8866 -1.7070 -2.0893 0.9672
8.4862 0.4651 -2.2005 0.9655
8.5478 1.2400 -2.2364 0.9649
8.5327 2.0282 -2.2708 0.9644
7.6990 2.5742 -2.1019 0.9670
6.1933 3.3937 -1.8285 0.9712
5.0016 4.0436 -1.6653 0.9738
3.0223 5.1148 -1.5382 0.9758
0.8376 3.0769 -0.8257 0.9869
0.5619 6.4296 -1.6711 0.9737
-0.0143 6.7351 -1.7439 0.9726
-0.5566 6.0706 -1.5784 0.9751
-4.3032 7.2122 -2.1745 0.9659
-4.8451 6.6836 -2.1374 0.9665
-7.3434 3.1718 -2.0711 0.9675
-7.5364 1.7575 -2.0037 0.9685
-7.4974 0.3790 -1.9437 0.9695
-7.2474 -0.9335 -1.8920 0.9703
-6.8082 -2.1562 -1.8491 0.9709
-6.2011 -3.2704 -1.8152 0.9714
-5.8410 -3.7821 -1.8017 0.9717
-5.0197 -4.7066 -1.7816 0.9720
-4.0788 -5.4901 -1.7709 0.9721
-3.5690 -5.8257 -1.7689 0.9722
-2.4816 -6.3784 -1.7721 0.9721
0.5301 -7.0112 -1.8205 0.9714
1.1638 -6.9992 -1.8371 0.9711
1.8018 -6.9381 -1.8560 0.9708
2.4408 -6.8266 -1.8771 0.9705
4.9384 -5.8560 -1.9834 0.9688
-5.6037 -3.2359 -1.8319 0.9735
-2.5975 -5.7856 -1.7954 0.9740
-2.0752 -6.0059 -1.7989 0.9739
-1.5362 -6.1865 -1.8046 0.9738
-0.9826 -6.3263 -1.8124 0.9737
-0.4167 -6.4241 -1.8224 0.9736
0.1589 -6.4787 -1.8346 0.9734
1.9185 -6.3724 -1.8840 0.9727
2.5063 -6.2434 -1.9046 0.9724
3.0894 -6.0663 -1.9272 0.9721
3.6643 -5.8401 -1.9518 0.9717
5.8008 -4.4395 -2.0679 0.9701
6.2591 -3.9585 -2.0965 0.9697
6.2247 -3.1982 -1.9812 0.9713
7.4166 -0.8748 -2.1141 0.9694
7.7272 1.1718 -2.2125 0.9680
7.6970 1.8820 -2.2432 0.9676
7.5951 2.5940 -2.2721 0.9672
6.8276 3.0361 -2.1153 0.9694
5.5197 3.7522 -1.8894 0.9726
4.9558 4.0597 -1.8136 0.9737
4.5078 4.4206 -1.7873 0.9741
2.9850 5.1267 -1.6794 0.9756
2.0465 5.6302 -1.6959 0.9754
0.5213 6.4423 -1.8297 0.9735
-2.1671 7.6375 -2.2475 0.9675
-3.3929 6.9336 -2.1853 0.9684
-3.9378 6.5042 -2.1525 0.9689
-4.4323 6.0320 -2.1190 0.9694
-4.8738 5.5234 -2.0853 0.9698
-2.3687 2.2446 -0.9238 0.9865
-6.0260 4.7662 -2.1750 0.9686
-6.3232 4.1417 -2.1399 0.9691
-6.7397 2.8597 -2.0726 0.9700
-6.8614 2.2128 -2.0409 0.9705
-6.9275 1.5685 -2.0108 0.9709
-6.8129 -0.3084 -1.9307 0.9720
-6.4988 -1.4795 -1.8868 0.9727
-6.2776 -2.0327 -1.8680 0.9729
-6.0168 -2.5613 -1.8512 0.9732
-5.7188 -3.0633 -1.8366 0.9734
-5.3859 -3.5369 -1.8241 0.9736
-3.7500 -5.1161 -1.7957 0.9740
-2.2639 -5.9317 -1.7974 0.9740
-1.1819 -6.2811 -1.8094 0.9738
1.1190 -6.4717 -1.8593 0.9731
1.7080 -6.4069 -1.8771 0.9728
3.4600 -5.9266 -1.9428 0.9719
4.5805 -5.3611 -1.9962 0.9711
5.1145 -5.0037 -2.0256 0.9707
5.6250 -4.5968 -2.0565 0.9703
2.3174 -1.0272 -0.7176 0.9895
7.3428 -1.1047 -2.1021 0.9696
7.6580 0.2243 -2.1689 0.9687
7.7159 1.6276 -2.2324 0.9677
7.6399 2.3398 -2.2620 0.9673
7.0969 2.8882 -2.1691 0.9686
6.3744 3.2846 -2.0300 0.9706
5.7334 3.6355 -1.9219 0.9722
3.6239 4.7822 -1.6986 0.9754
3.1520 5.0368 -1.6821 0.9756
2.6852 5.2879 -1.6789 0.9756
2.2161 5.5394 -1.6890 0.9755
0.7171 6.3384 -1.8058 0.9738
0.1550 6.6363 -1.8792 0.9728
-3.1867 7.0754 -2.1968 0.9683
-4.2615 6.2053 -2.1310 0.9692
-5.8964 4.9776 -2.1845 0.9684
-6.4827 3.7333 -2.1178 0.9694
-6.9101 1.7982 -2.0214 0.9708
-6.9415 1.1579 -1.9922 0.9712
-6.9207 0.5268 -1.9649 0.9716
-6.5678 -1.2763 -1.8941 0.9726
-6.3613 -1.8377 -1.8745 0.9728
-6.1144 -2.3753 -1.8570 0.9731
-5.8294 -2.8871 -1.8416 0.9733
-5.1546 -3.8255 -1.8172 0.9737
-4.7693 -4.2489 -1.8082 0.9738
-4.3550 -4.6398 -1.8015 0.9739
-3.4479 -5.3189 -1.7944 0.9740
-2.9594 -5.6045 -1.7942 0.9740
-2.4504 -5.8524 -1.7961 0.9740
-1.9231 -6.0615 -1.8003 0.9739
-0.2534 -6.4441 -1.8257 0.9735
0.9091 -6.4837 -1.8534 0.9731
2.0865 -6.3405 -1.8896 0.9726
2.6733 -6.1979 -1.9108 0.9723
3.2544 -6.0068 -1.9340 0.9720
5.9384 -4.3095 -2.0772 0.9700
6.3773 -3.8094 -2.1029 0.9696
6.3334 -3.0527 -1.9903 0.9712
7.7062 0.6696 -2.1898 0.9684
7.7258 1.3738 -2.2214 0.9679
5.3541 3.8426 -1.8657 0.9730
4.8026 4.1430 -1.7956 0.9740
3.3197 4.9464 -1.6864 0.9755
1.7135 3.9160 -1.2101 0.9824
0.7245 3.0412 -0.8850 0.9871
-0.2330 6.8415 -1.9379 0.9719
-0.7596 6.1272 -1.7478 0.9747
-1.6909 7.8316 -2.2681 0.9672
-2.3520 7.5512 -2.2390 0.9677
-2.9746 7.2106 -2.2081 0.9681
-3.5533 6.8159 -2.1760 0.9686
-4.0841 6.3736 -2.1430 0.9690
-4.5637 5.8903 -2.1094 0.9695
-4.9898 5.3726 -2.0757 0.9700
-6.7802 2.6752 -2.0634 0.9702
-6.7791 -0.4802 -1.9239 0.9721
-6.6313 -1.0703 -1.9016 0.9725
-6.2071 -2.1861 -1.8630 0.9730
-5.9355 -2.7073 -1.8468 0.9732
-5.6273 -3.2013 -1.8328 0.9734
-4.9104 -4.1012 -1.8112 0.9738
-4.0744 -4.8733 -1.7982 0.9739
-3.6171 -5.2080 -1.7950 0.9740
-2.1135 -5.9913 -1.7985 0.9739
-1.5756 -6.1749 -1.8041 0.9739
0.1171 -6.4762 -1.8337 0.9734
1.8760 -6.3798 -1.8826 0.9727
2.4640 -6.2544 -1.9030 0.9724
3.0476 -6.0807 -1.9255 0.9721
3.6232 -5.8581 -1.9499 0.9718
4.1870 -5.5860 -1.9763 0.9714
4.7349 -5.2642 -2.0044 0.9710
6.1967 -3.2345 -1.9788 0.9714
2.2983 -0.9495 -0.7040 0.9897
6.8940 -2.1511 -2.0444 0.9704
7.4023 -0.9215 -2.1117 0.9695
7.5733 -0.2617 -2.1452 0.9690
7.7016 1.8306 -2.2410 0.9676
6.1843 3.3888 -1.9963 0.9711
5.5623 3.7289 -1.8957 0.9725
4.5452 4.4002 -1.7909 0.9740
3.4884 4.8554 -1.6925 0.9755
3.0186 5.1086 -1.6798 0.9756
0.5565 3.1206 -0.8974 0.9869
-0.0143 6.7259 -1.9040 0.9724
-0.5560 6.0645 -1.7240 0.9750
-1.4465 7.9161 -2.2781 0.9671
-2.7568 7.3388 -2.2193 0.9679
-3.3518 6.9628 -2.1876 0.9684
-3.9001 6.5367 -2.1549 0.9689
-4.3983 6.0673 -2.1215 0.9693
-4.8438 5.5612 -2.0878 0.9698
-2.3341 2.2405 -0.9159 0.9866
-6.0010 4.8096 -2.1771 0.9685
-6.3038 4.1873 -2.1424 0.9690
-6.5456 3.5507 -2.1081 0.9695
-6.8545 2.2595 -2.0432 0.9704
-6.9408 0.9768 -1.9842 0.9713
-6.9055 0.3491 -1.9574 0.9717
-6.8208 -0.2648 -1.9324 0.9720
-6.6893 -0.8616 -1.9093 0.9724
-6.5131 -1.4387 -1.8883 0.9727
-6.2949 -1.9936 -1.8693 0.9729
-5.7415 -3.0280 -1.8376 0.9734
-5.4110 -3.5037 -1.8249 0.9736
-5.0478 -3.9495 -1.8144 0.9737
-3.7833 -5.0924 -1.7959 0.9740
-3.3107 -5.4041 -1.7941 0.9740
-2.8162 -5.6791 -1.7945 0.9740
-2.3018 -5.9161 -1.7971 0.9740
-1.7696 -6.1139 -1.8018 0.9739
-1.2220 -6.2714 -1.8088 0.9738
-0.6611 -6.3873 -1.8179 0.9737
1.0766 -6.4746 -1.8581 0.9731
1.6654 -6.4131 -1.8757 0.9728
2.8398 -6.1483 -1.9172 0.9722
3.9871 -5.6889 -1.9667 0.9715
4.5412 -5.3849 -1.9941 0.9711
-5.2135 -3.0106 -1.8517 0.9751
-4.1689 -4.2208 -1.8247 0.9755
-3.7656 -4.5634 -1.8198 0.9755
-2.4200 -5.3902 -1.8173 0.9756
-1.9332 -5.5947 -1.8207 0.9755
-1.4307 -5.7618 -1.8260 0.9755
-0.9148 -5.8902 -1.8334 0.9754
0.1478 -6.0270 -1.8543 0.9751
1.2352 -5.9969 -1.8832 0.9747
1.7814 -5.9170 -1.9006 0.9745
3.3937 -5.4088 -1.9640 0.9736
4.8928 -4.4904 -2.0426 0.9726
5.7253 -2.9417 -1.9798 0.9734
2.3080 -0.9361 -0.7661 0.9896
6.5890 -1.3818 -2.0707 0.9722
6.7851 -0.8003 -2.1014 0.9718
6.9283 -0.1948 -2.1318 0.9714
7.0413 1.0678 -2.1905 0.9706
7.0052 1.7129 -2.2181 0.9703
6.1283 3.4096 -2.1570 0.9711
5.5121 3.7470 -2.0500 0.9725
4.4643 4.3779 -1.9232 0.9742
3.9967 4.6890 -1.8951 0.9745
3.4499 4.8678 -1.8351 0.9753
2.9813 5.1204 -1.8224 0.9755
1.7368 3.7088 -1.2596 0.9830
2.0440 5.6232 -1.8403 0.9753
0.8227 3.1007 -0.9867 0.9867
-0.0578 6.7394 -2.0730 0.9722
-2.5522 6.6632 -2.1946 0.9706
-3.0952 6.3251 -2.1659 0.9710
-3.5969 5.9413 -2.1362 0.9714
-4.4640 5.0590 -2.0752 0.9722
-2.3624 2.2386 -1.0010 0.9865
-6.0411 3.2268 -2.1066 0.9717
-6.2136 2.6364 -2.0761 0.9721
-6.3333 2.0425 -2.0468 0.9725
-6.4016 1.4495 -2.0188 0.9729
-6.3148 -0.2859 -1.9443 0.9739
-5.5938 -2.3812 -1.8699 0.9749
-5.0124 -3.2916 -1.8444 0.9752
-4.3067 -4.0907 -1.8270 0.9754
-3.9126 -4.4446 -1.8213 0.9755
-3.0521 -5.0547 -1.8162 0.9756
-2.5898 -5.3083 -1.8167 0.9756
-2.1091 -5.5259 -1.8192 0.9756
-1.6119 -5.7064 -1.8239 0.9755
0.4955 -6.0359 -1.8627 0.9750
1.5863 -5.9506 -1.8942 0.9746
2.1314 -5.8422 -1.9128 0.9743
2.6723 -5.6892 -1.9333 0.9740
3.2056 -5.4908 -1.9556 0.9737
5.1890 -4.2405 -2.0612 0.9723
5.5987 -3.1063 -1.9693 0.9736
2.3062 -1.0222 -0.7759 0.9895
6.7209 -1.0111 -2.0905 0.9720
6.9906 0.2048 -2.1511 0.9712
7.0389 0.8387 -2.1803 0.9708
7.0255 1.4820 -2.2084 0.9704
6.9480 2.1279 -2.2350 0.9700
6.8050 2.7695 -2.2598 0.9697
6.3649 3.2798 -2.2023 0.9705
5.7253 3.6303 -2.0852 0.9720
5.1452 3.9474 -1.9946 0.9732
3.6194 4.7762 -1.8432 0.9752
2.6819 5.2814 -1.8219 0.9755
2.2134 5.5326 -1.8328 0.9754
1.7352 5.7881 -1.8586 0.9750
0.6015 2.9379 -0.9224 0.9875
0.7161 6.3301 -1.9594 0.9737
0.1547 6.6272 -2.0389 0.9726
-0.4083 6.1813 -1.9054 0.9744
-1.1345 7.2479 -2.2565 0.9698
-2.3488 6.7718 -2.2046 0.9704
-2.9056 6.4515 -2.1763 0.9708
-3.4226 6.0833 -2.1469 0.9712
-5.0306 4.2467 -2.0249 0.9728
-5.7209 4.0138 -2.1495 0.9712
-6.1581 2.8481 -2.0869 0.9720
-6.3830 1.6611 -2.0287 0.9728
-5.6832 -2.2078 -1.8753 0.9748
-5.4215 -2.6850 -1.8608 0.9750
-4.4412 -3.9566 -1.8295 0.9754
-4.0564 -4.3218 -1.8231 0.9755
-3.6461 -4.6552 -1.8188 0.9756
-2.7573 -5.2217 -1.8162 0.9756
-2.2829 -5.4523 -1.8181 0.9756
-0.2358 -5.9968 -1.8459 0.9752
0.8451 -6.0273 -1.8720 0.9749
1.3910 -5.9786 -1.8880 0.9746
2.4797 -5.7491 -1.9258 0.9741
4.0558 -5.0657 -1.9960 0.9732
5.0256 -4.3818 -2.0508 0.9725
5.4739 -3.9724 -2.0803 0.9721
5.4678 -3.2661 -1.9590 0.9737
6.4187 -1.7802 -2.0488 0.9725
6.6501 -1.2186 -2.0795 0.9721
5.9461 3.5094 -2.1237 0.9715
4.7963 4.1376 -1.9483 0.9738
2.8484 5.1919 -1.8215 0.9755
1.7049 3.8963 -1.3081 0.9824
1.9077 5.6961 -1.8476 0.9752
0.7269 3.0512 -0.9648 0.9870
-0.2327 6.8317 -2.1025 0.9718
-0.7585 6.1182 -1.8962 0.9745
-1.5374 7.1206 -2.2406 0.9700
-2.1410 6.8737 -2.2144 0.9703
-2.7110 6.5717 -2.1866 0.9707
-3.7320 5.8242 -2.1276 0.9715
-4.9188 4.4287 -2.0358 0.9727
-5.6142 4.2125 -2.1588 0.9711
-5.8849 3.6439 -2.1290 0.9714
-6.0958 3.0590 -2.0978 0.9719
-6.2531 2.4672 -2.0676 0.9723
-6.1533 -0.9931 -1.9171 0.9743
-5.5191 -2.5173 -1.8658 0.9749
-4.9189 -3.4126 -1.8414 0.9753
-4.5721 -3.8187 -1.8323 0.9754
-4.1970 -4.1948 -1.8251 0.9755
-3.3699 -4.8521 -1.8170 0.9756
-2.9222 -5.1306 -1.8161 0.9756
-2.4545 -5.3741 -1.8172 0.9756
-1.4674 -5.7510 -1.8256 0.9755
0.1090 -6.0249 -1.8534 0.9751
2.8253 -5.6372 -1.9395 0.9740
3.3558 -5.4258 -1.9623 0.9737
4.8589 -4.5173 -2.0406 0.9726
5.3169 -4.1237 -2.0696 0.9722
5.7347 -3.6788 -2.0956 0.9719
5.7001 -2.9753 -1.9777 0.9735
6.5729 -1.4227 -2.0685 0.9722
6.7727 -0.8431 -2.0992 0.9718
6.9198 -0.2391 -2.1296 0.9714
6.9140 2.3117 -2.2423 0.9700
6.7522 2.9506 -2.2665 0.9696
6.1753 3.3838 -2.1658 0.9710
5.5545 3.7238 -2.0569 0.9724
4.9883 4.0329 -1.9730 0.9735
4.0324 4.6697 -1.8977 0.9745
3.4840 4.8494 -1.8366 0.9753
3.0149 5.1023 -1.8229 0.9755
0.9127 3.3526 -1.0687 0.9856
0.5598 3.1390 -0.9807 0.9867
0.5604 6.4125 -1.9799 0.9734
-0.0143 6.7165 -2.0659 0.9723
-1.3146 7.1945 -2.2495 0.9699
-4.0226 5.5491 -2.1081 0.9717
-4.4360 5.0931 -2.0774 0.9721
-5.7965 3.8503 -2.1403 0.9713
-6.0266 3.2691 -2.1088 0.9717
-6.2029 2.6792 -2.0782 0.9721
-6.3264 2.0854 -2.0489 0.9725
-6.3983 1.4921 -2.0208 0.9729
-6.3941 0.3232 -1.9692 0.9736
-6.3218 -0.2454 -1.9459 0.9739
-6.2052 -0.7993 -1.9244 0.9742
-6.0467 -1.3357 -1.9047 0.9744
-5.8483 -1.8522 -1.8869 0.9747
-5.6122 -2.3465 -1.8710 0.9749
-5.3406 -2.8165 -1.8571 0.9750
-4.3342 -4.0639 -1.8274 0.9754
-3.9419 -4.4202 -1.8216 0.9755
-3.5247 -4.7443 -1.8179 0.9756
-3.0846 -5.0351 -1.8162 0.9756
-2.1443 -5.5114 -1.8190 0.9756
-1.6483 -5.6947 -1.8235 0.9755
-0.6154 -5.9457 -1.8386 0.9753
-0.0832 -6.0114 -1.8492 0.9752
0.4564 -6.0357 -1.8618 0.9750
1.0006 -6.0178 -1.8764 0.9748
1.5469 -5.9567 -1.8929 0.9746
2.0922 -5.8516 -1.9114 0.9743
3.6906 -5.2659 -1.9778 0.9734
-5.1347 -2.3821 -1.8815 0.9764
-4.2492 -3.5957 -1.8503 0.9768
-3.8977 -3.9462 -1.8437 0.9769
-3.5213 -4.2673 -1.8391 0.9769
-3.1221 -4.5577 -1.8364 0.9770
-2.7020 -4.8159 -1.8356 0.9770
-2.2632 -5.0409 -1.8368 0.9770
-1.8077 -5.2316 -1.8399 0.9769
-1.3376 -5.3867 -1.8450 0.9769
0.1381 -5.6290 -1.8717 0.9765
0.6439 -5.6322 -1.8844 0.9764
1.6610 -5.5172 -1.9152 0.9760
2.1668 -5.3976 -1.9334 0.9758
2.6666 -5.2360 -1.9532 0.9755
3.1573 -5.0320 -1.9747 0.9753
3.6354 -4.7855 -1.9977 0.9750
4.0973 -4.4967 -2.0222 0.9747
6.0724 -1.2734 -2.0624 0.9742
6.2459 -0.7367 -2.0905 0.9738
6.3703 -0.1791 -2.1184 0.9735
6.4426 0.3948 -2.1456 0.9732
6.4202 1.5698 -2.1970 0.9725
6.1636 2.7408 -2.2422 0.9720
5.9461 3.3082 -2.2618 0.9717
4.9425 4.0488 -2.1238 0.9734
4.3127 4.2293 -2.0079 0.9749
3.4456 4.8617 -1.9808 0.9752
1.7906 3.8238 -1.4035 0.9824
0.8192 3.0878 -1.0619 0.9866
0.5198 6.4250 -2.1427 0.9732
-0.0577 6.7299 -2.2371 0.9720
-0.5945 6.0546 -2.0223 0.9747
-1.8070 6.3685 -2.2005 0.9725
-2.8423 5.8083 -2.1495 0.9731
-3.3067 5.4619 -2.1224 0.9734
-4.1133 4.6616 -2.0665 0.9741
-2.3561 2.2326 -1.0789 0.9864
-5.3766 3.5217 -2.1365 0.9733
-5.7578 2.4431 -2.0791 0.9740
-5.8749 1.8947 -2.0519 0.9743
-5.9668 0.8005 -2.0012 0.9749
-5.8790 -0.2662 -1.9562 0.9755
-5.7720 -0.7813 -1.9361 0.9757
-5.6255 -1.2807 -1.9178 0.9760
-5.4413 -1.7619 -1.9012 0.9762
-5.2215 -2.2227 -1.8864 0.9764
-4.9681 -2.6611 -1.8734 0.9765
-4.6831 -3.0753 -1.8623 0.9767
-4.3685 -3.4635 -1.8531 0.9768
-4.0263 -3.8243 -1.8459 0.9769
-3.6585 -4.1561 -1.8405 0.9769
-2.4221 -4.9644 -1.8361 0.9770
-1.0288 -5.4672 -1.8492 0.9768
0.4627 -5.6356 -1.8796 0.9764
2.4888 -5.2986 -1.9459 0.9756
3.4662 -4.8785 -1.9893 0.9751
3.9343 -4.6048 -2.0133 0.9748
4.8109 -3.9316 -2.0653 0.9742
5.9992 -1.4594 -2.0523 0.9743
6.3637 1.9490 -2.2123 0.9723
5.7171 3.6252 -2.2503 0.9719
5.1382 3.9420 -2.1527 0.9731
0.6020 2.9402 -0.9976 0.9874
0.7152 6.3216 -2.1147 0.9735
0.1545 6.6180 -2.2004 0.9725
-1.6091 6.4478 -2.2090 0.9724
-2.1538 6.2094 -2.1847 0.9727
-3.1452 5.5903 -2.1321 0.9733
-5.9247 1.5418 -2.0350 0.9745
-5.8149 -0.5989 -1.9431 0.9757
-5.6822 -1.1042 -1.9241 0.9759
-5.3040 -2.0605 -1.8914 0.9763
-4.7884 -2.9302 -1.8661 0.9766
-3.7928 -4.0409 -1.8422 0.9769
-2.5787 -4.8835 -1.8357 0.9770
0.7888 -5.6257 -1.8883 0.9763
1.2976 -5.5771 -1.9034 0.9762
1.8057 -5.4873 -1.9202 0.9759
2.3101 -5.3558 -1.9388 0.9757
2.8076 -5.1821 -1.9591 0.9755
3.2951 -4.9660 -1.9811 0.9752
3.7689 -4.7075 -2.0045 0.9749
4.2256 -4.4066 -2.0294 0.9746
4.6611 -4.0640 -2.0556 0.9743
5.0717 -3.6805 -2.0830 0.9739
5.3834 -2.5948 -1.9865 0.9751
5.6713 -2.1337 -2.0142 0.9748
5.9204 -1.6420 -2.0423 0.9744
6.1267 -1.1227 -2.0705 0.9741
6.3964 -0.0168 -2.1262 0.9734
6.4533 0.5607 -2.1532 0.9731
6.2827 2.3260 -2.2269 0.9722
4.7899 4.1321 -2.1028 0.9737
4.2086 4.3429 -2.0103 0.9748
1.6940 3.8714 -1.4047 0.9823
1.9053 5.6889 -1.9942 0.9750
0.7256 3.0459 -1.0408 0.9869
0.9056 6.2207 -2.0896 0.9739
-0.2313 6.7927 -2.2592 0.9718
-0.7574 6.1093 -2.0463 0.9744
-2.4875 6.0300 -2.1683 0.9729
-3.4320 5.3560 -2.1145 0.9735
-4.5391 4.0869 -2.0303 0.9746
-5.6443 2.8325 -2.0992 0.9737
-5.7962 2.2869 -2.0712 0.9741
-5.8994 1.7380 -2.0443 0.9744
-5.9552 1.1898 -2.0187 0.9747
-5.9302 0.1103 -1.9716 0.9753
-5.8526 -0.4146 -1.9503 0.9756
-5.5767 -1.4199 -1.9129 0.9760
-5.3821 -1.8955 -1.8968 0.9762
-5.1525 -2.3502 -1.8825 0.9764
-3.9239 -3.9219 -1.8441 0.9769
-3.1516 -4.5378 -1.8365 0.9770
-2.7330 -4.7984 -1.8356 0.9770
-2.2955 -5.0258 -1.8366 0.9770
-1.8411 -5.2190 -1.8396 0.9769
-0.8902 -5.4980 -1.8514 0.9768
-0.3982 -5.5819 -1.8602 0.9767
0.6073 -5.6333 -1.8834 0.9764
2.1304 -5.4076 -1.9320 0.9758
2.6308 -5.2491 -1.9517 0.9756
3.1222 -5.0482 -1.9731 0.9753
4.0646 -4.5190 -2.0204 0.9747
4.5081 -4.1912 -2.0461 0.9744
5.3079 -3.4050 -2.0962 0.9738
5.2718 -2.7517 -1.9767 0.9752
2.2977 -0.9492 -0.8264 0.9896
5.8361 -1.8210 -2.0322 0.9746
6.4250 1.5272 -2.1952 0.9725
6.1770 2.6992 -2.2407 0.9720
5.9637 3.2679 -2.2605 0.9717
4.3385 4.2001 -2.0072 0.9749
3.4797 4.8433 -1.9824 0.9752
3.0112 5.0960 -1.9676 0.9754
1.8279 3.8388 -1.4133 0.9822
2.0757 5.5978 -1.9846 0.9751
0.8500 3.1224 -1.0757 0.9865
0.5341 2.9952 -1.0113 0.9873
0.5597 6.4039 -2.1368 0.9733
-0.0143 6.7070 -2.2295 0.9721
-0.5549 6.0520 -2.0202 0.9747
-4.0872 4.6926 -2.0686 0.9741
-2.3279 2.2345 -1.0726 0.9865
-4.7239 3.7860 -2.0123 0.9748
-5.9476 0.3006 -1.9795 0.9752
-5.6373 -1.2453 -1.9190 0.9760
-5.2385 -2.1902 -1.8874 0.9764
-4.3921 -3.4364 -1.8537 0.9768
-4.0519 -3.7992 -1.8463 0.9769
-2.8849 -4.7090 -1.8357 0.9770
-2.4539 -4.9484 -1.8360 0.9770
-0.0777 -5.6155 -1.8668 0.9766
0.9338 -5.6160 -1.8924 0.9763
3.9011 -4.6259 -2.0115 0.9748
-4.8105 -2.2317 -1.8964 0.9777
-4.2884 -3.0163 -1.8749 0.9780
-3.9852 -3.3722 -1.8669 0.9781
-3.6563 -3.7018 -1.8607 0.9781
-3.3037 -4.0037 -1.8562 0.9782
-2.9294 -4.2764 -1.8537 0.9782
-2.1235 -4.7298 -1.8541 0.9782
-1.6959 -4.9082 -1.8570 0.9782
-0.8019 -5.1629 -1.8684 0.9780
-0.3398 -5.2374 -1.8769 0.9780
0.6032 -5.2761 -1.8991 0.9777
1.0791 -5.2389 -1.9128 0.9775
1.5544 -5.1630 -1.9282 0.9774
2.4923 -4.8937 -1.9639 0.9769
3.3926 -4.4660 -2.0057 0.9765
4.2291 -3.8813 -2.0527 0.9759
4.6145 -3.5315 -2.0780 0.9756
2.3084 -0.9363 -0.8908 0.9895
5.4275 -1.6553 -2.0292 0.9762
5.6248 -1.1796 -2.0552 0.9759
5.7796 -0.6817 -2.0812 0.9756
5.8889 -0.1656 -2.1068 0.9753
5.6728 2.5225 -2.2201 0.9740
5.2117 3.5428 -2.2536 0.9736
4.9034 4.0167 -2.2667 0.9734
2.9738 5.1076 -2.1136 0.9752
1.7896 3.8217 -1.5091 0.9822
0.8143 3.0692 -1.1355 0.9866
0.5087 6.2870 -2.2556 0.9736
-0.0537 6.2647 -2.2404 0.9737
-1.1465 6.0537 -2.2033 0.9742
-1.6656 5.8701 -2.1820 0.9744
-2.1597 5.6387 -2.1593 0.9747
-2.6246 5.3634 -2.1353 0.9750
-3.4522 4.6982 -2.0849 0.9755
-3.8095 4.3173 -2.0590 0.9758
-4.4019 3.4816 -2.0070 0.9764
-4.9870 3.2665 -2.1319 0.9750
-5.1996 2.7773 -2.1080 0.9753
-5.3588 2.2738 -2.0817 0.9756
-5.5420 1.2548 -2.0320 0.9762
-5.5513 0.2448 -1.9871 0.9767
-5.4941 -0.2487 -1.9667 0.9769
-5.2639 -1.1984 -1.9306 0.9773
-5.0944 -1.6496 -1.9149 0.9775
-4.8911 -2.0821 -1.9010 0.9777
-4.6557 -2.4938 -1.8887 0.9778
-4.3903 -2.8830 -1.8782 0.9779
-4.0966 -3.2480 -1.8696 0.9780
-3.4323 -3.8991 -1.8576 0.9782
-3.0656 -4.1824 -1.8544 0.9782
-2.6783 -4.4358 -1.8530 0.9782
-2.2726 -4.6581 -1.8535 0.9782
-1.4138 -5.0051 -1.8599 0.9781
-0.9649 -5.1276 -1.8659 0.9781
-0.0389 -5.2661 -1.8832 0.9779
1.8583 -5.0937 -1.9390 0.9772
2.7869 -4.7736 -1.9767 0.9768
3.2357 -4.5541 -1.9978 0.9765
4.0856 -3.9971 -2.0440 0.9760
4.8411 -3.2825 -2.0917 0.9755
4.8139 -2.6709 -1.9687 0.9769
5.8553 -0.3519 -2.0977 0.9754
5.8631 1.7957 -2.1928 0.9743
5.5478 2.8587 -2.2318 0.9738
5.0193 3.8507 -2.2623 0.9735
3.1402 5.0180 -2.1169 0.9752
2.6752 5.2682 -2.1129 0.9752
2.2078 5.5187 -2.1256 0.9751
1.7307 5.7734 -2.1554 0.9747
0.6059 2.9592 -1.0802 0.9873
-0.4083 6.1815 -2.2154 0.9740
-0.9559 6.1071 -2.2105 0.9741
-1.4827 5.9414 -2.1898 0.9743
-1.9863 5.7266 -2.1676 0.9746
-3.3150 4.8271 -2.0941 0.9754
-3.6864 4.4567 -2.0683 0.9757
-2.2593 2.2820 -1.1483 0.9865
-4.3083 3.6370 -2.0163 0.9763
-4.5566 3.1969 -1.9905 0.9766
-5.1316 2.9552 -2.1176 0.9752
-5.3072 2.4545 -2.0910 0.9755
-5.4372 1.9472 -2.0653 0.9758
-5.5223 1.4371 -2.0406 0.9761
-5.5620 0.4234 -1.9947 0.9766
-5.5191 -0.0736 -1.9739 0.9768
-5.4366 -0.5599 -1.9544 0.9771
