ply
format ascii 1.0
element vertex 1594
property float32 x
property float32 y
property float32 z
property float32 I
end_header
3.6988 -3.5695 -1.9699 0.9782
4.0075 -3.2292 -1.9723 0.9782
4.2855 -2.8626 -1.9750 0.9782
4.5304 -2.4724 -1.9778 0.9781
5.0483 -1.1900 -1.9876 0.9780
5.1982 -0.2747 -1.9948 0.9779
5.2117 0.1906 -1.9985 0.9779
5.1140 1.1181 -2.0061 0.9778
4.6609 2.4461 -2.0172 0.9777
3.5335 3.9477 -2.0303 0.9776
3.1716 4.2532 -2.0332 0.9775
2.3707 4.7605 -2.0380 0.9775
1.0278 5.2315 -2.0431 0.9774
0.5571 5.3051 -2.0442 0.9774
0.0815 5.3355 -2.0449 0.9774
-0.3950 5.3225 -2.0453 0.9774
-0.8683 5.2660 -2.0453 0.9774
-1.3345 5.1667 -2.0450 0.9774
-1.7897 5.0253 -2.0443 0.9774
-2.2298 4.8432 -2.0433 0.9774
-2.6513 4.6218 -2.0419 0.9774
-3.0506 4.3632 -2.0402 0.9775
-4.3637 3.0060 -2.0306 0.9776
-4.6077 2.6008 -2.0276 0.9776
-4.9804 1.7347 -2.0210 0.9777
-5.1064 1.2811 -2.0175 0.9777
-5.2345 -0.1164 -2.0064 0.9778
-5.1111 -1.0411 -1.9989 0.9779
-4.9885 -1.4902 -1.9952 0.9779
-4.8268 -1.9259 -1.9915 0.9780
-4.6274 -2.3447 -1.9880 0.9780
-4.1230 -3.1193 -1.9812 0.9781
-3.8222 -3.4693 -1.9781 0.9781
-3.4922 -3.7910 -1.9752 0.9782
-3.1357 -4.0819 -1.9725 0.9782
-2.7556 -4.3400 -1.9701 0.9782
-2.3547 -4.5635 -1.9679 0.9782
-1.9362 -4.7508 -1.9660 0.9783
-1.0593 -5.0117 -1.9630 0.9783
-0.6075 -5.0836 -1.9620 0.9783
-0.1514 -5.1157 -1.9613 0.9783
0.3056 -5.1078 -1.9609 0.9783
0.7601 -5.0599 -1.9608 0.9783
1.6481 -4.8463 -1.9617 0.9783
2.0750 -4.6820 -1.9625 0.9783
3.5939 -3.6726 -1.9691 0.9782
3.9119 -3.3412 -1.9715 0.9782
4.1999 -2.9827 -1.9741 0.9782
4.4557 -2.5998 -1.9769 0.9781
4.6770 -2.1951 -1.9799 0.9781
4.8621 -1.7719 -1.9831 0.9781
5.0094 -1.3332 -1.9865 0.9780
5.1174 -0.8825 -1.9900 0.9780
5.2118 0.0413 -1.9973 0.9779
5.1408 0.9707 -2.0049 0.9778
5.0431 1.4283 -2.0086 0.9778
4.5092 2.7278 -2.0196 0.9777
3.6433 3.8432 -2.0294 0.9776
1.1768 5.1989 -2.0427 0.9774
-0.7173 5.2888 -2.0453 0.9774
-2.0907 4.9059 -2.0436 0.9774
-2.5186 4.6969 -2.0424 0.9774
-3.9867 3.5050 -2.0343 0.9775
-4.2778 3.1311 -2.0315 0.9775
-4.5336 2.7329 -2.0286 0.9776
-5.2247 0.5017 -2.0114 0.9778
-5.2388 0.0334 -2.0076 0.9778
-5.1419 -0.8950 -2.0001 0.9779
-5.0321 -1.3477 -1.9964 0.9779
-4.4713 -2.6181 -1.9856 0.9780
-3.6009 -3.6912 -1.9761 0.9782
-3.2526 -3.9922 -1.9734 0.9782
-2.8797 -4.2610 -1.9708 0.9782
-1.2025 -4.9804 -1.9634 0.9783
0.1593 -5.1147 -1.9610 0.9783
0.6150 -5.0796 -1.9608 0.9783
1.0659 -5.0048 -1.9610 0.9783
1.5086 -4.8909 -1.9614 0.9783
1.9398 -4.7387 -1.9622 0.9783
2.7548 -4.3240 -1.9647 0.9783
3.1324 -4.0645 -1.9665 0.9783
3.4861 -3.7726 -1.9684 0.9782
4.3774 -2.7249 -1.9760 0.9782
4.6100 -2.3269 -1.9789 0.9781
4.9664 -1.4752 -1.9854 0.9781
5.1678 -0.5710 -1.9925 0.9780
5.2078 -0.1077 -1.9961 0.9779
5.2063 0.3580 -1.9999 0.9779
4.7877 2.1730 -2.0149 0.9777
4.5829 2.5962 -2.0185 0.9777
4.0621 3.3808 -2.0253 0.9776
3.4067 4.0612 -2.0314 0.9775
2.6373 4.6139 -2.0366 0.9775
1.3248 5.1620 -2.0423 0.9774
0.3866 5.3210 -2.0445 0.9774
-0.0898 5.3358 -2.0451 0.9774
-0.5657 5.3072 -2.0453 0.9774
-1.0369 5.2352 -2.0452 0.9774
-1.4996 5.1207 -2.0448 0.9774
-2.7976 4.5330 -2.0413 0.9774
-4.1883 3.2536 -2.0324 0.9775
-4.6862 2.4501 -2.0265 0.9776
-4.8783 2.0189 -2.0232 0.9776
-5.1416 1.1158 -2.0162 0.9777
-5.1685 -0.7479 -2.0013 0.9779
-5.0717 -1.2039 -1.9976 0.9779
-4.9348 -1.6485 -1.9938 0.9780
-4.2992 -2.8814 -1.9833 0.9781
-4.0184 -3.2482 -1.9801 0.9781
-3.3670 -3.8992 -1.9742 0.9782
-3.0017 -4.1786 -1.9716 0.9782
-2.6137 -4.4244 -1.9693 0.9782
-2.2061 -4.6351 -1.9672 0.9783
-1.3448 -4.9450 -1.9638 0.9783
-0.4439 -5.0997 -1.9617 0.9783
0.9222 -5.0331 -1.9609 0.9783
1.3679 -4.9316 -1.9612 0.9783
1.8032 -4.7916 -1.9619 0.9783
2.2247 -4.6140 -1.9629 0.9783
3.3755 -3.8695 -1.9678 0.9782
3.7115 -3.5567 -1.9700 0.9782
4.0190 -3.2153 -1.9724 0.9782
4.2957 -2.8477 -1.9751 0.9782
4.5393 -2.4567 -1.9780 0.9781
4.9195 -1.6159 -1.9843 0.9781
5.0528 -1.1725 -1.9878 0.9780
5.1464 -0.7182 -1.9913 0.9780
5.2113 0.2088 -1.9987 0.9779
5.1817 0.6742 -2.0024 0.9779
5.1104 1.1361 -2.0062 0.9778
4.8451 2.0339 -2.0137 0.9777
4.6526 2.4626 -2.0173 0.9777
4.1550 3.2615 -2.0242 0.9776
3.8535 3.6250 -2.0274 0.9776
2.3541 4.7690 -2.0381 0.9775
1.0095 5.2352 -2.0432 0.9774
0.5386 5.3071 -2.0442 0.9774
0.0629 5.3358 -2.0449 0.9774
-0.8867 5.2630 -2.0453 0.9774
-1.8072 5.0190 -2.0442 0.9774
-2.2467 4.8352 -2.0432 0.9774
-2.6674 4.6124 -2.0418 0.9774
-3.4385 4.0575 -2.0381 0.9775
-3.7826 3.7303 -2.0359 0.9775
-4.0953 3.3736 -2.0333 0.9775
-4.3739 2.9906 -2.0305 0.9776
-4.9861 1.7172 -2.0209 0.9777
-5.1935 0.8007 -2.0138 0.9777
-5.2346 0.3335 -2.0101 0.9778
-5.2337 -0.1347 -2.0063 0.9778
-4.9829 -1.5076 -1.9950 0.9779
-4.6189 -2.3607 -1.9878 0.9780
-4.3822 -2.7587 -1.9844 0.9781
-4.1118 -3.1335 -1.9811 0.9781
-3.8098 -3.4825 -1.9780 0.9781
-3.1213 -4.0926 -1.9724 0.9782
-2.7402 -4.3494 -1.9700 0.9782
-2.3386 -4.5715 -1.9678 0.9782
-1.9195 -4.7574 -1.9659 0.9783
-1.4861 -4.9056 -1.9643 0.9783
-1.0417 -5.0153 -1.9630 0.9783
-0.5898 -5.0856 -1.9620 0.9783
-0.1335 -5.1161 -1.9613 0.9783
0.7778 -5.0573 -1.9608 0.9783
1.6651 -4.8406 -1.9617 0.9783
2.5017 -4.4724 -1.9638 0.9783
2.8930 -4.2346 -1.9653 0.9783
3.2624 -3.9632 -1.9671 0.9783
3.6068 -3.6601 -1.9692 0.9782
3.9237 -3.3277 -1.9716 0.9782
4.4650 -2.5843 -1.9770 0.9781
5.0143 -1.3158 -1.9866 0.9780
5.1869 -0.4050 -1.9938 0.9780
5.1957 0.5254 -2.0012 0.9779
5.1377 0.9888 -2.0050 0.9778
0.6799 4.9407 -2.0411 0.9787
-0.2093 4.9859 -2.0424 0.9787
-1.9390 4.5944 -2.0410 0.9787
-3.4130 3.6143 -2.0346 0.9787
-3.7178 3.2917 -2.0323 0.9788
-3.9917 2.9431 -2.0298 0.9788
-4.4388 2.1806 -2.0241 0.9789
-4.7408 1.3526 -2.0177 0.9789
-1.9080 0.0188 -0.7809 0.9918
-1.9557 -0.1558 -0.8029 0.9916
-2.1304 -0.3631 -0.8845 0.9907
-4.7173 -1.2457 -1.9969 0.9791
-4.5794 -1.6588 -1.9934 0.9792
-4.4057 -2.0573 -1.9900 0.9792
-4.1976 -2.4383 -1.9868 0.9792
-3.9571 -2.7987 -1.9837 0.9793
-3.6860 -3.1359 -1.9807 0.9793
-3.0615 -3.7310 -1.9753 0.9794
-2.7131 -3.9845 -1.9729 0.9794
-2.3442 -4.2061 -1.9708 0.9794
-1.5565 -4.5476 -1.9672 0.9794
-1.1437 -4.6652 -1.9659 0.9795
-0.2959 -4.7897 -1.9640 0.9795
0.5600 -4.7644 -1.9634 0.9795
1.3984 -4.5904 -1.9640 0.9795
1.8031 -4.4489 -1.9647 0.9795
2.1940 -4.2725 -1.9657 0.9795
2.5682 -4.0624 -1.9670 0.9794
2.9228 -3.8201 -1.9686 0.9794
3.2551 -3.5474 -1.9705 0.9794
3.5625 -3.2463 -1.9726 0.9794
3.8425 -2.9189 -1.9749 0.9794
4.4972 -1.8045 -1.9832 0.9793
4.6476 -1.3982 -1.9863 0.9792
4.8381 -0.5517 -1.9929 0.9792
4.8764 -0.1180 -1.9964 0.9791
4.8760 0.3182 -1.9999 0.9791
4.7586 1.1840 -2.0070 0.9790
4.2971 2.4144 -2.0173 0.9789
4.0710 2.7928 -2.0205 0.9789
3.1999 3.7878 -2.0294 0.9788
2.8528 4.0633 -2.0319 0.9788
2.4816 4.3066 -2.0343 0.9787
2.0896 4.5154 -2.0363 0.9787
0.8208 4.9184 -2.0408 0.9787
0.3788 4.9742 -2.0417 0.9787
-0.0666 4.9895 -2.0423 0.9787
-0.5116 4.9643 -2.0425 0.9787
-1.3855 4.7931 -2.0420 0.9787
-2.9677 3.9961 -2.0372 0.9787
-3.3093 3.7118 -2.0352 0.9787
-4.5583 1.9052 -2.0220 0.9789
-4.7027 1.4885 -2.0188 0.9789
-4.8088 1.0612 -2.0155 0.9789
-1.9516 0.2509 -0.8053 0.9915
-1.9415 -0.0988 -0.7956 0.9916
-4.7537 -1.1109 -1.9980 0.9791
-2.8271 -3.9067 -1.9736 0.9794
-0.4329 -4.7798 -1.9643 0.9795
-0.0047 -4.7980 -1.9637 0.9795
0.4234 -4.7786 -1.9634 0.9795
2.0705 -4.3328 -1.9654 0.9795
2.8115 -3.9011 -1.9681 0.9794
3.1513 -3.6380 -1.9699 0.9794
4.0161 -2.6827 -1.9767 0.9793
4.6033 -1.5299 -1.9853 0.9793
4.7291 -1.1148 -1.9885 0.9792
4.8684 -0.2573 -1.9953 0.9791
4.7878 1.0468 -2.0058 0.9790
4.5413 1.8877 -2.0128 0.9790
4.3621 2.2893 -2.0162 0.9789
3.8981 3.0379 -2.0227 0.9789
2.9667 3.9785 -2.0312 0.9788
2.6029 4.2323 -2.0336 0.9788
1.8128 4.6368 -2.0376 0.9787
1.3929 4.7838 -2.0392 0.9787
0.9611 4.8921 -2.0405 0.9787
0.5210 4.9607 -2.0415 0.9787
0.0763 4.9891 -2.0421 0.9787
-0.3693 4.9768 -2.0425 0.9787
-0.8119 4.9240 -2.0425 0.9787
-1.6735 4.6991 -2.0415 0.9787
-2.8530 4.0805 -2.0378 0.9787
-4.0822 2.8121 -2.0288 0.9788
-4.5041 2.0359 -2.0230 0.9789
-4.6605 1.6233 -2.0198 0.9789
-4.7790 1.1990 -2.0165 0.9789
-2.0194 0.3186 -0.8367 0.9912
-1.9505 0.1311 -0.8001 0.9916
-1.9196 -0.0427 -0.7859 0.9917
-1.9562 -0.2192 -0.8056 0.9915
-4.7862 -0.9749 -1.9991 0.9791
-4.5210 -1.8039 -1.9922 0.9792
-4.3348 -2.1964 -1.9889 0.9792
-4.1148 -2.5703 -1.9856 0.9792
-3.8630 -2.9227 -1.9826 0.9793
-3.2727 -3.5527 -1.9769 0.9793
-1.8150 -4.4535 -1.9682 0.9794
-1.4092 -4.5941 -1.9667 0.9794
-0.9931 -4.6985 -1.9655 0.9795
-0.5696 -4.7660 -1.9645 0.9795
0.2865 -4.7889 -1.9635 0.9795
0.7127 -4.7440 -1.9634 0.9795
1.1333 -4.6621 -1.9636 0.9795
1.9453 -4.3895 -1.9650 0.9795
2.3306 -4.2008 -1.9662 0.9795
3.0450 -3.7255 -1.9693 0.9794
3.3686 -3.4424 -1.9712 0.9794
4.7934 -0.8266 -1.9908 0.9792
4.8563 -0.3963 -1.9942 0.9792
4.8664 0.4749 -2.0012 0.9791
4.7211 1.3371 -2.0082 0.9790
4.5909 1.7560 -2.0117 0.9790
4.4234 2.1624 -2.0151 0.9789
3.9815 2.9237 -2.0217 0.9789
3.7104 3.2722 -2.0247 0.9788
3.0781 3.8904 -2.0303 0.9788
1.9442 4.5817 -2.0370 0.9787
1.1005 4.8617 -2.0401 0.9787
0.6626 4.9431 -2.0412 0.9787
0.2190 4.9844 -2.0420 0.9787
-0.2267 4.9851 -2.0424 0.9787
-1.5385 4.7456 -2.0418 0.9787
-1.9550 4.5875 -2.0409 0.9787
-2.7358 4.1615 -2.0383 0.9787
-3.0935 3.8974 -2.0365 0.9787
-3.4255 3.6022 -2.0345 0.9787
-4.2414 2.5568 -2.0269 0.9788
-4.4462 2.1649 -2.0240 0.9789
-4.6145 1.7569 -2.0209 0.9789
-4.7452 1.3360 -2.0176 0.9789
-2.1978 0.4115 -0.9151 0.9904
-1.9579 0.1880 -0.8050 0.9915
-1.9044 0.0122 -0.7795 0.9918
-2.1448 -0.3733 -0.8910 0.9906
-4.7126 -1.2621 -1.9967 0.9791
-4.5733 -1.6747 -1.9933 0.9792
-4.3982 -2.0726 -1.9899 0.9792
-4.1888 -2.4528 -1.9867 0.9792
-3.6748 -3.1486 -1.9806 0.9793
-3.3745 -3.4591 -1.9778 0.9793
-2.6991 -3.9937 -1.9728 0.9794
-2.3294 -4.2141 -1.9707 0.9794
-1.9422 -4.4009 -1.9688 0.9794
-1.5405 -4.5529 -1.9672 0.9794
-1.1273 -4.6690 -1.9658 0.9795
-0.7058 -4.7485 -1.9648 0.9795
-0.2792 -4.7906 -1.9640 0.9795
0.9994 -4.6923 -1.9635 0.9795
3.2676 -3.5362 -1.9706 0.9794
3.5740 -3.2340 -1.9727 0.9794
4.1021 -2.5536 -1.9776 0.9793
4.7652 -0.9629 -1.9897 0.9792
4.8403 -0.5348 -1.9931 0.9792
4.7547 1.2008 -2.0071 0.9790
4.6367 1.6231 -2.0106 0.9790
4.2889 2.4296 -2.0174 0.9789
4.0615 2.8071 -2.0207 0.9789
2.8387 4.0734 -2.0320 0.9788
2.4667 4.3154 -2.0344 0.9787
2.0738 4.5229 -2.0364 0.9787
1.6634 4.6940 -2.0382 0.9787
0.8037 4.9214 -2.0409 0.9787
0.3615 4.9756 -2.0417 0.9787
-0.0840 4.9893 -2.0423 0.9787
-0.5289 4.9625 -2.0425 0.9787
-1.8232 4.6422 -2.0412 0.9787
-2.2290 4.4587 -2.0402 0.9787
-2.6162 4.2391 -2.0388 0.9787
-3.6351 3.3851 -2.0329 0.9788
-3.9179 3.0436 -2.0305 0.9788
-4.1683 2.6783 -2.0278 0.9788
-4.3845 2.2924 -2.0249 0.9788
-4.7075 1.4720 -2.0187 0.9789
-1.9436 -0.1057 -0.7966 0.9916
-1.9444 -0.2814 -0.8041 0.9915
-4.7495 -1.1274 -1.9978 0.9791
-4.6219 -1.5440 -1.9944 0.9792
-4.4581 -1.9469 -1.9910 0.9792
-4.2595 -2.3331 -1.9877 0.9792
-4.0279 -2.6996 -1.9845 0.9793
-3.7652 -3.0436 -1.9815 0.9793
-3.4736 -3.3626 -1.9786 0.9793
-2.8133 -3.9163 -1.9735 0.9794
-1.6706 -4.5081 -1.9677 0.9794
-0.8415 -4.7271 -1.9651 0.9795
-0.4162 -4.7812 -1.9642 0.9795
0.0121 -4.7979 -1.9637 0.9795
1.2825 -4.6237 -1.9638 0.9795
1.6905 -4.4923 -1.9645 0.9795
2.0856 -4.3256 -1.9654 0.9795
3.7667 -3.0135 -1.9743 0.9794
4.0257 -2.6687 -1.9768 0.9793
4.2536 -2.3020 -1.9795 0.9793
4.4485 -1.9161 -1.9824 0.9793
4.6089 -1.5138 -1.9855 0.9793
4.7332 -1.0983 -1.9887 0.9792
4.6787 1.4889 -2.0095 0.9790
4.5350 1.9037 -2.0129 0.9790
4.3543 2.3047 -2.0163 0.9789
3.8877 3.0517 -2.0228 0.9789
3.2928 3.7048 -2.0286 0.9788
2.5882 4.2416 -2.0336 0.9788
1.3762 4.7887 -2.0392 0.9787
0.5036 4.9626 -2.0415 0.9787
0.0588 4.9893 -2.0422 0.9787
-0.3867 4.9755 -2.0425 0.9787
-2.1009 4.5215 -2.0405 0.9787
-2.4944 4.3133 -2.0393 0.9787
-2.8671 4.0703 -2.0377 0.9787
-3.2159 3.7948 -2.0358 0.9787
-4.3191 2.4180 -2.0259 0.9788
-4.5109 2.0200 -2.0229 0.9789
-4.7829 1.1822 -2.0164 0.9789
-1.9227 -0.0495 -0.7872 0.9917
-4.7825 -0.9916 -1.9990 0.9791
-4.5144 -1.8195 -1.9921 0.9792
-3.8526 -2.9360 -1.9824 0.9793
-3.2601 -3.5639 -1.9768 0.9793
-2.9253 -3.8357 -1.9743 0.9794
-2.5684 -4.0767 -1.9720 0.9794
-1.7993 -4.4596 -1.9682 0.9794
-0.5529 -4.7679 -1.9645 0.9795
-0.1252 -4.7966 -1.9638 0.9795
0.7293 -4.7415 -1.9634 0.9795
1.1496 -4.6581 -1.9637 0.9795
3.6775 -3.1188 -1.9735 0.9794
3.9460 -2.7817 -1.9759 0.9793
4.1841 -2.4217 -1.9786 0.9793
4.8102 0.9257 -2.0048 0.9791
0.6377 4.6343 -2.0387 0.9798
0.2217 4.6744 -2.0395 0.9798
-1.4275 4.4563 -2.0394 0.9798
-1.8188 4.3095 -2.0386 0.9798
-2.1949 4.1278 -2.0375 0.9798
-2.5527 3.9129 -2.0361 0.9798
-2.8894 3.6665 -2.0345 0.9798
-3.2020 3.3909 -2.0326 0.9799
-3.7455 2.7616 -2.0281 0.9799
-3.9719 2.4133 -2.0255 0.9799
-4.1657 2.0464 -2.0227 0.9800
-4.3255 1.6642 -2.0198 0.9800
-1.5663 0.4469 -0.7099 0.9929
-1.4991 0.2861 -0.6651 0.9934
-1.5263 0.1520 -0.6685 0.9933
-1.5047 -0.2565 -0.6652 0.9934
-1.5540 -0.4104 -0.7005 0.9930
-3.4638 -2.9468 -1.9820 0.9804
-3.1828 -3.2399 -1.9793 0.9804
-2.8774 -3.5066 -1.9769 0.9804
-2.5502 -3.7451 -1.9747 0.9804
-2.2036 -3.9537 -1.9726 0.9804
-1.4632 -4.2752 -1.9693 0.9805
-1.0752 -4.3859 -1.9681 0.9805
-0.6792 -4.4621 -1.9670 0.9805
0.1247 -4.5091 -1.9659 0.9805
0.5265 -4.4796 -1.9657 0.9805
1.3147 -4.3158 -1.9662 0.9805
1.6952 -4.1827 -1.9669 0.9805
4.0519 -2.0630 -1.9816 0.9804
4.2257 -1.6956 -1.9844 0.9803
4.5447 -0.5182 -1.9935 0.9802
4.5803 -0.1108 -1.9967 0.9802
4.5794 0.2988 -2.0000 0.9802
4.4681 1.1118 -2.0067 0.9801
4.3582 1.5085 -2.0100 0.9801
4.2130 1.8944 -2.0132 0.9800
4.0335 2.2664 -2.0164 0.9800
3.5770 2.9560 -2.0223 0.9800
2.3282 4.0403 -2.0323 0.9799
1.1779 4.5239 -2.0373 0.9798
0.3553 4.6657 -2.0393 0.9798
-0.4798 4.6562 -2.0400 0.9798
-0.8934 4.5947 -2.0399 0.9798
-1.6950 4.3604 -2.0388 0.9798
-2.4403 3.9852 -2.0366 0.9798
-2.7841 3.7487 -2.0350 0.9798
-3.1047 3.4822 -2.0332 0.9798
-3.3996 3.1880 -2.0311 0.9799
-4.1073 2.1658 -2.0236 0.9799
-4.2781 1.7881 -2.0208 0.9800
-1.5812 0.5005 -0.7228 0.9928
-1.5239 0.3363 -0.6801 0.9932
-1.5286 0.0589 -0.6667 0.9933
-1.5160 -0.2140 -0.6673 0.9933
-1.5337 -0.3584 -0.6864 0.9932
-1.5866 -0.5239 -0.7282 0.9927
-3.7937 -2.5234 -1.9857 0.9803
-3.2756 -3.1488 -1.9802 0.9804
-2.9777 -3.4242 -1.9777 0.9804
-2.3165 -3.8903 -1.9733 0.9804
-1.9583 -4.0776 -1.9714 0.9805
-0.8067 -4.4415 -1.9673 0.9805
-0.0044 -4.5110 -1.9660 0.9805
0.3981 -4.4929 -1.9657 0.9805
0.7974 -4.4395 -1.9658 0.9805
1.1906 -4.3513 -1.9661 0.9805
1.9465 -4.0734 -1.9676 0.9805
2.6431 -3.6674 -1.9701 0.9805
2.9623 -3.4198 -1.9718 0.9805
3.2588 -3.1448 -1.9737 0.9804
3.7744 -2.5212 -1.9782 0.9804
3.9895 -2.1772 -1.9807 0.9804
4.4429 -1.0473 -1.9894 0.9803
4.5257 -0.6477 -1.9925 0.9802
4.5728 -0.2417 -1.9957 0.9802
4.4957 0.9829 -2.0056 0.9801
4.2633 1.7722 -2.0122 0.9801
4.0947 2.1490 -2.0154 0.9800
3.8925 2.5096 -2.0184 0.9800
3.3942 3.1706 -2.0242 0.9799
2.7836 3.7329 -2.0294 0.9799
2.4421 3.9708 -2.0316 0.9799
2.0801 4.1770 -2.0336 0.9798
1.3066 4.4874 -2.0369 0.9798
0.0715 4.6795 -2.0397 0.9798
-0.7615 4.6185 -2.0400 0.9798
-1.5697 4.4076 -2.0391 0.9798
-1.9559 4.2481 -2.0382 0.9798
-2.6763 3.8278 -2.0355 0.9798
-3.0047 3.5707 -2.0338 0.9798
-3.5841 2.9736 -2.0296 0.9799
-3.8305 2.6387 -2.0272 0.9799
-1.5295 0.1028 -0.6681 0.9933
-1.5266 -0.0340 -0.6655 0.9934
-1.5101 -0.3076 -0.6716 0.9933
-4.2470 -1.6945 -1.9928 0.9802
-3.8662 -2.4150 -1.9866 0.9803
-3.6299 -2.7463 -1.9837 0.9803
-3.0757 -3.3389 -1.9784 0.9804
-2.7622 -3.5957 -1.9761 0.9804
-1.7062 -4.1866 -1.9703 0.9805
-1.3249 -4.3189 -1.9688 0.9805
-0.9336 -4.4173 -1.9677 0.9805
-0.5355 -4.4809 -1.9668 0.9805
1.4528 -4.2718 -1.9665 0.9805
2.1910 -3.9493 -1.9683 0.9805
2.5364 -3.7406 -1.9696 0.9805
2.8624 -3.5021 -1.9712 0.9805
3.4461 -2.9434 -1.9751 0.9804
3.6993 -2.6272 -1.9774 0.9804
3.9239 -2.2895 -1.9799 0.9804
4.1181 -1.9328 -1.9826 0.9803
4.2802 -1.5599 -1.9854 0.9803
4.5031 -0.7766 -1.9915 0.9803
4.5617 -0.3722 -1.9947 0.9802
4.4328 1.2554 -2.0078 0.9801
4.3101 1.6486 -2.0111 0.9801
4.1524 2.0299 -2.0143 0.9800
3.9608 2.3960 -2.0175 0.9800
2.5538 3.8979 -2.0309 0.9799
1.8238 4.2981 -2.0349 0.9798
1.4341 4.4472 -2.0364 0.9798
-0.2127 4.6758 -2.0399 0.9798
-0.6291 4.6384 -2.0400 0.9798
-1.0404 4.5634 -2.0398 0.9798
-1.4431 4.4512 -2.0393 0.9798
-2.2093 4.1200 -2.0374 0.9798
-3.9801 2.3992 -2.0254 0.9799
-4.1726 2.0318 -2.0226 0.9800
-4.3310 1.6489 -2.0197 0.9800
-1.5642 0.4404 -0.7082 0.9929
-1.5269 0.1466 -0.6685 0.9933
-1.5236 0.0097 -0.6640 0.9934
-1.5285 -0.1271 -0.6684 0.9933
-1.5970 -0.5848 -0.7412 0.9926
-3.9356 -2.3045 -1.9876 0.9803
-3.1713 -3.2508 -1.9792 0.9804
-2.8650 -3.5165 -1.9768 0.9804
-2.5370 -3.7539 -1.9746 0.9804
-0.6636 -4.4644 -1.9670 0.9805
0.5422 -4.4777 -1.9657 0.9805
0.9396 -4.4118 -1.9658 0.9805
1.3298 -4.3112 -1.9663 0.9805
1.7098 -4.1769 -1.9670 0.9805
3.0716 -3.3240 -1.9725 0.9804
3.3593 -3.0397 -1.9745 0.9804
3.6212 -2.7309 -1.9767 0.9804
4.0593 -2.0490 -1.9817 0.9804
4.2319 -1.6809 -1.9845 0.9803
4.5809 -0.0948 -1.9969 0.9802
4.5398 0.7234 -2.0035 0.9801
4.3532 1.5238 -2.0101 0.9801
4.2067 1.9093 -2.0133 0.9800
3.8120 2.6347 -2.0195 0.9800
3.5669 2.9686 -2.0225 0.9800
3.2922 3.2796 -2.0252 0.9799
2.9903 3.5648 -2.0278 0.9799
2.3142 4.0486 -2.0324 0.9799
1.9455 4.2430 -2.0343 0.9798
1.1621 4.5281 -2.0374 0.9798
0.7538 4.6162 -2.0385 0.9798
0.3390 4.6669 -2.0393 0.9798
-0.0788 4.6798 -2.0398 0.9798
-0.4961 4.6545 -2.0400 0.9798
-0.9094 4.5915 -2.0399 0.9798
-1.7102 4.3544 -2.0388 0.9798
-3.1167 3.4712 -2.0331 0.9799
-3.4105 3.1760 -2.0310 0.9799
-3.9115 2.5132 -2.0262 0.9799
-1.5796 0.4939 -0.7213 0.9928
-1.5283 0.0535 -0.6665 0.9933
-1.5295 -0.0832 -0.6676 0.9933
-1.5148 -0.2192 -0.6671 0.9933
-1.5879 -0.5305 -0.7296 0.9927
-3.7846 -2.5365 -1.9856 0.9803
-3.2644 -3.1600 -1.9801 0.9804
-1.9440 -4.0843 -1.9713 0.9805
-1.5705 -4.2380 -1.9697 0.9805
-1.1852 -4.3583 -1.9684 0.9805
-0.7912 -4.4442 -1.9673 0.9805
0.0114 -4.5110 -1.9660 0.9805
0.4138 -4.4914 -1.9657 0.9805
2.3173 -3.8778 -1.9688 0.9805
3.5403 -2.8324 -1.9759 0.9804
3.7834 -2.5081 -1.9783 0.9804
4.1801 -1.8005 -1.9836 0.9803
4.3304 -1.4224 -1.9865 0.9803
4.4468 -1.0319 -1.9895 0.9803
4.5833 0.1836 -1.9991 0.9802
4.3927 1.3979 -2.0090 0.9801
4.2574 1.7872 -2.0123 0.9801
3.3833 3.1826 -2.0244 0.9799
3.0898 3.4764 -2.0270 0.9799
2.7706 3.7428 -2.0295 0.9799
1.2909 4.4920 -2.0369 0.9798
0.8855 4.5920 -2.0381 0.9798
0.4724 4.6548 -2.0391 0.9798
0.0552 4.6798 -2.0397 0.9798
-0.3627 4.6667 -2.0400 0.9798
-0.7777 4.6158 -2.0400 0.9798
-1.1863 4.5273 -2.0397 0.9798
-1.9707 4.2412 -2.0382 0.9798
-3.0170 3.5600 -2.0337 0.9798
-3.8395 2.6252 -2.0271 0.9799
-4.0531 2.2691 -2.0244 0.9799
-4.2336 1.8958 -2.0216 0.9800
-1.5431 0.3814 -0.6928 0.9931
-1.5232 -0.1761 -0.6682 0.9933
-1.5750 -0.4765 -0.7172 0.9928
-4.2408 -1.7093 -1.9927 0.9802
-3.8575 -2.4283 -1.9865 0.9803
-3.6201 -2.7588 -1.9836 0.9803
-3.3549 -3.0666 -1.9809 0.9804
-2.4142 -3.8319 -1.9738 0.9804
-1.6915 -4.1924 -1.9702 0.9805
-0.9182 -4.4204 -1.9676 0.9805
-0.1177 -4.5098 -1.9661 0.9805
2.2049 -3.9417 -1.9684 0.9805
3.1778 -3.2248 -1.9731 0.9804
3.4565 -2.9315 -1.9752 0.9804
3.9321 -2.2759 -1.9800 0.9804
4.1250 -1.9185 -1.9827 0.9803
4.2859 -1.5450 -1.9855 0.9803
4.4133 -1.1581 -1.9885 0.9803
4.5060 -0.7609 -1.9916 0.9803
4.5843 0.0524 -1.9980 0.9802
4.4286 1.2710 -2.0080 0.9801
0.2085 4.3963 -2.0372 0.9808
-0.1846 4.3982 -2.0377 0.9808
-0.5764 4.3644 -2.0378 0.9808
-1.3426 4.1912 -2.0371 0.9808
-2.0644 3.8824 -2.0354 0.9808
-3.2815 2.9054 -2.0287 0.9809
-3.7371 2.2706 -2.0241 0.9809
-1.3312 0.5121 -0.6602 0.9937
-1.3122 0.2504 -0.6183 0.9941
-1.3348 0.0132 -0.6179 0.9941
-1.3381 -0.1066 -0.6214 0.9941
-1.3194 -0.2249 -0.6195 0.9941
-1.3331 -0.4829 -0.6563 0.9938
-1.3116 -0.6125 -0.6701 0.9936
-3.7148 -2.1578 -1.9886 0.9812
-3.5025 -2.4772 -1.9858 0.9813
-2.9987 -3.0525 -1.9807 0.9813
-2.7112 -3.3040 -1.9784 0.9813
-2.4030 -3.5290 -1.9762 0.9814
-2.0765 -3.7257 -1.9743 0.9814
-1.7343 -3.8928 -1.9727 0.9814
-1.3790 -4.0291 -1.9712 0.9814
-0.6401 -4.2055 -1.9691 0.9814
0.1175 -4.2499 -1.9680 0.9814
0.8711 -4.1612 -1.9679 0.9814
2.2754 -3.5992 -1.9710 0.9814
3.1553 -2.8752 -1.9760 0.9814
3.4029 -2.5849 -1.9781 0.9813
3.9807 -1.5973 -1.9854 0.9813
4.1131 -1.2374 -1.9882 0.9812
4.2131 -0.8667 -1.9910 0.9812
4.2801 -0.4880 -1.9940 0.9812
4.3131 -0.1043 -1.9971 0.9812
3.7961 2.1330 -2.0155 0.9810
3.5957 2.4667 -2.0184 0.9810
2.5180 3.5865 -2.0285 0.9809
2.1902 3.8007 -2.0305 0.9809
1.8439 3.9846 -2.0323 0.9808
0.7241 4.3391 -2.0363 0.9808
-0.0587 4.4015 -2.0376 0.9808
-0.8402 4.3212 -2.0377 0.9808
-1.5941 4.1010 -2.0367 0.9808
-1.9528 3.9406 -2.0357 0.9808
-2.2953 3.7484 -2.0345 0.9808
-2.9205 3.2756 -2.0314 0.9808
-3.6720 2.3776 -2.0249 0.9809
-3.8647 2.0378 -2.0224 0.9809
-1.3384 -0.0681 -0.6203 0.9941
-3.5735 -2.3770 -1.9867 0.9813
-3.0860 -2.9665 -1.9814 0.9813
-2.8056 -3.2262 -1.9791 0.9813
-2.5038 -3.4599 -1.9769 0.9814
-2.1829 -3.6659 -1.9749 0.9814
-1.4940 -3.9889 -1.9717 0.9814
-0.3836 -4.2355 -1.9686 0.9814
0.3752 -4.2346 -1.9678 0.9814
1.1222 -4.1012 -1.9682 0.9814
1.4841 -3.9858 -1.9687 0.9814
1.8346 -3.8391 -1.9696 0.9814
2.1710 -3.6621 -1.9706 0.9814
2.4908 -3.4561 -1.9720 0.9814
2.7915 -3.2227 -1.9735 0.9814
3.0708 -2.9634 -1.9754 0.9814
3.3263 -2.6803 -1.9774 0.9813
3.7586 -2.0512 -1.9820 0.9813
3.9317 -1.7098 -1.9846 0.9813
4.0741 -1.3540 -1.9873 0.9813
4.1847 -0.9865 -1.9901 0.9812
4.2623 -0.6100 -1.9931 0.9812
4.3062 -0.2276 -1.9961 0.9812
4.2914 0.5432 -2.0023 0.9811
4.1394 1.3014 -2.0085 0.9811
4.0129 1.6681 -2.0116 0.9810
3.8537 2.0225 -2.0146 0.9810
3.1937 2.9833 -2.0229 0.9809
2.9183 3.2604 -2.0254 0.9809
2.6187 3.5118 -2.0278 0.9809
1.9567 3.9291 -2.0318 0.9808
1.2289 4.2207 -2.0348 0.9808
0.8479 4.3159 -2.0360 0.9808
-0.3258 4.3902 -2.0377 0.9808
-0.7162 4.3436 -2.0377 0.9808
-1.4763 4.1454 -2.0369 0.9808
-1.8396 3.9955 -2.0361 0.9808
-2.5174 3.6005 -2.0336 0.9808
-2.8263 3.3588 -2.0319 0.9808
-3.1119 3.0903 -2.0301 0.9809
-3.3718 2.7974 -2.0280 0.9809
-3.6039 2.4826 -2.0257 0.9809
-3.8064 2.1485 -2.0232 0.9809
-1.3165 0.5951 -0.6688 0.9937
-1.3336 0.4645 -0.6537 0.9938
-1.3100 0.3287 -0.6252 0.9941
-1.3385 0.0900 -0.6210 0.9941
-1.3343 -0.1495 -0.6215 0.9941
-3.4195 -2.5871 -1.9848 0.9813
-2.8979 -3.1458 -1.9798 0.9813
-2.6027 -3.3880 -1.9776 0.9813
-2.2876 -3.6030 -1.9755 0.9814
-1.9552 -3.7893 -1.9737 0.9814
-1.6079 -3.9454 -1.9721 0.9814
-1.2486 -4.0703 -1.9708 0.9814
-0.1258 -4.2502 -1.9682 0.9814
0.2539 -4.2437 -1.9679 0.9814
0.6316 -4.2040 -1.9678 0.9814
1.0043 -4.1314 -1.9680 0.9814
2.3904 -3.5252 -1.9715 0.9814
2.6974 -3.3003 -1.9730 0.9814
2.9838 -3.0491 -1.9747 0.9814
3.8795 -1.8208 -1.9837 0.9813
4.2959 -0.3505 -1.9951 0.9812
3.9082 1.9105 -2.0136 0.9810
3.7276 2.2549 -2.0166 0.9810
3.2764 2.8895 -2.0221 0.9809
3.0093 3.1743 -2.0247 0.9809
2.7172 3.4342 -2.0270 0.9809
2.4025 3.6669 -2.0292 0.9809
2.0677 3.8704 -2.0312 0.9808
0.9709 4.2892 -2.0356 0.9808
0.5846 4.3608 -2.0366 0.9808
-0.9785 4.2918 -2.0376 0.9808
-1.7247 4.0471 -2.0364 0.9808
-2.0779 3.8751 -2.0353 0.9808
-3.0231 3.1791 -2.0307 0.9808
-3.2915 2.8938 -2.0287 0.9809
-3.5327 2.5857 -2.0264 0.9809
-3.7448 2.2574 -2.0240 0.9809
-1.3316 0.5070 -0.6596 0.9937
-1.3206 0.3718 -0.6350 0.9940
-1.3368 0.1284 -0.6216 0.9941
-1.3343 0.0085 -0.6176 0.9941
-1.3379 -0.1113 -0.6215 0.9941
-1.3162 -0.3525 -0.6307 0.9940
-1.3329 -0.4881 -0.6571 0.9938
-3.7070 -2.1706 -1.9884 0.9812
-2.9879 -3.0628 -1.9806 0.9813
-1.7206 -3.8987 -1.9726 0.9814
-1.3648 -4.0338 -1.9712 0.9814
-0.9989 -4.1370 -1.9700 0.9814
-0.2474 -4.2452 -1.9684 0.9814
0.1324 -4.2494 -1.9679 0.9814
0.8856 -4.1582 -1.9679 0.9814
1.6115 -3.9367 -1.9690 0.9814
2.2880 -3.5914 -1.9711 0.9814
3.6322 -2.2610 -1.9804 0.9813
4.1176 -1.2231 -1.9883 0.9812
4.2164 -0.8520 -1.9912 0.9812
4.3137 -0.0893 -1.9972 0.9812
4.2029 1.0614 -2.0065 0.9811
4.0977 1.4344 -2.0096 0.9810
3.7888 2.1463 -2.0156 0.9810
3.5873 2.4794 -2.0185 0.9810
3.3563 2.7934 -2.0213 0.9809
3.0976 3.0857 -2.0239 0.9809
0.3189 4.3893 -2.0371 0.9808
-0.4666 4.3775 -2.0378 0.9808
-1.6084 4.0953 -2.0366 0.9808
-1.9665 3.9337 -2.0357 0.9808
-3.2084 2.9878 -2.0293 0.9809
-3.4585 2.6867 -2.0272 0.9809
-3.6801 2.3646 -2.0248 0.9809
-1.3287 0.4155 -0.6444 0.9939
-1.3015 0.2824 -0.6165 0.9941
-1.3318 0.1665 -0.6212 0.9941
-1.3385 -0.0728 -0.6205 0.9941
-1.3270 -0.1920 -0.6207 0.9941
-1.3045 -0.3096 -0.6206 0.9941
-1.3326 -0.4452 -0.6504 0.9938
-3.7693 -2.0646 -1.9894 0.9812
-3.3331 -2.6943 -1.9839 0.9813
-3.0755 -2.9772 -1.9813 0.9813
-2.1700 -3.6733 -1.9749 0.9814
-1.4800 -3.9940 -1.9716 0.9814
-0.7457 -4.1886 -1.9693 0.9814
-0.3688 -4.2368 -1.9685 0.9814
0.0107 -4.2517 -1.9681 0.9814
0.3900 -4.2333 -1.9678 0.9814
1.4980 -3.9807 -1.9688 0.9814
1.8480 -3.8328 -1.9696 0.9814
2.1839 -3.6546 -1.9707 0.9814
2.5030 -3.4475 -1.9720 0.9814
3.5647 -2.3631 -1.9797 0.9813
3.9378 -1.6961 -1.9847 0.9813
4.0791 -1.3398 -1.9874 0.9813
4.2294 0.9402 -2.0055 0.9811
4.1350 1.3159 -2.0086 0.9811
4.0072 1.6822 -2.0117 0.9810
3.8469 2.0361 -2.0147 0.9810
3.6551 2.3747 -2.0176 0.9810
3.4334 2.6950 -2.0204 0.9809
3.1834 2.9946 -2.0230 0.9809
2.9070 3.2707 -2.0255 0.9809
2.6065 3.5211 -2.0278 0.9809
1.2142 4.2251 -2.0349 0.9808
-0.7314 4.3411 -2.0377 0.9808
-1.1157 4.2579 -2.0374 0.9808
-1.4907 4.1402 -2.0369 0.9808
-2.2008 3.8056 -2.0349 0.9808
-2.5299 3.5916 -2.0335 0.9808
-3.1226 3.0793 -2.0300 0.9809
-3.3814 2.7855 -2.0279 0.9809
-3.8136 2.1351 -2.0231 0.9809
-1.3178 0.5901 -0.6684 0.9937
-1.3336 0.4593 -0.6529 0.9938
-1.3085 0.3234 -0.6239 0.9941
-1.3385 0.0853 -0.6208 0.9941
-1.3367 -0.0344 -0.6190 0.9941
-1.3336 -0.1542 -0.6214 0.9941
-1.3263 -0.4013 -0.6414 0.9939
-1.3284 -0.5354 -0.6630 0.9937
-3.8286 -1.9568 -1.9903 0.9812
-3.6336 -2.2874 -1.9874 0.9813
-3.1606 -2.8891 -1.9821 0.9813
-2.8867 -3.1558 -1.9797 0.9813
-2.2749 -3.6108 -1.9755 0.9814
-1.5941 -3.9509 -1.9721 0.9814
-0.8654 -4.1661 -1.9696 0.9814
0.6462 -4.2018 -1.9678 0.9814
2.7090 -3.2910 -1.9731 0.9814
2.9945 -3.0388 -1.9748 0.9814
3.4943 -2.4632 -1.9789 0.9813
3.7045 -2.1442 -1.9813 0.9813
3.8860 -1.8074 -1.9838 0.9813
4.1569 -1.0908 -1.9893 0.9812
4.2438 -0.7166 -1.9922 0.9812
4.2973 -0.3356 -1.9952 0.9812
4.3018 0.4350 -2.0014 0.9811
4.2525 0.8184 -2.0045 0.9811
0.5654 4.1091 -2.0346 0.9817
0.1966 4.1445 -2.0352 0.9817
-0.1741 4.1462 -2.0356 0.9817
-0.9083 4.0492 -2.0356 0.9817
-1.2657 3.9511 -2.0351 0.9817
-2.2638 3.4699 -2.0323 0.9817
-2.5625 3.2517 -2.0308 0.9817
-3.0943 2.7396 -2.0272 0.9818
-3.3229 2.4500 -2.0251 0.9818
-1.1316 0.5559 -0.6185 0.9944
-1.1529 0.4436 -0.6059 0.9945
-1.1589 0.3307 -0.5912 0.9946
-1.1930 0.1188 -0.5881 0.9947
-1.1959 0.0118 -0.5867 0.9947
-1.1814 -0.2014 -0.5878 0.9947
-1.1555 -0.4186 -0.6028 0.9945
-1.1377 -0.5313 -0.6159 0.9944
-3.5068 -2.0370 -1.9893 0.9821
-3.3067 -2.3387 -1.9867 0.9821
-2.8314 -2.8822 -1.9819 0.9822
-2.2692 -3.3326 -1.9777 0.9822
-1.9610 -3.5186 -1.9759 0.9822
-0.9571 -3.9042 -1.9718 0.9823
-0.6046 -3.9722 -1.9709 0.9823
0.1110 -4.0143 -1.9699 0.9823
0.8228 -3.9306 -1.9698 0.9823
1.5091 -3.7236 -1.9708 0.9823
1.8361 -3.5756 -1.9717 0.9823
2.1491 -3.3994 -1.9728 0.9822
2.7231 -2.9676 -1.9757 0.9822
2.9797 -2.7152 -1.9774 0.9822
3.2133 -2.4409 -1.9794 0.9822
3.4220 -2.1468 -1.9816 0.9822
3.6041 -1.8350 -1.9839 0.9821
4.0398 -0.4606 -1.9945 0.9820
4.0692 0.2655 -2.0003 0.9820
4.0352 0.6285 -2.0032 0.9820
3.8705 1.3397 -2.0091 0.9819
3.7409 1.6821 -2.0120 0.9819
3.5808 2.0120 -2.0148 0.9819
3.3916 2.3266 -2.0175 0.9818
3.1745 2.6234 -2.0201 0.9818
2.9313 2.8997 -2.0225 0.9818
2.0651 3.5837 -2.0289 0.9817
1.7385 3.7569 -2.0306 0.9817
1.3974 3.8999 -2.0321 0.9817
-0.4254 4.1282 -2.0357 0.9817
-1.8410 3.7151 -2.0338 0.9817
-3.2526 2.5450 -2.0258 0.9818
-3.4629 2.2422 -2.0236 0.9818
-1.1478 0.4797 -0.6102 0.9945
-1.1586 0.3667 -0.5961 0.9946
-1.1686 0.2579 -0.5870 0.9947
-1.1892 0.1529 -0.5881 0.9947
-1.1965 0.0461 -0.5873 0.9947
-1.1871 -0.1675 -0.5881 0.9947
-1.1646 -0.2722 -0.5867 0.9947
-1.1451 -0.4953 -0.6120 0.9945
-1.1125 -0.6043 -0.6211 0.9944
-3.3737 -2.2440 -1.9875 0.9821
-2.9138 -2.8010 -1.9826 0.9822
-2.0615 -3.4620 -1.9764 0.9822
-0.3623 -4.0006 -1.9704 0.9823
1.4018 -3.7648 -1.9706 0.9823
1.7328 -3.6261 -1.9714 0.9823
2.0505 -3.4589 -1.9724 0.9822
2.3525 -3.2642 -1.9737 0.9822
2.6364 -3.0435 -1.9751 0.9822
3.3580 -2.2430 -1.9808 0.9822
3.7120 -1.6143 -1.9855 0.9821
3.8462 -1.2782 -1.9881 0.9821
3.9502 -0.9312 -1.9908 0.9821
4.0643 -0.2148 -1.9964 0.9820
3.9936 0.8731 -2.0052 0.9820
3.7858 1.5737 -2.0110 0.9819
3.6353 1.9079 -2.0139 0.9819
3.4553 2.2277 -2.0166 0.9819
3.2470 2.5304 -2.0193 0.9818
1.8449 3.7046 -2.0301 0.9817
1.5081 3.8574 -2.0316 0.9817
1.1586 3.9792 -2.0330 0.9817
0.7994 4.0689 -2.0340 0.9817
-0.3071 4.1387 -2.0357 0.9817
-1.0377 4.0177 -2.0354 0.9817
-2.0624 3.5951 -2.0331 0.9817
-2.3734 3.3946 -2.0318 0.9817
-2.9343 2.9139 -2.0285 0.9817
-3.1795 2.6379 -2.0265 0.9818
-3.3986 2.3412 -2.0243 0.9818
-3.5898 2.0262 -2.0220 0.9818
-1.1411 0.5158 -0.6142 0.9944
-1.1840 0.1868 -0.5880 0.9947
-1.1956 0.0804 -0.5878 0.9947
-1.1915 -0.1335 -0.5881 0.9947
-1.1733 -0.2390 -0.5873 0.9947
-3.4379 -2.1475 -1.9884 0.9821
-3.2284 -2.4425 -1.9858 0.9821
-2.9939 -2.7175 -1.9833 0.9821
-2.4577 -3.1993 -1.9789 0.9822
-2.1603 -3.4026 -1.9770 0.9822
-1.8465 -3.5786 -1.9753 0.9822
-1.1793 -3.8444 -1.9725 0.9822
-0.8311 -3.9322 -1.9715 0.9823
-0.4767 -3.9890 -1.9706 0.9823
1.6281 -3.6737 -1.9711 0.9823
1.9504 -3.5155 -1.9720 0.9822
2.2576 -3.3294 -1.9732 0.9822
2.5475 -3.1169 -1.9746 0.9822
2.8178 -2.8796 -1.9763 0.9822
3.2913 -2.3374 -1.9802 0.9822
3.4906 -2.0367 -1.9824 0.9822
3.6628 -1.7191 -1.9847 0.9821
3.8064 -1.3872 -1.9873 0.9821
3.9202 -1.0434 -1.9899 0.9821
4.0032 -0.6904 -1.9927 0.9821
4.0546 -0.3309 -1.9955 0.9820
4.0739 0.0323 -1.9984 0.9820
4.0607 0.3963 -2.0013 0.9820
3.9371 1.1150 -2.0072 0.9819
3.8275 1.4640 -2.0101 0.9819
3.5161 2.1270 -2.0158 0.9819
1.6175 3.8118 -2.0312 0.9817
1.2718 3.9437 -2.0326 0.9817
0.5511 4.1111 -2.0346 0.9817
-0.1886 4.1456 -2.0356 0.9817
-0.5578 4.1125 -2.0357 0.9817
-1.6260 3.8154 -2.0344 0.9817
-1.9590 3.6533 -2.0334 0.9817
-2.2758 3.4619 -2.0322 0.9817
-2.5738 3.2427 -2.0308 0.9817
-2.8505 2.9976 -2.0291 0.9817
-3.1037 2.7287 -2.0272 0.9818
-3.3313 2.4383 -2.0250 0.9818
-1.1534 0.4391 -0.6054 0.9945
-1.1589 0.3263 -0.5905 0.9947
-1.1775 0.2205 -0.5876 0.9947
-1.1933 0.1146 -0.5881 0.9947
-1.1945 -0.0993 -0.5880 0.9947
-1.1585 -0.3102 -0.5883 0.9947
-3.2983 -2.3501 -1.9866 0.9821
-3.0716 -2.6318 -1.9841 0.9821
-2.8212 -2.8919 -1.9818 0.9822
-1.9486 -3.5253 -1.9758 0.9822
-1.2891 -3.8098 -1.9729 0.9822
-0.2337 -4.0098 -1.9702 0.9823
0.1250 -4.0139 -1.9698 0.9823
0.4827 -3.9864 -1.9697 0.9823
0.8365 -3.9277 -1.9698 0.9823
1.1839 -3.8381 -1.9702 0.9823
2.1610 -3.3920 -1.9728 0.9822
2.4567 -3.1878 -1.9742 0.9822
2.7335 -2.9582 -1.9757 0.9822
2.9893 -2.7049 -1.9775 0.9822
3.2219 -2.4298 -1.9795 0.9822
3.4296 -2.1349 -1.9816 0.9822
3.6107 -1.8225 -1.9840 0.9821
3.7636 -1.4949 -1.9864 0.9821
3.8871 -1.1546 -1.9891 0.9821
4.0685 0.2798 -2.0004 0.9820
4.0332 0.6427 -2.0033 0.9820
3.5740 2.0246 -2.0149 0.9819
3.3836 2.3386 -2.0176 0.9818
2.3626 3.3904 -2.0270 0.9818
1.0305 4.0152 -2.0334 0.9817
0.6684 4.0931 -2.0344 0.9817
-1.5163 3.8608 -2.0347 0.9817
-1.8540 3.7085 -2.0338 0.9817
-3.0253 2.8173 -2.0278 0.9818
-3.2613 2.5335 -2.0257 0.9818
-3.4706 2.2299 -2.0235 0.9818
-1.1215 0.5864 -0.6208 0.9944
-1.1485 0.4753 -0.6097 0.9945
-1.1587 0.3623 -0.5955 0.9946
-1.1696 0.2538 -0.5871 0.9947
-1.1961 -0.0651 -0.5876 0.9947
-1.1635 -0.2762 -0.5866 0.9947
-1.1578 -0.3868 -0.5988 0.9946
-1.1105 -0.6083 -0.6211 0.9944
-2.9039 -2.8111 -1.9825 0.9822
-2.3529 -3.2754 -1.9782 0.9822
-2.0493 -3.4690 -1.9764 0.9822
-1.0550 -3.8795 -1.9721 0.9822
-0.7043 -3.9562 -1.9711 0.9823
0.0101 -4.0160 -1.9699 0.9823
0.3684 -3.9986 -1.9697 0.9823
1.0735 -3.8701 -1.9701 0.9823
1.7455 -3.6201 -1.9714 0.9823
3.1501 -2.5202 -1.9788 0.9822
3.3659 -2.2314 -1.9809 0.9822
3.5557 -1.9244 -1.9832 0.9821
3.7178 -1.6014 -1.9856 0.9821
3.9537 -0.9174 -1.9909 0.9821
4.0254 -0.5618 -1.9937 0.9821
4.0653 -0.2006 -1.9965 0.9820
4.0729 0.1632 -1.9994 0.9820
4.0480 0.5267 -2.0024 0.9820
3.9907 0.8872 -2.0053 0.9820
3.9013 1.2415 -2.0083 0.9819
3.7804 1.5870 -2.0112 0.9819
2.7414 3.0844 -2.0242 0.9818
2.4579 3.3203 -2.0264 0.9818
2.1539 3.5298 -2.0284 0.9817
1.8320 3.7112 -2.0301 0.9817
1.4946 3.8628 -2.0317 0.9817
1.1447 3.9833 -2.0330 0.9817
0.7852 4.0717 -2.0341 0.9817
0.4188 4.1272 -2.0349 0.9817
-0.3216 4.1376 -2.0357 0.9817
-1.4054 3.9031 -2.0349 0.9817
-1.7474 3.7606 -2.0341 0.9817
-2.3852 3.3862 -2.0317 0.9817
-3.4066 2.3292 -2.0242 0.9818
-1.1050 0.6186 -0.6212 0.9944
-1.1420 0.5114 -0.6138 0.9944
-1.1847 0.1827 -0.5880 0.9947
-1.1964 -0.0308 -0.5870 0.9947
-1.1723 -0.2431 -0.5873 0.9947
-1.1503 -0.4636 -0.6083 0.9945
-3.2197 -2.4537 -1.9857 0.9821
-2.9842 -2.7279 -1.9833 0.9821
-2.4464 -3.2078 -1.9789 0.9822
-1.5055 -3.7314 -1.9737 0.9822
-1.1658 -3.8484 -1.9725 0.9822
-0.8174 -3.9350 -1.9714 0.9823
-0.4628 -3.9906 -1.9706 0.9823
-0.1048 -4.0149 -1.9701 0.9823
0.9623 -3.8990 -1.9699 0.9823
1.3066 -3.7985 -1.9704 0.9823
1.9627 -3.5087 -1.9721 0.9822
2.2693 -3.3216 -1.9733 0.9822
2.5585 -3.1081 -1.9747 0.9822
2.8280 -2.8698 -1.9763 0.9822
3.2996 -2.3260 -1.9802 0.9822
3.4979 -2.0245 -1.9825 0.9822
3.8115 -1.3739 -1.9874 0.9821
3.9241 -1.0297 -1.9900 0.9821
4.0058 -0.6764 -1.9928 0.9821
4.0560 -0.3167 -1.9956 0.9820
4.0740 0.0465 -1.9985 0.9820
4.0126 0.7722 -2.0044 0.9820
3.9335 1.1289 -2.0073 0.9819
0.5342 3.8818 -2.0328 0.9825
0.1857 3.9152 -2.0334 0.9825
-1.5235 3.6098 -2.0327 0.9825
-2.1387 3.2782 -2.0306 0.9825
-2.4211 3.0722 -2.0292 0.9825
-2.9237 2.5886 -2.0259 0.9826
-1.0332 0.5076 -0.5972 0.9948
-1.0638 0.3035 -0.5739 0.9950
-1.1033 0.1098 -0.5752 0.9950
-1.1062 0.0109 -0.5739 0.9950
-1.0675 -0.2819 -0.5728 0.9950
-0.9971 -0.5792 -0.5982 0.9948
-2.9146 -2.4796 -1.9852 0.9829
-2.6787 -2.7267 -1.9830 0.9829
-2.1471 -3.1531 -1.9790 0.9830
-1.8555 -3.3293 -1.9773 0.9830
-1.5499 -3.4789 -1.9758 0.9830
-0.9057 -3.6946 -1.9734 0.9830
-0.2344 -3.7939 -1.9720 0.9830
0.7786 -3.7198 -1.9716 0.9830
2.5766 -2.8080 -1.9771 0.9830
3.0402 -2.3094 -1.9806 0.9829
3.5550 -1.4265 -1.9872 0.9829
3.6727 -1.1049 -1.9897 0.9829
3.8206 -0.4356 -1.9949 0.9828
3.7523 0.9336 -2.0059 0.9827
3.6590 1.2665 -2.0087 0.9827
3.5362 1.5901 -2.0114 0.9827
3.2055 2.1990 -2.0166 0.9826
3.0001 2.4793 -2.0191 0.9826
1.6426 3.5495 -2.0290 0.9825
1.3202 3.6845 -2.0304 0.9825
0.9867 3.7898 -2.0316 0.9825
0.6450 3.8645 -2.0325 0.9825
-0.0523 3.9198 -2.0337 0.9825
-0.4019 3.8998 -2.0339 0.9825
-0.7482 3.8483 -2.0338 0.9825
-1.0885 3.7656 -2.0335 0.9825
-2.0444 3.3387 -2.0310 0.9825
-3.2724 2.1188 -2.0224 0.9826
-1.0194 0.5375 -0.5979 0.9948
-1.0507 0.4392 -0.5908 0.9949
-1.0806 0.2385 -0.5741 0.9950
-3.1912 -2.1227 -1.9883 0.9829
-1.9506 -3.2757 -1.9778 0.9830
-1.6492 -3.4340 -1.9763 0.9830
-1.3353 -3.5650 -1.9749 0.9830
-1.0112 -3.6678 -1.9738 0.9830
0.6719 -3.7404 -1.9715 0.9830
1.0031 -3.6660 -1.9718 0.9830
1.3266 -3.5628 -1.9723 0.9830
1.9404 -3.2731 -1.9740 0.9830
2.4946 -2.8799 -1.9766 0.9830
2.7439 -2.6479 -1.9782 0.9830
2.9719 -2.3947 -1.9800 0.9829
3.1769 -2.1221 -1.9820 0.9829
3.3573 -1.8321 -1.9841 0.9829
3.7362 -0.8807 -1.9914 0.9829
3.8049 -0.5446 -1.9940 0.9828
3.8516 0.1408 -1.9995 0.9828
3.8290 0.4846 -2.0023 0.9828
3.7758 0.8255 -2.0051 0.9827
3.0687 2.3915 -2.0183 0.9826
2.6006 2.9055 -2.0229 0.9826
1.7431 3.5002 -2.0285 0.9825
1.0946 3.7593 -2.0313 0.9825
0.7552 3.8439 -2.0323 0.9825
0.4093 3.8975 -2.0330 0.9825
-0.6378 3.8682 -2.0338 0.9825
-1.3148 3.6919 -2.0331 0.9825
-1.6384 3.5585 -2.0324 0.9825
-3.2115 2.2123 -2.0231 0.9826
-1.0604 0.3693 -0.5825 0.9950
-1.1065 -0.0246 -0.5742 0.9950
-1.1019 -0.1235 -0.5752 0.9950
-1.0850 -0.2210 -0.5745 0.9950
-1.0635 -0.3177 -0.5758 0.9950
-1.0540 -0.4205 -0.5887 0.9949
-0.9777 -0.6107 -0.5981 0.9948
-2.5888 -2.8102 -1.9822 0.9829
-2.0441 -3.2194 -1.9784 0.9830
-1.4370 -3.5260 -1.9753 0.9830
-1.1160 -3.6380 -1.9741 0.9830
-0.4511 -3.7750 -1.9723 0.9830
0.2270 -3.7935 -1.9715 0.9830
1.2239 -3.5990 -1.9721 0.9830
2.4106 -2.9494 -1.9761 0.9830
2.9013 -2.4780 -1.9794 0.9830
3.4650 -1.6263 -1.9857 0.9829
3.6006 -1.3122 -1.9881 0.9829
3.8345 -0.3129 -1.9959 0.9828
3.8524 0.0305 -1.9986 0.9828
3.8396 0.3747 -2.0014 0.9828
3.7222 1.0542 -2.0069 0.9827
3.6182 1.3840 -2.0097 0.9827
2.4212 3.0601 -2.0243 0.9826
2.1405 3.2671 -2.0263 0.9826
1.5282 3.6014 -2.0296 0.9825
0.8647 3.8202 -2.0320 0.9825
0.1720 3.9159 -2.0334 0.9825
-0.1781 3.9163 -2.0338 0.9825
-1.2087 3.7283 -2.0333 0.9825
-1.5361 3.6044 -2.0326 0.9825
-1.8507 3.4514 -2.0317 0.9825
-2.4317 3.0637 -2.0292 0.9825
-2.6933 2.8322 -2.0276 0.9825
-3.1479 2.3041 -2.0238 0.9826
-0.9875 0.5953 -0.5982 0.9948
-1.0348 0.5039 -0.5971 0.9948
-1.0890 0.2039 -0.5748 0.9950
-1.1061 0.0071 -0.5738 0.9950
-1.1047 -0.0919 -0.5751 0.9950
-1.0663 -0.2856 -0.5727 0.9950
-1.0397 -0.4899 -0.5963 0.9948
-3.1200 -2.2231 -1.9874 0.9829
-2.1360 -3.1605 -1.9789 0.9830
-1.8438 -3.3356 -1.9772 0.9830
-0.5590 -3.7610 -1.9726 0.9830
0.1183 -3.7986 -1.9716 0.9830
0.4568 -3.7726 -1.9715 0.9830
0.7917 -3.7170 -1.9716 0.9830
1.1204 -3.6322 -1.9719 0.9830
1.4404 -3.5188 -1.9725 0.9830
2.0449 -3.2098 -1.9744 0.9830
2.5865 -2.7991 -1.9772 0.9830
2.8284 -2.5593 -1.9788 0.9830
3.2447 -2.0198 -1.9827 0.9829
3.4157 -1.7241 -1.9850 0.9829
3.7643 -0.7607 -1.9923 0.9828
3.8471 0.2646 -2.0005 0.9828
3.8134 0.6076 -2.0033 0.9827
3.6548 1.2793 -2.0088 0.9827
3.5308 1.6025 -2.0115 0.9827
3.3782 1.9137 -2.0142 0.9827
3.1980 2.2103 -2.0167 0.9826
2.2324 3.2035 -2.0257 0.9826
1.6302 3.5553 -2.0291 0.9825
0.9735 3.7933 -2.0316 0.9825
0.6314 3.8668 -2.0326 0.9825
0.2840 3.9090 -2.0333 0.9825
-0.4155 3.8984 -2.0339 0.9825
-1.1016 3.7617 -2.0335 0.9825
-1.4325 3.6473 -2.0329 0.9825
-1.7515 3.5035 -2.0320 0.9825
-2.0560 3.3315 -2.0309 0.9825
-2.3436 3.1327 -2.0296 0.9825
-2.6118 2.9089 -2.0281 0.9825
-3.0817 2.3940 -2.0244 0.9826
-1.0816 0.2347 -0.5742 0.9950
-1.1066 0.0387 -0.5744 0.9950
-1.1063 -0.0602 -0.5748 0.9950
-1.0973 -0.1588 -0.5752 0.9950
-1.0472 -0.4573 -0.5928 0.9949
-3.1836 -2.1337 -1.9882 0.9829
-2.4963 -2.8908 -1.9815 0.9829
-2.2262 -3.0990 -1.9795 0.9830
-1.9390 -3.2824 -1.9778 0.9830
-1.6371 -3.4396 -1.9762 0.9830
-0.9984 -3.6712 -1.9737 0.9830
-0.3297 -3.7871 -1.9721 0.9830
1.0159 -3.6625 -1.9718 0.9830
2.7532 -2.6384 -1.9783 0.9830
2.9804 -2.3844 -1.9801 0.9829
3.5169 -1.5148 -1.9865 0.9829
3.6425 -1.1964 -1.9890 0.9829
3.8444 -0.1897 -1.9968 0.9828
3.8275 0.4981 -2.0024 0.9828
3.6883 1.1737 -2.0079 0.9827
3.5737 1.5002 -2.0107 0.9827
3.4301 1.8155 -2.0133 0.9827
3.2586 2.1170 -2.0159 0.9826
3.0605 2.4023 -2.0184 0.9826
2.8372 2.6689 -2.0208 0.9826
2.5906 2.9147 -2.0230 0.9826
2.0352 3.3352 -2.0269 0.9825
1.7309 3.5064 -2.0286 0.9825
1.4121 3.6495 -2.0301 0.9825
1.0815 3.7632 -2.0313 0.9825
0.7417 3.8466 -2.0323 0.9825
0.0462 3.9197 -2.0336 0.9825
-0.3038 3.9086 -2.0338 0.9825
-1.6508 3.5527 -2.0323 0.9825
-3.2191 2.2010 -2.0230 0.9826
-1.0061 0.5632 -0.5982 0.9948
-1.0729 0.2652 -0.5733 0.9950
-1.1059 0.0705 -0.5749 0.9950
-1.1066 -0.0285 -0.5743 0.9950
-1.0841 -0.2248 -0.5744 0.9950
-1.0533 -0.4245 -0.5891 0.9949
-1.0257 -0.5243 -0.5976 0.9948
-0.9755 -0.6141 -0.5980 0.9948
-3.0457 -2.3211 -1.9866 0.9829
-2.8232 -2.5806 -1.9843 0.9829
-2.5788 -2.8192 -1.9821 0.9829
-2.3146 -3.0350 -1.9801 0.9829
-2.0327 -3.2264 -1.9783 0.9830
-1.7353 -3.3922 -1.9767 0.9830
-1.4247 -3.5309 -1.9753 0.9830
-1.1032 -3.6418 -1.9741 0.9830
0.2402 -3.7927 -1.9715 0.9830
0.5777 -3.7560 -1.9715 0.9830
2.1474 -3.1432 -1.9748 0.9830
2.4209 -2.9410 -1.9762 0.9830
2.6758 -2.7154 -1.9777 0.9830
2.9100 -2.4680 -1.9795 0.9830
3.1217 -2.2006 -1.9814 0.9829
3.6053 -1.2996 -1.9882 0.9829
3.8525 0.0440 -1.9987 0.9828
3.8385 0.3881 -2.0015 0.9828
0.5055 3.6739 -2.0312 0.9832
0.1757 3.7054 -2.0317 0.9832
-0.1556 3.7069 -2.0321 0.9832
-0.4858 3.6784 -2.0322 0.9832
-0.8120 3.6201 -2.0320 0.9832
-1.1316 3.5326 -2.0316 0.9832
-1.7402 3.2728 -2.0302 0.9832
-2.0243 3.1028 -2.0291 0.9832
-2.2916 2.9079 -2.0278 0.9833
-2.5400 2.6898 -2.0263 0.9833
-0.8474 0.6248 -0.5766 0.9952
-0.9027 0.5484 -0.5785 0.9952
-1.0102 0.1928 -0.5633 0.9953
-1.0143 -0.1729 -0.5636 0.9953
-0.8605 -0.6086 -0.5773 0.9952
-0.8585 -3.5021 -1.9749 0.9837
-0.5424 -3.5633 -1.9741 0.9837
-0.2222 -3.5964 -1.9735 0.9837
0.0996 -3.6013 -1.9732 0.9837
1.0500 -3.4468 -1.9735 0.9837
1.3538 -3.3403 -1.9740 0.9837
2.1934 -2.8668 -1.9770 0.9837
2.4422 -2.6615 -1.9784 0.9837
2.6721 -2.4349 -1.9800 0.9836
2.8813 -2.1887 -1.9818 0.9836
3.0681 -1.9248 -1.9837 0.9836
3.2310 -1.6450 -1.9858 0.9836
3.5638 -0.7331 -1.9928 0.9835
3.6195 -0.4127 -1.9953 0.9835
3.6466 -0.0882 -1.9978 0.9835
3.6447 0.2378 -2.0005 0.9835
3.4652 1.1994 -2.0084 0.9834
3.3486 1.5057 -2.0109 0.9834
3.2049 1.8008 -2.0134 0.9834
3.0351 2.0821 -2.0159 0.9834
2.8404 2.3473 -2.0182 0.9833
2.6225 2.5942 -2.0204 0.9833
1.8469 3.2051 -2.0261 0.9833
1.5547 3.3597 -2.0276 0.9833
0.9339 3.5869 -2.0300 0.9832
0.2817 3.6985 -2.0316 0.9832
-0.0495 3.7097 -2.0320 0.9832
-1.3437 3.4567 -2.0312 0.9832
-2.2079 2.9729 -2.0282 0.9833
-2.4626 2.7621 -2.0268 0.9833
-1.0031 0.2214 -0.5626 0.9953
-1.0212 0.1313 -0.5639 0.9953
-1.0276 0.0396 -0.5632 0.9953
-0.9644 -0.4171 -0.5755 0.9952
-2.8290 -2.2705 -1.9868 0.9836
-2.6123 -2.5112 -1.9846 0.9836
-2.1202 -2.9298 -1.9808 0.9836
-0.3251 -3.5889 -1.9737 0.9837
-0.0035 -3.6028 -1.9733 0.9837
0.3180 -3.5884 -1.9731 0.9837
0.6369 -3.5457 -1.9731 0.9837
2.3645 -2.7296 -1.9779 0.9837
2.6006 -2.5097 -1.9795 0.9837
2.8166 -2.2696 -1.9812 0.9836
3.0108 -2.0111 -1.9831 0.9836
3.4472 -1.1456 -1.9896 0.9836
3.5399 -0.8345 -1.9920 0.9835
3.6411 -0.1924 -1.9970 0.9835
3.6268 0.4590 -2.0023 0.9835
3.4966 1.0993 -2.0075 0.9834
3.3890 1.4087 -2.0101 0.9834
3.2538 1.7077 -2.0126 0.9834
3.0922 1.9936 -2.0151 0.9834
2.9054 2.2642 -2.0175 0.9833
1.9374 3.1501 -2.0255 0.9833
1.3486 3.4494 -2.0285 0.9833
1.0360 3.5581 -2.0297 0.9832
0.3874 3.6886 -2.0314 0.9832
0.0567 3.7094 -2.0319 0.9832
-0.2746 3.7001 -2.0321 0.9832
-0.6036 3.6609 -2.0322 0.9832
-1.5506 3.3679 -2.0307 0.9832
-1.8441 3.2146 -2.0298 0.9832
-2.6243 2.6061 -2.0257 0.9833
-2.8439 2.3595 -2.0239 0.9833
-0.9950 0.2496 -0.5619 0.9953
-1.0167 0.1604 -0.5637 0.9953
-1.0267 0.0690 -0.5636 0.9953
-1.0073 -0.2052 -0.5630 0.9953
-0.9703 -0.3871 -0.5722 0.9952
-2.8938 -2.1894 -1.9875 0.9836
-2.2038 -2.8688 -1.9813 0.9836
-1.9373 -3.0513 -1.9796 0.9837
-1.6560 -3.2095 -1.9781 0.9837
-1.3621 -3.3422 -1.9767 0.9837
-0.7455 -3.5273 -1.9746 0.9837
0.2152 -3.5961 -1.9731 0.9837
0.5352 -3.5625 -1.9731 0.9837
0.8510 -3.5008 -1.9732 0.9837
1.4605 -3.2955 -1.9743 0.9837
2.0250 -2.9863 -1.9762 0.9837
2.2849 -2.7955 -1.9775 0.9837
2.9510 -2.0958 -1.9824 0.9836
3.2834 -1.5410 -1.9866 0.9836
3.5132 -0.9351 -1.9912 0.9836
3.5871 -0.6186 -1.9937 0.9835
3.6326 -0.2964 -1.9962 0.9835
3.6369 0.3549 -2.0014 0.9835
3.5252 0.9984 -2.0067 0.9834
3.3000 1.6132 -2.0118 0.9834
3.1468 1.9036 -2.0143 0.9834
2.9679 2.1794 -2.0167 0.9833
2.7647 2.4383 -2.0190 0.9833
1.7436 3.2637 -2.0266 0.9833
0.8184 3.6156 -2.0304 0.9832
0.4927 3.6757 -2.0312 0.9832
0.1628 3.7060 -2.0318 0.9832
-0.8247 3.6173 -2.0320 0.9832
-1.7516 3.2666 -2.0301 0.9832
-2.0351 3.0956 -2.0290 0.9832
-2.3017 2.8998 -2.0277 0.9833
-2.5493 2.6809 -2.0262 0.9833
-2.7761 2.4406 -2.0245 0.9833
-0.8497 0.6219 -0.5767 0.9952
-0.9481 0.4617 -0.5776 0.9952
-0.9730 0.3705 -0.5702 0.9953
-1.0109 0.1893 -0.5633 0.9953
-1.0247 0.0984 -0.5638 0.9953
-1.0272 0.0066 -0.5626 0.9953
-1.0136 -0.1764 -0.5635 0.9953
-0.9901 -0.2652 -0.5614 0.9953
-0.9749 -0.3570 -0.5687 0.9953
-0.9533 -0.4492 -0.5772 0.9952
-2.2857 -2.8054 -1.9819 0.9836
-1.7476 -3.1616 -1.9785 0.9837
-1.1563 -3.4173 -1.9759 0.9837
-0.2096 -3.5972 -1.9735 0.9837
0.1122 -3.6009 -1.9732 0.9837
0.7504 -3.5236 -1.9732 0.9837
2.4515 -2.6530 -1.9785 0.9837
2.8890 -2.1787 -1.9818 0.9836
3.2368 -1.6338 -1.9859 0.9836
3.3735 -1.3399 -1.9881 0.9836
3.5665 -0.7207 -1.9929 0.9835
3.6211 -0.4001 -1.9954 0.9835
3.6471 -0.0755 -1.9980 0.9835
3.5508 0.8967 -2.0058 0.9834
3.0279 2.0928 -2.0160 0.9834
2.3732 2.8292 -2.0225 0.9833
1.2374 3.4917 -2.0290 0.9832
0.2687 3.6995 -2.0316 0.9832
-0.3932 3.6895 -2.0322 0.9832
-0.7209 3.6395 -2.0321 0.9832
-1.0426 3.5601 -2.0318 0.9832
-1.6577 3.3159 -2.0304 0.9832
-1.9460 3.1532 -2.0294 0.9832
-2.4722 2.7534 -2.0267 0.9833
-2.7058 2.5198 -2.0251 0.9833
-2.9173 2.2662 -2.0233 0.9833
-0.8882 0.5707 -0.5782 0.9952
-0.9355 0.4891 -0.5782 0.9952
-1.0216 0.1277 -0.5639 0.9953
-1.0273 -0.0559 -0.5635 0.9953
-1.0188 -0.1474 -0.5638 0.9953
-0.9784 -0.3268 -0.5650 0.9953
-0.9635 -0.4208 -0.5759 0.9952
-2.3657 -2.7397 -1.9825 0.9836
-2.1099 -2.9371 -1.9807 0.9836
-1.8378 -3.1110 -1.9790 0.9837
-1.5517 -3.2602 -1.9776 0.9837
-0.9464 -3.4799 -1.9752 0.9837
-0.6318 -3.5489 -1.9743 0.9837
-0.3125 -3.5900 -1.9737 0.9837
0.0091 -3.6028 -1.9733 0.9837
0.3305 -3.5872 -1.9731 0.9837
0.6493 -3.5435 -1.9731 0.9837
0.9630 -3.4719 -1.9734 0.9837
1.5658 -3.2474 -1.9746 0.9837
3.5430 -0.8221 -1.9921 0.9835
3.6067 -0.5033 -1.9946 0.9835
3.6254 0.4717 -2.0024 0.9835
3.5735 0.7944 -2.0050 0.9834
3.3842 1.4206 -2.0102 0.9834
3.0854 2.0045 -2.0152 0.9834
2.6860 2.5268 -2.0198 0.9833
2.4524 2.7592 -2.0219 0.9833
1.6383 3.3189 -2.0272 0.9833
1.3365 3.4542 -2.0286 0.9833
1.0236 3.5617 -2.0297 0.9832
0.3745 3.6900 -2.0314 0.9832
0.0437 3.7096 -2.0319 0.9832
-0.2875 3.6991 -2.0321 0.9832
-0.6164 3.6587 -2.0321 0.9832
-0.9403 3.5887 -2.0319 0.9832
-1.2565 3.4897 -2.0314 0.9832
-1.5623 3.3624 -2.0307 0.9832
-1.8553 3.2081 -2.0298 0.9832
-2.1329 3.0280 -2.0286 0.9833
-2.6333 2.5969 -2.0256 0.9833
-2.8521 2.3495 -2.0239 0.9833
-0.8707 0.5953 -0.5777 0.9952
-0.9216 0.5160 -0.5785 0.9952
-0.9774 0.3366 -0.5662 0.9953
-0.9961 0.2462 -0.5620 0.9953
-1.0269 0.0654 -0.5636 0.9953
-1.0064 -0.2087 -0.5629 0.9953
-0.9806 -0.2967 -0.5611 0.9953
-2.8860 -2.1994 -1.9874 0.9836
-2.6753 -2.4455 -1.9852 0.9836
-2.4439 -2.6717 -1.9832 0.9836
-2.1937 -2.8764 -1.9813 0.9836
-1.3504 -3.3468 -1.9767 0.9837
-1.0457 -3.4520 -1.9755 0.9837
0.8632 -3.4978 -1.9733 0.9837
1.1722 -3.4076 -1.9737 0.9837
2.0355 -2.9793 -1.9763 0.9837
2.2947 -2.7876 -1.9775 0.9837
2.7580 -2.3391 -1.9807 0.9836
2.9585 -2.0855 -1.9825 0.9836
3.1359 -1.8150 -1.9845 0.9836
3.6338 -0.2837 -1.9963 0.9835
3.5218 1.0107 -2.0068 0.9834
0.4792 3.4826 -2.0296 0.9839
0.1666 3.5125 -2.0302 0.9839
-0.4605 3.4868 -2.0306 0.9839
-0.7697 3.4316 -2.0305 0.9839
-2.4081 2.5501 -2.0250 0.9839
-0.8717 0.4282 -0.5607 0.9955
-0.8995 0.3461 -0.5564 0.9956
-0.9545 0.0950 -0.5538 0.9956
-0.9573 0.0095 -0.5527 0.9956
-0.9449 -0.1610 -0.5534 0.9956
-0.9235 -0.2439 -0.5515 0.9956
-0.8792 -0.4106 -0.5602 0.9955
-2.4093 -2.4525 -1.9849 0.9842
-2.1788 -2.6552 -1.9830 0.9843
-1.3945 -3.1302 -1.9784 0.9843
-0.2109 -3.4143 -1.9750 0.9843
0.0945 -3.4189 -1.9747 0.9843
0.3992 -3.3966 -1.9745 0.9843
1.5636 -3.0449 -1.9762 0.9843
2.0821 -2.7213 -1.9783 0.9843
2.3182 -2.5264 -1.9796 0.9843
2.9119 -1.8268 -1.9846 0.9842
3.0663 -1.5612 -1.9866 0.9842
2.0360 -0.2322 -1.1831 0.9906
2.0263 0.3156 -1.1840 0.9906
1.9655 0.4891 -1.1694 0.9907
1.8915 0.6547 -1.1556 0.9908
1.8529 0.8332 -1.1730 0.9907
3.0394 1.7078 -2.0129 0.9840
2.4867 2.4599 -2.0194 0.9840
2.2594 2.6745 -2.0214 0.9840
2.0136 2.8680 -2.0232 0.9839
1.4739 3.1851 -2.0263 0.9839
1.1846 3.3060 -2.0275 0.9839
0.8853 3.4002 -2.0286 0.9839
0.2670 3.5060 -2.0300 0.9839
-0.0469 3.5165 -2.0304 0.9839
-0.3605 3.4986 -2.0306 0.9839
-0.6713 3.4524 -2.0305 0.9839
-1.2737 3.2767 -2.0297 0.9839
-1.5605 3.1489 -2.0290 0.9839
-1.8344 2.9956 -2.0280 0.9839
-2.3347 2.6186 -2.0255 0.9839
-0.8931 0.3733 -0.5588 0.9955
-0.9080 0.2874 -0.5499 0.9956
-0.9345 0.2062 -0.5525 0.9956
-0.9513 0.1223 -0.5538 0.9956
-0.9573 -0.0487 -0.5534 0.9956
-0.9496 -0.1340 -0.5537 0.9956
-0.9060 -0.2991 -0.5509 0.9956
-0.8891 -0.3846 -0.5593 0.9955
-0.8093 -0.5383 -0.5612 0.9955
-0.7681 -0.6165 -0.5686 0.9955
-2.2545 -2.5925 -1.9836 0.9843
-2.0124 -2.7809 -1.9819 0.9843
-1.7548 -2.9470 -1.9803 0.9843
-1.2015 -3.2077 -1.9776 0.9843
-0.6116 -3.3670 -1.9758 0.9843
-0.3086 -3.4071 -1.9751 0.9843
0.6046 -3.3662 -1.9746 0.9843
1.4756 -3.0880 -1.9759 0.9843
2.0030 -2.7792 -1.9779 0.9843
2.2444 -2.5911 -1.9792 0.9843
2.4685 -2.3822 -1.9806 0.9843
2.6734 -2.1542 -1.9822 0.9843
2.8576 -1.9088 -1.9840 0.9843
