ply
format ascii 1.0
element vertex 1596
property float32 x
property float32 y
property float32 z
property float32 I
end_header
6.4230 1.0235 -2.0005 0.9731
5.2457 2.9716 -1.8544 0.9751
4.6410 3.8625 -1.8572 0.9750
4.2809 4.2642 -1.8585 0.9750
3.4880 4.1580 -1.6693 0.9775
2.5247 5.5056 -1.8630 0.9750
0.9776 5.9850 -1.8653 0.9749
0.4398 6.0501 -1.8658 0.9749
-0.1018 6.0665 -1.8662 0.9749
-0.6467 6.0713 -1.8780 0.9748
-1.8454 6.3033 -2.0201 0.9729
-2.9357 5.8735 -2.0197 0.9729
-4.3826 4.8820 -2.0179 0.9729
-5.5111 3.5418 -2.0150 0.9730
-5.8017 3.0341 -2.0138 0.9730
-6.0454 2.5027 -2.0125 0.9730
-6.5198 0.2291 -2.0066 0.9731
-6.4464 -0.9319 -2.0034 0.9731
-5.9549 -2.5996 -1.9985 0.9732
-5.6947 -3.1181 -1.9970 0.9732
-5.3896 -3.6110 -1.9954 0.9732
-4.6552 -4.5050 -1.9925 0.9733
-4.2318 -4.8991 -1.9912 0.9733
-3.2897 -5.5665 -1.9888 0.9733
-2.7783 -5.8347 -1.9877 0.9733
-2.2456 -6.0565 -1.9868 0.9733
-1.6955 -6.2301 -1.9859 0.9733
0.0150 -6.4512 -1.9842 0.9734
1.1612 -6.3444 -1.9838 0.9734
3.7908 -5.2237 -1.9852 0.9734
5.0450 -4.0382 -1.9876 0.9733
5.6887 -3.0806 -1.9898 0.9733
5.9446 -2.5623 -1.9911 0.9733
6.1536 -2.0230 -1.9924 0.9733
6.4245 -0.8983 -1.9953 0.9732
6.4920 0.2583 -1.9984 0.9732
6.3529 1.4104 -2.0016 0.9731
6.2068 1.9732 -2.0032 0.9731
5.3812 2.8462 -1.8724 0.9748
4.7496 3.7259 -1.8567 0.9751
4.4013 4.1378 -1.8581 0.9750
4.0173 4.5171 -1.8593 0.9750
3.1544 5.1657 -1.8617 0.9750
2.6823 5.4295 -1.8627 0.9750
1.6761 5.8252 -1.8644 0.9750
0.6144 6.0343 -1.8656 0.9749
0.0735 6.0665 -1.8661 0.9749
-1.0855 6.4564 -2.0137 0.9730
-2.7650 5.9562 -2.0198 0.9729
-3.2847 5.6846 -2.0194 0.9729
-3.7778 5.3674 -2.0188 0.9729
-4.2402 5.0072 -2.0181 0.9729
-5.0583 4.1702 -2.0164 0.9729
-5.7127 3.2011 -2.0142 0.9730
-6.1827 2.1320 -2.0115 0.9730
-6.3438 1.5707 -2.0101 0.9730
-6.5121 0.4175 -2.0071 0.9731
-6.5182 -0.1651 -2.0055 0.9731
-6.4723 -0.7454 -2.0039 0.9731
-6.0291 -2.4271 -1.9990 0.9732
-5.4931 -3.4546 -1.9959 0.9732
-5.1590 -3.9280 -1.9944 0.9732
-4.3725 -4.7758 -1.9916 0.9733
-3.9264 -5.1435 -1.9903 0.9733
-3.4498 -5.4701 -1.9891 0.9733
-0.7464 -6.4098 -1.9848 0.9734
-0.1715 -6.4493 -1.9844 0.9734
0.4046 -6.4378 -1.9840 0.9734
0.9774 -6.3754 -1.9838 0.9734
1.5423 -6.2626 -1.9838 0.9734
2.6313 -5.8897 -1.9841 0.9734
3.1469 -5.6325 -1.9845 0.9734
4.4243 -4.0243 -1.9880 0.9751
5.3401 -2.7130 -1.9910 0.9751
6.0079 -0.1401 -1.9976 0.9750
6.0008 0.3968 -1.9991 0.9750
5.6942 1.9763 -2.0036 0.9749
5.4934 2.4757 -2.0029 0.9749
5.1085 2.8760 -1.9487 0.9756
4.5998 3.1612 -1.8553 0.9767
3.9701 3.9337 -1.8578 0.9767
3.4652 4.1086 -1.7866 0.9776
2.7913 4.8532 -1.8610 0.9767
2.3483 5.0854 -1.8619 0.9767
1.4082 5.4263 -1.8635 0.9766
-0.0793 5.6098 -1.8649 0.9766
-0.6239 6.0079 -2.0078 0.9749
-2.2046 5.6584 -2.0186 0.9747
-2.7003 5.4384 -2.0183 0.9747
-3.1741 5.1747 -2.0179 0.9747
-4.4269 4.1451 -2.0159 0.9748
-4.7769 3.7319 -2.0150 0.9748
-5.0883 3.2892 -2.0140 0.9748
-5.3586 2.8205 -2.0129 0.9748
-5.7675 1.8209 -2.0104 0.9748
-5.9031 1.2981 -2.0091 0.9748
-5.9912 0.7657 -2.0077 0.9749
-6.0313 0.2279 -2.0063 0.9749
-6.0232 -0.3109 -2.0048 0.9749
-5.9670 -0.8465 -2.0033 0.9749
-5.7129 -1.8908 -2.0003 0.9750
-5.2781 -2.8719 -1.9974 0.9750
-4.9972 -3.3290 -1.9959 0.9750
-4.6770 -3.7590 -1.9946 0.9750
-4.3201 -4.1586 -1.9932 0.9750
-3.9293 -4.5247 -1.9920 0.9751
-2.5865 -5.3950 -1.9888 0.9751
-0.5350 -5.9505 -1.9860 0.9751
0.5310 -5.9488 -1.9853 0.9751
1.5798 -5.7593 -1.9851 0.9751
2.0875 -5.5957 -1.9853 0.9751
3.0499 -5.1372 -1.9859 0.9751
3.4970 -4.8458 -1.9864 0.9751
3.9166 -4.5159 -1.9870 0.9751
4.3056 -4.1500 -1.9878 0.9751
4.9792 -3.3216 -1.9896 0.9751
5.2585 -2.8656 -1.9907 0.9751
5.6910 -1.8876 -1.9930 0.9750
5.9438 -0.8471 -1.9957 0.9750
5.9999 -0.3136 -1.9971 0.9750
6.0083 0.2232 -1.9986 0.9750
5.9689 0.7590 -2.0001 0.9750
5.7476 1.8105 -2.0031 0.9749
5.5672 2.3179 -2.0046 0.9749
5.3233 2.7976 -1.9990 0.9750
4.6882 3.0263 -1.8549 0.9768
3.7268 4.1682 -1.8586 0.9767
3.1135 4.1800 -1.7325 0.9783
2.9299 4.7697 -1.8607 0.9767
2.4939 5.0147 -1.8617 0.9767
1.5642 5.3827 -1.8633 0.9766
1.0781 5.5027 -1.8639 0.9766
0.5829 5.5785 -1.8644 0.9766
-0.4342 5.8114 -1.9371 0.9757
-0.9898 5.9837 -2.0161 0.9748
-2.0402 5.7199 -2.0187 0.9747
-2.5422 5.5144 -2.0184 0.9747
-3.4803 4.9726 -2.0176 0.9747
-3.9089 4.6408 -2.0169 0.9747
-4.3058 4.2719 -2.0162 0.9748
-4.6678 3.8690 -2.0153 0.9748
-4.9920 3.4354 -2.0143 0.9748
-5.2758 2.9747 -2.0133 0.9748
-5.8644 1.4685 -2.0095 0.9748
-5.9679 0.9387 -2.0082 0.9749
-6.0236 0.4022 -2.0067 0.9749
-5.9904 -0.6739 -2.0038 0.9749
-5.7665 -1.7253 -2.0008 0.9749
-5.5854 -2.2313 -1.9993 0.9750
-5.3601 -2.7188 -1.9978 0.9750
-3.2070 -5.0555 -1.9901 0.9751
-2.7418 -5.3188 -1.9891 0.9751
-2.2552 -5.5397 -1.9882 0.9751
-1.7512 -5.7165 -1.9874 0.9751
-1.2337 -5.8480 -1.9867 0.9751
-0.7068 -5.9330 -1.9861 0.9751
0.8894 -5.9056 -1.9852 0.9751
1.9249 -5.6535 -1.9852 0.9751
3.7841 -4.6267 -1.9868 0.9751
4.1833 -4.2721 -1.9875 0.9751
5.1726 -3.0158 -1.9903 0.9751
5.4241 -2.5437 -1.9914 0.9751
5.6329 -2.0508 -1.9926 0.9750
5.7971 -1.5410 -1.9939 0.9750
5.9155 -1.0183 -1.9953 0.9750
5.9869 0.5860 -1.9996 0.9750
5.6305 2.1555 -2.0041 0.9749
5.4070 2.6450 -2.0008 0.9749
4.1889 3.6963 -1.8570 0.9767
3.0660 4.6822 -1.8604 0.9767
2.1871 5.1578 -1.8622 0.9767
0.7438 5.5588 -1.8643 0.9766
-0.2579 5.6422 -1.8775 0.9765
-1.8741 5.7767 -2.0187 0.9747
-2.8703 5.3502 -2.0182 0.9747
-3.7736 4.7523 -2.0171 0.9747
-4.1811 4.3951 -2.0164 0.9748
-6.0109 0.5762 -2.0072 0.9749
-5.9357 -1.0340 -2.0028 0.9749
-5.6489 -2.0695 -1.9998 0.9750
-4.5550 -3.9037 -1.9941 0.9750
-4.1858 -4.2918 -1.9928 0.9750
-3.3524 -4.9616 -1.9904 0.9751
-2.8948 -5.2382 -1.9894 0.9751
-1.9159 -5.6643 -1.9876 0.9751
-1.4023 -5.8105 -1.9869 0.9751
0.1865 -5.9701 -1.9854 0.9751
2.2630 -5.5273 -1.9853 0.9751
2.7476 -5.3041 -1.9856 0.9751
3.2106 -5.0389 -1.9861 0.9751
5.0824 -3.1635 -1.9900 0.9751
5.3474 -2.6989 -1.9911 0.9751
5.5702 -2.2123 -1.9922 0.9751
5.7490 -1.7075 -1.9935 0.9750
5.8823 -1.1885 -1.9948 0.9750
5.9690 -0.6594 -1.9962 0.9750
6.0084 -0.1242 -1.9976 0.9750
5.9999 0.4127 -1.9991 0.9750
5.9435 0.9471 -2.0006 0.9749
5.4864 2.4901 -2.0027 0.9749
5.0855 2.8808 -1.9429 0.9757
4.2930 3.5729 -1.8566 0.9767
3.9597 3.9443 -1.8578 0.9767
1.8721 5.2820 -1.8628 0.9767
0.4067 5.5946 -1.8646 0.9766
-0.0941 5.6096 -1.8649 0.9766
-1.1796 5.9576 -2.0188 0.9747
-2.2195 5.6526 -2.0186 0.9747
-4.4378 4.1334 -2.0159 0.9748
-5.7722 1.8056 -2.0104 0.9748
-5.9064 1.2825 -2.0091 0.9748
-5.9931 0.7498 -2.0077 0.9749
-6.0318 0.2119 -2.0062 0.9749
-6.0222 -0.3269 -2.0048 0.9749
-5.9646 -0.8623 -2.0033 0.9749
-5.7077 -1.9058 -2.0003 0.9750
-5.5108 -2.4058 -1.9988 0.9750
-4.9883 -3.3421 -1.9959 0.9750
-3.0454 -5.1532 -1.9897 0.9751
-2.5722 -5.4018 -1.9888 0.9751
-2.0790 -5.6073 -1.9879 0.9751
-0.5193 -5.9519 -1.9859 0.9751
0.0139 -5.9733 -1.9855 0.9751
0.5467 -5.9474 -1.9853 0.9751
1.5950 -5.7551 -1.9851 0.9751
2.5931 -5.3810 -1.9855 0.9751
3.5098 -4.8366 -1.9864 0.9751
4.3166 -4.1386 -1.9878 0.9751
4.6707 -3.7385 -1.9887 0.9751
5.2662 -2.8517 -1.9907 0.9751
5.6960 -1.8725 -1.9931 0.9750
5.8442 -1.3577 -1.9944 0.9750
6.0009 -0.2977 -1.9972 0.9750
6.0079 0.2391 -1.9986 0.9750
5.8785 1.3051 -2.0016 0.9749
5.7429 1.8258 -2.0031 0.9749
4.3935 3.4466 -1.8562 0.9767
4.0712 3.8274 -1.8574 0.9767
3.7158 4.1781 -1.8586 0.9767
3.1051 4.1918 -1.7340 0.9783
2.9173 4.7775 -1.8607 0.9767
2.0237 5.2250 -1.8625 0.9767
1.5500 5.3869 -1.8633 0.9766
1.0635 5.5056 -1.8639 0.9766
0.5682 5.5800 -1.8644 0.9766
0.0680 5.6097 -1.8648 0.9766
-0.4509 5.8274 -1.9428 0.9757
-1.5373 5.8754 -2.0188 0.9747
-2.0553 5.7145 -2.0187 0.9747
-2.5567 5.5077 -2.0184 0.9747
-3.0374 5.2566 -2.0180 0.9747
-3.9211 4.6304 -2.0169 0.9747
-4.6780 3.8566 -2.0153 0.9748
-5.0010 3.4221 -2.0143 0.9748
-5.7188 1.9720 -2.0108 0.9748
-5.8681 1.4529 -2.0095 0.9748
-6.0245 0.3862 -2.0067 0.9749
-6.0306 -0.1527 -2.0052 0.9749
-5.8986 -1.2204 -2.0022 0.9749
-5.7618 -1.7405 -2.0007 0.9749
-4.4286 -4.0445 -1.9936 0.9750
-4.0475 -4.4207 -1.9924 0.9751
-3.6347 -4.7614 -1.9912 0.9751
-2.2405 -5.5456 -1.9881 0.9751
-1.2182 -5.8512 -1.9867 0.9751
0.3747 -5.9609 -1.9854 0.9751
0.9050 -5.9032 -1.9852 0.9751
1.4280 -5.7987 -1.9851 0.9751
1.9398 -5.6484 -1.9852 0.9751
2.4364 -5.4534 -1.9854 0.9751
2.9137 -5.2151 -1.9858 0.9751
4.1947 -4.2610 -1.9875 0.9751
4.5600 -3.8714 -1.9884 0.9751
4.4339 -3.3619 -1.9898 0.9766
4.7184 -2.9542 -1.9908 0.9766
4.9657 -2.5227 -1.9918 0.9766
5.1738 -2.0707 -1.9929 0.9766
5.3411 -1.6018 -1.9940 0.9766
5.4661 -1.1195 -1.9953 0.9766
5.5477 -0.6277 -1.9966 0.9766
5.5785 0.3689 -1.9993 0.9765
5.4316 1.3564 -2.0020 0.9765
5.2926 1.8369 -2.0034 0.9765
5.1111 2.3035 -2.0048 0.9765
4.8764 2.7454 -2.0012 0.9765
3.6891 3.6554 -1.8572 0.9782
2.5935 4.5092 -1.8602 0.9781
1.3083 5.0412 -1.8625 0.9781
0.3916 5.1963 -1.8635 0.9781
-0.0769 5.4410 -1.9459 0.9771
-2.0480 5.2566 -2.0174 0.9763
-3.3651 4.5239 -2.0163 0.9763
-3.7542 4.2043 -2.0156 0.9763
-4.7277 3.0561 -2.0131 0.9764
-4.9790 2.6207 -2.0121 0.9764
-5.4856 1.2063 -2.0086 0.9764
-5.5678 0.7116 -2.0073 0.9764
-5.5981 -0.2890 -2.0046 0.9765
-5.5461 -0.7868 -2.0032 0.9765
-5.4500 -1.2776 -2.0018 0.9765
-4.9069 -2.6699 -1.9977 0.9765
-4.6460 -3.0950 -1.9963 0.9766
-4.3485 -3.4950 -1.9951 0.9766
-4.0169 -3.8667 -1.9938 0.9766
-2.8447 -4.7847 -1.9906 0.9766
-1.4742 -5.3606 -1.9882 0.9767
-0.9896 -5.4691 -1.9876 0.9767
-0.4976 -5.5342 -1.9871 0.9767
-0.0018 -5.5555 -1.9867 0.9767
0.4939 -5.5328 -1.9864 0.9767
1.4693 -5.3566 -1.9863 0.9767
1.9415 -5.2044 -1.9864 0.9767
2.3985 -5.0110 -1.9866 0.9767
2.8365 -4.7778 -1.9870 0.9767
3.6425 -4.1998 -1.9881 0.9767
4.0041 -3.8594 -1.9888 0.9767
4.3343 -3.4881 -1.9896 0.9766
4.6303 -3.0889 -1.9905 0.9766
4.8899 -2.6647 -1.9914 0.9766
5.2915 -1.7551 -1.9937 0.9766
5.4303 -1.2767 -1.9949 0.9766
5.5486 0.7055 -2.0002 0.9765
5.4673 1.1986 -2.0016 0.9765
5.3423 1.6829 -2.0030 0.9765
4.9579 2.6055 -2.0029 0.9765
4.0913 3.1920 -1.8557 0.9782
3.1053 4.1690 -1.8590 0.9782
2.7223 4.4317 -1.8599 0.9781
2.3171 4.6591 -1.8608 0.9781
1.4532 5.0008 -1.8623 0.9781
1.0015 5.1121 -1.8629 0.9781
-0.4191 5.6097 -2.0117 0.9764
-0.9207 5.5661 -2.0175 0.9763
-1.4137 5.4619 -2.0176 0.9763
-2.8088 4.8908 -2.0169 0.9763
-3.2333 4.6196 -2.0164 0.9763
-3.6315 4.3114 -2.0159 0.9763
-4.0004 3.9688 -2.0152 0.9763
-4.3368 3.5946 -2.0144 0.9764
-4.6382 3.1919 -2.0134 0.9764
-4.9020 2.7639 -2.0125 0.9764
-5.4496 1.3646 -2.0090 0.9764
-5.5461 0.8724 -2.0077 0.9764
-5.5981 0.3738 -2.0064 0.9764
-5.6054 -0.1271 -2.0050 0.9765
-5.4859 -1.1199 -2.0023 0.9765
-5.3603 -1.6038 -2.0009 0.9765
-4.9831 -2.5275 -1.9981 0.9765
-4.4486 -3.3686 -1.9955 0.9766
-4.1277 -3.7497 -1.9942 0.9766
-3.3916 -4.4186 -1.9919 0.9766
-2.9823 -4.7012 -1.9909 0.9766
-1.1474 -5.4387 -1.9877 0.9767
-0.6573 -5.5180 -1.9872 0.9767
0.3338 -5.5450 -1.9865 0.9767
1.7903 -5.2582 -1.9864 0.9767
3.8905 -3.9730 -1.9885 0.9767
4.2311 -3.6114 -1.9893 0.9766
4.5384 -3.2209 -1.9902 0.9766
5.0437 -2.3653 -1.9922 0.9766
5.2376 -1.9069 -1.9933 0.9766
5.3901 -1.4328 -1.9945 0.9766
5.4999 -0.9467 -1.9957 0.9766
5.5661 -0.4525 -1.9970 0.9766
5.5654 0.5448 -1.9997 0.9765
5.4984 1.0399 -2.0011 0.9765
5.3875 1.5275 -2.0025 0.9765
5.2333 2.0035 -2.0039 0.9765
5.0354 2.4633 -2.0046 0.9765
4.7833 2.8953 -1.9995 0.9765
4.1918 3.0798 -1.8601 0.9781
3.8926 3.4348 -1.8565 0.9782
2.8488 4.3505 -1.8596 0.9782
2.4504 4.5895 -1.8605 0.9781
1.1487 5.0805 -1.8627 0.9781
0.6910 5.1642 -1.8632 0.9781
-0.2562 5.6054 -2.0066 0.9764
-1.7410 5.3664 -2.0175 0.9763
-2.2127 5.1891 -2.0173 0.9763
-3.0987 4.7115 -2.0166 0.9763
-4.5447 3.3251 -2.0137 0.9764
-5.2548 1.9996 -2.0106 0.9764
-5.4090 1.5218 -2.0094 0.9764
-5.5862 0.5355 -2.0068 0.9764
-5.5848 -0.4653 -2.0041 0.9765
-5.5172 -0.9611 -2.0027 0.9765
-5.4057 -1.4485 -2.0013 0.9765
-5.2512 -1.9238 -1.9999 0.9765
-4.8191 -2.8227 -1.9972 0.9766
-3.8921 -3.9906 -1.9934 0.9766
-3.1174 -4.6138 -1.9912 0.9766
0.1734 -5.5525 -1.9866 0.9767
0.6681 -5.5143 -1.9864 0.9767
1.1574 -5.4325 -1.9863 0.9767
1.6376 -5.3076 -1.9863 0.9767
2.1048 -5.1407 -1.9865 0.9767
2.5555 -4.9331 -1.9868 0.9767
3.3931 -4.4024 -1.9877 0.9767
3.7736 -4.0833 -1.9883 0.9767
4.4428 -3.3502 -1.9899 0.9766
4.7262 -2.9418 -1.9908 0.9766
4.9724 -2.5096 -1.9918 0.9766
5.1794 -2.0571 -1.9929 0.9766
5.4691 -1.1051 -1.9953 0.9766
5.5858 -0.1155 -1.9979 0.9765
5.5776 0.3836 -1.9993 0.9765
5.4281 1.3708 -2.0021 0.9765
5.2878 1.8510 -2.0035 0.9765
4.8688 2.7581 -2.0011 0.9765
4.3750 3.0237 -1.9018 0.9777
3.9894 3.3202 -1.8561 0.9782
3.3397 3.9812 -1.8583 0.9782
2.9728 4.2656 -1.8593 0.9782
2.5816 4.5161 -1.8602 0.9781
1.2949 5.0447 -1.8625 0.9781
0.3778 5.1973 -1.8635 0.9781
-1.0958 5.5344 -2.0176 0.9763
-2.5219 5.0455 -2.0171 0.9763
-4.1230 3.8402 -2.0149 0.9763
-4.4473 3.4555 -2.0140 0.9764
-4.9858 2.6075 -2.0121 0.9764
-5.1958 2.1510 -2.0110 0.9764
-5.4887 1.1918 -2.0085 0.9764
-5.5696 0.6969 -2.0073 0.9764
-5.5972 -0.3038 -2.0045 0.9765
-5.3058 -1.7716 -2.0004 0.9765
-5.1230 -2.2365 -1.9990 0.9765
-3.2499 -4.5226 -1.9916 0.9766
-1.4600 -5.3645 -1.9881 0.9767
-0.9752 -5.4717 -1.9875 0.9767
-0.4829 -5.5355 -1.9871 0.9767
1.0000 -5.4637 -1.9863 0.9767
1.4835 -5.3526 -1.9863 0.9767
2.4117 -5.0046 -1.9867 0.9767
2.8492 -4.7703 -1.9870 0.9767
3.2642 -4.4982 -1.9875 0.9767
3.6536 -4.1902 -1.9881 0.9767
4.0144 -3.8488 -1.9888 0.9767
4.3435 -3.4767 -1.9896 0.9766
4.6385 -3.0766 -1.9905 0.9766
5.1168 -2.2055 -1.9925 0.9766
5.4338 -1.2624 -1.9949 0.9766
5.5283 -0.7730 -1.9962 0.9766
5.5789 -0.2768 -1.9975 0.9766
5.5468 0.7202 -2.0002 0.9765
5.4642 1.2131 -2.0016 0.9765
5.3379 1.6970 -2.0030 0.9765
5.1688 2.1681 -2.0044 0.9765
4.5776 2.9720 -1.9517 0.9771
4.0829 3.2029 -1.8557 0.9782
3.4527 3.8823 -1.8580 0.9782
3.0943 4.1772 -1.8590 0.9782
2.3048 4.6653 -1.8608 0.9781
1.8801 4.8544 -1.8616 0.9781
1.4400 5.0046 -1.8623 0.9781
0.9880 5.1148 -1.8629 0.9781
0.0645 5.3173 -1.9017 0.9777
-1.4281 5.4581 -2.0176 0.9763
-1.9094 5.3086 -2.0175 0.9763
-2.8217 4.8833 -2.0169 0.9763
-3.6429 4.3018 -2.0158 0.9763
-5.3141 1.8325 -2.0102 0.9764
-5.5990 0.3590 -2.0064 0.9764
-5.5660 -0.6411 -2.0036 0.9765
-5.4828 -1.1344 -2.0022 0.9765
-4.9763 -2.5407 -1.9981 0.9765
-4.7265 -2.9726 -1.9967 0.9766
-4.1177 -3.7606 -1.9942 0.9766
-3.7635 -4.1106 -1.9930 0.9766
-3.3798 -4.4275 -1.9919 0.9766
-2.9698 -4.7090 -1.9909 0.9766
-1.6145 -5.3206 -1.9884 0.9767
-1.1330 -5.4417 -1.9877 0.9767
0.3485 -5.5440 -1.9865 0.9767
1.8042 -5.2534 -1.9864 0.9767
2.7099 -4.8504 -1.9869 0.9767
3.1326 -4.5902 -1.9873 0.9767
4.1392 -3.1385 -1.9906 0.9780
4.4046 -2.7578 -1.9915 0.9780
4.6354 -2.3549 -1.9924 0.9780
4.8295 -1.9329 -1.9935 0.9780
4.9854 -1.4951 -1.9946 0.9780
5.1019 -1.0449 -1.9957 0.9779
5.1779 -0.5859 -1.9969 0.9779
5.2061 0.3442 -1.9994 0.9779
4.7691 2.1493 -2.0046 0.9778
3.8257 3.1668 -1.9032 0.9790
3.1253 3.7057 -1.8577 0.9794
2.0352 4.4072 -1.8603 0.9794
1.2203 4.7021 -1.8616 0.9794
-1.0084 5.1645 -2.0165 0.9777
-1.4652 5.0539 -2.0165 0.9777
-3.1387 4.2195 -2.0153 0.9777
-4.1399 3.2343 -2.0132 0.9777
-4.6447 2.4447 -2.0114 0.9778
-5.1948 0.6639 -2.0069 0.9778
-5.2300 0.1976 -2.0057 0.9778
-4.7867 -2.0746 -1.9992 0.9779
-4.5796 -2.4918 -1.9979 0.9779
-2.2455 -4.6837 -1.9905 0.9780
-1.3763 -5.0047 -1.9891 0.9780
-0.0017 -5.1869 -1.9877 0.9780
0.4611 -5.1657 -1.9875 0.9780
0.9201 -5.1036 -1.9873 0.9780
1.8127 -4.8591 -1.9874 0.9780
2.2393 -4.6784 -1.9877 0.9780
2.6483 -4.4607 -1.9880 0.9780
3.7381 -3.6030 -1.9896 0.9780
4.0462 -3.2563 -1.9904 0.9780
4.5647 -2.4875 -1.9921 0.9780
4.7708 -2.0713 -1.9931 0.9780
4.9392 -1.6382 -1.9942 0.9780
5.0686 -1.1917 -1.9953 0.9779
5.1578 -0.7351 -1.9965 0.9779
5.2060 -0.2721 -1.9978 0.9779
5.2128 0.1936 -1.9990 0.9779
5.1781 0.6584 -2.0003 0.9779
5.1020 1.1185 -2.0016 0.9779
4.6325 2.4345 -2.0055 0.9778
3.9895 3.1126 -1.9391 0.9786
3.5381 3.3087 -1.8564 0.9795
2.8968 3.8890 -1.8583 0.9794
1.7657 4.5233 -1.8608 0.9794
1.3555 4.6644 -1.8614 0.9794
0.5145 4.9242 -1.8973 0.9790
0.0774 5.2415 -2.0088 0.9778
-0.3917 5.2425 -2.0146 0.9777
-1.3185 5.0942 -2.0165 0.9777
-2.2027 4.7780 -2.0162 0.9777
-3.0157 4.3088 -2.0155 0.9777
-3.3872 4.0214 -2.0149 0.9777
-3.7313 3.7019 -2.0143 0.9777
-4.0453 3.3530 -2.0135 0.9777
-4.5728 2.5783 -2.0117 0.9778
-4.7822 2.1589 -2.0107 0.9778
-4.9531 1.7227 -2.0097 0.9778
-5.2232 0.3487 -2.0061 0.9778
-5.2302 -0.1186 -2.0048 0.9778
-5.0023 -1.4967 -2.0009 0.9779
-4.8456 -1.9358 -1.9996 0.9779
-4.6506 -2.3589 -1.9984 0.9779
-3.8528 -3.5000 -1.9947 0.9779
-3.1660 -4.1247 -1.9926 0.9780
-1.5204 -4.9633 -1.9893 0.9780
0.3117 -5.1770 -1.9875 0.9780
1.2267 -5.0387 -1.9873 0.9780
2.1031 -4.7410 -1.9876 0.9780
2.5181 -4.5351 -1.9879 0.9780
3.6321 -3.7091 -1.9894 0.9780
4.2368 -3.0068 -1.9909 0.9780
4.7082 -2.2079 -1.9928 0.9780
5.0311 -1.3374 -1.9950 0.9779
5.1334 -0.8836 -1.9961 0.9779
5.1949 -0.4223 -1.9973 0.9779
5.2151 0.0429 -1.9986 0.9779
5.1311 0.9704 -2.0012 0.9779
5.0273 1.4253 -2.0025 0.9779
4.8832 1.8694 -2.0038 0.9779
4.7000 2.2992 -2.0051 0.9778
4.1656 3.0606 -1.9809 0.9781
3.3330 3.5177 -1.8571 0.9795
3.0074 3.8031 -1.8580 0.9794
1.4895 4.6228 -1.8612 0.9794
1.0715 4.7388 -1.8618 0.9794
0.6456 4.8250 -1.8655 0.9794
-0.2398 5.2466 -2.0127 0.9778
-1.1708 5.1301 -2.0165 0.9777
-2.0638 4.8398 -2.0163 0.9777
-3.9472 3.4689 -2.0138 0.9777
-4.2393 3.1016 -2.0129 0.9778
-4.7186 2.2966 -2.0111 0.9778
-4.9021 1.8654 -2.0100 0.9778
-5.1498 0.9633 -2.0077 0.9778
-5.2120 0.4996 -2.0065 0.9778
-5.2112 -0.4342 -2.0039 0.9778
-5.0445 -1.3518 -2.0013 0.9779
-4.7178 -2.2240 -1.9988 0.9779
-4.4977 -2.6344 -1.9975 0.9779
-3.9531 -3.3879 -1.9951 0.9779
-3.2844 -4.0321 -1.9929 0.9780
-2.9101 -4.3070 -1.9919 0.9780
-2.5130 -4.5474 -1.9910 0.9780
-2.0964 -4.7515 -1.9902 0.9780
-1.6634 -4.9178 -1.9895 0.9780
-0.7624 -5.1322 -1.9883 0.9780
-0.3013 -5.1787 -1.9879 0.9780
0.1619 -5.1841 -1.9876 0.9780
0.6238 -5.1484 -1.9874 0.9780
1.0806 -5.0720 -1.9873 0.9780
1.5289 -4.9555 -1.9874 0.9780
2.3859 -4.6057 -1.9878 0.9780
2.7878 -4.3753 -1.9881 0.9780
3.1679 -4.1101 -1.9886 0.9780
3.5230 -3.8121 -1.9892 0.9780
4.4120 -2.7462 -1.9915 0.9780
4.6416 -2.3427 -1.9925 0.9780
4.8347 -1.9202 -1.9935 0.9780
4.9894 -1.4819 -1.9946 0.9780
5.1047 -1.0314 -1.9958 0.9779
5.1795 -0.5722 -1.9970 0.9779
5.2131 -0.1078 -1.9982 0.9779
5.1559 0.8216 -2.0008 0.9779
4.7634 2.1620 -2.0047 0.9778
3.8112 3.1719 -1.9002 0.9790
3.4327 3.4193 -1.8567 0.9795
3.1156 3.7140 -1.8577 0.9794
2.7731 3.9792 -1.8587 0.9794
2.4081 4.2127 -1.8595 0.9794
2.0235 4.4126 -1.8603 0.9794
1.6223 4.5773 -1.8610 0.9794
1.2078 4.7054 -1.8616 0.9794
0.3664 5.0407 -1.9368 0.9786
-1.0220 5.1618 -2.0165 0.9777
-1.9231 4.8976 -2.0164 0.9777
-2.7622 4.4764 -2.0157 0.9777
-3.5120 3.9122 -2.0147 0.9777
-4.4176 2.8390 -2.0123 0.9778
-4.6510 2.4324 -2.0114 0.9778
-4.8470 2.0066 -2.0104 0.9778
-5.0040 1.5653 -2.0093 0.9778
-5.1208 1.1119 -2.0081 0.9778
-5.1964 0.6502 -2.0069 0.9778
-5.1732 -0.7479 -2.0031 0.9779
-5.0825 -1.2057 -2.0018 0.9779
-4.3286 -2.9001 -1.9967 0.9779
-4.0501 -3.2728 -1.9955 0.9779
-3.7398 -3.6191 -1.9943 0.9780
-3.4001 -3.9362 -1.9933 0.9780
-2.2331 -4.6896 -1.9905 0.9780
-1.8050 -4.8683 -1.9897 0.9780
-1.3630 -5.0082 -1.9891 0.9780
-0.9104 -5.1084 -1.9885 0.9780
-0.4509 -5.1681 -1.9880 0.9780
0.0121 -5.1868 -1.9877 0.9780
0.4748 -5.1644 -1.9875 0.9780
0.9336 -5.1012 -1.9873 0.9780
2.2517 -4.6725 -1.9877 0.9780
3.4110 -3.9120 -1.9890 0.9780
4.3302 -2.8721 -1.9912 0.9780
4.5713 -2.4754 -1.9922 0.9780
4.7763 -2.0587 -1.9932 0.9780
4.9436 -1.6252 -1.9942 0.9780
5.0718 -1.1783 -1.9954 0.9779
5.1598 -0.7215 -1.9966 0.9779
5.2068 -0.2583 -1.9978 0.9779
5.2124 0.2074 -1.9991 0.9779
5.1764 0.6721 -2.0003 0.9779
4.9810 1.5835 -2.0029 0.9779
4.8229 2.0230 -2.0042 0.9778
4.6261 2.4468 -2.0055 0.9778
4.3811 2.8445 -2.0017 0.9779
3.5294 3.3181 -1.8564 0.9795
2.8865 3.8967 -1.8584 0.9794
1.3432 4.6680 -1.8615 0.9794
0.9216 4.7707 -1.8620 0.9794
0.5024 4.9338 -1.9005 0.9790
0.0636 5.2421 -2.0090 0.9778
-0.4056 5.2419 -2.0148 0.9777
-1.7808 4.9513 -2.0164 0.9777
-2.2153 4.7721 -2.0162 0.9777
-2.6318 4.5547 -2.0159 0.9777
-4.0541 3.3422 -2.0135 0.9777
-4.3343 2.9659 -2.0126 0.9778
-4.5795 2.5662 -2.0117 0.9778
-5.0875 1.2597 -2.0085 0.9778
-5.2298 -0.1325 -2.0048 0.9778
-5.1937 -0.5982 -2.0035 0.9779
-5.1163 -1.0585 -2.0022 0.9779
-4.9982 -1.5099 -2.0009 0.9779
-4.4114 -2.7744 -1.9971 0.9779
-4.1438 -3.1550 -1.9959 0.9779
-3.5130 -3.8370 -1.9936 0.9780
-2.3680 -4.6237 -1.9907 0.9780
-1.9452 -4.8146 -1.9899 0.9780
-1.5073 -4.9673 -1.9893 0.9780
-0.6001 -5.1533 -1.9882 0.9780
-0.1378 -5.1853 -1.9878 0.9780
0.7858 -5.1261 -1.9874 0.9780
1.6845 -4.9049 -1.9874 0.9780
2.5301 -4.5285 -1.9879 0.9780
3.2962 -4.0085 -1.9888 0.9780
3.6419 -3.6996 -1.9894 0.9780
3.9589 -3.3611 -1.9901 0.9780
3.5980 -3.2727 -1.9906 0.9792
4.1256 -2.5831 -1.9922 0.9792
4.3415 -2.2056 -1.9930 0.9792
4.5232 -1.8102 -1.9940 0.9792
4.8297 0.7565 -2.0008 0.9791
4.6240 1.6049 -2.0032 0.9791
4.4650 2.0123 -2.0044 0.9791
4.0361 2.7738 -2.0044 0.9791
3.7663 3.1177 -2.0011 0.9791
2.9369 3.4823 -1.8644 0.9805
2.6056 3.7177 -1.8581 0.9806
2.2645 3.9371 -1.8589 0.9806
1.9049 4.1251 -1.8596 0.9806
1.5298 4.2801 -1.8603 0.9805
1.1527 4.4416 -1.8780 0.9804
0.7806 4.7004 -1.9501 0.9796
-0.0695 4.9198 -2.0137 0.9790
-0.5087 4.8981 -2.0155 0.9789
-1.3712 4.7299 -2.0156 0.9789
-1.7877 4.5884 -2.0154 0.9789
-2.5741 4.1964 -2.0149 0.9789
-3.5907 3.3622 -2.0132 0.9790
-3.8749 3.0273 -2.0125 0.9790
-4.3476 2.2884 -2.0108 0.9790
-4.5323 1.8904 -2.0098 0.9790
-4.6805 1.4777 -2.0088 0.9790
-1.9324 0.0730 -0.7914 0.9917
-1.9419 -0.1003 -0.7958 0.9916
-1.9459 -0.2761 -0.8044 0.9915
-4.4823 -1.9426 -1.9994 0.9791
-4.0609 -2.7052 -1.9970 0.9791
-3.5115 -3.3803 -1.9948 0.9792
-3.1943 -3.6782 -1.9938 0.9792
-2.8520 -3.9467 -1.9929 0.9792
-2.1033 -4.3871 -1.9912 0.9792
-1.7028 -4.5556 -1.9905 0.9792
-0.4352 -4.8401 -1.9889 0.9792
-0.0016 -4.8588 -1.9886 0.9792
0.8619 -4.7809 -1.9883 0.9792
1.6981 -4.5518 -1.9883 0.9792
2.0977 -4.3826 -1.9885 0.9792
2.4807 -4.1786 -1.9889 0.9792
2.8443 -3.9414 -1.9893 0.9792
3.1854 -3.6728 -1.9898 0.9792
3.7900 -3.0501 -1.9911 0.9792
4.2754 -2.3298 -1.9927 0.9792
4.4683 -1.9400 -1.9937 0.9792
4.6259 -1.5343 -1.9947 0.9792
4.8752 -0.2548 -1.9980 0.9791
4.8814 0.1813 -1.9992 0.9791
4.8486 0.6165 -2.0004 0.9791
4.1170 2.6576 -2.0056 0.9790
3.4875 3.2614 -1.9542 0.9796
3.0659 3.4290 -1.8826 0.9803
1.2707 4.3725 -1.8636 0.9805
0.0726 4.9158 -2.0121 0.9790
-0.3669 4.9106 -2.0154 0.9789
-0.8037 4.8586 -2.0155 0.9789
-1.2340 4.7676 -2.0156 0.9789
-1.6544 4.6383 -2.0155 0.9789
-2.4519 4.2693 -2.0150 0.9789
-3.4924 3.4649 -2.0135 0.9790
-4.0496 2.7869 -2.0120 0.9790
-4.2803 2.4134 -2.0111 0.9790
-4.6366 1.6126 -2.0091 0.9790
-1.9503 0.1302 -0.8000 0.9916
-4.7932 -0.9785 -2.0022 0.9791
-4.5375 -1.8127 -1.9998 0.9791
-3.2998 -3.5850 -1.9942 0.9792
-2.9653 -3.8632 -1.9932 0.9792
-2.2295 -4.3250 -1.9915 0.9792
-1.0034 -4.7564 -1.9895 0.9792
-0.1420 -4.8570 -1.9887 0.9792
0.2919 -4.8496 -1.9884 0.9792
0.7234 -4.8039 -1.9883 0.9792
1.1492 -4.7201 -1.9882 0.9792
1.5658 -4.5988 -1.9883 0.9792
2.3588 -4.2483 -1.9887 0.9792
3.6999 -3.1580 -1.9909 0.9792
3.9684 -2.8163 -1.9916 0.9792
4.2056 -2.4521 -1.9925 0.9792
4.5789 -1.6671 -1.9944 0.9792
4.7118 -1.2525 -1.9954 0.9791
4.8649 -0.3955 -1.9976 0.9791
4.8836 0.0402 -1.9988 0.9791
4.4003 2.1526 -2.0049 0.9791
3.9441 2.8978 -2.0031 0.9791
2.4874 3.7987 -1.8584 0.9806
1.7741 4.1837 -1.8599 0.9806
0.6418 4.7963 -1.9805 0.9793
-0.2248 4.9190 -2.0153 0.9789
-0.6629 4.8798 -2.0155 0.9789
-1.0957 4.8013 -2.0156 0.9789
-2.3276 4.3386 -2.0151 0.9789
-2.7050 4.1129 -2.0147 0.9789
-3.0604 3.8542 -2.0142 0.9790
-3.6945 3.2468 -2.0130 0.9790
-3.9680 2.9031 -2.0122 0.9790
-4.2094 2.5364 -2.0114 0.9790
-4.4169 2.1497 -2.0105 0.9790
-2.1971 0.4110 -0.9148 0.9904
-4.7234 -1.2657 -2.0014 0.9791
-4.2119 -2.4670 -1.9978 0.9791
-3.7022 -3.1728 -1.9955 0.9791
-3.0761 -3.7765 -1.9935 0.9792
-1.9636 -4.4507 -1.9910 0.9792
-1.1406 -4.7258 -1.9897 0.9792
-0.7141 -4.8075 -1.9892 0.9792
0.1517 -4.8562 -1.9885 0.9792
0.5843 -4.8229 -1.9883 0.9792
1.4322 -4.6421 -1.9883 0.9792
2.6115 -4.0985 -1.9890 0.9792
4.1324 -2.5722 -1.9922 0.9792
4.5280 -1.7985 -1.9940 0.9792
4.6729 -1.3879 -1.9951 0.9792
4.7806 -0.9659 -1.9961 0.9791
4.8505 -0.5358 -1.9973 0.9791
4.8742 0.3353 -1.9996 0.9791
4.8278 0.7693 -2.0008 0.9791
4.6198 1.6171 -2.0033 0.9791
4.4598 2.0241 -2.0045 0.9791
3.7579 3.1275 -2.0010 0.9791
2.5958 3.7247 -1.8581 0.9806
1.8940 4.1302 -1.8596 0.9806
1.5185 4.2842 -1.8603 0.9805
1.1419 4.4485 -1.8797 0.9803
0.3559 4.8959 -2.0090 0.9790
-0.0825 4.9200 -2.0139 0.9790
-1.7998 4.5837 -2.0154 0.9789
-2.2014 4.4043 -2.0152 0.9789
-4.1349 2.6574 -2.0117 0.9790
-4.5372 1.8784 -2.0098 0.9790
-4.6843 1.4653 -2.0088 0.9790
-4.7938 1.0409 -2.0077 0.9790
-1.9528 0.2443 -0.8055 0.9915
-1.9304 0.0678 -0.7905 0.9917
-4.7589 -1.1289 -2.0018 0.9791
-4.6364 -1.5481 -2.0005 0.9791
-4.4771 -1.9545 -1.9993 0.9791
-4.0536 -2.7159 -1.9970 0.9791
-3.7930 -3.0651 -1.9959 0.9791
-3.5025 -3.3895 -1.9948 0.9792
-3.1845 -3.6866 -1.9938 0.9792
-2.8415 -3.9542 -1.9929 0.9792
-2.4762 -4.1901 -1.9920 0.9792
-2.0917 -4.3926 -1.9912 0.9792
0.4447 -4.8379 -1.9884 0.9792
0.8746 -4.7786 -1.9882 0.9792
1.2975 -4.6815 -1.9882 0.9792
1.7101 -4.5473 -1.9883 0.9792
2.1093 -4.3770 -1.9886 0.9792
2.4918 -4.1720 -1.9889 0.9792
2.8547 -3.9339 -1.9893 0.9792
4.0558 -2.6902 -1.9919 0.9792
4.6300 -1.5221 -1.9947 0.9792
4.8809 0.1942 -1.9992 0.9791
4.6637 1.4827 -2.0029 0.9791
4.5155 1.8940 -2.0041 0.9791
4.1098 2.6683 -2.0055 0.9790
2.3668 3.8758 -1.8586 0.9806
0.8929 4.6224 -1.9268 0.9799
0.4969 4.8799 -2.0076 0.9790
-0.3799 4.9097 -2.0154 0.9789
-1.2466 4.7643 -2.0156 0.9789
-1.6667 4.6339 -2.0155 0.9789
-3.5015 3.4556 -2.0134 0.9790
-3.7946 3.1283 -2.0127 0.9790
-4.2866 2.4020 -2.0111 0.9790
-4.4818 2.0090 -2.0101 0.9790
-4.7626 1.1792 -2.0081 0.9790
-1.9944 0.3083 -0.8260 0.9913
-1.9223 -0.0487 -0.7870 0.9917
-4.7905 -0.9911 -2.0022 0.9791
-4.6801 -1.4138 -2.0009 0.9791
-4.5326 -1.8246 -1.9997 0.9791
-4.1312 -2.5981 -1.9974 0.9791
-3.8807 -2.9547 -1.9962 0.9791
-3.2902 -3.5936 -1.9941 0.9792
-2.5967 -4.1174 -1.9923 0.9792
-0.1291 -4.8573 -1.9887 0.9792
0.3048 -4.8488 -1.9884 0.9792
1.1616 -4.7170 -1.9882 0.9792
1.9818 -4.4360 -1.9885 0.9792
3.4114 -3.4654 -1.9902 0.9792
3.6421 -2.7615 -1.9920 0.9803
3.8755 -2.4265 -1.9927 0.9802
4.2487 -1.7005 -1.9945 0.9802
4.3856 -1.3152 -1.9954 0.9802
4.5846 -0.1069 -1.9986 0.9802
4.5784 0.3027 -1.9997 0.9802
4.5357 0.7105 -2.0009 0.9802
4.4568 1.1130 -2.0020 0.9802
4.3422 1.5071 -2.0031 0.9801
4.0097 2.2574 -2.0054 0.9801
3.7943 2.6076 -2.0065 0.9801
3.2638 3.2340 -2.0025 0.9802
2.9227 3.4654 -1.9757 0.9804
1.1471 4.4202 -1.9902 0.9803
-0.0653 4.6217 -2.0144 0.9800
-0.8859 4.5372 -2.0147 0.9800
-1.6781 4.3072 -2.0146 0.9800
-2.0555 4.1399 -2.0144 0.9800
-2.7577 3.7072 -2.0137 0.9800
-3.6378 2.8420 -2.0119 0.9801
-3.8754 2.5051 -2.0111 0.9801
-4.0817 2.1484 -2.0103 0.9801
-1.5286 0.0578 -0.6667 0.9933
-1.5295 -0.0790 -0.6675 0.9933
-1.5342 -0.3597 -0.6868 0.9931
-1.5869 -0.5252 -0.7285 0.9927
-3.8141 -2.5409 -1.9973 0.9802
-3.2984 -3.1751 -1.9953 0.9802
-2.3366 -3.9300 -1.9926 0.9802
-1.5997 -4.2797 -1.9912 0.9803
-0.8131 -4.4934 -1.9901 0.9803
-0.4088 -4.5471 -1.9897 0.9803
-0.0015 -4.5647 -1.9894 0.9803
0.4058 -4.5462 -1.9892 0.9803
0.8098 -4.4916 -1.9891 0.9803
1.9707 -4.1173 -1.9894 0.9803
2.6721 -3.7027 -1.9900 0.9803
2.9925 -3.4504 -1.9905 0.9803
3.5604 -2.8653 -1.9917 0.9803
3.8032 -2.5371 -1.9925 0.9802
4.0161 -2.1886 -1.9933 0.9802
4.3451 -1.4412 -1.9951 0.9802
4.4586 -1.0483 -1.9961 0.9802
4.5367 -0.6466 -1.9972 0.9802
4.5844 0.1703 -1.9994 0.9802
4.4863 0.9835 -2.0016 0.9802
4.3831 1.3807 -2.0028 0.9801
4.2448 1.7673 -2.0039 0.9801
4.0725 2.1402 -2.0050 0.9801
3.8674 2.4964 -2.0061 0.9801
3.6284 2.8309 -2.0057 0.9801
3.3570 3.1393 -2.0031 0.9801
2.3074 3.7563 -1.9213 0.9809
1.9583 3.9376 -1.9166 0.9810
1.2636 4.3481 -1.9733 0.9804
-1.1584 4.4754 -2.0147 0.9800
-2.3016 4.0077 -2.0142 0.9800
-3.2785 3.2527 -2.0127 0.9801
-3.8018 2.6164 -2.0113 0.9801
-1.5453 0.3870 -0.6943 0.9931
-1.5295 0.1021 -0.6681 0.9933
-1.5267 -0.0346 -0.6655 0.9934
-1.5239 -0.1714 -0.6683 0.9933
-4.2614 -1.7024 -1.9999 0.9802
-4.0902 -2.0746 -1.9988 0.9802
-3.8866 -2.4300 -1.9977 0.9802
-3.3893 -3.0789 -1.9956 0.9802
-2.4495 -3.8613 -1.9929 0.9802
-0.5401 -4.5337 -1.9898 0.9803
-0.1334 -4.5630 -1.9895 0.9803
0.2743 -4.5561 -1.9892 0.9803
1.8508 -4.1724 -1.9893 0.9803
2.2161 -3.9911 -1.9895 0.9803
2.5638 -3.7782 -1.9899 0.9803
3.4757 -2.9667 -1.9915 0.9803
3.9506 -2.3034 -1.9930 0.9802
4.1422 -1.9425 -1.9939 0.9802
4.4257 -1.1765 -1.9958 0.9802
4.5154 -0.7773 -1.9968 0.9802
4.5692 -0.3715 -1.9979 0.9802
4.5866 0.0377 -1.9990 0.9802
4.5675 0.4471 -2.0001 0.9802
4.1319 2.0213 -2.0047 0.9801
3.1592 3.3343 -2.0018 0.9802
1.7255 4.0693 -1.9263 0.9809
0.6115 4.5702 -2.0095 0.9801
-0.2111 4.6175 -2.0145 0.9800
-0.6223 4.5807 -2.0147 0.9800
-1.0285 4.5070 -2.0147 0.9800
-2.8730 3.6181 -2.0135 0.9800
-3.1835 3.3464 -2.0129 0.9800
-3.4683 3.0481 -2.0123 0.9801
-4.1468 2.0183 -2.0099 0.9801
-4.3084 1.6395 -2.0090 0.9801
-1.4971 0.2800 -0.6638 0.9934
-1.5285 -0.1273 -0.6684 0.9933
-1.5971 -0.5851 -0.7413 0.9926
-3.4774 -2.9802 -1.9959 0.9802
-3.1960 -3.2770 -1.9949 0.9802
-2.8895 -3.5474 -1.9940 0.9802
-2.2111 -4.0012 -1.9923 0.9803
-1.0715 -4.4396 -1.9904 0.9803
-0.6709 -4.5165 -1.9899 0.9803
-0.2652 -4.5575 -1.9896 0.9803
0.5490 -4.5310 -1.9891 0.9803
1.7294 -4.2240 -1.9892 0.9803
2.4534 -3.8504 -1.9898 0.9803
2.7878 -3.6169 -1.9902 0.9803
4.5850 -0.0948 -1.9986 0.9802
4.5777 0.3149 -1.9997 0.9802
4.5339 0.7225 -2.0009 0.9802
4.4539 1.1248 -2.0020 0.9802
4.3383 1.5186 -2.0032 0.9801
4.0038 2.2680 -2.0054 0.9801
3.5356 2.9425 -2.0047 0.9801
3.2552 3.2425 -2.0024 0.9802
2.9114 3.4706 -1.9743 0.9804
2.5378 3.6415 -1.9344 0.9808
1.8372 4.0063 -1.9208 0.9810
1.4909 4.2063 -1.9449 0.9807
1.1363 4.4268 -1.9918 0.9803
0.7429 4.5480 -2.0084 0.9801
0.3348 4.6050 -2.0123 0.9801
-0.4896 4.5966 -2.0146 0.9800
-0.8979 4.5348 -2.0147 0.9800
-1.2989 4.4366 -2.0147 0.9800
-1.6895 4.3027 -2.0146 0.9800
-2.7674 3.6999 -2.0136 0.9800
-3.0857 3.4373 -2.0131 0.9800
-3.3791 3.1473 -2.0125 0.9801
-4.2599 1.7635 -2.0093 0.9801
-1.5797 0.4941 -0.7213 0.9928
-1.5211 0.3303 -0.6784 0.9932
-1.5295 -0.0830 -0.6676 0.9933
-1.5149 -0.2190 -0.6671 0.9933
-1.5362 -0.3644 -0.6881 0.9931
-4.0219 -2.2022 -1.9984 0.9802
-3.5627 -2.8789 -1.9962 0.9802
-3.2899 -3.1837 -1.9952 0.9802
-2.3261 -3.9361 -1.9926 0.9802
-1.5883 -4.2838 -1.9912 0.9803
-1.1994 -4.4072 -1.9906 0.9803
-0.8012 -4.4955 -1.9901 0.9803
-0.3968 -4.5481 -1.9897 0.9803
0.0106 -4.5647 -1.9894 0.9803
1.2190 -4.3982 -1.9891 0.9803
1.6066 -4.2721 -1.9892 0.9803
3.0017 -3.4425 -1.9905 0.9803
3.8100 -2.5271 -1.9925 0.9802
4.3490 -1.4297 -1.9951 0.9802
4.5385 -0.6346 -1.9972 0.9802
4.5840 0.1824 -1.9994 0.9802
4.4837 0.9954 -2.0017 0.9802
4.3795 1.3923 -2.0028 0.9801
4.0669 2.1510 -2.0051 0.9801
3.8609 2.5067 -2.0062 0.9801
3.6208 2.8404 -2.0056 0.9801
3.3486 3.1481 -2.0030 0.9801
2.6572 3.5872 -1.9456 0.9807
1.6027 4.1382 -1.9340 0.9808
0.8735 4.5221 -2.0072 0.9801
0.0560 4.6217 -2.0143 0.9800
-0.3566 4.6087 -2.0146 0.9800
-0.7665 4.5588 -2.0147 0.9800
-1.1702 4.4723 -2.0147 0.9800
-1.5645 4.3499 -2.0146 0.9800
-2.9854 3.5254 -2.0133 0.9800
-4.0244 2.2551 -2.0105 0.9801
-4.2077 1.8862 -2.0096 0.9801
-1.5915 0.5488 -0.7337 0.9927
-1.5296 0.0981 -0.6680 0.9933
-1.5271 -0.0387 -0.6658 0.9934
-1.5233 -0.1754 -0.6683 0.9933
-1.5748 -0.4757 -0.7170 0.9928
-4.0846 -2.0854 -1.9987 0.9802
-3.8801 -2.4402 -1.9976 0.9802
-3.3811 -3.0878 -1.9956 0.9802
-2.7758 -3.6362 -1.9937 0.9802
-2.0836 -4.0684 -1.9921 0.9803
-0.9308 -4.4708 -1.9902 0.9803
-0.5281 -4.5350 -1.9898 0.9803
1.4825 -4.3167 -1.9891 0.9803
2.2266 -3.9853 -1.9895 0.9803
2.5738 -3.7714 -1.9899 0.9803
2.9007 -3.5275 -1.9904 0.9803
3.2048 -3.2555 -1.9909 0.9803
3.1833 -2.8956 -1.9919 0.9812
3.6498 -2.2852 -1.9933 0.9812
3.8407 -1.9512 -1.9941 0.9812
4.2260 -0.8655 -1.9968 0.9812
4.3169 -0.1007 -1.9988 0.9811
4.2706 0.6689 -2.0009 0.9811
4.1962 1.0479 -2.0020 0.9811
4.0881 1.4189 -2.0031 0.9811
3.7748 2.1252 -2.0052 0.9811
3.0786 3.0504 -2.0061 0.9811
2.7921 3.3105 -2.0046 0.9811
1.8157 3.9320 -2.0047 0.9811
1.4587 4.0814 -2.0062 0.9811
1.0900 4.2000 -2.0085 0.9811
-0.8338 4.2702 -2.0140 0.9810
-1.2115 4.1788 -2.0139 0.9810
-1.5794 4.0538 -2.0138 0.9810
-2.2742 3.7076 -2.0133 0.9810
-2.8958 3.2430 -2.0125 0.9810
-3.6478 2.3580 -2.0105 0.9810
-3.8421 2.0223 -2.0098 0.9810
-1.3257 0.5529 -0.6649 0.9937
-1.3002 0.2859 -0.6162 0.9941
-1.3377 0.0505 -0.6197 0.9941
-1.3384 -0.0691 -0.6203 0.9941
-1.3278 -0.1884 -0.6208 0.9941
-1.3032 -0.3055 -0.6196 0.9941
-1.3321 -0.4409 -0.6495 0.9938
-3.7927 -2.0636 -1.9986 0.9811
-3.5916 -2.3926 -1.9976 0.9812
-3.1061 -2.9900 -1.9957 0.9812
-2.8256 -3.2537 -1.9948 0.9812
-2.2005 -3.7012 -1.9931 0.9812
-1.8608 -3.8814 -1.9924 0.9812
-1.1406 -4.1479 -1.9912 0.9812
-0.7658 -4.2321 -1.9908 0.9812
-0.0014 -4.2994 -1.9901 0.9812
0.3822 -4.2819 -1.9899 0.9812
1.5026 -4.0278 -1.9899 0.9812
2.1951 -3.6974 -1.9904 0.9812
2.8185 -3.2497 -1.9912 0.9812
3.0980 -2.9861 -1.9917 0.9812
3.5818 -2.3894 -1.9930 0.9812
3.7822 -2.0611 -1.9938 0.9812
3.9526 -1.7161 -1.9946 0.9812
4.0918 -1.3572 -1.9955 0.9812
4.2720 -0.6088 -1.9974 0.9812
4.3115 -0.2254 -1.9984 0.9812
4.2239 0.9260 -2.0016 0.9811
3.9964 1.6639 -2.0038 0.9811
3.8340 2.0149 -2.0048 0.9811
3.1664 2.9611 -2.0067 0.9811
2.8871 3.2290 -2.0050 0.9811
2.2659 3.6887 -2.0039 0.9811
1.9282 3.8772 -2.0044 0.9811
1.2104 4.1651 -2.0077 0.9811
0.8351 4.2624 -2.0105 0.9810
0.4520 4.3259 -2.0133 0.9810
-0.7100 4.2925 -2.0139 0.9810
-1.0902 4.2121 -2.0140 0.9810
-2.4938 3.5630 -2.0131 0.9810
-2.8011 3.3255 -2.0126 0.9810
-3.5785 2.4627 -2.0108 0.9810
-1.3336 0.4638 -0.6536 0.9938
-1.3098 0.3280 -0.6250 0.9941
-1.3235 0.2082 -0.6202 0.9941
-1.3385 0.0894 -0.6210 0.9941
-1.3364 -0.0303 -0.6188 0.9941
-1.3342 -0.1501 -0.6215 0.9941
-1.3069 -0.2668 -0.6174 0.9941
-1.3255 -0.3966 -0.6404 0.9939
-1.3290 -0.5309 -0.6625 0.9937
-3.8513 -1.9535 -1.9989 0.9811
-3.1917 -2.8994 -1.9960 0.9812
-2.9189 -3.1712 -1.9950 0.9812
-2.3068 -3.6365 -1.9934 0.9812
-1.9724 -3.8264 -1.9927 0.9812
-1.6226 -3.9858 -1.9920 0.9812
-0.5087 -4.2700 -1.9905 0.9812
1.3855 -4.0694 -1.9899 0.9812
1.7432 -3.9298 -1.9900 0.9812
2.0872 -3.7591 -1.9903 0.9812
2.4147 -3.5585 -1.9906 0.9812
3.2734 -2.7940 -1.9921 0.9812
3.9009 -1.8294 -1.9943 0.9812
4.1677 -1.1079 -1.9961 0.9812
4.3188 0.0355 -1.9992 0.9811
4.3006 0.4210 -2.0002 0.9811
4.2482 0.8035 -2.0013 0.9811
4.1618 1.1799 -2.0024 0.9811
3.8900 1.9029 -2.0045 0.9811
3.7066 2.2436 -2.0056 0.9811
3.4934 2.5667 -2.0066 0.9811
2.6858 3.3964 -2.0043 0.9811
1.6912 3.9882 -2.0052 0.9811
1.3298 4.1269 -2.0070 0.9811
0.9574 4.2343 -2.0095 0.9810
0.5767 4.3098 -2.0127 0.9810
-0.1986 4.3459 -2.0138 0.9810
-0.5857 4.3112 -2.0139 0.9810
-1.3426 4.1385 -2.0139 0.9810
-1.7064 4.0019 -2.0138 0.9810
-2.3899 3.6338 -2.0132 0.9810
-3.5063 2.5653 -2.0110 0.9810
-3.7198 2.2414 -2.0103 0.9810
-3.9034 1.8998 -2.0095 0.9810
-1.3379 -0.1115 -0.6215 0.9941
-1.3181 -0.2296 -0.6193 0.9941
-1.3329 -0.4883 -0.6571 0.9938
-3.7250 -2.1818 -1.9982 0.9812
-3.2746 -2.8064 -1.9963 0.9812
-2.7212 -3.3407 -1.9945 0.9812
-1.7373 -3.9377 -1.9922 0.9812
-1.3786 -4.0757 -1.9916 0.9812
-1.0092 -4.1814 -1.9911 0.9812
-0.6319 -4.2538 -1.9906 0.9812
-0.2498 -4.2925 -1.9903 0.9812
1.2673 -4.1077 -1.9898 0.9812
2.3107 -3.6265 -1.9905 0.9812
2.6256 -3.4066 -1.9909 0.9812
3.1910 -2.8872 -1.9919 0.9812
3.4370 -2.5918 -1.9926 0.9812
3.6559 -2.2756 -1.9933 0.9812
4.0054 -1.5908 -1.9949 0.9812
4.3173 -0.0893 -1.9988 0.9811
4.3103 0.2965 -1.9999 0.9811
4.2689 0.6802 -2.0009 0.9811
4.1934 1.0590 -2.0020 0.9811
4.0844 1.4297 -2.0031 0.9811
3.7692 2.1352 -2.0052 0.9811
3.5655 2.4643 -2.0062 0.9811
3.3330 2.7739 -2.0072 0.9811
3.0704 3.0585 -2.0060 0.9811
2.7833 3.3178 -2.0046 0.9811
2.1485 3.7585 -2.0040 0.9811
1.8053 3.9368 -2.0048 0.9811
1.4480 4.0853 -2.0063 0.9811
0.3154 4.3382 -2.0134 0.9810
-0.0730 4.3497 -2.0137 0.9810
-0.4608 4.3262 -2.0139 0.9810
-0.8451 4.2680 -2.0140 0.9810
-1.2225 4.1756 -2.0139 0.9810
-2.2840 3.7016 -2.0133 0.9810
-2.6047 3.4823 -2.0129 0.9810
-2.9043 3.2353 -2.0125 0.9810
-3.1805 2.9624 -2.0119 0.9810
-3.8474 2.0121 -2.0097 0.9810
-1.3287 0.4156 -0.6444 0.9939
-1.3015 0.2826 -0.6165 0.9941
-1.3317 0.1666 -0.6212 0.9941
-1.3376 0.0470 -0.6195 0.9941
-1.3044 -0.3094 -0.6206 0.9941
-1.3326 -0.4450 -0.6503 0.9938
-3.5852 -2.4020 -1.9976 0.9812
-3.0981 -2.9981 -1.9956 0.9812
-2.8170 -3.2611 -1.9947 0.9812
-2.5137 -3.4980 -1.9939 0.9812
-2.1907 -3.7069 -1.9931 0.9812
-1.8505 -3.8862 -1.9924 0.9812
-1.4959 -4.0346 -1.9918 0.9812
-1.1297 -4.1508 -1.9912 0.9812
0.3935 -4.2809 -1.9899 0.9812
1.1481 -4.1426 -1.9898 0.9812
1.8664 -3.8731 -1.9901 0.9812
2.8271 -3.2422 -1.9912 0.9812
3.1059 -2.9779 -1.9917 0.9812
3.3603 -2.6897 -1.9923 0.9812
3.7877 -2.0511 -1.9938 0.9812
3.9572 -1.7057 -1.9946 0.9812
4.0955 -1.3464 -1.9955 0.9812
4.2012 -0.9760 -1.9965 0.9812
4.2737 -0.5976 -1.9975 0.9812
4.2215 0.9372 -2.0017 0.9811
4.1233 1.3109 -2.0027 0.9811
3.9920 1.6745 -2.0038 0.9811
3.8287 2.0250 -2.0049 0.9811
3.1584 2.9693 -2.0066 0.9811
2.8785 3.2366 -2.0049 0.9811
2.5770 3.4790 -2.0041 0.9811
2.2561 3.6947 -2.0039 0.9811
1.9180 3.8823 -2.0044 0.9811
1.5649 4.0406 -2.0057 0.9811
1.1994 4.1685 -2.0078 0.9811
0.4406 4.3271 -2.0133 0.9810
-1.4725 4.0940 -2.0139 0.9810
-1.8317 3.9459 -2.0137 0.9810
-2.1762 3.7662 -2.0134 0.9810
-2.8099 3.3181 -2.0126 0.9810
-3.0939 3.0533 -2.0121 0.9810
-3.5850 2.4532 -2.0108 0.9810
-3.7881 2.1227 -2.0100 0.9810
-1.3385 0.0858 -0.6209 0.9941
-1.3367 -0.0339 -0.6189 0.9941
-1.3262 -0.4006 -0.6413 0.9939
-1.3285 -0.5348 -0.6629 0.9937
-3.6537 -2.2978 -1.9979 0.9812
-3.1839 -2.9078 -1.9959 0.9812
-2.9104 -3.1788 -1.9950 0.9812
-1.9623 -3.8316 -1.9926 0.9812
-1.6121 -3.9901 -1.9920 0.9812
-1.2492 -4.1168 -1.9914 0.9812
-0.4974 -4.2714 -1.9905 0.9812
0.2697 -4.2906 -1.9900 0.9812
1.3963 -4.0657 -1.9899 0.9812
2.0971 -3.7536 -1.9903 0.9812
2.4241 -3.5521 -1.9906 0.9812
2.7320 -3.3223 -1.9910 0.9812
3.0183 -3.0661 -1.9915 0.9812
3.2808 -2.7854 -1.9921 0.9812
3.2377 -2.4549 -1.9931 0.9821
3.7764 -1.5115 -1.9953 0.9820
3.8979 -1.1690 -1.9961 0.9820
4.0740 -0.0950 -1.9990 0.9820
4.0683 0.2690 -1.9999 0.9820
3.8576 1.3389 -2.0030 0.9820
3.7246 1.6786 -2.0040 0.9820
3.5618 2.0053 -2.0050 0.9820
3.3703 2.3162 -2.0060 0.9819
2.3487 3.3512 -2.0074 0.9819
1.3788 3.8579 -2.0096 0.9819
-1.8250 3.6756 -2.0130 0.9819
-2.4485 3.2916 -2.0123 0.9819
-3.2302 2.5236 -2.0107 0.9819
-3.4414 2.2246 -2.0101 0.9819
-1.1586 0.3658 -0.5960 0.9946
-1.1893 0.1520 -0.5881 0.9947
-1.1965 0.0452 -0.5873 0.9947
-1.1962 -0.0618 -0.5876 0.9947
-1.1870 -0.1684 -0.5881 0.9947
-1.1644 -0.2730 -0.5867 0.9947
-3.3896 -2.2580 -1.9978 0.9820
-2.6669 -3.0710 -1.9952 0.9820
-2.3813 -3.2954 -1.9944 0.9820
-2.0770 -3.4935 -1.9936 0.9821
-1.7565 -3.6636 -1.9930 0.9821
-0.7229 -3.9949 -1.9914 0.9821
-0.3635 -4.0427 -1.9910 0.9821
0.3608 -4.0420 -1.9906 0.9821
0.7200 -3.9935 -1.9905 0.9821
1.4184 -3.8021 -1.9906 0.9821
2.3756 -3.2919 -1.9913 0.9821
2.9243 -2.8186 -1.9923 0.9821
3.7307 -1.6197 -1.9950 0.9820
3.8620 -1.2809 -1.9959 0.9820
3.9626 -0.9316 -1.9967 0.9820
4.0460 0.5145 -2.0006 0.9820
3.9860 0.8739 -2.0016 0.9820
3.4353 2.2175 -2.0057 0.9819
2.9892 2.7954 -2.0075 0.9819
2.7290 3.0522 -2.0084 0.9819
2.1420 3.4870 -2.0074 0.9819
1.8227 3.6651 -2.0079 0.9819
1.4894 3.8154 -2.0091 0.9819
0.7887 4.0257 -2.0123 0.9819
0.4264 4.0808 -2.0126 0.9819
0.0606 4.1032 -2.0129 0.9819
-1.0284 3.9734 -2.0133 0.9819
-2.0435 3.5583 -2.0128 0.9819
-2.3525 3.3612 -2.0125 0.9819
-2.6425 3.1372 -2.0120 0.9819
-2.9111 2.8882 -2.0115 0.9819
-1.1412 0.5152 -0.6142 0.9944
-1.1591 0.2903 -0.5861 0.9947
-1.1956 0.0798 -0.5878 0.9947
-1.1508 -0.4597 -0.6079 0.9945
-3.0123 -2.7365 -1.9963 0.9820
-2.1774 -3.4324 -1.9939 0.9821
-1.8618 -3.6117 -1.9932 0.9821
-1.5316 -3.7623 -1.9925 0.9821
-1.1895 -3.8829 -1.9920 0.9821
-0.8381 -3.9726 -1.9915 0.9821
-0.4802 -4.0307 -1.9911 0.9821
0.2439 -4.0509 -1.9906 0.9821
1.6456 -3.7096 -1.9907 0.9821
1.9702 -3.5484 -1.9909 0.9821
2.2794 -3.3590 -1.9912 0.9821
3.0898 -2.6373 -1.9927 0.9821
3.3139 -2.3518 -1.9933 0.9821
3.8228 -1.3918 -1.9956 0.9820
4.0129 -0.6908 -1.9974 0.9820
4.0757 0.0335 -1.9993 0.9820
4.0585 0.3973 -2.0003 0.9820
3.8142 1.4602 -2.0034 0.9820
3.2961 2.4217 -2.0063 0.9819
2.5389 3.2106 -2.0078 0.9819
2.2418 3.4236 -2.0074 0.9819
1.9277 3.6105 -2.0076 0.9819
1.5986 3.7700 -2.0087 0.9819
1.2569 3.9008 -2.0103 0.9819
0.5441 4.0666 -2.0125 0.9819
-0.1874 4.0997 -2.0131 0.9819
-0.5525 4.0669 -2.0132 0.9819
-0.9132 4.0015 -2.0133 0.9819
-1.6097 3.7751 -2.0131 0.9819
-2.5509 3.2125 -2.0122 0.9819
-3.5094 2.1146 -2.0098 0.9819
-1.1328 0.5514 -0.6180 0.9944
-1.1534 0.4389 -0.6054 0.9945
-1.1775 0.2203 -0.5876 0.9947
-1.1934 0.1144 -0.5881 0.9947
-1.1958 0.0074 -0.5866 0.9947
-1.1945 -0.0995 -0.5880 0.9947
-1.1585 -0.3104 -0.5883 0.9947
-1.1551 -0.4232 -0.6034 0.9945
-3.5155 -2.0591 -1.9984 0.9820
-2.8407 -2.9126 -1.9957 0.9820
-2.5684 -3.1531 -1.9949 0.9820
-2.2759 -3.3684 -1.9941 0.9821
-1.9656 -3.5568 -1.9934 0.9821
-1.3013 -3.8472 -1.9922 0.9821
-0.5965 -4.0154 -1.9913 0.9821
0.1267 -4.0563 -1.9907 0.9821
0.8456 -3.9688 -1.9905 0.9821
1.5377 -3.7556 -1.9906 0.9821
1.8668 -3.6037 -1.9908 0.9821
2.4785 -3.2156 -1.9915 0.9821
3.0120 -2.7252 -1.9925 0.9821
3.2442 -2.4464 -1.9931 0.9821
3.4507 -2.1479 -1.9938 0.9821
3.9010 -1.1587 -1.9962 0.9820
3.9907 -0.8063 -1.9971 0.9820
4.0743 -0.0842 -1.9990 0.9820
4.0676 0.2798 -2.0000 0.9820
3.9571 0.9993 -2.0020 0.9820
3.7203 1.6885 -2.0040 0.9820
3.3642 2.3251 -2.0060 0.9819
2.9000 2.8887 -2.0078 0.9819
2.6310 3.1363 -2.0081 0.9819
2.3398 3.3574 -2.0074 0.9819
1.7066 3.7215 -2.0083 0.9819
0.6614 4.0489 -2.0124 0.9819
0.2975 4.0925 -2.0128 0.9819
-0.7972 4.0262 -2.0133 0.9819
-1.1532 3.9390 -2.0133 0.9819
-2.1546 3.4919 -2.0127 0.9819
-2.4572 3.2851 -2.0123 0.9819
-2.7399 3.0521 -2.0119 0.9819
-1.1214 0.5865 -0.6208 0.9944
-1.1485 0.4755 -0.6097 0.9945
-1.1587 0.3625 -0.5955 0.9946
-1.1696 0.2540 -0.5871 0.9947
-1.1961 -0.0649 -0.5876 0.9947
-1.1865 -0.1715 -0.5881 0.9947
-1.1578 -0.3866 -0.5987 0.9946
-1.1106 -0.6081 -0.6211 0.9944
-3.1663 -2.5586 -1.9969 0.9820
-2.9240 -2.8297 -1.9960 0.9820
-2.3726 -3.3017 -1.9943 0.9820
-0.3528 -4.0436 -1.9910 0.9821
0.7305 -3.9916 -1.9905 0.9821
1.4284 -3.7983 -1.9906 0.9821
1.7618 -3.6560 -1.9907 0.9821
2.3844 -3.2857 -1.9913 0.9821
2.6686 -3.0605 -1.9918 0.9821
3.1718 -2.5388 -1.9929 0.9821
3.3868 -2.2464 -1.9935 0.9821
3.5751 -1.9360 -1.9943 0.9820
3.8654 -1.2707 -1.9959 0.9820
3.8909 1.2370 -2.0027 0.9820
3.7669 1.5800 -2.0037 0.9820
3.6127 1.9108 -2.0047 0.9820
3.2186 2.5249 -2.0066 0.9819
2.9818 2.8033 -2.0075 0.9819
2.7209 3.0594 -2.0084 0.9819
2.1328 3.4927 -2.0074 0.9819
1.8131 3.6700 -2.0079 0.9819
1.1337 3.9400 -2.0111 0.9819
0.7781 4.0278 -2.0123 0.9819
0.0497 4.1034 -2.0129 0.9819
-0.6805 4.0475 -2.0133 0.9819
-1.0389 3.9707 -2.0133 0.9819
-2.0529 3.5529 -2.0128 0.9819
-2.6507 3.1302 -2.0120 0.9819
-3.1632 2.6078 -2.0109 0.9819
-3.5739 2.0026 -2.0095 0.9819
-1.1419 0.5119 -0.6138 0.9944
-1.1570 0.3990 -0.6004 0.9946
-1.1601 0.2872 -0.5862 0.9947
-1.1957 0.0767 -0.5877 0.9947
-1.1911 -0.1372 -0.5881 0.9947
-1.1724 -0.2426 -0.5873 0.9947
-1.1503 -0.4631 -0.6083 0.9945
-3.4482 -2.1686 -1.9981 0.9820
-3.2394 -2.4664 -1.9972 0.9820
-2.4673 -3.2321 -1.9946 0.9820
-2.1683 -3.4381 -1.9938 0.9821
-1.5216 -3.7663 -1.9925 0.9821
0.2546 -4.0502 -1.9906 0.9821
0.6149 -4.0111 -1.9905 0.9821
0.9703 -3.9401 -1.9905 0.9821
1.9796 -3.5432 -1.9909 0.9821
2.2883 -3.3530 -1.9912 0.9821
2.5788 -3.1361 -1.9916 0.9821
3.0968 -2.6292 -1.9927 0.9821
2.8419 -2.5850 -1.9930 0.9828
3.0621 -2.3218 -1.9935 0.9828
3.4283 -1.7417 -1.9949 0.9828
3.5714 -1.4294 -1.9956 0.9828
3.7717 -0.7725 -1.9973 0.9828
3.8273 -0.4330 -1.9982 0.9828
3.8524 -0.0899 -1.9991 0.9828
3.8469 0.2544 -2.0000 0.9828
3.8107 0.5969 -2.0010 0.9828
3.7440 0.9350 -2.0020 0.9828
3.6474 1.2659 -2.0029 0.9828
3.3675 1.8959 -2.0048 0.9827
2.7488 2.7236 -2.0075 0.9827
2.2226 3.1713 -2.0090 0.9827
1.3046 3.6501 -2.0109 0.9827
0.9739 3.7529 -2.0114 0.9827
0.2915 3.8676 -2.0121 0.9827
-0.0548 3.8787 -2.0124 0.9827
-0.4007 3.8587 -2.0126 0.9827
-0.7435 3.8077 -2.0126 0.9827
-1.0802 3.7261 -2.0126 0.9827
-1.7251 3.4743 -2.0124 0.9827
-2.5823 2.8919 -2.0113 0.9827
-3.2532 2.1029 -2.0096 0.9827
-1.0198 0.5368 -0.5978 0.9948
-1.0628 0.3355 -0.5782 0.9950
-1.0808 0.2377 -0.5741 0.9950
-1.0977 -0.1557 -0.5752 0.9950
-1.0767 -0.2524 -0.5737 0.9950
-1.0618 -0.3514 -0.5802 0.9950
-1.0479 -0.4541 -0.5925 0.9949
-1.0126 -0.5510 -0.5980 0.9948
-3.2053 -2.1353 -1.9980 0.9828
-3.0007 -2.4117 -1.9972 0.9828
-2.7723 -2.6687 -1.9963 0.9828
-2.5222 -2.9043 -1.9955 0.9828
-2.2521 -3.1166 -1.9948 0.9828
-1.9644 -3.3039 -1.9941 0.9828
-1.0183 -3.7031 -1.9924 0.9828
-0.3438 -3.8236 -1.9916 0.9828
0.3412 -3.8230 -1.9912 0.9829
0.6810 -3.7771 -1.9911 0.9829
2.5162 -2.9012 -1.9923 0.9828
2.9934 -2.4090 -1.9933 0.9828
3.6522 -1.2114 -1.9962 0.9828
3.7473 -0.8810 -1.9970 0.9828
3.8126 -0.5434 -1.9979 0.9828
3.8477 -0.2011 -1.9988 0.9828
3.8521 0.1431 -1.9997 0.9828
3.7689 0.8263 -2.0017 0.9828
3.4203 1.7975 -2.0045 0.9827
3.0492 2.3790 -2.0063 0.9827
2.8259 2.6427 -2.0072 0.9827
2.5799 2.8855 -2.0080 0.9827
2.3130 3.1054 -2.0088 0.9827
1.7254 3.4694 -2.0101 0.9827
1.4094 3.6106 -2.0107 0.9827
1.0819 3.7229 -2.0112 0.9827
0.0573 3.8785 -2.0123 0.9827
-0.6331 3.8275 -2.0126 0.9827
-0.9721 3.7558 -2.0126 0.9827
-1.6240 3.5228 -2.0124 0.9827
-1.9317 3.3635 -2.0122 0.9827
-2.2237 3.1772 -2.0119 0.9827
-2.4979 2.9655 -2.0115 0.9827
-2.9837 2.4731 -2.0104 0.9827
-1.0441 0.4714 -0.5943 0.9949
-1.0604 0.3688 -0.5824 0.9950
-1.0951 0.1722 -0.5751 0.9950
-1.1057 0.0738 -0.5749 0.9950
-1.1065 -0.0251 -0.5742 0.9950
-1.1019 -0.1240 -0.5752 0.9950
-1.0849 -0.2215 -0.5745 0.9950
-1.0539 -0.4210 -0.5887 0.9949
-0.9775 -0.6111 -0.5980 0.9948
-3.0695 -2.3243 -1.9974 0.9828
-2.8487 -2.5878 -1.9966 0.9828
-2.6053 -2.8305 -1.9958 0.9828
-2.3415 -3.0505 -1.9950 0.9828
-2.0592 -3.2461 -1.9943 0.9828
-1.4486 -3.5583 -1.9930 0.9828
-0.4541 -3.8123 -1.9917 0.9828
-0.1121 -3.8371 -1.9914 0.9829
0.2306 -3.8314 -1.9912 0.9829
0.5716 -3.7953 -1.9911 0.9829
0.9079 -3.7291 -1.9911 0.9829
1.8635 -3.3562 -1.9915 0.9829
2.1558 -3.1770 -1.9918 0.9828
2.9223 -2.4943 -1.9932 0.9828
3.3212 -1.9364 -1.9944 0.9828
3.4820 -1.6329 -1.9951 0.9828
3.6152 -1.3162 -1.9959 0.9828
3.7948 -0.6532 -1.9976 0.9828
3.8397 -0.3122 -1.9985 0.9828
3.8376 0.3756 -2.0004 0.9828
3.6063 1.3806 -2.0033 0.9827
3.4703 1.6977 -2.0042 0.9827
3.3066 2.0015 -2.0051 0.9827
3.1162 2.2896 -2.0061 0.9827
2.9007 2.5596 -2.0069 0.9827
2.4015 3.0369 -2.0085 0.9827
2.1217 3.2402 -2.0093 0.9827
1.8248 3.4177 -2.0099 0.9827
1.5130 3.5680 -2.0106 0.9827
0.5144 3.8440 -2.0119 0.9827
-0.1771 3.8752 -2.0125 0.9827
-0.5222 3.8442 -2.0126 0.9827
-0.8632 3.7823 -2.0126 0.9827
-1.1972 3.6902 -2.0126 0.9827
-1.5216 3.5684 -2.0125 0.9827
-2.4113 3.0367 -2.0116 0.9827
-2.9112 2.5585 -2.0106 0.9827
-3.1270 2.2878 -2.0100 0.9827
-1.0349 0.5037 -0.5971 0.9948
-1.0566 0.4021 -0.5865 0.9949
-1.0890 0.2037 -0.5748 0.9950
-1.1036 0.1058 -0.5752 0.9950
-1.1047 -0.0920 -0.5751 0.9950
-1.0918 -0.1902 -0.5749 0.9950
-1.0396 -0.4901 -0.5963 0.9948
-0.9950 -0.5828 -0.5982 0.9948
-3.1359 -2.2350 -1.9977 0.9828
-2.4290 -2.9820 -1.9952 0.9828
-2.1524 -3.1856 -1.9945 0.9828
-1.5509 -3.5152 -1.9932 0.9828
-0.9010 -3.7330 -1.9922 0.9828
-0.5642 -3.7978 -1.9918 0.9828
-0.2230 -3.8324 -1.9915 0.9828
0.1198 -3.8366 -1.9913 0.9829
0.4617 -3.8103 -1.9911 0.9829
1.1315 -3.6675 -1.9911 0.9829
1.4543 -3.5521 -1.9912 0.9829
1.7656 -3.4085 -1.9914 0.9829
2.0630 -3.2378 -1.9917 0.9828
2.3441 -3.0413 -1.9920 0.9828
3.0682 -2.3137 -1.9936 0.9828
3.2635 -2.0313 -1.9942 0.9828
3.4329 -1.7326 -1.9949 0.9828
3.5752 -1.4199 -1.9957 0.9828
3.8285 -0.4229 -1.9982 0.9828
3.8463 0.2646 -2.0001 0.9828
3.8091 0.6070 -2.0010 0.9828
3.6441 1.2756 -2.0030 0.9828
3.5174 1.5964 -2.0039 0.9827
3.1806 2.1982 -2.0058 0.9827
2.7416 2.7309 -2.0075 0.9827
2.2142 3.1772 -2.0090 0.9827
1.6153 3.5225 -2.0104 0.9827
0.2812 3.8684 -2.0122 0.9827
