ply
format ascii 1.0
element vertex 1597
property float32 x
property float32 y
property float32 z
property float32 I
end_header
-5.2734 4.7819 -1.8431 0.9710
-6.5099 4.0624 -1.9868 0.9688
-6.8678 3.4764 -1.9930 0.9687
-7.1488 2.8492 -1.9925 0.9687
-7.5384 1.5329 -1.9918 0.9687
-7.6441 0.8542 -1.9915 0.9687
-7.6730 -0.5177 -1.9912 0.9687
-7.4590 -1.8729 -1.9912 0.9687
-7.0086 -3.1691 -1.9915 0.9687
-6.3359 -4.3655 -1.9922 0.9687
-5.9225 -4.9144 -1.9926 0.9687
-5.4619 -5.4245 -1.9931 0.9687
-4.9576 -5.8917 -1.9937 0.9687
-4.4137 -6.3125 -1.9943 0.9687
-3.8343 -6.6833 -1.9950 0.9687
-2.5875 -7.2637 -1.9965 0.9686
-1.2566 -7.6142 -1.9981 0.9686
0.8054 -7.6854 -2.0008 0.9686
2.8153 -7.2076 -2.0035 0.9685
3.4486 -6.9307 -2.0044 0.9685
4.0548 -6.5983 -2.0052 0.9685
4.6292 -6.2128 -2.0060 0.9685
5.6638 -5.2953 -2.0076 0.9685
6.1157 -4.7706 -2.0082 0.9685
6.5189 -4.2073 -2.0089 0.9685
7.1666 -2.9836 -2.0099 0.9684
7.5858 -1.6632 -2.0107 0.9684
7.7625 -0.2888 -2.0112 0.9684
7.1253 3.0920 -2.0111 0.9684
6.4604 4.3076 -2.0105 0.9684
6.0491 4.8657 -2.0100 0.9684
5.5895 5.3846 -2.0095 0.9684
4.8834 5.6272 -1.9291 0.9697
3.0943 6.4588 -1.8543 0.9708
1.8958 6.9004 -1.8528 0.9709
1.2721 7.0390 -1.8521 0.9709
0.6389 7.1214 -1.8513 0.9709
-1.4108 5.1409 -1.3803 0.9782
-3.0790 6.4318 -1.8463 0.9710
-3.6390 6.1289 -1.8455 0.9710
-4.1695 5.7775 -1.8448 0.9710
-7.0592 3.0658 -1.9927 0.9687
-7.6806 0.4030 -1.9914 0.9687
-7.6854 -0.2837 -1.9912 0.9687
-7.3361 -2.3086 -1.9913 0.9687
-6.8106 -3.5763 -1.9917 0.9687
-6.0690 -4.7313 -1.9925 0.9687
-5.6241 -5.2551 -1.9929 0.9687
-5.1343 -5.7374 -1.9935 0.9687
-4.6034 -6.1744 -1.9941 0.9687
-3.4353 -6.8989 -1.9955 0.9687
-2.8072 -7.1806 -1.9962 0.9686
-1.4877 -7.5713 -1.9978 0.9686
2.5941 -7.2889 -2.0032 0.9685
3.8514 -6.7177 -2.0049 0.9685
4.4372 -6.3500 -2.0058 0.9685
5.4992 -5.4647 -2.0073 0.9685
5.9668 -4.9541 -2.0080 0.9685
6.3871 -4.4035 -2.0087 0.9685
6.7564 -3.8173 -2.0093 0.9684
7.5312 -1.8934 -2.0106 0.9684
7.7499 -0.5251 -2.0112 0.9684
7.7664 0.1683 -2.0113 0.9684
7.6132 1.5458 -2.0114 0.9684
6.9304 3.5055 -2.0109 0.9684
6.5890 4.1091 -2.0106 0.9684
5.2479 5.6877 -2.0037 0.9685
4.3712 5.6804 -1.8558 0.9708
2.7083 6.6280 -1.8538 0.9708
1.4861 6.9980 -1.8523 0.9709
0.8556 7.0997 -1.8515 0.9709
-0.4193 7.1324 -1.8499 0.9709
-1.0534 7.0633 -1.8491 0.9709
-1.2415 5.1315 -1.3670 0.9784
-3.4511 6.2378 -1.8458 0.9710
-4.9736 5.0953 -1.8436 0.9710
-5.4064 4.6297 -1.8429 0.9710
-5.8193 4.1442 -1.8498 0.9709
-7.2263 2.6448 -1.9924 0.9687
-7.4319 1.9893 -1.9920 0.9687
-7.5785 1.3182 -1.9917 0.9687
-7.4029 -2.0840 -1.9912 0.9687
-6.5892 -3.9712 -1.9919 0.9687
-6.2098 -4.5440 -1.9923 0.9687
-5.3061 -5.5779 -1.9933 0.9687
-4.2331 -6.4359 -1.9945 0.9687
-3.6433 -6.7903 -1.9952 0.9687
-2.3805 -7.3352 -1.9967 0.9686
-1.0401 -7.6479 -1.9984 0.9686
-0.3538 -7.7136 -1.9993 0.9686
1.0234 -7.6606 -2.0011 0.9686
1.7035 -7.5421 -2.0020 0.9686
3.0193 -7.1257 -2.0038 0.9685
4.2411 -6.4813 -2.0055 0.9685
4.8043 -6.0796 -2.0063 0.9685
5.3295 -5.6290 -2.0071 0.9685
6.6364 -4.0209 -2.0091 0.9684
6.9705 -3.4138 -2.0096 0.9684
7.2490 -2.7791 -2.0101 0.9684
7.6303 -1.4472 -2.0108 0.9684
7.7300 -0.7609 -2.0111 0.9684
7.7678 -0.0683 -2.0113 0.9684
7.7433 0.6249 -2.0114 0.9684
7.6568 1.3132 -2.0114 0.9684
7.5089 1.9910 -2.0114 0.9684
6.7115 3.9068 -2.0107 0.9684
5.9080 5.0352 -2.0099 0.9684
5.4296 5.5364 -2.0078 0.9685
4.5427 5.5452 -1.8560 0.9708
2.9093 6.5433 -1.8541 0.9708
2.3130 6.7741 -1.8534 0.9709
0.4363 7.1356 -1.8510 0.9709
-0.8379 7.0932 -1.8493 0.9709
-2.0831 6.8253 -1.8477 0.9709
-3.2600 6.3409 -1.8461 0.9710
-3.8110 6.0223 -1.8453 0.9710
-4.3313 5.6561 -1.8445 0.9710
-4.8168 5.2451 -1.8438 0.9710
-5.6682 4.3027 -1.8425 0.9710
-6.8606 3.4905 -1.9930 0.9687
-7.1429 2.8639 -1.9925 0.9687
-7.6423 0.8700 -1.9915 0.9687
-7.4628 -1.8576 -1.9912 0.9687
-7.2678 -2.5160 -1.9913 0.9687
-7.0151 -3.1547 -1.9915 0.9687
-6.7067 -3.7684 -1.9918 0.9687
-6.3449 -4.3524 -1.9922 0.9687
-4.4266 -6.3033 -1.9943 0.9687
-3.2383 -6.9945 -1.9957 0.9687
-0.5885 -7.6981 -1.9990 0.9686
0.1006 -7.7233 -1.9999 0.9686
0.7895 -7.6870 -2.0008 0.9686
1.4728 -7.5894 -2.0017 0.9686
2.8005 -7.2133 -2.0035 0.9685
3.4343 -6.9378 -2.0043 0.9685
4.0412 -6.6066 -2.0052 0.9685
4.6163 -6.2223 -2.0060 0.9685
5.1550 -5.7879 -2.0068 0.9685
5.6528 -5.3069 -2.0075 0.9685
6.1058 -4.7832 -2.0082 0.9685
7.4010 -2.3481 -2.0104 0.9684
7.7029 -0.9959 -2.0110 0.9684
7.7619 -0.3048 -2.0112 0.9684
7.7586 0.3888 -2.0114 0.9684
7.3784 2.4291 -2.0113 0.9684
7.1316 3.0774 -2.0111 0.9684
6.8278 3.7008 -2.0108 0.9684
6.0591 4.8533 -2.0100 0.9684
4.2077 5.8016 -1.8556 0.9708
3.6721 6.1518 -1.8550 0.9708
3.1076 6.4525 -1.8543 0.9708
2.5186 6.7014 -1.8536 0.9709
1.9100 6.8966 -1.8529 0.9709
0.6535 7.1201 -1.8513 0.9709
0.0158 7.1469 -1.8505 0.9709
-1.2533 7.0296 -1.8488 0.9709
-2.4803 6.6890 -1.8471 0.9710
-3.0658 6.4382 -1.8463 0.9710
-4.1576 5.7861 -1.8448 0.9710
-5.1157 4.9515 -1.8434 0.9710
-6.1581 4.1270 -1.9194 0.9698
-6.7495 3.6970 -1.9926 0.9687
-7.2980 2.4384 -1.9923 0.9687
-7.4850 1.7773 -1.9919 0.9687
-7.6126 1.1024 -1.9916 0.9687
-7.6797 0.4188 -1.9914 0.9687
-7.6859 -0.2679 -1.9912 0.9687
-7.3409 -2.2934 -1.9913 0.9687
-7.1077 -2.9394 -1.9915 0.9687
-6.8180 -3.5622 -1.9917 0.9687
-6.4741 -4.1569 -1.9920 0.9687
-5.6348 -5.2435 -1.9929 0.9687
-5.1460 -5.7268 -1.9935 0.9687
-4.6160 -6.1649 -1.9941 0.9687
-4.0490 -6.5543 -1.9947 0.9687
-2.8220 -7.1747 -1.9962 0.9686
-2.1716 -7.4008 -1.9970 0.9686
-0.1346 -7.7216 -1.9996 0.9686
0.5549 -7.7063 -2.0005 0.9686
1.2407 -7.6295 -2.0014 0.9686
1.9173 -7.4918 -2.0023 0.9686
2.5791 -7.2942 -2.0032 0.9685
3.8375 -6.7256 -2.0049 0.9685
4.4240 -6.3591 -2.0057 0.9685
4.9756 -5.9415 -2.0065 0.9685
5.4879 -5.4760 -2.0073 0.9685
5.9566 -4.9663 -2.0080 0.9685
6.3779 -4.4166 -2.0086 0.9685
7.0652 -3.2147 -2.0098 0.9684
7.5272 -1.9089 -2.0106 0.9684
7.6163 1.5301 -2.0114 0.9684
7.4492 2.2033 -2.0113 0.9684
7.2223 2.8588 -2.0112 0.9684
6.5975 4.0956 -2.0106 0.9684
6.2046 4.6668 -2.0102 0.9684
5.7622 5.2005 -2.0097 0.9684
0.8702 7.0979 -1.8516 0.9709
0.2335 7.1442 -1.8507 0.9709
-0.4046 7.1333 -1.8499 0.9709
-1.2313 5.1361 -1.3675 0.9784
-2.8687 6.5296 -1.8466 0.9710
-3.4383 6.2450 -1.8458 0.9710
-3.9800 5.9109 -1.8450 0.9710
-1.9586 -6.7783 -1.9974 0.9711
-0.7235 -7.0239 -1.9989 0.9711
1.1636 -6.9733 -2.0014 0.9710
1.7817 -6.8446 -2.0022 0.9710
4.0695 -5.7983 -2.0054 0.9710
5.4651 -4.5185 -2.0074 0.9710
5.8481 -4.0141 -2.0080 0.9709
6.1845 -3.4774 -2.0086 0.9709
6.8888 -1.7168 -2.0098 0.9709
7.0998 0.1685 -2.0105 0.9709
6.9571 1.4275 -2.0105 0.9709
6.8017 2.0424 -2.0105 0.9709
6.5919 2.6408 -2.0103 0.9709
6.0162 3.7691 -2.0098 0.9709
5.2485 4.7763 -2.0090 0.9709
4.7940 5.2173 -2.0058 0.9710
2.9962 5.8237 -1.8541 0.9731
2.4639 6.0657 -1.8534 0.9731
1.9123 6.2590 -1.8527 0.9732
1.3458 6.4022 -1.8520 0.9732
0.7690 6.4942 -1.8513 0.9732
0.1866 6.5342 -1.8506 0.9732
-0.3969 6.5222 -1.8498 0.9732
-2.1071 6.1767 -1.8475 0.9732
-2.6486 5.9617 -1.8468 0.9732
-3.1686 5.6994 -1.8460 0.9733
-3.6630 5.3920 -1.8453 0.9733
-4.1279 5.0419 -1.8447 0.9733
-4.5596 4.6520 -1.8440 0.9733
-4.9548 4.2253 -1.8434 0.9733
-6.0865 3.5453 -1.9940 0.9711
-6.6166 2.4062 -1.9931 0.9712
-6.8037 1.8061 -1.9928 0.9712
-6.9367 1.1918 -1.9925 0.9712
-7.0367 -0.0598 -1.9921 0.9712
-6.9138 -1.3092 -1.9920 0.9712
-6.5718 -2.5173 -1.9922 0.9712
-6.0214 -3.6459 -1.9927 0.9712
-5.6731 -4.1692 -1.9931 0.9712
-5.2797 -4.6597 -1.9935 0.9712
-4.8441 -5.1133 -1.9940 0.9711
-4.3699 -5.5265 -1.9945 0.9711
-2.7532 -6.4925 -1.9964 0.9711
-1.5568 -6.8835 -1.9979 0.9711
-0.3091 -7.0562 -1.9995 0.9711
0.3217 -7.0585 -2.0003 0.9711
2.1819 -6.7297 -2.0028 0.9710
2.7746 -6.5109 -2.0036 0.9710
3.3457 -6.2399 -2.0044 0.9710
4.8838 -5.1370 -2.0066 0.9710
5.3244 -4.6823 -2.0072 0.9710
6.0752 -3.6638 -2.0084 0.9709
6.6327 -2.5271 -2.0093 0.9709
6.8330 -1.9257 -2.0097 0.9709
6.9786 -1.3087 -2.0100 0.9709
7.0684 -0.6810 -2.0103 0.9709
7.1015 -0.0478 -2.0104 0.9709
6.9974 1.2150 -2.0105 0.9709
6.8609 1.8343 -2.0105 0.9709
6.6695 2.4388 -2.0104 0.9709
6.1285 3.5843 -2.0099 0.9709
5.7833 4.1160 -2.0095 0.9709
5.3920 4.6146 -2.0091 0.9709
4.9577 5.0760 -2.0087 0.9709
3.1726 5.7304 -1.8543 0.9731
2.6478 5.9885 -1.8536 0.9731
2.1023 6.1986 -1.8530 0.9732
-0.7797 6.4858 -1.8493 0.9732
-1.3546 6.3877 -1.8485 0.9732
-4.4163 4.7892 -1.8443 0.9733
-5.9732 3.7275 -1.9932 0.9712
-6.5407 2.6068 -1.9933 0.9712
-6.7459 2.0126 -1.9929 0.9712
-6.9942 0.7816 -1.9923 0.9712
-6.9504 -1.0981 -1.9920 0.9712
-6.8249 -1.7137 -1.9921 0.9712
-6.6452 -2.3159 -1.9922 0.9712
-6.4128 -2.8997 -1.9924 0.9712
-6.1293 -3.4606 -1.9926 0.9712
-5.7971 -3.9943 -1.9930 0.9712
-4.9972 -4.9629 -1.9938 0.9711
-4.5357 -5.3903 -1.9943 0.9711
-2.9493 -6.4049 -1.9962 0.9711
-1.7655 -6.8320 -1.9976 0.9711
-1.1495 -6.9649 -1.9984 0.9711
0.1066 -7.0641 -2.0000 0.9711
2.5747 -6.5915 -2.0033 0.9710
3.7079 -6.0338 -2.0049 0.9710
4.2330 -5.6811 -2.0056 0.9710
5.1787 -4.8418 -2.0070 0.9710
6.2813 -3.3006 -2.0087 0.9709
6.7707 -2.1328 -2.0096 0.9709
6.9352 -1.5206 -2.0099 0.9709
7.0966 -0.2641 -2.0104 0.9709
7.0923 0.3701 -2.0105 0.9709
6.7408 2.2346 -2.0104 0.9709
6.5141 2.8268 -2.0102 0.9709
5.5304 4.4486 -2.0093 0.9709
4.6363 5.3425 -2.0025 0.9710
3.3460 5.6317 -1.8545 0.9731
2.8293 5.9058 -1.8539 0.9731
1.7336 6.3100 -1.8525 0.9732
0.5842 6.5126 -1.8511 0.9732
0.0010 6.5361 -1.8503 0.9732
-0.5819 6.5074 -1.8496 0.9732
-1.1596 6.4269 -1.8488 0.9732
-2.2813 6.1136 -1.8473 0.9732
-3.3288 5.6064 -1.8458 0.9733
-3.8142 5.2852 -1.8451 0.9733
-4.2689 4.9221 -1.8445 0.9733
-4.6894 4.5201 -1.8438 0.9733
-5.1541 4.1483 -1.8730 0.9729
-5.8488 3.9023 -1.9905 0.9712
-6.1842 3.3708 -1.9939 0.9711
-6.6819 2.2173 -1.9930 0.9712
-7.0276 0.3687 -1.9922 0.9712
-7.0321 -0.2596 -1.9921 0.9712
-6.9807 -0.8859 -1.9920 0.9712
-6.4979 -2.7029 -1.9923 0.9712
-5.9157 -3.8156 -1.9928 0.9712
-3.6919 -6.0039 -1.9953 0.9711
-3.1427 -6.3113 -1.9959 0.9711
-2.5680 -6.5688 -1.9966 0.9711
-1.9725 -6.7742 -1.9974 0.9711
-1.3609 -6.9258 -1.9981 0.9711
-0.7379 -7.0223 -1.9989 0.9711
0.5221 -7.0474 -2.0005 0.9710
1.1492 -6.9757 -2.0014 0.9710
1.7676 -6.8482 -2.0022 0.9710
2.9588 -6.4303 -2.0038 0.9710
4.0575 -5.8066 -2.0054 0.9710
4.5609 -5.4235 -2.0061 0.9710
5.4557 -4.5297 -2.0074 0.9710
6.1773 -3.4901 -2.0086 0.9709
6.8853 -1.7310 -2.0098 0.9709
7.0851 -0.4801 -2.0103 0.9709
7.1001 0.1539 -2.0105 0.9709
6.9600 1.4132 -2.0105 0.9709
6.8059 2.0283 -2.0105 0.9709
6.5974 2.6272 -2.0103 0.9709
6.3360 3.2049 -2.0101 0.9709
4.8053 5.2080 -2.0061 0.9710
2.4764 6.0606 -1.8534 0.9731
1.9252 6.2551 -1.8528 0.9732
1.3590 6.3995 -1.8520 0.9732
0.7824 6.4926 -1.8513 0.9732
0.2000 6.5339 -1.8506 0.9732
-0.3835 6.5230 -1.8498 0.9732
-1.2377 5.1161 -1.4901 0.9784
-3.1569 5.7060 -1.8461 0.9733
-4.5501 4.6614 -1.8441 0.9733
-6.6117 2.4199 -1.9931 0.9712
-6.9342 1.2061 -1.9925 0.9712
-7.0044 -0.6728 -1.9920 0.9712
-6.5770 -2.5037 -1.9922 0.9712
-6.3281 -3.0807 -1.9924 0.9712
-6.0289 -3.6335 -1.9927 0.9712
-5.2893 -4.6487 -1.9935 0.9712
-4.8546 -5.1033 -1.9940 0.9711
-4.3812 -5.5175 -1.9945 0.9711
-3.8727 -5.8880 -1.9951 0.9711
-3.3331 -6.2120 -1.9957 0.9711
-2.7666 -6.4868 -1.9964 0.9711
-2.1777 -6.7101 -1.9971 0.9711
-1.5710 -6.8802 -1.9979 0.9711
-0.9514 -6.9957 -1.9987 0.9711
-0.3236 -7.0555 -1.9995 0.9711
0.9360 -7.0064 -2.0011 0.9710
1.5580 -6.8978 -2.0019 0.9710
2.7612 -6.5165 -2.0036 0.9710
3.8782 -5.9268 -2.0051 0.9710
4.3931 -5.5592 -2.0059 0.9710
4.8732 -5.1470 -2.0066 0.9710
5.7139 -4.2018 -2.0078 0.9709
6.0676 -3.6763 -2.0084 0.9709
6.3730 -3.1212 -2.0089 0.9709
7.0669 -0.6956 -2.0103 0.9709
6.6745 2.4251 -2.0104 0.9709
6.1359 3.5717 -2.0099 0.9709
5.7918 4.1041 -2.0095 0.9709
5.4015 4.6035 -2.0091 0.9709
4.9682 5.0658 -2.0087 0.9709
3.6835 5.4187 -1.8549 0.9731
3.1844 5.7239 -1.8543 0.9731
1.5535 6.3559 -1.8523 0.9732
0.9800 6.4667 -1.8516 0.9732
0.3990 6.5257 -1.8508 0.9732
-0.7663 6.4874 -1.8493 0.9732
-1.3414 6.3905 -1.8485 0.9732
-1.9054 6.2428 -1.8478 0.9732
-2.4537 6.0455 -1.8470 0.9732
-3.4862 5.5090 -1.8456 0.9733
-5.4448 4.1331 -1.9352 0.9720
-5.9649 3.7395 -1.9930 0.9712
-6.2770 3.1936 -1.9937 0.9711
-6.5354 2.6203 -1.9933 0.9712
-6.8946 1.4168 -1.9926 0.9712
-6.9926 0.7960 -1.9923 0.9712
-7.0351 0.1690 -1.9922 0.9712
-7.0218 -0.4592 -1.9921 0.9712
-6.8284 -1.6997 -1.9921 0.9712
-6.1364 -3.4480 -1.9926 0.9712
-4.0498 -5.7667 -1.9949 0.9711
-3.5203 -6.1069 -1.9955 0.9711
-2.9625 -6.3987 -1.9962 0.9711
-2.3807 -6.6398 -1.9969 0.9711
-1.7796 -6.8283 -1.9976 0.9711
-0.5383 -7.0414 -1.9992 0.9711
0.7221 -7.0307 -2.0008 0.9710
1.3470 -6.9411 -2.0016 0.9710
1.9616 -6.7961 -2.0025 0.9710
3.1406 -6.3445 -2.0041 0.9710
3.6954 -6.0414 -2.0049 0.9710
4.2212 -5.6897 -2.0056 0.9710
4.7136 -5.2924 -2.0063 0.9710
5.1687 -4.8524 -2.0070 0.9710
5.5827 -4.3734 -2.0076 0.9709
6.2744 -3.3135 -2.0087 0.9709
6.5465 -2.7413 -2.0092 0.9709
6.7663 -2.1468 -2.0096 0.9709
6.9320 -1.5349 -2.0099 0.9709
7.0422 -0.9105 -2.0102 0.9709
7.0960 -0.2787 -2.0104 0.9709
6.9170 1.6102 -2.0105 0.9709
6.7454 2.2207 -2.0104 0.9709
6.5199 2.8134 -2.0102 0.9709
5.9145 3.9261 -2.0097 0.9709
5.5396 4.4372 -2.0093 0.9709
5.1206 4.9126 -2.0088 0.9709
4.6478 5.3336 -2.0028 0.9710
3.8472 5.3046 -1.8551 0.9731
3.3576 5.6249 -1.8545 0.9731
1.7466 6.3065 -1.8525 0.9732
0.5977 6.5114 -1.8511 0.9732
0.0144 6.5361 -1.8503 0.9732
-1.3962 5.1293 -1.5049 0.9781
-2.2687 6.1183 -1.8473 0.9732
-3.3172 5.6133 -1.8458 0.9733
-3.8033 5.2931 -1.8451 0.9733
-4.2588 4.9309 -1.8445 0.9733
-4.6801 4.5298 -1.8439 0.9733
-5.1337 4.1494 -1.8687 0.9729
-5.8402 3.9140 -1.9903 0.9712
-6.9654 1.0087 -1.9924 0.9712
-7.0269 0.3832 -1.9922 0.9712
-6.9825 -0.8715 -1.9920 0.9712
-6.5034 -2.6895 -1.9923 0.9712
-5.9236 -3.8034 -1.9928 0.9712
-4.7081 -5.2395 -1.9941 0.9711
-4.2231 -5.6402 -1.9947 0.9711
-3.7043 -5.9962 -1.9953 0.9711
-3.1556 -6.3048 -1.9959 0.9711
-0.7524 -7.0207 -1.9989 0.9711
-0.1232 -7.0627 -1.9997 0.9711
0.5076 -7.0484 -2.0005 0.9710
1.1348 -6.9779 -2.0014 0.9710
2.9455 -6.4363 -2.0038 0.9710
4.5497 -5.4329 -2.0061 0.9710
5.0179 -5.0071 -2.0068 0.9710
5.4463 -4.5409 -2.0074 0.9710
5.8314 -4.0382 -2.0080 0.9709
6.4595 -2.9392 -2.0090 0.9709
6.6974 -2.3517 -2.0095 0.9709
6.8817 -1.7452 -2.0098 0.9709
7.0109 -1.1245 -2.0101 0.9709
7.0840 -0.4947 -2.0103 0.9709
7.1004 0.1392 -2.0105 0.9709
7.0600 0.7721 -2.0105 0.9709
6.8101 2.0143 -2.0105 0.9709
6.3426 3.1918 -2.0101 0.9709
5.6726 4.2667 -2.0094 0.9709
4.8166 5.1987 -2.0063 0.9710
4.0074 5.1855 -1.8552 0.9731
3.5278 5.5206 -1.8547 0.9731
1.3722 6.3967 -1.8521 0.9732
0.2135 6.5335 -1.8506 0.9732
-1.2272 5.1186 -1.4901 0.9784
-2.0816 6.1854 -1.8475 0.9732
-3.1451 5.7125 -1.8461 0.9733
-4.1071 5.0590 -1.8447 0.9733
-2.3516 -6.0519 -1.9970 0.9732
-1.8030 -6.2397 -1.9977 0.9732
-0.0866 -6.5014 -1.9999 0.9732
1.0709 -6.4182 -2.0014 0.9731
1.6398 -6.2994 -2.0021 0.9731
2.1960 -6.1304 -2.0029 0.9731
2.7352 -5.9122 -2.0036 0.9731
3.2528 -5.6467 -2.0044 0.9731
3.7449 -5.3358 -2.0051 0.9731
4.2073 -4.9822 -2.0057 0.9731
5.3811 -3.6936 -2.0075 0.9731
5.6905 -3.1996 -2.0080 0.9730
6.1711 -2.1384 -2.0088 0.9730
6.3383 -1.5796 -2.0091 0.9730
6.5196 -0.4283 -2.0096 0.9730
6.5322 0.1550 -2.0097 0.9730
6.4925 0.7372 -2.0098 0.9730
6.2580 1.8791 -2.0097 0.9730
4.8292 4.3947 -2.0084 0.9730
4.4169 4.8069 -2.0079 0.9731
3.2251 5.0932 -1.8542 0.9751
2.2673 5.5818 -1.8531 0.9751
1.2385 5.8918 -1.8518 0.9751
0.1717 6.0137 -1.8504 0.9751
-0.3653 6.0028 -1.8497 0.9751
-1.2454 5.1016 -1.6152 0.9783
-1.9394 5.6853 -1.8476 0.9752
-2.4380 5.4876 -1.8470 0.9752
-2.9167 5.2464 -1.8463 0.9752
-3.3719 4.9635 -1.8456 0.9752
-3.8000 4.6414 -1.8450 0.9752
-4.1975 4.2825 -1.8444 0.9752
-5.2881 3.7495 -1.9939 0.9732
-5.6036 3.2640 -1.9946 0.9732
-6.2642 1.6629 -1.9935 0.9732
-6.4584 0.5232 -1.9930 0.9732
-6.4789 -0.0551 -1.9928 0.9732
-6.4479 -0.6328 -1.9928 0.9733
-5.8205 -2.8485 -1.9931 0.9732
-5.5439 -3.3568 -1.9934 0.9732
-5.2232 -3.8386 -1.9937 0.9732
-4.8609 -4.2900 -1.9941 0.9732
-4.4598 -4.7076 -1.9945 0.9732
-3.5541 -5.4280 -1.9956 0.9732
-3.0566 -5.7251 -1.9962 0.9732
-2.5345 -5.9768 -1.9968 0.9732
-1.4331 -6.3364 -1.9982 0.9732
3.5802 -5.4468 -2.0048 0.9731
5.5900 -3.3712 -2.0078 0.9731
5.8698 -2.8597 -2.0083 0.9730
6.1027 -2.3252 -2.0087 0.9730
6.4208 -1.2041 -2.0093 0.9730
6.5338 -0.0440 -2.0097 0.9730
6.4379 1.1178 -2.0098 0.9730
6.3124 1.6876 -2.0097 0.9730
5.9111 2.7821 -2.0094 0.9730
5.3212 3.7871 -2.0089 0.9730
4.9612 4.2459 -2.0085 0.9730
4.5617 4.6705 -2.0081 0.9730
4.1148 5.0441 -2.0022 0.9731
3.3791 4.9931 -1.8544 0.9751
2.9194 5.2730 -1.8539 0.9751
2.4366 5.5107 -1.8533 0.9751
1.9346 5.7042 -1.8527 0.9751
1.4176 5.8520 -1.8520 0.9751
0.8896 5.9530 -1.8514 0.9751
-0.1823 6.0119 -1.8500 0.9751
-0.7176 5.9694 -1.8493 0.9752
-1.2468 5.8793 -1.8486 0.9752
-1.7656 5.7425 -1.8479 0.9752
-2.7559 5.3334 -1.8465 0.9752
-4.0656 4.4089 -1.8446 0.9752
-4.5773 4.1507 -1.9005 0.9745
-5.1652 3.9041 -1.9915 0.9733
-5.5020 3.4335 -1.9948 0.9732
-6.2109 1.8530 -1.9936 0.9732
-6.4643 -0.4361 -1.9928 0.9733
-6.3995 -1.0110 -1.9928 0.9733
-6.2839 -1.5779 -1.9928 0.9733
-6.1184 -2.1323 -1.9929 0.9732
-5.6433 -3.1862 -1.9933 0.9732
-4.9890 -4.1397 -1.9940 0.9732
-4.6007 -4.5692 -1.9944 0.9732
-3.7174 -5.3167 -1.9954 0.9732
-3.2292 -5.6287 -1.9960 0.9732
-2.1790 -6.1169 -1.9972 0.9732
-1.6252 -6.2890 -1.9979 0.9732
-1.0581 -6.4112 -1.9986 0.9732
-0.4821 -6.4824 -1.9994 0.9732
1.2529 -6.3860 -2.0016 0.9731
3.4123 -5.5527 -2.0046 0.9731
3.8953 -5.2279 -2.0053 0.9731
4.7654 -4.4553 -2.0066 0.9731
5.4843 -3.5396 -2.0077 0.9731
5.7795 -3.0370 -2.0081 0.9730
6.3809 -1.3991 -2.0092 0.9730
6.5293 -0.2430 -2.0097 0.9730
6.3610 1.4946 -2.0098 0.9730
6.2020 2.0560 -2.0097 0.9730
5.9933 2.6008 -2.0095 0.9730
3.6015 4.9874 -1.8922 0.9746
3.0789 5.1822 -1.8540 0.9751
2.6036 5.4346 -1.8535 0.9751
1.5953 5.8068 -1.8522 0.9751
1.0706 5.9239 -1.8516 0.9751
-0.5355 5.9892 -1.8495 0.9751
-1.0673 5.9153 -1.8488 0.9752
-1.4040 5.1163 -1.6318 0.9780
-2.0999 5.6273 -1.8474 0.9752
-2.5925 5.4156 -1.8467 0.9752
-3.0642 5.1608 -1.8461 0.9752
-3.5111 4.8652 -1.8454 0.9752
-3.9299 4.5311 -1.8448 0.9752
-5.0380 4.0548 -1.9891 0.9733
-5.3954 3.5998 -1.9950 0.9732
-6.1520 2.0414 -1.9937 0.9732
-6.3086 1.4843 -1.9934 0.9732
-6.4150 0.9154 -1.9931 0.9732
-6.4273 -0.8156 -1.9928 0.9733
-5.9827 -2.4886 -1.9930 0.9732
-5.7375 -3.0127 -1.9932 0.9732
-5.4466 -3.5130 -1.9935 0.9732
-4.7374 -4.4266 -1.9942 0.9732
-4.3246 -4.8327 -1.9947 0.9732
-3.3988 -5.5272 -1.9958 0.9732
-2.8931 -5.8101 -1.9964 0.9732
-1.8158 -6.2359 -1.9977 0.9732
-0.6793 -6.4639 -1.9991 0.9732
0.4806 -6.4866 -2.0006 0.9731
1.0577 -6.4203 -2.0014 0.9731
1.6268 -6.3027 -2.0021 0.9731
2.1834 -6.1348 -2.0029 0.9731
3.7339 -5.3435 -2.0050 0.9731
4.1970 -4.9908 -2.0057 0.9731
4.6270 -4.5979 -2.0063 0.9731
5.6839 -3.2113 -2.0080 0.9730
6.4527 -1.0213 -2.0094 0.9730
6.5187 -0.4417 -2.0096 0.9730
6.5325 0.1416 -2.0097 0.9730
6.4036 1.3002 -2.0098 0.9730
6.2618 1.8662 -2.0097 0.9730
6.0700 2.4172 -2.0096 0.9730
5.8295 2.9487 -2.0094 0.9730
5.5425 3.4565 -2.0091 0.9730
4.8383 4.3848 -2.0084 0.9730
4.4269 4.7978 -2.0079 0.9730
3.2356 5.0865 -1.8542 0.9751
2.2789 5.5771 -1.8531 0.9751
1.7717 5.7562 -1.8525 0.9751
1.2507 5.8893 -1.8518 0.9751
0.1841 6.0134 -1.8505 0.9751
-0.3529 6.0036 -1.8498 0.9751
-1.2340 5.1007 -1.6141 0.9783
-1.9277 5.6894 -1.8477 0.9752
-3.7904 4.6492 -1.8450 0.9752
-4.1887 4.2912 -1.8445 0.9752
-5.2799 3.7601 -1.9937 0.9732
-5.8654 2.7627 -1.9942 0.9732
-6.3844 1.1105 -1.9932 0.9732
-6.4573 0.5365 -1.9930 0.9732
-6.4790 -0.0417 -1.9928 0.9732
-6.2367 -1.7557 -1.9928 0.9732
-6.0556 -2.3052 -1.9929 0.9732
-5.8263 -2.8365 -1.9931 0.9732
-5.5508 -3.3454 -1.9934 0.9732
-4.8697 -4.2800 -1.9941 0.9732
-4.0335 -5.0796 -1.9950 0.9732
-3.5653 -5.4206 -1.9956 0.9732
-3.0684 -5.7187 -1.9962 0.9732
-2.5468 -5.9715 -1.9968 0.9732
-2.0046 -6.1770 -1.9974 0.9732
-1.4461 -6.3333 -1.9981 0.9732
-0.8757 -6.4394 -1.9989 0.9732
0.2827 -6.4974 -2.0003 0.9732
0.8615 -6.4487 -2.0011 0.9731
1.9953 -6.1977 -2.0026 0.9731
2.5411 -5.9972 -2.0034 0.9731
3.0671 -5.7487 -2.0041 0.9731
4.0426 -5.1157 -2.0055 0.9731
4.4843 -4.7362 -2.0061 0.9731
4.8904 -4.3186 -2.0067 0.9731
5.5830 -3.3827 -2.0078 0.9731
6.2832 -1.7848 -2.0090 0.9730
6.5020 -0.6400 -2.0095 0.9730
6.1409 2.2312 -2.0096 0.9730
5.6455 3.2863 -2.0092 0.9730
5.3290 3.7762 -2.0089 0.9730
4.9700 4.2357 -2.0085 0.9730
4.1256 5.0361 -2.0024 0.9731
3.3894 4.9861 -1.8544 0.9751
2.9302 5.2671 -1.8539 0.9751
2.4479 5.5057 -1.8533 0.9751
1.9464 5.7003 -1.8527 0.9751
1.4296 5.8492 -1.8520 0.9751
0.9018 5.9512 -1.8514 0.9751
0.3672 6.0057 -1.8507 0.9751
-0.1699 6.0123 -1.8500 0.9751
-0.7053 5.9709 -1.8493 0.9752
-1.2347 5.8819 -1.8486 0.9752
-3.2092 5.0712 -1.8459 0.9752
-3.6475 4.7631 -1.8452 0.9752
-4.0565 4.4173 -1.8446 0.9752
-4.5594 4.1516 -1.8966 0.9745
-5.1567 3.9144 -1.9913 0.9733
-5.4950 3.4448 -1.9948 0.9732
-6.0170 2.4125 -1.9939 0.9732
-6.2071 1.8658 -1.9936 0.9732
-6.3479 1.3045 -1.9933 0.9732
-6.4774 0.1556 -1.9929 0.9732
-6.2871 -1.5649 -1.9928 0.9733
-6.1228 -2.1196 -1.9929 0.9732
-5.9098 -2.6576 -1.9931 0.9732
-5.6498 -3.1746 -1.9933 0.9732
-4.6101 -4.5597 -1.9944 0.9732
-4.1860 -4.9539 -1.9949 0.9732
-3.7284 -5.3090 -1.9954 0.9732
-2.7272 -5.8905 -1.9966 0.9732
-2.1916 -6.1123 -1.9972 0.9732
-1.6382 -6.2856 -1.9979 0.9732
-1.0713 -6.4090 -1.9986 0.9732
-0.4955 -6.4814 -1.9993 0.9732
2.3570 -6.0711 -2.0031 0.9731
2.8902 -5.8387 -2.0039 0.9731
3.8845 -5.2359 -2.0053 0.9731
4.3375 -4.8701 -2.0059 0.9731
5.4769 -3.5509 -2.0076 0.9731
5.7732 -3.0489 -2.0081 0.9730
6.0235 -2.5222 -2.0086 0.9730
6.2256 -1.9752 -2.0089 0.9730
6.3779 -1.4122 -2.0092 0.9730
6.4793 -0.8377 -2.0095 0.9730
6.5288 -0.2564 -2.0097 0.9730
6.5260 0.3270 -2.0098 0.9730
6.4709 0.9079 -2.0098 0.9730
6.3640 1.4815 -2.0098 0.9730
4.7115 4.5201 -2.0082 0.9730
4.2840 4.9160 -2.0056 0.9731
3.6228 4.9951 -1.8979 0.9745
2.6148 5.4292 -1.8535 0.9751
2.1194 5.6390 -1.8529 0.9751
1.6073 5.8036 -1.8523 0.9751
0.5501 5.9925 -1.8509 0.9751
-1.3928 5.1166 -1.6310 0.9781
-2.0883 5.6317 -1.8474 0.9752
-3.5011 4.8725 -1.8455 0.9752
-5.6872 3.1151 -1.9945 0.9732
-5.9411 2.5948 -1.9941 0.9732
-6.1478 2.0541 -1.9937 0.9732
-6.4131 0.9287 -1.9931 0.9732
-6.4290 -0.8024 -1.9928 0.9733
-6.3318 -1.3727 -1.9928 0.9733
-6.1844 -1.9321 -1.9929 0.9732
-5.9878 -2.4763 -1.9930 0.9732
-5.4538 -3.5018 -1.9935 0.9732
-4.3346 -4.8238 -1.9947 0.9732
-2.9050 -5.8041 -1.9964 0.9732
-2.3765 -6.0421 -1.9970 0.9732
-1.8286 -6.2321 -1.9977 0.9732
-0.1134 -6.5009 -1.9998 0.9732
0.4672 -6.4875 -2.0006 0.9731
2.1707 -6.1392 -2.0029 0.9731
4.1867 -4.9994 -2.0057 0.9731
4.6175 -4.6074 -2.0063 0.9731
5.0115 -4.1784 -2.0069 0.9731
5.3658 -3.7157 -2.0075 0.9731
5.6772 -3.2230 -2.0080 0.9730
6.4505 -1.0346 -2.0094 0.9730
6.4062 1.2870 -2.0098 0.9730
6.0750 2.4046 -2.0096 0.9730
5.8356 2.9367 -2.0094 0.9730
5.5496 3.4451 -2.0091 0.9730
5.2193 3.9258 -2.0088 0.9730
4.8474 4.3748 -2.0084 0.9730
4.4368 4.7887 -2.0079 0.9730
1.7836 5.7526 -1.8525 0.9751
0.7324 5.9737 -1.8512 0.9751
-0.8745 5.9477 -1.8491 0.9752
-1.9160 5.6934 -1.8477 0.9752
-2.4154 5.4977 -1.8470 0.9752
-2.8951 5.2584 -1.8463 0.9752
-3.3515 4.9775 -1.8457 0.9752
-0.0801 -6.0161 -2.0000 0.9750
1.5173 -5.8287 -2.0021 0.9749
3.4647 -4.9366 -2.0048 0.9749
3.8925 -4.6093 -2.0054 0.9749
4.2894 -4.2449 -2.0060 0.9749
5.5084 -2.4790 -2.0079 0.9749
5.7086 -1.9781 -2.0083 0.9749
5.8631 -1.4612 -2.0086 0.9749
5.9708 -0.9325 -2.0088 0.9748
6.0308 -0.3962 -2.0090 0.9748
6.0424 0.1434 -2.0091 0.9748
6.0057 0.6819 -2.0092 0.9748
5.9209 1.2149 -2.0092 0.9748
5.3869 2.7387 -2.0088 0.9748
4.8131 3.6514 -2.0082 0.9749
4.4674 4.0654 -2.0078 0.9749
3.6643 4.7821 -2.0026 0.9749
3.0169 4.7644 -1.8745 0.9765
2.5507 4.9578 -1.8533 0.9768
1.1459 5.4511 -1.8516 0.9768
0.6548 5.5298 -1.8510 0.9768
-0.8318 5.5000 -1.8490 0.9768
-2.6992 4.8551 -1.8465 0.9769
-3.1205 4.5934 -1.8459 0.9769
-4.0689 4.1513 -1.9322 0.9758
-4.5612 3.8897 -1.9926 0.9750
-4.8973 3.4724 -1.9956 0.9750
-5.4340 2.5458 -1.9947 0.9750
-5.7980 1.5391 -1.9940 0.9750
-5.9969 -0.0510 -1.9935 0.9750
-5.7693 -1.6370 -1.9935 0.9750
-5.6006 -2.1452 -1.9936 0.9750
-5.3874 -2.6365 -1.9938 0.9750
-5.1313 -3.1070 -1.9940 0.9750
-4.4990 -3.9707 -1.9946 0.9750
-4.1277 -4.3571 -1.9950 0.9750
-3.7234 -4.7090 -1.9955 0.9750
-2.8289 -5.2985 -1.9965 0.9750
-2.3456 -5.5313 -1.9971 0.9750
-1.3262 -5.8638 -1.9984 0.9750
1.3389 -5.8716 -2.0018 0.9749
1.8580 -5.7307 -2.0025 0.9749
2.3626 -5.5440 -2.0032 0.9749
3.3124 -5.0393 -2.0046 0.9749
4.8712 -3.5667 -2.0069 0.9749
5.1712 -3.1186 -2.0073 0.9749
5.4300 -2.6455 -2.0078 0.9749
5.8156 -1.6390 -2.0085 0.9749
6.0439 -0.0407 -2.0091 0.9748
5.9552 1.0340 -2.0092 0.9748
5.8391 1.5611 -2.0091 0.9748
5.6762 2.0756 -2.0090 0.9748
5.4680 2.5735 -2.0088 0.9748
3.8136 4.6748 -2.0054 0.9749
3.2765 4.8415 -1.9433 0.9757
2.2542 5.0983 -1.8530 0.9768
1.3115 5.4143 -1.8518 0.9768
0.3283 5.5575 -1.8505 0.9768
-0.6640 5.5235 -1.8493 0.9768
-1.1515 5.4301 -1.8451 0.9769
-1.6338 5.3138 -1.8480 0.9768
-2.1006 5.1452 -1.8473 0.9768
-2.5503 4.9356 -1.8467 0.9769
-2.9795 4.6869 -1.8461 0.9769
-3.8393 4.1635 -1.8826 0.9764
-4.4361 4.0227 -1.9906 0.9751
-4.7897 3.6203 -1.9957 0.9750
-5.5737 2.2214 -1.9945 0.9750
-5.7487 1.7151 -1.9941 0.9750
-5.8780 1.1953 -1.9939 0.9750
-5.9605 0.6661 -1.9937 0.9750
-5.9833 -0.4037 -1.9934 0.9750
-5.9234 -0.9358 -1.9934 0.9750
-5.6632 -1.9736 -1.9935 0.9750
-4.9401 -3.4038 -1.9942 0.9750
-4.6176 -3.8316 -1.9945 0.9750
-4.2582 -4.2290 -1.9949 0.9750
-3.8648 -4.5930 -1.9953 0.9750
-3.4405 -4.9207 -1.9958 0.9750
-2.9887 -5.2094 -1.9964 0.9750
-2.5127 -5.4568 -1.9969 0.9750
-0.9792 -5.9329 -1.9988 0.9750
2.1924 -5.6128 -2.0030 0.9749
2.6852 -5.3967 -2.0037 0.9749
3.1570 -5.1373 -2.0043 0.9749
4.4086 -4.1218 -2.0062 0.9749
4.7600 -3.7130 -2.0067 0.9749
5.3465 -2.8094 -2.0076 0.9749
5.5769 -2.3217 -2.0080 0.9749
5.9951 -0.7626 -2.0089 0.9748
5.9839 0.8522 -2.0092 0.9748
5.7369 1.9018 -2.0090 0.9748
5.3067 2.8905 -2.0087 0.9748
5.0270 3.3519 -2.0084 0.9749
4.3498 4.1904 -2.0077 0.9749
3.5224 4.8779 -2.0000 0.9750
2.8484 4.7942 -1.8537 0.9768
2.4087 5.0277 -1.8531 0.9768
1.9500 5.2210 -1.8526 0.9768
0.9905 5.4809 -1.8514 0.9768
0.4975 5.5455 -1.8508 0.9768
-0.4955 5.5418 -1.8495 0.9768
-2.3991 5.0115 -1.8469 0.9769
-3.2494 4.5025 -1.8457 0.9769
-3.6370 4.1934 -1.8451 0.9769
-4.2941 4.1391 -1.9825 0.9752
-4.9935 3.3317 -1.9954 0.9750
-5.5038 2.3903 -1.9946 0.9750
-5.6941 1.8895 -1.9942 0.9750
-5.8391 1.3738 -1.9939 0.9750
-5.9377 0.8473 -1.9937 0.9750
-5.9891 0.3143 -1.9935 0.9750
-5.7206 -1.8002 -1.9935 0.9750
-5.5376 -2.3035 -1.9936 0.9750
-5.3105 -2.7886 -1.9938 0.9750
-5.0413 -3.2516 -1.9941 0.9750
-4.0026 -4.4728 -1.9952 0.9750
-3.5885 -4.8132 -1.9957 0.9750
-3.1456 -5.1155 -1.9962 0.9750
-2.1878 -5.5962 -1.9973 0.9750
-1.6804 -5.7709 -1.9979 0.9750
0.4447 -6.0023 -2.0007 0.9749
0.9787 -5.9408 -2.0014 0.9749
2.0202 -5.6763 -2.0028 0.9749
2.5194 -5.4753 -2.0034 0.9749
2.9987 -5.2305 -2.0041 0.9749
4.6442 -3.8560 -2.0065 0.9749
4.9709 -3.4272 -2.0070 0.9749
5.8601 -1.4733 -2.0085 0.9749
5.9689 -0.9448 -2.0088 0.9748
6.0299 -0.4086 -2.0090 0.9748
6.0427 0.1310 -2.0091 0.9748
6.0071 0.6695 -2.0092 0.9748
5.7923 1.7262 -2.0091 0.9748
5.6149 2.2359 -2.0090 0.9748
5.3925 2.7276 -2.0088 0.9748
4.8206 3.6415 -2.0082 0.9749
4.0952 4.4384 -2.0074 0.9749
3.0336 4.7689 -1.8787 0.9765
2.5609 4.9525 -1.8533 0.9768
2.1083 5.1597 -1.8528 0.9768
1.6391 5.3256 -1.8522 0.9768
1.1571 5.4488 -1.8516 0.9768
0.1704 5.5639 -1.8503 0.9768
-1.2306 5.0867 -1.7396 0.9782
-1.7839 5.2647 -1.8478 0.9768
-2.6892 4.8606 -1.8465 0.9769
-4.8902 3.4825 -1.9956 0.9750
-5.7948 1.5511 -1.9940 0.9750
-5.9970 -0.0386 -1.9935 0.9750
-5.8944 -1.1036 -1.9934 0.9750
-5.7727 -1.6251 -1.9934 0.9750
-5.6050 -2.1337 -1.9936 0.9750
-5.3928 -2.6254 -1.9937 0.9750
-5.1377 -3.0964 -1.9940 0.9750
-4.8417 -3.5429 -1.9943 0.9750
-4.1367 -4.3485 -1.9950 0.9750
-3.7331 -4.7013 -1.9955 0.9750
-3.2997 -5.0168 -1.9960 0.9750
-2.8398 -5.2926 -1.9965 0.9750
-2.3570 -5.5264 -1.9971 0.9750
-0.8104 -5.9590 -1.9990 0.9750
0.2616 -6.0123 -2.0004 0.9750
0.7972 -5.9671 -2.0011 0.9749
1.3268 -5.8743 -2.0018 0.9749
2.8377 -5.3188 -2.0039 0.9749
4.1486 -4.3817 -2.0058 0.9749
4.8639 -3.5767 -2.0068 0.9749
5.4245 -2.6566 -2.0078 0.9749
5.8122 -1.6510 -2.0085 0.9749
6.0145 -0.5920 -2.0089 0.9748
6.0438 -0.0531 -2.0091 0.9748
6.0247 0.4862 -2.0091 0.9748
5.8423 1.5491 -2.0091 0.9748
5.4733 2.5622 -2.0088 0.9748
5.2223 3.0399 -2.0086 0.9749
3.2958 4.8485 -1.9488 0.9756
2.7109 4.8727 -1.8535 0.9768
1.8008 5.2737 -1.8524 0.9768
1.3227 5.4116 -1.8518 0.9768
-0.1572 5.5630 -1.8499 0.9768
-0.6526 5.5249 -1.8493 0.9768
-1.1425 5.4427 -1.8486 0.9768
-1.6229 5.3173 -1.8480 0.9768
-2.9698 4.6930 -1.8461 0.9769
-4.4275 4.0315 -1.9904 0.9751
-5.3487 2.7213 -1.9948 0.9750
-5.7452 1.7269 -1.9941 0.9750
-5.8755 1.2074 -1.9939 0.9750
-5.9592 0.6784 -1.9937 0.9750
-5.9955 0.1440 -1.9935 0.9750
-5.9841 -0.3913 -1.9934 0.9750
-5.9253 -0.9236 -1.9934 0.9750
-5.8194 -1.4485 -1.9934 0.9750
-5.6673 -1.9620 -1.9935 0.9750
-3.4506 -4.9135 -1.9958 0.9750
-2.0282 -5.6567 -1.9975 0.9750
-0.4585 -5.9977 -1.9995 0.9750
0.0784 -6.0168 -2.0002 0.9750
1.6704 -5.7874 -2.0023 0.9749
2.1808 -5.6172 -2.0030 0.9749
4.4000 -4.1308 -2.0061 0.9749
4.7523 -3.7228 -2.0067 0.9749
5.3407 -2.8204 -2.0076 0.9749
5.7590 -1.8272 -2.0083 0.9749
5.8998 -1.3063 -2.0086 0.9749
5.9935 -0.7749 -2.0089 0.9748
5.9857 0.8398 -2.0092 0.9748
4.7150 3.7767 -2.0081 0.9749
4.3585 4.1814 -2.0077 0.9749
3.9672 4.5526 -2.0073 0.9749
3.5328 4.8711 -2.0002 0.9750
2.8583 4.7883 -1.8537 0.9768
1.9608 5.2170 -1.8526 0.9768
0.5089 5.5445 -1.8508 0.9768
0.0123 5.5659 -1.8501 0.9768
-2.3888 5.0165 -1.8469 0.9769
-3.2401 4.5092 -1.8457 0.9769
-5.8363 1.3858 -1.9940 0.9750
-5.9884 0.3266 -1.9935 0.9750
-5.9934 -0.2089 -1.9934 0.9750
-5.9507 -0.7427 -1.9934 0.9750
-5.5423 -2.2920 -1.9936 0.9750
-5.0479 -3.2412 -1.9941 0.9750
-4.7394 -3.6791 -1.9944 0.9750
-4.0118 -4.4646 -1.9952 0.9750
-3.1561 -5.1089 -1.9962 0.9750
-2.6885 -5.3716 -1.9967 0.9750
-1.6923 -5.7674 -1.9979 0.9750
-1.1714 -5.8973 -1.9986 0.9750
-0.1049 -6.0156 -1.9999 0.9750
0.4323 -6.0031 -2.0006 0.9749
0.9664 -5.9427 -2.0013 0.9749
2.5081 -5.4804 -2.0034 0.9749
4.9638 -3.4374 -2.0070 0.9749
5.2519 -2.9816 -2.0075 0.9749
5.7003 -2.0016 -2.0082 0.9749
5.8570 -1.4854 -2.0085 0.9749
5.9669 -0.9571 -2.0088 0.9748
5.7959 1.7143 -2.0091 0.9748
5.3981 2.7165 -2.0088 0.9748
5.1336 3.1868 -2.0085 0.9749
4.8281 3.6315 -2.0082 0.9749
4.4841 4.0470 -2.0078 0.9749
4.1044 4.4300 -2.0074 0.9749
2.5712 4.9473 -1.8533 0.9768
1.6501 5.3222 -1.8522 0.9768
1.1684 5.4464 -1.8516 0.9768
-0.3151 5.5557 -1.8497 0.9768
-0.8092 5.5035 -1.8491 0.9768
-2.2352 5.0875 -1.8471 0.9768
-2.6792 4.8662 -1.8465 0.9769
-3.1016 4.6063 -1.8459 0.9769
-3.4990 4.3100 -1.8453 0.9769
-1.5511 -5.3681 -1.9982 0.9765
-0.0745 -5.5924 -2.0001 0.9765
0.9211 -5.5202 -2.0014 0.9765
1.4103 -5.4178 -2.0020 0.9765
2.3521 -5.0842 -2.0033 0.9765
2.7972 -4.8556 -2.0039 0.9765
3.9864 -3.9451 -2.0056 0.9765
4.3235 -3.5747 -2.0061 0.9765
4.6263 -3.1755 -2.0066 0.9764
4.8921 -2.7507 -2.0070 0.9764
5.1190 -2.3038 -2.0074 0.9764
5.4486 -1.3579 -2.0080 0.9764
5.2134 2.0885 -2.0084 0.9764
4.4728 3.3932 -2.0077 0.9764
4.1516 3.7780 -2.0074 0.9764
3.7973 4.1325 -2.0070 0.9764
3.4113 4.4520 -2.0057 0.9765
2.9899 4.7217 -1.9986 0.9765
2.3706 4.6076 -1.8530 0.9782
1.9496 4.7994 -1.8525 0.9782
1.5132 4.9528 -1.8520 0.9782
0.6086 5.1397 -1.8508 0.9783
-0.3142 5.1627 -1.8496 0.9783
-0.7732 5.1124 -1.8490 0.9783
-1.6683 4.8905 -1.8478 0.9783
-2.0972 4.7207 -1.8472 0.9783
-2.5092 4.5134 -1.8467 0.9783
-3.8994 3.9784 -1.9921 0.9766
-4.5531 3.2283 -1.9960 0.9766
-4.8219 2.8087 -1.9955 0.9766
-5.5581 0.4502 -1.9941 0.9766
-5.4784 -1.0374 -1.9939 0.9766
-5.2073 -1.9946 -1.9941 0.9766
-5.0091 -2.4514 -1.9943 0.9766
-4.7709 -2.8888 -1.9945 0.9766
-4.4948 -3.3033 -1.9948 0.9766
-3.8377 -4.0509 -1.9955 0.9766
-3.4617 -4.3780 -1.9959 0.9766
-0.7419 -5.5411 -1.9992 0.9765
-0.2447 -5.5869 -1.9998 0.9765
0.7524 -5.5451 -2.0011 0.9765
5.0461 -2.4585 -2.0073 0.9764
5.2462 -1.9989 -2.0077 0.9764
5.5194 -1.0351 -2.0082 0.9764
5.5903 -0.5386 -2.0084 0.9764
5.6164 -0.0378 -2.0085 0.9764
5.5976 0.4634 -2.0086 0.9764
5.5340 0.9609 -2.0086 0.9764
5.0813 2.3915 -2.0083 0.9764
4.8471 2.8349 -2.0081 0.9764
4.5743 3.2556 -2.0078 0.9764
4.2650 3.6501 -2.0075 0.9764
3.9216 4.0152 -2.0071 0.9764
3.5471 4.3481 -2.0067 0.9764
2.0950 4.7383 -1.8527 0.9782
1.2190 5.0322 -1.8516 0.9782
0.3052 5.1655 -1.8504 0.9783
-0.1568 5.1705 -1.8498 0.9783
-0.6172 5.1342 -1.8492 0.9783
-1.0724 5.0570 -1.8486 0.9783
-1.5187 4.9396 -1.8480 0.9783
-1.9527 4.7829 -1.8474 0.9783
-2.3708 4.5882 -1.8469 0.9783
-2.7698 4.3571 -1.8463 0.9783
-4.1339 3.7487 -1.9956 0.9766
-4.4530 3.3658 -1.9961 0.9766
-4.7344 2.9545 -1.9957 0.9766
-4.9781 2.5198 -1.9953 0.9766
-5.5420 0.6193 -1.9942 0.9766
-5.5632 -0.3753 -1.9940 0.9766
-5.0812 -2.2976 -1.9942 0.9766
-4.2932 -3.5624 -1.9950 0.9766
-3.9590 -3.9319 -1.9953 0.9766
-3.5932 -4.2702 -1.9958 0.9766
-3.1987 -4.5748 -1.9962 0.9766
-2.7785 -4.8431 -1.9967 0.9766
-2.3360 -5.0730 -1.9972 0.9766
-1.8747 -5.2626 -1.9978 0.9765
-1.3982 -5.4105 -1.9984 0.9765
-0.9102 -5.5153 -1.9990 0.9765
1.0776 -5.4924 -2.0016 0.9765
2.0378 -5.2169 -2.0029 0.9765
2.4958 -5.0159 -2.0035 0.9765
2.9342 -4.7747 -2.0041 0.9765
3.3494 -4.4953 -2.0047 0.9765
3.7381 -4.1797 -2.0053 0.9765
4.4236 -3.4507 -2.0063 0.9764
4.7149 -3.0430 -2.0068 0.9764
4.9686 -2.6108 -2.0072 0.9764
5.1826 -2.1576 -2.0075 0.9764
5.4851 -1.2027 -2.0081 0.9764
5.4678 1.2848 -2.0086 0.9764
5.3312 1.7673 -2.0085 0.9764
5.1519 2.2357 -2.0084 0.9764
4.9314 2.6861 -2.0082 0.9764
4.0424 3.8942 -2.0072 0.9764
1.3718 4.9933 -1.8518 0.9782
0.9207 5.0942 -1.8512 0.9782
-2.6361 4.4398 -1.8465 0.9783
-3.6004 4.1513 -1.9651 0.9769
-4.6426 3.0975 -1.9958 0.9766
-4.8994 2.6705 -1.9954 0.9766
-5.2941 1.7567 -1.9947 0.9766
-5.5207 0.7878 -1.9942 0.9766
-5.3189 -1.6738 -1.9940 0.9766
-4.3994 -3.4298 -1.9949 0.9766
-4.0767 -3.8092 -1.9952 0.9766
-3.7213 -4.1585 -1.9956 0.9766
-3.3363 -4.4749 -1.9961 0.9766
-2.4892 -4.9990 -1.9970 0.9766
-2.0339 -5.2026 -1.9976 0.9765
-1.5622 -5.3648 -1.9982 0.9765
-1.0777 -5.4844 -1.9988 0.9765
-0.5843 -5.5604 -1.9994 0.9765
-0.0860 -5.5922 -2.0000 0.9765
0.4133 -5.5794 -2.0007 0.9765
0.9097 -5.5221 -2.0013 0.9765
1.3991 -5.4207 -2.0020 0.9765
1.8777 -5.2760 -2.0027 0.9765
3.2106 -4.5947 -2.0045 0.9765
3.6087 -4.2913 -2.0051 0.9765
3.9782 -3.9533 -2.0056 0.9765
5.5822 0.6221 -2.0086 0.9764
5.3826 1.6041 -2.0085 0.9764
5.2177 2.0778 -2.0084 0.9764
4.4798 3.3840 -2.0077 0.9764
4.1594 3.7695 -2.0074 0.9764
3.8058 4.1247 -2.0070 0.9764
2.9999 4.7159 -1.9987 0.9765
1.9595 4.7954 -1.8525 0.9782
1.0755 5.0643 -1.8514 0.9782
0.1583 5.1716 -1.8503 0.9783
-0.3035 5.1634 -1.8497 0.9783
-0.7627 5.1141 -1.8490 0.9783
-1.2154 5.0240 -1.8484 0.9783
-2.8922 4.2762 -1.8461 0.9783
-3.3934 4.1622 -1.9204 0.9774
-3.8910 3.9862 -1.9920 0.9766
-4.5464 3.2377 -1.9960 0.9766
-4.8161 2.8187 -1.9956 0.9766
-5.0474 2.3773 -1.9952 0.9766
-5.3878 1.4421 -1.9945 0.9766
-5.5759 -0.0359 -1.9940 0.9766
-5.4806 -1.0261 -1.9939 0.9766
-5.3673 -1.5110 -1.9940 0.9766
-4.7769 -2.8789 -1.9945 0.9766
-4.1905 -3.6831 -1.9951 0.9766
-3.4707 -4.3709 -1.9959 0.9766
-2.6401 -4.9204 -1.9969 0.9766
-2.1912 -5.1377 -1.9974 0.9766
-1.7246 -5.3142 -1.9980 0.9765
-0.7533 -5.5395 -1.9992 0.9765
-0.2562 -5.5864 -1.9998 0.9765
1.2333 -5.4602 -2.0018 0.9765
2.6375 -4.9435 -2.0037 0.9765
3.0689 -4.6899 -2.0043 0.9765
3.4760 -4.3987 -2.0049 0.9765
3.8556 -4.0722 -2.0054 0.9765
4.2046 -3.7130 -2.0060 0.9765
4.5202 -3.3240 -2.0065 0.9764
5.0410 -2.4689 -2.0073 0.9764
5.2421 -2.0097 -2.0076 0.9764
5.4013 -1.5343 -2.0079 0.9764
5.5173 -1.0465 -2.0082 0.9764
5.5891 -0.5502 -2.0084 0.9764
5.4291 1.4395 -2.0086 0.9764
5.2787 1.9180 -2.0085 0.9764
3.9299 4.0072 -2.0071 0.9764
3.1458 4.6278 -2.0011 0.9765
2.5690 4.6177 -1.8897 0.9778
-1.0620 5.0592 -1.8487 0.9783
-1.5086 4.9427 -1.8480 0.9783
-1.9428 4.7869 -1.8475 0.9783
-2.3614 4.5931 -1.8469 0.9783
-2.7609 4.3628 -1.8463 0.9783
-4.4461 3.3750 -1.9961 0.9766
-4.9729 2.5301 -1.9953 0.9766
-5.3416 1.6056 -1.9946 0.9766
-5.4629 1.1226 -1.9944 0.9766
-5.5407 0.6307 -1.9942 0.9766
-5.5640 -0.3639 -1.9940 0.9766
-5.5093 -0.8587 -1.9939 0.9766
-5.2693 -1.8242 -1.9941 0.9766
-5.0859 -2.2871 -1.9942 0.9766
-4.8621 -2.7320 -1.9944 0.9766
-4.5996 -3.1552 -1.9947 0.9766
-3.9671 -3.9237 -1.9953 0.9766
-3.6020 -4.2628 -1.9957 0.9766
-3.2081 -4.5682 -1.9962 0.9766
0.0728 -5.5930 -2.0003 0.9765
1.0663 -5.4946 -2.0016 0.9765
1.5527 -5.3793 -2.0022 0.9765
2.4854 -5.0210 -2.0035 0.9765
3.3401 -4.5021 -2.0047 0.9765
3.7295 -4.1874 -2.0053 0.9765
4.0892 -3.8390 -2.0058 0.9765
4.4165 -3.4598 -2.0063 0.9764
5.4826 -1.2140 -2.0081 0.9764
5.5696 -0.7201 -2.0083 0.9764
5.5623 0.7804 -2.0086 0.9764
5.1565 2.2251 -2.0084 0.9764
4.9370 2.6759 -2.0082 0.9764
4.6780 3.1053 -2.0079 0.9764
4.3817 3.5097 -2.0076 0.9764
3.6869 4.2308 -2.0068 0.9764
3.2893 4.5353 -2.0035 0.9765
2.7924 4.6780 -1.9483 0.9771
2.2482 4.6681 -1.8529 0.9782
0.9312 5.0923 -1.8512 0.9782
-0.4500 5.1522 -1.8495 0.9783
-1.7963 4.8444 -1.8477 0.9783
-4.0059 3.8773 -1.9937 0.9766
-4.6362 3.1071 -1.9958 0.9766
-5.5191 0.7992 -1.9942 0.9766
-5.5679 0.3037 -1.9941 0.9766
-5.5329 -0.6905 -1.9939 0.9766
-5.1531 -2.1311 -1.9942 0.9766
-4.9429 -2.5825 -1.9943 0.9766
-4.4065 -3.4207 -1.9949 0.9766
-3.7299 -4.1508 -1.9956 0.9766
-3.3454 -4.4680 -1.9960 0.9766
-2.0446 -5.1983 -1.9976 0.9765
-1.5732 -5.3616 -1.9982 0.9765
-1.0890 -5.4822 -1.9988 0.9765
-0.5958 -5.5592 -1.9994 0.9765
0.8983 -5.5239 -2.0013 0.9765
2.3311 -5.0938 -2.0033 0.9765
2.7771 -4.8671 -2.0039 0.9765
3.5999 -4.2986 -2.0051 0.9765
4.3087 -3.5924 -2.0061 0.9765
4.6131 -3.1945 -2.0066 0.9764
4.8807 -2.7708 -2.0070 0.9764
5.1094 -2.3248 -2.0074 0.9764
5.2973 -1.8601 -2.0077 0.9764
5.4429 -1.3803 -2.0080 0.9764
5.5449 -0.8894 -2.0083 0.9764
5.6027 -0.3912 -2.0084 0.9764
5.6155 0.1101 -2.0085 0.9764
5.5067 1.1063 -2.0086 0.9764
5.2220 2.0670 -2.0084 0.9764
5.0164 2.5244 -2.0082 0.9764
4.4868 3.3748 -2.0077 0.9764
3.8143 4.1169 -2.0070 0.9764
3.4303 4.4387 -2.0061 0.9765
1.9694 4.7914 -1.8525 0.9782
1.0859 5.0621 -1.8514 0.9782
0.1690 5.1713 -1.8503 0.9783
-0.2929 5.1640 -1.8497 0.9783
-0.7521 5.1157 -1.8491 0.9783
-1.2051 5.0265 -1.8485 0.9783
-1.6481 4.8974 -1.8479 0.9783
-2.0778 4.7293 -1.8473 0.9783
-2.4906 4.5237 -1.8467 0.9783
-3.3797 4.1629 -1.9175 0.9775
-1.8882 -4.8594 -1.9979 0.9779
-0.9952 -5.1204 -1.9990 0.9779
-0.0695 -5.2189 -2.0001 0.9779
2.1948 -4.7441 -2.0032 0.9779
3.0046 -4.2810 -2.0043 0.9778
3.3754 -3.9970 -2.0048 0.9778
4.0339 -3.3352 -2.0058 0.9778
4.3163 -2.9627 -2.0063 0.9778
4.5643 -2.5664 -2.0067 0.9778
4.7759 -2.1494 -2.0070 0.9778
4.9493 -1.7150 -2.0073 0.9778
5.1765 -0.8084 -2.0078 0.9778
5.2385 0.1243 -2.0081 0.9778
5.1331 1.0533 -2.0081 0.9778
4.8639 1.9485 -2.0079 0.9778
4.6703 2.3744 -2.0078 0.9778
4.4393 2.7813 -2.0075 0.9778
4.1730 3.1658 -2.0073 0.9778
3.5428 3.8556 -2.0066 0.9778
3.1841 4.1554 -2.0062 0.9778
2.7952 4.4142 -2.0022 0.9779
1.4119 4.6213 -1.8518 0.9795
0.9938 4.7275 -1.8512 0.9795
0.1378 4.8260 -1.8502 0.9795
-0.7215 4.7708 -1.8490 0.9795
-1.1439 4.6860 -1.8485 0.9795
-2.8312 4.1676 -1.9308 0.9786
-3.6474 3.7212 -1.9968 0.9779
-4.2495 3.0131 -1.9963 0.9779
-5.1879 0.4202 -1.9946 0.9780
-5.1135 -0.9683 -1.9944 0.9780
-3.5819 -3.7809 -1.9959 0.9779
-3.2310 -4.0862 -1.9963 0.9779
-2.8542 -4.3590 -1.9967 0.9779
-2.4545 -4.5974 -1.9972 0.9779
-2.0352 -4.7992 -1.9977 0.9779
-1.1506 -5.0872 -1.9988 0.9779
-0.2284 -5.2138 -1.9999 0.9779
0.2377 -5.2150 -2.0005 0.9779
0.7022 -5.1745 -2.0011 0.9779
1.1613 -5.0928 -2.0018 0.9779
1.6115 -4.9704 -2.0024 0.9779
2.0491 -4.8083 -2.0030 0.9779
3.2518 -4.0976 -2.0047 0.9778
3.6053 -3.7922 -2.0052 0.9778
3.9302 -3.4563 -2.0057 0.9778
4.7079 -2.2937 -2.0069 0.9778
4.8946 -1.8649 -2.0072 0.9778
5.2154 -0.5025 -2.0079 0.9778
5.2398 -0.0353 -2.0080 0.9778
5.1629 0.8964 -2.0081 0.9778
4.9211 1.7995 -2.0080 0.9778
3.6588 3.7461 -2.0067 0.9778
2.9316 4.3317 -2.0044 0.9778
2.5255 4.5616 -1.9981 0.9779
1.9761 4.4693 -1.8727 0.9793
1.5522 4.5766 -1.8519 0.9795
-0.1463 4.8248 -1.8498 0.9795
-0.5760 4.7910 -1.8492 0.9795
-1.4173 4.6096 -1.8481 0.9796
-1.8223 4.4635 -1.8475 0.9796
-2.2126 4.2819 -1.8470 0.9796
-3.5295 3.8275 -1.9952 0.9779
-3.8602 3.5004 -1.9969 0.9779
-4.6463 2.3519 -1.9957 0.9779
-4.8368 1.9277 -1.9954 0.9779
-5.1011 1.0373 -1.9948 0.9779
-5.1407 -0.8121 -1.9944 0.9780
-4.9148 -1.7128 -1.9945 0.9780
-4.5330 -2.5593 -1.9949 0.9779
-4.0071 -3.3250 -1.9954 0.9779
-1.7496 -4.9115 -1.9980 0.9779
-0.8495 -5.1471 -1.9991 0.9779
0.0787 -5.2192 -2.0003 0.9779
0.5442 -5.1930 -2.0009 0.9779
1.4592 -5.0167 -2.0022 0.9779
1.9015 -4.8680 -2.0028 0.9779
2.3288 -4.6803 -2.0034 0.9779
3.8228 -3.5741 -2.0055 0.9778
4.1273 -3.2196 -2.0060 0.9778
4.3990 -2.8391 -2.0064 0.9778
4.8352 -2.0130 -2.0071 0.9778
4.9963 -1.5739 -2.0074 0.9778
5.1174 -1.1220 -2.0077 0.9778
5.1976 -0.6611 -2.0078 0.9778
5.2329 0.2730 -2.0081 0.9778
5.1878 0.7388 -2.0081 0.9778
5.1011 1.1986 -2.0081 0.9778
4.9737 1.6488 -2.0080 0.9778
4.6008 2.5060 -2.0077 0.9778
3.4317 3.9544 -2.0065 0.9778
3.0646 4.2439 -2.0060 0.9778
2.1573 4.5031 -1.9135 0.9788
1.2800 4.6591 -1.8516 0.9795
0.8591 4.7534 -1.8511 0.9795
0.0007 4.8275 -1.8500 0.9795
-0.4298 4.8068 -1.8494 0.9795
-0.8566 4.7479 -1.8489 0.9795
-1.2764 4.6511 -1.8483 0.9796
-1.6857 4.5174 -1.8477 0.9796
-2.0813 4.3477 -1.8472 0.9796
-2.4844 4.1842 -1.8648 0.9794
-3.0014 4.1589 -1.9655 0.9783
-3.4087 3.9302 -1.9937 0.9780
-3.7521 3.6166 -1.9971 0.9779
-4.0588 3.2667 -1.9966 0.9779
-4.7761 2.0743 -1.9955 0.9779
-5.0673 1.1922 -1.9949 0.9779
-5.1530 0.7354 -1.9947 0.9779
-4.8057 -1.9991 -1.9946 0.9780
-4.6087 -2.4200 -1.9948 0.9779
-4.3749 -2.8218 -1.9950 0.9779
-4.1063 -3.2012 -1.9953 0.9779
-3.8050 -3.5554 -1.9956 0.9779
-2.7295 -4.4387 -1.9968 0.9779
-2.3232 -4.6656 -1.9973 0.9779
-0.5453 -5.1892 -1.9995 0.9779
-0.0802 -5.2187 -2.0001 0.9779
0.8489 -5.1530 -2.0013 0.9779
1.3056 -5.0583 -2.0020 0.9779
2.6006 -4.5361 -2.0037 0.9779
2.9957 -4.2872 -2.0043 0.9778
3.3671 -4.0039 -2.0048 0.9778
3.7118 -3.6885 -2.0053 0.9778
4.0270 -3.3435 -2.0058 0.9778
4.3102 -2.9716 -2.0062 0.9778
4.5590 -2.5758 -2.0066 0.9778
4.9458 -1.7252 -2.0073 0.9778
5.0806 -1.2773 -2.0076 0.9778
5.1749 -0.8191 -2.0078 0.9778
5.2277 -0.3542 -2.0079 0.9778
5.2387 0.1135 -2.0081 0.9778
5.1353 1.0427 -2.0081 0.9778
5.0217 1.4966 -2.0080 0.9778
4.6752 2.3648 -2.0078 0.9778
4.4451 2.7721 -2.0075 0.9778
4.1795 3.1572 -2.0073 0.9778
3.8806 3.5169 -2.0070 0.9778
3.1927 4.1489 -2.0062 0.9778
2.8045 4.4087 -2.0024 0.9779
2.3466 4.5381 -1.9578 0.9784
1.8283 4.4744 -1.8523 0.9795
0.5778 4.7947 -1.8507 0.9795
0.1478 4.8257 -1.8502 0.9795
-0.2832 4.8182 -1.8496 0.9795
-1.1342 4.6883 -1.8485 0.9795
-1.5475 4.5671 -1.8479 0.9796
-1.9481 4.4095 -1.8474 0.9796
-2.8191 4.1682 -1.9283 0.9787
-3.6395 3.7285 -1.9967 0.9779
-3.9577 3.3891 -1.9968 0.9779
-4.4951 2.6308 -1.9959 0.9779
-4.7110 2.2189 -1.9956 0.9779
-4.8894 1.7895 -1.9953 0.9779
-4.8643 -1.8517 -1.9946 0.9780
-4.4586 -2.6871 -1.9949 0.9779
-3.5896 -3.7735 -1.9959 0.9779
-3.2394 -4.0795 -1.9963 0.9779
-2.4640 -4.5923 -1.9972 0.9779
-0.7030 -5.1696 -1.9993 0.9779
0.6915 -5.1759 -2.0011 0.9779
1.1508 -5.0952 -2.0017 0.9779
2.0391 -4.8125 -2.0029 0.9779
2.4610 -4.6127 -2.0035 0.9779
3.2433 -4.1043 -2.0046 0.9778
4.4781 -2.7133 -2.0065 0.9778
4.7032 -2.3034 -2.0069 0.9778
5.0392 -1.4314 -2.0075 0.9778
5.2144 -0.5133 -2.0079 0.9778
5.2397 -0.0461 -2.0080 0.9778
5.1647 0.8858 -2.0081 0.9778
5.0650 1.3430 -2.0081 0.9778
4.9248 1.7894 -2.0080 0.9778
4.5276 2.6355 -2.0076 0.9778
3.6666 3.7386 -2.0067 0.9778
2.9407 4.3260 -2.0046 0.9778
1.5616 4.5734 -1.8520 0.9795
0.2947 4.8195 -1.8504 0.9795
-0.5661 4.7922 -1.8492 0.9795
-1.8131 4.4673 -1.8476 0.9796
-2.2037 4.2865 -1.8470 0.9796
-3.8530 3.5084 -1.9969 0.9779
-4.1496 3.1500 -1.9965 0.9779
-4.4132 2.7667 -1.9961 0.9779
-4.6415 2.3615 -1.9957 0.9779
-4.9857 1.4987 -1.9951 0.9779
-5.0989 1.0478 -1.9948 0.9779
-5.1934 -0.3396 -1.9944 0.9780
-4.7472 -2.1348 -1.9947 0.9780
-4.2932 -2.9450 -1.9951 0.9779
-4.0139 -3.3167 -1.9954 0.9779
-3.7027 -3.6622 -1.9957 0.9779
-3.3619 -3.9786 -1.9961 0.9779
-2.9942 -4.2636 -1.9965 0.9779
-2.6025 -4.5147 -1.9970 0.9779
-1.7597 -4.9078 -1.9980 0.9779
-0.3978 -5.2030 -1.9997 0.9779
0.5335 -5.1940 -2.0009 0.9779
0.9950 -5.1273 -2.0015 0.9779
1.4488 -5.0196 -2.0021 0.9779
1.8914 -4.8719 -2.0027 0.9779
2.3192 -4.6851 -2.0033 0.9779
2.7286 -4.4608 -2.0039 0.9778
3.1165 -4.2008 -2.0045 0.9778
3.4798 -3.9070 -2.0050 0.9778
3.8154 -3.5819 -2.0055 0.9778
4.3931 -2.8482 -2.0064 0.9778
5.1150 -1.1326 -2.0076 0.9778
5.1962 -0.6718 -2.0078 0.9778
5.2335 0.2623 -2.0081 0.9778
4.8108 2.0759 -2.0079 0.9778
4.6060 2.4965 -2.0077 0.9778
4.3644 2.8971 -2.0075 0.9778
4.0880 3.2744 -2.0072 0.9778
3.7790 3.6254 -2.0068 0.9778
3.4398 3.9473 -2.0065 0.9778
3.0733 4.2376 -2.0060 0.9778
2.6755 4.4821 -2.0004 0.9779
1.7003 4.5241 -1.8521 0.9795
-0.8468 4.7497 -1.8489 0.9795
-1.6764 4.5209 -1.8477 0.9796
-3.4004 3.9370 -1.9936 0.9780
-3.7446 3.6244 -1.9971 0.9779
-4.5677 2.5019 -1.9958 0.9779
-4.7719 2.0841 -1.9955 0.9779
-4.9380 1.6499 -1.9952 0.9779
-5.0649 1.2027 -1.9949 0.9779
-5.2014 -0.1813 -1.9945 0.9780
-4.6136 -2.4105 -1.9948 0.9779
-4.3807 -2.8128 -1.9950 0.9779
-3.8123 -3.5475 -1.9956 0.9779
-3.4813 -3.8742 -1.9960 0.9779
-2.7386 -4.4330 -1.9968 0.9779
-2.3328 -4.6608 -1.9973 0.9779
-1.9082 -4.8515 -1.9978 0.9779
-0.0910 -5.2185 -2.0001 0.9779
0.3750 -5.2073 -2.0007 0.9779
0.8383 -5.1547 -2.0013 0.9779
1.2952 -5.0609 -2.0019 0.9779
1.7420 -4.9267 -2.0025 0.9779
2.5913 -4.5414 -2.0037 0.9779
2.9869 -4.2933 -2.0043 0.9778
3.3589 -4.0108 -2.0048 0.9778
3.7042 -3.6962 -2.0053 0.9778
4.3040 -2.9805 -2.0062 0.9778
4.5537 -2.5852 -2.0066 0.9778
4.9422 -1.7354 -2.0073 0.9778
5.0780 -1.2878 -2.0076 0.9778
5.1732 -0.8297 -2.0078 0.9778
5.2270 -0.3650 -2.0079 0.9778
5.2090 0.5697 -2.0081 0.9778
5.0248 1.4862 -2.0080 0.9778
4.8719 1.9284 -2.0079 0.9778
4.6800 2.3551 -2.0078 0.9778
4.4508 2.7629 -2.0075 0.9778
4.1860 3.1485 -2.0073 0.9778
3.8879 3.5089 -2.0070 0.9778
3.5587 3.8410 -2.0066 0.9778
2.8138 4.4033 -2.0025 0.9779
1.8375 4.4706 -1.8523 0.9795
0.5877 4.7936 -1.8507 0.9795
-0.2733 4.8188 -1.8496 0.9795
-0.7019 4.7738 -1.8491 0.9795
-1.5381 4.5703 -1.8479 0.9796
-1.9390 4.4136 -1.8474 0.9796
-2.8070 4.1688 -1.9259 0.9787
-3.2765 4.0358 -1.9921 0.9780
-1.7682 -4.5505 -1.9981 0.9791
-0.9319 -4.7948 -1.9991 0.9791
-0.5006 -4.8601 -1.9996 0.9791
0.3712 -4.8745 -2.0008 0.9791
2.0549 -4.4418 -2.0030 0.9791
2.4436 -4.2419 -2.0036 0.9791
3.4822 -3.4461 -2.0051 0.9790
4.0409 -2.7737 -2.0059 0.9790
4.2730 -2.4026 -2.0063 0.9790
4.4710 -2.0122 -2.0066 0.9790
4.6333 -1.6055 -2.0069 0.9790
4.8945 -0.3215 -2.0075 0.9790
4.9039 0.1164 -2.0076 0.9790
4.8741 0.5534 -2.0077 0.9790
4.8053 0.9860 -2.0077 0.9790
4.6980 1.4107 -2.0076 0.9790
4.1559 2.6037 -2.0071 0.9790
2.9809 3.8903 -2.0059 0.9790
2.2356 4.3453 -2.0000 0.9791
1.7924 4.4126 -1.9493 0.9796
0.9304 4.4262 -1.8511 0.9806
0.5317 4.4903 -1.8506 0.9806
0.1290 4.5186 -1.8501 0.9807
-0.2745 4.5108 -1.8496 0.9807
-0.6756 4.4670 -1.8490 0.9807
-1.4578 4.2735 -1.8480 0.9807
-2.3184 4.1701 -1.9527 0.9796
-2.7365 4.0281 -1.9931 0.9792
-3.0906 3.7750 -1.9968 0.9791
-3.7128 3.1661 -1.9970 0.9791
-2.1358 0.3670 -0.8870 0.9907
-1.9066 -0.0162 -0.7804 0.9918
-2.2065 -0.4178 -0.9191 0.9903
-3.9290 -2.8875 -1.9956 0.9791
-3.3544 -3.5408 -1.9962 0.9791
-3.0257 -3.8266 -1.9966 0.9791
-2.6729 -4.0821 -1.9970 0.9791
-1.9058 -4.4942 -1.9979 0.9791
-1.0774 -4.7637 -1.9989 0.9791
-0.6483 -4.8422 -1.9995 0.9791
0.6575 -4.8451 -2.0012 0.9791
1.0874 -4.7685 -2.0017 0.9791
1.9185 -4.5019 -2.0029 0.9791
3.0445 -3.8363 -2.0044 0.9791
3.6794 -3.2358 -2.0054 0.9790
3.9542 -2.8952 -2.0058 0.9790
4.5821 -1.7458 -2.0068 0.9790
4.7202 -1.3303 -2.0071 0.9790
4.9051 -0.0330 -2.0076 0.9790
4.7389 1.2669 -2.0076 0.9790
4.4378 2.0886 -2.0074 0.9790
3.9952 2.8434 -2.0070 0.9790
3.7251 3.1880 -2.0067 0.9790
3.0982 3.7979 -2.0060 0.9790
2.7465 4.0583 -2.0056 0.9790
2.3690 4.2790 -2.0018 0.9791
1.4792 4.3615 -1.8849 0.9803
1.0649 4.3962 -1.8513 0.9806
