ply
format ascii 1.0
element vertex 1592
property float32 x
property float32 y
property float32 z
property float32 I
end_header
9.3978 -6.1457 -2.1106 0.9553
10.6338 -3.4236 -2.0998 0.9556
11.1496 -2.5196 -2.1485 0.9545
11.5901 -1.5510 -2.1979 0.9535
9.6181 1.3029 -1.8243 0.9613
8.5479 1.9462 -1.6478 0.9649
6.8656 2.9215 -1.4024 0.9701
6.1395 3.2869 -1.3090 0.9721
4.9383 3.9123 -1.1842 0.9747
4.1399 4.6978 -1.1769 0.9748
3.0442 5.0337 -1.1057 0.9763
2.5916 5.3015 -1.1092 0.9763
2.1324 5.5727 -1.1215 0.9760
1.1635 6.1489 -1.1763 0.9749
-0.5263 6.5117 -1.2279 0.9738
-2.1596 12.5901 -2.4010 0.9493
-5.0920 10.8852 -2.2588 0.9523
-6.3685 10.9501 -2.3810 0.9497
-2.1160 2.4857 -0.6136 0.9868
-8.9371 7.3330 -2.1729 0.9540
-9.6552 5.3840 -2.0779 0.9560
-10.0246 3.4362 -1.9919 0.9578
-9.0350 -2.7389 -1.7745 0.9623
-8.6566 -3.4934 -1.7546 0.9627
-7.2411 -5.5189 -1.7113 0.9636
-6.0918 -6.6567 -1.6961 0.9639
-4.8009 -7.6123 -1.6916 0.9640
-4.1079 -8.0184 -1.6934 0.9640
-3.3860 -8.3748 -1.6979 0.9639
-1.8643 -8.9321 -1.7151 0.9635
0.5797 -9.3523 -1.7612 0.9626
1.4275 -9.3734 -1.7821 0.9621
2.2870 -9.3314 -1.8058 0.9617
4.0277 -9.0484 -1.8616 0.9605
5.7699 -8.4839 -1.9285 0.9591
6.6294 -8.0904 -1.9660 0.9583
7.4735 -7.6200 -2.0061 0.9575
8.2955 -7.0710 -2.0488 0.9566
9.0881 -6.4422 -2.0938 0.9557
9.1336 -5.3201 -1.9868 0.9579
9.7912 -4.5881 -2.0324 0.9569
10.3969 -3.7832 -2.0796 0.9560
10.9414 -2.9078 -2.1279 0.9550
11.8070 -0.9622 -2.2266 0.9529
11.6296 0.0920 -2.1860 0.9538
8.0148 2.2664 -1.5655 0.9667
5.1700 3.7892 -1.2048 0.9742
4.3469 4.5747 -1.1861 0.9746
3.6896 4.6509 -1.1159 0.9761
2.7823 5.1887 -1.1066 0.9763
1.0365 3.1946 -0.6313 0.9864
0.7379 3.2308 -0.6229 0.9866
0.8639 6.3463 -1.2039 0.9743
0.3098 6.7179 -1.2641 0.9730
-2.7769 12.3255 -2.3748 0.9499
-3.7878 11.7914 -2.3279 0.9508
-5.5763 10.4730 -2.2302 0.9529
-7.5670 9.5961 -2.2970 0.9515
-8.2012 8.6818 -2.2448 0.9526
-8.7393 7.7369 -2.1939 0.9536
-9.1827 6.7716 -2.1446 0.9546
-9.5342 5.7955 -2.0972 0.9556
-9.9744 3.8428 -2.0091 0.9574
-10.0709 2.8797 -1.9688 0.9583
-10.0904 1.9331 -1.9311 0.9590
-10.0372 1.0077 -1.8961 0.9598
-9.7292 -0.7642 -1.8343 0.9611
-9.4824 -1.6044 -1.8077 0.9616
-9.1788 -2.4106 -1.7838 0.9621
-8.8218 -3.1808 -1.7626 0.9626
-7.9609 -4.6058 -1.7287 0.9633
-5.7314 -6.9529 -1.6937 0.9640
-5.0831 -7.4271 -1.6916 0.9640
-3.6928 -8.2312 -1.6957 0.9639
-2.9553 -8.5580 -1.7018 0.9638
-1.4058 -9.0533 -1.7221 0.9634
1.0695 -9.3721 -1.7730 0.9623
1.9245 -9.3569 -1.7955 0.9619
2.7893 -9.2772 -1.8209 0.9613
6.2697 -8.2651 -1.9499 0.9587
7.1210 -7.8272 -1.9890 0.9578
8.7590 -6.7163 -2.0746 0.9561
9.5058 -6.0253 -2.1154 0.9552
10.7206 -3.2842 -2.1075 0.9554
11.2250 -2.3696 -2.1564 0.9544
11.6526 -1.3911 -2.2058 0.9534
11.7717 -0.3485 -2.2136 0.9532
10.7197 0.6400 -2.0185 0.9572
7.5248 2.5547 -1.4936 0.9682
6.0331 3.3411 -1.2963 0.9723
5.4114 3.6623 -1.2282 0.9738
4.5574 4.4495 -1.1972 0.9744
3.8839 4.5355 -1.1224 0.9760
2.9722 5.0763 -1.1057 0.9763
2.5192 5.3443 -1.1105 0.9762
0.8167 3.0451 -0.5926 0.9873
-0.0392 6.9559 -1.3074 0.9721
-2.3313 12.5209 -2.3939 0.9495
-3.3716 12.0273 -2.3478 0.9504
-4.3395 11.4408 -2.2999 0.9514
-5.2279 10.7742 -2.2509 0.9524
-8.5247 8.1371 -2.2151 0.9532
-9.3975 6.2066 -2.1168 0.9552
-9.6971 5.2281 -2.0707 0.9562
-9.9099 4.2512 -2.0268 0.9571
-10.0913 2.3287 -1.9466 0.9587
-9.9747 0.4826 -1.8771 0.9602
-8.9781 -2.8616 -1.7712 0.9624
-8.5917 -3.6100 -1.7517 0.9628
-8.1572 -4.3195 -1.7349 0.9631
-7.6774 -4.9887 -1.7209 0.9634
-6.5933 -6.2000 -1.7011 0.9638
-5.9940 -6.7396 -1.6953 0.9640
-5.3596 -7.2335 -1.6922 0.9640
-3.9948 -8.0786 -1.6940 0.9640
-2.5159 -8.7237 -1.7065 0.9637
-0.1218 -9.2873 -1.7458 0.9629
3.2938 -9.2005 -1.8368 0.9610
4.1669 -9.0140 -1.8665 0.9604
5.9076 -8.4263 -1.9343 0.9590
7.6061 -7.5379 -2.0128 0.9574
9.2110 -6.3347 -2.1012 0.9555
9.2414 -5.2084 -1.9939 0.9577
9.8914 -4.4647 -2.0398 0.9568
10.4879 -3.6484 -2.0872 0.9558
11.0218 -2.7621 -2.1357 0.9548
11.4829 -1.8098 -2.1850 0.9538
11.8613 -0.7971 -2.2345 0.9528
7.8774 2.3489 -1.5451 0.9671
5.6638 3.5310 -1.2545 0.9732
4.2681 4.6216 -1.1824 0.9747
3.6165 4.6943 -1.1138 0.9762
2.2534 5.5013 -1.1174 0.9761
0.9690 3.1376 -0.6172 0.9867
0.7791 6.4026 -1.2123 0.9741
-0.4143 7.2145 -1.3583 0.9710
-1.8747 12.6977 -2.4126 0.9491
-2.9426 12.2468 -2.3674 0.9500
-4.8646 11.0634 -2.2716 0.9520
-5.7043 10.3560 -2.2223 0.9530
-6.9589 10.3328 -2.3416 0.9506
-7.6744 9.4530 -2.2886 0.9517
-8.2933 8.5331 -2.2366 0.9527
-9.5819 5.6396 -2.0898 0.9558
-9.8307 4.6612 -2.0450 0.9567
-9.9951 3.6885 -2.0025 0.9576
-10.0791 2.7277 -1.9626 0.9584
-10.0867 1.7842 -1.9253 0.9592
-9.8900 -0.0333 -1.8590 0.9605
-9.6939 -0.9002 -1.8299 0.9612
-9.1254 -2.5358 -1.7802 0.9622
-8.7602 -3.3000 -1.7595 0.9626
-7.8844 -4.7124 -1.7265 0.9633
-7.3797 -5.3574 -1.7141 0.9636
-6.8342 -5.9598 -1.7044 0.9638
-3.5772 -8.2866 -1.6965 0.9639
-8.4376 5.2946 -2.1056 0.9601
-8.7045 4.4344 -2.0650 0.9608
-8.8949 3.5728 -2.0262 0.9616
-9.0117 2.7160 -1.9895 0.9623
-9.0582 1.8692 -1.9551 0.9629
-9.0375 1.0373 -1.9229 0.9635
-8.9531 0.2243 -1.8931 0.9640
-8.6066 -1.3307 -1.8409 0.9650
-6.8514 -4.6825 -1.7542 0.9666
-6.3712 -5.2449 -1.7444 0.9668
-5.8540 -5.7676 -1.7371 0.9670
-4.7181 -6.6879 -1.7301 0.9671
-2.7944 -7.7342 -1.7383 0.9669
-2.1035 -7.9879 -1.7460 0.9668
-0.6608 -8.3431 -1.7691 0.9664
0.8462 -8.4838 -1.8022 0.9657
6.2555 -7.0754 -1.9963 0.9621
6.9885 -6.6104 -2.0334 0.9614
7.6950 -6.0760 -2.0725 0.9607
8.3518 -4.4539 -2.0007 0.9620
9.8107 -2.2171 -2.1261 0.9597
10.1703 -1.3610 -2.1689 0.9589
7.6484 2.4761 -1.6993 0.9677
6.8841 2.9293 -1.5814 0.9699
6.2178 3.3288 -1.4908 0.9716
5.6072 3.6798 -1.4177 0.9730
5.0254 3.9813 -1.3552 0.9741
2.1542 5.6295 -1.2741 0.9757
0.8591 3.0304 -0.6658 0.9872
-1.8738 10.9241 -2.3429 0.9557
-2.7927 10.5362 -2.3040 0.9564
-3.6548 10.0647 -2.2634 0.9572
-7.4613 7.3275 -2.2106 0.9581
-8.6018 4.7966 -2.0818 0.9605
-8.9714 3.0752 -2.0047 0.9620
-9.0470 2.2236 -1.9693 0.9626
-9.0542 1.3849 -1.9361 0.9632
-8.9962 0.5635 -1.9053 0.9638
-8.8764 -0.2368 -1.8770 0.9643
-8.4648 -1.7610 -1.8276 0.9653
-8.1795 -2.4796 -1.8067 0.9657
-7.8453 -3.1660 -1.7883 0.9660
-7.0416 -4.4345 -1.7590 0.9666
-6.5777 -5.0132 -1.7482 0.9668
-6.0757 -5.5528 -1.7399 0.9669
-5.5382 -6.0518 -1.7340 0.9670
-4.9674 -6.5087 -1.7307 0.9671
-4.3656 -6.9222 -1.7299 0.9671
-3.0780 -7.6129 -1.7358 0.9670
-2.3966 -7.8872 -1.7425 0.9669
-0.2297 -8.4066 -1.7776 0.9662
1.2918 -8.4824 -1.8137 0.9655
2.0670 -8.4337 -1.8355 0.9651
2.8475 -8.3248 -1.8598 0.9647
3.6295 -8.1537 -1.8866 0.9642
4.4088 -7.9187 -1.9158 0.9636
5.1810 -7.6180 -1.9474 0.9630
7.4017 -6.3091 -2.0558 0.9610
8.1101 -4.7239 -1.9839 0.9624
9.1838 -3.3418 -2.0658 0.9608
9.6386 -2.5616 -2.1081 0.9600
10.5788 0.0837 -2.2362 0.9577
10.1226 0.9864 -2.1499 0.9593
8.0028 2.2630 -1.7580 0.9666
6.4885 3.1666 -1.5262 0.9709
5.8637 3.5409 -1.4479 0.9724
5.2628 3.8572 -1.3792 0.9737
4.8490 4.2676 -1.3654 0.9739
3.2592 4.9592 -1.2544 0.9760
2.8041 5.2295 -1.2543 0.9760
1.0168 3.1336 -0.6964 0.9866
0.7275 3.1853 -0.6907 0.9867
0.8794 6.4600 -1.3781 0.9737
-0.2672 6.1887 -1.3094 0.9750
-1.4726 11.0600 -2.3585 0.9554
-2.4129 10.7100 -2.3206 0.9561
-4.1257 9.7570 -2.2392 0.9576
-4.8844 9.1735 -2.1968 0.9584
-6.6647 8.4519 -2.2752 0.9569
-8.1523 6.0118 -2.1411 0.9594
-8.4854 5.1580 -2.0990 0.9602
-8.9183 3.4359 -2.0202 0.9617
-9.0283 0.9064 -1.9180 0.9636
-8.9340 0.0968 -1.8886 0.9641
-8.7800 -0.6896 -1.8616 0.9646
-8.5694 -1.4499 -1.8371 0.9651
-8.3056 -2.1813 -1.8152 0.9655
-7.9915 -2.8815 -1.7957 0.9659
-7.6303 -3.5483 -1.7788 0.9662
-7.2247 -4.1799 -1.7643 0.9665
-6.7775 -4.7746 -1.7524 0.9667
-6.2912 -5.3308 -1.7430 0.9668
-2.6859 -7.7779 -1.7393 0.9669
-1.9914 -8.0237 -1.7475 0.9668
-1.2763 -8.2191 -1.7582 0.9666
0.9683 -8.4854 -1.8053 0.9657
1.7403 -8.4614 -1.8260 0.9653
3.3008 -8.2333 -1.8750 0.9644
5.6234 -7.4131 -1.9668 0.9627
7.8046 -5.9845 -2.0789 0.9606
8.4467 -5.3540 -2.1139 0.9599
8.4412 -4.3487 -2.0072 0.9619
9.8728 -2.0841 -2.1329 0.9596
10.2206 -1.2202 -2.1758 0.9588
10.6744 0.6374 -2.2604 0.9572
9.4163 1.4121 -2.0127 0.9618
6.7725 2.9963 -1.5654 0.9702
6.1185 3.3884 -1.4784 0.9718
5.5104 3.7293 -1.4065 0.9732
4.9378 4.0274 -1.3469 0.9743
3.9218 4.5798 -1.2745 0.9757
3.4524 4.8469 -1.2579 0.9760
2.5405 5.3897 -1.2595 0.9759
2.0800 5.6762 -1.2778 0.9756
1.1016 6.3112 -1.3542 0.9741
-0.0397 7.0346 -1.4870 0.9716
-2.9340 10.4664 -2.2977 0.9565
-3.7864 9.9825 -2.2568 0.9573
-8.3550 5.5182 -2.1165 0.9599
-8.8524 3.7976 -2.0361 0.9614
-8.9882 2.9389 -1.9989 0.9621
-9.0527 2.0891 -1.9638 0.9627
-8.9811 0.4346 -1.9007 0.9639
-8.8518 -0.3620 -1.8727 0.9644
-8.6646 -1.1337 -1.8471 0.9649
-8.4228 -1.8775 -1.8241 0.9653
-6.5002 -5.1018 -1.7467 0.9668
-4.2670 -6.9839 -1.7300 0.9671
-2.9710 -7.6599 -1.7367 0.9670
-0.8532 -8.3086 -1.7655 0.9664
1.4148 -8.4786 -1.8170 0.9655
2.9720 -8.3017 -1.8639 0.9646
7.5135 -6.2223 -2.0621 0.9609
8.1960 -5.6366 -2.1026 0.9601
10.6082 0.2347 -2.2429 0.9575
9.9192 1.1090 -2.1098 0.9600
8.7929 1.7876 -1.8967 0.9640
5.7697 3.5970 -1.4372 0.9726
5.1717 3.9046 -1.3698 0.9739
4.7666 4.3167 -1.3593 0.9741
4.2634 4.6164 -1.3283 0.9746
3.6477 4.7348 -1.2634 0.9759
3.1864 5.0019 -1.2536 0.9760
2.7318 5.2731 -1.2553 0.9760
0.9573 3.0997 -0.6857 0.9868
0.2194 6.8829 -1.4556 0.9722
-2.5579 10.6459 -2.3144 0.9562
-4.2511 9.6683 -2.2325 0.9577
-5.6742 8.4253 -2.1472 0.9593
-6.7623 8.3295 -2.2679 0.9571
-7.3274 7.5392 -2.2223 0.9579
-8.5311 5.0212 -2.0925 0.9603
-8.7733 4.1598 -2.0524 0.9611
-8.9399 3.2991 -2.0143 0.9618
-9.0340 2.4449 -1.9783 0.9625
-9.0587 1.6024 -1.9446 0.9631
-9.0174 0.7761 -1.9131 0.9637
-8.9134 -0.0300 -1.8841 0.9642
-8.5309 -1.5684 -1.8335 0.9652
-7.9371 -2.9900 -1.7928 0.9659
-7.5686 -3.6513 -1.7763 0.9662
-6.7026 -4.8658 -1.7508 0.9667
-6.2103 -5.4158 -1.7418 0.9669
-1.1606 -8.2454 -1.7601 0.9665
-8.0336 3.2269 -2.0347 0.9651
-8.2029 0.9415 -1.9405 0.9666
-8.0169 -0.5152 -1.8881 0.9675
-7.8427 -1.2126 -1.8651 0.9679
-7.6180 -1.8854 -1.8444 0.9683
-7.3457 -2.5312 -1.8260 0.9686
-7.0284 -3.1477 -1.8099 0.9689
-5.3612 -5.2821 -1.7688 0.9695
-2.5590 -7.0827 -1.7699 0.9695
-0.6042 -7.6290 -1.7986 0.9690
0.0786 -7.7129 -1.8128 0.9688
1.4746 -7.7243 -1.8482 0.9682
2.1817 -7.6486 -1.8693 0.9678
2.8902 -7.5165 -1.8926 0.9675
3.5964 -7.3268 -1.9182 0.9670
4.2962 -7.0780 -1.9459 0.9666
4.9850 -6.7692 -1.9758 0.9660
6.3097 -5.9682 -2.0412 0.9649
7.4965 -3.9978 -1.9967 0.9657
2.2862 -0.9685 -0.5835 0.9898
8.3861 -2.7000 -2.0706 0.9644
9.0509 -1.2112 -2.1461 0.9632
9.5132 1.2887 -2.2562 0.9613
7.6373 2.4725 -1.8867 0.9676
6.8747 2.9254 -1.7559 0.9698
5.6119 3.6829 -1.5776 0.9728
5.0631 4.0112 -1.5181 0.9738
4.6276 4.3914 -1.4994 0.9741
4.1307 4.6873 -1.4684 0.9747
3.5854 4.8852 -1.4242 0.9754
1.9287 3.9454 -1.0321 0.9821
2.1880 5.7180 -1.4389 0.9752
0.8534 3.0101 -0.7353 0.9872
0.6497 6.6222 -1.5638 0.9730
0.0597 6.9675 -1.6376 0.9718
-1.6530 9.6367 -2.2979 0.9606
-3.9524 8.4491 -2.1923 0.9624
-5.2045 7.3521 -2.1170 0.9637
-6.6800 6.5602 -2.2004 0.9623
-7.4635 5.0831 -2.1223 0.9636
-7.7483 4.3206 -2.0850 0.9642
-8.1933 2.0138 -1.9829 0.9659
-8.1723 0.5119 -1.9244 0.9669
-8.0745 -0.2154 -1.8984 0.9674
-7.9222 -0.9222 -1.8745 0.9678
-7.7184 -1.6058 -1.8528 0.9681
-7.4658 -2.2632 -1.8335 0.9685
-7.1671 -2.8923 -1.8164 0.9687
-6.8250 -3.4908 -1.8017 0.9690
-6.4421 -4.0569 -1.7892 0.9692
-6.0208 -4.5888 -1.7792 0.9694
-5.0728 -5.5432 -1.7660 0.9696
-2.8191 -6.9726 -1.7676 0.9696
-0.2100 -7.6838 -1.8066 0.9689
0.4796 -7.7380 -1.8221 0.9686
1.8840 -7.6872 -1.8601 0.9680
3.3001 -7.4137 -1.9072 0.9672
6.0386 -6.1570 -2.0268 0.9652
7.2821 -5.1620 -2.0978 0.9640
7.7744 -3.6430 -2.0178 0.9653
8.9324 -1.5382 -2.1302 0.9634
9.1940 -0.7492 -2.1679 0.9628
9.4920 0.9249 -2.2414 0.9616
7.1798 2.7420 -1.8063 0.9689
6.4800 3.1625 -1.6946 0.9708
5.2888 3.8763 -1.5411 0.9734
4.8435 4.2627 -1.5164 0.9738
3.7854 4.7716 -1.4315 0.9753
1.0187 3.1395 -0.7757 0.9865
0.3144 6.8185 -1.6042 0.9723
-1.2981 9.7489 -2.3114 0.9604
-2.1309 9.4584 -2.2787 0.9609
-3.6585 8.6522 -2.2078 0.9621
-4.3407 8.1523 -2.1706 0.9628
-4.9621 7.5988 -2.1330 0.9634
-6.4786 6.8583 -2.2173 0.9620
-6.9367 6.1411 -2.1774 0.9626
-7.6372 4.6424 -2.1005 0.9639
-8.0571 3.1041 -2.0293 0.9651
-8.2121 1.5733 -1.9651 0.9662
-8.1224 0.0880 -1.9091 0.9672
-7.9927 -0.6278 -1.8843 0.9676
-7.5778 -1.9902 -1.8413 0.9683
-6.9739 -3.2431 -1.8076 0.9689
-6.2024 -4.3695 -1.7831 0.9693
-5.2830 -5.3551 -1.7680 0.9696
-3.6676 -6.5423 -1.7627 0.9697
-2.4595 -7.1224 -1.7709 0.9695
-1.8228 -7.3446 -1.7785 0.9694
-0.4963 -7.6457 -1.8007 0.9690
5.7633 -6.3349 -2.0128 0.9654
6.4111 -5.8939 -2.0467 0.9648
7.5927 -4.8126 -2.1127 0.9637
7.5744 -3.9021 -2.0025 0.9656
9.4559 0.5645 -2.2263 0.9618
9.4001 1.4097 -2.2339 0.9617
8.3698 2.0312 -2.0242 0.9652
5.5216 3.7370 -1.5670 0.9730
3.9851 4.6538 -1.4400 0.9751
3.5104 4.9283 -1.4221 0.9754
3.0451 5.2007 -1.4164 0.9755
1.1089 6.3529 -1.5156 0.9738
0.5592 6.6752 -1.5743 0.9729
-2.5942 9.2540 -2.2587 0.9613
-3.3547 8.8444 -2.2231 0.9619
-4.0611 8.3695 -2.1864 0.9625
-4.7085 7.8375 -2.1488 0.9631
-5.2933 7.2567 -2.1110 0.9638
-7.1692 5.7139 -2.1546 0.9630
-7.5136 4.9624 -2.1163 0.9637
-7.9914 3.4282 -2.0437 0.9649
-8.1284 2.6578 -2.0099 0.9655
-8.2005 1.8924 -1.9780 0.9660
-8.2103 1.1367 -1.9480 0.9665
-8.1605 0.3948 -1.9201 0.9670
-7.6814 -1.7123 -1.8496 0.9682
-7.1155 -2.9897 -1.8139 0.9688
-6.3775 -4.1440 -1.7875 0.9692
-5.9503 -4.6702 -1.7778 0.9694
-3.9092 -6.3982 -1.7622 0.9697
-2.0929 -7.2568 -1.7750 0.9694
-0.7803 -7.5987 -1.7953 0.9691
-0.1009 -7.6959 -1.8089 0.9689
0.5904 -7.7419 -1.8248 0.9686
2.7052 -7.5565 -1.8863 0.9676
4.1143 -7.1487 -1.9385 0.9667
4.8064 -6.8557 -1.9678 0.9662
6.7743 -5.6101 -2.0672 0.9645
7.3714 -5.0696 -2.1026 0.9639
7.3666 -4.1518 -1.9873 0.9659
7.8480 -3.5424 -2.0236 0.9652
8.2816 -2.8809 -2.0608 0.9646
8.9787 -1.4152 -2.1363 0.9633
9.2290 -0.6202 -2.1739 0.9627
9.4053 0.2081 -2.2110 0.9621
7.0622 2.8127 -1.7866 0.9692
5.7627 3.5926 -1.5960 0.9725
4.7611 4.3118 -1.5096 0.9740
3.7092 4.8147 -1.4284 0.9753
3.2398 5.0856 -1.4172 0.9755
2.3122 5.6448 -1.4336 0.9752
0.6947 3.2545 -0.7821 0.9864
-0.3561 6.2023 -1.4601 0.9748
-1.4333 9.7081 -2.3064 0.9605
-2.2597 9.4048 -2.2732 0.9610
-4.4438 8.0675 -2.1647 0.9629
-5.0553 7.5063 -2.1269 0.9635
-6.5564 6.7460 -2.2109 0.9621
-7.6807 4.5207 -2.0946 0.9640
-7.9139 3.7523 -2.0584 0.9647
-8.2136 1.4529 -1.9604 0.9663
-8.1885 0.7047 -1.9316 0.9668
-7.9671 -0.7398 -1.8805 0.9677
-7.2494 -2.7309 -1.8207 0.9687
-3.5749 -6.5949 -1.7630 0.9696
-2.9786 -6.9001 -1.7663 0.9696
-2.3594 -7.1609 -1.7720 0.9695
-1.7197 -7.3756 -1.7799 0.9694
-7.1367 3.6357 -2.0738 0.9674
-7.3175 2.9393 -2.0418 0.9679
-7.4986 1.5474 -1.9824 0.9689
-7.5027 0.8611 -1.9553 0.9693
-7.3496 -0.4723 -1.9069 0.9700
-7.1971 -1.1128 -1.8856 0.9704
-6.9973 -1.7318 -1.8664 0.9707
-6.7527 -2.3269 -1.8493 0.9709
-6.4656 -2.8957 -1.8343 0.9712
-5.3739 -4.4239 -1.8022 0.9716
-4.9409 -4.8680 -1.7959 0.9717
-4.4770 -5.2766 -1.7917 0.9718
-3.4659 -5.9816 -1.7899 0.9718
-2.3583 -6.5271 -1.7969 0.9717
-1.7739 -6.7365 -1.8037 0.9716
-0.5561 -7.0216 -1.8237 0.9713
0.7100 -7.1189 -1.8524 0.9709
3.2926 -6.7079 -1.9347 0.9696
3.9285 -6.4723 -1.9603 0.9692
4.5524 -6.1818 -1.9877 0.9688
5.1597 -5.8359 -2.0169 0.9683
5.7456 -5.4347 -2.0477 0.9679
6.8148 -4.4565 -2.1083 0.9669
7.5734 -2.4383 -2.0600 0.9677
7.8880 -1.7826 -2.0938 0.9671
8.1449 -1.0899 -2.1276 0.9666
8.3386 -0.3655 -2.1611 0.9661
8.4642 0.3847 -2.1938 0.9656
6.8653 2.9214 -1.9318 0.9696
6.2019 3.3203 -1.8214 0.9714
5.0571 4.0064 -1.6705 0.9737
4.6223 4.3863 -1.6499 0.9740
4.1261 4.6821 -1.6158 0.9745
2.1856 5.7116 -1.5834 0.9750
0.8476 2.9900 -0.8047 0.9872
1.1914 6.2962 -1.6591 0.9739
0.6489 6.6141 -1.7207 0.9729
0.0596 6.9586 -1.8018 0.9717
-1.4771 8.6111 -2.2621 0.9645
-2.2091 8.3345 -2.2325 0.9650
-2.9018 7.9910 -2.2012 0.9655
-3.5491 7.5870 -2.1687 0.9660
-6.0404 5.9321 -2.1921 0.9656
-7.0421 3.9269 -2.0876 0.9672
-7.3944 2.5347 -2.0239 0.9682
-7.4800 1.8384 -1.9943 0.9687
-7.5077 1.1484 -1.9665 0.9691
-7.4799 0.4685 -1.9405 0.9695
-7.3989 -0.1974 -1.9164 0.9699
-6.8608 -2.0798 -1.8562 0.9708
-6.5913 -2.6599 -1.8403 0.9711
-5.9316 -3.7355 -1.8150 0.9715
-5.1268 -4.6855 -1.7983 0.9717
-2.5982 -6.4263 -1.7947 0.9718
-2.0218 -6.6538 -1.8006 0.9717
-1.4272 -6.8378 -1.8086 0.9716
-0.1932 -7.0696 -1.8311 0.9712
1.7293 -7.0559 -1.8810 0.9704
2.3772 -6.9497 -1.9018 0.9701
4.2919 -6.3106 -1.9760 0.9690
4.9067 -5.9881 -2.0044 0.9685
6.0734 -5.1769 -2.0663 0.9676
6.6073 -3.8485 -1.9798 0.9689
7.0383 -3.2981 -2.0125 0.9684
7.4252 -2.7019 -2.0458 0.9679
8.0443 -1.3853 -2.1135 0.9668
8.5040 0.8287 -2.2123 0.9653
8.5130 1.6051 -2.2430 0.9648
7.9786 2.2562 -2.1468 0.9663
5.8491 3.5320 -1.7691 0.9722
5.2824 3.8716 -1.6957 0.9733
4.8378 4.2577 -1.6686 0.9737
3.7816 4.7669 -1.5754 0.9752
3.2889 5.0044 -1.5505 0.9756
1.0280 3.1683 -0.8624 0.9863
-0.2667 6.1775 -1.6010 0.9748
-1.1592 8.7059 -2.2740 0.9644
-3.2829 7.7638 -2.1825 0.9658
-4.9791 6.3143 -2.0820 0.9673
-6.2792 5.5589 -2.1714 0.9659
-6.6398 4.8964 -2.1361 0.9665
-7.5030 1.4374 -1.9780 0.9689
-7.4983 0.7528 -1.9512 0.9693
-7.4393 0.0806 -1.9263 0.9697
-7.3285 -0.5756 -1.9033 0.9701
-6.9613 -1.8283 -1.8635 0.9707
-6.0829 -3.5193 -1.8196 0.9714
-5.3071 -4.4969 -1.8011 0.9717
-3.9037 -5.7040 -1.7896 0.9718
-2.8345 -6.3179 -1.7929 0.9718
-1.6792 -6.7658 -1.8049 0.9716
-1.0752 -6.9240 -1.8142 0.9715
0.8123 -7.1183 -1.8550 0.9708
1.4572 -7.0851 -1.8728 0.9706
2.1049 -7.0008 -1.8928 0.9702
2.7519 -6.8641 -1.9147 0.9699
3.3945 -6.6740 -1.9387 0.9695
5.2546 -5.7757 -2.0217 0.9683
5.8366 -5.3657 -2.0528 0.9678
6.3911 -4.9007 -2.0853 0.9673
6.8888 -4.3664 -2.1117 0.9669
6.8621 -3.5352 -1.9986 0.9686
2.3038 -0.9375 -0.6440 0.9898
7.9329 -1.6746 -2.0992 0.9671
8.3633 -0.2476 -2.1664 0.9660
8.3566 2.0280 -2.2265 0.9651
7.4923 2.5437 -2.0486 0.9678
6.1029 3.3797 -1.8063 0.9716
5.5149 3.7324 -1.7242 0.9729
4.5419 4.4343 -1.6435 0.9741
1.8888 4.0070 -1.1470 0.9819
2.1095 5.7565 -1.5874 0.9750
0.7997 2.9817 -0.7993 0.9873
1.1076 6.3454 -1.6678 0.9737
0.5585 6.6670 -1.7322 0.9727
-0.6074 6.3838 -1.6604 0.9739
-1.5960 8.5718 -2.2575 0.9646
-2.3223 8.2842 -2.2276 0.9651
-3.6477 7.5176 -2.1635 0.9661
-4.2366 7.0520 -2.1301 0.9666
-4.7712 6.5410 -2.0963 0.9671
-2.1449 2.4483 -0.8428 0.9866
-6.1084 5.8306 -2.1864 0.9657
-7.0792 3.8167 -2.0824 0.9673
-7.2762 3.1214 -2.0500 0.9678
-7.4705 0.3615 -1.9365 0.9696
-7.0539 -1.5724 -1.8712 0.9706
-6.8207 -2.1740 -1.8535 0.9709
-5.4816 -4.3023 -1.8042 0.9716
-5.0570 -4.7554 -1.7973 0.9717
-4.1158 -5.5549 -1.7900 0.9718
-3.0670 -6.2023 -1.7915 0.9718
-1.3310 -6.8630 -1.8101 0.9715
-0.7183 -6.9948 -1.8206 0.9714
0.5428 -7.1172 -1.8481 0.9709
1.1856 -7.1052 -1.8651 0.9707
2.4802 -6.9280 -1.9053 0.9701
4.3909 -6.2629 -1.9804 0.9689
5.5950 -5.5448 -2.0395 0.9680
6.1617 -5.1028 -2.0714 0.9675
6.6786 -3.7640 -1.9849 0.9688
7.1030 -3.2061 -2.0178 0.9683
7.8112 -1.9575 -2.0850 0.9673
8.0837 -1.2741 -2.1188 0.9668
8.2944 -0.5574 -2.1524 0.9662
8.4383 0.1867 -2.1854 0.9657
8.5073 1.7296 -2.2478 0.9648
7.8422 2.3385 -2.1188 0.9668
7.0523 2.8088 -1.9655 0.9691
4.2538 4.6060 -1.6234 0.9744
3.7067 4.8114 -1.5726 0.9752
2.3096 5.6385 -1.5776 0.9751
0.6901 3.2329 -0.8559 0.9864
0.7945 6.5289 -1.7029 0.9732
-0.3558 6.1955 -1.6068 0.9747
-3.3848 7.6980 -2.1773 0.9659
-3.9955 7.2537 -2.1442 0.9664
-5.0552 6.2268 -2.0766 0.9674
-6.3409 5.4549 -2.1657 0.9660
-7.2010 3.4143 -2.0634 0.9676
-7.5059 1.3277 -1.9736 0.9690
-7.4251 -0.0250 -1.9225 0.9698
-7.3063 -0.6785 -1.8999 0.9701
-7.1385 -1.3124 -1.8793 0.9705
-6.6657 -2.5110 -1.8443 0.9710
-6.3657 -3.0710 -1.8300 0.9712
-6.0264 -3.6019 -1.8178 0.9714
-5.2394 -4.5691 -1.8000 0.9717
-4.7964 -5.0020 -1.7943 0.9718
-4.3232 -5.3991 -1.7908 0.9718
-3.8222 -5.7587 -1.7896 0.9718
-2.7454 -6.3599 -1.7936 0.9718
-6.3065 3.9573 -2.1077 0.9695
-6.7122 2.6961 -2.0477 0.9704
-6.8307 2.0586 -2.0196 0.9708
-6.8948 1.4228 -1.9930 0.9712
-6.9062 0.7927 -1.9679 0.9715
-6.6438 -1.0272 -1.9032 0.9724
-6.4644 -1.5999 -1.8852 0.9727
-5.6815 -3.1802 -1.8432 0.9733
-5.3463 -3.6538 -1.8332 0.9734
-4.9777 -4.0977 -1.8252 0.9736
-3.6927 -5.2345 -1.8135 0.9737
-2.1849 -6.0472 -1.8202 0.9736
-1.0855 -6.3902 -1.8349 0.9734
-0.5147 -6.4981 -1.8453 0.9733
0.0668 -6.5620 -1.8577 0.9731
0.6563 -6.5805 -1.8721 0.9729
1.2509 -6.5526 -1.8885 0.9726
3.0334 -6.1798 -1.9489 0.9718
3.6155 -5.9565 -1.9726 0.9714
4.1850 -5.6828 -1.9979 0.9711
5.7744 -4.5595 -2.0828 0.9699
2.2846 -0.9678 -0.7024 0.9897
6.8971 -2.2205 -2.0512 0.9703
7.3959 -0.9897 -2.1124 0.9695
7.5609 -0.3314 -2.1425 0.9690
7.6639 0.3483 -2.1718 0.9686
7.6702 1.7464 -2.2270 0.9678
7.5683 2.4501 -2.2520 0.9675
6.1938 3.3159 -1.9889 0.9712
5.5981 3.6738 -1.8956 0.9725
5.0510 4.0016 -1.8243 0.9736
4.6169 4.3812 -1.8018 0.9739
3.1167 5.1536 -1.7050 0.9753
2.1831 5.7051 -1.7293 0.9749
0.8773 3.0945 -0.9105 0.9867
0.0596 6.9497 -1.9675 0.9715
-0.5066 6.2671 -1.7800 0.9742
-1.9969 7.5339 -2.2065 0.9681
-2.6266 7.2332 -2.1785 0.9685
-3.2171 6.8771 -2.1493 0.9689
-5.1105 5.0188 -2.0277 0.9707
-6.1921 4.2172 -2.1209 0.9693
-6.8895 0.4316 -1.9542 0.9717
-6.7060 -0.7807 -1.9112 0.9723
-6.5451 -1.3617 -1.8925 0.9726
-6.0958 -2.4600 -1.8609 0.9730
-5.1366 -3.9149 -1.8283 0.9735
-4.7495 -4.3408 -1.8215 0.9736
-4.3325 -4.7343 -1.8167 0.9737
-1.3216 -6.3320 -1.8312 0.9735
-0.7561 -6.4581 -1.8407 0.9733
-0.1787 -6.5406 -1.8523 0.9732
1.0005 -6.5700 -1.8814 0.9728
1.5967 -6.5147 -1.8988 0.9725
2.1930 -6.4112 -1.9182 0.9722
3.3720 -6.0565 -1.9624 0.9716
3.9473 -5.8040 -1.9871 0.9712
5.5655 -4.7439 -2.0702 0.9701
6.0500 -4.2886 -2.0994 0.9696
6.0383 -3.5171 -1.9782 0.9714
6.4230 -3.0098 -2.0080 0.9709
7.0633 -1.8771 -2.0690 0.9701
7.3090 -1.2587 -2.0996 0.9696
7.6918 1.4503 -2.2159 0.9680
7.1595 2.7342 -2.1696 0.9686
6.4628 3.1541 -2.0358 0.9705
4.3273 4.5541 -1.7784 0.9742
3.7773 4.7615 -1.7206 0.9750
3.2852 4.9988 -1.6934 0.9754
2.3821 5.5878 -1.7196 0.9751
1.0918 3.3648 -1.0014 0.9854
0.8808 6.4698 -1.8485 0.9732
-1.0460 7.8556 -2.2435 0.9676
-1.7218 7.6426 -2.2178 0.9680
-2.3664 7.3667 -2.1904 0.9683
-2.9739 7.0331 -2.1617 0.9688
-5.7281 5.0711 -2.1658 0.9687
-6.0674 4.4743 -2.1342 0.9691
-6.5694 3.2300 -2.0724 0.9700
-6.7348 2.5947 -2.0432 0.9704
-6.8445 1.9572 -2.0153 0.9708
-6.9033 0.6931 -1.9641 0.9716
-6.8560 0.0743 -1.9410 0.9719
-6.7602 -0.5310 -1.9197 0.9722
-6.2037 -2.2368 -1.8669 0.9730
-4.0779 -4.9469 -1.8149 0.9737
-2.6265 -5.8543 -1.8165 0.9737
-1.5552 -6.2663 -1.8278 0.9735
-0.4227 -6.5113 -1.8472 0.9732
2.5373 -6.3289 -1.9303 0.9721
3.7071 -5.9163 -1.9765 0.9714
4.2742 -5.6346 -2.0021 0.9710
4.8238 -5.3023 -2.0293 0.9706
5.8521 -4.4874 -2.0877 0.9698
6.2340 -3.9514 -2.0895 0.9698
6.2660 -3.2281 -1.9954 0.9711
6.9444 -2.1274 -2.0561 0.9703
7.5815 -0.2244 -2.1472 0.9690
7.6588 1.8586 -2.2311 0.9678
7.4813 2.5400 -2.2366 0.9677
6.7450 2.9841 -2.0880 0.9698
4.5366 4.4292 -1.7949 0.9740
3.9761 4.6433 -1.7306 0.9749
3.5063 4.9226 -1.7109 0.9752
3.0431 5.1972 -1.7049 0.9753
1.8813 3.9911 -1.2491 0.9818
2.1071 5.7499 -1.7336 0.9749
0.7988 2.9784 -0.8730 0.9873
1.1063 6.3378 -1.8213 0.9736
-1.4412 7.7401 -2.2288 0.9678
-2.0996 7.4900 -2.2021 0.9682
-3.8466 6.4029 -2.1146 0.9694
-6.2366 4.1190 -2.1159 0.9694
-6.4830 3.4952 -2.0850 0.9698
-6.8832 1.5884 -1.9998 0.9711
-6.9082 0.9564 -1.9743 0.9714
-6.6834 -0.8745 -1.9081 0.9724
-5.7632 -3.0519 -1.8462 0.9733
-5.4371 -3.5330 -1.8356 0.9734
-3.8143 -5.1479 -1.8138 0.9737
-2.3235 -5.9903 -1.8189 0.9736
-1.2325 -6.3549 -1.8326 0.9734
-0.6648 -6.4742 -1.8424 0.9733
-0.0859 -6.5496 -1.8543 0.9731
0.5018 -6.5801 -1.8682 0.9729
1.0953 -6.5644 -1.8840 0.9727
2.8799 -6.2299 -1.9430 0.9719
3.4645 -6.0197 -1.9662 0.9715
4.5952 -5.4481 -2.0177 0.9708
6.1021 -3.4391 -1.9829 0.9713
7.3431 -1.1574 -2.1044 0.9696
7.6432 0.1691 -2.1643 0.9687
7.6981 0.8607 -2.1929 0.9683
7.6018 2.2668 -2.2456 0.9676
7.0424 2.8048 -2.1460 0.9690
6.3594 3.2163 -2.0174 0.9708
4.7500 4.3018 -1.8142 0.9737
4.2489 4.6008 -1.7729 0.9743
1.9570 3.7776 -1.2044 0.9825
2.3070 5.6321 -1.7230 0.9750
0.9641 3.1217 -0.9249 0.9865
-0.3553 6.1887 -1.7549 0.9746
-3.6255 6.5819 -2.1273 0.9692
-4.6005 5.6666 -2.0663 0.9701
-5.0118 5.1567 -2.0357 0.9705
-5.7873 4.9786 -2.1612 0.9688
-6.3864 3.7589 -2.0979 0.9697
-6.5995 3.1291 -2.0676 0.9701
-6.9041 1.2213 -1.9848 0.9713
-6.8440 -0.0231 -1.9375 0.9719
-6.5914 -1.2118 -1.8972 0.9725
-6.3983 -1.7780 -1.8799 0.9728
-6.1636 -2.3219 -1.8646 0.9730
-5.8896 -2.8413 -1.8512 0.9732
-5.2324 -3.7985 -1.8304 0.9735
-4.8536 -4.2326 -1.8231 0.9736
-4.0063 -5.0033 -1.8145 0.9737
-2.0141 -6.1128 -1.8220 0.9736
-0.9050 -6.4293 -1.8380 0.9734
-5.8058 3.6432 -2.1082 0.9717
-6.0257 3.0697 -2.0800 0.9721
-6.3093 1.9015 -2.0268 0.9728
-6.3916 0.7336 -1.9788 0.9734
-6.3608 0.1594 -1.9570 0.9737
-6.2842 -0.4038 -1.9369 0.9740
-6.1638 -0.9530 -1.9184 0.9742
-6.0015 -1.4853 -1.9016 0.9745
-5.5591 -2.4897 -1.8735 0.9748
-4.9733 -3.3989 -1.8528 0.9751
-4.6318 -3.8130 -1.8453 0.9752
-4.2606 -4.1977 -1.8397 0.9753
-2.9901 -5.1604 -1.8344 0.9753
-2.5213 -5.4125 -1.8365 0.9753
-2.0334 -5.6280 -1.8406 0.9753
-1.5288 -5.8056 -1.8465 0.9752
0.0621 -6.0984 -1.8758 0.9748
0.6096 -6.1123 -1.8893 0.9746
1.1612 -6.0826 -1.9047 0.9744
1.7138 -6.0084 -1.9217 0.9742
2.2643 -5.8889 -1.9406 0.9739
2.8094 -5.7234 -1.9610 0.9737
3.3454 -5.5117 -1.9831 0.9734
3.8687 -5.2534 -2.0067 0.9731
4.3752 -4.9486 -2.0317 0.9727
5.7340 -3.7497 -2.1073 0.9717
5.7040 -3.0419 -1.9883 0.9733
6.3250 -2.0364 -2.0438 0.9726
6.5700 -1.4847 -2.0717 0.9722
6.7657 -0.9054 -2.0995 0.9718
6.9844 1.5902 -2.2032 0.9705
6.8846 2.2288 -2.2258 0.9702
6.7202 2.8596 -2.2463 0.9699
5.0449 3.9968 -1.9797 0.9734
3.5764 4.8730 -1.8592 0.9750
1.8915 3.8692 -1.3247 0.9821
0.6473 6.5977 -2.0391 0.9726
0.0595 6.9406 -2.1349 0.9714
-1.2139 7.0772 -2.2086 0.9704
-1.8199 6.8660 -2.1847 0.9707
-2.3964 6.5993 -2.1595 0.9710
-2.9386 6.2818 -2.1331 0.9714
-3.4422 5.9185 -2.1059 0.9718
-3.9038 5.5147 -2.0782 0.9721
-2.1192 2.4895 -1.0056 0.9864
-5.3992 4.4301 -2.1482 0.9712
-6.1292 2.7331 -2.0641 0.9723
-6.3535 1.5616 -2.0123 0.9730
-6.3905 0.9775 -1.9884 0.9733
-6.2196 -0.7240 -1.9259 0.9741
-6.0747 -1.2638 -1.9085 0.9744
-5.6645 -2.2859 -1.8788 0.9748
-5.4033 -2.7637 -1.8667 0.9749
-4.7791 -3.6424 -1.8482 0.9752
-4.4201 -4.0397 -1.8418 0.9753
-3.6190 -4.7419 -1.8347 0.9753
-3.1810 -5.0438 -1.8341 0.9754
-2.2407 -5.5420 -1.8386 0.9753
-0.7031 -6.0058 -1.8599 0.9750
1.4816 -6.0450 -1.9144 0.9743
2.5811 -5.7986 -1.9522 0.9738
4.6594 -4.7508 -2.0467 0.9725
5.1308 -4.3735 -2.0737 0.9722
5.9005 -2.7649 -2.0042 0.9731
6.4728 -1.7202 -2.0600 0.9724
6.6897 -1.1520 -2.0879 0.9720
6.8550 -0.5586 -2.1154 0.9716
6.9652 0.0551 -2.1424 0.9713
7.0168 0.6837 -2.1684 0.9709
6.9344 1.9609 -2.2165 0.9703
6.7972 2.5959 -2.2379 0.9700
5.8342 3.5230 -2.0963 0.9719
5.2695 3.8621 -2.0095 0.9730
4.7452 4.1762 -1.9443 0.9739
0.8797 6.4619 -2.0059 0.9731
0.3132 6.7927 -2.0915 0.9719
-2.1580 6.7178 -2.1703 0.9709
-4.1511 5.2642 -2.0620 0.9723
-4.5412 4.8073 -2.0340 0.9727
-4.8838 4.3236 -2.0062 0.9731
-5.5801 4.1150 -2.1325 0.9714
-6.0559 2.9775 -2.0756 0.9722
-6.3231 1.8081 -2.0228 0.9729
-6.3809 1.2225 -1.9983 0.9732
-6.3516 0.0688 -1.9537 0.9738
-6.2679 -0.4923 -1.9338 0.9740
-6.1407 -1.0390 -1.9156 0.9743
-5.9719 -1.5684 -1.8991 0.9745
-5.7634 -2.0781 -1.8844 0.9747
-2.9168 -5.2029 -1.8346 0.9753
-0.9258 -5.9623 -1.8559 0.9751
0.1489 -6.1035 -1.8779 0.9748
2.3516 -5.8656 -1.9437 0.9739
2.8955 -5.6928 -1.9645 0.9736
4.9358 -4.5376 -2.0622 0.9723
5.4037 -3.4251 -1.9678 0.9736
5.7593 -2.9670 -1.9927 0.9733
2.3040 -0.9376 -0.7651 0.9896
6.3672 -1.9505 -2.0482 0.9725
7.0024 0.4180 -2.1576 0.9711
6.0870 3.3709 -2.1401 0.9713
4.9615 4.0467 -1.9693 0.9736
3.5023 4.9170 -1.8568 0.9751
3.0396 5.1913 -1.8503 0.9751
2.1047 5.7433 -1.8814 0.9747
0.8002 2.9835 -0.9501 0.9872
0.5572 6.6503 -2.0527 0.9725
-0.0395 6.9982 -2.1525 0.9711
-0.6049 6.3572 -1.9642 0.9736
-1.3122 7.0475 -2.2049 0.9704
-1.9138 6.8271 -2.1808 0.9708
-3.0214 6.2268 -2.1288 0.9715
-2.1441 2.4474 -1.0008 0.9865
-4.7456 4.5299 -2.0179 0.9729
-5.4533 4.3463 -2.1449 0.9712
-6.1546 2.6402 -2.0598 0.9724
-6.2840 2.0547 -2.0335 0.9727
-6.3626 1.4683 -2.0084 0.9730
-6.3919 0.8849 -1.9848 0.9734
-6.3733 0.3084 -1.9626 0.9737
-6.3085 -0.2580 -1.9420 0.9739
-6.1994 -0.8111 -1.9230 0.9742
-6.0478 -1.3481 -1.9058 0.9744
-5.8558 -1.8664 -1.8904 0.9746
-5.3585 -2.8375 -1.8650 0.9749
-4.7239 -3.7076 -1.8470 0.9752
-4.3603 -4.1002 -1.8409 0.9753
-3.1091 -5.0887 -1.8342 0.9754
-2.6456 -5.3502 -1.8358 0.9753
-1.6620 -5.7629 -1.8448 0.9752
-0.6182 -6.0203 -1.8615 0.9750
-0.0798 -6.0877 -1.8726 0.9748
0.4662 -6.1129 -1.8856 0.9747
1.0170 -6.0946 -1.9005 0.9745
2.6678 -5.7711 -1.9555 0.9737
3.7335 -5.3253 -2.0004 0.9731
5.6322 -3.8735 -2.1025 0.9718
2.3088 -1.0421 -0.7791 0.9895
6.5106 -1.6316 -2.0644 0.9723
6.8764 -0.4621 -2.1198 0.9716
6.9774 0.1544 -2.1466 0.9712
6.9999 1.4231 -2.1971 0.9705
6.7694 2.6961 -2.2412 0.9700
6.3509 3.2120 -2.1890 0.9707
4.6646 4.2244 -1.9356 0.9740
3.2338 5.0763 -1.8513 0.9751
1.9093 3.6855 -1.2767 0.9828
0.7925 6.5129 -2.0180 0.9729
-0.3550 6.1818 -1.9045 0.9744
-1.0516 7.1227 -2.2145 0.9703
-1.6643 6.9266 -2.1911 0.9706
-2.2490 6.6740 -2.1662 0.9710
-3.3146 6.0175 -2.1131 0.9717
-4.5989 4.7319 -2.0296 0.9728
-5.3076 4.5660 -2.1535 0.9711
-6.0847 2.8851 -2.0713 0.9722
-6.2358 2.3012 -2.0444 0.9726
-6.3357 1.7146 -2.0188 0.9729
-6.3868 0.5497 -1.9717 0.9735
-6.3412 -0.0214 -1.9504 0.9738
-6.1165 -1.1245 -1.9129 0.9743
-5.4749 -2.6413 -1.8697 0.9749
-4.8678 -3.5339 -1.8502 0.9751
-3.7294 -4.6575 -1.8352 0.9753
-2.3678 -5.4852 -1.8376 0.9753
-1.8744 -5.6888 -1.8423 0.9752
-1.3649 -5.8540 -1.8488 0.9752
-5.3733 3.3717 -2.1086 0.9736
-5.8561 1.7649 -2.0331 0.9745
-5.9426 0.6821 -1.9883 0.9751
-5.9185 0.1483 -1.9680 0.9754
-5.8514 -0.3760 -1.9491 0.9756
-5.5952 -1.3848 -1.9160 0.9760
-5.1879 -2.3234 -1.8895 0.9763
-4.9323 -2.7609 -1.8789 0.9765
-4.6447 -3.1743 -1.8700 0.9766
-3.9810 -3.9222 -1.8577 0.9767
-2.7944 -4.8226 -1.8527 0.9768
-1.8999 -5.2585 -1.8585 0.9767
-0.9429 -5.5509 -1.8716 0.9765
0.0580 -5.6908 -1.8918 0.9763
0.5686 -5.7010 -1.9045 0.9761
2.1081 -5.4826 -1.9525 0.9755
4.5066 -4.2627 -2.0620 0.9742
4.9285 -3.8916 -2.0874 0.9739
2.2829 -0.9671 -0.8241 0.9896
6.0539 -1.3681 -2.0631 0.9742
6.3523 -0.2784 -2.1136 0.9736
6.4427 0.8727 -2.1611 0.9730
6.3070 2.0418 -2.2036 0.9724
5.9378 3.1789 -2.2388 0.9720
5.5839 3.6645 -2.2201 0.9722
4.3217 4.1010 -1.9804 0.9752
3.9499 4.4821 -1.9858 0.9751
3.5723 4.8673 -2.0069 0.9749
2.1781 5.6919 -2.0258 0.9746
0.8763 3.0912 -1.0680 0.9865
1.1871 6.2735 -2.1224 0.9734
0.6465 6.5894 -2.2009 0.9725
0.0574 6.6972 -2.2263 0.9722
-2.2008 6.0607 -2.1433 0.9732
-2.7014 5.7749 -2.1193 0.9735
-3.5962 5.0803 -2.0690 0.9741
-2.1198 2.4903 -1.0871 0.9863
-5.2709 3.5898 -2.1198 0.9735
-5.6814 2.5334 -2.0678 0.9741
-5.9001 1.4501 -2.0196 0.9747
-5.9395 0.9085 -1.9973 0.9750
-5.9339 0.3717 -1.9763 0.9752
-5.6621 -1.1779 -1.9224 0.9759
-5.0438 -2.5798 -1.8832 0.9764
-4.7694 -3.0035 -1.8736 0.9765
-4.4640 -3.4023 -1.8657 0.9766
-4.1297 -3.7743 -1.8597 0.9767
-3.7684 -4.1178 -1.8554 0.9767
-3.3820 -4.4314 -1.8530 0.9768
-2.9727 -4.7137 -1.8524 0.9768
-2.5426 -4.9631 -1.8537 0.9768
-2.0937 -5.1784 -1.8567 0.9767
-1.6282 -5.3584 -1.8616 0.9767
-0.6565 -5.6075 -1.8767 0.9765
-0.1551 -5.6745 -1.8869 0.9764
1.3807 -5.6333 -1.9279 0.9758
1.8936 -5.5362 -1.9449 0.9756
2.4021 -5.3963 -1.9635 0.9754
2.9027 -5.2135 -1.9835 0.9752
3.8662 -4.7183 -2.0277 0.9746
4.3217 -4.4064 -2.0516 0.9743
4.7544 -4.0526 -2.0766 0.9740
5.1360 -2.9916 -1.9757 0.9753
5.9670 -1.5858 -2.0523 0.9743
6.1604 -1.0609 -2.0779 0.9740
6.3061 -0.5139 -2.1031 0.9737
6.4271 1.2118 -2.1741 0.9728
6.2240 2.3770 -2.2146 0.9723
6.0347 2.9452 -2.2321 0.9721
5.7876 3.4949 -2.2474 0.9719
5.2630 3.8573 -2.1690 0.9729
4.4923 3.9537 -1.9892 0.9751
3.7687 4.7506 -2.0157 0.9748
2.0672 3.8551 -1.4541 0.9817
0.6944 3.0404 -1.0367 0.9869
-0.8722 6.5506 -2.1967 0.9725
-1.4385 6.3851 -2.1756 0.9728
-1.9811 6.1671 -2.1531 0.9731
-3.4208 5.2386 -2.0797 0.9740
-3.8264 4.8525 -2.0541 0.9743
-5.1596 3.8048 -2.1310 0.9733
-5.6112 2.7588 -2.0784 0.9740
-5.8698 1.6784 -2.0293 0.9746
-5.9417 0.5965 -1.9850 0.9751
-5.9106 0.0641 -1.9648 0.9754
-5.8369 -0.4585 -1.9462 0.9756
-5.7222 -0.9682 -1.9291 0.9758
-5.3766 -1.9386 -1.8998 0.9762
-4.8886 -2.8284 -1.8774 0.9765
-4.2736 -3.6213 -1.8620 0.9767
-2.7258 -4.8623 -1.8529 0.9768
-1.3517 -5.4461 -1.8652 0.9766
-0.8646 -5.5677 -1.8729 0.9765
-0.3669 -5.6511 -1.8824 0.9764
0.6503 -5.6989 -1.9066 0.9761
1.6784 -5.5821 -1.9376 0.9757
2.6934 -5.2956 -1.9749 0.9753
3.1879 -5.0877 -1.9957 0.9750
4.1328 -4.5427 -2.0414 0.9744
4.9936 -3.1652 -1.9653 0.9754
6.3674 -0.1885 -2.1175 0.9735
6.4403 0.9658 -2.1647 0.9729
6.3923 1.5513 -2.1865 0.9727
6.2862 2.1342 -2.2067 0.9724
5.8984 3.2665 -2.2413 0.9720
5.4942 3.7184 -2.2053 0.9724
4.2652 4.1642 -1.9814 0.9752
3.0361 5.1854 -1.9974 0.9750
0.8299 3.0943 -1.0649 0.9866
1.1036 6.3224 -2.1334 0.9733
0.5565 6.6419 -2.2155 0.9723
-1.2030 6.4612 -2.1847 0.9727
-1.7562 6.2649 -2.1628 0.9729
-2.2827 6.0182 -2.1396 0.9732
-2.7781 5.7253 -2.1153 0.9735
-3.6608 5.0188 -2.0649 0.9742
-2.1437 2.4470 -1.0814 0.9864
-4.3818 4.1826 -2.0136 0.9748
-5.0316 4.0102 -2.1388 0.9732
-5.3107 3.5075 -2.1156 0.9735
-5.5324 2.9828 -2.0893 0.9739
-5.7058 2.4477 -2.0638 0.9742
-5.9094 1.3637 -2.0160 0.9748
-5.9416 0.8226 -1.9939 0.9750
-5.9290 0.2869 -1.9731 0.9753
-5.8730 -0.2402 -1.9539 0.9755
-5.7753 -0.7556 -1.9361 0.9757
-5.6375 -1.2567 -1.9199 0.9759
-4.4127 -3.4634 -1.8646 0.9766
-3.3183 -4.4785 -1.8528 0.9768
-2.0206 -5.2095 -1.8574 0.9767
-0.5772 -5.6208 -1.8782 0.9765
-0.0745 -5.6815 -1.8887 0.9763
0.4348 -5.7023 -1.9010 0.9762
0.9481 -5.6823 -1.9149 0.9760
1.4625 -5.6206 -1.9305 0.9758
2.9815 -5.1804 -1.9868 0.9751
3.4686 -4.9474 -2.0085 0.9749
4.3922 -4.3529 -2.0555 0.9743
6.0008 -1.5038 -2.0564 0.9743
6.1869 -0.9751 -2.0819 0.9739
6.3247 -0.4250 -2.1071 0.9736
6.4111 0.1419 -2.1316 0.9733
6.4434 0.7204 -2.1552 0.9730
6.4195 1.3051 -2.1775 0.9728
5.9992 3.0341 -2.2347 0.9721
4.4212 4.0039 -1.9827 0.9752
3.2301 5.0705 -1.9984 0.9750
2.3017 5.6192 -2.0185 0.9747
0.6930 3.2462 -1.1034 0.9861
0.2138 6.7073 -2.2307 0.9721
-0.3546 6.1749 -2.0559 0.9743
-0.9638 6.5279 -2.1934 0.9726
-2.0649 6.1278 -2.1494 0.9731
-2.5739 5.8538 -2.1256 0.9734
-3.0494 5.5361 -2.1009 0.9737
-3.4881 5.1793 -2.0757 0.9740
-3.8872 4.7881 -2.0501 0.9743
-4.5584 3.9214 -1.9988 0.9750
-5.4452 3.2049 -2.1002 0.9737
-5.7843 2.1346 -2.0495 0.9743
-5.8822 1.5919 -2.0256 0.9746
-5.9336 1.0496 -2.0030 0.9749
-5.8213 -0.5406 -1.9434 0.9757
-4.5466 -3.3007 -1.8676 0.9766
-3.8652 -4.0309 -1.8564 0.9767
-3.0817 -4.6431 -1.8524 0.9768
-1.7512 -5.3149 -1.8601 0.9767
-4.9955 3.1347 -2.1090 0.9753
-5.4581 1.6450 -2.0386 0.9761
-5.4691 -0.3515 -1.9598 0.9770
-5.3710 -0.8304 -1.9435 0.9772
-5.2354 -1.2958 -1.9287 0.9773
-4.8587 -2.1760 -1.9038 0.9776
-4.6210 -2.5866 -1.8938 0.9778
-3.0125 -4.2703 -1.8688 0.9780
-1.7812 -4.9299 -1.8745 0.9780
-0.4185 -5.2840 -1.8955 0.9777
0.0543 -5.3292 -1.9059 0.9776
0.5323 -5.3365 -1.9178 0.9775
1.0128 -5.3051 -1.9314 0.9773
1.4930 -5.2344 -1.9465 0.9771
2.4410 -4.9731 -1.9811 0.9767
2.9025 -4.7820 -2.0004 0.9765
4.5852 -3.6205 -2.0893 0.9755
4.9301 -3.2240 -2.1066 0.9753
4.8967 -2.6114 -1.9845 0.9767
2.2821 -0.9667 -0.8863 0.9895
5.4084 -1.7413 -2.0319 0.9762
5.6068 -1.2670 -2.0556 0.9759
5.7625 -0.7711 -2.0791 0.9756
5.9345 0.2697 -2.1244 0.9751
5.9055 1.3446 -2.1659 0.9746
5.4649 2.9257 -2.2167 0.9740
4.9108 3.8905 -2.2404 0.9737
4.2744 4.0562 -2.1072 0.9753
3.1060 5.1359 -2.1464 0.9748
2.1755 5.6852 -2.1768 0.9745
0.8747 3.0854 -1.1468 0.9865
1.1607 6.1338 -2.2324 0.9738
0.0529 6.1666 -2.2053 0.9741
-0.4931 6.1005 -2.1887 0.9743
-2.4969 5.3377 -2.1073 0.9753
-2.9304 5.0387 -2.0844 0.9755
-2.1205 2.4911 -1.1699 0.9862
-4.8985 3.3362 -2.1194 0.9751
-5.2892 2.3585 -2.0710 0.9757
-5.4174 1.8570 -2.0480 0.9760
-5.2969 -1.1020 -1.9348 0.9773
-5.1404 -1.5583 -1.9208 0.9774
-4.4691 -2.8144 -1.8887 0.9778
-3.8715 -3.5383 -1.8756 0.9780
-3.1713 -4.1553 -1.8693 0.9780
-2.7876 -4.4200 -1.8687 0.9780
-1.5263 -5.0230 -1.8774 0.9779
-1.0762 -5.1563 -1.8837 0.9779
-0.6151 -5.2539 -1.8917 0.9778
-0.1452 -5.3148 -1.9013 0.9777
0.3309 -5.3381 -1.9126 0.9775
1.7702 -5.1752 -1.9559 0.9770
2.2441 -5.0413 -1.9734 0.9768
2.7099 -4.8672 -1.9921 0.9766
3.1644 -4.6529 -2.0122 0.9764
3.6041 -4.3984 -2.0335 0.9761
4.7906 -3.3959 -2.0999 0.9754
5.0597 -2.3709 -1.9982 0.9765
5.5284 -1.4693 -2.0456 0.9760
5.7024 -0.9820 -2.0692 0.9757
5.8320 -0.4753 -2.0925 0.9754
5.9145 0.0468 -2.1151 0.9752
5.9474 0.5795 -2.1369 0.9749
5.9289 1.1179 -2.1576 0.9747
5.8578 1.6565 -2.1769 0.9745
4.4734 3.9370 -2.1310 0.9750
4.0064 4.2164 -2.0799 0.9756
3.2739 4.9816 -2.1317 0.9750
0.6867 3.0068 -1.1029 0.9870
0.8394 6.1663 -2.2255 0.9739
0.2849 6.1782 -2.2117 0.9741
-2.3052 5.4518 -2.1167 0.9752
-3.5449 4.4956 -2.0473 0.9760
-3.8858 4.1135 -2.0236 0.9762
-4.7862 3.5295 -2.1266 0.9751
-5.0302 3.0577 -2.1051 0.9753
-5.5468 0.5569 -1.9936 0.9766
-5.4561 -0.4285 -1.9571 0.9770
-5.2105 -1.3684 -1.9265 0.9774
-4.8229 -2.2428 -1.9021 0.9777
-3.6784 -3.7286 -1.8730 0.9780
-2.9514 -4.3124 -1.8687 0.9780
-2.5560 -4.5593 -1.8692 0.9780
-1.2669 -5.1046 -1.8808 0.9779
-0.8102 -5.2173 -1.8881 0.9778
-0.3437 -5.2937 -1.8971 0.9777
0.1301 -5.3330 -1.9077 0.9776
0.6087 -5.3341 -1.9199 0.9775
2.0457 -5.1025 -1.9659 0.9769
2.5153 -4.9453 -1.9841 0.9767
4.9426 -2.5463 -1.9883 0.9767
2.3065 -0.9386 -0.8905 0.9895
5.8857 -0.1742 -2.1057 0.9753
5.9397 0.3546 -2.1279 0.9750
5.9431 0.8912 -2.1490 0.9748
5.8942 1.4304 -2.1690 0.9746
5.7921 1.9665 -2.1874 0.9743
5.4282 3.0061 -2.2190 0.9740
5.1681 3.4976 -2.2316 0.9738
4.8006 3.9155 -2.2154 0.9740
4.2001 4.1006 -2.0991 0.9754
3.9623 4.6271 -2.1784 0.9745
3.4942 4.9056 -2.1538 0.9747
2.5702 5.4527 -2.1557 0.9747
0.5178 6.1800 -2.2177 0.9740
-0.0348 6.1597 -2.2028 0.9742
-0.5790 6.0850 -2.1859 0.9744
-1.1094 5.9581 -2.1673 0.9746
-2.9964 4.9876 -2.0807 0.9756
-3.3903 4.6478 -2.0573 0.9759
-2.1433 2.4465 -1.1632 0.9863
-4.0654 3.8806 -2.0098 0.9764
-4.9362 3.2601 -2.1155 0.9752
-5.1468 2.7748 -2.0910 0.9755
-5.3126 2.2790 -2.0672 0.9757
-5.5110 1.2718 -2.0226 0.9763
-5.5451 0.7677 -2.0019 0.9765
-5.5371 0.2679 -1.9824 0.9767
-5.4884 -0.2245 -1.9643 0.9769
-5.2744 -1.1757 -1.9324 0.9773
-5.1122 -1.6294 -1.9188 0.9775
-4.6860 -2.4814 -1.8962 0.9777
-4.4256 -2.8757 -1.8874 0.9778
-4.1361 -3.2463 -1.8803 0.9779
-3.8193 -3.5915 -1.8748 0.9780
-3.4771 -3.9097 -1.8711 0.9780
-2.7246 -4.4593 -1.8688 0.9780
-2.3182 -4.6880 -1.8702 0.9780
-1.4554 -5.0466 -1.8783 0.9779
-0.5408 -5.2661 -1.8931 0.9778
-0.0698 -5.3211 -1.9030 0.9776
0.4071 -5.3383 -1.9146 0.9775
0.8872 -5.3171 -1.9277 0.9774
1.3678 -5.2567 -1.9424 0.9772
3.2355 -4.6150 -2.0155 0.9763
4.0907 -4.0540 -2.0595 0.9758
4.4862 -3.7152 -2.0830 0.9756
4.8442 -3.3315 -2.1024 0.9753
4.8197 -2.7163 -1.9784 0.9768
2.2898 -1.0336 -0.8984 0.9894
5.5590 -1.3931 -2.0494 0.9759
5.9212 1.2038 -2.1608 0.9747
5.5222 2.7929 -2.2130 0.9741
4.9943 3.7707 -2.2379 0.9738
4.3975 3.9825 -2.1216 0.9751
3.9339 4.2597 -2.0735 0.9757
3.6897 4.7893 -2.1620 0.9746
3.2263 5.0646 -2.1474 0.9748
2.2990 5.6126 -2.1689 0.9746
0.9627 3.1174 -1.1667 0.9862
0.1969 6.1749 -2.2093 0.9741
-0.8884 6.0177 -2.1753 0.9745
-2.8204 5.1203 -2.0905 0.9755
-3.9365 4.0503 -2.0198 0.9763
-5.2483 2.4885 -2.0771 0.9756
-5.3882 1.9884 -2.0539 0.9759
-5.4838 1.4841 -2.0316 0.9762
-5.5359 0.9792 -2.0104 0.9764
-5.4421 -0.5053 -1.9545 0.9770
-5.1846 -1.4407 -1.9243 0.9774
-3.9556 -3.4496 -1.8769 0.9780
-3.6239 -3.7793 -1.8724 0.9780
-3.2680 -4.0812 -1.8697 0.9780
-2.4912 -4.5958 -1.8694 0.9780
-0.7365 -5.2319 -1.8894 0.9778
-4.6624 2.9256 -2.1093 0.9767
-4.8517 2.4717 -2.0866 0.9769
-4.9994 2.0081 -2.0646 0.9772
-5.1707 1.0670 -2.0232 0.9776
-5.1812 0.1298 -1.9861 0.9780
-5.1286 -0.3296 -1.9694 0.9782
-4.7555 -1.6387 -1.9276 0.9787
-4.5643 -2.0441 -1.9165 0.9788
-4.3424 -2.4306 -1.9070 0.9789
-4.0914 -2.7962 -1.8991 0.9790
-3.5095 -3.4577 -1.8880 0.9791
-2.4642 -4.2528 -1.8836 0.9792
-1.6748 -4.6355 -1.8888 0.9791
-1.2585 -4.7790 -1.8938 0.9791
0.0510 -5.0060 -1.9185 0.9788
0.4998 -5.0110 -1.9298 0.9787
0.9506 -4.9793 -1.9426 0.9785
1.4007 -4.9106 -1.9569 0.9784
1.8473 -4.8043 -1.9725 0.9782
2.2875 -4.6603 -1.9894 0.9780
2.7183 -4.4785 -2.0076 0.9778
3.5388 -4.0026 -2.0474 0.9774
3.9218 -3.7096 -2.0687 0.9771
4.6000 -3.0082 -2.1063 0.9767
4.5659 -2.4349 -1.9830 0.9781
2.2812 -0.9664 -0.9494 0.9894
5.0349 -1.6210 -2.0270 0.9776
5.2154 -1.1786 -2.0490 0.9774
5.4540 -0.2391 -2.0921 0.9769
5.5073 0.2503 -2.1127 0.9767
5.4727 1.2460 -2.1509 0.9762
5.3827 1.7426 -2.1681 0.9761
5.2435 2.2312 -2.1838 0.9759
4.8205 3.1635 -2.2096 0.9756
3.8054 4.3181 -2.2057 0.9756
3.4506 4.7015 -2.2349 0.9753
0.8879 3.1321 -1.2476 0.9862
1.0732 5.6715 -2.2120 0.9756
0.5607 5.7149 -2.2006 0.9757
-0.4566 5.6491 -2.1719 0.9760
-0.9507 5.5425 -2.1550 0.9762
-1.4286 5.3897 -2.1368 0.9764
-1.8858 5.1933 -2.1173 0.9766
-2.3185 4.9563 -2.0969 0.9768
-2.7232 4.6823 -2.0758 0.9771
-3.0969 4.3749 -2.0541 0.9773
-2.1183 2.4885 -1.2524 0.9861
-4.0105 3.2907 -1.9880 0.9780
-5.0659 1.7365 -2.0522 0.9773
-5.1482 1.2653 -2.0316 0.9775
-5.1553 -0.1375 -1.9763 0.9782
-4.2003 -2.6452 -1.9022 0.9790
-3.9334 -2.9978 -1.8952 0.9790
-2.9824 -3.9078 -1.8838 0.9792
-2.6216 -4.1569 -1.8833 0.9792
-1.8459 -4.5655 -1.8872 0.9791
-0.5781 -4.9375 -1.9051 0.9789
-0.1364 -4.9932 -1.9142 0.9788
1.6602 -4.8535 -1.9658 0.9783
2.5386 -4.5595 -1.9998 0.9779
2.9625 -4.3559 -2.0187 0.9777
3.3718 -4.1149 -2.0387 0.9775
3.7634 -3.8371 -2.0597 0.9772
4.1337 -3.5235 -2.0815 0.9770
4.9478 -1.8004 -2.0177 0.9777
5.1442 -1.3671 -2.0398 0.9775
5.4181 -0.4415 -2.0832 0.9770
5.4905 0.0435 -2.1041 0.9768
5.3080 2.0271 -2.1774 0.9760
4.9251 2.9741 -2.2048 0.9757
4.6630 3.4176 -2.2155 0.9755
3.9613 4.1689 -2.2038 0.9757
3.6231 4.5670 -2.2340 0.9753
3.2036 4.8746 -2.2353 0.9753
2.7551 5.1380 -2.2342 0.9753
1.7915 5.5215 -2.2245 0.9754
0.7764 5.7029 -2.2056 0.9756
0.2636 5.7165 -2.1930 0.9758
-0.7447 5.5931 -2.1623 0.9761
-1.2300 5.4594 -2.1446 0.9763
-2.1399 5.0607 -2.1056 0.9767
-2.9437 4.5079 -2.0632 0.9772
-3.9023 3.4547 -1.9973 0.9779
-4.4587 3.2880 -2.1230 0.9765
-4.8780 2.3984 -2.0831 0.9770
-5.0190 1.9337 -2.0612 0.9772
-5.1773 0.9919 -2.0201 0.9777
-5.1959 0.5217 -2.0012 0.9779
-5.1753 0.0561 -1.9834 0.9781
-4.8912 -1.2846 -1.9380 0.9786
-4.0489 -2.8524 -1.8980 0.9790
-3.4589 -3.5061 -1.8874 0.9791
-2.4038 -4.2878 -1.8838 0.9792
-2.0143 -4.4898 -1.8858 0.9791
-1.6094 -4.6605 -1.8895 0.9791
-0.3229 -4.9741 -1.9102 0.9789
0.5715 -5.0084 -1.9318 0.9786
1.9179 -4.7839 -1.9751 0.9782
2.7858 -4.4461 -2.0106 0.9778
3.6012 -3.9583 -2.0507 0.9773
4.3361 -3.3249 -2.0939 0.9769
4.3304 -2.7448 -1.9648 0.9783
4.6081 -2.3740 -1.9865 0.9780
2.3082 -0.9393 -0.9550 0.9894
5.0662 -1.5520 -2.0305 0.9776
5.4655 -0.1618 -2.0954 0.9768
5.5107 0.8264 -2.1354 0.9764
5.4617 1.3254 -2.1538 0.9762
5.3638 1.8211 -2.1707 0.9760
4.1105 4.0132 -2.2015 0.9757
3.7447 4.3729 -2.2063 0.9756
3.3837 4.7505 -2.2351 0.9753
2.9468 5.0328 -2.2350 0.9753
1.9999 5.4574 -2.2274 0.9754
0.9918 5.6819 -2.2103 0.9756
-0.0322 5.7012 -2.1848 0.9759
-0.5362 5.6353 -2.1693 0.9760
-1.5029 5.3613 -2.1337 0.9764
-2.3849 4.9151 -2.0936 0.9769
-3.1534 4.3231 -2.0506 0.9773
-4.0497 3.2277 -1.9846 0.9781
-4.9648 2.1299 -2.0703 0.9771
-5.1929 0.7189 -2.0090 0.9778
-5.1887 0.2511 -1.9907 0.9780
-5.0660 -0.6628 -1.9579 0.9784
-4.6172 -1.9400 -1.9193 0.9788
-4.4032 -2.3316 -1.9094 0.9789
-4.1596 -2.7029 -1.9010 0.9790
-3.2699 -3.6766 -1.8856 0.9791
-2.9263 -3.9494 -1.8837 0.9792
-2.5623 -4.1938 -1.8834 0.9792
-2.1800 -4.4087 -1.8847 0.9792
-1.3684 -4.7447 -1.8924 0.9791
-0.9432 -4.8637 -1.8986 0.9790
-0.5082 -4.9487 -1.9064 0.9789
-0.0655 -4.9988 -1.9158 0.9788
0.3823 -5.0132 -1.9267 0.9787
0.8328 -4.9911 -1.9391 0.9786
1.7312 -4.8357 -1.9683 0.9782
2.1734 -4.7015 -1.9849 0.9781
2.6069 -4.5296 -2.0028 0.9779
3.0287 -4.3200 -2.0218 0.9777
3.4355 -4.0731 -2.0420 0.9774
4.1904 -3.4703 -2.0850 0.9770
4.5204 -3.1088 -2.1024 0.9768
4.4950 -2.5333 -1.9773 0.9781
2.2842 -1.0310 -0.9604 0.9893
4.9816 -1.7329 -2.0212 0.9777
5.1720 -1.2961 -2.0433 0.9774
5.4326 -0.3651 -2.0866 0.9769
5.4978 0.1217 -2.1074 0.9767
5.2846 2.1047 -2.1798 0.9759
4.6171 3.4859 -2.2170 0.9755
4.2903 3.8854 -2.2181 0.9755
3.9030 4.2262 -2.2045 0.9757
2.2055 5.3843 -2.2298 0.9754
1.7120 5.5435 -2.2234 0.9755
0.6947 5.7085 -2.2038 0.9757
0.1821 5.7140 -2.1908 0.9758
-0.8231 5.5749 -2.1596 0.9761
-1.3056 5.4339 -2.1417 0.9763
-1.7687 5.2486 -2.1225 0.9766
-2.6204 4.7572 -2.0813 0.9770
-3.3517 4.1285 -2.0379 0.9775
-2.3726 2.4412 -1.3046 0.9855
-4.4997 3.2205 -2.1205 0.9766
-4.7272 2.7823 -2.1020 0.9768
-5.0377 1.8591 -2.0578 0.9773
-5.1952 0.4471 -1.9983 0.9779
-5.0032 -0.9198 -1.9495 0.9784
-4.6980 -1.7698 -1.9239 0.9787
-4.0057 -2.9080 -1.8969 0.9790
-2.7177 -4.0946 -1.8833 0.9792
-2.3429 -4.3220 -1.8840 0.9792
-1.9508 -4.5191 -1.8863 0.9791
-1.1233 -4.8178 -1.8958 0.9790
-0.6921 -4.9172 -1.9029 0.9790
-4.3626 2.7376 -2.1079 0.9780
-4.5466 2.3162 -2.0884 0.9782
-4.8548 1.0018 -2.0288 0.9788
-1.9556 0.2245 -0.8056 0.9915
-1.9221 0.0482 -0.7869 0.9917
-1.9946 -0.3084 -0.8260 0.9913
-4.6257 -1.1448 -1.9503 0.9796
-4.4779 -1.5430 -1.9384 0.9797
-4.2992 -1.9254 -1.9280 0.9798
-3.8559 -2.6352 -1.9115 0.9800
-3.5944 -2.9590 -1.9054 0.9801
-3.3086 -3.2598 -1.9010 0.9801
-3.0003 -3.5361 -1.8980 0.9802
-2.6713 -3.7866 -1.8966 0.9802
-1.9587 -4.2047 -1.8984 0.9802
-1.1862 -4.5046 -1.9065 0.9801
0.8947 -4.6865 -1.9527 0.9796
1.7371 -4.5177 -1.9809 0.9793
2.9445 -3.9984 -2.0323 0.9788
3.3202 -3.7553 -2.0515 0.9786
4.0122 -3.1681 -2.0923 0.9781
4.2087 -2.7523 -2.0581 0.9785
4.8695 -1.1004 -2.0432 0.9787
4.9972 -0.6687 -2.0635 0.9784
5.0852 -0.2229 -2.0832 0.9782
5.1315 0.2332 -2.1024 0.9780
5.0930 1.1596 -2.1378 0.9777
4.8745 2.0742 -2.1681 0.9774
4.4775 2.9384 -2.1919 0.9771
3.5744 4.0561 -2.2127 0.9769
3.2025 4.3634 -2.2152 0.9769
1.8967 3.8799 -1.7675 0.9815
-0.8846 5.1573 -2.1416 0.9776
-1.3301 5.0180 -2.1247 0.9778
-1.7569 4.8382 -2.1067 0.9780
-2.1614 4.6205 -2.0877 0.9782
-2.0823 2.4462 -1.3148 0.9862
-3.7519 3.0785 -1.9863 0.9792
-4.2693 2.9076 -2.1141 0.9779
-4.6333 2.0661 -2.0763 0.9783
-4.7522 1.6290 -2.0561 0.9785
-4.8325 1.1877 -2.0367 0.9787
-1.9482 0.1220 -0.7989 0.9916
-4.6783 -0.9733 -1.9557 0.9796
-3.7074 -2.8256 -1.9078 0.9801
-3.4316 -3.1362 -1.9027 0.9801
-3.1325 -3.4230 -1.8991 0.9801
-2.8120 -3.6846 -1.8970 0.9802
-2.4719 -3.9194 -1.8965 0.9802
-2.1139 -4.1264 -1.8975 0.9802
-1.7402 -4.3042 -1.9001 0.9801
-1.3527 -4.4518 -1.9043 0.9801
-0.9535 -4.5682 -1.9099 0.9800
-0.5447 -4.6524 -1.9171 0.9800
-0.1285 -4.7036 -1.9258 0.9799
1.1402 -4.6521 -1.9603 0.9795
2.7818 -4.0903 -2.0245 0.9788
3.1643 -3.8617 -2.0433 0.9787
3.8743 -3.3024 -2.0835 0.9782
4.1864 -2.9676 -2.1002 0.9781
4.1657 -2.4264 -1.9731 0.9794
4.6244 -1.6827 -2.0141 0.9790
4.8045 -1.2769 -2.0346 0.9787
4.9483 -0.8521 -2.0550 0.9785
5.1172 0.0405 -2.0944 0.9781
5.1386 0.5007 -2.1131 0.9779
4.9354 1.8849 -2.1622 0.9774
4.7775 2.3316 -2.1758 0.9773
4.5754 2.7629 -2.1875 0.9772
4.3304 3.1739 -2.1974 0.9771
3.7211 3.9161 -2.2109 0.9769
3.3626 4.2388 -2.2144 0.9769
2.1188 4.9701 -2.2113 0.9769
1.6633 5.1262 -2.2057 0.9770
0.6781 2.9690 -1.2464 0.9869
-0.2280 5.2807 -2.1633 0.9774
-0.6928 5.2031 -2.1483 0.9776
-1.1449 5.0817 -2.1319 0.9777
-1.5800 4.9186 -2.1144 0.9779
-2.3844 4.4782 -2.0764 0.9783
-2.7473 4.2071 -2.0565 0.9785
-3.8828 2.8633 -1.9745 0.9794
-4.3963 2.6724 -2.1056 0.9780
-4.5717 2.2478 -2.0850 0.9782
-4.7070 1.8134 -2.0645 0.9784
-4.8614 0.9314 -2.0258 0.9788
-1.9577 0.1966 -0.8053 0.9915
-1.9089 0.0207 -0.7813 0.9918
-4.6042 -1.2092 -1.9483 0.9796
-4.0557 -2.3465 -1.9177 0.9800
-3.5504 -3.0085 -1.9046 0.9801
-3.2610 -3.3055 -1.9004 0.9801
-2.9492 -3.5778 -1.8977 0.9802
-2.6171 -3.8240 -1.8965 0.9802
-1.8991 -4.2331 -1.8989 0.9801
-1.1226 -4.5231 -1.9074 0.9801
-0.3042 -4.6861 -1.9220 0.9799
0.1151 -4.7178 -1.9315 0.9798
1.3848 -4.6059 -1.9684 0.9794
1.8034 -4.4981 -1.9834 0.9793
2.2149 -4.3548 -1.9996 0.9791
3.0055 -3.9620 -2.0353 0.9787
4.0543 -2.5698 -1.9646 0.9795
2.3099 -0.9400 -1.0207 0.9893
4.7331 -1.4499 -2.0260 0.9788
5.0954 -0.1508 -2.0863 0.9782
