ply
format ascii 1.0
element vertex 1591
property float32 x
property float32 y
property float32 z
property float32 I
end_header
2.3826 5.2935 -1.0911 0.9767
0.7773 3.1175 -0.6039 0.9870
0.9368 5.9924 -1.1400 0.9756
0.4125 6.2615 -1.1795 0.9748
-0.1549 6.5906 -1.2391 0.9735
-0.6850 6.0472 -1.1439 0.9755
-2.6325 12.8498 -2.4654 0.9480
-3.6902 12.3048 -2.4146 0.9491
-4.6679 11.6649 -2.3616 0.9501
-6.3570 10.1571 -2.2522 0.9524
-8.2642 9.0910 -2.3093 0.9512
-2.3727 2.1826 -0.6060 0.9870
-9.2713 7.1131 -2.1964 0.9536
-9.6282 6.1055 -2.1429 0.9547
-10.0679 4.0981 -2.0431 0.9567
-10.1734 2.1470 -1.9543 0.9586
-9.5354 -1.4329 -1.8124 0.9615
-7.9973 -4.4346 -1.7188 0.9635
-7.4996 -5.0823 -1.7028 0.9638
-6.9626 -5.6868 -1.6897 0.9641
-5.1412 -7.2311 -1.6677 0.9645
-4.4714 -7.6530 -1.6660 0.9646
-3.7738 -8.0268 -1.6671 0.9645
-2.3029 -8.6251 -1.6780 0.9643
-1.5334 -8.8469 -1.6877 0.9641
-0.7440 -9.0150 -1.7002 0.9639
0.0634 -9.1277 -1.7157 0.9635
0.8865 -9.1831 -1.7341 0.9631
2.5695 -9.1136 -1.7798 0.9622
3.4237 -8.9841 -1.8071 0.9616
4.2820 -8.7883 -1.8375 0.9610
5.9945 -8.1879 -1.9074 0.9595
7.6694 -7.2932 -1.9893 0.9578
9.2582 -6.0881 -2.0827 0.9559
11.0648 -2.5271 -2.1333 0.9549
7.0484 2.9839 -1.4387 0.9693
4.5014 4.2580 -1.1646 0.9751
4.1135 4.6534 -1.1674 0.9750
2.5545 5.2078 -1.0903 0.9767
1.6097 5.6521 -1.1046 0.9764
0.5646 2.9650 -0.5673 0.9878
0.0620 6.4613 -1.2145 0.9740
-0.4933 6.1778 -1.1649 0.9751
-5.2388 11.2199 -2.3275 0.9509
-7.3394 10.3810 -2.3896 0.9496
-8.0331 9.4469 -2.3308 0.9508
-9.5069 6.4795 -2.1625 0.9543
-10.1353 3.4759 -2.0140 0.9573
-10.1773 2.5023 -1.9699 0.9582
-10.1437 1.5518 -1.9288 0.9591
-10.0392 0.6285 -1.8907 0.9599
-9.3467 -1.9467 -1.7945 0.9619
-9.0035 -2.7322 -1.7685 0.9624
-8.6106 -3.4783 -1.7455 0.9629
-7.6888 -4.8472 -1.7084 0.9637
-5.3820 -7.0626 -1.6690 0.9645
-4.7231 -7.5021 -1.6663 0.9646
-4.0355 -7.8939 -1.6664 0.9646
-3.3214 -8.2368 -1.6693 0.9645
-0.2378 -9.0925 -1.7096 0.9637
3.1064 -9.0397 -1.7966 0.9618
3.9636 -8.8688 -1.8259 0.9612
5.6787 -8.3208 -1.8935 0.9598
6.5276 -7.9390 -1.9319 0.9590
8.1812 -6.9481 -2.0175 0.9573
9.7105 -5.6310 -2.1099 0.9553
9.6954 -4.5197 -2.0106 0.9574
10.8733 -2.8651 -2.1135 0.9553
11.3672 -1.9320 -2.1672 0.9542
11.7839 -0.9337 -2.2219 0.9530
10.7235 1.0706 -2.0256 0.9571
8.2739 2.3620 -1.6173 0.9656
7.3653 2.8344 -1.4834 0.9684
5.1626 3.8056 -1.2055 0.9742
4.6168 4.0863 -1.1589 0.9752
3.1832 4.8754 -1.0944 0.9766
2.7255 5.1205 -1.0903 0.9767
2.2619 5.3523 -1.0922 0.9766
1.7886 5.5729 -1.1001 0.9765
0.6887 3.0614 -0.5898 0.9873
0.8046 6.0603 -1.1491 0.9754
0.2708 6.3378 -1.1923 0.9745
-0.3117 6.6847 -1.2578 0.9731
-0.8798 6.4352 -1.2208 0.9739
-4.9068 11.4857 -2.3476 0.9504
-5.7739 10.7466 -2.2930 0.9516
-7.7880 9.7980 -2.3525 0.9503
-8.4171 8.8402 -2.2943 0.9515
-8.9445 7.8548 -2.2375 0.9527
-9.3727 6.8530 -2.1824 0.9538
-9.7052 5.8447 -2.1294 0.9549
-9.9459 4.8384 -2.0789 0.9560
-10.0996 3.8417 -2.0310 0.9570
-10.0859 0.9673 -1.9045 0.9596
-9.4605 -1.6458 -1.8049 0.9617
-8.3393 -3.9271 -1.7326 0.9632
-6.8177 -5.8359 -1.6868 0.9641
-6.2349 -6.3845 -1.6773 0.9643
-5.6186 -6.8878 -1.6707 0.9645
-4.9707 -7.3447 -1.6670 0.9645
-3.5891 -8.1155 -1.6679 0.9645
-1.3311 -8.8956 -1.6906 0.9641
-0.5469 6.0806 -1.2905 0.9753
-1.3259 7.3283 -1.5742 0.9700
-2.9671 10.7935 -2.3662 0.9553
-4.6520 9.7084 -2.2756 0.9569
-6.0409 8.3654 -2.1811 0.9587
-7.1293 8.2159 -2.2994 0.9565
-8.4700 5.6494 -2.1521 0.9592
-8.7489 4.7675 -2.1061 0.9601
-8.9483 3.8855 -2.0621 0.9609
-9.0715 3.0099 -2.0203 0.9617
-9.1222 2.1463 -1.9809 0.9624
-9.1043 1.2996 -1.9440 0.9631
-8.6772 -1.0998 -1.8488 0.9649
-8.4227 -1.8425 -1.8225 0.9654
-7.7668 -3.2283 -1.7779 0.9662
-6.4613 -5.0332 -1.7313 0.9671
-4.8348 -6.4781 -1.7087 0.9675
-4.2323 -6.8744 -1.7064 0.9675
-2.2740 -7.7908 -1.7155 0.9674
-1.5779 -8.0012 -1.7239 0.9672
-0.1335 -8.2710 -1.7485 0.9667
1.3649 -8.3284 -1.7839 0.9661
2.1277 -8.2732 -1.8057 0.9657
5.9447 -7.0842 -1.9548 0.9629
6.6790 -6.6517 -1.9925 0.9622
7.3915 -6.1512 -2.0327 0.9614
8.0758 -5.5818 -2.0751 0.9607
9.6369 -2.4364 -2.1011 0.9602
10.0349 -1.6024 -2.1480 0.9593
10.3614 -0.7166 -2.1954 0.9584
10.6080 0.2146 -2.2428 0.9575
9.2111 1.8557 -1.9862 0.9623
6.5045 3.2768 -1.5395 0.9707
5.8329 3.6241 -1.4516 0.9723
5.1885 3.9055 -1.3727 0.9738
3.5894 4.6470 -1.2412 0.9763
2.6576 5.1157 -1.2186 0.9767
1.7383 5.6086 -1.2412 0.9763
0.6336 2.9542 -0.6387 0.9877
0.2122 6.4904 -1.3727 0.9738
-0.3881 6.8500 -1.4503 0.9723
-0.9015 6.1352 -1.3108 0.9750
-2.6259 10.9591 -2.3821 0.9550
-3.5267 10.4852 -2.3384 0.9558
-4.3609 9.9316 -2.2928 0.9566
-6.4123 7.9034 -2.1513 0.9592
-7.4748 7.6948 -2.2676 0.9571
-8.3458 5.9748 -2.1696 0.9589
-9.0345 3.3334 -2.0355 0.9614
-9.1187 1.6112 -1.9574 0.9628
-9.0596 0.7774 -1.9221 0.9635
-8.9381 -0.0329 -1.8893 0.9641
-8.5231 -1.5708 -1.8320 0.9652
-7.9023 -2.9819 -1.7854 0.9661
-6.6414 -4.8290 -1.7357 0.9670
-3.8395 -7.1010 -1.7064 0.9675
0.3331 -8.3126 -1.7585 0.9666
1.0840 -8.3344 -1.7766 0.9662
4.1488 -7.8445 -1.8758 0.9644
4.9130 -7.5685 -1.9073 0.9638
5.6681 -7.2274 -1.9415 0.9631
6.4090 -6.8200 -1.9783 0.9625
7.1303 -6.3447 -2.0175 0.9617
8.4821 -5.1840 -2.1013 0.9602
8.4563 -4.1823 -1.9942 0.9622
2.3431 -0.9088 -0.5312 0.9898
9.8952 -1.9178 -2.1306 0.9596
10.2492 -1.0507 -2.1778 0.9588
10.5264 -0.1355 -2.2253 0.9579
10.7187 0.8207 -2.2723 0.9570
8.5197 2.2208 -1.8611 0.9646
7.5783 2.7173 -1.7018 0.9676
6.7731 3.1356 -1.5777 0.9699
6.0759 3.5019 -1.4824 0.9717
3.9223 4.7447 -1.3013 0.9751
3.2904 4.7941 -1.2291 0.9765
2.3704 5.2664 -1.2208 0.9767
0.4194 6.3665 -1.3487 0.9743
-0.6843 6.0413 -1.2852 0.9754
-3.2001 10.6708 -2.3548 0.9555
-4.0599 10.1455 -2.3099 0.9563
-4.8490 9.5474 -2.2635 0.9572
-5.5625 8.8877 -2.2163 0.9580
-6.1973 8.1775 -2.1689 0.9589
-7.2754 8.0033 -2.2863 0.9567
-8.5499 5.4218 -2.1400 0.9595
-8.8079 4.5392 -2.0945 0.9603
-8.9873 3.6582 -2.0511 0.9611
-9.0914 2.7852 -2.0099 0.9619
-9.0890 1.0840 -1.9348 0.9633
-8.8314 -0.5293 -1.8701 0.9645
-8.6164 -1.2948 -1.8418 0.9650
-8.0317 -2.7307 -1.7932 0.9659
-7.6687 -3.3972 -1.7729 0.9663
-7.2627 -4.0272 -1.7554 0.9666
-6.8165 -4.6194 -1.7406 0.9669
-5.8142 -5.6850 -1.7189 0.9673
-5.2631 -6.1562 -1.7120 0.9674
-3.4366 -7.3096 -1.7074 0.9675
-2.0959 -7.8499 -1.7174 0.9673
-1.3949 -8.0476 -1.7265 0.9672
1.5614 -8.3196 -1.7893 0.9660
2.3259 -8.2495 -1.8118 0.9656
4.6305 -7.6783 -1.8953 0.9640
5.3895 -7.3615 -1.9285 0.9634
8.2473 -5.4233 -2.0865 0.9604
2.3038 -0.9825 -0.5294 0.9898
9.3007 -3.0186 -2.0669 0.9608
10.4332 -0.4799 -2.2077 0.9582
10.6578 0.4620 -2.2550 0.9573
10.1585 1.3550 -2.1663 0.9590
8.9161 2.0116 -1.9321 0.9633
7.9081 2.5435 -1.7559 0.9666
7.0556 2.9869 -1.6195 0.9692
5.0337 3.9743 -1.3557 0.9741
4.5007 4.2573 -1.3096 0.9750
4.1085 4.6478 -1.3113 0.9750
3.4657 4.7075 -1.2357 0.9764
2.9977 4.9411 -1.2216 0.9766
2.0822 5.4206 -1.2274 0.9765
0.5614 2.9479 -0.6343 0.9878
0.6198 6.2478 -1.3271 0.9747
-0.4934 6.1781 -1.3101 0.9750
-2.8648 10.8449 -2.3710 0.9552
-5.9713 8.4460 -2.1864 0.9586
-2.2885 2.2495 -0.6783 0.9870
-8.0628 6.6210 -2.2053 0.9582
-8.4336 5.7480 -2.1574 0.9591
-8.7217 4.8665 -2.1112 0.9600
-9.1096 1.3936 -1.9480 0.9630
-8.7024 -1.0145 -1.8520 0.9648
-8.4538 -1.7607 -1.8253 0.9653
-6.9864 -4.4044 -1.7457 0.9668
-6.5163 -4.9720 -1.7326 0.9670
-6.0104 -5.4998 -1.7221 0.9672
-4.9006 -6.4309 -1.7091 0.9675
-3.6751 -7.1889 -1.7066 0.9675
-2.3509 -7.7642 -1.7148 0.9674
1.2798 -8.3310 -1.7817 0.9661
2.0418 -8.2823 -1.8031 0.9657
4.3470 -7.7793 -1.8837 0.9642
10.3286 -0.8184 -2.1901 0.9585
10.5846 0.1082 -2.2375 0.9576
10.7006 1.0683 -2.2731 0.9570
9.3443 1.7854 -2.0109 0.9619
7.3537 2.8300 -1.6656 0.9683
4.6737 4.1367 -1.3193 0.9748
4.2978 4.5491 -1.3229 0.9747
2.7088 5.0892 -1.2186 0.9767
1.7907 5.5796 -1.2387 0.9763
0.6771 3.0101 -0.6522 0.9875
0.8143 6.1338 -1.3079 0.9750
0.2757 6.4523 -1.3651 0.9739
-0.3176 6.8123 -1.4415 0.9725
-0.8680 6.3488 -1.3545 0.9741
-3.4289 10.5426 -2.3434 0.9557
-4.2709 9.9973 -2.2980 0.9565
-5.7343 8.7085 -2.2040 0.9583
-6.3484 7.9869 -2.1566 0.9591
-7.9037 6.9409 -2.2235 0.9579
-8.6244 5.1938 -2.1281 0.9597
-9.0213 3.4315 -2.0402 0.9613
-9.1065 2.5614 -1.9996 0.9621
-9.1213 1.7060 -1.9615 0.9628
-9.0694 0.8699 -1.9259 0.9634
-8.9547 0.0567 -1.8929 0.9641
-8.5521 -1.4878 -1.8349 0.9651
-8.2713 -2.2139 -1.8099 0.9656
-7.9421 -2.9065 -1.7877 0.9660
-6.2020 -5.3089 -1.7257 0.9672
-5.1156 -6.2712 -1.7107 0.9675
-4.5267 -6.6885 -1.7072 0.9675
-3.9102 -7.0619 -1.7063 0.9675
-3.2683 -7.3901 -1.7081 0.9675
-0.4879 -8.2248 -1.7416 0.9669
-0.0028 6.6441 -1.5615 0.9731
-2.6149 9.5121 -2.3185 0.9603
-3.3953 9.0876 -2.2800 0.9609
-4.1185 8.5949 -2.2399 0.9616
-4.7791 8.0431 -2.1988 0.9623
-7.2643 5.8445 -2.1912 0.9624
-7.6053 5.0726 -2.1485 0.9631
-7.8729 4.2902 -2.1072 0.9638
-8.0692 3.5038 -2.0675 0.9645
-8.1966 2.7196 -2.0297 0.9651
-8.2580 1.9430 -1.9938 0.9657
-8.1949 0.4307 -1.9286 0.9668
-8.0767 -0.2972 -1.8995 0.9673
-7.6830 -1.6806 -1.8484 0.9682
-7.4136 -2.3311 -1.8265 0.9686
-5.9199 -4.6114 -1.7636 0.9696
-5.4555 -5.0933 -1.7541 0.9698
-4.9596 -5.5371 -1.7471 0.9699
-4.4345 -5.9417 -1.7425 0.9700
-3.8823 -6.3059 -1.7404 0.9700
-3.3053 -6.6284 -1.7408 0.9700
-2.7055 -6.9079 -1.7436 0.9700
-0.1222 -7.5715 -1.7797 0.9694
0.5582 -7.6169 -1.7949 0.9691
1.2473 -7.6111 -1.8126 0.9688
2.6403 -7.4402 -1.8555 0.9681
3.3377 -7.2721 -1.8805 0.9677
4.7159 -6.7637 -1.9379 0.9667
6.0429 -6.0182 -2.0044 0.9656
6.6747 -5.5546 -2.0409 0.9649
7.2779 -5.0303 -2.0793 0.9643
8.2148 -2.8774 -2.0457 0.9649
8.6073 -2.1761 -2.0866 0.9642
8.9415 -1.4278 -2.1281 0.9635
6.4949 3.2720 -1.7092 0.9706
5.8295 3.6220 -1.6130 0.9722
4.6786 4.2253 -1.4816 0.9744
4.2350 4.5735 -1.4649 0.9747
3.1692 4.9618 -1.3837 0.9761
2.7016 5.2004 -1.3773 0.9762
1.7676 5.7032 -1.4033 0.9758
0.2136 6.5335 -1.5363 0.9735
-4.5418 8.2540 -2.2142 0.9620
-5.7126 7.0411 -2.1310 0.9634
-7.1189 6.1265 -2.2074 0.9621
-7.4875 5.3604 -2.1642 0.9629
-7.7821 4.5810 -2.1223 0.9636
-8.1572 3.0097 -2.0435 0.9649
-8.2427 2.2297 -2.0069 0.9655
-8.2641 1.4602 -1.9723 0.9661
-7.9747 -0.7435 -1.8824 0.9676
-7.7710 -1.4322 -1.8571 0.9681
-7.5188 -2.0934 -1.8343 0.9684
-7.2212 -2.7249 -1.8140 0.9688
-6.8810 -3.3249 -1.7961 0.9691
-6.0835 -4.4234 -1.7678 0.9696
-5.1470 -5.3771 -1.7494 0.9699
-4.0900 -6.1757 -1.7409 0.9700
-2.9304 -6.8094 -1.7423 0.9700
-2.3173 -7.0613 -1.7467 0.9699
-1.6851 -7.2683 -1.7535 0.9698
-1.0357 -7.4290 -1.7629 0.9696
-0.3717 -7.5420 -1.7747 0.9694
0.9910 -7.6193 -1.8058 0.9689
2.3815 -7.4883 -1.8468 0.9682
3.0795 -7.3410 -1.8710 0.9678
4.4632 -6.8756 -1.9265 0.9669
5.1408 -6.5551 -1.9578 0.9663
7.0580 -5.2318 -2.0648 0.9645
2.3463 -0.9101 -0.5915 0.9897
8.4682 -2.4418 -2.0713 0.9644
9.1187 -0.9348 -2.1543 0.9630
9.3428 -0.1202 -2.1960 0.9623
9.5568 1.5983 -2.2773 0.9610
8.5047 2.2169 -2.0656 0.9645
7.5661 2.7129 -1.8891 0.9675
6.0674 3.4970 -1.6459 0.9716
5.4457 3.8235 -1.5638 0.9730
1.7384 3.8623 -0.9954 0.9827
1.9431 5.6060 -1.3944 0.9759
0.4838 3.0949 -0.7362 0.9872
0.4234 6.4262 -1.5136 0.9739
-0.6836 6.0349 -1.4274 0.9754
-2.0032 9.7777 -2.3457 0.9598
-3.5880 8.9664 -2.2698 0.9611
-7.6814 4.8710 -2.1377 0.9633
-7.9304 4.0869 -2.0968 0.9640
-8.1086 3.3006 -2.0575 0.9647
-8.2187 2.5178 -2.0202 0.9653
-8.2635 1.7439 -1.9849 0.9659
-8.2461 0.9835 -1.9517 0.9665
-7.3366 -2.4944 -1.8212 0.9687
-6.6463 -3.6855 -1.7861 0.9693
-5.8029 -4.7396 -1.7609 0.9697
-4.8265 -5.6456 -1.7456 0.9699
-4.2942 -6.0399 -1.7417 0.9700
-2.5469 -6.9731 -1.7447 0.9700
-0.6194 -7.5058 -1.7700 0.9695
0.7356 -7.6203 -1.7993 0.9690
1.4266 -7.6011 -1.8176 0.9687
2.8208 -7.4021 -1.8617 0.9680
3.5176 -7.2194 -1.8874 0.9675
6.2087 -5.9042 -2.0136 0.9654
7.4119 -3.9763 -1.9768 0.9660
9.5423 1.2728 -2.2625 0.9612
6.3154 3.3665 -1.6820 0.9710
5.6689 3.7064 -1.5918 0.9726
5.0833 4.0135 -1.5222 0.9737
4.5423 4.2966 -1.4695 0.9746
3.5238 4.7866 -1.3969 0.9759
2.5816 5.2630 -1.3777 0.9762
0.0634 6.6103 -1.5536 0.9732
-3.3105 9.1388 -2.2844 0.9608
-4.0404 8.6533 -2.2445 0.9615
-4.7083 8.1077 -2.2035 0.9622
-5.3103 7.5111 -2.1619 0.9629
-7.8465 4.3782 -2.1118 0.9638
-8.0506 3.5920 -2.0719 0.9644
-8.2543 2.0295 -1.9977 0.9657
-8.2596 1.2636 -1.9638 0.9662
-8.0927 -0.2167 -1.9026 0.9673
-7.7103 -1.6059 -1.8510 0.9682
-7.4461 -2.2596 -1.8288 0.9685
-6.3964 -4.0325 -1.7771 0.9694
-5.5092 -5.0411 -1.7550 0.9698
-5.0167 -5.4893 -1.7477 0.9699
-2.1556 -7.1192 -1.7482 0.9699
-1.5187 -7.3144 -1.7557 0.9698
-0.8653 -7.4628 -1.7657 0.9696
-0.1978 -7.5633 -1.7782 0.9694
0.4814 -7.6143 -1.7931 0.9691
1.1697 -7.6143 -1.8105 0.9688
5.3136 -6.4625 -1.9663 0.9662
5.9705 -6.0664 -2.0004 0.9656
6.6052 -5.6097 -2.0367 0.9650
7.7609 -4.5005 -2.1085 0.9638
8.1674 -2.9529 -2.0411 0.9649
8.5661 -2.2571 -2.0819 0.9643
9.3887 0.0960 -2.2067 0.9622
9.3265 1.7820 -2.2316 0.9617
4.7385 4.1940 -1.4872 0.9743
4.2925 4.5435 -1.4690 0.9746
2.7537 5.1734 -1.3774 0.9762
1.6612 3.9308 -1.0029 0.9826
1.8209 5.6736 -1.4004 0.9758
0.6729 2.9914 -0.7206 0.9875
0.2777 6.5007 -1.5292 0.9736
-0.8311 6.0791 -1.4420 0.9751
-2.2195 9.6901 -2.3364 0.9600
-3.0253 9.3016 -2.2988 0.9606
-4.4682 8.3164 -2.2188 0.9620
-5.0950 7.7376 -2.1774 0.9626
-5.6542 7.1135 -2.1356 0.9634
-7.9832 3.8836 -2.0865 0.9642
-8.2648 1.5459 -1.9761 0.9660
-8.2318 0.7895 -1.9435 0.9666
-7.7963 -1.3563 -1.8598 0.9680
-7.2568 -2.6556 -1.8161 0.9687
-6.9212 -3.2592 -1.7980 0.9691
-6.5454 -3.8297 -1.7823 0.9693
-5.6838 -4.8653 -1.7584 0.9697
-5.2028 -5.3277 -1.7501 0.9699
-4.6915 -5.7513 -1.7444 0.9700
-4.1522 -6.1352 -1.7411 0.9700
-3.5869 -6.4779 -1.7403 0.9700
-2.9978 -6.7784 -1.7419 0.9700
-2.3871 -7.0353 -1.7460 0.9699
-1.7568 -7.2474 -1.7526 0.9698
-3.0370 8.1286 -2.2467 0.9648
-3.6907 7.7021 -2.2113 0.9653
-4.8340 6.6941 -2.1379 0.9665
-6.5726 5.2881 -2.1842 0.9657
-7.1494 3.8959 -2.1081 0.9669
-7.4686 2.4781 -2.0374 0.9680
-7.5460 1.0772 -1.9736 0.9690
-7.2528 -0.9192 -1.8929 0.9702
-7.0566 -1.5436 -1.8703 0.9706
-6.5330 -2.7155 -1.8318 0.9712
-6.2107 -3.2588 -1.8160 0.9714
-4.5757 -5.1085 -1.7757 0.9721
-4.0921 -5.4829 -1.7714 0.9721
-3.5829 -5.8195 -1.7694 0.9722
-2.4965 -6.3742 -1.7725 0.9721
-1.9235 -6.5899 -1.7774 0.9720
-0.7293 -6.8917 -1.7944 0.9718
-0.1126 -6.9753 -1.8063 0.9716
0.5139 -7.0124 -1.8205 0.9714
1.1474 -7.0016 -1.8370 0.9711
1.7853 -6.9417 -1.8558 0.9708
2.4243 -6.8315 -1.8769 0.9705
3.0613 -6.6698 -1.9001 0.9701
4.3144 -6.1879 -1.9531 0.9693
4.9225 -5.8661 -1.9827 0.9689
5.5123 -5.4898 -2.0143 0.9684
6.0789 -5.0588 -2.0477 0.9679
7.0399 -3.1963 -2.0018 0.9686
8.0545 -1.2861 -2.1119 0.9669
8.2805 -0.5727 -2.1491 0.9663
8.4410 0.1708 -2.1860 0.9657
8.5310 0.9381 -2.2221 0.9652
8.1230 2.4071 -2.1936 0.9656
7.2389 2.8693 -2.0162 0.9683
6.4853 3.2672 -1.8802 0.9704
4.6726 4.2199 -1.6302 0.9743
4.2297 4.5678 -1.6119 0.9746
3.1893 4.9933 -1.5341 0.9758
1.6083 3.9145 -1.0957 0.9827
1.7743 5.7247 -1.5518 0.9755
0.7652 6.2427 -1.6284 0.9743
0.2133 6.5248 -1.6903 0.9734
-0.3871 6.8310 -1.7715 0.9721
-2.0633 8.6111 -2.2927 0.9641
-4.0749 7.4055 -2.1885 0.9657
-4.6395 6.8945 -2.1517 0.9662
-5.1453 6.3418 -2.1144 0.9668
-6.4362 5.5390 -2.1986 0.9655
-7.0623 4.1573 -2.1219 0.9667
-7.2770 3.4504 -2.0852 0.9673
-7.5182 2.0337 -2.0165 0.9683
-7.5235 0.6456 -1.9551 0.9693
-7.3136 -0.6819 -1.9018 0.9701
-7.1347 -1.3149 -1.8784 0.9705
-6.9101 -1.9239 -1.8572 0.9708
-6.3346 -3.0609 -1.8216 0.9713
-5.6075 -4.0773 -1.7951 0.9718
-5.1932 -4.5362 -1.7853 0.9719
-4.7481 -4.9604 -1.7779 0.9720
-4.2744 -5.3485 -1.7727 0.9721
-2.1380 -6.5149 -1.7753 0.9721
-1.5542 -6.7038 -1.7818 0.9720
-0.3425 -6.9497 -1.8016 0.9717
0.2807 -7.0042 -1.8150 0.9715
1.5485 -6.9697 -1.8486 0.9709
4.0853 -6.2934 -1.9427 0.9695
6.4213 -4.7598 -2.0695 0.9675
6.9258 -4.2328 -2.1016 0.9670
6.8848 -3.4051 -1.9887 0.9688
7.6484 -2.2054 -2.0610 0.9676
7.9552 -1.5418 -2.0981 0.9671
8.2040 -0.8410 -2.1353 0.9665
8.3895 -0.1080 -2.1724 0.9659
8.5493 1.4298 -2.2443 0.9648
8.4895 2.2130 -2.2715 0.9644
7.5537 2.7085 -2.0777 0.9674
6.7527 3.1261 -1.9267 0.9697
5.4384 3.8183 -1.7205 0.9729
3.9128 4.7331 -1.5900 0.9749
-0.1578 6.7142 -1.7389 0.9726
-0.6828 6.0284 -1.5708 0.9752
-1.7863 8.7193 -2.3045 0.9639
-2.5207 8.4052 -2.2720 0.9644
-4.4369 7.0892 -2.1654 0.9660
-4.9648 6.5511 -2.1283 0.9666
-5.4324 5.9759 -2.0910 0.9672
-2.3636 2.1743 -0.8315 0.9868
-7.3795 3.0038 -2.0629 0.9676
-7.4796 0.2201 -1.9374 0.9696
-7.3678 -0.4416 -1.9111 0.9700
-7.2065 -1.0829 -1.8868 0.9703
-6.9985 -1.7011 -1.8648 0.9707
-6.7466 -2.2938 -1.8450 0.9710
-6.4533 -2.8588 -1.8275 0.9713
-6.1212 -3.3943 -1.8123 0.9715
-5.7528 -3.8986 -1.7993 0.9717
-4.4532 -5.2089 -1.7744 0.9721
-3.9628 -5.5736 -1.7707 0.9721
-2.9090 -6.1874 -1.7703 0.9721
-2.3500 -6.4340 -1.7735 0.9721
-1.7725 -6.6388 -1.7791 0.9720
-0.5709 -6.9177 -1.7972 0.9717
0.6771 -7.0142 -1.8246 0.9713
1.9505 -6.9181 -1.8610 0.9707
3.2252 -6.6194 -1.9065 0.9700
3.8545 -6.3915 -1.9325 0.9696
4.4731 -6.1099 -1.9606 0.9692
5.0769 -5.7740 -1.9907 0.9687
5.6612 -5.3836 -2.0228 0.9682
6.2210 -4.9385 -2.0566 0.9677
6.7510 -4.4394 -2.0920 0.9672
6.7241 -3.6073 -1.9757 0.9690
2.2993 -0.9806 -0.6472 0.9897
7.5212 -2.4410 -2.0474 0.9679
7.8479 -1.7924 -2.0843 0.9673
8.3285 -0.3831 -2.1587 0.9661
8.4713 0.3672 -2.1954 0.9656
8.5422 1.1394 -2.2313 0.9650
8.5369 1.9260 -2.2659 0.9645
7.8816 2.5350 -2.1436 0.9664
4.5365 4.2912 -1.6168 0.9745
2.1288 5.5420 -1.5372 0.9758
1.6488 5.7893 -1.5586 0.9754
0.5549 2.9138 -0.7680 0.9878
0.6264 6.3138 -1.6428 0.9741
-0.5522 6.9151 -1.7961 0.9717
-3.6199 7.7528 -2.2154 0.9653
-4.2264 7.2778 -2.1790 0.9658
-4.7760 6.7553 -2.1421 0.9664
-2.2900 2.2510 -0.8314 0.9868
-6.5324 5.3643 -2.1886 0.9657
-6.8612 4.6763 -2.1499 0.9663
-7.1240 3.9751 -2.1122 0.9669
-7.3221 3.2669 -2.0760 0.9674
-7.4573 2.5575 -2.0412 0.9680
-7.0809 -1.4748 -1.8727 0.9706
-6.8450 -2.0772 -1.8521 0.9709
-6.2487 -3.1993 -1.8176 0.9714
-5.5034 -4.1992 -1.7924 0.9718
-5.0809 -4.6493 -1.7832 0.9719
-4.6283 -5.0643 -1.7763 0.9721
-4.1476 -5.4428 -1.7718 0.9721
-2.5595 -6.3474 -1.7720 0.9721
-1.9886 -6.5678 -1.7768 0.9720
-1.4006 -6.7456 -1.7838 0.9719
-0.7977 -6.8795 -1.7932 0.9718
0.4432 -7.0106 -1.8188 0.9714
1.0761 -7.0052 -1.8351 0.9711
1.7136 -6.9509 -1.8536 0.9709
2.3527 -6.8464 -1.8744 0.9705
4.8551 -5.9049 -1.9793 0.9689
6.0167 -5.1099 -2.0438 0.9679
6.5584 -4.6307 -2.0787 0.9674
8.0253 -1.3640 -2.1077 0.9669
8.4265 0.0861 -2.1819 0.9658
8.5246 0.8511 -2.2181 0.9652
8.5480 1.6332 -2.2533 0.9647
8.2312 2.3498 -2.2164 0.9652
6.5649 3.2252 -1.8938 0.9702
5.8922 3.5797 -1.7851 0.9719
5.2874 3.8976 -1.7008 0.9732
4.7324 4.1886 -1.6363 0.9742
3.7848 4.7998 -1.5826 0.9751
3.2422 4.9658 -1.5355 0.9758
2.7727 5.2093 -1.5279 0.9759
1.6404 3.8817 -1.0911 0.9827
0.6739 2.9957 -0.7950 0.9874
0.8247 6.2122 -1.6226 0.9744
0.2774 6.4922 -1.6825 0.9735
-0.3168 6.7952 -1.7613 0.9723
-0.8300 6.0707 -1.5864 0.9750
-1.9801 8.6449 -2.2963 0.9640
-4.0080 7.4598 -2.1926 0.9656
-5.5433 5.8220 -2.0814 0.9673
-6.3899 5.6114 -2.2018 0.9655
-7.2561 3.5299 -2.0892 0.9672
-7.4144 2.8203 -2.0539 0.9678
-7.5111 2.1127 -2.0202 0.9683
-7.5291 0.7221 -1.9584 0.9692
-7.3307 -0.6095 -1.9046 0.9701
-7.1571 -1.2451 -1.8809 0.9704
-6.6746 -2.4426 -1.8403 0.9711
-6.3711 -3.0002 -1.8233 0.9713
-6.0294 -3.5278 -1.8087 0.9715
-4.3289 -5.3068 -1.7732 0.9721
-3.8318 -5.6618 -1.7701 0.9721
-2.7664 -6.2551 -1.7709 0.9721
-2.2024 -6.4910 -1.7747 0.9721
-1.6205 -6.6848 -1.7809 0.9720
-2.1065 7.6626 -2.2497 0.9675
-2.7440 7.3444 -2.2195 0.9679
-3.3397 6.9697 -2.1879 0.9684
-3.8889 6.5450 -2.1552 0.9688
-4.3882 6.0767 -2.1219 0.9693
-2.3017 2.2176 -0.9048 0.9868
-5.9869 4.8168 -2.1753 0.9686
-6.2980 4.2007 -2.1431 0.9690
-6.8529 2.2737 -2.0440 0.9704
-6.9078 0.3630 -1.9582 0.9717
-6.8244 -0.2511 -1.9332 0.9720
-6.5189 -1.4260 -1.8891 0.9726
-4.6650 -4.3552 -1.8067 0.9738
-4.2434 -4.7375 -1.8005 0.9739
-3.7956 -5.0856 -1.7965 0.9740
-2.8294 -5.6741 -1.7949 0.9740
-2.3155 -5.9121 -1.7974 0.9739
-1.7837 -6.1109 -1.8021 0.9739
-1.2364 -6.2694 -1.8090 0.9738
-0.6758 -6.3863 -1.8180 0.9737
1.0614 -6.4769 -1.8580 0.9731
2.2390 -6.3092 -1.8952 0.9726
3.4036 -5.9502 -1.9406 0.9719
4.5267 -5.3944 -1.9935 0.9711
6.0605 -4.1889 -2.0856 0.9698
6.4283 -2.9187 -1.9986 0.9711
6.7725 -2.3722 -2.0315 0.9706
7.0713 -1.7878 -2.0648 0.9701
7.6467 0.1547 -2.1652 0.9687
7.6491 2.2667 -2.2585 0.9674
6.4757 3.2623 -2.0527 0.9703
5.8132 3.6119 -1.9375 0.9719
4.2244 4.5621 -1.7602 0.9745
3.1854 4.9872 -1.6753 0.9757
2.7170 5.2301 -1.6685 0.9758
1.6050 3.9066 -1.1956 0.9826
1.7721 5.7177 -1.6946 0.9754
-0.8962 6.0992 -1.7452 0.9747
-1.8606 7.7651 -2.2605 0.9674
-5.4452 4.6861 -2.0338 0.9706
-6.4580 3.8016 -2.1214 0.9693
-6.9042 1.8676 -2.0248 0.9707
-6.9415 1.2265 -1.9955 0.9711
-6.7476 -0.6291 -1.9185 0.9722
-6.3870 -1.7783 -1.8769 0.9728
-6.1444 -2.3186 -1.8592 0.9731
-5.1961 -3.7782 -1.8187 0.9736
-4.4029 -4.5997 -1.8025 0.9739
-1.4410 -6.2154 -1.8062 0.9738
-0.8850 -6.3479 -1.8144 0.9737
-0.3173 -6.4382 -1.8248 0.9736
0.2599 -6.4851 -1.8374 0.9734
0.8438 -6.4875 -1.8520 0.9732
3.1899 -6.0315 -1.9316 0.9720
6.3347 -3.8716 -2.1017 0.9696
2.3556 -0.9137 -0.7153 0.9896
7.6981 0.5894 -2.1857 0.9684
7.6830 2.0027 -2.2477 0.9675
6.7424 3.1214 -2.1033 0.9696
6.0501 3.4870 -1.9768 0.9714
5.4310 3.8131 -1.8786 0.9728
4.8656 4.1101 -1.8031 0.9739
3.3605 4.8962 -1.6812 0.9756
2.8903 5.1403 -1.6694 0.9758
1.7185 3.8181 -1.1853 0.9827
1.9500 5.6261 -1.6857 0.9755
0.7598 3.0474 -0.8891 0.9870
0.4811 3.0777 -0.8819 0.9871
-0.1576 6.7049 -1.8986 0.9725
-3.4863 6.8644 -2.1795 0.9685
-4.9414 5.4357 -2.0796 0.9699
-6.0779 4.6630 -2.1686 0.9687
-6.3666 4.0373 -2.1342 0.9691
-6.7641 2.7533 -2.0674 0.9701
-6.8766 2.1067 -2.0360 0.9705
-6.9339 1.4633 -2.0062 0.9710
-6.9379 0.8274 -1.9780 0.9714
-6.6529 -0.9997 -1.9045 0.9724
-6.2389 -2.1212 -1.8655 0.9730
-5.9720 -2.6456 -1.8491 0.9732
-4.5586 -4.4573 -1.8049 0.9738
-3.6757 -5.1699 -1.7958 0.9740
-2.6984 -5.7393 -1.7954 0.9740
-2.1796 -5.9673 -1.7985 0.9739
-1.6436 -6.1558 -1.8037 0.9739
-0.5290 -6.4097 -1.8207 0.9736
0.6267 -6.4919 -1.8463 0.9733
4.1172 -5.6236 -1.9731 0.9714
4.6672 -5.3080 -2.0009 0.9710
5.1976 -4.9426 -2.0305 0.9706
6.1786 -4.0630 -2.0934 0.9697
6.1469 -3.2977 -1.9748 0.9714
2.2971 -0.9796 -0.7070 0.9897
7.1406 -1.6309 -2.0735 0.9700
7.5536 -0.3475 -2.1406 0.9691
7.6709 0.3325 -2.1736 0.9686
7.7232 1.0302 -2.2058 0.9681
7.7070 1.7388 -2.2366 0.9677
7.6195 2.4507 -2.2658 0.9673
7.0228 2.9731 -2.1589 0.9688
6.2970 3.3567 -2.0201 0.9708
5.6533 3.6961 -1.9121 0.9723
5.0699 4.0029 -1.8287 0.9735
4.5307 4.2857 -1.7655 0.9744
3.5370 4.8044 -1.6889 0.9755
3.0639 5.0503 -1.6722 0.9757
2.1262 5.5353 -1.6786 0.9757
0.5518 2.8976 -0.8350 0.9878
0.6256 6.3055 -1.7938 0.9740
-2.0326 7.6945 -2.2530 0.9675
-3.8298 6.5949 -2.1589 0.9688
-4.3348 6.1312 -2.1257 0.9693
-2.2907 2.2517 -0.9093 0.9867
-6.5169 3.6363 -2.1127 0.9695
-6.7080 2.9929 -2.0794 0.9699
-6.9189 1.7012 -2.0170 0.9708
-6.9425 1.0621 -1.9882 0.9712
-6.7108 -0.7823 -1.9127 0.9723
-6.3281 -1.9203 -1.8721 0.9729
-4.2920 -4.6963 -1.8011 0.9739
-2.8859 -5.6451 -1.7948 0.9740
-2.3740 -5.8873 -1.7971 0.9740
-0.1688 -6.4545 -1.8278 0.9735
0.4103 -6.4900 -1.8409 0.9733
0.9955 -6.4807 -1.8562 0.9731
2.7592 -6.1739 -1.9144 0.9723
3.9091 -5.7280 -1.9632 0.9716
4.4653 -5.4308 -1.9904 0.9712
5.0035 -5.0839 -2.0193 0.9708
6.1351 -3.5577 -2.0077 0.9709
6.3872 -2.9775 -1.9950 0.9711
6.7360 -2.4354 -2.0277 0.9707
7.7212 1.4753 -2.2254 0.9678
6.5550 3.2204 -2.0675 0.9701
5.2803 3.8924 -1.8571 0.9731
4.7263 4.1832 -1.7868 0.9741
3.7801 4.7939 -1.7283 0.9749
3.2383 4.9597 -1.6768 0.9757
1.8261 5.6899 -1.6917 0.9755
0.8237 6.2043 -1.7718 0.9743
0.2770 6.4835 -1.8371 0.9734
-0.3164 6.7857 -1.9231 0.9722
-0.8288 6.0622 -1.7321 0.9749
-2.4411 7.5055 -2.2343 0.9677
-4.1535 6.3078 -2.1381 0.9691
-5.4079 4.7491 -2.0375 0.9705
-6.1593 4.5034 -2.1600 0.9688
-6.4312 3.8730 -2.1253 0.9693
-5.5839 -3.2672 -1.8315 0.9735
-3.5543 -5.2518 -1.7952 0.9740
-2.0425 -6.0198 -1.7996 0.9739
-0.9480 -6.3351 -1.8134 0.9737
-0.5470 6.0819 -1.8782 0.9748
-1.3021 7.1968 -2.2495 0.9699
-2.4998 6.6906 -2.1968 0.9706
-3.0463 6.3574 -2.1683 0.9709
-4.4277 5.1024 -2.0779 0.9721
-2.3015 2.2175 -0.9830 0.9867
-5.1089 4.1104 -2.0168 0.9729
-5.7910 3.8625 -2.1410 0.9713
-6.3979 1.5053 -2.0216 0.9729
-6.3248 -0.2327 -1.9467 0.9739
-6.2094 -0.7870 -1.9251 0.9741
-6.0518 -1.3238 -1.9054 0.9744
-5.8544 -1.8408 -1.8876 0.9746
-5.6192 -2.3357 -1.8717 0.9749
-4.7089 -3.6681 -1.8359 0.9753
-3.5360 -4.7379 -1.8184 0.9756
-3.0965 -5.0295 -1.8166 0.9756
-2.1571 -5.5076 -1.8193 0.9756
-1.6614 -5.6918 -1.8237 0.9755
-0.6291 -5.9448 -1.8387 0.9753
-0.0970 -6.0114 -1.8492 0.9752
0.4424 -6.0368 -1.8618 0.9750
2.0781 -5.8558 -1.9112 0.9743
2.6194 -5.7071 -1.9314 0.9741
3.1536 -5.5131 -1.9535 0.9738
3.6769 -5.2735 -1.9774 0.9735
4.6761 -4.6570 -2.0299 0.9728
5.5624 -3.1516 -1.9664 0.9736
5.9085 -2.6826 -1.9959 0.9732
6.4821 -1.6388 -2.0565 0.9724
6.7008 -1.0700 -2.0871 0.9720
7.0355 0.7736 -2.1770 0.9708
6.9573 2.0617 -2.2319 0.9701
4.6605 4.2089 -1.9315 0.9741
4.2190 4.5563 -1.9100 0.9743
3.1815 4.9810 -1.8179 0.9756
1.5982 3.8899 -1.2935 0.9826
0.6449 3.0071 -0.9460 0.9872
0.7632 6.2265 -1.9295 0.9741
0.2128 6.5073 -2.0026 0.9731
-0.8948 6.0897 -1.8932 0.9746
-1.6922 7.0623 -2.2337 0.9701
-3.8476 5.7177 -2.1198 0.9716
-4.6635 4.8008 -2.0586 0.9724
-4.9978 4.3011 -2.0281 0.9728
-5.6859 4.0706 -2.1508 0.9712
-6.1404 2.9114 -2.0902 0.9720
-6.3565 -0.0234 -1.9551 0.9737
-6.2572 -0.5834 -1.9329 0.9740
-6.1150 -1.1270 -1.9125 0.9743
-5.9321 -1.6516 -1.8940 0.9746
-5.7107 -2.1549 -1.8774 0.9748
-5.4529 -2.6348 -1.8627 0.9750
-4.8367 -3.5168 -1.8394 0.9753
-4.4827 -3.9156 -1.8307 0.9754
-4.1009 -4.2842 -1.8241 0.9755
-2.8091 -5.1953 -1.8166 0.9756
-2.3367 -5.4299 -1.8182 0.9756
-1.8469 -5.6279 -1.8219 0.9755
-1.3419 -5.7883 -1.8276 0.9754
1.3302 -5.9872 -1.8864 0.9747
1.8762 -5.8996 -1.9041 0.9744
3.4844 -5.3677 -1.9683 0.9736
3.9991 -5.0993 -1.9932 0.9732
4.9734 -4.4255 -2.0476 0.9725
5.8307 -3.5635 -2.1018 0.9718
5.7844 -2.8608 -1.9849 0.9734
6.3889 -1.8422 -2.0451 0.9726
6.6255 -1.2841 -2.0758 0.9722
6.8125 -0.6984 -2.1064 0.9717
7.0224 0.5377 -2.1663 0.9710
7.0383 1.1771 -2.1949 0.9706
6.9912 1.8224 -2.2222 0.9702
6.7014 3.1024 -2.2714 0.9696
6.0413 3.4819 -2.1447 0.9712
5.4235 3.8079 -2.0382 0.9726
3.9030 4.7214 -1.8841 0.9747
3.3564 4.8902 -1.8243 0.9755
2.8867 5.1340 -1.8116 0.9757
1.6709 3.7124 -1.2522 0.9831
0.4825 3.0865 -0.9609 0.9870
0.4217 6.4008 -1.9730 0.9735
-0.1574 6.6956 -2.0600 0.9724
-0.6814 6.0155 -1.8621 0.9750
-1.4637 7.1444 -2.2431 0.9699
-2.6448 6.6092 -2.1896 0.9706
-3.6756 5.8728 -2.1310 0.9714
-4.1250 5.4430 -2.1006 0.9718
-4.5269 4.9798 -2.0700 0.9722
-2.3577 2.1689 -0.9854 0.9867
-6.0734 3.1300 -2.1015 0.9718
-6.2373 2.5389 -2.0713 0.9722
-6.4086 1.3525 -2.0146 0.9730
-6.4192 0.7656 -1.9884 0.9733
-6.1726 -0.9276 -1.9199 0.9742
-6.0045 -1.4595 -1.9006 0.9745
-5.5525 -2.4598 -1.8679 0.9749
-4.6173 -3.7712 -1.8337 0.9754
-3.8472 -4.5001 -1.8210 0.9755
-3.4245 -4.8165 -1.8177 0.9756
-2.5140 -5.3471 -1.8174 0.9756
-1.5308 -5.7333 -1.8252 0.9755
-1.0173 -5.8694 -1.8322 0.9754
-0.4923 -5.9659 -1.8412 0.9753
1.1277 -6.0085 -1.8804 0.9747
2.2186 -5.8217 -1.9162 0.9743
3.8100 -5.2041 -1.9838 0.9734
4.3145 -4.9069 -2.0097 0.9730
4.7994 -4.5640 -2.0371 0.9727
2.2948 -0.9787 -0.7673 0.9896
6.5433 -1.4944 -2.0644 0.9723
6.7492 -0.9185 -2.0951 0.9719
6.9031 -0.3175 -2.1255 0.9715
7.0010 0.3035 -2.1554 0.9711
7.0161 1.5829 -2.2123 0.9703
6.7750 2.8682 -2.2629 0.9697
5.0631 3.9975 -1.9842 0.9734
4.0881 4.6247 -1.8986 0.9745
3.0602 5.0441 -1.8146 0.9756
2.5929 5.2861 -1.8110 0.9757
2.1236 5.5285 -1.8216 0.9755
-0.5507 6.8953 -2.1276 0.9715
-3.9638 5.6065 -2.1119 0.9717
-2.2915 2.2525 -0.9883 0.9866
-5.7616 3.9269 -2.1446 0.9712
-5.9991 3.3474 -2.1130 0.9717
-6.3133 2.1651 -2.0529 0.9725
-6.3922 1.5717 -2.0247 0.9728
-6.4209 0.9823 -1.9979 0.9732
-6.3350 -0.1696 -1.9492 0.9738
-5.8785 -1.7839 -1.8895 0.9746
-5.6474 -2.2813 -1.8734 0.9748
-5.0800 -3.2026 -1.8471 0.9752
-4.7480 -3.6228 -1.8369 0.9753
-3.9979 -4.3745 -1.8227 0.9755
-3.1469 -4.9985 -1.8167 0.9756
-2.6887 -5.2594 -1.8168 0.9756
-2.2116 -5.4846 -1.8189 0.9756
-1.7177 -5.6730 -1.8231 0.9755
-0.6882 -5.9348 -1.8376 0.9753
-0.1571 -6.0060 -1.8479 0.9752
0.3816 -6.0360 -1.8603 0.9750
4.6222 -4.6964 -2.0268 0.9728
5.5367 -3.9093 -2.0847 0.9720
6.4546 -1.7008 -2.0531 0.9725
6.8524 -0.5429 -2.1142 0.9716
6.9714 0.0712 -2.1444 0.9712
7.0323 1.3436 -2.2021 0.9705
6.8396 2.6321 -2.2541 0.9698
6.5451 3.2155 -2.2430 0.9699
5.2731 3.8871 -2.0149 0.9730
4.7201 4.1777 -1.9388 0.9740
4.2763 4.5264 -1.9153 0.9743
3.2343 4.9536 -1.8196 0.9755
2.7660 5.1966 -1.8107 0.9757
1.5727 3.7215 -1.2427 0.9832
0.8226 6.1962 -1.9225 0.9742
0.2766 6.4747 -1.9933 0.9732
-0.8277 6.0538 -1.8793 0.9748
-1.6235 7.0880 -2.2366 0.9700
-2.2225 6.8333 -2.2102 0.9704
-2.7873 6.5244 -2.1822 0.9707
-3.3131 6.1665 -2.1531 0.9711
-3.7962 5.7652 -2.1231 0.9715
-4.2336 5.3262 -2.0927 0.9719
-5.6516 4.1323 -2.1534 0.9711
-5.9174 3.5636 -2.1246 0.9715
-6.1209 2.9776 -2.0936 0.9719
-6.2710 2.3854 -2.0637 0.9723
-6.3689 1.7914 -2.0350 0.9727
-6.3649 0.0403 -1.9577 0.9737
-6.2705 -0.5214 -1.9353 0.9740
-6.1330 -1.0669 -1.9147 0.9743
-5.9546 -1.5938 -1.8960 0.9745
-5.7374 -2.0996 -1.8791 0.9748
-3.7402 -4.5851 -1.8200 0.9755
-3.3115 -4.8929 -1.8172 0.9756
-0.8826 -5.8981 -1.8343 0.9754
-0.5470 6.0822 -2.0299 0.9746
-1.7562 6.3884 -2.2023 0.9725
-2.2928 6.1368 -2.1776 0.9728
-3.2650 5.4950 -2.1247 0.9734
-3.6933 5.1145 -2.0970 0.9738
-4.0794 4.7011 -2.0690 0.9741
-2.3023 2.2182 -1.0627 0.9866
-5.3470 3.5664 -2.1365 0.9733
-5.5741 3.0375 -2.1101 0.9736
-5.7446 2.4944 -2.0818 0.9739
-5.9401 1.3976 -2.0284 0.9746
-5.9672 0.8518 -2.0036 0.9749
-5.9492 0.3127 -1.9803 0.9752
-5.6420 -1.2342 -1.9198 0.9759
-5.4614 -1.7172 -1.9030 0.9762
-4.9947 -2.6207 -1.8749 0.9765
-4.4008 -3.4281 -1.8543 0.9768
-4.0612 -3.7916 -1.8469 0.9769
-3.6959 -4.1263 -1.8413 0.9769
-2.4654 -4.9440 -1.8364 0.9770
-2.0171 -5.1504 -1.8386 0.9770
-1.5534 -5.3218 -1.8428 0.9769
-1.0762 -5.4571 -1.8489 0.9768
-0.5879 -5.5554 -1.8569 0.9767
1.9369 -5.4581 -1.9252 0.9759
3.8888 -4.6342 -2.0110 0.9748
4.3402 -4.3225 -2.0362 0.9745
5.1721 -3.5748 -2.0899 0.9738
5.1466 -2.9160 -1.9663 0.9754
5.4607 -2.4793 -1.9935 0.9750
6.1716 -0.9855 -2.0775 0.9740
6.3188 -0.4370 -2.1054 0.9737
6.4579 0.7101 -2.1596 0.9730
6.2422 2.4743 -2.2320 0.9721
6.0520 3.0489 -2.2526 0.9718
5.7966 3.6016 -2.2684 0.9716
5.2017 3.9154 -2.1642 0.9729
4.1117 4.4404 -2.0116 0.9748
3.6519 4.7279 -1.9858 0.9751
2.7103 5.2172 -1.9543 0.9755
1.5843 3.8561 -1.3858 0.9826
1.7677 5.7034 -1.9848 0.9751
0.2125 6.4983 -2.1612 0.9730
-0.3836 6.7698 -2.2539 0.9718
-0.8934 6.0801 -2.0427 0.9744
-3.0960 5.6266 -2.1348 0.9733
-3.5393 5.2597 -2.1073 0.9736
-3.9413 4.8579 -2.0794 0.9740
-5.4983 3.2366 -2.1208 0.9735
-5.8269 2.1499 -2.0645 0.9742
-5.9182 1.6009 -2.0379 0.9745
-5.9611 0.5116 -1.9888 0.9751
-5.9156 -0.0218 -1.9664 0.9754
-5.5326 -1.5404 -1.9090 0.9761
-5.0913 -2.4601 -1.8796 0.9764
-4.8208 -2.8858 -1.8676 0.9766
-4.1902 -3.6602 -1.8494 0.9768
-3.8342 -4.0057 -1.8432 0.9769
-3.4537 -4.3215 -1.8389 0.9770
-2.1852 -5.0779 -1.8376 0.9770
-0.7700 -5.5233 -1.8537 0.9768
-0.2758 -5.5977 -1.8630 0.9767
0.2257 -5.6334 -1.8741 0.9765
1.2409 -5.5855 -1.9019 0.9762
2.2541 -5.3734 -1.9369 0.9757
2.7525 -5.2044 -1.9570 0.9755
3.7166 -4.7391 -2.0020 0.9749
4.6132 -4.1050 -2.0527 0.9743
5.0267 -3.7260 -2.0799 0.9740
2.3819 -0.9239 -0.8492 0.9893
6.2700 -0.6427 -2.0951 0.9738
6.3856 -0.0822 -2.1228 0.9734
6.4485 0.4938 -2.1498 0.9731
6.4561 1.0797 -2.1759 0.9728
6.4063 1.6699 -2.2007 0.9725
6.1294 2.8376 -2.2452 0.9719
4.8526 4.0992 -2.1115 0.9736
4.2503 4.2958 -2.0088 0.9748
3.8311 4.6344 -1.9987 0.9750
3.3522 4.8841 -1.9691 0.9753
2.8831 5.1276 -1.9554 0.9755
0.4211 6.3921 -2.1294 0.9734
-1.8978 6.3282 -2.1961 0.9725
-4.7872 3.6728 -2.0057 0.9749
-5.4142 3.4333 -2.1310 0.9733
-5.8899 1.8044 -2.0477 0.9744
-5.9668 0.7116 -1.9975 0.9750
-5.9374 0.1747 -1.9745 0.9753
-5.8651 -0.3515 -1.9531 0.9755
-5.4088 -1.8389 -1.8990 0.9762
-3.5975 -4.2079 -1.8402 0.9769
-2.7864 -4.7690 -1.8360 0.9770
-2.3511 -5.0006 -1.8368 0.9770
-1.8986 -5.1981 -1.8395 0.9769
-1.4312 -5.3603 -1.8442 0.9769
0.0391 -5.6248 -1.8697 0.9766
1.0522 -5.6066 -1.8962 0.9762
1.5610 -5.5367 -1.9122 0.9760
2.0675 -5.4253 -1.9299 0.9758
3.0613 -5.0763 -1.9705 0.9753
4.0074 -4.5577 -2.0173 0.9747
4.4535 -4.2351 -2.0429 0.9744
4.8765 -3.8712 -2.0697 0.9741
5.2656 -3.4626 -2.0948 0.9738
5.2311 -2.8063 -1.9733 0.9753
2.2925 -0.9777 -0.8285 0.9895
5.8044 -1.8838 -2.0285 0.9746
6.4316 1.4510 -2.1916 0.9726
6.3449 2.0407 -2.2155 0.9723
5.6373 3.6857 -2.2388 0.9720
5.0562 3.9921 -2.1414 0.9732
4.0117 4.5382 -2.0134 0.9748
3.5282 4.7924 -1.9782 0.9752
3.0563 5.0378 -1.9587 0.9755
2.1210 5.5216 -1.9661 0.9754
0.6239 6.2888 -2.1007 0.9737
0.0631 6.5743 -2.1854 0.9727
-2.2342 6.1674 -2.1805 0.9727
-2.7423 5.8732 -2.1546 0.9730
-3.6473 5.1589 -2.1001 0.9737
-4.0383 4.7490 -2.0722 0.9741
-5.3169 3.6238 -2.1388 0.9732
-5.5519 3.0978 -2.1133 0.9736
-5.7280 2.5557 -2.0849 0.9739
-5.8551 2.0080 -2.0575 0.9742
-5.9664 0.9128 -2.0063 0.9749
-5.6599 -1.1788 -1.9218 0.9759
-5.0244 -2.5725 -1.8763 0.9765
-4.7458 -2.9919 -1.8648 0.9766
-3.7381 -4.0902 -1.8419 0.9769
-3.3515 -4.3981 -1.8381 0.9770
-2.9430 -4.6747 -1.8362 0.9770
-2.0682 -5.1290 -1.8383 0.9770
-1.1303 -5.4438 -1.8481 0.9768
-0.6431 -5.5462 -1.8559 0.9767
2.3837 -5.3337 -1.9420 0.9757
2.8800 -5.1538 -1.9625 0.9754
3.3655 -4.9314 -1.9846 0.9751
3.8370 -4.6666 -2.0082 0.9749
4.7227 -4.0109 -2.0596 0.9742
5.1093 -2.9628 -1.9633 0.9754
5.7096 -2.0643 -2.0181 0.9747
6.3047 -0.4995 -2.1023 0.9737
6.4559 0.6445 -2.1566 0.9730
6.4488 1.2322 -2.1824 0.9727
6.3839 1.8225 -2.2068 0.9724
6.0763 2.9852 -2.2504 0.9719
5.8335 3.5441 -2.2689 0.9716
4.1542 4.3972 -2.0108 0.9748
3.7059 4.6998 -1.9895 0.9751
0.6785 3.0162 -1.0277 0.9871
-0.3155 6.7665 -2.2516 0.9719
-0.8265 6.0452 -2.0281 0.9746
-2.0375 6.2645 -2.1897 0.9726
-2.5579 5.9876 -2.1643 0.9729
-3.0439 5.6653 -2.1378 0.9733
-3.8984 4.9045 -2.0826 0.9739
-4.2619 4.4761 -2.0544 0.9743
-4.8533 3.5486 -1.9985 0.9750
-5.6684 2.7575 -2.0953 0.9738
-5.8136 2.2114 -2.0676 0.9741
-5.9228 0.0375 -1.9688 0.9753
-5.7158 -0.9943 -1.9285 0.9758
-5.3538 -1.9592 -1.8950 0.9763
-4.2285 -3.6196 -1.8502 0.9768
-1.7791 -5.2435 -1.8405 0.9769
-1.3081 -5.3963 -1.8457 0.9769
-0.8249 -5.5126 -1.8528 0.9768
-0.0026 6.2678 -2.2414 0.9737
-0.5471 6.0825 -2.1839 0.9744
-1.0976 6.0669 -2.2048 0.9741
-2.5827 5.3898 -2.1373 0.9749
-3.0176 5.0786 -2.1125 0.9752
-3.4168 4.7316 -2.0871 0.9755
-4.6150 3.0782 -1.9838 0.9767
-5.3461 2.3214 -2.0842 0.9755
-5.4643 1.8130 -2.0588 0.9758
-5.5378 1.3029 -2.0344 0.9761
-5.5677 0.7948 -2.0112 0.9764
-5.5553 0.2920 -1.9893 0.9766
-5.5020 -0.2025 -1.9689 0.9769
-5.4093 -0.6856 -1.9499 0.9771
-5.2790 -1.1548 -1.9325 0.9773
-5.1129 -1.6077 -1.9167 0.9775
-4.9128 -2.0420 -1.9026 0.9777
-4.1268 -3.2147 -1.8707 0.9780
-3.8093 -3.5564 -1.8636 0.9781
-3.1026 -4.1571 -1.8550 0.9782
-1.8925 -4.8322 -1.8558 0.9782
-1.4572 -4.9923 -1.8598 0.9781
-1.0094 -5.1182 -1.8656 0.9781
-0.5512 -5.2090 -1.8732 0.9780
-0.0850 -5.2636 -1.8826 0.9779
0.3870 -5.2814 -1.8937 0.9778
1.3382 -5.2032 -1.9213 0.9774
2.2810 -4.9697 -1.9554 0.9770
2.7420 -4.7937 -1.9749 0.9768
3.6276 -4.3229 -2.0181 0.9763
4.0453 -4.0288 -2.0417 0.9760
4.4415 -3.6962 -2.0664 0.9758
4.7836 -2.7104 -1.9662 0.9769
5.3236 -1.8647 -2.0172 0.9763
5.5391 -1.4004 -2.0431 0.9760
5.8440 -0.4042 -2.0948 0.9754
5.9273 0.1199 -2.1201 0.9751
5.9611 0.6555 -2.1446 0.9748
5.7472 2.2781 -2.2108 0.9741
5.3351 3.3149 -2.2462 0.9737
5.0502 3.8014 -2.2604 0.9735
3.9037 4.2158 -2.0547 0.9759
3.6472 4.7219 -2.1336 0.9750
3.1735 4.9686 -2.1083 0.9753
2.7069 5.2106 -2.0998 0.9754
1.5886 3.8666 -1.4949 0.9824
-1.4281 5.9601 -2.1917 0.9743
-1.9342 5.7506 -2.1696 0.9746
-2.4130 5.4953 -2.1463 0.9748
-2.8604 5.1984 -2.1218 0.9751
-3.2732 4.8641 -2.0966 0.9754
-3.6486 4.4970 -2.0709 0.9757
-3.9845 4.1017 -2.0449 0.9760
-5.1080 3.0069 -2.1196 0.9751
-5.2908 2.5086 -2.0939 0.9754
-5.5157 1.4920 -2.0433 0.9760
-5.5616 0.9827 -2.0197 0.9763
-5.5264 -0.0203 -1.9763 0.9768
-5.4481 -0.5080 -1.9567 0.9770
-5.3316 -0.9826 -1.9387 0.9772
-5.1786 -1.4418 -1.9223 0.9774
-4.9908 -1.8833 -1.9076 0.9776
-4.2379 -3.0814 -1.8738 0.9780
-3.9300 -3.4328 -1.8660 0.9781
-2.8624 -4.3220 -1.8538 0.9782
-2.4650 -4.5590 -1.8534 0.9782
-1.6202 -4.9369 -1.8581 0.9782
-1.1767 -5.0756 -1.8632 0.9781
-0.7221 -5.1795 -1.8701 0.9780
-0.2586 -5.2476 -1.8789 0.9779
0.6859 -5.2733 -1.9016 0.9777
1.6368 -5.1467 -1.9313 0.9773
2.1079 -5.0248 -1.9486 0.9771
3.0267 -4.6626 -1.9879 0.9767
3.4680 -4.4221 -2.0097 0.9764
3.8927 -4.1423 -2.0328 0.9761
4.6782 -3.4677 -2.0825 0.9756
5.0154 -3.0652 -2.1020 0.9753
4.9680 -2.4571 -1.9820 0.9767
5.4638 -1.5754 -2.0335 0.9761
5.6539 -1.0958 -2.0595 0.9758
5.9021 -0.0760 -2.1108 0.9752
5.9545 0.4559 -2.1356 0.9749
5.7999 2.0796 -2.2034 0.9742
5.4276 3.1283 -2.2403 0.9737
4.0798 4.1235 -2.0744 0.9757
3.6114 4.3686 -2.0270 0.9762
2.8795 5.1212 -2.1010 0.9754
1.7067 3.7919 -1.4870 0.9825
1.9427 5.6050 -2.1214 0.9751
0.7623 3.0574 -1.1268 0.9867
0.4811 3.0774 -1.1139 0.9869
-1.7495 5.8338 -2.1780 0.9745
-2.2389 5.5950 -2.1551 0.9747
-2.6984 5.3130 -2.1310 0.9750
-3.8647 4.2513 -2.0546 0.9759
-2.3544 2.1659 -1.1440 0.9865
-5.3810 2.1903 -2.0776 0.9756
-5.5497 1.1712 -2.0283 0.9762
-5.5685 0.6641 -2.0054 0.9765
-5.3792 -0.8083 -1.9452 0.9772
-5.2395 -1.2735 -1.9282 0.9774
-4.8557 -2.1511 -1.8992 0.9777
-4.6154 -2.5593 -1.8873 0.9778
-4.0472 -3.3056 -1.8687 0.9780
-2.6145 -4.4748 -1.8533 0.9782
-2.2060 -4.6920 -1.8541 0.9782
-1.7813 -4.8768 -1.8567 0.9782
-1.3425 -5.0282 -1.8611 0.9781
-0.8918 -5.1451 -1.8674 0.9781
-0.4313 -5.2266 -1.8754 0.9780
0.0366 -5.2718 -1.8853 0.9779
0.5097 -5.2799 -1.8969 0.9777
1.4610 -5.1818 -1.9253 0.9774
1.9339 -5.0746 -1.9420 0.9772
4.5400 -3.6041 -2.0729 0.9757
2.2904 -0.9768 -0.8904 0.9895
5.3831 -1.7471 -2.0239 0.9762
5.5882 -1.2763 -2.0499 0.9759
5.8701 -0.2700 -2.1014 0.9753
5.9409 0.2575 -2.1265 0.9751
5.9301 1.3379 -2.1739 0.9745
5.8451 1.8800 -2.1957 0.9743
5.7061 2.4156 -2.2159 0.9740
5.5129 2.9387 -2.2341 0.9738
5.2664 3.4432 -2.2501 0.9736
4.9683 3.9226 -2.2637 0.9735
2.5865 5.2729 -2.1003 0.9754
2.1183 5.5146 -2.1125 0.9752
1.6405 5.7602 -2.1418 0.9749
-0.4955 6.2054 -2.2262 0.9739
-2.9706 5.1153 -2.1154 0.9752
-2.2970 2.2579 -1.1518 0.9864
-5.4533 1.8702 -2.0616 0.9758
-5.5665 0.8516 -2.0138 0.9764
-5.5099 -0.1475 -1.9711 0.9769
-4.7080 -2.4105 -1.8915 0.9778
-4.4487 -2.8046 -1.8806 0.9779
-3.8462 -3.5194 -1.8643 0.9781
-3.1446 -4.1265 -1.8553 0.9782
-1.5067 -4.9761 -1.8593 0.9782
1.7591 -5.1189 -1.9356 0.9773
3.5795 -4.3535 -2.0155 0.9763
3.9994 -4.0637 -2.0390 0.9761
4.3983 -3.7354 -2.0635 0.9758
4.7495 -2.7542 -1.9634 0.9769
5.5169 -1.4537 -2.0402 0.9761
5.9599 0.5950 -2.1419 0.9749
5.8829 1.6794 -2.1878 0.9743
5.3639 3.2587 -2.2444 0.9737
4.6990 4.1591 -2.2441 0.9737
3.6820 4.6694 -2.1265 0.9751
3.2262 4.9412 -2.1103 0.9752
1.5956 3.7756 -1.4658 0.9827
0.6758 3.0042 -1.1012 0.9870
0.8204 6.1797 -2.2293 0.9739
0.2684 6.2831 -2.2489 0.9736
-0.2908 6.2367 -2.2327 0.9738
-0.8253 6.0365 -2.1788 0.9745
-4.2483 3.7308 -2.0219 0.9763
-4.5058 3.2945 -1.9961 0.9766
-5.2728 2.5651 -2.0969 0.9754
-5.5586 1.0397 -2.0223 0.9763
-5.5665 0.5339 -1.9997 0.9765
-5.4588 -0.4539 -1.9589 0.9770
-5.0135 -1.8347 -1.9092 0.9776
-4.7965 -2.2587 -1.8959 0.9777
-4.5483 -2.6612 -1.8844 0.9779
-4.2707 -3.0404 -1.8747 0.9780
-3.9658 -3.3947 -1.8668 0.9781
-3.6353 -3.7226 -1.8607 0.9781
-3.2814 -4.0226 -1.8564 0.9782
-2.9058 -4.2935 -1.8540 0.9782
-2.5105 -4.5340 -1.8534 0.9782
-2.0976 -4.7430 -1.8546 0.9782
-1.6691 -4.9192 -1.8577 0.9782
-0.3109 -5.2418 -1.8778 0.9779
-0.0024 5.7943 -2.2205 0.9755
-0.5154 5.7299 -2.2047 0.9757
-1.4993 5.4539 -2.1676 0.9761
-2.8019 4.7155 -2.1020 0.9768
-2.3039 2.2197 -1.2260 0.9864
-4.0792 3.2819 -2.0063 0.9778
-4.8350 2.6347 -2.1101 0.9767
-4.9940 2.1685 -2.0864 0.9769
-5.1085 1.6950 -2.0626 0.9772
-5.1812 1.2190 -2.0398 0.9775
-5.2050 0.2735 -1.9974 0.9779
-5.0746 -0.6432 -1.9602 0.9783
-4.9551 -1.0839 -1.9438 0.9785
-4.8016 -1.5098 -1.9289 0.9787
-4.3992 -2.3083 -1.9038 0.9789
-3.8812 -3.0234 -1.8853 0.9791
-3.5834 -3.3455 -1.8787 0.9792
-2.9194 -3.9117 -1.8705 0.9793
-1.7807 -4.5468 -1.8713 0.9793
-1.3709 -4.6968 -1.8750 0.9793
0.3637 -4.9634 -1.9072 0.9789
1.2565 -4.8857 -1.9332 0.9786
2.9901 -4.2885 -2.0035 0.9779
3.3957 -4.0467 -2.0244 0.9776
3.7839 -3.7685 -2.0465 0.9774
4.1513 -3.4547 -2.0697 0.9771
4.4900 -3.1034 -2.0917 0.9769
4.4637 -2.5291 -1.9661 0.9783
5.1551 -1.3033 -2.0377 0.9775
5.4294 -0.3755 -2.0856 0.9770
5.5021 0.1113 -2.1089 0.9767
5.5080 1.1097 -2.1532 0.9762
5.3186 2.1082 -2.1925 0.9758
5.1495 2.5942 -2.2096 0.9756
4.9314 3.0640 -2.2249 0.9754
4.3032 3.8862 -2.2220 0.9755
3.5661 4.6169 -2.2356 0.9753
2.7034 5.2039 -2.2473 0.9752
2.2371 5.4449 -2.2558 0.9751
1.7438 5.6263 -2.2573 0.9751
0.1898 5.8052 -2.2258 0.9754
-0.8322 5.6636 -2.1937 0.9758
-1.3224 5.5192 -2.1749 0.9760
-2.2379 5.0966 -2.1331 0.9764
-3.0408 4.5188 -2.0872 0.9769
-3.3925 4.1814 -2.0634 0.9772
-2.5380 2.1842 -1.2832 0.9858
-4.7598 2.8019 -2.1166 0.9766
-5.2126 0.4473 -2.0049 0.9778
-5.1099 -0.4764 -1.9667 0.9783
-5.0035 -0.9221 -1.9497 0.9784
-4.6883 -1.7691 -1.9203 0.9788
-4.2479 -2.5429 -1.8973 0.9790
-3.6966 -3.2290 -1.8809 0.9792
-3.3839 -3.5352 -1.8753 0.9793
-2.3196 -4.2901 -1.8690 0.9793
-1.9292 -4.4831 -1.8703 0.9793
-1.5243 -4.6449 -1.8734 0.9793
-0.6792 -4.8713 -1.8848 0.9792
-0.2432 -4.9340 -1.8931 0.9791
0.1988 -4.9620 -1.9031 0.9790
2.4117 -4.5600 -1.9768 0.9781
2.8360 -4.3688 -1.9960 0.9779
3.2472 -4.1406 -2.0165 0.9777
4.0178 -3.5751 -2.0610 0.9772
4.6333 -2.2915 -1.9809 0.9781
4.8771 -1.8917 -2.0047 0.9778
5.0867 -1.4667 -2.0288 0.9776
5.2590 -1.0193 -2.0529 0.9773
5.3912 -0.5527 -2.0768 0.9771
5.4804 -0.0705 -2.1004 0.9768
5.5245 0.4230 -2.1233 0.9765
5.5214 0.9234 -2.1453 0.9763
5.4698 1.4258 -2.1662 0.9761
5.3687 1.9250 -2.1856 0.9759
5.2179 2.4156 -2.2035 0.9757
5.0179 2.8921 -2.2195 0.9755
4.4751 3.7803 -2.2449 0.9752
3.6067 4.3629 -2.1693 0.9760
3.3436 4.8716 -2.2643 0.9750
-0.6462 5.7050 -2.2003 0.9757
-1.6209 5.4047 -2.1623 0.9761
-2.5039 4.9301 -2.1190 0.9766
-2.9017 4.6362 -2.0960 0.9768
-3.2662 4.3098 -2.0723 0.9771
-3.5954 3.9551 -2.0483 0.9774
-2.3528 2.1644 -1.2251 0.9864
-4.1410 3.1770 -2.0001 0.9779
-4.8818 2.5158 -2.1046 0.9767
-5.0276 2.0465 -2.0802 0.9770
-5.1313 1.5720 -2.0566 0.9773
-5.2147 0.6219 -2.0125 0.9778
-5.1966 0.1529 -1.9923 0.9780
-5.1402 -0.3081 -1.9734 0.9782
-5.0470 -0.7584 -1.9558 0.9784
-4.7566 -1.6172 -1.9253 0.9787
-4.3384 -2.4057 -1.9010 0.9790
-4.0858 -2.7689 -1.8914 0.9791
-3.1755 -3.7144 -1.8727 0.9793
-2.4603 -4.2108 -1.8689 0.9793
-2.0758 -4.4151 -1.8696 0.9793
-1.6760 -4.5886 -1.8721 0.9793
-0.4056 -4.9148 -1.8898 0.9791
0.0344 -4.9557 -1.8992 0.9790
0.4789 -4.9615 -1.9102 0.9789
0.9255 -4.9314 -1.9228 0.9787
1.3717 -4.8650 -1.9370 0.9786
2.2517 -4.6215 -1.9701 0.9782
3.8811 -3.6907 -2.0524 0.9773
4.2425 -3.3679 -2.0758 0.9771
4.5697 -3.0050 -2.0959 0.9768
2.2894 -0.9764 -0.9538 0.9894
5.0132 -1.6271 -2.0198 0.9777
5.1997 -1.1876 -2.0439 0.9774
5.3470 -0.7277 -2.0680 0.9771
5.4525 -0.2508 -2.0917 0.9769
5.4120 1.7407 -2.1786 0.9759
5.2796 2.2351 -2.1971 0.9757
4.5896 3.6236 -2.2409 0.9753
4.2168 3.9887 -2.2244 0.9754
3.7777 4.2735 -2.1858 0.9759
3.4602 4.7001 -2.2366 0.9753
3.0486 5.0250 -2.2523 0.9751
2.5832 5.2662 -2.2478 0.9752
2.1156 5.5075 -2.2609 0.9750
0.5543 2.9106 -1.1355 0.9874
-0.4584 5.7396 -2.2065 0.9756
-0.9606 5.6308 -2.1890 0.9758
-1.4461 5.4743 -2.1698 0.9760
-2.3486 5.0300 -2.1273 0.9765
-2.7579 4.7491 -2.1046 0.9767
-3.1351 4.4343 -2.0811 0.9770
-3.4776 4.0896 -2.0572 0.9773
-2.2998 2.2606 -1.2358 0.9863
-4.0515 3.3271 -2.0090 0.9778
-4.8129 2.6855 -2.1121 0.9767
-4.9785 2.2213 -2.0891 0.9769
-5.0977 1.7483 -2.0652 0.9772
-5.2115 0.7973 -2.0204 0.9777
-5.0858 -0.5929 -1.9622 0.9783
-4.9702 -1.0352 -1.9456 0.9785
-3.6180 -3.3106 -1.8793 0.9792
-2.5985 -4.1275 -1.8691 0.9793
-2.2202 -4.3429 -1.8691 0.9793
-1.4175 -4.6816 -1.8745 0.9793
-0.5671 -4.8908 -1.8868 0.9791
0.3138 -4.9635 -1.9059 0.9789
0.7599 -4.9468 -1.9179 0.9788
1.2065 -4.8939 -1.9316 0.9786
2.0906 -4.6778 -1.9635 0.9783
2.5225 -4.5141 -1.9817 0.9781
2.9437 -4.3133 -2.0012 0.9779
3.3511 -4.0756 -2.0220 0.9777
4.1113 -3.4916 -2.0670 0.9772
4.4323 -2.5702 -1.9635 0.9783
4.6994 -2.1907 -1.9870 0.9780
4.9347 -1.7842 -2.0109 0.9778
5.4184 -0.4293 -2.0830 0.9770
5.4962 0.0562 -2.1064 0.9767
5.5283 0.5519 -2.1291 0.9765
5.5128 1.0533 -2.1508 0.9762
5.4484 1.5554 -2.1713 0.9760
5.3345 2.0529 -2.1904 0.9758
4.6978 3.4630 -2.2366 0.9753
4.3398 3.8411 -2.2209 0.9755
2.7556 5.1770 -2.2474 0.9752
1.5860 3.7528 -1.5613 0.9827
0.6761 3.0056 -1.1806 0.9869
-0.2689 5.7674 -2.2126 0.9756
-0.7761 5.6769 -2.1957 0.9758
-1.2684 5.5377 -2.1771 0.9760
-1.7409 5.3526 -2.1570 0.9762
-2.1893 5.1246 -2.1356 0.9764
-2.6098 4.8574 -2.1131 0.9767
-2.9992 4.5547 -2.0899 0.9769
-2.4406 2.1433 -1.2447 0.9862
-4.7360 2.8521 -2.1186 0.9766
-4.9236 2.3952 -2.0982 0.9768
-5.0585 1.9241 -2.0740 0.9771
-5.1856 0.0328 -1.9873 0.9780
-4.8799 -1.3061 -1.9359 0.9786
-4.7094 -1.7234 -1.9218 0.9787
-3.7302 -3.1931 -1.8817 0.9792
-3.0875 -3.7849 -1.8718 0.9793
-2.7343 -4.0401 -1.8695 0.9793
-1.9738 -4.4630 -1.8701 0.9793
-1.5704 -4.6284 -1.8730 0.9793
-0.7276 -4.8622 -1.8840 0.9792
-0.4788 5.3237 -2.1877 0.9772
-0.9445 5.2205 -2.1713 0.9773
-1.8250 4.8848 -2.1342 0.9777
-2.2319 4.6578 -2.1139 0.9779
-2.6119 4.3957 -2.0927 0.9781
-3.2805 3.7805 -2.0486 0.9786
-4.0275 2.6863 -1.9813 0.9793
-4.6804 2.0323 -2.0883 0.9782
-1.9455 0.2777 -0.8043 0.9915
-1.9523 -0.2474 -0.8054 0.9915
-4.6640 -1.0202 -1.9540 0.9796
-4.5215 -1.4217 -1.9399 0.9797
-4.3482 -1.8074 -1.9272 0.9799
-4.1457 -2.1753 -1.9161 0.9800
-3.9156 -2.5236 -1.9065 0.9801
-3.6596 -2.8507 -1.8986 0.9802
-2.7540 -3.6900 -1.8845 0.9803
-2.4121 -3.9179 -1.8830 0.9803
-1.6798 -4.2890 -1.8852 0.9803
-0.4887 -4.6186 -1.9008 0.9801
-0.0753 -4.6644 -1.9093 0.9800
1.1830 -4.6001 -1.9440 0.9797
2.0124 -4.3845 -1.9745 0.9794
2.4164 -4.2243 -1.9918 0.9792
3.5506 -3.5361 -2.0509 0.9786
3.8926 -3.2394 -2.0726 0.9784
4.1794 -2.3680 -1.9660 0.9795
4.4229 -2.0082 -1.9880 0.9792
4.8155 -1.2175 -2.0329 0.9788
4.9590 -0.7918 -2.0553 0.9785
5.0639 -0.3502 -2.0775 0.9783
5.1279 0.1038 -2.0991 0.9781
5.1491 0.5662 -2.1201 0.9779
5.0577 1.4988 -2.1590 0.9775
4.5788 2.8449 -2.2063 0.9770
3.3468 4.3329 -2.2408 0.9766
2.9506 4.6195 -2.2434 0.9766
2.0809 5.0648 -2.2410 0.9766
0.6782 3.1626 -1.3238 0.9861
0.6597 5.3816 -2.2190 0.9768
0.1762 5.3900 -2.2072 0.9770
-0.3032 5.3503 -2.1933 0.9771
-1.6680 4.9593 -2.1415 0.9776
-2.0840 4.7462 -2.1215 0.9778
-2.4743 4.4967 -2.1006 0.9781
-2.2187 2.2840 -1.3032 0.9863
-2.4311 2.0922 -1.3127 0.9862
-4.6293 2.1949 -2.0968 0.9781
-1.9576 0.1680 -0.8042 0.9915
-1.9017 -0.0070 -0.7783 0.9918
-4.5780 -1.2746 -1.9449 0.9797
-4.4159 -1.6664 -1.9317 0.9798
-4.0040 -2.3968 -1.9099 0.9800
-3.4860 -3.0450 -1.8944 0.9802
-2.8760 -3.5986 -1.8854 0.9803
-2.5409 -3.8366 -1.8834 0.9803
-2.1883 -4.0471 -1.8830 0.9803
-1.8199 -4.2290 -1.8843 0.9803
0.1874 -4.6762 -1.9154 0.9800
0.6071 -4.6675 -1.9264 0.9799
1.0275 -4.6247 -1.9389 0.9797
1.4462 -4.5473 -1.9529 0.9796
1.8605 -4.4350 -1.9684 0.9794
2.2677 -4.2878 -1.9852 0.9793
4.2391 -2.5908 -2.0333 0.9788
4.3360 -2.1445 -1.9798 0.9793
4.5607 -1.7690 -2.0021 0.9791
4.9102 -0.9517 -2.0470 0.9786
5.1090 -0.0657 -2.0912 0.9782
5.1398 0.8596 -2.1328 0.9777
5.0883 1.3264 -2.1521 0.9775
4.8482 2.2445 -2.1866 0.9772
4.4274 3.1085 -2.2141 0.9769
3.4859 4.2168 -2.2392 0.9766
3.1009 4.5179 -2.2427 0.9766
2.6869 4.7786 -2.2437 0.9766
1.7040 3.7859 -1.6992 0.9822
1.7909 5.1671 -2.2382 0.9766
0.3553 5.3925 -2.2118 0.9769
-0.1262 5.3706 -2.1986 0.9770
-0.6005 5.3014 -2.1836 0.9772
-1.0626 5.1866 -2.1668 0.9774
-2.3328 4.5932 -2.1085 0.9780
-2.3170 2.1315 -1.2885 0.9865
-4.7128 1.9183 -2.0825 0.9782
-4.8133 1.4746 -2.0603 0.9785
-4.8749 1.0288 -2.0391 0.9787
-1.9545 0.2331 -0.8056 0.9915
-1.9258 0.0567 -0.7885 0.9917
-1.9611 -0.2947 -0.8116 0.9915
-4.4796 -1.5230 -1.9364 0.9798
-4.0888 -2.2673 -1.9135 0.9800
-3.8518 -2.6103 -1.9043 0.9801
-3.5894 -2.9317 -1.8968 0.9802
