ply
format ascii 1.0
element vertex 1597
property float32 x
property float32 y
property float32 z
property float32 I
end_header
3.9702 -3.2723 -1.9717 0.9782
4.2519 -2.9084 -1.9741 0.9782
4.7147 -2.1118 -1.9797 0.9781
4.8921 -1.6850 -1.9828 0.9781
5.1902 -0.3300 -1.9930 0.9780
5.1201 1.0630 -2.0039 0.9778
5.0139 1.5187 -2.0076 0.9778
4.6807 2.3949 -2.0149 0.9777
4.4559 2.8081 -2.0184 0.9777
4.1945 3.2001 -2.0218 0.9777
3.8982 3.5675 -2.0250 0.9776
3.5695 3.9073 -2.0281 0.9776
2.8254 4.4920 -2.0336 0.9775
1.0784 5.2170 -2.0415 0.9774
0.1335 5.3311 -2.0436 0.9774
-0.3432 5.3232 -2.0442 0.9774
-0.8172 5.2719 -2.0444 0.9774
-2.1835 4.8635 -2.0430 0.9774
-2.6076 4.6465 -2.0418 0.9774
-3.0099 4.3919 -2.0404 0.9775
-4.3381 3.0474 -2.0316 0.9775
-4.5865 2.6442 -2.0288 0.9776
-4.7971 2.2208 -2.0258 0.9776
-5.0990 1.3279 -2.0192 0.9777
-5.1882 0.8658 -2.0157 0.9777
-5.2407 -0.0705 -2.0085 0.9778
-5.2039 -0.5371 -2.0048 0.9778
-5.1257 -0.9978 -2.0011 0.9779
-4.8488 -1.8866 -1.9939 0.9780
-4.4205 -2.7094 -1.9869 0.9780
-3.8556 -3.4413 -1.9805 0.9781
-3.5277 -3.7661 -1.9775 0.9781
-2.7941 -4.3219 -1.9722 0.9782
-0.6484 -5.0826 -1.9635 0.9783
-0.1919 -5.1179 -1.9627 0.9783
0.2657 -5.1132 -1.9621 0.9783
0.7211 -5.0684 -1.9619 0.9783
2.0397 -4.6989 -1.9630 0.9783
2.4524 -4.5003 -1.9641 0.9783
3.2185 -3.9984 -1.9670 0.9783
4.1766 -3.0123 -1.9734 0.9782
4.4348 -2.6309 -1.9761 0.9782
4.9964 -1.3678 -1.9852 0.9781
5.1072 -0.9178 -1.9885 0.9780
5.1778 -0.4590 -1.9920 0.9780
5.2075 0.0052 -1.9956 0.9779
5.1423 0.9347 -2.0029 0.9779
5.0476 1.3926 -2.0066 0.9778
4.9121 1.8411 -2.0103 0.9778
4.7366 2.2764 -2.0139 0.9777
4.5223 2.6950 -2.0174 0.9777
4.2709 3.0932 -2.0209 0.9777
1.6648 5.0550 -2.0395 0.9775
1.2077 5.1875 -2.0411 0.9774
0.2661 5.3256 -2.0434 0.9774
-0.2105 5.3298 -2.0441 0.9774
-0.6856 5.2905 -2.0444 0.9774
-1.1552 5.2081 -2.0443 0.9774
-2.0620 4.9169 -2.0432 0.9774
-2.4915 4.7108 -2.0422 0.9774
-3.2847 4.1863 -2.0391 0.9775
-4.2624 3.1556 -2.0324 0.9775
-4.5210 2.7587 -2.0296 0.9776
-4.7423 2.3406 -2.0266 0.9776
-4.9247 1.9049 -2.0235 0.9776
-5.2183 -0.4076 -2.0058 0.9778
-5.1516 -0.8703 -2.0022 0.9779
-4.8967 -1.7662 -1.9949 0.9779
-4.7111 -2.1924 -1.9913 0.9780
-4.2315 -2.9851 -1.9845 0.9781
-3.6218 -3.6786 -1.9783 0.9781
-2.9019 -4.2525 -1.9729 0.9782
-2.5076 -4.4892 -1.9706 0.9782
-2.0945 -4.6902 -1.9685 0.9782
-0.7749 -5.0656 -1.9638 0.9783
-0.3193 -5.1121 -1.9629 0.9783
0.1383 -5.1185 -1.9622 0.9783
0.5947 -5.0849 -1.9619 0.9783
2.3392 -4.5593 -1.9637 0.9783
2.7386 -4.3349 -1.9650 0.9783
3.4718 -3.7852 -1.9683 0.9782
3.7999 -3.4637 -1.9704 0.9782
4.5999 -2.3420 -1.9781 0.9781
5.2031 0.3413 -1.9982 0.9779
4.9539 1.7174 -2.0093 0.9778
4.3446 2.9845 -2.0199 0.9777
3.7565 3.7216 -2.0264 0.9776
2.6467 4.6028 -2.0347 0.9775
1.7897 5.0107 -2.0390 0.9775
1.3363 5.1548 -2.0407 0.9774
-0.5536 5.3058 -2.0443 0.9774
-1.0252 5.2353 -2.0444 0.9774
-2.3737 4.7721 -2.0425 0.9774
-3.1802 4.2678 -2.0396 0.9775
-3.8807 3.6269 -2.0355 0.9775
-4.1840 3.2620 -2.0331 0.9775
-4.6845 2.4590 -2.0275 0.9776
-4.8779 2.0278 -2.0244 0.9776
-5.2144 0.6593 -2.0142 0.9777
4.5812 1.7707 -2.0101 0.9790
4.4122 2.1763 -2.0135 0.9790
4.2071 2.5658 -2.0168 0.9789
3.9675 2.9358 -2.0200 0.9789
3.6951 3.2833 -2.0231 0.9789
3.3921 3.6052 -2.0260 0.9788
3.0608 3.8989 -2.0287 0.9788
1.5087 4.7436 -2.0373 0.9787
0.6418 4.9428 -2.0399 0.9787
-0.2477 4.9817 -2.0414 0.9787
-1.1299 4.8586 -2.0416 0.9787
-1.5589 4.7374 -2.0412 0.9787
-1.9750 4.5778 -2.0405 0.9787
-2.3746 4.3809 -2.0395 0.9787
-3.1115 3.8832 -2.0365 0.9787
-3.4426 3.5865 -2.0347 0.9787
-3.7451 3.2614 -2.0325 0.9788
-4.4584 2.1441 -2.0247 0.9788
-4.6252 1.7349 -2.0218 0.9789
-1.8991 0.0024 -0.7772 0.9918
-1.9578 -0.1731 -0.8044 0.9915
-4.5681 -1.7005 -1.9949 0.9792
-3.9349 -2.8365 -1.9853 0.9793
-1.5148 -4.5654 -1.9687 0.9794
-0.2504 -4.7952 -1.9652 0.9795
0.1787 -4.7971 -1.9647 0.9795
0.6062 -4.7613 -1.9644 0.9795
1.0289 -4.6882 -1.9644 0.9795
1.4436 -4.5783 -1.9647 0.9795
1.8472 -4.4326 -1.9654 0.9795
2.2366 -4.2519 -1.9663 0.9794
3.2908 -3.5149 -1.9706 0.9794
3.5950 -3.2103 -1.9726 0.9794
3.8717 -2.8797 -1.9748 0.9794
4.5144 -1.7578 -1.9827 0.9793
4.6603 -1.3497 -1.9857 0.9792
4.8416 -0.5009 -1.9921 0.9792
4.8751 -0.0668 -1.9955 0.9791
4.8699 0.3694 -1.9989 0.9791
4.8258 0.8041 -2.0023 0.9791
4.6217 1.6553 -2.0092 0.9790
4.4629 2.0648 -2.0126 0.9790
4.0377 2.8348 -2.0191 0.9789
3.4795 3.5183 -2.0252 0.9788
3.1558 3.8201 -2.0280 0.9788
2.4319 4.3309 -2.0329 0.9788
1.6260 4.7035 -2.0368 0.9787
0.7646 4.9246 -2.0396 0.9787
0.3220 4.9755 -2.0406 0.9787
-0.5684 4.9559 -2.0416 0.9787
-1.4406 4.7751 -2.0413 0.9787
-1.8606 4.6260 -2.0407 0.9787
-2.2652 4.4394 -2.0398 0.9787
-2.6509 4.2169 -2.0386 0.9787
-3.0145 3.9604 -2.0370 0.9787
-3.3531 3.6722 -2.0352 0.9787
-3.6639 3.3547 -2.0331 0.9788
-3.9443 3.0107 -2.0308 0.9788
-4.1921 2.6432 -2.0283 0.9788
-4.4053 2.2553 -2.0255 0.9788
-4.5825 1.8503 -2.0226 0.9789
-4.8235 1.0027 -2.0163 0.9789
-1.9553 0.2269 -0.8056 0.9915
-1.9486 -0.1234 -0.7991 0.9916
-1.9887 -0.3060 -0.8235 0.9913
-4.6112 -1.5870 -1.9959 0.9791
-4.4436 -1.9890 -1.9925 0.9792
-4.2413 -2.3739 -1.9893 0.9792
-4.0060 -2.7388 -1.9861 0.9792
-3.7398 -3.0809 -1.9831 0.9793
-3.4449 -3.3976 -1.9803 0.9793
-3.1235 -3.6866 -1.9776 0.9793
-2.7784 -3.9459 -1.9751 0.9794
-2.0280 -4.3677 -1.9709 0.9794
-1.6284 -4.5273 -1.9691 0.9794
-0.7962 -4.7382 -1.9664 0.9794
0.0592 -4.8003 -1.9648 0.9795
0.9118 -4.7123 -1.9644 0.9795
2.8652 -3.8631 -1.9685 0.9794
3.2014 -3.5949 -1.9701 0.9794
3.7975 -2.9743 -1.9742 0.9794
4.2767 -2.2571 -1.9792 0.9793
4.7430 -1.0477 -1.9880 0.9792
4.8254 -0.6211 -1.9912 0.9792
4.8753 0.2479 -1.9979 0.9791
4.7698 1.1149 -2.0048 0.9791
4.5109 1.9521 -2.0117 0.9790
4.3258 2.3510 -2.0150 0.9789
4.1052 2.7322 -2.0183 0.9789
3.5646 3.4292 -2.0244 0.9788
3.2487 3.7389 -2.0272 0.9788
2.9056 4.0193 -2.0298 0.9788
1.7422 4.6605 -2.0363 0.9787
1.3202 4.8013 -2.0380 0.9787
0.8868 4.9032 -2.0393 0.9787
0.4457 4.9654 -2.0404 0.9787
0.0006 4.9872 -2.0411 0.9787
-0.4448 4.9684 -2.0416 0.9787
-0.8867 4.9091 -2.0417 0.9787
-1.7450 4.6714 -2.0409 0.9787
-2.1542 4.4951 -2.0401 0.9787
-3.5802 3.4459 -2.0337 0.9788
-4.1264 2.7478 -2.0290 0.9788
-4.3495 2.3653 -2.0263 0.9788
-1.9516 -0.2507 -0.8053 0.9915
-4.6515 -1.4724 -1.9968 0.9791
-4.4938 -1.8786 -1.9935 0.9792
-4.3010 -2.2686 -1.9902 0.9792
-3.8170 -2.9880 -1.9839 0.9793
-3.5298 -3.3121 -1.9810 0.9793
-3.2156 -3.6090 -1.9783 0.9793
-2.8768 -3.8768 -1.9758 0.9794
-2.5162 -4.1133 -1.9735 0.9794
-1.7411 -4.4864 -1.9696 0.9794
-0.9141 -4.7176 -1.9667 0.9794
-0.4889 -4.7779 -1.9657 0.9795
-0.0604 -4.8007 -1.9650 0.9795
0.3684 -4.7858 -1.9645 0.9795
1.2137 -4.6441 -1.9645 0.9795
1.6239 -4.5182 -1.9650 0.9795
2.4038 -4.1611 -1.9668 0.9794
2.7675 -3.9324 -1.9681 0.9794
3.4288 -3.3834 -1.9715 0.9794
3.9847 -2.7257 -1.9759 0.9794
4.4177 -1.9788 -1.9812 0.9793
4.7134 -1.1650 -1.9871 0.9792
4.8062 -0.7407 -1.9903 0.9792
4.8612 -0.3091 -1.9936 0.9792
4.8552 0.5623 -2.0004 0.9791
3.6474 3.3380 -2.0236 0.9789
3.3395 3.6555 -2.0264 0.9788
3.0038 3.9443 -2.0291 0.9788
1.8572 4.6145 -2.0358 0.9787
1.0085 4.8788 -2.0390 0.9787
0.5692 4.9521 -2.0401 0.9787
-0.3209 4.9777 -2.0415 0.9787
-0.7641 4.9296 -2.0417 0.9787
-2.4385 4.3452 -2.0393 0.9787
-2.8148 4.1074 -2.0379 0.9787
-3.4943 3.5350 -2.0343 0.9787
-3.7919 3.2055 -2.0321 0.9788
-4.6490 1.6664 -2.0213 0.9789
-4.7718 1.2427 -2.0181 0.9789
-2.0937 0.3494 -0.8688 0.9909
-1.9543 0.1487 -0.8022 0.9916
-1.9115 -0.0257 -0.7824 0.9918
-1.9575 -0.2020 -0.8054 0.9915
-4.6889 -1.3567 -1.9978 0.9791
-4.5413 -1.7670 -1.9944 0.9792
-4.3582 -2.1618 -1.9911 0.9792
-4.1411 -2.5382 -1.9879 0.9792
-3.6126 -3.2244 -1.9818 0.9793
-3.3057 -3.5292 -1.9791 0.9793
-2.2442 -4.2637 -1.9720 0.9794
-1.4475 -4.5866 -1.9684 0.9794
-0.1799 -4.7981 -1.9651 0.9795
0.2491 -4.7938 -1.9646 0.9795
0.6761 -4.7518 -1.9644 0.9795
1.0977 -4.6727 -1.9645 0.9795
1.5108 -4.5568 -1.9648 0.9795
1.9122 -4.4052 -1.9655 0.9795
2.2990 -4.2189 -1.9664 0.9794
3.0169 -3.7480 -1.9692 0.9794
3.3425 -3.4668 -1.9710 0.9794
3.6425 -3.1577 -1.9730 0.9794
3.9143 -2.8231 -1.9752 0.9794
4.1559 -2.4654 -1.9777 0.9793
4.3654 -2.0873 -1.9804 0.9793
4.5408 -1.6917 -1.9832 0.9793
4.6808 -1.2814 -1.9862 0.9792
4.8497 -0.4299 -1.9927 0.9792
4.8770 0.0049 -1.9960 0.9791
4.8148 0.8752 -2.0029 0.9791
4.7256 1.3038 -2.0063 0.9790
4.4334 2.1307 -2.0131 0.9790
3.7279 3.2448 -2.0227 0.9789
1.9711 4.5656 -2.0353 0.9787
1.5569 4.7275 -2.0371 0.9787
-0.6411 4.9471 -2.0416 0.9787
-1.0802 4.8700 -2.0416 0.9787
-1.5105 4.7533 -2.0413 0.9787
-1.9282 4.5979 -2.0406 0.9787
-2.3299 4.4053 -2.0396 0.9787
-3.4062 3.6219 -2.0349 0.9787
-3.9873 2.9519 -2.0304 0.9788
-4.4370 2.1899 -2.0251 0.9788
-1.9576 0.1981 -0.8053 0.9915
-1.9095 0.0219 -0.7816 0.9918
-4.4127 -2.0535 -1.9920 0.9792
-3.9644 -2.7966 -1.9856 0.9792
-3.6933 -3.1347 -1.9826 0.9793
-3.3938 -3.4470 -1.9798 0.9793
-3.0684 -3.7313 -1.9772 0.9793
-2.7197 -3.9855 -1.9747 0.9794
-1.5616 -4.5501 -1.9689 0.9794
-1.1482 -4.6679 -1.9674 0.9794
-0.7264 -4.7489 -1.9662 0.9795
-0.2994 -4.7926 -1.9653 0.9795
2.5673 -4.0638 -1.9673 0.9794
3.2543 -3.5480 -1.9704 0.9794
4.0918 -2.5672 -1.9770 0.9793
4.3104 -2.1946 -1.9796 0.9793
4.4954 -1.8035 -1.9824 0.9793
4.6455 -1.3970 -1.9854 0.9793
4.8725 0.3196 -1.9985 0.9791
4.8328 0.7546 -2.0019 0.9791
4.2919 2.4149 -2.0155 0.9789
4.0657 2.7929 -2.0188 0.9789
3.1941 3.7871 -2.0276 0.9788
2.8469 4.0623 -2.0302 0.9788
-0.5177 4.9614 -2.0416 0.9787
-0.9586 4.8955 -2.0416 0.9787
-2.2198 4.4626 -2.0399 0.9787
-3.6298 3.3924 -2.0334 0.9788
-3.9138 3.0513 -2.0311 0.9788
-4.3828 2.3006 -2.0259 0.9788
-4.5641 1.8974 -2.0230 0.9789
-4.7081 1.4800 -2.0199 0.9789
-1.9523 0.2468 -0.8054 0.9915
3.9492 2.4084 -2.0159 0.9800
2.1804 4.1201 -2.0316 0.9799
1.4153 4.4500 -2.0351 0.9798
0.6020 4.6365 -2.0376 0.9798
-0.2324 4.6727 -2.0390 0.9798
-0.6487 4.6339 -2.0392 0.9798
-1.0598 4.5573 -2.0391 0.9798
-1.4622 4.4437 -2.0388 0.9798
-1.8525 4.2940 -2.0381 0.9798
-2.9190 3.6429 -2.0344 0.9798
-3.5138 3.0600 -2.0307 0.9799
-3.9928 2.3807 -2.0260 0.9799
-4.1840 2.0121 -2.0234 0.9799
-1.4994 0.2729 -0.6642 0.9934
-1.5224 0.0019 -0.6635 0.9934
-1.5006 -0.2693 -0.6644 0.9934
-1.5597 -0.4266 -0.7047 0.9930
-4.1246 -1.9710 -1.9923 0.9803
-3.9261 -2.3278 -1.9892 0.9803
-3.6972 -2.6651 -1.9863 0.9803
-3.1556 -3.2713 -1.9809 0.9804
-2.1684 -3.9769 -1.9741 0.9804
-0.6373 -4.4711 -1.9683 0.9805
-0.2354 -4.5083 -1.9675 0.9805
0.5700 -4.4765 -1.9667 0.9805
0.9674 -4.4078 -1.9667 0.9805
1.3573 -4.3044 -1.9670 0.9805
1.7366 -4.1673 -1.9676 0.9805
2.4526 -3.7958 -1.9695 0.9805
2.7837 -3.5641 -1.9709 0.9805
3.0933 -3.3041 -1.9725 0.9804
3.3791 -3.0175 -1.9744 0.9804
3.6389 -2.7066 -1.9765 0.9804
4.2420 -1.6517 -1.9839 0.9803
4.4811 -0.8734 -1.9897 0.9803
4.5481 -0.4706 -1.9927 0.9802
4.5738 0.3470 -1.9991 0.9802
4.5319 0.7552 -2.0023 0.9802
4.4536 1.1586 -2.0055 0.9801
4.3393 1.5541 -2.0088 0.9801
4.1898 1.9384 -2.0120 0.9801
4.0062 2.3084 -2.0151 0.9800
3.7898 2.6608 -2.0181 0.9800
3.5422 2.9929 -2.0210 0.9800
2.9612 3.5847 -2.0264 0.9799
2.2817 4.0634 -2.0310 0.9799
1.1261 4.5343 -2.0361 0.9798
0.7172 4.6194 -2.0373 0.9798
0.3020 4.6671 -2.0382 0.9798
-0.1159 4.6768 -2.0389 0.9798
-0.5331 4.6485 -2.0392 0.9798
-1.3512 4.4790 -2.0389 0.9798
-2.4867 3.9557 -2.0363 0.9798
-2.8279 3.7153 -2.0349 0.9798
-3.4375 3.1474 -2.0312 0.9799
-3.7008 2.8249 -2.0291 0.9799
-4.1341 2.1165 -2.0241 0.9799
-1.5136 0.3146 -0.6738 0.9933
-1.5272 0.0399 -0.6658 0.9934
-1.5296 -0.0969 -0.6679 0.9933
-1.5115 -0.2326 -0.6665 0.9933
-1.5430 -0.3810 -0.6926 0.9931
-1.5912 -0.5477 -0.7334 0.9927
-3.9846 -2.2303 -1.9901 0.9803
-3.7639 -2.5733 -1.9871 0.9803
-3.5141 -2.8949 -1.9843 0.9803
-3.2372 -3.1928 -1.9816 0.9804
-2.9355 -3.4647 -1.9791 0.9804
-2.2674 -3.9228 -1.9747 0.9804
-1.5308 -4.2558 -1.9711 0.9805
-0.7485 -4.4545 -1.9685 0.9805
-0.3476 -4.5015 -1.9677 0.9805
0.0556 -4.5131 -1.9671 0.9805
0.4583 -4.4894 -1.9667 0.9805
0.8573 -4.4304 -1.9667 0.9805
1.2496 -4.3367 -1.9669 0.9805
2.0022 -4.0479 -1.9682 0.9805
2.3569 -3.8550 -1.9692 0.9805
3.0093 -3.3792 -1.9721 0.9804
4.0191 -2.1212 -1.9806 0.9804
4.1979 -1.7562 -1.9832 0.9803
4.3440 -1.3762 -1.9859 0.9803
4.4561 -0.9843 -1.9888 0.9803
4.5790 0.2328 -1.9982 0.9802
4.5472 0.6418 -2.0014 0.9802
4.4790 1.0469 -2.0046 0.9801
4.3747 1.4450 -2.0079 0.9801
4.0607 2.2069 -2.0142 0.9800
3.8533 2.5646 -2.0173 0.9800
3.6142 2.9026 -2.0202 0.9800
3.0485 3.5086 -2.0257 0.9799
2.7264 3.7713 -2.0281 0.9799
1.6344 4.3721 -2.0342 0.9798
1.2384 4.5040 -2.0358 0.9798
0.8319 4.5994 -2.0370 0.9798
0.4181 4.6576 -2.0380 0.9798
-1.2393 4.5115 -2.0390 0.9798
-1.6368 4.3818 -2.0385 0.9798
-2.0207 4.2165 -2.0377 0.9798
-3.0597 3.5232 -2.0337 0.9798
-3.6304 2.9171 -2.0297 0.9799
-3.8719 2.5784 -2.0274 0.9799
-1.5867 0.5245 -0.7283 0.9927
-1.5339 0.3589 -0.6866 0.9931
-1.5159 0.2143 -0.6672 0.9933
-1.5294 0.0782 -0.6674 0.9933
-1.5286 -0.0587 -0.6667 0.9933
-1.5812 -0.5005 -0.7228 0.9928
-4.2213 -1.7647 -1.9940 0.9802
-3.8284 -2.4798 -1.9879 0.9803
-3.0219 -3.3917 -1.9798 0.9804
-2.7038 -3.6436 -1.9774 0.9804
-2.3651 -3.8662 -1.9752 0.9804
-1.6367 -4.2173 -1.9715 0.9805
-1.2527 -4.3434 -1.9701 0.9805
-0.0568 -4.5134 -1.9672 0.9805
0.3464 -4.4995 -1.9668 0.9805
1.1411 -4.3662 -1.9668 0.9805
1.5267 -4.2478 -1.9672 0.9805
3.2230 -3.1803 -1.9733 0.9804
3.7451 -2.5617 -1.9775 0.9804
3.9636 -2.2198 -1.9799 0.9804
4.3067 -1.4834 -1.9852 0.9803
4.5152 -0.6958 -1.9910 0.9803
4.5663 -0.2904 -1.9941 0.9802
4.5597 0.5281 -2.0005 0.9802
4.4074 1.3350 -2.0070 0.9801
4.2774 1.7259 -2.0102 0.9801
4.1127 2.1042 -2.0134 0.9800
3.1339 3.4304 -2.0249 0.9799
2.4797 3.9424 -2.0298 0.9799
2.1200 4.1524 -2.0319 0.9799
1.7423 4.3290 -2.0337 0.9798
1.3499 4.4709 -2.0354 0.9798
0.9460 4.5766 -2.0367 0.9798
0.5339 4.6452 -2.0378 0.9798
0.1171 4.6761 -2.0386 0.9798
-1.1266 4.5411 -2.0391 0.9798
-2.2874 4.0760 -2.0370 0.9798
-2.6405 3.8530 -2.0357 0.9798
-2.9717 3.5991 -2.0342 0.9798
-3.2783 3.3165 -2.0323 0.9799
-4.2122 1.9500 -2.0229 0.9800
-1.5952 0.5718 -0.7385 0.9926
-1.5063 0.2514 -0.6655 0.9934
-1.5024 -0.2925 -0.6671 0.9933
-1.5685 -0.4538 -0.7116 0.9929
-4.2658 -1.6598 -1.9949 0.9802
-4.0942 -2.0308 -1.9918 0.9803
-3.6568 -2.7185 -1.9858 0.9803
-3.3947 -3.0299 -1.9831 0.9803
-2.4613 -3.8072 -1.9758 0.9804
-1.7416 -4.1762 -1.9720 0.9805
-0.5715 -4.4796 -1.9681 0.9805
1.0320 -4.3931 -1.9667 0.9805
2.1614 -3.9663 -1.9686 0.9805
2.5084 -3.7597 -1.9697 0.9805
2.8361 -3.5233 -1.9712 0.9805
3.4237 -2.9681 -1.9747 0.9804
3.6790 -2.6534 -1.9769 0.9804
3.9058 -2.3170 -1.9792 0.9804
4.2668 -1.5896 -1.9844 0.9803
4.3979 -1.2040 -1.9872 0.9803
4.5557 -0.4038 -1.9932 0.9802
4.5694 0.4142 -1.9996 0.9802
4.5215 0.8219 -2.0028 0.9801
4.4372 1.2243 -2.0061 0.9801
4.3171 1.6181 -2.0093 0.9801
3.9729 2.3676 -2.0156 0.9800
2.9089 3.6285 -2.0268 0.9799
1.8492 4.2833 -2.0333 0.9798
1.4606 4.4349 -2.0349 0.9798
0.6493 4.6298 -2.0375 0.9798
-0.1846 4.6748 -2.0389 0.9798
-0.6013 4.6402 -2.0392 0.9798
-1.0132 4.5679 -2.0392 0.9798
-1.8087 4.3129 -2.0382 0.9798
-2.1855 4.1323 -2.0373 0.9798
-2.5443 3.9183 -2.0361 0.9798
-3.4828 3.0961 -2.0309 0.9799
-3.7412 2.7697 -2.0287 0.9799
-3.9688 2.4218 -2.0263 0.9799
-4.3248 1.6728 -2.0209 0.9800
-1.5006 0.2890 -0.6660 0.9934
-1.5247 0.0175 -0.6645 0.9934
-1.5289 -0.1194 -0.6683 0.9933
-1.5531 -0.4077 -0.6998 0.9930
-4.1452 -1.9291 -1.9926 0.9802
-3.9504 -2.2880 -1.9896 0.9803
-3.1893 -3.2393 -1.9812 0.9804
-2.5562 -3.7459 -1.9764 0.9804
-0.2815 -4.5058 -1.9675 0.9805
0.9223 -4.4174 -1.9667 0.9805
1.3132 -4.3180 -1.9669 0.9805
2.0616 -4.0184 -1.9683 0.9805
2.4135 -3.8204 -1.9694 0.9805
2.7469 -3.5921 -1.9707 0.9805
3.8456 -2.4127 -1.9785 0.9804
4.2242 -1.6947 -1.9836 0.9803
4.3648 -1.3126 -1.9864 0.9803
4.4711 -0.9190 -1.9893 0.9803
4.5423 -0.5169 -1.9924 0.9803
4.5775 -0.1095 -1.9955 0.9802
4.5763 0.3002 -1.9987 0.9802
4.5385 0.7087 -2.0019 0.9802
4.4643 1.1129 -2.0052 0.9801
4.3541 1.5095 -2.0084 0.9801
3.8162 2.6215 -2.0178 0.9800
3.5720 2.9561 -2.0207 0.9800
2.9973 3.5537 -2.0261 0.9799
2.3228 4.0394 -2.0307 0.9799
1.9548 4.2348 -2.0327 0.9799
1.1723 4.5222 -2.0360 0.9798
0.7643 4.6116 -2.0372 0.9798
0.3497 4.6635 -2.0382 0.9798
-0.0681 4.6776 -2.0388 0.9798
-0.4856 4.6537 -2.0392 0.9798
-0.8992 4.5918 -2.0392 0.9798
-2.7901 3.7443 -2.0351 0.9798
-3.4055 3.1828 -2.0315 0.9799
-3.9086 2.5207 -2.0270 0.9799
-4.2835 1.7807 -2.0217 0.9800
-1.5204 0.1922 -0.6679 0.9933
4.0488 1.5649 -2.0092 0.9810
3.5044 2.5931 -2.0179 0.9810
3.2633 2.8995 -2.0206 0.9809
2.9951 3.1833 -2.0232 0.9809
2.7021 3.4421 -2.0256 0.9809
2.3866 3.6736 -2.0278 0.9809
1.6984 4.0471 -2.0316 0.9808
1.3313 4.1858 -2.0332 0.9808
-0.9968 4.2862 -2.0370 0.9808
-1.3753 4.1794 -2.0366 0.9808
-1.7424 4.0386 -2.0360 0.9808
-2.0951 3.8652 -2.0351 0.9808
-3.5457 2.5694 -2.0269 0.9809
-3.7567 2.2400 -2.0246 0.9809
-3.9369 1.8933 -2.0221 0.9809
-1.3322 0.4997 -0.6586 0.9937
-1.3335 0.0017 -0.6173 0.9941
-1.3163 -0.2362 -0.6190 0.9941
-1.3181 -0.3605 -0.6325 0.9940
-1.3325 -0.4960 -0.6581 0.9938
-3.6980 -2.1925 -1.9900 0.9812
-3.2403 -2.8077 -1.9846 0.9813
-2.9729 -3.0819 -1.9821 0.9813
-2.0433 -3.7474 -1.9757 0.9814
-1.6991 -3.9115 -1.9740 0.9814
-1.3420 -4.0445 -1.9725 0.9814
-0.9749 -4.1455 -1.9712 0.9814
-0.2219 -4.2490 -1.9695 0.9814
0.1583 -4.2507 -1.9690 0.9814
0.5372 -4.2191 -1.9687 0.9814
0.9117 -4.1543 -1.9687 0.9814
1.9817 -3.7673 -1.9704 0.9814
2.3114 -3.5772 -1.9714 0.9814
3.1841 -2.8434 -1.9760 0.9814
3.4287 -2.5503 -1.9780 0.9813
3.6467 -2.2364 -1.9801 0.9813
3.8363 -1.9041 -1.9825 0.9813
4.1245 -1.1945 -1.9876 0.9813
4.2206 -0.8227 -1.9904 0.9812
4.3122 -0.0591 -1.9962 0.9812
4.2669 0.7110 -2.0023 0.9811
4.1927 1.0908 -2.0054 0.9811
3.5665 2.5041 -2.0172 0.9810
3.3332 2.8163 -2.0199 0.9809
3.0724 3.1067 -2.0225 0.9809
2.7861 3.3727 -2.0249 0.9809
2.1464 3.8226 -2.0293 0.9809
1.7982 4.0026 -2.0311 0.9808
1.4348 4.1505 -2.0328 0.9808
1.0592 4.2649 -2.0341 0.9808
0.2841 4.3895 -2.0361 0.9808
-0.1090 4.3986 -2.0367 0.9808
-0.8898 4.3098 -2.0370 0.9808
-1.9985 3.9168 -2.0354 0.9808
-2.9591 3.2407 -2.0313 0.9808
-3.2337 2.9609 -2.0295 0.9809
-3.7010 2.3336 -2.0252 0.9809
-3.8899 1.9915 -2.0228 0.9809
-1.3283 0.5363 -0.6631 0.9937
-1.3335 0.1548 -0.6214 0.9941
-1.3385 -0.0848 -0.6208 0.9941
-3.7529 -2.1006 -1.9908 0.9812
-3.3104 -2.7271 -1.9853 0.9813
-2.7657 -3.2643 -1.9804 0.9813
-2.1365 -3.6964 -1.9762 0.9814
-1.7964 -3.8689 -1.9745 0.9814
-1.4426 -4.0106 -1.9729 0.9814
-1.0780 -4.1206 -1.9716 0.9814
-0.7054 -4.1981 -1.9705 0.9814
0.4320 -4.2312 -1.9688 0.9814
1.1777 -4.0873 -1.9689 0.9814
1.5383 -3.9668 -1.9694 0.9814
1.8871 -3.8150 -1.9701 0.9814
3.1115 -2.9210 -1.9755 0.9814
3.5887 -2.3258 -1.9795 0.9813
3.7865 -1.9984 -1.9818 0.9813
3.9547 -1.6544 -1.9843 0.9813
4.1971 -0.9271 -1.9896 0.9812
4.2693 -0.5495 -1.9925 0.9812
4.3117 0.2193 -1.9984 0.9812
4.2814 0.6043 -2.0014 0.9811
4.2168 0.9856 -2.0045 0.9811
4.1182 1.3602 -2.0075 0.9811
3.9863 1.7251 -2.0106 0.9810
3.8220 2.0772 -2.0135 0.9810
3.6264 2.4136 -2.0164 0.9810
3.4011 2.7314 -2.0192 0.9810
2.8683 3.3012 -2.0243 0.9809
2.2403 3.7669 -2.0287 0.9809
1.8969 3.9556 -2.0306 0.9808
1.5374 4.1126 -2.0323 0.9808
1.1649 4.2365 -2.0338 0.9808
-0.3924 4.3830 -2.0369 0.9808
-0.7822 4.3306 -2.0370 0.9808
-1.1656 4.2431 -2.0368 0.9808
-1.9005 3.9658 -2.0356 0.9808
-2.2459 3.7784 -2.0346 0.9808
-2.8782 3.3141 -2.0318 0.9808
-3.1598 3.0413 -2.0301 0.9809
-3.6429 2.4258 -2.0259 0.9809
-3.8404 2.0884 -2.0235 0.9809
-1.3030 0.3049 -0.6194 0.9941
-1.3384 0.0684 -0.6203 0.9941
-1.3310 -0.1710 -0.6212 0.9941
-1.3295 -0.4208 -0.6455 0.9939
-1.3255 -0.5541 -0.6650 0.9937
-3.8056 -2.0073 -1.9916 0.9812
-2.8471 -3.1955 -1.9811 0.9813
-2.5475 -3.4330 -1.9788 0.9813
-1.5424 -3.9743 -1.9733 0.9814
-0.8099 -4.1798 -1.9708 0.9814
-0.0535 -4.2539 -1.9692 0.9814
1.0755 -4.1152 -1.9688 0.9814
2.4519 -3.4839 -1.9720 0.9814
3.2956 -2.7163 -1.9769 0.9814
3.5286 -2.4137 -1.9789 0.9813
3.7343 -2.0914 -1.9812 0.9813
3.9108 -1.7517 -1.9836 0.9813
4.0569 -1.3974 -1.9861 0.9813
4.1711 -1.0310 -1.9889 0.9812
4.2525 -0.6554 -1.9917 0.9812
4.3004 -0.2735 -1.9946 0.9812
4.1490 1.2567 -2.0067 0.9811
4.0263 1.6246 -2.0097 0.9810
3.6839 2.3216 -2.0156 0.9810
3.4667 2.6449 -2.0184 0.9810
3.2210 2.9478 -2.0211 0.9809
2.9486 3.2276 -2.0236 0.9809
2.6518 3.4821 -2.0260 0.9809
2.3328 3.7089 -2.0282 0.9809
1.9943 3.9062 -2.0301 0.9809
1.2698 4.2054 -2.0334 0.9808
0.8898 4.3046 -2.0347 0.9808
0.5022 4.3690 -2.0357 0.9808
0.1101 4.3980 -2.0364 0.9808
-0.2831 4.3912 -2.0368 0.9808
-1.4364 4.1585 -2.0365 0.9808
-1.8014 4.0124 -2.0359 0.9808
-2.4837 3.6242 -2.0337 0.9808
-3.0839 3.1198 -2.0306 0.9809
-3.3470 2.8293 -2.0286 0.9809
-3.5824 2.5165 -2.0265 0.9809
-1.3130 0.6079 -0.6697 0.9936
-1.3205 0.2204 -0.6197 0.9941
-1.3358 -0.1379 -0.6216 0.9941
-1.3306 -0.5177 -0.6609 0.9937
-3.8559 -1.9127 -1.9924 0.9812
-3.4446 -2.5608 -1.9868 0.9813
-2.9267 -3.1246 -1.9817 0.9813
-2.6330 -3.3695 -1.9794 0.9813
-2.3192 -3.5874 -1.9773 0.9813
-1.6412 -3.9355 -1.9737 0.9814
-0.9139 -4.1590 -1.9711 0.9814
-0.5386 -4.2219 -1.9701 0.9814
0.2208 -4.2478 -1.9689 0.9814
2.0370 -3.7381 -1.9705 0.9814
2.6726 -3.3203 -1.9730 0.9814
2.9608 -3.0708 -1.9745 0.9814
3.8647 -1.8479 -1.9829 0.9813
4.1426 -1.1341 -1.9881 0.9812
4.2332 -0.7608 -1.9909 0.9812
4.2904 -0.3803 -1.9938 0.9812
4.3137 0.0043 -1.9967 0.9812
4.3025 0.3900 -1.9998 0.9811
4.1773 1.1525 -2.0059 0.9811
4.0639 1.5232 -2.0089 0.9811
3.7391 2.2282 -2.0148 0.9810
2.4237 3.6486 -2.0276 0.9809
2.0904 3.8543 -2.0296 0.9809
1.3738 4.1716 -2.0330 0.9808
-0.1736 4.3967 -2.0367 0.9808
-0.5656 4.3642 -2.0370 0.9808
-1.7011 4.0564 -2.0361 0.9808
-2.0556 3.8867 -2.0352 0.9808
-3.0060 3.1964 -2.0311 0.9808
-1.3115 0.2526 -0.6182 0.9941
-1.3361 0.1352 -0.6216 0.9941
-1.3350 0.0153 -0.6180 0.9941
-1.3382 -0.1045 -0.6213 0.9941
-1.3199 -0.2230 -0.6196 0.9941
-1.3143 -0.3451 -0.6290 0.9940
-1.3332 -0.4809 -0.6560 0.9938
-3.7208 -2.1550 -1.9903 0.9812
-3.2693 -2.7748 -1.9849 0.9813
-3.0047 -3.0518 -1.9824 0.9813
-2.7170 -3.3040 -1.9801 0.9813
-2.0817 -3.7268 -1.9759 0.9814
-1.7391 -3.8943 -1.9742 0.9814
-1.3834 -4.0309 -1.9727 0.9814
-0.2653 -4.2466 -1.9695 0.9814
0.1149 -4.2522 -1.9690 0.9814
1.2377 -4.0697 -1.9690 0.9814
2.2746 -3.6004 -1.9713 0.9814
2.8827 -3.1429 -1.9741 0.9814
3.4021 -2.5849 -1.9777 0.9813
3.9794 -1.5965 -1.9847 0.9813
4.1115 -1.2364 -1.9873 0.9813
4.2779 -0.4868 -1.9930 0.9812
4.3106 -0.1031 -1.9959 0.9812
4.2029 1.0477 -2.0050 0.9811
4.0988 1.4209 -2.0080 0.9811
3.7919 2.1336 -2.0140 0.9810
3.1035 3.0747 -2.0222 0.9809
2.8201 3.3436 -2.0247 0.9809
2.5131 3.5860 -2.0270 0.9809
1.8388 3.9836 -2.0309 0.9808
1.4770 4.1352 -2.0326 0.9808
0.7189 4.3375 -2.0351 0.9808
-0.4567 4.3768 -2.0370 0.9808
-1.2278 4.2254 -2.0368 0.9808
-1.5997 4.0979 -2.0363 0.9808
-2.6244 3.5220 -2.0331 0.9808
-2.9261 3.2711 -2.0315 0.9808
-3.4548 2.6934 -2.0277 0.9809
-3.6774 2.3716 -2.0255 0.9809
-1.3260 0.5512 -0.6647 0.9937
-1.3314 0.1683 -0.6212 0.9941
3.8199 1.4765 -2.0088 0.9819
3.6780 1.8142 -2.0117 0.9819
3.3055 2.4459 -2.0171 0.9818
3.0778 2.7347 -2.0196 0.9818
2.8247 3.0022 -2.0220 0.9818
1.9341 3.6547 -2.0282 0.9817
0.8983 4.0452 -2.0326 0.9817
0.5338 4.1113 -2.0336 0.9817
0.1647 4.1440 -2.0343 0.9817
-0.2060 4.1431 -2.0348 0.9817
-0.9397 4.0407 -2.0350 0.9817
-1.2965 3.9401 -2.0346 0.9817
-1.6427 3.8075 -2.0341 0.9817
-1.9752 3.6441 -2.0332 0.9817
-3.3436 2.4229 -2.0255 0.9818
-3.5428 2.1124 -2.0233 0.9818
-1.1343 0.5455 -0.6174 0.9944
-1.1541 0.4329 -0.6046 0.9945
-1.1587 0.3200 -0.5897 0.9947
-1.1955 0.0015 -0.5864 0.9947
-1.1587 -0.3169 -0.5892 0.9947
-1.1544 -0.4298 -0.6042 0.9945
-3.2878 -2.3700 -1.9881 0.9821
-2.5332 -3.1454 -1.9811 0.9822
-1.6046 -3.6940 -1.9756 0.9822
-1.2675 -3.8198 -1.9742 0.9822
-0.9208 -3.9154 -1.9730 0.9822
0.1496 -4.0150 -1.9708 0.9823
0.8612 -3.9239 -1.9706 0.9823
1.2083 -3.8319 -1.9709 0.9823
1.8717 -3.5582 -1.9721 0.9822
2.1831 -3.3786 -1.9731 0.9822
2.4775 -3.1722 -1.9744 0.9822
2.7529 -2.9404 -1.9758 0.9822
3.2377 -2.4082 -1.9793 0.9822
3.6222 -1.7978 -1.9836 0.9821
3.7728 -1.4690 -1.9860 0.9821
3.9841 -0.7766 -1.9911 0.9821
4.0430 -0.4183 -1.9938 0.9821
4.0699 -0.0557 -1.9966 0.9820
4.0644 0.3083 -1.9994 0.9820
3.8540 1.3803 -2.0080 0.9819
3.7206 1.7213 -2.0109 0.9819
3.3642 2.3620 -2.0163 0.9819
2.8977 2.9300 -2.0214 0.9818
2.6275 3.1806 -2.0237 0.9818
2.3355 3.4061 -2.0258 0.9818
2.0240 3.6045 -2.0277 0.9818
0.9986 4.0210 -2.0323 0.9817
0.6360 4.0962 -2.0334 0.9817
0.2678 4.1383 -2.0342 0.9817
-0.1028 4.1468 -2.0347 0.9817
-0.4727 4.1216 -2.0350 0.9817
-1.1981 3.9714 -2.0348 0.9817
-1.5475 3.8476 -2.0342 0.9817
-2.5080 3.2949 -2.0312 0.9817
-3.0492 2.7919 -2.0280 0.9817
-3.2832 2.5061 -2.0260 0.9818
-1.1910 0.1382 -0.5881 0.9947
-1.1964 0.0313 -0.5871 0.9947
-1.1958 -0.0757 -0.5877 0.9947
-1.1848 -0.1823 -0.5880 0.9947
-1.1051 -0.6185 -0.6212 0.9944
-3.1253 -2.5747 -1.9863 0.9821
-2.8795 -2.8400 -1.9839 0.9821
-2.6115 -3.0823 -1.9816 0.9822
-2.3234 -3.2997 -1.9796 0.9822
-2.0176 -3.4906 -1.9777 0.9822
-1.6965 -3.6537 -1.9760 0.9822
-0.3095 -4.0072 -1.9715 0.9823
0.0495 -4.0177 -1.9709 0.9823
0.4080 -3.9966 -1.9706 0.9823
0.7632 -3.9441 -1.9706 0.9823
1.4530 -3.7467 -1.9712 0.9823
1.7823 -3.6033 -1.9719 0.9822
2.3973 -3.2323 -1.9740 0.9822
3.3887 -2.1961 -1.9808 0.9822
3.7337 -1.5620 -1.9853 0.9821
3.8631 -1.2239 -1.9878 0.9821
3.9621 -0.8752 -1.9903 0.9821
4.0657 -0.1570 -1.9958 0.9820
4.0692 0.2069 -1.9986 0.9820
4.0403 0.5702 -2.0015 0.9820
3.9790 0.9300 -2.0044 0.9820
3.8856 1.2834 -2.0073 0.9819
3.7608 1.6275 -2.0101 0.9819
3.4207 2.2767 -2.0156 0.9819
2.7050 3.1132 -2.0230 0.9818
2.4189 3.3459 -2.0252 0.9818
0.7377 4.0786 -2.0331 0.9817
0.0005 4.1478 -2.0346 0.9817
-0.3699 4.1320 -2.0349 0.9817
-0.7374 4.0826 -2.0350 0.9817
-1.4513 3.8852 -2.0344 0.9817
-1.7918 3.7388 -2.0337 0.9817
-2.4256 3.3570 -2.0316 0.9817
-2.9795 2.8677 -2.0285 0.9817
-3.2206 2.5878 -2.0266 0.9818
-3.4353 2.2876 -2.0245 0.9818
-1.1123 0.6049 -0.6211 0.9944
-1.1645 0.2725 -0.5867 0.9947
-1.1871 0.1678 -0.5881 0.9947
-1.1962 0.0611 -0.5875 0.9947
-1.1964 -0.0459 -0.5873 0.9947
-1.1477 -0.4798 -0.6102 0.9945
-1.1195 -0.5905 -0.6209 0.9944
-3.4042 -2.2050 -1.9895 0.9821
-3.1896 -2.4969 -1.9870 0.9821
-2.9503 -2.7683 -1.9845 0.9821
-1.7873 -3.6112 -1.9765 0.9822
-1.4566 -3.7534 -1.9749 0.9822
-1.1150 -3.8659 -1.9736 0.9822
-0.4092 -3.9986 -1.9717 0.9823
0.3084 -4.0056 -1.9707 0.9823
0.6647 -3.9619 -1.9706 0.9823
1.3591 -3.7815 -1.9711 0.9823
1.6919 -3.6462 -1.9717 0.9823
2.0115 -3.4821 -1.9726 0.9822
2.3157 -3.2904 -1.9737 0.9822
2.6020 -3.0726 -1.9750 0.9822
3.1121 -2.5651 -1.9783 0.9822
3.6924 -1.6539 -1.9846 0.9821
3.8301 -1.3192 -1.9871 0.9821
4.0589 -0.2581 -1.9950 0.9820
4.0516 0.4693 -2.0007 0.9820
3.9993 0.8303 -2.0036 0.9820
3.4750 2.1900 -2.0148 0.9819
3.2699 2.4947 -2.0175 0.9818
2.7808 3.0439 -2.0224 0.9818
2.5007 3.2837 -2.0246 0.9818
2.1998 3.4974 -2.0267 0.9818
1.5453 3.8395 -2.0302 0.9817
1.1972 3.9649 -2.0316 0.9817
0.8389 4.0584 -2.0328 0.9817
0.4734 4.1190 -2.0338 0.9817
0.1038 4.1462 -2.0344 0.9817
-0.2669 4.1398 -2.0349 0.9817
-0.9989 4.0264 -2.0349 0.9817
-2.0284 3.6144 -2.0331 0.9817
-2.3417 3.4170 -2.0319 0.9817
-2.6356 3.1921 -2.0305 0.9817
-2.9078 2.9417 -2.0290 0.9817
-3.3783 2.3731 -2.0251 0.9818
-3.5728 2.0598 -2.0229 0.9818
-1.1559 0.4143 -0.6023 0.9945
-1.1581 0.3016 -0.5870 0.9947
-1.1821 0.1973 -0.5879 0.9947
-1.1756 -0.2289 -0.5875 0.9947
-1.1523 -0.4483 -0.6065 0.9945
-3.4593 -2.1203 -1.9902 0.9821
-3.2519 -2.4175 -1.9877 0.9821
-3.0193 -2.6949 -1.9852 0.9821
-2.7634 -2.9503 -1.9829 0.9822
-2.1901 -3.3876 -1.9787 0.9822
-1.5500 -3.7167 -1.9753 0.9822
-0.8631 -3.9281 -1.9728 0.9822
-0.5087 -3.9876 -1.9719 0.9822
-0.1506 -4.0157 -1.9712 0.9823
0.2085 -4.0122 -1.9708 0.9823
0.5659 -3.9772 -1.9706 0.9823
1.2645 -3.8139 -1.9709 0.9823
1.6004 -3.6868 -1.9715 0.9823
3.4746 -2.0613 -1.9817 0.9822
3.7947 -1.4137 -1.9864 0.9821
3.9107 -1.0706 -1.9889 0.9821
4.0497 -0.3590 -1.9942 0.9820
4.0713 0.0041 -1.9970 0.9820
4.0604 0.3681 -1.9999 0.9820
4.0171 0.7302 -2.0028 0.9820
3.9415 1.0875 -2.0057 0.9819
3.8341 1.4371 -2.0085 0.9819
3.5272 2.1020 -2.0141 0.9819
3.3298 2.4117 -2.0168 0.9818
2.8549 2.9728 -2.0217 0.9818
2.2856 3.4406 -2.0261 0.9818
1.9711 3.6343 -2.0280 0.9817
1.6401 3.7990 -2.0297 0.9817
0.5758 4.1054 -2.0335 0.9817
0.2070 4.1420 -2.0343 0.9817
-0.5332 4.1143 -2.0350 0.9817
-0.8984 4.0502 -2.0350 0.9817
-1.2562 3.9532 -2.0347 0.9817
-1.6037 3.8242 -2.0341 0.9817
-1.9380 3.6643 -2.0333 0.9817
-2.8343 3.0139 -2.0294 0.9817
-3.0894 2.7464 -2.0277 0.9818
-3.3191 2.4572 -2.0257 0.9818
-1.1526 0.4458 -0.6062 0.9945
-1.1589 0.3329 -0.5915 0.9946
-1.1960 0.0137 -0.5867 0.9947
-1.1817 -0.1996 -0.5879 0.9947
-1.1582 -0.3041 -0.5874 0.9947
-1.1557 -0.4168 -0.6026 0.9945
-1.1381 -0.5296 -0.6157 0.9944
-3.3123 -2.3366 -1.9884 0.9821
-3.0866 -2.6197 -1.9859 0.9821
-2.5655 -3.1198 -1.9813 0.9822
-1.9659 -3.5194 -1.9774 0.9822
-0.9608 -3.9060 -1.9731 0.9822
-0.6079 -3.9742 -1.9721 0.9822
-0.2506 -4.0111 -1.9714 0.9823
0.4667 -3.9901 -1.9706 0.9823
1.8352 -3.5770 -1.9720 0.9822
2.4448 -3.1971 -1.9742 0.9822
2.7225 -2.9681 -1.9756 0.9822
2.9791 -2.7155 -1.9773 0.9822
3.7570 -1.5073 -1.9857 0.9821
4.0324 0.6297 -2.0020 0.9820
3.7374 1.6830 -2.0106 0.9819
3.3876 2.3272 -2.0160 0.9819
3.1704 2.6237 -2.0186 0.9818
2.3699 3.3816 -2.0256 0.9818
2.0604 3.5832 -2.0275 0.9818
1.3926 3.8989 -2.0308 0.9817
-0.0604 4.1475 -2.0347 0.9817
-0.4305 4.1262 -2.0350 0.9817
-2.7590 3.0842 -2.0299 0.9817
-3.0208 2.8232 -2.0282 0.9817
-3.4680 2.2365 -2.0242 0.9818
-1.1206 0.5882 -0.6208 0.9944
-1.1482 0.4773 -0.6099 0.9945
-1.1587 0.3642 -0.5958 0.9946
-1.1895 0.1504 -0.5881 0.9947
3.6112 1.3958 -2.0085 0.9827
3.3140 2.0211 -2.0137 0.9827
3.1242 2.3118 -2.0162 0.9826
1.8274 3.4532 -2.0268 0.9825
1.5130 3.6054 -2.0284 0.9825
1.1859 3.7286 -2.0298 0.9825
0.8487 3.8218 -2.0309 0.9825
0.5043 3.8841 -2.0319 0.9825
-0.1946 3.9140 -2.0330 0.9825
-0.8877 3.8173 -2.0332 0.9825
-1.5519 3.5970 -2.0323 0.9825
-1.8661 3.4427 -2.0315 0.9825
-3.1595 2.2895 -2.0242 0.9826
-0.9904 0.5905 -0.5982 0.9948
-1.0574 0.3966 -0.5859 0.9949
-1.0638 0.2938 -0.5725 0.9950
-1.0901 0.1984 -0.5748 0.9950
-1.1041 0.1004 -0.5751 0.9950
-1.1058 0.0014 -0.5737 0.9950
-1.1043 -0.0976 -0.5751 0.9950
-1.0907 -0.1957 -0.5749 0.9950
-1.0381 -0.4961 -0.5969 0.9948
-2.8939 -2.5075 -1.9865 0.9829
-2.6555 -2.7528 -1.9843 0.9829
-2.3966 -2.9758 -1.9822 0.9829
-1.8258 -3.3485 -1.9786 0.9830
-1.1994 -3.6145 -1.9757 0.9830
-0.5368 -3.7663 -1.9736 0.9830
-0.1983 -3.7979 -1.9730 0.9830
0.4802 -3.7713 -1.9723 0.9830
2.0658 -3.1971 -1.9747 0.9830
2.6048 -2.7823 -1.9772 0.9830
3.0633 -2.2785 -1.9806 0.9829
3.2577 -1.9978 -1.9825 0.9829
3.5688 -1.3896 -1.9868 0.9829
3.6830 -1.0667 -1.9892 0.9829
3.7683 -0.7345 -1.9917 0.9828
3.8237 -0.3956 -1.9943 0.9828
3.8071 0.6344 -2.0023 0.9828
3.7404 0.9731 -2.0050 0.9827
3.6435 1.3049 -2.0077 0.9827
2.9713 2.5105 -2.0180 0.9826
2.7384 2.7689 -2.0203 0.9826
2.4829 3.0056 -2.0225 0.9826
2.2068 3.2185 -2.0245 0.9826
1.9124 3.4058 -2.0263 0.9826
1.6020 3.5658 -2.0280 0.9825
1.2781 3.6972 -2.0294 0.9825
0.6008 3.8698 -2.0316 0.9825
-0.4466 3.8936 -2.0332 0.9825
-0.7924 3.8383 -2.0332 0.9825
-1.1318 3.7517 -2.0330 0.9825
-2.6362 2.8870 -2.0282 0.9825
-2.8811 2.6380 -2.0266 0.9826
-3.1024 2.3681 -2.0247 0.9826
-0.9751 0.6148 -0.5980 0.9948
-1.1014 0.1278 -0.5752 0.9950
-1.1059 -0.0701 -0.5749 0.9950
-1.0957 -0.1686 -0.5751 0.9950
-3.1658 -2.1644 -1.9895 0.9829
-1.9090 -3.3027 -1.9790 0.9830
-1.6052 -3.4572 -1.9774 0.9830
-0.6305 -3.7522 -1.9739 0.9830
-0.2929 -3.7921 -1.9731 0.9830
0.0469 -3.8021 -1.9726 0.9830
1.3750 -3.5456 -1.9729 0.9830
1.6867 -3.4099 -1.9735 0.9830
1.9852 -3.2471 -1.9744 0.9830
2.7803 -2.6101 -1.9784 0.9830
3.0048 -2.3534 -1.9801 0.9829
3.2060 -2.0777 -1.9819 0.9829
3.3822 -1.7850 -1.9840 0.9829
3.5320 -1.4776 -1.9862 0.9829
3.6541 -1.1577 -1.9885 0.9829
3.7475 -0.8278 -1.9910 0.9829
3.8113 -0.4905 -1.9935 0.9828
3.8480 0.1957 -1.9988 0.9828
3.6735 1.2133 -2.0070 0.9827
3.5552 1.5385 -2.0097 0.9827
3.0319 2.4349 -2.0173 0.9826
2.2857 3.1617 -2.0240 0.9826
1.6899 3.5241 -2.0275 0.9825
1.3695 3.6636 -2.0290 0.9825
0.6969 3.8532 -2.0314 0.9825
-0.3494 3.9035 -2.0331 0.9825
-0.6966 3.8568 -2.0332 0.9825
-1.3711 3.6704 -2.0326 0.9825
-1.6928 3.5322 -2.0320 0.9825
-2.5640 2.9524 -2.0286 0.9825
-2.8152 2.7096 -2.0270 0.9825
-3.0432 2.4453 -2.0253 0.9826
-3.2462 2.1617 -2.0233 0.9826
-1.0768 0.2520 -0.5737 0.9950
-1.1064 0.0565 -0.5747 0.9950
-1.0998 -0.1413 -0.5752 0.9950
-1.0806 -0.2384 -0.5741 0.9950
-1.0193 -0.5376 -0.5979 0.9948
-3.2199 -2.0856 -1.9902 0.9829
-2.7910 -2.6188 -1.9855 0.9829
-2.5432 -2.8544 -1.9833 0.9829
-2.2759 -3.0670 -1.9813 0.9829
-0.0478 -3.8023 -1.9727 0.9830
0.2918 -3.7907 -1.9724 0.9830
1.2862 -3.5785 -1.9727 0.9830
2.1913 -3.1136 -1.9752 0.9830
2.4621 -2.9074 -1.9764 0.9830
2.7138 -2.6779 -1.9779 0.9830
2.9446 -2.4269 -1.9796 0.9830
3.7244 -0.9205 -1.9903 0.9829
3.8502 0.0997 -1.9981 0.9828
3.7813 0.7851 -2.0035 0.9827
3.7011 1.1211 -2.0062 0.9827
3.5911 1.4490 -2.0089 0.9827
3.2846 2.0700 -2.0142 0.9827
3.0906 2.3579 -2.0166 0.9826
2.6279 2.8766 -2.0213 0.9826
2.3631 3.1029 -2.0234 0.9826
1.1311 3.7460 -2.0300 0.9825
0.4473 3.8913 -2.0320 0.9825
0.0981 3.9169 -2.0327 0.9825
-0.6003 3.8730 -2.0332 0.9825
-0.9437 3.8037 -2.0331 0.9825
-1.9163 3.4147 -2.0314 0.9825
-2.2124 3.2282 -2.0303 0.9825
-2.4902 3.0159 -2.0290 0.9825
-2.9821 2.5209 -2.0258 0.9826
-3.1923 2.2425 -2.0239 0.9826
-0.9990 0.5759 -0.5982 0.9948
-1.0687 0.2783 -0.5729 0.9950
-1.1052 0.0841 -0.5750 0.9950
-1.1063 -0.0149 -0.5740 0.9950
-1.1029 -0.1138 -0.5752 0.9950
-2.6143 -2.7910 -1.9839 0.9829
-2.3522 -3.0102 -1.9819 0.9829
-0.4814 -3.7736 -1.9735 0.9830
-0.1425 -3.8002 -1.9729 0.9830
0.1973 -3.7970 -1.9724 0.9830
0.8694 -3.7011 -1.9723 0.9830
1.1966 -3.6092 -1.9726 0.9830
1.5145 -3.4889 -1.9731 0.9830
1.8206 -3.3410 -1.9739 0.9830
3.2872 -1.9501 -1.9828 0.9829
3.4519 -1.6506 -1.9850 0.9829
3.7794 -0.6792 -1.9921 0.9828
3.8501 0.0038 -1.9973 0.9828
3.8395 0.3480 -2.0000 0.9828
3.7983 0.6904 -2.0027 0.9828
3.7265 1.0282 -2.0055 0.9827
3.6247 1.3586 -2.0082 0.9827
3.4936 1.6790 -2.0108 0.9827
3.1472 2.2794 -2.0160 0.9826
2.9347 2.5544 -2.0184 0.9826
2.1597 3.2511 -2.0248 0.9826
1.8624 3.4340 -2.0266 0.9826
1.5496 3.5894 -2.0282 0.9825
0.1955 3.9130 -2.0325 0.9825
-0.5037 3.8867 -2.0332 0.9825
-1.1868 3.7346 -2.0329 0.9825
-1.8309 3.4618 -2.0316 0.9825
-2.9191 2.5950 -2.0263 0.9826
-3.1363 2.3219 -2.0244 0.9826
-0.9842 0.6006 -0.5981 0.9948
-1.0637 0.3055 -0.5742 0.9950
-1.1031 0.1116 -0.5752 0.9950
-1.1051 -0.0863 -0.5750 0.9950
-1.0929 -0.1846 -0.5750 0.9950
-1.0680 -0.2804 -0.5729 0.9950
-1.0591 -0.3820 -0.5841 0.9949
-1.0411 -0.4845 -0.5957 0.9948
-2.6838 -2.7259 -1.9845 0.9829
-2.4271 -2.9515 -1.9824 0.9829
-2.1518 -3.1534 -1.9805 0.9829
-1.8600 -3.3300 -1.9787 0.9830
-1.5541 -3.4800 -1.9772 0.9830
-1.2363 -3.6023 -1.9758 0.9830
-0.9092 -3.6962 -1.9747 0.9830
0.1027 -3.8009 -1.9725 0.9830
0.4416 -3.7761 -1.9723 0.9830
1.1063 -3.6377 -1.9725 0.9830
1.4270 -3.5252 -1.9730 0.9830
1.7367 -3.3849 -1.9737 0.9830
2.0329 -3.2178 -1.9746 0.9830
2.3134 -3.0252 -1.9757 0.9830
2.5760 -2.8085 -1.9771 0.9830
3.4087 -1.7355 -1.9844 0.9829
3.8189 -0.4346 -1.9940 0.9828
3.8455 0.2522 -1.9993 0.9828
3.7495 0.9347 -2.0047 0.9827
3.5330 1.5909 -2.0101 0.9827
3.3813 1.9025 -2.0127 0.9827
3.2019 2.1996 -2.0153 0.9826
2.5132 2.9797 -2.0222 0.9826
1.3157 3.6837 -2.0293 0.9825
0.2929 3.9065 -2.0323 0.9825
-0.0571 3.9182 -2.0329 0.9825
-0.4067 3.8980 -2.0332 0.9825
-0.7532 3.8462 -2.0332 0.9825
-1.0934 3.7632 -2.0330 0.9825
-1.4248 3.6497 -2.0325 0.9825
-2.0495 3.3354 -2.0309 0.9825
-2.3378 3.1373 -2.0297 0.9825
-2.6068 2.9140 -2.0283 0.9825
-2.8543 2.6676 -2.0267 0.9825
-3.0783 2.3999 -2.0250 0.9826
-1.0629 0.3341 -0.5780 0.9950
-1.1001 0.1391 -0.5752 0.9950
3.4199 1.3219 -2.0082 0.9834
3.2924 1.6240 -2.0107 0.9834
3.1381 1.9138 -2.0131 0.9834
2.7540 2.4470 -2.0178 0.9833
2.5272 2.6860 -2.0199 0.9833
0.4773 3.6761 -2.0303 0.9832
0.1472 3.7052 -2.0309 0.9832
-0.1842 3.7043 -2.0314 0.9832
-1.7662 3.2584 -2.0299 0.9832
-2.3151 2.8892 -2.0278 0.9833
-2.5620 2.6692 -2.0264 0.9833
-0.8529 0.6181 -0.5769 0.9952
-1.0120 0.1842 -0.5634 0.9953
-1.0252 0.0932 -0.5638 0.9953
-1.0126 -0.1817 -0.5634 0.9953
-0.9511 -0.4545 -0.5774 0.9952
-0.9086 -0.5387 -0.5785 0.9952
-2.7422 -2.3761 -1.9873 0.9836
-2.0085 -3.0089 -1.9814 0.9836
-1.4391 -3.3130 -1.9783 0.9837
-0.8259 -3.5120 -1.9760 0.9837
-0.5088 -3.5701 -1.9751 0.9837
-0.1880 -3.6001 -1.9745 0.9837
0.1342 -3.6017 -1.9740 0.9837
1.0839 -3.4375 -1.9741 0.9837
1.3868 -3.3278 -1.9746 0.9837
1.9581 -3.0305 -1.9761 0.9837
2.2221 -2.8451 -1.9772 0.9837
2.4689 -2.6371 -1.9785 0.9837
2.6965 -2.4079 -1.9800 0.9836
3.2472 -1.6117 -1.9855 0.9836
3.3818 -1.3167 -1.9876 0.9836
3.4897 -1.0107 -1.9899 0.9836
3.5703 -0.6959 -1.9922 0.9835
3.6461 -0.0499 -1.9972 0.9835
3.6406 0.2762 -1.9997 0.9835
3.6061 0.6009 -2.0023 0.9835
3.5426 0.9216 -2.0049 0.9834
3.4506 1.2358 -2.0074 0.9834
3.3306 1.5409 -2.0100 0.9834
3.1837 1.8344 -2.0125 0.9834
3.0108 2.1139 -2.0149 0.9834
2.5925 2.6215 -2.0193 0.9833
2.0891 3.0467 -2.0233 0.9833
1.2098 3.4995 -2.0280 0.9833
0.8930 3.5956 -2.0291 0.9832
0.2394 3.7001 -2.0308 0.9832
-1.0712 3.5507 -2.0313 0.9832
-1.3836 3.4401 -2.0309 0.9832
-1.6847 3.3017 -2.0302 0.9832
-1.9719 3.1367 -2.0293 0.9832
-0.9806 0.2973 -0.5612 0.9953
-1.0063 0.2092 -0.5629 0.9953
-1.0227 0.1187 -0.5639 0.9953
-1.0276 0.0269 -0.5630 0.9953
-1.0174 -0.1565 -0.5638 0.9953
-0.9774 -0.3364 -0.5662 0.9953
-2.5814 -2.5459 -1.9858 0.9836
-2.0833 -2.9587 -1.9819 0.9836
-1.5214 -3.2768 -1.9787 0.9837
-0.2776 -3.5946 -1.9746 0.9837
0.0445 -3.6041 -1.9741 0.9837
0.3660 -3.5853 -1.9739 0.9837
0.6846 -3.5382 -1.9738 0.9837
1.3034 -3.3610 -1.9744 0.9837
1.8818 -3.0779 -1.9759 0.9837
2.1502 -2.8991 -1.9769 0.9837
2.4020 -2.6972 -1.9782 0.9837
2.6351 -2.4738 -1.9796 0.9837
3.0383 -1.9691 -1.9830 0.9836
3.2052 -1.6916 -1.9850 0.9836
3.3469 -1.4001 -1.9870 0.9836
3.4624 -1.0969 -1.9893 0.9836
3.6109 -0.4647 -1.9940 0.9835
3.6425 -0.1407 -1.9965 0.9835
3.6451 0.1854 -1.9990 0.9835
3.5632 0.8328 -2.0042 0.9835
3.4790 1.1491 -2.0067 0.9834
3.3668 1.4570 -2.0093 0.9834
3.2273 1.7540 -2.0118 0.9834
3.0615 2.0376 -2.0142 0.9834
2.4200 2.7852 -2.0208 0.9833
2.1637 2.9930 -2.0228 0.9833
1.2963 3.4677 -2.0276 0.9833
0.6596 3.6469 -2.0298 0.9832
0.3315 3.6927 -2.0306 0.9832
-0.3307 3.6943 -2.0315 0.9832
-0.6593 3.6502 -2.0316 0.9832
-1.2976 3.4738 -2.0310 0.9832
-1.8934 3.1853 -2.0295 0.9832
-2.1691 3.0019 -2.0285 0.9833
-2.4269 2.7945 -2.0272 0.9833
-2.8808 2.3147 -2.0240 0.9833
-0.8783 0.5849 -0.5780 0.9952
-0.9277 0.5045 -0.5784 0.9952
-0.9643 0.4176 -0.5755 0.9952
-0.9787 0.3235 -0.5646 0.9953
-0.9997 0.2339 -0.5623 0.9953
-1.0193 0.1441 -0.5639 0.9953
-1.0273 0.0525 -0.5634 0.9953
-1.0276 -0.0394 -0.5632 0.9953
-1.0032 -0.2213 -0.5626 0.9953
-0.9798 -0.3101 -0.5629 0.9953
-0.9671 -0.4043 -0.5741 0.9952
-0.9338 -0.4925 -0.5782 0.9952
-0.8860 -0.5739 -0.5782 0.9952
-2.8589 -2.2380 -1.9885 0.9836
-2.6447 -2.4816 -1.9864 0.9836
-2.4101 -2.7050 -1.9843 0.9836
-1.8871 -3.0849 -1.9807 0.9836
-1.6029 -3.2385 -1.9791 0.9837
-1.3064 -3.3664 -1.9777 0.9837
-1.0001 -3.4675 -1.9766 0.9837
-0.3671 -3.5869 -1.9748 0.9837
0.2766 -3.5934 -1.9739 0.9837
1.5176 -3.2707 -1.9748 0.9837
1.8043 -3.1234 -1.9756 0.9837
2.0770 -2.9513 -1.9766 0.9837
2.3337 -2.7557 -1.9778 0.9837
2.5722 -2.5381 -1.9792 0.9837
2.9876 -2.0436 -1.9825 0.9836
3.1611 -1.7704 -1.9844 0.9836
3.3100 -1.4826 -1.9865 0.9836
3.6366 -0.2312 -1.9958 0.9835
3.6289 0.4203 -2.0009 0.9835
3.5815 0.7436 -2.0034 0.9835
3.2688 1.6725 -2.0111 0.9834
3.1102 1.9600 -2.0135 0.9834
2.7182 2.4877 -2.0181 0.9833
1.9676 3.1283 -2.0241 0.9833
0.7501 3.6289 -2.0296 0.9832
0.4233 3.6829 -2.0304 0.9832
0.0928 3.7071 -2.0310 0.9832
-0.2386 3.7013 -2.0314 0.9832
-0.5682 3.6655 -2.0316 0.9832
-0.8931 3.5999 -2.0315 0.9832
-1.2108 3.5053 -2.0311 0.9832
-2.3570 2.8546 -2.0276 0.9833
-0.9151 0.5276 -0.5785 0.9952
-0.9560 0.4426 -0.5770 0.9952
-1.0150 0.1694 -0.5636 0.9953
-1.0241 -0.1057 -0.5639 0.9953
-1.0093 -0.1965 -0.5632 0.9953
-0.9718 -0.3781 -0.5711 0.9953
-2.9146 -2.1668 -1.9892 0.9836
-2.7065 -2.4157 -1.9870 0.9836
-2.2292 -2.8528 -1.9829 0.9836
-1.9638 -3.0377 -1.9812 0.9836
-1.6834 -3.1983 -1.9795 0.9837
-1.3901 -3.3334 -1.9781 0.9837
-0.7742 -3.5234 -1.9758 0.9837
-0.4563 -3.5770 -1.9750 0.9837
0.1870 -3.5993 -1.9740 0.9837
0.8242 -3.5084 -1.9739 0.9837
1.1343 -3.4213 -1.9742 0.9837
1.4356 -3.3072 -1.9747 0.9837
1.7258 -3.1670 -1.9754 0.9837
2.0026 -3.0016 -1.9763 0.9837
2.7320 -2.3684 -1.9803 0.9836
2.9350 -2.1168 -1.9820 0.9836
3.1152 -1.8480 -1.9839 0.9836
3.2711 -1.5641 -1.9859 0.9836
3.4013 -1.2672 -1.9880 0.9836
3.5049 -0.9595 -1.9903 0.9836
3.5808 -0.6435 -1.9926 0.9835
3.6472 0.0036 -1.9976 0.9835
2.7785 2.4184 -2.0175 0.9833
2.5542 2.6597 -2.0197 0.9833
1.7629 3.2505 -2.0253 0.9833
1.4668 3.3975 -2.0268 0.9833
0.8402 3.6086 -2.0293 0.9832
0.5148 3.6708 -2.0302 0.9832
-0.8032 3.6212 -2.0315 0.9832
-1.7329 3.2764 -2.0300 0.9832
-2.2856 2.9129 -2.0279 0.9833
-2.7632 2.4564 -2.0250 0.9833
-0.8460 0.6264 -0.5765 0.9952
-0.9016 0.5502 -0.5785 0.9952
-0.9458 0.4668 -0.5777 0.9952
-0.9722 0.3760 -0.5709 0.9953
-1.0242 0.1037 -0.5639 0.9953
-1.0273 0.0118 -0.5627 0.9953
-1.0261 -0.0801 -0.5637 0.9953
-1.0146 -0.1714 -0.5636 0.9953
-0.9756 -0.3519 -0.5680 0.9953
-0.9552 -0.4445 -0.5771 0.9952
-0.9141 -0.5294 -0.5785 0.9952
-2.5433 -2.5832 -1.9854 0.9836
-2.3002 -2.7971 -1.9835 0.9836
-1.1718 -3.4145 -1.9772 0.9837
-0.2248 -3.5981 -1.9745 0.9837
0.0974 -3.6030 -1.9741 0.9837
0.4186 -3.5795 -1.9739 0.9837
1.3527 -3.3416 -1.9745 0.9837
1.6462 -3.2086 -1.9752 0.9837
1.9269 -3.0501 -1.9760 0.9837
2.4416 -2.6620 -1.9784 0.9837
2.6715 -2.4351 -1.9799 0.9836
2.8807 -2.1887 -1.9815 0.9836
3.3677 -1.3511 -1.9874 0.9836
3.6180 -0.4117 -1.9944 0.9835
3.6449 -0.0872 -1.9969 0.9835
3.5513 0.8853 -2.0046 0.9834
3.4625 1.2003 -2.0072 0.9834
3.3457 1.5066 -2.0097 0.9834
3.2018 1.8015 -2.0122 0.9834
3.0318 2.0827 -2.0146 0.9834
2.8370 2.3478 -2.0169 0.9833
2.3792 2.8209 -2.0212 0.9833
1.5506 3.3593 -2.0264 0.9833
0.9296 3.5860 -2.0290 0.9832
-0.3849 3.6891 -2.0315 0.9832
-0.7128 3.6401 -2.0316 0.9832
-1.6509 3.3189 -2.0303 0.9832
-1.9398 3.1569 -2.0294 0.9832
-2.2127 2.9695 -2.0283 0.9833
-2.4674 2.7583 -2.0270 0.9833
-2.7018 2.5251 -2.0254 0.9833
-0.8872 0.5722 -0.5782 0.9952
-0.9347 0.4906 -0.5782 0.9952
3.1227 1.5402 -2.0102 0.9840
2.9761 1.8150 -2.0126 0.9840
2.8053 2.0758 -2.0148 0.9840
2.6115 2.3204 -2.0170 0.9840
2.3964 2.5469 -2.0190 0.9840
1.9086 2.9379 -2.0227 0.9839
1.6400 3.0990 -2.0243 0.9839
-0.1746 3.5115 -2.0299 0.9839
-0.4875 3.4822 -2.0300 0.9839
-0.7964 3.4246 -2.0300 0.9839
-1.9425 2.9257 -2.0276 0.9839
-2.4290 2.5305 -2.0251 0.9839
-2.6432 2.3018 -2.0236 0.9839
-0.7918 0.5738 -0.5645 0.9955
-0.8353 0.4981 -0.5615 0.9955
-0.8750 0.4208 -0.5605 0.9955
-0.9552 0.0868 -0.5538 0.9956
-0.9432 -0.1693 -0.5533 0.9956
-0.9012 -0.3355 -0.5552 0.9956
-0.8759 -0.4186 -0.5605 0.9955
-0.8366 -0.4960 -0.5615 0.9955
-0.7929 -0.5716 -0.5643 0.9955
-2.1556 -2.6767 -1.9842 0.9843
-1.9064 -2.8560 -1.9825 0.9843
-1.0791 -3.2522 -1.9783 0.9843
-0.4830 -3.3892 -1.9765 0.9843
0.1274 -3.4193 -1.9755 0.9843
0.4321 -3.3939 -1.9753 0.9843
0.7334 -3.3418 -1.9753 0.9843
1.8588 -2.8768 -1.9775 0.9843
2.5595 -2.2856 -1.9812 0.9843
2.7556 -2.0496 -1.9828 0.9843
2.9301 -1.7969 -1.9845 0.9842
3.0818 -1.5296 -1.9864 0.9842
1.8663 -0.7267 -1.1563 0.9908
1.9381 -0.5613 -1.1650 0.9907
2.0055 -0.3909 -1.1797 0.9906
2.0369 -0.2107 -1.1823 0.9906
2.0254 -0.0277 -1.1695 0.9907
2.0363 0.1545 -1.1790 0.9906
1.8488 0.8554 -1.1761 0.9906
2.8552 2.0047 -2.0142 0.9840
2.6677 2.2540 -2.0164 0.9840
2.2287 2.6979 -2.0204 0.9840
1.9807 2.8887 -2.0222 0.9840
1.7163 3.0565 -2.0239 0.9839
1.4376 3.1999 -2.0253 0.9839
-0.0871 3.5146 -2.0298 0.9839
-0.7109 3.4435 -2.0300 0.9839
-1.8693 2.9736 -2.0279 0.9839
-2.5857 2.3675 -2.0241 0.9839
-0.7801 0.5955 -0.5666 0.9955
-0.8650 0.4428 -0.5611 0.9955
-0.8965 0.3620 -0.5582 0.9955
-0.9122 0.2765 -0.5503 0.9956
-0.9528 0.1106 -0.5538 0.9956
-0.9569 -0.0606 -0.5535 0.9956
-0.9476 -0.1458 -0.5536 0.9956
-0.8486 -0.4750 -0.5615 0.9955
-0.8039 -0.5496 -0.5622 0.9955
-0.7616 -0.6274 -0.5697 0.9955
-2.2222 -2.6228 -1.9847 0.9842
-1.9774 -2.8082 -1.9830 0.9843
-1.4442 -3.1104 -1.9799 0.9843
-1.1600 -3.2249 -1.9787 0.9843
-0.8669 -3.3138 -1.9776 0.9843
-0.5674 -3.3764 -1.9767 0.9843
0.6500 -3.3590 -1.9753 0.9843
1.5178 -3.0684 -1.9764 0.9843
1.7864 -2.9218 -1.9772 0.9843
2.0411 -2.7520 -1.9782 0.9843
2.7030 -2.1171 -1.9823 0.9843
1.8611 -0.7786 -1.1647 0.9907
1.9169 -0.6073 -1.1609 0.9908
1.9855 -0.4386 -1.1740 0.9907
2.0337 -0.2617 -1.1838 0.9906
2.0327 -0.0785 -1.1744 0.9906
2.0347 0.1035 -1.1763 0.9906
1.8577 0.8039 -1.1687 0.9907
2.9034 1.9323 -2.0136 0.9840
2.7222 2.1862 -2.0158 0.9840
2.2946 2.6409 -2.0199 0.9840
2.0516 2.8378 -2.0217 0.9840
1.7915 3.0122 -2.0234 0.9839
1.2289 3.2875 -2.0263 0.9839
0.3142 3.5005 -2.0291 0.9839
0.0004 3.5155 -2.0297 0.9839
-0.3135 3.5020 -2.0300 0.9839
-1.5187 3.1691 -2.0289 0.9839
-2.0563 2.8459 -2.0271 0.9839
-2.3008 2.6493 -2.0259 0.9839
-2.5264 2.4316 -2.0245 0.9839
-0.8090 0.5388 -0.5612 0.9955
-0.8890 0.3850 -0.5593 0.9955
-0.9060 0.2995 -0.5509 0.9956
-0.9495 0.1343 -0.5537 0.9956
-0.9573 0.0489 -0.5534 0.9956
-0.9575 -0.0367 -0.5532 0.9956
-0.9513 -0.1222 -0.5538 0.9956
-0.8159 -0.5284 -0.5612 0.9955
-0.7741 -0.6060 -0.5676 0.9955
-2.5100 -2.3551 -1.9872 0.9842
-2.2874 -2.5673 -1.9852 0.9842
-1.2401 -3.1955 -1.9790 0.9843
-0.6513 -3.3616 -1.9769 0.9843
-0.3485 -3.4051 -1.9762 0.9843
0.5661 -3.3741 -1.9753 0.9843
1.4407 -3.1050 -1.9762 0.9843
1.9717 -2.8016 -1.9779 0.9843
2.2152 -2.6158 -1.9790 0.9843
2.4415 -2.4092 -1.9804 0.9843
3.0002 -1.6802 -1.9853 0.9842
1.8535 -0.8302 -1.1725 0.9907
1.8931 -0.6521 -1.1560 0.9908
1.9665 -0.4861 -1.1695 0.9907
2.0358 -0.1295 -1.1777 0.9906
2.0295 0.0526 -1.1721 0.9907
2.0358 0.2358 -1.1832 0.9906
1.9961 0.4144 -1.1770 0.9906
3.1003 1.5862 -2.0106 0.9840
2.7750 2.1171 -2.0152 0.9840
2.3591 2.5823 -2.0193 0.9840
1.8655 2.9660 -2.0230 0.9839
1.0149 3.3612 -2.0271 0.9839
0.7111 3.4401 -2.0282 0.9839
-0.2262 3.5086 -2.0299 0.9839
-1.9851 2.8966 -2.0274 0.9839
-0.9030 0.3237 -0.5538 0.9956
-0.9245 0.2408 -0.5516 0.9956
-0.9455 0.1578 -0.5534 0.9956
-0.9562 0.0728 -0.5537 0.9956
-0.9542 -0.0985 -0.5538 0.9956
-0.9402 -0.1830 -0.5530 0.9956
-0.8988 -0.3497 -0.5568 0.9956
-2.5686 -2.2925 -1.9877 0.9842
-2.3513 -2.5102 -1.9858 0.9842
-2.1158 -2.7076 -1.9839 0.9843
-1.5979 -3.0358 -1.9807 0.9843
-1.0312 -3.2674 -1.9782 0.9843
-0.7349 -3.3448 -1.9772 0.9843
-0.1282 -3.4198 -1.9758 0.9843
0.1776 -3.4169 -1.9754 0.9843
0.4819 -3.3872 -1.9753 0.9843
0.7824 -3.3307 -1.9753 0.9843
1.6383 -3.0064 -1.9767 0.9843
1.9010 -2.8494 -1.9776 0.9843
2.1490 -2.6698 -1.9787 0.9843
2.5931 -2.2480 -1.9814 0.9843
2.7857 -2.0092 -1.9830 0.9843
2.9566 -1.7540 -1.9848 0.9842
2.0371 -0.1806 -1.1807 0.9906
2.0372 0.1847 -1.1810 0.9906
1.9480 0.5375 -1.1667 0.9907
3.1378 1.5081 -2.0100 0.9840
2.8260 2.0468 -2.0146 0.9840
2.4220 2.5220 -2.0188 0.9840
1.9384 2.9179 -2.0225 0.9840
1.6714 3.0818 -2.0241 0.9839
0.7964 3.4209 -2.0279 0.9839
0.1754 3.5106 -2.0294 0.9839
-0.1387 3.5130 -2.0298 0.9839
-0.7614 3.4326 -2.0300 0.9839
-1.0647 3.3505 -2.0298 0.9839
-1.6427 3.1060 -2.0286 0.9839
-2.1668 2.7616 -2.0266 0.9839
-2.6198 2.3289 -2.0238 0.9839
-0.7871 0.5827 -0.5654 0.9955
-0.8302 0.5066 -0.5615 0.9955
-0.8992 0.3478 -0.5566 0.9956
-0.9573 0.0110 -0.5528 0.9956
-0.9561 -0.0747 -0.5537 0.9956
-0.9240 -0.2426 -0.5515 0.9956
-0.8797 -0.4094 -0.5602 0.9955
-2.4137 -2.4516 -1.9863 0.9842
-2.1831 -2.6548 -1.9844 0.9843
-1.6733 -2.9957 -1.9811 0.9843
-1.3982 -3.1309 -1.9797 0.9843
-1.1124 -3.2412 -1.9785 0.9843
-0.2134 -3.4158 -1.9759 0.9843
0.0924 -3.4204 -1.9755 0.9843
0.3974 -3.3981 -1.9753 0.9843
0.9956 -3.2736 -1.9755 0.9843
1.2841 -3.1723 -1.9759 0.9843
2.0815 -2.7220 -1.9784 0.9843
2.3177 -2.5268 -1.9796 0.9843
2.7342 -2.0774 -1.9826 0.9843
2.9113 -1.8266 -1.9843 0.9843
3.0656 -1.5608 -1.9862 0.9842
1.9977 -0.4106 -1.1775 0.9906
2.0359 0.1335 -1.1779 0.9906
