ply
format ascii 1.0
element vertex 1596
property float32 x
property float32 y
property float32 z
property float32 I
end_header
3.7494 4.8998 0.8034 0.9754
2.7957 5.4474 0.7973 0.9756
2.3838 5.8885 0.8273 0.9747
0.7717 6.6143 0.8672 0.9735
17.9445 -3.1608 2.3727 0.9291
13.3173 -1.1327 1.7404 0.9475
11.9265 0.0555 1.5531 0.9530
10.3376 0.9762 1.3522 0.9590
9.0910 1.6887 1.2041 0.9634
8.2809 2.3200 1.1199 0.9659
5.4065 3.9517 0.8720 0.9733
4.7750 4.1938 0.8276 0.9747
4.4151 4.6395 0.8340 0.9745
3.3222 5.0529 0.7875 0.9759
2.8910 5.3926 0.7968 0.9756
1.9814 6.1203 0.8377 0.9744
1.4191 6.2404 0.8334 0.9745
0.8836 6.5496 0.8606 0.9737
0.3097 6.9413 0.9048 0.9724
-0.3258 7.2492 0.9450 0.9712
18.8406 -3.6685 2.4995 0.9255
10.9004 0.8323 1.4236 0.9569
9.3136 1.5576 1.2297 0.9626
6.8034 3.1550 0.9766 0.9702
6.1288 3.5395 0.9216 0.9719
5.5218 3.8858 0.8793 0.9731
4.5183 4.5805 0.8378 0.9744
3.9200 4.7587 0.8029 0.9754
3.4618 5.0648 0.7989 0.9756
2.9862 5.3379 0.7965 0.9756
2.5825 5.7742 0.8237 0.9748
2.0833 6.0616 0.8347 0.9745
1.5226 6.1806 0.8289 0.9747
-2.2272 2.4246 0.4287 0.9868
2.3157 -0.9499 0.3259 0.9900
9.5527 1.4218 1.2577 0.9618
8.6728 2.0972 1.1619 0.9646
7.7449 2.6249 1.0649 0.9676
6.2580 3.4658 0.9316 0.9716
5.6390 3.8189 0.8869 0.9729
4.6225 4.5208 0.8420 0.9743
4.1120 4.8131 0.8244 0.9748
2.1846 6.0033 0.8319 0.9746
1.6251 6.1215 0.8248 0.9748
1.1025 6.4231 0.8487 0.9741
0.5441 6.7458 0.8813 0.9731
-0.0640 7.0976 0.9243 0.9718
-2.1634 2.4417 0.4248 0.9869
11.6321 0.2629 1.2494 0.9543
9.0775 1.8553 0.9949 0.9634
8.0827 2.4217 0.9061 0.9666
5.8708 3.6776 0.7439 0.9725
5.2865 4.0115 0.7126 0.9737
4.3078 4.6926 0.6840 0.9747
3.7451 4.8942 0.6618 0.9755
3.2243 5.1012 0.6480 0.9760
0.7707 6.6061 0.7142 0.9736
0.1904 7.1453 0.7675 0.9717
12.3391 -3.3335 1.3725 0.9499
13.3636 -1.1367 1.4402 0.9475
10.5819 0.9993 1.1414 0.9581
9.3015 1.7278 1.0159 0.9627
8.2678 2.3163 0.9220 0.9660
6.7128 3.2606 0.8014 0.9704
5.9945 3.6069 0.7512 0.9722
5.3998 3.9468 0.7182 0.9735
4.7693 4.1887 0.6816 0.9748
4.4099 4.6341 0.6869 0.9746
2.8877 5.3865 0.6563 0.9757
1.9791 6.1132 0.6900 0.9745
1.4174 6.2330 0.6864 0.9746
0.3156 7.0730 0.7603 0.9719
-0.3258 7.2493 0.7792 0.9712
2.3244 -0.9051 0.2679 0.9900
12.1395 -3.5145 1.3571 0.9504
11.8044 -0.1570 1.2677 0.9536
10.8784 0.8306 1.1715 0.9571
8.4596 2.2071 0.9388 0.9654
7.5594 2.7142 0.8625 0.9682
6.8555 3.1792 0.8115 0.9701
5.5149 3.8810 0.7241 0.9732
4.9276 4.1735 0.6934 0.9744
3.9155 4.7532 0.6613 0.9755
2.5795 5.7677 0.6785 0.9749
2.0809 6.0546 0.6875 0.9746
1.5208 6.1734 0.6827 0.9747
0.4385 7.0020 0.7534 0.9722
-0.1988 7.3703 0.7917 0.9708
2.3137 -0.9491 0.2685 0.9900
12.9773 -2.7695 1.4249 0.9480
14.4083 -1.7483 1.5585 0.9433
12.0806 -0.3776 1.2979 0.9525
6.9889 3.0898 0.8205 0.9697
4.9811 4.0676 0.6906 0.9745
4.6170 4.5155 0.6935 0.9744
4.1073 4.8075 0.6790 0.9749
3.5537 5.0041 0.6591 0.9756
2.6781 5.7109 0.6773 0.9749
1.6232 6.1143 0.6793 0.9749
-0.0658 7.2933 0.7832 0.9711
12.2385 -1.9300 1.0488 0.9515
9.1440 1.8689 0.7901 0.9632
8.0702 2.4180 0.7132 0.9667
7.2289 2.8925 0.6591 0.9692
6.5646 3.3356 0.6233 0.9709
5.2801 4.0066 0.5611 0.9737
3.7409 4.8887 0.5211 0.9756
2.7894 5.4351 0.5172 0.9758
1.8217 5.9918 0.5301 0.9752
1.3112 6.2859 0.5436 0.9746
0.7698 6.5980 0.5623 0.9737
11.9263 0.0555 1.0096 0.9533
10.6078 1.0017 0.9020 0.9581
8.2547 2.3127 0.7257 0.9662
7.3862 2.8027 0.6688 0.9688
6.7036 3.2562 0.6309 0.9705
5.9868 3.6023 0.5915 0.9723
1.4157 6.2257 0.5405 0.9747
0.8814 6.5336 0.5581 0.9739
0.3152 7.0640 0.5986 0.9720
-0.3258 7.2494 0.6143 0.9713
2.3246 -0.9051 0.2112 0.9900
11.0015 -3.1851 0.9696 0.9551
11.8043 -0.1570 0.9994 0.9537
10.8566 0.8289 0.9217 0.9572
8.5224 2.2235 0.7456 0.9653
6.1128 3.5302 0.5976 0.9721
5.5080 3.8762 0.5702 0.9733
4.9217 4.1685 0.5460 0.9744
4.5077 4.5698 0.5434 0.9746
3.9110 4.7478 0.5207 0.9756
3.4539 5.0534 0.5182 0.9757
2.9795 5.3259 0.5166 0.9758
2.5583 5.7203 0.5305 0.9752
2.0639 6.0049 0.5375 0.9748
1.5191 6.1661 0.5376 0.9748
0.9914 6.4702 0.5541 0.9741
-0.8836 7.5526 0.6437 0.9699
11.5920 -3.5828 1.0271 0.9525
12.6630 -1.5366 1.0798 0.9501
8.7226 2.1093 0.7597 0.9646
6.2980 3.4880 0.6094 0.9715
5.6249 3.8093 0.5751 0.9731
4.9751 4.0627 0.5437 0.9745
4.6116 4.5102 0.5461 0.9744
4.1026 4.8020 0.5347 0.9750
3.5496 4.9984 0.5190 0.9757
3.0744 5.2713 0.5166 0.9758
2.1641 5.9471 0.5357 0.9749
1.6213 6.1072 0.5349 0.9750
1.0999 6.4077 0.5504 0.9742
0.5428 6.7290 0.5715 0.9733
-0.0657 7.2838 0.6166 0.9712
11.1943 -2.8097 0.7157 0.9548
11.8158 0.2671 0.7329 0.9537
9.1285 1.8657 0.5778 0.9633
8.0577 2.4143 0.5216 0.9669
7.2186 2.8883 0.4821 0.9693
6.5559 3.3311 0.4560 0.9710
5.2736 4.0018 0.4105 0.9738
3.7366 4.8832 0.3813 0.9757
2.7862 5.4290 0.3784 0.9758
1.8196 5.9849 0.3879 0.9752
0.7688 6.5900 0.4114 0.9738
0.1899 7.1271 0.4421 0.9718
-0.4594 7.2980 0.4534 0.9711
11.0876 -2.9954 0.7122 0.9550
10.8454 1.0242 0.6755 0.9573
8.2418 2.3090 0.5308 0.9663
5.3865 3.9371 0.4137 0.9736
4.7580 4.1788 0.3927 0.9749
3.8099 4.7979 0.3799 0.9757
3.3109 5.0358 0.3737 0.9761
2.4749 5.8114 0.3917 0.9750
1.9746 6.0992 0.3975 0.9746
-0.3258 7.2495 0.4500 0.9713
2.3249 -0.9052 0.1547 0.9901
10.9819 -3.1794 0.7090 0.9552
11.8042 -0.1570 0.7320 0.9538
11.1482 0.8512 0.6933 0.9562
9.5015 1.5890 0.5974 0.9621
6.1049 3.5257 0.4372 0.9721
4.5025 4.5645 0.3976 0.9746
2.9761 5.3199 0.3780 0.9759
2.5737 5.7547 0.3909 0.9751
1.5173 6.1589 0.3933 0.9749
0.9902 6.4625 0.4054 0.9741
-0.1983 7.3509 0.4560 0.9710
-0.8824 7.5421 0.4709 0.9700
-2.2192 2.4159 0.2034 0.9869
11.5323 -3.5643 0.7485 0.9528
11.8997 -0.3720 0.7383 0.9534
11.3608 0.6626 0.7057 0.9554
7.7101 2.6130 0.5048 0.9679
6.2898 3.4834 0.4459 0.9716
5.6179 3.8046 0.4207 0.9732
4.9692 4.0578 0.3978 0.9746
3.0710 5.2654 0.3780 0.9759
2.6721 5.6981 0.3903 0.9751
1.6195 6.1001 0.3914 0.9750
1.0986 6.4001 0.4027 0.9743
-2.1610 2.4389 0.2021 0.9870
13.5717 -4.7309 0.5667 0.9441
14.4155 -3.6182 0.5860 0.9422
11.7784 -1.8574 0.4702 0.9534
12.3337 -0.8264 0.4874 0.9517
11.7903 0.2665 0.4650 0.9539
10.2417 1.1529 0.4064 0.9596
8.0453 2.4105 0.3312 0.9669
6.5471 3.3267 0.2896 0.9710
5.8485 3.6636 0.2721 0.9728
4.8100 4.3798 0.2565 0.9743
3.2134 5.0841 0.2372 0.9762
2.7831 5.4230 0.2403 0.9759
2.3730 5.8619 0.2494 0.9750
1.3081 6.2711 0.2526 0.9747
0.7679 6.5820 0.2613 0.9738
-0.4588 7.2883 0.2880 0.9712
14.9510 -2.6336 0.5986 0.9410
12.2117 -1.0387 0.4833 0.9521
11.8985 0.0553 0.4692 0.9535
10.8244 1.0222 0.4287 0.9574
8.2289 2.3054 0.3370 0.9664
7.3648 2.7946 0.3106 0.9690
6.6855 3.2474 0.2931 0.9707
5.9715 3.5931 0.2748 0.9725
5.3799 3.9323 0.2628 0.9737
4.7524 4.1739 0.2494 0.9750
4.3947 4.6181 0.2514 0.9748
1.4124 6.2111 0.2512 0.9748
0.8793 6.5179 0.2593 0.9740
0.3144 7.0462 0.2781 0.9722
-0.3258 7.2496 0.2861 0.9714
2.3251 -0.9053 0.0984 0.9901
14.1542 -4.0978 0.5810 0.9427
12.0918 -1.2475 0.4793 0.9525
11.8041 -0.1570 0.4655 0.9538
11.1260 0.8495 0.4400 0.9563
9.4848 1.5862 0.3792 0.9622
8.4952 2.2164 0.3462 0.9655
7.5260 2.7022 0.3153 0.9685
6.8273 3.1661 0.2967 0.9703
6.0970 3.5211 0.2776 0.9722
5.4944 3.8666 0.2649 0.9735
4.9100 4.1586 0.2537 0.9746
3.4462 5.0420 0.2408 0.9758
2.9728 5.3140 0.2401 0.9759
2.5708 5.7482 0.2483 0.9751
2.0738 6.0339 0.2516 0.9748
14.0249 -4.3347 0.5788 0.9429
14.6797 -3.1328 0.5919 0.9417
11.9784 -1.4535 0.4758 0.9528
11.8714 -0.3711 0.4683 0.9536
11.3607 0.6626 0.4487 0.9555
9.7267 1.4477 0.3878 0.9614
8.6942 2.1024 0.3527 0.9648
7.6986 2.6092 0.3205 0.9680
6.9728 3.0827 0.3006 0.9699
4.6009 4.4998 0.2538 0.9746
4.0933 4.7911 0.2485 0.9751
2.6691 5.6917 0.2479 0.9751
2.1746 5.9759 0.2508 0.9749
1.0972 6.3925 0.2557 0.9744
-0.0655 7.2650 0.2865 0.9713
-0.7361 7.4481 0.2951 0.9705
15.4444 -2.4355 0.2641 0.9394
10.2224 1.1508 0.1738 0.9597
9.0978 1.8594 0.1569 0.9635
7.1981 2.8801 0.1310 0.9695
6.6200 3.3637 0.1254 0.9707
5.8411 3.6590 0.1164 0.9728
5.2609 3.9921 0.1116 0.9739
4.2881 4.6712 0.1071 0.9750
3.7282 4.8722 0.1036 0.9758
2.7800 5.4169 0.1028 0.9759
0.1894 7.1090 0.1201 0.9720
17.8207 -3.1390 0.3057 0.9302
10.8035 1.0202 0.1833 0.9575
9.2374 1.7158 0.1587 0.9631
8.2160 2.3018 0.1441 0.9664
7.3542 2.7906 0.1329 0.9690
5.9639 3.5885 0.1176 0.9725
5.3734 3.9275 0.1124 0.9737
4.3897 4.6128 0.1076 0.9748
2.4693 5.7984 0.1065 0.9751
2.3253 -0.9054 0.0422 0.9901
18.5142 -3.6049 0.3186 0.9273
11.8040 -0.1570 0.1994 0.9539
11.1041 0.8478 0.1881 0.9564
9.4682 1.5835 0.1622 0.9623
7.5151 2.6983 0.1349 0.9686
6.9523 3.2240 0.1295 0.9698
6.0892 3.5166 0.1188 0.9723
4.9042 4.1537 0.1086 0.9746
1.5138 6.1447 0.1069 0.9750
0.9878 6.4470 0.1102 0.9742
0.4363 6.9671 0.1179 0.9725
-2.2139 2.4102 0.0553 0.9870
2.3060 -0.9459 0.0421 0.9901
14.9235 -1.8109 0.2539 0.9416
11.8433 -0.3702 0.2002 0.9537
11.3403 0.6614 0.1919 0.9556
9.7093 1.4452 0.1658 0.9615
6.3970 3.5428 0.1235 0.9712
4.5956 4.4946 0.1086 0.9746
3.5377 4.9816 0.1032 0.9759
2.6662 5.6853 0.1061 0.9752
1.0960 6.3849 0.1094 0.9744
0.5408 6.7041 0.1136 0.9735
-0.0654 7.2556 0.1226 0.9714
-0.7352 7.4379 0.1263 0.9705
-10.3757 -8.0210 -0.0738 0.9489
15.3964 -2.4279 -0.0877 0.9396
14.2104 -0.9522 -0.0802 0.9446
11.7398 0.2654 -0.0661 0.9541
8.0207 2.4032 -0.0471 0.9671
5.2546 3.9873 -0.0371 0.9740
4.7987 4.3696 -0.0365 0.9744
3.7241 4.8667 -0.0345 0.9758
2.7769 5.4109 -0.0342 0.9760
2.3677 5.8487 -0.0355 0.9751
1.8134 5.9645 -0.0351 0.9754
0.1892 7.1001 -0.0400 0.9720
11.8458 0.0551 -0.0667 0.9537
10.4798 0.9896 -0.0593 0.9588
7.3437 2.7865 -0.0442 0.9691
6.7989 3.3024 -0.0426 0.9702
5.9564 3.5839 -0.0391 0.9726
5.3669 3.9227 -0.0374 0.9738
4.7413 4.1641 -0.0355 0.9751
3.2999 5.0190 -0.0338 0.9763
2.8716 5.3565 -0.0342 0.9760
0.3136 7.0286 -0.0396 0.9722
-0.3258 7.2498 -0.0409 0.9714
-1.0272 7.5961 -0.0432 0.9698
2.3255 -0.9055 -0.0141 0.9901
18.4506 -3.5926 -0.1058 0.9276
14.9464 -1.5420 -0.0846 0.9417
11.0821 0.8462 -0.0626 0.9565
7.5041 2.6944 -0.0449 0.9686
6.9429 3.2197 -0.0431 0.9699
5.4810 3.8571 -0.0377 0.9735
4.4870 4.5487 -0.0360 0.9748
2.9662 5.3022 -0.0342 0.9760
2.5651 5.7354 -0.0354 0.9752
1.5120 6.1376 -0.0356 0.9750
0.9867 6.4394 -0.0367 0.9743
-0.1975 7.3222 -0.0412 0.9711
2.3041 -0.9451 -0.0140 0.9901
11.8154 -0.3693 -0.0665 0.9538
9.6919 1.4426 -0.0552 0.9616
8.6662 2.0956 -0.0502 0.9650
7.6758 2.6014 -0.0456 0.9681
6.3887 3.5382 -0.0411 0.9712
4.5903 4.4894 -0.0361 0.9746
4.0840 4.7803 -0.0354 0.9752
3.5338 4.9761 -0.0344 0.9759
3.0608 5.2478 -0.0342 0.9760
2.6632 5.6790 -0.0353 0.9752
1.6139 6.0791 -0.0354 0.9752
0.5401 6.6959 -0.0378 0.9735
-0.0653 7.2463 -0.0408 0.9714
-0.7342 7.4277 -0.0420 0.9706
8.0085 2.3995 -0.2354 0.9671
7.1778 2.8720 -0.2177 0.9695
6.6025 3.3548 -0.2085 0.9708
5.2482 3.9825 -0.1855 0.9740
4.2783 4.6605 -0.1781 0.9750
3.7199 4.8613 -0.1724 0.9758
2.3650 5.8422 -0.1775 0.9751
0.7651 6.5582 -0.1859 0.9739
0.1890 7.0911 -0.1997 0.9720
-0.4569 7.2592 -0.2048 0.9713
17.8204 -3.1390 -0.5095 0.9302
11.8317 0.0550 -0.3332 0.9538
10.4597 0.9877 -0.2958 0.9588
5.9488 3.5794 -0.1955 0.9726
5.3604 3.9180 -0.1870 0.9738
4.3797 4.6023 -0.1789 0.9749
3.2962 5.0134 -0.1689 0.9763
2.8684 5.3506 -0.1709 0.9760
1.9656 6.0715 -0.1797 0.9748
1.4075 6.1895 -0.1787 0.9749
-0.3258 7.2499 -0.2043 0.9714
2.3258 -0.9056 -0.0703 0.9901
18.3875 -3.5803 -0.5275 0.9278
11.0603 0.8445 -0.3123 0.9566
9.4351 1.5779 -0.2694 0.9624
7.4932 2.6904 -0.2242 0.9686
5.4743 3.8524 -0.1885 0.9736
3.4347 5.0252 -0.1714 0.9759
2.9629 5.2963 -0.1709 0.9760
2.5622 5.7290 -0.1767 0.9752
2.0668 6.0134 -0.1790 0.9749
1.5103 6.1305 -0.1778 0.9751
0.9855 6.4317 -0.1832 0.9743
-0.1972 7.3126 -0.2060 0.9712
-0.8775 7.5004 -0.2126 0.9702
14.8388 -1.8006 -0.4209 0.9419
11.7876 -0.3685 -0.3321 0.9539
6.9884 3.0896 -0.2152 0.9699
6.3804 3.5336 -0.2054 0.9712
3.5298 4.9705 -0.1717 0.9759
1.0934 6.3698 -0.1820 0.9745
0.5394 6.6877 -0.1889 0.9735
-0.0652 7.2369 -0.2038 0.9715
-0.7331 7.4176 -0.2099 0.9706
-2.1591 2.4368 -0.0917 0.9871
15.3606 -2.4223 -0.7887 0.9396
10.1651 1.1443 -0.5188 0.9599
7.9962 2.3958 -0.4233 0.9671
7.1676 2.8679 -0.3915 0.9696
6.5938 3.3504 -0.3751 0.9708
5.8191 3.6452 -0.3482 0.9729
4.7876 4.3594 -0.3284 0.9744
4.2735 4.6552 -0.3205 0.9750
3.7158 4.8558 -0.3101 0.9758
3.1992 5.0615 -0.3037 0.9763
2.7708 5.3989 -0.3078 0.9760
2.3624 5.8357 -0.3193 0.9751
1.8093 5.9509 -0.3154 0.9754
1.3020 6.2419 -0.3234 0.9748
0.7642 6.5502 -0.3344 0.9739
0.1887 7.0822 -0.3593 0.9720
-10.4819 -7.8066 -0.6628 0.9490
16.0043 -2.8191 -0.8242 0.9370
14.6572 -1.2467 -0.7460 0.9428
11.8316 0.0550 -0.6000 0.9537
8.1778 2.2911 -0.4307 0.9666
7.3227 2.7786 -0.3972 0.9691
6.7807 3.2936 -0.3823 0.9703
5.3538 3.9132 -0.3363 0.9738
4.3747 4.5970 -0.3218 0.9749
3.2925 5.0079 -0.3039 0.9763
2.4611 5.7790 -0.3185 0.9752
1.4059 6.1823 -0.3215 0.9749
-1.0244 7.5748 -0.3876 0.9698
14.9462 -1.5419 -0.7620 0.9416
8.6077 2.2457 -0.4511 0.9650
7.4823 2.6865 -0.4032 0.9687
6.0658 3.5031 -0.3552 0.9723
5.4676 3.8477 -0.3391 0.9736
4.8869 4.1390 -0.3248 0.9747
4.4767 4.5383 -0.3233 0.9748
3.4309 5.0196 -0.3083 0.9759
2.9596 5.2904 -0.3074 0.9760
2.5593 5.7226 -0.3179 0.9752
2.0645 6.0067 -0.3221 0.9749
0.4347 6.9413 -0.3527 0.9725
14.8200 -1.7983 -0.7571 0.9420
11.3178 0.6601 -0.5749 0.9556
9.6573 1.4374 -0.4952 0.9616
5.5832 3.7811 -0.3420 0.9734
4.9397 4.0337 -0.3234 0.9748
4.5797 4.4790 -0.3249 0.9747
2.6384 5.6263 -0.3151 0.9754
1.6102 6.0651 -0.3182 0.9752
0.5388 6.6794 -0.3398 0.9735
-0.0652 7.2276 -0.3666 0.9715
-2.1586 2.4363 -0.1651 0.9870
-18.4476 -5.7082 -1.4159 0.9255
-16.3384 -8.4870 -1.3499 0.9288
-10.2249 -7.9045 -0.9476 0.9495
-12.8856 -11.9465 -1.2884 0.9320
-11.6604 -12.9331 -1.2768 0.9325
-10.3972 -13.8431 -1.2694 0.9329
-4.9316 -16.7597 -1.2810 0.9323
-1.9140 -17.7909 -1.3120 0.9307
1.3328 -18.5212 -1.3615 0.9282
4.8476 -18.9180 -1.4319 0.9247
14.1033 -0.9450 -1.0364 0.9449
10.1461 1.1422 -0.7486 0.9599
9.1498 1.8701 -0.6848 0.9632
5.8118 3.6406 -0.5028 0.9729
5.2356 3.9729 -0.4819 0.9740
4.7820 4.3544 -0.4742 0.9744
4.2686 4.6499 -0.4628 0.9750
3.7116 4.8504 -0.4478 0.9758
3.1956 5.0559 -0.4386 0.9763
2.7677 5.3929 -0.4445 0.9760
1.8076 5.9455 -0.4556 0.9754
1.3005 6.2346 -0.4670 0.9748
-0.4557 7.2399 -0.5319 0.9713
-18.6499 -5.4060 -1.4237 0.9251
-17.6241 -6.8690 -1.3869 0.9269
-16.5571 -8.2267 -1.3556 0.9285
-11.9091 -12.7415 -1.2788 0.9324
-8.0242 -15.2959 -1.2665 0.9331
-6.6463 -16.0035 -1.2706 0.9329
-5.2228 -16.6405 -1.2788 0.9324
-3.7507 -17.2067 -1.2913 0.9318
-0.6456 -18.1203 -1.3295 0.9299
4.4818 -18.8946 -1.4238 0.9251
15.9524 -2.8100 -1.1877 0.9371
11.8315 0.0550 -0.8675 0.9537
9.1744 1.7041 -0.6842 0.9633
8.1651 2.2876 -0.6217 0.9666
5.9337 3.5703 -0.5078 0.9726
5.3474 3.9084 -0.4856 0.9738
4.3697 4.5918 -0.4648 0.9749
3.2889 5.0023 -0.4390 0.9763
1.4042 6.1751 -0.4643 0.9749
0.3124 7.0023 -0.5139 0.9723
-0.3258 7.2501 -0.5321 0.9713
-1.0229 7.5642 -0.5597 0.9698
-17.8332 -6.5843 -1.3938 0.9266
-16.7742 -7.9625 -1.3615 0.9282
-13.3665 -11.5285 -1.2942 0.9317
-10.9085 -13.4872 -1.2719 0.9328
-8.2953 -15.1455 -1.2662 0.9331
-4.0500 -17.0989 -1.2884 0.9319
-2.5364 -17.6075 -1.3043 0.9311
-0.9673 -18.0423 -1.3248 0.9301
0.6616 -18.4002 -1.3500 0.9288
2.3553 -18.6770 -1.3803 0.9273
4.1192 -18.8674 -1.4160 0.9255
18.0585 -3.5162 -1.3490 0.9289
14.9460 -1.5419 -1.1017 0.9415
11.8036 -0.1570 -0.8655 0.9538
10.9391 0.8352 -0.8044 0.9570
9.4022 1.5724 -0.6990 0.9625
8.5334 2.2264 -0.6466 0.9652
7.4714 2.6826 -0.5821 0.9687
6.0580 3.4986 -0.5129 0.9723
4.4716 4.5331 -0.4669 0.9748
2.0621 5.9999 -0.4652 0.9749
0.9831 6.4164 -0.4760 0.9743
0.4341 6.9327 -0.5093 0.9725
-19.0491 -4.7877 -1.4402 0.9242
-18.0407 -6.2953 -1.4010 0.9262
-16.9898 -7.6943 -1.3675 0.9279
-15.8992 -8.9927 -1.3393 0.9294
-14.7706 -10.1975 -1.3160 0.9305
-12.4020 -12.3490 -1.2833 0.9322
-7.2042 -15.7282 -1.2684 0.9330
-5.7994 -16.3935 -1.2750 0.9326
-4.3472 -16.9882 -1.2857 0.9321
-1.2866 -17.9611 -1.3203 0.9303
0.3299 -18.3347 -1.3446 0.9291
5.5836 -18.9529 -1.4487 0.9238
2.3012 -0.9439 -0.1824 0.9901
19.1615 -4.0892 -1.4366 0.9244
11.7323 -0.3667 -0.8606 0.9540
7.6418 2.5899 -0.5916 0.9682
6.9882 3.0895 -0.5602 0.9698
5.5763 3.7764 -0.4938 0.9734
4.9338 4.0290 -0.4671 0.9748
4.0702 4.7641 -0.4594 0.9752
3.5220 4.9595 -0.4460 0.9759
3.0506 5.2304 -0.4440 0.9760
2.6355 5.6200 -0.4551 0.9754
2.1624 5.9424 -0.4637 0.9750
1.6083 6.0582 -0.4596 0.9752
-0.7312 7.3974 -0.5450 0.9706
-19.2459 -4.4716 -1.4487 0.9238
-18.2464 -6.0020 -1.4084 0.9259
-17.2038 -7.4221 -1.3738 0.9276
-16.1210 -8.7401 -1.3446 0.9291
-14.9999 -9.9631 -1.3203 0.9303
-12.6462 -12.1479 -1.2858 0.9321
-10.1427 -14.0143 -1.2684 0.9330
-18.6833 4.5115 -1.8452 0.9257
-18.3192 2.7206 -1.7780 0.9283
-17.8612 1.0359 -1.7177 0.9306
-17.3204 -0.5471 -1.6637 0.9327
-16.0253 -3.4254 -1.5733 0.9363
-14.4909 -5.9496 -1.5039 0.9390
-13.6465 -7.0887 -1.4763 0.9401
-12.7556 -8.1506 -1.4533 0.9410
-10.1026 -9.3664 -1.3226 0.9461
-9.1551 -10.1544 -1.3126 0.9465
-7.1501 -11.5405 -1.3034 0.9469
-1.4963 -13.9081 -1.3430 0.9453
1.0357 -14.3917 -1.3852 0.9437
2.3637 -14.5231 -1.4126 0.9426
4.0088 -15.6446 -1.5505 0.9372
5.5276 -15.6089 -1.5897 0.9356
12.0837 -14.3940 -1.8043 0.9273
14.9441 -5.2093 -1.5194 0.9384
11.3870 0.2574 -1.0935 0.9553
9.1344 1.8669 -0.8951 0.9632
5.8045 3.6360 -0.6576 0.9729
4.7764 4.3493 -0.6202 0.9744
3.1921 5.0503 -0.5736 0.9763
2.3571 5.8226 -0.6031 0.9751
1.8077 5.9457 -0.5966 0.9753
0.7624 6.5344 -0.6316 0.9739
-0.4551 7.2303 -0.6955 0.9713
-18.7439 4.8838 -1.8596 0.9251
-18.4001 3.0711 -1.7909 0.9278
-17.4351 -0.2376 -1.6740 0.9323
-16.1668 -3.1533 -1.5813 0.9360
-15.4382 -4.4750 -1.5432 0.9375
-12.9378 -7.9437 -1.4575 0.9408
-10.2882 -9.2006 -1.3251 0.9460
-9.3481 -10.0015 -1.3143 0.9465
-7.3577 -11.4128 -1.3036 0.9469
-6.3082 -12.0248 -1.3036 0.9469
-5.2223 -12.5747 -1.3072 0.9468
-4.0996 -13.0620 -1.3143 0.9465
-2.9396 -13.4857 -1.3251 0.9460
-1.7412 -13.8443 -1.3396 0.9455
-0.5036 -14.1354 -1.3579 0.9447
0.7744 -14.3562 -1.3803 0.9439
3.7099 -15.6406 -1.5432 0.9374
8.3817 -15.2915 -1.6741 0.9323
10.0355 -14.9589 -1.7294 0.9302
11.7369 -14.5017 -1.7911 0.9278
9.1587 1.7012 -0.8943 0.9633
8.1524 2.2840 -0.8128 0.9666
6.7625 3.2847 -0.7218 0.9702
3.7800 4.7603 -0.5836 0.9759
3.2852 4.9967 -0.5741 0.9763
2.4556 5.7661 -0.6017 0.9751
1.9590 6.0509 -0.6106 0.9748
0.7384 3.2470 -0.3197 0.9867
0.3098 6.9441 -0.6673 0.9725
-0.3258 7.2502 -0.6968 0.9713
-18.8002 5.2605 -1.8742 0.9245
-18.0554 1.6991 -1.7411 0.9297
-16.3058 -2.8776 -1.5896 0.9356
-14.8157 -5.4702 -1.5162 0.9385
-13.1183 -7.7338 -1.4620 0.9406
-10.4721 -9.0322 -1.3277 0.9459
-7.5638 -11.2826 -1.3041 0.9469
-6.5215 -11.9070 -1.3034 0.9469
-3.1753 -13.4059 -1.3226 0.9461
0.5148 -14.3177 -1.3755 0.9441
1.8259 -14.4797 -1.4011 0.9430
3.2172 -14.7363 -1.4481 0.9412
4.9127 -15.6347 -1.5734 0.9363
11.3919 -14.6039 -1.7782 0.9283
2.3308 -0.9076 -0.2401 0.9900
11.8035 -0.1570 -1.1333 0.9537
9.3857 1.5697 -0.9136 0.9625
8.5804 2.2386 -0.8513 0.9650
7.4605 2.6787 -0.7610 0.9686
6.9052 3.2022 -0.7307 0.9699
4.4664 4.5279 -0.6106 0.9748
3.8759 4.7051 -0.5852 0.9758
3.4232 5.0084 -0.5824 0.9759
2.9531 5.2787 -0.5807 0.9760
0.7897 3.2055 -0.3169 0.9868
-0.8739 7.4694 -0.7220 0.9702
-2.2038 2.3991 -0.3127 0.9870
-18.5502 3.7850 -1.8176 0.9267
-17.6552 0.3933 -1.6954 0.9315
-14.1603 -6.4128 -1.4924 0.9394
-9.7296 -9.6880 -1.3182 0.9463
-8.7673 -10.4505 -1.3096 0.9467
-7.7685 -11.1498 -1.3046 0.9469
-6.7335 -11.7868 -1.3032 0.9469
-5.6622 -12.3616 -1.3053 0.9468
-2.2265 -13.7084 -1.3333 0.9457
-1.0048 -14.0269 -1.3501 0.9451
0.2569 -14.2763 -1.3708 0.9442
4.6082 -15.6417 -1.5655 0.9366
6.1460 -15.5678 -1.6068 0.9350
12.7779 -14.1634 -1.8313 0.9262
14.5510 -13.4818 -1.9044 0.9234
8.7619 2.1188 -0.8654 0.9644
7.6305 2.5861 -0.7735 0.9681
5.5694 3.7718 -0.6458 0.9733
4.9280 4.0242 -0.6108 0.9748
4.0656 4.7587 -0.6009 0.9752
2.1599 5.9356 -0.6064 0.9749
0.5375 6.6630 -0.6418 0.9735
-0.7302 7.3873 -0.7127 0.9706
-18.6193 4.1486 -1.8314 0.9262
-18.2356 2.3790 -1.7655 0.9288
-17.7605 0.7148 -1.7065 0.9311
-14.3277 -6.1812 -1.4981 0.9392
-13.4738 -7.3049 -1.4714 0.9403
-10.2890 -8.2492 -1.2661 0.9484
-8.9632 -10.3027 -1.3110 0.9466
-7.9717 -11.0146 -1.3053 0.9468
-15.4500 8.5500 -2.0975 0.9313
-15.5805 6.8821 -2.0233 0.9337
-15.5869 5.2770 -1.9547 0.9359
-14.5983 -0.4611 -1.7349 0.9429
-14.1445 -1.7210 -1.6926 0.9442
-13.6231 -2.9119 -1.6548 0.9454
-12.4007 -5.0914 -1.5923 0.9474
-11.7090 -6.0823 -1.5673 0.9482
-10.5798 -6.7603 -1.4914 0.9507
-9.4873 -7.3342 -1.4244 0.9528
-7.0611 -9.4014 -1.3967 0.9537
-6.1809 -9.9762 -1.3940 0.9538
-4.3201 -10.9534 -1.3986 0.9537
-3.3410 -11.3542 -1.4059 0.9534
-2.3302 -11.6949 -1.4165 0.9531
-1.2881 -11.9736 -1.4305 0.9526
-0.2162 -12.2384 -1.4540 0.9519
0.9268 -12.8786 -1.5338 0.9493
2.1686 -13.3245 -1.6036 0.9471
3.4153 -13.3284 -1.6344 0.9461
4.6916 -13.2484 -1.6695 0.9450
7.3262 -12.8146 -1.7534 0.9423
8.6791 -12.4482 -1.8026 0.9407
11.4369 -11.3806 -1.9165 0.9371
18.1379 -4.5524 -2.2214 0.9274
12.7580 -0.8549 -1.5189 0.9498
11.5116 0.2602 -1.3678 0.9547
9.8285 1.1064 -1.1749 0.9609
8.8142 1.8015 -1.0687 0.9644
7.9596 2.3849 -0.9870 0.9671
7.1372 2.8558 -0.9131 0.9695
6.5827 3.3447 -0.8771 0.9707
5.2229 3.9633 -0.7788 0.9739
4.7257 4.3031 -0.7592 0.9746
4.2589 4.6393 -0.7481 0.9750
3.7033 4.8395 -0.7239 0.9758
3.1885 5.0446 -0.7089 0.9762
2.7615 5.3809 -0.7184 0.9759
1.8077 5.9458 -0.7382 0.9753
0.7614 6.5265 -0.7805 0.9739
0.1880 7.0554 -0.8384 0.9720
-0.4545 7.2206 -0.8594 0.9713
-14.6600 12.4083 -2.2814 0.9256
-15.5646 7.2117 -2.0377 0.9332
-15.5110 4.0414 -1.9040 0.9375
-13.1617 -3.8152 -1.6278 0.9463
-11.8517 -5.8888 -1.5720 0.9481
-11.1211 -6.8283 -1.5502 0.9488
-9.6372 -7.1776 -1.4274 0.9527
-8.0718 -8.6360 -1.4042 0.9535
-6.3602 -9.8655 -1.3943 0.9538
-5.4529 -10.3945 -1.3943 0.9538
-2.5354 -11.6315 -1.4141 0.9532
-0.4329 -12.1504 -1.4442 0.9522
4.4334 -13.2714 -1.6621 0.9452
8.4062 -12.5302 -1.7923 0.9410
9.7746 -12.0772 -1.8456 0.9393
11.1581 -11.5091 -1.9042 0.9375
12.5505 -10.8176 -1.9682 0.9354
17.9081 -4.8380 -2.2035 0.9280
15.8491 -2.7918 -1.9116 0.9372
14.5425 -1.2370 -1.7337 0.9429
11.8676 0.0552 -1.4097 0.9533
5.9186 3.5612 -0.8205 0.9726
5.3343 3.8989 -0.7849 0.9737
4.7135 4.1397 -0.7452 0.9750
2.8557 5.3268 -0.7179 0.9759
1.9567 6.0440 -0.7546 0.9747
-0.3258 7.2503 -0.8621 0.9712
-1.0201 7.5430 -0.9042 0.9698
-2.2862 2.4008 -0.3938 0.9867
-14.5498 12.7702 -2.2996 0.9250
-15.3598 9.2353 -2.1289 0.9304
-15.5365 4.3473 -1.9164 0.9371
-15.1074 1.4217 -1.8025 0.9407
-14.7599 0.0638 -1.7533 0.9423
-12.6636 -4.6756 -1.6035 0.9471
-11.2713 -6.6450 -1.5542 0.9487
-7.4045 -9.1548 -1.3986 0.9537
-4.7038 -10.7760 -1.3967 0.9537
-3.7375 -11.2006 -1.4026 0.9536
-2.7394 -11.5656 -1.4118 0.9533
-1.7098 -11.8694 -1.4245 0.9528
-0.6493 -12.1100 -1.4406 0.9523
1.6769 -13.2979 -1.5921 0.9474
5.4696 -13.1581 -1.6927 0.9442
6.7897 -12.9325 -1.7350 0.9429
10.8798 -11.6327 -1.8920 0.9379
12.2709 -10.9666 -1.9549 0.9359
2.3326 -0.9082 -0.2973 0.9900
9.1376 1.5282 -1.1005 0.9634
7.4496 2.6748 -0.9402 0.9686
6.8958 3.1978 -0.9029 0.9698
6.0424 3.4896 -0.8289 0.9723
3.4194 5.0028 -0.7198 0.9759
2.9498 5.2728 -0.7177 0.9760
0.7844 3.1839 -0.3895 0.9869
-14.9493 11.3362 -2.2286 0.9272
-15.5176 7.8783 -2.0672 0.9323
-15.5972 6.2349 -1.9953 0.9346
-15.1671 1.7024 -1.8129 0.9404
-13.9446 -2.2036 -1.6770 0.9447
-13.3980 -3.3674 -1.6410 0.9459
-12.1312 -5.4939 -1.5819 0.9478
-11.4198 -6.4591 -1.5585 0.9485
-9.1846 -7.6385 -1.4190 0.9530
-8.3978 -8.3619 -1.4077 0.9534
-6.7146 -9.6372 -1.3952 0.9538
-5.8208 -10.1892 -1.3939 0.9538
-4.8937 -10.6838 -1.3959 0.9538
-3.9339 -11.1202 -1.4011 0.9536
-0.8644 -12.0669 -1.4371 0.9524
2.6617 -13.3358 -1.6153 0.9467
5.2080 -13.1920 -1.6847 0.9445
9.2237 -12.2723 -1.8236 0.9400
11.9915 -11.1103 -1.9418 0.9363
13.3855 -10.3408 -2.0092 0.9341
14.7750 -9.4342 -2.0823 0.9318
14.9866 -7.7786 -2.0057 0.9342
17.4403 -5.3903 -2.1684 0.9291
11.7013 -0.3658 -1.3906 0.9539
10.7670 0.6279 -1.2811 0.9575
8.5075 2.0572 -1.0397 0.9654
7.6191 2.5822 -0.9556 0.9681
6.9880 3.0894 -0.9076 0.9697
6.3473 3.5153 -0.8619 0.9712
2.6296 5.6074 -0.7357 0.9754
2.1575 5.9289 -0.7495 0.9749
-0.7291 7.3772 -0.8806 0.9706
-14.3085 13.4978 -2.3366 0.9238
-14.8590 11.6936 -2.2461 0.9267
-15.2468 9.9293 -2.1613 0.9293
-15.5746 4.9672 -1.9419 0.9363
-15.4483 3.4420 -1.8800 0.9382
-15.2232 1.9860 -1.8236 0.9400
-14.9090 0.6000 -1.7724 0.9417
-14.5142 -0.7159 -1.7262 0.9431
-14.0465 -1.9621 -1.6847 0.9445
-13.5125 -3.1395 -1.6479 0.9457
-11.5663 -6.2707 -1.5628 0.9484
-7.7421 -8.8991 -1.4011 0.9536
-6.8897 -9.5196 -1.3959 0.9538
-12.9720 7.1786 -2.1007 0.9419
-13.1563 5.8113 -2.0379 0.9436
-13.2314 4.4795 -1.9793 0.9451
-13.2061 3.1889 -1.9249 0.9466
-13.0885 1.9438 -1.8748 0.9479
-12.6065 -0.3982 -1.7871 0.9503
-12.2554 -1.4911 -1.7493 0.9513
-11.8390 -2.5306 -1.7153 0.9523
-11.3623 -3.5158 -1.6852 0.9531
-10.8301 -4.4465 -1.6588 0.9538
-10.2464 -5.3226 -1.6360 0.9544
-9.6150 -6.1438 -1.6167 0.9549
-8.9388 -6.9103 -1.6009 0.9554
-6.4918 -8.6433 -1.5316 0.9573
-5.6529 -9.1239 -1.5208 0.9576
-3.9754 -10.0794 -1.5352 0.9572
-2.1970 -11.0264 -1.5930 0.9556
-0.2025 -11.4604 -1.6241 0.9547
0.8332 -11.5784 -1.6448 0.9542
1.8923 -11.6265 -1.6690 0.9535
5.1884 -11.3175 -1.7640 0.9509
6.3174 -11.0500 -1.8035 0.9499
8.5972 -10.2409 -1.8946 0.9474
10.8686 -9.0331 -2.0024 0.9445
12.1292 -6.8552 -1.9741 0.9453
13.1025 -5.9287 -2.0377 0.9436
14.0280 -4.8899 -2.1049 0.9417
14.8917 -3.7377 -2.1754 0.9399
10.0743 1.1341 -1.4364 0.9599
7.0256 2.8111 -1.0722 0.9699
5.7898 3.6268 -0.9680 0.9728
4.2540 4.6340 -0.8913 0.9749
3.6991 4.8340 -0.8625 0.9757
3.1849 5.0390 -0.8446 0.9762
2.7584 5.3748 -0.8560 0.9759
1.8078 5.9460 -0.8806 0.9752
1.2959 6.2126 -0.8992 0.9747
-1.1508 7.4947 -1.0744 0.9698
-6.2902 18.2824 -2.7395 0.9249
-8.8651 15.8345 -2.5713 0.9293
-9.9138 14.4946 -2.4882 0.9315
-12.1380 10.2737 -2.2532 0.9378
-12.5940 8.8567 -2.1815 0.9397
-13.1283 6.0829 -2.0501 0.9432
-13.2247 4.7435 -1.9907 0.9448
-13.2189 3.4442 -1.9355 0.9463
-12.6685 -0.1726 -1.7952 0.9501
-11.9275 -2.3265 -1.7218 0.9521
-10.3674 -5.1513 -1.6403 0.9543
-9.7453 -5.9835 -1.6203 0.9549
-7.5237 -8.0495 -1.5612 0.9565
-6.6617 -8.5457 -1.5353 0.9572
-5.8204 -9.0281 -1.5220 0.9575
-4.1458 -9.9827 -1.5316 0.9573
-3.2861 -10.4700 -1.5548 0.9566
-1.4125 -11.2307 -1.6038 0.9553
-0.4072 -11.4286 -1.6203 0.9549
0.6236 -11.5602 -1.6403 0.9543
2.7545 -11.6126 -1.6910 0.9529
3.8505 -11.5266 -1.7219 0.9521
4.9635 -11.3608 -1.7566 0.9511
7.2266 -10.7719 -1.8379 0.9489
9.5091 -9.8082 -1.9356 0.9463
11.7611 -8.4297 -2.0503 0.9432
12.9108 -6.1234 -2.0246 0.9439
14.5043 -1.2337 -2.0625 0.9429
8.9741 1.6669 -1.2933 0.9638
5.3278 3.8941 -0.9350 0.9737
4.7079 4.1348 -0.8878 0.9750
4.3546 4.5760 -0.8950 0.9748
3.2778 4.9855 -0.8454 0.9762
0.7359 3.2362 -0.4702 0.9867
0.3113 6.9760 -0.9894 0.9722
-0.3259 7.2504 -1.0283 0.9711
-1.0062 7.4407 -1.0639 0.9701
-3.2026 14.0626 -2.0435 0.9434
-7.3954 17.3499 -2.6723 0.9266
-12.8654 7.7355 -2.1270 0.9412
-13.2138 5.0090 -2.0023 0.9445
-12.9771 1.2212 -1.8468 0.9487
-12.4044 -1.0592 -1.7640 0.9509
-11.5604 -3.1272 -1.6969 0.9528
-11.0500 -4.0798 -1.6690 0.9535
-9.2152 -6.6095 -1.6068 0.9552
-8.5137 -7.3430 -1.5930 0.9556
-7.7003 -7.9476 -1.5680 0.9563
-5.9881 -8.9321 -1.5237 0.9575
-1.6110 -11.1832 -1.6009 0.9554
-0.6109 -11.3942 -1.6168 0.9549
0.4149 -11.5393 -1.6361 0.9544
1.4648 -11.6158 -1.6589 0.9538
4.7391 -11.4006 -1.7493 0.9513
5.8632 -11.1678 -1.7872 0.9503
6.9981 -10.8472 -1.8290 0.9492
8.1390 -10.4339 -1.8750 0.9479
10.4164 -9.3092 -1.9794 0.9451
11.5385 -8.5878 -2.0380 0.9435
2.3343 -0.9089 -0.3549 0.9899
14.5536 -4.2135 -2.1468 0.9406
14.9457 -1.5419 -2.1289 0.9411
11.8033 -0.1570 -1.6725 0.9534
10.6440 0.8127 -1.5125 0.9578
8.0829 2.1088 -1.1836 0.9668
7.2694 2.6101 -1.0944 0.9693
5.4407 3.8288 -0.9426 0.9735
4.8637 4.1194 -0.9031 0.9746
4.4561 4.5174 -0.8991 0.9747
3.8671 4.6944 -0.8618 0.9757
3.4156 4.9972 -0.8576 0.9758
2.9465 5.2669 -0.8551 0.9759
2.5479 5.6970 -0.8843 0.9751
0.4203 6.7126 -0.9530 0.9732
-0.1946 7.2138 -1.0225 0.9713
-2.9743 14.2357 -2.0606 0.9429
-8.3996 16.3539 -2.6049 0.9284
-9.5122 15.0388 -2.5213 0.9306
-10.4664 13.6686 -2.4393 0.9328
-2.2010 2.3960 -0.4610 0.9869
-11.9170 10.8442 -2.2830 0.9370
-12.4271 9.4236 -2.2098 0.9389
-12.8048 8.0154 -2.1404 0.9408
-13.0591 6.6301 -2.0751 0.9425
-12.0970 -1.9117 -1.7353 0.9517
-11.6560 -2.9296 -1.7029 0.9526
-10.6035 -4.8021 -1.6493 0.9541
-10.0004 -5.6563 -1.6279 0.9546
-8.6577 -7.2003 -1.5955 0.9555
-7.8784 -7.8448 -1.5753 0.9561
-7.0041 -8.3488 -1.5441 0.9569
-5.3207 -9.3137 -1.5198 0.9576
-2.7559 -10.7696 -1.5751 0.9561
-1.8083 -11.1332 -1.5981 0.9555
3.4087 -11.5705 -1.7091 0.9524
6.7699 -10.9187 -1.8203 0.9494
9.0520 -10.0334 -1.9147 0.9469
11.3150 -8.7413 -2.0259 0.9439
15.2151 -3.2470 -2.2044 0.9391
14.7998 -1.7958 -2.1124 0.9415
10.9436 0.6382 -1.5532 0.9567
9.4963 1.4134 -1.3603 0.9620
8.2851 2.0035 -1.2077 0.9661
6.2942 3.4858 -1.0195 0.9714
4.9239 4.0209 -0.9007 0.9746
4.5586 4.4583 -0.9035 0.9746
3.5101 4.9428 -0.8590 0.9758
3.0404 5.2129 -0.8551 0.9759
0.5361 6.6466 -0.9448 0.9734
-0.7249 7.3337 -1.0442 0.9707
-5.3938 18.9338 -2.7895 0.9235
-8.1573 16.6089 -2.6218 0.9280
-9.3019 15.3076 -2.5380 0.9302
-2.1568 2.4342 -0.4608 0.9869
-11.7980 11.1295 -2.2981 0.9366
-13.2341 4.2208 -1.9682 0.9454
-13.1899 2.9389 -1.9147 0.9469
-12.5424 -0.6186 -1.7793 0.9505
-11.7493 -2.7298 -1.7091 0.9524
-11.2613 -3.7043 -1.6797 0.9532
-10.7186 -4.6242 -1.6540 0.9539
-10.1252 -5.4894 -1.6319 0.9545
-9.4846 -6.2998 -1.6133 0.9550
-8.0583 -7.7409 -1.5832 0.9559
-7.1769 -8.2494 -1.5493 0.9568
-6.3248 -8.7391 -1.5285 0.9574
-11.1691 6.1810 -2.1030 0.9496
-11.3751 5.0245 -2.0486 0.9508
-11.4848 3.8882 -1.9975 0.9520
-11.2985 0.6553 -1.8644 0.9552
-11.0844 -0.3501 -1.8269 0.9560
-8.5525 -5.4649 -1.6720 0.9597
-7.3266 -6.7927 -1.6459 0.9603
-6.6558 -7.3823 -1.6375 0.9605
-5.9496 -7.9214 -1.6320 0.9606
-4.4392 -8.8444 -1.6303 0.9607
-2.8110 -9.5532 -1.6405 0.9604
-1.9574 -9.8238 -1.6502 0.9602
-1.0797 -10.0364 -1.6629 0.9599
-0.1800 -10.1889 -1.6788 0.9595
1.6772 -10.3049 -1.7200 0.9586
2.6299 -10.2633 -1.7454 0.9580
3.5950 -10.1516 -1.7741 0.9573
7.5047 -8.9396 -1.9228 0.9538
8.4705 -8.4288 -1.9686 0.9527
10.3434 -7.1361 -2.0701 0.9503
10.4252 -5.8921 -1.9728 0.9526
13.2169 -2.0843 -2.2042 0.9472
12.6934 -0.8505 -2.0958 0.9497
11.5646 0.2614 -1.9056 0.9542
10.0699 1.1336 -1.6694 0.9598
8.8957 1.8181 -1.4958 0.9639
7.8507 2.3522 -1.3501 0.9673
6.9525 2.7819 -1.2336 0.9701
5.6435 3.5352 -1.0971 0.9734
5.1493 3.9074 -1.0649 0.9741
4.7596 4.3339 -1.0604 0.9742
4.2491 4.6286 -1.0351 0.9748
2.3325 5.7618 -1.0240 0.9751
0.7499 6.4275 -1.0660 0.9741
-3.6383 14.7480 -2.5024 0.9403
-5.1964 15.1032 -2.6312 0.9373
-6.3593 14.2067 -2.5642 0.9389
-8.3226 12.1682 -2.4286 0.9420
-9.1188 11.0624 -2.3617 0.9435
-11.4702 4.1142 -2.0075 0.9518
-11.5074 2.9983 -1.9590 0.9529
-11.4597 1.9127 -1.9140 0.9540
-11.3329 0.8616 -1.8724 0.9550
-11.1328 -0.1517 -1.8342 0.9559
-10.8648 -1.1245 -1.7994 0.9567
-10.5338 -2.0546 -1.7680 0.9574
-10.1444 -2.9405 -1.7400 0.9581
-9.7008 -3.7809 -1.7152 0.9587
-8.0819 -6.0192 -1.6601 0.9600
-7.4567 -6.6684 -1.6480 0.9603
-2.1306 -9.7742 -1.6480 0.9603
0.5538 -10.2662 -1.6937 0.9592
2.4378 -10.2772 -1.7400 0.9581
4.3732 -10.0097 -1.7995 0.9567
5.3519 -9.7638 -1.8343 0.9559
7.3096 -9.0315 -1.9141 0.9540
8.2779 -8.5383 -1.9591 0.9529
10.1605 -7.2824 -2.0594 0.9506
11.8032 -4.3535 -2.0725 0.9503
13.1035 -2.3081 -2.1919 0.9475
11.8674 0.0552 -1.9551 0.9530
9.1114 1.6924 -1.5267 0.9631
6.3644 3.0914 -1.1656 0.9717
4.7642 4.1843 -1.0446 0.9746
4.3496 4.5707 -1.0394 0.9747
3.2913 5.0060 -0.9870 0.9760
2.8493 5.3148 -0.9934 0.9758
1.9384 5.9874 -1.0368 0.9748
1.3957 6.1375 -1.0369 0.9748
0.8606 6.3794 -1.0605 0.9742
-0.2856 6.3536 -1.0477 0.9745
-0.9925 7.3394 -1.2201 0.9704
-3.1816 13.9704 -2.3604 0.9436
-7.2031 13.4257 -2.5100 0.9401
-8.1481 12.3842 -2.4421 0.9417
-8.9690 11.2875 -2.3751 0.9432
-10.2449 8.9919 -2.2456 0.9462
-11.4758 2.1278 -1.9227 0.9538
-11.1786 0.0483 -1.8416 0.9557
-10.9237 -0.9327 -1.8061 0.9565
-8.2024 -5.8831 -1.6629 0.9599
-7.5852 -6.5422 -1.6502 0.9602
-6.2369 -7.7113 -1.6339 0.9606
-4.7520 -8.6762 -1.6296 0.9607
-3.1463 -9.4288 -1.6375 0.9605
-2.3028 -9.7222 -1.6459 0.9603
-1.4345 -9.9582 -1.6574 0.9600
-0.5434 -10.1351 -1.6720 0.9597
0.3686 -10.2507 -1.6898 0.9593
1.2992 -10.3026 -1.7107 0.9588
3.2066 -10.2050 -1.7622 0.9576
6.1358 -9.5106 -1.8645 0.9552
8.0848 -8.6443 -1.9498 0.9532
10.9014 -5.4121 -2.0050 0.9519
2.3360 -0.9096 -0.4130 0.9899
12.3571 -3.5776 -2.1193 0.9492
11.8032 -0.1570 -1.9446 0.9533
10.6228 0.8111 -1.7551 0.9577
9.3362 1.5614 -1.5594 0.9624
7.2899 2.6174 -1.2760 0.9691
6.4984 3.0136 -1.1801 0.9714
4.8602 4.1164 -1.0492 0.9745
4.4509 4.5122 -1.0441 0.9746
3.4117 4.9916 -0.9960 0.9758
2.9431 5.2609 -0.9931 0.9759
0.9701 6.3312 -1.0552 0.9744
0.4115 6.5705 -1.0845 0.9737
-2.9640 14.1863 -2.3875 0.9429
-4.6978 15.4335 -2.6577 0.9367
-5.9069 14.5780 -2.5912 0.9382
-6.9987 13.6264 -2.5236 0.9398
-8.8143 11.5111 -2.3884 0.9429
-10.1385 9.2258 -2.2582 0.9459
-10.6233 8.0557 -2.1963 0.9474
-11.2631 5.7183 -2.0809 0.9501
-11.4887 2.3442 -1.9316 0.9536
-11.2215 0.2500 -1.8491 0.9555
-10.9801 -0.7393 -1.8130 0.9564
-10.6738 -1.6868 -1.7802 0.9571
-9.4109 -4.2620 -1.7019 0.9590
-8.8886 -5.0274 -1.6823 0.9594
-7.7122 -6.4140 -1.6525 0.9602
-7.0638 -7.0336 -1.6422 0.9604
-6.3786 -7.6032 -1.6349 0.9606
-5.6588 -8.1219 -1.6307 0.9607
-4.9066 -8.5889 -1.6295 0.9607
-4.1238 -9.0030 -1.6313 0.9607
-3.3123 -9.3631 -1.6362 0.9605
-1.6105 -9.9156 -1.6549 0.9601
0.1841 -10.2325 -1.6860 0.9594
1.1112 -10.2974 -1.7062 0.9589
3.0130 -10.2274 -1.7564 0.9577
4.9588 -9.8718 -1.8199 0.9562
7.8910 -8.7466 -1.9406 0.9534
8.8509 -8.2006 -1.9877 0.9523
10.6940 -6.8284 -2.0902 0.9499
13.4315 -1.6298 -2.2289 0.9466
11.6836 -0.3652 -1.9257 0.9537
7.4681 2.5310 -1.2990 0.9685
5.9823 3.3131 -1.1266 0.9727
5.4447 3.6873 -1.0833 0.9737
4.9565 4.0475 -1.0542 0.9744
4.0517 4.7425 -1.0276 0.9750
3.0370 5.2070 -0.9930 0.9759
2.6237 5.5948 -1.0180 0.9753
2.1374 5.8736 -1.0297 0.9750
0.8103 3.0523 -0.5203 0.9873
-0.6222 6.2947 -1.0420 0.9747
-5.6737 14.7578 -2.6047 0.9379
-7.7839 12.8096 -2.4693 0.9410
-2.1574 2.4349 -0.5359 0.9869
-10.0273 9.4592 -2.2709 0.9457
-10.9302 7.1181 -2.1488 0.9485
-11.2178 5.9509 -2.0919 0.9498
-11.4042 4.7979 -2.0382 0.9511
-11.4956 3.6663 -1.9878 0.9523
-11.4183 1.4896 -1.8970 0.9544
-11.0339 -0.5442 -1.8199 0.9562
-10.7402 -1.5002 -1.7865 0.9570
-10.3854 -2.4129 -1.7565 0.9577
-9.5099 -4.1028 -1.7062 0.9589
-8.4385 -5.6050 -1.6689 0.9598
-7.8376 -6.2837 -1.6549 0.9601
-7.1968 -6.9133 -1.6440 0.9604
-5.8058 -8.0220 -1.6313 0.9607
-10.1367 3.4318 -2.0115 0.9574
-10.1826 2.4588 -1.9689 0.9583
-10.0508 0.5829 -1.8923 0.9599
-9.0181 -2.7904 -1.7743 0.9623
-8.1817 -4.2501 -1.7330 0.9632
-6.6030 -6.1218 -1.6925 0.9640
-6.0015 -6.6566 -1.6846 0.9642
-4.7001 -7.5860 -1.6774 0.9643
-1.7636 -8.8513 -1.6964 0.9639
-0.1619 -9.1646 -1.7229 0.9634
1.5049 -9.2461 -1.7608 0.9626
4.9424 -8.6451 -1.8717 0.9603
5.8022 -8.3219 -1.9069 0.9596
6.6529 -7.9250 -1.9449 0.9588
8.3038 -6.9014 -2.0295 0.9570
9.0904 -6.2716 -2.0758 0.9560
9.1326 -5.1616 -1.9718 0.9582
9.7875 -4.4287 -2.0192 0.9572
11.4122 -1.7997 -2.1715 0.9541
11.5395 0.2608 -2.1695 0.9541
10.0507 1.1315 -1.9011 0.9597
7.0976 2.8399 -1.4369 0.9694
6.3232 3.2129 -1.3331 0.9715
4.7539 4.3288 -1.2085 0.9742
4.2441 4.6233 -1.1796 0.9748
3.5884 4.6895 -1.1099 0.9763
3.1343 4.9589 -1.1027 0.9764
2.2173 5.4772 -1.1107 0.9762
1.2571 6.0263 -1.1571 0.9753
0.7384 6.3288 -1.1976 0.9744
-1.9928 12.9778 -2.4679 0.9480
-3.0846 12.5033 -2.4206 0.9489
-4.1035 11.9267 -2.3707 0.9500
-5.0410 11.2615 -2.3191 0.9510
-7.1642 10.4745 -2.3853 0.9497
-8.4938 8.6051 -2.2726 0.9520
-9.7441 5.6231 -2.1146 0.9552
-10.1178 3.6291 -2.0204 0.9572
-10.1644 1.6965 -1.9369 0.9589
-10.0767 0.7661 -1.8995 0.9597
-9.7024 -1.0042 -1.8334 0.9611
-9.0912 -2.6353 -1.7791 0.9622
-8.7066 -3.3934 -1.7564 0.9627
-6.7194 -6.0091 -1.6944 0.9640
-6.1249 -6.5530 -1.6860 0.9642
-4.8361 -7.5014 -1.6776 0.9643
-4.1462 -7.9037 -1.6776 0.9643
-1.9199 -8.8077 -1.6944 0.9640
-0.3258 -9.1434 -1.7197 0.9634
0.4977 -9.2259 -1.7366 0.9631
1.3354 -9.2489 -1.7564 0.9627
2.1847 -9.2102 -1.7792 0.9622
3.0424 -9.1076 -1.8049 0.9617
4.7694 -8.7012 -1.8651 0.9604
5.6304 -8.3926 -1.8996 0.9597
8.9353 -6.4043 -2.0663 0.9562
10.8330 -2.9266 -2.1092 0.9554
11.3229 -1.9945 -2.1610 0.9543
11.7351 -0.9982 -2.2137 0.9532
11.8673 0.0552 -2.2306 0.9528
10.3193 0.9745 -1.9482 0.9587
7.2594 2.7545 -1.4594 0.9689
5.7818 3.4789 -1.2683 0.9729
5.1760 3.7832 -1.2050 0.9742
2.7708 5.1685 -1.1023 0.9764
2.3099 5.4241 -1.1081 0.9763
1.8427 5.6917 -1.1245 0.9759
0.8447 6.2615 -1.1876 0.9746
-1.0130 7.4909 -1.4208 0.9697
-4.8598 11.4014 -2.3296 0.9508
-7.7444 9.7463 -2.3398 0.9506
-9.3475 6.8276 -2.1757 0.9540
-9.9351 4.8218 -2.0757 0.9560
-10.0957 3.8271 -2.0294 0.9570
-10.1736 2.8467 -1.9857 0.9579
-10.1734 1.8863 -1.9448 0.9588
-9.9576 0.0431 -1.8717 0.9603
-9.7511 -0.8326 -1.8395 0.9610
-8.7877 -3.2445 -1.7607 0.9626
-8.3644 -3.9705 -1.7403 0.9630
-7.3848 -5.2967 -1.7082 0.9637
-6.8343 -5.8946 -1.6964 0.9639
-6.2469 -6.4476 -1.6874 0.9641
-5.6250 -6.9547 -1.6813 0.9642
-3.5748 -8.1897 -1.6796 0.9643
-2.0753 -8.7620 -1.6925 0.9640
-0.4890 -9.1198 -1.7166 0.9635
0.3313 -9.2140 -1.7330 0.9632
2.0136 -9.2230 -1.7744 0.9623
2.8699 -9.1334 -1.7995 0.9618
3.7320 -8.9780 -1.8275 0.9612
4.5962 -8.7544 -1.8585 0.9606
5.4582 -8.4603 -1.8924 0.9599
7.9799 -7.1317 -2.0116 0.9574
2.3394 -0.9109 -0.4719 0.9898
10.7262 -3.1054 -2.0989 0.9556
11.6592 -1.2028 -2.2031 0.9534
11.8031 -0.1570 -2.2187 0.9531
6.6189 3.0694 -1.3714 0.9707
5.2922 3.7243 -1.2163 0.9740
4.7470 4.0205 -1.1693 0.9750
4.4457 4.5069 -1.1899 0.9746
3.7746 4.5822 -1.1159 0.9761
3.3153 4.8505 -1.1043 0.9764
1.9375 5.6374 -1.1204 0.9760
0.7503 3.0454 -0.5895 0.9873
0.9502 6.2013 -1.1792 0.9748
-0.1871 6.9348 -1.3039 0.9722
-3.7042 12.1693 -2.3910 0.9495
-4.6752 11.5381 -2.3400 0.9506
-6.8487 10.8277 -2.4081 0.9492
-7.6049 9.9317 -2.3512 0.9504
-9.2680 7.0280 -2.1862 0.9538
-9.6265 6.0259 -2.1347 0.9548
-9.8925 5.0225 -2.0853 0.9558
-10.0703 4.0256 -2.0385 0.9568
-10.1644 3.0419 -1.9942 0.9577
-10.1203 1.1359 -1.9142 0.9594
-9.9915 0.2226 -1.8785 0.9601
-9.7975 -0.6597 -1.8457 0.9608
-9.2312 -2.3201 -1.7891 0.9620
-8.4530 -3.8282 -1.7442 0.9629
-7.9933 -4.5210 -1.7261 0.9633
-6.9478 -5.7782 -1.6985 0.9639
-6.3676 -6.3404 -1.6890 0.9641
-5.7524 -6.8568 -1.6823 0.9642
-5.1046 -7.3264 -1.6784 0.9643
-0.6515 -9.0940 -1.7137 0.9636
0.9978 -9.2469 -1.7481 0.9629
1.8428 -9.2332 -1.7697 0.9624
2.6976 -9.1566 -1.7942 0.9619
5.2857 -8.5250 -1.8854 0.9600
6.1425 -8.1728 -1.9217 0.9592
6.9881 -7.7458 -1.9608 0.9584
7.8165 -7.2421 -2.0029 0.9576
8.6210 -6.6601 -2.0476 0.9566
9.3990 -4.8785 -1.9904 0.9578
2.2977 -0.9425 -0.4668 0.9899
11.1352 -2.3763 -2.1401 0.9547
11.5798 -1.4051 -2.1925 0.9536
10.8988 0.6356 -2.0520 0.9565
9.5535 1.4220 -1.8155 0.9615
8.4778 2.0501 -1.6394 0.9651
6.7739 2.9948 -1.3921 0.9703
5.4108 3.6644 -1.2283 0.9738
4.8503 3.9607 -1.1770 0.9748
4.5479 4.4479 -1.1957 0.9744
3.4055 4.7955 -1.1055 0.9763
2.4950 5.3204 -1.1045 0.9764
0.8044 3.0297 -0.5892 0.9873
1.0543 6.1420 -1.1713 0.9750
-4.4871 11.6715 -2.3503 0.9504
-5.3902 10.9750 -2.2982 0.9515
-6.6849 11.0009 -2.4196 0.9490
-8.7103 8.2168 -2.2507 0.9524
-9.1846 7.2281 -2.1968 0.9535
-9.5621 6.2272 -2.1448 0.9546
-9.8464 5.2234 -2.0950 0.9556
-10.0415 4.2246 -2.0476 0.9566
-10.1520 3.2378 -2.0029 0.9576
-10.1826 2.2688 -1.9609 0.9584
-10.1379 1.3226 -1.9217 0.9592
-9.8414 -0.4854 -1.8520 0.9607
-8.5398 -3.6842 -1.7482 0.9629
-8.0890 -4.3855 -1.7295 0.9632
-7.5947 -5.0445 -1.7137 0.9636
-6.4868 -6.2313 -1.6907 0.9641
-5.8785 -6.7569 -1.6834 0.9642
-5.2370 -7.2360 -1.6789 0.9643
-8.4263 5.7025 -2.1507 0.9593
-8.7176 4.8243 -2.1061 0.9601
-8.9290 3.9441 -2.0633 0.9609
-9.1253 2.2035 -1.9843 0.9623
-9.0437 0.5245 -1.9149 0.9636
-8.9080 -0.2814 -1.8839 0.9642
-8.7141 -1.0603 -1.8556 0.9647
-8.1654 -2.5266 -1.8067 0.9657
-7.4245 -3.8567 -1.7685 0.9664
-6.9897 -4.4663 -1.7533 0.9667
-4.2778 -6.9044 -1.7169 0.9673
-3.6446 -7.2614 -1.7174 0.9673
-2.3053 -7.8345 -1.7263 0.9672
-0.1470 -8.3209 -1.7591 0.9665
0.6029 -8.3773 -1.7754 0.9662
2.1322 -8.3211 -1.8157 0.9655
4.4520 -7.7873 -1.8961 0.9640
5.9697 -7.1111 -1.9626 0.9628
6.7053 -6.6723 -1.9995 0.9621
7.4178 -6.1651 -2.0388 0.9613
8.1008 -5.5889 -2.0803 0.9606
8.6765 -3.9260 -2.0131 0.9618
9.1870 -3.2024 -2.0565 0.9610
9.6411 -2.4198 -2.1011 0.9602
10.0308 -1.5818 -2.1465 0.9593
10.3478 -0.6934 -2.1922 0.9585
7.0962 2.8394 -1.6156 0.9692
5.1522 3.9096 -1.3671 0.9739
4.7482 4.3236 -1.3574 0.9741
3.6105 4.7184 -1.2559 0.9760
3.1461 4.9776 -1.2447 0.9762
0.9413 3.0959 -0.6840 0.9869
0.6712 3.2177 -0.6948 0.9867
-4.3946 9.8177 -2.2737 0.9570
-5.1504 9.1994 -2.2286 0.9578
-5.8301 8.5240 -2.1829 0.9587
-6.9301 8.4071 -2.3030 0.9564
-7.9674 6.7436 -2.2064 0.9582
-9.1186 2.3759 -1.9918 0.9622
-9.1243 1.5229 -1.9554 0.9629
-9.0635 0.6891 -1.9214 0.9635
-8.9400 -0.1218 -1.8899 0.9641
-8.5195 -1.6617 -1.8348 0.9651
-8.2295 -2.3855 -1.8112 0.9656
-7.8909 -3.0755 -1.7902 0.9660
-6.6137 -4.9257 -1.7431 0.9668
-6.1102 -5.4642 -1.7327 0.9670
-5.0017 -6.4163 -1.7197 0.9673
-4.4015 -6.8274 -1.7171 0.9673
-3.7737 -7.1935 -1.7171 0.9673
-2.4436 -7.7857 -1.7249 0.9672
-1.0291 -8.1821 -1.7432 0.9668
-0.2958 -8.3030 -1.7562 0.9666
0.4515 -8.3704 -1.7719 0.9663
1.2103 -8.3824 -1.7902 0.9660
1.9776 -8.3372 -1.8112 0.9656
3.5249 -8.0681 -1.8611 0.9646
4.2977 -7.8406 -1.8900 0.9641
5.0642 -7.5487 -1.9215 0.9635
9.0889 -3.3524 -2.0477 0.9612
9.5550 -2.5814 -2.0921 0.9603
9.9582 -1.7541 -2.1374 0.9595
10.2905 -0.8753 -2.1830 0.9587
10.2990 0.9726 -2.1867 0.9586
7.2487 2.7505 -1.6388 0.9688
6.5277 3.1707 -1.5340 0.9708
5.8880 3.5428 -1.4525 0.9723
5.2690 3.8512 -1.3795 0.9737
4.3394 4.5600 -1.3306 0.9746
3.7054 4.6664 -1.2595 0.9759
2.7808 5.1871 -1.2441 0.9762
2.3237 5.4565 -1.2536 0.9760
0.7137 3.1384 -0.6803 0.9869
0.3007 6.7393 -1.4260 0.9728
-4.2343 9.9338 -2.2826 0.9568
-5.7000 8.6635 -2.1921 0.9585
-6.8070 8.5666 -2.3129 0.9563
-2.2646 2.3782 -0.6942 0.9867
-7.8789 6.9152 -2.2159 0.9580
-8.2864 6.0526 -2.1691 0.9589
-8.6105 5.1772 -2.1238 0.9598
-9.1286 1.6926 -1.9625 0.9628
-9.0809 0.8546 -1.9280 0.9634
-8.9696 0.0388 -1.8960 0.9640
-8.5715 -1.5127 -1.8398 0.9650
-7.9626 -2.9399 -1.7942 0.9659
-7.5873 -3.6016 -1.7753 0.9662
-5.6826 -5.8652 -1.7262 0.9672
-4.5242 -6.7485 -1.7174 0.9673
-3.9017 -7.1237 -1.7169 0.9673
-3.2533 -7.4530 -1.7190 0.9673
-1.8873 -7.9683 -1.7309 0.9671
-1.1742 -8.1515 -1.7408 0.9669
-0.4441 -8.2830 -1.7534 0.9667
1.0573 -8.3845 -1.7863 0.9660
4.9112 -7.6125 -1.9149 0.9636
7.8309 -5.8283 -2.0634 0.9609
8.4577 -4.1990 -1.9960 0.9621
9.4662 -2.7406 -2.0831 0.9605
9.8828 -1.9243 -2.1283 0.9597
10.2299 -1.0554 -2.1739 0.9588
10.5802 0.8078 -2.2429 0.9575
6.6649 3.0908 -1.5529 0.9704
4.8167 4.0796 -1.3343 0.9745
2.4158 5.4016 -1.2508 0.9761
1.9526 5.6811 -1.2698 0.9757
0.4172 6.6619 -1.4110 0.9731
-3.2165 10.5671 -2.3349 0.9558
-5.5668 8.8011 -2.2013 0.9583
-6.6806 8.7245 -2.3227 0.9561
-8.2115 6.2268 -2.1784 0.9587
-8.5521 5.3533 -2.1327 0.9596
-8.8112 4.4735 -2.0888 0.9604
-9.0968 2.7224 -2.0071 0.9619
-8.9968 0.2004 -1.9022 0.9639
-8.8375 -0.5951 -1.8723 0.9644
-8.6214 -1.3624 -1.8450 0.9649
-8.0324 -2.8029 -1.7983 0.9658
-7.2562 -4.1041 -1.7622 0.9665
-6.3164 -5.2531 -1.7366 0.9670
-5.7919 -5.7671 -1.7277 0.9671
-5.2342 -6.2391 -1.7215 0.9673
-1.3187 -8.1189 -1.7387 0.9669
0.1502 -8.3499 -1.7653 0.9664
0.9048 -8.3843 -1.7826 0.9661
1.6690 -8.3623 -1.8025 0.9657
2.4400 -8.2821 -1.8251 0.9653
3.9882 -7.9395 -1.8781 0.9643
4.7578 -7.6736 -1.9085 0.9638
5.5184 -7.3424 -1.9415 0.9631
6.2651 -6.9444 -1.9770 0.9625
7.6938 -5.9438 -2.0551 0.9610
9.3751 -2.8976 -2.0742 0.9607
10.6537 0.6213 -2.2558 0.9573
6.1363 3.3984 -1.4827 0.9717
5.5100 3.7315 -1.4066 0.9732
4.9270 4.0234 -1.3446 0.9743
4.5425 4.4426 -1.3431 0.9744
4.0423 4.7315 -1.3154 0.9749
3.4240 4.8215 -1.2500 0.9761
2.9638 5.0815 -1.2435 0.9762
2.5076 5.3472 -1.2484 0.9761
0.7984 3.0074 -0.6577 0.9874
0.5313 6.5864 -1.3968 0.9733
-0.6202 6.2752 -1.3329 0.9745
-3.0373 10.6617 -2.3433 0.9557
-3.9051 10.1576 -2.3003 0.9565
-4.7046 9.5789 -2.2558 0.9573
-2.1585 2.4361 -0.6880 0.9868
-7.6915 7.2557 -2.2351 0.9577
-8.1331 6.4006 -2.1877 0.9586
-8.4904 5.5293 -2.1417 0.9594
-8.7656 4.6501 -2.0975 0.9602
-9.0816 2.8964 -2.0149 0.9618
-9.1291 2.0341 -1.9770 0.9625
-8.4100 -1.9540 -1.8251 0.9653
-7.3417 -3.9804 -1.7653 0.9664
-6.8989 -4.5823 -1.7507 0.9667
-6.4174 -5.1451 -1.7387 0.9669
-5.8998 -5.6674 -1.7293 0.9671
-5.3486 -6.1479 -1.7225 0.9672
-7.5666 5.1207 -2.1473 0.9632
-7.8447 4.3412 -2.1072 0.9638
-8.2664 1.2277 -1.9641 0.9662
-8.2128 0.4763 -1.9334 0.9668
-8.1017 -0.2559 -1.9050 0.9672
-7.7192 -1.6500 -1.8552 0.9681
-7.4539 -2.3065 -1.8338 0.9684
-7.1433 -2.9328 -1.8148 0.9688
-5.9668 -4.6127 -1.7725 0.9695
-5.0044 -5.5507 -1.7565 0.9698
-4.4771 -5.9609 -1.7521 0.9698
-3.3414 -6.6573 -1.7507 0.9699
-0.8087 -7.5173 -1.7769 0.9694
1.2455 -7.6526 -1.8222 0.9686
2.6482 -7.4780 -1.8645 0.9679
4.0467 -7.0782 -1.9162 0.9671
4.7345 -6.7906 -1.9456 0.9666
6.0647 -6.0348 -2.0108 0.9655
7.2986 -5.0354 -2.0840 0.9642
8.2241 -2.8668 -2.0469 0.9648
8.6111 -2.1613 -2.0866 0.9642
8.9385 -1.4096 -2.1267 0.9635
9.1997 -0.6164 -2.1670 0.9628
7.8978 2.3663 -1.9377 0.9667
7.0859 2.8352 -1.7937 0.9691
6.3849 3.2442 -1.6832 0.9710
5.7600 3.6082 -1.5974 0.9725
5.1908 3.9389 -1.5314 0.9736
4.2342 4.6124 -1.4715 0.9746
3.1985 5.0604 -1.4070 0.9757
0.9390 3.0885 -0.7587 0.9868
0.6670 3.1975 -0.7677 0.9867
0.7568 6.4863 -1.5348 0.9735
0.1816 6.8129 -1.6018 0.9724
-1.5160 9.8728 -2.3475 0.9598
-2.3574 9.5556 -2.3131 0.9604
-3.8910 8.6925 -2.2383 0.9616
-7.5020 5.2757 -2.1555 0.9630
-8.0155 3.7139 -2.0762 0.9644
-8.1665 2.9292 -2.0391 0.9650
-8.2504 2.1497 -2.0038 0.9656
-8.1284 -0.1108 -1.9105 0.9671
-7.9735 -0.8252 -1.8840 0.9676
-7.5108 -2.1772 -1.8379 0.9684
-6.8642 -3.4106 -1.8014 0.9690
-6.0560 -4.5103 -1.7747 0.9694
-5.5977 -5.0060 -1.7649 0.9696
-5.1067 -5.4636 -1.7576 0.9697
-2.8604 -6.8876 -1.7528 0.9698
-1.5994 -7.3374 -1.7650 0.9696
0.4129 -7.6539 -1.8015 0.9690
1.8049 -7.6091 -1.8379 0.9684
2.5073 -7.5055 -1.8598 0.9680
3.2094 -7.3459 -1.8840 0.9676
3.9075 -7.1288 -1.9106 0.9671
4.5975 -6.8530 -1.9395 0.9667
5.2749 -6.5176 -1.9706 0.9661
7.1806 -5.1466 -2.0763 0.9644
8.5380 -2.3066 -2.0786 0.9643
9.1529 -0.7785 -2.1589 0.9630
9.0635 1.6835 -2.1666 0.9628
7.2379 2.7464 -1.8194 0.9687
6.5186 3.1663 -1.7032 0.9707
5.8803 3.5382 -1.6129 0.9722
5.3013 3.8748 -1.5433 0.9734
4.3342 4.5546 -1.4776 0.9745
3.2800 4.9888 -1.4032 0.9758
2.8270 5.2734 -1.4062 0.9757
1.0790 3.3328 -0.8233 0.9857
0.8666 6.4238 -1.5234 0.9737
-1.0128 7.4892 -1.7762 0.9694
-2.1922 9.6258 -2.3202 0.9602
-2.9963 9.2448 -2.2840 0.9609
-4.4393 8.2743 -2.2069 0.9622
-5.0676 7.7023 -2.1669 0.9628
-5.6292 7.0844 -2.1266 0.9635
-2.2597 2.3731 -0.7701 0.9866
-7.0532 6.1905 -2.2056 0.9622
-7.4345 5.4303 -2.1637 0.9629
-8.1417 3.0863 -2.0464 0.9649
-8.2388 2.3053 -2.0107 0.9655
-8.2414 0.7756 -1.9455 0.9666
-6.5593 -3.8670 -1.7896 0.9692
-5.6923 -4.9096 -1.7667 0.9696
0.2750 -7.6468 -1.7983 0.9690
1.6643 -7.6233 -1.8338 0.9684
2.3663 -7.5307 -1.8552 0.9681
3.0688 -7.3824 -1.8790 0.9677
3.7680 -7.1770 -1.9051 0.9672
7.0611 -5.2554 -2.0687 0.9645
2.3492 -0.9147 -0.5925 0.9897
8.8148 -1.7163 -2.1106 0.9638
9.3216 -0.1240 -2.1910 0.9624
6.0029 3.4668 -1.6292 0.9719
4.4352 4.4962 -1.4843 0.9744
3.8653 4.6923 -1.4288 0.9753
3.3865 4.9547 -1.4105 0.9756
1.9857 5.7776 -1.4358 0.9752
0.7384 2.9971 -0.7254 0.9874
-2.0252 9.6927 -2.3272 0.9601
-3.6013 8.8877 -2.2538 0.9614
-4.3055 8.3827 -2.2148 0.9620
-4.9469 7.8210 -2.1749 0.9627
-5.5221 7.2116 -2.1347 0.9634
-2.1951 2.3897 -0.7626 0.9868
-6.9677 6.3405 -2.2141 0.9620
-7.6861 4.8112 -2.1311 0.9634
-8.1142 3.2436 -2.0537 0.9647
-8.2696 1.6874 -1.9836 0.9659
-8.0420 -0.5415 -1.8943 0.9674
-7.8556 -1.2414 -1.8692 0.9678
-7.6191 -1.9150 -1.8464 0.9682
-7.0075 -3.1736 -1.8080 0.9689
-6.6382 -3.7546 -1.7924 0.9691
-5.7856 -4.8117 -1.7685 0.9696
-3.6937 -6.4657 -1.7501 0.9699
-3.1035 -6.7756 -1.7515 0.9698
-2.4910 -7.0415 -1.7554 0.9698
-1.8583 -7.2620 -1.7617 0.9697
