ply
format ascii 1.0
element vertex 1583
property float32 x
property float32 y
property float32 z
property float32 I
end_header
18.7306 -3.6964 -1.8329 0.9262
10.8637 0.7972 -1.0458 0.9572
8.6655 2.2310 -0.8591 0.9647
7.5227 2.6725 -0.7664 0.9684
6.0876 3.4862 -0.6735 0.9722
4.8988 4.1163 -0.6143 0.9746
3.8503 4.6344 -0.5784 0.9761
0.8066 3.2067 -0.3174 0.9868
-0.1562 7.2038 -0.6918 0.9715
-2.1797 2.4035 -0.3115 0.9870
-18.8652 5.7940 -1.8946 0.9238
-18.5541 3.9278 -1.8208 0.9266
-18.1434 2.1739 -1.7543 0.9292
-16.4257 -2.4632 -1.5946 0.9354
-15.7203 -3.8173 -1.5531 0.9371
-14.9594 -5.0836 -1.5168 0.9385
-10.2228 -8.3525 -1.2674 0.9483
-9.7451 -9.5333 -1.3088 0.9467
-8.7931 -10.2921 -1.2996 0.9471
-6.7835 -11.6233 -1.2920 0.9474
-1.1324 -13.8719 -1.3362 0.9456
0.1118 -14.1279 -1.3564 0.9448
1.3969 -14.3136 -1.3807 0.9438
4.3954 -15.5180 -1.5484 0.9372
5.9148 -15.4611 -1.5893 0.9356
10.7701 -14.6640 -1.7467 0.9295
14.2529 -13.5083 -1.8853 0.9241
17.5566 -9.3754 -1.9108 0.9231
2.3027 -0.9766 -0.2401 0.9900
15.0200 -2.0098 -1.4548 0.9409
12.1827 -0.5321 -1.1707 0.9522
11.1917 0.5120 -1.0756 0.9560
9.8753 1.3421 -0.9568 0.9607
8.9829 2.0507 -0.8846 0.9637
5.6638 3.7263 -0.6509 0.9731
5.0958 4.0478 -0.6248 0.9742
4.6460 4.4215 -0.6157 0.9746
4.1368 4.7091 -0.6018 0.9751
3.5844 4.9015 -0.5830 0.9759
2.2141 5.8234 -0.5981 0.9753
1.6788 5.9740 -0.5958 0.9754
1.1689 6.2603 -0.6114 0.9747
0.6270 6.5643 -0.6331 0.9738
0.0412 7.0428 -0.6762 0.9721
-18.6612 4.4908 -1.8427 0.9258
-15.1995 -4.7024 -1.5275 0.9381
-14.4030 -5.9105 -1.4947 0.9394
-13.5587 -7.0377 -1.4666 0.9405
-10.2208 -7.8917 -1.2397 0.9494
-8.1138 -10.7804 -1.2954 0.9472
-4.9736 -12.5583 -1.2968 0.9472
-3.8556 -13.0283 -1.3044 0.9469
-1.5078 -13.7793 -1.3308 0.9458
-0.2759 -14.0564 -1.3497 0.9451
0.9964 -14.2641 -1.3728 0.9442
3.9368 -15.5168 -1.5369 0.9377
5.4413 -15.4888 -1.5761 0.9362
6.9946 -15.3646 -1.6207 0.9344
10.2506 -14.7940 -1.7279 0.9302
10.2834 1.1101 -0.9930 0.9593
8.0609 2.3728 -0.8067 0.9668
6.6805 3.3516 -0.7175 0.9704
4.7154 4.2463 -0.6092 0.9748
4.2913 4.6219 -0.6055 0.9750
3.7086 4.7887 -0.5815 0.9760
3.2144 5.0194 -0.5722 0.9763
2.3816 5.7797 -0.6001 0.9752
1.8843 6.0593 -0.6092 0.9748
0.2317 6.9361 -0.6663 0.9725
-0.4039 7.2098 -0.6933 0.9714
-1.1026 7.5328 -0.7309 0.9699
-2.2938 2.3613 -0.3160 0.9869
-18.7585 5.0645 -1.8654 0.9249
-17.4331 -0.0767 -1.6737 0.9323
-16.1620 -2.9933 -1.5780 0.9361
-15.4346 -4.3132 -1.5386 0.9376
-13.8238 -6.6987 -1.4748 0.9401
-12.9483 -7.7721 -1.4498 0.9411
-11.2074 -8.1709 -1.3316 0.9458
-8.4185 -10.5666 -1.2970 0.9472
-7.4178 -11.2392 -1.2928 0.9473
-5.3109 -12.4010 -1.2951 0.9472
-4.2040 -12.8901 -1.3017 0.9470
-3.0606 -13.3170 -1.3118 0.9466
1.9009 -14.3653 -1.3912 0.9434
3.2695 -14.5570 -1.4324 0.9418
6.5107 -15.4136 -1.6064 0.9350
9.7358 -14.9122 -1.7098 0.9309
11.4233 -14.4852 -1.7711 0.9286
13.1594 -13.9253 -1.8394 0.9259
2.3438 -0.9005 -0.2411 0.9900
18.3848 -3.4996 -1.7967 0.9276
9.4065 1.6085 -0.9162 0.9624
6.9001 3.2271 -0.7313 0.9699
6.0400 3.5132 -0.6708 0.9723
3.8560 4.7055 -0.5841 0.9758
2.9320 5.2692 -0.5789 0.9761
2.5323 5.6950 -0.5984 0.9753
2.0392 5.9722 -0.6059 0.9750
-18.8455 5.6492 -1.8888 0.9240
-18.5264 3.7917 -1.8155 0.9268
-17.6044 0.4075 -1.6906 0.9317
-8.9623 -7.7438 -1.4069 0.9534
-8.1719 -8.4471 -1.3961 0.9538
-6.4856 -9.6841 -1.3845 0.9541
-5.5920 -10.2182 -1.3836 0.9542
-4.6661 -10.6955 -1.3861 0.9541
-3.7083 -11.1154 -1.3919 0.9539
-1.6992 -11.7783 -1.4136 0.9532
-0.6485 -12.0178 -1.4296 0.9527
1.6567 -13.2032 -1.5807 0.9478
4.1352 -13.2016 -1.6433 0.9458
5.4193 -13.0750 -1.6813 0.9446
6.7311 -12.8573 -1.7239 0.9432
13.5921 -10.1554 -2.0154 0.9339
14.9840 -9.2345 -2.0908 0.9316
18.6629 -3.6831 -2.2597 0.9262
14.8727 -1.5746 -1.7765 0.9415
11.7341 -0.1891 -1.3940 0.9538
10.5853 0.7768 -1.2608 0.9581
9.2317 1.5146 -1.1113 0.9630
8.5514 2.2016 -1.0489 0.9651
6.9453 3.1913 -0.9079 0.9697
4.8928 4.1113 -0.7591 0.9746
3.8458 4.6290 -0.7149 0.9760
3.4342 4.9782 -0.7184 0.9759
2.9640 5.2432 -0.7154 0.9760
2.5661 5.6678 -0.7390 0.9753
0.7999 3.1804 -0.3896 0.9869
1.0046 6.3441 -0.7630 0.9745
-0.8214 7.3657 -0.8804 0.9706
-2.1801 2.4039 -0.3855 0.9870
-15.6052 6.3663 -2.0020 0.9344
-15.5608 4.7791 -1.9336 0.9365
-15.4094 3.2621 -1.8710 0.9385
-15.1621 1.8167 -1.8139 0.9403
-14.8285 0.4433 -1.7622 0.9420
-13.3895 -3.2513 -1.6367 0.9460
-12.7857 -4.3449 -1.6041 0.9471
-12.1284 -5.3719 -1.5757 0.9480
-10.1300 -6.8663 -1.4537 0.9519
-9.1984 -7.5155 -1.4110 0.9533
-8.4194 -8.2364 -1.3991 0.9537
-3.0274 -11.3718 -1.3979 0.9537
-2.0169 -11.6919 -1.4094 0.9533
0.0979 -12.3754 -1.4701 0.9514
1.2705 -13.0189 -1.5538 0.9487
6.3240 -12.9345 -1.7102 0.9437
7.6537 -12.6500 -1.7563 0.9422
10.3794 -11.7665 -1.8638 0.9388
14.5568 -9.5340 -2.0670 0.9323
14.7937 -7.9000 -1.9922 0.9347
2.3002 -0.9755 -0.2968 0.9900
17.2840 -5.5699 -2.1571 0.9295
18.4575 -4.1737 -2.2478 0.9266
15.0127 -2.0088 -1.7992 0.9408
12.1826 -0.5321 -1.4485 0.9521
11.1375 0.5095 -1.3244 0.9561
9.5832 1.3024 -1.1488 0.9618
6.4600 3.4668 -0.8709 0.9709
5.6565 3.7215 -0.8043 0.9731
5.0895 4.0428 -0.7721 0.9742
4.6404 4.4162 -0.7609 0.9745
4.1319 4.7036 -0.7437 0.9751
2.6391 5.4261 -0.7167 0.9760
1.6768 5.9670 -0.7362 0.9753
1.1675 6.2528 -0.7556 0.9747
0.6262 6.5561 -0.7823 0.9738
0.0412 7.0336 -0.8355 0.9721
-0.6065 7.2457 -0.8637 0.9711
-14.8314 12.0671 -2.2712 0.9259
-15.5864 5.2609 -1.9541 0.9359
-15.4668 3.7220 -1.8897 0.9379
-14.0907 -1.7177 -1.6862 0.9444
-13.5641 -2.9007 -1.6477 0.9457
-12.9777 -4.0150 -1.6137 0.9467
-7.8591 -8.7018 -1.3928 0.9539
-7.0198 -9.3269 -1.3866 0.9541
-5.2406 -10.4080 -1.3842 0.9541
-3.3326 -11.2611 -1.3950 0.9538
-2.3316 -11.5997 -1.4054 0.9535
-1.2997 -11.8776 -1.4193 0.9530
0.8950 -12.8131 -1.5257 0.9496
2.1225 -13.2276 -1.5914 0.9475
8.5875 -12.3937 -1.7911 0.9411
14.1274 -9.8192 -2.0437 0.9330
16.9106 -5.9685 -2.1302 0.9303
18.1027 -4.6210 -2.2193 0.9275
11.7502 0.2135 -1.3960 0.9538
9.9786 1.0772 -1.1922 0.9604
7.2062 2.8419 -0.9202 0.9693
6.6713 3.3469 -0.8866 0.9704
5.8415 3.6166 -0.8161 0.9727
4.7152 4.2461 -0.7537 0.9748
3.7043 4.7832 -0.7186 0.9759
2.3789 5.7731 -0.7417 0.9752
1.8821 6.0522 -0.7529 0.9748
0.6987 3.2442 -0.3942 0.9867
0.7971 6.4604 -0.7732 0.9741
-0.4040 7.2100 -0.8578 0.9713
-1.1010 7.5219 -0.9030 0.9698
-2.2882 2.3556 -0.3901 0.9869
-15.1253 10.8247 -2.2094 0.9278
-15.4201 9.0722 -2.1252 0.9305
-15.5743 7.3784 -2.0471 0.9329
-15.3253 2.6991 -1.8485 0.9392
-15.0438 1.2813 -1.7935 0.9410
-14.6794 -0.0646 -1.7437 0.9426
-14.2401 -1.3392 -1.6990 0.9440
-13.1645 -3.6788 -1.6237 0.9464
-11.1383 -6.6857 -1.5431 0.9490
-9.6599 -7.0427 -1.4200 0.9530
-8.9040 -7.7988 -1.4060 0.9534
-7.2821 -9.1403 -1.3882 0.9540
-6.4193 -9.7264 -1.3843 0.9541
-2.6434 -11.5018 -1.4019 0.9536
-1.6210 -11.7986 -1.4147 0.9532
-0.5680 -12.0333 -1.4310 0.9526
0.5326 -12.6142 -1.4997 0.9504
1.7479 -13.2089 -1.5827 0.9477
2.9742 -13.2424 -1.6122 0.9468
4.2311 -13.1951 -1.6460 0.9457
5.5173 -13.0619 -1.6843 0.9445
8.1702 -12.5141 -1.7753 0.9416
9.5313 -12.0860 -1.8284 0.9399
13.6975 -10.0909 -2.0209 0.9338
15.2816 -7.4991 -2.0220 0.9337
14.9267 -1.4786 -1.7818 0.9414
11.7784 -0.1104 -1.3992 0.9537
10.4583 0.8384 -1.2463 0.9586
9.1684 1.5678 -1.1049 0.9632
8.5158 2.2538 -1.0464 0.9651
7.4499 2.7034 -0.9414 0.9686
6.8904 3.2225 -0.9036 0.9698
6.0320 3.5086 -0.8289 0.9723
3.3985 4.9983 -0.7180 0.9759
2.0369 5.9653 -0.7488 0.9749
0.7777 3.1825 -0.3892 0.9869
0.9642 6.3667 -0.7649 0.9744
-0.8752 7.3958 -0.8847 0.9704
-2.1936 2.3862 -0.3850 0.9870
-14.5028 13.1912 -2.3287 0.9241
-15.3449 9.6064 -2.1505 0.9297
-15.6059 6.2442 -1.9966 0.9345
-15.3940 3.1506 -1.8665 0.9387
-14.8000 0.3426 -1.7585 0.9421
-14.3830 -0.9539 -1.7122 0.9436
-7.7183 -7.9782 -1.5728 0.9561
-5.1582 -9.4253 -1.5224 0.9575
-4.3169 -9.8951 -1.5296 0.9573
-3.4602 -10.3716 -1.5492 0.9568
2.5123 -11.5494 -1.6747 0.9534
4.6997 -11.3389 -1.7391 0.9516
8.0848 -10.3952 -1.8659 0.9482
9.2243 -9.8940 -1.9166 0.9468
11.4842 -8.5804 -2.0312 0.9437
2.3263 -0.9119 -0.3540 0.9900
15.3707 -3.0334 -2.2199 0.9387
11.7339 -0.1891 -1.6628 0.9537
8.1607 2.1011 -1.1940 0.9665
7.3280 2.6034 -1.1019 0.9691
5.4698 3.8185 -0.9452 0.9734
4.4758 4.5008 -0.8994 0.9747
3.8413 4.6236 -0.8517 0.9760
2.9606 5.2372 -0.8524 0.9760
-0.1547 7.1337 -1.0110 0.9716
-0.8178 7.3340 -1.0456 0.9706
-7.1014 17.8235 -2.7185 0.9254
-8.3853 16.5683 -2.6311 0.9277
-10.4664 13.8467 -2.4594 0.9323
-12.4319 9.5581 -2.2219 0.9386
-12.8085 8.1392 -2.1503 0.9405
-13.0610 6.7453 -2.0828 0.9423
-13.0125 1.5591 -1.8569 0.9484
-12.7778 0.3820 -1.8113 0.9497
-12.4688 -0.7426 -1.7698 0.9508
-12.0919 -1.8133 -1.7324 0.9518
-9.3635 -6.3468 -1.6028 0.9553
-7.9500 -7.7772 -1.5758 0.9561
-7.1136 -8.3263 -1.5517 0.9567
-6.2574 -8.8087 -1.5310 0.9573
-4.5772 -9.7499 -1.5261 0.9574
-2.8510 -10.7094 -1.5703 0.9562
-1.9027 -11.0304 -1.5860 0.9558
3.2606 -11.5116 -1.6952 0.9528
5.4717 -11.1914 -1.7651 0.9509
8.8733 -10.0591 -1.9005 0.9473
10.0108 -9.4879 -1.9543 0.9458
11.1394 -8.8111 -2.0124 0.9442
12.2506 -8.0236 -2.0749 0.9426
2.2982 -0.9747 -0.3537 0.9900
12.1824 -0.5321 -1.7278 0.9519
9.7744 1.3284 -1.3977 0.9609
8.4916 1.9386 -1.2341 0.9654
7.5487 2.4498 -1.1245 0.9684
5.6492 3.7167 -0.9581 0.9731
4.1271 4.6981 -0.8860 0.9751
3.5761 4.8901 -0.8584 0.9758
3.1050 5.1558 -0.8528 0.9760
1.6749 5.9599 -0.8772 0.9753
0.6254 6.5479 -0.9320 0.9738
0.0411 7.0249 -0.9954 0.9720
-0.6057 7.2356 -1.0288 0.9711
-6.6732 18.1904 -2.7453 0.9247
-8.0069 16.9647 -2.6580 0.9270
-10.1876 14.2789 -2.4853 0.9316
-11.0383 12.8663 -2.4020 0.9338
-11.7363 11.4341 -2.3216 0.9359
-12.2894 9.9988 -2.2448 0.9380
-12.9959 7.1717 -2.1031 0.9418
-13.1680 5.7999 -2.0387 0.9435
-13.2316 4.4661 -1.9787 0.9451
-12.5716 -0.4017 -1.7822 0.9505
-11.7943 -2.5222 -1.7089 0.9524
-11.3148 -3.5006 -1.6782 0.9533
-10.7811 -4.4242 -1.6512 0.9540
-9.5668 -6.1069 -1.6081 0.9552
-8.8928 -6.8663 -1.5919 0.9556
-8.1781 -7.5710 -1.5791 0.9560
-7.3827 -8.1743 -1.5607 0.9565
-6.5190 -8.6615 -1.5360 0.9571
-3.9908 -10.0767 -1.5357 0.9572
-2.2004 -10.9471 -1.5821 0.9559
-1.2251 -11.1960 -1.5958 0.9555
2.9261 -11.5329 -1.6859 0.9531
6.2499 -11.0031 -1.7930 0.9502
9.6608 -9.6749 -1.9372 0.9463
12.0679 -6.8780 -1.9681 0.9454
13.0497 -5.9637 -2.0329 0.9437
13.9867 -4.9365 -2.1016 0.9418
14.3184 -1.0211 -2.0339 0.9437
10.2431 1.1058 -1.4598 0.9592
8.8528 1.7660 -1.2791 0.9642
7.8123 2.2996 -1.1539 0.9676
7.0911 2.7965 -1.0800 0.9697
6.6148 3.3186 -1.0486 0.9705
4.2812 4.6110 -0.8915 0.9749
3.7000 4.7776 -0.8562 0.9759
3.2070 5.0079 -0.8426 0.9763
0.7030 3.2642 -0.4731 0.9866
-0.4040 7.2101 -1.0232 0.9712
-1.0880 7.4337 -1.0645 0.9701
-3.3551 14.0315 -2.0442 0.9434
-7.6131 17.3529 -2.6849 0.9263
-12.5917 9.0115 -2.1939 0.9394
-13.1269 6.2189 -2.0581 0.9430
-13.2169 3.5684 -1.9398 0.9462
-13.1172 2.3102 -1.8872 0.9476
-12.9316 1.1014 -1.8389 0.9489
-12.6677 -0.0557 -1.7949 0.9501
-12.3319 -1.1597 -1.7550 0.9512
-11.9304 -2.2096 -1.7192 0.9522
-10.9511 -4.1454 -1.6591 0.9538
-10.3823 -5.0310 -1.6347 0.9545
-9.7658 -5.8619 -1.6138 0.9550
-8.4025 -7.3597 -1.5827 0.9559
-7.6550 -8.0203 -1.5709 0.9562
-5.9337 -8.9906 -1.5263 0.9574
-4.2530 -9.9307 -1.5307 0.9573
-3.3945 -10.4081 -1.5512 0.9567
0.4844 -11.4719 -1.6269 0.9547
2.5934 -11.5470 -1.6768 0.9533
4.7835 -11.3247 -1.7419 0.9515
5.9026 -11.0921 -1.7803 0.9505
8.1707 -10.3608 -1.8696 0.9481
10.4453 -9.2410 -1.9760 0.9452
11.5683 -8.5224 -2.0359 0.9436
12.6471 -7.6771 -2.0963 0.9420
12.7513 -6.2574 -2.0125 0.9442
2.3530 -0.9041 -0.3572 0.9899
15.4304 -2.9372 -2.2256 0.9385
14.9265 -1.4786 -2.1253 0.9412
11.7783 -0.1104 -1.6689 0.9535
10.6802 0.8562 -1.5181 0.9576
9.2426 1.5805 -1.3286 0.9628
8.0903 2.1412 -1.1858 0.9668
6.6801 3.1242 -1.0449 0.9706
4.8470 4.1288 -0.9022 0.9746
4.4373 4.5227 -0.8977 0.9747
3.8470 4.6945 -0.8600 0.9758
3.3946 4.9925 -0.8554 0.9759
2.9252 5.2571 -0.8524 0.9760
-0.2036 7.1611 -1.0151 0.9715
-0.8702 7.3535 -1.0492 0.9705
-7.2039 17.7322 -2.7119 0.9256
-8.4755 16.4702 -2.6245 0.9279
-9.5845 15.1315 -2.5379 0.9302
-10.5324 13.7405 -2.4530 0.9324
-2.1931 2.3857 -0.4592 0.9870
-11.9652 10.8830 -2.2917 0.9367
-12.8318 8.0331 -2.1450 0.9407
-13.0753 6.6414 -2.0779 0.9425
-13.2047 5.2834 -2.0152 0.9442
-13.1574 2.6928 -1.9029 0.9472
-12.9975 1.4685 -1.8533 0.9485
-12.4427 -0.8252 -1.7669 0.9509
-7.5395 -6.5144 -1.6415 0.9604
-6.1972 -7.6717 -1.6247 0.9608
-5.4749 -8.1750 -1.6209 0.9609
-4.7212 -8.6269 -1.6201 0.9609
-3.9379 -9.0265 -1.6224 0.9609
-3.1269 -9.3725 -1.6277 0.9607
0.3615 -10.1909 -1.6799 0.9595
4.1457 -10.0022 -1.7837 0.9571
5.1187 -9.7774 -1.8181 0.9562
6.0953 -9.4750 -1.8560 0.9554
8.9969 -8.0684 -1.9908 0.9522
9.9337 -7.4220 -2.0428 0.9510
10.8706 -5.4257 -2.0015 0.9519
2.3281 -0.9126 -0.4119 0.9899
12.9841 -2.5624 -2.1802 0.9478
13.5448 -1.4340 -2.2438 0.9463
11.7338 -0.1891 -1.9333 0.9535
10.7702 0.7904 -1.7790 0.9572
7.3506 2.6114 -1.2851 0.9689
6.5434 3.0066 -1.1863 0.9712
5.3797 3.7556 -1.0808 0.9738
2.9571 5.2311 -0.9899 0.9759
0.7675 3.0513 -0.5183 0.9873
-0.1470 6.7791 -1.1170 0.9729
-4.3192 14.4852 -2.4901 0.9406
-5.8743 14.7437 -2.6146 0.9377
-6.9751 13.7820 -2.5446 0.9393
-8.8029 11.6459 -2.4050 0.9425
-10.1329 9.3421 -2.2705 0.9457
-10.6189 8.1642 -2.2066 0.9471
-10.9923 6.9851 -2.1456 0.9486
-11.2591 5.8147 -2.0876 0.9499
-11.4981 3.5314 -1.9815 0.9524
-11.4834 2.4310 -1.9337 0.9535
-11.2166 0.3353 -1.8486 0.9555
-10.9761 -0.6537 -1.8114 0.9564
-10.6713 -1.6002 -1.7776 0.9572
-10.3070 -2.5028 -1.7473 0.9579
-9.4170 -4.1710 -1.6967 0.9591
-8.8990 -4.9348 -1.6763 0.9596
-8.3368 -5.6508 -1.6592 0.9600
-7.7334 -6.3185 -1.6452 0.9603
-7.0913 -6.9372 -1.6343 0.9606
-6.4131 -7.5064 -1.6265 0.9608
-5.7009 -8.0253 -1.6217 0.9609
-4.9567 -8.4931 -1.6200 0.9609
-4.1824 -8.9090 -1.6213 0.9609
-3.3797 -9.2716 -1.6257 0.9608
-2.5503 -9.5799 -1.6332 0.9606
-1.6960 -9.8322 -1.6437 0.9604
-0.8185 -10.0268 -1.6573 0.9600
0.0804 -10.1617 -1.6741 0.9596
2.8848 -10.1849 -1.7439 0.9580
4.8182 -9.8548 -1.8071 0.9565
5.7942 -9.5767 -1.8439 0.9556
6.7707 -9.2186 -1.8843 0.9547
8.7038 -8.2491 -1.9755 0.9525
9.6476 -7.6311 -2.0264 0.9514
10.5660 -6.9202 -2.0807 0.9501
10.6257 -5.6742 -1.9844 0.9523
12.1314 -3.9095 -2.0997 0.9496
12.7945 -2.8932 -2.1610 0.9482
13.3814 -1.7905 -2.2241 0.9467
12.0414 -0.5260 -1.9856 0.9523
11.2517 0.5147 -1.8555 0.9554
5.5337 3.6406 -1.0912 0.9735
5.0397 4.0032 -1.0603 0.9742
4.6292 4.4055 -1.0528 0.9744
3.5720 4.8844 -0.9969 0.9758
3.1014 5.1499 -0.9904 0.9759
2.6330 5.4136 -0.9917 0.9759
0.9295 3.3074 -0.5660 0.9862
1.1627 6.2271 -1.0436 0.9746
0.6172 6.4622 -1.0694 0.9740
0.0392 6.6947 -1.1029 0.9732
-3.9490 14.7115 -2.5094 0.9401
-5.5107 15.0216 -2.6359 0.9372
-6.6489 14.0875 -2.5663 0.9388
-7.6642 13.0704 -2.4961 0.9404
-9.3184 10.8616 -2.3576 0.9436
-11.1878 6.1739 -2.1051 0.9495
-11.4969 2.7667 -1.9481 0.9532
-11.2770 0.6483 -1.8608 0.9552
-11.0573 -0.3533 -1.8225 0.9561
-10.7718 -1.3131 -1.7877 0.9570
-10.0224 -3.1007 -1.7283 0.9584
-7.9236 -6.1179 -1.6491 0.9602
-6.6259 -7.3363 -1.6285 0.9607
-5.9239 -7.8708 -1.6228 0.9609
-5.1894 -8.3545 -1.6202 0.9609
-3.6300 -9.1656 -1.6240 0.9608
-1.9619 -9.7605 -1.6401 0.9604
0.7138 -10.2189 -1.6876 0.9593
3.5495 -10.1037 -1.7642 0.9575
4.5182 -9.9249 -1.7965 0.9568
6.4700 -9.3377 -1.8715 0.9550
10.2862 -7.1494 -2.0636 0.9505
11.1696 -5.1045 -2.0231 0.9514
11.9136 -4.2048 -2.0813 0.9501
13.2094 -2.1393 -2.2045 0.9472
13.7356 -0.9796 -2.2685 0.9457
9.0098 1.7974 -1.5135 0.9634
7.0204 2.7686 -1.2432 0.9699
5.6894 3.5225 -1.1024 0.9732
5.1903 3.8947 -1.0690 0.9740
4.7148 4.2458 -1.0452 0.9746
3.2202 5.0284 -0.9837 0.9761
1.8643 5.9951 -1.0343 0.9749
1.3242 6.1482 -1.0361 0.9748
0.7884 6.3901 -1.0607 0.9742
0.2213 6.6232 -1.0917 0.9735
-0.3555 6.3457 -1.0470 0.9746
-3.3392 13.9651 -2.3655 0.9435
-6.3111 14.3851 -2.5878 0.9383
-8.2932 12.3282 -2.4477 0.9415
-9.0961 11.2131 -2.3786 0.9431
-10.3330 8.8911 -2.2457 0.9462
-10.7752 7.7115 -2.1828 0.9477
-11.1069 6.5346 -2.1229 0.9491
-11.3344 5.3697 -2.0662 0.9504
-11.5025 3.1055 -1.9628 0.9528
-11.4559 2.0176 -1.9163 0.9539
-10.8665 -1.0219 -1.7980 0.9567
-9.7129 -3.6767 -1.7109 0.9588
-9.2237 -4.4696 -1.6885 0.9593
-8.6884 -5.2151 -1.6694 0.9598
-8.1100 -5.9127 -1.6534 0.9601
-7.4915 -6.5617 -1.6406 0.9604
-6.1438 -7.7115 -1.6243 0.9608
-5.4191 -8.2109 -1.6207 0.9609
-4.6631 -8.6589 -1.6202 0.9609
-3.8777 -9.0544 -1.6227 0.9609
-3.0646 -9.3964 -1.6282 0.9607
-2.2255 -9.6834 -1.6368 0.9605
-1.3621 -9.9137 -1.6485 0.9602
1.3558 -10.2458 -1.7026 0.9590
3.2527 -10.1440 -1.7549 0.9577
4.2188 -9.9879 -1.7862 0.9570
6.1690 -9.4489 -1.8590 0.9553
10.0034 -7.3695 -2.0469 0.9509
12.3940 -3.5300 -2.1230 0.9491
13.0294 -2.4802 -2.1850 0.9477
13.5834 -1.3456 -2.2487 0.9462
10.6582 0.8545 -1.7615 0.9576
9.3554 1.5998 -1.5636 0.9623
8.2640 2.1872 -1.4083 0.9659
7.2838 2.6431 -1.2765 0.9691
6.4917 3.0361 -1.1806 0.9714
5.3423 3.7833 -1.0784 0.9738
4.4320 4.5173 -1.0425 0.9747
3.8267 4.6697 -0.9946 0.9758
2.5056 5.6350 -1.0159 0.9753
2.0176 5.9091 -1.0286 0.9750
0.7474 3.0586 -0.5187 0.9873
-0.1935 6.8050 -1.1215 0.9728
-3.1802 15.1310 -2.5471 0.9392
-4.7502 15.5473 -2.6781 0.9362
-5.9616 14.6743 -2.6093 0.9378
-8.0204 12.6622 -2.4692 0.9410
-10.1736 9.2535 -2.2656 0.9458
-10.6510 8.0752 -2.2019 0.9473
-11.0161 6.8964 -2.1411 0.9487
-11.2750 5.7270 -2.0833 0.9500
-11.4342 4.5750 -2.0288 0.9513
-11.5000 3.4473 -1.9778 0.9525
-11.4790 2.3493 -1.9302 0.9536
-11.3773 1.2855 -1.8862 0.9546
-10.9553 -0.7266 -1.8087 0.9565
-6.2113 -6.4205 -1.6791 0.9643
-4.9416 -7.3787 -1.6692 0.9645
-2.0647 -8.7144 -1.6833 0.9642
-1.2868 -8.9199 -1.6940 0.9640
-0.4895 -9.0710 -1.7075 0.9637
1.1546 -9.2022 -1.7432 0.9630
4.5659 -8.7216 -1.8504 0.9607
5.4249 -8.4329 -1.8847 0.9600
6.2779 -8.0719 -1.9221 0.9592
7.9439 -7.1241 -2.0056 0.9575
8.7444 -6.5334 -2.0517 0.9565
9.4921 -5.8499 -2.0957 0.9556
2.3299 -0.9133 -0.4704 0.9899
11.6666 -1.2352 -2.2051 0.9534
9.4260 1.5465 -1.7954 0.9619
8.3656 2.1538 -1.6237 0.9655
7.4769 2.6563 -1.4914 0.9682
6.6649 3.0625 -1.3787 0.9706
5.9459 3.4051 -1.2879 0.9725
5.3171 3.7119 -1.2188 0.9740
4.7688 4.0071 -1.1708 0.9750
2.8836 5.1011 -1.1014 0.9764
1.9531 5.5964 -1.1141 0.9762
0.9731 6.1451 -1.1694 0.9750
0.4380 6.4610 -1.2172 0.9740
-0.1483 6.8388 -1.2857 0.9725
-3.6645 12.2896 -2.4105 0.9491
-6.8271 10.9407 -2.4239 0.9489
-2.1819 2.4058 -0.6105 0.9869
-8.8023 8.1153 -2.2503 0.9524
-10.0634 4.1055 -2.0429 0.9567
-10.1736 2.1537 -1.9546 0.9586
-9.7948 -0.5833 -1.8443 0.9609
-8.8714 -3.0147 -1.7611 0.9626
-8.4612 -3.7476 -1.7394 0.9630
-8.0055 -4.4393 -1.7206 0.9634
-5.7865 -6.7729 -1.6744 0.9644
-4.4741 -7.6662 -1.6684 0.9645
-3.7749 -8.0409 -1.6696 0.9645
-2.3002 -8.6404 -1.6806 0.9643
0.0724 -9.1426 -1.7185 0.9635
0.8976 -9.1973 -1.7369 0.9631
3.4408 -8.9942 -1.8100 0.9616
5.1606 -8.5295 -1.8738 0.9602
6.0159 -8.1910 -1.9102 0.9595
6.8617 -7.7786 -1.9496 0.9587
7.6920 -7.2902 -1.9920 0.9578
9.2803 -6.0782 -2.0852 0.9559
2.2941 -0.9730 -0.4684 0.9899
10.5431 -3.3976 -2.0820 0.9559
11.5399 -1.5442 -2.1884 0.9537
11.9211 -0.5207 -2.2428 0.9526
9.8004 1.3320 -1.8590 0.9605
6.9099 2.9474 -1.4120 0.9699
4.1173 4.6869 -1.1726 0.9749
3.4761 4.7533 -1.1068 0.9763
3.0240 5.0213 -1.1017 0.9764
2.5660 5.2758 -1.1027 0.9764
0.6069 6.3537 -1.1997 0.9744
-0.5971 7.1330 -1.3454 0.9713
-2.2658 12.9756 -2.4758 0.9478
-4.3505 11.8590 -2.3743 0.9499
-5.2699 11.1656 -2.3207 0.9510
-6.5720 11.2078 -2.4421 0.9485
-7.3643 10.3218 -2.3833 0.9497
-8.0541 9.3879 -2.3250 0.9509
-8.6416 8.4191 -2.2677 0.9521
-9.1285 7.4271 -2.2120 0.9532
-9.5176 6.4226 -2.1581 0.9543
-9.8125 5.4150 -2.1066 0.9554
-10.0176 4.4123 -2.0575 0.9564
-10.1375 3.4217 -2.0111 0.9574
-10.1408 1.4994 -1.9268 0.9591
-10.0338 0.5768 -1.8891 0.9599
-9.6261 -1.1735 -1.8227 0.9613
-8.9881 -2.7808 -1.7684 0.9624
-8.5926 -3.5261 -1.7458 0.9629
-7.1396 -5.5126 -1.6954 0.9640
-6.5763 -6.0881 -1.6845 0.9642
-5.9777 -6.6187 -1.6763 0.9644
-5.3462 -7.1033 -1.6710 0.9645
-3.9932 -7.9307 -1.6690 0.9645
-3.2758 -8.2712 -1.6722 0.9644
-0.9831 -8.9844 -1.6988 0.9639
-0.1789 -9.1141 -1.7134 0.9636
5.7531 -8.3031 -1.8987 0.9597
6.6024 -7.9137 -1.9372 0.9589
7.4381 -7.4490 -1.9786 0.9581
9.0436 -6.2857 -2.0701 0.9562
11.7500 0.2135 -2.2089 0.9533
8.9938 1.7942 -1.7238 0.9634
8.0093 2.3576 -1.5693 0.9666
6.3764 3.1990 -1.3409 0.9714
4.7147 4.2457 -1.1925 0.9745
4.2710 4.6000 -1.1798 0.9748
3.1637 4.9403 -1.1027 0.9764
2.7080 5.1987 -1.1018 0.9764
2.2438 5.4452 -1.1070 0.9763
0.2205 6.6002 -1.2413 0.9735
-3.0211 12.6350 -2.4418 0.9485
-4.0498 12.0561 -2.3905 0.9496
-4.9960 11.3875 -2.3373 0.9506
-7.1310 10.6006 -2.4014 0.9493
-7.8525 9.6801 -2.3428 0.9505
-2.2756 2.3426 -0.6139 0.9868
-9.4079 6.7329 -2.1745 0.9540
-9.9637 4.7204 -2.0723 0.9561
-10.1093 3.7254 -2.0251 0.9571
-10.1730 2.7466 -1.9806 0.9580
-10.1597 1.7893 -1.9390 0.9589
-9.9209 -0.0436 -1.8648 0.9604
-9.4298 -1.7465 -1.8026 0.9617
-8.7196 -3.3007 -1.7524 0.9628
-7.8193 -4.6935 -1.7142 0.9636
-4.8913 -7.4111 -1.6690 0.9645
-2.0068 -8.7318 -1.6840 0.9642
-0.4286 -9.0801 -1.7086 0.9637
0.3872 -9.1705 -1.7252 0.9633
1.2178 -9.2025 -1.7448 0.9629
2.9124 -9.0828 -1.7928 0.9619
3.7704 -8.9263 -1.8213 0.9613
4.6309 -8.7023 -1.8529 0.9607
5.4895 -8.4082 -1.8874 0.9600
6.3418 -8.0417 -1.9250 0.9592
7.1824 -7.6004 -1.9655 0.9583
8.0052 -7.0823 -2.0090 0.9574
2.3670 -0.9095 -0.4766 0.9897
11.2636 -2.1441 -2.1551 0.9544
11.7780 -0.1104 -2.2139 0.9532
10.6362 0.8527 -2.0056 0.9575
7.4160 2.6911 -1.4829 0.9684
6.6068 3.0899 -1.3709 0.9708
5.2725 3.7339 -1.2144 0.9740
3.7546 4.5817 -1.1134 0.9762
2.8492 5.1204 -1.1014 0.9764
1.9176 5.6162 -1.1155 0.9761
0.7413 3.0336 -0.5870 0.9874
0.9340 6.1670 -1.1724 0.9749
-0.7500 6.3375 -1.1995 0.9744
-3.7412 12.2447 -2.4066 0.9492
-4.7136 11.6023 -2.3539 0.9503
-5.5988 10.8800 -2.2999 0.9514
-6.8880 10.8744 -2.4195 0.9490
-7.6411 9.9685 -2.3608 0.9502
-2.1921 2.3846 -0.6088 0.9869
-9.2891 7.0427 -2.1911 0.9537
-9.6416 6.0359 -2.1381 0.9548
-9.9016 5.0293 -2.0874 0.9558
-10.0734 4.0305 -2.0393 0.9568
-10.1618 3.0461 -1.9940 0.9577
-10.1078 1.1420 -1.9120 0.9594
-9.9750 0.2309 -1.8754 0.9602
-9.7778 -0.6485 -1.8419 0.9609
-6.1824 -5.3418 -1.7271 0.9671
-5.0911 -6.3024 -1.7126 0.9674
-4.4996 -6.7187 -1.7093 0.9675
-3.2359 -7.4172 -1.7106 0.9675
-2.5679 -7.6971 -1.7152 0.9674
-1.8786 -7.9289 -1.7224 0.9672
-1.1702 -8.1113 -1.7323 0.9670
4.1176 -7.8651 -1.8766 0.9644
4.8833 -7.5909 -1.9079 0.9638
5.6399 -7.2516 -1.9419 0.9631
6.3824 -6.8457 -1.9784 0.9625
7.1052 -6.3720 -2.0174 0.9617
7.8023 -5.8295 -2.0587 0.9610
8.4372 -4.2112 -1.9933 0.9622
2.3317 -0.9140 -0.5294 0.9898
10.7075 0.7857 -2.2694 0.9571
9.4085 1.5437 -2.0154 0.9618
7.4654 2.6522 -1.6747 0.9681
6.0468 3.4629 -1.4729 0.9719
3.8127 4.5891 -1.2611 0.9759
3.3409 4.8430 -1.2437 0.9762
1.9649 5.6302 -1.2605 0.9759
0.7561 3.0061 -0.6552 0.9874
0.9869 6.2321 -1.3338 0.9745
-0.6990 6.2681 -1.3332 0.9745
-2.2546 11.0983 -2.3939 0.9548
-4.0392 10.1378 -2.3068 0.9564
-5.5447 8.8856 -2.2139 0.9581
-2.1825 2.4065 -0.6867 0.9868
-8.1994 6.3040 -2.1862 0.9586
-8.9834 3.6649 -2.0508 0.9611
-9.0895 2.7916 -2.0099 0.9619
-9.1240 1.9315 -1.9714 0.9626
-8.8358 -0.5262 -1.8710 0.9645
-8.3547 -2.0287 -1.8173 0.9655
-7.2694 -4.0311 -1.7570 0.9666
-6.3388 -5.1791 -1.7303 0.9671
-4.6849 -6.5950 -1.7100 0.9675
-4.0741 -6.9808 -1.7085 0.9675
-3.4372 -7.3215 -1.7097 0.9675
-2.7761 -7.6159 -1.7135 0.9674
-0.6700 -8.2077 -1.7407 0.9669
0.0657 -8.3029 -1.7551 0.9666
0.8143 -8.3443 -1.7722 0.9663
2.3393 -8.2589 -1.8144 0.9655
3.1095 -8.1283 -1.8396 0.9650
3.8805 -7.9367 -1.8675 0.9645
4.6480 -7.6823 -1.8980 0.9640
5.4080 -7.3632 -1.9311 0.9633
6.1554 -6.9780 -1.9669 0.9627
6.8849 -6.5253 -2.0051 0.9620
9.3134 -3.0013 -2.0684 0.9608
10.6573 0.4875 -2.2551 0.9573
8.6553 1.9759 -1.8766 0.9644
7.7274 2.5078 -1.7173 0.9673
6.9325 2.9570 -1.5931 0.9697
5.0080 3.9780 -1.3519 0.9742
4.6180 4.3948 -1.3475 0.9743
2.1082 5.5449 -1.2539 0.9760
1.1450 6.1325 -1.3187 0.9748
-0.5423 6.4792 -1.3744 0.9738
-1.9583 11.2148 -2.4065 0.9545
-2.9002 10.8046 -2.3647 0.9553
-5.9936 8.4006 -2.1813 0.9587
-7.0847 8.2580 -2.2999 0.9565
-7.6241 7.4278 -2.2500 0.9574
-8.0770 6.5716 -2.2010 0.9583
-9.0646 3.0596 -2.0223 0.9616
-9.1208 2.1949 -1.9830 0.9624
-9.1079 1.3467 -1.9462 0.9631
-9.0299 0.5191 -1.9119 0.9637
-8.8905 -0.2841 -1.8802 0.9643
-8.6935 -1.0598 -1.8512 0.9648
-7.7920 -3.1975 -1.7804 0.9662
-7.3990 -3.8405 -1.7621 0.9665
-5.9832 -5.5390 -1.7235 0.9672
-4.2652 -6.8667 -1.7087 0.9675
-3.6361 -7.2214 -1.7090 0.9675
-2.9823 -7.5302 -1.7120 0.9674
-1.6090 -8.0048 -1.7259 0.9672
0.5824 -8.3374 -1.7667 0.9664
1.3383 -8.3406 -1.7856 0.9661
2.1026 -8.2871 -1.8072 0.9656
2.8719 -8.1750 -1.8316 0.9652
4.4121 -7.7675 -1.8883 0.9641
6.6623 -6.6720 -1.9931 0.9622
8.0846 -4.6077 -1.9670 0.9627
8.6483 -3.9523 -2.0099 0.9619
9.1649 -3.2347 -2.0544 0.9610
9.6265 -2.4573 -2.1001 0.9602
10.3517 -0.7382 -2.1937 0.9585
10.5985 0.1926 -2.2407 0.9576
10.1821 1.0992 -2.1648 0.9590
7.9963 2.3538 -1.7620 0.9665
7.1634 2.8250 -1.6277 0.9690
6.4470 3.2344 -1.5247 0.9709
4.7145 4.2455 -1.3411 0.9744
3.6296 4.6867 -1.2530 0.9761
0.9826 3.1598 -0.6995 0.9866
0.6777 3.1466 -0.6804 0.9869
0.2246 6.7226 -1.4218 0.9729
-0.3444 6.1462 -1.3012 0.9751
-3.5167 10.4690 -2.3345 0.9559
-5.1130 9.2973 -2.2428 0.9575
-5.7983 8.6194 -2.1959 0.9584
-8.3405 5.9690 -2.1680 0.9589
-9.0328 3.3286 -2.0349 0.9614
-9.1110 2.4598 -1.9948 0.9622
-9.1191 1.6061 -1.9573 0.9629
-6.1436 -5.3811 -1.7263 0.9672
-5.6115 -5.8792 -1.7180 0.9673
-5.0474 -6.3353 -1.7122 0.9674
-4.4538 -6.7483 -1.7091 0.9675
-3.8327 -7.1169 -1.7087 0.9675
-3.1863 -7.4400 -1.7108 0.9675
-2.5166 -7.7163 -1.7156 0.9674
-1.8258 -7.9444 -1.7231 0.9672
-1.1160 -8.1230 -1.7332 0.9670
-0.3894 -8.2505 -1.7459 0.9668
0.3515 -8.3252 -1.7614 0.9665
1.8664 -8.3098 -1.8003 0.9658
2.6345 -8.2159 -1.8238 0.9653
3.4054 -8.0621 -1.8500 0.9649
4.1755 -7.8467 -1.8788 0.9643
6.4377 -6.8124 -1.9813 0.9624
8.4882 -5.1526 -2.0989 0.9602
10.2591 -1.0163 -2.1792 0.9587
10.6141 0.8509 -2.2508 0.9574
9.3210 1.5939 -1.9989 0.9621
5.3681 3.8016 -1.3904 0.9735
4.7945 4.0841 -1.3313 0.9746
3.7764 4.6083 -1.2594 0.9759
3.3059 4.8621 -1.2428 0.9762
1.9296 5.6513 -1.2623 0.9759
0.7355 3.0096 -0.6549 0.9874
0.4031 6.6062 -1.3990 0.9733
-0.1985 6.9803 -1.4761 0.9719
-0.7485 6.3248 -1.3463 0.9743
-2.3263 11.0684 -2.3908 0.9548
-4.8862 9.4951 -2.2572 0.9573
-5.5955 8.8338 -2.2104 0.9581
-6.7090 8.7525 -2.3311 0.9559
-9.0855 1.0265 -1.9327 0.9633
-8.9835 0.2079 -1.8994 0.9639
-8.8216 -0.5851 -1.8688 0.9645
-5.6654 -4.8952 -1.7597 0.9697
-5.1822 -5.3567 -1.7517 0.9698
-4.6686 -5.7795 -1.7461 0.9699
-3.5592 -6.5036 -1.7424 0.9700
-2.9677 -6.8025 -1.7443 0.9700
-2.3546 -7.0576 -1.7486 0.9699
-1.7219 -7.2676 -1.7553 0.9698
-1.0721 -7.4312 -1.7646 0.9696
-0.4073 -7.5469 -1.7763 0.9694
0.9573 -7.6293 -1.8071 0.9689
2.3502 -7.5029 -1.8478 0.9682
3.7461 -7.1557 -1.8983 0.9674
4.4361 -6.8958 -1.9271 0.9669
5.1151 -6.5769 -1.9582 0.9663
5.7784 -6.1979 -1.9915 0.9658
7.0369 -5.2576 -2.0645 0.9645
7.5976 -4.6823 -2.0975 0.9640
2.3335 -0.9147 -0.5890 0.9898
8.4541 -2.4696 -2.0700 0.9645
8.8121 -1.7390 -2.1110 0.9638
9.4823 0.6959 -2.2346 0.9617
9.3908 1.5408 -2.2366 0.9617
8.3373 2.1465 -2.0234 0.9652
7.4537 2.6480 -1.8591 0.9680
5.4415 3.7988 -1.5597 0.9731
4.8927 4.1112 -1.5020 0.9741
4.4542 4.4791 -1.4846 0.9744
3.3965 4.9236 -1.4058 0.9757
2.4664 5.4476 -1.4054 0.9757
1.9981 5.7252 -1.4251 0.9754
0.4481 6.6114 -1.5574 0.9731
-1.9842 9.7672 -2.3424 0.9599
-2.8033 9.4015 -2.3057 0.9605
-3.5703 8.9610 -2.2671 0.9611
-4.9240 7.8910 -2.1860 0.9625
-8.1052 3.3066 -2.0573 0.9647
-8.2170 2.5237 -2.0202 0.9653
-8.2634 1.7493 -1.9851 0.9659
-8.2474 0.9882 -1.9522 0.9664
-8.1722 0.2443 -1.9215 0.9670
-8.0409 -0.4789 -1.8932 0.9674
-7.8568 -1.1782 -1.8672 0.9679
-6.6519 -3.6887 -1.7876 0.9692
-6.2478 -4.2349 -1.7739 0.9695
-5.3345 -5.2186 -1.7539 0.9698
-4.2967 -6.0486 -1.7437 0.9700
-3.7368 -6.4029 -1.7423 0.9700
-2.5457 -6.9837 -1.7470 0.9699
-1.9188 -7.2077 -1.7530 0.9698
-0.6136 -7.5164 -1.7724 0.9695
2.1346 -7.5364 -1.8409 0.9683
3.5320 -7.2240 -1.8899 0.9675
4.2244 -6.9822 -1.9179 0.9670
5.5760 -6.3211 -1.9810 0.9660
7.4258 -3.9654 -1.9785 0.9660
8.7082 -1.9691 -2.0983 0.9640
9.2711 -0.4050 -2.1810 0.9626
9.4447 0.4321 -2.2221 0.9619
9.5380 1.2963 -2.2623 0.9612
8.6402 1.9725 -2.0829 0.9642
7.7150 2.5038 -1.9063 0.9672
6.9222 2.9526 -1.7687 0.9696
6.2348 3.3460 -1.6630 0.9713
5.6196 3.6972 -1.5809 0.9727
4.1074 4.6757 -1.4627 0.9748
3.0726 5.1020 -1.3997 0.9758
1.9089 3.9247 -1.0257 0.9822
2.1436 5.6380 -1.4176 0.9755
1.1603 6.2144 -1.4858 0.9744
-1.7224 9.8635 -2.3532 0.9597
-4.7322 8.0702 -2.1987 0.9623
-5.3315 7.4726 -2.1574 0.9630
-7.5823 5.1166 -2.1498 0.9631
-7.8554 4.3350 -2.1087 0.9638
-8.0571 3.5488 -2.0691 0.9645
-8.0872 -0.2584 -1.9016 0.9673
-7.7001 -1.6466 -1.8506 0.9682
-6.3763 -4.0703 -1.7779 0.9694
-5.4838 -5.0768 -1.7563 0.9698
-4.9887 -5.5236 -1.7493 0.9699
-4.4640 -5.9311 -1.7447 0.9700
-3.9121 -6.2981 -1.7425 0.9700
-3.3350 -6.6233 -1.7428 0.9700
-2.7349 -6.9056 -1.7456 0.9699
-1.4745 -7.3359 -1.7586 0.9697
-0.1487 -7.5784 -1.7814 0.9693
1.2230 -7.6216 -1.8142 0.9688
2.6186 -7.4537 -1.8568 0.9681
3.3173 -7.2869 -1.8817 0.9676
6.6606 -5.5734 -2.0411 0.9649
7.2704 -4.1437 -1.9668 0.9662
7.7603 -3.5465 -2.0053 0.9655
8.2052 -2.8960 -2.0450 0.9649
8.5985 -2.1949 -2.0856 0.9642
9.2024 -0.6563 -2.1683 0.9628
9.5182 1.0275 -2.2500 0.9614
8.9615 1.7877 -2.1477 0.9631
7.9832 2.3499 -1.9558 0.9664
6.4378 3.2298 -1.6928 0.9708
4.2607 4.5889 -1.4717 0.9746
2.2879 5.5523 -1.4114 0.9756
0.6747 3.1330 -0.7532 0.9869
0.7921 6.4198 -1.5202 0.9738
-0.3441 6.1422 -1.4458 0.9750
-1.0929 7.4669 -1.7736 0.9695
-2.2699 2.3367 -0.7656 0.9867
-7.1137 6.1210 -2.2056 0.9622
-7.4834 5.3556 -2.1628 0.9629
-7.7790 4.5766 -2.1212 0.9636
-8.1560 3.0055 -2.0429 0.9649
-8.2254 0.7006 -1.9402 0.9666
-8.1283 -0.0358 -1.9104 0.9672
-7.7728 -1.4396 -1.8578 0.9680
-7.2227 -2.7340 -1.8150 0.9688
-6.8820 -3.3349 -1.7973 0.9691
-6.5013 -3.9024 -1.7821 0.9693
-6.0832 -4.4350 -1.7693 0.9695
-4.6287 -5.8098 -1.7458 0.9699
-3.5154 -6.5276 -1.7425 0.9700
-2.9222 -6.8233 -1.7445 0.9700
-2.3075 -7.0750 -1.7490 0.9699
-1.6735 -7.2816 -1.7559 0.9698
-1.0224 -7.4416 -1.7654 0.9696
-0.3566 -7.5537 -1.7773 0.9694
0.3216 -7.6165 -1.7916 0.9692
2.4029 -7.4938 -1.8496 0.9682
3.1022 -7.3443 -1.8738 0.9678
4.4878 -6.8738 -1.9293 0.9668
5.1658 -6.5504 -1.9606 0.9663
5.8277 -6.1669 -1.9941 0.9657
6.4683 -5.7226 -2.0298 0.9651
7.0821 -5.2174 -2.0674 0.9645
7.6138 -3.7363 -1.9933 0.9658
8.0733 -3.1020 -2.0327 0.9651
8.8367 -1.6821 -2.1141 0.9637
9.3469 -0.0876 -2.1968 0.9623
7.3931 2.6828 -1.8484 0.9682
5.3986 3.8232 -1.5547 0.9732
3.3609 4.9430 -1.4048 0.9757
2.4314 5.4680 -1.4064 0.9757
1.9622 5.7468 -1.4272 0.9754
0.9582 6.3272 -1.5040 0.9740
-6.9847 6.3530 -2.2190 0.9619
-7.3774 5.5933 -2.1758 0.9627
-7.9411 4.0336 -2.0933 0.9641
-8.2643 1.6914 -1.9826 0.9659
-8.2438 0.9314 -1.9498 0.9665
-8.0288 -0.5325 -1.8911 0.9675
-5.2240 -4.5137 -1.7875 0.9719
-4.3074 -5.3324 -1.7748 0.9721
-3.8081 -5.6862 -1.7719 0.9721
-3.2844 -6.0014 -1.7713 0.9721
-2.7383 -6.2767 -1.7731 0.9721
-2.1722 -6.5108 -1.7771 0.9720
-1.5881 -6.7026 -1.7835 0.9719
0.2487 -7.0107 -1.8163 0.9714
2.7980 -6.7507 -1.8921 0.9703
4.0604 -6.3117 -1.9432 0.9695
4.6755 -6.0116 -1.9718 0.9690
6.4022 -4.7834 -2.0692 0.9675
6.8985 -4.2515 -2.0981 0.9671
2.3370 -0.9161 -0.6499 0.9897
7.9443 -1.5678 -2.0966 0.9671
7.4420 2.6438 -2.0448 0.9679
6.6914 3.0746 -1.9067 0.9700
6.0301 3.4533 -1.7992 0.9717
4.8865 4.1060 -1.6526 0.9740
3.8841 4.6751 -1.5737 0.9752
3.4101 4.9433 -1.5549 0.9755
0.7455 2.9640 -0.7913 0.9875
0.9971 6.2968 -1.6507 0.9740
-0.1504 6.9347 -1.7959 0.9717
-1.7697 8.7113 -2.3016 0.9639
-2.5045 8.3994 -2.2694 0.9644
-3.1955 8.0201 -2.2353 0.9650
-3.8367 7.5809 -2.1999 0.9655
-4.9528 6.5524 -2.1267 0.9666
-2.1837 2.4078 -0.8416 0.9867
-7.4903 2.3005 -2.0288 0.9681
-7.5442 1.5971 -1.9966 0.9686
-7.3708 -0.4390 -1.9118 0.9700
-7.2103 -1.0812 -1.8877 0.9703
-6.7513 -2.2943 -1.8462 0.9710
-6.1260 -3.3971 -1.8137 0.9715
-4.4560 -5.2157 -1.7762 0.9721
-3.4483 -5.9085 -1.7713 0.9721
-2.9089 -6.1962 -1.7723 0.9721
-2.3487 -6.4431 -1.7756 0.9721
-1.7698 -6.6481 -1.7813 0.9720
-1.1747 -6.8097 -1.7892 0.9719
-0.5655 -6.9269 -1.7995 0.9717
0.6853 -7.0223 -1.8268 0.9713
1.9613 -6.9243 -1.8633 0.9707
3.2381 -6.6229 -1.9088 0.9700
6.7361 -3.5972 -1.9772 0.9689
7.5305 -2.4268 -2.0485 0.9678
7.8552 -1.7763 -2.0852 0.9673
8.4707 0.3875 -2.1955 0.9656
8.5384 1.1604 -2.2311 0.9650
7.7026 2.4998 -2.0967 0.9671
5.6121 3.6922 -1.7394 0.9726
4.6065 4.3839 -1.6465 0.9741
4.1024 4.6700 -1.6094 0.9746
3.5551 4.8613 -1.5593 0.9754
1.8964 3.8991 -1.1226 0.9822
2.1492 5.6528 -1.5658 0.9753
1.1588 6.2066 -1.6348 0.9742
0.6214 6.5060 -1.6922 0.9734
-1.5354 8.7928 -2.3111 0.9638
-2.2824 8.5030 -2.2795 0.9643
-2.9876 8.1438 -2.2460 0.9648
-3.6447 7.7222 -2.2109 0.9653
-4.7960 6.7221 -2.1381 0.9665
-5.2838 6.1589 -2.1011 0.9670
-6.1481 5.9898 -2.2224 0.9652
-6.5464 5.3263 -2.1851 0.9657
-7.3288 3.2280 -2.0735 0.9675
-7.5338 1.8130 -2.0063 0.9685
-7.4104 -0.2368 -1.9197 0.9698
-7.2649 -0.8856 -1.8949 0.9702
-7.0716 -1.5122 -1.8724 0.9706
-6.5527 -2.6890 -1.8339 0.9712
-6.2324 -3.2349 -1.8181 0.9714
-5.0573 -4.6819 -1.7844 0.9719
-4.6021 -5.0955 -1.7778 0.9720
-4.1189 -5.4726 -1.7734 0.9721
-3.6100 -5.8118 -1.7714 0.9721
-1.3597 -6.7646 -1.7865 0.9719
1.7639 -6.9524 -1.8571 0.9708
2.4042 -6.8435 -1.8781 0.9705
3.0424 -6.6830 -1.9012 0.9701
4.9073 -5.8820 -1.9834 0.9688
5.4983 -5.5063 -2.0147 0.9684
6.0660 -5.0758 -2.0479 0.9678
6.5988 -3.7610 -1.9666 0.9691
7.4200 -2.6188 -2.0373 0.9680
7.7608 -1.9811 -2.0739 0.9674
8.2740 -0.5901 -2.1477 0.9663
7.1415 2.8164 -1.9877 0.9688
6.4286 3.2252 -1.8622 0.9707
5.7949 3.5878 -1.7647 0.9722
4.7141 4.2452 -1.6425 0.9741
3.7009 4.7788 -1.5650 0.9753
3.2050 5.0047 -1.5388 0.9757
2.7645 5.3072 -1.5494 0.9756
2.2955 5.5707 -1.5600 0.9754
0.2247 6.7265 -1.7426 0.9726
-2.7751 8.2614 -2.2565 0.9646
-4.6336 6.8881 -2.1494 0.9663
-6.4324 5.5348 -2.1971 0.9655
-6.7793 4.8517 -2.1585 0.9661
-7.0598 4.1535 -2.1208 0.9667
-7.4274 2.7370 -2.0495 0.9678
-7.5180 2.0297 -2.0162 0.9683
-7.5494 1.3296 -1.9848 0.9688
-7.4452 -0.0327 -1.9277 0.9697
-7.3149 -0.6879 -1.9023 0.9701
-7.1361 -1.3217 -1.8791 0.9705
-6.3352 -3.0699 -1.8227 0.9713
-5.6068 -4.0877 -1.7965 0.9717
-4.7454 -4.9717 -1.7796 0.9720
-3.7695 -5.7114 -1.7718 0.9721
-3.2439 -6.0236 -1.7714 0.9721
-2.6963 -6.2958 -1.7733 0.9721
-2.1287 -6.5268 -1.7775 0.9720
-0.3285 -6.9597 -1.8040 0.9716
0.9288 -7.0188 -1.8331 0.9712
2.8461 -6.7380 -1.8938 0.9702
4.1072 -6.2910 -1.9453 0.9694
4.7212 -5.9867 -1.9741 0.9690
7.6613 -2.1821 -2.0625 0.9676
8.3927 -0.0786 -2.1731 0.9659
8.5055 0.6819 -2.2093 0.9654
8.5443 1.4611 -2.2444 0.9648
6.6387 3.1048 -1.8976 0.9702
5.9832 3.4802 -1.7922 0.9718
4.8467 4.1286 -1.6485 0.9740
4.4104 4.4953 -1.6306 0.9743
3.8479 4.6956 -1.5719 0.9752
3.3747 4.9632 -1.5540 0.9755
2.4408 5.4892 -1.5554 0.9755
1.9653 5.7559 -1.5748 0.9752
0.4043 6.6267 -1.7190 0.9729
-0.1979 6.9611 -1.8031 0.9716
-0.7455 6.2992 -1.6424 0.9741
-1.8265 8.6902 -2.2992 0.9640
-2.5583 8.3730 -2.2668 0.9645
-3.2456 7.9890 -2.2327 0.9650
-3.8829 7.5455 -2.1972 0.9655
-2.1915 2.3839 -0.8384 0.9867
-6.3121 5.7412 -2.2092 0.9654
-6.6795 5.0641 -2.1703 0.9660
-6.9804 4.3699 -2.1323 0.9665
-7.2157 3.6651 -2.0955 0.9671
-7.3871 2.9557 -2.0601 0.9677
-7.5379 0.8517 -1.9641 0.9691
-7.4752 0.1730 -1.9360 0.9696
-7.3604 -0.4882 -1.9099 0.9700
-4.8422 -4.1839 -1.8116 0.9737
-4.4322 -4.5814 -1.8046 0.9738
-3.0464 -5.5665 -1.7964 0.9740
-2.5397 -5.8215 -1.7980 0.9739
-2.0143 -6.0376 -1.8018 0.9739
-1.4723 -6.2138 -1.8078 0.9738
0.8150 -6.4953 -1.8532 0.9732
2.5825 -6.2308 -1.9094 0.9724
3.1656 -6.0467 -1.9322 0.9720
5.3694 -4.8153 -2.0418 0.9705
5.8668 -4.3834 -2.0732 0.9700
6.3110 -3.8894 -2.0986 0.9697
7.5977 -0.1224 -2.1511 0.9689
7.7214 1.2669 -2.2151 0.9680
6.0217 3.4485 -1.9644 0.9716
5.4271 3.7887 -1.8737 0.9729
4.8802 4.1007 -1.8045 0.9738
3.8794 4.6694 -1.7186 0.9751
2.9397 5.2003 -1.6911 0.9755
1.8017 3.9793 -1.2366 0.9820
1.9992 5.7285 -1.7176 0.9751
0.7447 2.9609 -0.8643 0.9874
0.4470 6.5939 -1.8710 0.9729
-0.6954 6.2359 -1.7763 0.9743
-2.2607 7.5817 -2.2397 0.9676
-2.8886 7.2500 -2.2093 0.9681
-3.4736 6.8633 -2.1776 0.9685
-4.4982 5.9510 -2.1118 0.9695
-2.1843 2.4085 -0.9205 0.9866
-5.3113 4.8968 -2.0451 0.9704
-6.5904 3.4036 -2.0998 0.9696
-6.8752 2.1115 -2.0360 0.9705
-6.9336 1.4678 -2.0064 0.9710
-6.8927 0.2060 -1.9521 0.9717
-6.6561 -0.9981 -1.9054 0.9724
-5.9761 -2.6469 -1.8503 0.9732
-4.9628 -4.0548 -1.8142 0.9737
-4.5616 -4.4624 -1.8065 0.9738
-4.1324 -4.8368 -1.8010 0.9739
-3.6773 -5.1766 -1.7976 0.9739
-2.6980 -5.7470 -1.7973 0.9740
-2.1781 -5.9752 -1.8004 0.9739
-1.0888 -6.3117 -1.8132 0.9737
-0.5239 -6.4175 -1.8228 0.9736
0.0513 -6.4803 -1.8346 0.9734
1.8123 -6.3985 -1.8826 0.9727
2.4016 -6.2777 -1.9028 0.9724
2.9867 -6.1087 -1.9250 0.9721
3.5641 -5.8907 -1.9491 0.9718
4.1299 -5.6231 -1.9751 0.9714
6.1814 -4.0485 -2.0918 0.9697
6.1575 -3.2882 -1.9761 0.9714
2.2864 -0.9697 -0.7031 0.9897
6.8624 -2.2115 -2.0411 0.9705
7.1470 -1.6161 -2.0743 0.9700
7.5556 -0.3300 -2.1410 0.9690
7.6704 0.3509 -2.1737 0.9686
7.7199 1.0492 -2.2055 0.9681
7.6101 2.4698 -2.2650 0.9673
6.9014 2.9438 -2.1240 0.9693
6.2171 3.3365 -1.9975 0.9711
4.6007 4.3784 -1.7980 0.9739
4.0974 4.6642 -1.7575 0.9745
3.5507 4.8554 -1.7029 0.9753
3.0831 5.1195 -1.6918 0.9755
1.8691 3.8430 -1.2098 0.9824
0.8663 3.0829 -0.9065 0.9868
1.1574 6.1987 -1.7851 0.9741
0.0399 6.8197 -1.9306 0.9720
-1.3835 7.9226 -2.2768 0.9671
-4.3537 6.1021 -2.1221 0.9693
-4.8041 5.5997 -2.0887 0.9698
-6.2783 4.2367 -2.1442 0.9690
-6.8461 2.3108 -2.0455 0.9704
-6.9122 0.3974 -1.9600 0.9716
-6.7045 -0.8173 -1.9121 0.9723
-6.5322 -1.3969 -1.8910 0.9726
-5.7697 -2.9948 -1.8403 0.9733
-2.8544 -5.6689 -1.7968 0.9740
-0.6992 -6.3895 -1.8196 0.9736
0.4539 -6.4978 -1.8440 0.9733
1.0406 -6.4850 -1.8593 0.9731
1.6304 -6.4261 -1.8768 0.9728
3.3872 -5.9631 -1.9414 0.9719
3.9570 -5.7109 -1.9669 0.9715
4.5126 -5.4088 -1.9941 0.9711
5.0496 -5.0569 -2.0231 0.9707
5.5635 -4.6554 -2.0537 0.9703
6.7650 -2.3877 -2.0309 0.9706
7.0646 -1.8033 -2.0641 0.9701
7.5077 -0.5354 -2.1308 0.9692
7.7118 0.8325 -2.1958 0.9683
7.1305 2.8120 -2.1699 0.9686
6.4193 3.2205 -2.0331 0.9706
5.7870 3.5829 -1.9268 0.9721
5.2124 3.9113 -1.8448 0.9733
4.2502 4.5776 -1.7683 0.9744
2.2927 5.5640 -1.7036 0.9753
0.6722 3.1213 -0.9039 0.9868
0.7900 6.4032 -1.8265 0.9735
0.2244 6.7174 -1.9027 0.9724
-2.5063 7.4613 -2.2282 0.9678
-4.2042 6.2497 -2.1323 0.9692
-6.6628 3.1565 -2.0872 0.9698
-6.9040 1.8640 -2.0245 0.9707
-6.9270 0.5900 -1.9681 0.9715
-6.5900 -1.2205 -1.8973 0.9725
-6.3879 -1.7851 -1.8777 0.9728
-6.1451 -2.3261 -1.8601 0.9731
-5.8638 -2.8415 -1.8446 0.9733
-5.5464 -3.3292 -1.8313 0.9735
-4.4001 -4.6101 -1.8041 0.9739
-3.9607 -4.9713 -1.7994 0.9739
-2.5007 -5.8392 -1.7982 0.9739
-1.9740 -6.0523 -1.8022 0.9739
-1.4308 -6.2255 -1.8083 0.9738
0.2742 -6.4927 -1.8397 0.9733
1.4485 -6.4492 -1.8712 0.9729
2.6267 -6.2186 -1.9111 0.9723
3.7827 -5.7939 -1.9588 0.9716
4.8863 -5.1707 -2.0140 0.9709
5.4079 -4.7844 -2.0441 0.9704
5.9031 -4.3488 -2.0757 0.9700
6.6633 -2.5602 -2.0208 0.9708
7.2427 -1.3787 -2.0872 0.9698
7.4541 -0.7384 -2.1205 0.9693
7.6071 -0.0713 -2.1536 0.9689
7.6973 0.6171 -2.1860 0.9684
6.6289 3.1002 -2.0717 0.9700
5.9748 3.4753 -1.9568 0.9717
3.8432 4.6899 -1.7165 0.9751
2.4379 5.4825 -1.6986 0.9754
1.9629 5.7488 -1.7197 0.9751
-0.7440 6.2864 -1.7920 0.9740
-1.6466 7.8342 -2.2663 0.9673
-2.3094 7.5587 -2.2375 0.9677
-4.0498 6.3935 -2.1425 0.9690
-4.5328 5.9135 -2.1093 0.9695
-6.3804 3.9943 -2.1310 0.9692
-6.9359 1.4195 -2.0042 0.9710
-6.8872 0.1594 -1.9502 0.9718
-3.7212 -4.6066 -1.8214 0.9755
-2.8381 -5.1860 -1.8183 0.9756
-0.8527 -5.9104 -1.8367 0.9753
-0.3235 -5.9943 -1.8464 0.9752
0.2142 -6.0372 -1.8581 0.9750
0.7576 -6.0382 -1.8718 0.9749
1.8513 -5.9103 -1.9050 0.9744
3.4630 -5.3831 -1.9688 0.9736
5.4087 -4.0411 -2.0766 0.9721
5.4471 -3.3569 -1.9680 0.9736
5.7721 -2.8810 -1.9842 0.9734
2.3472 -0.9201 -0.7754 0.9895
6.3793 -1.8635 -2.0441 0.9726
6.6172 -1.3059 -2.0746 0.9722
6.8056 -0.7205 -2.1050 0.9718
6.9405 -0.1118 -2.1350 0.9714
7.0181 0.5150 -2.1644 0.9710
6.9896 1.7996 -2.2200 0.9702
6.8790 2.4439 -2.2454 0.9699
6.0132 3.4436 -2.1313 0.9714
3.8746 4.6636 -1.8649 0.9749
3.4018 4.9312 -1.8426 0.9752
1.7953 3.9653 -1.3388 0.9819
0.7761 3.0856 -0.9786 0.9868
0.4464 6.5850 -2.0300 0.9728
-0.1500 6.9152 -2.1275 0.9715
-0.6942 6.2254 -1.9267 0.9741
-3.1697 6.2629 -2.1590 0.9711
-3.6651 5.8735 -2.1294 0.9714
-4.1156 5.4448 -2.0993 0.9718
-2.1849 2.4092 -1.0004 0.9865
-4.8726 4.4923 -2.0385 0.9726
-5.5764 4.2873 -2.1635 0.9710
-6.3472 1.9494 -2.0423 0.9726
-6.3836 0.1908 -1.9643 0.9736
-6.1754 -0.9260 -1.9207 0.9742
-4.6203 -3.7750 -1.8351 0.9753
-4.2481 -4.1557 -1.8279 0.9754
-3.4257 -4.8224 -1.8194 0.9755
-2.0289 -5.5658 -1.8221 0.9755
0.0477 -6.0284 -1.8543 0.9751
1.1357 -6.0137 -1.8824 0.9747
1.6829 -5.9415 -1.8994 0.9745
2.7689 -5.6633 -1.9390 0.9740
4.3263 -4.9044 -2.0115 0.9730
5.6920 -3.7280 -2.0928 0.9719
6.2966 -2.0292 -2.0348 0.9727
6.9049 -0.3016 -2.1258 0.9715
7.0005 0.3202 -2.1555 0.9711
7.0367 0.9563 -2.1842 0.9707
7.0106 1.6005 -2.2118 0.9704
6.9201 2.2458 -2.2378 0.9700
6.2082 3.3317 -2.1671 0.9709
5.0379 4.0018 -1.9789 0.9734
0.0399 6.8102 -2.0947 0.9719
-0.5128 6.1268 -1.8911 0.9746
-2.4592 6.7036 -2.1962 0.9706
-3.0084 6.3741 -2.1679 0.9709
-3.5171 5.9980 -2.1386 0.9713
-4.7688 4.6460 -2.0478 0.9725
-5.4740 4.4538 -2.1706 0.9709
-6.0081 3.3155 -2.1107 0.9717
-6.1896 2.7262 -2.0803 0.9721
-6.3949 1.5389 -2.0231 0.9728
-6.4215 0.9494 -1.9966 0.9732
-6.3997 0.3679 -1.9717 0.9735
-6.3315 -0.2023 -1.9484 0.9738
-6.2188 -0.7581 -1.9269 0.9741
-6.0637 -1.2967 -1.9072 0.9744
-5.8685 -1.8156 -1.8894 0.9746
-5.3663 -2.7854 -1.8596 0.9750
-4.7293 -3.6516 -1.8378 0.9753
-4.3657 -4.0417 -1.8299 0.9754
-3.9748 -4.4010 -1.8240 0.9755
-3.5587 -4.7282 -1.8202 0.9755
-3.1194 -5.0220 -1.8184 0.9756
-2.6592 -5.2812 -1.8187 0.9756
-2.1800 -5.5044 -1.8210 0.9755
-1.1736 -5.8387 -1.8318 0.9754
0.9671 -6.0272 -1.8775 0.9748
2.0606 -5.8656 -1.9122 0.9743
2.6031 -5.7179 -1.9324 0.9741
3.1382 -5.5249 -1.9543 0.9738
3.6627 -5.2861 -1.9780 0.9734
4.1726 -5.0014 -2.0034 0.9731
5.1329 -4.2950 -2.0586 0.9724
5.5706 -3.8718 -2.0866 0.9720
6.6955 -1.0844 -2.0862 0.9720
6.9772 0.1268 -2.1464 0.9712
7.0320 0.7591 -2.1755 0.9708
7.0254 1.4015 -2.2034 0.9705
5.2055 3.9061 -2.0017 0.9731
3.1972 4.9926 -1.8235 0.9755
1.8114 5.8250 -1.8763 0.9748
0.6434 2.9874 -0.9399 0.9873
0.7890 6.3948 -1.9818 0.9734
0.2241 6.7082 -2.0644 0.9723
-1.0621 7.2565 -2.2557 0.9698
-1.6869 7.0550 -2.2311 0.9701
-2.2824 6.7948 -2.2047 0.9704
-6.1393 2.9085 -2.0895 0.9720
-6.3766 1.7216 -2.0315 0.9727
-6.4115 0.5461 -1.9792 0.9734
-6.3573 -0.0280 -1.9554 0.9737
-6.1159 -1.1327 -1.9131 0.9743
-5.9328 -1.6579 -1.8947 0.9745
-5.4529 -2.6423 -1.8637 0.9750
-4.8356 -3.5254 -1.8406 0.9753
-4.4808 -3.9246 -1.8321 0.9754
-3.6895 -4.6309 -1.8211 0.9755
-2.8031 -5.2051 -1.8184 0.9756
-2.3296 -5.4395 -1.8201 0.9755
-1.8386 -5.6373 -1.8238 0.9755
-0.8131 -5.9181 -1.8374 0.9753
-0.2832 -5.9990 -1.8472 0.9752
0.7988 -6.0365 -1.8729 0.9748
1.3456 -5.9912 -1.8887 0.9746
1.8925 -5.9020 -1.9064 0.9744
2.9743 -5.5893 -1.9474 0.9739
3.5024 -5.3646 -1.9706 0.9735
4.0173 -5.0940 -1.9954 0.9732
4.5148 -4.7776 -2.0218 0.9729
4.9911 -4.4156 -2.0497 0.9725
5.4401 -3.3023 -1.9574 0.9737
5.7979 -2.8452 -1.9865 0.9733
6.1190 -2.3511 -2.0162 0.9729
6.3988 -1.8225 -2.0464 0.9725
6.6332 -1.2626 -2.0769 0.9721
6.8177 -0.6754 -2.1072 0.9717
7.0216 0.5629 -2.1666 0.9710
6.9836 1.8483 -2.2220 0.9702
6.8680 2.4922 -2.2472 0.9699
5.9664 3.4704 -2.1230 0.9715
4.8342 4.1180 -1.9532 0.9738
0.7237 2.9617 -0.9378 0.9873
0.4032 6.6089 -2.0365 0.9727
-0.1974 6.9415 -2.1359 0.9714
-1.4972 7.1235 -2.2389 0.9700
-2.1927 2.3853 -0.9966 0.9865
-5.6005 4.2461 -2.1617 0.9710
-6.4109 1.3121 -2.0127 0.9730
-6.2934 -0.4174 -1.9400 0.9740
-3.0772 -4.5947 -1.8382 0.9770
-2.6541 -4.8497 -1.8377 0.9770
-1.2816 -5.4092 -1.8478 0.9768
-0.3022 -5.6001 -1.8642 0.9766
0.7072 -5.6360 -1.8881 0.9763
1.2168 -5.5936 -1.9028 0.9762
1.7260 -5.5101 -1.9193 0.9760
2.7314 -5.2173 -1.9576 0.9755
3.6979 -4.7547 -2.0022 0.9749
4.5971 -4.1227 -2.0526 0.9743
5.0118 -3.7446 -2.0796 0.9740
5.0093 -3.0872 -1.9560 0.9755
5.8850 -1.7191 -2.0380 0.9745
6.0975 -1.2033 -2.0659 0.9741
6.2639 -0.6632 -2.0938 0.9738
6.3808 -0.1028 -2.1213 0.9735
6.4450 0.4730 -2.1481 0.9731
6.4539 1.0589 -2.1740 0.9728
6.2980 2.2375 -2.2217 0.9722
5.9048 3.3816 -2.2619 0.9717
3.8697 4.6578 -2.0129 0.9748
3.3976 4.9251 -1.9889 0.9751
2.9325 5.1875 -1.9808 0.9752
1.7763 3.9233 -1.4316 0.9820
1.9942 5.7142 -2.0118 0.9748
0.7736 3.0757 -1.0542 0.9867
-0.6930 6.2149 -2.0787 0.9740
-1.3281 6.5376 -2.2175 0.9723
-1.8862 6.3256 -2.1941 0.9726
-2.4155 6.0625 -2.1693 0.9729
-2.9114 5.7527 -2.1432 0.9732
-3.7888 5.0125 -2.0886 0.9739
-4.4961 4.1452 -2.0328 0.9746
-5.1419 3.9533 -2.1560 0.9730
-5.4111 3.4385 -2.1311 0.9733
-5.6195 2.9022 -2.1024 0.9737
-5.8671 -0.3494 -1.9537 0.9755
-5.1865 -2.2972 -1.8856 0.9764
-4.9278 -2.7326 -1.8730 0.9765
-4.3182 -3.5281 -1.8536 0.9768
-3.2035 -4.5096 -1.8387 0.9770
-2.3504 -5.0066 -1.8385 0.9770
-0.9474 -5.4923 -1.8526 0.9768
0.0446 -5.6304 -1.8716 0.9765
0.5505 -5.6408 -1.8839 0.9764
1.0596 -5.6110 -1.8981 0.9762
1.5692 -5.5403 -1.9141 0.9760
2.5783 -5.2735 -1.9512 0.9756
3.0715 -5.0765 -1.9723 0.9753
3.5526 -4.8371 -1.9949 0.9750
4.4642 -4.2310 -2.0445 0.9744
5.2690 -3.4510 -2.0937 0.9738
5.2395 -2.7980 -1.9744 0.9753
5.8109 -1.8726 -2.0294 0.9746
6.0367 -1.3651 -2.0573 0.9742
6.3502 -0.2774 -2.1129 0.9736
6.4310 0.2942 -2.1399 0.9732
6.4572 0.8776 -2.1662 0.9729
6.4266 1.4672 -2.1912 0.9726
6.3375 2.0567 -2.2148 0.9723
5.0312 3.9965 -2.1358 0.9733
3.5420 4.8435 -1.9946 0.9750
2.1413 5.6319 -2.0028 0.9749
0.0398 6.8006 -2.2606 0.9717
-1.1511 6.5920 -2.2244 0.9722
-2.7624 5.8528 -2.1513 0.9731
-3.6643 5.1358 -2.0972 0.9738
-4.6987 3.8230 -2.0135 0.9748
-5.3368 3.6014 -2.1401 0.9732
-5.5606 3.0686 -2.1111 0.9736
-5.7347 2.5259 -2.0830 0.9739
-5.8598 1.9779 -2.0558 0.9743
-5.9369 1.4287 -2.0298 0.9746
-5.9673 0.8823 -2.0051 0.9749
-5.6527 -1.2088 -1.9215 0.9759
-5.4742 -1.6936 -1.9047 0.9761
-5.2596 -2.1583 -1.8898 0.9763
-4.4197 -3.4125 -1.8561 0.9767
-4.0810 -3.7781 -1.8486 0.9768
-3.7164 -4.1148 -1.8431 0.9769
-3.3277 -4.4214 -1.8395 0.9769
-2.9172 -4.6964 -1.8378 0.9770
-2.0385 -5.1471 -1.8402 0.9769
-1.0970 -5.4575 -1.8504 0.9768
-0.6081 -5.5574 -1.8584 0.9767
1.4123 -5.5665 -1.9090 0.9761
1.9206 -5.4670 -1.9261 0.9759
3.8765 -4.6465 -2.0115 0.9748
4.3290 -4.3353 -2.0365 0.9745
5.1578 -3.5849 -2.0879 0.9739
5.7328 -2.0233 -2.0208 0.9747
5.9717 -1.5244 -2.0487 0.9744
6.1670 -0.9988 -2.0766 0.9740
6.4118 0.1165 -2.1317 0.9733
6.4551 0.6969 -2.1582 0.9730
6.4422 1.2852 -2.1836 0.9727
6.0513 3.0359 -2.2504 0.9719
5.7708 3.5729 -2.2561 0.9718
5.1985 3.9008 -2.1604 0.9730
3.6873 4.7612 -2.0018 0.9749
2.7544 5.2878 -1.9819 0.9752
1.8092 5.8177 -2.0252 0.9746
0.2238 6.6989 -2.2280 0.9721
-0.3431 6.1235 -2.0387 0.9745
-2.0929 6.2305 -2.1848 0.9727
-3.0920 5.6224 -2.1329 0.9733
-3.5357 5.2560 -2.1057 0.9737
-3.9381 4.8547 -2.0779 0.9740
-2.2580 2.3245 -1.0772 0.9864
-4.6112 3.9677 -2.0221 0.9747
-5.6863 2.6939 -2.0916 0.9738
-5.8265 2.1471 -2.0641 0.9742
-5.9628 1.0502 -2.0126 0.9748
-5.9616 0.5078 -1.9889 0.9751
-5.9163 -0.0260 -1.9666 0.9754
-5.7001 -1.0557 -1.9270 0.9759
-5.5331 -1.5462 -1.9097 0.9761
-3.4499 -4.3302 -1.8404 0.9769
-3.0459 -4.6151 -1.8381 0.9770
-1.7190 -5.2708 -1.8429 0.9769
-1.2454 -5.4192 -1.8483 0.9768
1.7643 -5.5021 -1.9207 0.9759
2.7687 -5.2030 -1.9591 0.9755
3.2577 -4.9897 -1.9808 0.9752
3.7332 -4.7339 -2.0040 0.9749
4.6293 -4.0956 -2.0546 0.9743
5.0420 -3.7145 -2.0817 0.9739
5.0352 -3.0565 -1.9580 0.9755
5.9026 -1.6811 -2.0401 0.9745
6.2745 -0.6215 -2.0959 0.9738
6.3875 -0.0598 -2.1233 0.9734
6.2875 2.2816 -2.2234 0.9722
6.1161 2.8604 -2.2444 0.9719
5.8854 3.4233 -2.2632 0.9717
5.3698 3.8028 -2.1872 0.9726
4.2284 4.3098 -2.0070 0.9749
1.7619 3.9624 -1.4415 0.9819
0.7524 3.0791 -1.0536 0.9867
0.9533 6.2945 -2.1162 0.9735
0.4027 6.5999 -2.1979 0.9725
