ply
format ascii 1.0
element vertex 1591
property float32 x
property float32 y
property float32 z
property float32 I
end_header
0.5484 -10.4916 -1.9747 0.9581
1.4846 -10.4204 -1.9784 0.9581
2.4101 -10.2555 -1.9802 0.9580
6.6395 -8.2555 -1.9913 0.9578
7.3587 -7.6403 -1.9938 0.9577
8.0214 -6.9628 -1.9965 0.9577
8.6220 -6.2281 -1.9992 0.9576
9.1555 -5.4417 -2.0019 0.9576
9.6175 -4.6098 -2.0046 0.9575
9.7356 -1.7621 -1.8596 0.9605
9.8906 0.8810 -1.8664 0.9604
9.5967 2.6296 -1.8703 0.9603
9.3325 3.4782 -1.8720 0.9603
7.4742 4.4332 -1.6334 0.9652
6.9892 5.0389 -1.6195 0.9655
3.5490 3.6781 -0.9607 0.9794
1.9183 8.1295 -1.5700 0.9666
-2.9770 9.4868 -1.8689 0.9603
-4.9838 9.5107 -2.0182 0.9572
-5.8051 9.0175 -2.0158 0.9573
-6.5780 8.4533 -2.0133 0.9573
-8.5470 6.3850 -2.0053 0.9575
-9.0699 5.5897 -2.0025 0.9576
-9.5193 4.7521 -1.9998 0.9576
-10.1848 2.9773 -1.9945 0.9577
-10.3962 2.0545 -1.9919 0.9578
-10.5248 1.1178 -1.9894 0.9578
-10.5698 0.1745 -1.9870 0.9579
-10.5312 -0.7680 -1.9847 0.9579
-10.4095 -1.7023 -1.9826 0.9580
-10.2060 -2.6213 -1.9806 0.9580
-9.5615 -4.3851 -1.9772 0.9581
-9.1258 -5.2166 -1.9758 0.9581
-8.6189 -6.0060 -1.9745 0.9581
-7.4639 -6.2601 -1.8310 0.9611
-6.2289 -7.4815 -1.8298 0.9612
-5.5360 -8.0060 -1.8295 0.9612
-4.7998 -8.4675 -1.8295 0.9612
-2.3885 -9.4417 -1.8306 0.9611
-0.6784 -9.7906 -1.8447 0.9608
0.2072 -10.2972 -1.9359 0.9589
1.1491 -10.4595 -1.9778 0.9581
2.0791 -10.3242 -1.9795 0.9580
2.9944 -10.1072 -1.9814 0.9580
3.8879 -9.8100 -1.9834 0.9580
7.7901 -7.2132 -1.9955 0.9577
9.4337 -2.9229 -1.8563 0.9606
9.8284 -1.2036 -1.8612 0.9605
9.9088 -0.3227 -1.8635 0.9605
9.8309 1.4461 -1.8677 0.9604
9.6728 2.3195 -1.8696 0.9603
8.9440 3.9295 -1.8362 0.9610
7.1458 4.8110 -1.6192 0.9655
6.5814 5.3424 -1.5933 0.9661
4.0373 6.8633 -1.4967 0.9681
2.4937 6.7656 -1.3553 0.9711
-0.9291 9.9211 -1.8729 0.9603
-1.8086 9.7903 -1.8713 0.9603
-2.6720 9.5809 -1.8696 0.9603
-4.6779 9.6698 -2.0190 0.9572
-6.3062 8.6639 -2.0142 0.9573
-7.0447 8.0567 -2.0116 0.9574
-7.7250 7.3866 -2.0090 0.9574
-8.3417 6.6593 -2.0063 0.9575
-8.8903 5.8808 -2.0035 0.9575
-10.0888 3.3042 -1.9954 0.9577
-10.3297 2.3882 -1.9928 0.9578
-10.4882 1.4556 -1.9903 0.9578
-10.5546 -0.4298 -1.9855 0.9579
-10.2885 -2.2932 -1.9813 0.9580
-8.8090 -5.7275 -1.9750 0.9581
-7.6622 -6.0183 -1.8313 0.9611
-7.0919 -6.6748 -1.8305 0.9611
-5.7903 -7.8245 -1.8296 0.9612
-5.0690 -8.3091 -1.8295 0.9612
-4.3080 -8.7284 -1.8295 0.9612
-3.5129 -9.0793 -1.8298 0.9612
-1.8453 -9.5654 -1.8311 0.9611
-0.1210 -10.1098 -1.9004 0.9597
0.8126 -10.4880 -1.9772 0.9581
1.7462 -10.3823 -1.9789 0.9581
6.0907 -8.6566 -1.9895 0.9578
7.5510 -7.4559 -1.9946 0.9577
8.1968 -6.7618 -1.9972 0.9577
9.7339 -4.3685 -2.0054 0.9575
9.3306 -3.2226 -1.8554 0.9606
9.5936 -2.3808 -1.8579 0.9606
9.8890 -0.6402 -1.8626 0.9605
9.8684 1.1294 -1.8670 0.9604
9.7387 2.0072 -1.8690 0.9603
9.5302 2.8705 -1.8708 0.9603
7.2949 4.5782 -1.6188 0.9656
6.8330 5.1919 -1.6130 0.9657
4.7575 4.3359 -1.2099 0.9741
4.2567 6.7321 -1.4971 0.9681
3.6457 7.0973 -1.4997 0.9680
0.6248 2.9809 -0.5725 0.9877
1.1683 9.9121 -1.8760 0.9602
0.2795 9.9707 -1.8748 0.9602
-1.4940 9.8465 -1.8719 0.9603
-6.7857 8.2825 -2.0125 0.9574
-7.4875 7.6343 -2.0099 0.9574
-8.1277 6.9269 -2.0072 0.9575
-8.7012 6.1661 -2.0045 0.9575
-9.2039 5.3582 -2.0018 0.9576
-9.6320 4.5099 -1.9991 0.9576
-10.2525 2.7197 -1.9937 0.9577
-10.5459 0.8529 -1.9887 0.9579
-10.1343 -2.8759 -1.9801 0.9580
-9.8288 -3.7649 -1.9783 0.9581
-8.3207 -6.1142 -1.9408 0.9588
-7.3035 -6.4447 -1.8308 0.9611
-6.6972 -7.0678 -1.8302 0.9611
-6.0387 -7.6351 -1.8297 0.9612
-5.3331 -8.1422 -1.8295 0.9612
-4.5857 -8.5854 -1.8295 0.9612
-3.8022 -8.9612 -1.8297 0.9612
-2.1510 -9.4997 -1.8308 0.9611
0.4729 -10.4487 -1.9660 0.9583
3.2481 -10.0316 -1.9819 0.9580
4.9895 -9.3153 -1.9862 0.9579
6.5810 -8.3008 -1.9911 0.9578
7.3044 -7.6907 -1.9936 0.9577
7.9717 -7.0179 -1.9963 0.9577
9.1163 -5.5050 -2.0017 0.9576
9.4670 -3.6137 -1.9047 0.9596
5.0909 -0.4941 -0.9614 0.9794
9.9171 -0.0738 -1.8641 0.9604
9.3559 3.4127 -1.8719 0.9603
7.0239 4.9897 -1.6194 0.9655
4.4764 6.6008 -1.4991 0.9681
3.8656 6.9659 -1.4974 0.9681
3.2512 7.3330 -1.5077 0.9679
1.9708 8.0982 -1.5666 0.9666
1.4860 9.8714 -1.8763 0.9602
0.5994 9.9589 -1.8753 0.9602
-0.2909 9.9658 -1.8740 0.9602
-2.0533 9.7393 -1.8709 0.9603
-2.9109 9.5081 -1.8690 0.9603
-4.9176 9.5462 -2.0184 0.9572
-5.7425 9.0587 -2.0160 0.9573
-7.9050 7.1876 -2.0082 0.9574
-8.5030 6.4453 -2.0055 0.9575
-9.0316 5.6536 -2.0028 0.9576
-9.8655 3.9484 -1.9973 0.9577
-10.3826 2.1273 -1.9921 0.9578
-10.5177 1.1914 -1.9896 0.9578
-10.4220 -1.6297 -1.9827 0.9580
-10.2249 -2.5501 -1.9807 0.9580
-8.6610 -5.9459 -1.9746 0.9581
-6.9214 -6.8501 -1.8304 0.9611
-6.2811 -7.4379 -1.8298 0.9612
-5.5918 -7.9671 -1.8295 0.9612
-4.0876 -8.8341 -1.8296 0.9612
-1.6048 -9.6099 -1.8313 0.9611
3.8189 -9.8360 -1.9832 0.9580
4.6860 -9.4667 -1.9854 0.9579
-9.3433 -0.9837 -1.9859 0.9623
-8.7271 -3.4130 -1.9808 0.9624
-8.3821 -4.1748 -1.9794 0.9624
-7.4987 -5.5913 -1.9772 0.9625
-5.4294 -6.9642 -1.8666 0.9645
-4.7532 -7.3686 -1.8535 0.9648
-4.0798 -7.7683 -1.8547 0.9648
-3.3990 -8.1693 -1.8703 0.9645
-1.9719 -9.0005 -1.9476 0.9630
-0.3470 -9.3528 -1.9784 0.9625
1.3219 -9.2780 -1.9810 0.9624
2.1457 -9.1303 -1.9825 0.9624
2.9540 -8.9103 -1.9843 0.9623
3.7404 -8.6195 -1.9861 0.9623
5.9074 -7.3452 -1.9925 0.9622
6.5464 -6.7969 -1.9947 0.9622
7.1349 -6.1933 -1.9971 0.9621
7.6680 -5.5389 -1.9995 0.9621
8.5507 -4.0985 -2.0043 0.9620
8.8614 -3.3118 -1.9997 0.9621
8.4679 -2.3286 -1.8564 0.9647
8.8118 -0.0040 -1.8626 0.9646
8.7860 0.7827 -1.8645 0.9646
8.5230 2.3354 -1.8680 0.9645
5.0445 6.2606 -1.6995 0.9677
4.4283 6.6289 -1.6851 0.9679
3.8175 6.9940 -1.6843 0.9679
3.2025 7.3615 -1.6969 0.9677
1.2580 8.7725 -1.8733 0.9644
0.4704 8.8451 -1.8723 0.9644
-0.3201 8.8464 -1.8712 0.9645
-4.4276 8.4494 -2.0164 0.9618
-5.8455 7.5120 -2.0120 0.9618
-7.0706 6.3392 -2.0073 0.9619
-7.5986 5.6766 -2.0049 0.9620
-9.0602 2.6486 -1.9953 0.9621
-9.3652 0.9946 -1.9908 0.9622
-9.3734 -0.6836 -1.9866 0.9623
-9.2662 -1.5153 -1.9847 0.9623
-9.0861 -2.3336 -1.9829 0.9624
-8.8346 -3.1321 -1.9813 0.9624
-8.1265 -4.6454 -1.9786 0.9625
-7.1648 -6.0092 -1.9767 0.9625
-6.3723 -6.3954 -1.9084 0.9638
-5.6752 -6.8165 -1.8749 0.9644
-2.9543 -8.4297 -1.8881 0.9641
0.1884 -9.3610 -1.9791 0.9624
1.0232 -9.3132 -1.9805 0.9624
1.8511 -9.1918 -1.9820 0.9624
3.4607 -8.7321 -1.9855 0.9623
4.2298 -8.3969 -1.9874 0.9623
7.4830 -5.7796 -1.9986 0.9621
8.7688 -3.6020 -2.0038 0.9620
8.3853 -2.5980 -1.8556 0.9647
8.5936 -1.8420 -1.8578 0.9647
8.7336 -1.0695 -1.8599 0.9647
8.8038 -0.2867 -1.8619 0.9646
8.8035 0.5001 -1.8639 0.9646
8.7324 1.2845 -1.8657 0.9646
7.7567 4.2703 -1.8717 0.9644
6.5809 5.3420 -1.7917 0.9659
2.4936 6.7655 -1.5241 0.9710
0.7542 8.8272 -1.8727 0.9644
-1.6062 8.6944 -1.8689 0.9645
-2.3732 8.5093 -1.8673 0.9645
-4.1557 8.5903 -2.0171 0.9617
-4.9002 8.1769 -2.0150 0.9618
-7.4158 5.9201 -2.0058 0.9619
-8.3293 4.4976 -2.0009 0.9620
-8.6868 3.7323 -1.9985 0.9621
-9.1899 2.1247 -1.9938 0.9622
-9.3322 1.2951 -1.9916 0.9622
-9.3938 -0.3826 -1.9873 0.9623
-9.3132 -1.2176 -1.9854 0.9623
-8.9330 -2.8478 -1.9819 0.9624
-8.6369 -3.6303 -1.9804 0.9624
-8.2732 -4.3832 -1.9791 0.9624
-5.9232 -6.6670 -1.8851 0.9642
-5.2384 -7.0787 -1.8615 0.9646
-4.5640 -7.4812 -1.8524 0.9648
-3.8896 -7.8806 -1.8577 0.9647
-3.2049 -8.2831 -1.8774 0.9643
-1.7600 -9.1229 -1.9640 0.9627
-0.9459 -9.3077 -1.9776 0.9625
0.7236 -9.3388 -1.9800 0.9624
1.5547 -9.2438 -1.9814 0.9624
2.3748 -9.0757 -1.9830 0.9624
4.7060 -8.1467 -1.9887 0.9623
5.4197 -7.7028 -1.9909 0.9622
6.0919 -7.1968 -1.9931 0.9622
6.7172 -6.6325 -1.9954 0.9621
7.8073 -5.3465 -2.0002 0.9621
8.6538 -3.8838 -2.0050 0.9620
8.2940 -2.8646 -1.8548 0.9648
8.5265 -2.1160 -1.8570 0.9647
8.6912 -1.3487 -1.8591 0.9647
8.7866 -0.5688 -1.8612 0.9646
8.8117 0.2173 -1.8632 0.9646
8.6498 1.7828 -1.8668 0.9645
8.2091 3.2965 -1.8699 0.9645
7.8879 4.0183 -1.8712 0.9645
7.2512 4.5508 -1.8096 0.9656
5.4965 5.9904 -1.7185 0.9673
4.8701 6.3648 -1.6941 0.9678
4.2564 6.7317 -1.6835 0.9680
3.6455 7.0968 -1.6865 0.9679
1.0372 8.8001 -1.8730 0.9644
0.2481 8.8527 -1.8720 0.9644
-0.5420 8.8339 -1.8708 0.9645
-3.8793 8.7224 -2.0179 0.9617
-4.6370 8.3331 -2.0158 0.9618
-6.0304 7.3605 -2.0114 0.9618
-7.2251 6.1577 -2.0066 0.9619
-8.5662 4.0109 -1.9994 0.9621
-8.8791 3.2271 -1.9970 0.9621
-9.2896 1.5946 -1.9924 0.9622
-9.3844 0.7589 -1.9901 0.9622
-9.4047 -0.0809 -1.9880 0.9623
-9.2228 -1.7470 -1.9842 0.9624
-8.4115 -4.1164 -1.9795 0.9624
-8.0060 -4.8472 -1.9783 0.9625
-7.5379 -5.5390 -1.9773 0.9625
-6.9226 -6.1087 -1.9516 0.9630
-5.4828 -6.9322 -1.8682 0.9645
-4.8058 -7.3372 -1.8540 0.9648
-2.0303 -8.9667 -1.9434 0.9631
-0.4123 -9.3498 -1.9783 0.9625
1.2569 -9.2864 -1.9809 0.9624
2.0817 -9.1445 -1.9824 0.9624
2.8915 -8.9301 -1.9841 0.9624
4.4405 -8.2904 -1.9880 0.9623
6.4982 -6.8418 -1.9946 0.9622
7.6284 -5.5918 -1.9993 0.9621
8.1064 -4.8951 -2.0017 0.9620
8.5210 -4.1577 -2.0042 0.9620
8.4507 -2.3875 -1.8562 0.9647
8.8108 -0.0656 -1.8625 0.9646
8.6997 1.5038 -1.8662 0.9645
8.0109 3.7622 -1.8708 0.9645
7.5523 4.4085 -1.8485 0.9649
6.3882 5.4572 -1.7760 0.9662
5.0932 6.2315 -1.7012 0.9676
4.4762 6.6003 -1.6857 0.9679
3.8654 6.9654 -1.6839 0.9680
3.2510 7.3325 -1.6955 0.9677
1.3193 8.7638 -1.8734 0.9644
0.5322 8.8420 -1.8724 0.9644
-0.2583 8.8489 -1.8713 0.9645
-1.0457 8.7844 -1.8700 0.9645
-2.5854 8.4450 -1.8669 0.9645
-3.5987 8.8455 -2.0186 0.9617
-7.5595 5.7301 -2.0051 0.9620
-8.4368 4.2856 -2.0002 0.9621
-9.2374 1.8927 -1.9932 0.9622
-9.3589 1.0601 -1.9909 0.9622
-9.4060 0.2210 -1.9888 0.9623
-9.3786 -0.6181 -1.9868 0.9623
-8.8568 -3.0705 -1.9815 0.9624
-8.5414 -3.8453 -1.9800 0.9624
-7.2069 -5.9592 -1.9767 0.9625
-4.3748 -7.5936 -1.8525 0.9648
-0.7120 -9.3299 -1.9779 0.9625
0.1230 -9.3616 -1.9790 0.9624
0.9580 -9.3196 -1.9803 0.9624
1.7867 -9.2039 -1.9818 0.9624
2.6026 -9.0154 -1.9835 0.9624
4.1707 -8.4256 -1.9872 0.9623
4.9106 -8.0284 -1.9893 0.9623
-8.2206 2.1193 -1.9952 0.9657
-8.4632 -0.1320 -1.9893 0.9658
-8.4102 -0.8854 -1.9875 0.9658
-8.1060 -2.3616 -1.9843 0.9659
-7.8576 -3.0730 -1.9829 0.9659
-4.5617 -7.0719 -1.9778 0.9660
-3.2332 -7.7706 -1.9781 0.9660
-1.8021 -8.2254 -1.9790 0.9660
0.4401 -8.4209 -1.9818 0.9659
1.1901 -8.3534 -1.9831 0.9659
3.3668 -7.7586 -1.9877 0.9658
4.7003 -7.0501 -1.9914 0.9658
6.4187 -5.5716 -1.9976 0.9657
7.3222 -4.3521 -2.0019 0.9656
7.9793 -2.9821 -2.0020 0.9656
7.8958 0.7034 -1.8631 0.9680
7.1733 3.4302 -1.8687 0.9679
6.8427 4.0586 -1.8698 0.9678
3.5617 3.6912 -1.2055 0.9791
4.9986 6.2037 -1.8724 0.9678
4.4259 6.6255 -1.8726 0.9678
3.8173 6.9935 -1.8725 0.9678
2.2922 6.8931 -1.7073 0.9706
1.8289 7.7506 -1.8716 0.9678
0.4226 7.9456 -1.8700 0.9678
-0.9945 7.8849 -1.8678 0.9679
-1.6926 7.7592 -1.8665 0.9679
-2.3760 7.5714 -1.8650 0.9679
-3.2846 7.9145 -2.0139 0.9654
-3.9793 7.5939 -2.0149 0.9654
-4.6363 7.2019 -2.0130 0.9654
-5.2548 6.7529 -2.0110 0.9655
-5.8301 6.2509 -2.0089 0.9655
-6.3576 5.7000 -2.0068 0.9655
-7.2533 4.4702 -2.0024 0.9656
-7.6148 3.8013 -2.0003 0.9656
-7.9149 3.1037 -1.9981 0.9657
-8.4279 0.8951 -1.9919 0.9658
-8.4659 0.1397 -1.9900 0.9658
-8.3412 -1.3641 -1.9864 0.9659
-7.9541 -2.8199 -1.9834 0.9659
-7.6659 -3.5157 -1.9821 0.9659
-7.3176 -4.1830 -1.9810 0.9660
-6.4523 -5.4116 -1.9792 0.9660
-4.7864 -6.9220 -1.9779 0.9660
-4.1499 -7.3211 -1.9778 0.9660
-3.4807 -7.6625 -1.9780 0.9660
-1.3292 -8.3170 -1.9795 0.9660
0.1696 -8.4289 -1.9814 0.9660
3.1151 -7.8602 -1.9871 0.9659
4.4701 -7.1948 -1.9907 0.9658
5.0989 -6.7741 -1.9927 0.9658
5.6886 -6.2988 -1.9947 0.9657
6.7314 -5.1991 -1.9990 0.9657
7.1760 -4.5830 -2.0011 0.9656
7.5644 -3.9290 -2.0033 0.9656
7.8932 -3.2423 -2.0055 0.9655
7.7257 -1.6560 -1.8570 0.9681
7.8507 -0.9614 -1.8589 0.9680
7.8471 1.1543 -1.8641 0.9679
7.5291 2.5340 -1.8670 0.9679
6.9681 3.8362 -1.8694 0.9678
6.6016 4.4446 -1.8704 0.9678
4.6361 6.4799 -1.8726 0.9678
4.0367 6.8623 -1.8712 0.9678
0.5324 3.0193 -0.7205 0.9875
0.6774 7.9293 -1.8704 0.9678
-0.0324 7.9540 -1.8694 0.9678
-1.4431 7.8116 -1.8670 0.9679
-2.1324 7.6460 -1.8656 0.9679
-3.7348 7.7203 -2.0156 0.9654
-5.0373 6.9206 -2.0117 0.9654
-5.6286 6.4372 -2.0097 0.9655
-6.6685 5.3235 -2.0054 0.9655
-7.8142 3.3574 -1.9989 0.9657
-8.0739 2.6443 -1.9967 0.9657
-8.2688 1.9117 -1.9946 0.9657
-8.4600 0.4115 -1.9906 0.9658
-7.7765 -3.2687 -1.9825 0.9659
-6.1310 -5.7704 -1.9788 0.9660
-5.0063 -6.7651 -1.9779 0.9660
-4.3827 -7.1841 -1.9778 0.9660
-3.7247 -7.5466 -1.9779 0.9660
-2.3256 -8.0911 -1.9786 0.9660
-1.5952 -8.2689 -1.9792 0.9660
-0.8518 -8.3816 -1.9800 0.9660
0.6515 -8.4087 -1.9822 0.9659
1.3998 -8.3225 -1.9835 0.9659
2.1380 -8.1705 -1.9849 0.9659
3.5614 -7.6735 -1.9882 0.9658
6.0434 -5.9673 -1.9961 0.9657
6.5585 -5.4103 -1.9982 0.9657
7.4315 -4.1681 -2.0025 0.9656
8.0069 -2.7654 -1.9909 0.9658
7.9195 0.1953 -1.8618 0.9680
7.6045 2.2905 -1.8665 0.9679
7.3752 2.9617 -1.8679 0.9679
7.0861 3.6098 -1.8691 0.9679
4.8690 4.4375 -1.5483 0.9733
4.8415 6.3275 -1.8725 0.9678
4.2561 6.7312 -1.8717 0.9678
3.6406 7.0874 -1.8726 0.9678
2.9937 7.3830 -1.8724 0.9678
2.3228 7.6190 -1.8720 0.9678
-0.4869 7.9361 -1.8687 0.9679
-1.1920 7.8559 -1.8675 0.9679
-1.8864 7.7127 -1.8661 0.9679
-2.5647 7.5077 -1.8646 0.9679
-4.1676 7.4896 -2.0144 0.9654
-6.4967 5.5369 -2.0062 0.9655
-6.9571 4.9301 -2.0040 0.9656
-7.3610 4.2853 -2.0018 0.9656
-7.7055 3.6078 -1.9996 0.9656
-7.9879 2.9031 -1.9975 0.9657
-8.3591 1.4349 -1.9933 0.9658
-8.4454 0.6830 -1.9913 0.9658
-8.4167 -0.8267 -1.9876 0.9658
-8.3024 -1.5727 -1.9860 0.9659
-6.7880 -4.9880 -1.9797 0.9660
-4.6110 -7.0399 -1.9778 0.9660
-3.9648 -7.4230 -1.9778 0.9660
-3.2873 -7.7478 -1.9780 0.9660
-1.8595 -8.2124 -1.9790 0.9660
-1.1201 -8.3487 -1.9797 0.9660
-0.3713 -8.4192 -1.9806 0.9660
0.3813 -8.4234 -1.9817 0.9659
3.3123 -7.7814 -1.9876 0.9658
4.6506 -7.0822 -1.9913 0.9658
5.8466 -6.1558 -1.9953 0.9657
6.3791 -5.6158 -1.9974 0.9657
6.8619 -5.0300 -1.9996 0.9656
7.2910 -4.4027 -2.0017 0.9656
7.6630 -3.7390 -2.0039 0.9656
7.9615 -3.0391 -2.0028 0.9656
7.7671 -1.4620 -1.8575 0.9680
7.9000 0.6481 -1.8629 0.9680
7.8175 1.3513 -1.8645 0.9679
7.1968 3.3799 -1.8686 0.9679
6.0543 5.1720 -1.8714 0.9678
5.0418 6.1685 -1.8724 0.9678
3.8651 6.9649 -1.8721 0.9678
2.3328 6.8548 -1.7018 0.9707
1.1851 7.8721 -1.8710 0.9678
0.4781 7.9428 -1.8701 0.9678
-0.9395 7.8921 -1.8679 0.9679
-1.6384 7.7713 -1.8666 0.9679
-2.3231 7.5883 -1.8651 0.9679
-3.9265 7.6221 -2.0151 0.9654
-5.2079 6.7900 -2.0112 0.9654
-5.7868 6.2920 -2.0091 0.9655
-6.3181 5.7448 -2.0070 0.9655
-7.8937 3.1592 -1.9983 0.9657
-8.1353 2.4400 -1.9961 0.9657
-8.4221 0.9540 -1.9920 0.9658
-8.4654 0.1989 -1.9901 0.9658
-8.1948 -2.0438 -1.9850 0.9659
-7.9740 -2.7644 -1.9835 0.9659
-7.6906 -3.4623 -1.9822 0.9659
-7.3469 -4.1319 -1.9810 0.9660
-6.4901 -5.3666 -1.9792 0.9660
-5.9837 -5.9221 -1.9786 0.9660
-4.2010 -7.2919 -1.9778 0.9660
-3.5341 -7.6379 -1.9779 0.9660
-2.8393 -7.9239 -1.9783 0.9660
-2.1219 -8.1476 -1.9787 0.9660
-1.3873 -8.3072 -1.9794 0.9660
0.1107 -8.4296 -1.9813 0.9660
1.6086 -8.2864 -1.9839 0.9659
2.3429 -8.1160 -1.9853 0.9659
3.0599 -7.8812 -1.9870 0.9659
3.7539 -7.5836 -1.9887 0.9658
4.4194 -7.2253 -1.9906 0.9658
-7.4643 1.9243 -1.9958 0.9687
-7.5991 1.2498 -1.9940 0.9687
-7.6733 0.5666 -1.9922 0.9687
-7.5312 -1.4812 -1.9873 0.9688
-6.8573 -3.4154 -1.9835 0.9688
-6.5222 -4.0114 -1.9825 0.9689
-6.1359 -4.5751 -1.9817 0.9689
-5.7015 -5.1024 -1.9810 0.9689
-5.2224 -5.5891 -1.9805 0.9689
-4.7023 -6.0316 -1.9802 0.9689
-3.5557 -6.7705 -1.9801 0.9689
-2.9380 -7.0613 -1.9802 0.9689
-2.2970 -7.2965 -1.9806 0.9689
-1.6376 -7.4742 -1.9811 0.9689
-0.9648 -7.5931 -1.9818 0.9689
-0.2839 -7.6522 -1.9827 0.9689
1.0812 -7.5891 -1.9848 0.9688
3.0581 -7.0472 -1.9890 0.9688
3.6774 -6.7519 -1.9907 0.9687
4.2686 -6.4026 -1.9924 0.9687
6.6465 -3.9504 -2.0019 0.9686
6.9793 -3.3452 -2.0039 0.9685
7.2500 -2.7096 -2.0040 0.9685
6.9087 -1.8998 -1.8552 0.9708
4.9793 -0.4481 -1.2944 0.9796
7.1848 -0.0033 -1.8603 0.9707
7.1624 0.6380 -1.8618 0.9707
6.9456 1.9032 -1.8646 0.9707
6.5052 3.1107 -1.8670 0.9706
4.5322 5.6248 -1.8703 0.9706
4.0129 6.0072 -1.8705 0.9706
3.4612 6.3412 -1.8705 0.9706
2.8817 6.6241 -1.8704 0.9706
2.2791 6.8535 -1.8700 0.9706
1.6583 7.0277 -1.8696 0.9706
-0.9020 7.1508 -1.8661 0.9707
-2.9750 7.1685 -2.0095 0.9684
-4.7679 6.1272 -2.0102 0.9684
-5.2904 5.6722 -2.0083 0.9685
-6.5838 4.0575 -2.0024 0.9686
-6.9126 3.4508 -2.0004 0.9686
-7.1857 2.8178 -1.9984 0.9686
-7.4012 2.1636 -1.9965 0.9686
-7.6537 0.8128 -1.9928 0.9687
-7.4308 -1.9085 -1.9864 0.9688
-6.6487 -3.8006 -1.9829 0.9689
-6.2804 -4.3765 -1.9820 0.9689
-5.8630 -4.9174 -1.9813 0.9689
-5.3995 -5.4191 -1.9807 0.9689
-3.7711 -6.6528 -1.9800 0.9689
-3.1630 -6.9631 -1.9802 0.9689
-2.5298 -7.2185 -1.9804 0.9689
-1.2078 -7.5573 -1.9815 0.9689
0.1541 -7.6583 -1.9833 0.9688
2.1799 -7.3581 -1.9870 0.9688
2.8296 -7.1397 -1.9885 0.9688
4.6304 -6.1516 -1.9935 0.9687
5.1653 -5.7195 -1.9954 0.9687
5.6602 -5.2410 -1.9973 0.9686
6.1110 -4.7199 -1.9992 0.9686
6.5140 -4.1602 -2.0012 0.9686
6.8659 -3.5662 -2.0032 0.9685
7.1787 -0.2338 -1.8597 0.9708
7.1178 1.0470 -1.8628 0.9707
6.8284 2.2982 -1.8654 0.9707
6.6003 2.8998 -1.8666 0.9707
6.3188 3.4787 -1.8676 0.9706
5.9862 4.0303 -1.8685 0.9706
5.1786 5.0332 -1.8698 0.9706
4.2035 5.8752 -1.8704 0.9706
3.6630 6.2269 -1.8705 0.9706
3.0929 6.5285 -1.8704 0.9706
2.4935 6.7651 -1.8668 0.9706
0.6143 7.1902 -1.8684 0.9706
-0.0294 7.2129 -1.8676 0.9706
-1.3088 7.0846 -1.8654 0.9707
-2.5429 6.7298 -1.8627 0.9707
-3.3880 7.0034 -2.0143 0.9684
-6.4525 4.2682 -2.0031 0.9685
-7.0941 3.0480 -1.9992 0.9686
-7.3305 2.4008 -1.9972 0.9686
-7.5083 1.7359 -1.9953 0.9687
-7.6833 0.3737 -1.9917 0.9687
-7.6794 -0.3127 -1.9900 0.9687
-7.6148 -0.9956 -1.9884 0.9688
-6.7684 -3.5860 -1.9832 0.9688
-6.4186 -4.1733 -1.9823 0.9689
-5.5712 -5.2435 -1.9809 0.9689
-4.5493 -6.1475 -1.9801 0.9689
-3.9827 -6.5284 -1.9800 0.9689
-3.3847 -6.8578 -1.9801 0.9689
-2.7599 -7.1331 -1.9803 0.9689
-2.1132 -7.3523 -1.9807 0.9689
-1.4495 -7.5137 -1.9813 0.9689
-0.7740 -7.6158 -1.9820 0.9689
1.9422 -7.4223 -1.9865 0.9688
2.5983 -7.2248 -1.9879 0.9688
4.4291 -6.2950 -1.9929 0.9687
4.9774 -5.8803 -1.9947 0.9687
5.9543 -4.9119 -1.9985 0.9686
6.7455 -3.7834 -2.0025 0.9685
7.3060 -2.5233 -2.0013 0.9686
6.9560 -1.7262 -1.8557 0.9708
7.0889 -1.1000 -1.8574 0.9708
5.0531 -0.3271 -1.3111 0.9793
6.8970 2.0774 -1.8650 0.9707
6.4260 3.2736 -1.8673 0.9706
6.1115 3.8355 -1.8682 0.9706
4.8831 5.3218 -1.8701 0.9706
3.3009 6.4260 -1.8705 0.9706
2.7144 6.6941 -1.8703 0.9706
0.8449 7.1678 -1.8687 0.9706
0.2021 7.2114 -1.8679 0.9706
-1.0810 7.1246 -1.8658 0.9707
-3.7808 6.7945 -2.0133 0.9684
-4.3679 6.4246 -2.0115 0.9684
-4.9189 6.0040 -2.0096 0.9684
-5.4296 5.5361 -2.0077 0.9685
-6.6817 3.8899 -2.0018 0.9686
-6.9951 3.2752 -1.9999 0.9686
-7.4512 1.9766 -1.9960 0.9686
-7.5907 1.3030 -1.9941 0.9687
-7.6697 0.6203 -1.9923 0.9687
-7.6878 -0.0662 -1.9906 0.9687
-7.6450 -0.7509 -1.9890 0.9688
-7.5418 -1.4286 -1.9874 0.9688
-7.3791 -2.0940 -1.9860 0.9688
-6.1679 -4.5323 -1.9818 0.9689
-5.7371 -5.0625 -1.9811 0.9689
-4.7444 -5.9986 -1.9802 0.9689
-3.6029 -6.7455 -1.9800 0.9689
-2.9873 -7.0405 -1.9802 0.9689
-1.0178 -7.5860 -1.9817 0.9689
0.3464 -7.6532 -1.9836 0.9688
1.7026 -7.4790 -1.9860 0.9688
2.3645 -7.3025 -1.9874 0.9688
3.6299 -6.7770 -1.9905 0.9687
4.2235 -6.4318 -1.9923 0.9687
4.7846 -6.0350 -1.9941 0.9687
5.7916 -5.0986 -1.9978 0.9686
6.2293 -4.5663 -1.9998 0.9686
7.2336 -2.7612 -2.0047 0.9685
4.9641 -0.4818 -1.2913 0.9796
6.9583 1.8545 -1.8645 0.9707
6.2304 3.6368 -1.8679 0.9706
5.8838 4.1798 -1.8687 0.9706
3.6105 3.6898 -1.3366 0.9789
4.0548 5.9790 -1.8705 0.9706
2.9279 6.6039 -1.8704 0.9706
1.7074 7.0161 -1.8696 0.9706
0.4335 7.2024 -1.8682 0.9706
-1.4860 7.0482 -1.8650 0.9707
-2.7105 6.6623 -1.8623 0.9707
-3.5619 6.9145 -2.0139 0.9684
-4.1608 6.5636 -2.0121 0.9684
-4.7253 6.1608 -2.0103 0.9684
-6.5558 4.1037 -2.0025 0.9685
-7.6674 -0.5053 -1.9895 0.9687
-7.5858 -1.1862 -1.9880 0.9688
-6.9872 -3.1456 -1.9840 0.9688
-5.4374 -5.3813 -1.9807 0.9689
-4.3934 -6.2597 -1.9801 0.9689
-3.8175 -6.6263 -1.9800 0.9689
-1.9281 -7.4036 -1.9809 0.9689
-1.2605 -7.5484 -1.9815 0.9689
2.1283 -7.3727 -1.9869 0.9688
-6.9525 1.1435 -1.9947 0.9711
-7.0210 0.5185 -1.9930 0.9712
-6.9907 -0.7360 -1.9900 0.9712
-6.7397 -1.9636 -1.9873 0.9712
-6.2767 -3.1262 -1.9851 0.9713
-5.9702 -3.6719 -1.9842 0.9713
-5.2193 -4.6708 -1.9828 0.9713
-4.3048 -5.5216 -1.9820 0.9713
-3.7949 -5.8831 -1.9819 0.9713
-0.8831 -6.9507 -1.9835 0.9713
-0.2599 -7.0045 -1.9843 0.9713
0.3660 -7.0030 -1.9852 0.9713
0.9896 -6.9461 -1.9863 0.9713
1.6061 -6.8342 -1.9874 0.9712
2.7985 -6.4489 -1.9901 0.9712
4.8925 -5.0797 -1.9966 0.9711
5.3308 -4.6272 -1.9983 0.9711
5.7273 -4.1371 -2.0001 0.9711
6.3358 -1.7423 -1.8602 0.9731
4.9648 -0.4468 -1.4112 0.9795
6.5471 0.5832 -1.8608 0.9730
6.4737 1.1656 -1.8621 0.9730
6.3481 1.7395 -1.8634 0.9730
5.3500 3.8571 -1.8671 0.9730
3.5841 3.7144 -1.4612 0.9788
4.1413 5.1396 -1.8685 0.9729
3.1626 5.7941 -1.8687 0.9729
-0.2383 6.5861 -1.8657 0.9730
-0.8243 6.5352 -1.8647 0.9730
-1.4030 6.4318 -1.8636 0.9730
-2.5199 6.0721 -1.8611 0.9730
-3.3000 6.2975 -2.0127 0.9709
-3.8454 5.9734 -2.0111 0.9709
-4.3592 5.6020 -2.0095 0.9709
-4.8373 5.1864 -2.0077 0.9709
-6.0215 3.7110 -2.0024 0.9710
-6.5731 2.5775 -1.9988 0.9711
-6.7708 1.9793 -1.9970 0.9711
-6.9143 1.3664 -1.9953 0.9711
-7.0356 0.1161 -1.9920 0.9712
-6.9340 -1.1339 -1.9891 0.9712
-6.3749 -2.9237 -1.9854 0.9713
-5.3670 -4.5014 -1.9830 0.9713
-4.4800 -5.3809 -1.9821 0.9713
-3.9818 -5.7584 -1.9819 0.9713
-2.8956 -6.3744 -1.9820 0.9713
-2.3159 -6.6081 -1.9823 0.9713
0.7661 -6.9729 -1.9859 0.9713
1.3857 -6.8808 -1.9870 0.9712
1.9950 -6.7340 -1.9883 0.9712
2.5894 -6.5337 -1.9896 0.9712
3.1641 -6.2814 -1.9911 0.9712
4.2365 -5.6283 -1.9943 0.9711
5.9579 -3.8051 -2.0013 0.9710
6.2792 -3.2615 -2.0031 0.9710
6.5510 -2.6910 -2.0049 0.9710
6.4097 -1.3739 -1.8557 0.9731
5.1281 -0.6280 -1.4626 0.9788
6.5061 0.9570 -1.8616 0.9730
6.2408 2.1004 -1.8641 0.9730
5.7745 3.1791 -1.8661 0.9730
5.1219 4.1576 -1.8675 0.9729
2.8261 5.9653 -1.8687 0.9729
2.2825 6.1928 -1.8684 0.9729
0.5614 6.5705 -1.8668 0.9730
-1.1962 6.4750 -1.8640 0.9730
-1.7677 6.3385 -1.8629 0.9730
-3.6528 6.0955 -2.0117 0.9709
-5.5345 4.4183 -2.0048 0.9710
-5.9012 3.9036 -2.0030 0.9710
-6.2202 3.3587 -2.0012 0.9710
-6.4891 2.7881 -1.9994 0.9711
-6.7059 2.1963 -1.9976 0.9711
-6.9774 0.9683 -1.9942 0.9711
-6.9686 -0.9111 -1.9896 0.9712
-6.8549 -1.5279 -1.9882 0.9712
-6.6871 -2.1318 -1.9869 0.9712
-5.8754 -3.8201 -1.9840 0.9713
-5.1000 -4.8000 -1.9827 0.9713
-3.6460 -5.9765 -1.9819 0.9713
-3.0985 -6.2780 -1.9819 0.9713
-1.9345 -6.7306 -1.9825 0.9713
-1.3269 -6.8781 -1.9830 0.9713
-0.7084 -6.9714 -1.9837 0.9713
-0.0839 -7.0097 -1.9845 0.9713
2.3778 -6.6118 -1.9891 0.9712
5.4466 -4.4931 -1.9988 0.9711
5.8309 -3.9930 -2.0006 0.9710
6.4592 -2.8988 -2.0043 0.9710
6.6883 -2.3100 -2.0032 0.9710
6.3603 -1.5784 -1.8552 0.9731
6.5675 0.1620 -1.8598 0.9731
6.5318 0.7476 -1.8612 0.9730
6.1127 2.4547 -1.8648 0.9730
5.2520 3.9906 -1.8673 0.9730
4.8342 4.4058 -1.8516 0.9732
4.0110 5.2421 -1.8686 0.9729
2.4802 6.1167 -1.8685 0.9729
1.9245 6.3124 -1.8682 0.9729
-2.8843 6.4850 -2.0093 0.9709
-3.4563 6.2113 -2.0123 0.9709
-4.4974 5.4895 -2.0090 0.9709
-5.3916 4.5951 -2.0055 0.9710
-5.7748 4.0923 -2.0037 0.9710
-6.1112 3.5577 -2.0018 0.9710
-6.3983 2.9958 -2.0000 0.9711
-6.6341 2.4111 -1.9982 0.9711
-6.9448 1.1921 -1.9948 0.9711
-7.0176 0.5675 -1.9931 0.9712
-7.0347 -0.0605 -1.9916 0.9712
-6.9021 -1.3074 -1.9887 0.9712
-5.9959 -3.6302 -1.9843 0.9713
-4.8165 -5.0831 -1.9824 0.9713
-4.3433 -5.4915 -1.9821 0.9713
-3.2983 -6.1752 -1.9819 0.9713
-2.1493 -6.6645 -1.9824 0.9713
-0.3088 -7.0023 -1.9842 0.9713
0.9410 -6.9526 -1.9862 0.9713
1.5582 -6.8450 -1.9873 0.9712
2.7532 -6.4680 -1.9900 0.9712
3.3216 -6.2013 -1.9915 0.9712
3.8644 -5.8850 -1.9931 0.9712
4.8566 -5.1134 -1.9964 0.9711
5.2979 -4.6641 -1.9982 0.9711
6.3607 -3.1036 -2.0036 0.9710
6.6181 -2.5263 -2.0054 0.9710
6.4553 -1.8238 -1.8990 0.9725
4.9468 -0.4801 -1.4070 0.9796
6.5675 -0.0489 -1.8593 0.9731
6.5506 0.5374 -1.8607 0.9730
5.9644 2.8011 -1.8654 0.9730
5.6936 3.3235 -1.8663 0.9730
5.3767 3.8195 -1.8671 0.9730
5.0163 4.2853 -1.8677 0.9729
3.6102 3.6895 -1.4613 0.9788
3.2030 5.7719 -1.8687 0.9729
2.6754 6.0342 -1.8686 0.9729
2.1262 6.2478 -1.8683 0.9729
0.3962 6.5818 -1.8666 0.9730
-0.1923 6.5879 -1.8658 0.9730
-1.3581 6.4418 -1.8637 0.9730
-3.2561 6.3208 -2.0128 0.9709
-3.8038 6.0005 -2.0113 0.9709
-4.3203 5.6327 -2.0096 0.9709
-5.2431 4.7673 -2.0061 0.9710
-5.6423 4.2768 -2.0043 0.9710
-6.7573 2.0267 -1.9971 0.9711
-6.9051 1.4148 -1.9954 0.9711
-6.9979 0.7927 -1.9937 0.9711
-7.0350 0.1653 -1.9921 0.9712
-7.0163 -0.4624 -1.9906 0.9712
-6.9422 -1.0855 -1.9892 0.9712
-6.6304 -2.2986 -1.9866 0.9712
-6.3955 -2.8792 -1.9855 0.9713
-6.1102 -3.4364 -1.9846 0.9713
-5.7770 -3.9660 -1.9837 0.9713
-5.3985 -4.4639 -1.9831 0.9713
-4.9775 -4.9263 -1.9825 0.9713
-4.5175 -5.3495 -1.9822 0.9713
-1.7650 -6.7775 -1.9827 0.9713
-0.5333 -6.9877 -1.9839 0.9713
0.7173 -6.9778 -1.9858 0.9713
1.9479 -6.7474 -1.9881 0.9712
3.6725 -6.0042 -1.9925 0.9712
-6.2865 1.6207 -1.9968 0.9732
-6.4765 -0.1010 -1.9923 0.9733
-5.7809 -2.8793 -1.9864 0.9733
-5.4988 -3.3819 -1.9856 0.9733
-5.1734 -3.8575 -1.9849 0.9734
-2.9984 -5.7093 -1.9835 0.9734
-2.4775 -5.9544 -1.9836 0.9734
2.0357 -6.1405 -1.9898 0.9733
3.5960 -5.3937 -1.9939 0.9732
4.5040 -4.6764 -1.9970 0.9732
4.9071 -4.2595 -1.9986 0.9732
5.8742 -2.8156 -2.0036 0.9731
6.2400 -1.7160 -1.9906 0.9733
6.0231 0.5365 -1.8599 0.9750
5.8393 1.6001 -1.8623 0.9750
5.6766 2.1156 -1.8633 0.9750
5.4680 2.6147 -1.8642 0.9750
5.2153 3.0933 -1.8650 0.9749
4.9204 3.5474 -1.8657 0.9749
3.3721 5.0479 -1.8672 0.9749
2.4215 5.5663 -1.8671 0.9749
1.9152 5.7593 -1.8668 0.9749
1.3936 5.9059 -1.8664 0.9749
0.3221 6.0556 -1.8652 0.9749
-0.2192 6.0577 -1.8644 0.9750
-1.2906 5.9163 -1.8625 0.9750
-1.8120 5.7742 -1.8614 0.9750
-3.0360 5.7937 -2.0119 0.9730
-4.0110 5.1545 -2.0089 0.9730
-4.4512 4.7725 -2.0073 0.9731
-4.8551 4.3529 -2.0056 0.9731
-5.5420 3.4155 -2.0023 0.9731
-5.8197 2.9052 -2.0007 0.9731
-6.2330 1.8221 -1.9974 0.9732
-6.4475 0.6847 -1.9943 0.9732
-6.4781 0.1069 -1.9928 0.9733
-6.3853 -1.0442 -1.9901 0.9733
-6.0911 -2.1595 -1.9877 0.9733
-5.8713 -2.6927 -1.9868 0.9733
-5.6053 -3.2042 -1.9859 0.9733
-4.9435 -4.1462 -1.9845 0.9734
-4.5529 -4.5694 -1.9840 0.9734
-3.6678 -5.3042 -1.9835 0.9734
-2.6672 -5.8716 -1.9836 0.9734
-2.1332 -6.0868 -1.9838 0.9734
-1.5821 -6.2541 -1.9842 0.9734
-1.0184 -6.3719 -1.9847 0.9734
1.8372 -6.2013 -1.9893 0.9733
3.9004 -5.1818 -1.9949 0.9732
5.7791 -3.0017 -2.0030 0.9731
6.0288 -2.4764 -2.0047 0.9731
6.2171 -1.9263 -2.0019 0.9731
5.8979 -1.2642 -1.8553 0.9751
5.1168 -0.6266 -1.5856 0.9787
6.0379 -0.1966 -1.8581 0.9750
6.0357 0.3429 -1.8594 0.9750
5.9851 0.8804 -1.8607 0.9750
5.7404 1.9320 -1.8629 0.9750
5.5481 2.4375 -1.8639 0.9750
5.3110 2.9239 -1.8648 0.9749
5.0311 3.3873 -1.8655 0.9749
4.7105 3.8237 -1.8661 0.9749
4.3519 4.2297 -1.8666 0.9749
3.9580 4.6018 -1.8669 0.9749
3.5322 4.9370 -1.8671 0.9749
3.0780 5.2325 -1.8672 0.9749
2.0991 5.6952 -1.8669 0.9749
0.5163 6.0430 -1.8655 0.9749
-1.6261 5.8306 -1.8618 0.9750
-2.8464 5.8837 -2.0103 0.9730
-3.8446 5.2820 -2.0094 0.9730
-5.4312 3.5927 -2.0029 0.9731
-5.7252 3.0914 -2.0013 0.9731
-5.9731 2.5664 -1.9996 0.9732
-6.4239 0.8915 -1.9948 0.9732
-6.4730 0.3148 -1.9933 0.9732
-6.4706 -0.2635 -1.9919 0.9733
-6.4170 -0.8390 -1.9905 0.9733
-6.3127 -1.4070 -1.9893 0.9733
-6.1584 -1.9633 -1.9881 0.9733
-5.9557 -2.5034 -1.9871 0.9733
-5.4116 -3.5185 -1.9854 0.9733
-5.0745 -3.9858 -1.9847 0.9734
-4.2837 -4.8217 -1.9838 0.9734
-3.3584 -5.5051 -1.9835 0.9734
-2.8542 -5.7828 -1.9835 0.9734
-1.7819 -6.1996 -1.9841 0.9734
-1.2222 -6.3353 -1.9845 0.9734
-0.0773 -6.4561 -1.9859 0.9733
1.0719 -6.3732 -1.9878 0.9733
1.6369 -6.2557 -1.9889 0.9733
2.7257 -5.8729 -1.9914 0.9733
3.7311 -5.3029 -1.9943 0.9732
4.1924 -4.9528 -1.9959 0.9732
5.0136 -4.1359 -1.9991 0.9732
5.6781 -3.1847 -2.0024 0.9731
5.9444 -2.6678 -2.0041 0.9731
5.8575 -1.4536 -1.8563 0.9751
6.0088 0.6877 -1.8603 0.9750
5.9274 1.2217 -1.8615 0.9750
5.7983 1.7464 -1.8626 0.9750
5.6225 2.2578 -1.8636 0.9750
5.4013 2.7515 -1.8645 0.9750
4.4850 4.0875 -1.8664 0.9749
4.1034 4.4721 -1.8668 0.9749
2.2809 5.6252 -1.8670 0.9749
1.7699 5.8053 -1.8667 0.9749
0.1699 6.0611 -1.8650 0.9749
-0.9087 5.9893 -1.8633 0.9750
-2.6520 5.9629 -2.0073 0.9731
-3.1799 5.7145 -2.0115 0.9730
-4.1382 5.0510 -2.0084 0.9730
-4.9617 4.2287 -2.0052 0.9731
-5.3147 3.7662 -2.0035 0.9731
-5.6247 3.2745 -2.0019 0.9731
-5.8894 2.7575 -2.0002 0.9732
-6.1069 2.2195 -1.9985 0.9732
-6.2754 1.6647 -1.9969 0.9732
-6.4613 0.5225 -1.9938 0.9732
-6.4774 -0.0557 -1.9924 0.9733
-6.2195 -1.7650 -1.9885 0.9733
-5.8011 -2.8389 -1.9865 0.9733
-5.5225 -3.3435 -1.9857 0.9733
-3.5334 -5.3946 -1.9835 0.9734
-2.5190 -5.9369 -1.9836 0.9734
-1.4247 -6.2922 -1.9843 0.9734
0.2920 -6.4518 -1.9865 0.9733
3.0584 -5.7100 -1.9923 0.9733
3.5580 -5.4184 -1.9938 0.9732
4.0302 -5.0834 -1.9953 0.9732
4.8769 -4.2934 -1.9985 0.9732
5.2447 -3.8445 -2.0001 0.9732
5.5713 -3.3643 -2.0018 0.9731
6.0905 -2.3248 -2.0051 0.9731
5.9291 -1.1160 -1.8557 0.9751
6.0264 0.4944 -1.8598 0.9750
5.9622 1.0306 -1.8610 0.9750
5.8501 1.5592 -1.8622 0.9750
5.2366 3.0567 -1.8650 0.9749
4.9450 3.5129 -1.8657 0.9749
2.9457 5.3081 -1.8672 0.9749
1.4349 5.8961 -1.8664 0.9749
0.9031 5.9989 -1.8659 0.9749
-1.2493 5.9254 -1.8626 0.9750
-1.7717 5.7870 -1.8615 0.9750
-2.9956 5.8151 -2.0120 0.9730
-3.4997 5.5208 -2.0105 0.9730
-4.4180 4.8038 -2.0074 0.9731
-4.8249 4.3870 -2.0058 0.9731
-5.1927 3.9360 -2.0041 0.9731
-5.5184 3.4544 -2.0025 0.9731
-5.7996 2.9460 -2.0008 0.9731
-6.0343 2.4150 -1.9991 0.9732
-6.3571 1.3025 -1.9959 0.9732
-6.4607 -0.4258 -1.9915 0.9733
-6.2743 -1.5648 -1.9889 0.9733
-5.8902 -2.6517 -1.9868 0.9733
-5.6277 -3.1651 -1.9859 0.9733
-5.3210 -3.6529 -1.9852 0.9734
-4.9724 -4.1116 -1.9846 0.9734
-4.5848 -4.5376 -1.9841 0.9734
-3.2191 -5.5877 -1.9835 0.9734
-2.7081 -5.8528 -1.9836 0.9734
-1.0628 -6.3645 -1.9847 0.9734
-0.4912 -6.4361 -1.9854 0.9733
1.2318 -6.3453 -1.9881 0.9733
1.7938 -6.2137 -1.9892 0.9733
2.8729 -5.8037 -1.9918 0.9733
3.3814 -5.5283 -1.9933 0.9732
-5.8181 1.4999 -1.9972 0.9750
-5.9243 0.9744 -1.9957 0.9750
-5.9834 0.4418 -1.9943 0.9750
-5.9949 -0.0935 -1.9930 0.9750
-5.9589 -0.6273 -1.9917 0.9751
-3.6716 -4.7094 -1.9850 0.9751
-3.2368 -5.0178 -1.9849 0.9751
-2.7764 -5.2865 -1.9849 0.9751
-2.2940 -5.5134 -1.9850 0.9751
-0.2216 -5.9732 -1.9869 0.9751
0.8438 -5.9226 -1.9886 0.9751
1.3693 -5.8267 -1.9896 0.9751
1.8846 -5.6845 -1.9907 0.9751
2.8680 -5.2658 -1.9932 0.9750
3.3284 -4.9924 -1.9945 0.9750
3.7631 -4.6790 -1.9959 0.9750
4.5412 -3.9418 -1.9989 0.9750
5.6501 -2.1117 -2.0050 0.9749
5.4923 -0.9941 -1.8553 0.9767
5.5709 0.4963 -1.8591 0.9767
5.2497 1.9565 -1.8623 0.9767
4.2405 3.6741 -1.8651 0.9766
3.1180 4.6676 -1.8659 0.9766
2.6894 4.9271 -1.8659 0.9766
1.7709 5.3255 -1.8655 0.9766
1.2887 5.4611 -1.8652 0.9766
0.7963 5.5528 -1.8647 0.9766
-1.1935 5.4716 -1.8616 0.9767
-1.6758 5.3404 -1.8605 0.9767
-2.8082 5.3590 -2.0111 0.9748
-3.2728 5.0838 -2.0098 0.9748
-5.3853 2.6884 -2.0008 0.9749
-5.5993 2.1957 -1.9992 0.9750
-5.7685 1.6863 -1.9977 0.9750
-5.8915 1.1643 -1.9963 0.9750
-5.9676 0.6338 -1.9948 0.9750
-5.9963 0.0990 -1.9935 0.9750
-5.9773 -0.4359 -1.9922 0.9751
-5.1898 -2.9667 -1.9871 0.9751
-4.5773 -3.8390 -1.9858 0.9751
-4.2157 -4.2310 -1.9854 0.9751
-3.8210 -4.5894 -1.9851 0.9751
-0.9429 -5.8998 -1.9860 0.9751
0.1203 -5.9776 -1.9874 0.9751
1.1814 -5.8665 -1.9892 0.9751
1.7008 -5.7408 -1.9903 0.9751
2.6969 -5.3539 -1.9927 0.9750
3.1657 -5.0954 -1.9940 0.9750
3.6101 -4.7961 -1.9954 0.9750
5.0743 -3.2408 -2.0014 0.9749
5.3473 -2.7774 -2.0029 0.9749
5.7573 -1.7838 -2.0035 0.9749
5.5851 -0.1819 -1.8575 0.9767
5.5827 0.3172 -1.8587 0.9767
5.5356 0.8143 -1.8599 0.9767
5.3088 1.7867 -1.8619 0.9767
4.9114 2.7039 -1.8636 0.9766
4.0241 3.9111 -1.8653 0.9766
2.8461 4.8383 -1.8659 0.9766
1.4634 5.4174 -1.8653 0.9766
0.5321 3.0180 -1.0187 0.9872
0.4774 5.5881 -1.8643 0.9766
-1.0176 5.5081 -1.8619 0.9767
-1.5039 5.3925 -1.8609 0.9767
-3.1087 5.1875 -2.0103 0.9748
-4.7125 3.7620 -2.0044 0.9749
-5.0254 3.3242 -2.0029 0.9749
-5.7129 1.8710 -1.9983 0.9750
-5.9457 0.8252 -1.9953 0.9750
-5.9915 0.2914 -1.9939 0.9750
-5.7014 -1.8176 -1.9892 0.9751
-5.2830 -2.7990 -1.9873 0.9751
-5.0105 -3.2578 -1.9866 0.9751
-3.1097 -5.0975 -1.9848 0.9751
-2.6428 -5.3546 -1.9849 0.9751
-1.6499 -5.7404 -1.9854 0.9751
-0.6042 -5.9452 -1.9864 0.9751
0.4620 -5.9625 -1.9879 0.9751
0.9924 -5.9003 -1.9888 0.9751
2.5231 -5.4364 -1.9922 0.9751
2.9999 -5.1931 -1.9935 0.9750
3.4534 -4.9082 -1.9949 0.9750
4.2766 -4.2228 -1.9978 0.9750
4.6397 -3.8274 -1.9993 0.9750
5.2539 -2.9468 -2.0024 0.9749
5.5000 -2.4684 -2.0039 0.9749
5.7659 -1.4309 -1.9747 0.9753
5.5167 -0.8561 -1.8557 0.9767
5.3625 1.6152 -1.8616 0.9767
4.7499 2.9810 -1.8641 0.9766
3.4109 4.4577 -1.8658 0.9766
2.5648 4.9930 -1.8659 0.9766
1.6366 5.3680 -1.8654 0.9766
0.6246 2.9797 -1.0120 0.9872
0.1571 5.6050 -1.8639 0.9766
-0.3432 5.5944 -1.8631 0.9767
-0.8404 5.5389 -1.8622 0.9767
-2.9413 5.2858 -2.0107 0.9748
-3.3987 4.9990 -2.0094 0.9748
-4.2266 4.3095 -2.0065 0.9749
-5.2046 3.0300 -2.0019 0.9749
-5.4499 2.5518 -2.0003 0.9750
-5.6515 2.0540 -1.9988 0.9750
-5.9635 -0.5857 -1.9918 0.9751
-5.7579 -1.6340 -1.9895 0.9751
-5.5864 -2.1399 -1.9885 0.9751
-5.1131 -3.0957 -1.9869 0.9751
-4.8150 -3.5382 -1.9862 0.9751
-4.4791 -3.9524 -1.9857 0.9751
-3.7044 -4.6837 -1.9850 0.9751
-3.2717 -4.9951 -1.9849 0.9751
-2.8132 -5.2670 -1.9849 0.9751
-2.3324 -5.4972 -1.9850 0.9751
-1.8331 -5.6841 -1.9853 0.9751
-1.3192 -5.8261 -1.9857 0.9751
-0.7946 -5.9221 -1.9862 0.9751
1.3285 -5.8358 -1.9895 0.9751
3.2933 -5.0153 -1.9944 0.9750
3.7301 -4.7049 -1.9958 0.9750
4.1378 -4.3567 -1.9973 0.9750
4.5133 -3.9733 -1.9988 0.9750
4.8533 -3.5576 -2.0003 0.9750
5.1552 -3.1130 -2.0018 0.9749
5.7943 -1.6370 -2.0015 0.9749
5.4849 -1.0324 -1.8552 0.9767
4.9151 -0.4770 -1.6415 0.9794
5.5889 -0.0416 -1.8578 0.9767
5.4105 1.4420 -1.8612 0.9767
4.8425 2.8267 -1.8638 0.9766
4.5727 3.2484 -1.8645 0.9766
3.5520 4.3458 -1.8657 0.9766
2.7237 4.9082 -1.8659 0.9766
0.8351 5.5472 -1.8647 0.9766
-0.6623 5.5640 -1.8626 0.9767
-1.6385 5.3522 -1.8606 0.9767
-2.1081 5.1817 -1.8595 0.9767
-2.7706 5.3784 -2.0111 0.9748
-3.6773 4.7943 -2.0085 0.9749
-5.1061 3.1963 -2.0024 0.9749
-5.5842 2.2349 -1.9993 0.9750
-5.7569 1.7267 -1.9978 0.9750
-5.8836 1.2055 -1.9964 0.9750
-5.9634 0.6755 -1.9949 0.9750
-5.9805 -0.3942 -1.9923 0.9751
-5.9179 -0.9254 -1.9911 0.9751
-5.8085 -1.4486 -1.9899 0.9751
-5.6532 -1.9599 -1.9889 0.9751
-5.2105 -2.9304 -1.9871 0.9751
-4.9267 -3.3822 -1.9864 0.9751
-4.6040 -3.8070 -1.9858 0.9751
-4.2452 -4.2015 -1.9854 0.9751
-3.8530 -4.5626 -1.9851 0.9751
-3.4304 -4.8876 -1.9849 0.9751
-1.5053 -5.7803 -1.9855 0.9751
-0.9841 -5.8930 -1.9860 0.9751
0.0785 -5.9781 -1.9873 0.9751
0.6116 -5.9498 -1.9882 0.9751
1.6606 -5.7523 -1.9902 0.9751
2.6593 -5.3723 -1.9926 0.9750
-5.5080 0.9059 -1.9962 0.9766
-5.5742 -0.0869 -1.9936 0.9766
-4.9776 -2.4792 -1.9886 0.9767
-4.4550 -3.3218 -1.9873 0.9767
-3.0105 -4.6670 -1.9860 0.9767
-2.5823 -4.9169 -1.9861 0.9767
-2.1336 -5.1279 -1.9862 0.9767
-1.6680 -5.2985 -1.9864 0.9767
0.2903 -5.5535 -1.9887 0.9767
2.6667 -4.8962 -1.9938 0.9766
3.4986 -4.3502 -1.9963 0.9766
3.8753 -4.0235 -1.9977 0.9765
4.2216 -3.6645 -1.9991 0.9765
4.5348 -3.2757 -2.0005 0.9765
4.8123 -2.8603 -2.0019 0.9765
5.2514 -1.9626 -2.0048 0.9765
5.3992 -1.4847 -2.0025 0.9765
5.1765 0.4611 -1.8585 0.9782
5.0177 1.3749 -1.8605 0.9781
4.8774 1.8178 -1.8614 0.9781
4.4805 2.6575 -1.8629 0.9781
4.2270 3.0475 -1.8635 0.9781
3.9394 3.4132 -1.8640 0.9781
2.8965 4.3360 -1.8647 0.9781
2.4983 4.5771 -1.8647 0.9781
1.6451 4.9472 -1.8644 0.9781
0.7106 3.0112 -1.1064 0.9869
0.7398 5.1586 -1.8636 0.9781
0.2767 5.2024 -1.8630 0.9781
-1.1089 5.0837 -1.8607 0.9781
-2.0182 4.8631 -1.8829 0.9779
-2.6095 4.9797 -2.0105 0.9764
-3.0413 4.7242 -2.0092 0.9764
-3.8271 4.1033 -2.0065 0.9764
-5.0060 2.4990 -2.0008 0.9765
-5.4774 1.0825 -1.9967 0.9766
-5.5485 0.5893 -1.9953 0.9766
-5.5580 -0.4053 -1.9929 0.9766
-5.4966 -0.8989 -1.9917 0.9766
-5.2442 -1.8592 -1.9897 0.9766
-5.0553 -2.3185 -1.9889 0.9767
-3.9209 -3.9351 -1.9865 0.9767
-3.5538 -4.2685 -1.9862 0.9767
-2.7387 -4.8315 -1.9860 0.9767
-1.3625 -5.3858 -1.9867 0.9767
-0.3842 -5.5451 -1.9877 0.9767
0.1119 -5.5592 -1.9884 0.9767
0.6075 -5.5293 -1.9892 0.9766
1.0987 -5.4555 -1.9901 0.9766
2.0525 -5.1790 -1.9922 0.9766
2.5077 -4.9782 -1.9933 0.9766
2.9435 -4.7376 -1.9946 0.9766
3.3564 -4.4591 -1.9959 0.9766
4.1008 -3.7971 -1.9986 0.9765
4.4262 -3.4187 -2.0000 0.9765
4.7168 -3.0124 -2.0014 0.9765
5.2778 -1.1313 -1.9303 0.9773
5.0595 -0.6196 -1.8228 0.9786
5.1899 -0.1690 -1.8569 0.9782
5.1435 0.7566 -1.8592 0.9782
5.0583 1.2130 -1.8602 0.9781
4.9324 1.6601 -1.8611 0.9781
4.7668 2.0943 -1.8619 0.9781
4.5629 2.5120 -1.8627 0.9781
3.7383 3.6333 -1.8642 0.9781
3.3999 3.9529 -1.8645 0.9781
3.0341 4.2407 -1.8647 0.9781
2.6439 4.4945 -1.8647 0.9781
2.2325 4.7123 -1.8647 0.9781
1.8031 4.8921 -1.8645 0.9781
1.3594 5.0326 -1.8642 0.9781
0.5321 3.0176 -1.0958 0.9871
-0.0212 5.2085 -1.8626 0.9781
-0.9454 5.1176 -1.8610 0.9781
-1.8376 4.8632 -1.8591 0.9782
-2.8888 4.8205 -2.0097 0.9764
-3.3050 4.5407 -2.0084 0.9764
-3.6943 4.2250 -2.0070 0.9764
-4.0536 3.8760 -2.0056 0.9765
-4.3800 3.4966 -2.0042 0.9765
-4.9245 2.6591 -2.0014 0.9765
-5.4412 1.2580 -1.9971 0.9766
-5.5237 -0.7222 -1.9921 0.9766
-5.1278 -2.1554 -1.9892 0.9766
-4.6599 -3.0298 -1.9877 0.9767
-4.3699 -3.4324 -1.9871 0.9767
-4.0454 -3.8075 -1.9867 0.9767
-3.3038 -4.4644 -1.9861 0.9767
-2.0042 -5.1801 -1.9863 0.9767
-0.5619 -5.5293 -1.9875 0.9767
0.4296 -5.5451 -1.9889 0.9767
0.9229 -5.4871 -1.9898 0.9766
1.4092 -5.3855 -1.9907 0.9766
1.8849 -5.2411 -1.9918 0.9766
3.2108 -4.5635 -1.9954 0.9766
3.9758 -3.9257 -1.9981 0.9765
5.3001 -1.8305 -2.0052 0.9765
5.4296 -1.3474 -2.0006 0.9765
5.1267 -0.7956 -1.8553 0.9782
5.0102 -0.3244 -1.7954 0.9789
5.1932 0.1281 -1.8577 0.9782
4.9823 1.5007 -1.8608 0.9781
4.8308 1.9399 -1.8616 0.9781
4.6405 2.3640 -1.8624 0.9781
4.4128 2.7694 -1.8631 0.9781
4.1495 3.1529 -1.8636 0.9781
3.5248 3.8415 -1.8644 0.9781
2.7868 4.4074 -1.8647 0.9781
1.9593 4.8319 -1.8646 0.9781
1.5204 4.9867 -1.8643 0.9781
0.6246 2.9795 -1.0886 0.9872
0.6100 5.1751 -1.8635 0.9781
-0.7808 5.1461 -1.8614 0.9781
-1.6809 4.9206 -1.8595 0.9782
-2.2788 5.1236 -2.0053 0.9765
-2.7332 4.9118 -2.0101 0.9764
-3.1583 4.6455 -2.0088 0.9764
-3.5577 4.3425 -2.0075 0.9764
-3.9281 4.0051 -2.0061 0.9765
-4.5707 3.2390 -2.0033 0.9765
-4.8379 2.8164 -2.0019 0.9765
-5.0661 2.3721 -2.0004 0.9765
-5.5018 0.9444 -1.9963 0.9766
-5.5605 0.4497 -1.9950 0.9766
-5.5750 -0.0480 -1.9937 0.9766
-5.5452 -0.5446 -1.9925 0.9766
-5.1952 -1.9900 -1.9895 0.9766
-4.7553 -2.8791 -1.9879 0.9767
-4.4782 -3.2907 -1.9873 0.9767
-4.1658 -3.6760 -1.9868 0.9767
-3.4454 -4.3562 -1.9862 0.9767
-2.6165 -4.8987 -1.9861 0.9767
-1.7050 -5.2866 -1.9864 0.9767
-1.2269 -5.4186 -1.9868 0.9767
-0.7390 -5.5078 -1.9873 0.9767
0.2514 -5.5552 -1.9886 0.9767
2.1823 -5.1266 -1.9925 0.9766
3.4680 -4.3743 -1.9962 0.9766
4.1957 -3.6937 -1.9990 0.9765
4.5116 -3.3071 -2.0004 0.9765
4.7919 -2.8936 -2.0018 0.9765
5.2373 -1.9992 -2.0047 0.9765
5.3901 -1.5228 -2.0030 0.9765
4.8991 -0.4754 -1.7602 0.9793
5.1794 0.4249 -1.8584 0.9782
5.1237 0.8856 -1.8595 0.9782
5.0270 1.3398 -1.8604 0.9781
4.8898 1.7836 -1.8613 0.9781
4.7133 2.2135 -1.8621 0.9781
4.4988 2.6261 -1.8628 0.9781
4.2481 3.0178 -1.8634 0.9781
3.2997 4.0371 -1.8646 0.9781
2.9267 4.3156 -1.8647 0.9781
2.5302 4.5595 -1.8647 0.9781
2.1134 4.7667 -1.8646 0.9781
1.6797 4.9357 -1.8644 0.9781
0.7529 3.0937 -1.1386 0.9866
0.7758 5.1534 -1.8636 0.9781
0.3130 5.2005 -1.8631 0.9781
-0.1520 5.2058 -1.8624 0.9781
-0.6154 5.1694 -1.8617 0.9781
-1.9588 4.8147 -1.8588 0.9782
-2.5740 4.9967 -2.0100 0.9764
-4.1488 3.7723 -2.0052 0.9765
-4.4655 3.3849 -2.0038 0.9765
-4.7462 2.9710 -2.0024 0.9765
-5.1911 2.0776 -1.9995 0.9765
-5.5445 0.6280 -1.9954 0.9766
-5.5610 -0.3665 -1.9930 0.9766
-5.5030 -0.8605 -1.9918 0.9766
-5.4014 -1.3471 -1.9908 0.9766
-5.2572 -1.8226 -1.9898 0.9766
-5.0715 -2.2832 -1.9889 0.9767
-4.8458 -2.7253 -1.9882 0.9767
-4.2820 -3.5407 -1.9870 0.9767
-3.9483 -3.9077 -1.9866 0.9767
-3.5836 -4.2436 -1.9863 0.9767
-3.1906 -4.5459 -1.9861 0.9767
-2.7724 -4.8122 -1.9860 0.9767
-0.4229 -5.5421 -1.9877 0.9767
1.0605 -5.4629 -1.9900 0.9766
1.5442 -5.3492 -1.9910 0.9766
2.0162 -5.1929 -1.9921 0.9766
2.9102 -4.7578 -1.9945 0.9766
-5.0482 1.3015 -1.9978 0.9779
-5.1409 0.8455 -1.9966 0.9779
-5.1723 -0.5445 -1.9931 0.9780
-5.1005 -1.0031 -1.9921 0.9780
-4.8368 -1.8916 -1.9902 0.9780
-4.4206 -2.7188 -1.9888 0.9780
-4.1593 -3.1013 -1.9882 0.9780
-3.8653 -3.4591 -1.9878 0.9780
-3.1883 -4.0896 -1.9872 0.9780
-2.8108 -4.3574 -1.9871 0.9780
-2.4110 -4.5907 -1.9871 0.9780
-0.6540 -5.1471 -1.9883 0.9780
-0.1924 -5.1864 -1.9889 0.9780
0.7326 -5.1418 -1.9903 0.9780
1.6359 -4.9344 -1.9922 0.9780
2.0705 -4.7714 -1.9932 0.9780
2.8885 -4.3326 -1.9955 0.9779
3.2654 -4.0602 -1.9967 0.9779
3.6168 -3.7552 -1.9980 0.9779
4.2319 -3.0569 -2.0006 0.9779
4.4907 -2.6691 -2.0019 0.9779
4.9000 -1.8313 -2.0046 0.9778
4.8695 -0.8814 -1.8964 0.9790
4.8290 0.4302 -1.8579 0.9794
4.6806 1.2825 -1.8598 0.9794
3.6742 3.1834 -1.8630 0.9794
3.3763 3.4991 -1.8634 0.9794
1.9400 4.4594 -1.8636 0.9794
1.5344 4.6141 -1.8634 0.9794
0.4334 3.0219 -1.1699 0.9870
0.2581 4.8524 -1.8621 0.9794
-0.1757 4.8544 -1.8615 0.9794
-1.4525 4.6287 -1.8591 0.9794
-1.9607 4.7244 -1.9602 0.9783
-2.4343 4.6455 -2.0099 0.9778
-3.2171 4.1343 -2.0075 0.9778
-3.5707 3.8285 -2.0062 0.9778
-3.8954 3.4925 -2.0049 0.9778
-4.1886 3.1291 -2.0036 0.9779
-4.4480 2.7413 -2.0023 0.9779
-5.0050 1.4631 -1.9983 0.9779
-5.1788 0.5500 -1.9958 0.9779
-5.2041 0.0859 -1.9946 0.9780
-5.1310 -0.8391 -1.9924 0.9780
-4.8957 -1.7357 -1.9905 0.9780
-4.7195 -2.1645 -1.9897 0.9780
-4.2571 -2.9665 -1.9884 0.9780
-2.9492 -4.2650 -1.9871 0.9780
-2.5570 -4.5110 -1.9871 0.9780
-1.7152 -4.8942 -1.9874 0.9780
-1.2721 -5.0284 -1.9877 0.9780
-0.8187 -5.1230 -1.9881 0.9780
-0.3587 -5.1770 -1.9887 0.9780
1.0256 -5.0929 -1.9909 0.9780
1.4764 -4.9835 -1.9918 0.9780
1.9160 -4.8344 -1.9928 0.9780
3.4936 -3.8684 -1.9975 0.9779
3.8272 -3.5437 -1.9988 0.9779
4.1307 -3.1904 -2.0001 0.9779
4.4017 -2.8112 -2.0015 0.9779
4.6379 -2.4090 -2.0028 0.9779
4.8375 -1.9871 -2.0041 0.9778
4.9988 -1.5488 -2.0055 0.9778
4.8056 -0.5885 -1.8553 0.9795
4.8394 0.2749 -1.8575 0.9795
4.6009 1.5485 -1.8603 0.9794
4.2559 2.3431 -1.8618 0.9794
4.0313 2.7141 -1.8624 0.9794
3.4866 3.3887 -1.8632 0.9794
3.1710 3.6867 -1.8635 0.9794
2.0821 4.3950 -1.8637 0.9794
1.6817 4.5627 -1.8635 0.9794
1.2679 4.6938 -1.8632 0.9794
0.5224 2.9626 -1.1528 0.9872
0.4137 4.8421 -1.8624 0.9794
-0.4528 4.8353 -1.8611 0.9794
-1.7142 4.5366 -1.8585 0.9794
-2.2812 4.7155 -2.0074 0.9778
-3.0835 4.2363 -2.0079 0.9778
-3.7822 3.6166 -2.0054 0.9778
-4.7953 2.0603 -2.0001 0.9779
-4.9566 1.6234 -1.9988 0.9779
-5.0784 1.1741 -1.9975 0.9779
-5.1986 -0.2117 -1.9939 0.9780
-5.1562 -0.6741 -1.9928 0.9780
-4.9497 -1.5779 -1.9909 0.9780
-4.5870 -2.4302 -1.9893 0.9780
-4.3506 -2.8287 -1.9886 0.9780
-4.0798 -3.2046 -1.9881 0.9780
-3.7770 -3.5549 -1.9877 0.9780
-3.4444 -3.8770 -1.9874 0.9780
-3.0846 -4.1683 -1.9872 0.9780
-2.2950 -4.6499 -1.9871 0.9780
-0.0621 -5.1901 -1.9891 0.9780
0.4011 -5.1768 -1.9898 0.9780
0.8615 -5.1224 -1.9906 0.9780
1.7595 -4.8925 -1.9925 0.9780
2.1900 -4.7186 -1.9935 0.9780
2.9969 -4.2594 -1.9958 0.9779
3.7106 -3.6639 -1.9983 0.9779
4.3082 -2.9503 -2.0010 0.9779
4.9453 -1.7080 -2.0050 0.9778
5.0706 -1.2583 -2.0021 0.9779
4.8333 -0.3129 -1.8561 0.9795
4.7515 0.9793 -1.8591 0.9794
3.2875 3.5829 -1.8634 0.9794
2.9552 3.8622 -1.8636 0.9794
2.5991 4.1106 -1.8637 0.9794
1.4180 4.6510 -1.8633 0.9794
0.6150 2.9339 -1.1487 0.9872
0.5689 4.8268 -1.8625 0.9794
-0.2975 4.8480 -1.8613 0.9794
-2.1261 4.7804 -2.0050 0.9778
-2.5498 4.5823 -2.0096 0.9778
-3.3193 4.0515 -2.0071 0.9778
-3.6651 3.7369 -2.0059 0.9778
-3.9811 3.3930 -2.0046 0.9778
-4.7278 2.2136 -2.0005 0.9779
-4.9031 1.7820 -1.9992 0.9779
-5.1351 0.8815 -1.9967 0.9779
-5.1901 0.4197 -1.9954 0.9779
-5.1076 -0.9675 -1.9921 0.9780
-4.9985 -1.4185 -1.9912 0.9780
-4.4396 -2.6879 -1.9889 0.9780
-3.5672 -3.7646 -1.9875 0.9780
-2.4430 -4.5738 -1.9871 0.9780
-1.5918 -4.9359 -1.9875 0.9780
-0.2286 -5.1848 -1.9888 0.9780
1.1533 -5.0662 -1.9911 0.9780
1.6013 -4.9456 -1.9921 0.9780
2.4571 -4.5873 -1.9942 0.9780
2.8581 -4.3524 -1.9954 0.9779
3.5903 -3.7802 -1.9979 0.9779
4.6978 -2.2922 -2.0032 0.9779
4.8868 -1.8654 -2.0045 0.9778
4.9401 -0.9298 -1.9264 0.9787
4.8451 -0.0361 -1.8568 0.9795
4.7796 0.8262 -1.8588 0.9794
4.6892 1.2498 -1.8597 0.9794
4.1962 2.4494 -1.8620 0.9794
3.0775 3.7653 -1.8636 0.9794
2.7297 4.0250 -1.8637 0.9794
2.3599 4.2525 -1.8637 0.9794
1.5666 4.6034 -1.8634 0.9794
0.4533 3.0113 -1.1670 0.9870
0.2920 4.8506 -1.8622 0.9794
-0.1417 4.8557 -1.8616 0.9794
-0.5740 4.8218 -1.8609 0.9794
-1.0013 4.7494 -1.8601 0.9794
-2.8066 4.4273 -2.0088 0.9778
-3.8711 3.5198 -2.0050 0.9778
-4.1668 3.1585 -2.0037 0.9779
-4.4290 2.7724 -2.0024 0.9779
-4.6554 2.3648 -2.0010 0.9779
-4.8446 1.9389 -1.9997 0.9779
-4.9949 1.4981 -1.9984 0.9779
-5.2036 0.1223 -1.9947 0.9779
-5.1369 -0.8032 -1.9925 0.9780
-4.5241 -2.5444 -1.9891 0.9780
-4.2778 -2.9368 -1.9885 0.9780
-3.9978 -3.3058 -1.9880 0.9780
-2.9789 -4.2443 -1.9871 0.9780
-2.5885 -4.4930 -1.9871 0.9780
-1.7493 -4.8820 -1.9874 0.9780
0.9900 -5.0998 -1.9908 0.9780
1.4415 -4.9935 -1.9917 0.9780
2.7163 -4.4410 -1.9950 0.9779
-2.0737 0.3411 -0.8601 0.9910
-1.9135 -0.0298 -0.7833 0.9918
-1.9572 -0.2061 -0.8055 0.9915
-4.7773 -0.9396 -1.9927 0.9792
-4.6724 -1.3613 -1.9918 0.9792
-4.1409 -2.5468 -1.9896 0.9792
-3.6208 -3.2404 -1.9887 0.9792
-2.2585 -4.3005 -1.9881 0.9792
-1.8661 -4.4850 -1.9882 0.9792
-0.6126 -4.8215 -1.9892 0.9792
-0.1802 -4.8582 -1.9897 0.9792
0.2538 -4.8565 -1.9903 0.9792
0.6862 -4.8163 -1.9911 0.9792
1.1134 -4.7378 -1.9919 0.9792
1.9392 -4.4688 -1.9938 0.9792
2.7052 -4.0576 -1.9959 0.9791
3.0580 -3.8023 -1.9970 0.9791
3.3870 -3.5166 -1.9982 0.9791
3.9627 -2.8624 -2.0007 0.9791
4.2048 -2.4992 -2.0019 0.9791
4.4137 -2.1155 -2.0032 0.9791
4.5876 -1.7146 -2.0044 0.9791
4.7237 -1.2990 -2.0051 0.9790
4.5151 -0.4063 -1.8554 0.9806
4.5358 -0.0021 -1.8564 0.9806
4.4686 0.8046 -1.8583 0.9806
4.2583 1.5871 -1.8599 0.9806
3.6899 2.6603 -1.8617 0.9805
2.8556 3.5440 -1.8627 0.9805
1.8156 4.1735 -1.8627 0.9805
1.4360 4.3183 -1.8625 0.9805
0.6775 2.8713 -1.2074 0.9873
0.4279 2.9835 -1.2336 0.9871
-0.1644 4.5435 -1.8608 0.9805
-1.3596 4.3326 -1.8585 0.9806
-2.2788 4.3488 -2.0094 0.9790
-3.3429 3.5842 -2.0060 0.9790
-3.9217 2.9297 -2.0035 0.9791
-4.1648 2.5667 -2.0022 0.9791
-1.9144 0.0316 -0.7836 0.9918
-2.0660 -0.3379 -0.8568 0.9910
-4.4208 -2.0275 -1.9905 0.9792
-3.9878 -2.7789 -1.9893 0.9792
-3.7232 -3.1227 -1.9888 0.9792
-3.4293 -3.4417 -1.9885 0.9792
-2.0090 -4.4227 -1.9881 0.9792
-1.6067 -4.5847 -1.9883 0.9792
-0.7670 -4.7989 -1.9890 0.9792
-0.3360 -4.8494 -1.9895 0.9792
0.0978 -4.8615 -1.9901 0.9792
1.3829 -4.6677 -1.9925 0.9792
1.7945 -4.5280 -1.9934 0.9792
2.9338 -3.8977 -1.9966 0.9791
3.2717 -3.6227 -1.9978 0.9791
3.5839 -3.3184 -1.9990 0.9791
3.8679 -2.9874 -2.0002 0.9791
4.3426 -2.2556 -2.0027 0.9791
4.5301 0.2574 -1.8570 0.9806
3.5323 2.8673 -1.8620 0.9805
2.9677 3.4504 -1.8626 0.9805
2.6484 3.7016 -1.8628 0.9805
1.9486 4.1132 -1.8628 0.9805
1.1867 4.3930 -1.8624 0.9805
-0.0185 4.5470 -1.8610 0.9805
-0.4238 4.5257 -1.8603 0.9805
-0.8254 4.4681 -1.8596 0.9806
-2.5228 4.2099 -2.0087 0.9790
-3.2269 3.6905 -2.0064 0.9790
-3.5410 3.3859 -2.0052 0.9790
-3.8265 3.0548 -2.0039 0.9791
-4.0812 2.6996 -2.0027 0.9791
-4.3030 2.3235 -2.0014 0.9791
-4.4902 1.9292 -2.0002 0.9791
-4.6415 1.5202 -1.9990 0.9791
-4.7557 1.0995 -1.9978 0.9791
-1.9474 0.2703 -0.8046 0.9915
-4.7516 -1.0591 -1.9924 0.9792
-4.6362 -1.4780 -1.9916 0.9792
-3.5381 -3.3301 -1.9886 0.9792
-2.8896 -3.9047 -1.9881 0.9792
-2.5297 -4.1467 -1.9880 0.9792
-2.1499 -4.3559 -1.9881 0.9792
-1.7530 -4.5306 -1.9882 0.9792
-1.3421 -4.6695 -1.9885 0.9792
-0.9205 -4.7715 -1.9888 0.9792
