ply
format ascii 1.0
element vertex 1584
property float32 x
property float32 y
property float32 z
property float32 I
end_header
-2.6803 -13.1555 -1.9023 0.9472
-1.4942 -13.3198 -1.8991 0.9473
0.8935 -13.3455 -1.8951 0.9474
2.0791 -13.2072 -1.8944 0.9474
3.2485 -12.9695 -1.8944 0.9474
4.3939 -12.6339 -1.8953 0.9474
5.5076 -12.2025 -1.8969 0.9474
6.5823 -11.6780 -1.8994 0.9473
7.6103 -11.0635 -1.9026 0.9472
8.5845 -10.3627 -1.9067 0.9471
10.9551 -6.2993 -1.7905 0.9502
11.5174 -5.3178 -1.7974 0.9500
12.3834 -3.2148 -1.8127 0.9496
12.6785 -2.1075 -1.8211 0.9494
13.9858 0.1936 -1.9818 0.9451
-12.2237 -0.6474 -2.0165 0.9516
-12.0643 -1.7272 -2.0077 0.9518
-11.8104 -2.7838 -1.9989 0.9520
-11.4651 -3.8091 -1.9903 0.9522
-11.0325 -4.7956 -1.9818 0.9524
-10.5169 -5.7362 -1.9735 0.9526
-8.5240 -8.2188 -1.9507 0.9531
-5.9867 -10.0835 -1.9319 0.9536
-2.0657 -11.4390 -1.9149 0.9540
1.0322 -11.5432 -1.9092 0.9541
2.0568 -11.4022 -1.9087 0.9541
4.0517 -10.8621 -1.9098 0.9541
5.9288 -9.9903 -1.9138 0.9540
8.4637 -6.8174 -1.7904 0.9569
9.0637 -6.0528 -1.7955 0.9568
9.5973 -5.2369 -1.8011 0.9566
10.0600 -4.3751 -1.8072 0.9565
11.1544 -2.6314 -1.8880 0.9546
12.0524 0.4362 -1.9868 0.9523
12.0174 1.5156 -1.9954 0.9521
11.8863 2.5924 -2.0042 0.9519
11.6588 3.6579 -2.0130 0.9517
11.3355 4.7034 -2.0218 0.9515
10.9179 5.7199 -2.0305 0.9513
10.4082 6.6987 -2.0391 0.9511
7.7261 8.6144 -1.9063 0.9542
6.9514 9.3014 -1.9130 0.9540
6.1142 9.9162 -1.9191 0.9539
3.3182 6.6431 -1.2233 0.9703
1.1266 10.5762 -1.7522 0.9578
0.1842 10.9381 -1.8022 0.9566
-0.8545 11.7749 -1.9449 0.9533
-1.9017 11.6561 -1.9456 0.9533
-2.9333 11.4396 -1.9455 0.9533
-3.9398 11.1274 -1.9446 0.9533
-8.9717 8.9485 -2.0875 0.9499
-9.7076 8.0910 -2.0819 0.9501
-12.0360 3.0529 -2.0456 0.9509
-12.2839 0.8594 -2.0286 0.9513
-12.2585 -0.2383 -2.0198 0.9515
-12.1353 -1.3245 -2.0110 0.9517
-11.9165 -2.3908 -2.0022 0.9519
-11.2047 -4.4307 -1.9849 0.9523
-10.7197 -5.3893 -1.9766 0.9525
-10.1547 -6.2977 -1.9685 0.9527
-9.5150 -7.1497 -1.9607 0.9529
-5.4058 -10.3840 -1.9286 0.9537
-3.4593 -11.1270 -1.9196 0.9539
-2.4489 -11.3703 -1.9161 0.9539
-1.4232 -11.5261 -1.9132 0.9540
-0.3894 -11.5940 -1.9111 0.9541
0.6454 -11.5736 -1.9096 0.9541
1.6741 -11.4653 -1.9088 0.9541
3.6850 -10.9892 -1.9094 0.9541
7.5393 -7.7758 -1.7842 0.9570
8.2226 -7.0899 -1.7886 0.9569
8.8462 -6.3458 -1.7935 0.9568
9.8950 -4.7034 -1.8049 0.9566
10.3113 -3.8158 -1.8113 0.9564
10.6502 -2.8920 -1.8180 0.9562
11.7574 -2.0893 -1.9672 0.9527
11.9455 -1.0369 -1.9753 0.9526
12.0409 0.0324 -1.9836 0.9524
11.9467 2.1895 -2.0009 0.9520
11.4679 4.3142 -2.0185 0.9515
11.0855 5.3426 -2.0272 0.9513
10.6100 6.3366 -2.0359 0.9511
10.0441 7.2875 -2.0443 0.9509
8.9344 7.7879 -1.9525 0.9531
7.9991 8.3395 -1.9037 0.9542
6.4351 9.6945 -1.9169 0.9539
5.5621 10.2610 -1.9228 0.9538
3.6701 11.1433 -1.9327 0.9536
2.6674 11.4499 -1.9368 0.9535
0.5585 11.0907 -1.8294 0.9560
-1.5103 11.7121 -1.9454 0.9533
-4.5520 10.8850 -1.9437 0.9533
-5.4983 10.4242 -1.9415 0.9533
-7.8332 10.0115 -2.0941 0.9498
-8.6752 9.2524 -2.0894 0.9499
-9.4412 8.4203 -2.0840 0.9500
-10.7212 6.5693 -2.0714 0.9503
-11.9450 3.4593 -2.0487 0.9508
-12.2678 1.2721 -2.0318 0.9512
-11.7325 -3.0433 -1.9968 0.9521
-10.9112 -5.0353 -1.9797 0.9525
-10.3756 -5.9633 -1.9715 0.9526
-9.7633 -6.8372 -1.9636 0.9528
-9.0798 -7.6510 -1.9560 0.9530
-8.3311 -8.3994 -1.9489 0.9532
-7.5232 -9.0777 -1.9423 0.9533
-2.8300 -11.2892 -1.9173 0.9539
-0.7776 -11.5789 -1.9118 0.9540
0.2576 -11.5915 -1.9101 0.9541
2.3107 -11.3534 -1.9087 0.9541
5.2421 -10.3549 -1.9120 0.9540
8.6196 -6.6314 -1.7916 0.9569
9.2035 -5.8535 -1.7968 0.9567
9.7197 -5.0256 -1.8026 0.9566
10.5324 -3.2423 -1.8155 0.9563
12.0526 0.7058 -1.9889 0.9522
11.9937 1.7854 -1.9976 0.9520
11.8384 2.8601 -2.0064 0.9518
11.5869 3.9215 -2.0152 0.9516
11.2400 4.9605 -2.0240 0.9514
10.7990 5.9684 -2.0327 0.9512
9.6257 7.8393 -2.0451 0.9509
7.5387 8.7925 -1.9080 0.9541
5.8959 10.0578 -1.9206 0.9538
3.2073 6.7963 -1.2380 0.9700
0.9448 11.2482 -1.8595 0.9553
-3.1876 11.3704 -1.9454 0.9533
-4.1864 11.0347 -1.9443 0.9533
-8.3680 9.5460 -2.0913 0.9498
-9.8786 7.8666 -2.0803 0.9501
-10.5082 6.9331 -2.0739 0.9502
-11.0473 5.9485 -2.0670 0.9504
-11.4922 4.9220 -2.0595 0.9506
-12.0888 2.7808 -2.0435 0.9510
-12.2378 1.6848 -2.0351 0.9512
-12.2868 0.5844 -2.0264 0.9514
-12.0895 -1.5933 -2.0088 0.9518
-11.5132 -3.6829 -1.9913 0.9522
-10.5857 -5.6213 -1.9745 0.9526
-7.8327 -8.8319 -1.9447 0.9533
-6.1011 -10.0196 -1.9326 0.9536
-5.1694 -10.4952 -1.9273 0.9537
-4.2028 -10.8880 -1.9227 0.9538
-1.1653 -11.5514 -1.9126 0.9540
-0.1306 -11.5971 -1.9106 0.9541
0.9033 -11.5547 -1.9093 0.9541
1.9294 -11.4246 -1.9087 0.9541
2.9406 -11.2078 -1.9089 0.9541
3.9299 -10.9058 -1.9097 0.9541
7.5348 -8.8915 -1.9200 0.9539
10.0061 -4.4852 -1.8064 0.9565
10.4034 -3.5880 -1.8129 0.9564
11.6925 3.5256 -2.0119 0.9517
11.3812 4.5740 -2.0207 0.9515
10.4769 6.5787 -2.0380 0.9511
9.8890 7.5174 -2.0464 0.9509
8.5151 7.7635 -1.8983 0.9544
7.0519 9.2193 -1.9121 0.9540
6.2221 9.8435 -1.9184 0.9539
3.4273 6.6741 -1.2360 0.9700
1.2335 10.4690 -1.7366 0.9582
0.3078 10.9885 -1.8109 0.9564
-0.7230 11.7828 -1.9447 0.9533
-1.7714 11.6763 -1.9456 0.9533
-2.8055 11.4719 -1.9456 0.9533
-4.7926 10.7781 -1.9432 0.9533
-7.1561 10.5284 -2.0972 0.9497
-8.0505 9.8290 -2.0930 0.9498
-9.6201 8.2018 -2.0826 0.9500
-10.2824 7.2896 -2.0764 0.9502
-10.8560 6.3231 -2.0697 0.9503
-11.3366 5.3113 -2.0624 0.9505
-11.7211 4.2634 -2.0547 0.9507
-12.0072 3.1887 -2.0466 0.9509
-12.1936 2.0968 -2.0383 0.9511
-12.2671 -0.1014 -2.0209 0.9515
-12.1560 -1.1896 -2.0121 0.9517
-11.6489 -3.3007 -1.9946 0.9521
-5.5232 -10.3264 -1.9292 0.9536
-4.5690 -10.7505 -1.9243 0.9537
-2.5763 -11.3446 -1.9165 0.9539
-1.5521 -11.5114 -1.9135 0.9540
-0.5189 -11.5903 -1.9113 0.9541
2.5635 -11.2992 -1.9087 0.9541
4.5341 -10.6745 -1.9106 0.9541
7.2275 -9.1319 -1.9186 0.9539
8.0296 -8.4687 -1.9225 0.9538
8.7717 -6.4419 -1.7929 0.9568
9.8377 -4.8115 -1.8041 0.9566
10.2634 -3.9289 -1.8104 0.9564
11.7275 -2.2194 -1.9663 0.9528
11.9270 -1.1696 -1.9743 0.9526
12.0469 0.9756 -1.9911 0.9522
11.9639 2.0548 -1.9998 0.9520
11.7846 3.1270 -2.0086 0.9518
11.5091 4.1836 -2.0174 0.9516
10.6744 6.2145 -2.0348 0.9512
10.1197 7.1712 -2.0433 0.9510
8.0880 8.2458 -1.9028 0.9543
7.3470 8.9665 -1.9097 0.9541
4.7559 10.6896 -1.9274 0.9537
3.7932 11.0985 -1.9322 0.9536
2.7944 11.4166 -1.9363 0.9535
0.6859 11.1426 -1.8391 0.9558
-0.3280 11.7973 -1.9442 0.9533
-1.3793 11.7278 -1.9453 0.9533
-2.4199 11.5599 -1.9457 0.9532
-3.4402 11.2953 -1.9452 0.9533
-4.4307 10.9363 -1.9439 0.9533
-5.3824 10.4866 -1.9418 0.9533
-6.7915 10.7491 -2.0946 0.9498
-7.7229 10.1009 -2.0947 0.9498
-9.3498 8.5281 -2.0848 0.9500
-10.0442 7.6386 -2.0788 0.9501
-12.2594 1.4098 -2.0329 0.9512
-12.2090 -0.7832 -2.0154 0.9516
-12.0377 -1.8605 -2.0066 0.9518
-10.9725 -4.9157 -1.9807 0.9524
-10.4469 -5.8501 -1.9725 0.9526
-9.8439 -6.7311 -1.9645 0.9528
-6.7730 -9.6103 -1.9369 0.9535
-4.9308 -10.6012 -1.9261 0.9537
-3.9567 -10.9730 -1.9216 0.9538
-1.9376 -11.4592 -1.9146 0.9540
-0.9070 -11.5711 -1.9121 0.9540
3.1902 -11.1402 -1.9090 0.9541
4.1730 -10.8172 -1.9100 0.9541
5.1254 -10.4113 -1.9117 0.9540
6.0409 -9.9253 -1.9141 0.9540
6.9130 -9.3623 -1.9172 0.9539
6.3202 -5.9616 -1.4313 0.9654
10.1125 -4.2646 -1.8080 0.9565
12.0533 0.5709 -1.9879 0.9523
11.8631 2.7263 -2.0053 0.9519
11.6236 3.7897 -2.0141 0.9516
10.3382 6.8179 -2.0401 0.9510
8.3477 7.9592 -1.9001 0.9543
6.8502 9.3822 -1.9138 0.9540
6.0055 9.9876 -1.9199 0.9539
4.1589 10.9555 -1.9305 0.9536
3.1726 11.3082 -1.9348 0.9535
-2.0316 11.6343 -1.9456 0.9532
-3.0606 11.4057 -1.9454 0.9533
-4.0633 11.0818 -1.9445 0.9533
-5.9537 10.1613 -1.9401 0.9534
-7.3859 10.3613 -2.0962 0.9497
-8.2632 9.6416 -2.0919 0.9498
-9.0681 8.8450 -2.0868 0.9499
-9.7937 7.9793 -2.0811 0.9501
-11.8019 3.9969 -2.0527 0.9507
-12.2246 1.8223 -2.0361 0.9511
-12.2484 -0.3747 -2.0187 0.9515
-11.5599 -3.5560 -1.9924 0.9522
-11.1487 -4.5529 -1.9839 0.9524
-8.7133 -8.0336 -1.9524 0.9531
-6.2148 -9.9545 -1.9333 0.9535
-5.2879 -10.4402 -1.9279 0.9537
-4.3254 -10.8435 -1.9232 0.9538
-3.3342 -11.1622 -1.9191 0.9539
-1.2944 -11.5394 -1.9129 0.9540
-0.2601 -11.5962 -1.9108 0.9541
2.8152 -11.2396 -1.9088 0.9541
4.7722 -10.5731 -1.9110 0.9541
6.5914 -9.5823 -1.9160 0.9539
7.4331 -8.9728 -1.9195 0.9539
7.6277 -7.6934 -1.7847 0.9570
8.3038 -7.0000 -1.7892 0.9569
8.9197 -6.2491 -1.7942 0.9568
10.3579 -3.7023 -1.8121 0.9564
10.7757 -2.7975 -1.8340 0.9559
12.0352 1.2456 -1.9933 0.9521
-10.3534 -2.4403 -1.9994 0.9576
-10.0562 -3.3410 -1.9918 0.9578
-9.6818 -4.2085 -1.9843 0.9579
-9.2340 -5.0365 -1.9770 0.9581
-8.7171 -5.8190 -1.9700 0.9582
-8.1357 -6.5507 -1.9633 0.9584
-6.0563 -8.3930 -1.9454 0.9588
-4.4471 -9.2890 -1.9357 0.9590
-2.7159 -9.8926 -1.9282 0.9591
-0.0010 -10.2219 -1.9213 0.9592
2.7025 -9.8509 -1.9200 0.9593
3.5716 -9.5748 -1.9208 0.9593
9.6979 -3.2240 -1.9209 0.9593
10.5263 -0.5595 -1.9813 0.9580
10.2118 3.2039 -2.0117 0.9574
9.9232 4.1174 -2.0194 0.9572
9.5525 5.0045 -2.0270 0.9571
6.7463 7.5220 -1.8992 0.9597
5.3342 8.6512 -1.9103 0.9595
3.7309 9.5073 -1.9197 0.9593
1.9903 10.0558 -1.9268 0.9591
0.1730 10.2739 -1.9314 0.9590
-1.6562 10.1513 -1.9333 0.9590
-2.5546 9.9628 -1.9332 0.9590
-3.4314 9.6915 -1.9324 0.9590
-4.2787 9.3400 -1.9310 0.9590
-6.3363 9.1020 -2.0846 0.9559
-7.1101 8.4859 -2.0809 0.9559
-7.8222 7.8020 -2.0766 0.9560
-9.0385 6.2573 -2.0663 0.9562
-10.5209 2.6686 -2.0401 0.9568
-10.6785 1.7137 -2.0328 0.9569
-10.7489 0.7520 -2.0253 0.9571
-10.7325 -0.2086 -2.0177 0.9573
-10.6304 -1.1603 -2.0100 0.9574
-10.4444 -2.0954 -2.0022 0.9576
-9.8310 -3.8875 -1.9871 0.9579
-9.4103 -4.7310 -1.9797 0.9580
-8.9188 -5.5312 -1.9726 0.9582
-8.3610 -6.2826 -1.9658 0.9583
-7.7418 -6.9798 -1.9593 0.9585
-5.5695 -8.7033 -1.9422 0.9588
-4.7596 -9.1427 -1.9374 0.9589
-2.1579 -10.0189 -1.9263 0.9591
-1.2543 -10.1580 -1.9238 0.9592
-0.3432 -10.2192 -1.9219 0.9592
0.5689 -10.2021 -1.9206 0.9593
5.7125 -8.5061 -1.9259 0.9592
5.9920 -7.3996 -1.7897 0.9620
7.7866 -5.5857 -1.8012 0.9617
8.2756 -4.8822 -1.8060 0.9616
10.3272 -1.8352 -1.9715 0.9582
10.5607 0.9741 -1.9934 0.9578
10.2984 2.8561 -2.0088 0.9574
10.0411 3.7774 -2.0165 0.9573
9.7011 4.6754 -2.0241 0.9571
9.2800 5.5423 -2.0317 0.9570
8.1954 7.1438 -2.0435 0.9567
5.6150 8.4591 -1.9084 0.9595
4.8514 8.9499 -1.9135 0.9594
2.3244 9.9776 -1.9256 0.9592
1.4276 10.1602 -1.9285 0.9591
-2.2198 10.0433 -1.9333 0.9590
-3.1056 9.8028 -1.9328 0.9590
-3.9649 9.4810 -1.9316 0.9590
-4.7898 9.0809 -1.9297 0.9591
-6.0270 9.3073 -2.0842 0.9559
-6.8268 8.7252 -2.0823 0.9559
-8.2333 7.3430 -2.0736 0.9561
-8.8329 6.5630 -2.0684 0.9562
-10.1627 3.9555 -2.0498 0.9566
-10.7327 1.1130 -2.0281 0.9570
-10.2865 -2.6682 -1.9975 0.9577
-9.9697 -3.5612 -1.9899 0.9578
-9.5766 -4.4194 -1.9825 0.9580
-7.9809 -6.7250 -1.9616 0.9584
-5.0675 -8.9863 -1.9391 0.9589
-4.2364 -9.3808 -1.9347 0.9590
-2.4935 -9.9467 -1.9274 0.9591
-1.5944 -10.1149 -1.9247 0.9592
2.0370 -10.0086 -1.9198 0.9593
3.7849 -9.4942 -1.9211 0.9593
4.6202 -9.1265 -1.9227 0.9592
5.4218 -8.6882 -1.9249 0.9592
6.1839 -8.1821 -1.9277 0.9591
6.4026 -7.0619 -1.7917 0.9619
8.5503 -4.4209 -1.8092 0.9616
10.5459 -0.3248 -1.9832 0.9580
10.5724 0.6191 -1.9906 0.9578
10.3733 2.5062 -2.0059 0.9575
10.1474 3.4343 -2.0136 0.9573
9.8382 4.3419 -2.0213 0.9572
8.4300 6.8655 -2.0435 0.9567
5.8888 8.2576 -1.9064 0.9596
5.1433 8.7740 -1.9116 0.9595
3.5197 9.5932 -1.9207 0.9593
0.8594 10.2318 -1.9299 0.9591
-0.0563 10.2773 -1.9318 0.9590
-1.8824 10.1121 -1.9333 0.9590
-3.6463 9.6110 -1.9321 0.9590
-5.6826 9.4549 -2.0734 0.9561
-7.9899 7.6212 -2.0754 0.9561
-8.6167 6.8617 -2.0704 0.9562
-9.1694 6.0498 -2.0648 0.9563
-10.3457 3.3754 -2.0455 0.9567
-10.7149 -0.4476 -2.0157 0.9573
-10.3850 -2.3257 -2.0003 0.9576
-9.7327 -4.1020 -1.9852 0.9579
-8.7854 -5.7238 -1.9709 0.9582
-6.8895 -7.7684 -1.9517 0.9586
-1.9331 -10.0609 -1.9256 0.9592
-1.0270 -10.1806 -1.9233 0.9592
0.7963 -10.1857 -1.9204 0.9593
1.7009 -10.0714 -1.9198 0.9593
2.5922 -9.8802 -1.9199 0.9593
5.1255 -8.8606 -1.9240 0.9592
5.9031 -8.3796 -1.9266 0.9591
7.3818 -6.0831 -1.7979 0.9618
7.9144 -5.4141 -1.8024 0.9617
9.5441 -3.2917 -1.8976 0.9597
10.3748 -1.6057 -1.9733 0.9582
10.5722 0.2645 -1.9878 0.9579
10.5464 1.2106 -1.9953 0.9577
10.4363 2.1544 -2.0030 0.9576
10.2420 3.0882 -2.0107 0.9574
9.6033 4.8953 -2.0260 0.9571
9.1624 5.7533 -2.0335 0.9569
8.6438 6.5708 -2.0408 0.9568
6.1552 8.0470 -1.9043 0.9596
3.4109 6.6422 -1.4035 0.9701
3.8358 9.4625 -1.9191 0.9593
2.9829 9.7867 -1.9231 0.9592
0.2876 10.2702 -1.9312 0.9590
-0.6297 10.2623 -1.9325 0.9590
-1.5427 10.1690 -1.9332 0.9590
-2.4433 9.9910 -1.9333 0.9590
-3.3232 9.7299 -1.9326 0.9590
-4.1746 9.3882 -1.9312 0.9590
-4.9898 8.9691 -1.9292 0.9591
-7.0166 8.5668 -2.0814 0.9559
-7.7368 7.8910 -2.0772 0.9560
-9.8994 4.6379 -2.0548 0.9565
-10.4951 2.7871 -2.0410 0.9568
-10.6636 1.8337 -2.0338 0.9569
-10.4721 -1.9796 -2.0032 0.9576
-10.2147 -2.8944 -1.9956 0.9577
-9.8784 -3.7792 -1.9880 0.9579
-9.4669 -4.6277 -1.9806 0.9580
-8.9840 -5.4337 -1.9735 0.9582
-7.8224 -6.8958 -1.9600 0.9584
-7.1538 -7.5419 -1.9539 0.9586
-5.6682 -8.6433 -1.9428 0.9588
-4.0239 -9.4679 -1.9337 0.9590
-3.1575 -9.7700 -1.9299 0.9591
-2.2700 -9.9960 -1.9267 0.9591
-1.3678 -10.1449 -1.9241 0.9592
0.4550 -10.2085 -1.9207 0.9593
3.9965 -9.4090 -1.9215 0.9592
4.8240 -9.0234 -1.9232 0.9592
5.6162 -8.5679 -1.9256 0.9592
6.3676 -8.0453 -1.9285 0.9591
6.5618 -6.9206 -1.7926 0.9619
6.5404 -5.7680 -1.6391 0.9651
10.4716 -1.0269 -1.9777 0.9581
10.4875 1.8012 -2.0001 0.9576
9.3370 5.4359 -2.0307 0.9570
8.8471 6.2694 -2.0381 0.9568
8.2791 7.0556 -2.0446 0.9567
7.0640 7.2018 -1.8961 0.9598
6.4139 7.8276 -1.9021 0.9596
4.9494 8.8923 -1.9129 0.9594
3.3064 9.6743 -1.9217 0.9592
2.4352 9.9490 -1.9252 0.9592
1.5407 10.1419 -1.9282 0.9591
-1.2013 10.2140 -1.9331 0.9590
-2.1075 10.0676 -1.9333 0.9590
-2.9961 9.8374 -1.9329 0.9590
-3.8591 9.5256 -1.9318 0.9590
-5.9176 9.3661 -2.0824 0.9559
-6.7305 8.8028 -2.0828 0.9559
-7.4742 8.1520 -2.0788 0.9560
-8.1532 7.4367 -2.0742 0.9561
-8.7619 6.6634 -2.0690 0.9562
-9.2955 5.8396 -2.0634 0.9563
-9.7500 4.9726 -2.0572 0.9564
-10.7246 1.2333 -2.0291 0.9570
-10.6920 -0.6859 -2.0138 0.9573
-10.5477 -1.6303 -2.0061 0.9575
-10.3206 -2.5544 -1.9984 0.9576
-10.0136 -3.4513 -1.9908 0.9578
-9.6298 -4.3142 -1.9834 0.9580
-8.6479 -5.9133 -1.9691 0.9583
-8.0588 -6.6382 -1.9625 0.9584
-5.9603 -8.4572 -1.9447 0.9588
-5.1691 -8.9318 -1.9397 0.9589
-3.4852 -9.6655 -1.9312 0.9590
-1.7075 -10.0981 -1.9250 0.9592
-0.7994 -10.1983 -1.9228 0.9592
1.0233 -10.1644 -1.9202 0.9593
1.9251 -10.0307 -1.9198 0.9593
2.8122 -9.8205 -1.9201 0.9593
3.6784 -9.5351 -1.9210 0.9593
4.5175 -9.1764 -1.9225 0.9592
6.0909 -8.2489 -1.9273 0.9591
6.3219 -7.1312 -1.7913 0.9620
6.2625 -5.9072 -1.6181 0.9656
7.5202 -5.9204 -1.7990 0.9618
8.4973 -4.5145 -1.8086 0.9616
8.8926 -3.7501 -1.8140 0.9615
10.2172 -2.2903 -1.9681 0.9583
10.5367 -0.4423 -1.9822 0.9580
10.1802 3.3191 -2.0126 0.9574
9.8814 4.2297 -2.0203 0.9572
9.5005 5.1131 -2.0279 0.9570
8.5025 6.7680 -2.0426 0.9567
6.6646 7.5997 -1.8999 0.9597
5.2392 8.7131 -1.9110 0.9595
3.2377 6.6669 -1.3931 0.9703
2.7650 9.8554 -1.9240 0.9592
1.8784 10.0793 -1.9271 0.9591
0.9735 10.2201 -1.9297 0.9591
-1.7693 10.1324 -1.9333 0.9590
-4.3820 9.2906 -1.9308 0.9591
-5.2454 8.9523 -1.9503 0.9586
-7.9066 7.7121 -2.0760 0.9560
-8.5422 6.9597 -2.0710 0.9561
-9.1045 6.1539 -2.0655 0.9563
-10.3118 3.4923 -2.0463 0.9567
-10.1379 -3.1186 -1.9937 0.9577
-9.7825 -3.9950 -1.9861 0.9579
-8.8527 -5.6278 -1.9717 0.9582
-8.2869 -6.3727 -1.9649 0.9583
-6.2465 -8.2614 -1.9467 0.9587
-5.4704 -8.7620 -1.9415 0.9588
-3.8096 -9.5505 -1.9327 0.9590
-2.0456 -10.0405 -1.9260 0.9592
-1.1408 -10.1699 -1.9235 0.9592
2.4817 -9.9082 -1.9199 0.9593
3.3564 -9.6508 -1.9206 0.9593
5.0255 -8.9160 -1.9237 0.9592
5.8081 -8.4434 -1.9263 0.9591
6.0755 -7.3339 -1.7900 0.9620
6.7179 -6.7758 -1.7935 0.9619
7.3113 -6.1633 -1.7974 0.9618
8.7521 -4.0410 -1.8119 0.9615
10.3516 -1.7207 -1.9724 0.9582
10.5015 -0.7937 -1.9795 0.9580
10.5542 1.0923 -1.9944 0.9577
10.4547 2.0368 -2.0020 0.9576
-9.5117 -0.5038 -2.0134 0.9618
-9.2079 -2.1703 -1.9997 0.9621
-8.6178 -3.7460 -1.9863 0.9623
-7.7652 -5.1836 -1.9735 0.9625
-5.4023 -7.4868 -1.9515 0.9630
-2.4250 -8.8328 -1.9362 0.9632
-0.0009 -9.1304 -1.9300 0.9634
0.8128 -9.0896 -1.9290 0.9634
2.4141 -8.7996 -1.9288 0.9634
4.6662 -7.8627 -1.9327 0.9633
5.3553 -7.4245 -1.9350 0.9633
5.5714 -6.4276 -1.7980 0.9658
6.6495 -5.3560 -1.8048 0.9657
7.1165 -4.7524 -1.8089 0.9656
7.5577 -4.1240 -1.8199 0.9654
8.5015 -3.6973 -1.9596 0.9628
8.8222 -2.9329 -1.9652 0.9627
9.3710 -0.4981 -1.9836 0.9624
9.4092 0.3405 -1.9902 0.9622
9.2618 2.0200 -2.0038 0.9620
8.4826 4.4440 -2.0242 0.9616
7.6072 5.9180 -2.0373 0.9614
5.9813 6.6690 -1.8936 0.9640
4.7262 7.6651 -1.9035 0.9639
0.1531 9.0914 -1.9220 0.9635
-3.0363 8.5755 -1.9230 0.9635
-4.8560 8.5038 -2.0700 0.9608
-6.2950 7.5131 -2.0719 0.9607
-6.9272 6.9092 -2.0681 0.9608
-7.4999 6.2510 -2.0638 0.9609
-8.8194 4.0125 -2.0481 0.9612
-9.4794 1.5213 -2.0294 0.9615
-9.5353 -0.1853 -2.0160 0.9618
-9.4486 -1.0313 -2.0091 0.9619
-9.2873 -1.8633 -2.0023 0.9620
-9.0533 -2.6748 -1.9955 0.9621
-8.7492 -3.4597 -1.9888 0.9623
-8.3782 -4.2121 -1.9822 0.9624
-7.4498 -5.5978 -1.9697 0.9626
-6.9005 -6.2214 -1.9639 0.9627
-6.3007 -6.7929 -1.9585 0.9628
-4.2476 -8.1591 -1.9444 0.9631
-2.7208 -8.7517 -1.9373 0.9632
-1.9269 -8.9465 -1.9345 0.9633
-1.1202 -9.0720 -1.9322 0.9633
-0.3066 -9.1276 -1.9305 0.9634
1.3183 -9.0286 -1.9287 0.9634
2.9017 -8.6530 -1.9292 0.9634
3.6637 -8.3646 -1.9303 0.9634
4.3986 -8.0114 -1.9319 0.9633
5.1012 -7.5959 -1.9341 0.9633
5.5132 -6.8083 -1.8518 0.9648
6.9474 -4.9837 -1.8073 0.9656
7.3924 -4.3612 -1.8143 0.9655
8.1383 -3.8683 -1.9047 0.9638
8.7097 -3.2231 -1.9631 0.9627
8.9887 -2.4408 -1.9688 0.9626
9.1987 -1.6347 -1.9749 0.9625
9.3376 -0.8106 -1.9812 0.9624
9.4036 0.0253 -1.9877 0.9623
9.3953 0.8666 -1.9944 0.9622
9.1542 2.5388 -2.0081 0.9619
8.9217 3.3563 -2.0149 0.9618
8.2385 4.9203 -2.0284 0.9615
7.7919 5.6534 -2.0349 0.9614
7.2792 6.3452 -2.0412 0.9613
3.5812 8.2975 -1.9103 0.9637
0.4572 9.0785 -1.9214 0.9635
-1.1638 9.0253 -1.9236 0.9635
-1.9641 8.8864 -1.9237 0.9635
-5.3387 8.2444 -2.0762 0.9606
-7.2924 6.5038 -2.0655 0.9608
-7.8257 5.8146 -2.0608 0.9609
-9.2621 2.6823 -2.0383 0.9613
-9.5483 0.1341 -2.0185 0.9617
-9.3564 -1.5533 -2.0048 0.9620
-6.5313 -6.5849 -1.9605 0.9628
-5.9023 -7.1219 -1.9552 0.9629
-5.2307 -7.6009 -1.9504 0.9630
-3.0141 -8.6610 -1.9385 0.9632
-2.2264 -8.8815 -1.9355 0.9633
-1.4239 -9.0331 -1.9330 0.9633
-0.6122 -9.1150 -1.9311 0.9633
0.2029 -9.1267 -1.9297 0.9634
1.0154 -9.0684 -1.9289 0.9634
2.6100 -8.7441 -1.9289 0.9634
3.3808 -8.4805 -1.9298 0.9634
4.8419 -7.7588 -1.9332 0.9633
5.5216 -7.3057 -1.9357 0.9633
5.7158 -6.3043 -1.7988 0.9658
6.2666 -5.7801 -1.8021 0.9657
6.7710 -5.2091 -1.8058 0.9657
8.5878 -3.5091 -1.9610 0.9628
8.8920 -2.7373 -1.9666 0.9627
9.1282 -1.9394 -1.9726 0.9626
9.2940 -1.1213 -1.9788 0.9625
9.4072 0.5509 -1.9919 0.9622
9.0176 3.0519 -2.0123 0.9618
8.7391 3.8568 -2.0192 0.9617
3.1166 8.4945 -1.9126 0.9637
2.3508 8.7535 -1.9159 0.9636
0.7606 9.0549 -1.9208 0.9635
-0.8609 9.0582 -1.9234 0.9635
-1.6655 8.9472 -1.9237 0.9635
-3.9689 8.1769 -1.9213 0.9635
-5.0521 8.4059 -2.0731 0.9607
-6.4583 7.3675 -2.0710 0.9607
-7.6333 6.0786 -2.0626 0.9609
-9.1776 2.9943 -2.0406 0.9613
-9.5504 0.4543 -2.0211 0.9617
-9.5208 -0.3977 -2.0143 0.9618
-9.2355 -2.0683 -2.0006 0.9620
-8.6626 -3.6510 -1.9871 0.9623
-8.2754 -4.3945 -1.9806 0.9624
-7.3175 -5.7583 -1.9683 0.9626
-6.1434 -6.9271 -1.9571 0.9629
-4.7918 -7.8693 -1.9475 0.9630
-3.3045 -8.5608 -1.9397 0.9632
-2.5239 -8.8068 -1.9365 0.9632
0.7113 -9.0985 -1.9291 0.9634
3.0944 -8.5871 -1.9294 0.9634
3.8501 -8.2823 -1.9306 0.9633
4.5775 -7.9133 -1.9324 0.9633
5.4981 -6.4881 -1.7977 0.9658
6.0652 -5.9824 -1.8008 0.9658
7.4816 -4.1916 -1.8127 0.9655
8.3862 -3.7591 -1.9426 0.9631
9.0477 -2.2413 -1.9703 0.9626
9.2402 -1.4301 -1.9764 0.9625
9.3610 -0.6025 -1.9828 0.9624
9.4085 0.2354 -1.9894 0.9623
8.5282 4.3472 -2.0234 0.9616
7.6698 5.8304 -2.0365 0.9614
7.1412 6.5109 -2.0427 0.9613
6.0740 6.6221 -1.8994 0.9639
4.8100 7.6096 -1.9029 0.9639
3.3946 6.6103 -1.5708 0.9701
3.3968 8.3795 -1.9113 0.9637
0.2546 9.0883 -1.9218 0.9635
-0.5572 9.0805 -1.9231 0.9635
-2.1619 8.8401 -1.9237 0.9635
-2.9405 8.6094 -1.9231 0.9635
-4.6090 8.2846 -2.0040 0.9620
-5.5195 8.1205 -2.0755 0.9607
-6.2121 7.5845 -2.0723 0.9607
-6.8513 6.9878 -2.0686 0.9608
-7.4317 6.3361 -2.0643 0.9609
-7.9488 5.6352 -2.0596 0.9609
-8.3984 4.8917 -2.0544 0.9610
-9.3124 2.4731 -2.0367 0.9614
-9.0864 -2.5747 -1.9963 0.9621
-8.7910 -3.3632 -1.9896 0.9622
-8.4282 -4.1200 -1.9830 0.9624
-5.7382 -7.2472 -1.9540 0.9629
-4.3395 -8.1133 -1.9449 0.9631
-3.5917 -8.4511 -1.9410 0.9632
-1.2216 -9.0601 -1.9325 0.9633
-0.4085 -9.1245 -1.9307 0.9633
0.4064 -9.1187 -1.9294 0.9634
2.0187 -8.8979 -1.9286 0.9634
2.8047 -8.6845 -1.9291 0.9634
5.6716 -7.1660 -1.9318 0.9633
6.8893 -5.0595 -1.8068 0.9657
7.3302 -4.4355 -1.8110 0.9656
8.0177 -3.9214 -1.8866 0.9642
8.9575 -2.5401 -1.9681 0.9626
9.1763 -1.7366 -1.9741 0.9625
8.6581 4.0542 -2.0209 0.9617
7.8514 5.5638 -2.0341 0.9614
6.7332 6.8646 -2.0325 0.9615
5.6856 6.9388 -1.8962 0.9640
4.3846 7.8776 -1.9057 0.9638
2.9276 8.5658 -1.9135 0.9637
0.5585 9.0718 -1.9212 0.9635
-0.2528 9.0923 -1.9227 0.9635
-1.0629 9.0375 -1.9235 0.9635
-2.6511 8.7044 -1.9234 0.9635
-3.4149 8.4291 -1.9224 0.9635
-4.1494 8.0844 -1.9208 0.9635
-7.2212 6.5866 -2.0660 0.9608
-7.7626 5.9034 -2.0614 0.9609
-8.2379 5.1751 -2.0564 0.9610
-8.6436 4.4083 -2.0510 0.9611
-8.9767 3.6098 -2.0452 0.9612
-9.2351 2.7867 -2.0391 0.9613
-9.4172 1.9460 -2.0327 0.9614
-9.1792 -2.2719 -1.9989 0.9621
-8.1687 -4.5743 -1.9790 0.9624
-7.7040 -5.2678 -1.9728 0.9626
-6.6067 -6.5138 -1.9612 0.9628
-5.3169 -7.5442 -1.9509 0.9630
-4.6124 -7.9699 -1.9465 0.9631
-3.8754 -8.3321 -1.9424 0.9631
-3.1113 -8.6286 -1.9389 0.9632
-2.3259 -8.8577 -1.9358 0.9633
-0.7140 -9.1086 -1.9313 0.9633
0.1010 -9.1291 -1.9298 0.9634
1.7197 -8.9604 -1.9286 0.9634
4.0348 -8.1960 -1.9310 0.9633
4.7542 -7.8113 -1.9329 0.9633
5.4387 -7.3656 -1.9354 0.9633
7.1711 -4.6742 -1.8094 0.9656
7.6691 -4.0745 -1.8357 0.9651
9.1025 -2.0404 -1.9718 0.9626
9.3798 -0.3937 -1.9844 0.9623
9.3632 1.2871 -1.9978 0.9621
9.2426 2.1241 -2.0046 0.9620
8.0237 5.2915 -2.0317 0.9615
7.5437 6.0048 -2.0381 0.9613
6.9894 6.6641 -2.0413 0.9613
5.9086 6.7377 -1.8943 0.9640
5.2985 7.2570 -1.8993 0.9639
3.2246 6.6400 -1.5603 0.9703
3.2105 8.4572 -1.9122 0.9637
2.4479 8.7250 -1.9155 0.9636
1.6626 8.9215 -1.9183 0.9636
0.8615 9.0447 -1.9205 0.9635
0.0517 9.0934 -1.9222 0.9635
-0.7597 9.0668 -1.9233 0.9635
-2.3585 8.7892 -1.9236 0.9635
-3.1315 8.5406 -1.9228 0.9635
-3.8778 8.2216 -1.9215 0.9635
-4.9542 8.4555 -2.0715 0.9607
-5.6973 7.9925 -2.0747 0.9607
-6.3771 7.4408 -2.0714 0.9607
-7.0021 6.8298 -2.0676 0.9608
-7.5671 6.1652 -2.0632 0.9609
-8.4998 4.6999 -2.0531 0.9611
-9.1471 3.0978 -2.0414 0.9613
-9.3579 2.2629 -2.0351 0.9614
-9.4920 1.4150 -2.0286 0.9615
-9.5488 0.5611 -2.0219 0.9616
-9.4325 -1.1361 -2.0083 0.9619
-8.7065 -3.5555 -1.9879 0.9623
-8.3273 -4.3035 -1.9814 0.9624
-7.8852 -5.0128 -1.9751 0.9625
-6.8283 -6.2957 -1.9632 0.9627
-6.2225 -6.8604 -1.9578 0.9628
-5.5716 -7.3688 -1.9527 0.9629
-3.4007 -8.5252 -1.9401 0.9632
-0.2048 -9.1296 -1.9303 0.9634
2.2169 -8.8509 -1.9287 0.9634
2.9981 -8.6206 -1.9293 0.9634
3.7571 -8.3239 -1.9304 0.9634
5.1864 -7.5397 -1.9344 0.9633
5.9967 -6.0484 -1.8004 0.9658
6.5248 -5.5003 -1.8039 0.9657
7.0045 -4.9073 -1.8078 0.9656
7.4320 -4.2735 -1.8122 0.9656
8.7482 -3.1269 -1.9638 0.9627
9.0187 -2.3413 -1.9696 0.9626
9.2200 -1.5326 -1.9757 0.9625
9.3499 -0.7067 -1.9820 0.9624
9.4066 0.1302 -1.9886 0.9623
9.3891 0.9717 -1.9953 0.9621
9.2966 1.8111 -2.0021 0.9620
-8.5824 0.3122 -2.0184 0.9653
-8.2827 -1.9523 -2.0000 0.9656
-7.7571 -3.3719 -1.9879 0.9658
-7.4037 -4.0382 -1.9820 0.9659
-6.5321 -5.2595 -1.9710 0.9661
-5.4663 -6.3040 -1.9610 0.9663
-3.5804 -7.4787 -1.9487 0.9665
-2.1883 -7.9708 -1.9426 0.9666
-1.4671 -8.1242 -1.9403 0.9666
-0.7362 -8.2148 -1.9384 0.9667
-0.0008 -8.2418 -1.9370 0.9667
2.1793 -7.9437 -1.9359 0.9667
3.5589 -7.4374 -1.9378 0.9667
4.2115 -7.0966 -1.9395 0.9667
5.5463 -5.3497 -1.8111 0.9688
6.0192 -4.8483 -1.8165 0.9687
7.9496 -2.6428 -1.9689 0.9662
8.1755 -1.9286 -1.9742 0.9661
8.3383 -1.1954 -1.9797 0.9660
8.4362 -0.4484 -1.9855 0.9659
8.4678 0.3065 -1.9914 0.9658
8.4324 1.0635 -1.9975 0.9657
6.8300 5.3133 -2.0337 0.9651
5.7873 6.4527 -2.0371 0.9650
4.8237 6.4543 -1.8937 0.9674
2.9615 7.5467 -1.9053 0.9672
1.5787 7.9761 -1.9109 0.9671
-1.3128 8.0462 -1.9160 0.9671
-4.3623 7.6392 -2.0675 0.9645
-6.7247 5.6048 -2.0574 0.9647
-8.1820 2.8731 -2.0381 0.9650
-8.5768 0.6000 -2.0207 0.9653
-8.5702 -0.1666 -2.0146 0.9654
-8.4952 -0.9272 -2.0084 0.9655
-8.3530 -1.6758 -2.0023 0.9656
-8.1453 -2.4065 -1.9962 0.9657
-7.5430 -3.7922 -1.9842 0.9659
-7.1541 -4.4368 -1.9785 0.9660
-6.2184 -5.6063 -1.9677 0.9662
-5.6794 -6.1230 -1.9628 0.9663
-5.0988 -6.5895 -1.9582 0.9663
-3.1544 -7.6585 -1.9466 0.9665
-1.0111 -8.1882 -1.9390 0.9667
0.4587 -8.2265 -1.9364 0.9667
2.6194 -7.8113 -1.9363 0.9667
3.9702 -7.2310 -1.9388 0.9667
4.6038 -6.8552 -1.9407 0.9666
5.2033 -6.4256 -1.9432 0.9666
6.4138 -4.6010 -1.8551 0.9681
7.1736 -4.2321 -1.9575 0.9664
7.8490 -2.9046 -1.9670 0.9662
8.0981 -2.1990 -1.9722 0.9661
8.2848 -1.4722 -1.9776 0.9660
8.4072 -0.7298 -1.9833 0.9659
8.4536 0.7797 -1.9952 0.9657
8.3759 1.5350 -2.0013 0.9656
8.2310 2.2827 -2.0075 0.9655
8.0192 3.0168 -2.0136 0.9654
7.7416 3.7310 -2.0197 0.9653
7.4000 4.4195 -2.0257 0.9652
6.9966 5.0764 -2.0316 0.9651
6.0075 6.2631 -2.0397 0.9650
5.0325 6.2836 -1.8921 0.9675
4.4625 6.7229 -1.8964 0.9674
3.5829 6.6098 -1.7670 0.9696
2.5387 7.7080 -1.9073 0.9672
1.1322 8.0574 -1.9123 0.9671
0.4096 8.1337 -1.9140 0.9671
-1.7595 7.9606 -1.9161 0.9671
-6.0028 6.4022 -2.0626 0.9646
-6.5381 5.8310 -2.0589 0.9646
-7.0178 5.2144 -2.0548 0.9647
-7.7964 3.8671 -2.0453 0.9649
-8.0894 3.1485 -2.0401 0.9650
-8.3153 2.4082 -2.0346 0.9651
-8.4729 1.6525 -2.0289 0.9652
-8.5808 0.1206 -2.0169 0.9654
-8.4141 -1.3969 -2.0046 0.9656
-7.9833 -2.8516 -1.9924 0.9658
-7.6742 -3.5415 -1.9864 0.9659
-7.3065 -4.1994 -1.9806 0.9660
-6.8835 -4.8204 -1.9750 0.9661
-6.4089 -5.4003 -1.9697 0.9661
-5.8867 -5.9350 -1.9646 0.9662
-4.0786 -7.2326 -1.9515 0.9665
-2.0092 -8.0150 -1.9420 0.9666
-0.5525 -8.2275 -1.9380 0.9667
2.3561 -7.8936 -1.9361 0.9667
4.3699 -7.0026 -1.9399 0.9667
4.9828 -6.5928 -1.9422 0.9666
5.6532 -5.2144 -1.8075 0.9689
6.1674 -4.7448 -1.8288 0.9685
6.8870 -4.3802 -1.9182 0.9670
7.7400 -3.1627 -1.9651 0.9662
8.0119 -2.4664 -1.9702 0.9661
8.2222 -1.7469 -1.9755 0.9661
8.4504 -0.2602 -1.9870 0.9659
8.2932 2.0036 -2.0052 0.9656
8.1064 2.7435 -2.0113 0.9654
7.8533 3.4659 -2.0175 0.9653
7.5355 4.1647 -2.0235 0.9652
7.1550 4.8341 -2.0294 0.9651
6.2168 6.0614 -2.0406 0.9650
4.6812 6.5641 -1.8948 0.9674
3.1471 6.6689 -1.7331 0.9702
2.7936 7.6141 -1.9061 0.9672
2.1068 7.8449 -1.9090 0.9672
0.6815 8.1129 -1.9134 0.9671
-1.4920 8.0151 -1.9161 0.9671
-5.1844 7.1038 -2.0669 0.9645
-5.7887 6.6036 -2.0639 0.9646
-7.6696 4.1297 -2.0472 0.9648
-8.2385 2.6879 -2.0367 0.9650
-8.5364 1.1752 -2.0252 0.9652
-8.5816 0.4082 -2.0192 0.9653
-8.5579 -0.3575 -2.0131 0.9654
-8.3072 -1.8604 -2.0007 0.9656
-7.7972 -3.2863 -1.9886 0.9658
-7.4511 -3.9567 -1.9828 0.9659
-5.5380 -6.2445 -1.9616 0.9663
-4.9477 -6.6979 -1.9571 0.9664
-4.3216 -7.0973 -1.9529 0.9664
-2.9815 -7.7239 -1.9458 0.9666
-2.2775 -7.9472 -1.9430 0.9666
-1.5579 -8.1085 -1.9405 0.9666
-0.0928 -8.2419 -1.9372 0.9667
0.6421 -8.2134 -1.9362 0.9667
1.3716 -8.1217 -1.9358 0.9667
2.0904 -7.9674 -1.9359 0.9667
2.7933 -7.7517 -1.9365 0.9667
4.1315 -7.1423 -1.9392 0.9667
4.7570 -6.7528 -1.9413 0.9666
5.3473 -6.3101 -1.9439 0.9666
5.9504 -4.9035 -1.8121 0.9688
6.5949 -4.5114 -1.8779 0.9677
7.9170 -2.7305 -1.9682 0.9662
8.1507 -2.0191 -1.9735 0.9661
8.4405 0.9689 -1.9967 0.9657
8.3460 1.7229 -2.0029 0.9656
8.1842 2.4677 -2.0090 0.9655
7.6622 3.9058 -2.0212 0.9653
6.8864 5.2349 -2.0330 0.9651
6.4098 5.8441 -2.0386 0.9650
5.8614 6.3903 -2.0380 0.9650
4.8940 6.3982 -1.8932 0.9674
2.3669 7.7657 -1.9080 0.9672
0.9523 8.0827 -1.9128 0.9671
0.2281 8.1423 -1.9144 0.9671
-0.4991 8.1348 -1.9155 0.9671
-1.9366 7.9191 -1.9160 0.9671
-2.6343 7.7128 -1.9155 0.9671
-4.2740 7.6825 -2.0662 0.9645
-5.5676 6.7976 -2.0651 0.9645
-6.6633 5.6810 -2.0579 0.9647
-7.1286 5.0538 -2.0537 0.9647
-8.1522 2.9652 -2.0388 0.9650
-8.5748 -0.0709 -2.0154 0.9654
-8.5083 -0.8326 -2.0092 0.9655
-8.1748 -2.3164 -1.9969 0.9657
-7.9117 -3.0268 -1.9909 0.9658
-7.2058 -4.3582 -1.9792 0.9660
-2.5436 -7.8706 -1.9440 0.9666
-1.8293 -8.0553 -1.9414 0.9666
-0.3688 -8.2362 -1.9376 0.9667
3.2223 -7.5863 -1.9371 0.9667
5.7707 -5.0892 -1.8083 0.9689
6.3283 -4.6475 -1.8453 0.9683
8.0703 -2.2885 -1.9715 0.9661
8.2649 -1.5641 -1.9769 0.9660
8.3893 1.4409 -2.0006 0.9656
8.2528 2.1899 -2.0067 0.9655
8.0493 2.9259 -2.0129 0.9654
7.0504 4.9961 -2.0309 0.9651
5.1128 6.2398 -1.8959 0.9674
4.5361 6.6707 -1.8959 0.9674
1.9319 7.8926 -1.9097 0.9672
1.2219 8.0432 -1.9120 0.9671
0.5004 8.1278 -1.9138 0.9671
-0.2265 8.1455 -1.9151 0.9671
-0.9522 8.0960 -1.9159 0.9671
-1.6705 7.9798 -1.9161 0.9671
-2.3749 7.7977 -1.9158 0.9671
-3.0593 7.5514 -1.9149 0.9671
-3.9620 7.7192 -2.0392 0.9650
-5.9322 6.4702 -2.0630 0.9646
-6.4741 5.9051 -2.0594 0.9646
-6.9610 5.2938 -2.0553 0.9647
-7.3891 4.6419 -2.0508 0.9648
-7.7551 3.9552 -2.0460 0.9649
-8.2908 2.5017 -2.0353 0.9650
-8.5821 0.2164 -2.0176 0.9653
-8.5412 -0.5479 -2.0115 0.9654
-8.4324 -1.3033 -2.0054 0.9655
-8.2573 -2.0437 -1.9992 0.9657
-8.0177 -2.7634 -1.9931 0.9658
-7.7161 -3.4569 -1.9871 0.9659
-7.3556 -4.1190 -1.9813 0.9660
-6.9393 -4.7449 -1.9757 0.9660
-6.4709 -5.3302 -1.9703 0.9661
-4.7944 -6.8029 -1.9560 0.9664
-3.4960 -7.5165 -1.9483 0.9665
-2.8073 -7.7854 -1.9451 0.9666
0.8252 -8.1964 -1.9361 0.9667
2.2678 -7.9192 -1.9360 0.9667
2.9660 -7.6883 -1.9367 0.9667
6.0901 -4.7945 -1.8216 0.9687
7.3637 -3.9123 -1.9597 0.9663
7.7018 -3.2479 -1.9645 0.9662
7.9812 -2.5548 -1.9695 0.9662
8.3541 -1.1027 -1.9804 0.9660
8.4438 -0.3545 -1.9862 0.9659
8.4671 0.4010 -1.9922 0.9658
8.3119 1.9101 -2.0044 0.9656
8.1334 2.6518 -2.0106 0.9655
7.8885 3.3767 -2.0167 0.9654
7.5787 4.0788 -2.0228 0.9653
6.2820 5.9896 -2.0400 0.9650
3.2091 6.6080 -1.7265 0.9703
2.1938 7.8195 -1.9087 0.9672
-2.1128 7.8736 -1.9159 0.9671
-2.8054 7.6512 -1.9153 0.9671
-3.4900 7.3993 -1.9227 0.9669
-4.4501 7.5950 -2.0688 0.9645
-5.1056 7.1624 -2.0672 0.9645
-6.2771 6.1227 -2.0608 0.9646
-6.7851 5.5281 -2.0569 0.9647
-7.2357 4.8908 -2.0526 0.9648
-7.6253 4.2164 -2.0478 0.9648
-7.9511 3.5110 -2.0428 0.9649
-8.2108 2.7807 -2.0374 0.9650
-8.4027 2.0319 -2.0318 0.9651
-8.5798 0.5042 -2.0199 0.9653
-8.4811 -1.0215 -2.0077 0.9655
-8.3306 -1.7682 -2.0015 0.9656
-6.1535 -5.6735 -1.9671 0.9662
-5.6091 -6.1841 -1.9622 0.9663
-5.0236 -6.6441 -1.9576 0.9664
-2.3666 -7.9226 -1.9433 0.9666
-0.1848 -8.2410 -1.9373 0.9667
0.5504 -8.2204 -1.9363 0.9667
1.2808 -8.1366 -1.9358 0.9667
2.7065 -7.7820 -1.9364 0.9667
4.0510 -7.1871 -1.9390 0.9667
5.2756 -6.3683 -1.9435 0.9666
6.5018 -4.5551 -1.8658 0.9679
7.2224 -4.1530 -1.9580 0.9663
7.5817 -3.5007 -1.9626 0.9663
8.1248 -2.1093 -1.9728 0.9661
8.3036 -1.3803 -1.9783 0.9660
-7.7846 0.2832 -2.0169 0.9683
-7.7575 -0.4109 -2.0114 0.9684
-7.3109 -2.4289 -1.9947 0.9687
-7.0459 -3.0627 -1.9892 0.9688
-6.7268 -3.6690 -1.9839 0.9688
-5.9379 -4.7810 -1.9738 0.9690
-4.9713 -5.7332 -1.9648 0.9691
-3.8585 -6.4990 -1.9569 0.9693
-1.9918 -7.2551 -1.9480 0.9694
-1.3355 -7.3957 -1.9458 0.9694
-0.6702 -7.4787 -1.9441 0.9695
0.6681 -7.4709 -1.9421 0.9695
2.6220 -7.0293 -1.9425 0.9695
3.2401 -6.7712 -1.9436 0.9695
3.8340 -6.4604 -1.9451 0.9694
4.3992 -6.0990 -1.9471 0.9694
5.4271 -5.2347 -1.9523 0.9693
6.6554 -3.6317 -1.9631 0.9692
7.2271 -2.4026 -1.9719 0.9690
7.4307 -1.7529 -1.9767 0.9689
7.5767 -1.0862 -1.9818 0.9689
7.6636 -0.4074 -1.9870 0.9688
7.6902 0.2783 -1.9924 0.9687
7.6559 0.9656 -1.9979 0.9686
7.5603 1.6489 -2.0035 0.9685
7.4038 2.3229 -2.0091 0.9684
7.1870 2.9821 -2.0147 0.9684
6.5785 4.2339 -2.0256 0.9682
6.1907 4.8160 -2.0308 0.9681
4.5022 6.0243 -1.9473 0.9694
1.4286 7.2181 -1.9052 0.9701
0.7801 7.3239 -1.9070 0.9700
0.1241 7.3697 -1.9084 0.9700
-0.5338 7.3549 -1.9093 0.9700
-1.1877 7.2797 -1.9098 0.9700
-1.8320 7.1446 -1.9097 0.9700
-2.4610 6.9508 -1.9092 0.9700
-6.0887 5.0747 -2.0522 0.9678
-6.5046 4.5031 -2.0484 0.9678
-7.1701 3.2621 -2.0396 0.9680
-7.5984 1.9273 -2.0297 0.9681
-7.7749 -0.1511 -2.0135 0.9684
-7.5822 -1.5212 -2.0023 0.9686
-7.3958 -2.1851 -1.9967 0.9686
-6.1002 -4.5838 -1.9757 0.9690
-5.6535 -5.0971 -1.9709 0.9690
-5.1647 -5.5681 -1.9664 0.9691
-4.6377 -5.9936 -1.9622 0.9692
-2.8706 -6.9697 -1.9516 0.9693
-1.5830 -7.3497 -1.9466 0.9694
-0.9205 -7.4543 -1.9447 0.9694
-0.2520 -7.5012 -1.9433 0.9695
0.4177 -7.4901 -1.9423 0.9695
1.0836 -7.4211 -1.9418 0.9695
1.7409 -7.2948 -1.9418 0.9695
2.3849 -7.1121 -1.9422 0.9695
3.0109 -6.8743 -1.9431 0.9695
4.1908 -6.2403 -1.9463 0.9694
4.7360 -5.8485 -1.9485 0.9694
5.2458 -5.4104 -1.9512 0.9693
5.7163 -4.9288 -1.9543 0.9693
6.5251 -3.8495 -1.9615 0.9692
6.8568 -3.2592 -1.9657 0.9691
7.3610 -1.9988 -1.9749 0.9690
7.6380 -0.6630 -1.9851 0.9688
7.4696 2.0716 -2.0070 0.9685
7.0215 3.3840 -2.0181 0.9683
6.7099 4.0074 -2.0236 0.9682
5.9217 5.1618 -2.0340 0.9681
5.4509 5.6828 -2.0388 0.9680
4.0414 6.0884 -1.8921 0.9703
2.9063 6.7339 -1.8990 0.9701
2.2978 6.9768 -1.9019 0.9701
1.6688 7.1632 -1.9043 0.9701
1.0245 7.2912 -1.9064 0.9700
-0.2872 7.3676 -1.9090 0.9700
-1.5919 7.2022 -1.9098 0.9700
-2.2273 7.0303 -1.9094 0.9700
-3.7175 7.0481 -2.0632 0.9676
-4.3292 6.6855 -2.0622 0.9676
-5.4338 5.7953 -2.0569 0.9677
-6.7370 4.1280 -2.0457 0.9679
-7.0629 3.5033 -2.0413 0.9679
-7.3301 2.8530 -2.0366 0.9680
-7.7640 0.8051 -2.0210 0.9683
-7.7410 -0.5835 -2.0100 0.9684
-7.4725 -1.9383 -1.9988 0.9686
-7.2499 -2.5897 -1.9933 0.9687
-6.6389 -3.8156 -1.9826 0.9689
-5.3527 -5.3966 -1.9680 0.9691
-3.7109 -6.5805 -1.9561 0.9693
-3.1041 -6.8736 -1.9528 0.9693
-2.4752 -7.1125 -1.9499 0.9694
-1.1699 -7.4218 -1.9454 0.9694
-0.5030 -7.4904 -1.9438 0.9695
0.1667 -7.5010 -1.9426 0.9695
3.3910 -6.6984 -1.9439 0.9695
3.9781 -6.3747 -1.9455 0.9694
5.0590 -5.5799 -1.9501 0.9694
6.7384 -3.4841 -1.9641 0.9691
7.0378 -2.8758 -1.9685 0.9691
7.2833 -2.2421 -1.9731 0.9690
7.4726 -1.5877 -1.9780 0.9689
7.6040 -0.9174 -1.9831 0.9688
7.6759 -0.2364 -1.9884 0.9688
7.6874 0.4502 -1.9938 0.9687
5.6331 5.4923 -2.0370 0.9680
2.5287 6.8922 -1.9008 0.9701
1.9067 7.1000 -1.9035 0.9701
-0.0404 7.3717 -1.9087 0.9700
-0.6978 7.3418 -1.9095 0.9700
-1.9909 7.1016 -1.9096 0.9700
-2.6152 6.8934 -1.9090 0.9700
-3.4737 7.1566 -2.0597 0.9677
-6.1976 4.9353 -2.0513 0.9678
-7.4664 2.4360 -2.0335 0.9681
-7.6346 1.7562 -2.0284 0.9681
-7.7404 1.0656 -2.0230 0.9682
-7.6830 -1.0125 -2.0065 0.9685
-7.0821 -2.9849 -1.9899 0.9687
-6.7695 -3.5948 -1.9846 0.9688
-6.4054 -4.1732 -1.9794 0.9689
-4.5005 -6.0925 -1.9612 0.9692
-3.9318 -6.4570 -1.9574 0.9692
-3.3345 -6.7700 -1.9540 0.9693
-2.7134 -7.0294 -1.9509 0.9693
-2.0730 -7.2336 -1.9483 0.9694
-0.7537 -7.4715 -1.9443 0.9694
1.9033 -7.2543 -1.9418 0.9695
2.5433 -7.0577 -1.9424 0.9695
3.1641 -6.8064 -1.9434 0.9695
3.7612 -6.5021 -1.9449 0.9694
4.3302 -6.1469 -1.9468 0.9694
6.2436 -4.2711 -1.9587 0.9692
6.9317 -3.1071 -1.9668 0.9691
7.6560 -0.4927 -1.9864 0.9688
7.6902 0.1924 -1.9918 0.9687
7.6635 0.8797 -1.9973 0.9686
7.5756 1.5639 -2.0028 0.9685
6.2421 4.7451 -2.0301 0.9681
5.3258 5.8064 -2.0400 0.9680
4.6360 6.0609 -1.9757 0.9690
3.9065 6.1801 -1.8930 0.9702
2.7564 6.7998 -1.8997 0.9701
2.1423 7.0288 -1.9025 0.9701
1.5089 7.2007 -1.9049 0.9701
0.2063 7.3673 -1.9083 0.9700
-0.4516 7.3601 -1.9092 0.9700
-1.1063 7.2924 -1.9097 0.9700
-1.7522 7.1648 -1.9097 0.9700
-2.3834 6.9782 -1.9093 0.9700
-3.8750 6.9652 -2.0637 0.9676
-5.5596 5.6704 -2.0561 0.9677
-6.0329 5.1435 -2.0527 0.9678
-6.4555 4.5766 -2.0489 0.9678
-7.3875 2.6871 -2.0353 0.9680
-7.7081 1.3255 -2.0251 0.9682
-7.7748 0.6312 -2.0197 0.9683
-7.7788 -0.0643 -2.0141 0.9684
-7.4223 -2.1031 -1.9974 0.9686
-6.8930 -3.3695 -1.9865 0.9688
-5.7118 -5.0351 -1.9715 0.9690
-5.2280 -5.5116 -1.9669 0.9691
-4.7056 -5.9430 -1.9627 0.9692
-4.1486 -6.3262 -1.9588 0.9692
-2.9488 -6.9385 -1.9520 0.9693
-1.6652 -7.3325 -1.9469 0.9694
-0.3357 -7.4985 -1.9434 0.9695
0.3340 -7.4946 -1.9424 0.9695
1.6593 -7.3137 -1.9418 0.9695
2.3053 -7.1379 -1.9421 0.9695
2.9338 -6.9070 -1.9430 0.9695
3.5403 -6.6223 -1.9443 0.9694
4.1204 -6.2859 -1.9460 0.9694
5.6597 -4.9913 -1.9539 0.9693
6.0929 -4.4746 -1.9573 0.9692
6.4801 -3.9211 -1.9611 0.9692
6.8181 -3.3347 -1.9652 0.9691
7.1043 -2.7196 -1.9696 0.9691
7.3359 -2.0803 -1.9743 0.9690
7.6276 -0.7480 -1.9844 0.9688
7.6807 0.6220 -1.9952 0.9687
7.3029 2.6546 -2.0119 0.9684
7.0565 3.3043 -2.0174 0.9683
6.3913 4.5291 -2.0282 0.9682
5.5124 5.6200 -2.0382 0.9680
4.9847 6.0835 -2.0364 0.9680
3.5599 6.3960 -1.8953 0.9702
2.3752 6.9495 -1.9015 0.9701
1.1057 7.2784 -1.9061 0.9700
0.4527 7.3543 -1.9078 0.9700
-0.8615 7.3249 -1.9096 0.9700
-1.5113 7.2196 -1.9098 0.9700
-2.1487 7.0550 -1.9095 0.9700
-3.6366 7.0852 -2.0620 0.9676
-4.2548 6.7343 -2.0625 0.9676
-5.3697 5.8567 -2.0573 0.9677
-6.6922 4.2041 -2.0463 0.9679
-7.0253 3.5830 -2.0419 0.9679
-7.2999 2.9355 -2.0372 0.9680
-7.5142 2.2674 -2.0322 0.9681
-7.6669 1.5843 -2.0270 0.9682
-7.7571 0.8921 -2.0217 0.9683
-7.7846 0.1963 -2.0162 0.9683
-7.6532 -1.1829 -2.0051 0.9685
-7.4963 -1.8554 -1.9995 0.9686
-5.8824 -4.8455 -1.9732 0.9690
-5.4142 -5.3381 -1.9686 0.9691
-4.3613 -6.1883 -1.9602 0.9692
-3.1813 -6.8399 -1.9532 0.9693
-2.5550 -7.0856 -1.9502 0.9694
-1.2528 -7.4092 -1.9456 0.9694
0.0830 -7.5029 -1.9428 0.9695
0.7513 -7.4628 -1.9420 0.9695
2.0648 -7.2104 -1.9419 0.9695
3.9062 -6.4180 -1.9453 0.9694
5.4862 -5.1749 -1.9527 0.9693
6.3404 -4.1327 -1.9596 0.9692
6.6973 -3.5582 -1.9636 0.9692
7.0032 -2.9533 -1.9679 0.9691
7.2556 -2.3226 -1.9725 0.9690
7.6702 -0.3220 -1.9877 0.9688
7.5441 1.7337 -2.0042 0.9685
7.1558 3.0630 -2.0154 0.9683
6.8729 3.6989 -2.0209 0.9683
5.6924 5.4275 -2.0364 0.9680
3.7694 6.2688 -1.8939 0.9702
3.1824 6.5529 -1.8862 0.9703
2.6050 6.8622 -1.9005 0.9701
1.9856 7.0772 -1.9032 0.9701
0.0419 7.3712 -1.9086 0.9700
-0.6158 7.3489 -1.9094 0.9700
-1.2688 7.2661 -1.9098 0.9700
-1.9115 7.1236 -1.9097 0.9700
-2.5382 6.9226 -1.9091 0.9700
-5.1735 6.0364 -2.0584 0.9677
-5.6825 5.5427 -2.0553 0.9677
-6.1435 5.0053 -2.0518 0.9678
-6.5528 4.4292 -2.0478 0.9678
-7.7817 0.4573 -2.0183 0.9683
-7.7701 -0.2377 -2.0128 0.9684
-7.6965 -0.9270 -2.0072 0.9685
-7.5621 -1.6051 -2.0016 0.9686
-6.4536 -4.1027 -1.9800 0.9689
-5.5947 -5.1583 -1.9703 0.9690
-3.4106 -6.7337 -1.9544 0.9693
-2.7922 -6.9999 -1.9513 0.9693
-2.1540 -7.2111 -1.9486 0.9694
-0.1683 -7.5030 -1.9431 0.9695
3.6880 -6.5430 -1.9447 0.9694
4.2607 -6.1940 -1.9465 0.9694
5.7721 -4.8658 -1.9547 0.9693
6.5693 -3.7774 -1.9621 0.9692
7.5457 -1.2543 -1.9805 0.9689
7.6475 -0.5780 -1.9857 0.9688
7.6893 0.1065 -1.9911 0.9687
7.5899 1.4787 -2.0021 0.9686
-7.1154 0.2589 -2.0157 0.9708
-7.0923 -0.3756 -2.0106 0.9709
-7.0127 -1.0040 -2.0055 0.9710
-6.4478 -2.8028 -1.9903 0.9712
-5.0145 -4.8349 -1.9720 0.9715
-4.5541 -5.2520 -1.9679 0.9715
-4.0599 -5.6264 -1.9642 0.9716
-2.9860 -6.2372 -1.9576 0.9717
0.6126 -6.8506 -1.9471 0.9718
1.8195 -6.6322 -1.9469 0.9718
3.5152 -5.9232 -1.9499 0.9718
5.3904 -4.3418 -1.9594 0.9716
5.7657 -3.8504 -1.9627 0.9716
6.0973 -3.3271 -1.9664 0.9715
6.3824 -2.7757 -1.9703 0.9715
6.6185 -2.2003 -1.9745 0.9714
6.8036 -1.6050 -1.9789 0.9714
6.9358 -0.9943 -1.9835 0.9713
7.0137 -0.3728 -1.9883 0.9712
6.9144 1.5080 -2.0034 0.9710
6.7696 2.1239 -2.0085 0.9709
6.3164 3.3091 -2.0186 0.9708
5.6552 4.3994 -2.0283 0.9707
4.8050 5.3574 -2.0373 0.9705
2.4463 6.2337 -1.8957 0.9725
1.3033 6.5850 -1.9003 0.9725
0.7116 6.6809 -1.9020 0.9725
0.1132 6.7223 -1.9033 0.9724
-1.0833 6.6398 -1.9045 0.9724
-1.6710 6.5166 -1.9045 0.9724
-4.1498 5.9611 -2.0562 0.9703
-5.1297 5.1164 -2.0510 0.9703
-5.5569 4.6315 -2.0479 0.9704
-5.9375 4.1105 -2.0443 0.9704
-6.2685 3.5580 -2.0405 0.9705
-6.9414 1.7607 -2.0273 0.9707
-7.1094 0.4974 -2.0175 0.9708
-7.0491 -0.7694 -2.0074 0.9710
-6.5442 -2.5877 -1.9922 0.9712
-5.5856 -4.1971 -1.9779 0.9714
-5.1777 -4.6681 -1.9735 0.9714
-4.7309 -5.1004 -1.9694 0.9715
-4.2489 -5.4912 -1.9655 0.9715
-3.1950 -6.1373 -1.9588 0.9716
-2.0485 -6.5890 -1.9534 0.9717
-1.4512 -6.7380 -1.9512 0.9718
-0.2310 -6.8780 -1.9482 0.9718
0.3830 -6.8680 -1.9473 0.9718
2.1869 -6.5214 -1.9472 0.9718
3.8421 -5.7211 -1.9509 0.9718
5.2389 -4.5172 -1.9583 0.9717
5.6299 -4.0386 -1.9615 0.9716
6.2811 -2.9856 -1.9688 0.9715
6.7403 -1.8303 -1.9772 0.9714
6.8925 -1.2248 -1.9818 0.9713
6.9909 -0.6068 -1.9865 0.9712
7.0345 0.0189 -1.9914 0.9712
6.9543 1.2745 -2.0015 0.9710
6.6511 2.5021 -2.0117 0.9709
6.4176 3.0929 -2.0168 0.9708
6.1313 3.6618 -2.0217 0.9707
4.9777 5.1895 -2.0357 0.9705
2.6522 6.1450 -1.8947 0.9726
1.5225 6.5351 -1.8996 0.9725
0.9346 6.6513 -1.9014 0.9725
0.3381 6.7132 -1.9029 0.9724
-0.2620 6.7201 -1.9039 0.9724
-3.3928 6.4324 -2.0587 0.9702
-4.4727 5.7164 -2.0548 0.9703
-4.9582 5.2881 -2.0521 0.9703
-5.8004 4.3098 -2.0457 0.9704
-6.8846 1.9938 -2.0291 0.9706
-7.0953 0.7358 -2.0194 0.9708
-7.1150 0.1000 -2.0144 0.9709
-7.0777 -0.5335 -2.0093 0.9709
-6.9841 -1.1595 -2.0042 0.9710
-5.7279 -4.0112 -1.9796 0.9713
-4.9028 -4.9430 -1.9709 0.9715
-4.4336 -5.3497 -1.9670 0.9715
-3.9316 -5.7130 -1.9633 0.9716
-3.4007 -6.0305 -1.9599 0.9716
-2.8451 -6.3000 -1.9569 0.9717
-2.2689 -6.5197 -1.9543 0.9717
-1.6766 -6.6883 -1.9520 0.9717
-1.0726 -6.8046 -1.9501 0.9718
-0.4612 -6.8679 -1.9486 0.9718
0.1529 -6.8780 -1.9476 0.9718
0.7653 -6.8348 -1.9470 0.9718
1.9671 -6.5903 -1.9470 0.9718
3.1092 -6.1417 -1.9488 0.9718
3.6472 -5.8445 -1.9503 0.9718
4.1579 -5.5014 -1.9522 0.9717
4.6373 -5.1148 -1.9545 0.9717
5.0819 -4.6874 -1.9572 0.9717
5.4881 -4.2222 -1.9602 0.9716
5.8528 -3.7225 -1.9636 0.9716
6.1730 -3.1918 -1.9673 0.9715
6.4461 -2.6340 -1.9713 0.9715
6.8416 -1.4536 -1.9800 0.9713
6.9604 -0.8398 -1.9847 0.9713
7.0246 -0.2163 -1.9896 0.9712
6.9864 1.0400 -1.9996 0.9711
6.7248 2.2759 -2.0098 0.9709
5.9265 4.0041 -2.0248 0.9707
5.5588 4.5271 -2.0295 0.9706
4.1752 5.8546 -2.0357 0.9705
3.3925 5.7873 -1.8991 0.9725
2.3074 6.2889 -1.8964 0.9725
1.7396 6.4778 -1.8988 0.9725
0.5625 6.6964 -1.9024 0.9725
-1.2312 6.6141 -1.9046 0.9724
-2.5722 6.7800 -2.0529 0.9703
-3.7443 6.2300 -2.0577 0.9702
-4.7808 5.4538 -2.0532 0.9703
-5.2407 4.9988 -2.0503 0.9703
-5.6565 4.5045 -2.0470 0.9704
-6.9749 1.6044 -2.0261 0.9707
-7.0732 0.9738 -2.0213 0.9708
-6.4808 -2.7314 -1.9909 0.9712
-6.1962 -3.2903 -1.9861 0.9713
-5.4875 -4.3183 -1.9768 0.9714
-4.1234 -5.5820 -1.9646 0.9716
-3.6029 -5.9169 -1.9611 0.9716
-2.4871 -6.4432 -1.9552 0.9717
-1.3002 -6.7671 -1.9508 0.9718
-0.0775 -6.8805 -1.9479 0.9718
1.1452 -6.7809 -1.9468 0.9718
1.7453 -6.6520 -1.9469 0.9718
3.4485 -5.9615 -1.9497 0.9718
4.9195 -4.8523 -1.9561 0.9717
5.3405 -4.4009 -1.9590 0.9716
6.0583 -3.3942 -1.9659 0.9715
6.3494 -2.8461 -1.9698 0.9715
7.0106 0.8048 -1.9977 0.9711
6.9285 1.4303 -2.0028 0.9710
6.3509 3.2374 -2.0180 0.9708
5.7023 4.3347 -2.0277 0.9707
4.8632 5.3020 -2.0367 0.9705
4.3725 5.7164 -2.0374 0.9705
3.6851 5.8299 -1.9525 0.9717
3.0538 5.9468 -1.8925 0.9726
2.5153 6.2049 -1.8954 0.9725
0.7861 6.6719 -1.9018 0.9725
-1.0091 6.6514 -1.9045 0.9724
-1.5981 6.5349 -1.9045 0.9724
-2.2756 6.6627 -1.9931 0.9712
-2.9531 6.6413 -2.0576 0.9702
-4.0835 6.0079 -2.0565 0.9703
-5.5060 4.6942 -2.0483 0.9704
-6.2299 3.6286 -2.0410 0.9705
-6.9233 1.8386 -2.0279 0.9707
-7.0430 1.2111 -2.0231 0.9707
-6.9520 -1.3142 -2.0029 0.9710
-6.7899 -1.9239 -1.9978 0.9711
-5.9940 -3.6253 -1.9831 0.9713
-5.2309 -4.6112 -1.9741 0.9714
-4.7888 -5.0486 -1.9699 0.9715
-4.3110 -5.4447 -1.9660 0.9715
-3.8014 -5.7967 -1.9624 0.9716
-1.5266 -6.7223 -1.9515 0.9717
-0.3078 -6.8754 -1.9483 0.9718
0.3063 -6.8722 -1.9474 0.9718
0.9176 -6.8157 -1.9469 0.9718
2.1138 -6.5452 -1.9471 0.9718
2.6901 -6.3332 -1.9479 0.9718
3.7776 -5.7630 -1.9507 0.9718
5.5833 -4.1004 -1.9610 0.9716
6.2458 -3.0547 -1.9683 0.9715
6.5067 -2.4908 -1.9724 0.9715
6.7175 -1.9049 -1.9767 0.9714
6.8764 -1.3013 -1.9812 0.9713
6.9816 -0.6846 -1.9859 0.9713
7.0270 0.5691 -1.9958 0.9711
6.8489 1.8174 -2.0060 0.9710
6.6765 2.4270 -2.0111 0.9709
6.1700 3.5921 -2.0211 0.9708
5.8391 4.1378 -2.0260 0.9707
3.9989 5.8807 -2.0132 0.9709
3.2492 5.8376 -1.8913 0.9726
2.7201 6.1139 -1.8944 0.9726
1.5951 6.5168 -1.8993 0.9725
1.0087 6.6397 -1.9012 0.9725
0.4130 6.7085 -1.9027 0.9724
-0.1869 6.7223 -1.9038 0.9724
-2.7253 6.7269 -2.0547 0.9703
-5.3489 4.8788 -2.0495 0.9704
-5.7532 4.3753 -2.0462 0.9704
-6.1093 3.8379 -2.0425 0.9705
-6.4145 3.2715 -2.0384 0.9705
-6.8638 2.0711 -2.0296 0.9706
-7.0048 1.4475 -2.0249 0.9707
-7.0888 0.8152 -2.0200 0.9708
-7.0854 -0.4545 -2.0100 0.9709
-6.9988 -1.0817 -2.0048 0.9710
-6.6615 -2.2959 -1.9947 0.9711
-6.4142 -2.8736 -1.9897 0.9712
-6.1175 -3.4257 -1.9849 0.9713
-5.7740 -3.9482 -1.9802 0.9713
-4.4942 -5.3011 -1.9674 0.9715
-3.9960 -5.6700 -1.9637 0.9716
-3.4685 -5.9933 -1.9603 0.9716
-2.9158 -6.2690 -1.9573 0.9717
-1.7515 -6.6700 -1.9523 0.9717
0.0761 -6.8797 -1.9477 0.9718
1.8933 -6.6117 -1.9470 0.9718
2.4761 -6.4186 -1.9476 0.9718
3.5814 -5.8842 -1.9501 0.9718
4.0957 -5.5468 -1.9519 0.9717
5.4395 -4.2823 -1.9598 0.9716
5.8096 -3.7867 -1.9632 0.9716
6.1355 -3.2597 -1.9668 0.9715
6.4146 -2.7051 -1.9708 0.9715
7.0196 -0.2947 -1.9890 0.9712
6.9953 0.9616 -1.9990 0.9711
6.8993 1.5855 -2.0041 0.9710
6.5411 2.7999 -2.0143 0.9709
5.9690 3.9365 -2.0242 0.9707
5.6074 4.4635 -2.0289 0.9706
4.7461 5.4121 -2.0378 0.9705
4.2415 5.8092 -2.0362 0.9705
3.4862 5.7977 -1.9152 0.9723
2.3770 6.2617 -1.8961 0.9725
1.8116 6.4570 -1.8985 0.9725
0.6371 6.6891 -1.9022 0.9725
-0.5617 6.7030 -1.9042 0.9724
-1.1573 6.6274 -1.9045 0.9724
-1.7435 6.4974 -1.9044 0.9724
-2.4763 6.7537 -2.0364 0.9705
-4.2155 5.9137 -2.0559 0.9703
-4.7204 5.5078 -2.0535 0.9703
-5.1855 5.0580 -2.0507 0.9703
-5.6070 4.5683 -2.0475 0.9704
-5.9816 4.0431 -2.0439 0.9704
-6.3062 3.4870 -2.0400 0.9705
-7.0640 1.0530 -2.0219 0.9707
-7.1123 0.4179 -2.0169 0.9708
-7.1034 -0.2173 -2.0119 0.9709
-7.0378 -0.8477 -2.0068 0.9710
-6.9166 -1.4681 -2.0017 0.9710
-6.2344 -3.2219 -1.9867 0.9712
-5.9081 -3.7559 -1.9819 0.9713
-5.1239 -4.7243 -1.9730 0.9714
-4.6726 -5.1516 -1.9689 0.9715
-4.1865 -5.5369 -1.9651 0.9716
-3.6695 -5.8776 -1.9616 0.9716
-1.3759 -6.7530 -1.9510 0.9718
-0.7676 -6.8429 -1.9493 0.9718
1.0694 -6.7933 -1.9468 0.9718
2.2596 -6.4969 -1.9473 0.9718
2.8311 -6.2724 -1.9482 0.9718
3.9062 -5.6786 -1.9512 0.9718
4.4017 -5.3134 -1.9533 0.9717
6.5642 -2.3463 -1.9734 0.9714
6.9994 -0.5290 -1.9871 0.9712
7.0169 0.7262 -1.9971 0.9711
6.9419 1.3524 -2.0021 0.9710
-6.5256 -0.3456 -2.0099 0.9730
-6.4536 -0.9239 -2.0052 0.9731
-6.3307 -1.4922 -2.0005 0.9731
-5.6708 -3.0930 -1.9868 0.9733
-5.3607 -3.5785 -1.9825 0.9734
-3.7424 -5.1864 -1.9672 0.9736
-1.6839 -6.1337 -1.9564 0.9737
-1.1293 -6.2536 -1.9546 0.9738
-0.5668 -6.3246 -1.9531 0.9738
-0.0006 -6.3465 -1.9521 0.9738
1.1261 -6.2427 -1.9511 0.9738
1.6783 -6.1177 -1.9512 0.9738
2.7402 -5.7266 -1.9526 0.9738
3.2421 -5.4631 -1.9539 0.9738
4.1688 -4.8095 -1.9577 0.9737
4.5866 -4.4240 -1.9601 0.9737
5.8818 -2.5580 -1.9728 0.9735
6.0984 -2.0274 -1.9767 0.9735
6.4469 0.8131 -1.9986 0.9732
6.2292 1.9544 -2.0080 0.9730
6.0441 2.5078 -2.0127 0.9730
5.8098 3.0437 -2.0173 0.9729
5.5276 3.5576 -2.0219 0.9729
4.8282 4.5018 -2.0304 0.9728
4.4163 4.9241 -2.0344 0.9727
3.4746 5.6352 -2.0363 0.9727
2.8497 5.7051 -1.9615 0.9737
1.1970 6.0477 -1.8962 0.9745
0.6535 6.1354 -1.8978 0.9745
-1.6291 6.3532 -2.0173 0.9729
-2.2280 6.2927 -2.0532 0.9725
-2.7825 6.0740 -2.0549 0.9724
-3.8113 5.4749 -2.0518 0.9725
-4.2797 5.1078 -2.0496 0.9725
-5.4557 3.7769 -2.0409 0.9726
-6.2258 2.1861 -2.0295 0.9728
-6.4873 1.0411 -2.0209 0.9729
-6.5395 0.4575 -2.0163 0.9729
-6.5392 -0.1271 -2.0117 0.9730
-6.4866 -0.7080 -2.0070 0.9731
-6.3827 -1.2805 -2.0023 0.9731
-6.2285 -1.8402 -1.9976 0.9732
-6.0256 -2.3827 -1.9930 0.9732
-5.7760 -2.9039 -1.9885 0.9733
-5.1460 -3.8668 -1.9798 0.9734
-4.7710 -4.3014 -1.9758 0.9735
