ply
format ascii 1.0
element vertex 1595
property float32 x
property float32 y
property float32 z
property float32 I
end_header
6.9446 3.4333 -2.0058 0.9685
6.6024 4.0334 -2.0032 0.9685
4.9404 5.2538 -1.8673 0.9706
4.4602 5.6830 -1.8705 0.9706
3.4471 5.3054 -1.6382 0.9742
2.8109 6.6913 -1.8792 0.9705
1.5822 7.1018 -1.8839 0.9704
0.9440 7.2220 -1.8858 0.9704
0.2968 7.2839 -1.8875 0.9703
-1.0024 7.2302 -1.8899 0.9703
-1.6480 7.1345 -1.8959 0.9702
-3.1183 7.2639 -2.0467 0.9679
-3.7528 6.9562 -2.0465 0.9679
-4.9243 6.1746 -2.0449 0.9679
-5.4515 5.7074 -2.0435 0.9679
-5.9337 5.1947 -2.0419 0.9679
-6.3669 4.6407 -2.0399 0.9680
-7.0729 3.4285 -2.0351 0.9680
-7.3402 2.7806 -2.0323 0.9681
-7.5476 2.1122 -2.0293 0.9681
-7.6935 1.4288 -2.0260 0.9682
-7.7979 0.0401 -2.0191 0.9683
-6.9853 -3.2978 -2.0000 0.9686
-6.6509 -3.8997 -1.9962 0.9686
-6.2650 -4.4686 -1.9925 0.9687
-5.3527 -5.4899 -1.9853 0.9688
-4.8339 -5.9350 -1.9819 0.9689
-3.0775 -6.9704 -1.9728 0.9690
-2.4408 -7.2076 -1.9703 0.9690
-1.7867 -7.3878 -1.9680 0.9691
-0.4458 -7.5731 -1.9642 0.9691
0.2308 -7.5772 -1.9628 0.9692
0.9019 -7.4994 -1.9557 0.9693
2.6537 -6.5036 -1.8187 0.9714
3.3313 -6.4513 -1.8799 0.9704
4.0607 -6.3928 -1.9609 0.9692
4.6163 -6.0080 -1.9617 0.9692
5.1364 -5.5759 -1.9629 0.9692
5.6171 -5.0998 -1.9644 0.9691
6.0547 -4.5829 -1.9661 0.9691
6.7873 -3.4428 -1.9705 0.9690
7.0764 -2.8279 -1.9731 0.9690
7.4819 1.8668 -1.9966 0.9686
7.2997 2.5311 -2.0004 0.9686
5.9887 4.1103 -1.8807 0.9704
5.5446 4.5830 -1.8625 0.9707
4.6595 5.5143 -1.8692 0.9706
3.6182 6.2744 -1.8753 0.9705
2.4538 6.8365 -1.8807 0.9704
0.5596 7.2659 -1.8869 0.9703
-1.3851 7.1686 -1.8904 0.9703
-2.1784 7.5728 -2.0402 0.9680
-2.8538 7.3719 -2.0467 0.9679
-4.1160 6.7461 -2.0461 0.9679
-4.6990 6.3498 -2.0453 0.9679
-5.7441 5.4075 -2.0426 0.9679
-6.6000 4.2934 -2.0386 0.9680
-6.9481 3.6837 -2.0362 0.9680
-7.4709 2.3850 -2.0305 0.9681
-7.6418 1.7070 -2.0274 0.9682
-7.7508 1.0175 -2.0240 0.9682
-7.5623 -1.7424 -2.0093 0.9684
-7.1055 -3.0456 -2.0016 0.9686
-6.4273 -4.2425 -1.9940 0.9687
-6.0124 -4.7895 -1.9903 0.9687
-5.5516 -5.2967 -1.9867 0.9688
-3.9330 -6.5440 -1.9768 0.9689
-3.3292 -6.8585 -1.9739 0.9690
-0.0432 -7.5826 -1.9633 0.9692
1.8199 -6.7855 -1.8190 0.9714
2.4170 -6.5953 -1.8187 0.9714
6.2932 -4.2577 -1.9673 0.9691
7.5662 -1.1327 -1.9809 0.9689
7.6499 -0.4546 -1.9842 0.9688
7.6735 0.2294 -1.9877 0.9688
7.5387 1.5940 -1.9951 0.9687
7.3806 2.2639 -1.9989 0.9686
5.2993 4.8761 -1.8646 0.9707
4.8522 5.3386 -1.8679 0.9706
3.8278 5.0513 -1.6410 0.9742
3.4218 5.4672 -1.6699 0.9737
3.2830 6.4634 -1.8770 0.9705
2.6977 6.7398 -1.8797 0.9704
2.0890 6.9624 -1.8821 0.9704
0.8215 7.2383 -1.8862 0.9703
-0.4774 7.2805 -1.8891 0.9703
-2.5855 7.4700 -2.0467 0.9679
-3.8700 6.8912 -2.0464 0.9679
-4.4673 6.5167 -2.0457 0.9679
-5.5467 5.6134 -2.0433 0.9679
-6.0199 5.0924 -2.0415 0.9679
-6.8138 3.9343 -2.0372 0.9680
-7.3843 2.6550 -2.0318 0.9681
-7.5800 1.9833 -2.0287 0.9681
-7.7859 0.6040 -2.0220 0.9682
-7.7948 -0.0921 -2.0184 0.9683
-7.7414 -0.7850 -2.0147 0.9684
-7.6262 -1.4691 -2.0109 0.9684
-7.2165 -2.7890 -2.0032 0.9685
-6.1862 -4.5725 -1.9918 0.9687
-5.7435 -5.0964 -1.9881 0.9688
-5.2571 -5.5781 -1.9846 0.9688
-4.7310 -6.0142 -1.9812 0.9689
-2.9581 -7.0198 -1.9723 0.9690
-2.3177 -7.2462 -1.9698 0.9691
1.0026 -7.2912 -1.9056 0.9700
1.5737 -6.8475 -1.8192 0.9714
2.7723 -6.4777 -1.8243 0.9713
3.4677 -6.4449 -1.8949 0.9702
4.1689 -6.3234 -1.9610 0.9692
4.7180 -5.9294 -1.9619 0.9692
5.7037 -5.0046 -1.9647 0.9691
6.5146 -3.9202 -1.9686 0.9691
7.5154 -1.4044 -1.9796 0.9689
7.6712 -0.0480 -1.9863 0.9688
7.5855 1.3196 -1.9935 0.9687
7.4518 1.9942 -1.9973 0.9686
7.2584 2.6554 -2.0011 0.9686
6.6830 3.9086 -2.0046 0.9685
5.8522 4.1643 -1.8597 0.9708
5.4680 4.6780 -1.8632 0.9707
3.4583 5.1056 -1.5966 0.9748
2.9379 6.6342 -1.8786 0.9705
1.0821 7.2011 -1.8854 0.9704
-0.2139 7.2911 -1.8886 0.9703
-0.8634 7.2473 -1.8897 0.9703
-1.5066 7.1446 -1.8905 0.9703
-2.3090 7.5428 -2.0424 0.9679
-2.9784 7.3224 -2.0467 0.9679
-3.6188 7.0272 -2.0466 0.9679
-5.3418 5.8118 -2.0439 0.9679
-6.2781 4.7630 -2.0404 0.9680
-6.6704 4.1800 -2.0382 0.9680
-7.7644 0.8856 -2.0234 0.9682
-7.6802 -1.1935 -2.0124 0.9684
-5.4591 -5.3883 -1.9860 0.9688
-4.9486 -5.8433 -1.9826 0.9689
-4.4009 -6.2508 -1.9793 0.9689
-3.8204 -6.6079 -1.9763 0.9690
-3.2116 -6.9121 -1.9734 0.9690
-2.5793 -7.1613 -1.9708 0.9690
0.0854 -7.5813 -1.9631 0.9692
1.9362 -6.7589 -1.8204 0.9714
4.4998 -6.0948 -1.9615 0.9692
5.0278 -5.6726 -1.9626 0.9692
5.5173 -5.2057 -1.9640 0.9691
5.9645 -4.6973 -1.9657 0.9691
6.3658 -4.1512 -1.9677 0.9691
7.2651 -2.3282 -1.9753 0.9690
7.6591 -0.3249 -1.9848 0.9688
7.6225 1.0438 -1.9920 0.9687
7.5132 1.7223 -1.9958 0.9687
5.6292 4.4740 -1.8618 0.9707
3.6945 5.0510 -1.6203 0.9745
0.6987 7.2525 -1.8865 0.9703
-0.6009 7.2722 -1.8893 0.9703
-1.2472 7.1933 -1.8903 0.9703
-2.0019 7.4975 -2.0092 0.9684
-3.9861 6.8243 -2.0463 0.9679
-4.5768 6.4395 -2.0455 0.9679
-5.6403 5.5177 -2.0430 0.9679
-6.1043 4.9887 -2.0412 0.9680
-7.1815 3.1850 -2.0341 0.9681
-7.4262 2.5287 -2.0312 0.9681
-7.6103 1.8539 -2.0281 0.9682
-7.7326 1.1664 -2.0248 0.9682
-7.7924 0.4717 -2.0213 0.9683
-7.7242 -0.9159 -2.0139 0.9684
-7.5975 -1.5976 -2.0101 0.9684
-7.1655 -2.9099 -2.0024 0.9685
-6.8645 -3.5302 -1.9986 0.9686
-6.1056 -4.6751 -1.9911 0.9687
-2.1940 -7.2828 -1.9694 0.9691
-1.5345 -7.4411 -1.9672 0.9691
-0.8643 -7.5409 -1.9652 0.9691
0.4875 -7.5632 -1.9623 0.9692
1.1052 -7.1382 -1.8702 0.9706
6.0532 3.6978 -2.0081 0.9709
5.5152 4.0860 -1.9431 0.9719
4.0756 5.1928 -1.8688 0.9729
3.3916 5.2199 -1.7622 0.9745
2.5674 6.1118 -1.8767 0.9728
2.0150 6.3239 -1.8789 0.9728
1.4449 6.4853 -1.8810 0.9728
0.2710 6.6505 -1.8843 0.9727
-0.9151 6.6007 -1.8865 0.9727
-1.6180 7.0050 -2.0353 0.9706
-2.8466 6.6311 -2.0429 0.9704
-3.9771 6.0180 -2.0421 0.9705
-5.4179 4.7431 -2.0385 0.9705
-5.8139 4.2376 -2.0367 0.9705
-6.7049 2.5399 -2.0297 0.9706
-7.1270 0.0366 -2.0176 0.9708
-7.0901 -0.5977 -2.0143 0.9709
-6.9966 -1.2251 -2.0108 0.9709
-6.0846 -3.5677 -1.9968 0.9711
-5.7325 -4.0887 -1.9933 0.9712
-4.8992 -5.0248 -1.9867 0.9712
-4.4250 -5.4330 -1.9836 0.9713
-2.2355 -6.6011 -1.9730 0.9714
-1.6365 -6.7669 -1.9709 0.9715
-1.0259 -6.8793 -1.9690 0.9715
-0.4084 -6.9377 -1.9674 0.9715
0.2114 -6.9419 -1.9661 0.9715
0.8288 -6.8918 -1.9651 0.9716
3.1830 -6.1641 -1.9639 0.9716
3.7206 -5.8573 -1.9644 0.9716
4.7057 -5.1084 -1.9662 0.9715
5.1458 -4.6719 -1.9676 0.9715
5.5463 -4.1981 -1.9692 0.9715
6.2162 -3.1531 -1.9732 0.9714
6.4802 -2.5897 -1.9756 0.9714
6.6940 -2.0044 -1.9782 0.9714
6.8556 -1.4018 -1.9809 0.9713
7.0152 0.4639 -1.9903 0.9712
6.8447 1.7078 -1.9971 0.9711
6.6769 2.3151 -2.0006 0.9710
6.4554 2.9061 -2.0041 0.9710
5.8388 4.0074 -2.0048 0.9710
5.0682 4.1893 -1.8615 0.9730
4.2578 5.0390 -1.8676 0.9729
3.5028 4.9870 -1.7252 0.9750
3.3054 5.7320 -1.8732 0.9729
2.7852 6.0119 -1.8757 0.9728
1.6776 6.4261 -1.8802 0.9728
-0.0824 6.6582 -1.8850 0.9727
-0.6759 6.6282 -1.8861 0.9727
-1.9934 6.9294 -2.0412 0.9705
-2.6052 6.7297 -2.0429 0.9704
-3.7575 6.1586 -2.0423 0.9705
-4.2899 5.7970 -2.0416 0.9705
-4.7869 5.3888 -2.0405 0.9705
-6.0271 3.9208 -2.0355 0.9706
-6.6122 2.7820 -2.0308 0.9706
-6.8248 2.1787 -2.0281 0.9707
-6.9819 1.5596 -2.0252 0.9707
-7.0824 0.9297 -2.0222 0.9707
-7.1257 0.2943 -2.0190 0.9708
-7.1119 -0.3414 -2.0156 0.9708
-7.0412 -0.9722 -2.0122 0.9709
-6.7332 -2.1992 -2.0052 0.9710
-6.2139 -3.3478 -1.9982 0.9711
-5.8806 -3.8816 -1.9947 0.9711
-5.0809 -4.8477 -1.9880 0.9712
-4.6213 -5.2728 -1.9849 0.9713
-3.0486 -6.2805 -1.9763 0.9714
-2.4737 -6.5191 -1.9739 0.9714
-1.8807 -6.7061 -1.9717 0.9715
2.3757 -6.4826 -1.9545 0.9717
2.9580 -6.2747 -1.9638 0.9716
4.0271 -5.6527 -1.9648 0.9716
4.5170 -5.2739 -1.9658 0.9715
4.9722 -4.8533 -1.9670 0.9715
5.3891 -4.3942 -1.9685 0.9715
5.7645 -3.9000 -1.9703 0.9715
6.0954 -3.3742 -1.9723 0.9715
6.6136 -2.2438 -1.9771 0.9714
6.9265 -1.0369 -1.9827 0.9713
7.0227 0.2100 -1.9890 0.9712
6.9877 0.8364 -1.9923 0.9712
6.7514 2.0709 -1.9992 0.9711
6.5515 2.6690 -2.0027 0.9710
5.9864 3.7980 -2.0070 0.9710
5.3322 4.0924 -1.9028 0.9724
4.8436 4.4568 -1.8633 0.9730
4.4343 4.8787 -1.8664 0.9730
3.7832 4.9924 -1.7733 0.9743
2.9990 5.9042 -1.8747 0.9728
2.4640 6.1559 -1.8771 0.9728
0.7501 6.6093 -1.8830 0.9727
0.1582 6.6550 -1.8845 0.9727
-1.0270 6.5848 -1.8866 0.9727
-2.3602 6.8192 -2.0428 0.9704
-2.9586 6.5818 -2.0429 0.9704
-3.5329 6.2910 -2.0426 0.9705
-4.0783 5.9492 -2.0419 0.9705
-4.5902 5.5595 -2.0410 0.9705
-5.0642 5.1251 -2.0397 0.9705
-5.8839 4.1377 -2.0363 0.9705
-6.2227 3.5931 -2.0342 0.9706
-6.5106 3.0206 -2.0318 0.9706
-6.7453 2.4252 -2.0292 0.9706
-6.9250 1.8119 -2.0264 0.9707
-7.1151 0.5520 -2.0203 0.9708
-7.1244 -0.0842 -2.0170 0.9708
-7.0766 -0.7176 -2.0136 0.9709
-6.9725 -1.3432 -2.0102 0.9709
-6.8131 -1.9558 -2.0066 0.9710
-6.0212 -3.6691 -1.9961 0.9711
-5.2563 -4.6640 -1.9893 0.9712
-4.8119 -5.1056 -1.9861 0.9713
-3.2753 -6.1695 -1.9774 0.9714
-2.7090 -6.4286 -1.9749 0.9714
-1.5212 -6.7924 -1.9705 0.9715
-0.9090 -6.8946 -1.9687 0.9715
-0.2906 -6.9427 -1.9671 0.9715
0.3291 -6.9365 -1.9659 0.9715
0.9455 -6.8762 -1.9649 0.9716
2.1272 -6.5253 -1.9429 0.9719
2.7293 -6.3774 -1.9638 0.9716
3.2872 -6.1094 -1.9640 0.9716
4.3226 -5.4325 -1.9653 0.9716
5.2251 -4.5846 -1.9678 0.9715
5.9669 -3.5907 -1.9715 0.9715
6.2701 -3.0479 -1.9736 0.9714
6.7288 -1.8911 -1.9787 0.9714
6.8803 -1.2857 -1.9815 0.9713
6.9781 -0.6684 -1.9845 0.9713
7.0210 -0.0439 -1.9876 0.9712
7.0085 0.5830 -1.9909 0.9712
6.9404 1.2074 -1.9943 0.9711
6.4073 3.0162 -2.0048 0.9710
6.1238 3.5815 -2.0083 0.9709
5.7369 4.0822 -1.9933 0.9712
3.2086 5.7887 -1.8737 0.9729
2.6835 6.0598 -1.8762 0.9728
0.9881 6.5755 -1.8824 0.9727
-0.7883 6.6164 -1.8863 0.9727
-1.4534 6.8927 -1.9942 0.9711
-2.7189 6.6845 -2.0429 0.9704
-4.3872 5.7229 -2.0414 0.9705
-4.8770 5.3062 -2.0403 0.9705
-5.3268 4.8470 -2.0388 0.9705
-5.7327 4.3492 -2.0371 0.9705
-6.6568 2.6688 -2.0303 0.9706
-7.0053 1.4406 -2.0247 0.9707
-7.0950 0.8092 -2.0216 0.9707
-7.1028 -0.4618 -2.0150 0.9708
-6.8842 -1.7096 -2.0081 0.9709
-6.6927 -2.3123 -2.0045 0.9710
-6.1542 -3.4516 -1.9975 0.9711
-5.4250 -4.4740 -1.9907 0.9712
-4.9964 -4.9316 -1.9874 0.9712
-3.4980 -6.0504 -1.9785 0.9714
-2.9410 -6.3297 -1.9759 0.9714
-2.3623 -6.5587 -1.9735 0.9714
-0.5415 -6.9297 -1.9677 0.9715
0.0782 -6.9456 -1.9664 0.9715
0.6966 -6.9071 -1.9653 0.9716
1.3089 -6.8148 -1.9645 0.9716
3.0641 -6.2238 -1.9639 0.9716
4.6063 -5.1971 -1.9660 0.9715
5.0545 -4.7689 -1.9672 0.9715
5.4637 -4.3029 -1.9688 0.9715
5.8309 -3.8023 -1.9706 0.9715
6.1530 -3.2710 -1.9727 0.9714
6.4276 -2.7128 -1.9750 0.9714
6.8254 -1.5326 -1.9803 0.9713
6.8736 1.5757 -1.9963 0.9711
6.7176 2.1858 -1.9998 0.9711
6.2447 3.3555 -2.0069 0.9710
5.9180 3.8969 -2.0059 0.9710
5.1606 4.1016 -1.8661 0.9730
4.7688 4.5397 -1.8639 0.9730
4.3522 4.9547 -1.8669 0.9730
3.4137 5.6658 -1.8726 0.9729
2.8992 5.9557 -1.8752 0.9728
2.3598 6.1982 -1.8776 0.9728
1.2246 6.5330 -1.8817 0.9727
0.6380 6.6221 -1.8833 0.9727
0.0453 6.6576 -1.8848 0.9727
-0.5486 6.6392 -1.8859 0.9727
-2.4756 6.7783 -2.0429 0.9704
-3.6389 6.2299 -2.0425 0.9705
-4.1783 5.8788 -2.0418 0.9705
-5.5738 4.5552 -2.0378 0.9705
-5.9521 4.0365 -2.0359 0.9705
-6.7837 2.3099 -2.0287 0.9706
-6.9528 1.6938 -2.0259 0.9707
-7.1213 0.4311 -2.0197 0.9708
-6.7767 -2.0704 -2.0060 0.9710
-6.5536 -2.6614 -2.0024 0.9710
-5.5869 -4.2780 -1.9920 0.9712
-5.1748 -4.7510 -1.9887 0.9712
-4.7232 -5.1849 -1.9855 0.9713
-4.2358 -5.5767 -1.9825 0.9713
-2.5990 -6.4721 -1.9744 0.9714
-1.4055 -6.8159 -1.9701 0.9715
-0.7918 -6.9079 -1.9684 0.9715
-0.1728 -6.9457 -1.9669 0.9715
1.0619 -6.8586 -1.9648 0.9716
4.1528 4.4162 -1.8646 0.9749
3.3122 5.0978 -1.8699 0.9749
2.8483 5.3796 -1.8723 0.9748
1.8523 5.8133 -1.8766 0.9748
0.7922 6.0611 -1.8801 0.9747
-1.4905 6.4530 -2.0371 0.9727
-3.1481 5.8354 -2.0394 0.9726
-3.6547 5.5302 -2.0389 0.9726
-4.9794 4.3593 -2.0356 0.9727
-5.3438 3.8950 -2.0339 0.9727
-6.5557 0.0337 -2.0164 0.9729
-6.5226 -0.5499 -2.0133 0.9730
-6.4375 -1.1272 -2.0102 0.9730
-6.3013 -1.6938 -2.0069 0.9731
-6.1153 -2.2450 -2.0037 0.9731
-4.9139 -4.2135 -1.9910 0.9733
-3.1143 -5.6333 -1.9798 0.9734
-2.5967 -5.8814 -1.9775 0.9735
-1.5081 -6.2360 -1.9734 0.9735
-0.3764 -6.3944 -1.9702 0.9735
0.1949 -6.3985 -1.9690 0.9736
0.7640 -6.3526 -1.9680 0.9736
1.8787 -6.1127 -1.9669 0.9736
2.9341 -5.6821 -1.9669 0.9736
3.4296 -5.3992 -1.9674 0.9736
3.8985 -5.0738 -1.9681 0.9736
4.3374 -4.7085 -1.9691 0.9736
5.1115 -3.8690 -1.9718 0.9735
5.7280 -2.9055 -1.9755 0.9735
5.9707 -2.3861 -1.9777 0.9735
6.1671 -1.8467 -1.9801 0.9734
6.4625 -0.1500 -1.9883 0.9733
6.4060 1.0028 -1.9944 0.9732
6.3012 1.5722 -1.9975 0.9732
6.1459 2.1310 -2.0007 0.9731
5.6883 3.1986 -2.0072 0.9731
4.3071 4.2607 -1.8634 0.9750
2.5607 5.5273 -1.8737 0.9748
2.0602 5.7401 -1.8758 0.9748
1.5420 5.9070 -1.8778 0.9748
1.0104 6.0265 -1.8795 0.9748
0.4696 6.0974 -1.8810 0.9747
-0.6280 6.1585 -1.9041 0.9744
-1.8331 6.3722 -2.0394 0.9726
-3.4530 5.6594 -2.0391 0.9726
-3.9422 5.3273 -2.0384 0.9726
-4.8201 4.5377 -2.0362 0.9727
-5.8333 3.0927 -2.0308 0.9727
-6.0790 2.5577 -2.0285 0.9728
-6.2751 2.0033 -2.0261 0.9728
-6.4203 1.4341 -2.0234 0.9728
-6.4782 -0.8945 -2.0115 0.9730
-6.1965 -2.0239 -2.0050 0.9731
-5.9818 -2.5639 -2.0018 0.9731
-5.7202 -3.0819 -1.9985 0.9732
-5.4141 -3.5737 -1.9953 0.9732
-5.0661 -4.0357 -1.9922 0.9733
-4.2564 -4.8565 -1.9863 0.9733
-2.2794 -6.0070 -1.9762 0.9735
-1.1744 -6.3039 -1.9723 0.9735
-0.6074 -6.3784 -1.9707 0.9735
-0.0365 -6.4029 -1.9694 0.9736
0.5340 -6.3772 -1.9684 0.9736
1.0998 -6.3017 -1.9676 0.9736
2.7267 -5.7841 -1.9668 0.9736
3.7121 -5.2106 -1.9678 0.9736
4.5828 -4.4733 -1.9698 0.9736
4.9668 -4.0499 -1.9712 0.9735
5.8779 -2.5991 -1.9768 0.9735
6.0933 -2.0673 -1.9791 0.9734
6.3801 -0.9551 -1.9843 0.9734
6.3498 1.3426 -1.9962 0.9732
5.7964 2.9890 -2.0059 0.9731
5.5158 3.4994 -2.0092 0.9730
4.4829 4.1249 -1.8737 0.9748
4.0785 4.4872 -1.8651 0.9749
3.6676 4.8398 -1.8678 0.9749
3.2261 5.1545 -1.8703 0.9749
2.2653 5.6593 -1.8750 0.9748
1.2271 5.9839 -1.8788 0.9748
0.6894 6.0746 -1.8804 0.9747
0.1454 6.1162 -1.8818 0.9747
-1.6011 6.4320 -2.0387 0.9726
-3.2465 5.7810 -2.0393 0.9726
-3.7478 5.4671 -2.0387 0.9726
-4.6542 4.7102 -2.0367 0.9727
-5.4082 3.8032 -2.0336 0.9727
-5.7202 3.3029 -2.0316 0.9727
-5.9854 2.7769 -2.0295 0.9728
-6.2017 2.2298 -2.0271 0.9728
-6.3677 1.6661 -2.0245 0.9728
-6.2697 -1.7998 -2.0063 0.9731
-6.0745 -2.3476 -2.0031 0.9731
-5.5433 -3.3779 -1.9966 0.9732
-5.2119 -3.8524 -1.9935 0.9732
-4.8404 -4.2950 -1.9904 0.9733
-3.0176 -5.6840 -1.9794 0.9734
-1.4019 -6.2596 -1.9730 0.9735
-0.8377 -6.3543 -1.9713 0.9735
0.8715 -6.3383 -1.9679 0.9736
1.9820 -6.0798 -1.9669 0.9736
3.0301 -5.6317 -1.9670 0.9736
3.9844 -5.0074 -1.9682 0.9736
4.8158 -4.2255 -1.9706 0.9735
5.1772 -3.7824 -1.9721 0.9735
5.4987 -3.3089 -1.9739 0.9735
5.7776 -2.8085 -1.9759 0.9735
6.1990 -1.7422 -1.9806 0.9734
6.3900 1.1116 -1.9950 0.9732
6.2755 1.6794 -1.9981 0.9732
6.1107 2.2357 -2.0014 0.9731
5.6350 3.2956 -2.0079 0.9731
5.3200 3.7856 -2.0083 0.9730
4.7869 4.0953 -1.9376 0.9740
4.2354 4.3343 -1.8640 0.9750
2.9502 5.3226 -1.8718 0.9749
2.4671 5.5712 -1.8741 0.9748
0.9082 6.0437 -1.8798 0.9747
-0.7439 6.2440 -1.9341 0.9740
-1.3652 6.4744 -2.0352 0.9727
-4.8957 4.4547 -2.0359 0.9727
-5.5993 3.5088 -2.0324 0.9727
-5.8837 2.9927 -2.0304 0.9728
-6.3067 1.8961 -2.0256 0.9728
-6.4420 1.3247 -2.0229 0.9729
-6.5341 -0.4248 -2.0140 0.9730
-6.3348 -1.5731 -2.0076 0.9731
-4.9955 -4.1198 -1.9916 0.9733
-4.6015 -4.5418 -1.9886 0.9733
-4.1723 -4.9266 -1.9857 0.9733
-3.7115 -5.2716 -1.9830 0.9734
-3.2226 -5.5741 -1.9804 0.9734
-1.6278 -6.2072 -1.9738 0.9735
-1.0672 -6.3219 -1.9720 0.9735
-0.4991 -6.3869 -1.9705 0.9735
0.6421 -6.3667 -1.9682 0.9736
1.7611 -6.1478 -1.9670 0.9736
2.8245 -5.7372 -1.9669 0.9736
4.2458 -4.7903 -1.9688 0.9736
5.0355 -3.9657 -1.9715 0.9735
5.3735 -3.5041 -1.9731 0.9735
5.6699 -3.0142 -1.9751 0.9735
5.9224 -2.4995 -1.9772 0.9735
6.1289 -1.9641 -1.9795 0.9734
6.4564 -0.2739 -1.9876 0.9733
6.4648 0.3031 -1.9906 0.9733
6.1835 2.0120 -2.0001 0.9732
5.9892 2.5593 -2.0033 0.9731
5.7466 3.0879 -2.0065 0.9731
4.3866 4.1759 -1.8628 0.9750
4.0029 4.5570 -1.8656 0.9749
3.5859 4.9026 -1.8683 0.9749
2.6655 5.4757 -1.8732 0.9748
1.1256 6.0049 -1.8791 0.9748
0.5864 6.0863 -1.8807 0.9747
0.0416 6.1186 -1.8820 0.9747
-0.5041 6.1013 -1.8830 0.9747
-1.7104 6.4059 -2.0393 0.9726
-2.2749 6.2287 -2.0396 0.9726
-2.8209 6.0011 -2.0396 0.9726
-3.3440 5.7249 -2.0392 0.9726
-4.3039 5.0364 -2.0377 0.9727
-5.7742 3.2048 -2.0312 0.9727
-6.3934 1.5575 -2.0240 0.9728
-6.4979 0.9801 -2.0212 0.9729
-6.4963 -0.7703 -2.0121 0.9730
-6.3917 -1.3441 -2.0089 0.9730
-6.2364 -1.9053 -2.0057 0.9731
-6.0320 -2.4496 -2.0025 0.9731
-5.7803 -2.9726 -1.9992 0.9732
-5.4835 -3.4704 -1.9960 0.9732
-5.1443 -3.9391 -1.9929 0.9732
-4.7655 -4.3752 -1.9898 0.9733
-2.3947 -5.9636 -1.9766 0.9735
-1.8518 -6.1468 -1.9745 0.9735
-1.2953 -6.2814 -1.9727 0.9735
-0.1593 -6.4018 -1.9697 0.9736
0.4117 -6.3869 -1.9686 0.9736
5.6157 2.1775 -2.0021 0.9749
4.8612 3.6016 -2.0111 0.9748
3.4658 4.4159 -1.8660 0.9766
3.0624 4.7133 -1.8684 0.9766
2.6333 4.9734 -1.8706 0.9766
2.1820 5.1941 -1.8727 0.9765
1.7121 5.3734 -1.8746 0.9765
0.2302 5.6485 -1.8792 0.9765
-0.2856 5.8820 -1.9575 0.9755
-0.8392 6.0530 -2.0313 0.9746
-1.3788 5.9690 -2.0364 0.9745
-2.4171 5.6306 -2.0368 0.9745
-3.8178 4.7871 -2.0354 0.9745
-4.2272 4.4256 -2.0343 0.9745
-4.6019 4.0287 -2.0331 0.9745
-5.2356 3.1427 -2.0298 0.9746
-5.4895 2.6609 -2.0278 0.9746
-5.8617 1.6404 -2.0233 0.9747
-5.9771 1.1101 -2.0208 0.9747
-6.0443 0.5722 -2.0181 0.9747
-6.0629 0.0312 -2.0154 0.9748
-6.0330 -0.5086 -2.0125 0.9748
-5.9550 -1.0427 -2.0096 0.9748
-5.8297 -1.5670 -2.0066 0.9749
-5.4425 -2.5694 -2.0006 0.9749
-5.1841 -3.0397 -1.9976 0.9750
-4.8854 -3.4845 -1.9947 0.9750
-2.8841 -5.2170 -1.9815 0.9752
-1.3970 -5.7765 -1.9755 0.9753
-0.3487 -5.9239 -1.9726 0.9753
0.1805 -5.9280 -1.9714 0.9753
1.2292 -5.7974 -1.9699 0.9753
3.1776 -5.0025 -1.9700 0.9753
3.6120 -4.7009 -1.9706 0.9753
4.3938 -3.9891 -1.9727 0.9753
4.7352 -3.5842 -1.9741 0.9753
5.0399 -3.1505 -1.9757 0.9753
5.3055 -2.6912 -1.9775 0.9752
5.7113 -1.7102 -1.9817 0.9752
5.8480 -1.1958 -1.9841 0.9752
5.9388 -0.6707 -1.9867 0.9751
5.9830 -0.1389 -1.9893 0.9751
5.9294 0.9282 -1.9950 0.9750
5.8316 1.4551 -1.9979 0.9750
5.4971 2.4747 -2.0039 0.9749
5.2625 2.9592 -2.0069 0.9749
4.9852 3.4215 -2.0099 0.9748
4.1848 4.1397 -1.9566 0.9755
1.9044 5.3059 -1.8739 0.9765
0.9338 5.5698 -1.8773 0.9765
0.4340 5.6350 -1.8787 0.9765
-0.0710 5.7392 -1.9079 0.9761
-1.1619 6.0133 -2.0358 0.9745
-2.2121 5.7142 -2.0368 0.9745
-3.6429 4.9228 -2.0357 0.9745
-4.0654 4.5765 -2.0348 0.9745
-5.3920 2.8587 -2.0286 0.9746
-5.8013 1.8520 -2.0243 0.9747
-5.9361 1.3260 -2.0218 0.9747
-6.0510 -0.2904 -2.0137 0.9748
-5.8861 -1.3562 -2.0078 0.9749
-5.2938 -2.8521 -1.9988 0.9750
-5.0111 -3.3077 -1.9959 0.9750
-4.3318 -4.1330 -1.9902 0.9751
-3.9409 -4.4965 -1.9875 0.9751
-3.5199 -4.8236 -1.9849 0.9751
-2.1112 -5.5638 -1.9781 0.9752
-1.6054 -5.7243 -1.9762 0.9753
-1.0879 -5.8397 -1.9745 0.9753
0.4948 -5.9084 -1.9709 0.9753
1.0190 -5.8386 -1.9701 0.9753
2.5264 -5.3593 -1.9695 0.9753
2.9945 -5.1135 -1.9698 0.9753
3.4393 -4.8276 -1.9703 0.9753
3.8574 -4.5037 -1.9711 0.9753
4.2457 -4.1442 -1.9722 0.9753
5.2028 -2.8801 -1.9767 0.9752
5.9076 -0.8844 -1.9856 0.9751
5.9708 -0.3548 -1.9882 0.9751
5.9556 0.7129 -1.9938 0.9750
4.7987 3.6829 -2.0107 0.9748
3.3913 4.4752 -1.8665 0.9766
2.9827 4.7657 -1.8688 0.9766
2.5491 5.0185 -1.8710 0.9766
1.6210 5.4027 -1.8750 0.9765
-0.3902 5.9515 -1.9826 0.9752
-0.9424 6.0421 -2.0327 0.9746
-1.4799 5.9450 -2.0365 0.9745
-2.5122 5.5887 -2.0368 0.9745
-3.8981 4.7213 -2.0352 0.9745
-4.3011 4.3528 -2.0341 0.9745
-4.9985 3.5150 -2.0312 0.9746
-5.2872 3.0529 -2.0294 0.9746
-5.7333 2.0614 -2.0252 0.9746
-6.0610 -0.0716 -2.0148 0.9748
-6.0219 -0.6107 -2.0120 0.9748
-5.9348 -1.1433 -2.0090 0.9748
-5.8006 -1.6652 -2.0060 0.9749
-5.3967 -2.6606 -2.0000 0.9750
-4.8243 -3.5659 -1.9941 0.9750
-2.7946 -5.2640 -1.9811 0.9752
-1.2986 -5.7985 -1.9752 0.9753
0.8075 -5.8725 -1.9704 0.9753
1.3273 -5.7754 -1.9698 0.9753
3.6915 -4.6394 -1.9708 0.9753
5.0935 -3.0650 -1.9760 0.9753
5.5678 -2.1163 -1.9799 0.9752
5.7407 -1.6134 -1.9822 0.9752
5.8688 -1.0967 -1.9846 0.9751
5.9861 -0.0374 -1.9898 0.9751
5.9144 1.0289 -1.9955 0.9750
5.6546 2.0687 -2.0015 0.9749
5.4559 2.5683 -2.0045 0.9749
5.2131 3.0489 -2.0075 0.9749
4.9279 3.5065 -2.0104 0.9748
3.5489 4.3474 -1.8655 0.9766
3.1514 4.6524 -1.8679 0.9766
2.7275 4.9208 -1.8702 0.9766
2.2807 5.1501 -1.8723 0.9765
1.8145 5.3385 -1.8742 0.9765
0.3384 5.6423 -1.8789 0.9765
-0.7224 6.0633 -2.0297 0.9746
-1.7935 5.8587 -2.0367 0.9745
-2.3087 5.6759 -2.0368 0.9745
-2.8051 5.4472 -2.0367 0.9745
-3.2787 5.1744 -2.0362 0.9745
-5.1754 3.2431 -2.0302 0.9746
-5.4386 2.7663 -2.0283 0.9746
-5.8306 1.7530 -2.0238 0.9747
-5.9564 1.2248 -2.0213 0.9747
-6.0631 0.1475 -2.0160 0.9748
-6.0435 -0.3929 -2.0131 0.9748
-5.8605 -1.4554 -2.0073 0.9749
-5.6990 -1.9689 -2.0042 0.9749
-5.2432 -2.9406 -1.9983 0.9750
-4.9529 -3.3912 -1.9953 0.9750
-4.6243 -3.8137 -1.9924 0.9751
-4.2600 -4.2047 -1.9896 0.9751
-3.8631 -4.5615 -1.9870 0.9751
-3.4367 -4.8814 -1.9844 0.9751
-2.9844 -5.1620 -1.9820 0.9752
-2.5096 -5.4014 -1.9798 0.9752
-2.0162 -5.5977 -1.9777 0.9752
-0.4623 -5.9170 -1.9728 0.9753
0.0668 -5.9311 -1.9716 0.9753
1.6318 -5.6962 -1.9696 0.9753
2.1327 -5.5276 -1.9694 0.9753
3.5209 -4.7690 -1.9705 0.9753
4.3159 -4.0721 -1.9724 0.9753
4.6648 -3.6737 -1.9737 0.9753
4.9776 -3.2459 -1.9753 0.9753
5.4853 -2.3151 -1.9791 0.9752
5.9232 -0.7843 -1.9861 0.9751
5.9775 -0.2536 -1.9887 0.9751
5.9442 0.8140 -1.9943 0.9750
5.8566 1.3425 -1.9973 0.9750
5.7222 1.8619 -2.0002 0.9750
5.5417 2.3680 -2.0032 0.9749
4.3260 4.1182 -1.9854 0.9751
3.7106 4.2243 -1.8690 0.9766
2.9021 4.8167 -1.8693 0.9766
1.5295 5.4303 -1.8753 0.9765
1.0403 5.5499 -1.8769 0.9765
-1.0454 6.0296 -2.0342 0.9745
-2.6066 5.5452 -2.0368 0.9745
-3.0900 5.2900 -2.0364 0.9745
-4.3738 4.2788 -2.0339 0.9745
-5.5744 2.4723 -2.0270 0.9746
-5.9112 1.4400 -2.0224 0.9747
-6.0084 0.9063 -2.0198 0.9747
-6.0571 0.3667 -2.0171 0.9747
-6.0573 -0.1744 -2.0143 0.9748
-5.9129 -1.2434 -2.0085 0.9749
-5.7699 -1.7628 -2.0055 0.9749
-4.7618 -3.6462 -1.9936 0.9750
-4.4116 -4.0503 -1.9908 0.9751
-4.0276 -4.4213 -1.9880 0.9751
-2.2180 -5.5235 -1.9785 0.9752
-1.7152 -5.6936 -1.9766 0.9752
-0.6760 -5.8980 -1.9734 0.9753
0.9069 -5.8575 -1.9703 0.9753
5.2200 2.0241 -2.0021 0.9765
5.0258 2.4847 -2.0049 0.9765
4.7910 2.9268 -2.0077 0.9764
4.5173 3.3467 -2.0105 0.9764
4.2044 3.7390 -2.0121 0.9764
3.8493 4.0934 -2.0094 0.9764
3.3524 4.2715 -1.9418 0.9772
1.5900 4.9901 -1.8729 0.9780
1.1399 5.1163 -1.8745 0.9780
0.6891 5.2717 -1.9012 0.9777
0.2253 5.5281 -1.9785 0.9768
-0.2750 5.6631 -2.0276 0.9762
-1.7692 5.4065 -2.0343 0.9761
-2.2441 5.2275 -2.0343 0.9761
-3.9249 4.1091 -2.0321 0.9761
-4.2730 3.7408 -2.0309 0.9762
-5.2928 2.0050 -2.0240 0.9762
-5.4446 1.5237 -2.0218 0.9763
-5.5339 -0.9690 -2.0091 0.9764
-5.2594 -1.9308 -2.0035 0.9765
-5.0593 -2.3885 -2.0007 0.9765
-4.2299 -3.6270 -1.9926 0.9766
-2.6829 -4.8529 -1.9830 0.9767
-1.7751 -5.2418 -1.9791 0.9768
-1.2998 -5.3746 -1.9774 0.9768
-0.3245 -5.5123 -1.9746 0.9768
1.1439 -5.3950 -1.9722 0.9768
2.9571 -4.6553 -1.9722 0.9768
3.3612 -4.3746 -1.9728 0.9768
5.1444 -2.0558 -1.9811 0.9767
5.4394 -1.1122 -1.9854 0.9767
5.5234 -0.6238 -1.9878 0.9767
5.5639 -0.1292 -1.9902 0.9766
5.5605 0.3677 -1.9928 0.9766
5.5130 0.8630 -1.9955 0.9766
5.1094 2.3002 -2.0038 0.9765
4.8909 2.7502 -2.0066 0.9764
3.9967 3.9536 -2.0104 0.9764
3.0537 4.3476 -1.8999 0.9777
2.6100 4.5260 -1.8684 0.9780
1.7686 4.9276 -1.8722 0.9780
0.4173 5.4177 -1.9432 0.9772
-1.0789 5.5839 -2.0338 0.9761
-1.5726 5.4666 -2.0342 0.9761
-2.0537 5.3051 -2.0343 0.9761
-2.5182 5.1008 -2.0343 0.9761
-2.9623 4.8552 -2.0339 0.9761
-3.3823 4.5705 -2.0333 0.9761
-3.7746 4.2491 -2.0325 0.9761
-5.2191 2.1959 -2.0248 0.9762
-5.5952 0.7345 -2.0181 0.9763
-5.4702 -1.2603 -2.0074 0.9764
-5.3287 -1.7404 -2.0047 0.9765
-5.1452 -2.2054 -2.0019 0.9765
-4.6591 -3.0753 -1.9963 0.9766
-4.3605 -3.4736 -1.9936 0.9766
-4.0283 -3.8434 -1.9910 0.9766
-3.6651 -4.1818 -1.9885 0.9767
-3.2739 -4.4864 -1.9861 0.9767
-2.8577 -4.7549 -1.9839 0.9767
-1.9641 -5.1761 -1.9798 0.9768
-1.4936 -5.3259 -1.9780 0.9768
-1.0122 -5.4335 -1.9765 0.9768
-0.5236 -5.4983 -1.9751 0.9768
-0.0314 -5.5199 -1.9740 0.9768
0.4604 -5.4982 -1.9731 0.9768
0.9483 -5.4334 -1.9724 0.9768
1.4284 -5.3260 -1.9719 0.9768
1.8972 -5.1770 -1.9717 0.9768
2.3511 -4.9874 -1.9718 0.9768
2.7867 -4.7587 -1.9720 0.9768
3.2005 -4.4925 -1.9726 0.9768
3.5896 -4.1910 -1.9733 0.9768
3.9508 -3.8563 -1.9743 0.9768
4.2813 -3.4910 -1.9755 0.9768
4.8405 -2.6795 -1.9785 0.9768
5.0647 -2.2395 -1.9803 0.9767
5.2494 -1.7810 -1.9823 0.9767
5.3931 -1.3075 -1.9845 0.9767
5.4946 -0.8225 -1.9868 0.9767
5.5375 0.6629 -1.9944 0.9766
5.1863 2.1129 -2.0027 0.9765
4.9843 2.5703 -2.0055 0.9765
4.1392 3.8087 -2.0115 0.9764
0.6035 5.3178 -1.9139 0.9775
-0.8763 5.6185 -2.0335 0.9761
-1.3739 5.5195 -2.0340 0.9761
-1.8606 5.3758 -2.0343 0.9761
-3.2153 4.6904 -2.0336 0.9761
-3.6192 4.3836 -2.0328 0.9761
-4.3353 3.6673 -2.0306 0.9762
-4.6415 3.2640 -2.0292 0.9762
-5.1384 2.3840 -2.0257 0.9762
-5.3250 1.9146 -2.0236 0.9762
-5.4685 1.4308 -2.0214 0.9763
-5.6314 -0.0666 -2.0140 0.9764
-5.5956 -0.5674 -2.0113 0.9764
-5.5153 -1.0624 -2.0086 0.9764
-5.2245 -2.0191 -2.0030 0.9765
-5.0168 -2.4733 -2.0002 0.9765
-4.4856 -3.3156 -1.9947 0.9766
-4.1667 -3.6973 -1.9921 0.9766
-2.5996 -4.8967 -1.9826 0.9767
-1.6857 -5.2703 -1.9787 0.9768
0.2615 -5.5122 -1.9734 0.9768
2.1693 -5.0690 -1.9717 0.9768
3.4352 -4.3172 -1.9730 0.9768
3.8080 -3.9957 -1.9739 0.9768
4.4624 -3.2602 -1.9763 0.9768
4.7389 -2.8517 -1.9778 0.9768
4.9786 -2.4201 -1.9796 0.9768
5.4586 -1.0201 -1.9858 0.9767
5.5345 -0.5301 -1.9882 0.9767
5.4990 0.9566 -1.9960 0.9766
5.3992 1.4449 -1.9988 0.9765
5.2563 1.9230 -2.0015 0.9765
4.2764 3.6586 -2.0126 0.9764
3.9281 4.0198 -2.0099 0.9764
2.9608 4.3711 -1.8880 0.9778
2.5334 4.5705 -1.8687 0.9780
2.1225 4.7929 -1.8745 0.9780
1.6851 4.9577 -1.8725 0.9780
0.3278 5.4660 -1.9582 0.9770
-0.1662 5.6637 -2.0263 0.9762
-2.6043 5.0572 -2.0342 0.9761
-3.0441 4.8041 -2.0338 0.9761
-3.4590 4.5122 -2.0332 0.9761
-5.2546 2.1066 -2.0245 0.9762
-5.6331 0.1370 -2.0150 0.9763
-4.8744 -2.7338 -1.9986 0.9765
-4.6050 -3.1531 -1.9958 0.9766
-4.2999 -3.5462 -1.9931 0.9766
-3.9616 -3.9102 -1.9906 0.9766
-2.7761 -4.8017 -1.9834 0.9767
-1.8757 -5.2078 -1.9795 0.9768
-1.4029 -5.3496 -1.9777 0.9768
-0.4302 -5.5057 -1.9749 0.9768
1.0402 -5.4162 -1.9723 0.9768
1.9848 -5.1440 -1.9717 0.9768
2.4354 -4.9469 -1.9718 0.9768
4.0160 -3.7892 -1.9745 0.9768
4.8861 -2.5975 -1.9789 0.9768
5.4157 -1.2161 -1.9849 0.9767
5.5090 -0.7294 -1.9872 0.9767
5.5589 -0.2358 -1.9897 0.9766
5.1511 2.2011 -2.0032 0.9765
4.9413 2.6551 -2.0060 0.9765
4.6915 3.0892 -2.0088 0.9764
3.1602 4.3206 -1.9143 0.9775
2.6957 4.4740 -1.8679 0.9781
0.5168 5.3644 -1.9272 0.9774
-0.9715 5.6032 -2.0336 0.9761
-2.4200 5.1482 -2.0343 0.9761
-2.8688 4.9114 -2.0340 0.9761
-3.2942 4.6349 -2.0335 0.9761
-3.6927 4.3212 -2.0327 0.9761
-4.0611 3.9728 -2.0316 0.9762
-4.3963 3.5928 -2.0304 0.9762
-4.6955 3.1844 -2.0289 0.9762
-5.1771 2.2961 -2.0253 0.9762
-5.4908 1.3376 -2.0210 0.9763
-5.6281 -0.1620 -2.0135 0.9764
-4.1024 -3.7664 -1.9916 0.9766
-3.3602 -4.4239 -1.9866 0.9767
-2.9491 -4.7004 -1.9843 0.9767
-1.5958 -5.2972 -1.9784 0.9768
-0.6290 -5.4880 -1.9754 0.9768
0.3549 -5.5065 -1.9732 0.9768
4.2143 3.1222 -2.0099 0.9778
3.9241 3.4898 -2.0124 0.9778
3.5997 3.8280 -2.0137 0.9777
2.8449 4.3786 -2.0010 0.9779
2.3919 4.5175 -1.9589 0.9783
1.9621 4.6706 -1.9414 0.9785
1.1207 5.0303 -1.9750 0.9782
0.2152 5.2807 -2.0253 0.9776
-0.7279 5.2504 -2.0313 0.9775
-1.6492 5.0398 -2.0321 0.9775
-2.5176 4.6667 -2.0320 0.9775
-2.9229 4.4228 -2.0316 0.9775
-3.6589 3.8307 -2.0301 0.9776
-3.9836 3.4875 -2.0290 0.9776
-4.2758 3.1166 -2.0276 0.9776
-4.7537 2.3043 -2.0244 0.9776
-4.9356 1.8697 -2.0226 0.9776
-5.1783 0.9617 -2.0184 0.9777
-5.2375 0.4958 -2.0161 0.9777
-5.2546 0.0270 -2.0137 0.9777
-5.1630 -0.9041 -2.0087 0.9778
-5.0553 -1.3589 -2.0061 0.9778
-4.9077 -1.8017 -2.0035 0.9779
-4.7215 -2.2290 -2.0009 0.9779
-4.4982 -2.6375 -1.9983 0.9779
-4.2398 -3.0241 -1.9957 0.9779
-3.9485 -3.3857 -1.9932 0.9780
-3.6267 -3.7196 -1.9908 0.9780
-2.9021 -4.2947 -1.9863 0.9780
-2.5052 -4.5316 -1.9843 0.9781
-0.7612 -5.1042 -1.9777 0.9781
0.6153 -5.1161 -1.9747 0.9782
1.9459 -4.7687 -1.9737 0.9782
2.3633 -4.5766 -1.9739 0.9782
3.1397 -4.0863 -1.9748 0.9782
3.4928 -3.7917 -1.9756 0.9782
3.8188 -3.4670 -1.9766 0.9781
4.1151 -3.1148 -1.9778 0.9781
4.3794 -2.7376 -1.9792 0.9781
4.9608 -1.4855 -1.9845 0.9781
5.1942 -0.1206 -1.9911 0.9780
5.1906 0.3432 -1.9935 0.9780
5.1458 0.8055 -1.9960 0.9779
4.9337 1.7107 -2.0011 0.9779
4.7678 2.1464 -2.0037 0.9779
4.5634 2.5661 -2.0063 0.9778
4.0456 3.3440 -2.0114 0.9778
3.7361 3.6958 -2.0139 0.9777
3.3897 4.0115 -2.0126 0.9778
3.0170 4.2954 -2.0115 0.9778
1.7122 4.7704 -1.9423 0.9785
1.2922 4.9501 -1.9605 0.9783
0.8635 5.1503 -2.0012 0.9779
-0.5376 5.2725 -2.0310 0.9776
-1.0057 5.2053 -2.0316 0.9775
-1.4659 5.0959 -2.0320 0.9775
-2.3475 4.7549 -2.0321 0.9775
-2.7615 4.5260 -2.0318 0.9775
-4.1616 3.2699 -2.0282 0.9776
-4.4333 2.8840 -2.0268 0.9776
-4.6690 2.4754 -2.0251 0.9776
-4.8666 2.0476 -2.0233 0.9776
-5.0249 1.6041 -2.0214 0.9777
-5.1425 1.1487 -2.0193 0.9777
-5.2186 0.6851 -2.0170 0.9777
-5.2448 -0.2517 -2.0122 0.9778
-5.1949 -0.7173 -2.0097 0.9778
-4.9722 -1.6240 -2.0045 0.9778
-4.3486 -2.8704 -1.9968 0.9779
-3.7605 -3.5879 -1.9918 0.9780
-2.6684 -4.4399 -1.9851 0.9781
-2.2598 -4.6554 -1.9831 0.9781
-0.9454 -5.0748 -1.9782 0.9781
-0.4890 -5.1355 -1.9769 0.9781
-0.0294 -5.1559 -1.9759 0.9782
1.7723 -4.8360 -1.9738 0.9782
2.6031 -4.4452 -1.9741 0.9782
4.5207 -2.5025 -1.9801 0.9781
5.0358 -1.2208 -1.9857 0.9780
5.1970 0.1554 -1.9925 0.9780
5.1689 0.6187 -1.9949 0.9779
5.0996 1.0783 -1.9975 0.9779
4.8397 1.9717 -2.0027 0.9779
4.1617 3.1940 -2.0104 0.9778
3.8653 3.5567 -2.0129 0.9778
2.7573 4.4055 -1.9917 0.9780
2.3097 4.5470 -1.9544 0.9784
1.8817 4.7010 -1.9405 0.9785
1.4618 4.8720 -1.9492 0.9784
-0.8169 5.2376 -2.0314 0.9775
-1.7344 5.0112 -2.0322 0.9775
-2.1742 4.8367 -2.0322 0.9775
-2.5963 4.6232 -2.0319 0.9775
-3.3739 4.0865 -2.0308 0.9776
-3.7230 3.7678 -2.0299 0.9776
-4.0417 3.4190 -2.0287 0.9776
-4.3275 3.0432 -2.0274 0.9776
-4.7913 2.2229 -2.0241 0.9776
-4.8753 -1.8842 -2.0030 0.9779
-3.8896 -3.4514 -1.9928 0.9780
-3.2075 -4.0775 -1.9881 0.9780
-2.0084 -4.7662 -1.9820 0.9781
-0.6745 -5.1158 -1.9774 0.9781
-0.2157 -5.1525 -1.9763 0.9782
0.2443 -5.1488 -1.9753 0.9782
2.4406 -4.5360 -1.9739 0.9782
2.8357 -4.3013 -1.9743 0.9782
4.1679 -3.0450 -1.9780 0.9781
4.4259 -2.6633 -1.9795 0.9781
4.6494 -2.2601 -1.9811 0.9781
4.9862 -1.4014 -1.9849 0.9781
5.0967 -0.9524 -1.9870 0.9780
5.1671 -0.4949 -1.9892 0.9780
5.0391 1.3485 -1.9990 0.9779
4.7319 2.2275 -2.0042 0.9778
4.5204 2.6438 -2.0068 0.9778
3.9893 3.4130 -2.0119 0.9778
3.6733 3.7591 -2.0141 0.9777
2.9435 4.3456 -2.0114 0.9778
2.4876 4.4879 -1.9664 0.9783
2.0539 4.6381 -1.9439 0.9785
1.6324 4.8028 -1.9439 0.9785
0.7807 5.1950 -2.0132 0.9777
0.3163 5.2730 -2.0243 0.9776
-0.1553 5.2934 -2.0294 0.9776
-0.6270 5.2630 -2.0311 0.9776
-1.0939 5.1877 -2.0317 0.9775
-1.5522 5.0704 -2.0321 0.9775
-2.4277 4.7143 -2.0321 0.9775
-3.5852 3.9006 -2.0303 0.9776
-4.4809 2.8080 -2.0265 0.9776
-4.8998 1.9644 -2.0230 0.9776
-5.2544 0.1278 -2.0142 0.9777
-5.2385 -0.3406 -2.0117 0.9778
-5.0819 -1.2620 -2.0066 0.9778
-4.9428 -1.7077 -2.0040 0.9778
-4.5492 -2.5515 -1.9988 0.9779
-4.2982 -2.9430 -1.9963 0.9779
-3.3543 -3.9608 -1.9890 0.9780
-2.9846 -4.2392 -1.9868 0.9780
-2.5922 -4.4836 -1.9847 0.9781
-2.1802 -4.6922 -1.9828 0.9781
-1.7517 -4.8635 -1.9810 0.9781
-0.8591 -5.0894 -1.9779 0.9781
0.5171 -5.1274 -1.9749 0.9782
0.9717 -5.0594 -1.9743 0.9782
1.8540 -4.8052 -1.9738 0.9782
2.2750 -4.6210 -1.9738 0.9782
2.6782 -4.4005 -1.9741 0.9782
3.0605 -4.1454 -1.9746 0.9782
3.4191 -3.8576 -1.9754 0.9782
3.7511 -3.5392 -1.9763 0.9782
4.0540 -3.1927 -1.9775 0.9781
4.3254 -2.8206 -1.9789 0.9781
4.7654 -2.0112 -1.9822 0.9781
4.9303 -1.5800 -1.9840 0.9781
5.0567 -1.1355 -1.9861 0.9780
5.1434 -0.6810 -1.9883 0.9780
5.1896 -0.2201 -1.9906 0.9780
5.1949 0.2436 -1.9929 0.9780
5.1589 0.7065 -1.9954 0.9779
4.8067 2.0540 -2.0031 0.9779
4.6105 2.4774 -2.0058 0.9778
4.1079 3.2649 -2.0109 0.9778
0.9572 5.1063 -1.9909 0.9780
-0.4364 5.2815 -2.0308 0.9776
-0.9057 5.2233 -2.0315 0.9775
-1.3679 5.1229 -2.0320 0.9775
-1.8192 4.9811 -2.0322 0.9775
-2.2559 4.7991 -2.0321 0.9775
-2.6743 4.5783 -2.0319 0.9775
-3.4425 4.0283 -2.0306 0.9776
-3.7860 3.7037 -2.0297 0.9776
-4.0987 3.3496 -2.0285 0.9776
-4.8274 2.1410 -2.0237 0.9776
-4.9943 1.7006 -2.0218 0.9777
-5.1207 1.2474 -2.0197 0.9777
-5.2057 0.7852 -2.0175 0.9777
-5.2500 -0.1511 -2.0127 0.9778
-5.2092 -0.6177 -2.0102 0.9778
-5.1268 -1.0781 -2.0077 0.9778
-5.0039 -1.5288 -2.0051 0.9778
-4.6409 -2.3867 -1.9999 0.9779
-4.1329 -3.1646 -1.9948 0.9779
-3.8297 -3.5160 -1.9923 0.9780
-1.9270 -4.7987 -1.9817 0.9781
-1.0427 -5.0565 -1.9785 0.9781
-0.5875 -5.1259 -1.9772 0.9781
0.7883 -5.0917 -1.9745 0.9782
3.9451 2.9228 -2.0095 0.9790
3.6731 3.2666 -2.0118 0.9790
3.3712 3.5850 -2.0141 0.9790
2.6831 4.1295 -2.0155 0.9789
2.3045 4.3525 -2.0156 0.9789
1.9083 4.5427 -2.0166 0.9789
1.4972 4.6990 -2.0184 0.9789
0.6411 4.9047 -2.0244 0.9788
-0.2404 4.9510 -2.0287 0.9788
-0.6809 4.9116 -2.0294 0.9788
-1.1163 4.8326 -2.0299 0.9788
-1.5427 4.7145 -2.0302 0.9788
-2.3551 4.3655 -2.0301 0.9788
-3.0912 3.8761 -2.0291 0.9788
-3.7269 3.2627 -2.0273 0.9788
-4.0004 2.9158 -2.0260 0.9788
-4.2414 2.5459 -2.0246 0.9788
-4.4479 2.1561 -2.0230 0.9789
-4.6184 1.7495 -2.0213 0.9789
-1.9572 -0.1650 -0.8039 0.9915
-2.1490 -0.3763 -0.8929 0.9906
-4.2124 -2.4699 -1.9985 0.9791
-3.9708 -2.8322 -1.9962 0.9791
-3.6982 -3.1711 -1.9938 0.9792
-2.7188 -4.0234 -1.9874 0.9792
-2.3471 -4.2455 -1.9854 0.9793
-1.9576 -4.4338 -1.9836 0.9793
-0.7133 -4.7831 -1.9792 0.9793
0.5766 -4.7947 -1.9765 0.9793
1.0014 -4.7230 -1.9760 0.9793
1.4181 -4.6142 -1.9757 0.9794
1.8236 -4.4692 -1.9756 0.9794
2.2148 -4.2892 -1.9757 0.9794
2.9424 -3.8295 -1.9765 0.9793
3.5786 -3.2490 -1.9782 0.9793
3.8561 -2.9188 -1.9793 0.9793
4.1037 -2.5652 -1.9807 0.9793
4.5010 -1.7987 -1.9838 0.9793
4.7578 -0.9729 -1.9876 0.9792
4.8306 -0.5455 -1.9896 0.9792
4.8615 0.3215 -1.9940 0.9792
4.8192 0.7544 -1.9964 0.9791
4.6198 1.6018 -2.0012 0.9791
4.4641 2.0096 -2.0036 0.9791
4.2724 2.4024 -2.0061 0.9790
4.0461 2.7770 -2.0085 0.9790
3.1783 3.7613 -2.0154 0.9789
2.0708 4.4698 -2.0162 0.9789
0.8173 4.8748 -2.0230 0.9789
0.3803 4.9377 -2.0269 0.9788
-0.0613 4.9556 -2.0284 0.9788
-0.5030 4.9324 -2.0292 0.9788
-1.3713 4.7670 -2.0301 0.9788
-2.1959 4.4479 -2.0302 0.9788
-2.5832 4.2339 -2.0299 0.9788
-4.5538 1.9160 -2.0220 0.9789
-4.7022 1.5011 -2.0202 0.9789
-1.9350 0.0799 -0.7926 0.9917
-4.6554 -1.5205 -2.0044 0.9791
-4.4959 -1.9270 -2.0020 0.9791
-4.3010 -2.3172 -1.9995 0.9791
-4.0725 -2.6881 -1.9971 0.9791
-3.8122 -3.0368 -1.9948 0.9792
-3.5223 -3.3606 -1.9925 0.9792
-2.8635 -3.9241 -1.9882 0.9792
-2.4999 -4.1595 -1.9862 0.9792
-2.1173 -4.3617 -1.9844 0.9793
0.4031 -4.8130 -1.9767 0.9793
2.0583 -4.3662 -1.9756 0.9794
2.4396 -4.1659 -1.9758 0.9794
2.8018 -3.9328 -1.9763 0.9793
3.7472 -3.0555 -1.9789 0.9793
4.5926 -1.5581 -1.9849 0.9793
4.7177 -1.1437 -1.9868 0.9792
4.8057 -0.7194 -1.9888 0.9792
4.8410 0.5795 -1.9954 0.9791
4.7757 1.0098 -1.9978 0.9791
4.6723 1.4332 -2.0002 0.9791
4.5315 1.8461 -2.0026 0.9791
3.6180 3.3291 -2.0122 0.9790
3.3106 3.6424 -2.0145 0.9790
2.9750 3.9258 -2.0160 0.9789
2.6126 4.1744 -2.0155 0.9789
2.2305 4.3912 -2.0158 0.9789
1.8313 4.5750 -2.0169 0.9789
0.5580 4.9167 -2.0252 0.9788
0.1178 4.9537 -2.0280 0.9788
-0.3244 4.9466 -2.0289 0.9788
-0.7642 4.8997 -2.0296 0.9788
-1.1981 4.8131 -2.0300 0.9788
-1.6225 4.6878 -2.0302 0.9788
-2.0339 4.5245 -2.0303 0.9788
-2.4287 4.3248 -2.0301 0.9788
-3.1563 3.8229 -2.0290 0.9788
-3.7813 3.1987 -2.0270 0.9788
-4.0488 2.8472 -2.0258 0.9788
-4.2834 2.4732 -2.0243 0.9788
-4.4832 2.0800 -2.0227 0.9789
-4.6466 1.6707 -2.0209 0.9789
-4.8172 -0.9280 -2.0078 0.9790
-4.5648 -1.7642 -2.0029 0.9791
-4.3841 -2.1614 -2.0005 0.9791
-3.9213 -2.8984 -1.9957 0.9791
-3.0047 -3.8197 -1.9890 0.9792
-2.6496 -4.0681 -1.9870 0.9792
-2.2743 -4.2840 -1.9851 0.9793
-1.8818 -4.4656 -1.9833 0.9793
-1.0574 -4.7215 -1.9803 0.9793
-0.2021 -4.8285 -1.9779 0.9793
0.2289 -4.8252 -1.9770 0.9793
1.8992 -4.4377 -1.9756 0.9794
2.6576 -4.0311 -1.9761 0.9793
3.0071 -3.7793 -1.9767 0.9793
3.6336 -3.1882 -1.9784 0.9793
4.3564 -2.1177 -1.9825 0.9793
4.5316 -1.7224 -1.9841 0.9793
4.6714 -1.3129 -1.9860 0.9792
4.7746 -0.8922 -1.9879 0.9792
4.8401 -0.4636 -1.9900 0.9792
4.8676 -0.0304 -1.9922 0.9792
4.8564 0.4040 -1.9945 0.9792
4.8068 0.8362 -1.9968 0.9791
4.7188 1.2628 -1.9992 0.9791
4.2320 2.4751 -2.0065 0.9790
3.9994 2.8458 -2.0089 0.9790
3.7342 3.1947 -2.0113 0.9790
3.4385 3.5188 -2.0136 0.9790
2.7618 4.0774 -2.0156 0.9789
2.3874 4.3072 -2.0155 0.9789
1.5867 4.6684 -2.0180 0.9789
0.7347 4.8895 -2.0236 0.9789
0.2966 4.9452 -2.0276 0.9788
-0.1454 4.9543 -2.0285 0.9788
-0.5866 4.9235 -2.0293 0.9788
-1.0233 4.8529 -2.0299 0.9788
-1.4520 4.7432 -2.0302 0.9788
-1.8690 4.5951 -2.0303 0.9788
-2.6546 4.1893 -2.0298 0.9788
-3.0165 3.9350 -2.0293 0.9788
-3.3540 3.6491 -2.0285 0.9788
-3.6641 3.3340 -2.0275 0.9788
-3.9443 2.9924 -2.0263 0.9788
-4.1925 2.6272 -2.0249 0.9788
-4.5849 1.8381 -2.0217 0.9789
-4.7261 1.4209 -2.0198 0.9789
-1.9558 0.2231 -0.8056 0.9915
-2.0008 -0.3109 -0.8287 0.9913
-4.7577 -1.1815 -2.0064 0.9790
-4.6279 -1.5989 -2.0039 0.9791
-4.4615 -2.0025 -2.0015 0.9791
-4.2601 -2.3893 -1.9991 0.9791
-4.0254 -2.7562 -1.9967 0.9791
-3.7593 -3.1003 -1.9943 0.9792
-3.4641 -3.4191 -1.9921 0.9792
-3.1421 -3.7102 -1.9899 0.9792
-2.0426 -4.3963 -1.9840 0.9793
-1.2277 -4.6816 -1.9808 0.9793
-0.8050 -4.7691 -1.9795 0.9793
-0.3766 -4.8191 -1.9783 0.9793
0.0544 -4.8311 -1.9774 0.9793
0.4846 -4.8052 -1.9766 0.9793
0.9107 -4.7415 -1.9761 0.9793
1.3294 -4.6407 -1.9757 0.9794
2.1321 -4.3308 -1.9756 0.9794
2.8682 -3.8849 -1.9764 0.9793
3.5152 -3.3167 -1.9780 0.9793
3.7989 -2.9918 -1.9791 0.9793
4.0531 -2.6430 -1.9804 0.9793
4.2757 -2.2730 -1.9818 0.9793
4.7373 -1.0637 -1.9871 0.9792
4.8611 -0.2062 -1.9913 0.9792
4.7590 1.0909 -1.9983 0.9791
4.3165 2.3194 -2.0055 0.9790
4.0976 2.6982 -2.0080 0.9790
3.5618 3.3907 -2.0127 0.9790
2.1559 4.4288 -2.0159 0.9789
1.7537 4.6062 -2.0172 0.9789
0.4747 4.9273 -2.0260 0.9788
0.0337 4.9554 -2.0282 0.9788
-1.2796 4.7923 -2.0301 0.9788
-1.7018 4.6596 -2.0303 0.9788
-2.1103 4.4893 -2.0302 0.9788
-2.5017 4.2829 -2.0300 0.9788
-3.2205 3.7685 -2.0288 0.9788
-3.5419 3.4649 -2.0279 0.9788
-4.5171 2.0033 -2.0224 0.9789
-4.6734 1.5913 -2.0206 0.9789
-4.7920 1.1674 -2.0186 0.9789
-1.9654 0.2965 -0.8135 0.9914
-1.9471 0.1179 -0.7984 0.9916
-1.9253 -0.0554 -0.7883 0.9917
-1.9547 -0.2318 -0.8056 0.9915
-4.7997 -1.0093 -2.0073 0.9790
-4.6849 -1.4313 -2.0049 0.9791
-4.3458 -2.2349 -2.0000 0.9791
-3.5870 -3.2932 -1.9930 0.9792
-3.2756 -3.5958 -1.9907 0.9792
-2.9389 -3.8693 -1.9886 0.9792
-2.2010 -4.3212 -1.9847 0.9793
-1.8055 -4.4962 -1.9830 0.9793
-1.3965 -4.6355 -1.9814 0.9793
-0.9771 -4.7382 -1.9800 0.9793
-0.5506 -4.8034 -1.9788 0.9793
-0.1202 -4.8308 -1.9777 0.9793
0.3107 -4.8202 -1.9769 0.9793
0.7388 -4.7718 -1.9763 0.9793
4.2834 1.6609 -2.0022 0.9802
4.1230 2.0384 -2.0045 0.9801
3.9294 2.4005 -2.0068 0.9801
2.5220 3.8816 -2.0174 0.9800
2.1680 4.0947 -2.0192 0.9800
1.4086 4.4208 -2.0221 0.9800
0.1893 4.6454 -2.0262 0.9799
-0.6390 4.6087 -2.0278 0.9799
-1.0474 4.5345 -2.0282 0.9799
-3.2120 3.3628 -2.0267 0.9799
-3.9804 2.3892 -2.0233 0.9799
-4.1745 2.0235 -2.0218 0.9800
-4.3347 1.6421 -2.0201 0.9800
-1.5633 0.4375 -0.7075 0.9929
-1.5271 0.1446 -0.6685 0.9933
-1.5234 0.0078 -0.6639 0.9934
-1.5026 -0.2631 -0.6648 0.9934
-4.1521 -1.9602 -2.0011 0.9802
-3.9563 -2.3198 -1.9988 0.9802
-3.7297 -2.6602 -1.9965 0.9802
-3.1912 -3.2730 -1.9922 0.9803
-2.8839 -3.5408 -1.9902 0.9803
-2.5543 -3.7801 -1.9883 0.9803
-1.4596 -4.3102 -1.9832 0.9803
-1.0689 -4.4200 -1.9819 0.9804
-0.6703 -4.4949 -1.9806 0.9804
-0.2669 -4.5344 -1.9796 0.9804
0.5419 -4.5062 -1.9780 0.9804
0.9412 -4.4389 -1.9776 0.9804
1.3329 -4.3367 -1.9773 0.9804
1.7140 -4.2005 -1.9772 0.9804
2.0816 -4.0312 -1.9773 0.9804
2.4330 -3.8303 -1.9776 0.9804
2.7654 -3.5991 -1.9781 0.9804
3.0763 -3.3395 -1.9788 0.9804
3.3632 -3.0534 -1.9797 0.9804
3.6239 -2.7430 -1.9807 0.9804
4.2293 -1.6902 -1.9849 0.9803
4.4701 -0.9140 -1.9885 0.9803
4.5382 -0.5125 -1.9904 0.9803
4.5705 -0.1061 -1.9924 0.9802
4.5666 0.3020 -1.9946 0.9802
4.5265 0.7086 -1.9968 0.9802
4.4504 1.1104 -1.9990 0.9802
4.3386 1.5043 -2.0013 0.9802
4.1921 1.8872 -2.0036 0.9801
3.7990 2.6074 -2.0081 0.9801
3.5555 2.9389 -2.0104 0.9801
2.9835 3.5309 -2.0146 0.9800
2.6596 3.7865 -2.0166 0.9800
1.9483 4.2055 -2.0200 0.9800
1.1727 4.4922 -2.0234 0.9799
0.7682 4.5818 -2.0247 0.9799
-0.0576 4.6502 -2.0268 0.9799
-0.4719 4.6283 -2.0275 0.9799
-0.8828 4.5690 -2.0281 0.9799
-1.2867 4.4729 -2.0284 0.9799
-2.0605 4.1736 -2.0285 0.9799
-2.4239 3.9728 -2.0282 0.9799
-2.7677 3.7400 -2.0277 0.9799
-3.0889 3.4773 -2.0270 0.9799
-3.3851 3.1867 -2.0261 0.9799
-3.6537 2.8708 -2.0251 0.9799
-3.8926 2.5322 -2.0238 0.9799
-4.0999 2.1737 -2.0224 0.9800
-4.2739 1.7982 -2.0208 0.9800
-1.5260 0.3409 -0.6814 0.9932
-1.5289 0.0632 -0.6669 0.9933
-1.5293 -0.0734 -0.6673 0.9933
-1.5313 -0.3528 -0.6848 0.9932
-1.5853 -0.5178 -0.7268 0.9927
-4.2221 -1.8097 -2.0020 0.9802
-3.3088 -3.1569 -1.9931 0.9802
-3.0112 -3.4357 -1.9910 0.9803
-2.3488 -3.9082 -1.9872 0.9803
-1.9894 -4.0984 -1.9855 0.9803
-1.2283 -4.3797 -1.9824 0.9803
-0.8325 -4.4689 -1.9811 0.9804
-0.4307 -4.5227 -1.9800 0.9804
-0.0259 -4.5409 -1.9791 0.9804
0.3788 -4.5235 -1.9783 0.9804
0.7802 -4.4704 -1.9777 0.9804
1.1753 -4.3823 -1.9774 0.9804
1.5611 -4.2597 -1.9772 0.9804
2.2928 -3.9154 -1.9774 0.9804
2.6333 -3.6962 -1.9779 0.9804
3.2500 -3.1723 -1.9793 0.9804
3.5216 -2.8715 -1.9803 0.9804
4.1641 -1.8413 -1.9843 0.9803
4.3152 -1.4640 -1.9859 0.9803
4.4325 -1.0746 -1.9877 0.9803
4.5149 -0.6759 -1.9896 0.9803
4.5618 -0.2711 -1.9916 0.9803
4.5726 0.1367 -1.9937 0.9802
4.4855 0.9484 -1.9981 0.9802
4.3881 1.3460 -2.0004 0.9802
4.2555 1.7337 -2.0026 0.9801
4.0888 2.1085 -2.0049 0.9801
3.6577 2.8072 -2.0095 0.9801
3.1079 3.4194 -2.0138 0.9800
2.4563 3.9246 -2.0178 0.9800
0.9330 4.5499 -2.0242 0.9799
0.5241 4.6177 -2.0254 0.9799
-0.3044 4.6416 -2.0273 0.9799
-1.1242 4.5162 -2.0283 0.9799
-1.5224 4.3986 -2.0285 0.9799
-1.9084 4.2454 -2.0286 0.9799
-4.0198 2.3211 -2.0230 0.9799
-1.5955 0.5736 -0.7389 0.9926
-1.5525 0.4062 -0.6994 0.9930
-1.5057 0.2533 -0.6654 0.9934
-1.5290 0.1186 -0.6683 0.9933
-1.5260 -0.1548 -0.6685 0.9933
-1.5673 -0.4499 -0.7106 0.9929
-4.1173 -2.0299 -2.0006 0.9802
-3.6832 -2.7225 -1.9961 0.9802
-3.4222 -3.0366 -1.9940 0.9802
-2.8229 -3.5885 -1.9898 0.9803
-2.4894 -3.8222 -1.9879 0.9803
-1.7682 -4.1961 -1.9845 0.9803
-1.3861 -4.3337 -1.9830 0.9803
-0.9937 -4.4370 -1.9816 0.9804
-0.5940 -4.5052 -1.9804 0.9804
-0.1900 -4.5379 -1.9794 0.9804
0.2151 -4.5348 -1.9786 0.9804
1.0163 -4.4222 -1.9775 0.9804
1.4062 -4.3134 -1.9772 0.9804
2.1497 -3.9954 -1.9773 0.9804
2.8262 -3.5519 -1.9782 0.9804
3.4148 -2.9962 -1.9799 0.9804
3.6703 -2.6814 -1.9810 0.9804
3.8971 -2.3451 -1.9822 0.9803
4.0936 -1.9899 -1.9837 0.9803
4.4858 -0.8383 -1.9888 0.9803
4.5618 0.3795 -1.9950 0.9802
4.4318 1.1860 -1.9994 0.9802
4.3134 1.5780 -2.0017 0.9802
4.1604 1.9584 -2.0040 0.9801
3.5058 2.9994 -2.0108 0.9801
2.9238 3.5817 -2.0150 0.9800
2.5955 3.8318 -2.0170 0.9800
1.8769 4.2383 -2.0201 0.9800
1.4928 4.3921 -2.0217 0.9800
1.0965 4.5120 -2.0237 0.9799
0.2783 4.6405 -2.0260 0.9799
-0.1364 4.6489 -2.0269 0.9799
-1.3624 4.4505 -2.0285 0.9799
-1.7537 4.3116 -2.0286 0.9799
-2.1309 4.1379 -2.0285 0.9799
-3.4383 3.1286 -2.0260 0.9799
-3.7014 2.8082 -2.0248 0.9799
-4.1356 2.1035 -2.0221 0.9800
-1.5117 0.3109 -0.6726 0.9933
-1.5270 0.0371 -0.6657 0.9934
-1.5296 -0.0994 -0.6680 0.9933
-1.5439 -0.3834 -0.6933 0.9931
-1.5917 -0.5499 -0.7339 0.9927
-4.0011 -2.2440 -1.9993 0.9802
-3.7809 -2.5888 -1.9970 0.9802
-3.5313 -2.9122 -1.9948 0.9802
-3.2542 -3.2119 -1.9927 0.9802
-2.9519 -3.4856 -1.9906 0.9803
-1.1537 -4.3994 -1.9821 0.9804
-0.7565 -4.4818 -1.9809 0.9804
0.4554 -4.5161 -1.9782 0.9804
0.8559 -4.4563 -1.9776 0.9804
1.2495 -4.3616 -1.9773 0.9804
1.6331 -4.2326 -1.9772 0.9804
2.6957 -3.6513 -1.9780 0.9804
3.0114 -3.3976 -1.9786 0.9804
3.3036 -3.1170 -1.9795 0.9804
3.8088 -2.4838 -1.9817 0.9804
4.1954 -1.7707 -1.9846 0.9803
4.3401 -1.3909 -1.9863 0.9803
4.4509 -0.9994 -1.9881 0.9803
4.5666 -0.1937 -1.9920 0.9803
4.5705 0.2143 -1.9941 0.9802
4.5382 0.6215 -1.9963 0.9802
4.4697 1.0246 -1.9985 0.9802
4.3656 1.4205 -2.0008 0.9802
4.0533 2.1780 -2.0054 0.9801
3.3439 3.1833 -2.0121 0.9801
2.7312 3.7340 -2.0162 0.9800
2.0284 4.1669 -2.0198 0.9800
0.8558 4.5656 -2.0244 0.9799
0.0317 4.6500 -2.0266 0.9799
-0.7950 4.5849 -2.0280 0.9799
-1.2007 4.4967 -2.0284 0.9799
-1.5968 4.3721 -2.0286 0.9799
-1.9801 4.2124 -2.0285 0.9799
-2.6956 3.7926 -2.0278 0.9799
-3.0219 3.5362 -2.0272 0.9799
-3.5984 2.9408 -2.0253 0.9799
-3.8438 2.6068 -2.0241 0.9799
-4.2394 1.8802 -2.0212 0.9800
-1.5901 0.5414 -0.7321 0.9927
-1.5407 0.3753 -0.6911 0.9931
-1.5126 0.2282 -0.6667 0.9933
-1.5276 -0.0440 -0.6660 0.9934
-1.5156 -0.3187 -0.6750 0.9933
-4.2571 -1.7288 -2.0025 0.9802
-3.0772 -3.3780 -1.9915 0.9803
-2.7611 -3.6352 -1.9895 0.9803
-2.4238 -3.8632 -1.9876 0.9803
-2.0680 -4.0602 -1.9858 0.9803
-1.3123 -4.3560 -1.9827 0.9803
-0.9182 -4.4527 -1.9814 0.9804
0.6944 -4.4848 -1.9778 0.9804
4.0330 1.5638 -2.0022 0.9811
3.8817 1.9191 -2.0044 0.9811
3.4868 2.5832 -2.0087 0.9811
3.2460 2.8867 -2.0107 0.9810
2.9788 3.1677 -2.0127 0.9810
1.6900 4.0231 -2.0199 0.9809
1.3257 4.1607 -2.0214 0.9809
0.9502 4.2651 -2.0227 0.9809
0.5667 4.3354 -2.0238 0.9809
-0.2122 4.3710 -2.0257 0.9809
-0.6011 4.3360 -2.0263 0.9809
-1.3619 4.1618 -2.0270 0.9809
-1.7274 4.0240 -2.0270 0.9809
-2.0790 3.8538 -2.0269 0.9809
-3.0221 3.1640 -2.0253 0.9809
-3.9281 1.9041 -2.0206 0.9809
-1.3318 0.5045 -0.6592 0.9937
-1.3141 0.2441 -0.6187 0.9941
-1.3370 0.1266 -0.6216 0.9941
-1.3341 0.0069 -0.6176 0.9941
-1.3379 -0.1128 -0.6215 0.9941
-1.3329 -0.4893 -0.6572 0.9938
-3.9094 -1.8456 -2.0011 0.9811
-3.7254 -2.1844 -1.9990 0.9811
-2.7162 -3.3349 -1.9909 0.9812
-2.4060 -3.5605 -1.9891 0.9812
-1.3751 -4.0604 -1.9844 0.9813
-0.6316 -4.2348 -1.9819 0.9813
0.1302 -4.2758 -1.9801 0.9813
0.8868 -4.1824 -1.9790 0.9813
1.6149 -3.9578 -1.9786 0.9813
2.6056 -3.3911 -1.9795 0.9813
2.8984 -3.1464 -1.9802 0.9813
3.6330 -2.2710 -1.9832 0.9813
3.9841 -1.5921 -1.9860 0.9813
4.1134 -1.2317 -1.9876 0.9813
4.2743 -0.4827 -1.9911 0.9812
4.3045 -0.0999 -1.9930 0.9812
4.1905 1.0456 -1.9992 0.9811
4.0851 1.4164 -2.0014 0.9811
3.7768 2.1238 -2.0057 0.9811
3.3468 2.7664 -2.0099 0.9810
3.0900 3.0568 -2.0119 0.9810
2.1774 3.7759 -2.0176 0.9810
1.8337 3.9582 -2.0192 0.9810
1.4748 4.1090 -2.0208 0.9809
1.1035 4.2269 -2.0222 0.9809
-0.4440 4.3544 -2.0261 0.9809
-0.8306 4.2986 -2.0266 0.9809
-1.2106 4.2082 -2.0269 0.9809
-1.5809 4.0838 -2.0270 0.9809
-1.9385 3.9265 -2.0270 0.9809
-2.2805 3.7376 -2.0267 0.9809
-2.6039 3.5187 -2.0262 0.9809
-3.4378 2.7012 -2.0237 0.9809
-3.6627 2.3827 -2.0226 0.9809
-3.8579 2.0454 -2.0212 0.9809
-1.3249 0.5574 -0.6653 0.9937
-1.3304 0.1746 -0.6211 0.9941
-1.3379 0.0553 -0.6198 0.9941
-1.3015 -0.2999 -0.6182 0.9941
-1.3314 -0.4349 -0.6483 0.9938
-3.8035 -2.0492 -1.9999 0.9811
-3.6019 -2.3775 -1.9977 0.9812
-3.1162 -2.9731 -1.9936 0.9812
-2.2125 -3.6813 -1.9881 0.9812
-1.5213 -4.0092 -1.9849 0.9813
-0.7843 -4.2102 -1.9824 0.9813
-0.4058 -4.2610 -1.9813 0.9813
-0.0244 -4.2783 -1.9804 0.9813
0.3569 -4.2619 -1.9797 0.9813
0.7351 -4.2121 -1.9792 0.9813
1.1074 -4.1290 -1.9788 0.9813
1.4709 -4.0136 -1.9787 0.9813
1.8228 -3.8666 -1.9787 0.9813
2.7824 -3.2486 -1.9799 0.9813
3.0620 -2.9888 -1.9806 0.9813
3.3178 -2.7053 -1.9816 0.9813
3.7498 -2.0758 -1.9839 0.9813
4.2525 -0.6366 -1.9904 0.9812
4.2821 0.5126 -1.9963 0.9812
4.2238 0.8931 -1.9983 0.9812
3.8494 1.9850 -2.0048 0.9811
3.4431 2.6425 -2.0091 0.9811
