ply
format ascii 1.0
element vertex 1587
property float32 x
property float32 y
property float32 z
property float32 I
end_header
-12.1015 1.7357 -2.0140 0.9516
-12.1605 0.6469 -2.0061 0.9518
-11.9883 -1.5123 -1.9906 0.9522
-11.4422 -3.5911 -1.9756 0.9525
-11.0363 -4.5808 -1.9685 0.9527
-9.9791 -6.4252 -1.9552 0.9530
-8.6270 -8.0478 -1.9436 0.9533
-7.0244 -9.4052 -1.9339 0.9535
-5.2210 -10.4626 -1.9263 0.9537
-1.2275 -11.5799 -1.9183 0.9539
-0.1897 -11.6407 -1.9179 0.9539
1.8827 -11.4958 -1.9190 0.9539
5.8133 -10.1628 -1.9288 0.9536
7.5592 -9.0072 -1.9371 0.9534
9.7559 -6.7411 -1.9535 0.9531
11.3077 -3.9580 -1.9736 0.9526
11.2155 -0.7724 -1.8520 0.9554
12.0174 2.4258 -2.0197 0.9515
10.5640 6.5708 -2.0495 0.9508
7.6897 9.9674 -2.0739 0.9502
4.4399 10.8271 -1.9278 0.9537
3.4612 11.1951 -1.9304 0.9536
1.4194 11.6515 -1.9336 0.9535
0.3746 11.7351 -1.9342 0.9535
-3.7437 11.0981 -1.9295 0.9536
-5.6374 10.2225 -1.9231 0.9538
-6.5128 9.6583 -1.9190 0.9539
-7.3305 9.0170 -1.9144 0.9540
-9.4878 8.1480 -2.0603 0.9506
-10.7144 6.2913 -2.0469 0.9509
-11.5780 4.2567 -2.0322 0.9512
-12.0578 2.1156 -2.0167 0.9516
-12.0459 -1.1387 -1.9933 0.9521
-11.8507 -2.2001 -1.9856 0.9523
-10.7274 -5.2019 -1.9640 0.9528
-9.5698 -6.9794 -1.9513 0.9531
-8.8828 -7.7821 -1.9455 0.9533
-8.1311 -8.5201 -1.9402 0.9534
-7.3206 -9.1887 -1.9354 0.9535
-6.4576 -9.7834 -1.9311 0.9536
-5.5485 -10.3006 -1.9274 0.9537
-3.6194 -11.0901 -1.9218 0.9538
-2.6132 -11.3575 -1.9199 0.9539
1.5225 -11.5467 -1.9187 0.9539
2.5481 -11.3725 -1.9200 0.9539
3.5558 -11.1110 -1.9219 0.9538
4.5387 -10.7637 -1.9244 0.9537
5.4896 -10.3328 -1.9275 0.9537
9.5303 -7.0348 -1.9514 0.9531
10.1520 -6.1763 -1.9576 0.9530
10.6983 -5.2638 -1.9642 0.9528
11.5460 -3.3028 -1.9784 0.9525
11.8236 0.9317 -1.9538 0.9531
11.2243 5.2280 -2.0398 0.9510
10.1869 7.1885 -2.0539 0.9507
9.5352 8.0940 -2.0604 0.9506
8.8011 8.9385 -2.0665 0.9504
5.6962 10.1904 -1.9232 0.9538
2.9296 8.5228 -1.4847 0.9641
1.7822 11.5993 -1.9333 0.9535
-0.2928 11.1872 -1.8436 0.9556
-1.3086 11.2809 -1.8709 0.9550
-3.3968 11.2145 -1.9304 0.9536
-4.3775 10.8519 -1.9277 0.9537
-5.3190 10.4005 -1.9244 0.9537
-6.2129 9.8646 -1.9205 0.9538
-7.8281 8.5615 -1.9111 0.9541
-9.2223 8.4343 -2.0588 0.9506
-10.5253 6.6308 -2.0493 0.9508
-11.0363 5.6459 -2.0422 0.9510
-12.0021 2.4945 -2.0195 0.9515
-12.1295 1.4085 -2.0116 0.9517
-12.1592 0.3198 -2.0038 0.9519
-12.0920 -0.7630 -1.9960 0.9521
-11.9296 -1.8314 -1.9883 0.9522
-11.3292 -3.8927 -1.9735 0.9526
-10.3845 -5.8030 -1.9597 0.9529
-9.1307 -7.5085 -1.9475 0.9532
-8.4010 -8.2697 -1.9420 0.9533
-7.6103 -8.9631 -1.9370 0.9535
-6.7649 -9.5841 -1.9326 0.9536
-5.8712 -10.1288 -1.9287 0.9536
-4.9359 -10.5938 -1.9253 0.9537
-2.9675 -11.2738 -1.9205 0.9538
-1.9487 -11.4847 -1.9190 0.9539
-0.9161 -11.6075 -1.9182 0.9539
2.1911 -11.4434 -1.9194 0.9539
3.2059 -11.2123 -1.9211 0.9538
4.1983 -10.8948 -1.9234 0.9538
5.1611 -10.4928 -1.9264 0.9537
6.0875 -10.0089 -1.9299 0.9536
6.9707 -9.4459 -1.9340 0.9535
8.5813 -8.0978 -1.9437 0.9533
9.2961 -7.3212 -1.9493 0.9532
10.5161 -5.5886 -1.9619 0.9529
11.7468 -2.6335 -1.9832 0.9524
11.1153 -1.4670 -1.8470 0.9556
11.2454 -0.4716 -1.8542 0.9554
11.5197 0.5465 -1.8999 0.9543
12.1125 1.6664 -2.0142 0.9516
11.9618 2.7507 -2.0220 0.9515
11.7132 3.8212 -2.0297 0.9513
11.3678 4.8687 -2.0372 0.9511
10.9272 5.8843 -2.0446 0.9509
9.0668 8.6506 -2.0644 0.9505
8.2821 9.4511 -2.0702 0.9503
6.4813 10.7894 -2.0735 0.9503
5.1013 10.5167 -1.9256 0.9537
0.0594 11.7411 -1.9342 0.9535
-0.9857 11.6720 -1.9297 0.9536
-4.9948 10.5682 -1.9256 0.9537
-6.7650 9.4733 -1.9177 0.9539
-7.5641 8.8101 -1.9129 0.9540
-9.6941 7.8830 -2.0584 0.9506
-10.3252 6.9644 -2.0517 0.9508
-10.8680 5.9951 -2.0447 0.9509
-11.9344 2.8719 -2.0222 0.9515
-12.0961 1.7891 -2.0144 0.9516
-11.9971 -1.4600 -1.9910 0.9522
-11.7739 -2.5146 -1.9834 0.9524
-11.4599 -3.5415 -1.9760 0.9525
-10.5730 -5.4824 -1.9620 0.9529
-10.0088 -6.3824 -1.9556 0.9530
-9.3704 -7.2272 -1.9495 0.9532
-7.0664 -9.3754 -1.9341 0.9535
-5.2673 -10.4405 -1.9264 0.9537
-1.2783 -11.5746 -1.9184 0.9539
3.8542 -11.0155 -1.9226 0.9538
4.8282 -10.6428 -1.9253 0.9537
6.6672 -9.6516 -1.9325 0.9536
8.3163 -8.3538 -1.9419 0.9533
10.3244 -5.9074 -1.9596 0.9529
10.8471 -4.9799 -1.9663 0.9528
11.2882 -4.0068 -1.9733 0.9526
11.0492 -1.8109 -1.8445 0.9556
11.2824 0.1825 -1.8589 0.9553
12.0256 2.3727 -2.0193 0.9515
11.4995 4.5056 -2.0346 0.9512
11.0919 5.5334 -2.0420 0.9510
10.5910 6.5233 -2.0492 0.9508
9.3229 8.3547 -2.0623 0.9505
4.4870 10.8067 -1.9276 0.9537
3.5101 11.1792 -1.9303 0.9536
2.5015 11.4595 -1.9323 0.9536
0.4260 11.7333 -1.9342 0.9535
-0.5770 10.8729 -1.7937 0.9568
-1.5710 10.9631 -1.8245 0.9561
-3.6953 11.1151 -1.9296 0.9536
-4.6651 10.7254 -1.9268 0.9537
-5.5931 10.2481 -1.9233 0.9538
-6.4711 9.6878 -1.9193 0.9539
-8.0484 8.3413 -1.9095 0.9541
-10.6885 6.3393 -2.0472 0.9509
-11.5614 4.3082 -2.0326 0.9512
-12.1487 1.0811 -2.0093 0.9518
-12.1491 -0.0067 -2.0014 0.9519
-12.0531 -1.0861 -1.9937 0.9521
-11.2084 -4.1909 -1.9713 0.9526
-10.7519 -5.1557 -1.9644 0.9528
-8.1694 -8.4855 -1.9404 0.9534
-6.5010 -9.7560 -1.9313 0.9536
-5.5941 -10.2771 -1.9276 0.9537
-3.6682 -11.0747 -1.9219 0.9538
-1.6393 -11.5309 -1.9187 0.9539
-0.6041 -11.6271 -1.9180 0.9539
0.4354 -11.6345 -1.9180 0.9539
1.4719 -11.5530 -1.9186 0.9539
2.4981 -11.3831 -1.9199 0.9539
4.4911 -10.7827 -1.9243 0.9538
6.3579 -9.8478 -1.9310 0.9536
7.2268 -9.2618 -1.9353 0.9535
8.0439 -8.6015 -1.9401 0.9534
8.8030 -7.8711 -1.9454 0.9533
10.1232 -6.2197 -1.9573 0.9530
11.5293 -3.3528 -1.9780 0.9525
11.1636 -1.1694 -1.8491 0.9555
11.7799 0.8763 -1.9460 0.9532
11.8973 3.0744 -2.0243 0.9514
11.6195 4.1389 -2.0320 0.9512
10.2166 7.1426 -2.0536 0.9507
9.5691 8.0509 -2.0601 0.9506
7.1538 10.3806 -2.0769 0.9502
5.7403 10.1644 -1.9230 0.9538
2.8572 11.3722 -1.9317 0.9536
1.8330 11.5910 -1.9332 0.9535
-1.2645 11.3344 -1.8788 0.9548
-3.3479 11.2299 -1.9305 0.9536
-7.0118 9.2816 -1.9163 0.9539
-7.7915 8.5969 -1.9114 0.9541
-9.1823 8.4720 -2.0582 0.9506
-10.4978 6.6779 -2.0497 0.9508
-11.0134 5.6952 -2.0426 0.9510
-11.9933 2.5476 -2.0199 0.9515
-12.1600 0.3731 -2.0042 0.9519
-11.9397 -1.7795 -1.9887 0.9522
-11.6889 -2.8266 -1.9811 0.9524
-10.9210 -4.8233 -1.9668 0.9528
-10.4115 -5.7584 -1.9600 0.9529
-9.1648 -7.4695 -1.9477 0.9532
-4.9826 -10.5729 -1.9255 0.9537
-4.0140 -10.9595 -1.9227 0.9538
-1.9990 -11.4763 -1.9191 0.9539
0.0718 -11.6420 -1.9179 0.9539
3.1566 -11.2257 -1.9210 0.9538
5.1147 -10.5145 -1.9262 0.9537
6.0430 -10.0345 -1.9297 0.9536
6.9285 -9.4754 -1.9337 0.9535
7.7644 -8.8406 -1.9383 0.9534
8.5445 -8.1342 -1.9435 0.9533
9.2626 -7.3608 -1.9491 0.9532
10.9885 -4.6919 -1.9683 0.9527
11.7330 -2.6844 -1.9828 0.9524
11.1066 -1.5154 -1.8467 0.9556
11.4783 0.4941 -1.8927 0.9545
11.9714 2.6978 -2.0216 0.9515
11.3870 4.8180 -2.0369 0.9511
10.4226 6.8122 -2.0512 0.9508
9.8052 7.7398 -2.0579 0.9506
8.3223 9.4135 -2.0699 0.9503
7.4684 10.1439 -2.0752 0.9502
5.1468 10.4933 -1.9254 0.9537
0.9195 10.1900 -1.9231 0.9592
0.0069 10.2329 -1.9234 0.9592
-4.3956 9.1959 -1.9158 0.9594
-5.9380 8.2386 -1.9088 0.9595
-6.6345 7.6593 -1.9046 0.9596
-7.8462 7.5726 -2.0496 0.9566
-8.4959 6.8470 -2.0509 0.9566
-9.5216 5.1981 -2.0390 0.9568
-10.6553 0.5668 -2.0056 0.9575
-10.6270 -0.3845 -1.9988 0.9576
-10.5145 -1.3264 -1.9920 0.9578
-10.0448 -3.1525 -1.9788 0.9581
-9.6928 -4.0231 -1.9726 0.9582
-9.2671 -4.8568 -1.9666 0.9583
-8.7715 -5.6477 -1.9609 0.9584
-8.2104 -6.3901 -1.9555 0.9585
-5.4095 -8.7802 -1.9384 0.9589
0.7484 -10.2308 -1.9281 0.9591
1.6586 -10.1273 -1.9289 0.9591
2.5571 -9.9459 -1.9302 0.9591
4.2931 -9.3542 -1.9345 0.9590
5.1181 -8.9476 -1.9375 0.9589
6.6518 -7.9260 -1.9449 0.9588
8.5762 -5.9259 -1.9594 0.9585
9.0965 -5.1520 -1.9650 0.9583
9.5484 -4.3331 -1.9709 0.9582
9.9279 -3.4751 -1.9771 0.9581
10.2315 -2.5841 -1.9835 0.9580
10.4560 -1.6667 -1.9901 0.9578
10.6581 0.2191 -2.0037 0.9575
10.3243 3.0640 -2.0242 0.9571
10.0426 3.9857 -2.0308 0.9570
9.6777 4.8810 -2.0373 0.9568
9.2318 5.7421 -2.0435 0.9567
8.7078 6.5615 -2.0494 0.9566
6.7098 8.6973 -2.0647 0.9563
4.6909 9.0438 -1.9149 0.9594
3.0173 9.7594 -1.9201 0.9593
1.2371 10.1550 -1.9229 0.9592
-1.4953 10.1183 -1.9225 0.9592
-2.3902 9.9378 -1.9212 0.9593
-4.1084 9.3335 -1.9168 0.9593
-4.9168 8.9157 -1.9137 0.9594
-5.6818 8.4260 -1.9102 0.9595
-7.0591 7.2522 -1.9023 0.9596
-9.3646 5.4988 -2.0412 0.9568
-9.7875 4.6273 -2.0349 0.9569
-10.1287 3.7239 -2.0284 0.9570
-10.3861 2.7964 -2.0217 0.9572
-10.6452 0.9003 -2.0080 0.9575
-10.5633 -0.9986 -1.9943 0.9577
-10.3970 -1.9303 -1.9876 0.9579
-10.1498 -2.8405 -1.9811 0.9580
-9.8244 -3.7225 -1.9747 0.9581
-8.9525 -5.3763 -1.9628 0.9584
-8.4138 -6.1363 -1.9574 0.9585
-7.8125 -6.8445 -1.9523 0.9586
-4.8855 -9.0697 -1.9363 0.9589
-2.3020 -10.0049 -1.9297 0.9591
1.3413 -10.1724 -1.9286 0.9591
2.2446 -10.0181 -1.9297 0.9591
3.1320 -9.7866 -1.9314 0.9590
4.8335 -9.0979 -1.9364 0.9589
6.3964 -8.1239 -1.9435 0.9588
7.1110 -7.5374 -1.9477 0.9587
8.3790 -6.1849 -1.9575 0.9585
9.8037 -3.7792 -1.9749 0.9581
10.5583 -1.0593 -1.9945 0.9577
10.6511 0.8393 -2.0082 0.9574
10.5698 1.7921 -2.0151 0.9573
9.3967 5.4453 -2.0413 0.9568
8.8997 6.2802 -2.0474 0.9566
8.3270 7.0685 -2.0530 0.9565
7.6831 7.8030 -2.0583 0.9564
6.9728 8.4771 -2.0631 0.9563
5.2945 9.4717 -2.0396 0.9568
4.1621 9.3101 -1.9168 0.9593
2.9199 8.4946 -1.6883 0.9641
2.4472 9.9241 -1.9212 0.9593
1.5533 10.1098 -1.9225 0.9592
-2.9612 9.7763 -1.9200 0.9593
-6.1531 8.0711 -1.9076 0.9595
-6.8329 7.4731 -1.9033 0.9596
-9.1980 5.7946 -2.0433 0.9567
-10.5079 2.1839 -2.0173 0.9573
-10.6246 1.2338 -2.0104 0.9574
-10.6019 -0.6690 -1.9967 0.9577
-10.4645 -1.6065 -1.9900 0.9578
-9.9469 -3.4177 -1.9769 0.9581
-9.5724 -4.2779 -1.9707 0.9582
-9.1252 -5.0993 -1.9648 0.9583
-8.6095 -5.8762 -1.9592 0.9585
-8.0296 -6.6030 -1.9540 0.9586
-7.3904 -7.2749 -1.9492 0.9587
-6.6969 -7.8873 -1.9448 0.9588
-4.3466 -9.3290 -1.9345 0.9590
-3.4928 -9.6675 -1.9321 0.9590
-2.6140 -9.9308 -1.9302 0.9591
-1.7167 -10.1175 -1.9289 0.9591
1.0229 -10.2079 -1.9283 0.9591
1.9302 -10.0809 -1.9292 0.9591
2.8239 -9.8763 -1.9307 0.9591
3.6975 -9.5952 -1.9328 0.9590
4.5446 -9.2395 -1.9354 0.9590
5.3592 -8.8115 -1.9385 0.9589
6.1352 -8.3138 -1.9421 0.9588
6.8667 -7.7497 -1.9462 0.9587
8.7395 -5.6983 -1.9610 0.9584
9.2397 -4.9103 -1.9667 0.9583
10.0273 -3.2104 -1.9790 0.9581
10.3074 -2.3108 -1.9855 0.9579
10.5076 -1.3868 -1.9921 0.9578
10.6079 1.4594 -2.0127 0.9574
10.4709 2.4079 -2.0195 0.9572
9.9416 4.2579 -2.0328 0.9569
8.5356 6.7986 -2.0511 0.9566
6.4780 8.8800 -2.0660 0.9562
5.6644 9.4294 -2.0676 0.9562
2.7551 9.8398 -1.9206 0.9593
0.9641 10.1857 -1.9231 0.9592
0.0518 10.2327 -1.9234 0.9592
-0.8610 10.1950 -1.9231 0.9592
-2.6554 9.8674 -1.9207 0.9593
-3.5211 9.5808 -1.9186 0.9593
-5.1516 8.7759 -1.9127 0.9594
-5.9024 8.2654 -1.9090 0.9595
-6.6016 7.6891 -1.9049 0.9596
-7.8108 7.6048 -2.0490 0.9566
-8.4669 6.8851 -2.0512 0.9566
-9.0218 6.0852 -2.0454 0.9567
-9.5002 5.2406 -2.0393 0.9568
-9.8988 4.3587 -2.0330 0.9569
-10.4468 2.5140 -2.0197 0.9572
-10.5935 1.5668 -2.0128 0.9574
-10.6545 0.6136 -2.0060 0.9575
-10.5219 -1.2805 -1.9923 0.9578
-10.0601 -3.1090 -1.9791 0.9580
-9.7118 -3.9812 -1.9729 0.9582
-8.7973 -5.6100 -1.9612 0.9584
-6.2194 -8.2516 -1.9422 0.9588
-5.4484 -8.7571 -1.9386 0.9589
-4.6381 -9.1934 -1.9354 0.9590
-3.7945 -9.5576 -1.9328 0.9590
-2.9238 -9.8474 -1.9308 0.9591
-2.0322 -10.0610 -1.9293 0.9591
-0.2121 -10.2549 -1.9279 0.9591
0.7035 -10.2338 -1.9281 0.9591
1.6142 -10.1342 -1.9288 0.9591
2.5133 -9.9566 -1.9302 0.9591
3.3947 -9.7021 -1.9320 0.9590
5.0785 -8.9692 -1.9373 0.9589
5.8686 -8.4955 -1.9408 0.9588
7.9618 -6.6836 -1.9539 0.9586
8.5490 -5.9626 -1.9591 0.9585
9.0725 -5.1911 -1.9647 0.9583
9.9111 -3.5180 -1.9768 0.9581
10.2184 -2.6285 -1.9832 0.9580
10.4468 -1.7122 -1.9898 0.9578
10.6356 1.1261 -2.0103 0.9574
10.3359 3.0182 -2.0239 0.9571
9.6975 4.8378 -2.0370 0.9569
8.1407 7.2953 -2.0546 0.9565
7.4763 8.0123 -2.0598 0.9564
6.7472 8.6669 -2.0645 0.9563
4.7301 9.0225 -1.9148 0.9594
1.2815 10.1493 -1.9228 0.9592
0.3713 10.2259 -1.9233 0.9592
-2.3467 9.9486 -1.9213 0.9593
-3.2215 9.6901 -1.9194 0.9593
-4.8781 8.9380 -1.9139 0.9594
-9.7686 4.6708 -2.0352 0.9569
-10.1139 3.7687 -2.0287 0.9570
-10.3754 2.8423 -2.0220 0.9572
-10.6484 -0.0059 -2.0015 0.9576
-10.1638 -2.7965 -1.9814 0.9580
-9.4454 -4.5292 -1.9689 0.9583
-8.4417 -6.1002 -1.9576 0.9585
-7.8434 -6.8110 -1.9525 0.9586
-6.4786 -8.0591 -1.9436 0.9588
-5.7227 -8.5881 -1.9398 0.9589
-4.9256 -9.0489 -1.9365 0.9589
-1.4442 -10.1584 -1.9286 0.9591
-0.5322 -10.2436 -1.9280 0.9591
0.3836 -10.2502 -1.9280 0.9591
1.2967 -10.1780 -1.9285 0.9591
3.9552 -9.4960 -1.9335 0.9590
6.3601 -8.1510 -1.9433 0.9588
7.7424 -6.9228 -1.9522 0.9586
8.3507 -6.2208 -1.9572 0.9585
8.8970 -5.4663 -1.9627 0.9584
9.3767 -4.6647 -1.9685 0.9583
9.7855 -3.8215 -1.9746 0.9581
10.1198 -2.9429 -1.9809 0.9580
10.3761 -2.0352 -1.9875 0.9579
10.5518 -1.1053 -1.9942 0.9577
10.6446 -0.1603 -2.0010 0.9576
9.8331 4.5276 -2.0347 0.9569
9.4191 5.4033 -2.0410 0.9568
8.9259 6.2402 -2.0471 0.9566
8.3568 7.0310 -2.0527 0.9565
7.0091 8.4455 -2.0629 0.9563
6.2411 9.0562 -2.0673 0.9562
2.4906 9.9129 -1.9211 0.9593
1.5976 10.1026 -1.9225 0.9592
0.6904 10.2087 -1.9232 0.9592
-1.1343 10.1671 -1.9229 0.9592
-2.9185 9.7897 -1.9201 0.9593
-3.7756 9.4791 -1.9178 0.9593
-5.3824 8.6296 -1.9117 0.9595
-6.1183 8.0988 -1.9078 0.9595
-6.8009 7.5038 -1.9035 0.9596
-8.0256 7.4048 -2.0525 0.9565
-9.1738 5.8357 -2.0436 0.9567
-10.4999 2.2303 -2.0176 0.9573
-10.6208 1.2806 -2.0108 0.9574
-10.6562 0.3270 -2.0039 0.9575
-10.6065 -0.6226 -1.9970 0.9577
-9.1488 -5.0600 -1.9651 0.9583
-8.6363 -5.8392 -1.9595 0.9585
-7.4230 -7.2433 -1.9494 0.9587
-5.9921 -8.4107 -1.9411 0.9588
-4.3877 -9.3105 -1.9346 0.9590
-2.6577 -9.9197 -1.9303 0.9591
-1.7610 -10.1102 -1.9289 0.9591
-0.8519 -10.2228 -1.9281 0.9591
2.7804 -9.8881 -1.9307 0.9591
3.6551 -9.6107 -1.9327 0.9590
4.5038 -9.2587 -1.9352 0.9590
5.3201 -8.8341 -1.9383 0.9589
6.0981 -8.3398 -1.9419 0.9588
7.5159 -7.1551 -1.9505 0.9586
8.7133 -5.7358 -1.9608 0.9584
9.2168 -4.9500 -1.9664 0.9583
9.6508 -4.1207 -1.9724 0.9582
10.0116 -3.2538 -1.9787 0.9581
10.2955 -2.3555 -1.9852 0.9579
10.4997 -1.4326 -1.9918 0.9578
10.4796 2.3616 -2.0192 0.9572
10.2614 3.2979 -2.0259 0.9571
9.9586 4.2137 -2.0325 0.9569
9.1072 5.9525 -2.0450 0.9567
7.9481 7.5170 -2.0562 0.9565
7.2636 8.2159 -2.0613 0.9563
6.5162 8.8506 -2.0658 0.9563
2.7980 9.8272 -1.9205 0.9593
1.9119 10.0457 -1.9221 0.9592
1.6148 8.9091 -1.9139 0.9637
0.8140 9.0213 -1.9147 0.9636
-0.8018 9.0222 -1.9146 0.9636
-1.6026 8.9109 -1.9138 0.9637
-2.3893 8.7263 -1.9125 0.9637
-3.1551 8.4701 -1.9106 0.9637
-5.2614 7.3000 -1.9021 0.9639
-5.8801 6.7883 -1.8984 0.9639
-7.5341 6.0719 -2.0454 0.9612
-8.4493 4.6127 -2.0348 0.9614
-9.4187 1.3509 -2.0113 0.9618
-9.4728 0.5039 -2.0052 0.9620
-9.3547 -1.1801 -1.9931 0.9622
-6.7669 -6.3126 -1.9561 0.9629
-6.1641 -6.8768 -1.9521 0.9629
-4.8271 -7.8349 -1.9452 0.9631
-4.1032 -8.2225 -1.9425 0.9631
-0.1492 -9.1569 -1.9358 0.9633
0.6682 -9.1346 -1.9360 0.9632
1.4808 -9.0418 -1.9367 0.9632
4.5674 -7.9847 -1.9444 0.9631
7.1254 -5.9284 -1.9593 0.9628
8.1052 -4.5906 -1.9690 0.9626
8.5051 -3.8597 -1.9743 0.9625
8.8401 -3.0943 -1.9798 0.9624
9.1072 -2.3001 -1.9855 0.9623
9.4271 -0.6492 -1.9974 0.9621
9.4498 1.0424 -2.0096 0.9619
9.3474 1.8868 -2.0157 0.9618
9.1691 2.7211 -2.0217 0.9617
8.9157 3.5384 -2.0276 0.9615
7.7228 5.8192 -2.0440 0.9612
7.1901 6.5004 -2.0489 0.9611
6.5962 7.1315 -2.0534 0.9611
5.2440 8.2212 -2.0612 0.9609
4.3964 8.4761 -2.0184 0.9617
3.4283 8.3601 -1.9100 0.9637
2.6718 8.6417 -1.9120 0.9637
0.2890 9.0544 -1.9149 0.9636
-0.5197 9.0436 -1.9148 0.9636
-1.3238 8.9582 -1.9142 0.9637
-5.6693 6.9735 -1.8997 0.9639
-6.7473 6.9318 -2.0448 0.9612
-9.2252 2.4838 -2.0195 0.9617
-9.3819 1.6461 -2.0134 0.9618
-9.3969 -0.8883 -1.9952 0.9621
-9.0357 -2.5287 -1.9834 0.9624
-8.7491 -3.3151 -1.9777 0.9625
-8.3954 -4.0710 -1.9723 0.9626
-7.9778 -4.7910 -1.9671 0.9627
-7.5000 -5.4699 -1.9622 0.9628
-6.9661 -6.1029 -1.9577 0.9628
-6.3803 -6.6856 -1.9535 0.9629
-5.0722 -7.6846 -1.9463 0.9631
-4.3600 -8.0942 -1.9434 0.9631
-3.6161 -8.4401 -1.9409 0.9632
-2.8459 -8.7200 -1.9389 0.9632
0.3826 -9.1504 -1.9359 0.9632
1.1975 -9.0822 -1.9364 0.9632
2.0039 -8.9439 -1.9374 0.9632
3.5677 -8.4609 -1.9410 0.9632
5.0282 -7.7139 -1.9464 0.9631
5.7061 -7.2473 -1.9498 0.9630
7.9507 -4.8371 -1.9672 0.9627
8.3724 -4.1194 -1.9724 0.9626
9.2431 -1.7710 -1.9893 0.9623
9.4677 0.7460 -2.0075 0.9619
9.2400 2.4310 -2.0196 0.9617
8.7113 4.0574 -2.0313 0.9615
7.8938 5.5704 -2.0422 0.9613
7.3836 6.2676 -2.0472 0.9612
6.8106 6.9169 -2.0519 0.9611
3.6861 8.2454 -1.9092 0.9637
2.1668 8.7869 -1.9130 0.9637
1.3752 8.9506 -1.9142 0.9637
0.5716 9.0405 -1.9148 0.9636
-0.2371 9.0559 -1.9149 0.9636
-1.0436 8.9965 -1.9144 0.9636
-1.8409 8.8630 -1.9135 0.9637
-3.3802 8.3794 -1.9099 0.9637
-4.1087 8.0340 -1.9074 0.9638
-4.8014 7.6235 -1.9044 0.9638
-5.4524 7.1520 -1.9010 0.9639
-6.1375 6.7125 -1.9226 0.9635
-7.1523 6.5412 -2.0488 0.9611
-8.5630 4.3806 -2.0332 0.9614
-9.1526 2.7735 -2.0216 0.9617
-9.3112 -1.4295 -1.9913 0.9622
-9.1196 -2.2476 -1.9854 0.9623
-8.5265 -3.8105 -1.9741 0.9625
-8.1309 -4.5437 -1.9689 0.9626
-7.6737 -5.2375 -1.9639 0.9627
-7.1589 -5.8871 -1.9592 0.9628
-5.3128 -7.5268 -1.9474 0.9630
-4.6129 -7.9581 -1.9444 0.9631
-3.8795 -8.3265 -1.9417 0.9631
-2.3337 -8.8657 -1.9379 0.9632
0.0966 -9.1576 -1.9358 0.9633
0.9133 -9.1141 -1.9362 0.9632
3.3004 -8.5649 -1.9402 0.9632
6.1248 -6.9124 -1.9522 0.9629
6.7309 -6.3517 -1.9563 0.9629
8.2320 -4.3748 -1.9705 0.9626
8.9277 -2.8583 -1.9815 0.9624
9.3485 -1.2338 -1.9932 0.9622
9.4498 -0.3963 -1.9993 0.9621
9.4763 0.4496 -2.0053 0.9620
9.4270 1.2969 -2.0115 0.9618
9.3017 2.1390 -2.0175 0.9617
9.1007 2.9689 -2.0235 0.9616
7.5693 6.0289 -2.0455 0.9612
7.0178 6.6957 -2.0503 0.9611
5.0239 8.3632 -2.0623 0.9609
3.9400 8.1226 -1.9083 0.9638
3.1915 8.4198 -1.9033 0.9639
2.4395 8.7126 -1.9125 0.9637
0.8535 9.0175 -1.9146 0.9636
0.0458 9.0590 -1.9149 0.9636
-2.3512 8.7370 -1.9125 0.9637
-3.8577 8.1623 -1.9083 0.9638
-4.5636 7.7742 -1.9055 0.9638
-5.8509 6.8147 -1.8986 0.9639
-6.9407 6.7576 -2.0476 0.9612
-8.7869 3.8691 -2.0295 0.9615
-9.0708 3.0611 -2.0236 0.9616
-9.4141 1.3924 -2.0116 0.9618
-9.4719 0.5455 -2.0055 0.9620
-9.4540 -0.3006 -1.9994 0.9621
-8.9568 -2.7680 -1.9816 0.9624
-6.1948 -6.8503 -1.9523 0.9629
-5.5486 -7.3617 -1.9486 0.9630
-3.3870 -8.5312 -1.9403 0.9632
-2.6101 -8.7909 -1.9384 0.9632
-1.8143 -8.9824 -1.9371 0.9632
0.6281 -9.1373 -1.9360 0.9632
1.4411 -9.0480 -1.9367 0.9632
2.2438 -8.8888 -1.9378 0.9632
3.0303 -8.6606 -1.9395 0.9632
3.7949 -8.3651 -1.9417 0.9631
5.2361 -7.5799 -1.9474 0.9630
5.9020 -7.0954 -1.9509 0.9630
8.0840 -4.6255 -1.9687 0.9626
8.8252 -3.1326 -1.9795 0.9624
9.4756 0.1533 -2.0032 0.9620
8.2113 5.0576 -2.0385 0.9613
7.7472 5.7846 -2.0437 0.9612
7.2177 6.4681 -2.0487 0.9612
6.6267 7.1018 -2.0532 0.9611
5.2795 8.1975 -2.0611 0.9609
3.4647 8.3445 -1.9099 0.9637
2.7006 8.6010 -1.9056 0.9638
-1.2846 8.9641 -1.9142 0.9637
-2.0778 8.8085 -1.9131 0.9637
-3.6026 8.2826 -1.9092 0.9637
-5.0017 7.4880 -1.9035 0.9639
-5.6392 6.9990 -1.8999 0.9639
-7.8375 5.6503 -2.0423 0.9613
-8.2886 4.9159 -2.0370 0.9614
-8.9800 3.3463 -2.0257 0.9616
-9.4604 0.8419 -2.0076 0.9619
-9.4689 -0.0053 -2.0015 0.9620
-9.4021 -0.8472 -1.9955 0.9621
-9.0480 -2.4895 -1.9836 0.9624
-8.4143 -4.0347 -1.9725 0.9626
-7.9998 -4.7566 -1.9673 0.9627
-7.5248 -5.4376 -1.9624 0.9628
-4.3957 -8.0755 -1.9435 0.9631
-2.8842 -8.7078 -1.9390 0.9632
-2.0944 -8.9233 -1.9375 0.9632
-1.2894 -9.0697 -1.9364 0.9632
1.1577 -9.0872 -1.9364 0.9632
5.6738 -7.2715 -1.9496 0.9630
8.3532 -4.1555 -1.9721 0.9626
8.7145 -3.4033 -1.9776 0.9625
9.3867 -0.9833 -1.9950 0.9621
9.4695 0.7044 -2.0072 0.9619
8.7278 4.0187 -2.0310 0.9615
8.3574 4.7943 -2.0366 0.9614
7.9171 5.5350 -2.0420 0.9613
6.8401 6.8862 -2.0517 0.9611
6.2116 7.4845 -2.0560 0.9610
4.7925 8.4861 -2.0601 0.9609
2.9320 8.4099 -1.8826 0.9642
1.4144 8.9442 -1.9141 0.9637
0.6112 9.0378 -1.9148 0.9636
-1.0042 9.0012 -1.9145 0.9636
-2.5842 8.6685 -1.9120 0.9637
-4.0737 8.0525 -1.9075 0.9638
-5.4215 7.1766 -1.9012 0.9639
-6.0559 6.6819 -1.9062 0.9638
-7.1243 6.5732 -2.0490 0.9611
-7.6639 5.8975 -2.0441 0.9612
-8.5449 4.4187 -2.0334 0.9614
-9.1417 2.8140 -2.0219 0.9616
-9.3285 1.9815 -2.0158 0.9618
-9.4395 1.1381 -2.0098 0.9619
-9.4339 -0.5538 -1.9976 0.9621
-9.3188 -1.3888 -1.9916 0.9622
-9.1306 -2.2080 -1.9857 0.9623
-8.8716 -3.0048 -1.9799 0.9624
-8.5443 -3.7736 -1.9744 0.9625
-8.1518 -4.5086 -1.9691 0.9626
-6.6198 -6.4596 -1.9551 0.9629
-4.6481 -7.9384 -1.9445 0.9631
-3.1558 -8.6164 -1.9396 0.9632
0.0565 -9.1579 -1.9358 0.9633
0.8733 -9.1179 -1.9362 0.9632
2.4822 -8.8274 -1.9383 0.9632
4.0196 -8.2633 -1.9424 0.9631
4.7474 -7.8831 -1.9452 0.9631
5.4405 -7.4405 -1.9484 0.9630
7.2610 -5.7702 -1.9605 0.9628
7.7656 -5.1119 -1.9652 0.9627
8.5956 -3.6702 -1.9756 0.9625
8.9138 -2.8970 -1.9812 0.9624
9.1633 -2.0965 -1.9870 0.9623
9.3416 -1.2746 -1.9929 0.9622
9.4466 -0.4376 -1.9990 0.9621
9.4767 0.4079 -2.0050 0.9620
9.4312 1.2554 -2.0112 0.9618
9.3097 2.0979 -2.0172 0.9617
9.1124 2.9286 -2.0232 0.9616
8.8402 3.7405 -2.0290 0.9615
7.5948 5.9950 -2.0453 0.9612
7.0463 6.6641 -2.0501 0.9611
6.4377 7.2817 -2.0545 0.9610
1.6927 8.8941 -1.9138 0.9637
-0.7186 8.0860 -1.9079 0.9672
-1.4364 7.9866 -1.9071 0.9672
-2.1417 7.8217 -1.9059 0.9672
-2.8283 7.5928 -1.9043 0.9673
-4.1223 6.9524 -1.8996 0.9673
-5.6062 6.4721 -2.0124 0.9654
-6.7614 5.4491 -2.0409 0.9649
-7.9062 3.4400 -2.0264 0.9652
-8.1603 2.7141 -2.0212 0.9653
-8.4672 1.2144 -2.0103 0.9655
-8.5184 0.4531 -2.0049 0.9656
-7.7746 -3.2270 -1.9784 0.9660
-7.0439 -4.5353 -1.9689 0.9662
-6.1002 -5.6906 -1.9607 0.9663
-5.5579 -6.2005 -1.9570 0.9664
-4.9743 -6.6602 -1.9537 0.9664
-3.7015 -7.4175 -1.9483 0.9665
-3.0219 -7.7098 -1.9462 0.9665
-1.6016 -8.1121 -1.9433 0.9666
-0.1347 -8.2631 -1.9423 0.9666
0.6030 -8.2429 -1.9424 0.9666
2.0598 -8.0117 -1.9442 0.9666
4.1198 -7.2022 -1.9501 0.9665
4.7526 -6.8158 -1.9529 0.9664
5.3503 -6.3752 -1.9560 0.9664
6.4223 -5.3434 -1.9635 0.9663
6.8881 -4.7595 -1.9677 0.9662
7.6601 -3.4762 -1.9770 0.9660
7.9596 -2.7861 -1.9820 0.9659
8.3720 -1.3345 -1.9925 0.9658
8.4959 0.9372 -2.0088 0.9655
8.4012 1.6958 -2.0143 0.9654
8.0084 3.1783 -2.0250 0.9652
7.3525 4.5732 -2.0350 0.9650
6.4515 5.8327 -2.0441 0.9649
5.3327 6.9123 -2.0518 0.9648
3.0733 7.4945 -1.9037 0.9673
1.6956 7.9343 -1.9069 0.9672
0.9816 8.0576 -1.9077 0.9672
0.2590 8.1147 -1.9081 0.9672
-1.8969 7.8867 -1.9064 0.9672
-2.5907 7.6800 -1.9049 0.9672
-4.5145 6.6948 -1.8977 0.9674
-7.0561 5.0401 -2.0380 0.9650
-7.4600 4.3804 -2.0332 0.9651
-8.2898 2.2320 -2.0177 0.9653
-8.4331 1.4797 -2.0123 0.9654
-8.5083 0.7196 -2.0068 0.9655
-8.4544 -0.7992 -1.9958 0.9657
-6.7590 -4.9295 -1.9661 0.9662
-5.7524 -6.0277 -1.9582 0.9663
-5.1828 -6.5054 -1.9548 0.9664
-4.5747 -6.9309 -1.9518 0.9665
-3.9330 -7.3014 -1.9491 0.9665
-1.8545 -8.0597 -1.9437 0.9666
-1.1276 -8.1891 -1.9428 0.9666
-0.3926 -8.2551 -1.9423 0.9666
1.0806 -8.1955 -1.9428 0.9666
2.5226 -7.8824 -1.9451 0.9666
5.1456 -6.5353 -1.9549 0.9664
5.7180 -6.0609 -1.9583 0.9663
6.2479 -5.5374 -1.9621 0.9663
7.1633 -4.3580 -1.9706 0.9661
7.8617 -3.0306 -1.9802 0.9660
8.3185 -1.5938 -1.9906 0.9658
8.4502 -0.8478 -1.9960 0.9657
8.5154 -0.0909 -2.0014 0.9656
7.8233 3.6439 -2.0283 0.9652
6.6257 5.6242 -2.0426 0.9649
6.1101 6.2055 -2.0467 0.9648
5.5425 6.7383 -2.0506 0.9648
4.2705 7.6398 -2.0570 0.9647
1.9421 7.8758 -1.9064 0.9672
1.2326 8.0220 -1.9075 0.9672
0.5123 8.1023 -1.9080 0.9672
-3.0302 7.5118 -1.9037 0.9673
-6.4176 5.8693 -2.0439 0.9649
-6.9007 5.2622 -2.0396 0.9650
-7.3257 4.6151 -2.0349 0.9650
-7.9895 3.2240 -2.0248 0.9652
-8.2237 2.4921 -2.0196 0.9653
-8.3908 1.7439 -2.0142 0.9654
-8.5205 0.2241 -2.0032 0.9656
-8.4833 -0.5353 -1.9977 0.9657
-8.3790 -1.2863 -1.9923 0.9658
-8.2089 -2.0232 -1.9870 0.9659
-7.6794 -3.4320 -1.9769 0.9660
-7.3251 -4.0934 -1.9721 0.9661
-6.4526 -5.3062 -1.9634 0.9663
-4.1609 -7.1782 -1.9500 0.9665
-2.8130 -7.7859 -1.9456 0.9666
-2.1057 -7.9996 -1.9441 0.9666
-1.3830 -8.1510 -1.9431 0.9666
-0.6503 -8.2393 -1.9424 0.9666
0.0872 -8.2638 -1.9423 0.9666
2.2746 -7.9552 -1.9446 0.9666
2.9776 -7.7272 -1.9462 0.9665
3.6589 -7.4388 -1.9483 0.9665
4.9362 -6.6890 -1.9538 0.9664
5.5224 -6.2325 -1.9571 0.9664
6.0677 -5.7258 -1.9607 0.9663
6.5676 -5.1723 -1.9647 0.9662
8.2569 -1.8511 -1.9887 0.9658
8.4117 -1.1102 -1.9941 0.9657
8.3594 1.9223 -2.0159 0.9654
8.1763 2.6674 -2.0213 0.9653
7.9263 3.3948 -2.0265 0.9652
6.7929 5.4105 -2.0410 0.9649
6.2965 6.0075 -2.0453 0.9649
5.7466 6.5578 -2.0493 0.9648
5.1478 7.0565 -2.0528 0.9647
3.8108 7.8562 -2.0521 0.9648
2.1866 7.8094 -1.9060 0.9672
1.4822 7.9783 -1.9072 0.9672
-0.6832 8.0892 -1.9079 0.9672
-2.1075 7.8313 -1.9060 0.9672
-4.6903 6.5680 -1.8968 0.9674
-6.7382 5.4793 -2.0411 0.9649
-7.8920 3.4751 -2.0267 0.9652
-8.1494 2.7502 -2.0214 0.9653
-8.3400 2.0070 -2.0161 0.9654
-8.4629 1.2517 -2.0106 0.9655
-8.5175 0.4905 -2.0051 0.9656
-8.0639 -2.4921 -1.9836 0.9659
-7.7896 -3.1933 -1.9786 0.9660
-4.3851 -7.0482 -1.9509 0.9665
-3.7341 -7.4016 -1.9484 0.9665
-3.0558 -7.6968 -1.9463 0.9665
-2.3550 -7.9319 -1.9446 0.9666
-1.6371 -8.1052 -1.9434 0.9666
-0.9073 -8.2156 -1.9426 0.9666
-0.1709 -8.2625 -1.9423 0.9666
2.0246 -8.0203 -1.9441 0.9666
3.4235 -7.5464 -1.9475 0.9665
5.3219 -6.3980 -1.9559 0.9664
6.8664 -4.7891 -1.9675 0.9662
7.2828 -4.1671 -1.9720 0.9661
7.6439 -3.5093 -1.9768 0.9660
7.9464 -2.8206 -1.9817 0.9659
8.4987 0.8998 -2.0086 0.9655
8.4074 1.6588 -2.0140 0.9654
8.0213 3.1428 -2.0247 0.9652
4.0609 7.7460 -2.0555 0.9647
1.0169 8.0531 -1.9077 0.9672
0.2946 8.1135 -1.9081 0.9672
-0.4302 8.1071 -1.9080 0.9672
-1.1513 8.0341 -1.9075 0.9672
-1.8623 7.8952 -1.9065 0.9672
-2.5571 7.6916 -1.9050 0.9672
-3.2297 7.4253 -1.9031 0.9673
-4.4854 6.7151 -1.8979 0.9674
-5.0956 6.3243 -1.9088 0.9672
-6.0424 6.2623 -2.0452 0.9649
-7.4417 4.4136 -2.0334 0.9651
-8.2811 2.2686 -2.0179 0.9653
-8.4277 1.5168 -2.0125 0.9654
-8.5062 0.7570 -2.0070 0.9655
-8.5164 -0.0047 -2.0016 0.9656
-8.3347 -1.5096 -1.9907 0.9658
-8.1452 -2.2411 -1.9855 0.9659
-7.8925 -2.9510 -1.9803 0.9660
-5.2117 -6.4831 -1.9550 0.9664
-4.6054 -6.9113 -1.9519 0.9665
-3.9652 -7.2845 -1.9492 0.9665
-3.2958 -7.6003 -1.9470 0.9665
-1.1635 -8.1842 -1.9428 0.9666
0.3091 -8.2586 -1.9423 0.9666
1.7727 -8.0779 -1.9437 0.9666
2.4879 -7.8931 -1.9450 0.9666
4.5042 -6.9766 -1.9517 0.9665
5.1165 -6.5572 -1.9547 0.9664
5.6909 -6.0853 -1.9581 0.9663
6.7084 -4.9974 -1.9660 0.9662
7.1433 -4.3889 -1.9704 0.9661
8.3103 -1.6300 -1.9903 0.9658
8.4471 1.3941 -2.0121 0.9654
8.3115 2.1478 -2.0176 0.9653
8.1081 2.8882 -2.0229 0.9653
7.5036 4.3044 -2.0331 0.9651
6.1366 6.1780 -2.0465 0.9649
3.4871 7.7095 -1.9886 0.9658
1.9766 7.8670 -1.9064 0.9672
0.5478 8.0999 -1.9080 0.9672
-0.1769 8.1169 -1.9081 0.9672
-1.6152 7.9512 -1.9069 0.9672
-2.9974 7.5254 -1.9038 0.9673
-3.6524 7.2196 -1.9016 0.9673
-4.2759 6.8555 -1.8989 0.9673
-4.8625 6.4365 -1.8959 0.9674
-8.3841 1.7809 -2.0144 0.9654
-8.4865 1.0232 -2.0090 0.9655
-8.5206 0.2615 -2.0035 0.9656
-8.4867 -0.4982 -1.9980 0.9657
-8.3857 -1.2498 -1.9926 0.9658
-8.2188 -1.9875 -1.9873 0.9659
-7.6954 -3.3987 -1.9771 0.9660
-6.4764 -5.2784 -1.9636 0.9663
-5.9679 -5.8234 -1.9597 0.9663
-4.8215 -6.7676 -1.9529 0.9664
-4.1926 -7.1604 -1.9501 0.9665
-3.5329 -7.4965 -1.9477 0.9665
-2.8472 -7.7739 -1.9457 0.9666
-0.6864 -8.2364 -1.9425 0.9666
0.0510 -8.2641 -1.9423 0.9666
0.7880 -8.2278 -1.9426 0.9666
3.6261 -7.4543 -1.9482 0.9665
4.9064 -6.7100 -1.9536 0.9664
6.0419 -5.7518 -1.9606 0.9663
6.9972 -4.6061 -1.9688 0.9662
8.2477 -1.8870 -1.9885 0.9658
8.4056 -1.1469 -1.9938 0.9657
8.4975 -0.3937 -1.9992 0.9657
8.3667 1.8854 -2.0157 0.9654
8.1869 2.6312 -2.0210 0.9653
7.9401 3.3596 -2.0263 0.9652
7.6278 4.0646 -2.0313 0.9651
6.3221 5.9792 -2.0451 0.9649
5.1782 7.0333 -2.0527 0.9647
4.5373 7.4787 -2.0559 0.9647
2.2207 7.7994 -1.9059 0.9672
-0.6504 7.3185 -1.9024 0.9701
-1.3001 7.2288 -1.9017 0.9701
-2.5603 6.8734 -1.8991 0.9701
-5.6724 5.4745 -2.0411 0.9680
-6.1264 4.9374 -2.0372 0.9680
-6.8772 3.7545 -2.0287 0.9681
-7.1684 3.1190 -2.0241 0.9682
-7.5724 1.7872 -2.0145 0.9684
-7.6827 1.1019 -2.0096 0.9684
-7.7312 0.4113 -2.0046 0.9685
-7.6433 -0.9642 -1.9947 0.9687
-7.5085 -1.6381 -1.9898 0.9687
-7.3150 -2.2958 -1.9851 0.9688
-7.0648 -2.9323 -1.9805 0.9689
-6.7600 -3.5429 -1.9761 0.9690
-6.4035 -4.1230 -1.9719 0.9690
-4.5253 -6.0590 -1.9580 0.9692
-3.3682 -6.7496 -1.9531 0.9693
-2.1116 -7.2280 -1.9497 0.9694
-1.4577 -7.3834 -1.9486 0.9694
-0.7930 -7.4813 -1.9479 0.9694
-0.1226 -7.5212 -1.9476 0.9694
1.8747 -7.2917 -1.9493 0.9694
3.1455 -6.8538 -1.9525 0.9693
4.3237 -6.2008 -1.9573 0.9692
4.8668 -5.7991 -1.9602 0.9692
6.6371 -3.7591 -1.9749 0.9690
7.2317 -2.5313 -1.9838 0.9688
7.4462 -1.8806 -1.9885 0.9688
7.6027 -1.2119 -1.9933 0.9687
7.6994 -0.5302 -1.9982 0.9686
7.7352 0.1590 -2.0032 0.9685
7.4720 2.2175 -2.0180 0.9683
6.9916 3.5262 -2.0274 0.9682
6.6638 4.1449 -2.0319 0.9681
6.2806 4.7325 -2.0361 0.9680
5.8448 5.2841 -2.0401 0.9680
5.3598 5.7948 -2.0438 0.9679
4.8294 6.2599 -2.0471 0.9679
4.2580 6.6754 -2.0501 0.9678
1.5348 7.1816 -1.9014 0.9701
0.8884 7.2929 -1.9022 0.9701
0.2345 7.3444 -1.9026 0.9701
-0.4216 7.3357 -1.9025 0.9701
-1.0739 7.2669 -1.9020 0.9701
-2.9531 6.7089 -1.8979 0.9702
-4.0931 6.0699 -1.8955 0.9702
-5.9733 5.1298 -2.0386 0.9680
-6.3943 4.5674 -2.0346 0.9681
-7.3262 2.6935 -2.0210 0.9683
-7.6512 1.3425 -2.0113 0.9684
-7.7213 0.6530 -2.0063 0.9685
-6.8726 -3.3326 -1.9776 0.9689
-6.1454 -4.4819 -1.9694 0.9691
-5.2321 -5.4824 -1.9622 0.9692
-4.7147 -5.9178 -1.9591 0.9692
-3.5787 -6.6437 -1.9539 0.9693
-2.9687 -6.9292 -1.9518 0.9693
0.3142 -7.5158 -1.9477 0.9694
1.6457 -7.3452 -1.9489 0.9694
2.2958 -7.1737 -1.9502 0.9694
3.5406 -6.6643 -1.9539 0.9693
5.2007 -5.5126 -1.9623 0.9692
6.1198 -4.5173 -1.9695 0.9691
7.1433 -2.7536 -1.9822 0.9689
7.3777 -2.1105 -1.9868 0.9688
7.5547 -1.4475 -1.9916 0.9687
7.7297 -0.0825 -2.0015 0.9686
7.6592 1.2986 -2.0114 0.9684
7.3420 2.6516 -2.0212 0.9683
6.7849 3.9318 -2.0304 0.9681
6.4207 4.5308 -2.0347 0.9681
5.5347 5.6211 -2.0425 0.9679
5.0198 6.1027 -2.0460 0.9679
4.4622 6.5360 -2.0491 0.9678
3.8666 6.9172 -2.0518 0.9678
0.4637 7.3332 -1.9025 0.9701
-0.8466 7.2978 -1.9022 0.9701
-1.4935 7.1902 -1.9014 0.9701
-2.1275 7.0238 -1.9002 0.9701
-3.8986 6.1902 -1.8941 0.9702
-4.7149 6.1846 -2.0136 0.9684
-6.2530 4.7683 -2.0360 0.9680
-7.2445 2.9234 -2.0227 0.9682
-7.4587 2.2602 -2.0179 0.9683
-7.7038 0.8946 -2.0081 0.9685
-7.7337 0.2034 -2.0031 0.9685
-7.7019 -0.4860 -1.9981 0.9686
-7.2457 -2.4896 -1.9837 0.9688
-6.9788 -3.1188 -1.9792 0.9689
-6.6582 -3.7207 -1.9748 0.9690
-6.2867 -4.2908 -1.9707 0.9690
-4.3591 -6.1757 -1.9572 0.9692
-3.7860 -6.5314 -1.9547 0.9693
-2.5600 -7.0858 -1.9507 0.9693
-1.9165 -7.2807 -1.9493 0.9694
-1.2588 -7.4189 -1.9483 0.9694
-0.5919 -7.4994 -1.9478 0.9694
0.0794 -7.5218 -1.9476 0.9694
0.7501 -7.4858 -1.9479 0.9694
1.4153 -7.3917 -1.9486 0.9694
2.0701 -7.2401 -1.9497 0.9694
2.7098 -7.0321 -1.9512 0.9693
3.9246 -6.4526 -1.9554 0.9693
5.0232 -5.6691 -1.9611 0.9692
5.5182 -5.2073 -1.9645 0.9691
6.3801 -4.1599 -1.9720 0.9690
6.7400 -3.5818 -1.9762 0.9690
7.3022 -2.3379 -1.9852 0.9688
7.6381 -1.0081 -1.9948 0.9687
7.7166 -0.3236 -1.9997 0.9686
7.7339 0.3669 -2.0047 0.9685
7.6894 1.0579 -2.0097 0.9684
7.5830 1.7438 -2.0146 0.9684
7.1866 3.0780 -2.0242 0.9682
6.8990 3.7151 -2.0288 0.9681
5.7040 5.4421 -2.0412 0.9680
5.2049 5.9396 -2.0448 0.9679
4.6617 6.3903 -2.0480 0.9678
4.0789 6.7901 -2.0509 0.9678
3.4608 7.1346 -2.0531 0.9678
2.7266 7.1932 -1.9917 0.9687
0.6924 7.3147 -1.9024 0.9701
-1.2684 7.2346 -1.9017 0.9701
-1.9076 7.0886 -1.9007 0.9701
-2.5303 6.8848 -1.8992 0.9701
-3.1312 6.6251 -1.8973 0.9702
-4.3694 6.1186 -1.9467 0.9694
-5.6488 5.4998 -2.0413 0.9679
-6.5105 4.3913 -2.0333 0.9681
-6.8614 3.7850 -2.0289 0.9681
-7.3907 2.4941 -2.0196 0.9683
-7.6788 1.1357 -2.0098 0.9684
-7.7303 0.4452 -2.0048 0.9685
-7.7200 -0.2455 -1.9998 0.9686
-7.3259 -2.2640 -1.9853 0.9688
-7.0783 -2.9017 -1.9807 0.9689
-6.7762 -3.5136 -1.9763 0.9690
-5.0805 -5.6181 -1.9612 0.9692
-3.9898 -6.4128 -1.9555 0.9693
-3.3979 -6.7351 -1.9532 0.9693
-2.7809 -7.0044 -1.9513 0.9693
-0.8258 -7.4779 -1.9479 0.9694
-0.1555 -7.5206 -1.9476 0.9694
0.5159 -7.5050 -1.9478 0.9694
1.1836 -7.4312 -1.9483 0.9694
1.8426 -7.2996 -1.9493 0.9694
3.1153 -6.8672 -1.9524 0.9693
3.7196 -6.5692 -1.9546 0.9693
4.2962 -6.2193 -1.9571 0.9693
4.8410 -5.8199 -1.9600 0.9692
5.8181 -4.8840 -1.9668 0.9691
6.2426 -4.3540 -1.9706 0.9690
6.9465 -3.1891 -1.9791 0.9689
7.5964 -1.2450 -1.9931 0.9687
7.7120 0.8166 -2.0079 0.9685
7.6272 1.5049 -2.0129 0.9684
7.0062 3.4952 -2.0272 0.9682
6.3006 4.7045 -2.0359 0.9680
5.3847 5.7707 -2.0436 0.9679
4.8564 6.2382 -2.0469 0.9679
3.6808 7.0210 -2.0525 0.9678
3.0331 7.3050 -2.0480 0.9678
2.1984 7.0018 -1.9002 0.9701
1.5662 7.1746 -1.9014 0.9701
-0.3894 7.3376 -1.9025 0.9701
-1.6857 7.1463 -1.9011 0.9701
-2.3147 6.9625 -1.8997 0.9701
-2.9238 6.7221 -1.8980 0.9702
-4.0617 6.0807 -1.8933 0.9702
-4.9436 6.1357 -2.0401 0.9680
-7.0593 3.3754 -2.0260 0.9682
-7.3152 2.7259 -2.0213 0.9683
-7.6462 1.3761 -2.0115 0.9684
-7.7193 0.6870 -2.0066 0.9685
-7.7306 -0.0043 -2.0016 0.9686
-7.6803 -0.6921 -1.9966 0.9686
-7.5694 -1.3710 -1.9917 0.9687
-7.3991 -2.0358 -1.9870 0.9688
-7.1712 -2.6813 -1.9823 0.9689
-6.5517 -3.8956 -1.9736 0.9690
-5.2565 -5.4599 -1.9623 0.9692
-4.7409 -5.8975 -1.9592 0.9692
-4.1900 -6.2879 -1.9564 0.9693
-3.6080 -6.6283 -1.9540 0.9693
-2.9992 -6.9164 -1.9519 0.9693
-1.7200 -7.3282 -1.9490 0.9694
-1.0590 -7.4492 -1.9481 0.9694
-0.3903 -7.5123 -1.9477 0.9694
0.9509 -7.4636 -1.9481 0.9694
1.6135 -7.3521 -1.9489 0.9694
4.6544 -5.9650 -1.9590 0.9692
5.1761 -5.5349 -1.9621 0.9692
5.6590 -5.0600 -1.9655 0.9691
6.0994 -4.5437 -1.9693 0.9691
7.5474 -1.4804 -1.9914 0.9687
7.7271 0.5748 -2.0062 0.9685
7.6639 1.2649 -2.0112 0.9684
7.5390 1.9482 -2.0161 0.9683
7.3527 2.6191 -2.0209 0.9683
7.1063 3.2721 -2.0256 0.9682
6.8013 3.9016 -2.0301 0.9681
6.0246 5.0688 -2.0385 0.9680
5.5588 5.5963 -2.0423 0.9679
4.4905 6.5160 -2.0489 0.9678
3.8966 6.8998 -2.0517 0.9678
3.2642 7.2165 -2.0507 0.9678
2.4583 7.0510 -1.9334 0.9696
1.7891 7.1208 -1.9010 0.9701
-0.1601 7.3464 -1.9026 0.9701
-1.4620 7.1969 -1.9015 0.9701
-2.7134 6.8125 -1.8986 0.9702
-5.7912 5.3432 -2.0402 0.9680
-6.2326 4.7961 -2.0362 0.9680
-6.6218 4.2123 -2.0320 0.9681
-7.2325 2.9555 -2.0229 0.9682
-7.7008 0.9285 -2.0083 0.9685
-7.7337 0.2373 -2.0033 0.9685
-7.4653 -1.8053 -1.9886 0.9688
-7.2573 -2.4581 -1.9839 0.9688
-5.8891 -4.7997 -1.9671 0.9691
-4.9255 -5.7497 -1.9603 0.9692
-3.2149 -6.8217 -1.9526 0.9693
-2.5912 -7.0748 -1.9508 0.9693
-1.9484 -7.2724 -1.9494 0.9694
-1.2913 -7.4134 -1.9484 0.9694
-0.6247 -7.4968 -1.9478 0.9694
0.7173 -7.4889 -1.9479 0.9694
1.3829 -7.3977 -1.9486 0.9694
2.6788 -7.0436 -1.9512 0.9693
3.2996 -6.7831 -1.9530 0.9693
3.8960 -6.4694 -1.9553 0.9693
4.9979 -5.6906 -1.9610 0.9692
5.9505 -4.7287 -1.9679 0.9691
6.7235 -3.6110 -1.9760 0.9690
7.2910 -2.3696 -1.9850 0.9688
7.6327 -1.0414 -1.9945 0.9687
7.7142 -0.3574 -1.9995 0.9686
7.6931 1.0241 -2.0094 0.9684
6.9145 3.6845 -2.0286 0.9681
6.5725 4.2958 -2.0330 0.9681
6.1758 4.8749 -2.0371 0.9680
5.7272 5.4166 -2.0410 0.9680
5.2305 5.9162 -2.0446 0.9679
4.6894 6.3693 -2.0479 0.9678
4.1083 6.7717 -2.0508 0.9678
3.4922 7.1198 -2.0532 0.9678
2.7719 7.2172 -2.0017 0.9686
2.0101 7.0598 -1.9006 0.9701
0.6025 6.6765 -1.8978 0.9725
-0.5934 6.6773 -1.8977 0.9725
-1.1862 6.5956 -1.8971 0.9725
-1.7689 6.4601 -1.8961 0.9725
-2.8838 6.0332 -1.8930 0.9726
-3.5334 5.9592 -1.9613 0.9716
-4.2131 5.8455 -2.0398 0.9705
-4.7203 5.4494 -2.0410 0.9705
-5.1793 4.9987 -2.0377 0.9705
-5.5947 4.5089 -2.0342 0.9706
-5.9635 3.9845 -2.0304 0.9706
-6.7636 2.2495 -2.0179 0.9708
-7.0244 1.0075 -2.0089 0.9709
-7.0702 0.3761 -2.0043 0.9710
-6.9927 -0.8821 -1.9953 0.9711
-6.6951 -2.1012 -1.9865 0.9712
-6.1895 -3.2439 -1.9783 0.9714
-5.4940 -4.2759 -1.9709 0.9715
-5.0821 -4.7409 -1.9675 0.9715
-4.1466 -5.5520 -1.9617 0.9716
-3.0870 -6.1860 -1.9572 0.9717
-1.9356 -6.6255 -1.9540 0.9717
-1.3362 -6.7682 -1.9530 0.9717
-0.7270 -6.8582 -1.9524 0.9717
-0.1124 -6.8949 -1.9521 0.9717
1.1149 -6.8074 -1.9528 0.9717
1.7184 -6.6840 -1.9537 0.9717
2.3093 -6.5083 -1.9550 0.9717
2.8830 -6.2817 -1.9566 0.9717
3.4353 -6.0057 -1.9587 0.9716
3.9620 -5.6821 -1.9610 0.9716
4.4591 -5.3133 -1.9637 0.9716
5.3492 -4.4506 -1.9699 0.9715
5.7351 -3.9628 -1.9734 0.9714
6.6192 -2.3169 -1.9853 0.9713
6.8142 -1.7210 -1.9896 0.9712
6.9560 -1.1088 -1.9940 0.9711
7.0742 0.1454 -2.0031 0.9710
7.0491 0.7776 -2.0076 0.9709
6.9673 1.4064 -2.0122 0.9709
5.3369 4.8250 -2.0368 0.9705
4.8933 5.2905 -2.0401 0.9705
4.4085 5.7143 -2.0431 0.9704
2.1175 6.8489 -2.0294 0.9706
1.4010 6.5557 -1.8978 0.9725
0.8106 6.6539 -1.8976 0.9725
-2.1399 6.3437 -1.8953 0.9726
-5.0236 5.1609 -2.0389 0.9705
-5.4546 4.6843 -2.0354 0.9706
-6.4626 3.0553 -2.0237 0.9707
-6.8730 1.8505 -2.0150 0.9708
-6.9950 1.2273 -2.0105 0.9709
-7.0224 -0.6638 -1.9968 0.9711
-6.7626 -1.8926 -1.9880 0.9712
-6.5528 -2.4829 -1.9838 0.9713
-6.2922 -3.0512 -1.9797 0.9713
-5.2307 -4.5825 -1.9687 0.9715
-4.7934 -5.0227 -1.9655 0.9715
-4.3200 -5.4224 -1.9626 0.9716
-3.8141 -5.7785 -1.9601 0.9716
-3.2798 -6.0888 -1.9579 0.9717
-0.9409 -6.8328 -1.9526 0.9717
0.2881 -6.8899 -1.9522 0.9717
1.5086 -6.7331 -1.9534 0.9717
2.1044 -6.5756 -1.9545 0.9717
2.6846 -6.3666 -1.9560 0.9717
5.2045 -4.6127 -1.9687 0.9715
5.6050 -4.1373 -1.9722 0.9715
6.5388 -2.5206 -1.9839 0.9713
6.9125 -1.3245 -1.9925 0.9712
7.0189 -0.7042 -1.9970 0.9711
7.0697 -0.0755 -2.0015 0.9710
7.0643 0.5566 -2.0061 0.9710
7.0023 1.1872 -2.0106 0.9709
6.7095 2.4232 -2.0195 0.9708
6.1979 3.5916 -2.0279 0.9707
5.8642 4.1381 -2.0318 0.9706
5.4817 4.6532 -2.0355 0.9706
4.5825 5.5711 -2.0421 0.9705
2.3488 6.8331 -2.0455 0.9704
1.6383 6.6437 -1.9371 0.9720
0.4230 6.6906 -1.8979 0.9725
-0.1754 6.7019 -1.8979 0.9725
-1.3627 6.5605 -1.8969 0.9725
-1.9413 6.4091 -1.8958 0.9725
-2.5032 6.2055 -1.8943 0.9726
-3.7691 5.9845 -2.0022 0.9710
-4.3720 5.7349 -2.0415 0.9705
-5.3089 4.8553 -2.0367 0.9705
-7.0729 0.1860 -2.0030 0.9710
-6.3890 -2.8552 -1.9811 0.9713
-6.0966 -3.4069 -1.9771 0.9714
-5.7575 -3.9296 -1.9734 0.9714
-5.3744 -4.4196 -1.9698 0.9715
-4.9506 -4.8733 -1.9666 0.9715
-2.9189 -6.2649 -1.9566 0.9717
-2.3465 -6.4948 -1.9550 0.9717
-1.7567 -6.6739 -1.9537 0.9717
0.6876 -6.8623 -1.9524 0.9717
1.2974 -6.7758 -1.9530 0.9717
1.8976 -6.6366 -1.9541 0.9717
4.6022 -5.1940 -1.9645 0.9716
5.4696 -4.3076 -1.9709 0.9715
6.1711 -3.2795 -1.9784 0.9714
6.4522 -2.7216 -1.9824 0.9713
6.6833 -2.1398 -1.9866 0.9712
6.8625 -1.5385 -1.9909 0.9712
6.9879 -0.9223 -1.9954 0.9711
7.0583 -0.2960 -1.9999 0.9711
7.0726 0.3355 -2.0045 0.9710
6.9317 1.5940 -2.0135 0.9709
6.3026 3.3940 -2.0265 0.9707
5.9866 3.9504 -2.0305 0.9706
4.7517 5.4224 -2.0410 0.9705
3.1586 6.5118 -2.0489 0.9704
2.5639 6.7640 -2.0478 0.9704
1.2241 6.5888 -1.8971 0.9725
0.6317 6.6738 -1.8977 0.9725
-0.5641 6.6799 -1.8978 0.9725
-1.7406 6.4680 -1.8962 0.9725
-4.6968 5.4705 -2.0411 0.9705
-5.1578 5.0217 -2.0379 0.9705
-5.5754 4.5338 -2.0343 0.9706
-5.9465 4.0110 -2.0306 0.9706
-6.2682 3.4577 -2.0266 0.9707
-7.0692 0.4071 -2.0046 0.9710
-7.0613 -0.2245 -2.0000 0.9711
-6.8781 -1.4690 -1.9911 0.9712
-6.7050 -2.0721 -1.9867 0.9712
-6.4797 -2.6563 -1.9825 0.9713
-6.2043 -3.2171 -1.9785 0.9714
-5.8812 -3.7504 -1.9746 0.9714
-3.6563 -5.8767 -1.9594 0.9716
-2.5489 -6.4201 -1.9555 0.9717
-0.7570 -6.8550 -1.9524 0.9717
0.4730 -6.8800 -1.9523 0.9717
1.0850 -6.8121 -1.9528 0.9717
2.2806 -6.5181 -1.9549 0.9717
2.8553 -6.2940 -1.9566 0.9717
4.9008 -4.9230 -1.9665 0.9715
6.3594 -2.9196 -1.9810 0.9713
6.8059 -1.7507 -1.9894 0.9712
7.0740 0.1144 -2.0029 0.9710
7.0516 0.7466 -2.0074 0.9710
6.9726 1.3757 -2.0120 0.9709
5.7542 4.2965 -2.0330 0.9706
4.4332 5.6946 -2.0430 0.9704
3.3592 6.4076 -2.0481 0.9704
2.7770 6.6882 -2.0501 0.9703
1.4330 6.5647 -1.9022 0.9725
0.8397 6.6502 -1.8976 0.9725
0.2433 6.6998 -1.8979 0.9725
-0.3553 6.6946 -1.8979 0.9725
-0.9508 6.6347 -1.8974 0.9725
-3.9982 5.9856 -2.0377 0.9705
-4.5260 5.6174 -2.0422 0.9705
-5.0013 5.1833 -2.0390 0.9705
-5.4345 4.7086 -2.0356 0.9705
-6.1615 3.6544 -2.0280 0.9707
-6.6850 2.4911 -2.0196 0.9708
-6.8655 1.8808 -2.0152 0.9708
-6.9903 1.2581 -2.0107 0.9709
-7.0705 -0.0039 -2.0016 0.9710
-7.0260 -0.6331 -1.9971 0.9711
-6.9260 -1.2545 -1.9926 0.9712
-5.9995 -3.5673 -1.9760 0.9714
-5.6468 -4.0805 -1.9723 0.9715
-5.2511 -4.5600 -1.9688 0.9715
-4.8157 -5.0021 -1.9656 0.9715
-3.3066 -6.0747 -1.9580 0.9717
-2.7489 -6.3393 -1.9561 0.9717
-2.1709 -6.5541 -1.9545 0.9717
-1.5767 -6.7176 -1.9534 0.9717
-0.9708 -6.8287 -1.9526 0.9717
-0.3578 -6.8867 -1.9522 0.9717
0.8717 -6.8419 -1.9526 0.9717
2.0755 -6.5845 -1.9544 0.9717
3.2179 -6.1215 -1.9578 0.9717
3.7553 -5.8167 -1.9600 0.9716
4.2647 -5.4656 -1.9626 0.9716
4.7421 -5.0708 -1.9654 0.9716
5.1838 -4.6351 -1.9686 0.9715
5.5863 -4.1615 -1.9720 0.9715
6.2607 -3.1146 -1.9796 0.9713
6.7427 -1.9608 -1.9879 0.9712
7.0685 -0.1065 -2.0013 0.9710
6.8910 1.7807 -2.0149 0.9708
6.7194 2.3935 -2.0193 0.9708
5.5015 4.6287 -2.0354 0.9706
4.6065 5.5505 -2.0420 0.9705
3.5563 6.2972 -2.0473 0.9704
2.9835 6.5961 -2.0495 0.9704
2.3791 6.8238 -2.0458 0.9704
1.6726 6.6573 -1.9432 0.9719
1.0469 6.6200 -1.8974 0.9725
0.4523 6.6887 -1.8978 0.9725
-0.1460 6.7027 -1.8979 0.9725
-0.7432 6.6618 -1.8976 0.9725
-1.3339 6.5666 -1.8969 0.9725
-2.4761 6.2167 -1.8944 0.9726
-3.0178 5.9653 -1.8925 0.9726
-3.7300 5.9803 -1.9953 0.9711
-4.8397 5.3399 -2.0402 0.9705
-5.6920 4.3801 -2.0332 0.9706
-6.3549 3.2862 -2.0253 0.9707
-6.6089 2.7006 -2.0211 0.9708
-6.9531 1.4769 -2.0123 0.9709
-7.0412 0.8490 -2.0078 0.9709
-6.9672 -1.0384 -1.9942 0.9711
-6.4021 -2.8275 -1.9813 0.9713
-5.3942 -4.3964 -1.9700 0.9715
-4.9723 -4.8519 -1.9667 0.9715
-3.4960 -5.9707 -1.9587 0.9716
-1.7860 -6.6663 -1.9537 0.9717
-0.5727 -6.8725 -1.9523 0.9717
0.0425 -6.8956 -1.9521 0.9717
1.8684 -6.6446 -1.9540 0.9717
2.4554 -6.4561 -1.9554 0.9717
3.0241 -6.2168 -1.9571 0.9717
4.5790 -5.2137 -1.9644 0.9716
5.0336 -4.7919 -1.9674 0.9715
5.4502 -4.3312 -1.9708 0.9715
5.8254 -3.8347 -1.9744 0.9714
6.1561 -3.3062 -1.9782 0.9714
6.6732 -2.1688 -1.9864 0.9713
6.8549 -1.5683 -1.9907 0.9712
6.9831 -0.9528 -1.9952 0.9711
7.0561 -0.3269 -1.9997 0.9711
7.0732 0.3045 -2.0042 0.9710
6.7857 2.1808 -2.0177 0.9708
6.5782 2.7834 -2.0221 0.9707
6.3168 3.3660 -2.0263 0.9707
5.6399 4.4519 -2.0341 0.9706
4.2805 5.8140 -2.0439 0.9704
3.7497 6.1805 -2.0465 0.9704
3.1870 6.4975 -2.0488 0.9704
2.5939 6.7538 -2.0481 0.9704
1.9247 6.7598 -1.9897 0.9712
1.2529 6.5832 -1.8971 0.9725
1.1664 6.4354 -2.0116 0.9730
0.5638 6.2483 -1.9297 0.9741
0.0042 6.1578 -1.8940 0.9746
-1.6248 5.9340 -1.8923 0.9746
-5.1428 4.1446 -2.0316 0.9727
-5.4825 3.6631 -2.0281 0.9728
-6.3680 1.5029 -2.0125 0.9730
-6.5067 0.3461 -2.0041 0.9731
-6.4377 -0.8121 -1.9958 0.9732
-6.1659 -1.9351 -1.9877 0.9733
-5.7022 -2.9885 -1.9801 0.9734
-5.4032 -3.4790 -1.9766 0.9735
-5.0629 -3.9404 -1.9733 0.9735
-4.2694 -4.7630 -1.9674 0.9736
-1.7849 -6.1097 -1.9578 0.9737
-0.6704 -6.3247 -1.9562 0.9737
0.4640 -6.3429 -1.9561 0.9737
1.5846 -6.1637 -1.9575 0.9737
2.1294 -6.0014 -1.9586 0.9737
2.6583 -5.7920 -1.9602 0.9737
4.1104 -4.8977 -1.9667 0.9736
5.2845 -3.6514 -1.9757 0.9735
5.5989 -3.1711 -1.9791 0.9734
5.8703 -2.6640 -1.9828 0.9734
6.4832 -0.4465 -1.9988 0.9732
6.5107 0.1338 -2.0030 0.9731
6.4864 0.7155 -2.0072 0.9731
6.4100 1.2939 -2.0113 0.9730
6.2819 1.8643 -2.0155 0.9730
5.8736 2.9624 -2.0234 0.9728
5.2727 3.9730 -2.0306 0.9727
4.4969 4.8619 -2.0370 0.9727
4.0509 5.2508 -2.0398 0.9726
3.5707 5.5980 -2.0423 0.9726
2.5242 6.1554 -2.0463 0.9725
1.9652 6.3564 -2.0464 0.9725
0.1966 6.1585 -1.8952 0.9745
-0.3533 6.1474 -1.8939 0.9746
-1.4390 5.9830 -1.8927 0.9746
-3.1990 5.8009 -2.0376 0.9727
-3.7106 5.5028 -2.0414 0.9726
-5.0137 4.3057 -2.0327 0.9727
-5.6793 3.3348 -2.0257 0.9728
-6.4974 0.5495 -2.0056 0.9731
-6.5069 -0.0321 -2.0014 0.9731
-6.3712 -1.1828 -1.9931 0.9732
-6.0355 -2.2869 -1.9852 0.9734
-4.8206 -4.2233 -1.9713 0.9735
-2.5090 -5.8561 -1.9596 0.9737
-1.9752 -6.0522 -1.9582 0.9737
-1.4268 -6.2009 -1.9571 0.9737
-0.8677 -6.3012 -1.9564 0.9737
2.9918 -5.6313 -1.9613 0.9737
3.9536 -5.0214 -1.9658 0.9736
4.3917 -4.6550 -1.9684 0.9736
5.1649 -3.8124 -1.9745 0.9735
5.4938 -3.3423 -1.9779 0.9734
5.7805 -2.8441 -1.9815 0.9734
6.2179 -1.7787 -1.9892 0.9733
6.3646 -1.2195 -1.9932 0.9732
6.4426 1.0923 -2.0099 0.9730
6.1711 2.2287 -2.0181 0.9729
5.9593 2.7756 -2.0220 0.9729
5.6986 3.3023 -2.0258 0.9728
4.2109 5.1194 -2.0389 0.9726
3.7423 5.4815 -2.0414 0.9726
3.2420 5.8000 -2.0437 0.9726
2.7144 6.0718 -2.0457 0.9726
1.5904 6.4494 -2.0431 0.9726
-0.1611 6.1556 -1.8940 0.9746
-1.2517 6.0260 -1.8930 0.9746
-1.7832 5.8872 -1.8920 0.9746
-2.3642 5.8608 -1.9438 0.9739
-4.0205 5.2738 -2.0397 0.9726
-4.4688 4.8875 -2.0369 0.9727
-4.8795 4.4626 -2.0339 0.9727
-5.2495 4.0031 -2.0305 0.9728
-5.8562 2.9959 -2.0233 0.9728
-6.0884 2.4569 -2.0194 0.9729
-6.2707 1.9002 -2.0153 0.9730
-6.4818 0.7527 -2.0071 0.9731
-6.5095 0.1712 -2.0029 0.9731
-6.4853 -0.4092 -1.9987 0.9732
-6.4096 -0.9840 -1.9946 0.9732
-6.2835 -1.5486 -1.9905 0.9733
-5.8852 -2.6301 -1.9827 0.9734
-5.6168 -3.1388 -1.9791 0.9734
-5.3052 -3.6209 -1.9756 0.9735
-4.9529 -4.0729 -1.9723 0.9735
-4.5629 -4.4916 -1.9693 0.9736
-4.1383 -4.8739 -1.9666 0.9736
-3.6825 -5.2171 -1.9641 0.9736
-2.6914 -5.7765 -1.9601 0.9737
-2.1638 -5.9890 -1.9586 0.9737
-1.6200 -6.1544 -1.9574 0.9737
0.0671 -6.3590 -1.9560 0.9737
1.1964 -6.2486 -1.9568 0.9737
3.7932 -5.1402 -1.9649 0.9736
4.2421 -4.7876 -1.9675 0.9736
5.0404 -3.9696 -1.9734 0.9735
5.3834 -3.5101 -1.9767 0.9735
5.6852 -3.0213 -1.9802 0.9734
5.9431 -2.5069 -1.9839 0.9734
6.4333 -0.8491 -1.9959 0.9732
6.4969 -0.2724 -2.0001 0.9732
6.5089 0.3088 -2.0042 0.9731
6.4689 0.8900 -2.0084 0.9730
6.3769 1.4664 -2.0126 0.9730
5.5037 3.6318 -2.0282 0.9728
5.1667 4.1152 -2.0316 0.9727
4.7867 4.5670 -2.0349 0.9727
4.3666 4.9830 -2.0379 0.9727
3.9099 5.3597 -2.0406 0.9726
3.4203 5.6938 -2.0430 0.9726
1.7925 6.4021 -2.0449 0.9726
0.5922 6.2559 -1.9328 0.9740
0.0312 6.1577 -1.8940 0.9746
-0.5182 6.1354 -1.8938 0.9746
-1.0630 6.0630 -1.8933 0.9746
-1.5988 5.9412 -1.8924 0.9746
-2.1545 5.8624 -1.9211 0.9742
-2.7757 5.8730 -1.9980 0.9732
-3.3555 5.7162 -2.0387 0.9726
-4.3161 5.0271 -2.0379 0.9727
-5.1250 4.1675 -2.0317 0.9727
-5.4669 3.6874 -2.0283 0.9728
-6.0128 2.6476 -2.0207 0.9729
-6.2127 2.0966 -2.0168 0.9729
-6.4599 0.9554 -2.0085 0.9730
-6.4996 -0.2067 -2.0002 0.9732
-6.3333 -1.3526 -1.9919 0.9733
-6.1749 -1.9083 -1.9879 0.9733
-5.9685 -2.4467 -1.9840 0.9734
-5.7157 -2.9637 -1.9803 0.9734
-5.4189 -3.4555 -1.9768 0.9735
-5.0805 -3.9185 -1.9735 0.9735
-3.8452 -5.1017 -1.9650 0.9736
-3.3709 -5.4181 -1.9627 0.9736
-2.8714 -5.6915 -1.9607 0.9737
-2.3503 -5.9200 -1.9591 0.9737
-1.2596 -6.2362 -1.9569 0.9737
-0.6981 -6.3217 -1.9563 0.9737
2.1030 -6.0104 -1.9586 0.9737
3.6294 -5.2539 -1.9641 0.9736
4.0886 -4.9154 -1.9665 0.9736
4.9112 -4.1227 -1.9723 0.9735
5.5845 -3.1953 -1.9790 0.9734
5.8580 -2.6894 -1.9826 0.9734
6.0863 -2.1604 -1.9864 0.9733
6.4150 1.2657 -2.0111 0.9730
6.1126 2.3950 -2.0193 0.9729
4.9243 4.4129 -2.0338 0.9727
4.5179 4.8418 -2.0369 0.9727
3.5950 5.5820 -2.0422 0.9726
1.4156 6.4850 -2.0416 0.9726
0.7975 6.3158 -1.9580 0.9737
-3.1733 5.8143 -2.0374 0.9727
-4.1590 5.1619 -2.0389 0.9726
-5.3524 3.8587 -2.0295 0.9728
-5.6651 3.3600 -2.0259 0.9728
-6.1485 2.2912 -2.0182 0.9729
-6.3156 1.7301 -2.0141 0.9730
-6.4956 0.5781 -2.0058 0.9731
-6.5077 -0.0036 -2.0016 0.9731
-6.4679 -0.5828 -1.9974 0.9732
-6.3770 -1.1550 -1.9933 0.9732
-6.2359 -1.7157 -1.9893 0.9733
-6.0460 -2.2606 -1.9854 0.9733
-5.2034 -3.7601 -1.9746 0.9735
-4.8395 -4.2025 -1.9714 0.9735
-4.0044 -4.9813 -1.9658 0.9736
-2.5347 -5.8453 -1.9596 0.9737
-1.4540 -6.1947 -1.9572 0.9737
2.4495 -5.8811 -1.9595 0.9737
2.9670 -5.6441 -1.9612 0.9737
3.4621 -5.3625 -1.9633 0.9736
3.9314 -5.0384 -1.9656 0.9736
5.1477 -3.8347 -1.9743 0.9735
6.0118 -2.3478 -1.9851 0.9734
6.3586 -1.2472 -1.9930 0.9732
6.4578 -0.6765 -1.9971 0.9732
6.5059 -0.0980 -2.0013 0.9731
6.5024 0.4837 -2.0055 0.9731
6.4467 1.0640 -2.0097 0.9730
6.1802 2.2014 -2.0179 0.9729
