ply
format ascii 1.0
element vertex 1593
property float32 x
property float32 y
property float32 z
property float32 I
end_header
-6.9488 -1.1801 -1.9953 0.9711
-6.8147 -1.7946 -1.9950 0.9711
-6.6265 -2.3947 -1.9947 0.9711
-6.3858 -2.9757 -1.9944 0.9711
-3.9720 -5.8176 -1.9942 0.9711
-3.4377 -6.1491 -1.9943 0.9711
-1.6885 -6.8426 -1.9952 0.9711
0.1827 -7.0501 -1.9965 0.9711
1.4328 -6.9094 -1.9976 0.9711
2.6388 -6.5490 -1.9988 0.9711
3.2133 -6.2897 -1.9995 0.9711
4.2822 -5.6228 -2.0008 0.9710
5.6234 -4.2934 -2.0029 0.9710
5.9858 -3.7762 -2.0036 0.9710
6.3007 -3.2285 -2.0042 0.9710
6.5656 -2.6547 -2.0049 0.9710
6.7782 -2.0594 -2.0055 0.9710
6.9368 -1.4472 -2.0061 0.9710
7.0402 -0.8232 -2.0066 0.9710
7.0779 0.4406 -2.0076 0.9709
6.8898 1.6914 -2.0084 0.9709
6.4818 2.8890 -2.0090 0.9709
6.1990 3.4558 -2.0092 0.9709
5.4872 4.5024 -2.0094 0.9709
4.6003 5.4054 -2.0094 0.9709
4.0924 5.7832 -2.0056 0.9710
3.2954 5.6691 -1.8563 0.9731
2.7765 5.9397 -1.8561 0.9731
2.2355 6.1628 -1.8559 0.9731
1.6769 6.3365 -1.8556 0.9731
0.5245 6.5309 -1.8548 0.9731
-3.8725 5.2657 -1.8504 0.9732
-4.7429 4.4911 -1.8491 0.9732
-5.4350 4.2958 -1.9612 0.9716
-5.9102 3.8685 -1.9997 0.9711
-6.2303 3.3255 -1.9993 0.9711
-6.7177 2.1647 -1.9980 0.9711
-6.9913 0.9366 -1.9969 0.9711
-7.0430 -0.3199 -1.9959 0.9711
-6.9850 -0.9464 -1.9955 0.9711
-6.7035 -2.1712 -1.9948 0.9711
-6.4823 -2.7599 -1.9945 0.9711
-6.2098 -3.3265 -1.9943 0.9711
-5.8880 -3.8667 -1.9941 0.9711
-5.5195 -4.3760 -1.9940 0.9711
-5.1073 -4.8506 -1.9940 0.9711
-3.6419 -6.0301 -1.9943 0.9711
-3.0901 -6.3315 -1.9945 0.9711
-1.9170 -6.7817 -1.9951 0.9711
-1.3049 -6.9269 -1.9954 0.9711
-0.6822 -7.0171 -1.9959 0.9711
0.5752 -7.0302 -1.9968 0.9711
1.2001 -6.9528 -1.9974 0.9711
4.0907 -5.7625 -2.0006 0.9710
5.4755 -4.4790 -2.0026 0.9710
6.1881 -3.4376 -2.0040 0.9710
6.7045 -2.2853 -2.0052 0.9710
6.8836 -1.6789 -2.0058 0.9710
7.0763 -0.4298 -2.0069 0.9710
7.0433 0.8342 -2.0079 0.9709
6.9422 1.4592 -2.0082 0.9709
6.7856 2.0727 -2.0086 0.9709
6.5747 2.6698 -2.0089 0.9709
5.9972 3.7959 -2.0093 0.9709
5.6351 4.3157 -2.0094 0.9709
5.2280 4.8011 -2.0094 0.9709
4.2919 5.6530 -2.0093 0.9709
2.4411 6.0847 -1.8560 0.9731
1.8886 6.2771 -1.8557 0.9731
0.7434 6.5102 -1.8550 0.9731
0.1599 6.5490 -1.8545 0.9731
-2.6792 5.9677 -1.8519 0.9732
-3.0250 5.3919 -1.7502 0.9746
-3.6941 5.3933 -1.8506 0.9732
-5.0805 4.3002 -1.8843 0.9727
-6.1160 3.5331 -1.9995 0.9711
-6.6420 2.3891 -1.9982 0.9711
-6.8265 1.7868 -1.9976 0.9711
-6.9567 1.1707 -1.9971 0.9711
-7.0315 0.5456 -1.9966 0.9711
-6.9206 -1.3338 -1.9952 0.9711
-6.5716 -2.5410 -1.9946 0.9711
-5.2671 -4.6766 -1.9940 0.9711
-4.8292 -5.1276 -1.9940 0.9711
-4.3529 -5.5379 -1.9941 0.9711
-3.3006 -6.2240 -1.9944 0.9711
-2.1432 -6.7131 -1.9949 0.9711
-1.5364 -6.8787 -1.9953 0.9711
-0.9172 -6.9897 -1.9957 0.9711
-0.2904 -7.0452 -1.9961 0.9711
0.9661 -6.9884 -1.9972 0.9711
1.5858 -6.8764 -1.9978 0.9711
2.1932 -6.7096 -1.9984 0.9711
2.7836 -6.4894 -1.9990 0.9711
3.3522 -6.2174 -1.9996 0.9711
3.8946 -5.8957 -2.0003 0.9711
4.4062 -5.5269 -2.0010 0.9710
4.8831 -5.1137 -2.0017 0.9710
6.0686 -3.6428 -2.0037 0.9710
6.6233 -2.5087 -2.0050 0.9710
6.8227 -1.9087 -2.0056 0.9710
6.9868 1.2254 -2.0081 0.9709
6.8509 1.8438 -2.0085 0.9709
6.6603 2.4477 -2.0088 0.9709
6.4163 3.0321 -2.0090 0.9709
6.1209 3.5925 -2.0092 0.9709
4.9525 5.0848 -2.0094 0.9709
3.9582 5.8653 -2.0031 0.9710
2.6440 5.9996 -1.8561 0.9731
1.5359 6.3718 -1.8555 0.9731
0.3796 6.5406 -1.8547 0.9731
-0.2051 6.5467 -1.8542 0.9731
-1.3639 6.4027 -1.8532 0.9732
-3.0069 5.8080 -1.8515 0.9732
-3.9879 5.1781 -1.8502 0.9732
-4.4322 4.8003 -1.8496 0.9732
-4.8409 4.3844 -1.8490 0.9732
-5.6206 4.2434 -1.9937 0.9711
-6.3020 3.1863 -1.9991 0.9711
-6.5589 2.6109 -1.9985 0.9711
-6.7635 2.0150 -1.9979 0.9711
-6.9142 1.4036 -1.9973 0.9711
-7.0099 0.7813 -1.9967 0.9711
-7.0499 0.1531 -1.9962 0.9711
-6.9619 -1.1010 -1.9954 0.9711
-6.4193 -2.9029 -1.9944 0.9711
-5.8007 -3.9962 -1.9941 0.9711
-4.0378 -5.7720 -1.9942 0.9711
-3.5074 -6.1096 -1.9943 0.9711
-2.9490 -6.3987 -1.9945 0.9711
-2.3671 -6.6370 -1.9948 0.9711
-1.1510 -6.9545 -1.9955 0.9711
0.1025 -7.0515 -1.9965 0.9711
0.7310 -7.0162 -1.9970 0.9711
1.3541 -6.9250 -1.9975 0.9711
2.5641 -6.5784 -1.9987 0.9711
3.1414 -6.3256 -1.9994 0.9711
3.6941 -6.0223 -2.0001 0.9711
4.2178 -5.6708 -2.0007 0.9710
5.1615 -4.8349 -2.0021 0.9710
7.0845 -0.2728 -2.0071 0.9710
7.0823 0.3600 -2.0075 0.9709
7.0235 0.9902 -2.0080 0.9709
6.2378 3.3850 -2.0091 0.9709
5.9116 3.9280 -2.0093 0.9709
4.6615 5.3527 -2.0094 0.9709
3.3597 5.6314 -1.8564 0.9731
2.3055 6.1371 -1.8559 0.9731
1.7489 6.3172 -1.8556 0.9731
1.1784 6.4467 -1.8553 0.9731
0.5988 6.5247 -1.8549 0.9731
-0.5693 6.5241 -1.8539 0.9731
-1.7180 6.3156 -1.8529 0.9732
-5.8627 3.9335 -1.9986 0.9711
-6.4684 2.8297 -1.9987 0.9711
-7.0414 0.3895 -1.9964 0.9711
-7.0464 -0.2398 -1.9959 0.9711
-6.8890 -1.4869 -1.9951 0.9711
-6.5134 -2.6860 -1.9945 0.9711
-6.2473 -3.2557 -1.9943 0.9711
-5.5690 -4.3130 -1.9940 0.9711
-5.1621 -4.7922 -1.9940 0.9711
-4.7143 -5.2335 -1.9940 0.9711
-4.2291 -5.6332 -1.9941 0.9711
-3.7102 -5.9883 -1.9942 0.9711
-3.1619 -6.2958 -1.9944 0.9711
-1.9939 -6.7593 -1.9950 0.9711
-1.3836 -6.9114 -1.9954 0.9711
-0.1341 -7.0504 -1.9963 0.9711
3.4896 -6.1421 -1.9998 0.9711
4.0247 -5.8084 -2.0005 0.9711
4.9957 -5.0046 -2.0018 0.9710
5.8092 -4.0405 -2.0032 0.9710
6.4387 -2.9464 -2.0045 0.9710
6.8639 -1.7571 -2.0058 0.9710
6.9952 -1.1384 -2.0063 0.9710
7.0897 0.1222 -2.0074 0.9710
7.0522 0.7540 -2.0078 0.9709
6.9582 1.3801 -2.0082 0.9709
6.6046 2.5948 -2.0088 0.9709
6.3476 3.1738 -2.0091 0.9709
6.0399 3.7274 -2.0092 0.9709
5.6838 4.2513 -2.0094 0.9709
4.8385 5.1934 -2.0094 0.9709
3.7591 5.8458 -1.9675 0.9715
3.0406 5.8094 -1.8562 0.9731
1.9599 6.2553 -1.8557 0.9731
1.3941 6.4040 -1.8554 0.9731
0.8174 6.5015 -1.8550 0.9731
0.2344 6.5470 -1.8546 0.9731
-0.3502 6.5402 -1.8541 0.9731
-1.5054 6.3704 -1.8531 0.9732
-2.0668 6.2089 -1.8525 0.9732
-3.1347 5.7394 -1.8513 0.9732
-3.6327 5.4352 -1.8507 0.9732
-4.5372 4.7004 -1.8494 0.9732
-4.9664 4.3015 -1.8600 0.9731
-5.7189 4.1217 -1.9956 0.9711
-6.3706 3.0455 -1.9990 0.9711
-6.6147 2.4646 -1.9983 0.9711
-6.8060 1.8644 -1.9977 0.9711
-6.9432 1.2498 -1.9971 0.9711
-7.0251 0.6256 -1.9966 0.9711
-7.0212 -0.6318 -1.9957 0.9711
-6.9355 -1.2551 -1.9953 0.9711
-6.7948 -1.8681 -1.9949 0.9711
-6.6001 -2.4661 -1.9946 0.9711
-6.0559 -3.5984 -1.9942 0.9711
-4.4156 -5.4881 -1.9941 0.9711
-3.3711 -6.1860 -1.9944 0.9711
-2.2194 -6.6882 -1.9949 0.9711
-1.6145 -6.8606 -1.9952 0.9711
-0.3705 -7.0413 -1.9961 0.9711
1.5074 -6.8937 -1.9977 0.9711
2.1167 -6.7339 -1.9983 0.9711
3.2812 -6.2549 -1.9996 0.9711
3.8271 -5.9394 -2.0002 0.9711
5.6696 -4.2326 -2.0030 0.9710
6.0265 -3.7114 -2.0036 0.9710
6.5941 -2.5837 -2.0049 0.9710
6.8003 -1.9861 -2.0055 0.9710
7.0489 -0.7471 -2.0067 0.9710
7.0892 -0.1157 -2.0072 0.9710
7.0001 1.1458 -2.0081 0.9709
5.8231 4.0582 -2.0093 0.9709
5.4383 4.5614 -2.0094 0.9709
5.0100 5.0282 -2.0094 0.9709
4.5416 5.4547 -2.0094 0.9709
1.6083 6.3541 -1.8555 0.9731
0.4539 6.5360 -1.8548 0.9731
-0.7138 6.5094 -1.8538 0.9731
-1.2910 6.4180 -1.8533 0.9732
-2.4089 6.0830 -1.8522 0.9732
-2.9407 5.8421 -1.8516 0.9732
-3.2043 5.1610 -1.7197 0.9751
-3.9290 5.2233 -1.8503 0.9732
-5.9521 3.8048 -1.9999 0.9711
-6.2656 3.2579 -1.9992 0.9711
-6.7404 2.0919 -1.9979 0.9711
-6.8981 1.4822 -1.9974 0.9711
-7.0008 0.8610 -1.9968 0.9711
-7.0479 0.2333 -1.9963 0.9711
-7.0390 -0.3959 -1.9958 0.9711
-6.9742 -1.0218 -1.9954 0.9711
-6.8540 -1.6392 -1.9950 0.9711
-6.1734 -3.3934 -1.9943 0.9711
-5.4719 -4.4354 -1.9940 0.9711
-3.0216 -6.3646 -1.9945 0.9711
-2.4424 -6.6096 -1.9948 0.9711
-1.8436 -6.8021 -1.9951 0.9711
-1.2300 -6.9407 -1.9955 0.9711
0.0223 -7.0520 -1.9964 0.9711
0.6512 -7.0238 -1.9969 0.9711
1.2752 -6.9397 -1.9975 0.9711
1.8894 -6.8003 -1.9980 0.9711
2.4890 -6.6068 -1.9987 0.9711
3.0691 -6.3606 -1.9993 0.9711
4.1528 -5.7182 -2.0006 0.9710
5.1059 -4.8930 -2.0020 0.9710
5.5238 -4.4198 -2.0027 0.9710
5.8978 -3.9110 -2.0034 0.9710
6.2251 -3.3707 -2.0040 0.9710
6.5030 -2.8031 -2.0047 0.9710
6.7291 -2.2129 -2.0053 0.9710
0.8168 5.9742 -1.8546 0.9751
-0.2572 6.0216 -1.8538 0.9751
-0.7929 5.9732 -1.8533 0.9751
-1.3220 5.8772 -1.8529 0.9751
-2.3435 5.5458 -1.8518 0.9751
-3.2892 5.0383 -1.8507 0.9751
-3.7242 4.7235 -1.8501 0.9751
-4.1292 4.3712 -1.8495 0.9751
-4.8290 4.2747 -1.9836 0.9734
-5.2339 3.8588 -2.0000 0.9732
-5.5565 3.3764 -1.9998 0.9732
-5.8337 2.8666 -1.9992 0.9732
-6.4607 0.6458 -1.9971 0.9732
-6.4698 -0.5118 -1.9962 0.9732
-6.3972 -1.0864 -1.9958 0.9732
-6.1007 -2.2047 -1.9952 0.9732
-5.8792 -2.7396 -1.9950 0.9732
-5.6110 -3.2526 -1.9948 0.9732
-4.5497 -4.6211 -1.9946 0.9732
-4.1196 -5.0085 -1.9947 0.9732
-3.6568 -5.3561 -1.9948 0.9732
-3.1650 -5.6613 -1.9949 0.9732
-2.1096 -6.1349 -1.9954 0.9732
-1.5545 -6.2995 -1.9957 0.9732
-0.4110 -6.4779 -1.9965 0.9732
0.1682 -6.4902 -1.9969 0.9732
2.4290 -6.0284 -1.9991 0.9732
3.4632 -5.5044 -2.0003 0.9732
3.9415 -5.1753 -2.0009 0.9731
4.8010 -4.3957 -2.0022 0.9731
5.1755 -3.9514 -2.0028 0.9731
6.0421 -2.4431 -2.0046 0.9731
6.3835 -1.3318 -2.0057 0.9731
6.4785 -0.7575 -2.0062 0.9731
6.5217 -0.1769 -2.0067 0.9731
6.4521 0.9847 -2.0075 0.9731
6.3397 1.5563 -2.0078 0.9731
6.1766 2.1157 -2.0081 0.9730
5.9640 2.6583 -2.0084 0.9730
5.7038 3.1797 -2.0086 0.9730
5.0489 4.1427 -2.0088 0.9730
4.2328 4.9735 -2.0088 0.9730
3.7717 5.3301 -2.0084 0.9730
2.5547 5.4653 -1.8556 0.9751
1.5430 5.8305 -1.8551 0.9751
1.0168 5.9438 -1.8548 0.9751
0.4827 6.0096 -1.8544 0.9751
-1.1242 5.9188 -1.8530 0.9751
-2.1564 5.6219 -1.8520 0.9751
-2.6483 5.4056 -1.8515 0.9751
-3.5641 4.8463 -1.8503 0.9751
-3.9807 4.5078 -1.8497 0.9751
-5.0946 4.0268 -1.9974 0.9732
-5.4407 3.5613 -2.0001 0.9732
-5.7349 3.0611 -1.9995 0.9732
-6.4839 -0.2945 -1.9963 0.9732
-5.7171 -3.0626 -1.9949 0.9732
-5.0817 -4.0289 -1.9946 0.9732
-4.2853 -4.8674 -1.9946 0.9732
-3.8344 -5.2303 -1.9947 0.9732
-2.8449 -5.8291 -1.9951 0.9732
-2.3141 -6.0603 -1.9953 0.9732
-1.2013 -6.3770 -1.9959 0.9732
0.5295 -6.4718 -1.9972 0.9732
1.1047 -6.4004 -1.9977 0.9732
2.2252 -6.1058 -1.9988 0.9732
2.7616 -5.8848 -1.9994 0.9732
3.2763 -5.6168 -2.0000 0.9732
3.7652 -5.3040 -2.0007 0.9731
4.6503 -4.5538 -2.0019 0.9731
5.0394 -4.1223 -2.0025 0.9731
5.3886 -3.6577 -2.0032 0.9731
5.6950 -3.1637 -2.0038 0.9731
6.4488 -0.9743 -2.0060 0.9731
6.5116 -0.3955 -2.0065 0.9731
6.5223 0.1867 -2.0070 0.9731
6.3879 1.3427 -2.0077 0.9731
6.2437 1.9072 -2.0080 0.9730
6.0496 2.4566 -2.0083 0.9730
3.9491 5.2014 -2.0087 0.9730
3.4595 5.5167 -2.0029 0.9731
2.7367 5.3768 -1.8557 0.9751
1.7378 5.7758 -1.8552 0.9751
1.2157 5.9068 -1.8549 0.9751
0.6840 5.9905 -1.8545 0.9751
0.1472 6.0263 -1.8541 0.9751
-0.3907 6.0141 -1.8537 0.9751
-0.9251 5.9538 -1.8532 0.9751
-1.4519 5.8460 -1.8527 0.9751
-1.9668 5.6917 -1.8522 0.9751
-2.4657 5.4921 -1.8517 0.9751
-3.8277 4.6394 -1.8500 0.9751
-5.6296 3.2521 -1.9997 0.9732
-6.2841 1.6448 -1.9980 0.9732
-6.4041 1.0777 -1.9974 0.9732
-6.4731 0.5023 -1.9970 0.9732
-6.4566 -0.6551 -1.9961 0.9732
-6.3713 -1.2280 -1.9957 0.9732
-6.2354 -1.7909 -1.9954 0.9732
-6.0501 -2.3394 -1.9952 0.9732
-5.5374 -3.3761 -1.9948 0.9732
-5.2140 -3.8562 -1.9947 0.9732
-4.8493 -4.3056 -1.9946 0.9732
-4.4461 -4.7209 -1.9946 0.9732
-4.0076 -5.0986 -1.9947 0.9732
-3.5372 -5.4360 -1.9948 0.9732
-3.0387 -5.7302 -1.9950 0.9732
-2.5160 -5.9790 -1.9952 0.9732
-1.9732 -6.1804 -1.9955 0.9732
-0.8444 -6.4348 -1.9962 0.9732
2.0189 -6.1763 -1.9986 0.9732
2.5623 -5.9735 -1.9992 0.9732
3.0856 -5.7229 -1.9998 0.9732
3.5847 -5.4267 -2.0004 0.9731
4.4944 -4.7067 -2.0017 0.9731
4.8977 -4.2885 -2.0023 0.9731
5.2622 -3.8360 -2.0029 0.9731
5.5850 -3.3525 -2.0036 0.9731
6.4119 -1.1900 -2.0058 0.9731
6.4941 -0.6137 -2.0063 0.9731
6.5244 -0.0322 -2.0068 0.9731
6.4289 1.1275 -2.0076 0.9731
6.3038 1.6966 -2.0079 0.9730
6.1283 2.2522 -2.0082 0.9730
5.9038 2.7899 -2.0084 0.9730
5.6320 3.3055 -2.0086 0.9730
5.3151 3.7947 -2.0087 0.9730
4.5568 4.6786 -2.0088 0.9730
3.6486 5.4065 -2.0062 0.9731
2.4328 5.5205 -1.8555 0.9751
1.4132 5.8631 -1.8550 0.9751
-1.2551 5.8920 -1.8529 0.9751
-1.7749 5.7551 -1.8524 0.9751
-2.7673 5.3452 -1.8513 0.9751
-5.5179 3.4395 -1.9999 0.9732
-6.2260 1.8549 -1.9982 0.9732
-6.3649 1.2921 -1.9976 0.9732
-6.4531 0.7192 -1.9971 0.9732
-6.4901 0.1409 -1.9967 0.9732
-6.4754 -0.4382 -1.9962 0.9732
-5.3405 -3.6792 -1.9947 0.9732
-4.9910 -4.1405 -1.9946 0.9732
-4.6019 -4.5690 -1.9946 0.9732
-3.7175 -5.3141 -1.9948 0.9732
-3.2291 -5.6248 -1.9949 0.9732
-2.7150 -5.8909 -1.9951 0.9732
-2.1792 -6.1104 -1.9954 0.9732
0.0944 -6.4915 -1.9969 0.9732
0.6730 -6.4588 -1.9973 0.9732
1.2465 -6.3747 -1.9979 0.9732
1.8104 -6.2399 -1.9984 0.9732
2.3602 -6.0554 -1.9990 0.9732
3.4003 -5.5432 -2.0002 0.9732
3.8822 -5.2196 -2.0008 0.9731
4.3335 -4.8542 -2.0014 0.9731
5.1300 -4.0099 -2.0027 0.9731
5.4688 -3.5376 -2.0033 0.9731
6.2155 -1.9659 -2.0051 0.9731
6.4692 -0.8311 -2.0061 0.9731
6.5191 -0.2511 -2.0066 0.9731
6.5169 0.3313 -2.0071 0.9731
6.3568 1.4841 -2.0078 0.9731
5.7395 3.1146 -2.0085 0.9730
4.7112 4.5231 -2.0088 0.9730
4.2891 4.9251 -2.0088 0.9730
3.3234 5.5706 -1.9951 0.9732
2.6168 5.4360 -1.8556 0.9751
1.6092 5.8127 -1.8551 0.9751
1.0843 5.9320 -1.8548 0.9751
0.5510 6.0039 -1.8544 0.9751
0.0135 6.0278 -1.8540 0.9751
-0.5239 6.0035 -1.8536 0.9751
-2.5867 5.4356 -1.8515 0.9751
-3.5088 4.8867 -1.8504 0.9751
-3.9293 4.5530 -1.8498 0.9751
-5.6999 3.1262 -1.9995 0.9732
-6.3186 1.5050 -1.9978 0.9732
-6.4822 0.3586 -1.9968 0.9732
-6.4402 -0.7981 -1.9960 0.9732
-6.3422 -1.3689 -1.9957 0.9732
-6.1940 -1.9286 -1.9953 0.9732
-5.7516 -2.9974 -1.9949 0.9732
-5.4611 -3.4980 -1.9947 0.9732
-4.7526 -4.4121 -1.9946 0.9732
-4.3403 -4.8183 -1.9946 0.9732
-3.8936 -5.1863 -1.9947 0.9732
-2.9110 -5.7963 -1.9950 0.9732
-1.8357 -6.2228 -1.9955 0.9732
1.0318 -6.4123 -1.9977 0.9732
2.1555 -6.1305 -1.9988 0.9732
3.7045 -5.3463 -2.0006 0.9731
5.9255 -2.7116 -2.0043 0.9731
6.1454 -2.1730 -2.0049 0.9731
6.3164 -1.6169 -2.0054 0.9731
6.5065 -0.4696 -2.0065 0.9731
6.2649 1.8360 -2.0080 0.9730
6.0771 2.3876 -2.0083 0.9730
5.8406 2.9202 -2.0085 0.9730
5.2298 3.9117 -2.0087 0.9730
4.8603 4.3625 -2.0088 0.9730
4.0080 5.1562 -2.0087 0.9730
3.5240 5.4801 -2.0040 0.9731
2.7978 5.3454 -1.8557 0.9751
-0.3223 6.0183 -1.8538 0.9751
-0.8573 5.9641 -1.8533 0.9751
-1.3853 5.8624 -1.8528 0.9751
-2.4032 5.5199 -1.8517 0.9751
-2.8849 5.2821 -1.8512 0.9751
-3.7748 4.6828 -1.8500 0.9751
-4.1760 4.3262 -1.8494 0.9752
-5.5924 3.3161 -1.9998 0.9732
-6.0889 2.2687 -1.9986 0.9732
-6.3916 1.1505 -1.9975 0.9732
-6.4671 0.5759 -1.9970 0.9732
-6.4912 -0.0030 -1.9966 0.9732
-6.4638 -0.5816 -1.9961 0.9732
-6.3850 -1.1554 -1.9958 0.9732
-6.2555 -1.7198 -1.9955 0.9732
-4.8980 -4.2502 -1.9946 0.9732
-4.4995 -4.6700 -1.9946 0.9732
-2.5838 -5.9499 -1.9952 0.9732
-2.0433 -6.1574 -1.9954 0.9732
-1.4864 -6.3161 -1.9958 0.9732
-0.9175 -6.4246 -1.9961 0.9732
-0.3410 -6.4822 -1.9965 0.9732
0.8161 -6.4427 -1.9975 0.9732
1.9485 -6.1987 -1.9985 0.9732
2.4941 -6.0020 -1.9991 0.9732
5.2180 -3.8954 -2.0029 0.9731
5.5463 -3.4157 -2.0035 0.9731
6.0684 -2.3777 -2.0047 0.9731
6.3977 -1.2628 -2.0058 0.9731
6.4412 1.0543 -2.0075 0.9731
6.3226 1.6247 -2.0079 0.9731
6.1534 2.1823 -2.0082 0.9730
5.9351 2.7226 -2.0084 0.9730
5.6692 3.2412 -2.0086 0.9730
5.3579 3.7340 -2.0087 0.9730
5.0038 4.1970 -2.0088 0.9730
3.7119 5.3676 -2.0073 0.9731
1.9956 5.6924 -1.8553 0.9751
0.4177 6.0143 -1.8543 0.9751
-0.6569 5.9901 -1.8535 0.9751
-1.7094 5.7751 -1.8525 0.9751
-2.2169 5.5981 -1.8519 0.9751
-2.7064 5.3765 -1.8514 0.9751
-3.1740 5.1122 -1.8508 0.9751
-3.6161 4.8074 -1.8502 0.9751
-5.1400 3.9732 -1.9982 0.9732
-5.4787 3.5022 -2.0000 0.9732
-6.4447 0.7926 -1.9972 0.9732
-6.4801 -0.3645 -1.9963 0.9732
-6.3101 -1.5091 -1.9956 0.9732
-5.9401 -2.6052 -1.9950 0.9732
-5.3821 -3.6182 -1.9947 0.9732
-4.2325 -4.9134 -1.9946 0.9732
-3.2929 -5.5877 -1.9949 0.9732
-2.2486 -6.0851 -1.9953 0.9732
-1.6973 -6.2623 -1.9956 0.9732
-1.1324 -6.3898 -1.9960 0.9732
-0.5583 -6.4666 -1.9964 0.9732
1.1739 -6.3883 -1.9978 0.9732
1.7392 -6.2599 -1.9983 0.9732
2.2911 -6.0816 -1.9989 0.9732
2.8250 -5.8548 -1.9995 0.9732
3.3369 -5.5813 -2.0001 0.9732
4.2778 -4.9030 -2.0014 0.9731
4.6994 -4.5035 -2.0020 0.9731
5.0838 -4.0678 -2.0026 0.9731
6.3511 -1.4766 -2.0056 0.9731
0.7556 5.5268 -1.8542 0.9768
-0.2380 5.5709 -1.8535 0.9768
-0.7336 5.5262 -1.8531 0.9768
-2.1682 5.1311 -1.8516 0.9768
-3.0434 4.6618 -1.8506 0.9768
-4.8442 3.5714 -2.0006 0.9750
-5.3984 2.6528 -1.9994 0.9750
-5.6120 2.1603 -1.9989 0.9750
-5.9035 1.1286 -1.9979 0.9750
-5.9878 -0.4737 -1.9966 0.9750
-5.9207 -1.0055 -1.9963 0.9750
-5.8066 -1.5292 -1.9960 0.9750
-5.4414 -2.5356 -1.9955 0.9750
-5.1932 -3.0104 -1.9953 0.9750
-4.5756 -3.8846 -1.9952 0.9750
-4.2110 -4.2771 -1.9951 0.9750
-3.8129 -4.6356 -1.9952 0.9750
-2.9293 -5.2398 -1.9954 0.9750
-2.4507 -5.4806 -1.9956 0.9750
-1.9525 -5.6780 -1.9959 0.9750
-0.3804 -5.9953 -1.9969 0.9750
0.1557 -6.0066 -1.9973 0.9750
0.6908 -5.9701 -1.9977 0.9750
1.2206 -5.8861 -1.9982 0.9750
2.7370 -5.3575 -1.9998 0.9750
3.2047 -5.0936 -2.0004 0.9750
3.6472 -4.7889 -2.0009 0.9749
4.7887 -3.6561 -2.0027 0.9749
5.3650 -2.7490 -2.0038 0.9749
5.5902 -2.2603 -2.0044 0.9749
6.0335 -0.1636 -2.0063 0.9749
5.7139 1.9572 -2.0077 0.9749
5.5172 2.4591 -2.0079 0.9749
4.9935 3.4004 -2.0082 0.9749
4.6705 3.8323 -2.0082 0.9749
2.3878 5.1081 -1.8743 0.9765
1.9029 5.2458 -1.8549 0.9768
1.4274 5.3938 -1.8547 0.9768
-0.0510 5.5762 -1.8536 0.9768
-0.5478 5.5482 -1.8532 0.9768
-1.0401 5.4760 -1.8528 0.9768
-1.9951 5.2015 -1.8518 0.9768
-2.8856 4.7617 -1.8508 0.9768
-3.2977 4.4842 -1.8503 0.9768
-3.7639 4.2623 -1.8902 0.9763
-4.3600 4.1286 -1.9960 0.9750
-4.7221 3.7323 -2.0008 0.9749
-5.0347 3.2955 -2.0002 0.9750
-5.3070 2.8327 -1.9996 0.9750
-5.7226 1.8440 -1.9986 0.9750
-5.9563 0.7979 -1.9976 0.9750
-6.0024 0.2636 -1.9971 0.9750
-5.9515 -0.8064 -1.9964 0.9750
-5.8550 -1.3336 -1.9961 0.9750
-5.7119 -1.8501 -1.9958 0.9750
-5.5236 -2.3517 -1.9956 0.9750
-5.2914 -2.8346 -1.9954 0.9750
-5.0173 -3.2949 -1.9952 0.9750
-2.6331 -5.3951 -1.9955 0.9750
-2.1418 -5.6090 -1.9958 0.9750
-1.6334 -5.7784 -1.9960 0.9750
-0.0459 -6.0079 -1.9971 0.9750
0.4901 -5.9894 -1.9976 0.9750
1.0224 -5.9232 -1.9980 0.9750
2.0592 -5.6504 -1.9990 0.9750
2.5555 -5.4457 -1.9996 0.9750
3.0317 -5.1976 -2.0002 0.9750
3.4841 -4.9080 -2.0007 0.9749
4.3029 -4.2136 -2.0019 0.9749
4.6629 -3.8143 -2.0025 0.9749
5.2692 -2.9271 -2.0036 0.9749
5.8606 -1.4294 -2.0052 0.9749
5.9662 -0.9014 -2.0057 0.9749
6.0241 -0.3659 -2.0061 0.9749
6.0340 0.1727 -2.0066 0.9749
5.9957 0.7101 -2.0069 0.9749
5.9095 1.2421 -2.0073 0.9749
5.5964 2.2726 -2.0078 0.9749
5.3720 2.7628 -2.0080 0.9749
3.2063 5.1130 -2.0061 0.9749
2.0779 5.1793 -1.8550 0.9768
1.1246 5.4644 -1.8545 0.9768
0.1361 5.5752 -1.8538 0.9768
-1.3433 5.4087 -1.8525 0.9768
-1.8197 5.2660 -1.8520 0.9768
-2.7246 4.8564 -1.8510 0.9768
-3.1458 4.5928 -1.8505 0.9768
-4.9218 3.4629 -2.0004 0.9750
-5.8155 1.5222 -1.9982 0.9750
-6.0070 -0.0711 -1.9969 0.9750
-5.8967 -1.1365 -1.9962 0.9750
-5.7711 -1.6575 -1.9959 0.9750
-5.5996 -2.1652 -1.9956 0.9750
-4.8259 -3.5691 -1.9952 0.9750
-3.7092 -4.7191 -1.9952 0.9750
-3.2739 -5.0312 -1.9953 0.9750
-2.8125 -5.3035 -1.9955 0.9750
-2.3286 -5.5338 -1.9957 0.9750
-1.8262 -5.7201 -1.9959 0.9750
-0.7815 -5.9554 -1.9966 0.9750
-0.2474 -6.0025 -1.9970 0.9750
2.3712 -5.5278 -1.9994 0.9750
3.7527 -4.7072 -2.0011 0.9749
4.1587 -4.3551 -2.0017 0.9749
4.8690 -3.5493 -2.0028 0.9749
5.4250 -2.6296 -2.0040 0.9749
5.6394 -2.1360 -2.0045 0.9749
5.8089 -1.6251 -2.0050 0.9749
6.0080 -0.5678 -2.0060 0.9749
6.0360 -0.0298 -2.0064 0.9749
6.0157 0.5086 -2.0068 0.9749
5.8317 1.5695 -2.0075 0.9749
5.6692 2.0835 -2.0077 0.9749
5.4615 2.5809 -2.0079 0.9749
5.2100 3.0578 -2.0081 0.9749
4.9169 3.5104 -2.0082 0.9749
4.5844 3.9349 -2.0083 0.9749
4.2153 4.3280 -2.0083 0.9749
3.3794 5.0075 -2.0081 0.9749
2.9094 5.2707 -2.0012 0.9749
2.2506 5.1069 -1.8551 0.9768
1.7861 5.2866 -1.8549 0.9768
0.8184 5.5180 -1.8543 0.9768
0.3231 5.5679 -1.8539 0.9768
-0.1746 5.5734 -1.8535 0.9768
-1.1612 5.4512 -1.8527 0.9768
-2.1098 5.1556 -1.8517 0.9768
-2.9903 4.6963 -1.8507 0.9768
-3.4008 4.4157 -1.8527 0.9768
-5.7618 1.7166 -1.9984 0.9750
-5.9319 -0.9381 -1.9963 0.9750
-5.4700 -2.4735 -1.9955 0.9750
-5.2272 -2.9512 -1.9953 0.9750
-4.9429 -3.4053 -1.9952 0.9750
-3.4407 -4.9185 -1.9953 0.9750
-2.9887 -5.2060 -1.9954 0.9750
-2.0170 -5.6553 -1.9958 0.9750
-0.9807 -5.9254 -1.9964 0.9750
-0.4486 -5.9904 -1.9968 0.9750
0.6228 -5.9774 -1.9977 0.9750
2.6758 -5.3881 -1.9997 0.9750
3.1465 -5.1295 -2.0003 0.9750
3.5923 -4.8299 -2.0009 0.9749
4.3956 -4.1175 -2.0020 0.9749
4.7466 -3.7102 -2.0026 0.9749
5.3332 -2.8098 -2.0038 0.9749
5.7505 -1.8188 -2.0048 0.9749
6.0311 -0.2323 -2.0063 0.9749
5.9787 0.8429 -2.0070 0.9749
5.3095 2.8813 -2.0080 0.9749
5.0318 3.3434 -2.0082 0.9749
1.4887 5.3774 -1.8547 0.9768
1.0031 5.4878 -1.8544 0.9768
0.0125 5.5766 -1.8537 0.9768
-0.4847 5.5542 -1.8533 0.9768
-0.9777 5.4876 -1.8528 0.9768
-2.3933 5.0292 -1.8514 0.9768
-2.8314 4.7944 -1.8509 0.9768
-3.2467 4.5216 -1.8503 0.9768
-3.6793 4.2633 -1.8719 0.9765
-4.3112 4.1763 -1.9952 0.9750
-4.9970 3.3527 -2.0003 0.9750
-5.9992 0.3319 -1.9972 0.9750
-5.9604 -0.7386 -1.9964 0.9750
-5.8699 -1.2669 -1.9961 0.9750
-5.7327 -1.7850 -1.9958 0.9750
-5.5501 -2.2888 -1.9956 0.9750
-5.0545 -3.2376 -1.9953 0.9750
-4.7455 -3.6752 -1.9952 0.9750
-4.3988 -4.0836 -1.9951 0.9750
-4.0172 -4.4596 -1.9952 0.9750
-3.1616 -5.1027 -1.9953 0.9750
-2.2054 -5.5842 -1.9957 0.9750
-1.1789 -5.8888 -1.9963 0.9750
-0.1142 -6.0068 -1.9971 0.9750
0.4219 -5.9944 -1.9975 0.9750
0.9549 -5.9343 -1.9980 0.9750
1.4806 -5.8270 -1.9985 0.9750
1.9948 -5.6732 -1.9990 0.9750
2.4933 -5.4742 -1.9995 0.9750
4.2546 -4.2621 -2.0018 0.9749
4.6190 -3.8670 -2.0024 0.9749
4.9468 -3.4407 -2.0030 0.9749
5.2354 -2.9868 -2.0036 0.9749
5.4823 -2.5088 -2.0041 0.9749
5.6857 -2.0105 -2.0046 0.9749
6.0354 0.1040 -2.0065 0.9749
6.0033 0.6419 -2.0069 0.9749
5.6218 2.2087 -2.0078 0.9749
4.4961 4.0356 -2.0083 0.9749
4.1183 4.4204 -2.0082 0.9749
2.7529 5.2596 -1.9733 0.9753
1.6683 5.3247 -1.8548 0.9768
0.6958 5.5345 -1.8542 0.9768
0.1996 5.5734 -1.8538 0.9768
-0.7932 5.5178 -1.8530 0.9768
-1.2817 5.4238 -1.8526 0.9768
-1.7597 5.2865 -1.8521 0.9768
-2.6692 4.8872 -1.8511 0.9768
-3.0935 4.6285 -1.8505 0.9768
-3.4928 4.3329 -1.8500 0.9768
-4.1098 4.2576 -1.9670 0.9754
-4.5457 3.9372 -1.9990 0.9750
-4.8823 3.5188 -2.0005 0.9750
-5.6348 2.0995 -1.9988 0.9750
-5.7980 1.5883 -1.9983 0.9750
-5.9851 0.5330 -1.9974 0.9750
-6.0076 -0.0028 -1.9969 0.9750
-5.9822 -0.5383 -1.9966 0.9750
-5.9094 -1.0694 -1.9962 0.9750
-5.7897 -1.5918 -1.9959 0.9750
-5.6240 -2.1014 -1.9957 0.9750
-5.4136 -2.5942 -1.9955 0.9750
-4.5333 -3.9338 -1.9951 0.9750
-4.1645 -4.3223 -1.9951 0.9750
0.7552 -5.9625 -1.9978 0.9750
1.2842 -5.8728 -1.9983 0.9750
1.8031 -5.7364 -1.9988 0.9750
2.3080 -5.5542 -1.9993 0.9750
4.4862 -4.0193 -2.0022 0.9749
5.3946 -2.6910 -2.0039 0.9749
5.7898 -1.6910 -2.0050 0.9749
5.9190 -1.1683 -2.0055 0.9749
6.0210 0.4401 -2.0068 0.9749
5.9588 0.9754 -2.0071 0.9749
5.6925 2.0188 -2.0077 0.9749
5.2444 2.9983 -2.0081 0.9749
4.6289 3.8825 -2.0082 0.9749
4.2643 4.2798 -2.0083 0.9749
3.8656 4.6429 -2.0082 0.9749
3.4361 4.9688 -2.0081 0.9749
2.9706 5.2398 -2.0022 0.9749
2.3088 5.0816 -1.8553 0.9767
0.3864 5.5640 -1.8540 0.9768
-0.1112 5.5752 -1.8536 0.9768
-1.5815 5.3431 -1.8523 0.9768
-2.0511 5.1794 -1.8518 0.9768
-2.5041 4.9746 -1.8512 0.9768
-2.9368 4.7301 -1.8507 0.9768
-3.3459 4.4482 -1.8502 0.9768
-4.7620 3.6810 -2.0007 0.9749
-5.0698 3.2408 -2.0001 0.9750
-5.5617 2.2875 -1.9990 0.9750
-5.8766 1.2627 -1.9980 0.9750
-5.9973 -0.3374 -1.9967 0.9750
-5.8401 -1.3967 -1.9960 0.9750
-5.6915 -1.9116 -1.9958 0.9750
-4.9814 -3.3488 -1.9952 0.9750
-4.6628 -3.7795 -1.9952 0.9750
-3.9174 -4.5476 -1.9952 0.9750
-3.0477 -5.1717 -1.9954 0.9750
-2.5747 -5.4233 -1.9956 0.9750
-2.0811 -5.6319 -1.9958 0.9750
-1.5709 -5.7958 -1.9961 0.9750
-0.5167 -5.9848 -1.9968 0.9750
0.0190 -6.0082 -1.9972 0.9750
0.5548 -5.9839 -1.9976 0.9750
1.0863 -5.9120 -1.9981 0.9750
1.6095 -5.7931 -1.9986 0.9750
2.1202 -5.6280 -1.9991 0.9750
3.0878 -5.1648 -2.0002 0.9750
4.3484 -4.1671 -2.0020 0.9749
4.7040 -3.7638 -2.0026 0.9749
5.0222 -3.3304 -2.0031 0.9749
5.3007 -2.8702 -2.0037 0.9749
0.7022 5.1364 -1.8539 0.9782
-0.6818 5.1361 -1.8528 0.9782
-1.1367 5.0537 -1.8524 0.9782
-2.0153 4.7691 -1.8515 0.9782
-2.8288 4.3331 -1.8505 0.9783
-3.3452 4.2428 -1.9321 0.9773
-4.7798 2.9044 -2.0001 0.9765
-5.2170 2.0082 -1.9991 0.9765
-5.3740 1.5347 -1.9986 0.9765
-5.5587 0.5556 -1.9977 0.9765
-5.5668 -0.4404 -1.9970 0.9766
-5.5045 -0.9348 -1.9966 0.9766
-4.8283 -2.7989 -1.9958 0.9766
-3.5450 -4.3099 -1.9956 0.9766
-3.1468 -4.6090 -1.9957 0.9766
-2.2785 -5.0955 -1.9960 0.9766
-1.8153 -5.2789 -1.9963 0.9766
-1.3376 -5.4205 -1.9965 0.9766
-0.8491 -5.5190 -1.9969 0.9766
0.1447 -5.5841 -1.9976 0.9765
1.6185 -5.3503 -1.9989 0.9765
2.9790 -4.7348 -2.0005 0.9765
3.3902 -4.4515 -2.0010 0.9765
3.7747 -4.1327 -2.0015 0.9765
4.1292 -3.7807 -2.0021 0.9765
4.9865 -2.5551 -2.0037 0.9765
5.6074 -0.1521 -2.0060 0.9765
5.5997 0.3485 -2.0064 0.9764
5.5472 0.8466 -2.0067 0.9764
5.1273 2.2853 -2.0074 0.9764
4.6405 3.1601 -2.0077 0.9764
4.3404 3.5614 -2.0078 0.9764
2.8199 4.8511 -2.0066 0.9764
1.3266 5.0127 -1.8543 0.9782
0.8742 5.1103 -1.8540 0.9782
-0.5091 5.1565 -1.8530 0.9782
-1.4163 4.9818 -1.8521 0.9782
-1.8543 4.8345 -1.8517 0.9782
-2.2774 4.6487 -1.8512 0.9782
-2.6821 4.4260 -1.8507 0.9783
-3.1221 4.2454 -1.8845 0.9779
-3.6932 4.1823 -1.9953 0.9766
-4.0622 3.8466 -2.0006 0.9765
-4.3895 3.4694 -2.0008 0.9765
-4.6801 3.0634 -2.0003 0.9765
-4.9333 2.6332 -1.9998 0.9765
-5.5373 0.7418 -1.9979 0.9765
-5.5788 -0.2534 -1.9971 0.9766
-5.5331 -0.7497 -1.9968 0.9766
-5.4434 -1.2399 -1.9965 0.9766
-3.6876 -4.1885 -1.9956 0.9766
-2.8853 -4.7773 -1.9958 0.9766
-1.9913 -5.2148 -1.9962 0.9766
-1.5186 -5.3723 -1.9964 0.9766
-1.0337 -5.4871 -1.9967 0.9766
-0.5404 -5.5583 -1.9971 0.9766
0.4556 -5.5681 -1.9978 0.9765
0.9505 -5.5065 -1.9983 0.9765
2.3756 -5.0623 -1.9997 0.9765
3.2031 -4.5122 -1.9788 0.9768
3.6335 -4.2565 -2.0013 0.9765
3.9997 -3.9167 -2.0019 0.9765
4.3341 -3.5454 -2.0024 0.9765
4.6342 -3.1457 -2.0030 0.9765
5.1219 -2.2738 -2.0040 0.9765
5.5449 -0.8377 -2.0054 0.9765
5.6078 0.1605 -2.0062 0.9764
5.4919 1.1544 -2.0069 0.9764
5.3679 1.6396 -2.0071 0.9764
5.2009 2.1119 -2.0074 0.9764
4.9923 2.5675 -2.0075 0.9764
4.4574 3.4137 -2.0078 0.9764
3.7802 4.1512 -2.0078 0.9764
3.3949 4.4716 -2.0077 0.9764
2.5399 4.9900 -2.0023 0.9765
1.9755 4.9240 -1.8973 0.9777
0.5881 5.1505 -1.8538 0.9782
0.1265 5.1814 -1.8535 0.9782
-0.3359 5.1711 -1.8531 0.9782
-0.7954 5.1194 -1.8527 0.9782
-3.4988 4.2407 -1.9660 0.9769
-3.9269 3.9766 -1.9985 0.9765
-5.2599 1.8919 -1.9990 0.9765
-5.4064 1.4151 -1.9985 0.9765
-5.5098 0.9272 -1.9980 0.9765
-5.5693 0.4322 -1.9976 0.9765
-5.5846 -0.0661 -1.9972 0.9766
-5.3655 -1.5410 -1.9963 0.9766
-5.2061 -2.0130 -1.9961 0.9766
-5.0054 -2.4690 -1.9959 0.9766
-3.8260 -4.0624 -1.9956 0.9766
-3.4486 -4.3875 -1.9957 0.9766
-3.0438 -4.6777 -1.9958 0.9766
-2.6148 -4.9309 -1.9959 0.9766
-1.6978 -5.3180 -1.9963 0.9766
-0.7265 -5.5367 -1.9969 0.9766
-0.2300 -5.5804 -1.9973 0.9766
0.7651 -5.5348 -1.9981 0.9765
4.5256 -3.2990 -2.0028 0.9765
4.8030 -2.8831 -2.0033 0.9765
5.0423 -2.4440 -2.0038 0.9765
5.3989 -1.5104 -2.0048 0.9765
5.5133 -1.0232 -2.0053 0.9765
5.5837 -0.5277 -2.0057 0.9765
5.6097 -0.0277 -2.0061 0.9765
5.5908 0.4726 -2.0064 0.9764
5.4196 1.4586 -2.0070 0.9764
5.2686 1.9362 -2.0073 0.9764
4.2604 3.6568 -2.0078 0.9764
3.9174 4.0221 -2.0078 0.9764
3.5431 4.3552 -2.0077 0.9764
3.1405 4.6536 -2.0077 0.9764
2.2061 5.0059 -1.9563 0.9770
0.7606 5.1282 -1.8539 0.9782
-0.6233 5.1436 -1.8529 0.9782
-1.9610 4.7919 -1.8515 0.9782
-2.3798 4.5968 -1.8511 0.9783
-2.7794 4.3651 -1.8506 0.9783
-3.2683 4.2437 -1.9155 0.9775
-3.7875 4.1020 -1.9966 0.9766
-4.9902 2.5230 -1.9996 0.9765
-5.1940 2.0675 -1.9991 0.9765
-5.4760 1.1116 -1.9982 0.9765
-5.5841 0.1213 -1.9974 0.9766
-5.5716 -0.3770 -1.9970 0.9766
-5.4144 -1.3602 -1.9964 0.9766
-5.2709 -1.8373 -1.9961 0.9766
-4.8599 -2.7438 -1.9958 0.9766
-4.2949 -3.5630 -1.9956 0.9766
-3.5938 -4.2693 -1.9956 0.9766
-3.1990 -4.5729 -1.9957 0.9766
-1.8752 -5.2579 -1.9962 0.9766
-0.9118 -5.5089 -1.9968 0.9766
-0.4170 -5.5692 -1.9972 0.9766
0.0812 -5.5853 -1.9975 0.9766
2.0304 -5.2092 -1.9994 0.9765
2.4874 -5.0087 -1.9999 0.9765
3.7273 -4.1752 -2.0015 0.9765
4.0858 -3.8273 -2.0020 0.9765
4.9570 -2.6116 -2.0036 0.9765
5.1714 -2.1597 -2.0041 0.9765
5.3447 -1.6905 -2.0046 0.9765
5.4754 -1.2075 -2.0051 0.9765
5.5625 -0.7146 -2.0055 0.9765
5.6031 0.2848 -2.0063 0.9764
5.3303 1.7583 -2.0072 0.9764
4.6761 3.1071 -2.0077 0.9764
4.3806 3.5118 -2.0078 0.9764
4.0501 3.8884 -2.0078 0.9764
1.8324 4.8777 -1.8633 0.9781
1.3835 4.9974 -1.8543 0.9782
0.4737 5.1620 -1.8537 0.9782
-1.3595 4.9977 -1.8522 0.9782
-2.6317 4.4563 -1.8508 0.9783
-4.6451 3.1165 -2.0004 0.9765
-4.9032 2.6893 -1.9998 0.9765
-5.1222 2.2408 -1.9993 0.9765
-5.5287 0.8048 -1.9979 0.9765
-5.5414 -0.6867 -1.9968 0.9766
-5.4573 -1.1779 -1.9965 0.9766
-5.3298 -1.6596 -1.9962 0.9766
-5.1600 -2.1279 -1.9960 0.9766
-4.9493 -2.5793 -1.9958 0.9766
-3.7350 -4.1463 -1.9956 0.9766
-3.3505 -4.4629 -1.9957 0.9766
-1.5796 -5.3546 -1.9964 0.9766
-0.6036 -5.5517 -1.9970 0.9766
0.3922 -5.5728 -1.9978 0.9765
0.8877 -5.5168 -1.9982 0.9765
2.7630 -4.8632 -2.0002 0.9765
3.1865 -4.5987 -2.0007 0.9765
3.9547 -3.9618 -2.0018 0.9765
4.8661 -2.7761 -2.0034 0.9765
5.0956 -2.3318 -2.0039 0.9765
5.2845 -1.8686 -2.0044 0.9765
5.5349 -0.9007 -2.0054 0.9765
5.5943 -0.4037 -2.0058 0.9765
5.5792 0.5965 -2.0065 0.9764
5.5046 1.0918 -2.0068 0.9764
4.7776 2.9484 -2.0077 0.9764
1.5505 4.9484 -1.8544 0.9782
1.1029 5.0662 -1.8542 0.9782
0.6467 5.1436 -1.8539 0.9782
0.1855 5.1798 -1.8535 0.9782
-0.2771 5.1747 -1.8532 0.9782
-1.1912 5.0410 -1.8523 0.9782
-1.6356 4.9135 -1.8519 0.9782
-2.4810 4.5425 -1.8509 0.9783
-2.8754 4.3021 -1.8505 0.9783
-3.4194 4.2418 -1.9484 0.9771
-4.2298 3.6636 -2.0011 0.9765
-4.5384 3.2710 -2.0006 0.9765
-4.8107 2.8525 -2.0000 0.9765
-5.2382 1.9517 -1.9990 0.9765
-5.3901 1.4766 -1.9985 0.9765
-5.4990 0.9899 -1.9981 0.9765
-5.5642 0.4955 -1.9977 0.9765
-5.5617 -0.5005 -1.9969 0.9766
-5.4940 -0.9942 -1.9966 0.9766
-5.2287 -1.9537 -1.9961 0.9766
-3.4983 -4.3480 -1.9957 0.9766
-2.6707 -4.9007 -1.9959 0.9766
-1.7582 -5.2983 -1.9963 0.9766
-1.2790 -5.4347 -1.9966 0.9766
0.2050 -5.5824 -1.9976 0.9765
0.7021 -5.5430 -1.9981 0.9765
1.6762 -5.3326 -1.9990 0.9765
3.0301 -4.7025 -2.0005 0.9765
4.4877 -3.3502 -2.0027 0.9765
4.7698 -2.9375 -2.0032 0.9765
5.0140 -2.5012 -2.0037 0.9765
5.3812 -1.5716 -2.0047 0.9765
5.5011 -1.0858 -2.0052 0.9765
5.2902 1.8761 -2.0073 0.9764
5.1024 2.3406 -2.0075 0.9764
4.3017 3.6081 -2.0078 0.9764
3.9629 3.9772 -2.0078 0.9764
3.5924 4.3147 -2.0078 0.9764
3.1932 4.6176 -2.0077 0.9764
2.7662 4.8793 -2.0058 0.9765
2.2902 5.0406 -1.9799 0.9768
0.3591 5.1710 -1.8537 0.9782
-0.1033 5.1815 -1.8533 0.9782
-1.0216 5.0785 -1.8525 0.9782
-1.4699 4.9660 -1.8521 0.9782
-1.9064 4.8140 -1.8516 0.9782
-2.3274 4.6237 -1.8511 0.9783
-2.7309 4.3986 -1.8515 0.9782
-3.1928 4.2446 -1.8994 0.9777
-4.7128 3.0126 -2.0002 0.9765
-5.1703 2.1265 -1.9992 0.9765
-5.4632 1.1739 -1.9983 0.9765
-5.5449 0.6819 -1.9978 0.9765
-5.5825 0.1848 -1.9974 0.9766
-5.5757 -0.3136 -1.9971 0.9766
-5.2915 -1.7773 -1.9962 0.9766
-4.3352 -3.5140 -1.9956 0.9766
-4.0046 -3.8865 -1.9956 0.9766
-2.8335 -4.8083 -1.9958 0.9766
-2.3937 -5.0422 -1.9960 0.9766
-1.9348 -5.2361 -1.9962 0.9766
-0.4803 -5.5640 -1.9971 0.9766
1.0099 -5.4961 -1.9983 0.9765
2.4302 -5.0365 -1.9998 0.9765
4.0419 -3.8734 -2.0019 0.9765
4.3723 -3.4985 -2.0025 0.9765
4.6681 -3.0955 -2.0030 0.9765
5.1463 -2.2183 -2.0041 0.9765
5.3249 -1.7511 -2.0046 0.9765
5.4611 -1.2696 -2.0050 0.9765
0.2252 4.8309 -1.8533 0.9795
-0.6361 4.7922 -1.8526 0.9795
-1.0607 4.7154 -1.8522 0.9795
-1.4765 4.6011 -1.8518 0.9795
-2.2692 4.2636 -1.8509 0.9795
-3.2263 4.0920 -1.9969 0.9779
-3.9102 3.4613 -2.0012 0.9779
-4.6833 2.3014 -1.9997 0.9779
-4.8687 1.8742 -1.9993 0.9779
-5.0153 1.4323 -1.9988 0.9779
-5.1220 0.9792 -1.9984 0.9779
-5.1879 0.5185 -1.9980 0.9779
-5.2125 0.0539 -1.9976 0.9779
-5.1375 -0.8725 -1.9970 0.9779
-5.0386 -1.3269 -1.9967 0.9779
-4.8997 -1.7707 -1.9965 0.9779
-4.5065 -2.6123 -1.9962 0.9779
-4.2555 -3.0036 -1.9961 0.9779
-3.9706 -3.3710 -1.9960 0.9779
-3.6542 -3.7116 -1.9960 0.9779
-2.9371 -4.3018 -1.9961 0.9779
-2.5420 -4.5469 -1.9963 0.9779
-1.6943 -4.9270 -1.9966 0.9779
-1.2484 -5.0591 -1.9969 0.9779
-0.7925 -5.1510 -1.9972 0.9779
-0.3301 -5.2020 -1.9975 0.9779
0.1351 -5.2116 -1.9979 0.9779
1.9501 -4.8397 -1.9996 0.9779
2.7800 -4.4186 -2.0005 0.9779
3.5224 -3.8565 -2.0016 0.9779
3.8532 -3.5280 -2.0021 0.9779
4.1535 -3.1711 -2.0026 0.9779
4.4208 -2.7889 -2.0031 0.9779
4.6530 -2.3842 -2.0035 0.9779
5.1215 -1.0685 -2.0049 0.9778
5.1974 -0.6077 -2.0053 0.9778
5.2319 -0.1419 -2.0057 0.9778
5.1756 0.7899 -2.0064 0.9778
5.0853 1.2484 -2.0066 0.9778
4.9543 1.6970 -2.0069 0.9778
4.7837 2.1322 -2.0071 0.9778
4.5749 2.5504 -2.0072 0.9778
3.7371 3.6705 -2.0074 0.9778
3.0256 4.2757 -2.0073 0.9778
0.8156 4.7680 -1.8537 0.9795
-0.0442 4.8354 -1.8531 0.9795
-0.9019 4.7488 -1.8523 0.9795
-1.7303 4.5110 -1.8515 0.9795
-2.1251 4.3377 -1.8511 0.9795
-2.5621 4.2279 -1.8945 0.9790
-3.0847 4.1945 -1.9953 0.9779
-3.4541 3.9115 -1.9997 0.9779
-4.3675 2.8588 -2.0004 0.9779
-4.8035 2.0367 -1.9994 0.9779
-4.9649 1.5999 -1.9990 0.9779
-5.0866 1.1506 -1.9985 0.9779
-5.1679 0.6923 -1.9981 0.9779
-5.2081 0.2287 -1.9977 0.9779
-4.9565 -1.6054 -1.9966 0.9779
-4.3539 -2.8592 -1.9961 0.9779
-3.4418 -3.9094 -1.9960 0.9779
-2.6930 -4.4589 -1.9962 0.9779
-1.8585 -4.8672 -1.9966 0.9779
-1.4173 -5.0141 -1.9968 0.9779
-0.9647 -5.1212 -1.9971 0.9779
-0.5044 -5.1877 -1.9974 0.9779
-0.0398 -5.2129 -1.9977 0.9779
0.4252 -5.1967 -1.9981 0.9779
1.7865 -4.9020 -1.9994 0.9779
3.0223 -4.2575 -2.0009 0.9779
3.7323 -3.6549 -2.0019 0.9779
4.9505 -1.6874 -2.0043 0.9778
5.1737 -0.7817 -2.0052 0.9778
5.2238 -0.3173 -2.0056 0.9778
5.0082 1.5298 -2.0068 0.9778
4.4259 2.8014 -2.0073 0.9778
3.8582 3.5431 -2.0074 0.9778
3.5269 3.8730 -2.0074 0.9778
2.7827 4.4375 -2.0072 0.9778
1.9433 4.8437 -2.0000 0.9779
0.1181 4.8345 -1.8532 0.9795
-0.7422 4.7767 -1.8525 0.9795
-1.1649 4.6905 -1.8521 0.9795
-1.5781 4.5669 -1.8517 0.9795
-2.3727 4.2293 -1.8584 0.9794
-3.6700 3.7164 -2.0016 0.9779
-3.9857 3.3736 -2.0011 0.9779
-4.5193 2.6107 -2.0001 0.9779
-4.7329 2.1968 -1.9996 0.9779
-4.9088 1.7657 -1.9991 0.9779
-5.0456 1.3207 -1.9987 0.9779
-5.1422 0.8653 -1.9983 0.9779
-5.1978 0.4033 -1.9979 0.9779
-5.2121 -0.0617 -1.9975 0.9779
-5.0078 -1.4383 -1.9967 0.9779
-4.1878 -3.0972 -1.9960 0.9779
-3.2188 -4.0951 -1.9961 0.9779
-2.8410 -4.3660 -1.9962 0.9779
-2.0207 -4.8019 -1.9965 0.9779
-1.5847 -4.9635 -1.9967 0.9779
-0.2147 -5.2083 -1.9976 0.9779
0.2506 -5.2076 -1.9980 0.9779
0.7141 -5.1655 -1.9984 0.9779
1.1721 -5.0824 -1.9988 0.9779
1.6209 -4.9587 -1.9992 0.9779
2.8775 -4.3561 -2.0007 0.9779
3.2553 -4.0832 -2.0012 0.9779
3.9307 -3.4419 -2.0022 0.9779
4.2230 -3.0784 -2.0027 0.9779
4.7050 -2.2805 -2.0037 0.9779
4.8907 -1.8524 -2.0041 0.9778
5.0375 -1.4093 -2.0046 0.9778
5.2099 -0.4923 -2.0054 0.9778
5.2340 -0.0259 -2.0058 0.9778
5.2163 0.4410 -2.0061 0.9778
5.1570 0.9045 -2.0064 0.9778
5.0565 1.3609 -2.0067 0.9778
4.9156 1.8065 -2.0069 0.9778
4.5173 2.6513 -2.0072 0.9778
3.9748 3.4117 -2.0074 0.9778
3.6548 3.7525 -2.0074 0.9778
3.3056 4.0633 -2.0073 0.9778
2.9300 4.3417 -2.0073 0.9778
2.1068 4.7807 -2.0020 0.9779
1.6161 4.7834 -1.9349 0.9786
-0.1514 4.8330 -1.8530 0.9795
-0.5816 4.7993 -1.8526 0.9795
-1.8298 4.4713 -1.8514 0.9795
-2.6913 4.2267 -1.9202 0.9788
-3.5421 3.8362 -2.0009 0.9779
-3.8707 3.5057 -2.0013 0.9779
-4.1668 3.1458 -2.0008 0.9779
-4.6570 2.3546 -1.9998 0.9779
-4.8473 1.9295 -1.9993 0.9779
-5.1817 0.5775 -1.9980 0.9779
-5.2116 0.1132 -1.9977 0.9779
-5.2001 -0.3519 -1.9973 0.9779
-5.0534 -1.2695 -1.9967 0.9779
-4.9196 -1.7148 -1.9965 0.9779
-4.7466 -2.1464 -1.9963 0.9779
-3.6962 -3.6698 -1.9960 0.9779
-3.3543 -3.9848 -1.9960 0.9779
-2.9858 -4.2681 -1.9961 0.9779
-2.5935 -4.5176 -1.9962 0.9779
-1.7502 -4.9074 -1.9966 0.9779
-0.8510 -5.1416 -1.9971 0.9779
1.4535 -5.0099 -1.9991 0.9779
3.1162 -4.1897 -2.0010 0.9779
3.8127 -3.5714 -2.0020 0.9779
4.3886 -2.8389 -2.0030 0.9779
4.8254 -2.0152 -2.0040 0.9778
5.1842 0.7309 -2.0063 0.9778
4.9732 1.6405 -2.0068 0.9778
4.8076 2.0776 -2.0070 0.9778
4.6035 2.4982 -2.0072 0.9778
3.7786 3.6278 -2.0074 0.9778
1.8219 4.8497 -1.9853 0.9781
1.2963 4.6826 -1.8620 0.9794
0.8698 4.7585 -1.8537 0.9795
-0.4203 4.8165 -1.8528 0.9795
-1.2686 4.6633 -1.8520 0.9795
-1.6789 4.5305 -1.8516 0.9795
-2.0757 4.3618 -1.8511 0.9795
-2.4971 4.2284 -1.8819 0.9792
-3.0321 4.2228 -1.9922 0.9780
-3.4084 3.9493 -1.9991 0.9779
-3.7513 3.6339 -2.0015 0.9779
-4.0593 3.2841 -2.0010 0.9779
-4.5758 2.5097 -2.0000 0.9779
-4.7802 2.0912 -1.9995 0.9779
-4.9465 1.6563 -1.9990 0.9779
-5.1598 0.7511 -1.9982 0.9779
-5.2052 0.2880 -1.9978 0.9779
-5.2093 -0.1773 -1.9974 0.9779
-5.1719 -0.6409 -1.9971 0.9779
-5.0934 -1.0994 -1.9968 0.9779
-4.9745 -1.5489 -1.9966 0.9779
-4.8161 -1.9861 -1.9964 0.9779
-4.6195 -2.4074 -1.9962 0.9779
-4.3862 -2.8095 -1.9961 0.9779
-4.1180 -3.1893 -1.9960 0.9779
-3.4861 -3.8700 -1.9960 0.9779
-3.1272 -4.1655 -1.9961 0.9779
-2.3379 -4.6553 -1.9963 0.9779
-1.4743 -4.9976 -1.9968 0.9779
-1.0229 -5.1098 -1.9970 0.9779
-0.0991 -5.2120 -1.9977 0.9779
1.2845 -5.0554 -1.9989 0.9779
1.7306 -4.9219 -1.9993 0.9779
2.5785 -4.5384 -2.0003 0.9779
2.9736 -4.2915 -2.0008 0.9779
3.3452 -4.0103 -2.0013 0.9779
4.0063 -3.3541 -2.0023 0.9779
4.5406 -2.5904 -2.0033 0.9779
4.7547 -2.1758 -2.0038 0.9779
5.2055 0.5566 -2.0062 0.9778
5.1359 1.0186 -2.0065 0.9778
5.0252 1.4727 -2.0067 0.9778
4.6846 2.3423 -2.0071 0.9778
4.4574 2.7508 -2.0073 0.9778
4.1946 3.1374 -2.0073 0.9778
3.5707 3.8326 -2.0074 0.9778
3.2147 4.1356 -2.0073 0.9778
2.4281 4.6391 -2.0066 0.9778
1.4855 4.7412 -1.9040 0.9789
1.0290 4.7269 -1.8538 0.9795
0.1731 4.8329 -1.8533 0.9795
-0.2585 4.8282 -1.8529 0.9795
-1.1115 4.7036 -1.8521 0.9795
-1.5261 4.5847 -1.8517 0.9795
-1.9284 4.4294 -1.8513 0.9795
-2.3150 4.2387 -1.8508 0.9795
-2.8240 4.2253 -1.9476 0.9785
-3.2712 4.0580 -1.9974 0.9779
-3.6276 3.7581 -2.0016 0.9779
-3.9472 3.4188 -2.0011 0.9779
-4.2353 3.0525 -2.0006 0.9779
-4.4894 2.6620 -2.0001 0.9779
-5.1321 0.9238 -1.9983 0.9779
-5.2126 -0.0024 -1.9976 0.9779
-5.1277 -0.9279 -1.9969 0.9779
-5.0239 -1.3812 -1.9967 0.9779
-3.2652 -4.0582 -1.9961 0.9779
-2.8904 -4.3333 -1.9961 0.9779
-2.4927 -4.5741 -1.9963 0.9779
-1.6410 -4.9451 -1.9967 0.9779
-0.2739 -5.2054 -1.9975 0.9779
0.1914 -5.2100 -1.9979 0.9779
0.6553 -5.1732 -1.9983 0.9779
1.1142 -5.0952 -1.9987 0.9779
1.5644 -4.9767 -1.9992 0.9779
2.4246 -4.6219 -2.0001 0.9779
3.2085 -4.1198 -2.0011 0.9779
3.5640 -3.8183 -2.0016 0.9779
3.8912 -3.4862 -2.0021 0.9779
4.1876 -3.1262 -2.0026 0.9779
4.6786 -2.3339 -2.0036 0.9779
5.2038 -0.5515 -2.0054 0.9778
5.2209 0.3816 -2.0061 0.9778
4.9357 1.7504 -2.0069 0.9778
4.7604 2.1837 -2.0071 0.9778
3.6973 3.7107 -2.0074 0.9778
1.6847 4.8056 -1.9515 0.9784
1.1871 4.6899 -1.8539 0.9795
0.3351 4.8247 -1.8534 0.9795
-0.0964 4.8345 -1.8530 0.9795
-0.5270 4.8057 -1.8527 0.9795
-0.9532 4.7386 -1.8523 0.9795
-2.1718 4.3144 -1.8510 0.9795
-3.1306 4.1620 -1.9958 0.9779
-3.4972 3.8751 -2.0003 0.9779
-3.8307 3.5496 -2.0013 0.9779
-4.1309 3.1931 -2.0008 0.9779
-4.3980 2.8114 -2.0003 0.9779
-4.8251 1.9846 -1.9994 0.9779
-4.9817 1.5461 -1.9989 0.9779
-5.0986 1.0955 -1.9985 0.9779
-5.1750 0.6364 -1.9981 0.9779
-5.1562 -0.7554 -1.9970 0.9779
-5.0676 -1.2120 -1.9968 0.9779
-4.3227 -2.9060 -1.9961 0.9779
-3.7377 -3.6275 -1.9960 0.9779
-3.0341 -4.2339 -1.9961 0.9779
-2.6447 -4.4878 -1.9962 0.9779
-1.3631 -5.0292 -1.9968 0.9779
0.0165 -5.2131 -1.9978 0.9779
1.3964 -5.0260 -1.9990 0.9779
2.6786 -4.4804 -2.0004 0.9779
3.4335 -3.9354 -2.0014 0.9779
4.0800 -3.2646 -2.0024 0.9779
4.5972 -2.4893 -2.0034 0.9779
4.8020 -2.0699 -2.0039 0.9778
5.0956 -1.1847 -2.0048 0.9778
0.2109 4.5227 -1.8530 0.9806
-0.5956 4.4867 -1.8524 0.9806
-0.9930 4.4148 -1.8520 0.9806
-1.3824 4.3078 -1.8516 0.9806
-2.6676 4.0861 -1.9972 0.9791
-3.3585 3.5554 -2.0017 0.9791
-3.6613 3.2410 -2.0012 0.9791
-4.1768 2.5380 -2.0003 0.9791
-4.4220 -2.0606 -1.9966 0.9791
-4.2204 -2.4465 -1.9965 0.9791
-3.9852 -2.8129 -1.9964 0.9791
-3.7185 -3.1569 -1.9964 0.9791
-3.0987 -3.7672 -1.9964 0.9791
-2.3805 -4.2581 -1.9966 0.9791
-1.9916 -4.4538 -1.9968 0.9791
-1.5867 -4.6141 -1.9970 0.9791
-1.1691 -4.7377 -1.9972 0.9791
-0.7421 -4.8237 -1.9975 0.9791
0.9917 -4.7822 -1.9989 0.9791
1.4144 -4.6757 -1.9993 0.9791
1.8261 -4.5319 -1.9997 0.9791
2.6031 -4.1374 -2.0006 0.9791
2.9624 -3.8897 -2.0011 0.9791
3.2982 -3.6110 -2.0016 0.9791
3.6079 -3.3033 -2.0020 0.9791
3.8889 -2.9692 -2.0025 0.9791
4.1391 -2.6112 -2.0030 0.9791
4.7949 -1.0004 -2.0047 0.9791
4.8589 -0.5681 -2.0022 0.9791
4.6381 1.5887 -2.0065 0.9790
4.2829 2.3876 -2.0068 0.9790
4.0531 2.7601 -2.0069 0.9790
3.4986 3.4362 -2.0070 0.9790
3.1782 3.7344 -2.0070 0.9790
2.4642 4.2392 -2.0068 0.9790
1.6680 4.5981 -2.0019 0.9791
0.7757 4.5347 -1.8829 0.9803
-0.0414 4.5270 -1.8529 0.9806
-0.8444 4.4460 -1.8522 0.9806
-1.6220 4.2288 -1.8537 0.9806
-2.8945 3.9358 -1.9995 0.9791
-3.2377 3.6664 -2.0019 0.9791
-4.0896 2.6769 -2.0005 0.9791
-4.3110 2.3011 -2.0000 0.9791
-1.9495 0.2612 -0.8050 0.9915
-1.9379 -0.0880 -0.7939 0.9917
-4.7578 -1.0837 -1.9971 0.9791
-4.3001 -2.3036 -1.9966 0.9791
-3.8223 -3.0304 -1.9964 0.9791
-3.5368 -3.3591 -1.9964 0.9791
-3.2233 -3.6611 -1.9964 0.9791
-0.4723 -4.8580 -1.9977 0.9791
-0.0373 -4.8816 -1.9980 0.9791
0.3982 -4.8664 -1.9983 0.9791
0.8306 -4.8124 -1.9987 0.9791
1.6729 -4.5902 -1.9995 0.9791
2.0759 -4.4238 -2.0000 0.9791
4.0489 -2.7483 -2.0028 0.9791
4.2788 -2.3769 -2.0033 0.9791
4.4747 -1.9864 -2.0037 0.9791
4.6349 -1.5799 -2.0041 0.9791
4.7583 -1.1606 -2.0046 0.9791
4.8906 -0.2971 -2.0053 0.9790
4.8985 0.1402 -2.0056 0.9790
4.8672 0.5765 -2.0059 0.9790
4.7971 1.0083 -2.0062 0.9790
3.8932 2.9816 -2.0070 0.9790
3.3017 3.6257 -2.0070 0.9790
2.9652 3.9056 -2.0070 0.9790
2.6050 4.1542 -2.0069 0.9790
2.2241 4.3696 -2.0067 0.9790
1.8230 4.5438 -2.0037 0.9791
1.4072 4.6770 -1.9989 0.9791
0.9416 4.5750 -1.9117 0.9800
0.5137 4.4989 -1.8533 0.9806
-1.0915 4.3949 -1.8534 0.9806
-1.4775 4.2758 -1.8515 0.9806
-2.3604 4.2073 -1.9744 0.9794
-2.7588 4.0278 -1.9981 0.9791
-3.1131 3.7733 -2.0021 0.9791
-4.2318 2.4446 -2.0002 0.9791
-4.4319 2.0571 -1.9997 0.9791
-4.5967 1.6534 -1.9993 0.9791
-2.1055 0.3543 -0.8738 0.9908
-1.9099 -0.0226 -0.7817 0.9918
-1.9576 -0.1986 -0.8053 0.9915
-4.7917 -0.9235 -1.9972 0.9791
-4.6897 -1.3469 -1.9970 0.9791
-4.5505 -1.7595 -1.9968 0.9791
-3.6475 -3.2386 -1.9964 0.9791
-3.0144 -3.8351 -1.9964 0.9791
-2.2856 -4.3100 -1.9966 0.9791
-1.4840 -4.6482 -1.9970 0.9791
-0.6350 -4.8392 -1.9975 0.9791
0.2347 -4.8766 -1.9982 0.9791
0.6687 -4.8372 -1.9986 0.9791
1.0975 -4.7592 -1.9990 0.9791
1.5178 -4.6434 -1.9994 0.9791
3.0481 -3.8233 -2.0012 0.9791
3.3776 -3.5372 -2.0017 0.9791
3.6804 -3.2227 -2.0022 0.9791
3.9540 -2.8824 -2.0026 0.9791
4.5790 -1.7343 -2.0040 0.9791
4.7164 -1.3194 -2.0044 0.9791
4.8776 -0.4609 -2.0052 0.9790
4.9001 -0.0242 -2.0055 0.9790
4.7338 1.2740 -2.0064 0.9790
4.6018 1.6912 -2.0066 0.9790
4.4331 2.0949 -2.0067 0.9790
3.7211 3.1939 -2.0070 0.9790
3.0946 3.8040 -2.0070 0.9790
2.7430 4.0646 -2.0069 0.9790
1.1127 4.6161 -1.9434 0.9797
0.6687 4.5085 -1.8654 0.9805
-0.1417 4.5247 -1.8528 0.9806
-0.5445 4.4933 -1.8524 0.9806
-1.3334 4.3234 -1.8517 0.9806
-3.3180 3.5935 -2.0018 0.9791
-4.1478 2.5854 -2.0004 0.9791
-4.3608 2.2048 -1.9999 0.9791
-4.5390 1.8068 -1.9995 0.9791
-4.6810 1.3946 -1.9990 0.9791
-4.7858 0.9715 -1.9986 0.9791
-1.9563 0.2180 -0.8056 0.9915
-2.0225 -0.3198 -0.8380 0.9912
-4.7324 -1.1889 -1.9971 0.9791
-4.6071 -1.6059 -1.9968 0.9791
-4.4452 -2.0101 -1.9967 0.9791
-3.7542 -3.1144 -1.9964 0.9791
-3.4615 -3.4367 -1.9964 0.9791
-2.0421 -4.4308 -1.9967 0.9791
-0.7969 -4.8149 -1.9974 0.9791
-0.3645 -4.8675 -1.9977 0.9791
0.0710 -4.8814 -1.9981 0.9791
0.9372 -4.7930 -1.9988 0.9791
1.3611 -4.6913 -1.9992 0.9791
2.1737 -4.3769 -2.0001 0.9791
2.5558 -4.1666 -2.0006 0.9791
2.9178 -3.9231 -2.0010 0.9791
3.5699 -3.3440 -2.0020 0.9791
3.8548 -3.0131 -2.0024 0.9791
4.7831 -1.0548 -2.0047 0.9791
4.8962 -0.1886 -2.0054 0.9790
4.8944 0.2488 -2.0057 0.9790
4.8534 0.6843 -2.0060 0.9790
4.5007 1.9450 -2.0067 0.9790
4.3097 2.3387 -2.0068 0.9790
3.8261 3.0672 -2.0070 0.9790
2.8779 3.9703 -2.0069 0.9790
2.1266 4.4178 -2.0067 0.9790
1.2896 4.6583 -1.9783 0.9793
0.4138 4.5090 -1.8532 0.9806
0.0101 4.5332 -1.8553 0.9806
-2.4792 4.1981 -1.9954 0.9791
-3.1958 3.7031 -2.0019 0.9791
-3.8010 3.0751 -2.0010 0.9791
-4.2847 2.3500 -2.0001 0.9791
-4.4762 1.9582 -1.9996 0.9791
-4.7508 1.1316 -1.9988 0.9791
-1.9440 0.2830 -0.8040 0.9915
-1.9442 0.1075 -0.7969 0.9916
-1.9295 -0.0657 -0.7902 0.9917
-4.7699 -1.0295 -1.9971 0.9791
-4.6586 -1.4505 -1.9969 0.9791
-4.5102 -1.8599 -1.9967 0.9791
-4.3261 -2.2545 -1.9966 0.9791
-4.1076 -2.6311 -1.9965 0.9791
-3.8565 -2.9868 -1.9964 0.9791
-3.2647 -3.6242 -1.9964 0.9791
-2.9287 -3.9010 -1.9964 0.9791
-2.1895 -4.3597 -1.9967 0.9791
-1.7922 -4.5379 -1.9969 0.9791
-1.3806 -4.6801 -1.9971 0.9791
-0.5275 -4.8523 -1.9976 0.9791
-0.0928 -4.8808 -1.9979 0.9791
0.7758 -4.8214 -1.9987 0.9791
1.2029 -4.7340 -1.9991 0.9791
1.6205 -4.6088 -1.9995 0.9791
2.0254 -4.4470 -1.9999 0.9791
2.7844 -4.0184 -2.0008 0.9791
3.7512 -3.1405 -2.0023 0.9791
4.7447 -1.2146 -2.0045 0.9791
4.8868 -0.3527 -2.0053 0.9790
4.8996 0.0845 -2.0056 0.9790
4.8733 0.5211 -2.0059 0.9790
4.8081 0.9536 -2.0062 0.9790
4.7045 1.3787 -2.0064 0.9790
4.1729 2.5752 -2.0069 0.9790
3.9268 2.9371 -2.0070 0.9790
1.8751 4.5242 -2.0044 0.9791
1.4607 4.6621 -1.9995 0.9791
-0.2420 4.5203 -1.8527 0.9806
-1.0406 4.4037 -1.8520 0.9806
-1.4288 4.2925 -1.8516 0.9806
-2.2982 4.2079 -1.9623 0.9795
-2.7122 4.0579 -1.9976 0.9791
-4.4083 2.1074 -1.9998 0.9791
-4.5777 1.7056 -1.9994 0.9791
-1.9578 0.1743 -0.8045 0.9915
-2.1725 -0.3931 -0.9036 0.9905
-4.7048 -1.2935 -1.9970 0.9791
-4.1937 -2.4919 -1.9965 0.9791
-3.6841 -3.1969 -1.9964 0.9791
-3.3844 -3.5126 -1.9964 0.9791
-3.0578 -3.8005 -1.9964 0.9791
-2.3344 -4.2836 -1.9966 0.9791
-1.1179 -4.7501 -1.9972 0.9791
0.1792 -4.8789 -1.9981 0.9791
0.6136 -4.8444 -1.9985 0.9791
1.0433 -4.7713 -1.9989 0.9791
1.4649 -4.6602 -1.9993 0.9791
2.2703 -4.3279 -2.0002 0.9791
3.0043 -3.8576 -2.0011 0.9791
3.3371 -3.5752 -2.0016 0.9791
4.3804 -2.1851 -2.0035 0.9791
4.5588 -1.7862 -2.0039 0.9791
4.8056 -0.9485 -2.0048 0.9791
4.8372 0.7918 -2.0061 0.9790
4.6207 1.6387 -2.0066 0.9790
4.2569 2.4337 -2.0069 0.9790
4.0231 2.8037 -2.0070 0.9790
3.7572 3.1514 -2.0070 0.9790
3.4613 3.4738 -2.0070 0.9790
1.6177 4.6145 -2.0013 0.9791
1.1720 4.6303 -1.9548 0.9796
0.3137 4.5169 -1.8531 0.9806
-0.0903 4.5262 -1.8528 0.9806
-0.4934 4.4993 -1.8525 0.9806
-1.6723 4.2228 -1.8589 0.9806
-3.2770 3.6311 -2.0018 0.9791
-3.8680 2.9899 -2.0009 0.9791
-4.1182 2.6325 -2.0004 0.9791
-4.5183 1.8584 -1.9995 0.9791
-4.7745 1.0259 -1.9987 0.9791
-1.9535 0.2402 -0.8055 0.9915
-1.9447 -0.1094 -0.7972 0.9916
-4.7457 -1.1350 -1.9971 0.9791
-4.4678 -1.9595 -1.9967 0.9791
-4.2750 -2.3498 -1.9965 0.9791
-3.5004 -3.3971 -1.9964 0.9791
-2.4767 -4.2028 -1.9966 0.9791
-2.0923 -4.4072 -1.9967 0.9791
-1.2765 -4.7098 -1.9971 0.9791
-0.8516 -4.8054 -1.9974 0.9791
2.5082 -4.1953 -2.0005 0.9791
3.2150 -3.6848 -2.0014 0.9791
3.5316 -3.3843 -2.0019 0.9791
3.8202 -3.0567 -2.0024 0.9791
4.0784 -2.7045 -2.0029 0.9791
4.4960 -1.9380 -2.0038 0.9791
4.6519 -1.5298 -2.0042 0.9791
4.7707 -1.1091 -2.0046 0.9791
-0.1850 4.3311 -1.8893 0.9813
-0.5685 4.2830 -1.8830 0.9813
-0.9543 4.2425 -1.8952 0.9812
-1.7738 4.1976 -1.9860 0.9803
-3.1540 3.3389 -2.0017 0.9802
-3.6952 2.7244 -2.0008 0.9802
-4.1186 2.0239 -2.0000 0.9802
-4.2818 1.6482 -1.9995 0.9802
-1.5263 0.1525 -0.6685 0.9933
-1.5050 -0.2556 -0.6653 0.9934
-1.5959 -0.5767 -0.7396 0.9926
-4.1533 -1.9354 -1.9970 0.9802
-3.7431 -2.6420 -1.9967 0.9802
-3.4926 -2.9652 -1.9967 0.9802
-2.9104 -3.5384 -1.9967 0.9802
-1.8705 -4.1832 -1.9971 0.9802
-0.6970 -4.5306 -1.9977 0.9802
-0.2903 -4.5753 -1.9980 0.9802
1.7150 -4.2562 -1.9998 0.9802
