ply
format ascii 1.0
element vertex 1580
property float32 x
property float32 y
property float32 z
property float32 I
end_header
-1.2546 7.3367 -0.2096 0.9707
-2.2881 2.2493 -0.0903 0.9872
11.7670 0.0887 -0.3313 0.9540
9.5596 1.7988 -0.2739 0.9618
8.6245 2.4354 -0.2524 0.9648
6.8055 3.3183 -0.2132 0.9702
4.3563 4.5814 -0.1780 0.9750
3.8451 4.8435 -0.1741 0.9756
3.2942 5.0087 -0.1688 0.9763
2.3448 5.4951 -0.1682 0.9764
1.3709 5.9937 -0.1731 0.9757
0.8541 6.2582 -0.1779 0.9750
-0.3019 7.0468 -0.1986 0.9722
-0.9541 7.1830 -0.2040 0.9714
1.5665 6.0333 -0.3161 0.9753
1.0250 6.1628 -0.3168 0.9753
-0.0946 6.9319 -0.3516 0.9726
-0.7295 7.0661 -0.3603 0.9719
11.7960 0.3571 -0.5985 0.9538
8.1610 2.5062 -0.4330 0.9664
7.2641 2.9620 -0.3978 0.9691
6.6922 3.4535 -0.3819 0.9703
5.2234 4.0110 -0.3340 0.9740
4.2189 4.6439 -0.3182 0.9752
3.6271 4.7885 -0.3046 0.9762
3.1689 5.0653 -0.3030 0.9764
2.2863 5.7145 -0.3121 0.9757
1.2404 6.0527 -0.3133 0.9756
0.1564 6.6067 -0.3351 0.9739
12.1972 -0.0860 -0.6186 0.9523
11.2320 0.9251 -0.5716 0.9559
8.8356 2.3564 -0.4638 0.9640
7.6249 2.7820 -0.4116 0.9680
4.8949 4.1798 -0.3264 0.9745
0.9394 6.2065 -0.3183 0.9752
-0.1972 6.9843 -0.3543 0.9724
-0.8396 7.1153 -0.3634 0.9717
2.3280 -0.9878 -0.1283 0.9899
9.0411 2.0532 -0.4702 0.9635
7.1317 3.0301 -0.3930 0.9694
5.7256 3.7530 -0.3472 0.9730
5.1296 4.0593 -0.3317 0.9741
3.5481 4.8290 -0.3039 0.9763
2.6177 5.3477 -0.3020 0.9764
1.1567 6.0954 -0.3146 0.9755
0.6279 6.3658 -0.3244 0.9747
0.0623 6.8517 -0.3475 0.9729
11.2415 1.0912 -0.5728 0.9558
9.5418 1.7954 -0.4924 0.9619
6.8048 3.3180 -0.3839 0.9701
6.1692 3.7223 -0.3654 0.9716
4.7226 4.1534 -0.3190 0.9751
4.3512 4.5760 -0.3202 0.9750
3.2904 5.0030 -0.3037 0.9763
1.9176 5.9032 -0.3148 0.9754
0.8530 6.2507 -0.3199 0.9750
-0.9527 7.1731 -0.3670 0.9714
1.5647 6.0262 -0.4565 0.9753
-0.0945 6.9229 -0.5076 0.9726
-1.4418 7.4130 -0.5537 0.9702
-2.3336 2.1920 -0.2348 0.9872
-19.1160 -4.4231 -1.4387 0.9243
-17.0714 -7.3354 -1.3624 0.9282
-15.9923 -8.6343 -1.3326 0.9297
-14.8778 -9.8389 -1.3078 0.9310
-13.7287 -10.9553 -1.2878 0.9320
-12.5451 -11.9891 -1.2723 0.9328
-11.3266 -12.9447 -1.2612 0.9333
-10.0720 -13.8256 -1.2542 0.9337
-8.7799 -14.6346 -1.2513 0.9338
-6.0742 -16.0439 -1.2579 0.9335
1.5483 -18.3430 -1.3497 0.9288
5.0334 -18.7202 -1.4214 0.9252
11.3347 -2.7427 -0.8551 0.9543
17.9549 -2.6803 -1.3311 0.9298
14.9951 -0.8851 -1.1014 0.9415
11.7953 0.3571 -0.8653 0.9538
10.8515 1.3029 -0.8014 0.9571
7.2532 2.9575 -0.5743 0.9691
5.8209 3.6952 -0.5055 0.9727
5.2168 4.0060 -0.4823 0.9740
4.6323 4.2645 -0.4617 0.9751
2.2837 5.7079 -0.4508 0.9756
0.7158 6.3127 -0.4658 0.9748
-0.4669 7.1128 -0.5227 0.9718
-19.5227 -3.7558 -1.4577 0.9234
-17.5119 -6.7623 -1.3764 0.9275
-15.3482 -9.3461 -1.3176 0.9305
-13.0444 -11.5665 -1.2783 0.9325
-11.8405 -12.5543 -1.2653 0.9331
-6.6542 -15.7719 -1.2551 0.9336
-3.8076 -16.9641 -1.2748 0.9326
-2.3099 -17.4560 -1.2911 0.9318
-0.7573 -17.8762 -1.3119 0.9308
0.8551 -18.2216 -1.3375 0.9294
2.5322 -18.4882 -1.3683 0.9279
4.2800 -18.6705 -1.4045 0.9261
6.1046 -18.7618 -1.4466 0.9239
2.3518 -0.8959 -0.1845 0.9900
15.1140 -1.4597 -1.1133 0.9409
11.2078 0.9231 -0.8246 0.9559
8.7572 2.3355 -0.6645 0.9643
4.8888 4.1746 -0.4714 0.9745
4.4317 4.5266 -0.4645 0.9749
3.9181 4.7902 -0.4538 0.9755
2.8895 5.2008 -0.4362 0.9764
-0.1970 6.9752 -0.5116 0.9724
-0.8385 7.1056 -0.5246 0.9717
-2.3872 2.1777 -0.2369 0.9871
-18.9549 -4.6781 -1.4315 0.9247
-15.8125 -8.8375 -1.3282 0.9299
-10.1455 -8.3411 -0.9630 0.9487
-12.3483 -12.1506 -1.2702 0.9329
-11.1240 -13.0937 -1.2598 0.9334
-9.8634 -13.9627 -1.2535 0.9337
-8.5649 -14.7602 -1.2513 0.9338
-2.9427 -17.2588 -1.2837 0.9322
-1.4136 -17.7093 -1.3026 0.9312
0.1731 -18.0864 -1.3262 0.9300
3.5400 -18.6049 -1.3886 0.9269
5.3317 -18.7352 -1.4283 0.9248
2.3241 -0.9861 -0.1851 0.9899
14.6362 -0.6498 -1.0742 0.9429
11.7920 0.5293 -0.8655 0.9538
10.3035 1.3899 -0.7623 0.9592
5.7181 3.7481 -0.5013 0.9730
5.1231 4.0542 -0.4790 0.9741
4.4959 4.2618 -0.4542 0.9755
2.2034 5.7490 -0.4514 0.9756
1.1553 6.0882 -0.4544 0.9755
-1.2510 7.3158 -0.5442 0.9707
-2.2895 2.2507 -0.2354 0.9872
-16.2706 -8.3126 -1.3397 0.9293
-15.1650 -9.5406 -1.3137 0.9307
-14.0247 -10.6789 -1.2925 0.9317
-12.8499 -11.7333 -1.2759 0.9326
-10.3951 -13.6081 -1.2556 0.9336
-5.0212 -16.4989 -1.2645 0.9332
-3.5662 -17.0493 -1.2771 0.9325
-0.4979 -17.9378 -1.3157 0.9306
2.8130 -18.5239 -1.3738 0.9276
6.4107 -18.7675 -1.4541 0.9235
14.8540 -1.2161 -1.0928 0.9420
11.7093 0.0883 -0.8586 0.9541
8.6058 2.4301 -0.6557 0.9648
7.4719 2.8504 -0.5864 0.9684
6.8042 3.3177 -0.5551 0.9701
6.1609 3.7173 -0.5276 0.9716
5.3655 3.9295 -0.4876 0.9737
4.7168 4.1483 -0.4606 0.9751
4.3460 4.5706 -0.4624 0.9750
3.8362 4.8323 -0.4524 0.9756
1.9154 5.8964 -0.4546 0.9754
0.8520 6.2431 -0.4620 0.9750
0.3030 6.5234 -0.4788 0.9741
1.5628 6.0192 -0.5970 0.9753
1.0225 6.1480 -0.5983 0.9753
0.4863 6.4216 -0.6183 0.9745
-0.7296 7.0675 -0.6821 0.9719
-1.4397 7.4022 -0.7240 0.9702
-2.3322 2.1906 -0.3072 0.9872
-18.8895 6.0088 -1.9030 0.9234
-17.1298 -0.8388 -1.6465 0.9334
-16.4934 -2.2932 -1.5987 0.9353
-15.0416 -4.9280 -1.5196 0.9384
-14.2370 -6.1175 -1.4877 0.9396
-13.3857 -7.2270 -1.4604 0.9407
-10.7641 -8.5897 -1.3221 0.9462
-9.8549 -9.4182 -1.3087 0.9467
-4.7802 -12.6260 -1.2961 0.9472
-3.6592 -13.0843 -1.3043 0.9469
-2.5013 -13.4801 -1.3163 0.9464
-1.3056 -13.8120 -1.3319 0.9458
-0.0706 -14.0774 -1.3515 0.9450
1.2048 -14.2734 -1.3752 0.9441
2.5221 -14.3960 -1.4031 0.9430
4.1678 -15.5007 -1.5410 0.9375
7.2334 -15.3203 -1.6265 0.9342
8.8406 -15.0766 -1.6779 0.9322
10.4979 -14.7182 -1.7356 0.9299
13.9600 -13.6120 -1.8719 0.9246
11.3210 -2.7394 -1.1182 0.9543
18.2120 -2.7187 -1.7678 0.9287
14.9942 -0.8851 -1.4420 0.9414
10.7540 1.2912 -1.0399 0.9574
8.1343 2.4980 -0.8169 0.9664
6.6734 3.4438 -0.7210 0.9703
5.2102 4.0009 -0.6307 0.9739
4.2090 4.6329 -0.6009 0.9752
3.6187 4.7774 -0.5754 0.9762
3.1616 5.0537 -0.5723 0.9763
2.6889 5.2960 -0.5702 0.9764
2.2810 5.7014 -0.5895 0.9756
1.7857 5.9547 -0.5968 0.9753
0.7149 6.3050 -0.6092 0.9748
-0.4663 7.1034 -0.6834 0.9718
-16.7675 -1.6965 -1.6180 0.9345
-16.0944 -3.0963 -1.5735 0.9363
-14.5794 -5.6299 -1.5004 0.9391
-11.1530 -8.2382 -1.3312 0.9458
-9.3095 -9.8707 -1.3026 0.9469
-8.3440 -10.5989 -1.2950 0.9472
-6.3086 -11.8711 -1.2906 0.9474
-5.2384 -12.4161 -1.2938 0.9473
-4.1325 -12.9001 -1.3005 0.9470
-2.9902 -13.3222 -1.3108 0.9466
-1.8104 -13.6811 -1.3249 0.9461
-0.5920 -13.9747 -1.3428 0.9453
0.6663 -14.2001 -1.3648 0.9445
1.9660 -14.3539 -1.3909 0.9434
6.5760 -15.3906 -1.6068 0.9350
8.1623 -15.1919 -1.6557 0.9330
9.7987 -14.8827 -1.7107 0.9309
13.2203 -13.8899 -1.8410 0.9258
2.3534 -0.8965 -0.2418 0.9899
8.8055 2.3484 -0.8749 0.9640
7.6012 2.7734 -0.7768 0.9680
6.7875 3.1878 -0.7199 0.9703
6.2631 3.6554 -0.6962 0.9713
5.4556 3.8746 -0.6424 0.9735
4.4264 4.5211 -0.6074 0.9749
3.9135 4.7846 -0.5934 0.9755
1.4479 5.9308 -0.5861 0.9758
0.3950 6.4681 -0.6221 0.9743
-2.3843 2.1750 -0.3098 0.9871
-18.5293 3.8365 -1.8166 0.9268
-17.6095 0.4529 -1.6912 0.9317
-16.3833 -2.5221 -1.5914 0.9356
-15.6757 -3.8688 -1.5501 0.9372
-12.3403 -8.4221 -1.4343 0.9417
-10.0902 -8.2957 -1.2541 0.9489
-8.7521 -10.3019 -1.2978 0.9471
-7.7664 -10.9941 -1.2923 0.9473
-1.1064 -13.8600 -1.3349 0.9457
1.4173 -14.2986 -1.3795 0.9439
2.7416 -14.4088 -1.4081 0.9428
4.4110 -15.5002 -1.5472 0.9373
5.9273 -15.4431 -1.5881 0.9357
7.4927 -15.2879 -1.6345 0.9339
9.1081 -15.0261 -1.6869 0.9318
12.4886 -14.1422 -1.8113 0.9270
14.2514 -13.4961 -1.8844 0.9242
2.3201 -0.9844 -0.2420 0.9899
10.2829 1.3871 -0.9962 0.9592
9.0090 2.0459 -0.8869 0.9636
7.9790 2.5782 -0.8050 0.9669
7.1106 3.0211 -0.7417 0.9694
6.5551 3.5048 -0.7136 0.9706
4.4905 4.2566 -0.5940 0.9754
2.6118 5.3355 -0.5703 0.9764
2.2008 5.7424 -0.5904 0.9756
1.7034 5.9967 -0.5985 0.9753
0.5943 3.1319 -0.3060 0.9873
0.0617 6.7851 -0.6514 0.9731
-0.5749 7.1587 -0.6895 0.9716
-18.6752 4.5995 -1.8465 0.9256
-18.2980 2.8077 -1.7773 0.9283
-17.2812 -0.4528 -1.6597 0.9329
-16.6616 -1.9317 -1.6103 0.9348
-15.9786 -3.3164 -1.5667 0.9365
-14.4466 -5.8222 -1.4953 0.9393
-13.6068 -6.9517 -1.4669 0.9404
-12.7226 -8.0041 -1.4431 0.9414
-10.9899 -8.3682 -1.3261 0.9460
-10.0900 -9.2132 -1.3118 0.9466
-9.1540 -9.9940 -1.3011 0.9470
-5.0600 -12.4994 -1.2946 0.9473
-3.9482 -12.9734 -1.3019 0.9470
-1.6138 -13.7337 -1.3276 0.9459
-0.3890 -14.0163 -1.3461 0.9452
0.8760 -14.2303 -1.3688 0.9443
2.1825 -14.3720 -1.3956 0.9433
5.2872 -15.4784 -1.5703 0.9364
11.7654 -14.3701 -1.7830 0.9281
13.5085 -13.7843 -1.8529 0.9254
19.4412 -3.3556 -1.8940 0.9238
11.6848 0.0881 -1.1218 0.9541
11.0125 1.0690 -1.0622 0.9565
8.6226 2.4349 -0.8602 0.9646
6.8036 3.3174 -0.7267 0.9700
5.3586 3.9245 -0.6377 0.9737
4.3408 4.5651 -0.6048 0.9750
2.8091 5.2344 -0.5703 0.9764
2.3368 5.4763 -0.5716 0.9764
1.9131 5.8895 -0.5945 0.9754
1.3661 5.9726 -0.5882 0.9757
-18.8029 5.3825 -1.8777 0.9244
1.5610 6.0121 -0.7378 0.9753
0.5258 3.1611 -0.3807 0.9872
0.4857 6.4136 -0.7640 0.9744
-0.0942 6.9050 -0.8203 0.9726
-1.4376 7.3914 -0.8944 0.9701
-2.3307 2.1893 -0.3798 0.9872
-15.2974 9.9277 -2.1662 0.9292
-15.5164 8.2053 -2.0850 0.9317
-15.6024 6.5453 -2.0098 0.9341
-15.4272 3.4296 -1.8773 0.9383
-14.8642 0.5994 -1.7671 0.9418
-11.5027 -6.2104 -1.5528 0.9487
-10.7572 -7.1138 -1.5319 0.9494
-9.3485 -7.4600 -1.4207 0.9530
-6.8624 -9.4198 -1.3844 0.9541
-2.1594 -11.6372 -1.4059 0.9534
2.3162 -13.2208 -1.5944 0.9474
4.8216 -13.1318 -1.6617 0.9452
6.1180 -12.9579 -1.7022 0.9439
12.9317 -10.5335 -1.9812 0.9350
14.3262 -9.6821 -2.0539 0.9327
15.6840 -8.6722 -2.1289 0.9304
15.8488 -6.9992 -2.0580 0.9326
11.3073 -2.7361 -1.3819 0.9542
11.7938 0.3571 -1.4016 0.9536
9.0292 1.9124 -1.0963 0.9635
8.1210 2.4939 -1.0091 0.9664
7.2314 2.9486 -0.9276 0.9690
4.6210 4.2541 -0.7461 0.9750
4.2039 4.6274 -0.7426 0.9751
2.6858 5.2899 -0.7047 0.9764
2.2784 5.6948 -0.7286 0.9756
1.7837 5.9477 -0.7376 0.9753
0.7140 6.2973 -0.7528 0.9748
-14.7307 12.4631 -2.2921 0.9252
-15.1630 10.6651 -2.2021 0.9280
-15.4418 8.9185 -2.1182 0.9307
-15.5964 5.6102 -1.9689 0.9354
-14.6386 -0.1699 -1.7390 0.9427
-14.1934 -1.4361 -1.6946 0.9442
-13.1087 -3.7594 -1.6199 0.9465
-11.8011 -5.8137 -1.5627 0.9484
-11.0744 -6.7436 -1.5402 0.9491
-9.9393 -7.3416 -1.4678 0.9514
-8.0481 -8.5333 -1.3933 0.9538
-7.2192 -9.1701 -1.3863 0.9541
-5.4606 -10.2755 -1.3822 0.9542
-2.5828 -11.5074 -1.4009 0.9536
-1.5615 -11.8001 -1.4139 0.9532
-0.5096 -12.0309 -1.4304 0.9527
0.5848 -12.4625 -1.4820 0.9510
5.5724 -13.0417 -1.6847 0.9445
9.5816 -12.0574 -1.8294 0.9398
10.9589 -11.5139 -1.8882 0.9380
13.7433 -10.0550 -2.0228 0.9337
15.1344 -9.1217 -2.0990 0.9313
15.3219 -7.4616 -2.0244 0.9337
2.3576 -0.8981 -0.2997 0.9899
18.9270 -3.5519 -2.2875 0.9254
15.0771 -1.4561 -1.7993 0.9408
11.9837 -0.0845 -1.4235 0.9529
10.9558 0.9023 -1.3058 0.9567
9.4223 1.6310 -1.1359 0.9622
8.5736 2.2865 -1.0540 0.9649
6.2545 3.6504 -0.8602 0.9713
5.4486 3.8695 -0.7938 0.9734
4.4210 4.5157 -0.7507 0.9749
3.9089 4.7790 -0.7334 0.9754
2.4114 5.4304 -0.7058 0.9764
-0.1965 6.9570 -0.8267 0.9724
-15.3429 9.6421 -2.1525 0.9296
-15.5392 7.9294 -2.0723 0.9321
-15.6047 6.2801 -1.9981 0.9345
-15.5525 4.6986 -1.9299 0.9367
-15.3946 3.1874 -1.8674 0.9386
-14.8034 0.3807 -1.7590 0.9421
-14.3881 -0.9151 -1.7126 0.9436
-12.7497 -4.3841 -1.6015 0.9471
-12.0912 -5.4057 -1.5733 0.9480
-11.3839 -6.3624 -1.5491 0.9488
-10.6311 -7.2556 -1.5289 0.9495
-8.3845 -8.2502 -1.3973 0.9537
-6.7213 -9.5147 -1.3838 0.9542
-4.9247 -10.5548 -1.3835 0.9542
-0.9533 -11.9421 -1.4231 0.9529
1.2692 -12.8041 -1.5284 0.9495
2.5165 -13.2257 -1.5992 0.9472
5.0317 -13.1095 -1.6680 0.9450
6.3326 -12.9207 -1.7092 0.9437
7.6598 -12.6367 -1.7553 0.9422
9.0105 -12.2508 -1.8065 0.9406
10.3810 -11.7555 -1.8629 0.9388
14.7902 -7.8985 -1.9917 0.9347
17.2811 -5.5747 -2.1569 0.9295
18.4560 -4.1819 -2.2479 0.9266
14.5563 -0.6463 -1.7308 0.9430
9.9734 1.3453 -1.1954 0.9603
8.8900 2.0189 -1.0829 0.9639
7.9661 2.5741 -0.9944 0.9668
3.5358 4.8122 -0.7093 0.9762
2.6088 5.3294 -0.7048 0.9764
-2.2909 2.2521 -0.3816 0.9871
-14.8125 12.1661 -2.2769 0.9257
-15.2187 10.3757 -2.1879 0.9285
-15.4738 8.6384 -2.1051 0.9311
-15.5923 6.9619 -2.0284 0.9335
-15.5878 5.3516 -1.9577 0.9358
-15.2584 2.3413 -1.8337 0.9397
-14.5706 -0.3818 -1.7314 0.9430
-14.1141 -1.6364 -1.6878 0.9444
-13.5918 -2.8210 -1.6489 0.9456
-12.3728 -4.9864 -1.5846 0.9477
-11.6854 -5.9701 -1.5587 0.9485
-10.9513 -6.8897 -1.5369 0.9492
-9.6812 -7.3716 -1.4454 0.9522
-8.7146 -7.9573 -1.4018 0.9536
-7.9150 -8.6412 -1.3920 0.9539
-7.0804 -9.2689 -1.3855 0.9541
-1.3916 -11.8421 -1.4164 0.9531
0.7730 -12.5565 -1.4944 0.9506
5.7851 -13.0109 -1.6914 0.9443
12.5764 -10.7286 -1.9636 0.9356
13.9713 -9.9122 -2.0348 0.9333
15.5284 -7.2839 -2.0374 0.9332
16.7729 -6.1106 -2.1205 0.9306
19.1073 -3.2979 -2.3032 0.9249
14.8267 -1.2139 -1.7671 0.9418
11.6744 0.0880 -1.3868 0.9541
9.2520 1.7409 -1.1183 0.9628
7.4427 2.8393 -0.9462 0.9684
6.8029 3.3170 -0.8990 0.9700
5.3517 3.9195 -0.7880 0.9736
3.2791 4.9857 -0.7088 0.9762
2.3341 5.4700 -0.7064 0.9763
1.9109 5.8827 -0.7347 0.9754
0.8500 6.2280 -0.7467 0.9750
0.3022 6.5070 -0.7738 0.9741
-14.5942 12.9281 -2.3160 0.9245
-15.0680 11.1186 -2.2244 0.9273
-15.3845 9.3580 -2.1390 0.9300
-0.7298 7.0690 -1.0069 0.9717
-1.4194 7.2977 -1.0534 0.9704
-8.2751 16.7115 -2.6422 0.9274
-9.4103 15.3830 -2.5551 0.9297
-10.3841 13.9986 -2.4696 0.9320
-11.2005 12.5799 -2.3865 0.9342
-2.3293 2.1879 -0.4528 0.9872
-12.3883 9.7120 -2.2304 0.9384
-13.2301 4.2085 -1.9671 0.9455
-13.1746 2.9288 -1.9123 0.9469
-13.0298 1.6972 -1.8618 0.9483
-12.1333 -1.6870 -1.7357 0.9517
-11.2119 -3.6733 -1.6717 0.9535
-10.6693 -4.5844 -1.6454 0.9542
-8.7599 -6.9903 -1.5879 0.9557
-6.4578 -8.8644 -1.5539 0.9567
-5.5859 -9.3108 -1.5384 0.9571
-2.9748 -10.6369 -1.5650 0.9564
-1.0606 -11.2201 -1.5969 0.9555
-0.0572 -11.3949 -1.6146 0.9550
0.9710 -11.5040 -1.6358 0.9544
6.4194 -10.9476 -1.7982 0.9500
9.8257 -9.5807 -1.9445 0.9461
13.1856 -5.8231 -2.0423 0.9434
11.3020 -2.7348 -1.6476 0.9541
14.9765 -0.8840 -2.1257 0.9412
11.7930 0.3571 -1.6717 0.9535
7.1090 2.8987 -1.0878 0.9695
5.1970 3.9907 -0.9284 0.9739
4.6154 4.2489 -0.8889 0.9750
4.1989 4.6218 -0.8848 0.9751
3.6102 4.7662 -0.8472 0.9761
2.2758 5.6882 -0.8681 0.9756
-7.7520 17.2448 -2.6789 0.9265
-8.9553 15.9468 -2.5914 0.9288
-11.6055 11.7464 -2.3396 0.9355
-12.1867 10.3107 -2.2618 0.9375
-13.2250 4.7572 -1.9914 0.9448
-13.2091 3.4584 -1.9347 0.9463
-13.1007 2.2063 -1.8824 0.9477
-12.6371 -0.1467 -1.7907 0.9502
-11.4233 -3.2760 -1.6838 0.9531
-10.3307 -5.0893 -1.6317 0.9545
-9.7120 -5.9140 -1.6111 0.9551
-9.0494 -6.6843 -1.5941 0.9556
-5.9486 -9.1253 -1.5434 0.9569
-5.0841 -9.5669 -1.5351 0.9572
-3.3472 -10.4488 -1.5546 0.9566
-1.4725 -11.1280 -1.5905 0.9557
1.5800 -11.5361 -1.6498 0.9540
4.8311 -11.3068 -1.7422 0.9515
5.9485 -11.0715 -1.7808 0.9505
8.2131 -10.3353 -1.8705 0.9481
11.6052 -8.4907 -2.0374 0.9436
14.6295 -4.1234 -2.1536 0.9404
15.4569 -2.9007 -2.2283 0.9384
11.1352 0.9171 -1.5831 0.9559
9.5803 1.6583 -1.3776 0.9615
7.3858 2.6948 -1.1140 0.9687
6.7454 3.1680 -1.0559 0.9703
6.2010 3.6192 -1.0173 0.9714
4.8706 4.1591 -0.9075 0.9745
3.3532 4.9400 -0.8460 0.9762
2.8796 5.1829 -0.8401 0.9763
1.4445 5.9168 -0.8630 0.9757
0.9349 6.1766 -0.8851 0.9751
0.3940 6.4519 -0.9159 0.9742
-0.8350 7.0762 -1.0096 0.9716
-1.5379 7.3348 -1.0619 0.9702
-7.2004 17.7621 -2.7156 0.9255
-8.4718 16.4992 -2.6279 0.9278
-9.5805 15.1599 -2.5410 0.9301
-10.5282 13.7684 -2.4558 0.9324
-2.3785 2.1697 -0.4562 0.9871
-12.4607 9.4785 -2.2183 0.9387
-12.8280 8.0616 -2.1467 0.9406
-13.0720 6.6705 -2.0794 0.9424
-13.2021 5.3132 -2.0164 0.9441
-12.7592 0.3281 -1.8084 0.9497
-12.4467 -0.7916 -1.7671 0.9509
-12.0668 -1.8576 -1.7299 0.9519
-11.1267 -3.8260 -1.6671 0.9536
-9.9763 -5.5757 -1.6193 0.9549
-9.3317 -6.3687 -1.6008 0.9554
-8.6448 -7.1073 -1.5857 0.9558
-5.4447 -9.3830 -1.5371 0.9571
-1.8798 -11.0251 -1.5847 0.9558
1.1414 -11.5154 -1.6396 0.9543
2.1965 -11.5443 -1.6650 0.9536
3.2728 -11.5006 -1.6942 0.9528
5.4795 -11.1802 -1.7641 0.9509
10.0111 -9.4805 -1.9536 0.9458
11.1383 -8.8055 -2.0118 0.9443
15.8944 -2.1362 -2.2723 0.9373
11.8258 0.5308 -1.6773 0.9533
10.2331 1.3804 -1.4631 0.9591
7.7292 2.4975 -1.1509 0.9677
6.4898 3.4698 -1.0427 0.9707
5.1038 4.0389 -0.9222 0.9740
4.4795 4.2462 -0.8745 0.9754
2.6058 5.3232 -0.8398 0.9763
2.1957 5.7291 -0.8693 0.9755
-0.5693 7.0881 -1.0075 0.9717
-3.6915 13.9556 -2.0454 0.9433
-9.1366 15.7277 -2.5772 0.9292
-11.0071 12.9435 -2.4074 0.9337
-2.2917 2.2528 -0.4553 0.9871
-12.2683 10.0764 -2.2495 0.9379
-13.1609 5.8763 -2.0422 0.9434
-13.1975 3.2504 -1.9258 0.9466
-12.5860 -0.3298 -1.7839 0.9504
-12.2335 -1.4183 -1.7450 0.9515
-11.8171 -2.4527 -1.7100 0.9524
-11.3418 -3.4325 -1.6790 0.9533
-10.8123 -4.3575 -1.6517 0.9540
-10.2327 -5.2279 -1.6281 0.9546
-8.9370 -6.8050 -1.5916 0.9556
-8.2268 -7.5120 -1.5785 0.9560
-7.4783 -8.1645 -1.5687 0.9563
-5.8066 -9.1980 -1.5412 0.9570
-3.2022 -10.5220 -1.5584 0.9565
-2.2824 -10.9114 -1.5795 0.9560
-1.3120 -11.1653 -1.5929 0.9556
-0.3152 -11.3565 -1.6097 0.9551
0.7069 -11.4826 -1.6300 0.9546
1.7525 -11.5408 -1.6540 0.9539
5.0129 -11.2741 -1.7482 0.9514
6.1323 -11.0249 -1.7875 0.9503
10.6684 -9.1010 -1.9869 0.9449
11.7868 -8.3624 -2.0477 0.9433
12.8825 -7.5105 -2.1129 0.9415
12.9408 -6.0701 -2.0253 0.9439
14.7699 -3.9314 -2.1656 0.9401
11.6639 0.0879 -1.6526 0.9540
10.8698 1.0551 -1.5474 0.9568
5.3449 3.9144 -0.9387 0.9736
4.6994 4.1329 -0.8867 0.9750
4.3304 4.5542 -0.8904 0.9749
3.2753 4.9800 -0.8445 0.9762
1.9087 5.8758 -0.8754 0.9753
0.7180 3.1393 -0.4563 0.9871
0.3018 6.4988 -0.9218 0.9741
-0.2978 6.9502 -0.9857 0.9723
-6.0135 18.7406 -2.7887 0.9236
-7.4194 17.5619 -2.7013 0.9259
-10.6681 13.5374 -2.4421 0.9327
-12.0520 10.6762 -2.2813 0.9370
-12.5296 9.2455 -2.2063 0.9390
-12.8760 7.8322 -2.1354 0.9409
-13.1008 6.4461 -2.0688 0.9427
-13.2223 3.7850 -1.9487 0.9460
1.5573 5.9979 -1.0208 0.9752
-0.6436 6.2346 -1.0325 0.9749
-7.8659 12.8583 -2.4832 0.9407
-9.4647 10.6303 -2.3448 0.9439
-2.3278 2.1865 -0.5261 0.9871
-10.5757 8.2910 -2.2138 0.9470
-10.9591 7.1123 -2.1523 0.9484
-11.2356 5.9415 -2.0938 0.9498
-11.4113 4.7871 -2.0386 0.9511
-11.4929 3.6559 -1.9868 0.9523
-11.0029 -0.5388 -1.8148 0.9563
-10.7054 -1.4885 -1.7806 0.9571
-10.3481 -2.3944 -1.7498 0.9579
-9.4717 -4.0699 -1.6983 0.9591
-7.1713 -6.8535 -1.6341 0.9606
-6.4992 -7.4277 -1.6259 0.9608
-3.4893 -9.2164 -1.6235 0.9608
-0.0509 -10.1372 -1.6700 0.9597
0.8626 -10.2194 -1.6895 0.9593
1.7937 -10.2379 -1.7123 0.9587
2.7399 -10.1901 -1.7383 0.9581
3.6985 -10.0730 -1.7677 0.9574
4.6665 -9.8836 -1.8006 0.9567
7.5864 -8.8478 -1.9200 0.9539
8.5484 -8.3352 -1.9669 0.9528
9.4943 -7.7336 -2.0173 0.9516
10.4165 -7.0398 -2.0711 0.9503
11.2782 -4.9807 -2.0311 0.9512
11.2996 -2.7342 -1.9152 0.9540
13.2908 -1.9841 -2.2138 0.9470
10.4575 1.2556 -1.7351 0.9582
9.1479 1.9376 -1.5404 0.9628
8.0214 2.4633 -1.3823 0.9666
6.2729 3.2371 -1.1629 0.9718
5.6555 3.5902 -1.1036 0.9732
4.1939 4.6163 -1.0275 0.9750
2.6796 5.2777 -0.9751 0.9763
0.6093 2.9732 -0.5000 0.9878
0.1532 6.4695 -1.0661 0.9741
-0.4384 6.6787 -1.1026 0.9732
-0.9604 6.1552 -1.0263 0.9751
-3.7024 14.8714 -2.5247 0.9398
-7.4681 13.2986 -2.5126 0.9400
-8.3826 12.2289 -2.4424 0.9417
-9.1716 11.1094 -2.3732 0.9433
-10.3821 8.7840 -2.2404 0.9464
-10.8121 7.6048 -2.1776 0.9478
-11.1326 6.4297 -2.1179 0.9492
-11.4698 4.1258 -2.0080 0.9518
-10.8374 -1.0965 -1.7945 0.9568
-10.5045 -2.0209 -1.7622 0.9576
-9.6717 -3.7348 -1.7080 0.9588
-9.1797 -4.5223 -1.6858 0.9594
-8.6420 -5.2625 -1.6669 0.9598
-8.0618 -5.9548 -1.6511 0.9602
-7.4418 -6.5987 -1.6385 0.9605
-6.7846 -7.1936 -1.6290 0.9607
-6.0924 -7.7388 -1.6225 0.9609
-5.3673 -8.2336 -1.6191 0.9609
-3.0133 -9.4064 -1.6272 0.9607
-1.3122 -9.9161 -1.6478 0.9603
-0.4272 -10.0845 -1.6628 0.9599
0.4783 -10.1926 -1.6810 0.9595
1.4022 -10.2381 -1.7024 0.9590
2.3424 -10.2184 -1.7270 0.9584
3.2962 -10.1306 -1.7550 0.9577
5.2325 -9.7388 -1.8213 0.9562
7.1809 -9.0365 -1.9015 0.9543
9.1011 -7.9963 -1.9958 0.9521
10.9386 -6.5928 -2.1040 0.9495
10.9549 -5.3349 -2.0073 0.9518
13.0491 -2.4488 -2.1872 0.9476
11.9586 -0.0843 -1.9701 0.9527
11.1109 0.9151 -1.8366 0.9558
9.6583 1.6718 -1.6148 0.9610
8.4932 2.2651 -1.4481 0.9650
4.8489 4.1406 -1.0504 0.9745
3.8997 4.7677 -1.0147 0.9753
2.8763 5.1769 -0.9756 0.9763
1.9731 5.7856 -1.0070 0.9755
0.7857 3.2185 -0.5458 0.9867
0.3898 6.3836 -1.0536 0.9744
-0.1860 6.5879 -1.0857 0.9736
-0.7240 6.1356 -1.0178 0.9753
-4.4046 14.4480 -2.4883 0.9406
-7.0484 13.7271 -2.5421 0.9394
-8.0154 12.6834 -2.4717 0.9410
-8.8568 11.5826 -2.4020 0.9426
-9.5734 10.4417 -2.3337 0.9442
-2.3755 2.1670 -0.5297 0.9870
-11.4309 4.6004 -2.0299 0.9513
-11.4977 3.4735 -1.9787 0.9525
-11.3773 1.3135 -1.8867 0.9546
-10.9586 -0.6970 -1.8090 0.9565
-10.6510 -1.6396 -1.7753 0.9573
-9.8631 -3.3915 -1.7182 0.9586
-9.3912 -4.1986 -1.6947 0.9592
-8.8723 -4.9587 -1.6744 0.9596
-7.7058 -6.3353 -1.6434 0.9604
-2.5285 -9.5778 -1.6319 0.9606
0.0972 -10.1549 -1.6730 0.9597
1.0137 -10.2269 -1.6930 0.9592
1.9474 -10.2347 -1.7163 0.9586
3.8562 -10.0471 -1.7729 0.9573
4.8254 -9.8455 -1.8063 0.9565
5.7995 -9.5677 -1.8431 0.9557
7.7445 -8.7700 -1.9274 0.9537
8.7043 -8.2431 -1.9749 0.9526
10.5644 -6.9174 -2.0803 0.9501
2.3088 -0.9796 -0.4132 0.9899
12.1294 -3.9128 -2.0996 0.9496
12.7932 -2.8988 -2.1610 0.9482
13.8799 -0.6163 -2.2888 0.9452
10.2211 1.3787 -1.6991 0.9591
8.9607 2.0350 -1.5138 0.9634
6.1621 3.2946 -1.1511 0.9721
5.5698 3.6509 -1.0971 0.9734
5.0578 4.0024 -1.0625 0.9742
3.5275 4.8009 -0.9814 0.9761
3.0734 5.0758 -0.9775 0.9762
2.6027 5.3171 -0.9752 0.9763
2.1881 5.7091 -1.0072 0.9755
0.6211 6.2970 -1.0424 0.9747
0.0591 6.5029 -1.0713 0.9740
-0.5405 6.7304 -1.1123 0.9730
-1.2089 7.0693 -1.1815 0.9713
-3.6811 13.9162 -2.3714 0.9433
-5.4650 15.0734 -2.6413 0.9371
-7.6262 13.1278 -2.5011 0.9403
-8.5201 12.0488 -2.4310 0.9419
-11.1749 6.2385 -2.1084 0.9494
-11.3757 5.0792 -2.0523 0.9507
-11.4287 1.7537 -1.9048 0.9542
-11.0686 -0.2900 -1.8241 0.9561
-10.7871 -1.2506 -1.7890 0.9569
-10.4446 -2.1678 -1.7573 0.9577
-10.0457 -3.0402 -1.7290 0.9583
-9.5945 -3.8667 -1.7041 0.9589
-9.0948 -4.6466 -1.6825 0.9594
-8.5500 -5.3790 -1.6641 0.9599
-6.6738 -7.2861 -1.6277 0.9607
-5.9760 -7.8231 -1.6218 0.9609
-4.4848 -8.7447 -1.6190 0.9609
-3.6950 -9.1274 -1.6222 0.9609
-2.8779 -9.4564 -1.6284 0.9607
-2.0353 -9.7304 -1.6377 0.9605
-1.1690 -9.9477 -1.6500 0.9602
-0.2805 -10.1064 -1.6656 0.9598
1.5549 -10.2394 -1.7062 0.9589
2.4975 -10.2087 -1.7314 0.9583
3.4533 -10.1096 -1.7599 0.9576
5.3917 -9.6934 -1.8273 0.9560
6.3668 -9.3697 -1.8662 0.9551
7.3396 -8.9645 -1.9086 0.9541
10.1843 -7.2254 -2.0571 0.9506
11.0733 -6.4557 -2.1116 0.9494
11.8323 -4.3107 -2.0746 0.9502
12.5240 -3.3336 -2.1350 0.9488
9.4530 1.7787 -1.5846 0.9618
7.2738 2.7748 -1.2825 0.9689
6.4504 3.1451 -1.1822 0.9713
5.7904 3.4938 -1.1141 0.9730
5.2695 3.8593 -1.0760 0.9739
4.6935 4.1278 -1.0297 0.9750
3.8183 4.8096 -1.0117 0.9754
3.2715 4.9742 -0.9808 0.9762
2.7994 5.2163 -0.9753 0.9763
0.8474 6.2095 -1.0324 0.9749
0.2980 6.4172 -1.0583 0.9743
-0.8058 6.0669 -1.0082 0.9755
-4.5957 14.3223 -2.4779 0.9408
-7.2151 13.5611 -2.5306 0.9396
-9.6789 10.2525 -2.3227 0.9444
-10.2544 9.0837 -2.2568 0.9460
-11.0610 6.7281 -2.1328 0.9489
-11.3038 5.5619 -2.0754 0.9502
-11.4480 4.4143 -2.0213 0.9515
-11.5002 3.2920 -1.9706 0.9527
0.8274 3.1868 -0.6189 0.9867
0.4702 6.2093 -1.1705 0.9750
-0.0890 6.5236 -1.2263 0.9738
-0.6234 6.0390 -1.1411 0.9756
-1.4259 7.3313 -1.4038 0.9701
-3.5708 12.3558 -2.4174 0.9490
-8.1866 9.1948 -2.3140 0.9511
-2.3269 2.1856 -0.6000 0.9871
-9.5854 6.2208 -2.1478 0.9546
-9.8608 5.2145 -2.0966 0.9556
-9.8167 -0.4807 -1.8474 0.9608
-9.5707 -1.3307 -1.8162 0.9614
-9.2683 -2.1445 -1.7881 0.9620
-8.9133 -2.9202 -1.7630 0.9625
-8.0599 -4.3516 -1.7217 0.9634
-7.0363 -5.6149 -1.6920 0.9640
-6.4676 -6.1810 -1.6815 0.9642
-5.2287 -7.1773 -1.6691 0.9645
-4.5630 -7.6057 -1.6671 0.9645
-3.8690 -7.9860 -1.6679 0.9645
-0.8509 -9.0025 -1.6997 0.9639
0.7754 -9.1860 -1.7327 0.9632
4.1669 -8.8255 -1.8344 0.9611
5.0254 -8.5703 -1.8674 0.9604
5.8803 -8.2442 -1.9034 0.9596
6.7265 -7.8448 -1.9423 0.9588
7.5585 -7.3700 -1.9843 0.9579
8.3700 -6.8178 -2.0291 0.9570
9.1541 -6.1866 -2.0767 0.9560
10.4479 -3.5395 -2.0734 0.9561
11.4690 -1.7121 -2.1796 0.9539
11.7915 0.3570 -2.2173 0.9531
9.1310 1.9340 -1.7544 0.9627
6.3658 3.2851 -1.3465 0.9713
5.0375 3.8683 -1.1938 0.9745
4.5024 4.1449 -1.1503 0.9754
4.1888 4.6107 -1.1709 0.9750
3.5359 4.6681 -1.1007 0.9764
2.6214 5.1631 -1.0884 0.9767
0.6042 2.9481 -0.5656 0.9878
0.6913 6.0970 -1.1533 0.9753
-0.4420 6.7337 -1.2684 0.9729
-3.1346 12.5906 -2.4388 0.9486
-4.1541 12.0012 -2.3871 0.9496
-5.0903 11.3238 -2.3336 0.9507
-5.9372 10.5725 -2.2791 0.9518
-7.2100 10.5183 -2.3969 0.9494
-7.9200 9.5934 -2.3383 0.9506
-9.0344 7.6437 -2.2244 0.9530
-9.9799 4.6318 -2.0680 0.9562
-10.1730 2.6635 -1.9766 0.9581
-10.1526 1.7098 -1.9352 0.9590
-10.0607 0.7825 -1.8967 0.9598
-9.9019 -0.1149 -1.8613 0.9605
-9.6807 -0.9795 -1.8289 0.9612
-9.4014 -1.8087 -1.7995 0.9618
-8.2533 -4.0659 -1.7293 0.9632
-7.7787 -4.7368 -1.7118 0.9636
-7.2633 -5.3650 -1.6973 0.9639
-4.8450 -7.4323 -1.6676 0.9645
-4.1626 -7.8329 -1.6673 0.9645
-3.4532 -8.1848 -1.6697 0.9645
-1.1824 -8.9357 -1.6942 0.9640
-0.3846 -9.0793 -1.7081 0.9637
1.2595 -9.1957 -1.7446 0.9629
2.1008 -9.1645 -1.7672 0.9625
2.9513 -9.0706 -1.7929 0.9619
3.8078 -8.9118 -1.8216 0.9613
5.5235 -8.3894 -1.8880 0.9599
8.0335 -7.0583 -2.0100 0.9574
9.5914 -5.7809 -2.1049 0.9554
10.7729 -3.0364 -2.1038 0.9555
11.0866 0.9131 -2.0909 0.9557
9.6397 1.6686 -1.8388 0.9610
5.9409 3.4674 -1.2929 0.9724
5.2859 3.7540 -1.2186 0.9740
4.7214 4.0317 -1.1670 0.9750
4.4050 4.4993 -1.1835 0.9747
0.7542 3.0895 -0.5978 0.9871
0.9063 5.9878 -1.1383 0.9757
0.3819 6.2541 -1.1777 0.9748
-2.6855 12.8077 -2.4597 0.9481
-3.7374 12.2592 -2.4090 0.9492
-4.7093 11.6169 -2.3561 0.9503
-5.5941 10.8948 -2.3020 0.9514
-6.3872 10.1069 -2.2473 0.9525
-8.2859 9.0374 -2.3046 0.9513
-9.2838 7.0619 -2.1925 0.9536
-9.6367 6.0561 -2.1393 0.9547
-9.8973 5.0505 -2.0885 0.9558
-10.0698 4.0526 -2.0403 0.9568
-9.7805 -0.6220 -1.8421 0.9609
-9.5250 -1.4663 -1.8114 0.9615
-9.2137 -2.2740 -1.7838 0.9621
-8.8505 -3.0434 -1.7592 0.9626
-7.9823 -4.4613 -1.7188 0.9635
-6.9458 -5.7105 -1.6901 0.9641
-5.7626 -6.7829 -1.6729 0.9644
-3.7530 -8.0436 -1.6684 0.9645
-2.2807 -8.6391 -1.6794 0.9643
-1.5106 -8.8594 -1.6892 0.9641
0.0875 -9.1371 -1.7175 0.9635
0.9110 -9.1908 -1.7360 0.9631
1.7477 -9.1850 -1.7574 0.9627
3.4491 -8.9863 -1.8092 0.9616
4.3073 -8.7885 -1.8396 0.9609
6.0193 -8.1840 -1.9095 0.9595
6.8636 -7.7724 -1.9490 0.9587
7.6927 -7.2851 -1.9914 0.9578
8.5003 -6.7200 -2.0367 0.9569
9.3264 -4.9806 -1.9873 0.9579
2.3067 -0.9787 -0.4710 0.9899
10.5414 -3.4005 -2.0819 0.9559
11.0759 -2.5096 -2.1346 0.9548
11.5396 -1.5509 -2.1885 0.9537
11.8187 0.5305 -2.2237 0.9530
10.2004 1.3759 -1.9346 0.9590
8.9445 2.0313 -1.7240 0.9634
7.9272 2.5615 -1.5658 0.9667
5.5497 3.6377 -1.2473 0.9734
4.4600 4.2277 -1.1551 0.9753
3.0053 4.9633 -1.0906 0.9767
2.0797 5.4262 -1.0923 0.9766
1.6023 5.6407 -1.1022 0.9764
0.5599 2.9505 -0.5645 0.9879
-0.5458 6.7959 -1.2815 0.9726
-4.3130 11.8961 -2.3784 0.9498
-5.2350 11.2056 -2.3247 0.9509
-7.3331 10.3702 -2.3873 0.9496
-9.5006 6.4773 -2.1613 0.9543
-9.7992 5.4705 -2.1095 0.9554
-10.0081 4.4686 -2.0601 0.9564
-10.1316 3.4784 -2.0135 0.9573
-9.6389 -1.1175 -1.8239 0.9613
-8.6168 -3.4727 -1.7462 0.9629
-5.3936 -7.0607 -1.6700 0.9645
-4.7353 -7.5010 -1.6673 0.9645
-4.0484 -7.8937 -1.6675 0.9645
0.5648 -9.1754 -1.7279 0.9633
1.3963 -9.1948 -1.7481 0.9629
2.2394 -9.1535 -1.7712 0.9624
3.0911 -9.0492 -1.7974 0.9618
3.9481 -8.8795 -1.8265 0.9612
4.8069 -8.6419 -1.8587 0.9606
5.6631 -8.3341 -1.8939 0.9598
7.3482 -7.4983 -1.9733 0.9582
8.1656 -6.9659 -2.0174 0.9573
8.9574 -6.3550 -2.0643 0.9563
10.2992 -3.7522 -2.0603 0.9564
11.7727 -0.9638 -2.2202 0.9531
11.6536 0.0878 -2.1905 0.9537
10.8234 1.0506 -2.0439 0.9567
7.4081 2.8261 -1.4903 0.9682
6.5643 3.2007 -1.3727 0.9707
5.8279 3.5164 -1.2794 0.9727
4.6351 4.0764 -1.1602 0.9752
2.2758 5.3335 -1.0899 0.9767
0.8229 6.0301 -1.1439 0.9755
0.2926 6.2997 -1.1854 0.9747
-0.9338 7.0303 -1.3330 0.9715
-2.8626 12.7250 -2.4516 0.9483
-5.7302 10.7701 -2.2930 0.9516
-7.0128 10.7464 -2.4119 0.9491
-7.7489 9.8331 -2.3531 0.9503
-9.6855 5.8915 -2.1308 0.9549
-9.9314 4.8866 -2.0804 0.9560
-10.0900 3.8907 -2.0326 0.9569
0.7976 3.0719 -0.6709 0.9871
0.5089 3.0595 -0.6556 0.9874
-1.4291 7.3479 -1.5823 0.9699
-4.7583 9.6094 -2.2666 0.9571
-5.4798 8.9579 -2.2197 0.9580
-6.1232 8.2546 -2.1725 0.9589
-7.2053 8.0926 -2.2904 0.9567
-8.1598 6.3970 -2.1917 0.9585
-8.5097 5.5227 -2.1444 0.9594
-8.7776 4.6417 -2.0989 0.9602
-8.9667 3.7616 -2.0554 0.9610
-9.0802 2.8884 -2.0141 0.9618
-9.1218 2.0279 -1.9752 0.9625
-9.0955 1.1847 -1.9388 0.9632
-8.6465 -1.2022 -1.8453 0.9649
-8.3858 -1.9403 -1.8194 0.9654
-7.3184 -3.9512 -1.7580 0.9666
-6.8776 -4.5483 -1.7429 0.9669
-5.3384 -6.1010 -1.7136 0.9674
-4.1552 -6.9261 -1.7073 0.9675
-2.8669 -7.5723 -1.7115 0.9674
-0.7736 -8.1838 -1.7376 0.9670
-0.0416 -8.2865 -1.7516 0.9667
0.7036 -8.3359 -1.7683 0.9664
1.4594 -8.3303 -1.7877 0.9660
2.9913 -8.1470 -1.8345 0.9651
6.0364 -7.0401 -1.9603 0.9628
7.4771 -6.0904 -2.0385 0.9613
8.1571 -5.5128 -2.0811 0.9605
8.1674 -4.5161 -1.9728 0.9626
8.7246 -3.8530 -2.0160 0.9618
9.2337 -3.1281 -2.0608 0.9609
10.0762 -1.5042 -2.1535 0.9592
9.1142 1.9304 -1.9693 0.9626
7.1872 2.9306 -1.6407 0.9688
6.4364 3.3215 -1.5310 0.9708
5.7649 3.6597 -1.4434 0.9725
4.5530 4.1915 -1.3081 0.9750
3.5353 4.6673 -1.2376 0.9763
2.1486 5.3703 -1.2227 0.9766
1.6855 5.6205 -1.2403 0.9763
0.6009 2.9321 -0.6327 0.9878
0.7004 6.1770 -1.3141 0.9749
-3.6079 10.4232 -2.3315 0.9559
-4.4341 9.8639 -2.2860 0.9567
-5.1874 9.2373 -2.2394 0.9576
-5.8638 8.5543 -2.1922 0.9585
-6.4607 7.8258 -2.1451 0.9594
-7.5185 7.6098 -2.2612 0.9572
-7.9886 6.7589 -2.2119 0.9581
-8.3735 5.8896 -2.1640 0.9590
-8.8970 4.1292 -2.0733 0.9607
-9.0416 3.2524 -2.0311 0.9615
-9.1129 2.3859 -1.9912 0.9622
-8.9243 -0.1036 -1.8865 0.9642
-8.7399 -0.8843 -1.8569 0.9647
-8.5010 -1.6355 -1.8299 0.9652
-8.2111 -2.3548 -1.8056 0.9657
-7.8733 -3.0403 -1.7840 0.9661
-7.4908 -3.6903 -1.7651 0.9664
-7.0667 -4.3032 -1.7489 0.9667
-5.5709 -5.9067 -1.7163 0.9673
-3.1442 -7.4524 -1.7098 0.9675
-2.4747 -7.7252 -1.7147 0.9674
-1.7844 -7.9501 -1.7223 0.9672
-1.0752 -8.1255 -1.7325 0.9670
0.3905 -8.3218 -1.7610 0.9665
1.1422 -8.3395 -1.7793 0.9662
7.8766 -5.7628 -2.0630 0.9609
9.5047 -2.6790 -2.0874 0.9604
10.5406 -0.0743 -2.2281 0.9578
9.6210 1.6654 -2.0639 0.9609
6.7380 3.1646 -1.5735 0.9700
5.3838 3.8235 -1.3958 0.9734
4.7859 4.0867 -1.3303 0.9746
4.3996 4.4938 -1.3293 0.9746
3.2594 4.8018 -1.2268 0.9766
2.7965 5.0334 -1.2171 0.9767
2.3398 5.2693 -1.2187 0.9767
1.8806 5.5142 -1.2315 0.9765
-2.3231 11.0794 -2.3929 0.9548
-4.0971 10.1067 -2.3052 0.9564
-4.8815 9.5069 -2.2590 0.9572
-5.5904 8.8461 -2.2120 0.9581
-6.2208 8.1354 -2.1648 0.9590
-7.2963 7.9580 -2.2822 0.9568
-8.5590 5.3789 -2.1368 0.9595
-9.0918 2.7467 -2.0076 0.9619
-9.1221 1.8887 -1.9691 0.9626
-9.0850 1.0488 -1.9331 0.9633
-8.9843 0.2311 -1.8997 0.9639
-8.8239 -0.5612 -1.8690 0.9645
-8.6074 -1.3250 -1.8409 0.9650
-8.3383 -2.0579 -1.8154 0.9655
-8.0202 -2.7578 -1.7927 0.9659
-7.2490 -4.0514 -1.7554 0.9666
-6.3174 -5.1938 -1.7287 0.9671
-5.7980 -5.7051 -1.7194 0.9673
-4.0536 -6.9858 -1.7072 0.9675
-3.4175 -7.3244 -1.7085 0.9675
-2.7574 -7.6169 -1.7123 0.9674
-2.0755 -7.8620 -1.7188 0.9673
1.5838 -8.3241 -1.7911 0.9660
3.1172 -8.1215 -1.8388 0.9651
3.8865 -7.9299 -1.8667 0.9645
7.5904 -6.0007 -2.0453 0.9612
8.2615 -4.4119 -1.9797 0.9624
9.3119 -3.0039 -2.0682 0.9608
9.7552 -2.2104 -2.1143 0.9599
10.4373 -0.4634 -2.2084 0.9582
8.9283 2.0276 -1.9353 0.9633
7.9140 2.5572 -1.7580 0.9666
7.0571 2.9984 -1.6208 0.9691
6.3228 3.3806 -1.5156 0.9711
2.9888 4.9362 -1.2198 0.9767
2.0736 5.4103 -1.2248 0.9766
1.6085 5.6628 -1.2444 0.9762
0.5566 2.9329 -0.6310 0.9879
0.6142 6.2272 -1.3227 0.9747
-1.2403 7.2527 -1.5553 0.9704
-4.5623 9.7658 -2.2785 0.9569
-5.3033 9.1292 -2.2317 0.9578
-7.0588 8.3006 -2.3032 0.9564
-2.2977 2.2587 -0.6811 0.9869
-9.0582 3.1098 -2.0244 0.9616
-9.1178 2.2456 -1.9849 0.9623
-9.0339 0.5702 -1.9134 0.9637
-8.8980 -0.2331 -1.8815 0.9643
-8.4570 -1.7553 -1.8257 0.9653
-4.9109 -6.4288 -1.7100 0.9675
-4.3122 -6.8307 -1.7075 0.9675
-3.6866 -7.1883 -1.7076 0.9675
-3.0363 -7.5002 -1.7104 0.9675
-2.3632 -7.7653 -1.7158 0.9674
-0.9576 -8.1493 -1.7345 0.9670
-0.2294 -8.2653 -1.7478 0.9668
1.2660 -8.3371 -1.7825 0.9661
3.5649 -8.0176 -1.8547 0.9648
5.0952 -7.4983 -1.9163 0.9636
5.8471 -7.1416 -1.9510 0.9630
6.5836 -6.7180 -1.9883 0.9623
7.2990 -6.2266 -2.0280 0.9615
7.9870 -5.6665 -2.0700 0.9608
8.5869 -4.0278 -2.0049 0.9620
9.1090 -3.3185 -2.0493 0.9611
9.9836 -1.7232 -2.1415 0.9594
10.3196 -0.8449 -2.1887 0.9586
10.5769 0.0797 -2.2358 0.9577
10.7473 1.0434 -2.2825 0.9568
9.4172 1.7720 -2.0255 0.9616
8.3149 2.3480 -1.8263 0.9653
6.6181 3.2269 -1.5564 0.9703
5.2815 3.8680 -1.3838 0.9736
4.6938 4.1280 -1.3213 0.9748
4.3147 4.5376 -1.3235 0.9747
3.8091 4.7982 -1.2950 0.9753
2.7217 5.0715 -1.2166 0.9767
2.2652 5.3086 -1.2200 0.9767
0.2978 6.4131 -1.3571 0.9741
-0.2899 6.7657 -1.4314 0.9727
-0.8450 6.3616 -1.3565 0.9741
-2.4774 11.0128 -2.3860 0.9549
-5.0027 9.4027 -2.2513 0.9574
-6.3163 8.0151 -2.1571 0.9591
-7.3849 7.8225 -2.2740 0.9570
-9.0119 3.4750 -2.0416 0.9613
0.7906 3.0449 -0.7393 0.9872
0.4826 6.3731 -1.5021 0.9741
-0.6226 6.0309 -1.4249 0.9754
-3.5010 9.0117 -2.2722 0.9611
-5.4492 7.3459 -2.1496 0.9631
-5.9648 6.6994 -2.1081 0.9638
-2.3260 2.1848 -0.7500 0.9870
-7.9014 4.1784 -2.1007 0.9639
-8.0883 3.3931 -2.0614 0.9646
-8.2068 2.6106 -2.0240 0.9652
-8.2598 1.8362 -1.9886 0.9658
-8.2503 1.0746 -1.9554 0.9664
-7.6504 -1.7701 -1.8455 0.9682
-6.2977 -4.1647 -1.7745 0.9695
-5.3947 -5.1556 -1.7538 0.9698
-3.2315 -6.6702 -1.7419 0.9700
-2.6291 -6.9443 -1.7451 0.9700
-2.0063 -7.1742 -1.7508 0.9699
-1.3654 -7.3584 -1.7589 0.9697
-0.0381 -7.5846 -1.7826 0.9693
5.4699 -6.3793 -1.9750 0.9661
6.1218 -5.9691 -2.0095 0.9655
7.8262 -3.4563 -2.0107 0.9655
8.2641 -2.7997 -2.0507 0.9648
8.6495 -2.0930 -2.0915 0.9641
8.9757 -1.3399 -2.1329 0.9634
9.2357 -0.5452 -2.1744 0.9627
9.4230 0.2853 -2.2156 0.9620
9.5312 1.1444 -2.2562 0.9613
9.0972 1.9268 -2.1855 0.9625
7.1761 2.9261 -1.8214 0.9687
5.7663 3.6606 -1.6052 0.9723
5.1702 3.9701 -1.5320 0.9736
4.1786 4.5995 -1.4605 0.9748
3.1154 4.9799 -1.3805 0.9762
2.6484 5.2162 -1.3749 0.9762
1.7140 5.7154 -1.4024 0.9758
0.5976 2.9163 -0.6996 0.9878
0.1548 6.5391 -1.5373 0.9735
-0.4493 6.8443 -1.6120 0.9722
-2.3913 9.6051 -2.3263 0.9601
-3.9234 8.7280 -2.2490 0.9614
-4.6008 8.1927 -2.2083 0.9621
-6.7111 6.7926 -2.2442 0.9615
-7.5144 5.2853 -2.1591 0.9630
-8.0186 3.7215 -2.0776 0.9643
-8.2454 2.1588 -2.0032 0.9656
-8.2617 1.3914 -1.9690 0.9662
-8.2173 0.6391 -1.9371 0.9667
-7.9591 -0.8053 -1.8801 0.9677
-7.7516 -1.4913 -1.8552 0.9681
-7.4959 -2.1497 -1.8327 0.9685
-7.1951 -2.7784 -1.8127 0.9688
-6.4690 -3.9392 -1.7801 0.9694
-6.0490 -4.4681 -1.7674 0.9696
-5.1078 -5.4157 -1.7496 0.9699
-4.5911 -5.8318 -1.7444 0.9700
-4.0468 -6.2079 -1.7416 0.9700
-3.4769 -6.5427 -1.7413 0.9700
-2.8837 -6.8350 -1.7435 0.9700
-2.2692 -7.0835 -1.7481 0.9699
-0.9850 -7.4441 -1.7648 0.9696
-0.3200 -7.5533 -1.7768 0.9694
2.4350 -7.4837 -1.8496 0.9682
3.1328 -7.3321 -1.8739 0.9678
7.1025 -5.1964 -2.0683 0.9645
7.6292 -3.7153 -1.9944 0.9657
8.4951 -2.3944 -2.0743 0.9644
8.8469 -1.6602 -2.1155 0.9637
9.1354 -0.8823 -2.1570 0.9630
9.4960 0.7821 -2.2393 0.9616
8.4654 2.2577 -2.0591 0.9646
7.5293 2.7472 -1.8837 0.9676
6.0337 3.5215 -1.6419 0.9717
4.8461 4.1381 -1.4977 0.9742
4.3941 4.4882 -1.4762 0.9745
3.8857 4.7506 -1.4424 0.9751
1.7156 3.8635 -0.9935 0.9828
1.9121 5.6066 -1.3922 0.9760
0.7318 2.9978 -0.7252 0.9874
0.4685 3.0949 -0.7357 0.9872
0.3920 6.4190 -1.5114 0.9739
-2.8595 9.3795 -2.3046 0.9605
-4.9651 7.8567 -2.1843 0.9625
-5.5382 7.2427 -2.1428 0.9632
-6.0424 6.5905 -2.1014 0.9639
-7.3721 5.6078 -2.1769 0.9627
-8.1123 3.2648 -2.0552 0.9647
-8.2199 2.4833 -2.0181 0.9653
-8.2431 0.9516 -1.9502 0.9665
-8.1648 0.2100 -1.9195 0.9670
-7.0004 -3.1297 -1.8022 0.9690
-5.7887 -4.7591 -1.7612 0.9697
-5.3151 -5.2300 -1.7525 0.9698
-4.2777 -6.0555 -1.7425 0.9700
-3.7182 -6.4078 -1.7412 0.9700
-3.1345 -6.7180 -1.7423 0.9700
-1.9027 -7.2074 -1.7519 0.9698
-1.2590 -7.3841 -1.7605 0.9697
0.7558 -7.6252 -1.8009 0.9690
1.4469 -7.6044 -1.8193 0.9687
2.8411 -7.4023 -1.8635 0.9679
4.2287 -6.9764 -1.9173 0.9670
5.5779 -6.3164 -1.9805 0.9660
6.8502 -5.4155 -2.0523 0.9648
7.4246 -3.9650 -1.9782 0.9660
8.3309 -2.6875 -2.0573 0.9647
8.7071 -1.9729 -2.0982 0.9640
9.2715 -0.4117 -2.1812 0.9626
9.4463 0.4240 -2.2223 0.9619
9.5410 1.2870 -2.2627 0.9612
8.9119 2.0239 -2.1478 0.9631
7.0463 2.9938 -1.7993 0.9690
6.3138 3.3757 -1.6827 0.9710
5.6650 3.7132 -1.5919 0.9726
4.5352 4.2990 -1.4687 0.9746
3.0385 5.0182 -1.3787 0.9762
2.5726 5.2554 -1.3752 0.9762
0.5533 2.9155 -0.6974 0.9879
0.6216 6.3027 -1.4885 0.9743
-3.3098 9.1289 -2.2822 0.9609
-4.7055 8.1000 -2.2016 0.9622
-5.3068 7.5047 -2.1602 0.9629
-7.2169 5.9275 -2.1949 0.9624
-7.8426 4.3782 -2.1110 0.9638
-7.9286 -0.9192 -1.8759 0.9677
-6.7919 -3.4700 -1.7925 0.9691
-6.4028 -4.0281 -1.7778 0.9694
-5.9770 -4.5511 -1.7656 0.9696
-4.5040 -5.8961 -1.7438 0.9700
-3.3815 -6.5934 -1.7415 0.9700
-2.7846 -6.8786 -1.7441 0.9700
-2.1668 -7.1199 -1.7491 0.9699
-1.5303 -7.3159 -1.7566 0.9698
-0.2100 -7.5666 -1.7790 0.9694
0.4690 -7.6185 -1.7939 0.9691
2.5492 -7.4627 -1.8534 0.9681
3.2467 -7.3020 -1.8781 0.9677
3.9406 -7.0845 -1.9053 0.9672
4.6267 -6.8089 -1.9347 0.9667
5.3007 -6.4742 -1.9665 0.9662
5.9577 -6.0794 -2.0005 0.9656
7.1996 -5.1078 -2.0747 0.9644
7.7520 -4.5194 -2.1089 0.9638
8.1572 -2.9718 -2.0404 0.9650
8.5567 -2.2776 -2.0810 0.9643
8.8986 -1.5359 -2.1223 0.9636
9.3991 1.7686 -2.2478 0.9615
7.3847 2.8171 -1.8576 0.9680
5.9277 3.5766 -1.6271 0.9720
4.7575 4.1840 -1.4890 0.9743
4.3093 4.5320 -1.4698 0.9746
3.8045 4.7924 -1.4381 0.9752
0.3003 6.4655 -1.5212 0.9738
-0.2898 6.7638 -1.5911 0.9726
-0.8026 6.0426 -1.4326 0.9753
-2.9879 9.3116 -2.2983 0.9606
-3.7409 8.8549 -2.2592 0.9613
-6.1182 6.4807 -2.0946 0.9640
0.4924 2.9606 -0.7771 0.9877
-0.0908 6.6543 -1.7231 0.9729
-1.4248 7.3258 -1.9323 0.9696
-2.4381 8.4367 -2.2738 0.9644
-3.1326 8.0635 -2.2398 0.9649
-3.7780 7.6297 -2.2044 0.9654
-4.3696 7.1429 -2.1680 0.9660
-4.9037 6.6106 -2.1311 0.9666
-5.3780 6.0404 -2.0940 0.9671
-7.1773 3.7955 -2.1022 0.9670
-7.3597 3.0874 -2.0664 0.9676
-7.4797 2.3793 -2.0323 0.9681
-7.5397 1.6762 -1.9998 0.9686
-7.3841 -0.3616 -1.9142 0.9699
-7.0275 -1.6260 -1.8676 0.9706
-5.8031 -3.8377 -1.8014 0.9717
-4.5163 -5.1614 -1.7757 0.9721
-1.8507 -6.6177 -1.7792 0.9720
1.2265 -7.0008 -1.8402 0.9711
2.5034 -6.8182 -1.8806 0.9704
3.7700 -6.4293 -1.9297 0.9697
4.9960 -5.8267 -1.9873 0.9688
6.6628 -3.6841 -1.9713 0.9690
7.4712 -2.5311 -2.0424 0.9679
7.8048 -1.8886 -2.0791 0.9674
8.3016 -0.4900 -2.1532 0.9662
8.5348 1.0247 -2.2257 0.9651
8.0398 2.4689 -2.1776 0.9658
6.4177 3.3118 -1.8699 0.9706
5.7584 3.6555 -1.7660 0.9722
5.1633 3.9649 -1.6856 0.9735
4.6155 4.2490 -1.6243 0.9744
4.1734 4.5938 -1.6070 0.9747
3.6114 4.7677 -1.5486 0.9756
3.1358 5.0124 -1.5308 0.9759
2.6670 5.2528 -1.5253 0.9760
1.7203 5.7364 -1.5506 0.9756
0.7087 6.2501 -1.6286 0.9743
-0.4487 6.8348 -1.7735 0.9721
-2.1344 8.5730 -2.2875 0.9642
-2.8478 8.2274 -2.2542 0.9647
-4.1289 7.3525 -2.1833 0.9658
-4.6875 6.8382 -2.1466 0.9663
-5.1870 6.2830 -2.1095 0.9669
-7.0821 4.0903 -2.1175 0.9668
-7.2911 3.3839 -2.0812 0.9673
-7.4370 2.6752 -2.0463 0.9679
-7.5218 1.9694 -2.0132 0.9684
-7.5479 1.2712 -1.9818 0.9689
-7.5179 0.5847 -1.9524 0.9693
-7.2999 -0.7386 -1.8997 0.9701
-7.1174 -1.3693 -1.8766 0.9705
-6.8895 -1.9758 -1.8557 0.9708
-6.6189 -2.5559 -1.8371 0.9711
-6.3080 -3.1076 -1.8207 0.9714
-5.9595 -3.6290 -1.8066 0.9716
-5.5757 -4.1185 -1.7948 0.9718
-5.1591 -4.5746 -1.7853 0.9719
-3.7344 -5.7287 -1.7706 0.9721
-3.2086 -6.0378 -1.7703 0.9721
-1.5084 -6.7205 -1.7833 0.9719
-0.2948 -6.9595 -1.8035 0.9716
0.3290 -7.0103 -1.8171 0.9714
0.9606 -7.0138 -1.8329 0.9712
1.5974 -6.9684 -1.8511 0.9709
2.8742 -6.7267 -1.8940 0.9702
3.5074 -6.5281 -1.9188 0.9698
4.1323 -6.2763 -1.9456 0.9694
4.7446 -5.9706 -1.9746 0.9690
5.3401 -5.6106 -2.0055 0.9685
6.9608 -4.1954 -2.1043 0.9670
6.9155 -3.3677 -1.9916 0.9687
7.3168 -2.7872 -2.0273 0.9682
8.2181 -0.7937 -2.1377 0.9665
8.4504 2.2537 -2.2644 0.9645
6.7178 3.1551 -1.9217 0.9698
6.0251 3.5165 -1.8063 0.9716
4.3886 4.4826 -1.6243 0.9744
2.8627 5.1525 -1.5262 0.9759
0.4667 3.0833 -0.8074 0.9872
0.3915 6.4107 -1.6629 0.9738
-0.1893 6.7040 -1.7365 0.9727
-1.8236 8.6970 -2.3008 0.9639
-3.2416 7.9965 -2.2341 0.9650
-3.8785 7.5535 -2.1985 0.9655
-4.4609 7.0587 -2.1620 0.9661
-4.9854 6.5197 -2.1250 0.9667
-5.4498 5.9440 -2.0880 0.9672
-6.9756 4.3838 -2.1331 0.9665
-7.3835 2.9715 -2.0607 0.9676
-7.4936 2.2639 -2.0268 0.9682
-7.5440 1.5620 -1.9947 0.9687
-7.5371 0.8701 -1.9645 0.9691
-6.4427 -2.8804 -1.8273 0.9713
-6.1097 -3.4147 -1.8122 0.9715
-5.7404 -3.9177 -1.7994 0.9717
-4.9025 -4.8240 -1.7808 0.9720
-4.4385 -5.2244 -1.7749 0.9721
-3.9474 -5.5879 -1.7714 0.9721
-3.4313 -5.9133 -1.7702 0.9721
-2.3330 -6.4446 -1.7746 0.9721
-1.7551 -6.6481 -1.7803 0.9720
-1.1609 -6.8084 -1.7883 0.9719
-0.5527 -6.9244 -1.7986 0.9717
6.2356 -4.9296 -2.0581 0.9677
6.7644 -4.4292 -2.0935 0.9671
6.7351 -3.5968 -1.9769 0.9689
2.3000 -0.9759 -0.6469 0.9897
7.5293 -2.4289 -2.0484 0.9678
7.8542 -1.7797 -2.0852 0.9673
8.4719 0.3803 -2.1957 0.9656
6.3046 3.3708 -1.8510 0.9709
5.6572 3.7081 -1.7514 0.9724
3.0588 5.0519 -1.5291 0.9759
2.1203 5.5324 -1.5340 0.9758
0.6208 6.2946 -1.6377 0.9742
0.0598 6.5783 -1.7033 0.9732
-0.5531 6.8874 -1.7890 0.9719
-1.2366 7.2312 -1.8995 0.9701
-2.2540 8.5212 -2.2822 0.9642
-2.9602 8.1646 -2.2486 0.9648
-3.6186 7.7456 -2.2135 0.9653
-5.2630 6.1888 -2.1035 0.9670
-2.3030 2.2639 -0.8362 0.9867
-7.3192 3.2680 -2.0754 0.9674
-7.4549 2.5594 -2.0408 0.9680
-7.5300 1.8546 -2.0079 0.9685
-7.4158 -0.1943 -1.9207 0.9698
-7.2733 -0.8433 -1.8958 0.9702
-6.8481 -2.0725 -1.8525 0.9709
-5.0880 -4.6459 -1.7839 0.9719
-4.1559 -5.4404 -1.7726 0.9721
-3.6500 -5.7819 -1.7704 0.9721
-1.9989 -6.5681 -1.7776 0.9720
-1.4112 -6.7467 -1.7846 0.9719
-0.8086 -6.8814 -1.7940 0.9718
-0.1935 -6.9710 -1.8056 0.9716
0.4318 -7.0142 -1.8195 0.9714
1.0645 -7.0097 -1.8357 0.9711
1.7018 -6.9563 -1.8542 0.9708
2.3408 -6.8527 -1.8750 0.9705
2.9781 -6.6979 -1.8979 0.9702
3.6103 -6.4906 -1.9230 0.9698
4.2334 -6.2300 -1.9502 0.9694
5.4355 -5.5465 -2.0107 0.9684
6.0052 -5.1229 -2.0438 0.9679
6.5472 -4.6450 -2.0785 0.9674
6.9840 -3.2760 -1.9973 0.9686
7.3782 -2.6880 -2.0332 0.9681
7.7248 -2.0561 -2.0697 0.9675
8.0180 -1.3839 -2.1067 0.9669
8.4215 0.0635 -2.1805 0.9658
8.2861 2.3398 -2.2293 0.9650
4.7513 4.1786 -1.6383 0.9742
3.7999 4.7865 -1.5824 0.9751
2.7862 5.1918 -1.5256 0.9759
1.6503 3.8677 -1.0888 0.9828
0.6830 2.9862 -0.7932 0.9874
0.2999 6.4570 -1.6736 0.9736
-2.6703 8.3217 -2.2629 0.9645
-3.3493 7.9280 -2.2284 0.9651
-3.9776 7.4760 -2.1926 0.9656
-5.0655 6.4279 -2.1190 0.9668
-5.5199 5.8469 -2.0819 0.9673
-6.7281 4.9646 -2.1649 0.9660
-7.0186 4.2692 -2.1270 0.9666
-1.4227 7.3146 -2.1095 0.9695
-2.2003 7.6139 -2.2436 0.9676
-2.8312 7.2877 -2.2133 0.9680
-3.4197 6.9062 -2.1817 0.9685
-4.4527 6.0026 -2.1158 0.9694
-2.3251 2.1840 -0.9031 0.9868
-6.0325 4.7293 -2.1700 0.9686
-6.3333 4.1102 -2.1374 0.9691
-6.5683 3.4734 -2.1034 0.9696
-6.9393 0.9039 -1.9811 0.9713
-6.8988 0.2782 -1.9546 0.9717
-6.4927 -1.5023 -1.8866 0.9727
-6.2704 -2.0544 -1.8679 0.9729
-6.0086 -2.5818 -1.8514 0.9732
-5.0097 -3.9977 -1.8144 0.9737
0.5483 -6.4953 -1.8453 0.9733
1.1344 -6.4752 -1.8610 0.9730
1.7233 -6.4092 -1.8788 0.9728
2.3117 -6.2960 -1.8987 0.9725
2.8965 -6.1349 -1.9206 0.9722
3.4743 -5.9250 -1.9444 0.9719
4.5934 -5.3571 -1.9977 0.9711
6.1170 -4.1341 -2.0901 0.9698
6.0920 -3.3685 -1.9707 0.9715
2.3247 -1.0267 -0.7194 0.9895
6.8101 -2.3071 -2.0355 0.9706
7.1029 -1.7187 -2.0688 0.9701
7.3448 -1.0964 -2.1023 0.9696
7.6568 0.2318 -2.1686 0.9687
7.7118 1.6334 -2.2316 0.9678
7.1534 2.9169 -2.1870 0.9684
6.4082 3.3069 -2.0414 0.9705
3.1320 5.0063 -1.6717 0.9757
2.6638 5.2465 -1.6657 0.9758
1.5828 3.9560 -1.2062 0.9824
1.7182 5.7293 -1.6933 0.9754
0.5913 2.8852 -0.8338 0.9878
0.7078 6.2421 -1.7784 0.9742
-0.9525 6.1045 -1.7491 0.9746
-1.9251 7.7324 -2.2558 0.9674
-2.5723 7.4312 -2.2262 0.9678
-3.1791 7.0721 -2.1950 0.9683
-3.7408 6.6613 -2.1628 0.9687
-4.7144 5.7104 -2.0963 0.9697
-5.4733 4.6308 -2.0296 0.9706
-6.2174 4.3731 -2.1519 0.9689
-6.4772 3.7409 -2.1175 0.9694
-6.6781 3.0994 -2.0842 0.9699
-6.8213 2.4537 -2.0522 0.9703
-6.9084 1.8088 -2.0216 0.9707
-6.8525 -0.0795 -1.9400 0.9719
-6.7356 -0.6815 -1.9165 0.9722
-6.5734 -1.2646 -1.8950 0.9726
-6.1228 -2.3643 -1.8581 0.9731
-5.8391 -2.8766 -1.8427 0.9733
-5.5197 -3.3612 -1.8295 0.9735
-4.3692 -4.6326 -1.8027 0.9739
-3.9290 -4.9907 -1.7981 0.9739
-3.4639 -5.3138 -1.7957 0.9740
-2.9762 -5.6005 -1.7954 0.9740
-1.3984 -6.2304 -1.8077 0.9738
-0.8416 -6.3597 -1.8161 0.9737
0.3046 -6.4902 -1.8394 0.9734
0.8888 -6.4892 -1.8542 0.9731
1.4768 -6.4425 -1.8711 0.9729
2.6526 -6.2081 -1.9112 0.9723
3.2337 -6.0188 -1.9342 0.9720
4.9061 -5.1546 -2.0145 0.9708
5.4260 -4.7673 -2.0447 0.9704
6.6738 -2.5423 -2.0217 0.9707
6.9864 -1.9692 -2.0549 0.9703
7.2501 -1.3606 -2.0883 0.9698
7.4601 -0.7205 -2.1217 0.9693
7.7230 1.3368 -2.2188 0.9679
7.6756 2.0470 -2.2489 0.9675
7.5048 2.7382 -2.2616 0.9673
6.7076 3.1503 -2.0979 0.9697
6.0165 3.5115 -1.9721 0.9715
4.8335 4.1274 -1.7993 0.9739
3.8761 4.7389 -1.7332 0.9749
3.3294 4.9048 -1.6782 0.9757
0.7385 3.0249 -0.8815 0.9871
0.4654 3.0744 -0.8803 0.9872
-0.7091 6.0092 -1.7130 0.9752
-1.6438 7.8398 -2.2676 0.9672
-2.3062 7.5646 -2.2388 0.9677
-2.9305 7.2290 -2.2082 0.9681
-4.0452 6.4010 -2.1436 0.9690
-4.5281 5.9217 -2.1103 0.9695
-2.3629 2.1555 -0.9054 0.9868
-6.3757 4.0068 -2.1318 0.9692
-6.8787 2.0781 -2.0342 0.9706
-6.9339 1.4357 -2.0046 0.9710
-6.8875 0.1771 -1.9504 0.9718
-6.7901 -0.4319 -1.9261 0.9721
-6.6466 -1.0232 -1.9038 0.9724
-6.4591 -1.5941 -1.8834 0.9727
-6.2302 -2.1423 -1.8651 0.9730
-5.6575 -3.1619 -1.8348 0.9734
-5.3183 -3.6297 -1.8228 0.9736
-4.9469 -4.0671 -1.8130 0.9737
-4.5455 -4.4727 -1.8053 0.9738
-4.1162 -4.8451 -1.7998 0.9739
-3.6613 -5.1830 -1.7964 0.9740
-3.1828 -5.4851 -1.7953 0.9740
-2.6829 -5.7501 -1.7963 0.9740
-1.6273 -6.1641 -1.8048 0.9738
-1.0760 -6.3107 -1.8123 0.9737
0.6438 -6.4951 -1.8477 0.9732
1.8196 -6.3939 -1.8819 0.9727
2.4077 -6.2729 -1.9021 0.9725
2.9916 -6.1039 -1.9243 0.9721
3.5678 -5.8860 -1.9485 0.9718
4.6820 -5.3019 -2.0024 0.9710
5.2115 -4.9353 -2.0319 0.9706
5.7167 -4.5194 -2.0630 0.9702
7.1460 -1.6192 -2.0743 0.9700
7.5558 -0.3355 -2.1411 0.9690
7.6714 0.3443 -2.1739 0.9686
7.7220 1.0416 -2.2058 0.9681
7.7041 1.7496 -2.2365 0.9677
7.6151 2.4606 -2.2655 0.9673
7.0244 2.9845 -2.1606 0.9688
6.2954 3.3659 -2.0209 0.9708
5.6493 3.7030 -1.9122 0.9723
5.0642 4.0075 -1.8282 0.9735
4.0854 4.6308 -1.7482 0.9747
3.5285 4.8023 -1.6870 0.9755
3.0552 5.0457 -1.6699 0.9758
2.1178 5.5256 -1.6752 0.9757
0.6200 6.2865 -1.7883 0.9741
0.0597 6.5694 -1.8598 0.9731
-0.5524 6.8777 -1.9533 0.9717
-1.2347 7.2203 -2.0737 0.9700
-2.0334 7.6874 -2.2511 0.9675
-2.6744 7.3763 -2.2212 0.9679
-3.8280 6.5896 -2.1574 0.9688
-4.7846 5.6263 -2.0908 0.9698
-5.5256 4.5384 -2.0242 0.9707
-6.8394 2.3481 -2.0471 0.9704
-6.9139 0.4364 -1.9612 0.9716
-6.8366 -0.1791 -1.9361 0.9720
-6.7121 -0.7782 -1.9129 0.9723
-6.5427 -1.3580 -1.8917 0.9726
-6.3309 -1.9160 -1.8725 0.9729
-6.0789 -2.4499 -1.8554 0.9731
-5.7893 -2.9577 -1.8404 0.9733
-5.4642 -3.4376 -1.8275 0.9735
-4.2990 -4.6935 -1.8018 0.9739
-3.3857 -5.3631 -1.7955 0.9740
-2.8945 -5.6438 -1.7956 0.9740
-2.3831 -5.8867 -1.7979 0.9739
-1.3083 -6.2544 -1.8089 0.9738
-0.1792 -6.4568 -1.8286 0.9735
0.9847 -6.4847 -1.8568 0.9731
1.5732 -6.4304 -1.8741 0.9729
2.1620 -6.3293 -1.8934 0.9726
2.7481 -6.1805 -1.9148 0.9723
3.3280 -5.9831 -1.9382 0.9719
3.8981 -5.7366 -1.9634 0.9716
4.4544 -5.4405 -1.9905 0.9712
5.5087 -4.6993 -2.0498 0.9703
5.9974 -4.2550 -2.0817 0.9699
6.3785 -2.9920 -1.9945 0.9711
6.7280 -2.4511 -2.0271 0.9707
7.0329 -1.8720 -2.0603 0.9702
