ply
format ascii 1.0
element vertex 1592
property float32 x
property float32 y
property float32 z
property float32 I
end_header
-6.6365 -1.9893 -1.7938 0.9718
-4.9191 -4.4715 -1.7212 0.9729
-4.0139 -5.2320 -1.7074 0.9731
-3.5238 -5.5574 -1.7038 0.9732
-2.4795 -6.0928 -1.7032 0.9732
-1.9296 -6.3007 -1.7062 0.9731
-6.7230 0.7976 -1.9166 0.9722
-6.2566 -1.5255 -1.8231 0.9736
-6.0330 -2.0561 -1.8043 0.9739
-5.7714 -2.5619 -1.7876 0.9741
-3.9760 -4.6588 -1.7339 0.9749
-3.0724 -5.2693 -1.7268 0.9750
-2.5895 -5.5209 -1.7263 0.9750
-2.0887 -5.7351 -1.7279 0.9749
-1.5722 -5.9111 -1.7316 0.9749
1.1669 -6.1809 -1.7807 0.9742
2.2890 -5.9867 -1.8144 0.9737
2.8446 -5.8215 -1.8342 0.9734
4.4488 -5.0475 -1.9047 0.9724
4.9502 -4.6960 -1.9316 0.9720
6.1746 -2.6238 -1.8993 0.9725
6.4869 -2.0959 -1.9299 0.9721
3.4526 -0.7837 -1.0023 0.9854
7.2527 0.3245 -2.0552 0.9703
7.3021 0.9846 -2.0859 0.9698
7.2873 1.6551 -2.1155 0.9694
7.0560 2.9995 -2.1705 0.9686
5.4656 4.3290 -1.9738 0.9714
5.1947 4.9292 -2.0273 0.9707
4.1578 5.6668 -1.9897 0.9712
3.6450 6.0302 -1.9947 0.9711
2.0287 7.1693 -2.1093 0.9695
1.2541 6.6480 -1.9152 0.9723
0.7708 7.9094 -2.2497 0.9675
0.0618 7.8872 -2.2329 0.9677
-0.6361 7.7913 -2.2130 0.9680
-1.3149 7.6248 -2.1904 0.9683
-0.7916 2.9748 -0.8715 0.9873
-4.5297 6.3812 -2.2153 0.9680
-5.0032 5.8608 -2.1815 0.9685
-5.4199 5.3070 -2.1474 0.9690
-5.7787 4.7264 -2.1134 0.9694
-6.3211 3.5105 -2.0469 0.9704
-6.7073 1.6344 -1.9544 0.9717
-6.6979 0.4051 -1.8996 0.9725
-6.4946 -0.7713 -1.8515 0.9732
-6.3263 -1.3320 -1.8302 0.9735
-6.1166 -1.8708 -1.8108 0.9738
-5.5834 -2.8745 -1.7778 0.9742
-5.2645 -3.3355 -1.7643 0.9744
-4.5338 -4.1678 -1.7434 0.9747
-3.6940 -4.8712 -1.7307 0.9749
-2.7627 -5.4360 -1.7262 0.9750
-1.2313 -6.0039 -1.7350 0.9748
0.4084 -6.2119 -1.7624 0.9745
0.9680 -6.1968 -1.7755 0.9743
2.6485 -5.8852 -1.8270 0.9735
4.7751 -4.8258 -1.9219 0.9722
5.2618 -4.4444 -1.9498 0.9718
6.1351 -3.5352 -2.0045 0.9710
6.3811 -2.2870 -1.9190 0.9722
6.6655 -1.7364 -1.9499 0.9718
7.2917 0.7493 -2.0751 0.9700
5.3838 4.7943 -2.0408 0.9705
4.3393 5.5380 -1.9917 0.9712
3.3105 6.2666 -2.0064 0.9710
2.2309 7.0273 -2.0872 0.9698
1.4481 6.5344 -1.8947 0.9726
1.0200 7.8762 -2.2483 0.9675
-0.3907 7.8335 -2.2204 0.9679
-0.6911 2.9725 -0.8639 0.9874
-2.9650 6.8770 -2.1201 0.9693
-3.5169 6.4936 -2.0906 0.9698
-4.3488 6.5562 -2.2272 0.9678
-5.2789 5.5065 -2.1595 0.9688
-5.9794 4.3403 -2.0917 0.9698
-6.2420 3.7296 -2.0585 0.9702
-6.5948 2.4820 -1.9948 0.9711
-6.7142 0.6197 -1.9088 0.9724
-6.6525 0.0182 -1.8833 0.9727
-6.1955 -1.6826 -1.8174 0.9737
-5.9605 -2.2062 -1.7993 0.9739
-5.6883 -2.7044 -1.7830 0.9742
-5.3812 -3.1755 -1.7688 0.9744
-5.0415 -3.6177 -1.7566 0.9745
-4.6716 -4.0295 -1.7465 0.9747
-3.8499 -4.7565 -1.7323 0.9749
-2.9335 -5.3465 -1.7264 0.9750
-0.8854 -6.0800 -1.7394 0.9748
0.2112 -6.2070 -1.7582 0.9745
3.0052 -5.7646 -1.8404 0.9733
4.0816 -5.2682 -1.8866 0.9727
4.5971 -4.9498 -1.9124 0.9723
5.5625 -4.1736 -1.9687 0.9715
5.9985 -3.7141 -1.9973 0.9711
5.9294 -2.9754 -1.8781 0.9728
6.5699 -1.9353 -1.9389 0.9719
7.0297 -0.7611 -2.0017 0.9710
7.1807 -0.1332 -2.0332 0.9706
7.3045 1.1793 -2.0946 0.9697
6.9993 3.1930 -2.1779 0.9685
5.5755 4.6574 -2.0566 0.9703
3.4632 4.1430 -1.5287 0.9778
2.3407 3.3709 -1.1618 0.9831
2.9709 6.5063 -2.0248 0.9707
1.8589 7.2885 -2.1294 0.9692
0.5635 7.9107 -2.2451 0.9676
-1.5081 7.5635 -2.1833 0.9684
-3.3265 6.6350 -2.1012 0.9696
-4.1573 6.7196 -2.2369 0.9677
-4.6735 6.2333 -2.2055 0.9681
-5.5306 5.1402 -2.1375 0.9691
-5.8723 4.5530 -2.1036 0.9696
-6.1557 3.9474 -2.0701 0.9701
-6.5488 2.7041 -2.0057 0.9710
-6.7187 1.4530 -1.9460 0.9718
-6.6799 0.2296 -1.8921 0.9726
-6.4499 -0.9369 -1.8451 0.9733
-6.0481 -2.0235 -1.8055 0.9738
-5.7888 -2.5310 -1.7886 0.9741
-4.8060 -3.8872 -1.7499 0.9746
-4.4177 -4.2786 -1.7410 0.9748
-4.0028 -4.6374 -1.7342 0.9749
-3.5635 -4.9624 -1.7295 0.9749
-3.1020 -5.2524 -1.7269 0.9750
-2.6202 -5.5062 -1.7263 0.9750
-2.1205 -5.7228 -1.7277 0.9749
-1.0757 -6.0403 -1.7369 0.9748
0.0148 -6.1967 -1.7542 0.9746
2.2540 -5.9955 -1.8133 0.9737
2.8100 -5.8332 -1.8329 0.9734
5.9563 -3.2286 -1.9180 0.9722
6.4686 -2.1300 -1.9279 0.9721
6.9630 -0.9776 -1.9905 0.9712
7.1337 -0.3583 -2.0220 0.9707
7.2475 0.2837 -2.0533 0.9703
7.2902 1.6130 -2.1137 0.9694
7.2130 2.2871 -2.1421 0.9690
7.0674 2.9578 -2.1689 0.9687
6.8526 3.6170 -2.1936 0.9683
6.0428 3.9158 -2.0384 0.9705
4.1899 5.6440 -1.9899 0.9712
3.1580 6.3743 -2.0138 0.9709
0.8154 7.9083 -2.2507 0.9675
0.1060 7.8908 -2.2340 0.9677
-1.2731 7.6372 -2.1919 0.9683
-0.7716 2.9661 -0.8676 0.9873
-2.5481 7.1175 -2.1401 0.9691
-3.1305 6.7703 -2.1116 0.9695
-5.3955 5.3425 -2.1495 0.9689
-6.3077 3.5493 -2.0489 0.9704
-6.6275 2.2992 -1.9859 0.9713
-6.7043 1.6735 -1.9562 0.9717
-6.6256 -0.1545 -1.8762 0.9728
-6.3380 -1.2975 -1.8315 0.9735
-5.8849 -2.3542 -1.7943 0.9740
-5.6022 -2.8447 -1.7787 0.9742
-5.2854 -3.3075 -1.7651 0.9744
-4.5584 -4.1436 -1.7439 0.9747
-3.2679 -5.1537 -1.7276 0.9750
-1.7892 -5.8425 -1.7298 0.9749
-6.2157 0.7374 -1.9252 0.9741
-6.0958 -0.3695 -1.8784 0.9748
-5.9710 -0.9015 -1.8574 0.9750
-5.8059 -1.4156 -1.8381 0.9753
-5.6025 -1.9093 -1.8205 0.9755
-5.0899 -2.8276 -1.7909 0.9759
-4.7851 -3.2483 -1.7789 0.9761
-4.0894 -4.0052 -1.7606 0.9763
-3.2928 -4.6399 -1.7500 0.9765
-2.8619 -4.9084 -1.7476 0.9765
-1.9455 -5.3421 -1.7487 0.9765
0.0460 -5.7678 -1.7741 0.9762
0.5637 -5.7769 -1.7853 0.9760
1.6059 -5.6723 -1.8132 0.9756
2.1248 -5.5573 -1.8300 0.9754
2.6385 -5.3997 -1.8485 0.9752
3.1436 -5.1992 -1.8688 0.9749
3.6370 -4.9556 -1.8907 0.9746
4.1150 -4.6688 -1.9142 0.9743
5.4189 -3.5537 -1.9932 0.9732
5.6781 -2.4129 -1.8976 0.9745
3.4538 -0.7840 -1.0893 0.9853
6.5337 -0.2915 -2.0116 0.9730
6.6258 0.2965 -2.0400 0.9726
6.6406 1.5082 -2.0945 0.9719
6.5586 2.1200 -2.1200 0.9716
5.8819 3.8584 -2.1637 0.9710
5.1884 4.9232 -2.1999 0.9705
3.5266 4.0022 -1.6407 0.9779
4.1529 5.6600 -2.1592 0.9710
3.6406 6.0229 -2.1647 0.9710
3.1213 6.3899 -2.1873 0.9707
2.5863 6.7667 -2.2281 0.9701
1.2525 6.6392 -2.0781 0.9721
0.0561 7.1520 -2.1999 0.9705
-0.5773 7.0709 -2.1821 0.9707
-1.1945 6.9263 -2.1618 0.9710
-0.7904 2.9702 -0.9454 0.9872
-2.3541 6.4612 -2.1151 0.9716
-2.8853 6.1496 -2.0893 0.9720
-3.3781 5.7919 -2.0623 0.9723
-4.1392 5.8311 -2.1994 0.9705
-4.5779 5.3626 -2.1687 0.9709
-5.5845 3.7899 -2.0759 0.9722
-5.8143 3.2290 -2.0456 0.9726
-5.9916 2.6587 -2.0162 0.9729
-6.1171 2.0838 -1.9876 0.9733
-6.1920 1.5089 -1.9603 0.9737
-6.1966 0.3748 -1.9094 0.9744
-6.1299 -0.1772 -1.8862 0.9747
-6.0200 -0.7150 -1.8646 0.9749
-5.8689 -1.2357 -1.8447 0.9752
-5.6788 -1.7369 -1.8265 0.9755
-5.4519 -2.2164 -1.8102 0.9757
-5.1904 -2.6722 -1.7956 0.9759
-4.5725 -3.5054 -1.7721 0.9762
-3.0168 -4.8171 -1.7482 0.9765
-2.5735 -5.0638 -1.7471 0.9765
-2.1126 -5.2756 -1.7479 0.9765
-1.6362 -5.4516 -1.7507 0.9765
-0.6458 -5.6923 -1.7620 0.9763
-0.1362 -5.7550 -1.7706 0.9762
2.4573 -5.4604 -1.8417 0.9753
2.9659 -5.2752 -1.8614 0.9750
3.4638 -5.0468 -1.8827 0.9747
5.2774 -3.7048 -1.9833 0.9734
5.6538 -3.2579 -2.0070 0.9731
6.3261 -1.0568 -1.9728 0.9735
6.5993 0.0864 -2.0300 0.9728
6.6559 0.6839 -2.0580 0.9724
6.5946 1.9035 -2.1112 0.9717
6.4729 2.5130 -2.1357 0.9714
6.0437 3.6966 -2.1791 0.9708
5.3725 4.7843 -2.2127 0.9703
4.8496 5.1647 -2.1791 0.9708
3.3065 6.2591 -2.1773 0.9708
2.7781 6.6317 -2.2115 0.9704
2.2018 6.9355 -2.2381 0.9700
0.2830 7.1650 -2.2055 0.9704
-0.3545 7.1070 -2.1887 0.9707
-0.9782 6.9846 -2.1693 0.9709
-0.6906 2.9700 -0.9379 0.9873
-2.7013 6.2655 -2.0986 0.9718
-4.8343 5.0428 -2.1487 0.9712
-5.4903 3.9853 -2.0867 0.9720
-6.0785 2.2877 -1.9976 0.9732
-6.1711 1.7123 -1.9698 0.9736
-6.2143 1.1395 -1.9432 0.9739
-6.1586 0.0168 -1.8943 0.9746
-6.0638 -0.5263 -1.8721 0.9748
-5.9270 -1.0533 -1.8516 0.9751
-5.2869 -2.5136 -1.8005 0.9758
-5.0042 -2.9530 -1.7872 0.9760
-4.6906 -3.3659 -1.7757 0.9761
-4.3482 -3.7505 -1.7662 0.9763
-3.9791 -4.1056 -1.7586 0.9764
-3.5854 -4.4297 -1.7529 0.9764
-2.7326 -4.9803 -1.7473 0.9765
-2.2777 -5.2046 -1.7474 0.9765
-1.8066 -5.3934 -1.7495 0.9765
-0.3176 -5.7373 -1.7674 0.9762
0.1965 -5.7746 -1.7772 0.9761
0.7154 -5.7719 -1.7889 0.9760
1.2367 -5.7283 -1.8025 0.9758
2.2753 -5.5157 -1.8352 0.9753
2.7868 -5.3457 -1.8542 0.9751
3.2888 -5.1326 -1.8750 0.9748
4.2509 -4.5771 -1.9213 0.9742
5.1322 -3.8508 -1.9735 0.9735
5.5294 -3.4237 -2.0004 0.9732
6.0315 -1.7767 -1.9340 0.9740
6.2571 -1.2499 -1.9626 0.9737
6.6423 0.4708 -2.0481 0.9725
6.3614 2.9020 -2.1506 0.9712
6.1377 3.4923 -2.1720 0.9709
5.0346 5.0329 -2.1896 0.9706
4.5158 5.4022 -2.1657 0.9710
2.9673 6.4984 -2.1973 0.9705
2.4221 6.8682 -2.2400 0.9700
1.1548 7.1370 -2.2237 0.9702
-0.1299 7.1351 -2.1950 0.9706
-2.5127 6.3754 -2.1077 0.9717
-3.0331 6.0498 -2.0815 0.9721
-3.7884 6.1233 -2.2147 0.9703
-4.6963 5.2198 -2.1597 0.9710
-5.8714 3.0635 -2.0370 0.9727
-6.1441 1.9160 -1.9795 0.9734
-6.2046 1.3418 -1.9525 0.9738
-5.9801 -0.8687 -1.8586 0.9750
-5.6163 -1.8791 -1.8216 0.9755
-3.7275 -4.3185 -1.7547 0.9764
-2.8895 -4.8926 -1.7477 0.9765
-2.4408 -5.1292 -1.7471 0.9765
-1.4947 -5.4960 -1.7519 0.9764
-0.4980 -5.7146 -1.7643 0.9763
1.0520 -5.7484 -1.7975 0.9758
1.5733 -5.6781 -1.8123 0.9756
2.0925 -5.5657 -1.8289 0.9754
2.6065 -5.4108 -1.8473 0.9752
4.5458 -4.3610 -1.9376 0.9740
4.9834 -3.9916 -1.9639 0.9736
5.7525 -3.1182 -2.0126 0.9730
5.9412 -1.9564 -1.9239 0.9742
3.4416 -0.8015 -1.0869 0.9853
6.3785 -0.8956 -1.9811 0.9734
6.5655 2.0818 -2.1185 0.9716
6.4258 2.6892 -2.1425 0.9713
5.9162 3.8338 -2.1684 0.9709
5.4918 4.3000 -2.1453 0.9712
3.5680 4.0038 -1.6495 0.9778
4.1849 5.6373 -2.1595 0.9710
3.1541 6.3667 -2.1854 0.9707
2.0187 6.9845 -2.2362 0.9700
1.2856 6.6117 -2.0717 0.9722
0.0961 7.1549 -2.2009 0.9705
-1.1564 6.9372 -2.1632 0.9710
-0.7704 2.9615 -0.9412 0.9873
-2.3196 6.4791 -2.1167 0.9716
-2.8531 6.1705 -2.0910 0.9720
-3.3484 5.8155 -2.0640 0.9723
-4.1101 5.8592 -2.2014 0.9705
-4.9431 4.8945 -2.1396 0.9713
-5.8015 3.2645 -2.0475 0.9725
-6.2177 0.9735 -1.9357 0.9740
-6.1993 0.4097 -1.9109 0.9743
-6.1354 -0.1430 -1.8876 0.9746
-5.2078 -2.6444 -1.7965 0.9759
-4.9159 -3.0762 -1.7837 0.9760
-4.2433 -3.8572 -1.7638 0.9763
-3.4663 -4.5182 -1.7516 0.9764
-2.6018 -5.0493 -1.7471 0.9765
-2.1419 -5.2633 -1.7478 0.9765
-1.6665 -5.4416 -1.7505 0.9765
-5.7601 1.2120 -1.9566 0.9755
-5.5606 -0.8395 -1.8693 0.9766
-5.0042 -2.2213 -1.8199 0.9772
-4.7517 -2.6397 -1.8069 0.9773
-4.1586 -3.4022 -1.7860 0.9776
-3.8220 -3.7433 -1.7783 0.9777
-3.0787 -4.3382 -1.7683 0.9778
-2.6761 -4.5896 -1.7660 0.9779
-2.2555 -4.8089 -1.7656 0.9779
-1.8191 -4.9949 -1.7670 0.9778
-0.9070 -5.2635 -1.7754 0.9777
1.4980 -5.2910 -1.8279 0.9771
1.9808 -5.1805 -1.8436 0.9769
2.9263 -4.8398 -1.8800 0.9764
3.8241 -4.3387 -1.9224 0.9759
4.6470 -3.6797 -1.9703 0.9753
5.3466 -2.8596 -2.0155 0.9748
5.2501 -2.2310 -1.8962 0.9762
6.0918 0.2726 -2.0270 0.9746
5.8739 2.4970 -2.1216 0.9735
5.1292 4.0626 -2.1750 0.9728
4.7749 4.5309 -2.1880 0.9726
3.5878 4.0717 -1.8039 0.9774
3.9254 5.3500 -2.2057 0.9724
3.4393 5.6900 -2.2100 0.9724
2.3730 6.2088 -2.2094 0.9724
1.8058 6.3813 -2.2045 0.9724
0.6378 6.5443 -2.1857 0.9727
-0.5278 6.4648 -2.1561 0.9730
-1.0930 6.3377 -2.1378 0.9733
-2.1580 5.9230 -2.0954 0.9738
-2.6476 5.6430 -2.0720 0.9741
-3.8037 5.3583 -2.1843 0.9727
-4.5770 4.4816 -2.1293 0.9734
-4.8920 4.0012 -2.1008 0.9737
-5.1589 3.5011 -2.0724 0.9741
-5.3772 2.9862 -2.0445 0.9744
-5.5471 2.4615 -2.0173 0.9747
-5.7445 1.3998 -1.9654 0.9754
-4.8447 -2.4942 -1.8113 0.9773
-4.2717 -3.2748 -1.7892 0.9776
-2.8208 -4.5042 -1.7666 0.9778
-1.0718 -5.2262 -1.7734 0.9778
-0.6035 -5.3197 -1.7797 0.9777
0.8401 -5.3778 -1.8093 0.9773
1.8103 -5.2242 -1.8379 0.9770
2.7616 -4.9118 -1.8731 0.9765
3.6697 -4.4391 -1.9145 0.9760
4.0994 -4.1430 -1.9374 0.9757
5.2371 -3.0178 -2.0092 0.9748
5.4172 -1.9416 -1.9129 0.9760
5.8318 -0.9743 -1.9654 0.9754
5.7555 2.8489 -2.1347 0.9733
5.5263 3.3801 -2.1534 0.9731
4.0884 5.2178 -2.2034 0.9724
2.2252 3.4313 -1.3594 0.9829
3.1073 5.8818 -2.2112 0.9723
2.0086 6.3270 -2.2066 0.9724
0.2585 6.5448 -2.1772 0.9728
-2.9459 5.4393 -2.0562 0.9743
-4.0752 5.0915 -2.1678 0.9729
-4.4540 4.6461 -2.1394 0.9732
-5.0699 3.6801 -2.0824 0.9739
-5.4924 2.6482 -2.0268 0.9746
-5.7687 1.0578 -1.9495 0.9756
-5.5207 -0.9811 -1.8639 0.9766
-5.3600 -1.4557 -1.8462 0.9769
-5.1637 -1.9113 -1.8302 0.9771
-4.9338 -2.3457 -1.8159 0.9772
-4.6724 -2.7572 -1.8034 0.9774
-4.3814 -3.1440 -1.7926 0.9775
-3.3519 -4.1412 -1.7710 0.9778
-2.9632 -4.4148 -1.7674 0.9778
-2.5552 -4.6569 -1.7657 0.9779
-1.6892 -5.0428 -1.7678 0.9778
-0.2967 -5.3608 -1.7847 0.9776
0.1835 -5.3937 -1.7939 0.9775
0.6679 -5.3888 -1.8050 0.9774
1.1540 -5.3454 -1.8178 0.9772
2.1206 -5.1408 -1.8485 0.9768
2.5955 -4.9788 -1.8664 0.9766
3.5132 -4.5345 -1.9067 0.9761
3.9494 -4.2524 -1.9291 0.9758
5.3274 -2.1018 -1.9037 0.9761
5.5688 -1.6404 -1.9297 0.9758
6.0418 -0.1121 -2.0087 0.9749
6.1166 0.9875 -2.0595 0.9742
6.0743 1.5470 -2.0836 0.9739
5.8233 2.6566 -2.1276 0.9734
5.6138 3.1942 -2.1470 0.9731
5.0311 4.2026 -2.1791 0.9727
4.2463 5.0797 -2.2008 0.9725
2.4354 3.5072 -1.4193 0.9822
3.2910 5.7794 -2.2107 0.9724
2.7629 6.0508 -2.2111 0.9724
2.2094 6.2652 -2.2083 0.9724
1.0541 6.5146 -2.1936 0.9726
0.4664 6.5477 -2.1820 0.9727
-0.1187 6.5202 -2.1677 0.9729
-0.6943 6.4335 -2.1510 0.9731
-1.2542 6.2902 -2.1320 0.9733
-4.6738 4.3439 -2.1210 0.9735
-4.9749 3.8572 -2.0925 0.9738
-5.4317 2.8340 -2.0365 0.9745
-5.6960 1.7763 -1.9833 0.9752
-5.7578 1.2452 -1.9582 0.9755
-5.6781 -0.3123 -1.8903 0.9763
-5.5687 -0.8089 -1.8705 0.9766
-5.4211 -1.2897 -1.8523 0.9768
-5.2372 -1.7522 -1.8357 0.9770
-5.0189 -2.1944 -1.8208 0.9772
-4.7685 -2.6142 -1.8076 0.9773
-4.4877 -3.0099 -1.7962 0.9775
-3.8438 -3.7227 -1.7787 0.9777
-3.4846 -4.0370 -1.7727 0.9778
-0.9362 -5.2572 -1.7750 0.9777
-0.4654 -5.3402 -1.7818 0.9777
0.0128 -5.3863 -1.7904 0.9776
0.4960 -5.3949 -1.8009 0.9774
0.9818 -5.3652 -1.8130 0.9773
1.4676 -5.2966 -1.8270 0.9771
3.3546 -4.6249 -1.8992 0.9762
4.2208 -4.0492 -1.9443 0.9756
5.4876 -1.8070 -1.9205 0.9759
6.0074 -0.3017 -1.9994 0.9750
6.0956 1.3486 -2.0752 0.9740
6.0178 1.9081 -2.0985 0.9737
5.8841 2.4625 -2.1203 0.9735
5.1497 4.0322 -2.1741 0.9728
4.7985 4.5026 -2.1873 0.9726
3.4708 5.6702 -2.2099 0.9724
0.6746 6.5429 -2.1864 0.9727
0.0878 6.5368 -2.1731 0.9728
-0.4919 6.4709 -2.1572 0.9730
-1.0581 6.3473 -2.1390 0.9732
-0.7692 2.9569 -1.0156 0.9872
-2.6179 5.6618 -2.0735 0.9740
-4.1904 4.9647 -2.1595 0.9730
-4.5557 4.5109 -2.1311 0.9733
-4.8737 4.0319 -2.1026 0.9737
-5.1436 3.5329 -2.0742 0.9740
-5.3649 3.0188 -2.0463 0.9744
-5.5379 2.4945 -2.0190 0.9747
-5.6630 1.9646 -1.9925 0.9751
-5.7411 1.4331 -1.9669 0.9754
-5.4777 -1.1214 -1.8586 0.9767
-5.3064 -1.5906 -1.8414 0.9769
-4.8607 -2.4682 -1.8121 0.9773
-4.5905 -2.8726 -1.8000 0.9774
-4.2913 -3.2519 -1.7898 0.9776
-3.9653 -3.6045 -1.7813 0.9777
-3.2407 -4.2242 -1.7697 0.9778
-2.4329 -4.7215 -1.7655 0.9779
-2.0028 -4.9215 -1.7662 0.9779
-5.3618 0.1543 -1.9182 0.9775
-5.2988 -0.3212 -1.8984 0.9777
-5.1979 -0.7848 -1.8799 0.9779
-5.0609 -1.2339 -1.8628 0.9781
-4.8896 -1.6664 -1.8473 0.9783
-4.6859 -2.0800 -1.8334 0.9785
-3.8987 -3.1896 -1.8013 0.9788
-3.2465 -3.8040 -1.7884 0.9790
-2.8880 -4.0696 -1.7845 0.9790
-2.5106 -4.3058 -1.7824 0.9790
-0.8506 -4.9363 -1.7913 0.9789
-0.4085 -5.0108 -1.7978 0.9789
0.4932 -5.0543 -1.8160 0.9787
0.9481 -5.0220 -1.8276 0.9785
1.8533 -4.8470 -1.8557 0.9782
2.7344 -4.5224 -1.8899 0.9778
3.1587 -4.3039 -1.9091 0.9776
3.9591 -3.7558 -1.9515 0.9771
4.3286 -3.4276 -1.9745 0.9768
4.6730 -3.0645 -1.9984 0.9765
4.8769 -2.0724 -1.8950 0.9777
5.1062 -1.6498 -1.9190 0.9775
3.3982 -0.7714 -1.2461 0.9853
5.4531 -0.7345 -1.9677 0.9769
5.6507 0.7619 -2.0390 0.9761
5.6212 1.2767 -2.0614 0.9758
5.2288 2.7974 -2.1206 0.9751
4.9965 3.2776 -2.1369 0.9749
4.3875 4.1633 -2.1629 0.9746
3.6045 4.9127 -2.1790 0.9744
3.1577 5.2240 -2.1829 0.9744
2.6806 5.4877 -2.1841 0.9744
0.0471 6.0078 -2.1485 0.9748
-0.4856 5.9473 -2.1339 0.9750
-1.0062 5.8343 -2.1172 0.9752
-2.8663 4.9144 -2.0345 0.9761
-4.2400 4.1516 -2.1221 0.9751
-4.5363 3.7103 -2.0957 0.9754
-4.7884 3.2497 -2.0695 0.9757
-4.9959 2.7745 -2.0436 0.9760
-5.1587 2.2891 -2.0182 0.9763
-5.2771 1.7977 -1.9936 0.9766
-5.3519 1.3041 -1.9699 0.9769
-5.3747 0.3251 -1.9256 0.9774
-5.2379 -0.6221 -1.8863 0.9778
-4.9541 -1.5153 -1.8526 0.9782
-4.7616 -1.9358 -1.8381 0.9784
-4.2848 -2.7148 -1.8139 0.9787
-4.0043 -3.0698 -1.8043 0.9788
-3.0173 -3.9788 -1.7857 0.9790
-2.6463 -4.2256 -1.7830 0.9790
-1.4351 -4.7813 -1.7852 0.9790
-1.0053 -4.9017 -1.7894 0.9790
-0.5659 -4.9884 -1.7953 0.9789
0.7869 -5.0376 -1.8233 0.9786
1.2416 -4.9817 -1.8360 0.9784
2.1415 -4.7586 -1.8661 0.9781
2.5811 -4.5908 -1.8834 0.9779
3.0100 -4.3856 -1.9022 0.9777
3.8229 -3.8636 -1.9437 0.9772
3.3425 -0.8707 -1.2352 0.9854
5.4033 -0.9027 -1.9590 0.9770
5.5300 -0.4223 -1.9834 0.9767
5.6129 0.0735 -2.0074 0.9764
5.5755 1.6094 -2.0752 0.9756
5.2990 2.6229 -2.1144 0.9752
4.5088 4.0151 -2.1590 0.9747
3.7545 4.7917 -2.1769 0.9745
2.2267 3.4337 -1.4635 0.9828
1.8444 5.8097 -2.1798 0.9744
1.3151 5.9339 -2.1735 0.9745
-0.2980 5.9748 -2.1393 0.9749
-1.8224 5.5408 -2.0858 0.9755
-2.2860 5.3021 -2.0648 0.9758
-3.3635 5.0707 -2.1760 0.9745
-4.4364 3.8690 -2.1050 0.9753
-5.1061 2.4619 -2.0271 0.9762
-5.2402 1.9722 -2.0022 0.9765
-5.3827 0.4968 -1.9331 0.9773
-5.3474 0.0146 -1.9123 0.9775
-5.2732 -0.4577 -1.8928 0.9778
-5.0144 -1.3619 -1.8582 0.9782
-4.8335 -1.7890 -1.8431 0.9783
-3.8094 -3.2858 -1.7990 0.9789
-3.4879 -3.5988 -1.7922 0.9789
-3.1441 -3.8844 -1.7871 0.9790
-2.7799 -4.1415 -1.7837 0.9790
-2.3972 -4.3690 -1.7821 0.9791
-1.1587 -4.8629 -1.7877 0.9790
-0.7225 -4.9616 -1.7930 0.9789
-0.2782 -5.0259 -1.8001 0.9788
1.5342 -4.9260 -1.8450 0.9783
1.9837 -4.8090 -1.8603 0.9781
3.2798 -4.2332 -1.9150 0.9775
3.6841 -3.9667 -1.9360 0.9773
4.7677 -2.9520 -2.0053 0.9765
4.9473 -1.9519 -1.9019 0.9777
5.4900 -0.5944 -1.9748 0.9768
5.5887 -0.1037 -1.9989 0.9765
5.6418 0.3999 -2.0226 0.9763
5.6472 0.9117 -2.0456 0.9760
5.5086 1.9404 -2.0886 0.9755
5.1662 2.9395 -2.1256 0.9751
3.8999 4.6654 -2.1745 0.9745
3.0215 5.3060 -2.1835 0.9744
2.0286 5.7526 -2.1813 0.9744
0.4286 6.0178 -2.1575 0.9747
-0.1091 5.9957 -2.1445 0.9748
-2.9834 4.8221 -2.0277 0.9762
-4.8536 3.1124 -2.0619 0.9758
-5.0480 2.6338 -2.0361 0.9761
-5.1977 2.1463 -2.0110 0.9764
-5.3034 1.6538 -1.9866 0.9767
-5.3645 0.1844 -1.9195 0.9775
-5.3038 -0.2917 -1.8996 0.9777
-5.2053 -0.7561 -1.8810 0.9779
-5.0705 -1.2063 -1.8639 0.9781
-4.9013 -1.6399 -1.8482 0.9783
-4.6995 -2.0547 -1.8342 0.9784
-4.4670 -2.4490 -1.8218 0.9786
-4.2057 -2.8208 -1.8110 0.9787
-3.6044 -3.4910 -1.7944 0.9789
-2.1412 -4.4996 -1.7820 0.9791
-1.3108 -4.8198 -1.7862 0.9790
-0.4364 -5.0071 -1.7974 0.9789
0.0120 -5.0489 -1.8055 0.9788
0.4648 -5.0551 -1.8154 0.9787
0.9196 -5.0251 -1.8269 0.9785
2.7074 -4.5349 -1.8887 0.9778
3.1325 -4.3187 -1.9079 0.9776
4.3062 -3.4492 -1.9730 0.9768
4.9559 -2.6864 -2.0159 0.9763
3.3867 -0.7887 -1.2435 0.9853
5.4446 -0.7644 -1.9661 0.9769
5.5589 -0.2792 -1.9904 0.9766
5.6509 0.7298 -2.0376 0.9761
5.6245 1.2444 -2.0600 0.9758
5.4203 2.2685 -2.1013 0.9753
4.4093 4.1374 -2.1623 0.9746
3.6314 4.8917 -2.1786 0.9745
2.2108 5.6887 -2.1825 0.9744
1.6913 5.8516 -2.1782 0.9745
1.1589 5.9598 -2.1712 0.9745
-0.7679 2.9522 -1.0909 0.9871
-2.8408 4.9338 -2.0359 0.9761
-3.8778 4.5943 -2.1500 0.9748
-5.1498 2.3197 -2.0198 0.9763
-5.3485 1.3350 -1.9713 0.9769
-5.3832 0.8428 -1.9485 0.9771
-5.1223 -1.0486 -1.8698 0.9780
-4.5528 -2.3118 -1.8260 0.9785
-3.3899 -3.6849 -1.7905 0.9790
-2.6701 -4.2110 -1.7831 0.9790
-2.2824 -4.4296 -1.7820 0.9791
-1.4616 -4.7726 -1.7850 0.9790
-5.0208 1.0564 -1.9662 0.9783
-5.0407 0.5980 -1.9452 0.9785
-5.0221 0.1445 -1.9254 0.9787
-4.9663 -0.3010 -1.9067 0.9789
-4.1829 -2.3237 -1.8337 0.9797
-1.9910 -4.2448 -1.7967 0.9801
-1.6056 -4.4086 -1.7980 0.9801
-1.2080 -4.5417 -1.8010 0.9801
-0.8001 -4.6431 -1.8055 0.9800
0.0378 -4.7479 -1.8196 0.9799
0.4635 -4.7501 -1.8290 0.9798
1.7394 -4.5493 -1.8665 0.9794
3.7042 -3.5140 -1.9567 0.9784
4.3654 -2.8628 -2.0006 0.9779
4.6440 -2.4838 -2.0182 0.9777
3.3879 -0.7690 -1.3313 0.9852
5.1718 -0.2308 -1.9839 0.9781
5.2431 0.7070 -2.0275 0.9776
5.1338 1.6595 -2.0676 0.9772
4.8377 2.5882 -2.1025 0.9768
4.3580 3.4517 -2.1305 0.9765
3.5614 4.0417 -2.0644 0.9772
3.3281 4.5359 -2.1559 0.9762
2.9151 4.8227 -2.1595 0.9761
2.0114 5.2627 -2.1590 0.9762
1.0392 5.5089 -2.1483 0.9763
0.5415 5.5562 -2.1393 0.9764
-0.4490 5.4999 -2.1147 0.9766
-0.9310 5.3986 -2.0994 0.9768
-0.7866 2.9561 -1.1722 0.9870
-1.8436 5.0602 -2.0639 0.9772
-2.2657 4.8289 -2.0441 0.9774
-2.6600 4.5607 -2.0233 0.9776
-3.2605 4.5932 -2.1586 0.9762
-3.9448 3.8626 -2.1157 0.9766
-5.0043 1.2194 -1.9738 0.9782
-4.9903 -0.1443 -1.9132 0.9788
-4.9112 -0.5833 -1.8953 0.9790
-4.2635 -2.1950 -1.8377 0.9797
-3.7648 -2.8861 -1.8179 0.9799
-3.1686 -3.4833 -1.8045 0.9800
-2.4898 -3.9756 -1.7976 0.9801
-2.1242 -4.1796 -1.7967 0.9801
-1.7436 -4.3541 -1.7974 0.9801
-1.3501 -4.4981 -1.7997 0.9801
-0.9456 -4.6108 -1.8037 0.9800
-0.1122 -4.7391 -1.8166 0.9799
0.3125 -4.7532 -1.8255 0.9798
0.7394 -4.7333 -1.8359 0.9797
1.1661 -4.6788 -1.8479 0.9796
1.5903 -4.5894 -1.8613 0.9794
3.5777 -3.6157 -1.9493 0.9784
3.9281 -3.3179 -1.9704 0.9782
4.2556 -2.9874 -1.9925 0.9780
4.5508 -2.6223 -2.0128 0.9778
4.4664 -2.0671 -1.8860 0.9791
3.3188 -0.8646 -1.3143 0.9854
5.0278 -0.8399 -1.9534 0.9784
5.1413 -0.3926 -1.9760 0.9782
5.2139 0.0682 -1.9982 0.9779
5.2281 1.0147 -2.0409 0.9774
5.1668 1.4914 -2.0608 0.9772
5.0587 1.9639 -2.0796 0.9770
4.9038 2.4273 -2.0968 0.9768
4.7024 2.8762 -2.1124 0.9767
3.4668 4.4245 -2.1541 0.9762
2.2398 3.4538 -1.5775 0.9825
1.7029 5.3640 -2.1567 0.9762
0.2196 5.5599 -2.1323 0.9764
-0.7618 5.4399 -2.1050 0.9767
-1.6881 5.1326 -2.0706 0.9771
-2.1192 4.9152 -2.0512 0.9773
-2.5237 4.6597 -2.0308 0.9776
-2.8984 4.3696 -2.0094 0.9778
-4.1298 3.6017 -2.0999 0.9768
-4.3830 3.1815 -2.0755 0.9771
-4.5950 2.7455 -2.0512 0.9773
-4.8946 1.8421 -2.0041 0.9778
-5.0306 0.9224 -1.9600 0.9783
-5.0392 0.4651 -1.9393 0.9786
-5.0096 0.0137 -1.9198 0.9788
-4.9433 -0.4290 -1.9015 0.9790
-4.8416 -0.8604 -1.8844 0.9792
-4.7061 -1.2781 -1.8688 0.9793
-4.5385 -1.6799 -1.8546 0.9795
-4.1140 -2.4277 -1.8306 0.9797
-3.5822 -3.0898 -1.8129 0.9799
-3.2806 -3.3849 -1.8064 0.9800
-2.9577 -3.6542 -1.8016 0.9801
-2.6154 -3.8965 -1.7984 0.9801
-1.0900 -4.5745 -1.8021 0.9801
-0.2616 -4.7260 -1.8139 0.9799
3.8064 -3.4272 -1.9628 0.9783
4.4533 -2.7574 -2.0072 0.9778
4.6695 -2.3431 -2.0021 0.9779
4.8130 -1.4178 -1.9228 0.9787
3.4268 -0.6845 -1.3392 0.9851
5.1057 -0.5528 -1.9680 0.9782
5.1930 -0.0963 -1.9904 0.9780
5.2380 0.3713 -2.0123 0.9778
5.2387 0.8458 -2.0336 0.9775
4.9640 2.2645 -2.0909 0.9769
4.7790 2.7192 -2.1071 0.9767
4.2734 3.5697 -2.1338 0.9764
3.4748 4.1568 -2.0762 0.9771
2.4448 3.5208 -1.6426 0.9818
2.3416 5.1282 -2.1604 0.9761
1.8729 5.3110 -2.1581 0.9762
1.3886 5.4446 -2.1533 0.9762
0.3961 5.5605 -2.1363 0.9764
-0.1009 5.5426 -2.1244 0.9765
-0.5909 5.4753 -2.1104 0.9767
-1.5298 5.1998 -2.0771 0.9770
-2.3837 4.7543 -2.0381 0.9775
-2.7693 4.4761 -2.0171 0.9777
-3.3722 4.4976 -2.1542 0.9762
-3.7229 4.1378 -2.1330 0.9764
-4.2980 3.3324 -2.0841 0.9770
-4.5246 2.9015 -2.0598 0.9772
-4.8536 2.0041 -2.0123 0.9778
-5.0406 0.6266 -1.9465 0.9785
-5.0244 0.1727 -1.9266 0.9787
-4.6014 -1.5395 -1.8594 0.9794
-4.1974 -2.3011 -1.8344 0.9797
-3.9533 -2.6515 -1.8242 0.9798
-2.7387 -3.8138 -1.7993 0.9801
-2.3848 -4.0381 -1.7972 0.9801
-0.8259 -4.6377 -1.8052 0.9800
-0.4104 -4.7087 -1.8113 0.9800
0.0113 -4.7467 -1.8190 0.9799
0.8639 -4.7210 -1.8392 0.9797
1.2902 -4.6564 -1.8516 0.9795
1.7131 -4.5567 -1.8655 0.9794
2.5384 -4.2517 -1.8976 0.9790
3.3173 -3.8065 -1.9349 0.9786
3.6821 -3.5323 -1.9553 0.9784
4.0261 -3.2248 -1.9768 0.9781
4.3462 -2.8851 -1.9991 0.9779
4.6278 -2.5085 -2.0173 0.9777
4.7460 -1.5628 -1.9148 0.9788
3.3760 -0.7862 -1.3284 0.9853
5.1668 -0.2595 -1.9825 0.9781
5.2270 0.2046 -2.0046 0.9778
5.1401 1.6298 -2.0664 0.9772
4.6351 3.0036 -2.1166 0.9766
4.3757 3.4261 -2.1297 0.9765
2.0410 5.2518 -2.1592 0.9762
1.0703 5.5042 -2.1488 0.9763
0.5727 5.5547 -2.1400 0.9764
-0.4185 5.5047 -2.1156 0.9766
-0.9013 5.4063 -2.1004 0.9768
-1.8164 5.0734 -2.0651 0.9772
-2.2400 4.8445 -2.0454 0.9774
-2.6362 4.5785 -2.0246 0.9776
-3.6046 4.2706 -2.1416 0.9763
-3.9260 3.8874 -2.1173 0.9766
-4.2079 3.4811 -2.0928 0.9769
-4.9245 1.7084 -1.9975 0.9779
-5.0371 0.7886 -1.9538 0.9784
-5.0345 0.3327 -1.9335 0.9786
-4.9940 -0.1164 -1.9143 0.9788
-4.9172 -0.5561 -1.8964 0.9790
-4.8055 -0.9837 -1.8797 0.9792
-4.2774 -2.1720 -1.8384 0.9797
-4.0428 -2.5299 -1.8276 0.9798
-3.4966 -3.1784 -1.8108 0.9800
-2.5122 -3.9619 -1.7978 0.9801
-2.1475 -4.1677 -1.7967 0.9801
-4.7107 0.9912 -1.9702 0.9794
-1.9547 0.2319 -0.8056 0.9915
-1.9471 -0.1180 -0.7984 0.9916
-1.9665 -0.2969 -0.8139 0.9914
-4.4688 -1.0896 -1.8825 0.9803
-4.3217 -1.4729 -1.8687 0.9805
-4.1452 -1.8401 -1.8562 0.9806
-3.9410 -2.1893 -1.8451 0.9807
-3.7106 -2.5189 -1.8355 0.9808
-2.5627 -3.6112 -1.8123 0.9810
-1.5144 -4.1583 -1.8113 0.9811
-1.1393 -4.2834 -1.8140 0.9810
-0.7545 -4.3784 -1.8184 0.9810
0.8390 -4.4442 -1.8510 0.9806
1.2399 -4.3795 -1.8629 0.9805
3.1374 -3.5596 -1.9420 0.9797
3.7955 -3.0054 -1.9814 0.9793
4.0914 -2.6831 -2.0025 0.9791
4.2566 -1.8088 -1.8929 0.9802
4.4496 -1.4377 -1.9138 0.9800
4.4956 2.4052 -2.0867 0.9782
4.2913 2.8150 -2.1005 0.9781
4.0460 3.2046 -2.1124 0.9779
3.0872 4.2076 -2.1359 0.9777
1.8656 4.8812 -2.1387 0.9777
1.4203 5.0193 -2.1349 0.9777
0.0404 5.1559 -2.1102 0.9780
-0.8653 5.0174 -2.0838 0.9782
-1.7155 4.7085 -2.0510 0.9786
-2.1096 4.4963 -2.0327 0.9788
-3.0388 4.2808 -2.1486 0.9776
-3.3834 3.9634 -2.1328 0.9777
-3.6839 3.6071 -2.1101 0.9780
-3.9478 3.2289 -2.0873 0.9782
-4.5110 2.0017 -2.0199 0.9789
-4.6941 1.1439 -1.9774 0.9793
-1.9471 0.1178 -0.7983 0.9916
-1.9254 -0.0557 -0.7883 0.9917
-4.3772 -1.3388 -1.8734 0.9804
-4.0164 -2.0678 -1.8489 0.9807
-3.5488 -2.7206 -1.8301 0.9809
-3.2792 -3.0145 -1.8230 0.9809
-2.6772 -3.5304 -1.8134 0.9810
-2.0036 -3.9425 -1.8100 0.9811
-1.6446 -4.1070 -1.8106 0.9811
-0.8918 -4.3483 -1.8167 0.9810
-0.5019 -4.4234 -1.8220 0.9809
0.2945 -4.4795 -1.8373 0.9808
1.4970 -4.3202 -1.8713 0.9804
1.8905 -4.2009 -1.8854 0.9803
2.2762 -4.0484 -1.9009 0.9801
3.3585 -3.3942 -1.9543 0.9796
3.6850 -3.1125 -1.9742 0.9794
3.9894 -2.8006 -1.9949 0.9792
4.1810 -1.9350 -1.8856 0.9803
4.3848 -1.5715 -1.9064 0.9801
3.3047 -0.8609 -1.3977 0.9853
4.6958 -0.7845 -1.9485 0.9796
4.7982 -0.3664 -1.9695 0.9794
4.8622 0.0636 -1.9902 0.9792
4.8685 0.9449 -2.0297 0.9788
4.8081 1.3879 -2.0482 0.9786
4.7046 1.8265 -2.0655 0.9784
4.5579 2.2561 -2.0814 0.9783
4.1375 3.0692 -2.1084 0.9780
3.5586 3.7899 -2.1277 0.9778
3.2161 4.1045 -2.1341 0.9777
2.8427 4.3835 -2.1383 0.9777
2.4425 4.6234 -2.1401 0.9777
1.5796 4.9756 -2.1365 0.9777
0.6664 5.1462 -2.1238 0.9778
0.2039 5.1615 -2.1141 0.9779
-0.2559 5.1307 -2.1025 0.9780
-0.7079 5.0548 -2.0890 0.9782
-2.7019 4.0734 -2.0005 0.9791
-3.2667 4.0813 -2.1396 0.9777
-3.5816 3.7360 -2.1182 0.9779
-3.8586 3.3651 -2.0954 0.9781
-4.0982 2.9748 -2.0726 0.9784
-4.5869 1.7263 -2.0058 0.9790
-1.9580 0.1807 -0.8047 0.9915
-1.9577 -0.1699 -0.8042 0.9915
-4.0885 -1.9438 -1.8528 0.9806
-3.8765 -2.2875 -1.8422 0.9807
-3.6388 -2.6111 -1.8330 0.9808
-3.3772 -2.9130 -1.8253 0.9809
-3.0935 -3.1918 -1.8192 0.9810
-2.4668 -3.6752 -1.8116 0.9811
-2.1275 -3.8774 -1.8101 0.9811
-1.7733 -4.0520 -1.8102 0.9811
-0.2466 -4.4554 -1.8263 0.9809
0.5541 -4.4701 -1.8435 0.9807
0.9561 -4.4288 -1.8543 0.9806
1.3562 -4.3545 -1.8666 0.9805
3.2382 -3.4866 -1.9475 0.9796
3.5717 -3.2158 -1.9670 0.9794
4.1729 -2.5837 -2.0087 0.9790
3.4172 -0.6826 -1.4262 0.9851
4.7662 -0.5161 -1.9621 0.9795
4.8441 -0.0899 -1.9829 0.9793
4.8824 0.3461 -2.0033 0.9791
4.8796 0.7878 -2.0229 0.9789
4.7462 1.6719 -2.0595 0.9785
4.6148 2.1052 -2.0760 0.9783
4.4403 2.5265 -2.0909 0.9782
3.9671 3.3138 -2.1156 0.9779
3.6719 3.6706 -2.1249 0.9778
3.3411 3.9970 -2.1321 0.9777
2.3614 3.4007 -1.6945 0.9823
2.5870 4.5431 -2.1397 0.9777
-0.0937 5.1469 -2.1068 0.9780
-2.2199 4.4277 -2.0272 0.9788
-3.1433 4.1924 -2.1445 0.9776
-3.4747 3.8620 -2.1262 0.9778
-3.7647 3.4989 -2.1035 0.9780
-4.0177 3.1150 -2.0807 0.9783
-4.4093 2.3006 -2.0355 0.9787
-4.7081 1.0182 -1.9715 0.9794
-1.9531 0.2428 -0.8055 0.9915
-1.9298 0.0663 -0.7903 0.9917
-3.9546 -2.1680 -1.8458 0.9807
-3.4725 -2.8086 -1.8279 0.9809
-3.1964 -3.0958 -1.8212 0.9810
-2.5831 -3.5971 -1.8125 0.9810
-2.2495 -3.8089 -1.8105 0.9811
-1.1631 -4.2765 -1.8138 0.9810
-0.3869 -4.4395 -1.8239 0.9809
0.0107 -4.4742 -1.8312 0.9808
0.4116 -4.4769 -1.8400 0.9808
0.8138 -4.4472 -1.8503 0.9806
2.0039 -4.1599 -1.8898 0.9802
2.3867 -3.9977 -1.9056 0.9801
3.4558 -3.3153 -1.9600 0.9795
4.0736 -2.7041 -2.0011 0.9791
4.3358 -2.3502 -2.0185 0.9789
4.4384 -1.4615 -1.9125 0.9800
4.7295 -0.6640 -1.9547 0.9796
4.8209 -0.2421 -1.9756 0.9794
4.8853 0.6309 -2.0161 0.9789
4.5070 2.3790 -2.0858 0.9782
4.3053 2.7899 -2.0997 0.9781
4.0625 3.1809 -2.1117 0.9779
3.7806 3.5475 -2.1218 0.9778
3.1102 4.1897 -2.1356 0.9777
2.3213 4.6856 -2.1401 0.9777
1.4486 5.0120 -2.1353 0.9777
0.9930 5.1070 -2.1293 0.9778
0.5316 5.1555 -2.1212 0.9778
-0.3887 5.1132 -2.0987 0.9781
-0.8376 5.0244 -2.0847 0.9782
-0.7628 2.9323 -1.2400 0.9870
-1.6900 4.7206 -2.0521 0.9786
-2.0856 4.5106 -2.0339 0.9788
-2.4562 4.2659 -2.0146 0.9789
-3.0160 4.2994 -2.1494 0.9776
-3.3634 3.9849 -2.1342 0.9777
-3.6661 3.6301 -2.1116 0.9779
-4.3512 2.4484 -2.0434 0.9787
-4.5028 2.0283 -2.0212 0.9789
-4.6159 1.6013 -1.9996 0.9791
-2.0100 0.3147 -0.8327 0.9912
-1.9206 -0.0448 -0.7863 0.9917
-1.9560 -0.2212 -0.8056 0.9915
-4.2223 -1.6891 -1.8612 0.9805
-4.0294 -2.0460 -1.8496 0.9807
-3.8097 -2.3840 -1.8393 0.9808
-3.5649 -2.7014 -1.8306 0.9809
-3.2967 -2.9967 -1.8234 0.9809
-3.0069 -3.2686 -1.8177 0.9810
-2.3695 -3.7370 -1.8110 0.9811
-1.2969 -4.2349 -1.8127 0.9810
-3.9133 -1.7371 -1.8660 0.9815
-3.2653 -2.6714 -1.8387 0.9818
-3.0038 -2.9420 -1.8324 0.9818
-2.7223 -3.1898 -1.8276 0.9819
-2.4225 -3.4136 -1.8243 0.9819
-1.4316 -3.9310 -1.8233 0.9819
-1.0769 -4.0489 -1.8259 0.9819
0.4126 -4.2276 -1.8512 0.9816
0.7922 -4.1962 -1.8611 0.9815
1.9127 -3.9144 -1.8987 0.9812
2.2720 -3.7577 -1.9138 0.9810
2.6201 -3.5700 -1.9299 0.9809
3.5697 -2.8266 -1.9844 0.9803
3.8455 -2.5219 -2.0042 0.9801
4.0880 -2.1864 -2.0204 0.9800
3.3701 -0.7650 -1.5061 0.9850
4.4368 -0.5976 -1.9511 0.9807
4.5171 -0.2015 -1.9706 0.9805
4.5609 0.2041 -1.9897 0.9803
4.5333 1.0296 -2.0260 0.9799
4.1935 2.2436 -2.0727 0.9795
3.7710 2.9869 -2.0965 0.9792
3.5050 3.3258 -2.1058 0.9791
1.7374 4.5457 -2.1208 0.9790
1.3229 4.6748 -2.1174 0.9790
0.8983 4.7615 -2.1118 0.9791
0.0377 4.8058 -2.0945 0.9792
-0.3890 4.7639 -2.0831 0.9794
-0.8072 4.6807 -2.0700 0.9795
-0.7686 2.8885 -1.3026 0.9870
-1.6021 4.3972 -2.0396 0.9798
-1.9713 4.2015 -2.0226 0.9800
-3.4514 3.3794 -2.1052 0.9791
-4.0949 2.2741 -2.0413 0.9798
-1.5408 0.3755 -0.6911 0.9931
-1.5126 0.2282 -0.6667 0.9933
-1.5296 0.0925 -0.6678 0.9933
-1.5224 -0.1808 -0.6682 0.9933
-1.5158 -0.3192 -0.6751 0.9933
-1.5766 -0.4822 -0.7185 0.9928
-3.9749 -1.6160 -1.8700 0.9815
-3.5846 -2.2712 -1.8494 0.9817
-3.3529 -2.5704 -1.8412 0.9817
-2.8242 -3.1047 -1.8291 0.9819
-2.5307 -3.3371 -1.8253 0.9819
-2.2201 -3.5450 -1.8229 0.9819
-1.5547 -3.8825 -1.8227 0.9819
-1.2037 -4.0104 -1.8248 0.9819
-0.8429 -4.1099 -1.8284 0.9819
-0.0999 -4.2209 -1.8401 0.9817
0.6578 -4.2109 -1.8574 0.9816
1.7832 -3.9624 -1.8937 0.9812
2.8376 -3.4325 -1.9409 0.9808
3.1613 -3.1949 -1.9588 0.9806
4.0072 -2.3091 -2.0156 0.9800
4.0129 -1.8572 -1.9271 0.9809
4.1140 -1.4745 -1.9047 0.9811
3.2905 -0.8572 -1.4819 0.9853
4.3999 -0.7350 -1.9441 0.9807
4.5497 0.8830 -2.0198 0.9800
4.4906 1.2962 -2.0370 0.9798
3.6032 3.2087 -2.1027 0.9792
3.3151 3.5306 -2.1107 0.9791
2.9954 3.8229 -2.1166 0.9790
2.6473 4.0822 -2.1204 0.9790
1.8809 4.4899 -2.1216 0.9790
1.0495 4.7357 -2.1140 0.9791
0.6209 4.7946 -2.1070 0.9791
0.1900 4.8105 -2.0981 0.9792
-0.2386 4.7836 -2.0873 0.9793
-0.6760 2.9074 -1.3009 0.9871
-2.5274 3.8103 -1.9927 0.9802
-3.8439 2.7902 -2.0700 0.9795
-4.0356 2.4112 -2.0488 0.9797
-4.1913 2.0208 -2.0279 0.9799
-4.3108 1.6224 -2.0074 0.9801
-1.5620 0.4334 -0.7064 0.9930
-1.4987 0.2748 -0.6641 0.9934
-1.5274 0.1410 -0.6685 0.9933
-1.5228 0.0042 -0.6637 0.9934
-1.5281 -0.1326 -0.6685 0.9933
-1.5014 -0.2668 -0.6646 0.9934
-1.5586 -0.4233 -0.7038 0.9930
-1.5978 -0.5914 -0.7425 0.9926
-3.6611 -2.1604 -1.8527 0.9816
-3.4376 -2.4667 -1.8440 0.9817
-2.9237 -3.0166 -1.8308 0.9818
-2.6367 -3.2576 -1.8265 0.9819
-2.3320 -3.4742 -1.8236 0.9819
-2.0113 -3.6656 -1.8222 0.9819
-1.6764 -3.8306 -1.8223 0.9819
-0.9717 -4.0779 -1.8270 0.9819
-0.6056 -4.1587 -1.8315 0.9818
-0.2330 -4.2099 -1.8376 0.9818
0.1440 -4.2311 -1.8450 0.9817
0.5233 -4.2216 -1.8539 0.9816
0.9027 -4.1812 -1.8642 0.9815
1.6527 -4.0064 -1.8888 0.9813
2.0185 -3.8719 -1.9030 0.9811
2.3748 -3.7062 -1.9184 0.9810
2.7191 -3.5095 -1.9349 0.9808
3.3607 -3.0258 -1.9708 0.9805
3.4558 -1.0180 -1.5701 0.9844
4.5161 1.1502 -2.0310 0.9799
4.4312 1.5609 -2.0475 0.9797
4.3062 1.9645 -2.0628 0.9796
4.1414 2.3564 -2.0766 0.9794
3.4209 3.4198 -2.1081 0.9791
2.4091 4.2306 -2.1218 0.9790
2.0224 4.4291 -2.1220 0.9790
1.6178 4.5876 -2.1200 0.9790
1.1999 4.7045 -2.1159 0.9790
0.3426 4.8098 -2.1015 0.9792
-0.0873 4.7979 -2.0914 0.9793
-0.5120 4.7439 -2.0795 0.9794
-0.8555 2.9080 -1.3211 0.9869
-1.7119 4.3436 -2.0347 0.9798
-2.0747 4.1382 -2.0175 0.9800
-2.4136 3.9012 -1.9993 0.9802
-2.9402 3.9214 -2.1360 0.9788
-3.2538 3.6165 -2.1202 0.9790
-3.5277 3.2787 -2.0989 0.9792
-3.9718 2.5470 -2.0563 0.9796
-1.5204 0.3288 -0.6779 0.9932
-1.5210 0.1891 -0.6680 0.9933
-1.5283 0.0525 -0.6664 0.9933
-1.5296 -0.0841 -0.6676 0.9933
-1.5146 -0.2200 -0.6670 0.9933
-1.5881 -0.5313 -0.7298 0.9927
-3.9245 -1.7158 -1.8667 0.9815
-3.0208 -2.9257 -1.8327 0.9818
-2.7405 -3.1749 -1.8279 0.9819
-2.4418 -3.4004 -1.8244 0.9819
-2.1266 -3.6008 -1.8225 0.9819
-1.4535 -3.9227 -1.8232 0.9819
-0.3656 -4.1952 -1.8353 0.9818
0.0101 -4.2271 -1.8422 0.9817
0.3888 -4.2285 -1.8506 0.9816
0.7684 -4.1991 -1.8604 0.9815
1.1467 -4.1385 -1.8716 0.9814
1.5213 -4.0466 -1.8841 0.9813
2.2498 -3.7684 -1.9128 0.9810
2.9337 -3.3663 -1.9461 0.9807
3.5516 -2.8448 -1.9832 0.9803
3.8290 -2.5417 -2.0029 0.9801
4.0739 -2.2083 -2.0196 0.9800
3.9834 -1.7191 -1.8908 0.9812
3.3582 -0.7821 -1.5027 0.9851
4.4306 -0.6221 -1.9499 0.9807
4.5131 -0.2267 -1.9694 0.9805
4.5675 0.5899 -2.0071 0.9801
4.4659 1.4160 -2.0418 0.9798
4.2043 2.2192 -2.0719 0.9795
4.0144 2.6013 -2.0847 0.9793
3.2251 3.6190 -2.1126 0.9791
2.8967 3.9021 -2.1180 0.9790
2.5410 4.1511 -2.1211 0.9790
2.1616 4.3633 -2.1222 0.9790
1.7629 4.5362 -2.1210 0.9790
0.9250 4.7574 -2.1122 0.9791
0.4953 4.8037 -2.1046 0.9791
0.0646 4.8070 -2.0952 0.9792
-0.3625 4.7678 -2.0839 0.9794
-0.7813 4.6871 -2.0709 0.9795
-1.5782 4.4083 -2.0406 0.9798
-2.8206 4.0210 -2.1406 0.9788
-3.1488 3.7305 -2.1276 0.9789
-3.9035 2.6811 -2.0638 0.9795
-4.0847 2.2984 -2.0426 0.9798
-4.2298 1.9053 -2.0218 0.9800
-1.5448 0.3856 -0.6939 0.9931
-1.5105 0.2365 -0.6663 0.9934
-1.5268 -0.0356 -0.6656 0.9934
-1.5110 -0.3093 -0.6722 0.9933
-1.5737 -0.4717 -0.7160 0.9929
-3.9854 -1.5943 -1.8707 0.9814
-3.1153 -2.8319 -1.8348 0.9818
-2.5496 -3.3233 -1.8255 0.9819
-1.9150 -3.7165 -1.8221 0.9819
-1.3043 0.2745 -0.6170 0.9941
-1.3370 0.0385 -0.6191 0.9941
-3.3179 -2.2523 -1.8562 0.9825
-2.8444 -2.7858 -1.8429 0.9826
-1.6817 -3.5855 -1.8331 0.9827
-1.3560 -3.7234 -1.8342 0.9827
0.0319 -4.0025 -1.8528 0.9825
0.7495 -3.9703 -1.8702 0.9823
1.4604 -3.8196 -1.8929 0.9821
2.1464 -3.5500 -1.9202 0.9819
3.0862 -2.9277 -1.9691 0.9814
3.3655 -2.6649 -1.9871 0.9813
3.6235 -2.3763 -2.0057 0.9811
3.8507 -2.0595 -2.0213 0.9809
3.7603 -1.5979 -1.8912 0.9822
4.2408 -0.1892 -1.9650 0.9815
4.2794 0.1915 -1.9829 0.9813
4.2824 0.5774 -2.0002 0.9811
4.2488 0.9650 -2.0168 0.9810
4.1780 1.3505 -2.0324 0.9808
4.0698 1.7301 -2.0470 0.9807
3.9246 2.0997 -2.0603 0.9806
3.7431 2.4554 -2.0722 0.9805
3.5266 2.7933 -2.0824 0.9804
3.2768 3.1094 -2.0910 0.9803
1.6235 4.2478 -2.1050 0.9802
1.2363 4.3690 -2.1017 0.9802
0.8396 4.4508 -2.0965 0.9802
0.4378 4.4927 -2.0894 0.9803
0.0352 4.4946 -2.0805 0.9804
-0.5262 3.0515 -1.4333 0.9864
-0.7524 2.8273 -1.3543 0.9872
-1.5009 4.1194 -2.0294 0.9809
-1.8477 3.9381 -2.0136 0.9810
-2.6664 3.7562 -2.1322 0.9799
-2.9737 3.4834 -2.1200 0.9800
-3.4794 2.8458 -2.0807 0.9804
-1.3071 0.3185 -0.6227 0.9941
-1.3385 0.0810 -0.6207 0.9941
-1.3370 -0.0387 -0.6192 0.9941
-1.3043 -0.2746 -0.6170 0.9941
-1.3271 -0.4059 -0.6424 0.9939
-1.3278 -0.5398 -0.6635 0.9937
-3.5885 -1.8475 -1.8683 0.9824
-2.3969 -3.1607 -1.8362 0.9827
-1.1401 -3.7984 -1.8357 0.9827
-0.4491 -3.9583 -1.8440 0.9826
-0.0946 -3.9961 -1.8502 0.9825
1.3358 -3.8550 -1.8885 0.9822
1.6856 -3.7455 -1.9012 0.9821
2.3594 -3.4378 -1.9300 0.9818
2.6786 -3.2402 -1.9460 0.9816
2.9826 -3.0143 -1.9629 0.9815
3.5347 -2.4814 -1.9991 0.9811
4.1342 -0.6907 -1.9402 0.9817
4.2189 -0.3222 -1.9585 0.9815
4.2698 0.0559 -1.9766 0.9814
3.6072 2.6759 -2.0790 0.9804
3.0989 3.3003 -2.0956 0.9802
2.3484 3.6212 -1.9978 0.9812
1.3748 4.3305 -2.1031 0.9802
0.5805 4.4824 -2.0922 0.9803
-0.6179 4.4122 -2.0623 0.9806
-0.9786 2.9754 -1.4499 0.9863
-2.0606 3.8047 -2.0029 0.9811
-2.3712 3.5748 -1.9856 0.9813
-2.8680 3.5831 -2.1244 0.9800
-3.1511 3.2870 -2.1077 0.9801
-3.6150 2.6241 -2.0677 0.9805
-1.3373 0.1234 -0.6216 0.9941
-1.3338 0.0036 -0.6174 0.9941
-1.3377 -0.1161 -0.6215 0.9941
-1.3169 -0.2340 -0.6191 0.9941
-1.3174 -0.3578 -0.6319 0.9940
-1.3326 -0.4933 -0.6578 0.9938
-3.6521 -1.7364 -1.8718 0.9823
-3.0215 -2.6062 -1.8470 0.9826
-2.7687 -2.8567 -1.8415 0.9826
-2.2088 -3.2908 -1.8346 0.9827
-1.5879 -3.6284 -1.8333 0.9827
-1.2590 -3.7587 -1.8348 0.9827
-0.9202 -3.8621 -1.8378 0.9827
-0.5735 -3.9381 -1.8421 0.9826
-0.2206 -3.9860 -1.8479 0.9826
0.1363 -4.0051 -1.8550 0.9825
0.4952 -3.9952 -1.8634 0.9824
0.8540 -3.9557 -1.8732 0.9823
1.2105 -3.8866 -1.8843 0.9822
1.5625 -3.7877 -1.8966 0.9821
2.2432 -3.5008 -1.9246 0.9818
2.5672 -3.3135 -1.9402 0.9817
3.8114 -1.5037 -1.8966 0.9821
3.4345 -1.0117 -1.6573 0.9843
4.1926 -0.4540 -1.9521 0.9816
4.2764 0.6904 -2.0051 0.9811
4.2320 1.0778 -2.0215 0.9809
3.8754 2.2050 -2.0639 0.9805
3.4571 2.8878 -2.0851 0.9803
3.1981 3.1969 -2.0931 0.9803
2.9087 3.4797 -2.0993 0.9802
2.3400 3.3698 -1.8990 0.9821
1.5118 4.2872 -2.1042 0.9802
1.1214 4.3969 -2.1004 0.9802
0.7228 4.4671 -2.0947 0.9803
-1.6040 4.0699 -2.0249 0.9809
-2.2640 3.6593 -1.9918 0.9812
-3.5423 2.7465 -2.0748 0.9804
-3.7368 2.3963 -2.0548 0.9806
-1.3319 0.1656 -0.6213 0.9941
-1.3375 0.0460 -0.6195 0.9941
-1.3385 -0.0736 -0.6205 0.9941
-1.3269 -0.1927 -0.6206 0.9941
-3.3313 -2.2343 -1.8567 0.9825
-2.5954 -3.0069 -1.8386 0.9826
-2.0143 -3.4107 -1.8335 0.9827
-1.3767 -3.7155 -1.8341 0.9827
-0.3462 -3.9723 -1.8457 0.9826
0.3680 -4.0020 -1.8603 0.9824
0.7271 -3.9731 -1.8696 0.9824
1.4385 -3.8261 -1.8921 0.9821
2.1255 -3.5602 -1.9193 0.9819
2.4540 -3.3831 -1.9346 0.9817
3.0680 -2.9433 -1.9680 0.9814
3.3486 -2.6821 -1.9859 0.9813
3.3492 -0.7799 -1.5918 0.9850
4.1622 -0.5844 -1.9455 0.9816
4.2373 -0.2128 -1.9638 0.9815
4.2833 0.5532 -1.9991 0.9811
4.1835 1.3265 -2.0315 0.9808
4.0777 1.7065 -2.0461 0.9807
3.9348 2.0769 -2.0595 0.9806
3.5411 2.7727 -2.0818 0.9804
3.2934 3.0903 -2.0905 0.9803
2.7072 3.6467 -2.1023 0.9802
1.2609 4.3625 -2.1020 0.9802
0.8647 4.4468 -2.0969 0.9802
-0.7313 4.3868 -2.0586 0.9806
-2.1537 3.7405 -1.9979 0.9812
-2.5161 3.5868 -2.0280 0.9809
-3.2267 3.1950 -2.1019 0.9802
-3.4655 2.8669 -2.0819 0.9804
-3.8446 2.1633 -2.0420 0.9807
-1.3170 0.5932 -0.6686 0.9937
-1.3341 -0.1509 -0.6215 0.9941
-1.3067 -0.2675 -0.6174 0.9941
-1.3289 -0.5316 -0.6625 0.9937
-3.6000 -1.8280 -1.8689 0.9824
-3.4057 -2.1312 -1.8597 0.9824
-2.1217 -3.3462 -1.8340 0.9827
-1.4931 -3.6691 -1.8336 0.9827
-1.1612 -3.7916 -1.8355 0.9827
-1.1959 -0.0725 -0.5877 0.9947
-1.1614 -0.2832 -0.5864 0.9947
-1.1573 -0.3944 -0.5998 0.9946
-1.1428 -0.5073 -0.6133 0.9944
-3.1462 -2.1358 -1.8653 0.9832
-2.9321 -2.3988 -1.8583 0.9833
-2.4460 -2.8660 -1.8482 0.9834
-1.5957 -3.4021 -1.8433 0.9834
-0.6406 -3.7177 -1.8505 0.9833
-0.3073 -3.7703 -1.8556 0.9833
0.7104 -3.7634 -1.8786 0.9831
1.0489 -3.7050 -1.8888 0.9830
2.6369 -2.9917 -1.9562 0.9824
3.9251 -0.5287 -1.9427 0.9825
3.9928 0.9069 -2.0085 0.9819
3.9244 1.2686 -2.0231 0.9818
3.8212 1.6244 -2.0367 0.9817
3.6834 1.9707 -2.0491 0.9816
3.0726 2.9156 -2.0778 0.9813
2.8088 3.1876 -2.0840 0.9812
2.5187 3.4328 -2.0885 0.9812
2.2053 3.6484 -2.0912 0.9812
1.5217 3.9815 -2.0908 0.9812
0.4106 4.2129 -2.0763 0.9813
0.0331 4.2158 -2.0680 0.9814
-2.0437 3.5040 -1.9898 0.9821
-2.5082 3.5334 -2.1255 0.9809
-2.7983 3.2779 -2.1141 0.9810
-3.0540 2.9904 -2.0966 0.9811
-3.2789 2.6818 -2.0778 0.9813
-1.1071 0.6148 -0.6212 0.9944
-1.1428 0.5071 -0.6133 0.9944
-1.1854 0.1788 -0.5880 0.9947
-1.1964 -0.0346 -0.5871 0.9947
-1.1906 -0.1414 -0.5881 0.9947
-1.1714 -0.2466 -0.5872 0.9947
-1.1589 -0.3545 -0.5945 0.9946
-1.1497 -0.4674 -0.6088 0.9945
-3.0103 -2.3078 -1.8606 0.9832
-2.7833 -2.5586 -1.8545 0.9833
-2.5374 -2.7893 -1.8496 0.9833
-1.9953 -3.1860 -1.8440 0.9834
-1.0817 -3.6039 -1.8457 0.9834
-0.7573 -3.6926 -1.8490 0.9833
-0.4260 -3.7548 -1.8536 0.9833
-0.0897 -3.7899 -1.8596 0.9833
0.2497 -3.7975 -1.8668 0.9832
0.5900 -3.7773 -1.8753 0.9831
2.5337 -3.0649 -1.9506 0.9824
2.8199 -2.8499 -1.9666 0.9823
3.5644 -2.0539 -2.0179 0.9818
3.7558 -1.7382 -2.0301 0.9817
3.8940 -0.6505 -1.9366 0.9826
3.9716 -0.3033 -1.9539 0.9824
4.0174 0.0526 -1.9708 0.9823
4.0301 0.4141 -1.9873 0.9821
4.0087 0.7780 -2.0031 0.9820
3.5764 2.1875 -2.0564 0.9815
3.1593 2.8134 -2.0751 0.9813
1.6474 3.9325 -2.0914 0.9812
1.2886 4.0592 -2.0891 0.9812
0.9196 4.1496 -2.0849 0.9812
0.1666 4.2190 -2.0711 0.9814
-0.2094 4.1981 -2.0618 0.9814
-0.5799 4.1408 -2.0510 0.9815
-1.6230 3.7644 -2.0108 0.9819
-1.9373 3.5770 -1.9954 0.9820
-2.2304 3.3626 -1.9793 0.9822
-3.2027 2.7931 -2.0845 0.9812
-3.4079 2.4737 -2.0656 0.9814
-3.5820 2.1402 -2.0468 0.9816
-1.1540 0.4343 -0.6048 0.9945
-1.1784 0.2161 -0.5877 0.9947
-1.1937 0.1102 -0.5880 0.9947
-1.1586 -0.3147 -0.5889 0.9947
-3.2850 -1.9385 -1.8710 0.9831
-3.0859 -2.2144 -1.8631 0.9832
-2.8659 -2.4720 -1.8565 0.9833
-2.3693 -2.9271 -1.8472 0.9834
-2.0958 -3.1224 -1.8446 0.9834
-1.8077 -3.2946 -1.8433 0.9834
-1.1946 -3.5663 -1.8449 0.9834
-0.8731 -3.6642 -1.8477 0.9834
-0.5440 -3.7358 -1.8518 0.9833
-0.2093 -3.7806 -1.8573 0.9833
0.1292 -3.7980 -1.8641 0.9832
0.4695 -3.7877 -1.8722 0.9831
0.8094 -3.7493 -1.8815 0.9831
1.1470 -3.6826 -1.8920 0.9830
1.4799 -3.5876 -1.9037 0.9829
1.8061 -3.4645 -1.9165 0.9827
2.1231 -3.3133 -1.9303 0.9826
2.4286 -3.1347 -1.9451 0.9825
2.7204 -2.9290 -1.9608 0.9823
3.2525 -2.4404 -1.9946 0.9820
3.4881 -2.1597 -2.0124 0.9819
3.5947 -1.4182 -1.8956 0.9829
4.0049 -0.0743 -1.9648 0.9823
4.0294 0.2856 -1.9815 0.9822
3.9765 1.0127 -2.0128 0.9819
3.8980 1.3731 -2.0272 0.9818
3.6368 2.0693 -2.0525 0.9815
3.4556 2.3978 -2.0632 0.9814
2.9986 2.9975 -2.0798 0.9813
2.3457 3.3781 -2.0174 0.9818
2.1100 3.7053 -2.0916 0.9812
1.4171 4.0184 -2.0901 0.9812
1.0512 4.1218 -2.0866 0.9812
0.3004 4.2176 -2.0741 0.9813
-0.0766 4.2097 -2.0653 0.9814
-0.8435 2.8672 -1.4660 0.9868
-2.8769 3.1975 -2.1098 0.9810
-3.3387 2.5886 -2.0723 0.9814
-1.1588 0.3614 -0.5954 0.9946
-1.1898 0.1479 -0.5881 0.9947
-1.1577 -0.3873 -0.5988 0.9946
-3.1589 -2.1187 -1.8658 0.9832
-2.4623 -2.8527 -1.8485 0.9834
-2.1944 -3.0558 -1.8454 0.9834
-0.9879 -3.6325 -1.8465 0.9834
-0.3284 -3.7678 -1.8552 0.9833
0.0090 -3.7950 -1.8615 0.9832
1.3627 -3.6245 -1.8994 0.9829
1.6915 -3.5113 -1.9118 0.9828
2.0120 -3.3701 -1.9253 0.9827
2.6188 -3.0049 -1.9552 0.9824
3.1639 -2.5342 -1.9884 0.9821
3.5755 -1.5431 -1.9103 0.9828
3.6922 -1.2158 -1.9068 0.9828
3.3400 -0.7778 -1.6822 0.9848
3.9199 -0.5504 -1.9417 0.9825
3.9883 -0.2003 -1.9588 0.9824
4.0246 0.1575 -1.9757 0.9822
4.0274 0.5201 -1.9919 0.9821
3.9960 0.8841 -2.0075 0.9819
3.9298 1.2460 -2.0222 0.9818
3.6930 1.9493 -2.0484 0.9816
3.5235 2.2833 -2.0595 0.9815
3.3214 2.6006 -2.0692 0.9814
2.5376 3.4183 -2.0883 0.9812
1.5441 3.9731 -2.0909 0.9812
0.0566 4.2167 -2.0686 0.9814
-0.7294 2.8041 -1.4212 0.9872
-2.7809 3.2947 -2.1148 0.9810
-3.2657 2.7016 -2.0790 0.9813
-3.6268 2.0408 -2.0414 0.9816
-1.1569 0.4013 -0.6007 0.9946
-1.1843 0.1854 -0.5880 0.9947
-1.1957 0.0790 -0.5878 0.9947
-1.1590 -0.3474 -0.5935 0.9946
-1.1272 -0.5723 -0.6201 0.9944
-1.1061 -0.0670 -0.5748 0.9950
-2.9881 -2.0284 -1.8736 0.9839
-2.0688 -2.9152 -1.8545 0.9840
-1.5164 -3.2331 -1.8526 0.9840
-1.2227 -3.3573 -1.8536 0.9840
-0.6087 -3.5323 -1.8595 0.9840
0.3516 -3.6025 -1.8778 0.9838
0.6745 -3.5730 -1.8863 0.9837
1.3127 -3.4332 -1.9068 0.9836
1.6237 -3.3230 -1.9187 0.9835
1.9265 -3.1862 -1.9316 0.9834
2.4983 -2.8345 -1.9601 0.9831
2.7627 -2.6209 -1.9756 0.9830
3.0099 -2.3833 -1.9917 0.9828
3.2374 -2.1231 -2.0084 0.9827
3.4386 -1.8391 -2.0230 0.9826
3.4966 -1.1297 -1.9063 0.9836
3.3423 -0.7587 -1.7780 0.9847
3.7044 -0.4990 -1.9391 0.9833
3.7957 0.1698 -1.9711 0.9830
3.7946 0.5116 -1.9864 0.9829
3.7612 0.8543 -2.0009 0.9828
3.1103 2.4635 -2.0584 0.9823
2.3671 3.2262 -2.0759 0.9821
1.7590 3.6010 -2.0791 0.9821
1.0892 3.8490 -2.0752 0.9821
0.3860 3.9608 -2.0645 0.9822
-0.5196 3.0131 -1.5862 0.9863
-0.7431 2.7924 -1.4990 0.9871
-1.3277 3.6441 -2.0120 0.9827
-1.9262 3.3025 -1.9834 0.9829
-2.3385 3.2943 -2.0959 0.9820
-2.6393 3.0917 -2.1089 0.9818
-1.0080 0.5598 -0.5981 0.9948
-1.0458 0.4641 -0.5935 0.9949
-1.0610 0.3615 -0.5815 0.9950
-1.0740 0.2617 -0.5734 0.9950
-1.1066 -0.0320 -0.5743 0.9950
-1.1011 -0.1308 -0.5752 0.9950
-1.0833 -0.2281 -0.5743 0.9950
-1.0527 -0.4280 -0.5895 0.9949
-1.0243 -0.5273 -0.5977 0.9948
-0.9737 -0.6169 -0.5980 0.9948
-2.8594 -2.1921 -1.8692 0.9839
-2.4109 -2.6503 -1.8587 0.9840
-2.1610 -2.8496 -1.8553 0.9840
-1.8961 -3.0277 -1.8533 0.9840
0.2371 -3.6066 -1.8751 0.9838
1.2010 -3.4658 -1.9029 0.9836
1.5144 -3.3651 -1.9144 0.9835
2.1166 -3.0839 -1.9404 0.9833
2.4009 -2.9042 -1.9548 0.9832
2.6709 -2.6993 -1.9700 0.9830
2.9245 -2.4702 -1.9859 0.9829
3.1592 -2.2178 -2.0025 0.9828
3.3719 -1.9430 -2.0189 0.9826
3.4485 -1.2360 -1.9005 0.9836
3.2549 -0.8479 -1.7449 0.9850
3.7885 0.0496 -1.9656 0.9831
3.7986 0.3903 -1.9810 0.9829
3.6353 1.4113 -2.0230 0.9826
3.3643 2.0577 -2.0459 0.9824
2.7311 2.9085 -2.0698 0.9822
2.4665 3.1478 -2.0746 0.9821
0.1567 3.9671 -2.0597 0.9823
-0.5456 3.8958 -2.0408 0.9824
-0.9610 2.9217 -1.5956 0.9862
-1.5287 3.5458 -2.0032 0.9828
-2.5449 3.1795 -2.1127 0.9818
-2.8002 2.9210 -2.0992 0.9819
-3.0239 2.6372 -2.0815 0.9821
-3.2193 2.3368 -2.0637 0.9822
-1.0899 0.1998 -0.5748 0.9950
-1.1044 -0.0959 -0.5751 0.9950
-1.0911 -0.1939 -0.5749 0.9950
-1.0651 -0.2893 -0.5726 0.9950
-1.0580 -0.3916 -0.5852 0.9949
-1.0387 -0.4938 -0.5967 0.9948
-2.9310 -2.1032 -1.8715 0.9839
-2.7226 -2.3483 -1.8652 0.9839
-2.4955 -2.5748 -1.8602 0.9840
-2.2513 -2.7814 -1.8564 0.9840
-1.9916 -2.9671 -1.8539 0.9840
-1.7179 -3.1309 -1.8527 0.9840
-1.1352 -3.3890 -1.8541 0.9840
-0.8296 -3.4817 -1.8568 0.9840
-0.1988 -3.5914 -1.8660 0.9839
0.1227 -3.6073 -1.8725 0.9839
2.5770 -2.7747 -1.9645 0.9831
2.8367 -2.5540 -1.9802 0.9829
3.0784 -2.3098 -1.9965 0.9828
3.3973 -1.3403 -1.8946 0.9837
3.7252 -0.4033 -1.9439 0.9833
3.7773 -0.0701 -1.9600 0.9831
3.7453 0.9539 -2.0050 0.9827
3.6698 1.2927 -2.0185 0.9826
3.5617 1.6248 -2.0309 0.9825
3.2500 2.2551 -2.0522 0.9823
2.5629 3.0660 -2.0731 0.9822
2.2833 3.2882 -2.0768 0.9821
1.6645 3.6453 -2.0789 0.9821
0.6370 3.9371 -2.0690 0.9822
0.2824 3.9654 -2.0624 0.9822
-0.0721 3.9590 -2.0542 0.9823
-0.4229 3.9183 -2.0445 0.9824
-0.8374 2.8465 -1.5393 0.9867
-1.4193 3.6012 -2.0081 0.9827
-1.7226 3.4358 -1.9939 0.9828
-2.4474 3.2642 -2.1165 0.9818
-2.9478 2.7398 -2.0878 0.9820
-0.9702 0.6221 -0.5979 0.9948
-1.0630 0.3315 -0.5776 0.9950
-1.1004 0.1368 -0.5752 0.9950
-1.1066 0.0380 -0.5744 0.9950
-1.1062 -0.0608 -0.5748 0.9950
-1.0972 -0.1594 -0.5752 0.9950
-1.0616 -0.3552 -0.5807 0.9950
-1.0471 -0.4578 -0.5929 0.9949
-1.0109 -0.5542 -0.5981 0.9948
-3.0001 -2.0122 -1.8741 0.9839
-1.8163 -3.0754 -1.8529 0.9840
-1.5345 -3.2246 -1.8526 0.9840
-0.9388 -3.4517 -1.8557 0.9840
-0.6283 -3.5283 -1.8592 0.9840
-0.3119 -3.5795 -1.8640 0.9839
0.0086 -3.6047 -1.8700 0.9839
0.3313 -3.6035 -1.8773 0.9838
0.9756 -3.5209 -1.8954 0.9837
1.2930 -3.4392 -1.9061 0.9836
