ply
format ascii 1.0
element vertex 1597
property float32 x
property float32 y
property float32 z
property float32 I
end_header
1.3696 3.9047 -2.0297 0.9817
0.6548 4.0913 -2.0324 0.9817
0.2874 4.1353 -2.0334 0.9817
-0.0827 4.1460 -2.0341 0.9817
-0.8184 4.0666 -2.0348 0.9817
-1.5277 3.8558 -2.0344 0.9817
-2.4910 3.3097 -2.0319 0.9817
-2.7745 3.0723 -2.0306 0.9817
-3.0352 2.8104 -2.0291 0.9817
-3.4799 2.2223 -2.0254 0.9818
-1.1490 0.4719 -0.6093 0.9945
-1.1588 0.3589 -0.5951 0.9946
-1.1901 0.1456 -0.5881 0.9947
-1.1860 -0.1747 -0.5880 0.9947
-1.1576 -0.3899 -0.5992 0.9946
-3.1466 -2.5557 -1.9884 0.9821
-2.9024 -2.8227 -1.9860 0.9821
-2.0448 -3.4791 -1.9795 0.9822
-1.3917 -3.7805 -1.9761 0.9822
-1.0481 -3.8868 -1.9747 0.9822
-0.3404 -4.0069 -1.9725 0.9822
0.0183 -4.0198 -1.9718 0.9822
0.3767 -4.0012 -1.9713 0.9823
1.4227 -3.7587 -1.9714 0.9823
1.7528 -3.6177 -1.9719 0.9822
2.0693 -3.4482 -1.9726 0.9822
2.6520 -3.0290 -1.9748 0.9822
2.9137 -2.7824 -1.9762 0.9822
3.1529 -2.5135 -1.9779 0.9822
3.3676 -2.2242 -1.9797 0.9822
3.7171 -1.5938 -1.9839 0.9821
3.8490 -1.2574 -1.9862 0.9821
4.0414 0.5319 -1.9995 0.9820
3.9834 0.8915 -2.0023 0.9820
3.8936 1.2450 -2.0051 0.9820
3.7723 1.5896 -2.0080 0.9819
3.6205 1.9225 -2.0108 0.9819
3.4392 2.2408 -2.0135 0.9819
3.2299 2.5420 -2.0162 0.9819
2.9941 2.8235 -2.0187 0.9818
2.7335 3.0831 -2.0211 0.9818
2.4504 3.3183 -2.0234 0.9818
1.8254 3.7084 -2.0275 0.9818
1.4886 3.8597 -2.0292 0.9817
1.1392 3.9801 -2.0307 0.9817
0.4143 4.1239 -2.0331 0.9817
-0.6929 4.0898 -2.0347 0.9817
-1.4085 3.9012 -2.0345 0.9817
-1.7504 3.7591 -2.0340 0.9817
-2.3885 3.3854 -2.0323 0.9817
-2.9481 2.9032 -2.0296 0.9817
-3.4111 2.3291 -2.0260 0.9818
-1.1054 0.6180 -0.6212 0.9944
-1.1958 0.0756 -0.5877 0.9947
-1.1964 -0.0313 -0.5871 0.9947
-1.1910 -0.1381 -0.5881 0.9947
-1.1589 -0.3510 -0.5940 0.9946
-1.1261 -0.5759 -0.6204 0.9944
-1.5077 -3.7369 -1.9766 0.9822
-0.8185 -3.9399 -1.9739 0.9822
-0.4636 -3.9951 -1.9728 0.9822
0.9621 -3.9015 -1.9711 0.9823
1.3064 -3.8004 -1.9713 0.9823
1.6405 -3.6695 -1.9717 0.9823
1.9619 -3.5097 -1.9723 0.9822
2.2682 -3.3222 -1.9732 0.9822
3.6649 -1.7067 -1.9831 0.9821
3.9191 -1.0308 -1.9878 0.9821
4.0006 -0.6779 -1.9903 0.9821
4.0505 -0.3188 -1.9930 0.9821
4.0683 0.0438 -1.9957 0.9820
4.0070 0.7682 -2.0013 0.9820
3.8175 1.4722 -2.0070 0.9819
3.6762 1.8094 -2.0098 0.9819
3.3051 2.4404 -2.0153 0.9819
2.8259 2.9963 -2.0203 0.9818
2.5503 3.2402 -2.0226 0.9818
2.2535 3.4585 -2.0248 0.9818
0.5409 4.1086 -2.0327 0.9817
-0.5668 4.1090 -2.0347 0.9817
-2.2837 3.4579 -2.0327 0.9817
-2.5815 3.2385 -2.0315 0.9817
-2.8582 2.9933 -2.0301 0.9817
-3.3390 2.4337 -2.0267 0.9818
-3.5392 2.1240 -2.0247 0.9818
-1.1537 0.4367 -0.6051 0.9945
-1.1588 0.3239 -0.5902 0.9947
-1.1780 0.2183 -0.5877 0.9947
-1.1944 -0.1014 -0.5880 0.9947
-1.1585 -0.3124 -0.5886 0.9947
-1.1549 -0.4251 -0.6037 0.9945
-3.5026 -2.0585 -1.9928 0.9821
-3.3006 -2.3596 -1.9902 0.9821
-3.0731 -2.6412 -1.9877 0.9821
-2.2564 -3.3491 -1.9809 0.9822
-0.5863 -3.9796 -1.9732 0.9822
-0.2289 -4.0143 -1.9723 0.9822
0.1301 -4.0174 -1.9717 0.9823
0.8416 -3.9292 -1.9711 0.9823
1.5267 -3.7179 -1.9715 0.9823
1.8529 -3.5680 -1.9721 0.9822
2.4597 -3.1849 -1.9739 0.9822
2.7358 -2.9547 -1.9752 0.9822
3.6093 -1.8179 -1.9823 0.9822
3.7613 -1.4904 -1.9846 0.9821
3.8839 -1.1503 -1.9870 0.9821
3.9760 -0.8003 -1.9895 0.9821
4.0369 -0.4430 -1.9921 0.9821
4.0625 0.2821 -1.9975 0.9820
3.7283 1.6946 -2.0089 0.9819
2.0486 3.5868 -2.0262 0.9818
1.3810 3.9005 -2.0297 0.9817
-0.0705 4.1462 -2.0341 0.9817
-1.8541 3.7086 -2.0338 0.9817
-2.1766 3.5270 -2.0330 0.9817
-2.7655 3.0805 -2.0306 0.9817
-3.0269 2.8194 -2.0291 0.9817
-3.4734 2.2326 -2.0254 0.9818
-1.1214 0.5866 -0.6208 0.9944
-1.1484 0.4756 -0.6097 0.9945
-1.1695 0.2542 -0.5871 0.9947
-1.1897 0.1491 -0.5881 0.9947
-1.1866 -0.1712 -0.5881 0.9947
-1.1578 -0.3862 -0.5987 0.9946
-1.1444 -0.4991 -0.6124 0.9945
-3.1542 -2.5465 -1.9885 0.9821
-2.6451 -3.0591 -1.9837 0.9821
-2.3591 -3.2793 -1.9816 0.9822
-2.0551 -3.4731 -1.9796 0.9822
-1.4028 -3.7765 -1.9761 0.9822
-1.0596 -3.8838 -1.9747 0.9822
-0.7085 -3.9604 -1.9735 0.9822
0.3649 -4.0023 -1.9714 0.9823
0.7204 -3.9533 -1.9711 0.9823
1.0702 -3.8733 -1.9711 0.9823
1.4116 -3.7628 -1.9714 0.9823
2.0590 -3.4543 -1.9726 0.9822
3.1454 -2.5227 -1.9778 0.9822
3.7122 -1.6047 -1.9838 0.9821
4.0195 -0.5667 -1.9912 0.9821
4.0595 -0.2061 -1.9938 0.9821
4.0673 0.1570 -1.9966 0.9820
3.9859 0.8797 -2.0022 0.9820
3.8970 1.2335 -2.0051 0.9820
3.7768 1.5784 -2.0079 0.9819
3.2372 2.5323 -2.0161 0.9819
3.0023 2.8146 -2.0186 0.9818
2.4601 3.3110 -2.0233 0.9818
2.1572 3.5209 -2.0255 0.9818
1.8363 3.7028 -2.0274 0.9818
1.1509 3.9766 -2.0307 0.9817
0.7921 4.0660 -2.0320 0.9817
0.4265 4.1226 -2.0330 0.9817
0.0571 4.1459 -2.0339 0.9817
-0.3131 4.1356 -2.0344 0.9817
-0.6808 4.0918 -2.0347 0.9817
-1.7393 3.7643 -2.0341 0.9817
-2.0674 3.5929 -2.0333 0.9817
-2.3785 3.3925 -2.0323 0.9817
-2.6700 3.1649 -2.0311 0.9817
-3.5957 2.0242 -2.0240 0.9818
-1.1414 0.5144 -0.6141 0.9944
-1.1569 0.4015 -0.6007 0.9946
-1.1842 0.1856 -0.5880 0.9947
-1.1956 0.0792 -0.5878 0.9947
-1.1272 -0.5723 -0.6201 0.9944
-3.4426 -2.1541 -1.9920 0.9821
-2.7390 -2.9775 -1.9845 0.9821
-2.4598 -3.2064 -1.9823 0.9822
-2.1617 -3.4095 -1.9802 0.9822
-1.8472 -3.5853 -1.9784 0.9822
-0.4753 -3.9938 -1.9729 0.9822
-0.1172 -4.0186 -1.9721 0.9822
0.2417 -4.0119 -1.9715 0.9823
0.5985 -3.9737 -1.9712 0.9823
1.2951 -3.8043 -1.9713 0.9823
1.6297 -3.6743 -1.9717 0.9823
2.5478 -3.1159 -1.9743 0.9822
3.2896 -2.3356 -1.9790 0.9822
3.6597 -1.7174 -1.9830 0.9821
3.8027 -1.3857 -1.9853 0.9821
3.9984 -0.6897 -1.9903 0.9821
4.0493 -0.3307 -1.9929 0.9821
4.0682 0.0318 -1.9956 0.9820
3.9312 1.1125 -2.0041 0.9820
3.8217 1.4608 -2.0069 0.9819
3.5110 2.1225 -2.0125 0.9819
3.0861 2.7198 -2.0178 0.9818
1.9487 3.6435 -2.0268 0.9818
1.6173 3.8061 -2.0286 0.9817
1.2724 3.9384 -2.0302 0.9817
0.5530 4.1069 -2.0327 0.9817
-0.1857 4.1429 -2.0343 0.9817
-1.2762 3.9467 -2.0346 0.9817
-1.6229 3.8164 -2.0343 0.9817
-1.9562 3.6552 -2.0336 0.9817
-3.1034 2.7335 -2.0286 0.9817
-3.5330 2.1345 -2.0248 0.9818
-1.1533 0.4405 -0.6056 0.9945
-1.1772 0.2218 -0.5876 0.9947
-1.1958 0.0090 -0.5866 0.9947
-1.1946 -0.0979 -0.5879 0.9947
-1.1808 -0.2040 -0.5878 0.9947
-3.5088 -2.0482 -1.9929 0.9821
-3.3077 -2.3499 -1.9903 0.9821
-2.2663 -3.3425 -1.9809 0.9822
-1.9572 -3.5279 -1.9790 0.9822
-1.6332 -3.6851 -1.9772 0.9822
-0.9510 -3.9110 -1.9743 0.9822
-0.2407 -4.0136 -1.9723 0.9822
0.8300 -3.9317 -1.9711 0.9823
1.1775 -3.8421 -1.9712 0.9823
1.8423 -3.5734 -1.9721 0.9822
2.1546 -3.3962 -1.9729 0.9822
2.9826 -2.7097 -1.9767 0.9822
3.2152 -2.4349 -1.9783 0.9822
3.4228 -2.1405 -1.9802 0.9822
4.0654 -0.0933 -1.9947 0.9820
4.0285 0.6324 -2.0003 0.9820
3.3837 2.3265 -2.0143 0.9819
3.1669 2.6224 -2.0169 0.9818
2.9239 2.8981 -2.0194 0.9818
2.6569 3.1511 -2.0218 0.9818
2.3679 3.3792 -2.0240 0.9818
2.0591 3.5806 -2.0261 0.9818
1.7331 3.7535 -2.0280 0.9817
1.0401 4.0079 -2.0311 0.9817
0.3118 4.1335 -2.0333 0.9817
-0.0582 4.1463 -2.0341 0.9817
-2.1662 3.5335 -2.0330 0.9817
-2.7564 3.0888 -2.0307 0.9817
-3.0187 2.8284 -2.0292 0.9817
-3.2561 2.5457 -2.0274 0.9818
-1.1892 0.1526 -0.5881 0.9947
-1.1964 0.0459 -0.5873 0.9947
-1.1871 -0.1677 -0.5881 0.9947
-1.1646 -0.2723 -0.5867 0.9947
-1.1451 -0.4954 -0.6120 0.9945
-3.3800 -2.2481 -1.9912 0.9821
-3.1619 -2.5373 -1.9886 0.9821
-2.9193 -2.8058 -1.9861 0.9821
-2.0654 -3.4672 -1.9796 0.9822
1.0587 -3.8764 -1.9711 0.9823
2.0488 -3.4603 -1.9726 0.9822
2.3504 -3.2653 -1.9735 0.9822
2.8971 -2.7994 -1.9761 0.9822
3.3542 -2.2439 -1.9796 0.9822
3.5446 -1.9378 -1.9816 0.9822
3.8412 -1.2800 -1.9860 0.9821
4.0176 -0.5785 -1.9911 0.9821
4.0587 -0.2181 -1.9937 0.9821
4.0675 0.1450 -1.9965 0.9820
3.9883 0.8679 -2.0021 0.9820
3.6314 1.9009 -2.0106 0.9819
3.4521 2.2203 -2.0133 0.9819
3.2446 2.5227 -2.0160 0.9819
2.7515 3.0666 -2.0210 0.9818
2.4697 3.3036 -2.0233 0.9818
2.1675 3.5144 -2.0254 0.9818
1.5113 3.8506 -2.0291 0.9817
1.1626 3.9731 -2.0306 0.9817
0.4387 4.1213 -2.0330 0.9817
0.0693 4.1457 -2.0338 0.9817
-0.3008 4.1365 -2.0344 0.9817
-0.6687 4.0938 -2.0347 0.9817
-1.0313 4.0179 -2.0348 0.9817
-2.3685 3.3995 -2.0324 0.9817
-2.9311 2.9207 -2.0297 0.9817
-3.3975 2.3493 -2.0262 0.9818
-1.1406 0.5181 -0.6145 0.9944
-1.1566 0.4053 -0.6012 0.9946
-1.1836 0.1891 -0.5880 0.9947
-1.1963 -0.0242 -0.5869 0.9947
-1.1918 -0.1311 -0.5881 0.9947
-3.2398 -2.4400 -1.9895 0.9821
-3.0055 -2.7158 -1.9870 0.9821
-2.7479 -2.9695 -1.9846 0.9821
-2.4693 -3.1992 -1.9824 0.9822
-1.5298 -3.7282 -1.9767 0.9822
-1.1902 -3.8469 -1.9752 0.9822
-0.8418 -3.9352 -1.9740 0.9822
-0.4871 -3.9924 -1.9729 0.9822
0.9390 -3.9071 -1.9711 0.9823
1.6188 -3.6791 -1.9716 0.9823
1.9412 -3.5212 -1.9723 0.9822
2.5385 -3.1234 -1.9743 0.9822
2.8089 -2.8864 -1.9756 0.9822
3.2825 -2.3453 -1.9789 0.9822
3.4821 -2.0451 -1.9808 0.9822
3.7984 -1.3969 -1.9852 0.9821
3.9127 -1.0538 -1.9876 0.9821
3.9961 -0.7015 -1.9902 0.9821
3.9343 1.1009 -2.0040 0.9820
2.8433 2.9794 -2.0202 0.9818
2.5692 3.2248 -2.0225 0.9818
2.2737 3.4449 -2.0247 0.9818
1.6285 3.8013 -2.0285 0.9817
-0.1735 4.1434 -2.0342 0.9817
-0.5425 4.1123 -2.0346 0.9817
-0.9072 4.0478 -2.0348 0.9817
-1.6117 3.8212 -2.0343 0.9817
-2.2633 3.4714 -2.0327 0.9817
-1.1315 0.5565 -0.6185 0.9944
-1.1589 0.3313 -0.5913 0.9946
-1.1765 0.2252 -0.5876 0.9947
-1.1929 0.1195 -0.5881 0.9947
-1.1960 0.0126 -0.5867 0.9947
-1.1582 -0.3050 -0.5875 0.9947
-1.1556 -0.4176 -0.6027 0.9945
-1.1379 -0.5303 -0.6158 0.9944
-3.3148 -2.3402 -1.9904 0.9821
-2.8391 -2.8848 -1.9854 0.9821
-1.9677 -3.5222 -1.9790 0.9822
-1.3083 -3.8094 -1.9757 0.9822
-0.2526 -4.0130 -1.9723 0.9822
0.8184 -3.9341 -1.9711 0.9823
1.1661 -3.8456 -1.9712 0.9823
1.5048 -3.7268 -1.9715 0.9823
1.8317 -3.5787 -1.9720 0.9822
2.1445 -3.4025 -1.9728 0.9822
2.7181 -2.9707 -1.9751 0.9822
3.2079 -2.4443 -1.9783 0.9822
3.5983 -1.8391 -1.9822 0.9822
3.7522 -1.5124 -1.9844 0.9821
3.9709 -0.8237 -1.9893 0.9821
3.7379 1.6725 -2.0087 0.9819
3.1744 2.6129 -2.0168 0.9818
2.9324 2.8893 -2.0193 0.9818
2.6661 3.1431 -2.0217 0.9818
2.3777 3.3721 -2.0240 0.9818
2.0696 3.5744 -2.0260 0.9818
1.7441 3.7483 -2.0279 0.9817
0.6909 4.0851 -2.0323 0.9817
0.3240 4.1325 -2.0333 0.9817
-0.0460 4.1464 -2.0340 0.9817
-0.7823 4.0737 -2.0348 0.9817
-1.4935 3.8693 -2.0344 0.9817
-1.8322 3.7196 -2.0339 0.9817
-2.4617 3.3318 -2.0320 0.9817
-3.0104 2.8374 -2.0292 0.9817
-3.4604 2.2533 -2.0256 0.9818
-1.1585 0.3701 -0.5966 0.9946
-1.1677 0.2610 -0.5869 0.9947
-1.1887 0.1561 -0.5881 0.9947
-1.1964 0.0494 -0.5874 0.9947
-1.1876 -0.1642 -0.5881 0.9947
-1.1656 -0.2689 -0.5868 0.9947
-1.1582 -0.3787 -0.5977 0.9946
-1.1457 -0.4916 -0.6116 0.9945
-3.3867 -2.2382 -1.9913 0.9821
-3.1695 -2.5281 -1.9887 0.9821
-2.9277 -2.7973 -1.9862 0.9821
-2.3786 -3.2655 -1.9817 0.9822
-1.7571 -3.6292 -1.9779 0.9822
-0.3759 -4.0039 -1.9726 0.9822
-0.0173 -4.0199 -1.9719 0.9822
0.6971 -3.9575 -1.9711 0.9823
1.0473 -3.8795 -1.9711 0.9823
1.3893 -3.7711 -1.9713 0.9823
2.0386 -3.4663 -1.9725 0.9822
2.3408 -3.2722 -1.9735 0.9822
2.6249 -3.0522 -1.9747 0.9822
3.1302 -2.5411 -1.9777 0.9822
3.5387 -1.9482 -1.9815 0.9822
3.7024 -1.6265 -1.9836 0.9821
3.8372 -1.2913 -1.9860 0.9821
3.9420 -0.9450 -1.9884 0.9821
4.0578 -0.2301 -1.9936 0.9821
4.0677 0.1330 -1.9964 0.9820
4.0453 0.4960 -1.9992 0.9820
3.9906 0.8561 -2.0020 0.9820
3.9039 1.2104 -2.0049 0.9820
3.2519 2.5130 -2.0159 0.9819
2.7604 3.0584 -2.0209 0.9818
1.8580 3.6917 -2.0273 0.9818
1.5226 3.8461 -2.0290 0.9817
0.8161 4.0611 -2.0319 0.9817
0.4508 4.1199 -2.0330 0.9817
-0.6566 4.0957 -2.0347 0.9817
-2.3585 3.4066 -2.0324 0.9817
-2.9225 2.9294 -2.0298 0.9817
-3.1696 2.6549 -2.0281 0.9817
-1.1579 0.2965 -0.5863 0.9947
-1.1921 -0.1276 -0.5881 0.9947
-1.1747 -0.2332 -0.5874 0.9947
-1.1292 -0.5650 -0.6194 0.9944
-3.2471 -2.4305 -1.9896 0.9821
-2.4788 -3.1920 -1.9824 0.9822
-2.1819 -3.3969 -1.9804 0.9822
-1.5408 -3.7237 -1.9768 0.9822
-0.8534 -3.9327 -1.9740 0.9822
-0.4989 -3.9910 -1.9729 0.9822
-0.1409 -4.0180 -1.9721 0.9822
0.2180 -4.0133 -1.9715 0.9823
0.5750 -3.9772 -1.9712 0.9823
0.9275 -3.9098 -1.9711 0.9823
1.6079 -3.6838 -1.9716 0.9823
1.9307 -3.5268 -1.9723 0.9822
2.2386 -3.3420 -1.9731 0.9822
2.8003 -2.8946 -1.9756 0.9822
3.0497 -2.6353 -1.9771 0.9822
3.4759 -2.0553 -1.9808 0.9822
3.9094 -1.0653 -1.9876 0.9821
3.9939 -0.7132 -1.9901 0.9821
4.0680 0.0078 -1.9954 0.9820
4.0567 0.3712 -1.9982 0.9820
3.9373 1.0892 -2.0039 0.9820
2.8520 2.9708 -2.0201 0.9818
2.2838 3.4380 -2.0246 0.9818
1.6397 3.7963 -2.0285 0.9817
1.2955 3.9306 -2.0301 0.9817
0.9404 4.0333 -2.0315 0.9817
0.2089 4.1404 -2.0336 0.9817
3.7110 1.0739 -2.0042 0.9827
3.4703 1.7208 -2.0095 0.9827
3.3073 2.0261 -2.0121 0.9827
3.1173 2.3160 -2.0146 0.9827
2.9018 2.5879 -2.0171 0.9826
2.4011 3.0692 -2.0216 0.9826
0.8435 3.8211 -2.0300 0.9825
0.1512 3.9138 -2.0319 0.9825
-0.1985 3.9129 -2.0325 0.9825
-0.5469 3.8802 -2.0329 0.9825
-0.8909 3.8162 -2.0330 0.9825
-1.2277 3.7213 -2.0329 0.9825
-2.1671 3.2604 -2.0310 0.9825
-2.4480 3.0524 -2.0299 0.9825
-2.7087 2.8201 -2.0286 0.9825
-2.9473 2.5653 -2.0270 0.9825
-0.9905 0.5904 -0.5982 0.9948
-1.0573 0.3967 -0.5859 0.9949
-1.0638 0.2940 -0.5726 0.9950
-1.1040 0.1007 -0.5751 0.9950
-1.0578 -0.3929 -0.5854 0.9949
-1.0384 -0.4951 -0.5968 0.9948
-0.9924 -0.5872 -0.5982 0.9948
-2.8994 -2.5068 -1.9884 0.9829
-2.6611 -2.7523 -1.9861 0.9829
-2.4024 -2.9755 -1.9840 0.9829
-1.8319 -3.3486 -1.9801 0.9829
-1.5247 -3.4957 -1.9785 0.9830
-1.2059 -3.6151 -1.9770 0.9830
-0.8780 -3.7059 -1.9758 0.9830
-0.5437 -3.7674 -1.9747 0.9830
1.4552 -3.5141 -1.9732 0.9830
1.7634 -3.3713 -1.9737 0.9830
2.3364 -3.0070 -1.9755 0.9830
2.5969 -2.7883 -1.9767 0.9830
3.0558 -2.2859 -1.9797 0.9830
3.7405 0.9588 -2.0032 0.9827
3.6450 1.2904 -2.0059 0.9827
3.5200 1.6125 -2.0086 0.9827
2.9788 2.4964 -2.0163 0.9826
2.7474 2.7554 -2.0186 0.9826
2.2188 3.2067 -2.0230 0.9826
1.2940 3.6893 -2.0282 0.9825
-1.7619 3.4984 -2.0321 0.9825
-2.3534 3.1269 -2.0303 0.9825
-2.6214 2.9027 -2.0290 0.9825
-2.8678 2.6554 -2.0276 0.9825
-3.0907 2.3871 -2.0259 0.9826
-0.9714 0.6203 -0.5979 0.9948
-1.0631 0.3293 -0.5773 0.9950
-1.1006 0.1346 -0.5752 0.9950
-1.0750 -0.2580 -0.5735 0.9950
-1.0466 -0.4601 -0.5931 0.9949
-2.9763 -2.4175 -1.9892 0.9829
-2.7456 -2.6702 -1.9869 0.9829
-2.4937 -2.9012 -1.9847 0.9829
-1.3168 -3.5772 -1.9775 0.9830
-0.6594 -3.7496 -1.9751 0.9830
0.0174 -3.8040 -1.9735 0.9830
1.3463 -3.5570 -1.9730 0.9830
2.9831 -2.3781 -1.9792 0.9830
3.3644 -1.8135 -1.9828 0.9829
3.5164 -1.5078 -1.9849 0.9829
3.6409 -1.1894 -1.9871 0.9829
3.7369 -0.8609 -1.9894 0.9829
3.8400 -0.1836 -1.9944 0.9828
3.7665 0.8429 -2.0023 0.9828
2.8297 2.6686 -2.0178 0.9826
2.5833 2.9137 -2.0201 0.9826
2.3156 3.1358 -2.0223 0.9826
1.4065 3.6468 -2.0277 0.9825
0.7371 3.8437 -2.0304 0.9825
-0.3073 3.9061 -2.0327 0.9825
-0.6546 3.8636 -2.0329 0.9825
-1.3306 3.6855 -2.0328 0.9825
-1.9632 3.3885 -2.0316 0.9825
-2.2566 3.1984 -2.0307 0.9825
-2.5314 2.9826 -2.0295 0.9825
-3.0167 2.4817 -2.0265 0.9826
-3.2232 2.2008 -2.0247 0.9826
-1.0064 0.5626 -0.5981 0.9948
-1.0451 0.4673 -0.5939 0.9949
-1.0608 0.3647 -0.5819 0.9950
-1.0730 0.2646 -0.5734 0.9950
-1.0957 0.1684 -0.5751 0.9950
-1.1059 0.0700 -0.5749 0.9950
-1.0840 -0.2252 -0.5744 0.9950
-1.0633 -0.3221 -0.5764 0.9950
-1.0532 -0.4249 -0.5892 0.9949
-1.0256 -0.5245 -0.5976 0.9948
-3.0505 -2.3257 -1.9900 0.9829
-2.8275 -2.5855 -1.9877 0.9829
-2.3180 -3.0401 -1.9833 0.9829
-1.4266 -3.5359 -1.9780 0.9830
-1.1047 -3.6465 -1.9766 0.9830
0.9104 -3.6921 -1.9728 0.9830
1.5525 -3.4726 -1.9733 0.9830
2.4196 -2.9414 -1.9759 0.9830
2.9078 -2.4681 -1.9786 0.9830
3.4671 -1.6146 -1.9841 0.9829
3.6012 -1.3003 -1.9863 0.9829
3.7839 -0.6412 -1.9910 0.9829
3.6092 1.3918 -2.0068 0.9827
3.4752 1.7105 -2.0094 0.9827
3.3131 2.0163 -2.0120 0.9827
3.1240 2.3067 -2.0146 0.9827
2.9093 2.5792 -2.0170 0.9826
2.4101 3.0620 -2.0215 0.9826
1.1912 3.7247 -2.0287 0.9825
0.8547 3.8185 -2.0300 0.9825
0.1628 3.9133 -2.0319 0.9825
-0.5354 3.8818 -2.0329 0.9825
-0.8796 3.8188 -2.0330 0.9825
-2.1575 3.2668 -2.0310 0.9825
-2.4390 3.0597 -2.0299 0.9825
-2.7005 2.8281 -2.0286 0.9825
-2.9398 2.5740 -2.0271 0.9825
-3.1550 2.2996 -2.0254 0.9826
-0.9887 0.5934 -0.5982 0.9948
-1.0357 0.5018 -0.5971 0.9948
-1.0569 0.4001 -0.5863 0.9949
-1.1060 0.0051 -0.5738 0.9950
-1.1046 -0.0938 -0.5751 0.9950
-1.0915 -0.1919 -0.5749 0.9950
-1.0392 -0.4918 -0.5964 0.9948
-0.9941 -0.5843 -0.5982 0.9948
-2.6693 -2.7445 -1.9862 0.9829
-2.4113 -2.9685 -1.9840 0.9829
-1.8419 -3.3432 -1.9802 0.9829
-0.2166 -3.7987 -1.9739 0.9830
0.1231 -3.8017 -1.9733 0.9830
0.4616 -3.7749 -1.9729 0.9830
1.4448 -3.5184 -1.9732 0.9830
2.0484 -3.2078 -1.9745 0.9830
2.3275 -3.0138 -1.9755 0.9830
2.8298 -2.5556 -1.9781 0.9830
3.4146 -1.7198 -1.9834 0.9829
3.5582 -1.4099 -1.9855 0.9829
3.8181 -0.4190 -1.9926 0.9828
3.8451 -0.0768 -1.9952 0.9828
3.7432 0.9477 -2.0031 0.9828
3.5246 1.6021 -2.0085 0.9827
3.3720 1.9126 -2.0111 0.9827
2.9860 2.4875 -2.0162 0.9826
2.2282 3.2000 -2.0229 0.9826
1.9357 3.3893 -2.0248 0.9826
1.6271 3.5515 -2.0266 0.9826
-0.0666 3.9170 -2.0323 0.9825
-0.4158 3.8963 -2.0328 0.9825
-1.1016 3.7607 -2.0329 0.9825
-1.7516 3.5036 -2.0321 0.9825
-2.3442 3.1339 -2.0303 0.9825
-2.6128 2.9105 -2.0291 0.9825
-3.2822 2.1097 -2.0242 0.9826
-1.0514 0.4354 -0.5904 0.9949
-1.0629 0.3327 -0.5778 0.9950
-1.0815 0.2350 -0.5741 0.9950
-1.1002 0.1379 -0.5752 0.9950
-1.1066 0.0391 -0.5744 0.9950
-1.0760 -0.2549 -0.5736 0.9950
-1.0616 -0.3541 -0.5806 0.9950
-1.0473 -0.4567 -0.5927 0.9949
-1.0114 -0.5533 -0.5981 0.9948
-3.1904 -2.1356 -1.9917 0.9828
-1.9444 -3.2860 -1.9808 0.9829
-1.6421 -3.4434 -1.9791 0.9830
-0.6705 -3.7477 -1.9751 0.9830
-0.3333 -3.7908 -1.9742 0.9830
0.3454 -3.7875 -1.9730 0.9830
1.0128 -3.6654 -1.9728 0.9830
1.3358 -3.5609 -1.9730 0.9830
1.6485 -3.4284 -1.9735 0.9830
2.2333 -3.0834 -1.9751 0.9830
2.5009 -2.8735 -1.9762 0.9830
2.9760 -2.3869 -1.9791 0.9830
3.1798 -2.1137 -1.9808 0.9829
3.5118 -1.5181 -1.9848 0.9829
3.8393 -0.1950 -1.9943 0.9828
3.8228 0.4916 -1.9995 0.9828
3.7688 0.8318 -2.0022 0.9828
3.6845 1.1662 -2.0049 0.9827
3.4277 1.8072 -2.0102 0.9827
2.0384 3.3271 -2.0242 0.9826
1.7351 3.4988 -2.0260 0.9826
1.0874 3.7571 -2.0291 0.9825
0.7484 3.8415 -2.0303 0.9825
0.4029 3.8948 -2.0313 0.9825
0.0539 3.9167 -2.0321 0.9825
-0.2957 3.9070 -2.0326 0.9825
-0.6432 3.8656 -2.0329 0.9825
-0.9854 3.7928 -2.0330 0.9825
-1.9532 3.3943 -2.0316 0.9825
-2.7774 2.7514 -2.0282 0.9825
-3.2168 2.2104 -2.0248 0.9826
-1.0048 0.5656 -0.5982 0.9948
-1.0605 0.3681 -0.5823 0.9950
-1.0721 0.2678 -0.5733 0.9950
-1.0952 0.1716 -0.5751 0.9950
-1.1058 0.0732 -0.5749 0.9950
-1.1065 -0.0257 -0.5742 0.9950
-1.1018 -0.1245 -0.5752 0.9950
-1.0848 -0.2220 -0.5744 0.9950
-3.0575 -2.3168 -1.9901 0.9829
-2.8353 -2.5773 -1.9877 0.9829
-1.4370 -3.5317 -1.9781 0.9830
-0.4498 -3.7793 -1.9745 0.9830
-0.1109 -3.8029 -1.9737 0.9830
0.5664 -3.7605 -1.9728 0.9830
1.2256 -3.6001 -1.9729 0.9830
2.6659 -2.7234 -1.9771 0.9830
2.9004 -2.4766 -1.9786 0.9830
3.1124 -2.2098 -1.9802 0.9829
3.4622 -1.6248 -1.9841 0.9829
3.5972 -1.3109 -1.9862 0.9829
3.7818 -0.6523 -1.9909 0.9829
3.8474 0.0301 -1.9960 0.9828
3.8344 0.3737 -1.9986 0.9828
3.7908 0.7152 -2.0013 0.9828
3.6131 1.3811 -2.0067 0.9827
3.3189 2.0064 -2.0119 0.9827
3.1306 2.2973 -2.0145 0.9827
2.6789 2.8237 -2.0193 0.9826
2.4190 3.0548 -2.0215 0.9826
2.1391 3.2617 -2.0235 0.9826
1.5281 3.5963 -2.0271 0.9825
0.5224 3.8800 -2.0310 0.9825
0.1743 3.9128 -2.0319 0.9825
-0.5240 3.8834 -2.0329 0.9825
-0.8683 3.8214 -2.0330 0.9825
-1.2057 3.7285 -2.0329 0.9825
-1.5332 3.6054 -2.0325 0.9825
-1.8481 3.4532 -2.0319 0.9825
-2.4300 3.0670 -2.0300 0.9825
-1.0344 0.5050 -0.5971 0.9948
-1.0564 0.4035 -0.5867 0.9949
-1.0638 0.3007 -0.5735 0.9950
-1.0888 0.2051 -0.5748 0.9950
-1.1061 0.0084 -0.5738 0.9950
-1.0921 -0.1887 -0.5750 0.9950
-1.0586 -0.3861 -0.5846 0.9949
-1.0401 -0.4884 -0.5961 0.9948
-0.9959 -0.5813 -0.5982 0.9948
-3.1286 -2.2226 -1.9909 0.9829
-2.4201 -2.9615 -1.9841 0.9829
-2.1441 -3.1623 -1.9821 0.9829
-1.8518 -3.3379 -1.9803 0.9829
-1.2272 -3.6081 -1.9771 0.9830
0.1119 -3.8021 -1.9733 0.9830
0.4505 -3.7762 -1.9729 0.9830
1.7434 -3.3815 -1.9737 0.9830
2.5803 -2.8034 -1.9766 0.9830
3.2383 -2.0251 -1.9814 0.9829
3.4094 -1.7299 -1.9834 0.9829
3.8447 -0.0882 -1.9951 0.9828
3.8093 0.5980 -2.0004 0.9828
3.5291 1.5916 -2.0084 0.9827
3.1984 2.1990 -2.0136 0.9827
2.7634 2.7390 -2.0185 0.9826
2.5109 2.9779 -2.0207 0.9826
1.9457 3.3834 -2.0248 0.9826
1.6376 3.5466 -2.0266 0.9826
1.3157 3.6814 -2.0281 0.9825
0.9827 3.7867 -2.0295 0.9825
0.6414 3.8614 -2.0307 0.9825
0.2945 3.9050 -2.0316 0.9825
-0.0550 3.9171 -2.0323 0.9825
-0.4043 3.8974 -2.0328 0.9825
-0.7504 3.8462 -2.0330 0.9825
-2.6043 2.9183 -2.0291 0.9825
-2.8522 2.6724 -2.0277 0.9825
-3.2761 2.1195 -2.0242 0.9826
-1.0195 0.5372 -0.5978 0.9948
-1.0627 0.3361 -0.5782 0.9950
-1.0998 0.1411 -0.5752 0.9950
-1.1064 -0.0565 -0.5747 0.9950
-1.0978 -0.1551 -0.5752 0.9950
-1.0769 -0.2517 -0.5737 0.9950
-1.0619 -0.3507 -0.5801 0.9950
-1.0480 -0.4534 -0.5924 0.9949
-1.0130 -0.5502 -0.5980 0.9948
-2.5110 -2.8867 -1.9848 0.9829
-1.9542 -3.2804 -1.9809 0.9829
-0.0051 -3.8041 -1.9735 0.9830
0.6707 -3.7432 -1.9728 0.9830
1.0019 -3.6684 -1.9728 0.9830
1.3253 -3.5648 -1.9730 0.9830
1.6384 -3.4332 -1.9735 0.9830
1.9388 -3.2745 -1.9742 0.9830
2.4923 -2.8808 -1.9762 0.9830
2.7412 -2.6488 -1.9775 0.9830
2.9689 -2.3956 -1.9791 0.9830
3.3534 -1.8332 -1.9827 0.9829
3.6336 -1.2108 -1.9869 0.9829
3.7315 -0.8829 -1.9892 0.9829
3.8000 -0.5472 -1.9917 0.9828
3.8466 0.1371 -1.9968 0.9828
3.8241 0.4803 -1.9995 0.9828
3.6878 1.1553 -2.0048 0.9827
3.0667 2.3844 -2.0152 0.9826
2.0482 3.3209 -2.0241 0.9826
1.7453 3.4935 -2.0260 0.9826
0.4144 3.8936 -2.0313 0.9825
0.0655 3.9165 -2.0321 0.9825
-0.2842 3.9078 -2.0326 0.9825
-0.9742 3.7957 -2.0330 0.9825
-1.3088 3.6933 -2.0328 0.9825
-1.9432 3.4001 -2.0316 0.9825
-2.2377 3.2118 -2.0307 0.9825
-2.7694 2.7596 -2.0282 0.9825
-3.2104 2.2199 -2.0249 0.9826
-1.0435 0.4740 -0.5946 0.9948
-1.0602 0.3715 -0.5828 0.9950
-1.0711 0.2709 -0.5732 0.9950
-1.0946 0.1748 -0.5751 0.9950
-1.1065 -0.0224 -0.5741 0.9950
-1.1021 -0.1212 -0.5752 0.9950
-1.0284 -0.5184 -0.5975 0.9948
-3.0644 -2.3079 -1.9902 0.9829
-2.8430 -2.5690 -1.9878 0.9829
-2.3361 -3.0266 -1.9835 0.9829
-1.7578 -3.3871 -1.9797 0.9830
-0.7966 -3.7237 -1.9755 0.9830
-0.4610 -3.7780 -1.9745 0.9830
-0.1221 -3.8026 -1.9737 0.9830
2.4021 -2.9555 -1.9758 0.9830
2.8930 -2.4851 -1.9785 0.9830
3.2943 -1.9349 -1.9820 0.9829
3.4573 -1.6349 -1.9840 0.9829
3.5932 -1.3214 -1.9862 0.9829
3.7010 -0.9968 -1.9884 0.9829
3.7797 -0.6635 -1.9908 0.9829
3.8287 -0.3241 -1.9933 0.9828
3.8473 0.0188 -1.9959 0.9828
3.8353 0.3623 -1.9985 0.9828
3.7198 1.0409 -2.0039 0.9827
3.3246 1.9965 -2.0118 0.9827
3.1373 2.2880 -2.0144 0.9827
2.9242 2.5618 -2.0168 0.9826
2.4279 3.0475 -2.0214 0.9826
2.1486 3.2553 -2.0235 0.9826
1.8514 3.4372 -2.0254 0.9826
1.5387 3.5917 -2.0271 0.9825
1.2131 3.7174 -2.0286 0.9825
0.8772 3.8132 -2.0299 0.9825
0.5339 3.8784 -2.0310 0.9825
-0.1639 3.9144 -2.0325 0.9825
-0.5125 3.8849 -2.0329 0.9825
-0.8571 3.8239 -2.0330 0.9825
-2.9247 2.5915 -2.0272 0.9825
-1.0560 0.4069 -0.5871 0.9949
-1.0927 -0.1855 -0.5750 0.9950
-1.0678 -0.2812 -0.5728 0.9950
-0.9976 -0.5784 -0.5982 0.9948
-2.9218 -2.4813 -1.9886 0.9829
-2.6857 -2.7289 -1.9863 0.9829
-1.8617 -3.3325 -1.9803 0.9829
-1.5557 -3.4823 -1.9786 0.9830
-0.9109 -3.6982 -1.9759 0.9830
-0.2390 -3.7975 -1.9740 0.9830
0.4394 -3.7776 -1.9729 0.9830
0.7745 -3.7230 -1.9728 0.9830
1.1036 -3.6392 -1.9728 0.9830
1.4240 -3.5268 -1.9731 0.9830
1.7334 -3.3866 -1.9737 0.9830
2.0293 -3.2197 -1.9744 0.9830
2.3096 -3.0274 -1.9754 0.9830
2.5720 -2.8110 -1.9766 0.9830
2.8145 -2.5722 -1.9780 0.9830
3.5496 -1.4308 -1.9854 0.9829
3.7560 -0.7791 -1.9900 0.9829
3.8429 0.2441 -1.9976 0.9828
3.3830 1.8925 -2.0110 0.9827
3.0004 2.4697 -2.0160 0.9826
2.5196 2.9703 -2.0206 0.9826
1.9556 3.3776 -2.0247 0.9826
1.6480 3.5417 -2.0265 0.9826
-0.0434 3.9172 -2.0323 0.9825
-0.7390 3.8484 -2.0330 0.9825
-1.0794 3.7671 -2.0329 0.9825
-1.7309 3.5140 -2.0321 0.9825
-2.8444 2.6809 -2.0277 0.9825
-3.0697 2.4146 -2.0261 0.9826
-3.2699 2.1292 -2.0243 0.9826
-1.0626 0.3395 -0.5787 0.9950
-1.1064 -0.0532 -0.5747 0.9950
-1.0983 -0.1518 -0.5752 0.9950
-1.0145 -0.5472 -0.5980 0.9948
-2.7694 -2.6461 -1.9871 0.9829
-2.2503 -3.0894 -1.9828 0.9829
-1.3485 -3.5656 -1.9776 0.9830
-0.6926 -3.7438 -1.9752 0.9830
-0.0163 -3.8041 -1.9735 0.9830
0.9911 -3.6713 -1.9728 0.9830
1.3148 -3.5687 -1.9730 0.9830
1.6282 -3.4380 -1.9735 0.9830
1.9291 -3.2801 -1.9741 0.9830
2.2150 -3.0964 -1.9750 0.9830
3.3479 -1.8431 -1.9826 0.9829
3.5026 -1.5387 -1.9847 0.9829
3.6298 -1.2215 -1.9868 0.9829
3.7287 -0.8938 -1.9892 0.9829
3.8377 -0.2176 -1.9941 0.9828
3.8468 0.1258 -1.9967 0.9828
3.8253 0.4690 -1.9994 0.9828
3.7733 0.8095 -2.0020 0.9828
3.6910 1.1444 -2.0047 0.9827
3.4380 1.7867 -2.0101 0.9827
3.2692 2.0890 -2.0126 0.9827
3.0736 2.3752 -2.0152 0.9826
2.8529 2.6431 -2.0176 0.9826
2.3430 3.1149 -2.0221 0.9826
2.0579 3.3148 -2.0241 0.9826
1.7556 3.4883 -2.0259 0.9826
1.4386 3.6339 -2.0276 0.9825
1.1095 3.7505 -2.0290 0.9825
0.0770 3.9163 -2.0321 0.9825
-0.2727 3.9086 -2.0326 0.9825
-0.6203 3.8693 -2.0329 0.9825
-0.9630 3.7986 -2.0330 0.9825
-1.2979 3.6972 -2.0328 0.9825
-1.6222 3.5659 -2.0324 0.9825
-1.9332 3.4059 -2.0317 0.9825
-2.2283 3.2184 -2.0308 0.9825
-2.5051 3.0051 -2.0296 0.9825
-2.9948 2.5085 -2.0267 0.9825
-1.0701 0.2740 -0.5731 0.9950
-1.0941 0.1781 -0.5750 0.9950
-1.1064 -0.0191 -0.5741 0.9950
-1.0636 -0.3119 -0.5750 0.9950
-1.0548 -0.4147 -0.5880 0.9949
-0.9809 -0.6058 -0.5981 0.9948
-3.0714 -2.2989 -1.9903 0.9829
-2.0643 -3.2138 -1.9816 0.9829
-1.7678 -3.3820 -1.9798 0.9830
-1.4579 -3.5234 -1.9782 0.9830
-0.8075 -3.7214 -1.9755 0.9830
-0.4721 -3.7767 -1.9745 0.9830
-0.1333 -3.8023 -1.9737 0.9830
0.5442 -3.7638 -1.9729 0.9830
1.2043 -3.6072 -1.9729 0.9830
1.5216 -3.4861 -1.9733 0.9830
2.1184 -3.1625 -1.9747 0.9830
3.0991 -2.2280 -1.9801 0.9829
3.5892 -1.3320 -1.9861 0.9829
3.6979 -1.0077 -1.9884 0.9829
3.7776 -0.6746 -1.9908 0.9829
3.8471 0.0074 -1.9958 0.9828
3.8362 0.3510 -1.9985 0.9828
3.7946 0.6927 -2.0011 0.9828
3.7227 1.0298 -2.0038 0.9827
3.6209 1.3596 -2.0065 0.9827
3.3304 1.9866 -2.0118 0.9827
3.1439 2.2786 -2.0143 0.9827
2.9317 2.5531 -2.0168 0.9826
2.6953 2.8077 -2.0191 0.9826
2.4368 3.0402 -2.0213 0.9826
1.2240 3.7137 -2.0285 0.9825
0.8885 3.8106 -2.0299 0.9825
0.1974 3.9116 -2.0318 0.9825
3.5148 1.0171 -2.0041 0.9835
3.1318 1.9186 -2.0116 0.9834
2.9517 2.1929 -2.0140 0.9834
2.7475 2.4503 -2.0163 0.9834
2.5207 2.6886 -2.0185 0.9833
1.7238 3.2694 -2.0243 0.9833
1.4265 3.4128 -2.0259 0.9833
0.7984 3.6167 -2.0285 0.9833
0.4728 3.6753 -2.0296 0.9832
0.1431 3.7043 -2.0303 0.9832
-0.1879 3.7033 -2.0309 0.9832
-1.7684 3.2579 -2.0303 0.9832
-2.0511 3.0859 -2.0294 0.9832
-2.5639 2.6693 -2.0272 0.9833
-2.7898 2.4282 -2.0257 0.9833
-0.8530 0.6179 -0.5769 0.9952
-0.9501 0.4569 -0.5774 0.9952
-0.9738 0.3654 -0.5697 0.9953
-0.9875 0.2729 -0.5611 0.9953
-1.0254 -0.0901 -0.5638 0.9953
-0.9886 -0.2697 -0.5612 0.9953
-0.9743 -0.3619 -0.5692 0.9953
-0.9091 -0.5379 -0.5785 0.9952
-0.8552 -0.6152 -0.5770 0.9952
-2.7473 -2.3753 -1.9891 0.9836
-2.5217 -2.6081 -1.9870 0.9836
-2.0141 -3.0087 -1.9830 0.9836
-1.4451 -3.3132 -1.9797 0.9837
-0.8323 -3.5127 -1.9772 0.9837
-0.5153 -3.5711 -1.9762 0.9837
-0.1947 -3.6014 -1.9754 0.9837
0.7654 -3.5225 -1.9743 0.9837
1.0766 -3.4403 -1.9744 0.9837
1.6715 -3.1956 -1.9752 0.9837
2.6892 -2.4144 -1.9794 0.9837
2.8961 -2.1665 -1.9809 0.9836
3.0805 -1.9012 -1.9826 0.9836
3.3758 -1.3261 -1.9865 0.9836
3.4844 -1.0208 -1.9886 0.9836
3.5656 -0.7067 -1.9909 0.9836
3.6187 -0.3863 -1.9932 0.9835
3.6431 -0.0620 -1.9956 0.9835
3.6387 0.2635 -1.9981 0.9835
3.6052 0.5878 -2.0007 0.9835
3.5429 0.9082 -2.0032 0.9835
3.3336 1.5271 -2.0083 0.9834
3.1880 1.8206 -2.0107 0.9834
2.8204 2.3637 -2.0155 0.9834
2.3606 2.8334 -2.0199 0.9833
1.8230 3.2139 -2.0237 0.9833
0.9090 3.5897 -2.0281 0.9833
0.5855 3.6584 -2.0292 0.9832
0.2570 3.6977 -2.0301 0.9832
-0.7317 3.6359 -2.0313 0.9832
-1.6675 3.3111 -2.0305 0.9832
-1.9555 3.1480 -2.0298 0.9832
-2.2275 2.9596 -2.0288 0.9832
-2.7145 2.5135 -2.0262 0.9833
-0.8898 0.5683 -0.5783 0.9952
-0.9367 0.4865 -0.5781 0.9952
-1.0047 0.2153 -0.5628 0.9953
-1.0276 0.0333 -0.5631 0.9953
-1.0272 -0.0585 -0.5635 0.9953
-0.9981 -0.2395 -0.5622 0.9953
-0.9250 -0.5096 -0.5784 0.9952
-0.8750 -0.5895 -0.5778 0.9952
-2.8201 -2.2906 -1.9899 0.9836
-2.3631 -2.7493 -1.9856 0.9836
-2.1064 -2.9463 -1.9837 0.9836
-1.5467 -3.2680 -1.9803 0.9836
-0.9401 -3.4861 -1.9775 0.9837
-0.3054 -3.5942 -1.9756 0.9837
0.0165 -3.6059 -1.9750 0.9837
0.9703 -3.4717 -1.9743 0.9837
1.5723 -3.2452 -1.9750 0.9837
2.3785 -2.7167 -1.9776 0.9837
2.8273 -2.2539 -1.9804 0.9836
3.1884 -1.7187 -1.9838 0.9836
3.3323 -1.4288 -1.9858 0.9836
2.8906 2.2750 -2.0147 0.9834
2.6792 2.5266 -2.0170 0.9833
2.1922 2.9687 -2.0212 0.9833
1.3313 3.4519 -2.0264 0.9833
0.3705 3.6875 -2.0298 0.9832
-0.6195 3.6567 -2.0313 0.9832
-2.1358 3.0272 -2.0291 0.9832
-2.3960 2.8231 -2.0280 0.9833
-2.6366 2.5965 -2.0267 0.9833
-2.8556 2.3492 -2.0252 0.9833
-0.9610 0.4297 -0.5765 0.9952
-0.9775 0.3360 -0.5661 0.9953
-1.0174 0.1564 -0.5638 0.9953
-1.0227 -0.1186 -0.5639 0.9953
-0.9696 -0.3911 -0.5726 0.9952
-1.3521 -3.3513 -1.9793 0.9837
-1.0470 -3.4562 -1.9780 0.9837
-0.7342 -3.5338 -1.9768 0.9837
-0.4158 -3.5836 -1.9759 0.9837
-0.0945 -3.6050 -1.9752 0.9837
0.2274 -3.5982 -1.9747 0.9837
1.4716 -3.2917 -1.9748 0.9837
1.7599 -3.1483 -1.9754 0.9837
2.2934 -2.7880 -1.9773 0.9837
2.5345 -2.5739 -1.9785 0.9837
3.2856 -1.5301 -1.9851 0.9836
3.4125 -1.2322 -1.9871 0.9836
3.5126 -0.9239 -1.9893 0.9836
3.5852 -0.6075 -1.9916 0.9836
3.6294 -0.2856 -1.9940 0.9835
3.6448 0.0393 -1.9964 0.9835
3.5889 0.6881 -2.0014 0.9835
3.4182 1.3182 -2.0065 0.9834
3.2911 1.6198 -2.0090 0.9834
2.7546 2.4421 -2.0162 0.9834
1.7334 3.2642 -2.0242 0.9833
1.1275 3.5255 -2.0273 0.9833
0.8090 3.6142 -2.0285 0.9833
0.4837 3.6738 -2.0295 0.9832
0.1541 3.7038 -2.0303 0.9832
-0.1770 3.7038 -2.0309 0.9832
-1.4611 3.4080 -2.0309 0.9832
-1.7588 3.2631 -2.0303 0.9832
-2.0420 3.0920 -2.0295 0.9832
-1.0113 0.1874 -0.5633 0.9953
-1.0271 0.0047 -0.5626 0.9953
-1.0133 -0.1782 -0.5635 0.9953
-0.9747 -0.3588 -0.5689 0.9953
-0.9527 -0.4508 -0.5773 0.9952
-0.8572 -0.6128 -0.5771 0.9952
-2.7544 -2.3673 -1.9892 0.9836
-2.5295 -2.6007 -1.9870 0.9836
-2.0231 -3.0028 -1.9831 0.9836
-1.7456 -3.1685 -1.9814 0.9836
-0.5259 -3.5696 -1.9762 0.9837
0.1167 -3.6037 -1.9748 0.9837
0.4376 -3.5783 -1.9745 0.9837
1.0664 -3.4435 -1.9744 0.9837
1.3696 -3.3351 -1.9747 0.9837
2.2062 -2.8567 -1.9769 0.9837
3.4812 -1.0310 -1.9886 0.9836
3.5634 -0.7172 -1.9908 0.9836
3.6428 -0.0728 -1.9956 0.9835
3.6393 0.2528 -1.9980 0.9835
3.5454 0.8977 -2.0031 0.9835
3.4556 1.2119 -2.0057 0.9834
3.1932 1.8111 -2.0107 0.9834
1.5402 3.3618 -2.0253 0.9833
0.9196 3.5869 -2.0281 0.9833
0.2679 3.6968 -2.0301 0.9832
-0.0630 3.7072 -2.0307 0.9832
-0.7209 3.6381 -2.0313 0.9832
-1.0426 3.5592 -2.0313 0.9832
-1.3557 3.4515 -2.0310 0.9832
-1.6578 3.3160 -2.0305 0.9832
-1.9463 3.1538 -2.0298 0.9832
-2.9190 2.2683 -2.0247 0.9833
-0.8881 0.5709 -0.5782 0.9952
-0.9354 0.4893 -0.5782 0.9952
-0.9677 0.4008 -0.5737 0.9952
-1.0273 -0.0555 -0.5635 0.9953
-1.0189 -0.1470 -0.5638 0.9953
-0.9989 -0.2366 -0.5623 0.9953
-0.9784 -0.3263 -0.5649 0.9953
-0.9636 -0.4203 -0.5758 0.9952
-0.8768 -0.5869 -0.5779 0.9952
-1.5563 -3.2635 -1.9803 0.9836
-0.9504 -3.4834 -1.9776 0.9837
-0.6355 -3.5523 -1.9765 0.9837
-0.3160 -3.5933 -1.9756 0.9837
0.0058 -3.6059 -1.9750 0.9837
0.3274 -3.5903 -1.9746 0.9837
2.3705 -2.7236 -1.9776 0.9837
2.8206 -2.2622 -1.9803 0.9836
3.1832 -1.7280 -1.9838 0.9836
3.3279 -1.4386 -1.9857 0.9836
3.6373 -0.1847 -1.9947 0.9835
3.6438 0.1407 -1.9972 0.9835
3.2460 1.7114 -2.0098 0.9834
2.8972 2.2664 -2.0146 0.9834
2.4538 2.7512 -2.0191 0.9833
2.2008 2.9621 -2.0211 0.9833
1.9296 3.1495 -2.0230 0.9833
1.6424 3.3119 -2.0248 0.9833
1.0293 3.5562 -2.0277 0.9833
0.3814 3.6863 -2.0298 0.9832
0.0510 3.7070 -2.0305 0.9832
-0.2799 3.6977 -2.0310 0.9832
-0.6087 3.6585 -2.0313 0.9832
-0.8692 0.5973 -0.5776 0.9952
-0.9204 0.5181 -0.5785 0.9952
-0.9771 0.3392 -0.5665 0.9953
-0.9954 0.2486 -0.5619 0.9953
-1.0169 0.1593 -0.5637 0.9953
-1.0268 0.0680 -0.5636 0.9953
-0.9807 -0.2939 -0.5608 0.9953
-0.9409 -0.4777 -0.5779 0.9952
-2.6866 -2.4421 -1.9885 0.9836
-2.4554 -2.6691 -1.9864 0.9836
-1.6564 -3.2150 -1.9808 0.9836
-0.7446 -3.5317 -1.9769 0.9837
0.5369 -3.5646 -1.9744 0.9837
1.4619 -3.2960 -1.9748 0.9837
1.7506 -3.1534 -1.9754 0.9837
2.0257 -2.9859 -1.9762 0.9837
2.2851 -2.7947 -1.9772 0.9837
2.5268 -2.5813 -1.9784 0.9837
3.1275 -1.8245 -1.9831 0.9836
3.2810 -1.5397 -1.9850 0.9836
3.6448 0.0285 -1.9963 0.9835
3.6323 0.3540 -1.9988 0.9835
3.5205 0.9963 -2.0039 0.9835
3.4219 1.3080 -2.0064 0.9834
3.2957 1.6101 -2.0090 0.9834
3.1428 1.9000 -2.0114 0.9834
2.9644 2.1753 -2.0138 0.9834
2.5363 2.6734 -2.0184 0.9833
2.2901 2.8920 -2.0205 0.9833
2.0250 3.0877 -2.0224 0.9833
1.7430 3.2589 -2.0242 0.9833
1.4465 3.4042 -2.0258 0.9833
0.1650 3.7033 -2.0303 0.9832
-0.1660 3.7043 -2.0309 0.9832
-0.4959 3.6753 -2.0312 0.9832
-1.4511 3.4123 -2.0309 0.9832
-1.7491 3.2683 -2.0303 0.9832
-2.0329 3.0980 -2.0295 0.9832
-2.3000 2.9029 -2.0285 0.9833
-2.5482 2.6845 -2.0273 0.9833
-2.7756 2.4448 -2.0258 0.9833
-0.8491 0.6227 -0.5767 0.9952
-0.9040 0.5462 -0.5785 0.9952
-0.9477 0.4626 -0.5776 0.9952
-0.9729 0.3716 -0.5704 0.9953
-1.0246 0.0996 -0.5638 0.9953
-1.0272 0.0078 -0.5626 0.9953
-1.0258 -0.0841 -0.5637 0.9953
-1.0139 -0.1752 -0.5635 0.9953
-0.9905 -0.2639 -0.5614 0.9953
-0.9751 -0.3557 -0.5685 0.9953
-0.9538 -0.4479 -0.5772 0.9952
-2.7614 -2.3592 -1.9893 0.9836
-2.5372 -2.5933 -1.9871 0.9836
-2.2934 -2.8064 -1.9851 0.9836
-2.0320 -2.9969 -1.9832 0.9836
0.1061 -3.6041 -1.9748 0.9837
0.4271 -3.5796 -1.9745 0.9837
0.7446 -3.5270 -1.9743 0.9837
1.0563 -3.4466 -1.9744 0.9837
2.1977 -2.8631 -1.9768 0.9837
2.6748 -2.4301 -1.9793 0.9837
3.0690 -1.9192 -1.9825 0.9836
3.2310 -1.6393 -1.9844 0.9836
3.3677 -1.3459 -1.9864 0.9836
3.4781 -1.0413 -1.9885 0.9836
3.5611 -0.7277 -1.9907 0.9836
3.6160 -0.4076 -1.9931 0.9835
3.5479 0.8872 -2.0030 0.9835
3.3422 1.5073 -2.0081 0.9834
3.0286 2.0823 -2.0130 0.9834
2.8341 2.3469 -2.0154 0.9834
2.3771 2.8192 -2.0197 0.9833
1.8418 3.2029 -2.0236 0.9833
1.2454 3.4846 -2.0268 0.9833
0.9302 3.5841 -2.0281 0.9833
0.2788 3.6960 -2.0300 0.9832
-0.0521 3.7073 -2.0307 0.9832
-0.7102 3.6402 -2.0313 0.9832
-1.6480 3.3209 -2.0305 0.9832
-2.4650 2.7622 -2.0277 0.9833
-2.6998 2.5296 -2.0263 0.9833
-0.9340 0.4921 -0.5782 0.9952
-0.9798 0.3098 -0.5628 0.9953
-1.0212 0.1311 -0.5639 0.9953
-1.0276 0.0394 -0.5632 0.9953
-1.0194 -0.1440 -0.5639 0.9953
-0.9787 -0.3232 -0.5645 0.9953
-0.9644 -0.4172 -0.5755 0.9952
-0.9279 -0.5041 -0.5784 0.9952
-2.8338 -2.2741 -1.9900 0.9836
-2.6167 -2.5150 -1.9878 0.9836
-2.3795 -2.7355 -1.9857 0.9836
-1.8520 -3.1089 -1.9820 0.9836
-0.6460 -3.5505 -1.9765 0.9837
-0.3266 -3.5924 -1.9757 0.9837
0.3168 -3.5912 -1.9746 0.9837
0.9498 -3.4774 -1.9743 0.9837
1.2563 -3.3792 -1.9746 0.9837
1.5531 -3.2544 -1.9750 0.9837
2.3624 -2.7306 -1.9776 0.9837
2.5982 -2.5106 -1.9788 0.9837
3.0076 -2.0121 -1.9819 0.9836
3.3235 -1.4483 -1.9857 0.9836
3.4431 -1.1473 -1.9877 0.9836
3.5356 -0.8365 -1.9899 0.9836
3.6366 -0.1954 -1.9946 0.9835
3.3856 1.4032 -2.0072 0.9834
3.2509 1.7017 -2.0097 0.9834
3.0899 1.9873 -2.0122 0.9834
2.9038 2.2577 -2.0146 0.9834
2.6939 2.5106 -2.0169 0.9833
2.4618 2.7438 -2.0190 0.9833
1.9389 3.1437 -2.0230 0.9833
1.6521 3.3070 -2.0247 0.9833
1.3516 3.4438 -2.0263 0.9833
1.0397 3.5531 -2.0276 0.9833
0.3922 3.6851 -2.0298 0.9832
-0.2690 3.6985 -2.0310 0.9832
-0.5979 3.6602 -2.0313 0.9832
-0.9220 3.5924 -2.0313 0.9832
-1.2387 3.4955 -2.0312 0.9832
-1.5453 3.3704 -2.0307 0.9832
-1.8392 3.2181 -2.0301 0.9832
-2.1180 3.0399 -2.0292 0.9832
-2.6213 2.6121 -2.0268 0.9833
-0.8673 0.5998 -0.5776 0.9952
-0.9189 0.5209 -0.5785 0.9952
-0.9768 0.3423 -0.5669 0.9953
-0.9945 0.2515 -0.5618 0.9953
-1.0266 0.0710 -0.5636 0.9953
-1.0078 -0.2031 -0.5631 0.9953
-0.9811 -0.2909 -0.5605 0.9953
-0.9422 -0.4749 -0.5779 0.9952
-0.8969 -0.5575 -0.5784 0.9952
-2.9035 -2.1867 -1.9908 0.9836
-2.6939 -2.4342 -1.9886 0.9836
-2.2138 -2.8682 -1.9844 0.9836
-1.6659 -3.2102 -1.9809 0.9836
0.2062 -3.5995 -1.9747 0.9837
0.5264 -3.5662 -1.9744 0.9837
0.8424 -3.5049 -1.9743 0.9837
1.1517 -3.4160 -1.9745 0.9837
1.7412 -3.1585 -1.9754 0.9837
2.0169 -2.9918 -1.9762 0.9837
2.7420 -2.3553 -1.9798 0.9836
3.1220 -1.8337 -1.9831 0.9836
3.4049 -1.2522 -1.9870 0.9836
3.5233 0.9859 -2.0038 0.9835
3.4256 1.2978 -2.0064 0.9834
2.7687 2.4256 -2.0161 0.9834
2.5441 2.6658 -2.0183 0.9833
2.0340 3.0817 -2.0223 0.9833
1.7526 3.2537 -2.0241 0.9833
1.1482 3.5186 -2.0272 0.9833
-0.1551 3.7047 -2.0309 0.9832
-0.4850 3.6768 -2.0312 0.9832
-2.0238 3.1041 -2.0295 0.9832
-0.9464 0.4655 -0.5777 0.9952
-0.9724 0.3747 -0.5707 0.9953
-0.9845 0.2815 -0.5608 0.9953
-1.0100 0.1934 -0.5632 0.9953
-1.0273 0.0108 -0.5627 0.9953
-1.0260 -0.0810 -0.5637 0.9953
-1.0145 -0.1722 -0.5636 0.9953
-0.9914 -0.2610 -0.5615 0.9953
-0.9755 -0.3525 -0.5681 0.9953
-0.9138 -0.5298 -0.5785 0.9952
-0.8610 -0.6079 -0.5773 0.9952
-2.3018 -2.7997 -1.9851 0.9836
-1.4744 -3.3005 -1.9799 0.9836
-1.1733 -3.4164 -1.9785 0.9837
-0.8634 -3.5053 -1.9773 0.9837
0.0954 -3.6044 -1.9749 0.9837
1.0461 -3.4497 -1.9744 0.9837
1.3498 -3.3431 -1.9747 0.9837
1.6431 -3.2102 -1.9752 0.9837
2.1892 -2.8695 -1.9768 0.9837
2.4378 -2.6643 -1.9779 0.9837
2.8766 -2.1919 -1.9808 0.9836
3.2260 -1.6488 -1.9843 0.9836
3.3636 -1.3558 -1.9863 0.9836
3.4748 -1.0515 -1.9884 0.9836
3.5588 -0.7382 -1.9906 0.9836
3.6147 -0.4183 -1.9930 0.9835
3.6098 0.5558 -2.0004 0.9835
3.5504 0.8767 -2.0029 0.9835
3.4624 1.1914 -2.0055 0.9834
3.3465 1.4974 -2.0080 0.9834
3.0346 2.0733 -2.0129 0.9834
2.8409 2.3384 -2.0153 0.9834
2.6239 2.5854 -2.0175 0.9833
2.3854 2.8121 -2.0197 0.9833
2.1271 3.0167 -2.0217 0.9833
1.8512 3.1973 -2.0235 0.9833
1.5599 3.3525 -2.0252 0.9833
0.9407 3.5813 -2.0280 0.9833
0.6179 3.6529 -2.0291 0.9832
0.2897 3.6951 -2.0300 0.9832
-0.0411 3.7074 -2.0307 0.9832
-0.3717 3.6898 -2.0311 0.9832
-0.6995 3.6423 -2.0313 0.9832
-1.0216 3.5653 -2.0313 0.9832
-1.9277 3.1653 -2.0298 0.9832
-2.4569 2.7695 -2.0277 0.9833
-0.8846 0.5760 -0.5781 0.9952
-0.9326 0.4949 -0.5783 0.9952
-0.9665 0.4070 -0.5744 0.9952
-1.0274 -0.0494 -0.5634 0.9953
-1.0198 -0.1410 -0.5639 0.9953
-0.9294 -0.5013 -0.5783 0.9952
-2.3876 -2.7286 -1.9858 0.9836
-1.2781 -3.3795 -1.9789 0.9837
-0.3372 -3.5915 -1.9757 0.9837
0.6253 -3.5501 -1.9743 0.9837
0.9395 -3.4802 -1.9743 0.9837
1.2463 -3.3828 -1.9745 0.9837
1.8286 -3.1092 -1.9756 0.9837
2.3543 -2.7375 -1.9775 0.9837
2.5907 -2.5182 -1.9788 0.9837
2.8070 -2.2787 -1.9802 0.9836
3.3191 -1.4581 -1.9856 0.9836
3.4396 -1.1575 -1.9877 0.9836
3.5986 -0.5290 -1.9922 0.9835
3.6442 0.1191 -1.9970 0.9835
3.6236 0.4443 -1.9995 0.9835
3.5741 0.7667 -2.0021 0.9835
3.4959 1.0839 -2.0046 0.9834
2.9103 2.2490 -2.0145 0.9834
1.6619 3.3020 -2.0247 0.9833
0.4031 3.6839 -2.0297 0.9832
0.0729 3.7066 -2.0305 0.9832
-0.2581 3.6992 -2.0310 0.9832
-0.5871 3.6620 -2.0313 0.9832
-1.2284 3.4992 -2.0312 0.9832
-2.6137 2.6199 -2.0269 0.9833
-0.9174 0.5236 -0.5785 0.9952
-0.9577 0.4384 -0.5769 0.9952
-0.9936 0.2544 -0.5617 0.9953
-1.0265 0.0741 -0.5637 0.9953
-1.0237 -0.1096 -0.5639 0.9953
-0.9821 -0.2880 -0.5606 0.9953
-0.9712 -0.3818 -0.5716 0.9953
-0.9435 -0.4720 -0.5778 0.9952
-2.7011 -2.4264 -1.9887 0.9836
-1.9564 -3.0457 -1.9827 0.9836
-1.3818 -3.3394 -1.9794 0.9837
-1.0777 -3.4471 -1.9781 0.9837
-0.7655 -3.5274 -1.9769 0.9837
-0.4475 -3.5799 -1.9760 0.9837
0.8320 -3.5074 -1.9743 0.9837
1.1416 -3.4194 -1.9744 0.9837
1.7319 -3.1636 -1.9754 0.9837
2.0080 -2.9977 -1.9762 0.9837
2.7349 -2.3633 -1.9797 0.9837
3.1165 -1.8428 -1.9830 0.9836
3.2716 -1.5589 -1.9849 0.9836
3.5039 -0.9548 -1.9891 0.9836
3.5792 -0.6392 -1.9914 0.9836
3.6446 0.0070 -1.9962 0.9835
3.6340 0.3325 -1.9987 0.9835
3.5260 0.9754 -2.0037 0.9835
3.3049 1.5904 -2.0088 0.9834
2.5519 2.6582 -2.0182 0.9833
2.0430 3.0755 -2.0223 0.9833
1.7621 3.2484 -2.0241 0.9833
1.4665 3.3954 -2.0257 0.9833
1.1586 3.5152 -2.0272 0.9833
0.5161 3.6692 -2.0294 0.9832
0.1868 3.7021 -2.0303 0.9832
1.9383 0.5609 -1.1650 0.9907
1.8664 0.7261 -1.1562 0.9908
2.9703 1.8197 -2.0111 0.9840
2.7993 2.0797 -2.0134 0.9840
2.6054 2.3237 -2.0156 0.9840
2.3903 2.5494 -2.0177 0.9840
2.1554 2.7552 -2.0196 0.9840
1.6344 3.0997 -2.0232 0.9839
1.0591 3.3456 -2.0260 0.9839
0.7569 3.4287 -2.0272 0.9839
0.1357 3.5115 -2.0289 0.9839
-0.1781 3.5106 -2.0294 0.9839
-0.4906 3.4812 -2.0297 0.9839
-0.7993 3.4237 -2.0298 0.9839
-1.1014 3.3386 -2.0297 0.9839
-1.3946 3.2265 -2.0294 0.9839
-1.9444 2.9254 -2.0280 0.9839
-2.1966 2.7390 -2.0271 0.9839
-0.7919 0.5736 -0.5645 0.9955
-0.8354 0.4980 -0.5615 0.9955
-0.9427 0.1718 -0.5532 0.9956
-0.9554 -0.0840 -0.5537 0.9956
-0.9211 -0.2513 -0.5512 0.9956
-0.9013 -0.3348 -0.5551 0.9956
-0.7934 -0.5707 -0.5642 0.9955
-2.6071 -2.2541 -1.9898 0.9842
-1.6480 -3.0123 -1.9824 0.9843
-1.3717 -3.1449 -1.9809 0.9843
-0.4892 -3.3900 -1.9775 0.9843
0.7266 -3.3440 -1.9757 0.9843
1.8517 -2.8810 -1.9773 0.9843
2.1023 -2.7056 -1.9782 0.9843
2.7489 -2.0564 -1.9820 0.9843
1.8658 -0.7329 -1.1574 0.9908
1.9356 -0.5671 -1.1645 0.9907
2.0032 -0.3970 -1.1790 0.9906
2.0367 -0.2174 -1.1826 0.9906
1.8843 0.6671 -1.1541 0.9908
1.8503 0.8476 -1.1750 0.9906
3.0236 1.7268 -2.0103 0.9840
2.6747 2.2416 -2.0148 0.9840
2.4667 2.4739 -2.0170 0.9840
2.2384 2.6867 -2.0190 0.9840
1.4509 3.1917 -2.0242 0.9839
1.1612 3.3107 -2.0256 0.9839
0.8618 3.4031 -2.0268 0.9839
0.5551 3.4682 -2.0278 0.9839
-0.0701 3.5141 -2.0293 0.9839
-0.6936 3.4467 -2.0298 0.9839
-1.5808 3.1388 -2.0290 0.9839
-1.8538 2.9842 -2.0283 0.9839
-2.3523 2.6047 -2.0263 0.9839
-2.5736 2.3830 -2.0250 0.9839
-0.8194 0.5233 -0.5613 0.9955
-0.9101 0.2819 -0.5501 0.9956
-0.9360 0.2005 -0.5527 0.9956
-0.9521 0.1165 -0.5538 0.9956
-0.9575 0.0310 -0.5531 0.9956
-0.9487 -0.1397 -0.5536 0.9956
-0.9299 -0.2232 -0.5521 0.9956
-0.9054 -0.3049 -0.5516 0.9956
-0.7652 -0.6215 -0.5691 0.9955
-1.1847 -3.2183 -1.9800 0.9843
-0.8924 -3.3092 -1.9788 0.9843
0.0156 -3.4231 -1.9764 0.9843
0.9211 -3.2958 -1.9758 0.9843
2.0178 -2.7685 -1.9779 0.9843
1.9144 0.6122 -1.1604 0.9908
3.0741 1.6323 -2.0095 0.9841
2.9196 1.9022 -2.0118 0.9840
2.5407 2.3960 -2.0162 0.9840
2.0786 2.8149 -2.0202 0.9840
1.5479 3.1447 -2.0237 0.9839
0.9658 3.3743 -2.0264 0.9839
0.0380 3.5143 -2.0291 0.9839
-0.5873 3.4663 -2.0298 0.9839
-0.8941 3.4002 -2.0298 0.9839
-1.1938 3.3065 -2.0296 0.9839
-1.4837 3.1862 -2.0292 0.9839
-1.7614 3.0402 -2.0286 0.9839
-0.8041 0.5491 -0.5622 0.9955
-0.8851 0.3957 -0.5597 0.9955
-0.9046 0.3110 -0.5523 0.9956
-0.9282 0.2289 -0.5519 0.9956
-0.9568 0.0605 -0.5535 0.9956
-0.8966 -0.3617 -0.5582 0.9955
-0.8652 -0.4425 -0.5610 0.9955
-0.8227 -0.5182 -0.5614 0.9955
-0.7804 -0.5950 -0.5666 0.9955
-2.3227 -2.5399 -1.9871 0.9842
-1.5632 -3.0562 -1.9819 0.9843
-0.9939 -3.2808 -1.9792 0.9843
-0.3947 -3.4019 -1.9772 0.9843
0.2159 -3.4158 -1.9761 0.9843
1.1125 -3.2365 -1.9759 0.9843
1.9314 -2.8288 -1.9776 0.9843
2.1770 -2.6465 -1.9785 0.9843
2.6160 -2.2204 -1.9810 0.9843
2.8057 -1.9797 -1.9825 0.9843
2.9736 -1.7229 -1.9842 0.9843
1.8488 -0.8610 -1.1775 0.9906
1.8778 -0.6780 -1.1526 0.9908
2.0365 -0.1603 -1.1794 0.9906
2.0243 0.0218 -1.1688 0.9907
2.0077 0.3849 -1.1803 0.9906
1.8668 0.7199 -1.1552 0.9908
3.1216 1.5364 -2.0087 0.9841
2.9755 1.8108 -2.0110 0.9840
2.8053 2.0714 -2.0133 0.9840
2.6122 2.3159 -2.0155 0.9840
2.3977 2.5423 -2.0176 0.9840
2.1635 2.7487 -2.0196 0.9840
1.6435 3.0948 -2.0231 0.9839
1.0689 3.3424 -2.0260 0.9839
0.7670 3.4263 -2.0272 0.9839
0.4585 3.4827 -2.0281 0.9839
0.1461 3.5111 -2.0289 0.9839
-0.1678 3.5110 -2.0294 0.9839
-0.4804 3.4826 -2.0297 0.9839
-0.7892 3.4261 -2.0298 0.9839
-1.9358 2.9312 -2.0281 0.9839
-2.4233 2.5379 -2.0259 0.9839
-2.6382 2.3100 -2.0246 0.9839
-0.7905 0.5762 -0.5648 0.9955
-0.8339 0.5005 -0.5615 0.9955
-0.8738 0.4234 -0.5606 0.9955
-0.9003 0.3408 -0.5558 0.9956
-0.9192 0.2569 -0.5510 0.9956
-0.9549 0.0900 -0.5538 0.9956
-0.9220 -0.2486 -0.5513 0.9956
-0.8773 -0.4152 -0.5604 0.9955
-0.8385 -0.4928 -0.5615 0.9955
-0.7947 -0.5681 -0.5640 0.9955
-2.6138 -2.2465 -1.9899 0.9842
-2.1687 -2.6698 -1.9859 0.9842
-1.6569 -3.0075 -1.9824 0.9843
-1.3809 -3.1409 -1.9809 0.9843
-0.4992 -3.3886 -1.9775 0.9843
0.1108 -3.4211 -1.9762 0.9843
0.4154 -3.3970 -1.9759 0.9843
1.0124 -3.2690 -1.9758 0.9843
1.8432 -2.8865 -1.9773 0.9843
2.0943 -2.7118 -1.9782 0.9843
2.5458 -2.2992 -1.9805 0.9843
2.7428 -2.0645 -1.9820 0.9843
2.9183 -1.8130 -1.9836 0.9843
3.0712 -1.5469 -1.9853 0.9842
2.0364 -0.2235 -1.1828 0.9906
2.0359 0.1414 -1.1783 0.9906
2.0248 0.3240 -1.1839 0.9906
1.8514 0.8416 -1.1742 0.9907
2.6812 2.2336 -2.0148 0.9840
2.4739 2.4665 -2.0169 0.9840
2.2462 2.6800 -2.0189 0.9840
2.0001 2.8724 -2.0208 0.9840
1.4603 3.1873 -2.0241 0.9839
1.1710 3.3072 -2.0255 0.9839
0.2539 3.5045 -2.0286 0.9839
-0.6834 3.4487 -2.0298 0.9839
-0.9883 3.3739 -2.0298 0.9839
-1.8450 2.9897 -2.0284 0.9839
-2.1034 2.8120 -2.0275 0.9839
-2.5666 2.3906 -2.0251 0.9839
-0.8178 0.5256 -0.5613 0.9955
-0.8613 0.4505 -0.5612 0.9955
-0.9091 0.2845 -0.5500 0.9956
-0.9353 0.2033 -0.5526 0.9956
-0.9517 0.1193 -0.5538 0.9956
-0.9575 0.0339 -0.5532 0.9956
-0.9572 -0.0517 -0.5534 0.9956
-0.9306 -0.2205 -0.5522 0.9956
-0.8882 -0.3873 -0.5594 0.9955
-0.8531 -0.4667 -0.5614 0.9955
-0.8080 -0.5409 -0.5614 0.9955
-0.7667 -0.6190 -0.5689 0.9955
-2.4762 -2.3940 -1.9885 0.9842
-2.2505 -2.6027 -1.9865 0.9842
-2.0075 -2.7905 -1.9847 0.9842
-1.7491 -2.9559 -1.9830 0.9843
-0.9021 -3.3066 -1.9788 0.9843
-0.6033 -3.3722 -1.9778 0.9843
0.0055 -3.4232 -1.9764 0.9843
0.6135 -3.3667 -1.9758 0.9843
1.2021 -3.2044 -1.9760 0.9843
2.4733 -2.3759 -1.9801 0.9843
2.8604 -1.9014 -1.9830 0.9843
3.0212 -1.6401 -1.9847 0.9842
1.8578 -0.8031 -1.1685 0.9907
1.9058 -0.6288 -1.1587 0.9908
2.0308 -0.2863 -1.1841 0.9906
2.0337 0.2615 -1.1838 0.9906
1.9857 0.4383 -1.1740 0.9907
1.8612 0.7778 -1.1646 0.9907
2.9251 1.8935 -2.0118 0.9840
2.7476 2.1493 -2.0140 0.9840
2.5476 2.3884 -2.0162 0.9840
2.3268 2.6088 -2.0182 0.9840
2.0868 2.8086 -2.0202 0.9840
1.5572 3.1401 -2.0236 0.9839
1.2718 3.2688 -2.0251 0.9839
0.9758 3.3714 -2.0264 0.9839
0.3615 3.4946 -2.0284 0.9839
0.0484 3.5141 -2.0291 0.9839
-0.2653 3.5052 -2.0295 0.9839
-1.4743 3.1906 -2.0292 0.9839
-1.7524 3.0455 -2.0286 0.9839
-0.8029 0.5517 -0.5624 0.9955
-0.8475 0.4771 -0.5615 0.9955
-0.9043 0.3139 -0.5526 0.9956
-0.9532 -0.1077 -0.5538 0.9956
-0.9381 -0.1920 -0.5528 0.9956
-0.9132 -0.2737 -0.5504 0.9956
-0.8971 -0.3588 -0.5578 0.9955
-0.8664 -0.4399 -0.5610 0.9955
-2.5495 -2.3175 -1.9892 0.9842
-2.3303 -2.5331 -1.9872 0.9842
-2.0930 -2.7283 -1.9853 0.9842
-1.2928 -3.1774 -1.9805 0.9843
-0.4048 -3.4007 -1.9773 0.9843
0.2058 -3.4165 -1.9761 0.9843
0.8095 -3.3250 -1.9757 0.9843
1.6618 -2.9936 -1.9768 0.9843
1.9230 -2.8345 -1.9775 0.9843
2.1692 -2.6529 -1.9785 0.9843
2.3986 -2.4503 -1.9796 0.9843
2.9684 -1.7317 -1.9841 0.9843
3.1139 -1.4613 -1.9859 0.9842
1.8746 -0.6831 -1.1519 0.9908
1.9546 -0.5202 -1.1678 0.9907
3.1260 1.5271 -2.0086 0.9841
2.9808 1.8020 -2.0110 0.9840
2.8113 2.0630 -2.0132 0.9840
2.6189 2.3081 -2.0154 0.9840
2.4051 2.5351 -2.0175 0.9840
1.9200 2.9277 -2.0214 0.9840
1.6526 3.0899 -2.0231 0.9839
1.3714 3.2274 -2.0246 0.9839
0.1564 3.5106 -2.0289 0.9839
-0.1574 3.5115 -2.0294 0.9839
-0.7790 3.4284 -2.0298 0.9839
-1.0817 3.3451 -2.0297 0.9839
-1.3755 3.2347 -2.0294 0.9839
-2.1804 2.7520 -2.0271 0.9839
-2.6315 2.3179 -2.0246 0.9839
-0.7891 0.5788 -0.5650 0.9955
-0.8999 0.3437 -0.5561 0.9956
-0.9183 0.2596 -0.5510 0.9956
-0.9572 0.0072 -0.5527 0.9956
-0.9558 -0.0783 -0.5537 0.9956
-0.9229 -0.2459 -0.5514 0.9956
-0.8784 -0.4125 -0.5603 0.9955
-0.8400 -0.4903 -0.5615 0.9955
-2.6205 -2.2388 -1.9899 0.9842
-2.4079 -2.4611 -1.9879 0.9842
-2.1766 -2.6635 -1.9859 0.9842
-1.9286 -2.8444 -1.9841 0.9843
-1.6658 -3.0026 -1.9825 0.9843
-1.3903 -3.1369 -1.9810 0.9843
-1.1042 -3.2462 -1.9797 0.9843
-0.5092 -3.3872 -1.9776 0.9843
-0.2050 -3.4178 -1.9768 0.9843
0.1007 -3.4215 -1.9762 0.9843
1.0028 -3.2720 -1.9758 0.9843
1.2908 -3.1699 -1.9761 0.9843
1.8346 -2.8918 -1.9773 0.9843
2.3216 -2.5223 -1.9792 0.9843
2.5390 -2.3067 -1.9805 0.9843
