ply
format ascii 1.0
element vertex 1564
property float32 x
property float32 y
property float32 z
property float32 I
end_header
7.6967 11.6452 -0.7079 0.9456
5.6393 17.2680 -0.9212 0.9298
0.1030 11.0772 -0.8122 0.9565
-0.8921 11.1057 -0.8169 0.9563
-3.3866 12.7787 -0.9693 0.9484
3.4522 11.2032 -0.8596 0.9541
3.2757 15.4098 -1.1551 0.9388
0.3764 12.3198 -0.9037 0.9518
-1.6185 10.8281 -0.8028 0.9570
-2.9864 12.3195 -0.9295 0.9504
0.6530 12.5983 -0.9250 0.9507
-1.3628 10.6624 -0.7881 0.9578
-2.6178 11.8969 -0.8932 0.9523
-8.3890 10.7232 -0.9983 0.9469
6.5101 18.3227 -1.4257 0.9250
2.3459 14.3107 -1.0633 0.9435
0.9430 12.8908 -0.9477 0.9495
-1.1541 10.8586 -0.8007 0.9571
-2.2815 11.5304 -0.8618 0.9540
-3.9207 13.3921 -1.0232 0.9456
-6.2943 16.0256 -1.2624 0.9333
3.1572 11.2686 -0.8581 0.9541
2.7320 14.7027 -1.0965 0.9418
0.0529 11.0102 -0.8073 0.9568
-5.6552 15.3486 -1.1994 0.9365
10.6596 -2.6581 -0.8055 0.9569
3.3950 11.1962 -0.8578 0.9542
3.1858 15.3250 -1.1477 0.9392
1.5690 13.5234 -0.9982 0.9469
0.3195 12.2625 -0.8994 0.9520
-1.6780 10.8911 -0.8080 0.9568
-5.0686 14.7126 -1.1410 0.9395
-7.9804 17.8114 -1.4311 0.9247
7.6955 11.6434 -1.0233 0.9456
5.7464 17.5959 -1.3572 0.9284
0.1030 11.0763 -1.0634 0.9565
-3.4473 13.0078 -1.2919 0.9474
-14.5642 -13.4532 -1.9035 0.9234
-13.2346 -14.6237 -1.8935 0.9238
-10.3268 -16.5943 -1.8764 0.9245
-7.1585 -18.0403 -1.8633 0.9250
1.3385 -19.2184 -1.8495 0.9255
4.7431 -18.6968 -1.8518 0.9254
11.0973 -16.0045 -1.8697 0.9247
12.5303 -15.0061 -1.8769 0.9244
13.8806 -13.8866 -1.8850 0.9241
15.1383 -12.6517 -1.8941 0.9238
19.1750 3.8552 -1.8777 0.9244
0.3830 12.5366 -1.2041 0.9508
-0.6792 11.5158 -1.1075 0.9547
-1.6525 11.0560 -1.0732 0.9561
-3.0517 12.5888 -1.2436 0.9493
-4.9095 14.4612 -1.4662 0.9405
-12.1620 -15.4348 -1.8866 0.9241
-9.1448 -17.2091 -1.8709 0.9247
-7.5454 -17.8971 -1.8647 0.9249
-5.8998 -18.4478 -1.8594 0.9251
-4.2187 -18.8590 -1.8553 0.9253
-2.5130 -19.1292 -1.8523 0.9254
-0.7932 -19.2572 -1.8503 0.9255
4.3438 -18.7882 -1.8513 0.9254
6.0132 -18.3504 -1.8539 0.9253
7.6437 -17.7751 -1.8576 0.9252
10.7460 -16.2233 -1.8682 0.9248
13.5680 -14.1631 -1.8830 0.9242
16.0291 -11.6366 -1.9016 0.9235
19.2188 3.4410 -1.8744 0.9245
18.9740 5.1823 -1.8883 0.9240
7.6918 11.5247 -1.3302 0.9458
2.9531 12.5730 -1.2399 0.9494
1.9992 14.0602 -1.3634 0.9445
0.6635 12.8010 -1.2306 0.9498
-4.4433 14.0625 -1.4159 0.9425
-8.3490 10.6721 -1.3009 0.9470
-12.5011 -15.1900 -1.8887 0.9240
-7.9298 -17.7460 -1.8661 0.9249
-6.2942 -18.3296 -1.8606 0.9251
-4.6205 -18.7741 -1.8562 0.9252
-2.9197 -19.0779 -1.8529 0.9254
0.5211 -19.2590 -1.8496 0.9255
3.9428 -18.8716 -1.8509 0.9255
7.2606 -17.9240 -1.8566 0.9252
10.3908 -16.4348 -1.8667 0.9248
13.2503 -14.4330 -1.8810 0.9243
16.8561 -10.5615 -1.9097 0.9232
18.6806 6.4997 -1.8989 0.9236
6.5081 18.3171 -1.8662 0.9249
0.9567 13.0774 -1.2589 0.9487
-0.1785 10.8614 -1.0429 0.9573
-1.1708 11.0151 -1.0635 0.9565
-6.2924 16.0207 -1.6524 0.9332
-8.3114 -17.5873 -1.8675 0.9248
-6.6864 -18.2035 -1.8618 0.9250
-5.0208 -18.6812 -1.8571 0.9252
-3.3254 -19.0185 -1.8536 0.9253
-1.6109 -19.2141 -1.8511 0.9254
0.1120 -19.2673 -1.8498 0.9255
1.8326 -19.1781 -1.8496 0.9255
12.9277 -14.6962 -1.8791 0.9244
19.1100 4.3566 -1.8817 0.9243
18.7819 6.0910 -1.8956 0.9237
3.0921 8.1498 -0.8368 0.9656
-2.0205 11.4878 -1.1198 0.9542
-5.6536 15.3442 -1.5699 0.9364
-14.4996 -13.5149 -1.9030 0.9234
-10.2500 -16.6372 -1.8760 0.9245
-8.6901 -17.4209 -1.8690 0.9248
-5.4194 -18.5805 -1.8581 0.9252
-3.7301 -18.9513 -1.8543 0.9253
-2.0192 -19.1806 -1.8516 0.9254
-0.2973 -19.2676 -1.8500 0.9255
1.4249 -19.2122 -1.8495 0.9255
4.8274 -18.6765 -1.8520 0.9254
6.4867 -18.1989 -1.8549 0.9253
8.1041 -17.5844 -1.8588 0.9251
11.1711 -15.9573 -1.8701 0.9247
12.6002 -14.9527 -1.8773 0.9244
13.9461 -13.8273 -1.8854 0.9241
15.1989 -12.5867 -1.8946 0.9238
19.1646 3.9428 -1.8784 0.9244
18.8742 5.6808 -1.8923 0.9239
3.3885 11.1747 -1.1211 0.9542
3.1850 15.3213 -1.5024 0.9391
1.5861 13.6708 -1.3213 0.9462
0.3252 12.4821 -1.1988 0.9511
-1.7146 11.1287 -1.0810 0.9558
-3.1329 12.6747 -1.2535 0.9489
-13.4904 -14.4137 -1.8953 0.9237
-9.0657 -17.2469 -1.8706 0.9247
-7.4637 -17.9280 -1.8644 0.9249
-2.4268 -19.1389 -1.8521 0.9254
-0.7066 -19.2598 -1.8503 0.9255
1.0164 -19.2382 -1.8495 0.9255
4.4284 -18.7695 -1.8514 0.9254
6.0961 -18.3248 -1.8541 0.9253
7.7244 -17.7426 -1.8578 0.9252
10.8206 -16.1775 -1.8685 0.9248
12.2680 -15.2024 -1.8755 0.9245
13.6346 -14.1051 -1.8834 0.9242
14.9104 -12.8913 -1.8923 0.9239
16.0856 -11.5675 -1.9021 0.9235
1.3304 13.4271 -1.6028 0.9471
-0.9090 11.3164 -1.3486 0.9553
-1.9570 11.4275 -1.3772 0.9544
-3.4465 13.0046 -1.5981 0.9472
-5.5249 15.2052 -1.9217 0.9369
-7.0419 15.0366 -1.9723 0.9353
-10.6786 12.5160 -1.9543 0.9359
-12.6708 12.4098 -2.1067 0.9311
-16.7125 4.0589 -2.0429 0.9331
-16.8878 -0.5087 -2.0069 0.9342
-16.3330 -3.4647 -1.9833 0.9350
-15.2803 -6.2443 -1.9608 0.9357
-14.5819 -7.5433 -1.9502 0.9360
-10.8088 -11.9433 -1.9134 0.9372
-5.8635 -14.7768 -1.8884 0.9380
-4.5101 -15.2083 -1.8843 0.9381
-3.1280 -15.5238 -1.8811 0.9382
-1.7265 -15.7219 -1.8788 0.9383
1.0978 -15.7629 -1.8769 0.9383
2.5023 -15.6059 -1.8774 0.9383
5.2502 -14.9416 -1.8812 0.9382
9.0841 -13.1012 -1.8937 0.9378
10.2501 -12.2754 -1.8996 0.9376
11.3458 -11.3506 -1.9064 0.9374
12.3629 -10.3322 -1.9139 0.9372
13.2935 -9.2260 -1.9221 0.9369
15.4916 -5.4509 -1.9508 0.9360
16.3951 -2.6360 -1.9725 0.9353
16.6613 -1.1676 -1.9840 0.9349
15.5878 1.7050 -1.8627 0.9388
16.4001 4.8559 -2.0317 0.9334
15.4519 7.7865 -2.0553 0.9327
13.0396 11.7907 -2.0882 0.9316
10.2569 13.3053 -1.9956 0.9346
7.5939 14.6643 -1.9616 0.9356
3.1137 14.6474 -1.7788 0.9415
1.6561 13.7341 -1.6432 0.9458
0.3830 12.5342 -1.4896 0.9507
-0.6802 11.5320 -1.3722 0.9545
-1.6612 11.1143 -1.3349 0.9557
-4.9081 14.4572 -1.8136 0.9404
-6.7245 15.1909 -1.9734 0.9353
-12.4165 12.6885 -2.1088 0.9310
-13.4428 11.4793 -2.0998 0.9313
-14.3477 10.1850 -2.0901 0.9316
-15.7688 7.3930 -2.0688 0.9323
-16.2765 5.9220 -2.0574 0.9326
-16.6455 4.4190 -2.0457 0.9330
-16.8750 2.8974 -2.0338 0.9334
-13.9779 -8.4858 -1.9424 0.9363
-13.0984 -9.6523 -1.9327 0.9366
-9.9395 -12.6142 -1.9077 0.9374
-8.7413 -13.4033 -1.9008 0.9376
-4.8344 -15.1163 -1.8852 0.9381
-2.0606 -15.6855 -1.8792 0.9383
-0.6505 -15.7934 -1.8776 0.9383
0.7628 -15.7828 -1.8770 0.9383
4.9300 -15.0446 -1.8806 0.9382
6.2645 -14.5677 -1.8836 0.9381
12.1289 -10.5822 -1.9120 0.9372
14.7000 -7.0833 -1.9383 0.9364
15.3529 -5.7714 -1.9483 0.9361
15.8927 -4.4004 -1.9589 0.9357
16.3133 -2.9796 -1.9699 0.9354
16.6097 -1.5191 -1.9812 0.9350
15.5656 -0.0272 -1.8490 0.9392
15.5983 1.3717 -1.8600 0.9389
15.5058 2.7762 -1.8712 0.9385
16.0855 4.3934 -1.9807 0.9350
15.5928 7.4465 -2.0526 0.9328
14.9485 8.8591 -2.0641 0.9324
14.1731 10.2138 -2.0752 0.9320
11.0938 13.7755 -2.1010 0.9312
6.5922 15.1836 -1.9662 0.9355
5.2232 15.7535 -1.9715 0.9353
2.9561 12.5856 -1.5357 0.9493
1.9987 14.0570 -1.6866 0.9444
-0.4431 11.7556 -1.3974 0.9537
-2.6838 12.1971 -1.4835 0.9509
-6.4036 15.3380 -1.9743 0.9352
-7.7303 14.6705 -1.9698 0.9354
-8.3282 10.6455 -1.6055 0.9470
-13.2098 11.7746 -2.1020 0.9312
-14.9521 9.1488 -2.0822 0.9318
-15.6281 7.7361 -2.0714 0.9322
-16.1684 6.2747 -2.0601 0.9325
-16.5705 4.7781 -2.0485 0.9329
-16.8331 3.2597 -2.0367 0.9333
-16.9422 0.2095 -2.0126 0.9340
-16.5114 -2.7757 -1.9888 0.9348
-16.1031 -4.2149 -1.9773 0.9351
-15.5730 -5.6046 -1.9660 0.9355
-14.9272 -6.9349 -1.9552 0.9358
-13.3158 -9.3828 -1.9350 0.9365
-12.3653 -10.4847 -1.9258 0.9368
-10.2145 -12.4116 -1.9094 0.9373
-7.7881 -13.9335 -1.8961 0.9377
-6.4936 -14.5319 -1.8907 0.9379
-5.1569 -15.0177 -1.8861 0.9380
-3.7873 -15.3885 -1.8825 0.9382
1.8369 -15.6951 -1.8771 0.9383
3.2334 -15.4764 -1.8781 0.9383
4.6078 -15.1412 -1.8800 0.9382
5.9511 -14.6911 -1.8828 0.9381
7.2542 -14.1288 -1.8866 0.9380
10.8347 -11.8018 -1.9031 0.9375
11.8902 -10.8271 -1.9102 0.9373
12.8629 -9.7618 -1.9181 0.9370
14.5290 -7.3851 -1.9360 0.9365
15.2079 -6.0886 -1.9459 0.9361
15.7751 -4.7308 -1.9563 0.9358
16.2245 -3.3210 -1.9672 0.9355
15.5397 -0.3573 -1.8464 0.9393
15.6018 1.0386 -1.8574 0.9390
15.5392 2.4428 -1.8685 0.9386
15.5869 3.9034 -1.9087 0.9373
15.7262 7.1041 -2.0498 0.9329
15.1135 8.5285 -2.0614 0.9325
11.3947 13.5498 -2.1030 0.9312
9.4068 13.4659 -1.9512 0.9360
5.5534 15.6299 -1.9703 0.9354
4.1371 16.0723 -1.9714 0.9353
-1.1760 11.0646 -1.3217 0.9562
-2.3418 11.8349 -1.4331 0.9526
-3.9693 13.5582 -1.6781 0.9447
-6.0792 15.4778 -1.9753 0.9352
-7.4214 14.8403 -1.9710 0.9353
-9.8853 13.2044 -1.9593 0.9357
-10.9851 12.2236 -1.9522 0.9359
-14.7720 9.4755 -2.0847 0.9317
-15.4798 8.0764 -2.0740 0.9321
-16.9398 2.0952 -2.0275 0.9336
-16.9579 0.5701 -2.0155 0.9339
-16.2113 -3.8773 -1.9800 0.9351
-15.7096 -5.2797 -1.9686 0.9354
-15.0906 -6.6249 -1.9577 0.9358
-13.5280 -9.1086 -1.9372 0.9364
-12.5990 -10.2311 -1.9279 0.9367
-11.5822 -11.2646 -1.9192 0.9370
-10.4856 -12.2032 -1.9112 0.9372
-8.0882 -13.7751 -1.8975 0.9377
-6.8051 -14.3999 -1.8919 0.9379
0.0918 -15.8026 -1.8772 0.9383
2.9035 -15.5390 -1.8778 0.9383
4.2840 -15.2312 -1.8795 0.9383
5.6355 -14.8082 -1.8821 0.9382
6.9489 -14.2724 -1.8856 0.9381
8.2154 -13.6265 -1.8901 0.9379
9.4262 -12.8740 -1.8954 0.9377
11.6468 -11.0670 -1.9084 0.9373
12.6398 -10.0226 -1.9162 0.9371
15.0566 -6.4023 -1.9435 0.9362
15.5069 -0.6863 -1.8438 0.9394
15.5983 0.7060 -1.8548 0.9390
15.5655 2.1092 -1.8659 0.9387
15.2710 8.1947 -2.0587 0.9326
12.7496 12.1393 -2.0911 0.9315
11.6678 13.2909 -2.1008 0.9312
9.6815 13.2505 -1.9493 0.9360
7.2207 14.8685 -1.9634 0.9356
3.1948 11.4028 -1.4067 0.9534
2.7422 14.7577 -1.7830 0.9413
-2.0220 11.4964 -1.3866 0.9541
-5.6519 15.3397 -1.9419 0.9363
-7.1086 15.0031 -1.9721 0.9353
-8.3987 14.2710 -1.9670 0.9355
-10.7327 12.4655 -1.9540 0.9359
-12.7238 12.3501 -2.1063 0.9311
-13.7159 11.1151 -2.0971 0.9314
-15.3238 8.4138 -2.0766 0.9320
-15.9290 6.9739 -2.0655 0.9324
-16.3969 5.4923 -2.0541 0.9327
-16.9152 2.4580 -2.0304 0.9335
-16.9660 0.9315 -2.0184 0.9338
-16.6611 -2.0778 -1.9944 0.9346
-15.8395 -4.9515 -1.9713 0.9353
-15.2479 -6.3112 -1.9602 0.9357
-13.7348 -8.8297 -1.9396 0.9363
-11.8311 -11.0276 -1.9212 0.9369
-10.7527 -11.9893 -1.9130 0.9372
-8.3854 -13.6107 -1.8990 0.9376
-7.1141 -14.2616 -1.8932 0.9378
-4.4412 -15.2269 -1.8841 0.9381
-3.0580 -15.5366 -1.8809 0.9382
-0.2438 -15.8025 -1.8773 0.9383
1.1687 -15.7578 -1.8769 0.9383
3.9585 -15.3148 -1.8790 0.9383
5.3177 -14.9190 -1.8814 0.9382
6.6409 -14.4097 -1.8847 0.9381
9.1443 -13.0621 -1.8940 0.9378
11.3988 -11.3017 -1.9067 0.9374
13.3379 -9.1682 -1.9226 0.9369
16.4115 -2.5631 -1.9731 0.9353
15.5877 0.3740 -1.8521 0.9391
15.4557 3.1798 -1.8744 0.9384
16.3829 4.9310 -2.0323 0.9334
15.9699 6.4123 -2.0442 0.9330
15.4211 7.8581 -2.0559 0.9327
14.7387 9.2553 -2.0673 0.9323
11.9348 13.0262 -2.0986 0.9313
4.8193 15.8933 -1.9728 0.9353
3.0308 14.5793 -1.7688 0.9418
1.5858 13.6678 -1.6344 0.9461
0.3251 12.4797 -1.4829 0.9510
-0.7293 11.4858 -1.3671 0.9547
-1.7223 11.1790 -1.3436 0.9555
-5.0738 14.7276 -1.8503 0.9392
-6.7919 15.1588 -1.9731 0.9353
-9.3303 13.6338 -1.9624 0.9356
-12.4709 12.6300 -2.1084 0.9310
-16.6603 4.3429 -2.0451 0.9330
-16.8828 2.8206 -2.0332 0.9334
-16.9664 1.2934 -2.0212 0.9338
-16.7250 -1.7258 -1.9972 0.9345
-16.4068 -3.1941 -1.9855 0.9349
-14.7209 -7.3054 -1.9521 0.9359
-13.9361 -8.5463 -1.9419 0.9363
-7.4205 -14.1170 -1.8945 0.9378
-6.1129 -14.6833 -1.8893 0.9379
-4.7659 -15.1363 -1.8850 0.9381
-0.5795 -15.7957 -1.8776 0.9383
3.6315 -15.3918 -1.8785 0.9383
7.6203 -13.9467 -1.8878 0.9380
11.1464 -11.5310 -1.9050 0.9374
13.1263 -9.4394 -1.9205 0.9369
13.9809 -8.2668 -1.9293 0.9367
16.6212 -1.4448 -1.9818 0.9350
15.5967 1.4422 -1.8606 0.9389
16.0804 6.0633 -2.0414 0.9331
14.1308 10.2801 -2.0757 0.9320
13.2230 11.5601 -2.0863 0.9317
7.8335 14.5260 -1.9604 0.9357
0.1030 11.0741 -1.5692 0.9562
-0.9088 11.3143 -1.6083 0.9552
-1.9566 11.4251 -1.6424 0.9543
-4.7114 12.9664 -1.9547 0.9458
-6.9172 11.8756 -1.9473 0.9460
-7.9303 11.1817 -1.9423 0.9461
-8.8715 10.3979 -1.9366 0.9463
-10.5336 10.3166 -2.0891 0.9422
-12.1093 8.2149 -2.0733 0.9426
-13.2628 5.8778 -2.0555 0.9431
-13.6714 4.6478 -2.0460 0.9433
-14.2047 0.8439 -2.0162 0.9441
-13.3340 -4.1025 -1.9767 0.9452
-11.6088 -7.3895 -1.9498 0.9459
-10.0275 -9.2625 -1.9342 0.9463
-9.1269 -10.0849 -1.9272 0.9465
-7.1416 -11.4760 -1.9152 0.9469
-4.9612 -12.5029 -1.9059 0.9471
-2.6483 -13.1428 -1.8996 0.9473
0.9297 -13.3497 -1.8961 0.9474
2.1191 -13.2162 -1.8965 0.9474
3.2935 -12.9825 -1.8977 0.9473
5.5653 -12.2201 -1.9026 0.9472
6.6472 -11.6959 -1.9061 0.9471
8.6648 -10.3769 -1.9155 0.9468
10.4388 -8.7241 -1.9276 0.9465
11.2171 -7.7848 -1.9346 0.9463
11.9142 -6.7781 -1.9422 0.9461
12.5242 -5.7104 -1.9503 0.9459
13.0414 -4.5887 -1.9589 0.9457
10.4888 -2.6657 -1.5334 0.9572
12.7827 -2.0552 -1.8344 0.9490
13.0622 1.4288 -1.8618 0.9483
13.3637 5.2962 -2.0368 0.9436
11.6409 8.7705 -2.0651 0.9428
10.8562 9.8165 -2.0738 0.9426
9.9749 10.7893 -2.0820 0.9424
7.3458 11.5294 -1.9370 0.9463
5.2050 12.7215 -1.9475 0.9460
4.0562 13.1633 -1.9516 0.9459
2.8688 13.4954 -1.9549 0.9458
1.6538 13.7145 -1.9573 0.9457
-0.6801 11.5299 -1.6365 0.9544
-1.6609 11.1121 -1.5920 0.9556
-3.0503 12.5829 -1.8345 0.9490
-5.5773 12.5994 -1.9523 0.9459
-6.6671 12.0263 -1.9483 0.9460
-11.1816 9.5483 -2.0834 0.9423
-12.6009 7.3469 -2.0667 0.9428
-13.1490 6.1648 -2.0577 0.9430
-13.9057 3.6917 -2.0385 0.9435
-14.1110 2.4228 -2.0286 0.9438
-14.1751 -0.1258 -2.0085 0.9443
-14.0368 -1.3847 -1.9985 0.9446
-13.7884 -2.6201 -1.9886 0.9449
-13.4334 -3.8228 -1.9789 0.9451
-12.9762 -4.9838 -1.9695 0.9454
-11.7752 -7.1485 -1.9518 0.9459
-10.2311 -9.0556 -1.9359 0.9463
-9.3468 -9.8970 -1.9288 0.9465
-8.3968 -10.6564 -1.9223 0.9467
-6.3299 -11.9119 -1.9113 0.9470
-5.2282 -12.4009 -1.9068 0.9471
-4.0915 -12.7935 -1.9031 0.9472
-0.5509 -13.3749 -1.8967 0.9474
1.8378 -13.2571 -1.8963 0.9474
3.0164 -13.0470 -1.8974 0.9473
4.1740 -12.7376 -1.8992 0.9473
6.3943 -11.8288 -1.9052 0.9471
9.3730 -9.7841 -1.9198 0.9467
11.0394 -8.0142 -1.9329 0.9464
12.9273 -4.8596 -1.9568 0.9457
12.4047 -3.4346 -1.8237 0.9493
13.9945 2.5056 -2.0144 0.9442
13.4577 5.0054 -2.0344 0.9436
13.0192 6.2174 -2.0442 0.9434
12.4697 7.3901 -2.0538 0.9431
11.8124 8.5125 -2.0630 0.9429
10.1925 10.5655 -2.0801 0.9424
9.2420 11.4761 -2.0878 0.9422
7.5834 11.3623 -1.9355 0.9463
5.4710 12.6010 -1.9464 0.9460
4.3329 13.0681 -1.9507 0.9459
2.9670 12.6319 -1.8385 0.9489
-1.3884 10.8623 -1.5516 0.9567
-2.6832 12.1943 -1.7691 0.9508
-4.1592 13.1633 -1.9560 0.9458
-5.3107 12.7203 -1.9531 0.9458
-6.4135 12.1715 -1.9493 0.9459
-8.3073 10.6189 -1.9103 0.9470
-11.7719 8.7384 -2.0773 0.9425
-12.4545 7.6206 -2.0688 0.9427
-13.4916 5.2359 -2.0505 0.9432
-13.8400 3.9908 -2.0409 0.9435
-14.0727 2.7251 -2.0310 0.9437
-14.1896 1.4498 -2.0210 0.9440
-14.1914 0.1755 -2.0109 0.9443
-13.8572 -2.3295 -1.9910 0.9448
-13.0938 -4.7123 -1.9717 0.9453
-12.5618 -5.8360 -1.9626 0.9456
-10.4307 -8.8444 -1.9377 0.9462
-8.6279 -10.4837 -1.9238 0.9466
-7.6329 -11.1776 -1.9178 0.9468
-6.5855 -11.7820 -1.9125 0.9469
-4.3642 -12.7091 -1.9040 0.9472
-3.2061 -13.0268 -1.9008 0.9472
-2.0270 -13.2448 -1.8985 0.9473
-0.8349 -13.3619 -1.8969 0.9473
1.5557 -13.2922 -1.8962 0.9474
2.7382 -13.1059 -1.8971 0.9473
5.0376 -12.4361 -1.9011 0.9472
9.1565 -9.9738 -1.9184 0.9468
11.5937 -7.2642 -1.9385 0.9462
12.2458 -6.2246 -1.9464 0.9460
12.8077 -5.1276 -1.9547 0.9458
12.8979 -1.4564 -1.8391 0.9489
13.0403 -0.2998 -1.8482 0.9487
13.7283 2.1581 -1.9690 0.9454
13.8437 3.4669 -2.0221 0.9440
11.9780 8.2511 -2.0608 0.9429
10.4051 10.3371 -2.0782 0.9425
9.4756 11.2677 -2.0860 0.9423
6.8070 11.8803 -1.9400 0.9462
5.7340 12.4747 -1.9453 0.9460
2.9281 8.2411 -1.2392 0.9653
0.9563 13.0720 -1.8571 0.9484
-3.8798 13.2524 -1.9565 0.9457
-5.0413 12.8352 -1.9539 0.9458
-6.1566 12.3111 -1.9503 0.9459
-7.2156 11.6856 -1.9459 0.9460
-9.1278 10.1569 -1.9349 0.9463
-11.5945 8.9948 -2.0792 0.9424
-12.9026 6.7318 -2.0620 0.9429
-13.3920 5.5273 -2.0528 0.9431
-14.1164 -0.7893 -2.0033 0.9445
-13.6150 -3.2563 -1.9835 0.9450
-12.6968 -5.5740 -1.9647 0.9455
-12.0932 -6.6558 -1.9559 0.9458
-11.4009 -7.6764 -1.9474 0.9460
-10.6261 -8.6289 -1.9395 0.9462
-7.8742 -11.0208 -1.9191 0.9468
-3.4832 -12.9603 -1.9015 0.9472
-2.3084 -13.2021 -1.8990 0.9473
2.4589 -13.1592 -1.8968 0.9474
4.7707 -12.5360 -1.9005 0.9473
5.8809 -12.0788 -1.9035 0.9472
8.9363 -10.1589 -1.9171 0.9468
10.6610 -2.4192 -1.5490 0.9568
13.0158 -0.5760 -1.8460 0.9487
13.3783 1.8129 -1.9129 0.9469
13.8978 3.1683 -2.0197 0.9440
13.6264 4.4190 -2.0297 0.9438
12.7443 6.8388 -2.0493 0.9432
12.1377 7.9864 -2.0587 0.9430
11.4254 9.0783 -2.0677 0.9427
9.7043 11.0543 -2.0842 0.9423
8.4785 11.6040 -2.0363 0.9436
5.9940 12.3426 -1.9441 0.9461
3.0718 8.0961 -1.2269 0.9656
2.5215 13.5702 -1.9557 0.9458
-0.9562 11.2696 -1.6025 0.9553
-2.0216 11.4940 -1.6536 0.9539
-3.5334 13.0943 -1.9217 0.9467
-4.7693 12.9441 -1.9546 0.9458
-5.8965 12.4450 -1.9512 0.9459
-6.9697 11.8429 -1.9470 0.9460
-8.9167 10.3563 -1.9363 0.9463
-10.5780 10.2673 -2.0887 0.9422
-11.4112 9.2475 -2.0811 0.9424
-13.2860 5.8168 -2.0550 0.9431
-14.2048 0.7799 -2.0157 0.9441
-13.9765 -1.7430 -1.9957 0.9447
-13.6970 -2.9699 -1.9858 0.9450
-12.8264 -5.3089 -1.9669 0.9455
-12.2448 -6.4042 -1.9579 0.9457
-11.5730 -7.4400 -1.9494 0.9459
-9.9838 -9.3058 -1.9338 0.9464
-9.0799 -10.1240 -1.9269 0.9465
-6.0170 -12.0623 -1.9099 0.9470
-4.9045 -12.5238 -1.9057 0.9471
-3.7591 -12.8883 -1.9022 0.9472
-2.5890 -13.1538 -1.8995 0.9473
-1.4021 -13.3189 -1.8976 0.9473
0.9898 -13.3454 -1.8961 0.9474
5.6207 -12.1960 -1.9027 0.9472
6.7004 -11.6671 -1.9063 0.9471
8.7126 -10.3393 -1.9157 0.9468
9.6303 -9.5483 -1.9215 0.9467
11.2541 -7.7358 -1.9350 0.9463
13.0648 -4.5311 -1.9593 0.9457
10.4771 -2.6126 -1.5300 0.9573
12.9854 -0.8513 -1.8438 0.9488
13.0741 0.3137 -1.8530 0.9485
13.9454 2.8690 -2.0173 0.9441
12.2914 7.7186 -2.0565 0.9431
10.8142 9.8672 -2.0742 0.9426
8.9364 11.7007 -2.0861 0.9423
7.2950 11.5641 -1.9373 0.9463
3.9974 13.1826 -1.9518 0.9459
2.8083 13.5092 -1.9550 0.9458
0.3251 12.4772 -1.7685 0.9508
-4.4948 13.0470 -1.9552 0.9458
-5.6333 12.5730 -1.9521 0.9459
-6.7203 11.9949 -1.9481 0.9460
-11.2222 9.4962 -2.0830 0.9423
-12.6310 7.2887 -2.0663 0.9428
-13.1736 6.1042 -2.0572 0.9430
-14.1708 -0.1894 -2.0080 0.9444
-13.4129 -3.8822 -1.9785 0.9452
-12.9506 -5.0409 -1.9691 0.9454
-11.7404 -7.1998 -1.9514 0.9459
-9.3005 -9.9371 -1.9285 0.9465
-7.3366 -11.3608 -1.9162 0.9468
-6.2755 -11.9388 -1.9111 0.9470
-5.1719 -12.4229 -1.9066 0.9471
-4.0336 -12.8106 -1.9030 0.9472
-2.8687 -13.0998 -1.9001 0.9473
1.8974 -13.2489 -1.8964 0.9474
3.0751 -13.0338 -1.8975 0.9473
4.2314 -12.7195 -1.8993 0.9473
6.4480 -11.8011 -1.9054 0.9471
7.4929 -11.2024 -1.9096 0.9470
11.0774 -7.9660 -1.9332 0.9464
12.4169 -5.9145 -1.9487 0.9460
12.9519 -4.8024 -1.9572 0.9457
12.4229 -3.3796 -1.8242 0.9493
13.0624 0.0359 -1.8508 0.9486
13.9866 2.5691 -2.0149 0.9442
13.4383 5.0670 -2.0349 0.9436
12.4392 7.4477 -2.0543 0.9431
10.1469 10.6133 -2.0805 0.9424
6.5044 12.0614 -1.9416 0.9461
5.4149 12.6270 -1.9467 0.9460
4.2745 13.0888 -1.9509 0.9459
1.1622 11.7299 -1.9418 0.9533
0.1030 11.0735 -1.8244 0.9561
-3.0190 11.3913 -1.9414 0.9533
-5.9059 10.1392 -1.9330 0.9535
-7.5804 8.8847 -1.9240 0.9538
-9.0049 8.8195 -2.0764 0.9502
-9.7266 7.9549 -2.0700 0.9503
-10.3633 7.0305 -2.0630 0.9505
-12.2052 0.7251 -2.0142 0.9516
-12.0355 -1.4460 -1.9970 0.9520
-11.4887 -3.5348 -1.9802 0.9524
-11.0816 -4.5285 -1.9721 0.9526
-9.3775 -7.2226 -1.9499 0.9531
-8.6655 -8.0045 -1.9434 0.9533
-7.8911 -8.7194 -1.9373 0.9534
-7.0604 -9.3628 -1.9318 0.9536
-6.1799 -9.9306 -1.9269 0.9537
-5.2561 -10.4194 -1.9225 0.9538
-4.2959 -10.8263 -1.9188 0.9539
-3.3062 -11.1489 -1.9157 0.9540
-2.2941 -11.3854 -1.9133 0.9540
-1.2667 -11.5344 -1.9116 0.9540
-0.2310 -11.5952 -1.9106 0.9541
1.8362 -11.4515 -1.9106 0.9541
2.8535 -11.2480 -1.9117 0.9540
5.7557 -10.1273 -1.9190 0.9539
9.0252 -7.5427 -1.9377 0.9534
9.6933 -6.7273 -1.9438 0.9533
10.8109 -4.9292 -1.9574 0.9530
10.4381 -3.6728 -1.8229 0.9561
10.3846 -2.6392 -1.7651 0.9575
11.1742 -0.7830 -1.8453 0.9556
11.7010 0.2281 -1.9280 0.9537
11.9898 2.4106 -2.0147 0.9516
11.7766 3.4869 -2.0233 0.9514
11.0595 5.5731 -2.0402 0.9510
10.5591 6.5648 -2.0483 0.9508
9.9682 7.5103 -2.0561 0.9507
7.6968 9.9843 -2.0768 0.9502
6.2766 9.8513 -1.9243 0.9538
5.3848 10.3984 -1.9291 0.9536
3.3437 8.1723 -1.4546 0.9648
1.4108 11.7004 -1.9415 0.9533
0.3601 11.7872 -1.9427 0.9533
-4.7600 10.7531 -1.9373 0.9534
-5.6918 10.2671 -1.9339 0.9535
-6.5726 9.6973 -1.9299 0.9536
-9.5627 8.1660 -2.0716 0.9503
-11.2654 5.2816 -2.0497 0.9508
-11.9296 3.1671 -2.0334 0.9512
-12.1141 2.0799 -2.0249 0.9514
-12.1994 0.9852 -2.0163 0.9516
-11.8703 -2.2557 -1.9905 0.9522
-11.5725 -3.2932 -1.9821 0.9524
-11.1860 -4.2962 -1.9740 0.9526
-10.7147 -5.2574 -1.9662 0.9528
-10.1633 -6.1700 -1.9587 0.9529
-8.0803 -8.5560 -1.9387 0.9534
-5.4790 -10.3106 -1.9235 0.9538
-4.5268 -10.7372 -1.9196 0.9539
-3.5435 -11.0800 -1.9164 0.9539
-2.5361 -11.3371 -1.9138 0.9540
-1.5117 -11.5070 -1.9119 0.9540
-0.4773 -11.5888 -1.9107 0.9541
0.5598 -11.5821 -1.9103 0.9541
2.6135 -11.3041 -1.9114 0.9541
8.1082 -8.4638 -1.9309 0.9536
9.5409 -6.9263 -1.9423 0.9533
10.1552 -6.0664 -1.9487 0.9532
10.6944 -5.1532 -1.9557 0.9530
10.3482 -3.8901 -1.8212 0.9562
10.6672 -2.9536 -1.8234 0.9561
11.4498 -0.0200 -1.8862 0.9546
11.8361 3.2327 -2.0213 0.9515
11.1646 5.3318 -2.0382 0.9511
10.6863 6.3331 -2.0464 0.9509
10.1165 7.2904 -2.0542 0.9507
8.7189 9.0379 -2.0688 0.9504
7.9015 9.8116 -2.0753 0.9502
6.5202 9.7693 -1.9349 0.9535
4.6713 10.7593 -1.9323 0.9536
1.6586 11.6654 -1.9411 0.9534
0.6103 11.7755 -1.9425 0.9533
-0.4429 11.7512 -1.9373 0.9534
-1.3881 10.8604 -1.8037 0.9566
-3.5487 11.2313 -1.9404 0.9534
-4.5322 10.8557 -1.9380 0.9534
-6.3685 9.8399 -1.9309 0.9536
-8.6109 9.1818 -2.0737 0.9503
-9.3941 8.3735 -2.0731 0.9503
-10.6622 6.5239 -2.0592 0.9506
-11.1609 5.5247 -2.0516 0.9508
-11.5647 4.4880 -2.0436 0.9510
-12.0792 2.3391 -2.0269 0.9513
-12.1982 0.1508 -2.0097 0.9517
-12.1107 -0.9355 -2.0010 0.9520
-11.6514 -3.0497 -1.9841 0.9523
-11.2856 -4.0616 -1.9759 0.9525
-10.8341 -5.0333 -1.9680 0.9527
-10.3012 -5.9580 -1.9604 0.9529
-9.6920 -6.8293 -1.9532 0.9531
-9.0118 -7.6413 -1.9464 0.9532
-8.2663 -8.3886 -1.9401 0.9534
-6.6038 -9.6706 -1.9291 0.9536
-5.6997 -10.1973 -1.9245 0.9537
-4.7560 -10.6434 -1.9205 0.9538
-3.7795 -11.0063 -1.9171 0.9539
-2.7771 -11.2839 -1.9144 0.9540
-0.7234 -11.5774 -1.9110 0.9541
1.3480 -11.5176 -1.9103 0.9541
5.3162 -10.3542 -1.9174 0.9539
6.2311 -9.8556 -1.9209 0.9538
8.6846 -7.9081 -1.9350 0.9535
9.3846 -7.1221 -1.9408 0.9534
10.0160 -6.2757 -1.9472 0.9532
10.9068 -2.2325 -1.8340 0.9559
11.2236 -0.2580 -1.8495 0.9555
12.1256 0.8072 -2.0020 0.9519
12.0567 1.8953 -2.0106 0.9517
11.2644 5.0885 -2.0362 0.9511
10.8083 6.0991 -2.0445 0.9509
5.8149 10.1488 -1.9269 0.9537
4.8963 10.6523 -1.9314 0.9536
2.9098 8.1897 -1.4318 0.9654
2.9329 11.3942 -1.9383 0.9534
1.9056 11.6248 -1.9406 0.9534
-0.1784 10.8580 -1.7890 0.9569
-2.2886 11.5664 -1.9424 0.9533
-4.3021 10.9531 -1.9386 0.9534
-5.2552 10.5087 -1.9356 0.9535
-6.1612 9.9780 -1.9319 0.9536
-7.0120 9.3664 -1.9275 0.9537
-9.9187 7.6947 -2.0680 0.9504
-11.0509 5.7657 -2.0534 0.9507
-11.4775 4.7371 -2.0455 0.9509
-11.8074 3.6780 -2.0373 0.9511
-12.0389 2.5977 -2.0289 0.9513
-12.1402 -0.6788 -2.0031 0.9519
-11.9796 -1.7531 -1.9945 0.9521
-11.7252 -2.8044 -1.9861 0.9523
-11.3804 -3.8247 -1.9778 0.9525
-9.1794 -7.4542 -1.9480 0.9532
-8.4489 -8.2172 -1.9416 0.9533
-7.6576 -8.9120 -1.9357 0.9535
-5.9182 -10.0794 -1.9255 0.9537
-4.9833 -10.5449 -1.9214 0.9538
-4.0139 -10.9278 -1.9178 0.9539
-0.9693 -11.5610 -1.9112 0.9541
1.1030 -11.5432 -1.9103 0.9541
3.1427 -11.1733 -1.9121 0.9540
5.0931 -10.4608 -1.9167 0.9539
6.0176 -9.9811 -1.9200 0.9539
6.8994 -9.4229 -1.9239 0.9538
7.7319 -8.7897 -1.9285 0.9537
9.2244 -7.3144 -1.9394 0.9534
9.8725 -6.4818 -1.9456 0.9533
10.5410 -3.4068 -1.8250 0.9561
10.5881 -2.4026 -1.7886 0.9569
12.0205 0.5441 -1.9823 0.9524
12.0819 1.6372 -2.0086 0.9518
11.6972 3.7934 -2.0258 0.9514
11.3589 4.8434 -2.0343 0.9512
10.9250 5.8626 -2.0425 0.9510
9.0804 8.6457 -2.0655 0.9504
8.2989 9.4533 -2.0723 0.9503
7.4347 10.1755 -2.0761 0.9502
6.0256 10.0170 -1.9257 0.9537
5.1188 10.5405 -1.9304 0.9536
1.1095 11.7355 -1.9419 0.9533
0.0529 11.0035 -1.8127 0.9564
-0.9561 11.2676 -1.8629 0.9552
-2.0212 11.4915 -1.9222 0.9538
-3.0700 11.3771 -1.9413 0.9534
-4.0698 11.0455 -1.9392 0.9534
-5.9508 10.1116 -1.9328 0.9536
-6.8154 9.5187 -1.9286 0.9536
-9.7606 7.9099 -2.0697 0.9503
-10.3930 6.9826 -2.0627 0.9505
-10.9357 6.0044 -2.0552 0.9507
-11.3849 4.9844 -2.0474 0.9509
-11.9928 2.8556 -2.0309 0.9513
-11.7939 -2.5573 -1.9881 0.9523
-11.4703 -3.5857 -1.9798 0.9524
-9.9905 -6.4226 -1.9566 0.9530
-9.3433 -7.2634 -1.9496 0.9532
-8.6281 -8.0421 -1.9431 0.9533
-7.8507 -8.7535 -1.9370 0.9535
-6.1344 -9.9570 -1.9266 0.9537
-5.2087 -10.4418 -1.9223 0.9538
-4.2468 -10.8445 -1.9186 0.9539
-0.1789 -11.5959 -1.9105 0.9541
0.8576 -11.5638 -1.9102 0.9541
3.8999 -10.9413 -1.9135 0.9540
5.8017 -10.1022 -1.9192 0.9539
7.5390 -8.9466 -1.9274 0.9537
9.7250 -6.6848 -1.9441 0.9533
10.3183 -5.8089 -1.9507 0.9531
10.8350 -4.8815 -1.9577 0.9530
10.3942 -2.5919 -1.7648 0.9575
11.0234 -1.7216 -1.8380 0.9558
11.1800 -0.7330 -1.8457 0.9556
11.7555 0.2821 -1.9372 0.9534
12.1016 1.3788 -2.0065 0.9518
11.9814 2.4650 -2.0151 0.9516
11.4479 4.5966 -2.0323 0.9512
9.9361 7.5564 -2.0564 0.9507
8.4914 9.2679 -2.0707 0.9503
5.3386 10.4237 -1.9293 0.9536
3.2761 8.1110 -1.4411 0.9652
3.4117 11.2513 -1.9369 0.9535
2.3963 11.5273 -1.9396 0.9534
1.3583 11.7071 -1.9416 0.9533
0.3071 11.7890 -1.9428 0.9533
-0.7290 11.4816 -1.8953 0.9544
-1.7216 11.1745 -1.8626 0.9552
-3.8353 11.1327 -1.9398 0.9534
-4.8079 10.7308 -1.9371 0.9534
-10.2508 7.2077 -2.0644 0.9505
-10.8152 6.2408 -2.0570 0.9506
-11.9412 3.1128 -2.0329 0.9512
-12.1207 2.0250 -2.0244 0.9514
-12.2011 0.9301 -2.0158 0.9516
-12.0677 -1.2452 -1.9986 0.9520
-11.5552 -3.3445 -1.9817 0.9524
-10.1336 -6.2144 -1.9583 0.9530
-8.0406 -8.5909 -1.9384 0.9534
-6.3482 -9.8302 -1.9277 0.9537
-4.4781 -10.7565 -1.9194 0.9539
-3.4934 -11.0950 -1.9162 0.9539
-2.4850 -11.3477 -1.9137 0.9540
-1.4599 -11.5132 -1.9119 0.9540
0.6118 -11.5794 -1.9102 0.9541
2.6643 -11.2927 -1.9114 0.9541
3.6657 -11.0189 -1.9131 0.9540
4.6410 -10.6602 -1.9154 0.9540
7.3431 -9.0995 -1.9263 0.9537
8.1472 -8.4284 -1.9311 0.9536
8.8927 -7.6885 -1.9366 0.9535
10.1841 -6.0218 -1.9491 0.9532
11.1507 -0.9693 -1.8439 0.9556
11.5021 0.0316 -1.8949 0.9544
12.1158 1.1203 -2.0045 0.9519
11.8240 3.2866 -2.0217 0.9515
11.1428 5.3830 -2.0386 0.9511
10.6598 6.3824 -2.0468 0.9509
9.4238 8.2387 -2.0621 0.9505
7.8585 9.8485 -2.0756 0.9502
6.4374 9.7399 -1.9233 0.9538
5.5558 10.3023 -1.9282 0.9537
4.6234 10.7813 -1.9325 0.9536
3.6485 11.1720 -1.9361 0.9535
0.0956 10.2724 -1.9309 0.9591
-0.8226 10.2412 -1.9311 0.9590
-5.1476 8.8375 -1.9223 0.9592
-9.0490 6.1388 -2.0553 0.9565
-9.9325 4.4019 -2.0420 0.9567
-10.6892 0.6351 -2.0127 0.9574
-10.6630 -0.3212 -2.0051 0.9575
-10.0829 -3.1023 -1.9829 0.9580
-9.7305 -3.9764 -1.9758 0.9581
-9.3041 -4.8130 -1.9689 0.9583
-8.2455 -6.3507 -1.9562 0.9585
-5.4416 -8.7442 -1.9358 0.9589
-4.6295 -9.1771 -1.9320 0.9590
-3.7846 -9.5377 -1.9287 0.9591
-2.0218 -10.0337 -1.9238 0.9592
0.7101 -10.1961 -1.9211 0.9593
1.6184 -10.0937 -1.9214 0.9592
4.2472 -9.3258 -1.9261 0.9592
5.8575 -8.4477 -1.9322 0.9590
6.6020 -7.9065 -1.9361 0.9589
7.9417 -6.6372 -1.9454 0.9587
9.0478 -5.1474 -1.9566 0.9585
9.8755 -1.5878 -1.8800 0.9601
10.5003 2.1111 -2.0131 0.9573
10.3081 3.0521 -2.0207 0.9572
9.2283 5.7373 -2.0425 0.9567
7.4461 8.0541 -2.0617 0.9563
6.7149 8.7106 -2.0673 0.9562
4.6947 9.0658 -1.9189 0.9593
3.0168 9.7901 -1.9255 0.9592
1.2290 10.1925 -1.9297 0.9591
0.3137 10.2673 -1.9307 0.9591
-0.6049 10.2564 -1.9311 0.9590
-1.5186 10.1598 -1.9309 0.9591
-2.4190 9.9786 -1.9299 0.9591
-4.1477 9.3699 -1.9260 0.9592
-4.9608 8.9484 -1.9231 0.9592
-5.7299 8.4541 -1.9196 0.9593
-6.4486 7.8916 -1.9156 0.9594
-7.6958 7.8644 -2.0682 0.9562
-8.9229 6.3341 -2.0568 0.9564
-9.4239 5.4946 -2.0504 0.9566
-9.8447 4.6156 -2.0437 0.9567
-10.1826 3.7048 -2.0367 0.9569
-10.4356 2.7704 -2.0294 0.9570
-10.6769 -0.0948 -2.0069 0.9575
-10.4112 -1.9784 -1.9919 0.9578
-9.8210 -3.7720 -1.9774 0.9581
-8.9316 -5.4222 -1.9639 0.9584
-7.7757 -6.8823 -1.9518 0.9586
-7.1098 -7.5283 -1.9463 0.9587
-6.3924 -8.1125 -1.9413 0.9588
-5.6290 -8.6311 -1.9368 0.9589
-3.1222 -9.7627 -1.9266 0.9591
-1.3323 -10.1417 -1.9226 0.9592
-0.4207 -10.2146 -1.9216 0.9592
0.4934 -10.2090 -1.9211 0.9593
1.4036 -10.1250 -1.9213 0.9593
2.3035 -9.9633 -1.9221 0.9592
3.1867 -9.7249 -1.9235 0.9592
4.0470 -9.4112 -1.9256 0.9592
5.6743 -8.5665 -1.9314 0.9590
7.1378 -7.4508 -1.9394 0.9589
8.9300 -5.3345 -1.9552 0.9585
9.7994 -3.6837 -1.9677 0.9583
9.7509 -1.7810 -1.8631 0.9605
10.4407 -0.9549 -1.9706 0.9582
10.6196 0.9339 -2.0038 0.9575
10.5333 1.8859 -2.0113 0.9574
9.7635 4.6627 -2.0337 0.9569
9.3405 5.5356 -2.0408 0.9568
7.6103 7.8888 -2.0603 0.9564
6.1011 9.1414 -2.0658 0.9563
4.0718 9.3783 -1.9217 0.9592
1.4449 10.1622 -1.9293 0.9591
0.5316 10.2573 -1.9305 0.9591
-1.3025 10.1905 -1.9310 0.9590
-3.0916 9.7845 -1.9287 0.9591
-3.9491 9.4587 -1.9266 0.9591
-4.7714 9.0552 -1.9239 0.9592
-5.5516 8.5778 -1.9205 0.9593
-6.2829 8.0311 -1.9166 0.9593
-8.1976 7.3069 -2.0641 0.9563
-9.3121 5.6978 -2.0520 0.9565
-10.3833 2.9940 -2.0312 0.9570
-10.5707 2.0470 -2.0238 0.9571
-10.6861 0.1321 -2.0087 0.9574
-10.6151 -0.8200 -2.0012 0.9576
-10.4601 -1.7584 -1.9937 0.9577
-10.2232 -2.6759 -1.9863 0.9579
-9.9073 -3.5655 -1.9791 0.9581
-9.5155 -4.4208 -1.9721 0.9582
-9.0518 -5.2354 -1.9655 0.9583
-8.5203 -6.0037 -1.9591 0.9585
-7.2728 -7.3804 -1.9476 0.9587
-6.5671 -7.9796 -1.9425 0.9588
-5.0196 -8.9804 -1.9338 0.9590
-3.3300 -9.6974 -1.9272 0.9591
-1.5477 -10.1130 -1.9230 0.9592
4.6838 -9.1226 -1.9275 0.9591
5.4888 -8.6814 -1.9306 0.9591
9.2947 -4.7245 -1.9598 0.9585
9.7112 -3.8879 -1.9662 0.9583
9.5489 -2.8636 -1.8738 0.9602
9.6525 -1.9757 -1.8519 0.9607
10.6083 -0.2439 -1.9945 0.9577
10.5616 1.6603 -2.0095 0.9574
10.4100 2.6070 -2.0171 0.9573
9.4482 5.3316 -2.0391 0.9568
8.9644 6.1752 -2.0460 0.9567
7.7708 7.7201 -2.0589 0.9564
7.0699 8.4070 -2.0647 0.9563
6.3023 9.0219 -2.0685 0.9562
5.0704 8.8494 -1.9170 0.9593
4.2682 9.2857 -1.9209 0.9593
2.8998 8.1613 -1.6280 0.9654
0.7493 10.2424 -1.9303 0.9591
-0.1688 10.2722 -1.9310 0.9590
-2.8837 9.8501 -1.9291 0.9591
-3.7483 9.5433 -1.9272 0.9591
-5.3706 8.6976 -1.9214 0.9592
-6.1140 8.1669 -1.9176 0.9593
-9.1958 5.8986 -2.0535 0.9565
-10.0326 4.1408 -2.0400 0.9568
-10.3261 3.2166 -2.0329 0.9569
-10.5340 2.2730 -2.0256 0.9571
-10.6555 1.3179 -2.0181 0.9572
-10.6905 0.3594 -2.0105 0.9574
-10.6396 -0.5949 -2.0030 0.9576
-10.5044 -1.5372 -1.9954 0.9577
-10.2867 -2.4603 -1.9880 0.9579
-9.9893 -3.3572 -1.9808 0.9580
-9.6152 -4.2212 -1.9738 0.9582
-8.6524 -5.8257 -1.9606 0.9584
-8.0723 -6.5551 -1.9545 0.9586
-6.7392 -7.8431 -1.9436 0.9588
-5.9969 -8.3933 -1.9389 0.9589
-5.2117 -8.8760 -1.9347 0.9590
-3.5364 -9.6278 -1.9279 0.9591
-2.6586 -9.8921 -1.9253 0.9592
-1.7624 -10.0798 -1.9233 0.9592
-0.8543 -10.1898 -1.9220 0.9592
0.0594 -10.2214 -1.9213 0.9593
1.8778 -10.0498 -1.9217 0.9592
4.4875 -9.2170 -1.9269 0.9591
5.3010 -8.7925 -1.9298 0.9591
6.8076 -7.7389 -1.9373 0.9589
8.1161 -6.4356 -1.9469 0.9587
8.6831 -5.7008 -1.9524 0.9586
9.6188 -4.0901 -1.9646 0.9584
9.6229 -3.1101 -1.9008 0.9597
9.5802 -2.1739 -1.8465 0.9608
10.0598 -1.3529 -1.9079 0.9595
10.5914 -0.4687 -1.9927 0.9578
10.6307 0.4812 -2.0002 0.9576
10.5850 1.4343 -2.0077 0.9575
10.2371 3.3199 -2.0228 0.9571
9.9358 4.2366 -2.0302 0.9570
9.5514 5.1255 -2.0374 0.9568
9.0864 5.9787 -2.0444 0.9567
8.5438 6.7887 -2.0511 0.9566
7.2422 8.2496 -2.0633 0.9563
6.4933 8.8870 -2.0688 0.9562
5.2545 8.7352 -1.9160 0.9594
4.4624 9.1888 -1.9200 0.9593
2.7649 9.8684 -1.9263 0.9591
0.9665 10.2228 -1.9300 0.9591
-5.1869 8.8135 -1.9222 0.9592
-5.9421 8.2990 -1.9185 0.9593
-6.6451 7.7180 -1.9143 0.9594
-7.8898 7.6581 -2.0667 0.9562
-8.5192 6.9038 -2.0611 0.9564
-9.0751 6.0971 -2.0550 0.9565
-10.4925 2.4984 -2.0273 0.9571
-10.3458 -2.2433 -1.9898 0.9578
-8.7808 -5.6450 -1.9621 0.9584
-7.5897 -7.0743 -1.9502 0.9587
-6.9085 -7.7029 -1.9448 0.9588
-4.5877 -9.1970 -1.9318 0.9590
-3.7414 -9.5539 -1.9285 0.9591
-1.9766 -10.0422 -1.9238 0.9592
0.7560 -10.1929 -1.9211 0.9593
2.5596 -9.9025 -1.9225 0.9592
3.4368 -9.6422 -1.9240 0.9592
4.2894 -9.3072 -1.9262 0.9591
5.8960 -8.4221 -1.9324 0.9590
6.6382 -7.8776 -1.9363 0.9589
7.3322 -7.2697 -1.9407 0.9588
8.5541 -5.8799 -1.9511 0.9586
9.0722 -5.1074 -1.9569 0.9585
9.5224 -4.2901 -1.9631 0.9584
10.5697 -0.6930 -1.9910 0.9578
10.4927 2.1587 -2.0135 0.9573
10.2962 3.0990 -2.0210 0.9572
10.0149 4.0212 -2.0285 0.9570
9.2040 5.7797 -2.0428 0.9567
7.4109 8.0886 -2.0620 0.9563
5.6102 8.8933 -1.9764 0.9581
4.6544 9.0877 -1.9191 0.9593
3.2525 8.0525 -1.6324 0.9653
2.9730 9.8043 -1.9257 0.9592
2.0877 10.0429 -1.9280 0.9591
1.1832 10.1983 -1.9297 0.9591
0.2675 10.2688 -1.9308 0.9591
-4.1895 9.3506 -1.9259 0.9592
-5.7673 8.4274 -1.9194 0.9593
-7.7301 7.8288 -2.0679 0.9562
-8.9500 6.2930 -2.0565 0.9564
-9.8637 4.5705 -2.0433 0.9567
-10.1973 3.6584 -2.0363 0.9569
-10.4460 2.7230 -2.0291 0.9570
-10.6744 -0.1427 -2.0065 0.9575
-10.5790 -1.0916 -1.9990 0.9576
-10.4002 -2.0248 -1.9915 0.9578
-10.1403 -2.9350 -1.9842 0.9579
-9.8022 -3.8154 -1.9771 0.9581
-9.3893 -4.6595 -1.9702 0.9582
-8.3555 -6.2153 -1.9574 0.9585
-7.7435 -6.9162 -1.9515 0.9586
-7.0749 -7.5592 -1.9461 0.9587
-6.3551 -8.1402 -1.9411 0.9588
-5.5895 -8.6554 -1.9366 0.9589
-1.2867 -10.1473 -1.9226 0.9592
1.4491 -10.1188 -1.9213 0.9592
3.2305 -9.7109 -1.9236 0.9592
5.7133 -8.5417 -1.9315 0.9590
8.4216 -6.0562 -1.9497 0.9587
8.9552 -5.2951 -1.9555 0.9585
9.7764 -1.7403 -1.8665 0.9604
10.4847 -0.9114 -1.9781 0.9581
10.6225 0.0292 -1.9966 0.9577
10.6173 0.9818 -2.0042 0.9575
9.7442 4.7073 -2.0340 0.9569
9.3171 5.5785 -2.0411 0.9568
8.2290 7.1942 -2.0545 0.9565
6.8565 8.5927 -2.0663 0.9562
4.8440 8.9824 -1.9182 0.9593
4.0299 9.3974 -1.9219 0.9592
2.3000 9.9937 -1.9275 0.9591
-1.5343 8.9593 -1.9214 0.9635
-2.3274 8.7819 -1.9204 0.9635
-3.1001 8.5319 -1.9188 0.9636
-6.9609 6.8175 -2.0596 0.9609
-8.4533 4.6910 -2.0435 0.9612
-9.0982 3.0931 -2.0313 0.9615
-9.4993 0.5644 -2.0115 0.9618
-9.3851 -1.1276 -1.9981 0.9621
-8.9753 -2.7615 -1.9850 0.9623
-7.8490 -4.9962 -1.9667 0.9627
-7.3506 -5.6615 -1.9612 0.9628
-6.7974 -6.2789 -1.9560 0.9629
-6.1941 -6.8443 -1.9512 0.9630
-4.8565 -7.8040 -1.9430 0.9631
-3.3790 -8.5156 -1.9366 0.9632
-2.6015 -8.7723 -1.9341 0.9633
-1.8056 -8.9608 -1.9322 0.9633
-0.9971 -9.0799 -1.9308 0.9633
-0.1819 -9.1288 -1.9300 0.9634
0.6343 -9.1073 -1.9298 0.9634
2.2462 -8.8543 -1.9309 0.9633
3.0304 -8.6244 -1.9323 0.9633
4.5272 -7.9656 -1.9367 0.9632
5.2287 -7.5409 -1.9397 0.9632
7.6033 -5.2768 -1.9563 0.9629
8.0656 -4.5886 -1.9615 0.9628
8.4672 -3.8606 -1.9670 0.9627
9.0739 -2.3061 -1.9790 0.9624
9.2732 -1.4910 -1.9853 0.9623
9.4000 -0.6587 -1.9918 0.9622
9.4526 0.1843 -1.9985 0.9621
9.1566 2.7112 -2.0186 0.9617
8.5831 4.3252 -2.0316 0.9615
8.1875 5.0903 -2.0379 0.9614
7.7227 5.8185 -2.0439 0.9612
5.9495 7.7177 -2.0598 0.9609
5.2374 8.2202 -2.0603 0.9609
3.2615 7.9715 -1.8206 0.9654
2.6704 8.6661 -1.9168 0.9636
1.0876 9.0201 -1.9205 0.9635
-1.3438 8.9906 -1.9215 0.9635
-2.1407 8.8307 -1.9207 0.9635
-3.6714 8.2940 -1.9173 0.9636
-4.3919 7.9222 -1.9147 0.9636
-5.0739 7.4861 -1.9116 0.9637
-6.8182 6.9676 -2.0607 0.9609
-7.3960 6.3157 -2.0558 0.9610
-8.7338 4.0947 -2.0390 0.9613
-9.0371 3.2881 -2.0328 0.9614
-9.2654 2.4598 -2.0264 0.9616
-9.4915 -0.0842 -2.0064 0.9619
-9.4144 -0.9287 -1.9997 0.9621
-9.0389 -2.5722 -1.9865 0.9623
-8.7448 -3.3586 -1.9801 0.9624
-7.9588 -4.8317 -1.9681 0.9626
-6.3417 -6.7150 -1.9523 0.9629
-3.5603 -8.4448 -1.9372 0.9632
-2.7880 -8.7175 -1.9346 0.9633
-1.1899 -9.0579 -1.9311 0.9633
-0.3758 -9.1235 -1.9302 0.9634
1.2537 -9.0437 -1.9299 0.9634
2.8460 -8.6851 -1.9319 0.9633
5.0654 -7.6473 -1.9389 0.9632
7.4850 -5.4338 -1.9551 0.9629
7.9612 -4.7558 -1.9602 0.9628
8.7303 -3.2818 -1.9715 0.9626
9.2323 -1.6863 -1.9838 0.9624
9.3615 1.6761 -2.0103 0.9619
8.9729 3.3373 -2.0236 0.9616
8.6666 4.1388 -2.0301 0.9615
8.2878 4.9117 -2.0364 0.9614
7.8392 5.6493 -2.0425 0.9613
6.1087 7.5854 -2.0587 0.9610
5.4172 8.1167 -2.0627 0.9609
2.8530 8.6049 -1.9163 0.9636
2.0753 8.8357 -1.9185 0.9636
1.2787 8.9935 -1.9202 0.9635
-1.1526 9.0176 -1.9216 0.9635
-1.9529 8.8753 -1.9209 0.9635
-4.9157 7.5953 -1.9124 0.9637
-5.5645 7.1128 -1.9089 0.9638
-7.7942 5.7857 -2.0518 0.9611
-9.3882 1.8180 -2.0214 0.9617
-9.4818 0.9688 -2.0147 0.9618
-9.4987 0.1175 -2.0080 0.9619
-9.3055 -1.5643 -1.9946 0.9622
-9.0985 -2.3815 -1.9880 0.9623
-8.0653 -4.6648 -1.9694 0.9626
-7.0666 -5.9919 -1.9584 0.9628
-6.4866 -6.5825 -1.9535 0.9629
-3.7402 -8.3702 -1.9379 0.9632
-2.9734 -8.6588 -1.9352 0.9633
-2.1855 -8.8799 -1.9330 0.9633
0.2469 -9.1263 -1.9298 0.9634
1.0613 -9.0678 -1.9298 0.9634
3.4338 -8.4768 -1.9333 0.9633
4.9000 -7.7503 -1.9382 0.9632
6.8187 -6.2091 -1.9494 0.9630
7.3635 -5.5883 -1.9540 0.9629
7.8534 -4.9207 -1.9590 0.9628
8.2843 -4.2109 -1.9644 0.9627
8.6524 -3.4640 -1.9701 0.9626
9.3489 -1.0557 -1.9887 0.9623
9.3875 1.4757 -2.0087 0.9619
9.2490 2.3162 -2.0154 0.9618
9.0348 3.1436 -2.0221 0.9616
8.7459 3.9509 -2.0286 0.9615
7.9519 5.4777 -2.0411 0.9613
6.8882 6.8432 -2.0524 0.9611
6.2649 7.4498 -2.0575 0.9610
4.5695 7.9752 -1.9429 0.9631
2.8751 8.0919 -1.8152 0.9655
1.4692 8.9627 -1.9198 0.9635
0.6631 9.0639 -1.9211 0.9635
-0.1494 9.0899 -1.9217 0.9635
-2.5521 8.7174 -1.9200 0.9635
-6.5130 7.2474 -2.0597 0.9609
-7.1293 6.6317 -2.0582 0.9610
-7.6743 5.9536 -2.0531 0.9611
-8.1538 5.2302 -2.0476 0.9612
-9.3548 2.0185 -2.0229 0.9616
-9.4604 -0.5289 -2.0029 0.9620
-9.1542 -2.1894 -1.9896 0.9622
-8.8930 -2.9888 -1.9831 0.9624
-8.5633 -3.7594 -1.9769 0.9625
-7.7114 -5.1922 -1.9651 0.9627
-6.6288 -6.4471 -1.9546 0.9629
-5.3512 -7.4895 -1.9457 0.9631
-3.9186 -8.2919 -1.9386 0.9632
-1.5740 -9.0022 -1.9318 0.9633
-0.7630 -9.1011 -1.9305 0.9633
2.4738 -8.7951 -1.9312 0.9633
3.2522 -8.5458 -1.9328 0.9633
4.0070 -8.2300 -1.9349 0.9633
6.6818 -6.3491 -1.9483 0.9630
7.2390 -5.7401 -1.9529 0.9629
7.7423 -5.0832 -1.9578 0.9628
8.1876 -4.3830 -1.9631 0.9627
8.8889 -2.8728 -1.9746 0.9625
9.1385 -2.0737 -1.9808 0.9624
9.2887 2.1176 -2.0138 0.9618
8.8212 3.7614 -2.0271 0.9616
8.4766 4.5487 -2.0335 0.9614
8.0608 5.3039 -2.0396 0.9613
7.0276 6.6912 -2.0511 0.9611
5.7526 7.8733 -2.0612 0.9609
4.9940 8.3021 -2.0479 0.9612
3.0142 7.9445 -1.7961 0.9659
2.4474 8.7350 -1.9175 0.9636
1.6589 8.9278 -1.9195 0.9636
0.8553 9.0467 -1.9208 0.9635
0.0437 9.0906 -1.9216 0.9635
-2.3668 8.7711 -1.9203 0.9635
-3.8823 8.1938 -1.9166 0.9636
-4.5923 7.8032 -1.9139 0.9637
-5.2621 7.3493 -1.9106 0.9637
-6.3504 7.3757 -2.0573 0.9610
-6.9907 6.7854 -2.0593 0.9610
-8.8287 3.8653 -2.0372 0.9614
-9.3170 2.2185 -2.0245 0.9616
-9.4469 1.3728 -2.0179 0.9617
-9.5002 0.5216 -2.0112 0.9618
-9.4770 -0.3281 -2.0044 0.9620
-9.3783 -1.1696 -1.9978 0.9621
-7.3240 -5.6937 -1.9609 0.9628
-6.7683 -6.3086 -1.9558 0.9629
-6.1626 -6.8712 -1.9510 0.9630
-5.5118 -7.3778 -1.9467 0.9630
-4.8209 -7.8250 -1.9428 0.9631
-3.3405 -8.5301 -1.9364 0.9632
-2.5619 -8.7834 -1.9340 0.9633
-1.7652 -8.9685 -1.9321 0.9633
-0.1408 -9.1294 -1.9300 0.9634
0.6752 -9.1043 -1.9298 0.9634
1.4861 -9.0091 -1.9301 0.9634
2.2860 -8.8443 -1.9310 0.9633
3.8302 -8.3109 -1.9344 0.9633
5.2630 -7.5180 -1.9399 0.9632
5.9243 -7.0304 -1.9434 0.9631
6.5420 -6.4863 -1.9473 0.9630
7.6279 -5.2433 -1.9566 0.9629
9.0856 -2.2656 -1.9793 0.9624
9.4044 -0.6166 -1.9922 0.9622
9.4533 0.2268 -1.9988 0.9621
9.4267 1.0740 -2.0055 0.9620
9.3242 1.9183 -2.0122 0.9618
9.1459 2.7528 -2.0189 0.9617
7.6976 5.8540 -2.0442 0.9612
7.1636 6.5363 -2.0499 0.9611
6.5680 7.1687 -2.0552 0.9610
5.9154 7.7452 -2.0601 0.9609
3.1942 7.9081 -1.8028 0.9657
1.8478 8.8886 -1.9190 0.9636
-0.5761 9.0733 -1.9218 0.9635
-1.3842 8.9843 -1.9215 0.9635
-2.1803 8.8207 -1.9206 0.9635
-6.0040 7.2806 -1.9948 0.9622
-7.4234 6.2817 -2.0556 0.9610
-7.9345 5.5790 -2.0503 0.9611
-8.3780 4.8345 -2.0446 0.9612
-8.7508 4.0548 -2.0387 0.9613
-9.2748 2.4177 -2.0260 0.9616
-9.4894 -0.1269 -2.0060 0.9619
-9.4085 -0.9708 -1.9993 0.9621
-9.0258 -2.6124 -1.9862 0.9623
-8.3638 -4.1506 -1.9737 0.9625
-7.4482 -5.5404 -1.9622 0.9628
-6.9049 -6.1672 -1.9570 0.9629
-4.9883 -7.7244 -1.9437 0.9631
-1.9557 -8.9308 -1.9325 0.9633
-1.1492 -9.0629 -1.9311 0.9633
-0.3348 -9.1250 -1.9301 0.9634
0.4817 -9.1166 -1.9298 0.9634
1.2943 -9.0381 -1.9300 0.9634
3.6519 -8.3882 -1.9338 0.9633
5.7710 -7.1514 -1.9425 0.9631
8.3968 -3.9996 -1.9660 0.9627
8.7462 -3.2430 -1.9718 0.9626
9.2413 -1.6451 -1.9841 0.9624
9.3819 -0.8155 -1.9906 0.9622
9.4485 0.0259 -1.9972 0.9621
9.4399 0.8729 -2.0039 0.9620
9.3555 1.7185 -2.0106 0.9619
9.1951 2.5559 -2.0173 0.9617
8.9593 3.3782 -2.0240 0.9616
8.2669 4.9497 -2.0367 0.9614
7.8148 5.6853 -2.0428 0.9613
7.2962 6.3786 -2.0485 0.9612
6.7148 7.0234 -2.0539 0.9611
4.2898 7.9547 -1.9104 0.9637
3.5681 8.3203 -1.9136 0.9637
2.0357 8.8453 -1.9186 0.9636
0.0758 8.1440 -1.9141 0.9671
-2.0853 7.8683 -1.9131 0.9671
-4.7449 6.6902 -1.9277 0.9669
-5.6795 6.6567 -2.0565 0.9647
-7.1986 4.8835 -2.0444 0.9649
-8.4855 1.2720 -2.0166 0.9654
-8.4426 -1.0143 -1.9985 0.9657
-8.2934 -1.7593 -1.9925 0.9658
-7.4657 -3.8620 -1.9755 0.9661
-7.0719 -4.5015 -1.9702 0.9661
-6.6247 -5.1024 -1.9652 0.9662
-5.5852 -6.1715 -1.9562 0.9664
-5.0015 -6.6324 -1.9523 0.9664
-4.3810 -7.0399 -1.9487 0.9665
-3.7286 -7.3912 -1.9456 0.9666
-1.6297 -8.0877 -1.9390 0.9667
-0.9000 -8.1957 -1.9378 0.9667
-0.1642 -8.2402 -1.9370 0.9667
0.5725 -8.2209 -1.9368 0.9667
1.3049 -8.1380 -1.9371 0.9667
2.7352 -7.7841 -1.9391 0.9667
3.4227 -7.5154 -1.9409 0.9666
5.3150 -6.3652 -1.9489 0.9665
6.8542 -4.7569 -1.9608 0.9663
7.2690 -4.1354 -1.9655 0.9662
7.6288 -3.4783 -1.9705 0.9661
7.9302 -2.7903 -1.9758 0.9660
8.3473 -1.3421 -1.9870 0.9659
8.4799 0.9276 -2.0049 0.9656
8.3883 1.6865 -2.0109 0.9655
8.2286 2.4364 -2.0169 0.9654
7.7082 3.8843 -2.0286 0.9652
7.3506 4.5700 -2.0342 0.9651
6.9312 5.2222 -2.0396 0.9650
5.9197 6.4031 -2.0495 0.9648
5.3355 6.9212 -2.0539 0.9647
4.7049 7.3845 -2.0579 0.9647
3.8678 7.4689 -1.9768 0.9660
2.3931 7.7660 -1.9099 0.9672
1.6914 7.9566 -1.9118 0.9671
0.9745 8.0816 -1.9131 0.9671
0.2487 8.1400 -1.9140 0.9671
-1.2039 8.0547 -1.9141 0.9671
-1.9179 7.9118 -1.9133 0.9671
-2.6153 7.7037 -1.9120 0.9671
-3.2900 7.4323 -1.9103 0.9672
-4.5482 6.7105 -1.9052 0.9672
-6.1143 6.2482 -2.0546 0.9647
-7.5005 4.3731 -2.0405 0.9650
-8.1154 2.9527 -2.0296 0.9651
-8.4625 1.4530 -2.0180 0.9653
-8.5330 0.6891 -2.0120 0.9654
-8.5348 -0.0757 -2.0059 0.9655
-8.4683 -0.8354 -1.9999 0.9656
-7.8738 -3.0241 -1.9823 0.9659
-7.1704 -4.3530 -1.9714 0.9661
-6.7355 -4.9635 -1.9664 0.9662
-6.2500 -5.5320 -1.9616 0.9663
-5.1436 -6.5277 -1.9532 0.9664
-3.8861 -7.3130 -1.9463 0.9665
-3.2126 -7.6200 -1.9435 0.9666
-1.0741 -8.1758 -1.9380 0.9667
-0.3392 -8.2354 -1.9372 0.9667
0.3978 -8.2313 -1.9368 0.9667
1.8571 -8.0324 -1.9376 0.9667
3.9304 -7.2709 -1.9425 0.9666
4.5703 -6.8999 -1.9451 0.9666
6.2696 -5.4701 -1.9555 0.9664
6.7479 -4.8987 -1.9598 0.9663
7.5485 -3.6373 -1.9693 0.9662
8.1191 -2.2480 -1.9800 0.9660
8.4383 -0.7717 -1.9915 0.9658
8.4987 -0.0148 -1.9974 0.9657
8.4916 0.7467 -2.0034 0.9656
8.4163 1.5069 -2.0095 0.9655
8.2727 2.2595 -2.0155 0.9654
7.7837 3.7172 -2.0273 0.9652
7.4412 4.4100 -2.0329 0.9651
6.0511 6.2726 -2.0484 0.9648
5.4786 6.8029 -2.0529 0.9647
1.8596 7.9172 -1.9114 0.9671
1.1457 8.0580 -1.9129 0.9671
0.4215 8.1322 -1.9138 0.9671
-1.0326 8.0789 -1.9142 0.9671
-1.7497 7.9517 -1.9135 0.9671
-2.4516 7.7590 -1.9124 0.9671
-3.1322 7.5024 -1.9107 0.9671
-4.4062 6.8080 -1.9059 0.9672
-6.5156 5.8077 -2.0513 0.9648
-7.7657 3.8441 -2.0365 0.9650
-8.0562 3.1265 -2.0310 0.9651
-8.5225 0.8708 -2.0134 0.9654
-8.5406 0.1056 -2.0074 0.9655
-8.4902 -0.6558 -2.0013 0.9656
-8.3725 -1.4075 -1.9953 0.9657
-5.2835 -6.4200 -1.9541 0.9664
-2.6833 -7.8140 -1.9417 0.9666
-1.2476 -8.1523 -1.9383 0.9667
3.0991 -7.6505 -1.9400 0.9667
5.6133 -6.1144 -1.9508 0.9665
6.1490 -5.5993 -1.9545 0.9664
6.6388 -5.0383 -1.9587 0.9663
7.4650 -3.7945 -1.9681 0.9662
8.0642 -2.4183 -1.9787 0.9660
8.4995 0.5658 -2.0020 0.9656
7.8556 3.5487 -2.0259 0.9652
6.1796 6.1392 -2.0472 0.9648
5.6190 6.6817 -2.0518 0.9648
4.3463 7.5856 -2.0547 0.9647
2.0269 7.8742 -1.9109 0.9671
0.5941 8.1206 -1.9136 0.9671
-0.8609 8.0993 -1.9142 0.9671
-1.5806 7.9879 -1.9137 0.9671
-3.6333 7.2653 -1.9091 0.9672
-4.2621 6.9025 -1.9066 0.9672
-5.1118 6.8281 -2.0046 0.9656
-6.8846 5.3409 -2.0479 0.9648
-7.3167 4.6933 -2.0430 0.9649
-7.9932 3.2990 -2.0323 0.9651
-8.5081 1.0523 -2.0148 0.9654
-8.5425 0.2872 -2.0088 0.9655
-8.5083 -0.4757 -2.0028 0.9656
-8.4065 -1.2302 -1.9968 0.9657
-8.2384 -1.9704 -1.9908 0.9658
-7.3581 -4.0497 -1.9739 0.9661
-5.9762 -5.8123 -1.9593 0.9663
-4.1963 -7.1468 -1.9478 0.9665
-3.5356 -7.4816 -1.9448 0.9666
-2.8494 -7.7574 -1.9423 0.9666
-1.4207 -8.1253 -1.9386 0.9667
-0.6888 -8.2151 -1.9375 0.9667
0.0479 -8.2412 -1.9369 0.9667
0.7839 -8.2036 -1.9368 0.9667
2.9353 -7.7130 -1.9396 0.9667
4.2704 -7.0830 -1.9438 0.9666
4.8932 -6.6829 -1.9466 0.9665
6.0258 -5.7259 -1.9536 0.9664
7.7216 -3.2833 -1.9720 0.9661
8.0057 -2.5874 -1.9773 0.9660
8.2279 -1.8671 -1.9829 0.9659
8.3861 -1.1278 -1.9887 0.9658
8.4784 -0.3752 -1.9946 0.9657
8.5035 0.3849 -2.0006 0.9656
8.4606 1.1465 -2.0066 0.9655
7.9238 3.3787 -2.0245 0.9652
7.2362 4.7613 -2.0358 0.9650
5.7567 6.5575 -2.0508 0.9648
5.1586 7.0603 -2.0551 0.9647
4.5109 7.4990 -2.0567 0.9647
2.8803 7.5914 -1.9082 0.9672
2.1931 7.8275 -1.9105 0.9672
1.4864 7.9993 -1.9122 0.9671
-1.4107 8.0204 -1.9139 0.9671
-2.1206 7.8586 -1.9130 0.9671
-2.8121 7.6320 -1.9116 0.9671
-3.4791 7.3429 -1.9097 0.9672
-4.1160 6.9938 -1.9072 0.9672
-5.7105 6.6324 -2.0569 0.9647
-6.7733 5.4889 -2.0490 0.9648
-7.2196 4.8505 -2.0442 0.9649
-7.6049 4.1756 -2.0390 0.9650
-7.9265 3.4703 -2.0336 0.9651
-8.4898 1.2337 -2.0163 0.9654
-8.5226 -0.2951 -2.0042 0.9656
-8.2842 -1.7963 -1.9922 0.9658
-7.7870 -3.2231 -1.9807 0.9660
-7.4472 -3.8950 -1.9752 0.9661
-7.0507 -4.5327 -1.9700 0.9661
-6.6009 -5.1315 -1.9650 0.9662
-4.9711 -6.6541 -1.9521 0.9664
-2.3121 -7.9269 -1.9406 0.9666
-1.5932 -8.0947 -1.9389 0.9667
2.7702 -7.7720 -1.9392 0.9667
3.4567 -7.5004 -1.9410 0.9666
4.7484 -6.7829 -1.9459 0.9666
5.3441 -6.3418 -1.9491 0.9665
5.9001 -5.8498 -1.9527 0.9664
6.8763 -4.7266 -1.9611 0.9663
7.6454 -3.4444 -1.9708 0.9661
8.3545 -1.3048 -1.9873 0.9659
8.4625 -0.5548 -1.9932 0.9658
8.3819 1.7244 -2.0112 0.9654
8.2188 2.4737 -2.0172 0.9653
6.9086 5.2539 -2.0399 0.9650
2.3583 7.7771 -1.9100 0.9672
1.6556 7.9644 -1.9118 0.9671
0.9382 8.0862 -1.9132 0.9671
0.2121 8.1411 -1.9140 0.9671
-5.5630 6.7457 -2.0550 0.9647
-6.1417 6.2201 -2.0544 0.9647
-6.6587 5.6346 -2.0501 0.9648
-7.1190 5.0056 -2.0453 0.9649
-7.5191 4.3388 -2.0403 0.9650
-8.1275 2.9158 -2.0294 0.9651
-8.4677 1.4147 -2.0177 0.9653
-8.5330 -0.1141 -2.0056 0.9655
-8.4632 -0.8733 -1.9996 0.9656
-8.1242 -2.3515 -1.9878 0.9658
-7.8590 -3.0590 -1.9820 0.9659
-7.5332 -3.7384 -1.9765 0.9660
-6.7123 -4.9931 -1.9661 0.9662
-6.2244 -5.5593 -1.9614 0.9663
-5.6901 -6.0795 -1.9570 0.9664
-5.1137 -6.5501 -1.9530 0.9664
-4.4997 -6.9678 -1.9494 0.9665
-3.1781 -7.6339 -1.9434 0.9666
-2.4805 -7.8780 -1.9411 0.9666
-0.3022 -8.2368 -1.9371 0.9667
1.1683 -8.1584 -1.9370 0.9667
1.8932 -8.0242 -1.9376 0.9667
2.6041 -7.8277 -1.9388 0.9667
3.2958 -7.5703 -1.9405 0.9666
3.9633 -7.2536 -1.9426 0.9666
4.6017 -6.8797 -1.9452 0.9666
5.7719 -5.9711 -1.9518 0.9665
6.2948 -5.4424 -1.9557 0.9664
7.1955 -4.2546 -1.9646 0.9662
8.4429 -0.7339 -1.9918 0.9658
8.2637 2.2970 -2.0158 0.9654
7.7681 3.7527 -2.0275 0.9652
7.0143 5.1029 -2.0386 0.9650
6.5469 5.7236 -2.0438 0.9649
5.4485 6.8282 -2.0531 0.9647
4.8262 7.3021 -2.0571 0.9647
3.1980 7.4574 -1.9070 0.9672
0.7263 7.3306 -1.9073 0.9700
0.0685 7.3687 -1.9080 0.9700
-0.5901 7.3460 -1.9081 0.9700
-1.8869 7.1197 -1.9070 0.9700
-3.1189 6.6598 -1.9041 0.9701
-5.1449 6.0302 -2.0524 0.9678
-6.1131 4.9997 -2.0447 0.9679
-6.5215 4.4242 -2.0404 0.9680
-7.1712 3.1781 -2.0309 0.9681
-7.6972 1.1539 -2.0152 0.9684
