ply
format ascii 1.0
element vertex 1592
property float32 x
property float32 y
property float32 z
property float32 I
end_header
5.5705 -5.4467 -2.0172 0.9683
6.6699 -4.5196 -2.0861 0.9673
7.0817 -3.1364 -2.0054 0.9685
7.8009 -1.8949 -2.0785 0.9674
8.0813 -1.2130 -2.1158 0.9668
8.5375 1.0203 -2.2262 0.9651
8.2935 2.5434 -2.2461 0.9648
5.1878 3.9832 -1.6935 0.9733
4.1543 4.5739 -1.5998 0.9748
2.6194 5.1638 -1.4992 0.9764
1.5357 3.8434 -1.0716 0.9830
1.6742 5.5936 -1.5118 0.9762
0.6048 2.9605 -0.7824 0.9876
0.3374 2.9947 -0.7803 0.9876
-0.4353 6.5439 -1.6981 0.9733
-0.9250 5.8918 -1.5442 0.9757
-1.7875 7.1480 -1.9077 0.9700
-2.8598 8.2323 -2.2565 0.9646
-3.5269 7.8208 -2.2213 0.9652
-4.1416 7.3529 -2.1850 0.9657
-5.1990 6.2789 -2.1107 0.9669
-2.4346 2.0530 -0.8246 0.9869
-7.5240 1.9536 -2.0127 0.9684
-7.5160 0.5679 -1.9516 0.9693
-7.4303 -0.1032 -1.9240 0.9698
-7.2939 -0.7555 -1.8986 0.9702
-6.8796 -1.9919 -1.8544 0.9708
-6.6071 -2.5713 -1.8357 0.9711
-6.2945 -3.1221 -1.8192 0.9714
-5.9444 -3.6425 -1.8051 0.9716
-5.1410 -4.5857 -1.7837 0.9719
-4.2156 -5.3894 -1.7716 0.9721
-2.6373 -6.3104 -1.7708 0.9721
-2.0691 -6.5367 -1.7752 0.9721
-0.8826 -6.8606 -1.7910 0.9718
-0.2688 -6.9558 -1.8023 0.9716
0.3553 -7.0048 -1.8160 0.9714
3.5342 -6.5121 -1.9184 0.9698
4.1588 -6.2580 -1.9455 0.9694
5.3658 -5.5875 -2.0058 0.9685
6.9358 -3.3366 -1.9928 0.9687
7.3357 -2.7535 -2.0287 0.9681
7.9891 -1.4576 -2.1027 0.9670
8.2309 -0.7524 -2.1400 0.9664
8.5168 0.7468 -2.2136 0.9653
6.0556 3.5808 -1.8215 0.9714
5.4022 3.8839 -1.7227 0.9729
4.8111 4.1574 -1.6463 0.9741
3.8196 4.7278 -1.5737 0.9752
2.7856 5.0879 -1.5019 0.9763
2.3148 5.3026 -1.4981 0.9764
1.8424 5.5173 -1.5061 0.9763
0.4107 2.8390 -0.7427 0.9882
0.3373 6.1972 -1.6069 0.9747
-0.8399 6.7250 -1.7548 0.9724
-3.2975 7.9726 -2.2339 0.9650
-3.9312 7.5237 -2.1979 0.9655
-5.4897 5.8996 -2.0865 0.9673
-5.8876 5.2908 -2.0495 0.9678
-7.0016 4.3259 -2.1309 0.9666
-7.3975 2.9103 -2.0582 0.9677
-7.5336 0.8084 -1.9618 0.9692
-7.4665 0.1313 -1.9335 0.9696
-7.3476 -0.5279 -1.9073 0.9700
-7.1798 -1.1663 -1.8833 0.9704
-6.9656 -1.7812 -1.8616 0.9707
-6.7078 -2.3702 -1.8420 0.9710
-6.4091 -2.9314 -1.8248 0.9713
-5.6987 -3.9625 -1.7971 0.9717
-4.3867 -5.2584 -1.7730 0.9721
-3.8928 -5.6179 -1.7697 0.9722
-3.3742 -5.9391 -1.7686 0.9722
-1.0959 -6.8163 -1.7875 0.9719
-0.4865 -6.9275 -1.7981 0.9717
0.1343 -6.9929 -1.8109 0.9715
0.7638 -7.0112 -1.8261 0.9713
1.3993 -6.9812 -1.8435 0.9710
2.6766 -6.7712 -1.8852 0.9704
4.5569 -6.0647 -1.9641 0.9691
5.7397 -5.3236 -2.0269 0.9682
6.8216 -4.3645 -2.0968 0.9671
2.3142 -0.9528 -0.6480 0.9897
7.5701 -2.3521 -2.0525 0.9678
7.8896 -1.6976 -2.0895 0.9672
8.1527 -1.0048 -2.1269 0.9666
8.3536 -0.2784 -2.1641 0.9661
8.4869 0.4757 -2.2009 0.9655
8.5476 1.2508 -2.2367 0.9649
6.3046 3.4651 -1.8627 0.9707
5.0135 4.0639 -1.6710 0.9737
4.0004 4.6447 -1.5872 0.9750
2.4805 5.2271 -1.4981 0.9764
0.5260 6.1122 -1.5884 0.9750
-0.0220 6.3586 -1.6464 0.9741
-0.6164 6.6250 -1.7227 0.9729
-1.0831 5.8825 -1.5487 0.9756
-3.7140 7.6882 -2.2107 0.9653
-4.3124 7.2052 -2.1742 0.9659
-4.8535 6.6758 -2.1370 0.9665
-5.3347 6.1076 -2.0997 0.9670
-5.7545 5.5082 -2.0625 0.9676
-7.3462 3.1606 -2.0706 0.9675
-7.4719 2.4511 -2.0360 0.9680
-7.5371 1.7463 -2.0032 0.9685
-7.3952 -0.2978 -1.9163 0.9699
-7.0462 -1.5673 -1.8690 0.9706
-6.8035 -2.1657 -1.8486 0.9709
-6.1950 -3.2789 -1.8148 0.9715
-4.0698 -5.4955 -1.7706 0.9721
-3.5596 -5.8304 -1.7687 0.9722
-3.0262 -6.1261 -1.7691 0.9722
-1.8980 -6.5954 -1.7770 0.9720
-0.7027 -6.8935 -1.7941 0.9718
-0.0856 -6.9751 -1.8061 0.9716
0.5411 -7.0102 -1.8205 0.9714
1.1749 -6.9974 -1.8371 0.9711
1.8128 -6.9354 -1.8560 0.9708
-6.7894 2.6311 -2.0613 0.9702
-6.8911 1.9845 -2.0301 0.9706
-6.9379 1.3421 -2.0005 0.9711
-5.6043 -3.2341 -1.8318 0.9735
-5.2596 -3.6972 -1.8200 0.9736
-4.8829 -4.1297 -1.8104 0.9738
-4.4767 -4.5301 -1.8030 0.9739
-4.0431 -4.8971 -1.7978 0.9739
-3.5840 -5.2292 -1.7947 0.9740
-3.1018 -5.5253 -1.7938 0.9740
-2.5985 -5.7842 -1.7951 0.9740
-0.4180 -6.4229 -1.8221 0.9736
1.3279 -6.4530 -1.8651 0.9730
2.5047 -6.2427 -1.9042 0.9724
3.0878 -6.0657 -1.9268 0.9721
4.2254 -5.5641 -1.9779 0.9714
4.7721 -5.2389 -2.0061 0.9710
5.7992 -4.4395 -2.0676 0.9701
6.2233 -3.1985 -1.9808 0.9713
6.9146 -2.1097 -2.0466 0.9704
7.4156 -0.8755 -2.1139 0.9694
7.5825 -0.2139 -2.1474 0.9690
7.6967 1.8813 -2.2430 0.9676
7.0209 3.1214 -2.1752 0.9686
4.4169 4.3311 -1.7512 0.9746
3.4010 4.7985 -1.6650 0.9758
2.9218 5.0180 -1.6438 0.9761
2.4506 5.2330 -1.6358 0.9763
1.4006 3.8531 -1.1606 0.9831
1.5026 5.6635 -1.6588 0.9759
0.4823 2.8090 -0.8068 0.9882
0.4950 6.1180 -1.7376 0.9748
-0.6513 6.6318 -1.8864 0.9727
-1.1144 5.8831 -1.6951 0.9754
-3.3935 6.9341 -2.1855 0.9684
-3.9384 6.5046 -2.1526 0.9689
-4.8745 5.5234 -2.0855 0.9698
-2.4696 1.9530 -0.8913 0.9870
-6.5613 3.5038 -2.1057 0.9696
-6.7401 2.8591 -2.0726 0.9700
-6.9276 1.5678 -2.0107 0.9709
-6.9399 0.9303 -1.9822 0.9713
-6.6776 -0.9048 -1.9076 0.9724
-6.2768 -2.0335 -1.8679 0.9729
-5.7178 -3.0639 -1.8364 0.9734
-5.3848 -3.5374 -1.8239 0.9736
-4.6231 -4.3928 -1.8054 0.9738
-4.1989 -4.7716 -1.7994 0.9739
-3.7486 -5.1162 -1.7955 0.9740
-3.2743 -5.4252 -1.7939 0.9740
-2.7782 -5.6973 -1.7944 0.9740
-1.7291 -6.1262 -1.8020 0.9739
-1.1804 -6.2805 -1.8091 0.9738
-0.0463 -6.4633 -1.8298 0.9735
0.5343 -6.4895 -1.8433 0.9733
1.1205 -6.4706 -1.8590 0.9731
1.7094 -6.4056 -1.8768 0.9728
2.2980 -6.2936 -1.8967 0.9725
2.8831 -6.1336 -1.9186 0.9722
5.1154 -5.0017 -2.0253 0.9707
5.6258 -4.5947 -2.0563 0.9703
6.1079 -4.1388 -2.0887 0.9698
6.5389 -3.6253 -2.1166 0.9694
6.4655 -2.8635 -2.0018 0.9710
6.8055 -2.3129 -2.0348 0.9706
7.0996 -1.7246 -2.0683 0.9701
7.3429 -1.1022 -2.1020 0.9696
7.5305 -0.4499 -2.1356 0.9691
7.7206 0.9227 -2.2012 0.9682
7.7154 1.6304 -2.2324 0.9677
7.6391 2.3427 -2.2620 0.9673
5.1807 3.9778 -1.8491 0.9732
4.6083 4.2427 -1.7733 0.9743
4.1491 4.5680 -1.7470 0.9747
3.6370 4.8036 -1.7057 0.9753
2.6162 5.1575 -1.6372 0.9762
1.5193 3.8023 -1.1592 0.9831
1.6722 5.5867 -1.6509 0.9760
0.3362 2.9838 -0.8500 0.9876
0.1437 6.2758 -1.7771 0.9742
-1.7847 7.1370 -2.0827 0.9699
-2.5828 7.4350 -2.2282 0.9678
-3.1901 7.0740 -2.1968 0.9683
-4.7250 5.7065 -2.0974 0.9697
-5.1314 5.1777 -2.0637 0.9701
-2.4375 2.0555 -0.9026 0.9868
-6.2165 4.3567 -2.1490 0.9689
-6.4844 3.7296 -2.1177 0.9694
-6.8252 2.4401 -2.0519 0.9703
-6.9416 1.1539 -1.9921 0.9712
-6.8491 -0.0952 -1.9391 0.9719
-6.5663 -1.2800 -1.8939 0.9726
-6.1122 -2.3787 -1.8567 0.9731
-5.1516 -3.8281 -1.8170 0.9737
-4.3515 -4.6420 -1.8012 0.9739
-3.9101 -4.9988 -1.7966 0.9740
-3.4440 -5.3204 -1.7942 0.9740
-0.2490 -6.4436 -1.8255 0.9735
1.5017 -6.4338 -1.8703 0.9729
3.2585 -6.0041 -1.9339 0.9720
3.8302 -5.7635 -1.9590 0.9716
4.3886 -5.4733 -1.9860 0.9713
6.3971 -3.8147 -2.1085 0.9695
6.3357 -3.0480 -1.9904 0.9712
6.6906 -2.5114 -2.0231 0.9707
7.4710 -0.6829 -2.1238 0.9693
3.8148 4.7219 -1.7185 0.9751
3.2583 4.8640 -1.6574 0.9760
1.8402 5.5105 -1.6447 0.9761
-0.2252 6.4411 -1.8246 0.9736
-0.8387 6.7155 -1.9159 0.9723
-1.2960 5.9758 -1.7310 0.9749
-2.3589 7.5487 -2.2389 0.9677
-2.9811 7.2074 -2.2080 0.9681
-4.0898 6.3693 -2.1428 0.9690
-4.5689 5.8855 -2.1092 0.9695
-4.9944 5.3673 -2.0755 0.9700
-6.4001 3.9543 -2.1297 0.9692
-6.7819 2.6681 -2.0631 0.9702
-6.9336 0.7440 -1.9741 0.9714
-6.6291 -1.0769 -1.9013 0.9725
-6.4371 -1.6461 -1.8809 0.9728
-6.2038 -2.1922 -1.8627 0.9730
-4.9053 -4.1058 -1.8109 0.9738
-4.5008 -4.5081 -1.8034 0.9739
-4.0686 -4.8770 -1.7980 0.9739
-3.6110 -5.2112 -1.7948 0.9740
-2.6279 -5.7704 -1.7950 0.9740
0.1244 -6.4757 -1.8336 0.9734
0.7069 -6.4886 -1.8477 0.9732
3.6300 -5.8539 -1.9500 0.9718
4.7413 -5.2589 -2.0045 0.9710
5.7713 -4.4652 -2.0657 0.9701
6.2441 -3.9951 -2.0985 0.9697
6.2011 -3.2273 -1.9790 0.9714
6.8973 -2.1430 -2.0446 0.9704
7.1769 -1.5443 -2.0782 0.9699
7.4043 -0.9126 -2.1120 0.9695
7.5746 -0.2525 -2.1455 0.9690
7.7263 1.1306 -2.2106 0.9681
7.7003 1.8405 -2.2413 0.9676
7.6028 2.5526 -2.2704 0.9672
7.0683 3.0993 -2.1849 0.9684
6.2952 3.4599 -2.0335 0.9706
5.6164 3.7756 -1.9158 0.9723
4.4477 4.3169 -1.7547 0.9746
3.9954 4.6388 -1.7332 0.9749
2.9490 5.0056 -1.6447 0.9761
2.4775 5.2208 -1.6359 0.9763
1.5303 5.6510 -1.6574 0.9760
0.4988 2.8189 -0.8104 0.9882
0.5253 6.1044 -1.7345 0.9749
-1.0818 5.8755 -1.6913 0.9755
-2.7666 7.3342 -2.2191 0.9679
-3.3609 6.9572 -2.1873 0.9684
-3.9085 6.5304 -2.1545 0.9689
-4.4060 6.0603 -2.1211 0.9693
-4.8506 5.5534 -2.0874 0.9698
-5.2407 5.0165 -2.0538 0.9703
-2.4579 1.9642 -0.8907 0.9870
-6.3069 4.1766 -2.1415 0.9690
-6.5493 3.5406 -2.1076 0.9695
-6.9406 0.9665 -1.9838 0.9713
-6.5096 -1.4480 -1.8879 0.9727
-6.2906 -2.0025 -1.8689 0.9729
-6.0319 -2.5325 -1.8520 0.9732
-5.4048 -3.5111 -1.8246 0.9736
-5.0409 -3.9563 -1.8141 0.9737
-3.7750 -5.0974 -1.7957 0.9740
-3.3021 -5.4085 -1.7939 0.9740
-2.8072 -5.6827 -1.7943 0.9740
-2.2924 -5.9190 -1.7969 0.9740
-0.6511 -6.3880 -1.8178 0.9737
-0.0793 -6.4605 -1.8291 0.9735
0.5009 -6.4892 -1.8425 0.9733
1.6756 -6.4106 -1.8758 0.9728
2.2643 -6.3013 -1.8955 0.9725
-6.2620 2.4267 -2.0656 0.9723
-6.4137 1.2407 -2.0093 0.9730
-6.4149 0.6551 -1.9833 0.9734
-5.7518 -2.0656 -1.8797 0.9747
-5.5002 -2.5498 -1.8647 0.9749
-5.2141 -3.0089 -1.8516 0.9751
-4.5467 -3.8453 -1.8315 0.9754
-4.1696 -4.2193 -1.8245 0.9755
-3.7664 -4.5620 -1.8196 0.9755
-3.3392 -4.8720 -1.8167 0.9756
-2.8900 -5.1481 -1.8159 0.9756
-2.4210 -5.3890 -1.8171 0.9756
-0.3890 -5.9779 -1.8426 0.9752
0.6884 -6.0324 -1.8675 0.9749
1.2338 -5.9961 -1.8829 0.9747
3.3922 -5.4084 -1.9636 0.9736
4.4106 -4.8420 -2.0145 0.9730
4.8913 -4.4903 -2.0423 0.9726
6.9044 2.3575 -2.2440 0.9699
6.7379 2.9956 -2.2680 0.9696
6.2445 3.4738 -2.1979 0.9705
5.5719 3.7872 -2.0722 0.9722
4.9667 4.0682 -1.9747 0.9735
4.4111 4.3254 -1.9002 0.9745
2.9182 5.0118 -1.7838 0.9760
2.4476 5.2266 -1.7751 0.9761
1.3927 3.8313 -1.2539 0.9831
0.4844 2.8214 -0.8805 0.9881
-0.6504 6.6224 -2.0467 0.9725
-1.1129 5.8754 -1.8393 0.9753
-1.9724 6.9504 -2.2222 0.9702
-2.5526 6.6636 -2.1948 0.9706
-4.0546 5.5174 -2.1060 0.9718
-4.4646 5.0590 -2.0753 0.9722
-4.8255 4.5719 -2.0446 0.9726
-5.3967 3.5342 -1.9842 0.9734
-6.0415 3.2263 -2.1066 0.9717
-6.3335 2.0419 -2.0468 0.9725
-6.4200 0.8606 -1.9923 0.9733
-6.3145 -0.2867 -1.9442 0.9739
-6.0331 -1.3744 -1.9032 0.9744
-5.8318 -1.8893 -1.8855 0.9747
-4.3056 -4.0910 -1.8268 0.9755
-2.5884 -5.3081 -1.8164 0.9756
-2.1077 -5.5256 -1.8190 0.9756
-1.6105 -5.7061 -1.8236 0.9755
-1.0991 -5.8483 -1.8303 0.9754
-0.5759 -5.9512 -1.8390 0.9753
-0.0430 -6.0138 -1.8498 0.9751
1.0414 -6.0138 -1.8772 0.9748
1.5876 -5.9494 -1.8939 0.9746
2.1327 -5.8410 -1.9126 0.9743
2.6735 -5.6878 -1.9331 0.9740
3.2067 -5.4893 -1.9554 0.9737
4.2361 -4.9551 -2.0051 0.9731
5.6277 -3.8134 -2.0909 0.9720
5.9418 -2.6315 -1.9988 0.9732
6.2459 -2.1227 -2.0290 0.9728
6.9903 0.2072 -2.1510 0.9712
7.0385 0.8412 -2.1803 0.9708
6.8041 2.7720 -2.2598 0.9697
5.8001 3.6809 -2.1129 0.9717
5.1735 3.9723 -2.0062 0.9731
4.6022 4.2370 -1.9241 0.9742
4.1437 4.5622 -1.8956 0.9745
3.0856 4.9352 -1.7902 0.9759
2.6130 5.1512 -1.7766 0.9761
0.3358 2.9802 -0.9224 0.9875
-0.4341 6.5259 -2.0116 0.9730
-2.3521 6.7708 -2.2046 0.9704
-2.9088 6.4501 -2.1763 0.9708
-3.4256 6.0817 -2.1469 0.9712
-3.8988 5.6711 -2.1167 0.9716
-4.3256 5.2241 -2.0861 0.9720
-5.9680 3.4327 -2.1176 0.9716
-6.2973 2.2513 -2.0570 0.9724
-6.4191 1.0671 -2.0015 0.9731
-6.3463 -0.0882 -1.9522 0.9738
-5.9071 -1.7103 -1.8915 0.9746
-5.6813 -2.2110 -1.8751 0.9748
-5.4193 -2.6880 -1.8606 0.9750
-4.4382 -3.9589 -1.8293 0.9754
-4.0532 -4.3238 -1.8229 0.9755
-3.2088 -4.9571 -1.8162 0.9756
-2.2791 -5.4532 -1.8179 0.9756
-1.7874 -5.6468 -1.8218 0.9755
-1.2808 -5.8026 -1.8277 0.9754
-0.2318 -5.9964 -1.8457 0.9752
0.8492 -6.0261 -1.8718 0.9749
1.9409 -5.8843 -1.9058 0.9744
2.4836 -5.7469 -1.9256 0.9741
3.0199 -5.5644 -1.9473 0.9739
3.5463 -5.3364 -1.9707 0.9735
5.0287 -4.3779 -2.0507 0.9725
5.8862 -3.5100 -2.1079 0.9717
5.8253 -2.8024 -1.9883 0.9733
6.1434 -2.3060 -2.0183 0.9729
6.4202 -1.7753 -2.0488 0.9725
6.6512 -1.2135 -2.0795 0.9721
6.8322 -0.6245 -2.1102 0.9717
6.9592 -0.0128 -2.1405 0.9713
7.0285 0.6163 -2.1701 0.9709
7.0369 1.2571 -2.1987 0.9705
6.9821 1.9030 -2.2259 0.9702
6.0377 3.5702 -2.1574 0.9711
5.3871 3.8730 -2.0407 0.9726
3.8100 4.7159 -1.8647 0.9749
1.8379 5.5038 -1.7847 0.9760
-2.7169 6.5689 -2.1865 0.9707
-3.7372 5.8202 -2.1274 0.9715
-4.1806 5.3854 -2.0970 0.9719
-4.5763 4.9179 -2.0662 0.9723
-5.8814 3.6338 -2.1264 0.9715
-6.0980 3.0527 -2.0975 0.9719
-6.2836 -0.4515 -1.9377 0.9740
-5.9777 -1.5286 -1.8978 0.9745
-5.5156 -2.5227 -1.8655 0.9749
-5.2314 -2.9834 -1.8523 0.9751
-4.9146 -3.4173 -1.8411 0.9753
-4.5674 -3.8229 -1.8320 0.9754
-3.3643 -4.8551 -1.8168 0.9756
-1.4609 -5.7521 -1.8254 0.9755
-0.9458 -5.8828 -1.8327 0.9754
0.6573 -6.0332 -1.8666 0.9749
1.2026 -5.9993 -1.8820 0.9747
2.2929 -5.8004 -1.9184 0.9742
2.8318 -5.6339 -1.9395 0.9740
3.8803 -5.1643 -1.9868 0.9733
4.3824 -4.8608 -2.0130 0.9730
4.8644 -4.5117 -2.0407 0.9726
5.3221 -4.1177 -2.0697 0.9722
5.7510 -3.6796 -2.1000 0.9718
5.7041 -2.9687 -1.9778 0.9734
6.3277 -1.9660 -2.0380 0.9727
6.7744 -0.8349 -2.0994 0.9718
6.9208 -0.2307 -2.1299 0.9714
7.0108 0.3930 -2.1598 0.9710
7.0410 1.0303 -2.1887 0.9707
7.0087 1.6752 -2.2165 0.9703
6.9119 2.3207 -2.2426 0.9699
6.7493 2.9594 -2.2667 0.9696
6.2856 3.4546 -2.2061 0.9704
5.6084 3.7702 -2.0786 0.9721
4.9999 4.0528 -1.9796 0.9734
4.4418 4.3112 -1.9039 0.9744
3.9903 4.6329 -1.8807 0.9747
3.4246 4.7798 -1.8086 0.9757
2.9453 4.9994 -1.7847 0.9760
1.4082 3.8131 -1.2502 0.9831
1.5284 5.6440 -1.7985 0.9758
-1.0805 5.8684 -1.8353 0.9753
-2.5203 6.6815 -2.1964 0.9706
-3.5699 5.9646 -2.1381 0.9713
-4.0297 5.5427 -2.1077 0.9717
-4.8062 4.6005 -2.0464 0.9725
-2.4575 1.9639 -0.9676 0.9869
-5.3832 3.5649 -1.9859 0.9733
-6.3281 2.0759 -2.0484 0.9725
-6.4203 0.8941 -1.9938 0.9732
-6.3932 0.3139 -1.9688 0.9736
-6.3201 -0.2545 -1.9455 0.9739
-5.8444 -1.8604 -1.8865 0.9747
-5.0298 -3.2675 -1.8449 0.9752
-3.9346 -4.4255 -1.8214 0.9755
-3.5170 -4.7490 -1.8176 0.9756
-1.6394 -5.6967 -1.8233 0.9755
-1.1288 -5.8412 -1.8299 0.9754
-0.6061 -5.9464 -1.8385 0.9753
-0.0738 -6.0113 -1.8491 0.9752
0.4658 -6.0349 -1.8617 0.9750
-5.8048 2.2495 -2.0694 0.9741
-5.7243 -0.9600 -1.9294 0.9758
-5.1351 -2.3805 -1.8814 0.9764
-4.8702 -2.8105 -1.8691 0.9766
-2.2641 -5.0398 -1.8365 0.9770
-1.8086 -5.2305 -1.8396 0.9769
-0.3635 -5.5855 -1.8606 0.9767
0.6427 -5.6314 -1.8841 0.9764
1.1512 -5.5945 -1.8986 0.9762
2.6652 -5.2356 -1.9529 0.9755
3.1559 -5.0317 -1.9743 0.9753
3.6340 -4.7853 -1.9974 0.9750
4.9561 -3.7941 -2.0747 0.9740
5.2936 -2.7207 -1.9784 0.9752
2.3177 -0.9404 -0.8314 0.9895
6.3697 -0.1797 -2.1182 0.9735
6.4199 1.5692 -2.1968 0.9725
6.3215 2.1585 -2.2204 0.9722
6.1636 2.7403 -2.2422 0.9720
4.4052 4.3197 -2.0509 0.9743
2.4446 5.2201 -1.9160 0.9760
0.4937 6.1020 -2.0350 0.9745
-0.0545 6.3475 -2.1100 0.9736
-0.6494 6.6129 -2.2088 0.9724
-1.8074 6.3689 -2.2007 0.9725
-2.3415 6.1124 -2.1758 0.9728
-2.8427 5.8085 -2.1496 0.9731
-3.7317 5.0780 -2.0947 0.9738
-4.1138 4.6615 -2.0666 0.9741
-2.4666 1.9506 -1.0453 0.9868
-4.9899 3.2678 -1.9827 0.9752
-5.5915 2.9859 -2.1071 0.9736
-5.7581 2.4425 -2.0791 0.9740
-5.7716 -0.7821 -1.9360 0.9757
-5.2208 -2.2234 -1.8862 0.9764
-4.9672 -2.6617 -1.8733 0.9765
-4.3674 -3.4640 -1.8530 0.9768
-3.6574 -4.1563 -1.8403 0.9769
-2.8531 -4.7274 -1.8354 0.9770
-2.4208 -4.9643 -1.8359 0.9770
-1.9709 -5.1673 -1.8383 0.9770
-1.5058 -5.3351 -1.8427 0.9769
-1.0274 -5.4668 -1.8490 0.9768
-0.5381 -5.5612 -1.8572 0.9767
0.9718 -5.6121 -1.8933 0.9763
1.9877 -5.4440 -1.9265 0.9759
2.9842 -5.1084 -1.9666 0.9754
4.3847 -4.2872 -2.0384 0.9745
4.8117 -3.9298 -2.0651 0.9742
5.4909 -2.4318 -1.9962 0.9750
5.9994 -1.4573 -2.0522 0.9743
6.3316 -0.3783 -2.1084 0.9736
6.4598 0.7720 -2.1626 0.9729
6.4405 1.3610 -2.1881 0.9726
6.3630 1.9513 -2.2123 0.9723
6.0295 3.1098 -2.2551 0.9718
5.7740 3.6643 -2.2732 0.9716
5.1662 3.9667 -2.1651 0.9729
4.5960 4.2314 -2.0766 0.9740
4.0659 4.4765 -2.0102 0.9748
3.5643 4.7076 -1.9628 0.9754
1.1832 5.7919 -1.9650 0.9754
0.3365 2.9866 -0.9991 0.9874
0.1433 6.2590 -2.0811 0.9740
-0.4335 6.5167 -2.1710 0.9728
-0.9231 5.8796 -1.9784 0.9752
-3.5869 5.2173 -2.1046 0.9737
-3.9841 4.8117 -2.0765 0.9740
-4.9085 3.4400 -1.9924 0.9751
-5.7053 2.6349 -2.0890 0.9739
-5.8393 2.0876 -2.0613 0.9742
-5.9640 0.9914 -2.0097 0.9748
-5.8140 -0.6022 -1.9429 0.9757
-5.6810 -1.1074 -1.9239 0.9759
-5.5098 -1.5952 -1.9067 0.9761
-4.7861 -2.9328 -1.8658 0.9766
-2.5752 -4.8846 -1.8355 0.9770
-2.1313 -5.0997 -1.8373 0.9770
-1.1974 -5.4246 -1.8466 0.9769
0.2857 -5.6332 -1.8749 0.9765
0.7926 -5.6247 -1.8882 0.9763
1.3014 -5.5757 -1.9032 0.9762
1.8094 -5.4856 -1.9201 0.9759
2.8112 -5.1798 -1.9590 0.9755
3.7722 -4.7045 -2.0044 0.9749
4.2286 -4.4034 -2.0293 0.9746
5.0743 -3.6766 -2.0829 0.9739
5.3853 -2.5908 -1.9865 0.9751
5.9217 -1.6375 -2.0423 0.9744
6.1277 -1.1180 -2.0705 0.9741
6.2871 -0.5747 -2.0986 0.9737
6.4531 0.5659 -2.1533 0.9731
6.4539 1.1529 -2.1793 0.9727
5.8707 3.4715 -2.2671 0.9717
4.7917 4.1406 -2.1051 0.9737
4.2051 4.3467 -2.0104 0.9748
2.3063 5.2831 -1.9162 0.9760
1.8356 5.4969 -1.9264 0.9759
1.3559 5.7140 -1.9521 0.9755
0.4048 2.7984 -0.9399 0.9882
-0.8349 6.6847 -2.2393 0.9720
-1.9682 6.2984 -2.1935 0.9726
-3.8490 4.9582 -2.0865 0.9739
-4.2182 4.5331 -2.0583 0.9742
-5.7977 2.2809 -2.0710 0.9741
-5.9294 0.1043 -1.9713 0.9753
-5.8513 -0.4204 -1.9500 0.9756
-5.7323 -0.9312 -1.9304 0.9758
-5.5744 -1.4254 -1.9126 0.9760
-5.1493 -2.3552 -1.8822 0.9764
-4.8863 -2.7866 -1.8698 0.9766
-4.2692 -3.5733 -1.8506 0.9768
-3.1463 -4.5406 -1.8363 0.9770
-2.7275 -4.8008 -1.8354 0.9770
-1.8352 -5.2205 -1.8394 0.9769
0.1081 -5.6268 -1.8707 0.9766
1.1220 -5.5977 -1.8977 0.9762
2.6368 -5.2460 -1.9517 0.9756
3.1281 -5.0445 -1.9731 0.9753
3.6070 -4.8006 -1.9960 0.9750
5.2754 -2.7456 -1.9769 0.9752
6.2365 -0.7686 -2.0887 0.9739
6.3288 2.1249 -2.2191 0.9723
6.1742 2.7073 -2.2410 0.9720
5.9602 3.2758 -2.2607 0.9717
4.9929 4.0472 -2.1365 0.9733
3.4203 4.7737 -1.9521 0.9755
1.3520 3.6608 -1.2972 0.9837
0.5231 2.9558 -0.9978 0.9874
0.5239 6.0884 -2.0313 0.9746
-0.0220 6.3329 -2.1051 0.9737
-0.6138 6.5971 -2.2024 0.9725
-1.7759 6.3821 -2.2020 0.9725
-2.8150 5.8271 -2.1511 0.9731
-3.2816 5.4830 -2.1241 0.9734
-4.0931 4.6861 -2.0682 0.9741
-4.9771 3.2959 -1.9843 0.9752
-5.5793 3.0162 -2.1082 0.9736
-5.9469 0.2920 -1.9791 0.9752
-5.7788 -0.7529 -1.9372 0.9757
-5.2343 -2.1976 -1.8870 0.9764
-4.9826 -2.6373 -1.8739 0.9765
-3.6791 -4.1381 -1.8406 0.9769
-2.8774 -4.7128 -1.8355 0.9770
-2.4460 -4.9517 -1.8358 0.9770
-1.5328 -5.3265 -1.8424 0.9769
1.9588 -5.4511 -1.9254 0.9759
-5.5023 1.5846 -2.0476 0.9760
-5.5560 1.0748 -2.0237 0.9762
-5.5355 0.0690 -1.9797 0.9768
-5.3544 -0.8979 -1.9415 0.9772
-5.2077 -1.3601 -1.9248 0.9774
-5.0259 -1.8049 -1.9097 0.9776
-4.8110 -2.2303 -1.8963 0.9777
-4.2890 -3.0150 -1.8748 0.9780
-3.9858 -3.3709 -1.8667 0.9781
-1.6969 -4.9072 -1.8568 0.9782
-0.3408 -5.2366 -1.8766 0.9780
0.6021 -5.2754 -1.8988 0.9777
1.0779 -5.2383 -1.9125 0.9775
2.9475 -4.6994 -1.9837 0.9767
3.3914 -4.4659 -2.0053 0.9765
4.2279 -3.8813 -2.0524 0.9759
4.9181 -2.5277 -1.9774 0.9768
2.3177 -0.9404 -0.8944 0.9894
5.6240 -1.1800 -2.0550 0.9759
5.8884 -0.1661 -2.1066 0.9753
5.9601 0.9033 -2.1557 0.9747
5.6727 2.5221 -2.2201 0.9740
5.4688 3.0422 -2.2379 0.9738
5.2118 3.5424 -2.2535 0.9736
4.9035 4.0165 -2.2667 0.9734
3.6614 4.2953 -2.0184 0.9763
1.3851 3.8104 -1.4499 0.9829
1.4970 5.6422 -2.0875 0.9755
0.5041 2.9358 -1.0652 0.9874
0.4930 6.0939 -2.1863 0.9744
-0.0538 6.2651 -2.2405 0.9737
-2.6250 5.3636 -2.1354 0.9750
-3.4526 4.6982 -2.0850 0.9755
-2.4662 1.9503 -1.1244 0.9867
-4.6353 3.0356 -1.9814 0.9767
-5.1910 2.7721 -2.1044 0.9753
-5.3591 2.2732 -2.0817 0.9756
-5.4729 1.7644 -2.0563 0.9759
-5.5421 1.2542 -2.0320 0.9762
-5.4939 -0.2494 -1.9667 0.9769
-5.3974 -0.7314 -1.9478 0.9771
-4.6550 -2.4944 -1.8886 0.9778
-4.3894 -2.8835 -1.8781 0.9779
-4.0957 -3.2484 -1.8694 0.9780
-3.7756 -3.5875 -1.8625 0.9781
-3.4313 -3.8993 -1.8574 0.9782
-2.2714 -4.6581 -1.8532 0.9782
-1.8492 -4.8481 -1.8555 0.9782
-1.4126 -5.0048 -1.8597 0.9782
-0.5046 -5.2144 -1.8734 0.9780
-0.0377 -5.2654 -1.8830 0.9779
1.8594 -5.0926 -1.9388 0.9772
2.7879 -4.7723 -1.9765 0.9768
4.0864 -3.9956 -2.0438 0.9760
4.4803 -3.6592 -2.0687 0.9757
4.8488 -3.2856 -2.0945 0.9754
4.8143 -2.6692 -1.9685 0.9769
5.3476 -1.8174 -2.0198 0.9763
5.9623 0.7125 -2.1473 0.9748
5.5468 2.8609 -2.2319 0.9738
5.0179 3.8528 -2.2624 0.9735
3.8281 4.2146 -2.0361 0.9761
3.0778 4.9228 -2.0762 0.9756
2.6065 5.1383 -2.0604 0.9758
1.5111 3.7819 -1.4564 0.9828
0.6224 3.0469 -1.1121 0.9869
0.3353 2.9755 -1.0708 0.9874
0.1431 6.2505 -2.2358 0.9738
-0.9224 5.8753 -2.1268 0.9751
-1.4856 5.9408 -2.1899 0.9743
-1.9891 5.7257 -2.1676 0.9746
-2.4647 5.4654 -2.1440 0.9749
-2.9086 5.1638 -2.1194 0.9751
-3.3174 4.8254 -2.0941 0.9754
-3.6885 4.4547 -2.0682 0.9757
-4.0199 4.0562 -2.0422 0.9760
-5.3082 2.4515 -2.0909 0.9755
-5.5227 1.4339 -2.0404 0.9761
-5.5636 0.9248 -2.0169 0.9763
-5.4357 -0.5630 -1.9543 0.9771
-5.1576 -1.4933 -1.9201 0.9774
-4.7415 -2.3518 -1.8927 0.9778
-4.2023 -3.1227 -1.8722 0.9780
-3.8913 -3.4710 -1.8647 0.9781
-3.1962 -4.0860 -1.8551 0.9782
-2.8159 -4.3500 -1.8531 0.9782
-2.4164 -4.5834 -1.8529 0.9782
-0.2030 -5.2516 -1.8794 0.9779
0.2677 -5.2788 -1.8902 0.9778
1.6930 -5.1327 -1.9328 0.9773
2.1635 -5.0062 -1.9503 0.9771
2.6269 -4.8403 -1.9694 0.9769
3.5196 -4.3894 -2.0120 0.9764
5.2638 -1.9758 -2.0106 0.9764
5.9580 0.5225 -2.1388 0.9749
5.6181 2.6773 -2.2256 0.9739
5.3984 3.1922 -2.2428 0.9737
4.7851 4.1349 -2.2616 0.9735
4.0003 4.1350 -2.0574 0.9759
2.7719 5.0628 -2.0641 0.9758
1.8333 5.4900 -2.0698 0.9757
1.3542 5.7066 -2.0974 0.9754
0.4047 2.7972 -1.0107 0.9881
-0.7685 6.1530 -2.2174 0.9740
-1.2887 5.9423 -2.1744 0.9745
-1.8146 5.8069 -2.1756 0.9745
-2.7560 5.2745 -2.1282 0.9750
-3.5622 4.5888 -2.0774 0.9756
-3.9078 4.1995 -2.0514 0.9759
-4.2126 3.7856 -2.0253 0.9762
-4.6959 2.9014 -1.9740 0.9768
-5.5541 1.1039 -2.0250 0.9762
-5.5672 0.5974 -2.0023 0.9765
-5.5384 0.0974 -1.9809 0.9767
-5.4694 -0.3930 -1.9609 0.9770
-5.3617 -0.8710 -1.9425 0.9772
-4.8241 -2.2065 -1.8970 0.9777
-4.5796 -2.6117 -1.8853 0.9779
-4.0038 -3.3512 -1.8672 0.9781
-2.9522 -4.2604 -1.8536 0.9782
-2.5593 -4.5047 -1.8527 0.9782
-1.7217 -4.8979 -1.8566 0.9782
-1.2812 -5.0446 -1.8613 0.9781
0.5748 -5.2764 -1.8981 0.9777
1.0506 -5.2414 -1.9117 0.9775
1.9984 -5.0553 -1.9439 0.9772
2.9216 -4.7116 -1.9826 0.9767
4.2051 -3.9002 -2.0510 0.9759
4.9480 -3.1658 -2.1006 0.9754
4.9015 -2.5510 -1.9760 0.9768
5.4141 -1.6822 -2.0274 0.9762
5.8834 -0.1961 -2.1051 0.9753
5.9609 0.8723 -2.1544 0.9747
5.9220 1.4154 -2.1774 0.9745
5.6828 2.4918 -2.2190 0.9740
5.4819 3.0129 -2.2370 0.9738
4.9226 3.9901 -2.2660 0.9734
3.6873 4.2811 -2.0205 0.9763
2.9379 4.9869 -2.0698 0.9757
1.4031 3.7992 -1.4483 0.9829
1.5245 5.6297 -2.0857 0.9755
0.5205 2.9414 -1.0682 0.9874
-0.0217 6.2679 -2.2415 0.9737
-0.5762 6.1926 -2.2241 0.9739
-1.6368 5.8822 -2.1834 0.9744
-2.5992 5.3805 -2.1368 0.9749
-3.0330 5.0676 -2.1120 0.9752
-3.7905 4.3398 -2.0606 0.9758
-4.1099 3.9340 -2.0345 0.9761
-2.4568 1.9634 -1.1247 0.9867
-4.6231 3.0615 -1.9829 0.9767
-5.1794 2.8000 -2.1055 0.9753
-5.3512 2.3023 -2.0832 0.9756
-5.4676 1.7936 -2.0578 0.9759
-5.5674 0.7753 -2.0102 0.9764
-5.1045 -1.6249 -1.9157 0.9775
-4.9029 -2.0585 -1.9016 0.9777
-4.1132 -3.2282 -1.8698 0.9780
-3.4516 -3.8822 -1.8577 0.9782
-1.8738 -4.8381 -1.8554 0.9782
-0.9896 -5.1212 -1.8653 0.9781
0.4076 -5.2797 -1.8937 0.9778
0.8829 -5.2581 -1.9067 0.9776
1.3587 -5.1983 -1.9214 0.9774
1.8324 -5.0995 -1.9378 0.9772
-5.1458 1.4819 -2.0521 0.9773
-5.2000 1.0059 -2.0297 0.9776
-5.2137 0.5325 -2.0084 0.9778
-5.1881 0.0647 -1.9883 0.9780
-5.0244 -0.8426 -1.9523 0.9784
-4.8893 -1.2770 -1.9365 0.9786
-4.7209 -1.6954 -1.9223 0.9787
-4.5209 -2.0958 -1.9096 0.9789
-3.1092 -3.7660 -1.8715 0.9793
-2.7573 -4.0230 -1.8690 0.9793
-2.3866 -4.2513 -1.8683 0.9793
-1.9990 -4.4497 -1.8694 0.9793
-1.1813 -4.7526 -1.8767 0.9792
-0.7552 -4.8552 -1.8830 0.9792
0.1206 -4.9582 -1.9006 0.9790
3.1760 -4.1822 -2.0124 0.9778
3.9534 -3.6293 -2.0566 0.9773
4.3103 -3.2997 -2.0803 0.9770
4.5874 -2.3577 -1.9766 0.9781
2.3176 -0.9404 -0.9585 0.9893
5.0529 -1.5417 -2.0245 0.9776
5.3715 -0.6341 -2.0727 0.9771
5.5258 0.8375 -2.1418 0.9763
5.4827 1.3401 -2.1629 0.9761
5.0563 2.8128 -2.2173 0.9755
4.8162 3.2735 -2.2316 0.9754
4.1486 4.0680 -2.2266 0.9754
3.6543 4.2869 -2.1587 0.9762
2.9071 4.9928 -2.2141 0.9756
1.3608 3.7435 -1.5264 0.9831
1.4950 5.6348 -2.2341 0.9753
0.4700 5.8097 -2.2337 0.9753
-0.0497 5.7920 -2.2197 0.9755
-0.5620 5.7228 -2.2036 0.9757
-1.0615 5.6039 -2.1857 0.9759
-2.0025 5.2274 -2.1452 0.9763
-2.4354 4.9762 -2.1231 0.9765
-2.8384 4.6879 -2.1001 0.9768
-3.5439 4.0158 -2.0525 0.9773
-2.4659 1.9500 -1.2048 0.9866
-4.3230 2.8311 -1.9803 0.9781
-4.5043 2.4054 -1.9569 0.9784
-5.0065 2.1237 -2.0841 0.9770
-5.1856 1.1735 -2.0375 0.9775
-5.1511 -0.2339 -1.9760 0.9782
-4.9408 -1.1256 -1.9419 0.9785
-4.3754 -2.3446 -1.9023 0.9790
-4.1272 -2.7113 -1.8924 0.9791
-3.8520 -3.0552 -1.8841 0.9792
-3.5518 -3.3748 -1.8776 0.9792
-3.2284 -3.6688 -1.8728 0.9793
-2.8836 -3.9356 -1.8697 0.9793
-2.1374 -4.3833 -1.8688 0.9793
-1.3290 -4.7086 -1.8749 0.9793
-0.9064 -4.8229 -1.8806 0.9792
-0.4745 -4.9036 -1.8879 0.9791
-0.0354 -4.9501 -1.8970 0.9790
1.3013 -4.8765 -1.9342 0.9786
1.7450 -4.7792 -1.9497 0.9784
2.1832 -4.6448 -1.9668 0.9783
3.4358 -4.0190 -2.0262 0.9776
3.8221 -3.7372 -2.0485 0.9774
4.1873 -3.4198 -2.0718 0.9771
4.5272 -3.0677 -2.0957 0.9768
4.9809 -1.6928 -2.0160 0.9777
5.1733 -1.2567 -2.0402 0.9775
5.3270 -0.7996 -2.0643 0.9772
5.4392 -0.3250 -2.0881 0.9769
5.5074 0.1632 -2.1115 0.9767
5.5294 0.6608 -2.1341 0.9764
5.5035 1.1630 -2.1556 0.9762
5.4285 1.6648 -2.1759 0.9760
5.3038 2.1608 -2.1947 0.9758
5.1295 2.6456 -2.2118 0.9756
4.3198 3.9771 -2.2502 0.9752
3.3515 4.4265 -2.1277 0.9765
3.0739 4.9165 -2.2220 0.9755
1.6637 5.5586 -2.2235 0.9755
1.1746 5.7496 -2.2489 0.9752
0.3168 2.8116 -1.0843 0.9880
0.1329 5.8042 -2.2249 0.9754
-0.3827 5.7530 -2.2095 0.9756
-0.8873 5.6514 -2.1922 0.9758
-1.3757 5.5016 -2.1732 0.9760
-1.8434 5.3064 -2.1527 0.9762
-2.2860 5.0692 -2.1310 0.9765
-3.0821 4.4832 -2.0849 0.9770
-2.4765 2.0884 -1.2414 0.9862
-4.9538 2.2879 -2.0911 0.9769
-5.2082 0.8658 -2.0233 0.9776
-5.2102 0.3937 -2.0023 0.9779
-5.1732 -0.0719 -1.9827 0.9781
-4.9881 -0.9723 -1.9475 0.9785
-4.6651 -1.8155 -1.9184 0.9788
-3.9520 -2.9367 -1.8868 0.9791
-3.3449 -3.5682 -1.8743 0.9793
-3.0074 -3.8448 -1.8706 0.9793
-0.6277 -4.8791 -1.8851 0.9791
-0.1908 -4.9377 -1.8936 0.9791
0.2517 -4.9615 -1.9038 0.9789
1.1442 -4.9021 -1.9291 0.9787
2.8857 -4.3423 -1.9980 0.9779
4.0612 -3.5357 -2.0635 0.9772
4.4109 -3.1959 -2.0874 0.9769
5.1098 -1.4129 -2.0316 0.9775
5.2775 -0.9629 -2.0558 0.9773
5.4886 -0.0101 -2.1033 0.9768
5.5271 0.4847 -2.1262 0.9765
5.5182 0.9858 -2.1482 0.9763
5.4606 1.4883 -2.1689 0.9760
4.7362 3.4051 -2.2354 0.9753
4.4361 3.8333 -2.2467 0.9752
3.9949 4.1294 -2.2018 0.9757
3.2418 4.8394 -2.2322 0.9754
1.8310 5.4829 -2.2152 0.9755
1.3524 5.6992 -2.2447 0.9752
0.4079 2.8197 -1.0918 0.9879
-0.2019 5.7769 -2.2152 0.9755
-0.7110 5.6928 -2.1985 0.9757
-1.6812 5.3802 -2.1601 0.9761
-2.1331 5.1574 -2.1388 0.9764
-3.3114 4.2657 -2.0694 0.9771
-3.6359 3.9073 -2.0454 0.9774
-5.0435 1.9842 -2.0769 0.9771
-5.1415 1.5092 -2.0534 0.9773
-5.2140 0.5595 -2.0096 0.9778
-5.1906 0.0913 -1.9894 0.9780
-5.1291 -0.3685 -1.9706 0.9782
-5.0311 -0.8173 -1.9533 0.9784
-4.8980 -1.2525 -1.9374 0.9786
-4.7314 -1.6719 -1.9230 0.9787
-4.5332 -2.0734 -1.9103 0.9789
-4.3051 -2.4551 -1.8992 0.9790
-4.0487 -2.8152 -1.8897 0.9791
-3.7660 -3.1521 -1.8820 0.9792
-3.4587 -3.4643 -1.8760 0.9792
-3.1287 -3.7504 -1.8717 0.9793
-1.6200 -4.6084 -1.8720 0.9793
-1.2053 -4.7458 -1.8764 0.9792
-0.7798 -4.8502 -1.8826 0.9792
-0.3456 -4.9210 -1.8904 0.9791
0.0952 -4.9571 -1.9000 0.9790
0.5401 -4.9581 -1.9113 0.9789
0.9868 -4.9231 -1.9241 0.9787
1.4327 -4.8516 -1.9386 0.9786
1.8750 -4.7434 -1.9546 0.9784
2.3111 -4.5980 -1.9721 0.9782
2.7380 -4.4155 -1.9910 0.9780
4.2906 -3.3196 -2.0789 0.9770
4.6173 -2.9542 -2.1006 0.9768
5.0415 -1.5664 -2.0231 0.9776
5.3646 -0.6612 -2.0714 0.9771
5.4641 -0.1821 -2.0951 0.9769
5.5188 0.3093 -2.1182 0.9766
5.0686 2.7858 -2.2164 0.9755
4.5469 3.6857 -2.2430 0.9752
4.1684 4.0458 -2.2261 0.9754
3.6815 4.2744 -2.1618 0.9761
2.9342 4.9805 -2.2152 0.9755
1.3783 3.7323 -1.5247 0.9831
1.5226 5.6224 -2.2322 0.9754
0.5193 2.9348 -1.1421 0.9873
0.4999 5.8091 -2.2344 0.9753
-0.0201 5.7945 -2.2206 0.9755
-0.5330 5.7282 -2.2046 0.9757
-1.0333 5.6120 -2.1868 0.9759
-1.9768 5.2406 -2.1464 0.9763
-2.4114 4.9916 -2.1244 0.9765
-3.1885 4.3856 -2.0779 0.9770
-3.5257 4.0366 -2.0539 0.9773
-3.8261 3.6624 -2.0297 0.9776
-2.4565 1.9631 -1.2051 0.9866
-4.3114 2.8551 -1.9817 0.9781
-4.4950 2.4301 -1.9582 0.9783
-4.9989 2.1507 -2.0854 0.9770
-5.1828 1.2008 -2.0387 0.9775
-5.2129 0.7259 -2.0170 0.9777
-5.1550 -0.2076 -1.9771 0.9781
-5.0697 -0.6606 -1.9592 0.9783
-4.6066 -1.9340 -1.9146 0.9788
-3.8685 -3.0361 -1.8845 0.9792
-3.5697 -3.3572 -1.8779 0.9792
-3.2475 -3.6526 -1.8730 0.9793
-0.9309 -4.8172 -1.8802 0.9792
-0.0607 -4.9484 -1.8965 0.9790
0.8293 -4.9395 -1.9194 0.9788
1.2758 -4.8810 -1.9333 0.9786
-4.8818 0.9443 -2.0350 0.9787
-1.9576 0.1999 -0.8054 0.9915
-1.9547 -0.1505 -0.8024 0.9916
-2.1006 -0.3523 -0.8717 0.9908
-4.4464 -1.5968 -1.9336 0.9798
-4.2597 -1.9747 -1.9216 0.9799
-4.0445 -2.3340 -1.9112 0.9800
-3.8025 -2.6730 -1.9023 0.9801
-3.5354 -2.9900 -1.8950 0.9802
-0.7121 -4.5783 -1.8963 0.9802
0.1137 -4.6729 -1.9131 0.9800
0.5330 -4.6702 -1.9238 0.9799
1.3726 -4.5622 -1.9499 0.9796
1.7879 -4.4562 -1.9651 0.9795
2.1967 -4.3151 -1.9817 0.9793
3.7084 -3.4044 -2.0604 0.9785
2.3176 -0.9404 -1.0237 0.9892
4.7221 -1.4407 -2.0206 0.9789
4.8856 -1.0251 -2.0431 0.9787
5.0119 -0.5917 -2.0655 0.9784
5.0985 -0.1438 -2.0875 0.9782
5.1433 0.3147 -2.1089 0.9780
5.1009 1.2468 -2.1491 0.9776
4.2029 3.4426 -2.2235 0.9768
3.8945 3.8189 -2.2324 0.9767
3.1313 4.4180 -2.2163 0.9769
2.3245 4.9637 -2.2432 0.9766
0.5089 2.9639 -1.2308 0.9871
-0.0462 5.3788 -2.2015 0.9770
-0.5222 5.3173 -2.1867 0.9772
-0.9869 5.2098 -2.1702 0.9773
-1.4356 5.0586 -2.1521 0.9775
-1.8641 4.8661 -2.1327 0.9777
-3.5901 3.4015 -2.0241 0.9789
-4.0457 2.6495 -1.9793 0.9793
-4.7993 1.5473 -2.0638 0.9784
-4.8671 1.1015 -2.0423 0.9787
-1.9495 0.2613 -0.8050 0.9915
-1.9369 0.0852 -0.7935 0.9917
-1.9379 -0.0880 -0.7939 0.9917
-4.6507 -1.0595 -1.9522 0.9796
-4.5051 -1.4595 -1.9382 0.9797
-4.3288 -1.8435 -1.9257 0.9799
-4.1235 -2.2096 -1.9147 0.9800
-3.0452 -3.4606 -1.8866 0.9803
-2.7202 -3.7127 -1.8837 0.9803
-2.0164 -4.1351 -1.8829 0.9803
-1.6414 -4.3031 -1.8849 0.9803
-0.4474 -4.6233 -1.9010 0.9801
0.8053 -4.6504 -1.9316 0.9798
1.6422 -4.4975 -1.9596 0.9795
2.0535 -4.3688 -1.9757 0.9794
2.4565 -4.2051 -1.9932 0.9792
3.2259 -3.7734 -2.0318 0.9788
3.5862 -3.5065 -2.0527 0.9786
3.9261 -3.2065 -2.0746 0.9783
4.2397 -2.8728 -2.0960 0.9781
4.2055 -2.3316 -1.9680 0.9794
4.6560 -1.5824 -2.0126 0.9790
4.8321 -1.1738 -2.0352 0.9787
5.1324 0.1521 -2.1015 0.9781
5.1491 0.6154 -2.1224 0.9778
5.1214 1.0822 -2.1424 0.9776
5.0483 1.5482 -2.1611 0.9774
4.7647 2.4575 -2.1942 0.9771
2.9067 4.6492 -2.2441 0.9766
2.4803 4.8895 -2.2439 0.9766
1.5665 5.2338 -2.2360 0.9767
0.3152 2.7976 -1.1523 0.9879
-0.3555 5.3443 -2.1921 0.9771
-0.8247 5.2528 -2.1762 0.9773
-1.2795 5.1167 -2.1586 0.9775
-1.7156 4.9385 -2.1397 0.9777
-2.1290 4.7210 -2.1196 0.9779
-2.8747 4.1815 -2.0768 0.9783
-3.4950 3.5266 -2.0321 0.9788
-2.3986 2.0227 -1.2842 0.9865
-2.7031 1.8944 -1.3510 0.9858
-4.1619 2.3938 -1.9650 0.9795
-4.7661 1.7039 -2.0716 0.9784
-1.9119 -0.0266 -0.7826 0.9918
-4.6944 -0.9151 -1.9575 0.9795
-4.3944 -1.7102 -1.9299 0.9798
-3.7262 -2.7689 -1.9000 0.9801
-3.4520 -3.0792 -1.8932 0.9802
-3.1550 -3.3656 -1.8880 0.9803
-2.8370 -3.6268 -1.8846 0.9803
-1.7751 -4.2473 -1.8840 0.9803
-1.3915 -4.3960 -1.8872 0.9803
-0.9964 -4.5140 -1.8920 0.9802
-0.1799 -4.6546 -1.9064 0.9801
0.6571 -4.6630 -1.9273 0.9799
2.7117 -4.0804 -2.0052 0.9790
3.0946 -3.8595 -2.0247 0.9788
3.8088 -3.3159 -2.0668 0.9784
4.4199 -2.6357 -2.1062 0.9780
4.5858 -1.7213 -2.0047 0.9791
4.7741 -1.3201 -2.0272 0.9788
5.1161 -0.0094 -2.0939 0.9781
5.1482 0.4515 -2.1151 0.9779
5.0793 1.3844 -2.1547 0.9775
4.6341 2.7402 -2.2034 0.9770
4.3961 3.1606 -2.2160 0.9769
4.1160 3.5567 -2.2264 0.9768
3.4256 4.2401 -2.2310 0.9767
2.1921 5.0214 -2.2424 0.9766
1.2588 5.3045 -2.2313 0.9767
0.2935 5.3937 -2.2108 0.9769
-1.1211 5.1696 -2.1650 0.9774
-1.9861 4.8019 -2.1268 0.9778
-2.3831 4.5607 -2.1060 0.9780
-2.7519 4.2857 -2.0845 0.9782
-3.0901 3.9806 -2.0624 0.9785
-2.4675 1.8477 -1.2616 0.9868
-4.2626 2.1339 -1.9510 0.9796
-4.7281 1.8601 -2.0794 0.9783
-4.8234 1.4158 -2.0574 0.9785
-4.8797 0.9699 -2.0362 0.9787
-1.9154 0.0337 -0.7841 0.9918
-1.9526 -0.1403 -0.8012 0.9916
-4.6110 -1.1791 -1.9479 0.9796
-4.2712 -1.9535 -1.9222 0.9799
-4.0575 -2.3139 -1.9117 0.9800
-3.5513 -2.9725 -1.8954 0.9802
-2.9513 -3.5377 -1.8856 0.9803
-2.2720 -3.9990 -1.8824 0.9803
-1.5281 -4.3470 -1.8859 0.9803
-1.1368 -4.4760 -1.8901 0.9802
-0.7354 -4.5737 -1.8959 0.9802
0.0897 -4.6720 -1.9125 0.9800
0.5089 -4.6713 -1.9232 0.9799
0.9294 -4.6365 -1.9354 0.9798
1.3487 -4.5673 -1.9491 0.9796
2.1735 -4.3241 -1.9807 0.9793
2.5734 -4.1501 -1.9986 0.9791
3.6888 -3.4213 -2.0591 0.9785
4.2796 -2.2273 -1.9745 0.9794
4.7116 -1.4639 -2.0193 0.9789
5.0057 -0.6169 -2.0642 0.9784
5.1419 0.2882 -2.1077 0.9780
5.0180 1.6848 -2.1664 0.9774
4.8855 2.1422 -2.1833 0.9772
4.7075 2.5873 -2.1985 0.9771
4.4849 3.0149 -2.2118 0.9769
3.9133 3.7981 -2.2319 0.9767
3.1537 4.4016 -2.2161 0.9769
2.3500 4.9520 -2.2434 0.9766
1.4268 5.2686 -2.2340 0.9767
0.5271 2.9785 -1.2380 0.9870
-1.4103 5.0684 -2.1532 0.9775
-1.8401 4.8782 -2.1339 0.9777
-2.2462 4.6498 -2.1134 0.9779
-2.9746 4.0914 -2.0703 0.9784
-3.5750 3.4220 -2.0254 0.9788
-4.0347 2.6719 -1.9806 0.9793
-4.8642 1.1270 -2.0436 0.9787
-1.9472 0.2711 -0.8046 0.9915
-1.9403 0.0953 -0.7951 0.9916
-1.9343 -0.0779 -0.7923 0.9917
-1.9510 -0.2542 -0.8052 0.9915
-4.3397 -1.8220 -1.9263 0.9799
-4.1360 -2.1891 -1.9152 0.9800
-3.9048 -2.5366 -1.9057 0.9801
-3.6477 -2.8629 -1.8978 0.9802
-2.7394 -3.6990 -1.8838 0.9803
-2.3968 -3.9257 -1.8825 0.9803
-2.0374 -4.1245 -1.8828 0.9803
-0.0572 -4.6643 -1.9091 0.9800
1.2012 -4.5956 -1.9441 0.9797
-4.4485 1.7239 -2.0792 0.9794
-1.5259 0.1558 -0.6685 0.9933
-1.5249 0.0190 -0.6646 0.9934
-1.5290 -0.1177 -0.6683 0.9933
-1.5059 -0.2525 -0.6655 0.9934
-1.5522 -0.4054 -0.6992 0.9930
-1.5954 -0.5729 -0.7388 0.9926
-3.8208 -2.2049 -1.9225 0.9809
-3.5931 -2.5258 -1.9141 0.9810
-3.3414 -2.8259 -1.9072 0.9811
-3.0674 -3.1040 -1.9019 0.9811
-2.1287 -3.7920 -1.8952 0.9812
-1.7829 -3.9687 -1.8961 0.9812
-1.0531 -4.2371 -1.9028 0.9811
0.5033 -4.4103 -1.9346 0.9808
1.6864 -4.2031 -1.9737 0.9804
2.0709 -4.0681 -1.9895 0.9803
2.4462 -3.9001 -2.0064 0.9801
2.8094 -3.6995 -2.0245 0.9799
3.1577 -3.4666 -2.0436 0.9797
3.4883 -3.2023 -2.0637 0.9796
3.7981 -2.9076 -2.0846 0.9793
4.0308 -2.0717 -1.9751 0.9804
2.3176 -0.9404 -1.0900 0.9891
4.4268 -1.3506 -2.0171 0.9800
4.6920 -0.5539 -2.0591 0.9796
4.8066 0.7285 -2.1187 0.9790
4.7630 1.1642 -2.1369 0.9788
4.5486 2.0223 -2.1694 0.9785
4.3781 2.4355 -2.1834 0.9784
4.1665 2.8320 -2.1956 0.9783
3.9155 3.2072 -2.2058 0.9782
3.3044 3.8765 -2.2200 0.9780
2.5689 4.4120 -2.2250 0.9780
2.1642 4.6215 -2.2240 0.9780
1.3883 3.8192 -1.7710 0.9824
0.5336 3.1078 -1.3742 0.9863
-0.0430 5.0144 -2.1855 0.9784
-0.4870 4.9593 -2.1718 0.9785
-1.7415 4.5461 -2.1217 0.9790
-2.1208 4.3334 -2.1026 0.9792
-2.4753 4.0880 -2.0828 0.9794
-3.0995 3.5121 -2.0415 0.9798
-3.3653 3.1884 -2.0204 0.9800
-2.4048 1.9017 -1.3361 0.9867
-3.7976 2.4870 -1.9784 0.9804
-1.5282 0.3458 -0.6829 0.9932
-1.5291 0.0672 -0.6670 0.9933
-1.5178 -0.2057 -0.6675 0.9933
-1.5293 -0.3484 -0.6836 0.9932
-1.5843 -0.5132 -0.7258 0.9928
-3.8950 -2.0872 -1.9259 0.9809
-3.6762 -2.4150 -1.9169 0.9810
-3.4327 -2.7226 -1.9095 0.9811
-3.1664 -3.0086 -1.9036 0.9811
-2.8788 -3.2715 -1.8992 0.9812
-2.5718 -3.5101 -1.8964 0.9812
-2.2471 -3.7232 -1.8952 0.9812
-1.9064 -3.9096 -1.8956 0.9812
-1.5518 -4.0682 -1.8976 0.9812
-0.4228 -4.3689 -1.9129 0.9810
-0.0315 -4.4080 -1.9211 0.9809
0.7603 -4.3906 -1.9420 0.9807
1.9363 -4.1195 -1.9838 0.9803
3.0368 -3.5523 -2.0368 0.9798
3.6914 -3.0149 -2.0772 0.9794
3.9820 -2.6983 -2.0963 0.9792
3.9490 -2.1894 -1.9678 0.9805
4.3659 -1.4838 -2.0096 0.9801
4.6556 -0.6988 -2.0517 0.9797
4.7468 -0.2836 -2.0724 0.9795
4.7994 0.1423 -2.0926 0.9793
4.7122 1.4451 -2.1480 0.9787
4.0084 3.0777 -2.2025 0.9782
3.4219 3.7675 -2.2181 0.9780
3.0785 4.0659 -2.2226 0.9780
2.7063 4.3285 -2.2248 0.9780
1.5454 3.8676 -1.8152 0.9820
1.4588 4.8741 -2.2173 0.9780
-1.1944 4.7764 -2.1457 0.9787
-1.9898 4.4123 -2.1094 0.9791
-2.6903 3.9132 -2.0696 0.9795
-2.9982 3.6210 -2.0488 0.9797
-2.3627 1.9924 -1.3469 0.9866
-2.6532 1.8594 -1.4120 0.9860
-3.9084 2.2480 -1.9650 0.9805
-1.5950 0.5702 -0.7382 0.9926
-1.5513 0.4028 -0.6985 0.9930
-1.5291 0.1155 -0.6683 0.9933
-4.1491 -1.6147 -1.9403 0.9808
-3.9660 -1.9671 -1.9294 0.9809
-3.5212 -2.6166 -1.9119 0.9810
-3.2628 -2.9104 -1.9055 0.9811
-2.9825 -3.1816 -1.9006 0.9812
-2.0282 -3.8470 -1.8953 0.9812
-0.9418 -4.2667 -1.9043 0.9811
-0.5593 -4.3477 -1.9104 0.9811
-0.1700 -4.3978 -1.9181 0.9810
0.2240 -4.4164 -1.9272 0.9809
0.6204 -4.4030 -1.9379 0.9808
1.0170 -4.3571 -1.9499 0.9807
1.4112 -4.2784 -1.9634 0.9805
1.8007 -4.1667 -1.9782 0.9804
2.5548 -3.8443 -2.0116 0.9801
2.9139 -3.6341 -2.0300 0.9799
3.2573 -3.3919 -2.0495 0.9797
3.5820 -3.1184 -2.0698 0.9795
3.8851 -2.8150 -2.0909 0.9793
4.3011 -1.6145 -2.0022 0.9802
4.4746 -1.2373 -2.0233 0.9799
4.6147 -0.8419 -2.0444 0.9797
4.7189 -0.4313 -2.0652 0.9795
4.8122 0.4220 -2.1053 0.9791
4.7420 1.2924 -2.1420 0.9788
4.6435 1.7235 -2.1586 0.9786
4.5026 2.1457 -2.1737 0.9785
4.0965 2.9451 -2.1988 0.9782
3.2030 3.9647 -2.2213 0.9780
1.1724 4.9406 -2.2130 0.9781
0.4245 2.9340 -1.2920 0.9871
0.2736 5.0268 -2.1940 0.9783
-1.8558 4.4869 -2.1161 0.9790
-2.2281 4.2643 -2.0968 0.9792
-2.5747 4.0098 -2.0768 0.9794
-3.1813 3.4188 -2.0353 0.9798
-3.4375 3.0891 -2.0142 0.9800
-4.0047 2.0048 -1.9518 0.9806
-4.4414 1.7474 -2.0801 0.9794
-1.5939 -0.5632 -0.7367 0.9927
-3.8331 -2.1859 -1.9231 0.9809
-3.6068 -2.5079 -1.9146 0.9810
-3.0836 -3.0887 -1.9021 0.9811
-2.7902 -3.3445 -1.8982 0.9812
-2.4777 -3.5757 -1.8959 0.9812
-2.1481 -3.7810 -1.8952 0.9812
-1.0746 -4.2310 -1.9025 0.9811
-0.6950 -4.3226 -1.9081 0.9811
0.0848 -4.4135 -1.9238 0.9809
0.4806 -4.4114 -1.9339 0.9808
2.0491 -4.0768 -1.9885 0.9803
2.4250 -3.9107 -2.0054 0.9801
2.7890 -3.7119 -2.0234 0.9799
4.0177 -2.0910 -1.9739 0.9804
2.3101 -0.9511 -1.0888 0.9892
4.4172 -1.3724 -2.0159 0.9800
4.6864 -0.5776 -2.0579 0.9796
4.7664 -0.1589 -2.0784 0.9794
4.8074 0.2695 -2.0984 0.9792
4.6831 1.5723 -2.1529 0.9787
4.5571 1.9982 -2.1686 0.9785
4.3890 2.4122 -2.1827 0.9784
4.1798 2.8098 -2.1949 0.9783
3.9309 3.1864 -2.2053 0.9782
3.3238 3.8591 -2.2197 0.9780
1.3288 4.9067 -2.2155 0.9781
-0.0174 5.0163 -2.1862 0.9783
-0.4619 4.9636 -2.1726 0.9785
-1.7190 4.5572 -2.1227 0.9790
-2.0997 4.3465 -2.1037 0.9792
-3.0833 3.5300 -2.0427 0.9798
-3.3509 3.2075 -2.0216 0.9800
-2.3980 1.9164 -1.3378 0.9867
-3.9541 2.1376 -1.9590 0.9806
-4.3953 1.8910 -2.0853 0.9793
-1.5166 0.2112 -0.6673 0.9933
-1.5194 -0.1980 -0.6678 0.9933
-4.0979 -1.7205 -1.9370 0.9808
-3.9068 -2.0678 -1.9264 0.9809
-3.4473 -2.7056 -1.9099 0.9811
-2.8959 -3.2571 -1.8994 0.9812
-2.5899 -3.4971 -1.8966 0.9812
-2.2661 -3.7117 -1.8953 0.9812
-1.9263 -3.8996 -1.8956 0.9812
-1.2062 -4.1916 -1.9009 0.9811
-0.8298 -4.2938 -1.9059 0.9811
-0.4450 -4.3657 -1.9125 0.9810
-0.0541 -4.4066 -1.9206 0.9810
0.3409 -4.4158 -1.9302 0.9809
1.5268 -4.2489 -1.9677 0.9805
-1.3225 0.3809 -0.6370 0.9940
-1.3112 0.2536 -0.6182 0.9941
-1.3382 -0.1030 -0.6213 0.9941
-1.3138 -0.3431 -0.6286 0.9940
-1.3333 -0.4788 -0.6558 0.9938
-1.3128 -0.6086 -0.6698 0.9936
-3.1643 -2.6762 -1.9183 0.9819
-2.9053 -2.9399 -1.9132 0.9819
-2.6265 -3.1813 -1.9096 0.9820
-2.0166 -3.5922 -1.9069 0.9820
-1.6890 -3.7596 -1.9078 0.9820
-0.6373 -4.0975 -1.9195 0.9819
-0.2703 -4.1528 -1.9264 0.9818
1.5941 -3.9731 -1.9816 0.9813
1.9567 -3.8438 -1.9965 0.9812
2.3102 -3.6833 -2.0126 0.9810
3.8367 -2.4272 -2.1015 0.9802
3.7939 -1.9499 -1.9745 0.9814
4.4053 -0.5201 -2.0533 0.9806
4.4756 -0.1263 -2.0725 0.9805
4.4616 1.0905 -2.1260 0.9800
4.3789 1.4952 -2.1418 0.9798
4.0954 2.2782 -2.1693 0.9796
3.6603 2.9981 -2.1901 0.9794
3.3900 3.3241 -2.1977 0.9793
2.4001 4.1220 -2.2079 0.9792
2.0221 4.3179 -2.2070 0.9792
1.4243 3.9183 -1.9298 0.9818
0.3802 4.6990 -2.1822 0.9794
-0.0403 4.6904 -2.1712 0.9795
-0.4558 4.6407 -2.1584 0.9797
-0.8621 4.5513 -2.1442 0.9798
-1.6320 4.2603 -2.1118 0.9801
-1.9886 4.0633 -2.0940 0.9803
-2.3968 1.8954 -1.4144 0.9866
-3.7316 1.9928 -1.9582 0.9815
-1.3306 0.4290 -0.6471 0.9939
-1.2996 0.2941 -0.6168 0.9941
-1.3297 0.1782 -0.6210 0.9941
-1.3381 0.0588 -0.6200 0.9941
-1.3382 -0.0608 -0.6201 0.9941
-1.3003 -0.2962 -0.6173 0.9941
-1.3237 -0.5637 -0.6660 0.9937
-3.6867 -1.9756 -1.9361 0.9817
-3.4804 -2.2864 -1.9276 0.9818
-3.2506 -2.5782 -1.9205 0.9819
-2.1287 -3.5271 -1.9069 0.9820
-1.4699 -3.8537 -1.9092 0.9820
-0.7651 -4.0711 -1.9174 0.9819
-0.0299 -4.1728 -1.9316 0.9818
0.7193 -4.1539 -1.9514 0.9816
1.4646 -4.0112 -1.9766 0.9814
2.1868 -3.7434 -2.0068 0.9811
2.5330 -3.5630 -2.0235 0.9809
3.1820 -3.1113 -2.0600 0.9806
3.7497 -2.5408 -2.0966 0.9802
3.7177 -2.0612 -1.9676 0.9814
4.2548 -1.0335 -2.0267 0.9809
4.4549 -0.2662 -2.0658 0.9805
4.5016 0.1334 -2.0847 0.9803
4.5108 0.5391 -2.1028 0.9802
4.4813 0.9470 -2.1201 0.9800
4.3042 1.7535 -2.1514 0.9797
3.1977 3.5206 -2.2015 0.9793
2.8764 3.7990 -2.2057 0.9792
1.5160 3.7941 -1.8912 0.9822
1.3633 4.5548 -2.2008 0.9793
0.3114 2.7638 -1.2874 0.9878
0.1076 4.6981 -2.1753 0.9795
-0.3102 4.6628 -2.1631 0.9796
-1.8654 4.1364 -2.1004 0.9802
-2.2075 3.9191 -2.0821 0.9804
-2.8158 3.4007 -2.0437 0.9807
-2.3548 1.9857 -1.4258 0.9865
-3.6798 2.1165 -1.9650 0.9815
-1.3134 0.6066 -0.6696 0.9936
-1.3208 0.2196 -0.6197 0.9941
-1.3354 -0.0186 -0.6182 0.9941
-1.3357 -0.1383 -0.6216 0.9941
-1.3106 -0.2555 -0.6181 0.9941
-1.3229 -0.3830 -0.6375 0.9939
-3.5559 -2.1789 -1.9304 0.9818
-2.8250 -3.0135 -1.9120 0.9820
-2.5407 -3.2481 -1.9088 0.9820
-2.2389 -3.4587 -1.9072 0.9820
-1.9213 -3.6443 -1.9070 0.9820
-1.5898 -3.8039 -1.9083 0.9820
-0.8920 -4.0410 -1.9155 0.9819
-0.5296 -4.1169 -1.9214 0.9819
0.2120 -4.1801 -1.9374 0.9817
0.9619 -4.1214 -1.9590 0.9815
1.3344 -4.0454 -1.9718 0.9814
2.0621 -3.7997 -2.0011 0.9811
2.4124 -3.6301 -2.0175 0.9810
3.6594 -2.6514 -2.0918 0.9803
3.8552 -1.8546 -1.9803 0.9813
4.2056 -1.1629 -2.0198 0.9810
4.3469 1.6134 -2.1462 0.9798
3.8302 2.7537 -2.1836 0.9794
3.3040 3.4152 -2.1995 0.9793
2.6539 3.9617 -2.2072 0.9792
2.2906 4.1838 -2.2079 0.9792
0.2558 4.7008 -2.1791 0.9795
-0.1636 4.6799 -2.1676 0.9796
-0.5768 4.6184 -2.1544 0.9797
-0.9797 4.5175 -2.1397 0.9798
-1.3685 4.3792 -2.1237 0.9800
-1.7395 4.2056 -2.1066 0.9801
-2.0896 3.9992 -2.0886 0.9803
-2.4161 3.7628 -2.0699 0.9805
-2.7165 3.4994 -2.0506 0.9807
-2.9890 3.2121 -2.0310 0.9808
-2.3293 2.0932 -1.4496 0.9863
-3.7720 1.8883 -1.9525 0.9816
-1.3240 0.3886 -0.6387 0.9939
-1.3351 0.1433 -0.6215 0.9941
-1.3358 0.0235 -0.6184 0.9941
-1.3219 -0.2147 -0.6199 0.9941
-3.1785 -2.6605 -1.9187 0.9819
-2.3472 -3.3873 -1.9076 0.9820
-1.0178 -4.0074 -1.9138 0.9819
-0.6581 -4.0935 -1.9191 0.9819
0.8300 -4.1407 -1.9548 0.9816
1.9362 -3.8520 -1.9956 0.9812
2.6327 -3.5039 -2.0287 0.9809
2.9608 -3.2840 -2.0467 0.9807
3.2719 -3.0347 -2.0657 0.9805
3.5631 -2.7568 -2.0853 0.9803
3.8227 -2.4458 -2.1007 0.9802
3.7817 -1.9682 -1.9734 0.9814
2.3101 -0.9511 -1.1564 0.9890
4.1525 -1.2902 -2.0128 0.9810
4.2928 -0.9237 -2.0326 0.9808
4.4725 -0.1491 -2.0714 0.9805
4.5062 0.6594 -2.1080 0.9801
4.3847 1.4721 -2.1409 0.9798
3.9085 2.6275 -2.1800 0.9795
3.4063 3.3061 -2.1973 0.9793
2.4212 4.1097 -2.2079 0.9792
1.4308 3.8742 -1.9117 0.9820
-0.4322 4.6446 -2.1592 0.9796
-1.2333 4.4321 -2.1295 0.9799
-1.6109 4.2706 -2.1128 0.9801
-2.8963 3.3159 -2.0379 0.9808
-3.1497 3.0149 -2.0182 0.9810
-3.5641 2.3602 -1.9787 0.9813
-1.3226 0.5690 -0.6665 0.9937
-1.3316 0.4368 -0.6487 0.9938
-1.3379 -0.0539 -0.6198 0.9941
-1.3306 -0.1734 -0.6211 0.9941
-1.3298 -0.4233 -0.6460 0.9939
-3.6978 -1.9572 -1.9366 0.9817
-3.4929 -2.2691 -1.9280 0.9818
-3.0139 -2.8345 -1.9151 0.9819
-2.7430 -3.0852 -1.9109 0.9820
-2.1468 -3.5162 -1.9070 0.9820
-0.7858 -4.0664 -1.9171 0.9819
1.4435 -4.0170 -1.9758 0.9814
-1.1525 0.4466 -0.6063 0.9945
-1.1960 0.0149 -0.5867 0.9947
-1.1581 -0.3025 -0.5872 0.9947
-1.1558 -0.4151 -0.6024 0.9945
-1.1385 -0.5278 -0.6155 0.9944
-3.4298 -1.9793 -1.9424 0.9825
-3.2268 -2.2683 -1.9348 0.9826
-2.4923 -3.0187 -1.9202 0.9827
-1.9137 -3.4089 -1.9176 0.9827
-0.6046 -3.8871 -1.9296 0.9826
0.0964 -3.9621 -1.9441 0.9825
1.5097 -3.7628 -1.9887 0.9821
1.8524 -3.6389 -2.0029 0.9820
3.1080 -2.8532 -2.0695 0.9814
3.3802 -2.5877 -2.0882 0.9812
3.5791 -1.8395 -1.9739 0.9822
2.3197 -0.9412 -1.2279 0.9889
3.9214 -1.1964 -2.0111 0.9819
4.0496 -0.8497 -2.0297 0.9817
4.1465 -0.4895 -2.0481 0.9816
4.2104 -0.1188 -2.0661 0.9814
4.2398 0.2594 -2.0836 0.9813
4.2335 0.6416 -2.1003 0.9811
4.1908 1.0243 -2.1162 0.9810
4.1112 1.4038 -2.1310 0.9808
3.8421 2.1373 -2.1566 0.9806
3.6540 2.4836 -2.1672 0.9805
3.4318 2.8110 -2.1760 0.9804
3.1777 3.1160 -2.1831 0.9804
2.5834 3.6449 -2.1914 0.9803
2.2492 3.8628 -2.1926 0.9803
1.8950 4.0465 -2.1917 0.9803
1.4104 3.8800 -2.0251 0.9818
1.1418 4.3036 -2.1840 0.9804
-0.0378 4.4000 -2.1584 0.9806
-1.8696 3.8202 -2.0863 0.9812
-2.1846 3.6079 -2.0689 0.9814
-2.4760 3.3692 -2.0509 0.9815
-2.7419 3.1069 -2.0326 0.9817
-2.9805 2.8239 -2.0140 0.9819
-2.3887 1.8890 -1.4938 0.9865
-1.1166 0.5963 -0.6209 0.9944
-1.1467 0.4864 -0.6110 0.9945
-1.1584 0.3734 -0.5970 0.9946
-1.1964 -0.0543 -0.5875 0.9947
-1.1583 -0.3753 -0.5972 0.9946
-2.8452 -2.7035 -1.9252 0.9827
-2.5875 -2.9404 -1.9213 0.9827
-2.3119 -3.1553 -1.9187 0.9827
-2.0201 -3.3470 -1.9176 0.9827
-1.3948 -3.6568 -1.9198 0.9827
-0.7259 -3.8622 -1.9277 0.9826
-0.3797 -3.9238 -1.9337 0.9826
-0.0283 -3.9572 -1.9411 0.9825
0.3262 -3.9618 -1.9499 0.9824
2.0697 -3.5429 -2.0127 0.9819
2.3962 -3.3706 -2.0286 0.9817
2.7096 -3.1695 -2.0454 0.9816
3.5388 -2.3979 -2.0968 0.9811
3.5079 -1.9449 -1.9675 0.9823
2.2997 -1.0185 -1.2337 0.9889
4.0079 -0.9736 -2.0231 0.9818
4.2398 0.5067 -2.0945 0.9812
3.5139 2.6980 -2.1731 0.9805
2.9972 3.2998 -2.1867 0.9803
2.3694 3.7898 -2.1924 0.9803
1.5019 3.7587 -1.9855 0.9821
1.2778 4.2693 -2.1860 0.9803
0.8895 4.3540 -2.1799 0.9804
0.3325 2.9513 -1.4568 0.9869
-0.2910 4.3752 -2.1509 0.9807
-1.0504 4.2005 -2.1239 0.9809
-1.4106 4.0605 -2.1086 0.9810
-2.0761 3.6859 -2.0751 0.9813
-2.3761 3.4562 -2.0573 0.9815
-2.6512 3.2018 -2.0391 0.9816
-2.8996 2.9258 -2.0206 0.9818
-2.3467 1.9790 -1.5058 0.9864
-2.5559 1.7912 -1.5309 0.9862
-3.4724 1.9973 -1.9650 0.9823
-1.1581 0.3007 -0.5869 0.9947
-1.1951 0.0903 -0.5879 0.9947
-1.1961 -0.0166 -0.5868 0.9947
-1.1925 -0.1235 -0.5881 0.9947
-1.1590 -0.3356 -0.5918 0.9946
-1.1523 -0.4484 -0.6065 0.9945
-1.1304 -0.5607 -0.6189 0.9944
-3.3723 -2.0664 -1.9400 0.9825
-3.1627 -2.3502 -1.9328 0.9826
-2.6804 -2.8594 -1.9225 0.9827
-2.4109 -3.0822 -1.9195 0.9827
-2.1246 -3.2822 -1.9179 0.9827
-1.8233 -3.4583 -1.9177 0.9827
-1.5086 -3.6096 -1.9190 0.9827
-1.1823 -3.7350 -1.9217 0.9827
-0.8463 -3.8339 -1.9259 0.9827
0.5565 -3.9492 -1.9563 0.9824
1.2641 -3.8323 -1.9794 0.9822
1.6117 -3.7293 -1.9928 0.9821
2.6008 -3.2436 -2.0394 0.9816
2.9043 -3.0243 -2.0568 0.9815
3.4337 -2.0476 -1.9610 0.9823
2.3817 -1.1458 -1.2964 0.9883
3.9624 -1.0957 -2.0166 0.9819
4.0815 -0.7447 -2.0351 0.9817
4.1689 -0.3811 -2.0534 0.9815
4.2227 -0.0078 -2.0713 0.9814
4.2417 0.3720 -2.0886 0.9812
4.2247 0.7547 -2.1051 0.9811
4.1712 1.1369 -2.1207 0.9809
3.5919 2.5823 -2.1700 0.9805
2.8049 3.4719 -2.1894 0.9803
2.4870 3.7126 -2.1920 0.9803
1.7871 4.0938 -2.1911 0.9803
1.4126 4.2302 -2.1877 0.9803
1.0272 4.3286 -2.1822 0.9804
0.2399 4.4088 -2.1658 0.9805
-0.1535 4.3907 -2.1550 0.9806
-0.9199 4.2417 -2.1290 0.9808
-2.5572 3.2941 -2.0456 0.9816
-2.8152 3.0254 -2.0271 0.9818
-1.1291 0.5653 -0.6194 0.9944
-1.1517 0.4531 -0.6071 0.9945
