ply
format ascii 1.0
element vertex 1599
property float32 x
property float32 y
property float32 z
property float32 I
end_header
-5.4855 -0.3004 -1.9646 0.9769
-5.3849 -0.7812 -1.9458 0.9772
-5.0734 -1.6970 -1.9131 0.9775
-4.6273 -2.5371 -1.8872 0.9778
-4.3584 -2.9238 -1.8768 0.9780
-4.0616 -3.2861 -1.8683 0.9781
-3.3915 -3.9312 -1.8567 0.9782
-3.0221 -4.2112 -1.8536 0.9782
-1.8006 -4.8664 -1.8556 0.9782
-0.9119 -5.1379 -1.8661 0.9781
-0.4516 -5.2211 -1.8741 0.9780
1.4409 -5.1830 -1.9238 0.9774
2.3819 -4.9324 -1.9588 0.9770
4.8504 -2.6207 -1.9715 0.9769
2.2983 -0.9880 -0.8946 0.9894
5.5826 -1.2911 -2.0491 0.9760
5.7477 -0.7978 -2.0751 0.9757
5.8680 -0.2852 -2.1009 0.9754
5.9332 1.3239 -2.1739 0.9745
5.8499 1.8667 -2.1959 0.9743
5.7123 2.4034 -2.2162 0.9740
5.5205 2.9277 -2.2346 0.9738
4.5206 4.2598 -2.2213 0.9740
3.7792 4.2594 -2.0363 0.9761
3.5154 4.7575 -2.1154 0.9752
3.0398 4.9915 -2.0900 0.9755
2.5715 5.2211 -2.0813 0.9756
1.4891 3.8587 -1.4791 0.9826
0.6201 6.1678 -2.2168 0.9740
-1.0139 5.9819 -2.1697 0.9746
-2.0568 5.6943 -2.1651 0.9746
4.9083 3.1126 -2.2273 0.9754
4.6377 3.5587 -2.2402 0.9753
3.8368 4.2227 -2.1864 0.9759
3.5248 4.6540 -2.2373 0.9753
3.0982 4.9545 -2.2393 0.9753
2.6300 5.1842 -2.2277 0.9754
1.4986 3.7508 -1.5479 0.9828
1.6885 5.6429 -2.2572 0.9751
0.6531 5.8053 -2.2387 0.9753
-0.8894 5.6526 -2.1928 0.9758
-1.3782 5.5025 -2.1738 0.9760
-1.8462 5.3068 -2.1532 0.9762
-2.2890 5.0691 -2.1314 0.9765
-2.7031 4.7929 -2.1087 0.9767
-3.0853 4.4821 -2.0852 0.9770
-3.4331 4.1407 -2.0612 0.9772
-3.7444 3.7730 -2.0370 0.9775
-2.4365 2.0516 -1.2206 0.9864
-4.2523 2.9750 -1.9888 0.9780
-4.9595 2.2850 -2.0926 0.9769
-5.0843 1.8122 -2.0685 0.9771
-5.1671 1.3360 -2.0453 0.9774
-5.2100 0.3878 -2.0021 0.9779
-4.6618 -1.8216 -1.9180 0.9788
-2.2657 -4.3164 -1.8682 0.9793
-1.4662 -4.6627 -1.8731 0.9793
-0.6178 -4.8799 -1.8850 0.9791
0.2621 -4.9608 -1.9037 0.9789
1.1551 -4.8996 -1.9291 0.9787
2.0406 -4.6920 -1.9608 0.9783
2.4738 -4.5325 -1.9788 0.9781
2.8966 -4.3359 -1.9983 0.9779
3.6987 -3.8320 -2.0410 0.9774
4.4205 -3.1852 -2.0880 0.9769
4.7264 -2.8012 -2.1055 0.9767
5.2825 -0.9480 -2.0567 0.9773
5.5282 0.5018 -2.1272 0.9765
5.5178 1.0034 -2.1492 0.9763
5.3496 2.0051 -2.1894 0.9758
5.1909 2.4945 -2.2070 0.9756
4.9829 2.9689 -2.2228 0.9755
4.7269 3.4226 -2.2364 0.9753
3.9859 4.1487 -2.2047 0.9757
3.5148 4.3821 -2.1527 0.9762
3.2453 4.8822 -2.2466 0.9752
2.7753 5.1130 -2.2294 0.9754
1.6282 3.7674 -1.5728 0.9826
1.8372 5.5708 -2.2479 0.9752
1.3354 5.7240 -2.2525 0.9751
0.2936 5.8115 -2.2299 0.9754
-0.2247 5.7761 -2.2152 0.9755
-0.7337 5.6897 -2.1984 0.9757
-2.1541 5.1474 -2.1383 0.9764
-2.9699 4.5823 -2.0926 0.9769
-3.3286 4.2500 -2.0687 0.9771
-3.6515 3.8900 -2.0446 0.9774
-2.3705 2.1114 -1.2165 0.9865
-4.3908 2.6855 -1.9724 0.9782
-5.2001 1.0080 -2.0299 0.9776
-5.2139 0.5343 -2.0085 0.9778
-5.1883 0.0662 -1.9884 0.9780
-5.1246 -0.3934 -1.9696 0.9782
-4.7208 -1.6949 -1.9221 0.9787
-4.2906 -2.4762 -1.8984 0.9790
-4.0325 -2.8351 -1.8890 0.9791
-3.1078 -3.7661 -1.8712 0.9793
-2.7557 -4.0231 -1.8687 0.9793
-1.9969 -4.4497 -1.8691 0.9793
-1.1787 -4.7524 -1.8764 0.9792
0.5692 -4.9560 -1.9117 0.9789
1.0160 -4.9187 -1.9247 0.9787
1.4619 -4.8448 -1.9393 0.9786
2.3400 -4.5862 -1.9730 0.9782
3.9577 -3.6251 -2.0567 0.9773
4.3146 -3.2949 -2.0804 0.9770
4.6352 -2.9243 -2.1003 0.9768
2.3157 -0.9360 -0.9572 0.9894
5.2348 -1.0905 -2.0491 0.9774
5.4702 -0.1459 -2.0970 0.9768
5.5216 0.3467 -2.1202 0.9766
5.5262 0.8469 -2.1425 0.9763
5.4823 1.3499 -2.1637 0.9761
5.3889 1.8506 -2.1835 0.9759
5.2456 2.3435 -2.2017 0.9757
4.1374 4.0735 -2.2250 0.9754
3.3678 4.7730 -2.2386 0.9753
2.9209 5.0416 -2.2329 0.9753
2.4538 5.2703 -2.2279 0.9754
1.4958 5.6913 -2.2551 0.9751
-1.0761 5.6015 -2.1858 0.9759
-1.5575 5.4338 -2.1662 0.9761
-3.2207 4.3566 -2.0762 0.9771
-3.8521 3.6281 -2.0279 0.9776
-2.6278 2.0653 -1.2808 0.9858
-4.3305 2.8171 -1.9798 0.9781
-5.0116 2.1072 -2.0834 0.9770
-5.1205 1.6326 -2.0596 0.9772
-5.2139 0.6813 -2.0150 0.9777
-5.2004 0.2111 -1.9945 0.9780
-5.1484 -0.2514 -1.9753 0.9782
-4.3653 -2.3599 -1.9017 0.9790
-3.8393 -3.0689 -1.8836 0.9792
-3.2133 -3.6804 -1.8723 0.9793
-1.7211 -4.5684 -1.8708 0.9793
-0.4536 -4.9058 -1.8880 0.9791
-0.0140 -4.9506 -1.8972 0.9790
2.2052 -4.6362 -1.9674 0.9782
3.0529 -4.2520 -2.0060 0.9778
3.4564 -4.0045 -2.0272 0.9776
3.8419 -3.7207 -2.0495 0.9774
4.9927 -1.6687 -2.0173 0.9777
5.1833 -1.2311 -2.0416 0.9774
5.4448 -0.2969 -2.0897 0.9769
5.5012 1.1933 -2.1572 0.9762
5.2956 2.1913 -2.1962 0.9757
5.1182 2.6756 -2.2132 0.9756
4.8919 3.1429 -2.2282 0.9754
4.6182 3.5873 -2.2410 0.9753
4.2485 3.9562 -2.2247 0.9754
3.0670 4.9698 -2.2380 0.9753
1.6554 5.6533 -2.2574 0.9751
0.0972 5.8042 -2.2246 0.9754
-0.4182 5.7494 -2.2091 0.9756
-0.9223 5.6442 -2.1916 0.9758
-1.8763 5.2924 -2.1518 0.9762
-2.3174 5.0520 -2.1300 0.9765
-2.7294 4.7733 -2.1072 0.9767
-3.1094 4.4604 -2.0836 0.9770
-3.4548 4.1171 -2.0596 0.9772
-5.0911 1.7807 -2.0669 0.9772
-5.1711 1.3045 -2.0438 0.9774
-5.2100 0.8287 -2.0217 0.9777
-5.2087 0.3567 -2.0008 0.9779
-4.9774 -1.0074 -1.9461 0.9785
-4.6488 -1.8483 -1.9172 0.9788
-3.6343 -3.2911 -1.8789 0.9792
-3.3167 -3.5921 -1.8736 0.9793
-2.2402 -4.3298 -1.8682 0.9793
-1.4388 -4.6720 -1.8734 0.9793
0.2916 -4.9611 -1.9044 0.9789
0.7378 -4.9462 -1.9164 0.9788
1.6294 -4.8074 -1.9452 0.9785
2.0696 -4.6826 -1.9619 0.9783
2.9242 -4.3216 -1.9996 0.9779
3.3325 -4.0855 -2.0204 0.9777
3.7240 -3.8129 -2.0425 0.9774
4.4427 -3.1614 -2.0896 0.9769
4.4202 -2.5845 -1.9622 0.9783
4.6889 -2.2060 -1.9858 0.9780
4.9259 -1.8002 -2.0098 0.9778
5.2921 -0.9174 -2.0583 0.9773
5.4153 -0.4466 -2.0823 0.9770
5.5290 0.5348 -2.1287 0.9765
5.5154 1.0367 -2.1506 0.9762
5.3407 2.0379 -2.1906 0.9758
5.1787 2.5265 -2.2081 0.9756
4.9675 2.9996 -2.2238 0.9754
4.7083 3.4518 -2.2372 0.9753
1.3012 5.7303 -2.2519 0.9751
0.2591 5.8107 -2.2290 0.9754
-0.7669 5.6822 -2.1973 0.9757
-2.1830 5.1311 -2.1369 0.9764
-2.6044 4.8639 -2.1143 0.9766
-2.9947 4.5612 -2.0910 0.9769
-3.3511 4.2269 -2.0671 0.9772
-3.6716 3.8653 -2.0430 0.9774
-2.3791 2.0939 -1.2145 0.9865
-4.1984 3.0764 -1.9946 0.9780
-5.0577 1.9285 -2.0743 0.9771
-5.0166 -0.8709 -1.9512 0.9784
-4.5063 -2.1213 -1.9087 0.9789
-3.4180 -3.5012 -1.8751 0.9793
-2.7317 -4.0392 -1.8686 0.9793
-1.9707 -4.4618 -1.8692 0.9793
-1.1508 -4.7603 -1.8768 0.9792
1.0456 -4.9149 -1.9256 0.9787
1.4913 -4.8386 -1.9403 0.9785
1.9333 -4.7254 -1.9566 0.9784
2.3685 -4.5751 -1.9743 0.9782
2.7941 -4.3875 -1.9934 0.9780
3.6042 -3.9016 -2.0355 0.9775
3.9820 -3.6043 -2.0583 0.9773
4.3373 -3.2719 -2.0820 0.9770
4.6548 -2.8984 -2.1014 0.9768
4.6085 -2.3268 -1.9784 0.9781
5.3815 -0.5949 -2.0748 0.9771
5.5248 0.8802 -2.1439 0.9763
5.4776 1.3832 -2.1650 0.9761
5.3809 1.8835 -2.1848 0.9759
5.2344 2.3758 -2.2029 0.9757
5.0384 2.8543 -2.2191 0.9755
4.7940 3.3136 -2.2333 0.9753
3.6283 4.3259 -2.1637 0.9761
1.7463 3.8094 -1.6059 0.9822
1.9535 5.5142 -2.2418 0.9753
0.4214 5.8122 -2.2332 0.9753
-2.0460 5.2064 -2.1437 0.9763
-2.4765 4.9511 -2.1215 0.9766
-3.2440 4.3341 -2.0746 0.9771
-4.1267 3.2040 -2.0021 0.9779
-4.3436 2.7892 -1.9782 0.9781
-5.0201 2.0759 -2.0818 0.9770
-5.1262 1.6011 -2.0580 0.9773
-5.1906 1.1247 -2.0353 0.9775
-5.1981 0.1802 -1.9932 0.9780
-5.1437 -0.2817 -1.9741 0.9782
-5.0523 -0.7330 -1.9564 0.9784
-4.9255 -1.1711 -1.9402 0.9785
-4.0983 -2.7493 -1.8912 0.9791
-2.8438 -3.9628 -1.8692 0.9793
-2.0934 -4.4040 -1.8686 0.9793
-1.6942 -4.5790 -1.8710 0.9793
-0.4247 -4.9098 -1.8886 0.9791
0.9065 -4.9312 -1.9214 0.9788
2.2339 -4.6259 -1.9686 0.9782
4.5251 -2.4450 -1.9711 0.9782
5.1946 -1.2014 -2.0432 0.9774
5.5133 0.2251 -2.1146 0.9766
5.5295 0.7239 -2.1371 0.9764
5.4976 1.2267 -2.1586 0.9762
5.4164 1.7284 -2.1788 0.9759
5.2854 2.2237 -2.1974 0.9757
5.1047 2.7072 -2.2143 0.9756
4.8752 3.1730 -2.2291 0.9754
4.5984 3.6158 -2.2417 0.9753
4.2262 3.9824 -2.2253 0.9754
3.7742 4.2537 -2.1792 0.9759
3.0359 4.9851 -2.2368 0.9753
2.5682 5.2144 -2.2275 0.9754
1.4643 3.7946 -1.5587 0.9827
1.6215 5.6619 -2.2570 0.9751
0.5708 2.9752 -1.1609 0.9871
0.5839 5.8085 -2.2371 0.9753
0.0628 5.8022 -2.2236 0.9755
-0.4520 5.7439 -2.2080 0.9756
-0.9552 5.6355 -2.1904 0.9758
-1.4415 5.4791 -2.1711 0.9760
-1.9063 5.2777 -2.1504 0.9762
4.7665 2.4560 -2.1946 0.9771
4.5570 2.8898 -2.2085 0.9769
4.0095 3.6896 -2.2301 0.9767
3.2872 4.3403 -2.2283 0.9767
1.5054 3.7678 -1.6606 0.9826
1.5666 5.2356 -2.2367 0.9767
0.6061 5.3879 -2.2190 0.9768
0.1222 5.3908 -2.2069 0.9770
-0.3571 5.3457 -2.1927 0.9771
-3.4978 3.5245 -2.0323 0.9788
-3.9784 2.7834 -1.9872 0.9792
-4.7676 1.6993 -2.0715 0.9784
-2.0793 0.3434 -0.8625 0.9909
-4.5575 -1.3261 -1.9426 0.9797
-4.1953 -2.0884 -1.9180 0.9799
-3.9714 -2.4417 -1.9080 0.9801
-3.7212 -2.7741 -1.8996 0.9801
-3.4465 -3.0841 -1.8929 0.9802
-3.1489 -3.3702 -1.8877 0.9803
-2.4926 -3.8654 -1.8824 0.9803
-1.7670 -4.2500 -1.8838 0.9803
-1.3830 -4.3981 -1.8869 0.9803
-0.9875 -4.5155 -1.8918 0.9802
-0.1703 -4.6547 -1.9063 0.9801
1.0877 -4.6137 -1.9401 0.9797
1.5061 -4.5314 -1.9543 0.9796
2.3260 -4.2617 -1.9871 0.9792
2.7219 -4.0744 -2.0054 0.9790
3.1047 -3.8524 -2.0250 0.9788
3.4711 -3.5963 -2.0456 0.9786
3.8182 -3.3068 -2.0673 0.9784
4.1424 -2.9848 -2.0896 0.9782
4.1270 -2.4460 -1.9634 0.9795
4.7796 -1.3070 -2.0280 0.9788
5.0451 -0.4462 -2.0729 0.9783
5.1358 0.9339 -2.1364 0.9777
4.9728 1.8639 -2.1735 0.9773
4.6270 2.7568 -2.2044 0.9770
4.3873 3.1767 -2.2169 0.9769
4.1055 3.5722 -2.2273 0.9768
3.4261 4.2714 -2.2411 0.9766
3.0355 4.5666 -2.2443 0.9766
2.6166 4.8207 -2.2449 0.9766
1.7131 5.1943 -2.2385 0.9766
-0.2087 5.3648 -2.1973 0.9771
-1.1419 5.1646 -2.1648 0.9774
-2.4016 4.5496 -2.1056 0.9780
-2.7693 4.2728 -2.0839 0.9782
-3.1062 3.9660 -2.0618 0.9785
-3.4102 3.6329 -2.0393 0.9787
-2.3358 2.0805 -1.2802 0.9866
-3.9131 2.9031 -1.9942 0.9792
-4.5955 2.2743 -2.0986 0.9781
-4.7344 1.8374 -2.0785 0.9783
-1.9575 0.2006 -0.8054 0.9915
-1.9108 0.0244 -0.7821 0.9918
-2.0991 -0.3516 -0.8711 0.9908
-4.6030 -1.2015 -1.9470 0.9796
-4.2594 -1.9744 -1.9215 0.9799
-4.0440 -2.3339 -1.9110 0.9800
-3.8018 -2.6730 -1.9021 0.9801
-3.2439 -3.2838 -1.8891 0.9802
-2.9317 -3.5526 -1.8851 0.9803
-2.2498 -4.0108 -1.8821 0.9803
-1.8838 -4.1978 -1.8831 0.9803
-1.1117 -4.4823 -1.8901 0.9802
-0.2993 -4.6416 -1.9036 0.9801
0.1167 -4.6722 -1.9128 0.9800
1.7917 -4.4543 -1.9650 0.9795
2.6000 -4.1364 -1.9996 0.9791
2.9871 -3.9252 -2.0188 0.9789
4.0443 -3.0885 -2.0827 0.9782
4.2971 -2.2016 -1.9761 0.9793
2.3164 -0.9362 -1.0226 0.9893
4.8881 -1.0183 -2.0435 0.9787
5.0140 -0.5843 -2.0660 0.9784
5.1000 -0.1360 -2.0881 0.9782
5.1442 0.3230 -2.1095 0.9780
5.1447 0.7884 -2.1302 0.9778
5.0103 1.7206 -2.1681 0.9774
4.6927 2.6219 -2.2000 0.9770
4.1976 3.4520 -2.2243 0.9768
3.8881 3.8280 -2.2331 0.9767
3.5412 4.1717 -2.2396 0.9766
3.1603 4.4790 -2.2435 0.9766
2.7498 4.7462 -2.2450 0.9766
0.4232 5.3947 -2.2147 0.9769
-0.0596 5.3794 -2.2018 0.9770
-0.5357 5.3164 -2.1869 0.9772
-1.4489 5.0548 -2.1521 0.9775
-1.8771 4.8610 -2.1327 0.9777
-2.2812 4.6291 -2.1121 0.9779
-3.0048 4.0645 -2.0687 0.9784
-3.3192 3.7392 -2.0463 0.9786
-2.3082 2.1740 -1.2978 0.9864
-2.5326 1.9905 -1.3184 0.9862
-4.0528 2.6365 -1.9788 0.9793
-4.5415 2.4071 -2.1037 0.9780
-4.6973 1.9750 -2.0855 0.9782
-4.8691 1.0852 -2.0417 0.9787
-1.9508 0.2549 -0.8052 0.9915
-1.9345 0.0785 -0.7924 0.9917
-4.6454 -1.0755 -1.9515 0.9796
-4.4984 -1.4752 -1.9375 0.9797
-4.1140 -2.2241 -1.9141 0.9800
-3.8800 -2.5697 -1.9047 0.9801
-3.6203 -2.8938 -1.8969 0.9802
-3.3367 -3.1950 -1.8907 0.9802
-3.0310 -3.4717 -1.8862 0.9803
-2.7050 -3.7227 -1.8833 0.9803
-2.3605 -3.9467 -1.8822 0.9803
-0.8356 -4.5517 -1.8940 0.9802
-0.0133 -4.6663 -1.9098 0.9800
0.8260 -4.6475 -1.9319 0.9798
1.6629 -4.4912 -1.9601 0.9795
2.0741 -4.3607 -1.9763 0.9793
3.2451 -3.7597 -2.0327 0.9788
3.6046 -3.4909 -2.0537 0.9785
2.2957 -1.0030 -1.0253 0.9892
4.6669 -1.5598 -2.0139 0.9790
5.0776 -0.2769 -2.0812 0.9783
5.1350 0.1792 -2.1029 0.9780
5.1493 0.6431 -2.1239 0.9778
5.1190 1.1104 -2.1438 0.9776
4.7540 2.4853 -2.1955 0.9771
4.5416 2.9179 -2.2093 0.9769
2.8805 4.6675 -2.2448 0.9766
1.4767 3.7603 -1.6534 0.9827
0.6055 3.0581 -1.2759 0.9866
0.5740 5.3896 -2.2183 0.9768
0.0903 5.3893 -2.2060 0.9770
-0.3885 5.3410 -2.1917 0.9771
-1.7463 4.9256 -2.1389 0.9777
-2.5439 4.4489 -2.0975 0.9781
-2.9003 4.1604 -2.0756 0.9783
-3.9919 2.7578 -1.9857 0.9792
-4.6559 2.1118 -2.0924 0.9781
-4.7742 1.6699 -2.0700 0.9784
-2.0299 0.3229 -0.8412 0.9912
-4.5475 -1.3524 -1.9417 0.9797
-4.3792 -1.7411 -1.9288 0.9798
-4.1814 -2.1124 -1.9173 0.9800
-3.9557 -2.4644 -1.9074 0.9801
-3.7038 -2.7953 -1.8991 0.9801
-3.1285 -3.3882 -1.8874 0.9803
-2.8086 -3.6474 -1.8841 0.9803
-2.4696 -3.8799 -1.8823 0.9803
-1.7420 -4.2607 -1.8839 0.9803
-0.5555 -4.6058 -1.8987 0.9801
-0.1428 -4.6571 -1.9069 0.9801
0.6950 -4.6594 -1.9281 0.9798
1.1155 -4.6094 -1.9410 0.9797
1.5336 -4.5247 -1.9553 0.9796
1.9469 -4.4050 -1.9711 0.9794
2.3525 -4.2504 -1.9883 0.9792
3.1295 -3.8365 -2.0263 0.9788
3.4947 -3.5782 -2.0471 0.9786
4.1620 -2.9617 -2.0907 0.9782
4.6056 -1.6831 -2.0069 0.9790
4.7908 -1.2797 -2.0295 0.9788
4.9402 -0.8564 -2.0520 0.9786
5.1217 0.0362 -2.0962 0.9781
5.1496 0.4981 -2.1174 0.9779
5.1333 0.9649 -2.1377 0.9777
5.0717 1.4319 -2.1569 0.9775
4.6125 2.7853 -2.2052 0.9770
4.3700 3.2037 -2.2177 0.9769
3.7614 3.9617 -2.2358 0.9767
3.3965 4.2863 -2.2383 0.9766
1.6063 3.7780 -1.6802 0.9824
1.6820 5.2035 -2.2382 0.9766
0.3854 2.8601 -1.1812 0.9876
-0.2403 5.3611 -2.1964 0.9771
-0.7127 5.2806 -2.1808 0.9772
-1.1718 5.1549 -2.1636 0.9774
-1.6132 4.9863 -2.1449 0.9776
-2.0327 4.7778 -2.1250 0.9778
-2.4269 4.5323 -2.1041 0.9780
-3.1274 3.9447 -2.0603 0.9785
-2.3469 2.0656 -1.2796 0.9866
-4.1220 2.4877 -1.9705 0.9794
-4.7418 1.8081 -2.0770 0.9783
-4.8324 1.3631 -2.0549 0.9785
-2.1998 0.4130 -0.9161 0.9904
-4.5936 -1.2281 -1.9461 0.9797
-4.2460 -1.9988 -1.9207 0.9799
-4.0288 -2.3570 -1.9103 0.9800
-3.5160 -3.0103 -1.8944 0.9802
-2.9103 -3.5695 -1.8849 0.9803
-2.2260 -4.0240 -1.8821 0.9803
-1.8591 -4.2091 -1.8832 0.9803
-1.4782 -4.3646 -1.8860 0.9803
2.2273 -4.3023 -1.9828 0.9793
2.6260 -4.1235 -2.0008 0.9791
3.0123 -3.9100 -2.0201 0.9789
3.3830 -3.6622 -2.0405 0.9787
3.7351 -3.3808 -2.0619 0.9785
4.0655 -3.0668 -2.0842 0.9782
2.3333 -0.9271 -1.0276 0.9892
5.1432 0.8194 -2.1315 0.9777
5.0958 1.2868 -2.1510 0.9775
5.0027 1.7511 -2.1693 0.9774
4.8636 2.2075 -2.1860 0.9772
4.4500 3.0759 -2.2140 0.9769
3.8663 3.8518 -2.2336 0.9767
3.5170 4.1932 -2.2399 0.9766
3.1340 4.4980 -2.2437 0.9766
2.7217 4.7624 -2.2450 0.9766
0.4662 2.8573 -1.1849 0.9876
0.3912 5.3952 -2.2139 0.9769
-0.0913 5.3767 -2.2008 0.9770
-1.0306 5.1988 -2.1691 0.9774
-1.9046 4.8468 -2.1313 0.9777
-2.3071 4.6125 -2.1107 0.9780
-3.0266 4.0438 -2.0673 0.9784
-2.5970 2.0164 -1.3456 0.9859
-4.0653 2.6105 -1.9773 0.9793
-4.8084 1.5019 -2.0617 0.9785
-4.8721 1.0557 -2.0403 0.9787
-1.9529 0.2434 -0.8055 0.9915
-1.9438 -0.1064 -0.7968 0.9916
-4.4875 -1.5011 -1.9367 0.9798
-4.3079 -1.8834 -1.9243 0.9799
-4.0994 -2.2476 -1.9134 0.9800
-3.6023 -2.9145 -1.8964 0.9802
-3.0101 -3.4891 -1.8860 0.9803
-2.6828 -3.7383 -1.8832 0.9803
-2.3371 -3.9606 -1.8821 0.9803
-1.9749 -4.1546 -1.8827 0.9803
-1.5982 -4.3194 -1.8850 0.9803
0.8538 -4.6446 -1.9328 0.9798
1.2737 -4.5815 -1.9462 0.9797
1.6903 -4.4836 -1.9611 0.9795
2.1011 -4.3508 -1.9774 0.9793
4.2715 -2.8275 -2.0965 0.9781
4.6795 -1.5333 -2.0154 0.9789
4.8515 -1.1221 -2.0380 0.9787
5.1373 0.2097 -2.1043 0.9780
5.1154 1.1414 -2.1451 0.9776
4.9118 2.0666 -2.1810 0.9772
3.6295 4.0907 -2.2382 0.9766
3.2534 4.4030 -2.2406 0.9766
2.4229 4.9194 -2.2444 0.9766
1.4570 3.7758 -1.6564 0.9827
1.5040 5.2517 -2.2358 0.9767
0.5816 3.0316 -1.2634 0.9867
-0.8879 5.2384 -2.1745 0.9773
-1.3407 5.0962 -2.1567 0.9775
-1.7743 4.9122 -2.1375 0.9777
4.2474 2.6935 -2.1919 0.9783
3.7346 3.4367 -2.2119 0.9781
2.3100 4.5535 -2.2253 0.9780
1.4589 4.8756 -2.2180 0.9780
0.6456 3.1625 -1.4067 0.9860
0.5647 5.0202 -2.2017 0.9782
-1.6048 4.6129 -2.1286 0.9789
-1.9923 4.4121 -2.1098 0.9791
-2.3560 4.1775 -2.0902 0.9793
-2.6930 3.9122 -2.0699 0.9795
-3.2779 3.3029 -2.0280 0.9799
-2.3537 1.9818 -1.3410 0.9867
-3.7335 2.6121 -1.9858 0.9803
-4.3615 2.0095 -2.0929 0.9793
-1.5070 0.2489 -0.6657 0.9934
-1.5292 0.1138 -0.6683 0.9933
-1.5254 -0.0230 -0.6649 0.9934
-1.5254 -0.1599 -0.6684 0.9933
-1.5038 -0.2951 -0.6679 0.9933
-3.2576 -2.9151 -1.9051 0.9811
-2.9768 -3.1860 -1.9003 0.9812
-2.3567 -3.6547 -1.8952 0.9812
-2.0210 -3.8501 -1.8951 0.9812
-1.3074 -4.1578 -1.8995 0.9812
0.2333 -4.4158 -1.9272 0.9809
0.6300 -4.4016 -1.9378 0.9808
1.0267 -4.3549 -1.9500 0.9807
2.1925 -4.0172 -1.9945 0.9802
2.5644 -3.8386 -2.0119 0.9801
3.2665 -3.3842 -2.0499 0.9797
4.1033 -1.9602 -1.9819 0.9804
4.4797 -1.2250 -2.0240 0.9799
4.7220 -0.4176 -2.0660 0.9795
4.7873 0.0055 -2.0864 0.9793
4.7975 0.8724 -2.1251 0.9789
4.3132 2.5698 -2.1881 0.9783
4.0882 2.9601 -2.1997 0.9782
3.5240 3.6680 -2.2168 0.9781
3.1901 3.9772 -2.2220 0.9780
1.6674 3.8582 -1.8318 0.9818
1.5952 4.8369 -2.2197 0.9780
1.1539 4.9458 -2.2133 0.9781
0.3965 2.8167 -1.2397 0.9877
0.2540 5.0282 -2.1942 0.9783
-1.0658 4.8202 -2.1514 0.9787
-1.8741 4.4784 -2.1158 0.9790
-2.2456 4.2540 -2.0964 0.9792
-2.5911 3.9978 -2.0763 0.9794
-3.1951 3.4038 -2.0346 0.9798
-2.3142 2.0612 -1.3506 0.9866
-3.6715 2.7238 -1.9924 0.9803
-4.3136 2.1348 -2.0976 0.9792
-1.5017 0.2911 -0.6667 0.9933
-1.5258 0.1564 -0.6685 0.9933
-1.5250 0.0194 -0.6647 0.9934
-1.5290 -0.1174 -0.6683 0.9933
-1.5060 -0.2523 -0.6655 0.9934
-3.5925 -2.5258 -1.9139 0.9810
-3.3406 -2.8261 -1.9070 0.9811
-2.4579 -3.5884 -1.8956 0.9812
-1.7811 -3.9688 -1.8959 0.9812
-1.4217 -4.1174 -1.8984 0.9812
-0.2828 -4.3858 -1.9154 0.9810
0.1103 -4.4136 -1.9241 0.9809
0.5064 -4.4095 -1.9344 0.9808
0.9033 -4.3730 -1.9461 0.9807
1.2987 -4.3037 -1.9592 0.9806
1.6899 -4.2014 -1.9736 0.9804
2.0746 -4.0661 -1.9894 0.9803
2.4499 -3.8977 -2.0064 0.9801
3.1615 -3.4633 -2.0437 0.9797
4.0762 -2.5717 -2.1005 0.9792
4.0340 -2.0667 -1.9754 0.9804
2.3182 -0.9370 -1.0897 0.9891
4.6939 -0.5470 -2.0595 0.9796
4.8067 0.7366 -2.1193 0.9790
4.3750 2.4444 -2.1841 0.9784
4.1625 2.8409 -2.1963 0.9783
3.9105 3.2159 -2.2065 0.9782
3.6212 3.5652 -2.2147 0.9781
3.2974 3.8845 -2.2206 0.9780
2.9424 4.1702 -2.2243 0.9780
2.5601 4.4188 -2.2256 0.9780
1.7303 4.7940 -2.2212 0.9780
1.2922 4.9167 -2.2155 0.9781
-1.7537 4.5413 -2.1216 0.9790
-2.1326 4.3274 -2.1025 0.9792
-2.8128 3.8047 -2.0621 0.9796
-2.2739 2.1417 -1.3614 0.9865
-2.4901 1.9570 -1.3803 0.9863
-3.9682 2.1032 -1.9573 0.9806
-1.5288 0.0621 -0.6668 0.9933
-1.5294 -0.0747 -0.6673 0.9933
-1.5167 -0.2109 -0.6674 0.9933
-1.5858 -0.5200 -0.7273 0.9927
-4.0801 -1.7552 -1.9357 0.9808
-3.8862 -2.1009 -1.9253 0.9809
-3.4215 -2.7349 -1.9090 0.9811
-2.5575 -3.5196 -1.8961 0.9812
-2.2318 -3.7316 -1.8950 0.9812
-1.8904 -3.9168 -1.8954 0.9812
-1.5349 -4.0742 -1.8974 0.9812
-1.1674 -4.2029 -1.9011 0.9811
-0.7898 -4.3021 -1.9062 0.9811
-0.4041 -4.3708 -1.9130 0.9810
0.3829 -4.4142 -1.9310 0.9809
0.7798 -4.3878 -1.9423 0.9807
1.1759 -4.3288 -1.9549 0.9806
1.5687 -4.2368 -1.9690 0.9805
1.9557 -4.1117 -1.9843 0.9803
3.3913 -3.2843 -2.0575 0.9796
3.7078 -2.9984 -2.0782 0.9794
3.9944 -2.6782 -2.0959 0.9792
3.9619 -2.1710 -1.9689 0.9805
4.6621 -0.6752 -2.0530 0.9797
4.8120 0.6010 -2.1134 0.9791
4.7807 1.0370 -2.1320 0.9789
4.5912 1.8998 -2.1654 0.9786
4.4328 2.3173 -2.1799 0.9784
3.9930 3.1017 -2.2036 0.9782
3.4017 3.7886 -2.2190 0.9780
3.0561 4.0851 -2.2234 0.9780
2.2830 4.5669 -2.2252 0.9780
1.8641 4.7468 -2.2225 0.9780
0.5349 5.0219 -2.2010 0.9782
0.0841 5.0235 -2.1896 0.9783
-0.3623 4.9807 -2.1764 0.9784
-1.6311 4.6008 -2.1274 0.9789
-2.0172 4.3976 -2.1086 0.9791
-3.0202 3.5992 -2.0477 0.9797
-3.2951 3.2812 -2.0266 0.9799
-3.7463 2.5881 -1.9844 0.9803
-1.5929 0.5572 -0.7355 0.9927
-1.5465 0.3901 -0.6951 0.9931
-1.5242 -0.1689 -0.6683 0.9933
-4.1349 -1.6440 -1.9393 0.9808
-3.7373 -2.3283 -1.9190 0.9810
-3.5002 -2.6417 -1.9111 0.9810
-3.2397 -2.9337 -1.9048 0.9811
-2.9575 -3.2031 -1.9000 0.9812
-2.6553 -3.4484 -1.8968 0.9812
-2.3350 -3.6684 -1.8951 0.9812
-1.2830 -4.1660 -1.8998 0.9812
-0.9083 -4.2744 -1.9045 0.9811
-0.5249 -4.3527 -1.9107 0.9811
0.2595 -4.4158 -1.9278 0.9809
0.6562 -4.3995 -1.9386 0.9808
2.2175 -4.0064 -1.9957 0.9802
3.2886 -3.3670 -2.0512 0.9797
3.9099 -2.7822 -2.0914 0.9793
4.1177 -1.9372 -1.9832 0.9803
4.4900 -1.1993 -2.0254 0.9799
4.6268 -0.8021 -2.0465 0.9797
4.7903 0.0339 -2.0877 0.9793
4.8132 0.4656 -2.1075 0.9791
4.7950 0.9013 -2.1263 0.9789
4.6318 1.7674 -2.1606 0.9786
4.4866 2.1888 -2.1756 0.9785
4.0719 2.9852 -2.2004 0.9782
3.1669 3.9965 -2.2223 0.9780
2.8011 4.2685 -2.2251 0.9780
2.4095 4.5024 -2.2255 0.9780
1.6164 3.8018 -1.8004 0.9821
1.5663 4.8455 -2.2193 0.9780
0.3806 2.8248 -1.2422 0.9876
-0.2241 4.9987 -2.1807 0.9784
-0.6649 4.9260 -2.1663 0.9785
-1.0937 4.8113 -2.1503 0.9787
-1.5065 4.6567 -2.1330 0.9789
-2.2693 4.2380 -2.0951 0.9792
-3.2130 3.3825 -2.0332 0.9798
-2.3226 2.0442 -1.3485 0.9866
-4.3241 2.1083 -2.0966 0.9792
-1.5645 0.4413 -0.7085 0.9929
-1.4968 0.2810 -0.6637 0.9934
-1.5238 0.0104 -0.6641 0.9934
-1.5033 -0.2610 -0.6650 0.9934
-1.5560 -0.4160 -0.7020 0.9930
-1.5969 -0.5840 -0.7410 0.9926
-3.8061 -2.2267 -1.9218 0.9809
-3.5766 -2.5463 -1.9134 0.9810
-2.7514 -3.3747 -1.8976 0.9812
-2.1047 -3.8047 -1.8949 0.9812
-1.7577 -3.9795 -1.8960 0.9812
-1.0259 -4.2439 -1.9028 0.9811
-0.6451 -4.3316 -1.9086 0.9811
0.9296 -4.3694 -1.9469 0.9807
1.3247 -4.2979 -1.9601 0.9806
2.4744 -3.8854 -2.0075 0.9801
3.1840 -3.4468 -2.0450 0.9797
3.5132 -3.1799 -2.0652 0.9795
4.0489 -2.0443 -1.9767 0.9804
4.5879 -0.9275 -2.0400 0.9798
4.7002 -0.5196 -2.0609 0.9796
4.7749 -0.0991 -2.0814 0.9794
4.8051 0.7655 -2.1206 0.9790
4.7580 1.2015 -2.1387 0.9788
4.5363 2.0589 -2.1711 0.9785
4.1470 2.8664 -2.1970 0.9782
3.8925 3.2399 -2.2071 0.9781
3.6008 3.5873 -2.2152 0.9781
3.2749 3.9045 -2.2210 0.9780
2.9179 4.1878 -2.2245 0.9780
2.5339 4.4338 -2.2256 0.9780
0.3645 5.0278 -2.1969 0.9782
-0.0852 5.0125 -2.1849 0.9784
-0.9617 4.8514 -2.1555 0.9787
-2.5090 4.0634 -2.0813 0.9794
-2.2825 2.1245 -1.3590 0.9865
-3.8163 2.4506 -1.9766 0.9804
-4.2734 2.2327 -2.1013 0.9792
-4.4231 1.8290 -2.0860 0.9793
-1.5207 0.3295 -0.6781 0.9932
-1.5209 0.1896 -0.6680 0.9933
-1.5283 0.0530 -0.6665 0.9933
-1.5296 -0.0838 -0.6676 0.9933
-1.5366 -0.3654 -0.6884 0.9931
-4.0681 -1.7786 -1.9350 0.9808
-3.8724 -2.1232 -1.9247 0.9809
-3.4045 -2.7545 -1.9085 0.9811
-3.1356 -3.0381 -1.9028 0.9811
-2.8457 -3.2985 -1.8986 0.9812
-1.8672 -3.9281 -1.8955 0.9812
-1.5109 -4.0836 -1.8976 0.9812
-1.1427 -4.2104 -1.9014 0.9811
-0.7645 -4.3075 -1.9066 0.9811
1.5945 -4.2295 -1.9700 0.9805
2.3589 -3.9420 -2.0021 0.9802
2.7254 -3.7489 -2.0200 0.9800
4.0120 -2.6558 -2.0969 0.9792
4.3876 -1.4377 -2.0122 0.9801
4.6692 -0.6481 -2.0544 0.9796
4.8112 0.6298 -2.1147 0.9791
4.7772 1.0659 -2.1332 0.9789
4.7009 1.5001 -2.1505 0.9787
4.5820 1.9278 -2.1664 0.9785
4.4208 2.3445 -2.1808 0.9784
3.9758 3.1262 -2.2042 0.9782
3.3798 3.8093 -2.2194 0.9780
3.0321 4.1035 -2.2236 0.9780
1.8357 4.7572 -2.2223 0.9780
0.0544 5.0220 -2.1888 0.9783
-0.3916 4.9763 -2.1755 0.9785
-1.2516 4.7575 -2.1439 0.9788
-1.6573 4.5884 -2.1262 0.9789
4.1581 2.1425 -2.1652 0.9796
1.5556 3.8934 -1.9407 0.9817
1.3633 4.5561 -2.2014 0.9793
0.6458 3.1631 -1.4944 0.9859
-0.3115 4.6639 -2.1636 0.9796
-0.7219 4.5881 -2.1499 0.9797
-1.8678 4.1363 -2.1008 0.9802
-2.2100 3.9186 -2.0824 0.9804
-2.5276 3.6719 -2.0634 0.9805
-3.0804 3.1039 -2.0242 0.9809
-3.6817 2.1134 -1.9650 0.9815
-1.3137 0.6053 -0.6696 0.9936
-1.3334 0.4753 -0.6553 0.9938
-1.3129 0.3395 -0.6277 0.9940
-1.3211 0.2182 -0.6198 0.9941
-1.3383 0.0996 -0.6212 0.9941
-1.3233 -0.3850 -0.6380 0.9939
-3.7503 -1.8669 -1.9391 0.9817
-3.5521 -2.1839 -1.9301 0.9818
-3.3299 -2.4823 -1.9225 0.9819
-3.0852 -2.7608 -1.9164 0.9819
-2.8196 -3.0177 -1.9117 0.9820
-2.5348 -3.2519 -1.9085 0.9820
-1.9145 -3.6473 -1.9067 0.9820
-1.5825 -3.8063 -1.9081 0.9820
-1.2384 -3.9383 -1.9110 0.9820
-0.8840 -4.0424 -1.9154 0.9819
-0.5213 -4.1177 -1.9212 0.9819
0.2209 -4.1795 -1.9373 0.9817
0.5961 -4.1648 -1.9475 0.9816
2.0713 -3.7951 -2.0013 0.9811
2.4215 -3.6247 -2.0178 0.9810
2.7590 -3.4235 -2.0352 0.9808
3.0812 -3.1923 -2.0537 0.9806
3.6652 -2.6409 -2.0911 0.9803
3.6451 -2.1604 -1.9614 0.9815
4.0506 -1.5075 -2.0006 0.9811
4.3383 -0.7785 -2.0402 0.9808
4.4911 0.0052 -2.0789 0.9804
4.4392 1.2250 -2.1317 0.9799
4.2082 2.0223 -2.1612 0.9796
4.0341 2.4036 -2.1736 0.9795
3.8224 2.7676 -2.1844 0.9794
3.2932 3.4278 -2.2003 0.9793
2.9807 3.7162 -2.2051 0.9792
2.2760 4.1931 -2.2084 0.9792
1.4906 4.5198 -2.2030 0.9792
1.0784 4.6223 -2.1971 0.9793
0.4224 3.0010 -1.4028 0.9867
0.2375 4.7020 -2.1793 0.9795
-0.5952 4.6159 -2.1543 0.9797
-0.9979 4.5132 -2.1395 0.9798
-2.1060 3.9896 -2.0882 0.9803
-2.7309 3.4867 -2.0501 0.9807
-2.3063 2.0542 -1.4296 0.9865
-3.4539 2.5624 -1.9907 0.9812
-3.6326 2.2218 -1.9711 0.9814
-1.3226 0.3815 -0.6372 0.9940
-1.3110 0.2541 -0.6182 0.9941
-1.3359 0.1369 -0.6216 0.9941
-1.3138 -0.3429 -0.6285 0.9940
-1.3333 -0.4787 -0.6557 0.9938
-3.6164 -2.0871 -1.9328 0.9818
-3.4015 -2.3915 -1.9247 0.9818
-2.6254 -3.1815 -1.9094 0.9820
-1.6873 -3.7597 -1.9075 0.9820
-1.3467 -3.9002 -1.9099 0.9820
-0.6350 -4.0974 -1.9192 0.9819
-0.2677 -4.1525 -1.9261 0.9818
0.1044 -4.1778 -1.9344 0.9817
0.4792 -4.1727 -1.9442 0.9817
1.2281 -4.0698 -1.9677 0.9814
1.5974 -3.9715 -1.9815 0.9813
2.9827 -3.2674 -2.0478 0.9807
3.5827 -2.7360 -2.0866 0.9803
3.7968 -1.9453 -1.9747 0.9814
2.3199 -0.9377 -1.1583 0.9890
4.3020 -0.8962 -2.0341 0.9808
4.4768 -0.1194 -2.0730 0.9805
4.5099 0.2832 -2.0917 0.9803
4.4610 1.0984 -2.1266 0.9800
4.2545 1.9007 -2.1569 0.9797
3.8922 2.6564 -2.1813 0.9794
3.6555 3.0062 -2.1908 0.9794
3.0811 3.6297 -2.2039 0.9792
1.6168 4.4794 -2.2044 0.9792
1.2077 4.5949 -2.1991 0.9793
0.5075 2.9983 -1.4076 0.9867
-0.4676 4.6399 -2.1586 0.9797
-0.8739 4.5493 -2.1443 0.9798
-1.6434 4.2559 -2.1118 0.9801
-1.9997 4.0577 -2.0939 0.9803
-2.3329 3.8287 -2.0753 0.9804
-2.6406 3.5719 -2.0561 0.9806
-1.3249 0.5571 -0.6653 0.9937
-1.3305 0.1739 -0.6211 0.9941
-1.3316 -0.4367 -0.6487 0.9938
-1.3226 -0.5690 -0.6665 0.9937
-2.1143 -3.5351 -1.9067 0.9820
-0.7480 -4.0742 -1.9174 0.9819
-0.0119 -4.1732 -1.9317 0.9818
0.3624 -4.1776 -1.9410 0.9817
0.7378 -4.1513 -1.9517 0.9816
1.8481 -3.8855 -1.9916 0.9812
2.5505 -3.5523 -2.0242 0.9809
2.8826 -3.3397 -2.0421 0.9807
3.4947 -2.8261 -2.0804 0.9804
4.2625 -1.0124 -2.0279 0.9809
4.3780 -0.6341 -2.0476 0.9807
4.4589 -0.2431 -2.0670 0.9805
4.5106 0.5634 -2.1041 0.9802
4.4077 1.3779 -2.1376 0.9799
4.1470 2.1679 -2.1661 0.9796
3.9585 2.5432 -2.1779 0.9795
3.7330 2.8997 -2.1880 0.9794
3.4722 3.2334 -2.1962 0.9793
3.1787 3.5402 -2.2024 0.9792
2.1329 4.2668 -2.2081 0.9792
1.5488 3.9441 -1.9614 0.9815
1.3361 4.5634 -2.2010 0.9793
-0.3390 4.6601 -2.1628 0.9796
-1.1464 4.4646 -2.1336 0.9799
-1.5283 4.3108 -2.1171 0.9800
-2.2318 3.9031 -2.0812 0.9804
-3.0967 3.0836 -2.0229 0.9809
-2.3541 1.9585 -1.4175 0.9866
-3.5252 2.4354 -1.9833 0.9813
-1.3160 0.5969 -0.6689 0.9937
-1.3336 0.4665 -0.6540 0.9938
-1.3105 0.3306 -0.6256 0.9941
-1.3230 0.2104 -0.6201 0.9941
-1.3385 0.0917 -0.6210 0.9941
-1.3362 -0.0280 -0.6187 0.9941
-1.3345 -0.1479 -0.6215 0.9941
-3.7379 -1.8884 -1.9385 0.9817
-3.5381 -2.2042 -1.9296 0.9818
-3.3143 -2.5014 -1.9221 0.9819
-3.0682 -2.7785 -1.9160 0.9819
-2.2120 -3.4752 -1.9068 0.9820
-1.8930 -3.6587 -1.9068 0.9820
-0.4971 -4.1217 -1.9217 0.9819
0.2456 -4.1795 -1.9380 0.9817
1.7353 -3.9262 -1.9870 0.9813
2.0948 -3.7848 -2.0024 0.9811
2.4443 -3.6123 -2.0189 0.9810
2.7808 -3.4091 -2.0364 0.9808
3.1019 -3.1759 -2.0549 0.9806
3.6602 -2.1402 -1.9626 0.9815
4.0621 -1.4845 -2.0019 0.9811
4.2198 -1.1271 -2.0218 0.9809
4.3456 -0.7533 -2.0415 0.9807
4.4375 -0.3660 -2.0610 0.9806
4.4929 0.8445 -2.1161 0.9801
4.4341 1.2518 -2.1327 0.9799
4.3357 1.6544 -2.1481 0.9798
4.1979 2.0479 -2.1620 0.9796
3.8071 2.7910 -2.1851 0.9794
3.5570 3.1322 -2.1939 0.9793
3.2734 3.4478 -2.2007 0.9793
2.9590 3.7342 -2.2054 0.9792
2.6170 3.9880 -2.2080 0.9792
2.2511 4.2064 -2.2084 0.9792
0.4061 3.0144 -1.4079 0.9867
-0.2096 4.6763 -2.1668 0.9796
-1.7804 4.1849 -2.1051 0.9802
-2.4522 3.7349 -2.0681 0.9805
-2.7497 3.4683 -2.0488 0.9807
-2.3148 2.0373 -1.4274 0.9865
-3.4668 2.5403 -1.9894 0.9812
-3.6433 2.1989 -1.9698 0.9814
-1.3208 0.3725 -0.6352 0.9940
-1.3367 0.1290 -0.6216 0.9941
-1.3344 0.0091 -0.6177 0.9941
-1.3380 -0.1107 -0.6214 0.9941
-1.3183 -0.2289 -0.6194 0.9941
-1.3160 -0.3518 -0.6306 0.9940
-1.3329 -0.4875 -0.6570 0.9938
-3.6029 -2.1078 -1.9322 0.9818
-3.3865 -2.4110 -1.9242 0.9818
-2.6063 -3.1967 -1.9092 0.9820
-2.3082 -3.4129 -1.9072 0.9820
-1.9938 -3.6043 -1.9066 0.9820
-1.6651 -3.7698 -1.9076 0.9820
-0.6109 -4.1019 -1.9197 0.9819
0.1291 -4.1784 -1.9350 0.9817
0.5040 -4.1713 -1.9449 0.9817
2.3367 -3.6693 -2.0136 0.9810
3.6007 -2.7162 -2.0877 0.9803
3.8539 -2.3997 -2.1015 0.9802
4.1740 -1.2403 -2.0156 0.9810
4.4801 -0.0929 -2.0742 0.9804
4.5108 0.3100 -2.0929 0.9803
4.5032 0.7174 -2.1108 0.9801
4.3706 1.5299 -2.1434 0.9798
3.3652 3.3525 -2.1988 0.9793
3.0600 3.6484 -2.2041 0.9792
2.7262 3.9127 -2.2074 0.9792
1.9872 4.3350 -2.2074 0.9792
1.5900 4.4883 -2.2041 0.9792
0.4879 2.9903 -1.4025 0.9867
0.3409 4.7013 -2.1819 0.9794
-0.0796 4.6887 -2.1706 0.9795
-0.4948 4.6351 -2.1577 0.9797
-0.9004 4.5419 -2.1433 0.9798
-2.0225 4.0434 -2.0927 0.9803
-2.9383 3.2709 -2.0352 0.9808
-2.2747 2.1173 -1.4385 0.9864
-3.5918 2.3064 -1.9759 0.9814
-1.3286 0.4150 -0.6443 0.9939
-1.3385 -0.0733 -0.6205 0.9941
-1.3047 -0.3102 -0.6207 0.9941
-3.2240 -2.6084 -1.9196 0.9819
-2.0933 -3.5475 -1.9066 0.9820
-1.0823 -3.9880 -1.9128 0.9820
-0.7240 -4.0794 -1.9178 0.9819
-0.3583 -4.1417 -1.9243 0.9818
0.3872 -4.1768 -1.9417 0.9817
0.7626 -4.1485 -1.9524 0.9816
1.1368 -4.0891 -1.9646 0.9815
1.5074 -3.9985 -1.9780 0.9813
1.8720 -3.8765 -1.9927 0.9812
2.5729 -3.5392 -2.0254 0.9809
2.9040 -3.3246 -2.0433 0.9807
3.2185 -3.0803 -2.0621 0.9806
3.5136 -2.8072 -2.0817 0.9804
3.7779 -2.5008 -2.0972 0.9802
3.7442 -2.0231 -1.9700 0.9814
4.1252 -1.3517 -2.0094 0.9810
4.2712 -0.9878 -2.0292 0.9809
4.3844 -0.6086 -2.0489 0.9807
4.4630 -0.2169 -2.0683 0.9805
4.5053 0.1839 -2.0872 0.9803
4.5097 0.5904 -2.1053 0.9802
4.4754 0.9986 -2.1225 0.9800
4.2883 1.8042 -2.1535 0.9797
3.4538 3.2545 -2.1967 0.9793
2.8330 3.8340 -2.2066 0.9792
2.4815 4.0748 -2.2084 0.9792
1.7152 4.4449 -2.2054 0.9792
1.3089 4.5704 -2.2006 0.9793
0.5996 3.1251 -1.4730 0.9861
0.4722 4.6967 -2.1850 0.9794
0.0509 4.6970 -2.1743 0.9795
-0.3664 4.6561 -2.1619 0.9796
-1.1722 4.4555 -2.1326 0.9799
3.2722 3.0111 -2.1813 0.9804
2.9985 3.3000 -2.1871 0.9803
2.6968 3.5608 -2.1910 0.9803
1.5490 3.8769 -2.0479 0.9816
1.2778 4.2704 -2.1865 0.9803
0.0999 4.4079 -2.1627 0.9805
-0.2923 4.3761 -2.1514 0.9806
-0.6776 4.3067 -2.1385 0.9808
-1.4126 4.0607 -2.1090 0.9810
-1.7557 3.8880 -2.0926 0.9812
-2.3785 3.4552 -2.0576 0.9815
-3.3132 2.3180 -1.9834 0.9821
-3.4742 1.9943 -1.9650 0.9823
-1.1391 0.5248 -0.6152 0.9944
-1.1561 0.4121 -0.6020 0.9945
-1.1580 0.2994 -0.5867 0.9947
-1.1825 0.1953 -0.5879 0.9947
-1.1961 -0.0180 -0.5868 0.9947
-1.1924 -0.1250 -0.5881 0.9947
-1.1752 -0.2306 -0.5875 0.9947
-1.1590 -0.3372 -0.5921 0.9946
-1.1521 -0.4502 -0.6067 0.9945
-3.3687 -2.0711 -1.9398 0.9825
-2.6754 -2.8633 -1.9222 0.9827
-2.4054 -3.0858 -1.9192 0.9827
-2.1186 -3.2855 -1.9176 0.9827
-1.8168 -3.4612 -1.9175 0.9827
-1.5017 -3.6120 -1.9188 0.9827
-0.8387 -3.8352 -1.9257 0.9827
-0.4945 -3.9060 -1.9313 0.9826
0.9202 -3.9036 -1.9673 0.9823
1.2728 -3.8296 -1.9795 0.9822
1.6204 -3.7258 -1.9930 0.9821
1.9607 -3.5923 -2.0075 0.9819
2.2911 -3.4295 -2.0231 0.9818
2.6092 -3.2377 -2.0397 0.9816
3.4401 -2.0388 -1.9615 0.9823
2.3667 -1.1306 -1.2866 0.9884
4.1714 -0.3689 -2.0542 0.9815
4.2421 0.3850 -2.0894 0.9812
4.2239 0.7681 -2.1059 0.9811
4.1691 1.1505 -2.1215 0.9809
3.9488 1.8976 -2.1490 0.9807
3.5844 2.5953 -2.1707 0.9805
3.3513 2.9160 -2.1791 0.9804
3.0868 3.2129 -2.1855 0.9803
1.6303 3.7724 -2.0158 0.9819
1.3971 4.2362 -2.1880 0.9803
0.4232 3.0065 -1.4893 0.9866
0.2228 4.4099 -2.1659 0.9805
-1.3022 4.1079 -2.1139 0.9810
-1.9803 3.7515 -2.0808 0.9813
-2.5707 3.2822 -2.0450 0.9816
-2.8276 3.0122 -2.0266 0.9818
-3.2569 2.4162 -1.9892 0.9821
-3.4273 2.0963 -1.9707 0.9823
-1.1307 0.5596 -0.6188 0.9944
-1.1524 0.4473 -0.6064 0.9945
-1.1590 0.3343 -0.5917 0.9946
-1.1759 0.2279 -0.5875 0.9947
-1.1927 0.1222 -0.5881 0.9947
-1.1581 -0.3023 -0.5871 0.9947
-1.1558 -0.4150 -0.6024 0.9945
-1.1385 -0.5277 -0.6155 0.9944
-3.4295 -1.9792 -1.9423 0.9825
-3.0013 -2.5390 -1.9283 0.9826
-2.7557 -2.7896 -1.9234 0.9827
-2.4913 -3.0190 -1.9200 0.9827
-2.2096 -3.2258 -1.9180 0.9827
-1.9123 -3.4091 -1.9174 0.9827
0.0990 -3.9617 -1.9439 0.9825
0.4543 -3.9558 -1.9532 0.9824
0.8099 -3.9206 -1.9637 0.9823
1.1635 -3.8558 -1.9756 0.9822
1.5129 -3.7613 -1.9887 0.9821
1.8557 -3.6371 -2.0029 0.9820
2.1894 -3.4833 -2.0181 0.9818
2.5117 -3.3004 -2.0344 0.9817
2.8198 -3.0890 -2.0516 0.9815
3.3825 -2.5831 -2.0877 0.9812
2.3218 -0.9384 -1.2284 0.9889
3.9237 -1.1912 -2.0114 0.9819
4.1480 -0.4834 -2.0485 0.9816
3.6502 2.4913 -2.1678 0.9805
3.4273 2.8186 -2.1767 0.9804
2.8877 3.4019 -2.1888 0.9803
2.5763 3.6513 -2.1920 0.9803
2.2413 3.8687 -2.1931 0.9803
1.8864 4.0516 -2.1923 0.9803
1.5153 4.1982 -2.1893 0.9803
-0.0487 4.4004 -2.1586 0.9806
-1.5443 3.9992 -2.1029 0.9811
-1.8800 3.8149 -2.0862 0.9812
-2.1945 3.6015 -2.0688 0.9814
-2.7505 3.0985 -2.0323 0.9817
-2.2583 2.1270 -1.5217 0.9863
-2.4169 1.8995 -1.5079 0.9864
-3.3775 2.1971 -1.9765 0.9822
-1.1184 0.5928 -0.6209 0.9944
-1.1473 0.4824 -0.6105 0.9945
-1.1585 0.3694 -0.5965 0.9946
-1.1889 0.1553 -0.5881 0.9947
-1.1964 0.0486 -0.5874 0.9947
-1.1963 -0.0584 -0.5875 0.9947
-1.1875 -0.1651 -0.5881 0.9947
-1.1581 -0.3798 -0.5978 0.9946
-3.2920 -2.1803 -1.9369 0.9826
-3.0736 -2.4568 -1.9301 0.9826
-2.2990 -3.1639 -1.9184 0.9827
-1.3797 -3.6622 -1.9197 0.9827
-1.0491 -3.7772 -1.9229 0.9827
-0.3630 -3.9255 -1.9338 0.9826
-0.0112 -3.9575 -1.9413 0.9825
2.4128 -3.3605 -2.0293 0.9817
3.0225 -2.9272 -2.0639 0.9814
3.3010 -2.6695 -2.0824 0.9813
3.5501 -2.3803 -2.0966 0.9811
2.2879 -0.9996 -1.2247 0.9889
4.1215 -0.5969 -2.0428 0.9816
4.2395 0.5295 -2.0957 0.9811
4.1388 1.2938 -2.1271 0.9809
4.0331 1.6689 -2.1410 0.9807
3.8909 2.0340 -2.1536 0.9806
3.7128 2.3854 -2.1647 0.9805
3.5002 2.7189 -2.1741 0.9804
2.6759 3.5770 -2.1912 0.9803
1.9988 3.9985 -2.1927 0.9803
1.5340 3.9062 -2.0585 0.9815
1.2524 4.2773 -2.1862 0.9803
0.4689 4.4027 -2.1719 0.9805
-0.7028 4.3008 -2.1376 0.9808
-1.7777 3.8755 -2.0915 0.9812
-2.3974 3.4391 -2.0564 0.9815
-2.6708 3.1828 -2.0381 0.9817
-3.3248 2.2969 -1.9822 0.9822
-3.4838 1.9725 -1.9638 0.9823
-1.1407 0.5174 -0.6144 0.9944
-1.1585 0.2923 -0.5861 0.9947
-1.1838 0.1883 -0.5880 0.9947
-1.1963 -0.0251 -0.5869 0.9947
-1.1917 -0.1320 -0.5881 0.9947
-1.1511 -0.4577 -0.6076 0.9945
-3.3555 -2.0904 -1.9392 0.9825
-3.1439 -2.3728 -1.9321 0.9826
-2.9109 -2.6360 -1.9263 0.9827
-2.6580 -2.8787 -1.9220 0.9827
-2.3869 -3.0998 -1.9190 0.9827
-1.7964 -3.4719 -1.9175 0.9827
-0.8161 -3.8407 -1.9260 0.9827
0.2329 -3.9629 -1.9472 0.9825
0.9437 -3.8996 -1.9681 0.9823
1.2960 -3.8236 -1.9804 0.9822
2.3126 -3.4177 -2.0242 0.9818
2.6298 -3.2239 -2.0408 0.9816
2.9320 -3.0019 -2.0583 0.9815
3.2165 -2.7525 -2.0766 0.9813
3.4542 -2.0197 -1.9627 0.9823
2.3550 -1.1080 -1.2767 0.9885
3.8291 -1.3994 -1.9998 0.9820
3.9755 -1.0619 -2.0185 0.9818
4.1760 -0.3444 -2.0554 0.9815
4.2420 0.4104 -2.0905 0.9812
4.2215 0.7935 -2.1070 0.9810
4.0700 1.5530 -2.1368 0.9808
3.7720 2.2777 -2.1614 0.9806
3.5700 2.6172 -2.1713 0.9805
3.3347 2.9364 -2.1795 0.9804
3.0682 3.2317 -2.1859 0.9803
2.7732 3.4996 -2.1903 0.9803
2.4525 3.7372 -2.1927 0.9803
2.1095 3.9419 -2.1930 0.9803
1.3718 4.2438 -2.1877 0.9803
0.4066 3.0179 -1.4937 0.9865
-0.5840 4.3271 -2.1418 0.9807
-0.9616 4.2301 -2.1279 0.9809
-1.3258 4.0982 -2.1128 0.9810
-1.6734 3.9332 -2.0967 0.9811
-2.3072 3.5140 -2.0620 0.9814
-2.3068 2.0303 -1.5074 0.9864
-3.2691 2.3955 -1.9880 0.9821
-3.4375 2.0747 -1.9695 0.9823
-1.1326 0.5522 -0.6181 0.9944
-1.1533 0.4398 -0.6055 0.9945
-1.1589 0.3269 -0.5906 0.9946
-1.1774 0.2210 -0.5876 0.9947
-1.1958 0.0082 -0.5866 0.9947
-1.1946 -0.0988 -0.5880 0.9947
-1.1551 -0.4225 -0.6033 0.9945
-1.1368 -0.5351 -0.6163 0.9944
-3.4168 -1.9989 -1.9417 0.9825
-3.2121 -2.2869 -1.9342 0.9826
-2.4731 -3.0334 -1.9198 0.9827
-1.8921 -3.4204 -1.9174 0.9827
-1.5801 -3.5774 -1.9183 0.9827
-0.9219 -3.8136 -1.9246 0.9827
-0.2307 -3.9410 -1.9364 0.9826
0.1224 -3.9622 -1.9445 0.9825
0.4778 -3.9544 -1.9538 0.9824
1.5358 -3.7540 -1.9896 0.9821
1.8781 -3.6278 -2.0038 0.9820
2.2112 -3.4721 -2.0192 0.9818
3.1300 -2.8330 -2.0708 0.9814
3.3991 -2.5641 -2.0885 0.9812
3.5949 -1.8150 -1.9754 0.9822
2.3453 -0.9318 -1.2379 0.9888
4.2145 -0.0874 -2.0677 0.9814
4.2410 0.2915 -2.0852 0.9812
4.2318 0.6742 -2.1020 0.9811
4.1860 1.0570 -2.1178 0.9809
4.1033 1.4363 -2.1325 0.9808
3.9837 1.8081 -2.1460 0.9807
3.6365 2.5136 -2.1684 0.9805
3.4114 2.8395 -2.1772 0.9804
2.8679 3.4193 -2.1891 0.9803
1.8623 4.0624 -2.1921 0.9803
1.4902 4.2066 -2.1891 0.9803
0.4898 3.0017 -1.4919 0.9865
0.3197 4.4089 -2.1684 0.9805
-0.4643 4.3499 -2.1458 0.9807
-0.8453 4.2642 -2.1324 0.9808
-1.2141 4.1429 -2.1176 0.9809
-2.2145 3.5865 -2.0676 0.9814
-2.5037 3.3451 -2.0495 0.9816
-2.4654 1.9142 -1.5311 0.9862
-1.1486 0.4749 -0.6097 0.9945
-1.1697 0.2535 -0.5871 0.9947
-1.1965 0.0415 -0.5872 0.9947
-1.1961 -0.0655 -0.5876 0.9947
-1.1864 -0.1721 -0.5881 0.9947
-1.1103 -0.6087 -0.6211 0.9944
-3.2782 -2.1992 -1.9364 0.9826
-3.0584 -2.4745 -1.9297 0.9826
-2.2801 -3.1773 -1.9183 0.9827
-1.9865 -3.3664 -1.9174 0.9827
-1.6786 -3.5312 -1.9179 0.9827
-1.0269 -3.7839 -1.9232 0.9827
-0.3398 -3.9285 -1.9342 0.9826
0.3671 -3.9599 -1.9508 0.9824
1.4278 -3.7872 -1.9853 0.9821
1.7724 -3.6702 -1.9993 0.9820
2.1086 -3.5237 -2.0143 0.9819
2.4339 -3.3479 -2.0304 0.9817
3.0416 -2.9110 -2.0651 0.9814
3.5655 -2.3602 -2.0975 0.9811
4.0231 -0.9305 -2.0255 0.9818
4.1991 -0.2041 -2.0622 0.9814
4.2365 0.1730 -2.0798 0.9813
4.2042 0.9381 -2.1130 0.9810
4.1330 1.3188 -2.1280 0.9809
4.0249 1.6934 -2.1419 0.9807
3.6998 2.4080 -2.1654 0.9805
3.4850 2.7403 -2.1747 0.9804
3.2376 3.0509 -2.1821 0.9804
2.9601 3.3362 -2.1878 0.9803
2.3254 3.8185 -2.1931 0.9803
1.9750 4.0101 -2.1927 0.9803
1.5248 3.9514 -2.0776 0.9813
0.4428 4.4042 -2.1713 0.9805
-0.3438 4.3691 -2.1498 0.9807
-0.7279 4.2947 -2.1367 0.9808
-1.4591 4.0397 -2.1068 0.9810
3.5034 2.2216 -2.1521 0.9815
3.3047 2.5359 -2.1610 0.9814
3.0755 2.8301 -2.1682 0.9813
2.8178 3.1011 -2.1737 0.9813
2.5340 3.3458 -2.1774 0.9813
2.2271 3.5615 -2.1792 0.9812
1.5224 3.8104 -2.1287 0.9817
0.8357 4.0936 -2.1675 0.9813
0.0940 4.1451 -2.1509 0.9815
-0.2750 4.1165 -2.1403 0.9816
-0.6377 4.0526 -2.1283 0.9817
-1.6542 3.6633 -2.0852 0.9821
-1.9592 3.4739 -2.0691 0.9822
-2.2431 3.2586 -2.0523 0.9823
-2.5038 3.0199 -2.0351 0.9825
-2.3296 1.9615 -1.5799 0.9864
-3.1311 2.1906 -1.9824 0.9829
-1.0421 0.4801 -0.5952 0.9948
-1.1053 0.0823 -0.5750 0.9950
-1.1064 -0.0167 -0.5740 0.9950
-1.1027 -0.1156 -0.5752 0.9950
-1.0637 -0.3095 -0.5747 0.9950
-0.9822 -0.6038 -0.5981 0.9948
-2.2860 -2.9327 -1.9290 0.9834
-1.4272 -3.4327 -1.9286 0.9834
-0.4698 -3.7110 -1.9406 0.9833
0.5365 -3.7485 -1.9644 0.9831
0.8735 -3.7053 -1.9749 0.9830
1.2078 -3.6338 -1.9866 0.9829
1.5371 -3.5341 -1.9993 0.9828
1.8591 -3.4063 -2.0132 0.9827
2.7581 -2.8575 -2.0603 0.9823
3.2721 -2.3577 -2.0923 0.9820
3.2530 -1.9280 -1.9617 0.9831
2.3200 -0.8635 -1.2842 0.9889
3.9823 0.0046 -2.0659 0.9822
3.9250 1.0831 -2.1123 0.9818
3.8371 1.4382 -2.1258 0.9817
3.7148 1.7851 -2.1381 0.9816
3.1500 2.7409 -2.1662 0.9814
2.9009 3.0195 -2.1722 0.9813
2.6250 3.2727 -2.1764 0.9813
2.3250 3.4977 -2.1788 0.9813
2.0040 3.6920 -2.1793 0.9812
1.6376 3.7893 -2.1416 0.9816
1.3129 3.9808 -2.1746 0.9813
0.4256 3.0235 -1.5840 0.9863
0.2095 4.1466 -2.1539 0.9815
-0.1606 4.1292 -2.1438 0.9816
-1.2262 3.8682 -2.1051 0.9819
-1.8664 3.5358 -2.0742 0.9821
-2.4253 3.0966 -2.0405 0.9824
-2.2903 2.0399 -1.5911 0.9863
-2.6538 1.9688 -1.7142 0.9852
-1.0556 0.4097 -0.5874 0.9949
-1.0637 0.3068 -0.5743 0.9950
-1.1030 0.1130 -0.5752 0.9950
-1.1052 -0.0848 -0.5750 0.9950
-1.0685 -0.2789 -0.5729 0.9950
-0.9987 -0.5764 -0.5982 0.9948
-3.0650 -2.1550 -1.9437 0.9833
-2.6187 -2.6509 -1.9331 0.9833
-2.1000 -3.0658 -1.9278 0.9834
-1.8175 -3.2401 -1.9273 0.9834
-1.5217 -3.3908 -1.9281 0.9834
-1.2144 -3.5171 -1.9303 0.9834
-0.2412 -3.7415 -1.9450 0.9832
0.4314 -3.7562 -1.9614 0.9831
1.1041 -3.6591 -1.9828 0.9829
1.4352 -3.5682 -1.9952 0.9828
1.7598 -3.4491 -2.0088 0.9827
2.9455 -2.6979 -2.0722 0.9822
3.4248 -2.1607 -2.1007 0.9819
3.3859 -1.7347 -1.9737 0.9830
3.8240 -0.7966 -2.0264 0.9826
3.9962 0.2509 -2.0772 0.9821
3.8682 1.3284 -2.1217 0.9817
3.7565 1.6782 -2.1344 0.9816
2.9815 2.9353 -2.1705 0.9813
2.7136 3.1967 -2.1753 0.9813
2.4207 3.4308 -2.1783 0.9813
2.1059 3.6349 -2.1793 0.9812
1.4239 3.9450 -2.1758 0.9813
1.0639 4.0478 -2.1712 0.9813
0.5098 3.0125 -1.5850 0.9863
0.3252 4.1447 -2.1568 0.9814
-0.4128 4.0964 -2.1359 0.9816
-1.1205 3.9091 -2.1096 0.9818
-1.4547 3.7670 -2.0949 0.9820
-1.7717 3.5950 -2.0792 0.9821
-2.0690 3.3956 -2.0628 0.9822
-2.3444 3.1711 -2.0459 0.9824
-2.5958 2.9243 -2.0285 0.9825
-2.3962 1.8833 -1.5811 0.9864
-3.1925 2.0768 -1.9758 0.9830
-1.0503 0.4416 -0.5911 0.9949
-1.0626 0.3388 -0.5786 0.9950
-1.0800 0.2407 -0.5740 0.9950
-1.1064 -0.0540 -0.5747 0.9950
-1.0775 -0.2495 -0.5738 0.9950
-1.0620 -0.3483 -0.5798 0.9950
-1.0485 -0.4510 -0.5921 0.9949
-1.0140 -0.5482 -0.5980 0.9948
-3.1272 -2.0711 -1.9459 0.9832
-2.9202 -2.3342 -1.9395 0.9833
-2.4476 -2.8034 -1.9307 0.9834
-1.9069 -3.1883 -1.9273 0.9834
-1.3112 -3.4804 -1.9295 0.9834
-0.9970 -3.5894 -1.9326 0.9834
-0.3448 -3.7293 -1.9429 0.9833
0.3262 -3.7612 -1.9585 0.9831
0.6639 -3.7355 -1.9683 0.9830
1.3328 -3.5995 -1.9913 0.9829
2.2865 -3.1846 -2.0339 0.9825
2.5818 -2.9913 -2.0499 0.9824
2.8618 -2.7716 -2.0668 0.9822
3.3572 -2.2510 -2.0969 0.9820
3.3272 -1.8232 -1.9682 0.9830
3.6624 -1.2241 -2.0033 0.9827
3.9563 -0.2157 -2.0555 0.9823
3.9918 0.1393 -2.0721 0.9822
3.9941 0.4988 -2.0882 0.9820
3.9623 0.8595 -2.1033 0.9819
3.8959 1.2179 -2.1175 0.9818
3.7949 1.5703 -2.1306 0.9817
3.6598 1.9132 -2.1424 0.9816
3.2905 2.5560 -2.1615 0.9814
2.5144 3.3610 -2.1776 0.9813
2.2061 3.5747 -2.1792 0.9812
1.8780 3.7569 -2.1790 0.9813
0.8113 4.0976 -2.1670 0.9814
0.4408 4.1392 -2.1595 0.9814
-2.2262 2.2168 -1.6298 0.9859
-1.0034 0.5681 -0.5982 0.9948
-0.9785 -0.6096 -0.5981 0.9948
-2.9869 -2.2543 -1.9413 0.9833
-2.7659 -2.5047 -1.9358 0.9833
-2.2684 -2.9459 -1.9289 0.9834
-1.7073 -3.2998 -1.9274 0.9834
-1.4070 -3.4414 -1.9288 0.9834
-0.7755 -3.6495 -1.9355 0.9833
-0.1151 -3.7527 -1.9477 0.9832
0.2212 -3.7635 -1.9558 0.9832
0.5588 -3.7465 -1.9651 0.9831
1.2297 -3.6281 -1.9874 0.9829
1.5586 -3.5265 -2.0002 0.9828
2.1919 -3.2393 -2.0290 0.9825
2.4915 -3.0543 -2.0448 0.9824
2.7765 -2.8427 -2.0614 0.9823
3.6170 -1.3219 -1.9978 0.9828
3.8611 -0.6694 -2.0330 0.9825
3.9843 0.0282 -2.0670 0.9822
3.9970 0.3867 -2.0832 0.9821
3.8300 1.4615 -2.1267 0.9817
3.7055 1.8077 -2.1389 0.9816
3.5472 2.1420 -2.1497 0.9815
3.3563 2.4606 -2.1590 0.9814
3.1344 2.7600 -2.1666 0.9814
2.8834 3.0370 -2.1725 0.9813
2.6058 3.2884 -2.1767 0.9813
2.3043 3.5115 -2.1789 0.9813
1.2891 3.9880 -2.1743 0.9813
0.9258 4.0772 -2.1690 0.9813
0.4105 3.0467 -1.5948 0.9862
-0.1850 4.1268 -2.1430 0.9816
-0.9051 3.9817 -2.1183 0.9818
-1.2485 3.8591 -2.1042 0.9819
-1.5765 3.7054 -2.0890 0.9820
-1.8863 3.5228 -2.0731 0.9822
-2.1756 3.3137 -2.0565 0.9823
-2.6842 2.8258 -2.0219 0.9826
-2.2987 2.0232 -1.5886 0.9863
-2.7393 2.0072 -1.7618 0.9848
-0.9872 0.5958 -0.5982 0.9948
-1.0346 0.5044 -0.5971 0.9948
-1.0889 0.2044 -0.5748 0.9950
-1.1036 0.1065 -0.5752 0.9950
-1.1061 0.0076 -0.5738 0.9950
-1.0919 -0.1896 -0.5749 0.9950
-1.0665 -0.2851 -0.5727 0.9950
-1.0585 -0.3871 -0.5847 0.9949
-0.9953 -0.5823 -0.5982 0.9948
-3.0516 -2.1726 -1.9433 0.9833
-2.6026 -2.6660 -1.9328 0.9834
-2.3504 -2.8828 -1.9296 0.9834
1.1262 -3.6540 -1.9836 0.9829
2.0960 -3.2913 -2.0243 0.9826
2.3996 -3.1148 -2.0398 0.9824
2.6895 -2.9114 -2.0562 0.9823
3.2151 -2.4253 -2.0893 0.9820
3.3981 -1.7157 -1.9748 0.9830
2.2926 -0.9109 -1.2798 0.9889
3.8308 -0.7744 -2.0275 0.9825
3.9967 0.2747 -2.0783 0.9821
3.9413 0.9952 -2.1088 0.9818
3.8618 1.3518 -2.1226 0.9817
3.6000 2.0394 -2.1465 0.9815
3.4191 2.3633 -2.1563 0.9814
3.2067 2.6691 -2.1644 0.9814
2.4005 3.4453 -2.1784 0.9813
1.4003 3.9529 -2.1755 0.9813
1.0397 4.0533 -2.1708 0.9813
0.4904 3.0053 -1.5797 0.9864
0.3006 4.1454 -2.1562 0.9814
-0.0703 4.1368 -2.1464 0.9815
-0.7956 4.0132 -2.1225 0.9817
-1.4762 3.7565 -2.0939 0.9820
-1.7920 3.5826 -2.0781 0.9821
-2.6116 2.9072 -2.0274 0.9825
-2.2588 2.1025 -1.6009 0.9862
-2.4264 1.8839 -1.5936 0.9863
-0.9698 0.6227 -0.5979 0.9948
-1.0630 0.3320 -0.5777 0.9950
-1.0817 0.2344 -0.5742 0.9950
-1.1066 0.0384 -0.5744 0.9950
-1.0757 -0.2558 -0.5736 0.9950
-1.0616 -0.3551 -0.5807 0.9950
-2.9058 -2.3510 -1.9391 0.9833
-2.6775 -2.5943 -1.9341 0.9833
-2.4307 -2.8175 -1.9305 0.9834
-0.6526 -3.6771 -1.9374 0.9833
-0.3228 -3.7321 -1.9434 0.9833
0.0116 -3.7600 -1.9506 0.9832
1.0223 -3.6771 -1.9799 0.9829
1.3546 -3.5931 -1.9921 0.9828
3.3399 -1.8046 -1.9694 0.9830
3.9597 -0.1924 -2.0566 0.9823
3.9930 0.1630 -2.0732 0.9822
3.8903 1.2414 -2.1185 0.9818
3.7870 1.5933 -2.1314 0.9817
3.4789 2.2643 -2.1534 0.9815
3.2761 2.5761 -2.1621 0.9814
3.0430 2.8674 -2.1691 0.9813
2.7816 3.1351 -2.1743 0.9813
1.8557 3.7678 -2.1789 0.9813
1.5105 3.9143 -2.1766 0.9813
0.4163 4.1406 -2.1589 0.9814
0.0449 4.1433 -2.1496 0.9815
-0.3234 4.1100 -2.1388 0.9816
-0.6850 4.0415 -2.1266 0.9817
-1.0363 3.9392 -2.1131 0.9818
3.1138 2.3894 -2.1497 0.9823
2.8972 2.6661 -2.1564 0.9822
2.6540 2.9209 -2.1616 0.9822
2.3865 3.1511 -2.1650 0.9821
2.0974 3.3541 -2.1667 0.9821
1.7896 3.5277 -2.1666 0.9821
1.1311 3.7801 -2.1610 0.9822
0.7873 3.8564 -2.1557 0.9822
-0.2592 3.8808 -2.1302 0.9824
-0.9344 3.7307 -2.1065 0.9826
-1.5618 3.4586 -2.0785 0.9828
-0.9567 0.4408 -0.5769 0.9952
-0.9761 0.3479 -0.5676 0.9953
-0.9928 0.2567 -0.5617 0.9953
-1.0153 0.1677 -0.5636 0.9953
-1.0274 -0.0155 -0.5628 0.9953
-1.0239 -0.1073 -0.5639 0.9953
-0.9829 -0.2860 -0.5606 0.9953
-0.8997 -0.5531 -0.5785 0.9952
-2.8548 -2.1282 -1.9503 0.9839
-2.6462 -2.3680 -1.9449 0.9839
-2.4193 -2.5893 -1.9409 0.9840
-1.9163 -2.9717 -1.9367 0.9840
-1.6433 -3.1307 -1.9365 0.9840
-1.0626 -3.3794 -1.9402 0.9840
0.1891 -3.5793 -1.9631 0.9838
1.1477 -3.4532 -1.9931 0.9835
1.4602 -3.3574 -2.0052 0.9834
2.0615 -3.0858 -2.0325 0.9832
2.8702 -2.4858 -2.0797 0.9828
3.0814 -1.8263 -1.9619 0.9838
2.2780 -0.8478 -1.3313 0.9890
3.5427 -0.9688 -2.0116 0.9834
3.6188 1.3564 -2.1167 0.9825
3.5023 1.6830 -2.1282 0.9824
2.9676 2.5822 -2.1545 0.9822
2.7325 2.8441 -2.1602 0.9822
2.1896 3.2940 -2.1663 0.9821
1.5685 3.6293 -2.1655 0.9821
1.2365 3.7494 -2.1624 0.9822
0.8950 3.8362 -2.1575 0.9822
-0.1514 3.8924 -2.1335 0.9824
-1.1571 3.6501 -2.0972 0.9827
-1.7627 3.3392 -2.0681 0.9829
-2.0381 3.1447 -2.0525 0.9831
-2.2925 2.9271 -2.0364 0.9832
-2.5241 2.6889 -2.0199 0.9833
-1.0095 0.1957 -0.5632 0.9953
-1.0149 -0.1700 -0.5636 0.9953
-0.9921 -0.2590 -0.5616 0.9953
-0.8623 -0.6063 -0.5773 0.9952
-2.4918 -2.5225 -1.9420 0.9840
-2.2531 -2.7303 -1.9388 0.9840
-1.9985 -2.9177 -1.9370 0.9840
-0.8539 -3.4427 -1.9427 0.9840
-0.5445 -3.5137 -1.9474 0.9839
1.3636 -3.3901 -2.0013 0.9835
1.6714 -3.2758 -2.0142 0.9834
2.2587 -2.9680 -2.0428 0.9831
2.5336 -2.7755 -2.0583 0.9830
2.7930 -2.5583 -2.0745 0.9829
3.0315 -2.3151 -2.0892 0.9828
3.2063 -1.6427 -1.9732 0.9837
2.2574 -0.9124 -1.3335 0.9890
3.5054 -1.0642 -2.0064 0.9834
3.6160 -0.7533 -2.0230 0.9833
3.6985 -0.4310 -2.0394 0.9832
3.7515 -0.1000 -2.0554 0.9830
3.7643 0.5769 -2.0858 0.9828
3.5420 1.5824 -2.1247 0.9825
3.4036 1.9017 -2.1354 0.9824
3.2343 2.2074 -2.1447 0.9823
3.0353 2.4962 -2.1524 0.9822
2.5558 3.0109 -2.1631 0.9821
2.2798 3.2311 -2.1658 0.9821
1.9833 3.4232 -2.1668 0.9821
1.3410 3.7155 -2.1635 0.9821
0.3064 3.9056 -2.1457 0.9823
-0.0432 3.9008 -2.1366 0.9824
-0.3892 3.8623 -2.1261 0.9825
-1.9546 3.2078 -2.0574 0.9830
-0.9796 0.3123 -0.5631 0.9953
-1.0026 0.2235 -0.5626 0.9953
-0.9789 -0.3210 -0.5642 0.9953
-0.9648 -0.4150 -0.5752 0.9952
-0.9289 -0.5022 -0.5784 0.9952
-2.7783 -2.2208 -1.9481 0.9839
-2.0794 -2.8616 -1.9374 0.9840
-1.5371 -3.1848 -1.9368 0.9840
