ply
format ascii 1.0
element vertex 1585
property float32 x
property float32 y
property float32 z
property float32 I
end_header
18.1209 -4.5812 -2.2202 0.9275
11.4687 -1.8317 -1.3796 0.9543
18.4046 -1.2744 -2.1914 0.9284
14.9506 0.3007 -1.7763 0.9415
11.6677 1.2810 -1.3943 0.9538
9.9055 1.9935 -1.2002 0.9601
8.7806 2.5996 -1.0878 0.9638
6.8034 3.4245 -0.9047 0.9698
5.3392 4.0155 -0.7936 0.9734
4.7248 4.2630 -0.7559 0.9747
4.1344 4.4604 -0.7224 0.9758
3.7012 4.7863 -0.7187 0.9759
3.1145 4.8697 -0.6866 0.9770
2.6511 5.0953 -0.6823 0.9771
1.2571 5.8400 -0.7096 0.9762
0.3698 2.9970 -0.3587 0.9879
-0.9750 6.6790 -0.8018 0.9732
-2.5437 1.8261 -0.3720 0.9875
-15.5264 4.2247 -1.9114 0.9372
-15.3333 2.7335 -1.8501 0.9392
-15.0485 1.3152 -1.7944 0.9410
-14.6815 -0.0304 -1.7440 0.9426
-13.7319 -2.5067 -1.6581 0.9453
-13.1627 -3.6401 -1.6222 0.9465
-11.8620 -5.7050 -1.5635 0.9484
-9.5629 -8.3202 -1.5057 0.9502
-8.2821 -8.6180 -1.4198 0.9530
-5.5440 -10.2017 -1.3792 0.9543
-4.6208 -10.6739 -1.3816 0.9542
0.4580 -12.1528 -1.4446 0.9522
4.1471 -13.1542 -1.6384 0.9460
5.4260 -13.0276 -1.6764 0.9447
6.7328 -12.8106 -1.7191 0.9434
8.0654 -12.4967 -1.7668 0.9418
9.4207 -12.0790 -1.8196 0.9402
10.7948 -11.5497 -1.8779 0.9383
12.1824 -10.9006 -1.9418 0.9363
2.3432 -0.9168 -0.2989 0.9899
-10.0092 -5.5119 -1.6190 0.9549
-9.3668 -6.3071 -1.6000 0.9554
-8.6823 -7.0477 -1.5845 0.9558
-0.9640 -11.2154 -1.5950 0.9555
0.0399 -11.3835 -1.6129 0.9551
3.1927 -11.4809 -1.6884 0.9530
5.3932 -11.1727 -1.7578 0.9511
6.5152 -10.8945 -1.7986 0.9500
9.9186 -9.5047 -1.9464 0.9460
11.0463 -8.8391 -2.0045 0.9444
13.2444 -7.1730 -2.1341 0.9410
13.2989 -5.7346 -2.0520 0.9432
14.1914 -4.6694 -2.1168 0.9414
14.3089 0.5598 -2.0290 0.9438
11.5548 1.4912 -1.6508 0.9540
9.7727 2.1607 -1.4181 0.9604
6.6157 3.4891 -1.0597 0.9702
5.9968 3.8826 -1.0122 0.9716
5.1964 4.0648 -0.9348 0.9737
4.5953 4.3073 -0.8924 0.9749
3.0076 4.9054 -0.8153 0.9770
2.0725 5.3195 -0.8089 0.9772
1.6466 5.6775 -0.8376 0.9764
1.1485 5.8758 -0.8483 0.9761
0.0888 6.1089 -0.8657 0.9756
-0.4739 6.3318 -0.8997 0.9747
-1.1209 6.7755 -0.9731 0.9726
-1.7678 6.8320 -0.9999 0.9719
-6.5584 18.3974 -2.7674 0.9241
-10.1234 14.4790 -2.5032 0.9311
-11.6989 11.6228 -2.3366 0.9355
-12.9886 7.3405 -2.1139 0.9415
-13.2395 4.6225 -1.9869 0.9449
-13.2102 3.3263 -1.9302 0.9465
-13.0892 2.0778 -1.8778 0.9479
-12.6033 -0.2655 -1.7861 0.9503
-11.8368 -2.3939 -1.7111 0.9524
-11.3627 -3.3759 -1.6795 0.9532
-8.9639 -6.7548 -1.5903 0.9557
-8.2556 -7.4630 -1.5768 0.9560
-7.5092 -8.1168 -1.5667 0.9563
-5.0605 -9.7488 -1.5563 0.9566
-4.1798 -10.1813 -1.5594 0.9565
-2.3297 -10.8731 -1.5756 0.9561
-1.3626 -11.1294 -1.5887 0.9557
-0.3690 -11.3233 -1.6052 0.9553
2.7565 -11.5053 -1.6763 0.9533
6.0602 -11.0174 -1.7816 0.9505
7.1884 -10.6867 -1.8249 0.9493
9.4600 -9.7438 -1.9242 0.9466
15.5379 -2.7547 -2.2359 0.9382
14.8458 0.0449 -2.1035 0.9418
11.5821 1.0717 -1.6481 0.9541
10.4882 1.9249 -1.5109 0.9578
7.6720 2.8878 -1.1615 0.9674
6.8910 3.3223 -1.0839 0.9696
5.4568 3.9597 -0.9553 0.9731
4.8317 4.2120 -0.9082 0.9744
2.7396 5.0528 -0.8144 0.9770
1.7902 5.4322 -0.8104 0.9772
1.3413 5.7518 -0.8368 0.9764
0.8192 5.8189 -0.8326 0.9765
0.3051 6.0231 -0.8545 0.9759
-0.2412 6.2396 -0.8847 0.9751
-0.8578 6.6715 -0.9531 0.9732
-1.4849 6.7315 -0.9767 0.9725
-2.1887 6.9193 -1.0283 0.9711
-8.6379 16.3973 -2.6260 0.9279
-9.7286 15.0421 -2.5382 0.9302
-10.6575 13.6378 -2.4524 0.9325
-11.4296 12.2055 -2.3693 0.9347
-12.0521 10.7633 -2.2895 0.9368
-13.1095 6.5153 -2.0742 0.9426
-13.2234 5.1592 -2.0112 0.9443
-13.2335 3.8448 -1.9526 0.9458
-13.1486 2.5766 -1.8985 0.9473
-12.4021 -0.9223 -1.7621 0.9510
-11.5611 -2.9855 -1.6918 0.9529
-11.0543 -3.9347 -1.6625 0.9537
-10.4959 -4.8290 -1.6370 0.9544
-9.8896 -5.6683 -1.6151 0.9550
-8.5467 -7.1833 -1.5819 0.9559
-7.8154 -7.8590 -1.5704 0.9562
-6.2441 -9.0467 -1.5575 0.9566
-4.5395 -10.0133 -1.5578 0.9566
-3.6408 -10.4118 -1.5628 0.9564
-0.7738 -11.2526 -1.5981 0.9555
0.2349 -11.4082 -1.6168 0.9549
1.2679 -11.4976 -1.6390 0.9543
3.4003 -11.4650 -1.6944 0.9528
4.4957 -11.3359 -1.7279 0.9519
6.7312 -10.8312 -1.8069 0.9498
10.1353 -9.3856 -1.9572 0.9457
12.3685 -7.9020 -2.0796 0.9424
2.3353 -0.9600 -0.3578 0.9899
14.3624 -4.4552 -2.1307 0.9411
15.9875 -1.9651 -2.2823 0.9370
15.4343 -0.5104 -2.1881 0.9395
9.4593 2.2615 -1.3780 0.9615
8.0927 2.7171 -1.2096 0.9661
7.1813 3.1483 -1.1110 0.9688
5.9043 3.9674 -1.0079 0.9717
5.0769 4.1130 -0.9258 0.9739
2.8946 4.9074 -0.8073 0.9772
2.4216 5.0952 -0.7993 0.9775
1.9819 5.3557 -0.8091 0.9772
1.5521 5.7151 -0.8391 0.9764
-1.9007 6.8601 -1.0086 0.9717
-11.1359 12.7867 -2.4025 0.9338
-11.8180 11.3466 -2.3213 0.9360
-2.6030 1.7299 -0.4428 0.9875
-13.0319 7.0740 -2.1010 0.9419
-13.2413 4.3708 -1.9757 0.9452
-13.0563 1.8444 -1.8683 0.9481
-11.7504 -2.5862 -1.7048 0.9526
-11.2657 -3.5576 -1.6739 0.9534
-10.7276 -4.4740 -1.6469 0.9541
-8.8314 -6.8946 -1.5875 0.9557
-8.1156 -7.5924 -1.5746 0.9561
-7.3621 -8.2357 -1.5652 0.9564
-5.7498 -9.3580 -1.5562 0.9566
-4.8943 -9.8360 -1.5567 0.9566
-4.0077 -10.2577 -1.5604 0.9565
-3.0915 -10.6218 -1.5674 0.9563
-2.1466 -10.9269 -1.5778 0.9560
-1.1744 -11.1714 -1.5916 0.9556
0.8474 -11.4696 -1.6296 0.9546
2.9627 -11.4953 -1.6820 0.9532
4.0508 -11.3975 -1.7139 0.9523
6.2754 -10.9610 -1.7896 0.9503
8.5410 -10.1720 -1.8820 0.9478
11.9234 -8.2380 -2.0534 0.9431
13.0159 -7.3724 -2.1195 0.9414
14.0388 -6.3726 -2.1845 0.9396
13.9987 -4.9026 -2.1016 0.9418
14.8789 -3.7616 -2.1745 0.9399
11.4791 -1.8334 -1.6471 0.9541
14.9457 0.3006 -2.1181 0.9414
11.6656 1.2808 -1.6628 0.9537
8.5895 2.5430 -1.2693 0.9645
7.4841 2.9640 -1.1406 0.9680
6.7594 3.4024 -1.0722 0.9699
4.1293 4.4549 -0.8607 0.9758
3.6968 4.7806 -0.8563 0.9759
3.1108 4.8640 -0.8181 0.9769
1.7381 5.5937 -0.8299 0.9766
1.2556 5.8332 -0.8454 0.9762
0.2034 6.0634 -0.8596 0.9758
-0.3504 6.2829 -0.8916 0.9749
-0.9737 6.6702 -0.9551 0.9731
-1.6186 6.7842 -0.9882 0.9722
-2.3288 6.9471 -1.0382 0.9708
-7.6361 17.4407 -2.6976 0.9260
-8.8594 16.1427 -2.6091 0.9283
-10.8173 13.3652 -2.4362 0.9329
-12.1549 10.4874 -2.2747 0.9372
-2.5466 1.8282 -0.4442 0.9874
-13.1397 6.2527 -2.0618 0.9429
-13.2331 4.9042 -1.9996 0.9446
-13.1222 2.3393 -1.8886 0.9476
-12.9347 1.1304 -1.8397 0.9489
-12.3323 -1.1293 -1.7547 0.9512
-11.4683 -3.1715 -1.6859 0.9531
-9.1095 -6.5971 -1.5936 0.9556
-7.6711 -7.9822 -1.5686 0.9563
-4.3698 -10.0941 -1.5585 0.9565
-3.4654 -10.4816 -1.5642 0.9564
-0.5826 -11.2874 -1.6014 0.9554
2.5282 -11.5133 -1.6702 0.9535
6.9475 -10.7646 -1.8153 0.9496
8.0815 -10.3618 -1.8619 0.9483
9.2183 -9.8629 -1.9128 0.9469
10.3517 -9.2625 -1.9682 0.9454
11.4744 -8.5554 -2.0280 0.9438
2.3431 -0.9167 -0.3565 0.9899
14.5310 -4.2368 -2.1446 0.9407
-8.3413 -5.6165 -1.6566 0.9601
-7.7399 -6.2828 -1.6423 0.9604
-6.4251 -7.4682 -1.6230 0.9608
-4.9755 -8.4536 -1.6159 0.9610
-3.4064 -9.2322 -1.6211 0.9609
-2.5814 -9.5411 -1.6283 0.9607
0.9491 -10.2042 -1.6883 0.9593
1.8801 -10.2165 -1.7113 0.9588
3.7842 -10.0390 -1.7674 0.9574
6.6979 -9.2209 -1.8775 0.9548
7.6678 -8.7875 -1.9213 0.9538
9.5720 -7.6593 -2.0196 0.9515
10.4917 -6.9582 -2.0740 0.9502
11.3423 -4.8909 -2.0348 0.9512
12.0749 -3.9730 -2.0941 0.9498
13.3418 -1.8718 -2.2195 0.9468
13.8502 -0.6950 -2.2845 0.9453
11.5276 1.4877 -1.9148 0.9540
9.8403 2.1756 -1.6602 0.9600
8.5256 2.7013 -1.4733 0.9644
5.6972 3.6886 -1.1181 0.9729
3.0040 4.8997 -0.9468 0.9770
2.0701 5.3134 -0.9394 0.9771
1.6446 5.6709 -0.9727 0.9763
1.1471 5.8689 -0.9851 0.9760
-0.4680 6.2527 -1.0329 0.9749
-8.4902 12.1433 -2.4409 0.9417
-10.4498 8.6755 -2.2374 0.9464
-2.5620 1.7665 -0.5127 0.9875
-11.2962 0.7714 -1.8653 0.9551
-11.0822 -0.2335 -1.8261 0.9561
-10.8023 -1.1964 -1.7904 0.9569
-10.4613 -2.1157 -1.7583 0.9577
-9.6143 -3.8182 -1.7042 0.9589
-8.5730 -5.3335 -1.6633 0.9599
-6.7023 -7.2446 -1.6259 0.9608
-5.2786 -8.2709 -1.6164 0.9610
-3.7325 -9.0919 -1.6191 0.9609
-2.9180 -9.4228 -1.6250 0.9608
-1.2143 -9.9186 -1.6462 0.9603
0.5775 -10.1810 -1.6799 0.9595
1.5018 -10.2193 -1.7016 0.9590
2.4420 -10.1924 -1.7266 0.9584
3.3955 -10.0974 -1.7550 0.9577
4.3595 -9.9312 -1.7868 0.9570
6.3043 -9.3724 -1.8608 0.9552
7.2765 -8.9729 -1.9031 0.9542
8.2414 -8.4887 -1.9491 0.9532
11.7855 -4.3549 -2.0699 0.9503
12.4827 -3.3837 -2.1306 0.9489
13.6562 -1.1804 -2.2581 0.9459
10.4656 1.9208 -1.7529 0.9578
9.0287 2.5061 -1.5436 0.9627
6.7571 3.2578 -1.2358 0.9700
5.9668 3.5644 -1.1450 0.9722
5.3582 3.8882 -1.0906 0.9735
2.7365 5.0469 -0.9458 0.9770
2.2612 5.2370 -0.9397 0.9771
1.7882 5.4259 -0.9412 0.9771
1.3398 5.7451 -0.9718 0.9764
0.8182 5.8120 -0.9669 0.9765
0.3048 6.0157 -0.9923 0.9759
-0.8145 6.3350 -1.0522 0.9744
-1.3049 5.9154 -0.9979 0.9757
-2.1610 6.8319 -1.1804 0.9714
-9.6693 10.3257 -2.3304 0.9443
-10.7114 7.9706 -2.1995 0.9473
-11.3073 5.6196 -2.0801 0.9501
-11.3627 1.1890 -1.8821 0.9547
-10.6062 -1.7494 -1.7709 0.9574
-9.3231 -4.2894 -1.6906 0.9593
-8.2292 -5.7478 -1.6536 0.9601
-7.6204 -6.4047 -1.6399 0.9604
-6.9738 -7.0128 -1.6293 0.9607
-4.8302 -8.5372 -1.6159 0.9610
-4.0542 -8.9428 -1.6176 0.9610
-2.4206 -9.5940 -1.6300 0.9607
1.1261 -10.2115 -1.6924 0.9592
2.0601 -10.2113 -1.7161 0.9586
4.9373 -9.7971 -1.8073 0.9565
5.9106 -9.5107 -1.8447 0.9556
6.8840 -9.1444 -1.8856 0.9547
8.8103 -8.1585 -1.9781 0.9525
10.6643 -6.8133 -2.0848 0.9500
11.5436 -5.9991 -2.1432 0.9486
13.4464 -1.6527 -2.2318 0.9466
12.1473 0.6833 -2.0043 0.9519
11.1655 1.6354 -1.8590 0.9553
7.1529 3.1358 -1.2866 0.9688
6.2663 3.4430 -1.1779 0.9714
5.5870 3.7542 -1.1089 0.9731
5.0300 4.0751 -1.0665 0.9741
4.4804 4.3457 -1.0283 0.9750
4.0068 4.6483 -1.0110 0.9754
3.4844 4.8584 -0.9849 0.9761
2.8915 4.9022 -0.9376 0.9772
2.4322 5.1175 -0.9334 0.9773
1.5503 5.7085 -0.9745 0.9763
0.2474 2.8469 -0.4708 0.9885
-0.0156 6.1370 -1.0110 0.9754
-0.5780 6.2794 -1.0388 0.9748
-1.8530 6.6882 -1.1433 0.9723
-7.7707 13.0220 -2.4982 0.9404
-9.4005 10.7940 -2.3580 0.9436
-10.5383 8.4490 -2.2251 0.9467
-11.4058 4.9312 -2.0471 0.9509
-11.4960 3.7947 -1.9944 0.9521
-11.4172 1.6129 -1.8995 0.9543
-11.2606 0.5759 -1.8575 0.9553
-11.0336 -0.4211 -1.8190 0.9562
-9.9817 -3.1522 -1.7244 0.9585
-8.4641 -5.4685 -1.6601 0.9600
-7.8712 -6.1450 -1.6451 0.9603
-5.8697 -7.8803 -1.6187 0.9609
-5.1357 -8.3584 -1.6161 0.9610
-4.3714 -8.7852 -1.6165 0.9610
1.6806 -10.2193 -1.7061 0.9589
3.5794 -10.0712 -1.7608 0.9576
5.5168 -9.6359 -1.8292 0.9560
8.4248 -8.3860 -1.9583 0.9530
11.1929 -6.3399 -2.1192 0.9492
12.0062 -5.4499 -2.1721 0.9480
11.9238 -4.1759 -2.0813 0.9501
12.6087 -3.1876 -2.1425 0.9486
11.4896 -1.8351 -1.9168 0.9539
8.7913 2.6028 -1.5104 0.9635
7.5765 3.0006 -1.3425 0.9675
5.8305 3.6196 -1.1306 0.9726
5.2516 3.9496 -1.0825 0.9737
4.7111 4.2507 -1.0453 0.9746
3.6924 4.7748 -0.9944 0.9758
3.1072 4.8583 -0.9500 0.9769
0.3712 3.0085 -0.4994 0.9878
-0.3470 6.2227 -1.0267 0.9751
-0.9286 6.3609 -1.0590 0.9743
-1.3850 5.8052 -0.9832 0.9761
-5.8697 13.4062 -2.4109 0.9424
-7.3798 13.4468 -2.5269 0.9397
-8.3089 12.3780 -2.4559 0.9414
-9.7896 10.1025 -2.3175 0.9446
-10.3464 8.9271 -2.2512 0.9461
-2.5496 1.8304 -0.5170 0.9874
-11.3427 5.3976 -2.0694 0.9504
-11.5073 3.1311 -1.9646 0.9528
-11.4592 2.0429 -1.9175 0.9539
-11.1335 -0.0230 -1.8341 0.9559
-10.8671 -0.9951 -1.7977 0.9567
-10.5387 -1.9238 -1.7648 0.9575
-10.1530 -2.8078 -1.7354 0.9582
-9.7141 -3.6459 -1.7093 0.9588
-9.2260 -4.4372 -1.6865 0.9593
-8.6922 -5.1813 -1.6670 0.9598
-8.1157 -5.8773 -1.6507 0.9602
-6.1575 -7.6725 -1.6207 0.9609
-5.4362 -8.1713 -1.6168 0.9610
-4.6839 -8.6189 -1.6160 0.9610
-3.9025 -9.0145 -1.6182 0.9610
-3.0936 -9.3569 -1.6235 0.9608
-2.2589 -9.6448 -1.6319 0.9606
2.2406 -10.2037 -1.7210 0.9585
3.1916 -10.1235 -1.7487 0.9579
8.0370 -8.5990 -1.9390 0.9534
8.9918 -8.0457 -1.9877 0.9523
9.9274 -7.4019 -2.0400 0.9510
2.3430 -0.9167 -0.4145 0.9899
12.3397 -3.5979 -2.1175 0.9492
12.9834 -2.5571 -2.1800 0.9478
-8.0090 -4.4104 -1.7185 0.9635
-7.5126 -5.0586 -1.7024 0.9638
-6.9770 -5.6635 -1.6891 0.9641
-6.4048 -6.2242 -1.6787 0.9643
-5.7985 -6.7399 -1.6711 0.9645
-4.4921 -7.6324 -1.6646 0.9646
-3.0746 -8.3327 -1.6694 0.9645
0.8532 -9.1730 -1.7316 0.9632
2.5329 -9.1085 -1.7770 0.9623
3.3858 -8.9820 -1.8042 0.9617
4.2427 -8.7894 -1.8345 0.9611
5.1002 -8.5283 -1.8678 0.9604
5.9536 -8.1963 -1.9041 0.9596
6.7981 -7.7909 -1.9435 0.9588
8.4374 -6.7514 -2.0311 0.9570
9.2187 -6.1139 -2.0792 0.9560
9.8974 -4.2678 -2.0259 0.9571
5.0308 3.9353 -1.2005 0.9743
4.4494 4.1705 -1.1463 0.9755
4.0345 4.5219 -1.1391 0.9756
2.9736 4.8500 -1.0693 0.9771
2.0406 5.2377 -1.0566 0.9774
0.2917 2.8005 -0.5292 0.9886
0.0860 5.9154 -1.1120 0.9762
-0.4589 6.1307 -1.1555 0.9753
-1.5654 6.0500 -1.1746 0.9749
-5.1944 11.2760 -2.3335 0.9507
-6.7776 9.6937 -2.2232 0.9530
-9.0949 7.5506 -2.2218 0.9530
-10.0070 4.5309 -2.0647 0.9563
-10.1335 3.5381 -2.0175 0.9573
-10.1493 1.6111 -1.9316 0.9590
-10.0482 0.6862 -1.8931 0.9598
-9.3649 -1.8940 -1.7959 0.9619
-6.0476 -6.5369 -1.6738 0.9644
-4.7657 -7.4672 -1.6650 0.9646
-4.0808 -7.8615 -1.6649 0.9646
-2.6331 -8.5028 -1.6731 0.9644
-1.8742 -8.7472 -1.6814 0.9642
-0.2958 -9.0759 -1.7068 0.9637
3.0403 -9.0410 -1.7929 0.9619
3.8960 -8.8754 -1.8219 0.9613
6.4581 -7.9638 -1.9272 0.9591
7.2947 -7.5136 -1.9684 0.9583
8.1132 -6.9867 -2.0125 0.9574
8.9067 -6.3813 -2.0594 0.9564
9.6676 -5.6962 -2.1091 0.9554
10.3621 -4.9188 -2.1560 0.9544
11.3278 -2.0083 -2.1624 0.9543
11.7522 -1.0158 -2.2172 0.9531
12.0899 0.0366 -2.2724 0.9520
9.0115 2.5014 -1.7579 0.9627
5.2984 3.8448 -1.2305 0.9737
3.7877 4.7289 -1.1388 0.9756
3.2761 4.9346 -1.1133 0.9762
2.6958 4.9718 -1.0630 0.9772
2.2297 5.1640 -1.0572 0.9774
1.2846 5.5084 -1.0631 0.9772
0.4307 3.0595 -0.5807 0.9875
-4.8294 11.5642 -2.3555 0.9503
-7.1758 9.1824 -2.1904 0.9537
-9.3431 6.9524 -2.1890 0.9537
-9.6835 5.9434 -2.1356 0.9548
-9.9317 4.9360 -2.0846 0.9559
-10.1703 1.9929 -1.9480 0.9587
-10.0973 1.0566 -1.9083 0.9595
-9.9562 0.1495 -1.8716 0.9603
-9.7515 -0.7252 -1.8380 0.9610
-9.4875 -1.5649 -1.8074 0.9616
-8.7980 -3.1316 -1.7553 0.9627
-2.9336 -8.3894 -1.6705 0.9645
-0.6208 -9.0272 -1.7008 0.9638
1.0120 -9.1774 -1.7354 0.9631
1.8488 -9.1642 -1.7572 0.9627
2.6957 -9.0893 -1.7820 0.9621
4.4070 -8.7448 -1.8406 0.9609
5.2640 -8.4703 -1.8745 0.9602
6.1161 -8.1244 -1.9114 0.9595
6.9583 -7.7047 -1.9514 0.9586
8.5893 -6.6356 -2.0401 0.9568
9.3644 -5.9828 -2.0887 0.9558
10.1021 -5.2500 -2.1399 0.9547
2.3302 -0.9579 -0.4735 0.9898
10.6061 -3.2900 -2.0872 0.9558
11.1342 -2.3911 -2.1405 0.9547
11.9645 -0.3956 -2.2501 0.9524
12.1143 0.6814 -2.2806 0.9518
11.1399 1.6316 -2.1162 0.9552
7.2987 3.1997 -1.4979 0.9681
6.3689 3.4993 -1.3659 0.9709
5.5830 3.7516 -1.2643 0.9730
4.9153 3.9821 -1.1890 0.9746
4.3437 4.2132 -1.1374 0.9757
3.4802 4.8526 -1.1224 0.9760
2.8842 4.8898 -1.0671 0.9772
0.2442 2.8102 -0.5302 0.9886
-0.0152 5.9554 -1.1194 0.9761
-0.5687 6.1780 -1.1661 0.9751
-1.1849 6.4734 -1.2370 0.9736
-5.3621 11.1353 -2.3230 0.9509
-6.1829 10.3612 -2.2679 0.9521
-9.1784 7.3588 -2.2112 0.9532
-10.0377 4.3397 -2.0555 0.9565
-10.1353 1.4318 -1.9240 0.9592
-10.0212 0.5125 -1.8861 0.9600
-9.6011 -1.2298 -1.8194 0.9614
-8.1094 -4.2670 -1.7224 0.9634
-7.6217 -4.9242 -1.7056 0.9637
-7.0942 -5.5384 -1.6917 0.9640
-5.9303 -6.6340 -1.6725 0.9644
-5.2986 -7.1136 -1.6672 0.9645
-3.9466 -7.9315 -1.6652 0.9646
-2.4895 -8.5536 -1.6745 0.9644
-0.1409 -9.0958 -1.7099 0.9637
0.6772 -9.1657 -1.7275 0.9633
1.5092 -9.1768 -1.7481 0.9629
3.2038 -9.0144 -1.7982 0.9618
6.6194 -7.8834 -1.9349 0.9590
7.4530 -7.4187 -1.9766 0.9581
8.2672 -6.8769 -2.0212 0.9572
9.8089 -5.5559 -2.1189 0.9552
10.3746 -3.6334 -2.0661 0.9562
11.4153 -1.8232 -2.1728 0.9540
10.1396 2.0406 -1.9441 0.9588
4.5688 4.1222 -1.1566 0.9753
4.0246 4.3420 -1.1128 0.9762
3.6879 4.7691 -1.1331 0.9758
2.6066 5.0098 -1.0615 0.9773
1.1923 5.5389 -1.0649 0.9772
0.3508 2.8427 -0.5384 0.9884
-1.3681 5.7343 -1.1081 0.9763
-4.0565 12.1012 -2.3989 0.9494
-5.0041 11.4292 -2.3451 0.9505
-5.8622 10.6817 -2.2902 0.9516
-6.6271 9.8725 -2.2350 0.9528
-9.7380 5.7502 -2.1256 0.9550
-9.9691 4.7439 -2.0751 0.9561
-10.1618 1.8116 -1.9401 0.9589
-9.7054 -0.8887 -1.8319 0.9611
-7.8238 -4.6636 -1.7120 0.9636
-5.5577 -6.9253 -1.6690 0.9645
-4.2289 -7.7816 -1.6647 0.9646
-3.5229 -8.1377 -1.6667 0.9646
0.3446 -9.1444 -1.7200 0.9634
4.5712 -8.6977 -1.8469 0.9608
6.2783 -8.0499 -1.9188 0.9593
9.5088 -5.8487 -2.0983 0.9556
10.2307 -5.0967 -2.1484 0.9545
-6.8285 -4.5979 -1.7401 0.9669
-6.3462 -5.1514 -1.7278 0.9671
-5.2793 -6.1364 -1.7111 0.9674
-4.6993 -6.5657 -1.7067 0.9675
-3.4574 -7.2923 -1.7059 0.9675
-2.7995 -7.5873 -1.7095 0.9675
-1.4204 -8.0341 -1.7246 0.9672
-0.7034 -8.1831 -1.7361 0.9670
1.5300 -8.3138 -1.7869 0.9660
3.0607 -8.1198 -1.8343 0.9651
3.8293 -7.9329 -1.8620 0.9646
4.5951 -7.6837 -1.8925 0.9641
5.3537 -7.3703 -1.9256 0.9634
8.2136 -5.4474 -2.0833 0.9605
9.2757 -3.0520 -2.0641 0.9609
9.7246 -2.2629 -2.1105 0.9600
9.7998 2.1667 -2.1215 0.9598
6.5875 3.4743 -1.5743 0.9700
5.8376 3.7795 -1.4700 0.9720
5.1251 4.0090 -1.3754 0.9737
4.4979 4.2160 -1.3031 0.9751
3.5737 4.8074 -1.2662 0.9758
0.0869 5.9757 -1.2633 0.9759
-0.4669 6.2382 -1.3223 0.9747
-1.0816 6.5379 -1.4008 0.9733
-1.5525 6.0002 -1.3101 0.9750
-3.7045 10.3917 -2.3320 0.9559
-5.9401 8.4958 -2.1913 0.9585
-2.5616 1.7662 -0.6577 0.9874
-8.7106 4.9228 -2.1149 0.9599
-8.9227 4.0400 -2.0704 0.9607
-9.1133 1.4466 -1.9505 0.9630
-9.0409 0.6174 -1.9155 0.9636
-8.9071 -0.1876 -1.8832 0.9642
-8.4697 -1.7130 -1.8266 0.9653
-7.4420 -3.7549 -1.7620 0.9665
-7.0130 -4.3630 -1.7459 0.9668
-6.0421 -5.4620 -1.7217 0.9672
-5.5052 -5.9507 -1.7136 0.9674
-3.7166 -7.1600 -1.7052 0.9676
-3.0682 -7.4736 -1.7077 0.9675
-2.3971 -7.7406 -1.7129 0.9674
-0.2688 -8.2475 -1.7443 0.9668
0.4716 -8.3133 -1.7601 0.9665
1.2234 -8.3249 -1.7786 0.9662
1.9839 -8.2804 -1.7999 0.9658
2.7501 -8.1780 -1.8238 0.9653
3.5187 -8.0159 -1.8505 0.9648
4.2861 -7.7921 -1.8798 0.9643
7.9438 -5.6914 -2.0657 0.9608
9.5504 -2.5888 -2.0916 0.9604
10.5670 0.0319 -2.2337 0.9577
10.7444 0.9942 -2.2809 0.9568
6.9227 3.3376 -1.6245 0.9691
6.1286 3.6611 -1.5090 0.9712
5.4020 3.9199 -1.4108 0.9731
4.7427 4.1343 -1.3299 0.9746
4.1556 4.3324 -1.2690 0.9758
2.6501 4.8877 -1.1753 0.9775
1.2695 5.4440 -1.1816 0.9774
-0.2368 6.1282 -1.2963 0.9752
-0.8243 6.4115 -1.3664 0.9739
-3.3531 10.6005 -2.3502 0.9556
-4.2018 10.0612 -2.3047 0.9564
-6.3005 8.0625 -2.1629 0.9590
-9.0123 3.5162 -2.0449 0.9612
-9.1037 2.6449 -2.0039 0.9620
-9.1242 1.7880 -1.9654 0.9627
-9.0778 0.9499 -1.9293 0.9634
-8.9684 0.1347 -1.8959 0.9640
-7.9742 -2.8384 -1.7892 0.9660
-7.6039 -3.4984 -1.7693 0.9664
-7.1912 -4.1217 -1.7521 0.9667
-6.2498 -5.2528 -1.7257 0.9672
-5.7262 -5.7582 -1.7165 0.9673
-5.1705 -6.2219 -1.7100 0.9675
-4.5850 -6.6429 -1.7062 0.9675
-3.9719 -7.0202 -1.7050 0.9676
-2.6710 -7.6384 -1.7105 0.9675
2.4398 -8.2265 -1.8138 0.9655
5.4977 -7.3029 -1.9322 0.9633
6.2415 -6.9110 -1.9684 0.9626
6.9672 -6.4518 -2.0072 0.9619
7.6686 -5.9243 -2.0484 0.9612
8.3393 -5.3279 -2.0918 0.9603
2.3276 -0.9568 -0.5320 0.9898
9.8034 -2.1053 -2.1195 0.9598
10.8060 1.5827 -2.3085 0.9563
6.4358 3.5361 -1.5522 0.9704
3.9969 4.6369 -1.2940 0.9753
3.4760 4.8467 -1.2607 0.9759
2.8384 4.8121 -1.1810 0.9774
2.3753 4.9977 -1.1697 0.9776
1.4569 5.3643 -1.1750 0.9775
-0.0153 6.0235 -1.2733 0.9757
-0.5792 6.2923 -1.3357 0.9745
-3.8670 10.2884 -2.3233 0.9561
-6.0590 8.3582 -2.1821 0.9587
-6.6323 7.6155 -2.1347 0.9596
-8.1215 6.5114 -2.2004 0.9583
-8.7573 4.7537 -2.1063 0.9601
-9.1242 2.1324 -1.9806 0.9624
-9.0200 0.4613 -1.9091 0.9637
-8.8747 -0.3387 -1.8773 0.9643
-8.6725 -1.1108 -1.8482 0.9649
-8.4168 -1.8525 -1.8217 0.9654
-7.3630 -3.8743 -1.7587 0.9666
-5.9418 -5.5588 -1.7199 0.9673
-4.8252 -6.4779 -1.7074 0.9675
-4.2230 -6.8730 -1.7051 0.9676
-3.5944 -7.2236 -1.7055 0.9676
-2.2662 -7.7863 -1.7142 0.9674
-1.5708 -7.9959 -1.7225 0.9672
-0.8573 -8.1557 -1.7334 0.9670
4.4325 -7.7421 -1.8858 0.9642
5.9427 -7.0775 -1.9535 0.9629
8.7213 -4.9399 -2.1187 0.9598
10.3602 -0.7174 -2.1952 0.9584
10.6079 0.2134 -2.2428 0.9575
8.7584 2.5930 -1.9308 0.9633
5.9889 3.7180 -1.4900 0.9716
4.6254 4.1733 -1.3169 0.9749
2.5615 4.9232 -1.1731 0.9776
2.1023 5.1069 -1.1674 0.9777
1.6437 5.2899 -1.1709 0.9776
1.1802 5.4826 -1.1855 0.9773
0.3485 2.8241 -0.6015 0.9884
-0.9446 6.4704 -1.3822 0.9736
-1.4447 6.0555 -1.3159 0.9749
-3.5209 10.5033 -2.3416 0.9557
-5.1188 9.3270 -2.2489 0.9574
-6.4103 7.9202 -2.1538 0.9592
-7.9523 6.8614 -2.2202 0.9580
-2.5556 1.8347 -0.6650 0.9872
-9.0616 0.7920 -1.9227 0.9635
-8.9405 -0.0185 -1.8899 0.9641
-8.7609 -0.8022 -1.8596 0.9647
-7.9067 -2.9675 -1.7852 0.9661
-6.6481 -4.8145 -1.7351 0.9670
-5.6222 -5.8502 -1.7151 0.9674
-4.4697 -6.7186 -1.7057 0.9675
-3.8515 -7.0873 -1.7050 0.9676
-3.2082 -7.4107 -1.7070 0.9675
-2.5417 -7.6878 -1.7116 0.9674
-1.8542 -7.9170 -1.7188 0.9673
2.5867 -8.2048 -1.8185 0.9654
4.1231 -7.8450 -1.8733 0.9644
7.7996 -5.8154 -2.0565 0.9610
9.0736 -4.5203 -2.1428 0.9594
2.3427 -0.9166 -0.5317 0.9898
-6.6562 -3.6654 -1.7859 0.9693
-6.2536 -4.2108 -1.7719 0.9695
-5.8153 -4.7205 -1.7603 0.9697
-4.8416 -5.6276 -1.7447 0.9700
-4.3106 -6.0226 -1.7407 0.9700
-3.7532 -6.3770 -1.7390 0.9701
-3.1715 -6.6894 -1.7399 0.9700
-2.5676 -6.9588 -1.7432 0.9700
-0.6443 -7.4956 -1.7681 0.9696
0.7082 -7.6138 -1.7971 0.9691
1.3980 -7.5966 -1.8154 0.9688
2.0931 -7.5267 -1.8361 0.9684
3.4864 -7.2224 -1.8849 0.9676
4.1774 -6.9853 -1.9129 0.9671
4.8593 -6.6898 -1.9433 0.9666
5.5276 -6.3348 -1.9759 0.9660
6.1773 -5.9196 -2.0108 0.9655
7.9592 -4.3106 -2.1273 0.9635
9.4390 0.3693 -2.2201 0.9619
9.5408 1.2313 -2.2609 0.9612
9.5574 2.1131 -2.3005 0.9606
8.4919 2.6906 -2.0936 0.9641
5.8292 3.7740 -1.6321 0.9719
4.0306 4.5175 -1.4229 0.9754
2.5002 5.0366 -1.3215 0.9772
0.2874 2.7589 -0.6519 0.9887
-4.0037 8.6913 -2.2490 0.9614
-4.6754 8.1481 -2.2079 0.9621
-5.2812 7.5535 -2.1661 0.9628
-6.6863 5.5510 -2.0424 0.9649
-2.5614 1.7661 -0.7312 0.9873
-8.0429 3.6416 -2.0750 0.9644
-8.2534 2.0782 -2.0003 0.9656
-8.2619 1.3115 -1.9661 0.9662
-8.2101 0.5606 -1.9340 0.9668
-7.9381 -0.8792 -1.8770 0.9677
-7.4628 -2.2172 -1.8297 0.9685
-5.9966 -4.5188 -1.7647 0.9696
-5.5383 -5.0066 -1.7547 0.9698
-3.9816 -6.2387 -1.7394 0.9700
-2.8143 -6.8551 -1.7416 0.9700
-1.5633 -7.2963 -1.7537 0.9698
1.1183 -7.6098 -1.8077 0.9689
1.8116 -7.5614 -1.8274 0.9686
3.2053 -7.3020 -1.8742 0.9678
3.8989 -7.0881 -1.9013 0.9673
5.2594 -6.4855 -1.9624 0.9663
5.9172 -6.0947 -1.9964 0.9657
6.5534 -5.6434 -2.0326 0.9651
7.6775 -3.6444 -1.9974 0.9657
8.1309 -3.0045 -2.0372 0.9650
9.1630 -0.7920 -2.1616 0.9629
9.3749 0.0283 -2.2033 0.9622
9.5096 0.8799 -2.2445 0.9615
9.5613 1.7548 -2.2847 0.9608
7.8486 2.9543 -1.9710 0.9661
6.1195 3.6557 -1.6753 0.9711
5.4267 3.9379 -1.5758 0.9728
4.8064 4.1899 -1.4986 0.9741
3.7783 4.7173 -1.4205 0.9755
3.2682 4.9228 -1.3887 0.9760
2.6909 4.9628 -1.3268 0.9771
0.4032 2.8639 -0.6797 0.9882
-0.2399 6.2078 -1.4601 0.9748
-3.7144 8.8941 -2.2653 0.9612
-4.4116 8.3744 -2.2246 0.9619
-5.0444 7.7995 -2.1830 0.9626
-5.6098 7.1785 -2.1412 0.9633
-6.1057 6.5202 -2.0994 0.9640
-7.4217 5.5226 -2.1742 0.9627
-7.7308 4.7450 -2.1319 0.9634
-8.2660 1.6198 -1.9796 0.9660
-8.2381 0.8620 -1.9467 0.9665
-8.1518 0.1224 -1.9161 0.9671
-8.0103 -0.5957 -1.8878 0.9675
-6.1724 -4.3112 -1.7695 0.9695
-4.2059 -6.0936 -1.7402 0.9700
-1.8221 -7.2217 -1.7505 0.9699
-1.1771 -7.3922 -1.7592 0.9697
-0.5168 -7.5155 -1.7705 0.9695
0.1563 -7.5900 -1.7842 0.9693
0.8397 -7.6145 -1.8004 0.9690
2.9238 -7.3723 -1.8640 0.9679
3.6192 -7.1815 -1.8900 0.9675
4.3088 -6.9333 -1.9185 0.9670
8.0529 -4.1850 -2.1329 0.9634
2.3262 -0.9563 -0.5911 0.9897
9.2981 -0.3075 -2.1865 0.9625
9.4648 0.5324 -2.2280 0.9618
9.5507 1.3989 -2.2686 0.9611
5.6968 3.8280 -1.6131 0.9722
4.4632 4.3290 -1.4613 0.9748
3.9919 4.6311 -1.4369 0.9752
2.4105 5.0718 -1.3198 0.9772
1.4810 5.4534 -1.3281 0.9770
1.0063 5.6606 -1.3512 0.9767
0.2404 2.7664 -0.6526 0.9887
-5.3895 7.4346 -2.1581 0.9630
-5.9136 6.7903 -2.1162 0.9637
-6.3679 6.1139 -2.0747 0.9644
-6.7520 5.4134 -2.0339 0.9651
-2.5972 1.7261 -0.7329 0.9873
-7.8804 4.2777 -2.1073 0.9638
-8.0747 3.4910 -2.0675 0.9645
-8.2003 2.7068 -2.0295 0.9651
-8.2599 1.9304 -1.9936 0.9657
-8.2566 1.1664 -1.9598 0.9663
-8.1935 0.4190 -1.9282 0.9669
-7.9010 -1.0120 -1.8721 0.9678
-7.4075 -2.3392 -1.8257 0.9686
-6.3423 -4.0976 -1.7746 0.9694
-5.9115 -4.6151 -1.7626 0.9697
-4.9509 -5.5384 -1.7459 0.9699
-2.6979 -6.9051 -1.7423 0.9700
-1.4398 -7.3289 -1.7554 0.9698
-0.1172 -7.5658 -1.7784 0.9694
0.5623 -7.6107 -1.7936 0.9691
1.2506 -7.6046 -1.8113 0.9688
1.9448 -7.5461 -1.8315 0.9685
2.6419 -7.4335 -1.8541 0.9681
3.3385 -7.2655 -1.8792 0.9677
4.0309 -7.0406 -1.9067 0.9672
5.3867 -6.4154 -1.9688 0.9662
6.0409 -6.0130 -2.0032 0.9656
7.8434 -4.4426 -2.1185 0.9636
7.7678 -3.5260 -2.0049 0.9656
8.2122 -2.8760 -2.0450 0.9649
8.6051 -2.1755 -2.0860 0.9642
9.4068 0.1892 -2.2113 0.9621
9.5261 1.0459 -2.2523 0.9614
8.7418 2.5881 -2.1427 0.9632
7.6573 3.0326 -1.9356 0.9667
6.7508 3.3980 -1.7762 0.9694
5.9802 3.7125 -1.6543 0.9715
5.3030 3.9882 -1.5595 0.9731
4.6942 4.2354 -1.4859 0.9744
4.1222 4.4473 -1.4252 0.9754
3.6789 4.7574 -1.4134 0.9756
3.0802 4.8162 -1.3436 0.9768
2.6003 4.9977 -1.3241 0.9771
1.6696 5.3734 -1.3224 0.9771
0.3463 2.8061 -0.6645 0.9884
-0.9468 6.4858 -1.5405 0.9734
-3.1067 9.2678 -2.2973 0.9606
-4.5378 8.2684 -2.2167 0.9620
-5.7101 7.0551 -2.1331 0.9634
-8.0046 3.8091 -2.0834 0.9642
-8.1576 3.0232 -2.0447 0.9649
-8.2435 2.2430 -2.0079 0.9655
-8.2260 0.7189 -1.9407 0.9666
-8.1289 -0.0168 -1.9105 0.9672
-7.5223 -2.0803 -1.8343 0.9684
-6.8857 -3.3117 -1.7957 0.9691
-6.5064 -3.8783 -1.7802 0.9694
-6.0898 -4.4102 -1.7672 0.9696
-5.6386 -4.9059 -1.7566 0.9698
-5.1551 -5.3641 -1.7485 0.9699
-3.5332 -6.5016 -1.7391 0.9701
-0.3889 -7.5335 -1.7729 0.9695
0.9715 -7.6133 -1.8038 0.9690
1.6637 -7.5762 -1.8230 0.9686
3.0572 -7.3402 -1.8688 0.9679
4.4398 -6.8791 -1.9242 0.9669
5.1170 -6.5609 -1.9555 0.9664
8.1437 -4.0571 -2.1383 0.9633
2.3425 -0.9165 -0.5912 0.9897
8.4529 -2.4646 -2.0693 0.9645
8.8119 -1.7355 -2.1108 0.9638
-5.7632 -3.8806 -1.7989 0.9717
-4.9293 -4.7903 -1.7797 0.9720
-4.4673 -5.1926 -1.7735 0.9721
-2.9269 -6.1736 -1.7690 0.9722
-2.3693 -6.4212 -1.7721 0.9721
-0.5939 -6.9089 -1.7954 0.9718
0.0244 -6.9823 -1.8078 0.9716
0.6519 -7.0089 -1.8226 0.9713
2.5616 -6.7957 -1.8804 0.9704
3.8259 -6.3976 -1.9301 0.9697
5.0485 -5.7858 -1.9882 0.9688
5.6333 -5.3983 -2.0202 0.9683
6.7253 -4.4603 -2.0894 0.9672
7.5030 -2.4687 -2.0451 0.9679
8.1065 -1.1373 -2.1195 0.9667
8.5414 1.1023 -2.2299 0.9650
8.5406 1.8883 -2.2647 0.9645
8.4603 2.6806 -2.2979 0.9640
5.8207 3.7685 -1.7954 0.9718
4.5656 4.2795 -1.6202 0.9745
4.0286 4.5153 -1.5668 0.9753
3.5649 4.7956 -1.5472 0.9756
2.0604 5.2884 -1.4695 0.9768
1.1078 5.6675 -1.4952 0.9764
0.2852 2.7383 -0.7128 0.9887
0.0883 6.0706 -1.5720 0.9752
-0.4708 6.2906 -1.6333 0.9743
-1.0802 6.5297 -1.7136 0.9730
-1.4864 5.7447 -1.5364 0.9758
-4.1959 7.3126 -2.1829 0.9658
-4.7489 6.7921 -2.1458 0.9663
-5.2424 6.2314 -2.1084 0.9669
-7.1126 4.0197 -2.1153 0.9668
-7.3141 3.3116 -2.0788 0.9674
-7.4525 2.6020 -2.0438 0.9679
-7.0934 -1.4346 -1.8738 0.9705
-6.8600 -2.0381 -1.8529 0.9709
-6.5843 -2.6149 -1.8343 0.9712
-6.2687 -3.1629 -1.8180 0.9714
-5.1079 -4.6175 -1.7828 0.9720
-4.6574 -5.0343 -1.7757 0.9721
-4.1790 -5.4148 -1.7710 0.9721
-3.6747 -5.7577 -1.7685 0.9722
-3.1466 -6.0619 -1.7684 0.9722
-1.4419 -6.7295 -1.7819 0.9720
0.3973 -7.0038 -1.8163 0.9714
2.3038 -6.8508 -1.8714 0.9706
2.9407 -6.6990 -1.8943 0.9702
4.1959 -6.2380 -1.9465 0.9694
4.8064 -5.9269 -1.9758 0.9690
6.5144 -4.6673 -2.0749 0.9674
7.0254 -4.1394 -2.1113 0.9669
6.9582 -3.3030 -1.9943 0.9687
7.3554 -2.7179 -2.0303 0.9681
7.7055 -2.0887 -2.0671 0.9676
8.0027 -1.4188 -2.1044 0.9670
8.5504 1.5693 -2.2508 0.9647
7.8348 2.9491 -2.1675 0.9660
6.9006 3.3269 -1.9835 0.9688
2.2506 5.2124 -1.4700 0.9768
0.4029 2.8617 -0.7483 0.9881
0.1471 2.9030 -0.7526 0.9881
-0.2396 6.1997 -1.6064 0.9747
-0.8267 6.4303 -1.6786 0.9736
-1.2624 5.7226 -1.5173 0.9761
-4.5324 7.0078 -2.1609 0.9661
-5.9029 5.2717 -2.0491 0.9678
-6.2363 4.6406 -2.0127 0.9684
-7.2403 3.5984 -2.0934 0.9671
-7.4040 2.8887 -2.0578 0.9677
-7.5059 2.1807 -2.0238 0.9682
-7.1751 -1.1835 -1.8829 0.9704
-6.9596 -1.7972 -1.8611 0.9707
-6.7007 -2.3851 -1.8416 0.9710
-6.4009 -2.9449 -1.8243 0.9713
-6.0628 -3.4750 -1.8093 0.9715
-5.6889 -3.9735 -1.7967 0.9717
-4.8431 -4.8701 -1.7783 0.9720
-4.3756 -5.2654 -1.7726 0.9721
-3.8815 -5.6237 -1.7692 0.9722
-3.3628 -5.9437 -1.7682 0.9722
-2.2603 -6.4639 -1.7730 0.9721
-1.6808 -6.6617 -1.7789 0.9720
-1.0854 -6.8163 -1.7871 0.9719
0.1439 -6.9910 -1.8105 0.9715
0.7729 -7.0085 -1.8256 0.9713
2.0457 -6.8975 -1.8628 0.9707
2.6836 -6.7666 -1.8847 0.9704
5.1621 -5.7158 -1.9941 0.9687
5.7427 -5.3179 -2.0265 0.9682
6.2981 -4.8655 -2.0606 0.9677
6.8231 -4.3592 -2.0964 0.9671
2.3250 -0.9558 -0.6509 0.9897
7.8893 -1.6943 -2.0893 0.9672
8.4863 0.4773 -2.2007 0.9655
8.2615 2.7738 -2.2564 0.9646
5.6885 3.8225 -1.7745 0.9721
4.4573 4.3234 -1.6078 0.9747
2.4208 5.0934 -1.4601 0.9770
1.4972 5.5128 -1.4791 0.9767
1.0142 5.7046 -1.5002 0.9763
0.2386 2.7448 -0.7133 0.9887
-0.0156 6.1115 -1.5824 0.9751
-1.6104 5.8123 -1.5616 0.9754
-3.7073 7.6988 -2.2124 0.9653
-4.3063 7.2165 -2.1759 0.9659
-4.8480 6.6877 -2.1387 0.9664
-7.5382 1.7617 -2.0044 0.9685
-7.5463 1.0661 -1.9733 0.9690
-7.4991 0.3835 -1.9442 0.9695
-7.3992 -0.2824 -1.9172 0.9699
-7.2492 -0.9285 -1.8923 0.9703
-7.0521 -1.5521 -1.8696 0.9706
-6.8104 -2.1507 -1.8492 0.9709
-6.2040 -3.2644 -1.8151 0.9714
-5.8442 -3.7759 -1.8015 0.9717
-5.4501 -4.2549 -1.7902 0.9718
-5.0239 -4.7001 -1.7813 0.9720
-4.0844 -5.4834 -1.7703 0.9721
-2.4896 -6.3720 -1.7713 0.9721
-1.3278 -6.7591 -1.7835 0.9719
-0.1080 -6.9705 -1.8050 0.9716
0.5177 -7.0072 -1.8192 0.9714
1.1505 -6.9961 -1.8357 0.9711
1.7876 -6.9360 -1.8545 0.9708
3.0622 -6.6641 -1.8989 0.9702
4.3139 -6.1826 -1.9519 0.9693
4.9214 -5.8612 -1.9816 0.9689
7.1191 -4.0323 -2.1184 0.9668
7.0377 -3.1946 -2.0011 0.9686
7.7667 -1.9635 -2.0742 0.9674
8.0531 -1.2862 -2.1115 0.9669
8.2797 -0.5733 -2.1489 0.9663
8.5474 1.7202 -2.2574 0.9646
8.4842 2.5119 -2.2910 0.9641
6.7400 3.3927 -1.9537 0.9693
5.9713 3.7070 -1.8198 0.9714
3.6743 4.7515 -1.5552 0.9755
1.1877 3.8224 -1.0364 0.9836
1.2111 5.6265 -1.4902 0.9765
0.1009 3.0096 -0.7797 0.9876
-0.9455 6.4769 -1.6947 0.9733
-1.3634 5.7147 -1.5212 0.9760
-2.7766 8.2831 -2.2619 0.9645
-3.4496 7.8789 -2.2269 0.9651
-5.1424 6.3537 -2.1164 0.9668
-5.5879 5.7666 -2.0791 0.9674
-5.9715 5.1523 -2.0421 0.9679
-7.0614 4.1697 -2.1233 0.9667
-7.4458 -0.0154 -1.9278 0.9697
-7.3157 -0.6699 -1.9021 0.9701
-6.9133 -1.9118 -1.8572 0.9708
-6.6464 -2.4945 -1.8381 0.9711
-5.9939 -3.5729 -1.8067 0.9716
-2.7157 -6.2732 -1.7699 0.9722
-2.1507 -6.5051 -1.7739 0.9721
-0.9697 -6.8409 -1.7889 0.9719
-0.3584 -6.9424 -1.7999 0.9717
0.2637 -6.9980 -1.8132 0.9715
0.8940 -7.0064 -1.8288 0.9712
1.5297 -6.9663 -1.8467 0.9710
2.8054 -6.7357 -1.8892 0.9703
4.6777 -5.9977 -1.9694 0.9691
5.2750 -5.6439 -2.0002 0.9686
5.8511 -5.2355 -2.0329 0.9681
6.4012 -4.7728 -2.0674 0.9675
7.3794 -3.6763 -2.1346 0.9665
2.3425 -0.9165 -0.6513 0.9897
-5.6767 -3.1261 -1.8346 0.9734
-5.3395 -3.5953 -1.8223 0.9736
-4.5706 -4.4417 -1.8042 0.9739
-4.1432 -4.8159 -1.7984 0.9739
-3.6901 -5.1556 -1.7948 0.9740
-3.2133 -5.4597 -1.7934 0.9740
-1.6627 -6.1454 -1.8023 0.9739
-1.1128 -6.2945 -1.8096 0.9738
-0.5503 -6.4020 -1.8190 0.9736
0.6034 -6.4874 -1.8445 0.9733
2.3655 -6.2753 -1.8985 0.9725
2.9493 -6.1098 -1.9206 0.9722
3.5258 -5.8957 -1.9447 0.9718
4.6416 -5.3194 -1.9986 0.9711
5.6795 -4.5447 -2.0592 0.9702
6.1578 -4.0839 -2.0918 0.9697
6.5933 -3.5708 -2.1227 0.9693
2.3402 -1.0091 -0.7215 0.9895
7.1271 -1.6585 -2.0715 0.9700
7.7230 0.9967 -2.2045 0.9681
7.6274 2.4167 -2.2651 0.9673
7.4271 3.1059 -2.2790 0.9671
6.5567 3.4580 -2.0985 0.9697
5.1541 4.0317 -1.8525 0.9732
4.5595 4.2738 -1.7691 0.9744
2.0579 5.2820 -1.6048 0.9767
1.5864 5.4700 -1.6123 0.9766
1.1064 5.6606 -1.6328 0.9763
-0.4702 6.2822 -1.7834 0.9742
-1.0787 6.5205 -1.8710 0.9729
-4.3094 6.1636 -2.1291 0.9692
-4.7649 5.6638 -2.0953 0.9697
-5.1662 5.1326 -2.0616 0.9702
-5.5122 4.5763 -2.0282 0.9707
-6.6998 3.0335 -2.0820 0.9699
-6.8363 2.3869 -2.0499 0.9703
-6.5519 -1.3251 -1.8924 0.9726
-6.3418 -1.8842 -1.8729 0.9729
-5.8034 -2.9281 -1.8402 0.9733
-5.4799 -3.4092 -1.8270 0.9735
-5.1232 -3.8606 -1.8160 0.9737
-4.7355 -4.2809 -1.8072 0.9738
-3.8762 -5.0225 -1.7960 0.9740
-3.4088 -5.3411 -1.7937 0.9740
-2.4090 -5.8678 -1.7957 0.9740
-1.8808 -6.0735 -1.7999 0.9739
-1.3368 -6.2392 -1.8063 0.9738
-0.7791 -6.3636 -1.8149 0.9737
0.3678 -6.4844 -1.8386 0.9734
0.9520 -6.4784 -1.8537 0.9731
1.5398 -6.4268 -1.8709 0.9729
2.1281 -6.3285 -1.8901 0.9726
3.8642 -5.7448 -1.9600 0.9716
5.4777 -4.7171 -2.0464 0.9704
6.4270 -3.7868 -2.1118 0.9695
6.3558 -3.0171 -1.9917 0.9712
6.7082 -2.4788 -2.0245 0.9707
7.7084 0.7133 -2.1915 0.9683
7.7241 1.4176 -2.2232 0.9679
7.6698 2.1289 -2.2534 0.9675
6.8893 3.3215 -2.1652 0.9687
6.1011 3.6447 -2.0119 0.9709
4.7934 4.1786 -1.8002 0.9739
3.7689 4.7054 -1.7067 0.9752
2.7202 5.0169 -1.6156 0.9766
2.2479 5.2061 -1.6053 0.9767
0.1466 2.8928 -0.8200 0.9880
-0.2393 6.1915 -1.7541 0.9746
-1.2614 5.7181 -1.6577 0.9760
-4.5872 5.8700 -2.1090 0.9695
-5.0106 5.3508 -2.0752 0.9700
-5.3791 4.8039 -2.0416 0.9705
-6.3992 3.9276 -2.1256 0.9693
-6.6284 3.2942 -2.0954 0.9697
-6.8909 2.0020 -2.0314 0.9706
-6.9340 0.7256 -1.9737 0.9714
-6.8785 0.1033 -1.9475 0.9718
-6.4317 -1.6609 -1.8805 0.9728
-5.6148 -3.2182 -1.8321 0.9735
-4.8958 -4.1148 -1.8105 0.9738
-4.4908 -4.5159 -1.8030 0.9739
-4.0584 -4.8836 -1.7976 0.9739
-3.6006 -5.2166 -1.7944 0.9740
-2.6175 -5.7736 -1.7946 0.9740
-2.0964 -5.9951 -1.7979 0.9739
-1.5585 -6.1771 -1.8035 0.9739
-1.0061 -6.3183 -1.8112 0.9738
0.7153 -6.4863 -1.8473 0.9732
3.6350 -5.8491 -1.9496 0.9718
4.1979 -5.5763 -1.9759 0.9714
4.7448 -5.2538 -2.0041 0.9710
5.7735 -4.4602 -2.0653 0.9701
6.2457 -3.9903 -2.0982 0.9697
6.6672 -3.4649 -2.1271 0.9692
2.3239 -0.9553 -0.7113 0.9896
7.4039 -0.9100 -2.1118 0.9695
7.7260 1.1316 -2.2105 0.9681
7.2503 3.1785 -2.2411 0.9676
6.4061 3.5198 -2.0692 0.9701
4.4514 4.3177 -1.7556 0.9745
3.9818 4.6193 -1.7265 0.9750
2.9134 4.9393 -1.6234 0.9764
2.4178 5.0872 -1.5945 0.9769
-0.5823 6.3261 -1.7985 0.9739
-1.2024 6.5688 -1.8905 0.9726
-3.3545 6.9663 -2.1889 0.9684
-3.9027 6.5402 -2.1561 0.9688
-4.8460 5.5644 -2.0889 0.9698
-5.5721 4.4674 -2.0218 0.9707
-2.5942 1.7241 -0.8818 0.9871
-6.5474 3.5541 -2.1090 0.9695
-6.7304 2.9098 -2.0758 0.9700
-6.9259 1.6186 -2.0135 0.9709
-6.9422 0.9807 -1.9848 0.9713
-6.8223 -0.2604 -1.9328 0.9720
-6.6908 -0.8570 -1.9096 0.9723
-6.2969 -1.9885 -1.8694 0.9729
-5.7441 -3.0224 -1.8375 0.9734
-5.4141 -3.4979 -1.8247 0.9736
-5.0513 -3.9435 -1.8142 0.9737
-3.7886 -5.0863 -1.7954 0.9740
-3.3167 -5.3980 -1.7935 0.9740
-1.7778 -6.1084 -1.8010 0.9739
-1.2310 -6.2662 -1.8078 0.9738
-0.6710 -6.3827 -1.8168 0.9737
-0.1000 -6.4565 -1.8280 0.9735
0.4793 -6.4867 -1.8414 0.9733
1.6524 -6.4116 -1.8744 0.9729
4.5259 -5.3901 -1.9925 0.9712
5.0613 -5.0380 -2.0217 0.9707
6.4265 -2.9171 -1.9980 0.9711
7.3187 -1.1689 -2.0981 0.9697
7.5125 -0.5202 -2.1318 0.9692
7.6465 0.1538 -2.1651 0.9687
7.6512 2.2653 -2.2589 0.9674
5.9624 3.7015 -1.9867 0.9712
4.6817 4.2241 -1.7851 0.9741
4.1249 4.4502 -1.7178 0.9751
2.6292 5.0534 -1.6126 0.9766
1.2097 5.6196 -1.6273 0.9764
0.3424 2.7749 -0.7915 0.9884
0.0995 2.9665 -0.8403 0.9877
-1.3619 5.7084 -1.6613 0.9759
-2.5071 7.4791 -2.2331 0.9677
-3.1195 7.1248 -2.2018 0.9682
-3.6870 6.7181 -2.1694 0.9686
-4.2056 6.2653 -2.1362 0.9691
-4.6725 5.7731 -2.1025 0.9696
-5.0854 5.2480 -2.0688 0.9701
-6.4507 3.8091 -2.1207 0.9693
-6.9419 1.2376 -1.9962 0.9711
-6.9272 0.6054 -1.9685 0.9715
-6.7495 -0.6180 -1.9187 0.9722
-6.1480 -2.3074 -1.8590 0.9731
-5.5516 -3.3092 -1.8296 0.9735
-5.2018 -3.7671 -1.8182 0.9737
-3.5102 -5.2763 -1.7940 0.9740
-3.0250 -5.5664 -1.7935 0.9740
-2.5191 -5.8190 -1.7951 0.9740
-1.9947 -6.0330 -1.7988 0.9739
-1.4538 -6.2073 -1.8048 0.9738
-0.8988 -6.3406 -1.8129 0.9737
-0.3320 -6.4319 -1.8232 0.9736
0.2442 -6.4799 -1.8357 0.9734
0.8273 -6.4835 -1.8503 0.9732
1.4145 -6.4416 -1.8670 0.9730
2.0030 -6.3533 -1.8859 0.9727
3.7438 -5.8007 -1.9545 0.9717
4.8474 -5.1863 -2.0097 0.9709
5.8663 -4.3740 -2.0715 0.9700
6.7395 -3.3575 -2.1316 0.9692
2.3438 -0.9170 -0.7125 0.9896
-2.9940 -5.0869 -1.8155 0.9756
-2.0472 -5.5484 -1.8190 0.9756
-1.5486 -5.7239 -1.8239 0.9755
-0.5122 -5.9591 -1.8397 0.9753
0.0211 -6.0167 -1.8506 0.9751
3.2663 -5.4618 -1.9574 0.9737
3.7864 -5.2126 -1.9816 0.9734
5.2388 -4.1920 -2.0637 0.9723
5.6730 -3.7624 -2.0938 0.9719
6.0630 -3.2836 -2.1208 0.9716
2.3351 -1.0069 -0.7822 0.9894
6.9978 0.2738 -2.1540 0.9711
7.0199 1.5520 -2.2113 0.9704
6.5462 3.4525 -2.2764 0.9695
5.8035 3.7574 -2.1265 0.9715
5.1468 4.0260 -2.0099 0.9730
3.0019 4.8961 -1.7665 0.9763
2.5254 5.0875 -1.7470 0.9765
2.0554 5.2756 -1.7415 0.9766
1.1051 5.6535 -1.7718 0.9762
0.2823 2.7107 -0.8383 0.9887
0.0880 6.0549 -1.8625 0.9750
-0.4696 6.2736 -1.9350 0.9740
-1.4822 5.7285 -1.8200 0.9755
-2.9583 6.4219 -2.1747 0.9708
-3.4711 6.0494 -2.1452 0.9712
-4.3625 5.1855 -2.0843 0.9720
-4.7364 4.7056 -2.0535 0.9724
-5.0604 4.2012 -2.0230 0.9729
-2.5632 1.7674 -0.9576 0.9871
-5.5571 3.1406 -1.9633 0.9736
-6.3080 2.2024 -2.0551 0.9724
-6.4040 0.4373 -1.9743 0.9735
-6.3404 -0.1336 -1.9506 0.9738
-6.2322 -0.6903 -1.9286 0.9741
-5.0992 -3.1724 -1.8472 0.9752
-4.7693 -3.5940 -1.8368 0.9753
-4.0232 -4.3488 -1.8222 0.9755
-3.1760 -4.9764 -1.8158 0.9756
-2.7197 -5.2394 -1.8157 0.9756
-2.2443 -5.4668 -1.8176 0.9756
-1.7520 -5.6575 -1.8216 0.9755
-1.2449 -5.8104 -1.8277 0.9754
-0.7253 -5.9243 -1.8358 0.9753
-0.1955 -5.9983 -1.8459 0.9752
4.0892 -5.0425 -1.9968 0.9732
5.8641 -2.7836 -1.9966 0.9732
6.6617 -1.1810 -2.0809 0.9721
6.8398 -0.5912 -2.1116 0.9717
7.0301 0.6505 -2.1716 0.9709
7.0355 1.2913 -2.2001 0.9705
6.8546 2.5801 -2.2527 0.9698
6.6657 3.2137 -2.2761 0.9695
5.4036 3.9211 -2.0535 0.9724
2.7168 5.0107 -1.7532 0.9764
0.4066 2.8883 -0.8972 0.9879
0.1461 2.8849 -0.8885 0.9880
-3.2689 6.2053 -2.1573 0.9711
-3.7560 5.8074 -2.1273 0.9715
-4.1975 5.3713 -2.0967 0.9719
-6.1057 3.0345 -2.0971 0.9719
-6.3628 1.8486 -2.0380 0.9727
-6.4143 1.2569 -2.0104 0.9730
-6.4166 0.6714 -1.9844 0.9734
-6.1475 -1.0140 -1.9164 0.9743
-5.9728 -1.5424 -1.8974 0.9745
-5.7592 -2.0499 -1.8803 0.9747
-5.2238 -2.9941 -1.8519 0.9751
-4.5587 -3.8314 -1.8316 0.9754
-4.1827 -4.2061 -1.8245 0.9755
-3.7807 -4.5495 -1.8194 0.9755
-1.9529 -5.5849 -1.8198 0.9755
0.1240 -6.0230 -1.8529 0.9751
0.6651 -6.0311 -1.8663 0.9749
1.7554 -5.9188 -1.8989 0.9745
2.2989 -5.7967 -1.9180 0.9742
2.8372 -5.6299 -1.9391 0.9740
4.3857 -4.8562 -2.0126 0.9730
4.8671 -4.5071 -2.0403 0.9726
5.3242 -4.1131 -2.0694 0.9722
6.1300 -3.1857 -2.1249 0.9715
2.3227 -0.9549 -0.7724 0.9895
6.3279 -1.9629 -2.0378 0.9727
7.0408 1.0313 -2.1887 0.9707
6.7500 2.9592 -2.2669 0.9696
6.3960 3.5142 -2.2447 0.9699
5.6719 3.8113 -2.1018 0.9718
3.4588 4.8228 -1.8255 0.9755
2.9098 4.9332 -1.7616 0.9763
1.9655 5.3114 -1.7420 0.9766
1.4935 5.4994 -1.7528 0.9764
1.0117 5.6905 -1.7777 0.9761
0.2361 2.7160 -0.8385 0.9887
-0.0155 6.0956 -1.8749 0.9748
-0.5815 6.3175 -1.9513 0.9738
-1.2006 6.5594 -2.0510 0.9725
-1.6040 5.7895 -1.8478 0.9752
-4.0247 5.5519 -2.1091 0.9717
-6.2042 2.6823 -2.0790 0.9721
-6.3995 1.4956 -2.0214 0.9729
-6.4215 0.9072 -1.9947 0.9732
-6.3230 -0.2413 -1.9462 0.9739
-6.0483 -1.3312 -1.9048 0.9744
-5.8501 -1.8474 -1.8869 0.9747
-4.7027 -3.6714 -1.8351 0.9753
-3.5297 -4.7387 -1.8174 0.9756
-3.0902 -5.0295 -1.8156 0.9756
-2.6301 -5.2857 -1.8159 0.9756
-2.1513 -5.5062 -1.8183 0.9756
-1.6560 -5.6897 -1.8226 0.9755
-0.6246 -5.9416 -1.8376 0.9753
0.4457 -6.0329 -1.8606 0.9750
0.9893 -6.0157 -1.8752 0.9748
3.1540 -5.5089 -1.9525 0.9738
3.6768 -5.2695 -1.9763 0.9735
5.5831 -3.8575 -2.0873 0.9720
5.9867 -3.3910 -2.1163 0.9716
5.9069 -2.6813 -1.9953 0.9732
6.8679 -0.4756 -2.1175 0.9716
7.0294 1.4147 -2.2054 0.9704
6.6220 3.3332 -2.2803 0.9695
3.6650 4.7395 -1.8428 0.9752
3.1048 4.8547 -1.7725 0.9762
2.6260 5.0472 -1.7500 0.9765
2.1553 5.2357 -1.7415 0.9766
1.2082 5.6127 -1.7659 0.9763
0.0991 2.9541 -0.9091 0.9877
-0.9428 6.4587 -2.0076 0.9731
-2.2827 6.8096 -2.2090 0.9704
-3.3655 6.1324 -2.1516 0.9711
-2.5782 1.8509 -0.9762 0.9868
-5.5138 3.2558 -1.9695 0.9736
-6.3765 1.7350 -2.0326 0.9727
-6.4185 1.1442 -2.0053 0.9731
-6.2589 -0.5731 -1.9331 0.9740
-6.1172 -1.1167 -1.9126 0.9743
-5.9349 -1.6413 -1.8940 0.9746
-5.7140 -2.1446 -1.8772 0.9748
-4.8421 -3.5066 -1.8388 0.9753
-4.1077 -4.2743 -1.8234 0.9755
-3.7009 -4.6116 -1.8187 0.9756
-3.2705 -4.9160 -1.8161 0.9756
-2.3470 -5.4214 -1.8171 0.9756
-0.8368 -5.9034 -1.8339 0.9754
0.2272 -6.0278 -1.8553 0.9751
1.3143 -5.9851 -1.8848 0.9747
2.9394 -5.5927 -1.9433 0.9739
3.4670 -5.3718 -1.9665 0.9736
3.9817 -5.1052 -1.9913 0.9733
5.4086 -4.0327 -2.0751 0.9722
5.7713 -2.8752 -1.9832 0.9734
2.3451 -0.9175 -0.7746 0.9895
6.6172 -1.3032 -2.0744 0.9722
-4.9322 -2.7161 -1.8716 0.9765
-4.6433 -3.1265 -1.8607 0.9767
-4.3252 -3.5109 -1.8517 0.9768
-3.9798 -3.8675 -1.8447 0.9769
-3.6091 -4.1951 -1.8395 0.9769
-3.2152 -4.4922 -1.8363 0.9770
-2.8002 -4.7576 -1.8350 0.9770
-2.3659 -4.9901 -1.8357 0.9770
-1.4480 -5.3518 -1.8429 0.9769
1.0315 -5.6051 -1.8945 0.9763
2.5468 -5.2761 -1.9474 0.9756
3.0395 -5.0825 -1.9685 0.9753
3.9861 -4.5682 -2.0153 0.9748
4.4328 -4.2478 -2.0408 0.9745
4.8567 -3.8862 -2.0676 0.9741
5.2536 -3.4843 -2.0955 0.9738
2.3300 -1.0047 -0.8434 0.9894
6.0212 -1.4011 -2.0550 0.9743
6.2062 -0.8707 -2.0832 0.9739
6.4289 0.2515 -2.1386 0.9732
6.4352 1.4228 -2.1908 0.9726
6.2090 2.5965 -2.2371 0.9720
5.7457 3.7199 -2.2752 0.9716
4.5472 4.2622 -2.0717 0.9741
3.4881 4.6922 -1.9435 0.9757
2.9981 4.8900 -1.9066 0.9761
2.0529 5.2691 -1.8797 0.9764
0.0879 6.0469 -2.0102 0.9748
-0.4689 6.2650 -2.0884 0.9739
-2.2056 6.1870 -2.1834 0.9727
-2.7157 5.8951 -2.1575 0.9730
-3.6251 5.1849 -2.1030 0.9737
-4.3679 4.3394 -2.0466 0.9744
-5.1423 2.9062 -1.9634 0.9754
-5.8497 2.0424 -2.0596 0.9742
-5.9313 1.4935 -2.0331 0.9745
-5.6692 -1.1466 -1.9226 0.9759
-5.0402 -2.5431 -1.8766 0.9765
-3.7619 -4.0663 -1.8414 0.9769
-2.0989 -5.1125 -1.8371 0.9770
-1.6382 -5.2901 -1.8408 0.9769
-0.1826 -5.6039 -1.8638 0.9766
0.3195 -5.6323 -1.8752 0.9765
0.8260 -5.6211 -1.8885 0.9763
1.8417 -5.4767 -1.9207 0.9759
3.3276 -4.9470 -1.9818 0.9752
3.7999 -4.6858 -2.0054 0.9749
4.2547 -4.3824 -2.0303 0.9746
4.6883 -4.0373 -2.0566 0.9743
5.9336 -1.6084 -2.0435 0.9744
6.1370 -1.0880 -2.0718 0.9741
6.2938 -0.5440 -2.0999 0.9737
6.4523 1.1842 -2.1806 0.9727
5.3957 3.9154 -2.2160 0.9723
4.2172 4.3966 -2.0251 0.9746
3.6922 4.6097 -1.9632 0.9754
3.1940 4.8110 -1.9196 0.9760
2.7135 5.0045 -1.8923 0.9763
2.2424 5.1933 -1.8803 0.9764
0.1472 2.9062 -0.9673 0.9878
-0.2386 6.1749 -2.0541 0.9743
-1.9901 6.2915 -2.1935 0.9726
-4.8315 3.5952 -2.0019 0.9749
-5.9576 1.1674 -2.0180 0.9747
-5.9653 0.6242 -1.9937 0.9750
-5.9285 0.0890 -1.9709 0.9753
-5.8491 -0.4350 -1.9497 0.9756
-5.5699 -1.4384 -1.9122 0.9760
-4.2611 -3.5813 -1.8502 0.9768
-2.7184 -4.8047 -1.8350 0.9770
-1.8262 -5.2225 -1.8391 0.9769
1.6369 -5.5192 -1.9136 0.9760
4.5158 -4.1818 -2.0458 0.9744
4.9348 -3.8123 -2.0729 0.9741
2.3215 -0.9544 -0.8344 0.9895
5.8390 -1.8113 -2.0321 0.9746
6.0602 -1.3015 -2.0604 0.9742
6.2363 -0.7665 -2.0886 0.9739
6.3637 -0.2104 -2.1165 0.9735
6.4391 0.3622 -2.1438 0.9732
6.1749 2.7071 -2.2412 0.9720
5.9613 3.2754 -2.2610 0.9717
5.0218 4.0684 -2.1483 0.9731
4.4395 4.3061 -2.0559 0.9743
3.9006 4.5252 -1.9859 0.9751
3.3928 4.7308 -1.9351 0.9758
2.9062 4.9270 -1.9014 0.9762
2.4119 5.0747 -1.8677 0.9766
1.9631 5.3049 -1.8802 0.9764
1.4917 5.4926 -1.8919 0.9763
0.2351 2.7054 -0.9027 0.9886
-0.0155 6.0874 -2.0235 0.9747
-1.1989 6.5498 -2.2134 0.9723
-4.4296 4.2529 -2.0412 0.9744
-4.7251 3.7883 -2.0131 0.9748
-2.5911 1.7220 -1.0342 0.9870
-5.8690 1.9373 -2.0544 0.9743
-5.9416 1.3886 -2.0282 0.9746
-5.9486 0.3042 -1.9799 0.9752
-5.6387 -1.2410 -1.9192 0.9760
-5.2404 -2.1856 -1.8874 0.9764
-4.9897 -2.6255 -1.8742 0.9765
-4.7073 -3.0413 -1.8629 0.9767
-3.6900 -4.1279 -1.8404 0.9769
-2.4598 -4.9434 -1.8354 0.9770
-1.5484 -5.3200 -1.8418 0.9769
-1.0716 -5.4548 -1.8479 0.9768
0.4162 -5.6332 -1.8776 0.9765
1.4317 -5.5549 -1.9068 0.9761
2.4408 -5.3118 -1.9432 0.9757
2.9355 -5.1272 -1.9639 0.9754
4.7686 -3.9666 -2.0618 0.9742
5.1716 -3.5731 -2.0895 0.9739
5.5362 -3.1358 -2.1150 0.9735
5.4594 -2.4781 -1.9929 0.9750
5.9760 -1.5108 -2.0490 0.9744
6.3182 -0.4375 -2.1052 0.9737
6.4151 0.1290 -2.1328 0.9733
6.4583 0.7091 -2.1597 0.9730
6.4454 1.2971 -2.1854 0.9727
6.2444 2.4730 -2.2325 0.9721
5.8061 3.6045 -2.2716 0.9716
5.2730 3.9656 -2.1932 0.9726
4.1141 4.4385 -2.0117 0.9748
3.1009 4.8486 -1.9131 0.9760
2.6228 5.0409 -1.8889 0.9763
2.1526 5.2292 -1.8797 0.9764
-0.9415 6.4495 -2.1666 0.9729
-1.3590 5.6962 -1.9466 0.9756
-2.0928 6.2430 -2.1887 0.9726
-2.6100 5.9611 -2.1631 0.9729
-3.0922 5.6343 -2.1364 0.9733
-3.5359 5.2676 -2.1089 0.9736
-4.2972 4.4346 -2.0526 0.9743
-4.6112 3.9786 -2.0245 0.9747
-2.5872 1.8574 -1.0587 0.9867
-5.6797 2.7028 -2.0908 0.9738
-5.8261 2.1592 -2.0654 0.9741
-5.9626 1.0630 -2.0132 0.9748
-5.9616 0.5210 -1.9892 0.9751
-5.9166 -0.0122 -1.9667 0.9754
-5.8292 -0.5338 -1.9458 0.9756
-5.5352 -1.5307 -1.9090 0.9761
-4.8252 -2.8762 -1.8672 0.9766
-4.5248 -3.2769 -1.8571 0.9767
-2.1949 -5.0702 -1.8365 0.9770
-1.2658 -5.4047 -1.8452 0.9769
-0.2887 -5.5929 -1.8616 0.9767
0.2122 -5.6296 -1.8726 0.9765
1.2262 -5.5839 -1.9003 0.9762
2.7366 -5.2069 -1.9553 0.9755
4.5980 -4.1142 -2.0509 0.9743
5.0120 -3.7370 -2.0782 0.9740
5.3976 -3.3200 -2.1064 0.9736
6.0975 -1.2009 -2.0658 0.9741
-4.0562 -3.2925 -1.8682 0.9781
-3.0169 -4.2150 -1.8536 0.9782
-2.6275 -4.4642 -1.8524 0.9782
-1.7962 -4.8680 -1.8556 0.9782
-1.3583 -5.0204 -1.8599 0.9781
0.4908 -5.2772 -1.8953 0.9777
0.9660 -5.2490 -1.9086 0.9776
2.8393 -4.7478 -1.9783 0.9768
4.1309 -3.9585 -2.0460 0.9760
4.5218 -3.6183 -2.0710 0.9757
5.2073 -2.8202 -2.1177 0.9752
2.3248 -1.0025 -0.9054 0.9893
5.9621 0.7695 -2.1498 0.9748
5.9336 1.3119 -2.1731 0.9745
5.8517 1.8541 -2.1951 0.9743
5.7156 2.3902 -2.2155 0.9740
5.5254 2.9141 -2.2339 0.9738
4.9867 3.9007 -2.2640 0.9735
4.5409 4.2563 -2.2257 0.9739
3.3270 4.4755 -1.9943 0.9766
2.9943 4.8838 -2.0486 0.9760
1.1022 5.6392 -2.0548 0.9759
0.2959 2.8407 -1.0213 0.9879
0.0878 6.0388 -2.1597 0.9747
-0.4652 6.2148 -2.2287 0.9739
-2.0342 5.7062 -2.1664 0.9746
-3.3530 4.7957 -2.0926 0.9754
-3.7205 4.4224 -2.0667 0.9757
-4.3345 3.5985 -2.0146 0.9764
-2.5656 1.7690 -1.1144 0.9868
-5.4479 1.9021 -2.0635 0.9758
-5.5288 1.3921 -2.0388 0.9761
-5.4279 -0.6012 -1.9529 0.9771
-5.3040 -1.0727 -1.9352 0.9773
-4.9496 -1.9657 -1.9045 0.9776
-3.5292 -3.8147 -1.8584 0.9782
-3.1687 -4.1057 -1.8546 0.9782
-2.7872 -4.3672 -1.8527 0.9782
-1.9693 -4.7969 -1.8543 0.9782
-0.1712 -5.2533 -1.8796 0.9779
0.7737 -5.2650 -1.9030 0.9776
1.2492 -5.2140 -1.9173 0.9775
1.7232 -5.1243 -1.9333 0.9773
3.1071 -4.6192 -1.9908 0.9766
3.5453 -4.3718 -2.0128 0.9764
3.9663 -4.0853 -2.0362 0.9761
4.7427 -3.3979 -2.0864 0.9755
5.0844 -2.9957 -2.1104 0.9752
5.0171 -2.3816 -1.9860 0.9767
5.2769 -1.9499 -2.0118 0.9764
5.6827 -1.0075 -2.0639 0.9758
5.9150 0.0179 -2.1152 0.9752
5.9588 0.5514 -2.1400 0.9749
5.9515 1.0923 -2.1638 0.9746
5.8913 1.6353 -2.1864 0.9744
5.6088 2.7041 -2.2267 0.9739
5.3867 3.2179 -2.2439 0.9737
4.7735 4.1613 -2.2646 0.9735
3.1042 4.6757 -2.0070 0.9764
2.2395 5.1868 -2.0204 0.9763
1.2308 3.7347 -1.4062 0.9834
1.2971 5.5621 -2.0424 0.9760
0.4100 2.9123 -1.0517 0.9876
-0.2383 6.1665 -2.2068 0.9741
-1.2587 5.7059 -2.0895 0.9755
-1.8348 5.8005 -2.1756 0.9745
-3.9206 4.1867 -2.0512 0.9759
-4.4850 3.3374 -1.9992 0.9765
-4.7038 2.8870 -1.9737 0.9768
-4.8799 2.4253 -1.9487 0.9771
-5.4025 2.1078 -2.0738 0.9757
-5.5014 1.5983 -2.0487 0.9760
-5.5561 1.0888 -2.0247 0.9762
-5.5677 0.5826 -2.0019 0.9765
-5.5377 0.0832 -1.9805 0.9767
-5.4674 -0.4066 -1.9606 0.9770
-5.3586 -0.8839 -1.9422 0.9772
-5.2129 -1.3462 -1.9253 0.9774
-4.8183 -2.2168 -1.8967 0.9777
-4.5731 -2.6211 -1.8850 0.9779
-3.9963 -3.3588 -1.8668 0.9781
-3.6685 -3.6890 -1.8605 0.9781
-3.3170 -3.9915 -1.8559 0.9782
-2.9438 -4.2651 -1.8533 0.9782
-2.5508 -4.5084 -1.8524 0.9782
-2.1400 -4.7204 -1.8534 0.9782
-1.7134 -4.8998 -1.8562 0.9782
-1.2731 -5.0457 -1.8609 0.9781
-0.8211 -5.1570 -1.8674 0.9781
-0.3598 -5.2329 -1.8757 0.9780
