ply
format ascii 1.0
element vertex 1585
property float32 x
property float32 y
property float32 z
property float32 I
end_header
8.9377 2.4457 0.5746 0.9635
7.8579 2.9251 0.5199 0.9670
6.2417 3.6979 0.4499 0.9713
5.5058 3.9648 0.4207 0.9732
4.8954 4.2364 0.4015 0.9744
4.2584 4.4075 0.3800 0.9757
3.8770 4.8047 0.3828 0.9756
3.2868 4.9121 0.3665 0.9766
2.3435 5.3743 0.3636 0.9768
1.9202 5.7567 0.3763 0.9760
1.4176 5.9814 0.3812 0.9757
0.3402 6.2706 0.3894 0.9751
-0.2288 6.5256 0.4049 0.9742
-0.8757 7.0090 0.4380 0.9721
-1.5429 7.1153 0.4515 0.9712
11.6135 -2.5349 0.7371 0.9535
11.5640 -1.4607 0.7228 0.9544
11.1729 1.5984 0.6999 0.9558
9.4387 2.2234 0.6013 0.9619
7.3016 3.1721 0.4937 0.9686
6.5402 3.5653 0.4619 0.9706
5.8223 3.8844 0.4340 0.9723
5.1332 4.1306 0.4086 0.9739
4.4744 4.3114 0.3853 0.9754
4.0877 4.7107 0.3868 0.9753
3.5690 4.9420 0.3780 0.9759
0.5569 6.1735 0.3844 0.9755
0.0046 6.4210 0.3982 0.9746
-0.6115 6.8891 0.4289 0.9727
-1.2552 6.9861 0.4401 0.9720
-2.4503 1.9775 0.1952 0.9875
14.4195 -2.8760 0.5798 0.9428
11.7191 0.8320 0.4633 0.9541
10.8893 1.7587 0.4349 0.9568
8.1180 2.8591 0.3394 0.9661
6.3786 3.6279 0.2894 0.9711
3.3802 4.8630 0.2335 0.9766
2.9145 5.1119 0.2320 0.9767
2.4356 5.3257 0.2309 0.9768
2.0164 5.7060 0.2386 0.9761
1.5167 5.9294 0.2413 0.9758
0.9723 5.9799 0.2389 0.9760
-0.1120 6.4651 0.2550 0.9744
-0.7424 6.9404 0.2752 0.9724
11.9266 -0.6462 0.4710 0.9533
11.2488 1.4062 0.4470 0.9556
9.6861 2.1012 0.3908 0.9611
4.6598 4.3333 0.2509 0.9748
4.1888 4.6578 0.2470 0.9752
3.6659 4.8911 0.2410 0.9758
3.1083 5.0253 0.2330 0.9766
2.6270 5.2403 0.2311 0.9768
1.1918 5.9730 0.2402 0.9759
0.1174 6.3624 0.2509 0.9748
-1.1187 6.9295 0.2768 0.9723
-1.8435 7.2408 0.2946 0.9705
14.5229 -2.6298 0.5820 0.9426
12.2121 -0.0078 0.4815 0.9523
11.7457 1.0435 0.4650 0.9539
10.2627 1.8448 0.4112 0.9591
8.9215 2.4413 0.3647 0.9637
7.8450 2.9203 0.3301 0.9670
5.4985 3.9595 0.2672 0.9732
4.8892 4.2310 0.2550 0.9744
3.8724 4.7990 0.2432 0.9756
2.8190 5.1545 0.2317 0.9768
1.4159 5.9744 0.2421 0.9757
0.8704 6.0255 0.2401 0.9759
11.7506 0.6215 0.4640 0.9540
9.4208 2.2192 0.3816 0.9620
8.3285 2.7654 0.3460 0.9655
7.2840 3.1645 0.3131 0.9687
5.8144 3.8791 0.2756 0.9724
3.0121 5.0683 0.2325 0.9767
2.5321 5.2827 0.2310 0.9768
2.0544 5.4961 0.2314 0.9768
1.6187 5.8838 0.2406 0.9759
-1.2535 6.9764 0.2795 0.9720
2.3372 -0.9210 0.0424 0.9900
18.9687 -2.0493 0.3223 0.9265
14.9635 -0.2749 0.2528 0.9419
11.7176 0.8319 0.1984 0.9541
10.8665 1.7551 0.1859 0.9569
8.1045 2.8543 0.1451 0.9662
7.0984 3.2373 0.1318 0.9693
6.5000 3.6969 0.1263 0.9705
3.3763 4.8573 0.0999 0.9766
2.9111 5.1060 0.0993 0.9768
2.4328 5.3196 0.0988 0.9769
2.0141 5.6995 0.1021 0.9761
1.5150 5.9225 0.1033 0.9758
0.9711 5.9728 0.1022 0.9761
0.4473 6.2070 0.1051 0.9754
-0.1118 6.4569 0.1091 0.9745
-0.7414 6.9312 0.1177 0.9725
-1.3946 7.0306 0.1211 0.9717
-2.4991 1.9435 0.0535 0.9874
-9.5379 -9.1931 0.2238 0.9484
14.1094 -3.3428 0.2449 0.9436
15.4507 -0.8372 0.2614 0.9400
12.1539 0.4270 0.2054 0.9525
8.5288 2.6651 0.1509 0.9649
6.6125 3.4540 0.1260 0.9706
6.0633 3.8917 0.1217 0.9716
4.1838 4.6522 0.1057 0.9753
3.6616 4.8853 0.1031 0.9759
3.1048 5.0195 0.0997 0.9767
2.6239 5.2343 0.0989 0.9768
1.7163 5.8325 0.1027 0.9760
0.1172 6.3545 0.1074 0.9749
-1.8408 7.2302 0.1260 0.9706
2.3656 -0.8841 0.0427 0.9899
18.0138 -1.6237 0.3055 0.9302
14.8247 -0.0095 0.2504 0.9424
11.7220 1.0414 0.1988 0.9540
10.2418 1.8410 0.1758 0.9592
6.9325 3.3113 0.1298 0.9697
5.4912 3.9543 0.1143 0.9733
4.8831 4.2257 0.1091 0.9745
3.8678 4.7933 0.1040 0.9757
2.8157 5.1486 0.0991 0.9768
1.9158 5.7434 0.1023 0.9761
0.8693 6.0183 0.1027 0.9760
2.3496 -0.9752 0.0430 0.9899
15.0346 -0.5476 0.2541 0.9416
11.7210 0.6200 0.1983 0.9541
8.3143 2.7607 0.1480 0.9656
7.2727 3.1596 0.1339 0.9688
4.4634 4.3007 0.1047 0.9755
3.5607 4.9304 0.1027 0.9760
2.5291 5.2766 0.0988 0.9769
1.6168 5.8770 0.1030 0.9759
1.0737 5.9269 0.1017 0.9762
0.5556 6.1585 0.1045 0.9756
0.0046 6.4049 0.1082 0.9747
-1.2517 6.9667 0.1196 0.9721
-2.4497 1.9771 0.0532 0.9875
9.1296 2.3251 -0.0530 0.9630
8.0910 2.8496 -0.0483 0.9663
7.0876 3.2323 -0.0439 0.9693
6.4908 3.6916 -0.0420 0.9706
3.9667 4.7414 -0.0348 0.9756
3.3723 4.8516 -0.0333 0.9766
2.9078 5.1001 -0.0331 0.9768
2.4300 5.3136 -0.0329 0.9769
1.5132 5.9156 -0.0344 0.9759
-0.1117 6.4488 -0.0363 0.9745
-1.3926 7.0208 -0.0403 0.9718
11.1991 1.4000 -0.0635 0.9559
9.6487 2.0931 -0.0556 0.9613
7.4442 3.0784 -0.0454 0.9683
6.6028 3.4490 -0.0419 0.9706
4.1788 4.6466 -0.0352 0.9753
3.6573 4.8796 -0.0343 0.9759
3.1012 5.0137 -0.0332 0.9767
1.1930 5.9791 -0.0343 0.9759
-0.4828 6.8070 -0.0384 0.9731
-1.1191 6.9323 -0.0395 0.9723
2.3670 -0.8846 -0.0142 0.9899
14.7831 -0.0095 -0.0832 0.9426
11.7205 1.0412 -0.0662 0.9540
6.9221 3.3063 -0.0432 0.9698
6.3427 3.7578 -0.0415 0.9709
4.8769 4.2203 -0.0363 0.9745
4.2429 4.3914 -0.0344 0.9759
3.8632 4.7876 -0.0346 0.9757
2.8125 5.1427 -0.0330 0.9768
1.9135 5.7368 -0.0340 0.9761
1.4126 5.9605 -0.0345 0.9758
0.8683 6.0111 -0.0342 0.9760
0.3390 6.2475 -0.0352 0.9753
11.1499 1.5951 -0.0634 0.9559
8.3003 2.7561 -0.0492 0.9656
7.2614 3.1547 -0.0446 0.9688
5.9174 3.9478 -0.0401 0.9719
5.1134 4.1146 -0.0370 0.9741
3.5565 4.9246 -0.0342 0.9760
2.5263 5.2706 -0.0329 0.9769
0.5549 6.1511 -0.0348 0.9756
0.0046 6.3969 -0.0360 0.9747
-0.6092 6.8634 -0.0388 0.9728
-1.2500 6.9571 -0.0398 0.9721
-2.4494 1.9768 -0.0177 0.9875
2.3353 -0.9202 -0.0707 0.9900
14.9598 -0.2748 -0.4213 0.9419
11.7145 0.8317 -0.3307 0.9541
10.7419 1.7350 -0.3064 0.9574
9.1128 2.3208 -0.2648 0.9631
4.9867 4.1631 -0.1829 0.9743
3.9620 4.7357 -0.1739 0.9756
3.3684 4.8460 -0.1662 0.9767
2.9045 5.0943 -0.1651 0.9768
1.5115 5.9087 -0.1717 0.9759
0.9688 5.9587 -0.1700 0.9761
15.3523 -0.8318 -0.4329 0.9403
12.1459 0.4267 -0.3422 0.9525
9.6301 2.0890 -0.2775 0.9613
8.6733 2.7102 -0.2559 0.9643
6.5932 3.4439 -0.2095 0.9707
6.0468 3.8810 -0.2023 0.9717
5.2270 4.0556 -0.1863 0.9739
4.6424 4.3172 -0.1785 0.9750
4.1737 4.6410 -0.1758 0.9753
2.6179 5.2223 -0.1645 0.9769
1.7124 5.8191 -0.1708 0.9760
1.1936 5.9822 -0.1718 0.9759
0.6592 6.0969 -0.1727 0.9758
-0.4822 6.7982 -0.1919 0.9731
-1.1194 6.9338 -0.1978 0.9723
2.3684 -0.8851 -0.0712 0.9899
14.7417 -0.0095 -0.4151 0.9427
11.7190 1.0411 -0.3313 0.9540
8.8733 2.4281 -0.2590 0.9639
6.3339 3.7525 -0.2073 0.9710
4.8707 4.2150 -0.1814 0.9746
4.2377 4.3861 -0.1717 0.9759
3.2715 4.8893 -0.1656 0.9767
2.3328 5.3497 -0.1643 0.9769
2.3408 -0.9715 -0.0714 0.9899
11.6623 0.6169 -0.3288 0.9543
9.3676 2.2067 -0.2710 0.9622
6.5871 3.5908 -0.2113 0.9704
5.9094 3.9425 -0.2000 0.9720
5.1068 4.1094 -0.1846 0.9741
4.0682 4.6882 -0.1748 0.9755
3.5524 4.9189 -0.1708 0.9760
3.0017 5.0508 -0.1654 0.9768
2.0473 5.4772 -0.1646 0.9769
1.6012 5.8203 -0.1700 0.9761
0.5542 6.1437 -0.1737 0.9756
0.0046 6.3889 -0.1799 0.9748
-1.2483 6.9475 -0.1988 0.9721
2.3343 -0.9198 -0.1272 0.9900
18.7587 -2.0266 -0.9569 0.9272
14.9580 -0.2748 -0.7587 0.9418
11.7130 0.8316 -0.5955 0.9541
10.7230 1.7319 -0.5509 0.9574
9.0960 2.3166 -0.4760 0.9631
5.5968 3.8816 -0.3454 0.9731
3.3645 4.8404 -0.2990 0.9767
2.9011 5.0884 -0.2971 0.9768
2.4245 5.3014 -0.2956 0.9769
0.9677 5.9516 -0.3058 0.9761
0.4456 6.1844 -0.3144 0.9755
-0.1114 6.4325 -0.3263 0.9746
-1.3887 7.0011 -0.3620 0.9718
-9.4690 -9.1266 -0.6670 0.9487
12.1443 0.4267 -0.6163 0.9525
9.6116 2.0850 -0.4988 0.9614
3.0940 5.0022 -0.2983 0.9767
2.6150 5.2163 -0.2959 0.9769
0.6583 6.0895 -0.3106 0.9758
-0.4815 6.7894 -0.3452 0.9731
-1.1196 6.9352 -0.3563 0.9723
2.3711 -0.8861 -0.1284 0.9899
17.9577 -1.6186 -0.9144 0.9303
11.7174 1.0410 -0.5966 0.9540
10.1796 1.8298 -0.5245 0.9594
7.7939 2.9013 -0.4218 0.9672
6.9013 3.2964 -0.3879 0.9698
6.3250 3.7473 -0.3728 0.9710
5.4694 3.9386 -0.3418 0.9734
4.8646 4.2097 -0.3263 0.9746
4.2326 4.3808 -0.3089 0.9759
3.2677 4.8836 -0.2980 0.9767
1.4093 5.9467 -0.3099 0.9758
0.3382 6.2323 -0.3165 0.9753
-0.2273 6.4842 -0.3290 0.9743
-0.8698 6.9622 -0.3558 0.9723
-1.5320 7.0649 -0.3666 0.9715
11.6418 0.6158 -0.5912 0.9544
11.1351 1.5930 -0.5705 0.9559
4.4469 4.2848 -0.3132 0.9756
3.5482 4.9132 -0.3074 0.9760
2.0450 5.4709 -0.2962 0.9769
1.5993 5.8136 -0.3058 0.9761
1.0699 5.9060 -0.3044 0.9762
-1.2466 6.9379 -0.3575 0.9722
-2.4489 1.9764 -0.1596 0.9875
-9.7025 -9.0199 -0.6718 0.9483
-18.6522 -5.1071 -1.4180 0.9254
-17.6289 -6.5653 -1.3793 0.9273
-15.4715 -9.1693 -1.3187 0.9304
-13.1762 -11.4058 -1.2778 0.9325
-10.7441 -13.3190 -1.2547 0.9337
-8.1668 -14.9385 -1.2483 0.9340
-6.8188 -15.6437 -1.2513 0.9338
-5.4278 -16.2805 -1.2583 0.9335
-3.9905 -16.8490 -1.2696 0.9329
-2.5032 -17.3481 -1.2852 0.9321
-0.9618 -17.7762 -1.3053 0.9311
2.3025 -18.4065 -1.3601 0.9283
4.0363 -18.5998 -1.3955 0.9265
5.8460 -18.7035 -1.4368 0.9244
2.3337 -0.9196 -0.1839 0.9900
18.3088 -1.9780 -1.3503 0.9288
14.9561 -0.2748 -1.0968 0.9418
10.7215 1.7317 -0.7963 0.9574
5.5893 3.8764 -0.4987 0.9731
4.3819 4.3772 -0.4541 0.9755
3.9526 4.7245 -0.4517 0.9756
2.8978 5.0826 -0.4290 0.9768
2.4217 5.2954 -0.4269 0.9769
2.0048 5.6734 -0.4412 0.9762
0.9665 5.9446 -0.4416 0.9761
-0.7375 6.8946 -0.5084 0.9726
-1.3868 6.9913 -0.5226 0.9718
-19.0510 -4.4908 -1.4351 0.9245
-18.0436 -5.9944 -1.3941 0.9266
-15.9150 -8.6788 -1.3292 0.9299
-14.7979 -9.8757 -1.3045 0.9311
-11.2426 -12.9600 -1.2580 0.9335
-9.9876 -13.8342 -1.2511 0.9339
-7.3639 -15.3694 -1.2496 0.9339
1.6276 -18.3055 -1.3475 0.9289
5.1113 -18.6732 -1.4195 0.9253
15.5195 -3.6768 -1.1694 0.9380
12.1428 0.4266 -0.8909 0.9524
6.5740 3.4339 -0.5438 0.9707
4.6309 4.3064 -0.4637 0.9750
4.1637 4.6299 -0.4566 0.9753
2.1372 5.4224 -0.4274 0.9769
1.7084 5.8056 -0.4437 0.9760
0.1166 6.3230 -0.4637 0.9750
-1.8301 7.1882 -0.5439 0.9707
-15.2496 -9.4070 -1.3138 0.9307
-14.1122 -10.5506 -1.2919 0.9318
-11.7354 -12.5890 -1.2619 0.9333
-9.2178 -14.3235 -1.2489 0.9340
-6.5460 -15.7756 -1.2523 0.9338
-5.1461 -16.3989 -1.2602 0.9334
-0.6488 -17.8525 -1.3098 0.9309
0.9636 -18.1915 -1.3357 0.9295
2.6411 -18.4517 -1.3667 0.9280
4.3894 -18.6277 -1.4032 0.9261
6.2151 -18.7127 -1.4458 0.9240
2.3749 -0.8875 -0.1859 0.9899
17.2533 -1.5551 -1.2702 0.9329
14.6595 -0.0094 -1.0749 0.9429
11.7159 1.0408 -0.8624 0.9539
7.7812 2.8965 -0.6088 0.9672
6.3161 3.7420 -0.5383 0.9710
5.4622 3.9334 -0.4935 0.9734
3.8496 4.7706 -0.4495 0.9757
2.8028 5.1250 -0.4283 0.9768
2.3274 5.3375 -0.4269 0.9769
1.4077 5.9397 -0.4476 0.9758
0.8652 5.9897 -0.4437 0.9760
0.3377 6.2246 -0.4571 0.9753
-0.8687 6.9529 -0.5138 0.9723
-18.8542 -4.7986 -1.4265 0.9249
-14.5720 -10.1028 -1.3001 0.9314
-10.9962 -13.1394 -1.2563 0.9336
-5.7125 -16.1574 -1.2566 0.9336
-4.2848 -16.7396 -1.2670 0.9330
-2.8079 -17.2529 -1.2817 0.9323
1.9608 -18.3572 -1.3536 0.9286
3.6800 -18.5677 -1.3879 0.9269
5.4739 -18.6901 -1.4280 0.9249
2.3321 -0.9679 -0.1851 0.9899
11.6309 0.6152 -0.8540 0.9544
7.2277 3.1400 -0.5778 0.9689
5.8935 3.9319 -0.5195 0.9720
4.0585 4.6771 -0.4540 0.9755
2.9948 5.0392 -0.4298 0.9768
2.5176 5.2525 -0.4271 0.9769
1.5975 5.8068 -0.4416 0.9761
1.0687 5.8991 -0.4396 0.9762
0.5529 6.1288 -0.4512 0.9756
-1.2449 6.9283 -0.5161 0.9722
-19.2496 -4.1727 -1.4442 0.9240
-15.0264 -9.6412 -1.3091 0.9309
-13.8822 -10.7675 -1.2882 0.9320
-9.6819 -9.0007 -0.9693 0.9484
-10.2441 -13.6634 -1.2521 0.9338
-8.9596 -14.4802 -1.2485 0.9340
-6.2715 -15.9049 -1.2536 0.9337
-1.8976 -17.5268 -1.2926 0.9317
-16.1770 -2.9104 -1.5780 0.9361
-14.6717 -5.4640 -1.5031 0.9390
-13.8442 -6.6152 -1.4731 0.9402
-12.0575 -8.6856 -1.4266 0.9420
-10.3438 -8.9540 -1.3134 0.9465
-9.4187 -9.7514 -1.3016 0.9470
-6.4345 -11.7700 -1.2878 0.9475
-5.3705 -12.3211 -1.2904 0.9474
-0.7525 -13.9078 -1.3372 0.9456
1.7894 -14.3047 -1.3840 0.9437
7.9361 -15.1905 -1.6454 0.9334
9.5635 -14.8979 -1.6996 0.9313
12.9689 -13.9439 -1.8282 0.9263
11.4703 -2.2878 -1.1231 0.9541
14.9542 -0.2747 -1.4359 0.9417
10.7201 1.7314 -1.0425 0.9573
9.0626 2.3080 -0.8978 0.9631
7.9625 2.8043 -0.8105 0.9666
5.5818 3.8712 -0.6521 0.9731
3.3567 4.8291 -0.5646 0.9766
2.8944 5.0767 -0.5610 0.9768
2.4189 5.2893 -0.5584 0.9769
1.5062 5.8882 -0.5835 0.9759
0.4445 6.1693 -0.5938 0.9755
-0.7365 6.8855 -0.6648 0.9726
-1.3848 6.9815 -0.6833 0.9718
-2.4889 1.9356 -0.3027 0.9874
-18.8894 5.9260 -1.9006 0.9235
-17.6694 0.6408 -1.6975 0.9314
-16.4519 -2.3562 -1.5956 0.9354
-14.9899 -4.9799 -1.5164 0.9385
-14.1813 -6.1635 -1.4845 0.9398
-6.8511 -11.5321 -1.2878 0.9475
-5.8011 -12.1075 -1.2889 0.9475
-4.7160 -12.6223 -1.2936 0.9473
-2.4376 -13.4675 -1.3140 0.9465
3.9437 -14.4076 -1.4341 0.9417
5.7411 -15.4193 -1.5796 0.9360
8.9054 -15.0288 -1.6771 0.9322
10.5631 -14.6662 -1.7352 0.9299
12.2708 -14.1777 -1.8001 0.9274
18.2252 -7.9457 -1.9088 0.9232
11.1008 1.3878 -1.0740 0.9560
9.5746 2.0770 -0.9406 0.9614
8.6285 2.6962 -0.8679 0.9643
5.9778 3.8367 -0.6819 0.9719
5.2067 4.0398 -0.6327 0.9739
2.6090 5.2044 -0.5589 0.9769
1.1931 5.9795 -0.5854 0.9758
0.6568 6.0749 -0.5866 0.9757
0.1165 6.3151 -0.6064 0.9749
-1.8274 7.1777 -0.7111 0.9707
-18.3430 2.9839 -1.7842 0.9280
-17.8787 1.2897 -1.7209 0.9305
-17.3336 -0.2988 -1.6644 0.9327
-16.7172 -1.7869 -1.6141 0.9347
-14.5110 -5.6991 -1.4967 0.9393
-12.7936 -7.8919 -1.4431 0.9414
-11.8710 -8.8751 -1.4230 0.9422
-10.1629 -9.1174 -1.3108 0.9466
-9.2307 -9.9022 -1.2997 0.9471
-7.2621 -11.2846 -1.2883 0.9475
-1.7259 -13.6716 -1.3230 0.9461
-0.5074 -13.9597 -1.3411 0.9454
0.7511 -14.1798 -1.3632 0.9445
2.0509 -14.3283 -1.3896 0.9435
3.3934 -14.4010 -1.4204 0.9423
5.1311 -15.4489 -1.5628 0.9367
9.8928 -14.8259 -1.7111 0.9309
13.3178 -13.8195 -1.8426 0.9258
14.6185 -0.0094 -1.4034 0.9429
6.8806 3.2865 -0.7321 0.9698
6.3073 3.7368 -0.7038 0.9710
3.8450 4.7650 -0.5878 0.9757
3.2602 4.8723 -0.5628 0.9767
2.7996 5.1191 -0.5602 0.9768
2.3248 5.3313 -0.5584 0.9769
1.4061 5.9328 -0.5854 0.9758
0.3373 6.2170 -0.5977 0.9753
-0.2267 6.4676 -0.6213 0.9743
-0.8675 6.9436 -0.6718 0.9723
-1.5277 7.0449 -0.6921 0.9714
-16.3168 -2.6328 -1.5868 0.9357
-14.8331 -5.2215 -1.5097 0.9388
-14.0151 -6.3890 -1.4787 0.9400
-13.1516 -7.4773 -1.4524 0.9410
-12.2456 -8.4899 -1.4305 0.9419
-8.6553 -10.3423 -1.2947 0.9472
-7.6676 -11.0273 -1.2894 0.9475
-6.6453 -11.6513 -1.2877 0.9475
-4.4962 -12.7173 -1.2950 0.9472
-2.2033 -13.5377 -1.3168 0.9464
-1.0003 -13.8522 -1.3333 0.9457
0.2420 -14.1000 -1.3539 0.9449
1.5250 -14.2777 -1.3785 0.9439
2.8503 -14.3813 -1.4075 0.9428
4.2192 -14.4060 -1.4411 0.9415
6.0464 -15.3989 -1.5883 0.9357
12.6159 -14.0646 -1.8139 0.9269
14.3817 -13.4086 -1.8877 0.9240
2.3294 -0.9668 -0.2421 0.9899
14.8485 -0.5408 -1.4265 0.9420
11.6200 0.6146 -1.1172 0.9543
11.0062 1.5746 -1.0674 0.9563
9.3148 2.1942 -0.9187 0.9623
8.4129 2.7935 -0.8510 0.9650
7.2165 3.1352 -0.7554 0.9689
5.0872 4.0935 -0.6269 0.9741
4.4396 4.2778 -0.5919 0.9755
2.9913 5.0334 -0.5621 0.9767
2.5147 5.2465 -0.5586 0.9769
1.5956 5.8001 -0.5775 0.9761
1.0674 5.8921 -0.5749 0.9762
0.5522 6.1214 -0.5901 0.9756
0.0046 6.3649 -0.6111 0.9747
-1.2431 6.9187 -0.6749 0.9721
-2.4483 1.9759 -0.3020 0.9874
-18.6494 4.4214 -1.8401 0.9259
-17.7765 0.9659 -1.7091 0.9310
-15.8951 -3.4455 -1.5614 0.9367
-14.3486 -5.9309 -1.4906 0.9395
-13.5029 -7.0505 -1.4624 0.9406
-12.6136 -8.0931 -1.4388 0.9416
-11.6830 -9.0618 -1.4195 0.9423
-9.6353 -8.9574 -1.2630 0.9485
-7.0591 -11.4085 -1.2880 0.9475
-6.0161 -11.9961 -1.2884 0.9475
-2.6745 -13.3935 -1.3112 0.9466
-14.2514 -1.2683 -1.6996 0.9440
-13.1789 -3.6085 -1.6231 0.9464
-11.8823 -5.6777 -1.5643 0.9483
-11.1609 -6.6146 -1.5411 0.9491
-10.3952 -7.4882 -1.5218 0.9497
-8.1434 -8.4311 -1.3924 0.9539
-6.4618 -9.6603 -1.3806 0.9543
-5.5713 -10.1910 -1.3796 0.9543
-4.6488 -10.6653 -1.3820 0.9542
-3.6949 -11.0827 -1.3877 0.9540
-2.7099 -11.4421 -1.3968 0.9537
-1.6943 -11.7420 -1.4092 0.9533
-0.6482 -11.9804 -1.4252 0.9528
0.4293 -12.1935 -1.4493 0.9520
1.5883 -12.6972 -1.5200 0.9498
2.8652 -13.2032 -1.6049 0.9470
4.1145 -13.1638 -1.6383 0.9460
6.7004 -12.8252 -1.7188 0.9434
8.0332 -12.5139 -1.7664 0.9419
10.7633 -11.5725 -1.8773 0.9383
12.1514 -10.9263 -1.9411 0.9363
13.5463 -10.1515 -2.0108 0.9341
14.9394 -9.2391 -2.0865 0.9317
16.3059 -8.1727 -2.1666 0.9292
2.3337 -0.9196 -0.2980 0.9899
17.6202 -5.1836 -2.1817 0.9287
11.4164 -2.2770 -1.3828 0.9542
18.5518 -2.0043 -2.2165 0.9276
10.1187 1.6343 -1.2175 0.9596
5.5743 3.8660 -0.8058 0.9730
4.9614 4.1419 -0.7677 0.9743
3.9432 4.7132 -0.7300 0.9756
3.3527 4.8234 -0.6978 0.9766
2.4161 5.2832 -0.6901 0.9769
0.4440 6.1618 -0.7338 0.9754
-0.1110 6.4081 -0.7613 0.9745
-0.7356 6.8763 -0.8215 0.9725
-1.3829 6.9717 -0.8443 0.9718
-2.4874 1.9345 -0.3743 0.9874
-15.3293 9.8633 -2.1653 0.9292
-15.5382 8.1387 -2.0836 0.9318
-15.4224 3.3638 -1.8750 0.9384
-15.1768 1.9147 -1.8171 0.9402
-14.8449 0.5384 -1.7645 0.9419
-14.4355 -0.7658 -1.7171 0.9434
-12.8121 -4.2564 -1.6037 0.9471
-12.1583 -5.2843 -1.5747 0.9480
-10.7071 -7.1457 -1.5291 0.9495
-9.9162 -7.9819 -1.5121 0.9500
-7.6538 -8.8229 -1.3874 0.9540
-6.8095 -9.4320 -1.3819 0.9542
-5.0223 -10.4820 -1.3807 0.9543
-3.1083 -11.3051 -1.3927 0.9539
-2.1049 -11.6291 -1.4038 0.9535
-1.0710 -11.8924 -1.4184 0.9530
-0.0069 -12.0928 -1.4365 0.9525
2.3423 -13.0248 -1.5720 0.9481
3.6103 -13.1895 -1.6244 0.9464
6.1735 -12.9224 -1.7012 0.9439
8.8431 -12.2782 -1.7974 0.9409
10.2106 -11.7973 -1.8533 0.9391
14.3821 -9.6218 -2.0555 0.9327
15.9024 -6.9330 -2.0607 0.9325
17.1380 -5.7151 -2.1460 0.9298
10.8365 1.3547 -1.2972 0.9570
8.5504 2.6718 -1.0641 0.9646
7.3858 3.0542 -0.9494 0.9683
6.5548 3.4239 -0.8784 0.9707
4.6194 4.2957 -0.7493 0.9749
4.1537 4.6187 -0.7379 0.9753
2.1323 5.4100 -0.6907 0.9768
1.7045 5.7922 -0.7172 0.9760
1.1917 5.9725 -0.7234 0.9758
0.6560 6.0676 -0.7249 0.9757
0.1164 6.3073 -0.7493 0.9749
-0.4796 6.7629 -0.8054 0.9731
-15.4712 8.8224 -2.1156 0.9308
-15.5991 7.1353 -2.0376 0.9332
-15.6026 5.5150 -1.9657 0.9355
-14.9877 1.0811 -1.7850 0.9413
-14.1561 -1.5132 -1.6911 0.9443
-13.6378 -2.7040 -1.6515 0.9455
-11.7427 -5.8689 -1.5594 0.9485
-11.0123 -6.7931 -1.5370 0.9492
-8.9832 -8.0592 -1.4336 0.9525
-7.9826 -8.5632 -1.3906 0.9539
-7.1518 -9.1947 -1.3837 0.9542
-5.3906 -10.2897 -1.3798 0.9543
4.3662 -13.1460 -1.6454 0.9457
5.6508 -13.0044 -1.6843 0.9445
8.3007 -12.4400 -1.7765 0.9415
9.6605 -12.0035 -1.8303 0.9398
11.0381 -11.4540 -1.8895 0.9379
12.4282 -10.7829 -1.9545 0.9359
16.5347 -7.9238 -2.1780 0.9288
16.0922 -1.4505 -1.9193 0.9370
14.5776 -0.0094 -1.7316 0.9430
11.6799 1.0376 -1.3929 0.9539
9.8268 1.7664 -1.1860 0.9606
8.7641 2.3982 -1.0793 0.9641
5.4477 3.9230 -0.7974 0.9733
4.8462 4.1937 -0.7613 0.9745
3.8404 4.7593 -0.7264 0.9757
2.7964 5.1132 -0.6923 0.9768
1.9026 5.7039 -0.7142 0.9761
1.4044 5.9259 -0.7234 0.9758
0.4356 3.0157 -0.3619 0.9878
-1.5255 7.0348 -0.8551 0.9714
-14.5721 13.1069 -2.3281 0.9241
-15.3820 9.5160 -2.1486 0.9297
-15.6153 6.1560 -1.9938 0.9346
-15.1174 1.6356 -1.8062 0.9406
-14.7695 0.2736 -1.7547 0.9422
-14.3456 -1.0163 -1.7083 0.9437
-11.3103 -6.4304 -1.5455 0.9489
-10.5534 -7.3167 -1.5254 0.9496
-9.5554 -7.9747 -1.4784 0.9511
-6.6378 -9.5463 -1.3811 0.9542
-5.7538 -10.0883 -1.3796 0.9543
-2.9114 -11.3742 -1.3947 0.9538
-0.8620 -11.9373 -1.4217 0.9529
0.2081 -12.1250 -1.4405 0.9523
1.3449 -12.5913 -1.5042 0.9503
5.1327 -13.0718 -1.6682 0.9450
7.7619 -12.5850 -1.7564 0.9422
10.4843 -11.6883 -1.8651 0.9387
11.8701 -11.0670 -1.9278 0.9367
13.2643 -10.3189 -1.9962 0.9345
14.6586 -9.4350 -2.0707 0.9322
17.3781 -5.4548 -2.1636 0.9293
18.5519 -4.0493 -2.2556 0.9264
11.6115 0.6142 -1.3812 0.9542
8.3370 2.7683 -1.0435 0.9652
7.2053 3.1303 -0.9332 0.9689
6.5520 3.5716 -0.8864 0.9704
5.8775 3.9212 -0.8393 0.9719
5.0806 4.0883 -0.7746 0.9741
4.4382 4.2764 -0.7321 0.9755
3.5358 4.8959 -0.7174 0.9760
2.9878 5.0276 -0.6947 0.9767
2.5118 5.2405 -0.6903 0.9769
2.0379 5.4521 -0.6914 0.9768
1.5938 5.7934 -0.7137 0.9761
-2.4480 1.9757 -0.3737 0.9874
-15.5072 8.4822 -2.0996 0.9313
-15.6093 6.8080 -2.0228 0.9337
-15.2337 2.2017 -1.8283 0.9399
-14.5241 -0.5080 -1.7263 0.9431
-14.0582 -1.7553 -1.6829 0.9445
-13.5276 -2.9323 -1.6442 0.9458
-12.9380 -4.0407 -1.6101 0.9469
-12.2945 -5.0819 -1.5803 0.9478
-11.6012 -6.0576 -1.5546 0.9486
-10.8619 -6.9691 -1.5330 0.9493
-7.8275 -8.7011 -1.3902 0.9539
-6.9828 -9.3134 -1.3827 0.9542
-6.1119 -9.8778 -1.3798 0.9543
-2.3101 -11.5684 -1.4013 0.9536
-1.2824 -11.8441 -1.4151 0.9531
-0.2243 -12.0575 -1.4325 0.9526
-12.3411 -1.0983 -1.7555 0.9512
-11.9414 -2.1484 -1.7191 0.9522
-11.4816 -3.1437 -1.6867 0.9530
-10.9666 -4.0842 -1.6581 0.9538
-10.4005 -4.9697 -1.6332 0.9545
-9.1298 -6.5766 -1.5943 0.9556
-8.4312 -7.2984 -1.5800 0.9559
-7.6939 -7.9656 -1.5692 0.9562
-6.1113 -9.1363 -1.5574 0.9566
-4.3767 -10.0409 -1.5520 0.9567
1.4399 -11.5109 -1.6437 0.9542
2.4998 -11.5194 -1.6702 0.9535
8.0544 -10.3793 -1.8615 0.9483
11.4495 -8.5802 -2.0272 0.9438
13.6012 -6.8170 -2.1556 0.9404
2.3336 -0.9196 -0.3554 0.9899
14.5127 -4.2695 -2.1434 0.9407
11.4018 -2.2741 -1.6473 0.9541
14.9505 -0.2747 -2.1187 0.9414
10.3964 1.6792 -1.4922 0.9583
8.8400 2.2514 -1.2925 0.9638
6.9495 3.1693 -1.0822 0.9696
5.5668 3.8608 -0.9599 0.9730
4.9550 4.1366 -0.9146 0.9743
3.3488 4.8178 -0.8313 0.9766
2.8878 5.0650 -0.8261 0.9767
1.9979 5.6538 -0.8496 0.9761
-0.1108 6.4000 -0.9069 0.9745
-1.3809 6.9619 -1.0056 0.9717
-7.0539 17.9567 -2.7335 0.9250
-9.4761 15.3590 -2.5571 0.9297
-11.9095 11.1002 -2.3068 0.9363
-2.4860 1.9333 -0.4462 0.9874
-13.1729 2.8731 -1.9103 0.9470
-13.0217 1.6428 -1.8597 0.9484
-12.4832 -0.6622 -1.7712 0.9508
-12.1090 -1.7340 -1.7332 0.9518
-7.9938 -7.7048 -1.5731 0.9561
-5.6107 -9.4442 -1.5565 0.9566
-2.9361 -10.6788 -1.5692 0.9562
-1.9867 -10.9763 -1.5805 0.9559
-0.0065 -11.3821 -1.6127 0.9551
2.0725 -11.5246 -1.6591 0.9538
3.1450 -11.4897 -1.6878 0.9530
6.4673 -10.9144 -1.7976 0.9500
7.5992 -10.5510 -1.8423 0.9488
8.7360 -10.0936 -1.8914 0.9475
9.8723 -9.5369 -1.9449 0.9461
11.0010 -8.8757 -2.0028 0.9445
13.2021 -7.2188 -2.1320 0.9410
15.0751 -0.8168 -2.1391 0.9408
11.0518 1.3816 -1.5781 0.9560
9.4109 2.0415 -1.3644 0.9618
7.2263 2.9883 -1.1080 0.9689
6.0055 3.8545 -1.0111 0.9716
5.1931 4.0293 -0.9313 0.9738
4.1487 4.6131 -0.8791 0.9752
3.0797 4.9790 -0.8295 0.9766
2.6029 5.1924 -0.8230 0.9768
2.1298 5.4037 -0.8230 0.9768
0.1162 6.2994 -0.8927 0.9749
-1.1205 6.9411 -0.9962 0.9720
-1.8021 7.0782 -1.0349 0.9709
-7.8484 17.2130 -2.6805 0.9264
-12.9718 7.3972 -2.1158 0.9415
-13.1574 6.0184 -2.0500 0.9432
-13.2334 4.6775 -1.9887 0.9449
-13.2089 3.3800 -1.9319 0.9464
-12.8919 0.9300 -1.8314 0.9491
-12.6144 -0.2175 -1.7876 0.9503
-12.2668 -1.3112 -1.7480 0.9514
-11.8547 -2.3505 -1.7124 0.9523
-11.3836 -3.3349 -1.6807 0.9532
-10.2824 -5.1391 -1.6287 0.9546
-8.2878 -7.4352 -1.5776 0.9560
-6.7621 -8.6936 -1.5605 0.9565
-4.1992 -10.1198 -1.5524 0.9567
-1.4043 -11.1243 -1.5887 0.9557
0.6067 -11.4534 -1.6251 0.9547
2.7128 -11.5125 -1.6759 0.9533
3.7972 -11.4327 -1.7069 0.9525
4.8993 -11.2749 -1.7418 0.9515
6.0164 -11.0347 -1.7808 0.9505
7.1448 -10.7076 -1.8239 0.9493
8.2802 -10.2885 -1.8712 0.9480
10.5501 -9.1535 -1.9791 0.9451
11.6707 -8.4271 -2.0396 0.9435
12.8412 -6.1538 -2.0176 0.9441
14.6854 -4.0389 -2.1580 0.9403
15.5107 -2.8087 -2.2334 0.9383
16.0357 -1.4454 -2.2813 0.9370
11.7470 1.0436 -1.6710 0.9535
7.5204 2.7994 -1.1370 0.9681
6.2433 3.6989 -1.0282 0.9711
4.2119 4.3594 -0.8589 0.9758
3.8358 4.7536 -0.8655 0.9756
3.2525 4.8609 -0.8287 0.9766
2.7931 5.1073 -0.8248 0.9768
0.3365 6.2017 -0.8800 0.9752
-7.3237 17.7141 -2.7160 0.9255
-8.5842 16.4371 -2.6274 0.9278
-9.6810 15.0859 -2.5398 0.9301
-11.3943 12.2547 -2.3709 0.9346
-2.5630 1.9213 -0.4539 0.9871
-12.8646 7.9586 -2.1434 0.9407
-13.0967 6.5667 -2.0759 0.9425
-13.2155 5.2099 -2.0127 0.9442
-13.2303 3.8944 -1.9541 0.9458
-12.9819 1.4045 -1.8501 0.9486
-12.7344 0.2359 -1.8046 0.9498
-12.4141 -0.8795 -1.7634 0.9510
-12.0272 -1.9406 -1.7262 0.9520
-11.0749 -3.8986 -1.6636 0.9537
-10.5188 -4.7952 -1.6380 0.9544
-9.9148 -5.6370 -1.6160 0.9550
-9.2660 -6.4242 -1.5976 0.9555
-7.8459 -7.8352 -1.5711 0.9562
-4.5571 -9.9607 -1.5520 0.9567
-3.6621 -10.3579 -1.5566 0.9566
-2.7502 -10.7442 -1.5714 0.9562
-1.7948 -11.0278 -1.5831 0.9559
-0.8124 -11.2499 -1.5981 0.9555
1.2284 -11.5006 -1.6388 0.9543
4.4557 -11.3478 -1.7274 0.9519
7.8247 -10.4678 -1.8517 0.9486
8.9619 -9.9911 -1.9017 0.9472
10.0973 -9.4141 -1.9560 0.9458
11.2237 -8.7314 -2.0148 0.9442
12.3327 -7.9379 -2.0781 0.9425
13.4143 -7.0288 -2.1458 0.9407
15.1894 -3.3154 -2.2029 0.9391
9.1199 2.1483 -1.3276 0.9629
7.0854 3.0782 -1.0946 0.9693
6.5397 3.5650 -1.0553 0.9704
5.0740 4.0830 -0.9228 0.9740
4.4368 4.2751 -0.8730 0.9754
4.0439 4.6602 -0.8742 0.9754
2.0356 5.4458 -0.8238 0.9768
1.5919 5.7866 -0.8504 0.9760
0.5509 6.1065 -0.8687 0.9755
0.0045 6.3488 -0.8996 0.9747
-6.7730 18.1991 -2.7514 0.9245
-9.2611 15.6346 -2.5747 0.9292
-10.2606 14.2508 -2.4881 0.9315
-11.1009 12.8299 -2.4039 0.9338
-11.7884 11.3915 -2.3227 0.9359
-2.4484 1.9760 -0.4458 0.9874
-12.7377 8.5245 -2.1717 0.9400
-13.0179 7.1206 -2.1024 0.9418
-13.1929 3.1278 -1.9211 0.9467
-12.8427 0.6978 -1.8224 0.9494
-12.5508 -0.4390 -1.7794 0.9505
-12.1898 -1.5220 -1.7406 0.9516
-11.2834 -3.5239 -1.6749 0.9534
-10.7476 -4.4425 -1.6478 0.9541
-9.5311 -6.1153 -1.6045 0.9553
-8.8571 -6.8699 -1.5882 0.9557
-8.1428 -7.5699 -1.5753 0.9561
-7.3907 -8.2156 -1.5658 0.9563
-4.9153 -9.8013 -1.5536 0.9567
-4.0215 -10.1986 -1.5533 0.9567
-3.1203 -10.5975 -1.5653 0.9564
-2.1809 -10.9214 -1.5780 0.9560
-10.8742 -0.9677 -1.7985 0.9567
-10.5480 -1.8977 -1.7656 0.9575
-10.1642 -2.7830 -1.7361 0.9582
-9.2408 -4.4155 -1.6872 0.9593
-7.5184 -6.5082 -1.6382 0.9605
-4.7066 -8.6092 -1.6164 0.9610
-3.9258 -9.0066 -1.6186 0.9610
-3.1175 -9.3509 -1.6238 0.9608
-2.2833 -9.6407 -1.6321 0.9606
-1.4248 -9.8744 -1.6435 0.9604
-0.5438 -10.0502 -1.6581 0.9600
1.2784 -10.2200 -1.6968 0.9591
5.0989 -9.7597 -1.8140 0.9563
6.0729 -9.4603 -1.8520 0.9554
10.8156 -6.6887 -2.0950 0.9498
11.6554 -5.8418 -2.1478 0.9485
2.3336 -0.9196 -0.4132 0.9899
12.3252 -3.6259 -2.1165 0.9493
11.3871 -2.2712 -1.9129 0.9540
13.5368 -1.4625 -2.2430 0.9463
11.7053 0.8311 -1.9332 0.9535
10.3746 1.6756 -1.7312 0.9583
7.8276 2.7568 -1.3672 0.9669
6.8303 3.1150 -1.2367 0.9700
6.0590 3.4461 -1.1483 0.9721
5.4566 3.7843 -1.0939 0.9734
4.3114 4.3069 -1.0039 0.9756
3.3448 4.8121 -0.9654 0.9765
2.8844 5.0591 -0.9594 0.9767
2.4105 5.2710 -0.9548 0.9768
-0.6945 6.4924 -1.0757 0.9739
-1.1701 5.8991 -0.9908 0.9759
-7.9199 12.8367 -2.4848 0.9407
-8.7766 11.7374 -2.4144 0.9423
-10.1163 9.4289 -2.2782 0.9455
-2.4845 1.9322 -0.5185 0.9873
-11.2535 5.8944 -2.0928 0.9498
-11.4230 4.7389 -2.0373 0.9511
-11.4986 3.6073 -1.9853 0.9523
-11.4867 2.5054 -1.9368 0.9535
-10.9877 -0.5829 -1.8127 0.9564
-10.6858 -1.5304 -1.7783 0.9572
-9.4414 -4.1034 -1.6959 0.9591
-8.9271 -4.8681 -1.6751 0.9596
-7.1317 -6.8739 -1.6318 0.9606
-5.7506 -7.9653 -1.6184 0.9610
-2.6205 -9.5312 -1.6284 0.9607
-1.7716 -9.7876 -1.6386 0.9605
-0.8994 -9.9868 -1.6519 0.9602
2.7839 -10.1705 -1.7371 0.9582
3.7421 -10.0504 -1.7667 0.9575
5.6824 -9.5897 -1.8363 0.9558
6.6567 -9.2425 -1.8764 0.9549
9.5338 -7.6919 -2.0180 0.9516
10.4551 -6.9946 -2.0723 0.9503
11.3437 -6.2026 -2.1299 0.9489
11.3122 -4.9318 -2.0330 0.9512
12.0472 -4.0174 -2.0921 0.9498
12.7208 -3.0138 -2.1536 0.9484
11.9037 0.4182 -1.9622 0.9529
11.0272 1.3785 -1.8308 0.9559
8.2899 2.5904 -1.4308 0.9654
5.6769 3.6436 -1.1113 0.9730
4.6077 4.2849 -1.0366 0.9748
4.1436 4.6075 -1.0208 0.9752
2.5999 5.1863 -0.9557 0.9768
2.1273 5.3975 -0.9557 0.9768
0.6544 6.0528 -1.0029 0.9756
-0.4558 6.4266 -1.0614 0.9742
-0.9873 6.1160 -1.0206 0.9752
-1.7709 6.9556 -1.1824 0.9713
-8.4485 12.1838 -2.4425 0.9417
-9.2297 11.0575 -2.3728 0.9433
-2.4557 2.0548 -0.5275 0.9871
-10.8456 7.5399 -2.1760 0.9479
-11.4792 4.0575 -2.0057 0.9518
-11.4402 1.8610 -1.9094 0.9541
-11.0909 -0.1912 -1.8274 0.9560
-10.8142 -1.1559 -1.7917 0.9569
-9.1386 -4.5674 -1.6830 0.9594
-8.5976 -5.3036 -1.6642 0.9599
-8.0143 -5.9917 -1.6485 0.9602
-6.7322 -7.2219 -1.6265 0.9608
-5.3112 -8.2531 -1.6168 0.9610
-4.5538 -8.6923 -1.6166 0.9610
-2.9538 -9.4128 -1.6252 0.9608
-2.1146 -9.6916 -1.6341 0.9606
-1.2515 -9.9140 -1.6462 0.9603
0.5393 -10.1819 -1.6797 0.9595
1.4633 -10.2231 -1.7013 0.9590
2.4033 -10.1991 -1.7262 0.9584
3.3569 -10.1070 -1.7545 0.9577
4.3210 -9.9439 -1.7861 0.9570
6.2665 -9.3913 -1.8599 0.9553
7.2393 -8.9951 -1.9021 0.9543
8.2050 -8.5141 -1.9479 0.9532
9.1575 -7.9452 -1.9973 0.9520
10.0893 -7.2852 -2.0501 0.9508
2.4069 -0.8995 -0.4233 0.9896
13.0899 -2.3703 -2.1915 0.9475
13.6387 -1.2293 -2.2559 0.9460
11.7455 1.0435 -1.9426 0.9533
8.7776 2.4019 -1.4992 0.9638
6.6561 3.1792 -1.2152 0.9705
5.9216 3.5083 -1.1339 0.9725
5.3490 3.8519 -1.0859 0.9736
4.8218 4.1726 -1.0505 0.9745
3.8312 4.7479 -1.0051 0.9756
3.2487 4.8552 -0.9624 0.9766
2.7899 5.1014 -0.9579 0.9767
2.3167 5.3129 -0.9548 0.9768
1.8981 5.6906 -0.9882 0.9760
1.3958 5.8894 -0.9971 0.9758
0.4196 2.9050 -0.4835 0.9882
0.3358 6.1895 -1.0212 0.9752
-1.2914 5.9552 -1.0038 0.9756
-4.5056 14.4227 -2.4892 0.9406
-5.6230 13.6005 -2.4245 0.9421
-7.1422 13.6759 -2.5417 0.9394
-8.9318 11.5136 -2.4006 0.9426
-10.2229 9.1950 -2.2651 0.9458
-11.2950 5.6633 -2.0815 0.9501
-10.6187 -1.7134 -1.7719 0.9573
-10.2462 -2.6078 -1.7418 0.9580
-9.8196 -3.4567 -1.7150 0.9587
-9.3429 -4.2591 -1.6915 0.9592
-8.8196 -5.0143 -1.6713 0.9597
-8.2529 -5.7218 -1.6544 0.9601
-7.0007 -6.9912 -1.6299 0.9607
-6.3202 -7.5520 -1.6223 0.9609
-5.6062 -8.0627 -1.6178 0.9610
-4.0859 -8.9306 -1.6179 0.9610
-2.4539 -9.5866 -1.6302 0.9607
-1.6001 -9.8317 -1.6410 0.9604
0.1741 -10.1477 -1.6720 0.9597
5.8760 -9.5272 -1.8440 0.9556
7.8193 -8.7172 -1.9291 0.9536
8.7779 -8.1840 -1.9771 0.9525
11.5044 -6.0281 -2.1396 0.9487
2.3222 -0.9638 -0.4142 0.9899
12.1863 -3.8251 -2.1041 0.9495
13.4295 -1.6964 -2.2299 0.9466
13.9226 -0.5071 -2.2951 0.9451
11.6084 0.6140 -1.9150 0.9540
9.2619 2.1818 -1.5676 0.9622
8.0553 2.6747 -1.3983 0.9662
7.0143 3.0473 -1.2599 0.9695
6.2025 3.3811 -1.1638 0.9718
5.5671 3.7141 -1.1025 0.9732
4.4194 4.2583 -1.0110 0.9754
4.0390 4.6546 -1.0152 0.9753
3.5274 4.8844 -0.9925 0.9759
2.9809 5.0159 -0.9612 0.9766
2.0332 5.4394 -0.9566 0.9767
1.5900 5.7798 -0.9875 0.9760
1.0636 5.8711 -0.9829 0.9761
0.5502 6.0990 -1.0088 0.9755
0.0045 6.2924 -1.0366 0.9748
-0.5733 6.4593 -1.0683 0.9741
-1.9254 7.0382 -1.2021 0.9709
-7.7315 13.0522 -2.4991 0.9404
-8.6137 11.9634 -2.4285 0.9420
-9.3701 10.8295 -2.3591 0.9436
-2.4493 1.9768 -0.5185 0.9873
-10.9161 7.3054 -2.1639 0.9481
-11.4186 1.6503 -1.9006 0.9543
-11.0411 -0.3862 -1.8200 0.9562
-10.4022 -2.2548 -1.7534 0.9578
-9.9968 -3.1221 -1.7253 0.9584
-9.5397 -3.9432 -1.7005 0.9590
-8.4850 -5.4441 -1.6608 0.9600
-7.8937 -6.1226 -1.6457 0.9603
-5.8962 -7.8642 -1.6192 0.9609
-3.6079 -9.1498 -1.6203 0.9609
-2.7891 -9.4726 -1.6268 0.9608
-1.9450 -9.7403 -1.6363 0.9605
-1.0774 -9.9513 -1.6489 0.9602
-9.1110 -2.4947 -1.7756 0.9623
-8.7329 -3.2523 -1.7516 0.9628
-8.3075 -3.9696 -1.7306 0.9632
-7.3277 -5.2785 -1.6975 0.9639
-5.5766 -6.9130 -1.6695 0.9645
-4.2493 -7.7727 -1.6650 0.9646
-3.5439 -8.1304 -1.6671 0.9645
-0.4897 -9.0510 -1.7037 0.9638
0.3220 -9.1457 -1.7201 0.9634
2.8363 -9.0744 -1.7870 0.9620
5.4063 -8.4218 -1.8811 0.9601
7.0979 -7.6315 -1.9589 0.9585
7.9216 -7.1229 -2.0024 0.9576
8.7219 -6.5362 -2.0486 0.9566
9.4916 -5.8699 -2.0977 0.9556
10.1872 -5.1059 -2.1418 0.9547
2.3336 -0.9195 -0.4714 0.9898
10.7003 -3.1479 -2.0965 0.9556
11.7038 0.8310 -2.2054 0.9534
7.9092 2.7856 -1.5761 0.9664
6.1331 3.4882 -1.3262 0.9717
2.3691 5.1804 -1.0707 0.9771
1.9008 5.3789 -1.0723 0.9770
1.4237 5.5656 -1.0798 0.9769
-0.1074 6.1998 -1.1655 0.9751
-3.6208 12.3560 -2.4201 0.9489
-4.6045 11.7214 -2.3671 0.9500
-5.5012 11.0052 -2.3126 0.9512
-7.5611 10.1118 -2.3732 0.9499
-8.7839 8.1870 -2.2570 0.9523
-2.4830 1.9310 -0.5912 0.9873
-9.6071 6.1815 -2.1473 0.9546
-9.8772 5.1735 -2.0958 0.9556
-10.0585 4.1728 -2.0468 0.9566
-10.1746 2.2192 -1.9574 0.9585
-10.1189 1.2766 -1.9170 0.9593
-9.9940 0.3624 -1.8797 0.9601
-9.8044 -0.5201 -1.8454 0.9608
-9.2485 -2.1801 -1.7860 0.9621
-8.8903 -2.9535 -1.7608 0.9626
-8.0313 -4.3796 -1.7194 0.9635
-7.5370 -5.0300 -1.7032 0.9638
-5.1912 -7.1904 -1.6669 0.9645
-1.5973 -8.8248 -1.6857 0.9642
-0.8103 -8.9972 -1.6980 0.9639
0.8158 -9.1749 -1.7313 0.9632
2.4953 -9.1161 -1.7765 0.9623
3.3482 -8.9925 -1.8036 0.9617
5.9174 -8.2160 -1.9031 0.9596
7.5939 -7.3360 -1.9846 0.9579
10.4749 -3.4931 -2.0755 0.9561
11.0183 -2.6104 -2.1283 0.9550
11.8863 -0.6440 -2.2374 0.9527
11.0026 1.3755 -2.0841 0.9559
9.5003 2.0609 -1.8272 0.9612
8.3184 2.5993 -1.6381 0.9652
5.0303 3.9030 -1.1967 0.9744
4.1385 4.6019 -1.1633 0.9751
3.0182 4.8795 -1.0784 0.9769
2.5553 5.0973 -1.0717 0.9771
2.0892 5.3008 -1.0709 0.9771
1.6161 5.4921 -1.0761 0.9770
0.6348 5.8713 -1.1100 0.9763
-0.9512 5.8921 -1.1218 0.9760
-1.8078 7.1007 -1.3772 0.9706
-4.2204 11.9863 -2.3885 0.9496
-5.9951 10.5427 -2.2796 0.9518
-6.7436 9.7251 -2.2244 0.9530
-2.4642 2.0619 -0.6039 0.9870
-9.4730 6.5857 -2.1686 0.9541
-9.7798 5.5769 -2.1161 0.9552
-10.1268 3.5794 -2.0188 0.9572
-10.1763 2.6040 -1.9744 0.9581
-10.1498 1.6511 -1.9328 0.9590
-10.0521 0.7251 -1.8943 0.9598
-9.8879 -0.1705 -1.8588 0.9605
-9.0399 -2.6483 -1.7705 0.9624
-8.6521 -3.3980 -1.7472 0.9629
-7.2217 -5.3991 -1.6948 0.9640
-6.6656 -5.9800 -1.6832 0.9642
-6.0743 -6.5162 -1.6744 0.9644
-4.1113 -7.8476 -1.6652 0.9646
-3.4007 -8.1956 -1.6678 0.9645
-2.6654 -8.4937 -1.6732 0.9644
-1.9071 -8.7406 -1.6815 0.9642
1.3144 -9.1829 -1.7436 0.9629
2.1556 -9.1477 -1.7665 0.9625
3.8617 -8.8870 -1.8213 0.9613
4.7198 -8.6567 -1.8533 0.9607
7.2630 -7.5366 -1.9673 0.9583
8.8775 -6.4102 -2.0582 0.9564
9.6162 -4.6083 -2.0043 0.9575
10.2400 -3.8268 -2.0547 0.9565
10.8083 -2.9725 -2.1070 0.9554
11.3113 -2.0483 -2.1607 0.9543
12.0797 -0.0078 -2.2705 0.9520
11.7322 1.0423 -2.2139 0.9532
10.0557 1.8076 -1.9204 0.9593
8.7615 2.3975 -1.7074 0.9637
7.7175 2.8728 -1.5478 0.9670
4.6886 4.0574 -1.1654 0.9751
2.2766 5.2208 -1.0706 0.9771
0.3260 6.0081 -1.1309 0.9758
-0.2192 6.2519 -1.1758 0.9749
-0.8206 6.5680 -1.2441 0.9734
-4.7898 11.5852 -2.3563 0.9503
-5.6687 10.8545 -2.3017 0.9514
-6.4551 10.0590 -2.2465 0.9525
-7.7009 9.9269 -2.3615 0.9502
-8.3430 8.9729 -2.3029 0.9514
-8.8831 7.9900 -2.2457 0.9525
-9.9201 4.9740 -2.0858 0.9558
-10.1692 2.0299 -1.9491 0.9587
-10.0995 1.0927 -1.9094 0.9595
-9.7594 -0.6914 -1.8390 0.9610
-9.4981 -1.5325 -1.8084 0.9616
-9.1814 -2.3368 -1.7808 0.9622
-8.8132 -3.1024 -1.7562 0.9627
-7.9364 -4.5122 -1.7160 0.9635
-7.4340 -5.1540 -1.7003 0.9639
-5.0611 -7.2787 -1.6663 0.9646
-3.6885 -8.0621 -1.6664 0.9646
-2.9629 -8.3803 -1.6707 0.9645
0.9805 -9.1799 -1.7353 0.9631
1.8173 -9.1692 -1.7570 0.9627
2.6642 -9.0967 -1.7816 0.9622
3.5182 -8.9602 -1.8093 0.9616
4.3760 -8.7572 -1.8401 0.9609
5.2334 -8.4853 -1.8739 0.9602
10.0600 -5.2712 -2.1347 0.9548
2.3198 -0.9628 -0.4721 0.9898
11.1182 -2.4268 -2.1390 0.9547
8.1116 2.6934 -1.6065 0.9658
6.2924 3.4301 -1.3470 0.9713
5.5507 3.7032 -1.2542 0.9732
4.9151 3.9550 -1.1858 0.9746
4.3632 4.2042 -1.1389 0.9756
2.9263 4.9240 -1.0766 0.9770
1.5210 5.5287 -1.0778 0.9769
0.5442 3.0043 -0.5739 0.9877
0.5337 5.9161 -1.1165 0.9761
-0.5713 6.4361 -1.2145 0.9740
-3.4121 12.4730 -2.4306 0.9487
-5.3274 11.1558 -2.3237 0.9509
-8.6788 8.3866 -2.2685 0.9521
-2.4503 1.9775 -0.5918 0.9873
-9.5414 6.3854 -2.1580 0.9543
-9.8299 5.3768 -2.1060 0.9554
-10.0288 4.3741 -2.0565 0.9564
-10.1429 3.3841 -2.0098 0.9574
-10.1359 1.4649 -1.9249 0.9592
-9.8477 -0.3444 -1.8521 0.9607
-9.6097 -1.1998 -1.8203 0.9614
-8.5694 -3.5421 -1.7429 0.9630
-8.1262 -4.2431 -1.7231 0.9634
-7.6401 -4.9020 -1.7062 0.9637
-6.5509 -6.0900 -1.6812 0.9643
-5.9529 -6.6173 -1.6730 0.9644
-5.3224 -7.0988 -1.6677 0.9645
-4.6614 -7.5336 -1.6652 0.9646
-3.9722 -7.9207 -1.6655 0.9646
-3.2566 -8.2588 -1.6687 0.9645
-1.7540 -8.7834 -1.6835 0.9642
-0.9708 -8.9668 -1.6953 0.9640
-0.1692 -9.0954 -1.7099 0.9637
-8.7658 -0.7801 -1.8602 0.9647
-8.5332 -1.5352 -1.8327 0.9652
-7.9168 -2.9484 -1.7857 0.9661
-7.5396 -3.6026 -1.7663 0.9664
-7.1204 -4.2200 -1.7496 0.9667
-6.6621 -4.7991 -1.7356 0.9670
-6.1673 -5.3386 -1.7242 0.9672
-5.6383 -5.8375 -1.7155 0.9674
-5.0777 -6.2946 -1.7095 0.9675
-4.4875 -6.7088 -1.7061 0.9675
-3.8700 -7.0790 -1.7054 0.9676
-3.2273 -7.4040 -1.7073 0.9675
-2.5613 -7.6826 -1.7118 0.9674
1.8009 -8.2991 -1.7951 0.9659
3.3351 -8.0632 -1.8444 0.9650
4.1034 -7.8543 -1.8732 0.9644
4.8674 -7.5824 -1.9046 0.9638
5.6226 -7.2456 -1.9386 0.9632
6.3641 -6.8426 -1.9753 0.9625
7.7835 -5.8329 -2.0560 0.9610
8.4213 -4.2208 -1.9912 0.9622
2.3336 -0.9195 -0.5302 0.9898
10.2301 -1.1052 -2.1750 0.9588
10.5129 -0.1931 -2.2226 0.9579
10.7113 0.7605 -2.2699 0.9570
7.8957 2.7808 -1.7695 0.9664
6.9903 3.1879 -1.6240 0.9691
2.3360 5.1079 -1.1873 0.9773
0.4631 2.8484 -0.6100 0.9883
-0.1092 6.3061 -1.3332 0.9745
-4.0035 10.1915 -2.3145 0.9562
-5.5166 8.9413 -2.2208 0.9580
-7.7539 7.2270 -2.2405 0.9576
-2.4815 1.9299 -0.6645 0.9872
-8.5292 5.4880 -2.1439 0.9594
-8.9771 3.7242 -2.0544 0.9610
-9.0862 2.8505 -2.0129 0.9618
-9.1235 1.9899 -1.9739 0.9625
-9.0930 1.1472 -1.9373 0.9632
-8.9985 0.3263 -1.9034 0.9639
-8.8438 -0.4692 -1.8720 0.9644
-8.6328 -1.2363 -1.8434 0.9650
-8.3688 -1.9727 -1.8175 0.9655
-7.6959 -3.3448 -1.7738 0.9663
-7.2933 -3.9772 -1.7560 0.9666
-6.8503 -4.5717 -1.7409 0.9669
-6.3698 -5.1272 -1.7284 0.9671
-5.3060 -6.1165 -1.7116 0.9674
-4.1206 -6.9360 -1.7053 0.9676
-1.4532 -8.0283 -1.7246 0.9672
0.7404 -8.3265 -1.7670 0.9664
1.4959 -8.3182 -1.7865 0.9660
3.0269 -8.1296 -1.8337 0.9652
3.7958 -7.9455 -1.8613 0.9646
5.3214 -7.3884 -1.9247 0.9635
8.1864 -5.4768 -2.0820 0.9605
8.8194 -4.8224 -2.1247 0.9597
8.7490 -3.8143 -2.0175 0.9617
9.7079 -2.3000 -2.1089 0.9600
10.4092 -0.5640 -2.2035 0.9583
10.6424 0.3739 -2.2510 0.9574
6.5161 3.4036 -1.5539 0.9704
5.1210 3.9733 -1.3701 0.9738
3.6186 4.8279 -1.2754 0.9756
2.9836 4.8237 -1.1989 0.9771
1.6028 5.4468 -1.2002 0.9771
0.5932 2.9731 -0.6409 0.9877
0.1142 6.1892 -1.3085 0.9750
-0.4605 6.4926 -1.3758 0.9737
-0.9506 5.8886 -1.2608 0.9759
-1.8140 7.1248 -1.5541 0.9704
-5.2379 9.2111 -2.2398 0.9576
-6.5021 7.7897 -2.1448 0.9594
-8.4008 5.8403 -2.1627 0.9590
-8.6967 4.9593 -2.1162 0.9599
-8.9125 4.0767 -2.0716 0.9607
-9.0513 3.1993 -2.0293 0.9615
-9.1131 1.4825 -1.9517 0.9630
-8.4807 -1.6815 -1.8275 0.9653
-8.1868 -2.3984 -1.8032 0.9657
-7.8454 -3.0812 -1.7817 0.9661
-5.5294 -5.9316 -1.7141 0.9674
-1.7354 -7.9534 -1.7208 0.9673
1.1921 -8.3282 -1.7784 0.9662
3.4878 -8.0266 -1.8499 0.9649
4.2556 -7.8054 -1.8792 0.9643
5.0183 -7.5207 -1.9111 0.9637
5.7712 -7.1709 -1.9457 0.9631
7.2271 -6.2704 -2.0225 0.9616
9.0594 -3.3856 -2.0443 0.9612
9.9481 -1.8014 -2.1370 0.9595
10.2926 -0.9277 -2.1845 0.9586
10.7400 0.9541 -2.2792 0.9569
10.0348 1.8038 -2.1552 0.9592
8.7454 2.3931 -1.9166 0.9636
7.7045 2.8680 -1.7378 0.9669
6.8284 3.2616 -1.5996 0.9695
6.0797 3.6019 -1.4937 0.9715
3.8219 4.7364 -1.2865 0.9754
2.7041 4.9446 -1.1913 0.9772
1.3227 5.5811 -1.2124 0.9768
0.4120 2.8524 -0.6092 0.9883
0.3298 6.0775 -1.2866 0.9754
-0.2232 6.3663 -1.3465 0.9743
-6.8182 7.3331 -2.1166 0.9599
-8.5880 5.3129 -2.1346 0.9596
-9.0047 3.5499 -2.0460 0.9612
-9.0792 0.9823 -1.9304 0.9634
-8.9725 0.1662 -1.8969 0.9640
-8.8063 -0.6239 -1.8661 0.9645
-8.5844 -1.3851 -1.8380 0.9651
-8.3104 -2.1151 -1.8127 0.9655
-7.9876 -2.8118 -1.7900 0.9660
-6.7578 -4.6852 -1.7382 0.9669
-6.2701 -5.2328 -1.7263 0.9672
-5.1934 -6.2056 -1.7105 0.9675
-4.6091 -6.6286 -1.7066 0.9675
-3.9969 -7.0078 -1.7053 0.9676
-2.6976 -7.6301 -1.7107 0.9675
-2.0146 -7.8707 -1.7173 0.9673
-0.5924 -8.2038 -1.7386 0.9669
0.1423 -8.2933 -1.7533 0.9667
0.8897 -8.3293 -1.7707 0.9663
1.6470 -8.3099 -1.7907 0.9660
2.4113 -8.2334 -1.8135 0.9655
4.7136 -7.6425 -1.8980 0.9640
6.2157 -6.9295 -1.9677 0.9627
7.6450 -5.9474 -2.0474 0.9612
8.3171 -5.3533 -2.0908 0.9604
8.9294 -4.6788 -2.1309 0.9596
2.3174 -0.9618 -0.5304 0.9898
9.3509 -2.9351 -2.0717 0.9607
10.4623 -0.3810 -2.2130 0.9581
10.6784 0.5648 -2.2604 0.9572
10.6480 1.5233 -2.2737 0.9570
7.1601 3.1106 -1.6502 0.9686
6.3676 3.4711 -1.5330 0.9708
5.6592 3.7755 -1.4380 0.9726
4.4056 4.2450 -1.2932 0.9753
4.0291 4.6432 -1.2995 0.9752
3.5190 4.8727 -1.2705 0.9757
2.4284 5.0664 -1.1876 0.9773
1.9714 5.2741 -1.1902 0.9772
0.5322 2.9377 -0.6311 0.9879
0.5386 5.9706 -1.2672 0.9758
-0.5821 6.5578 -1.3916 0.9734
-2.9564 10.8071 -2.3683 0.9552
-4.6432 9.7230 -2.2776 0.9569
-7.6566 7.3988 -2.2506 0.9574
-8.4661 5.6658 -2.1533 0.9592
-8.9460 3.9018 -2.0630 0.9609
-9.0700 3.0262 -2.0211 0.9617
-9.0226 0.4903 -1.9100 0.9637
-8.8798 -0.3106 -1.8782 0.9643
-8.4263 -1.8265 -1.8225 0.9654
-7.7722 -3.2126 -1.7777 0.9662
-7.3780 -3.8524 -1.7593 0.9665
-6.9429 -4.4547 -1.7437 0.9668
-5.9611 -5.5417 -1.7204 0.9673
-4.8466 -6.4643 -1.7078 0.9675
-3.6176 -7.2136 -1.7058 0.9675
-2.9654 -7.5203 -1.7088 0.9675
-1.5958 -7.9915 -1.7226 0.9672
-0.8828 -8.1533 -1.7335 0.9670
-0.1537 -8.2638 -1.7471 0.9668
-7.7798 -1.3997 -1.8578 0.9680
-7.5298 -2.0617 -1.8348 0.9684
-7.2342 -2.6942 -1.8143 0.9688
-6.8960 -3.2951 -1.7962 0.9691
-6.5179 -3.8629 -1.7807 0.9693
-5.6523 -4.8929 -1.7570 0.9697
-5.1698 -5.3524 -1.7489 0.9699
-4.1165 -6.1541 -1.7401 0.9700
-3.5501 -6.4939 -1.7394 0.9700
-2.9602 -6.7914 -1.7412 0.9700
-2.3489 -7.0454 -1.7454 0.9699
-1.0703 -7.4175 -1.7613 0.9697
-0.4076 -7.5331 -1.7730 0.9695
0.9527 -7.6158 -1.8039 0.9690
2.3414 -7.4911 -1.8446 0.9683
3.0389 -7.3472 -1.8686 0.9679
6.4048 -5.7590 -2.0243 0.9652
7.0208 -5.2614 -2.0620 0.9646
7.6049 -4.7031 -2.1015 0.9639
7.5638 -3.7911 -1.9885 0.9658
8.4441 -2.4842 -2.0687 0.9645
9.4855 0.6735 -2.2349 0.9617
9.5572 1.5436 -2.2753 0.9610
7.8822 2.7761 -1.9640 0.9662
5.5364 3.8397 -1.5835 0.9727
4.9292 4.1150 -1.5091 0.9740
3.9193 4.6847 -1.4355 0.9752
2.8428 4.9861 -1.3489 0.9767
2.3746 5.1924 -1.3419 0.9768
-0.1103 6.3669 -1.4966 0.9742
-0.7093 6.6306 -1.5672 0.9730
-2.7673 9.4433 -2.3127 0.9604
-3.5374 9.0049 -2.2738 0.9610
-5.4789 7.3273 -2.1503 0.9631
-6.4341 5.9968 -2.0671 0.9645
-7.6614 4.9296 -2.1411 0.9633
-7.9152 4.1459 -2.1000 0.9640
-8.0981 3.3595 -2.0605 0.9646
-8.2127 2.5765 -2.0229 0.9653
-8.2619 1.8020 -1.9874 0.9659
-8.2487 1.0407 -1.9540 0.9664
-8.1763 0.2965 -1.9229 0.9669
-7.6356 -1.7999 -1.8437 0.9683
-7.0365 -3.0582 -1.8032 0.9690
-6.6741 -3.6395 -1.7866 0.9692
-5.8368 -4.6982 -1.7610 0.9697
-4.8660 -5.6093 -1.7452 0.9699
-3.7800 -6.3627 -1.7394 0.9700
-2.5963 -6.9489 -1.7434 0.9700
-0.0043 -7.5789 -1.7812 0.9693
0.6771 -7.6155 -1.7969 0.9691
1.3669 -7.6008 -1.8150 0.9688
4.1475 -6.9994 -1.9121 0.9671
4.8302 -6.7065 -1.9424 0.9666
6.7775 -5.4681 -2.0466 0.9649
7.3751 -4.9340 -2.0855 0.9642
7.8476 -3.4213 -2.0120 0.9654
9.5387 1.1925 -2.2593 0.9613
7.3267 3.0298 -1.8634 0.9679
5.7975 3.7210 -1.6191 0.9721
4.5901 4.2685 -1.4732 0.9746
3.6142 4.8220 -1.4163 0.9755
2.0964 5.3190 -1.3437 0.9768
1.6297 5.5380 -1.3567 0.9766
0.5869 2.9417 -0.7050 0.9878
0.3216 2.9747 -0.7032 0.9878
-0.4626 6.5221 -1.5367 0.9735
-0.9500 5.8848 -1.4010 0.9758
-1.8112 7.1141 -1.7253 0.9703
-3.2355 9.1891 -2.2896 0.9608
-5.2541 7.5771 -2.1670 0.9628
-5.7945 6.9420 -2.1252 0.9635
-7.1828 6.0102 -2.2011 0.9622
-7.5393 5.2414 -2.1580 0.9630
-7.8222 4.4606 -2.1163 0.9637
-8.2499 2.1110 -2.0014 0.9656
-8.2613 1.3439 -1.9671 0.9662
-8.1058 -0.1397 -1.9053 0.9672
-7.7339 -1.5334 -1.8530 0.9681
-7.4746 -2.1898 -1.8305 0.9685
-7.1704 -2.8161 -1.8105 0.9688
-5.0702 -5.4391 -1.7476 0.9699
-2.2251 -7.0905 -1.7466 0.9699
-0.9398 -7.4443 -1.7635 0.9696
1.0897 -7.6129 -1.8075 0.9689
1.7830 -7.5668 -1.8271 0.9686
3.1773 -7.3120 -1.8737 0.9678
5.2332 -6.5025 -1.9617 0.9663
5.8921 -6.1140 -1.9956 0.9657
6.5294 -5.6650 -2.0316 0.9651
7.1396 -5.1553 -2.0697 0.9645
7.7165 -4.5851 -2.1096 0.9638
9.1541 -0.8251 -2.1601 0.9629
9.3687 -0.0060 -2.2019 0.9622
9.5064 0.8445 -2.2430 0.9615
8.7291 2.3887 -2.1270 0.9635
7.6916 2.8632 -1.9289 0.9668
6.0709 3.5967 -1.6584 0.9714
3.2270 4.8227 -1.3638 0.9764
-0.2250 6.4175 -1.5092 0.9740
-0.8353 6.6860 -1.5836 0.9727
-1.2853 5.9270 -1.4254 0.9754
-2.9246 9.3620 -2.3051 0.9605
-4.3830 8.3926 -2.2252 0.9618
-5.0183 7.8200 -2.1838 0.9625
-5.5863 7.2010 -2.1420 0.9632
-6.0850 6.5445 -2.1002 0.9639
-6.5136 5.8587 -2.0590 0.9646
-2.5403 1.9043 -0.7462 0.9870
-7.9571 3.9897 -2.0920 0.9641
-8.2642 1.6496 -1.9806 0.9660
-8.2389 0.8914 -1.9476 0.9665
-8.1551 0.1511 -1.9170 0.9670
-8.0159 -0.5679 -1.8887 0.9675
-7.8246 -1.2625 -1.8627 0.9680
-7.5841 -1.9303 -1.8393 0.9684
-7.2975 -2.5689 -1.8182 0.9687
-6.9677 -3.1763 -1.7997 0.9690
-6.5974 -3.7509 -1.7836 0.9693
-6.1894 -4.2911 -1.7701 0.9695
-3.6666 -6.4286 -1.7393 0.9700
-3.0812 -6.7347 -1.7406 0.9700
-2.4740 -6.9976 -1.7444 0.9700
-1.8470 -7.2159 -1.7506 0.9699
0.1302 -7.5902 -1.7841 0.9693
1.5046 -7.5916 -1.8189 0.9687
2.2005 -7.5135 -1.8400 0.9683
2.8981 -7.3808 -1.8636 0.9679
5.6303 -6.2769 -1.9817 0.9659
2.3151 -0.9608 -0.5891 0.9898
8.3643 -2.6255 -2.0604 0.9646
9.0480 -1.1429 -2.1434 0.9632
9.5496 1.3662 -2.2672 0.9611
8.0834 2.6841 -2.0018 0.9656
7.1486 3.1057 -1.8318 0.9685
6.3581 3.4660 -1.7019 0.9707
5.6666 3.7805 -1.6010 0.9724
1.4440 3.8632 -0.9693 0.9832
0.2778 3.0795 -0.7267 0.9874
-1.0521 5.8558 -1.3983 0.9758
-3.3863 9.0991 -2.2818 0.9609
-4.7717 8.0555 -2.2005 0.9623
-5.3669 7.4541 -2.1587 0.9630
-5.8936 6.8115 -2.1169 0.9637
-6.3503 6.1365 -2.0754 0.9644
-2.4522 1.9790 -0.7406 0.9871
-8.1950 2.7342 -2.0304 0.9651
-7.4177 -2.3166 -1.8264 0.9686
-7.1049 -2.9368 -1.8068 0.9689
-6.3572 -4.0789 -1.7752 0.9694
-5.9277 -4.5978 -1.7631 0.9696
-5.4644 -5.0800 -1.7535 0.9698
-4.9696 -5.5242 -1.7464 0.9699
-4.4455 -5.9293 -1.7417 0.9700
-3.8945 -6.2940 -1.7395 0.9700
-2.1005 -7.1339 -1.7478 0.9699
-0.8087 -7.4692 -1.7657 0.9696
-0.1407 -7.5655 -1.7784 0.9694
-7.1426 -1.2850 -1.8790 0.9705
-6.9200 -1.8948 -1.8577 0.9708
-6.0044 -3.5586 -1.8072 0.9716
-4.7692 -4.9376 -1.7774 0.9720
-4.2973 -5.3272 -1.7721 0.9721
-3.2765 -5.9932 -1.7685 0.9722
-2.7318 -6.2673 -1.7702 0.9721
-2.1672 -6.5005 -1.7742 0.9721
0.2464 -6.9989 -1.8133 0.9715
1.5125 -6.9700 -1.8467 0.9710
2.1509 -6.8815 -1.8668 0.9706
2.7886 -6.7421 -1.8891 0.9703
3.4224 -6.5508 -1.9136 0.9699
4.0483 -6.3064 -1.9403 0.9695
6.9077 -4.2720 -2.1029 0.9670
7.6276 -2.2439 -2.0586 0.9677
8.3806 -0.1540 -2.1703 0.9660
8.5505 1.3810 -2.2426 0.9648
8.5214 2.1702 -2.2768 0.9643
6.9681 3.1778 -1.9829 0.9689
6.2022 3.5275 -1.8474 0.9709
5.5286 3.8343 -1.7420 0.9726
4.9226 4.1096 -1.6603 0.9739
3.3502 4.8198 -1.5198 0.9760
1.3679 3.8711 -1.0630 0.9832
1.4501 5.6689 -1.5150 0.9761
0.4568 2.8096 -0.7370 0.9883
0.4407 6.1158 -1.5876 0.9750
-0.1101 6.3585 -1.6466 0.9741
-2.4715 8.4339 -2.2755 0.9643
-4.3984 7.1290 -2.1689 0.9660
-4.9303 6.5935 -2.1317 0.9666
-5.4021 6.0205 -2.0943 0.9671
-5.8123 5.4173 -2.0572 0.9677
-2.4791 1.9279 -0.8131 0.9871
-7.1901 3.7661 -2.1016 0.9670
-7.5421 1.6450 -1.9987 0.9686
-7.4851 0.2715 -1.9393 0.9695
-7.3768 -0.3913 -1.9127 0.9699
-5.7812 -3.8582 -1.7996 0.9717
-4.4897 -5.1755 -1.7740 0.9721
-4.0017 -5.5428 -1.7701 0.9721
-2.9526 -6.1623 -1.7692 0.9722
-2.3957 -6.4120 -1.7723 0.9721
-1.8202 -6.6201 -1.7777 0.9720
-1.2281 -6.7852 -1.7854 0.9719
-0.6220 -6.9062 -1.7954 0.9718
-0.0040 -6.9817 -1.8077 0.9716
3.7987 -6.4107 -1.9294 0.9697
5.6090 -5.4184 -2.0192 0.9683
6.7037 -4.4849 -2.0883 0.9672
7.1850 -3.9287 -2.1203 0.9667
7.1076 -3.0987 -2.0076 0.9685
7.8201 -1.8527 -2.0808 0.9673
8.5426 1.8531 -2.2633 0.9645
8.2740 2.5854 -2.2444 0.9648
7.3147 3.0248 -2.0494 0.9678
6.4963 3.3933 -1.8977 0.9702
4.5841 4.2630 -1.6208 0.9745
3.0615 4.9495 -1.5069 0.9762
2.5876 5.1618 -1.4950 0.9764
1.6430 5.5832 -1.5069 0.9762
0.5884 2.9489 -0.7786 0.9877
0.3203 2.9630 -0.7717 0.9878
-0.9495 5.8817 -1.5426 0.9757
-1.8085 7.1032 -1.8978 0.9702
-2.8928 8.2156 -2.2552 0.9647
-3.5571 7.8014 -2.2200 0.9652
-4.7243 6.8130 -2.1466 0.9663
-5.2204 6.2542 -2.1093 0.9669
-5.6554 5.6622 -2.0720 0.9675
-7.1005 4.0490 -2.1164 0.9668
-7.4461 2.6319 -2.0448 0.9679
-7.5265 1.9259 -2.0115 0.9684
-6.5968 -2.5908 -1.8350 0.9711
-6.2830 -3.1402 -1.8187 0.9714
-5.9319 -3.6592 -1.8046 0.9716
-5.1268 -4.5995 -1.7833 0.9719
-3.6971 -5.7449 -1.7688 0.9722
-3.1700 -6.0509 -1.7687 0.9722
-2.6212 -6.3169 -1.7708 0.9721
-0.8664 -6.8631 -1.7911 0.9718
-0.2529 -6.9570 -1.8025 0.9716
1.0026 -7.0049 -1.8322 0.9712
1.6392 -6.9564 -1.8505 0.9709
3.5475 -6.5065 -1.9188 0.9698
4.1714 -6.2515 -1.9459 0.9694
7.0066 -4.1633 -2.1102 0.9669
6.9424 -3.3270 -1.9933 0.9687
7.3414 -2.7435 -2.0292 0.9681
7.6935 -2.1159 -2.0659 0.9676
