ply
format ascii 1.0
element vertex 1595
property float32 x
property float32 y
property float32 z
property float32 I
end_header
1.6496 6.0347 0.6718 0.9751
0.5627 6.3751 0.6872 0.9746
-0.0094 6.8558 0.7362 0.9728
-2.3161 2.2225 0.3447 0.9872
12.3443 -3.0310 1.3649 0.9501
14.7315 -0.9140 1.5849 0.9423
8.3686 2.5489 0.9394 0.9654
7.4188 3.0068 0.8596 0.9683
6.6783 3.4299 0.8062 0.9702
5.9710 3.7758 0.7586 0.9720
5.2889 4.0480 0.7152 0.9736
4.6810 4.2972 0.6823 0.9748
3.1847 5.0808 0.6439 0.9762
2.7043 5.3173 0.6406 0.9763
1.7910 5.9649 0.6688 0.9753
0.7142 6.3001 0.6808 0.9748
0.1544 6.5774 0.7065 0.9739
2.3657 -0.8771 0.2709 0.9899
13.0455 -2.3230 1.4229 0.9481
14.9117 -1.2979 1.6073 0.9416
12.3615 0.0320 1.3274 0.9515
8.6633 2.4051 0.9655 0.9645
7.6711 2.8892 0.8802 0.9676
6.1591 3.6837 0.7706 0.9715
5.4571 3.9657 0.7244 0.9732
4.4027 4.5993 0.6837 0.9747
2.3587 5.4876 0.6414 0.9763
1.9312 5.8957 0.6662 0.9754
1.3800 5.9708 0.6581 0.9756
0.3143 6.4982 0.6986 0.9742
-0.2875 6.9936 0.7516 0.9722
-0.9340 7.1173 0.7708 0.9715
-9.8956 -8.5988 1.1098 0.9487
11.5776 -2.2395 0.9982 0.9538
13.1771 -0.1616 1.1156 0.9485
10.0907 1.6962 0.8662 0.9598
6.2658 3.6223 0.6127 0.9714
5.5524 3.9103 0.5749 0.9731
4.4868 4.5498 0.5409 0.9747
3.9605 4.8083 0.5273 0.9753
3.3912 4.9611 0.5087 0.9762
2.8747 5.1368 0.4983 0.9766
2.4355 5.4420 0.5047 0.9764
1.9975 5.8054 0.5197 0.9757
1.4942 6.0538 0.5279 0.9753
0.9497 6.1755 0.5289 0.9752
-0.8212 7.0699 0.6025 0.9718
-2.3539 2.1490 0.2698 0.9873
2.3603 -0.9833 0.2165 0.9898
11.8404 0.6197 1.0037 0.9535
10.4977 1.4975 0.8977 0.9583
9.1538 2.1539 0.7961 0.9630
8.0758 2.6807 0.7203 0.9664
4.5293 4.3703 0.5328 0.9751
4.1042 4.7377 0.5306 0.9752
3.0471 5.1408 0.5059 0.9763
2.5684 5.3765 0.5044 0.9764
1.0946 6.1039 0.5250 0.9754
-1.3306 7.3046 0.6285 0.9706
-2.3187 2.2250 0.2720 0.9872
11.9597 -1.8243 1.0241 0.9526
11.7345 0.3221 0.9937 0.9540
7.4073 3.0021 0.6766 0.9684
6.6687 3.4250 0.6346 0.9704
5.9629 3.7706 0.5972 0.9721
5.2821 4.0428 0.5631 0.9737
4.6800 4.2963 0.5378 0.9748
4.2497 4.6662 0.5343 0.9750
3.1810 5.0748 0.5070 0.9762
2.2719 5.6701 0.5171 0.9758
1.7759 5.9147 0.5228 0.9755
0.7133 6.2923 0.5361 0.9749
2.3673 -0.8777 0.2137 0.9899
12.7819 -3.4774 1.1214 0.9482
11.7174 -2.0865 1.0075 0.9533
12.6443 -1.1005 1.0744 0.9503
12.3291 0.0319 1.0437 0.9517
6.8182 3.2903 0.6409 0.9701
4.8643 4.2477 0.5467 0.9744
3.8755 4.8501 0.5256 0.9754
2.8341 5.2456 0.5047 0.9763
2.3560 5.4812 0.5050 0.9763
1.3783 5.9637 0.5181 0.9757
0.8620 6.2188 0.5315 0.9751
-2.4034 2.1296 0.2718 0.9872
-9.9087 -8.6103 0.8140 0.9488
2.3359 -0.9057 0.1554 0.9900
13.7172 -3.9516 0.8852 0.9444
11.3368 -2.1929 0.7160 0.9548
11.6844 0.9031 0.7267 0.9541
7.7985 2.8057 0.5139 0.9673
6.9379 3.2219 0.4743 0.9698
6.2571 3.6172 0.4482 0.9715
4.9521 4.1963 0.4025 0.9743
4.4813 4.5443 0.3958 0.9747
3.9558 4.8026 0.3858 0.9754
2.8714 5.1309 0.3646 0.9767
1.4925 6.0466 0.3862 0.9753
0.9485 6.1680 0.3870 0.9753
0.4072 6.4355 0.3999 0.9745
-1.5385 7.3980 0.4686 0.9702
-2.3525 2.1477 0.1975 0.9873
2.3482 -0.9783 0.1577 0.9899
11.2061 -2.4580 0.7114 0.9551
12.1947 -0.4528 0.7567 0.9523
11.8394 0.6196 0.7352 0.9536
9.1372 2.1500 0.5821 0.9631
7.1620 3.1120 0.4842 0.9692
6.4546 3.5204 0.4559 0.9710
4.5238 4.3649 0.3898 0.9751
3.0435 5.1348 0.3701 0.9764
2.5654 5.3703 0.3691 0.9764
1.0933 6.0965 0.3841 0.9755
0.5613 6.3593 0.3959 0.9747
-0.0091 6.6413 0.4118 0.9737
-1.3287 7.2941 0.4598 0.9707
-2.3212 2.2274 0.1995 0.9872
11.3194 -2.7794 0.7228 0.9544
12.0493 -0.7476 0.7486 0.9528
11.2356 1.3188 0.7015 0.9557
9.4781 1.9830 0.6005 0.9619
6.6591 3.4201 0.4642 0.9704
5.9548 3.7655 0.4369 0.9722
4.6742 4.2910 0.3935 0.9749
3.6022 4.7453 0.3694 0.9764
3.1773 5.0690 0.3710 0.9763
2.2693 5.6635 0.3783 0.9758
1.7868 5.9509 0.3853 0.9754
1.2359 6.0261 0.3815 0.9756
0.7125 6.2846 0.3922 0.9750
0.1540 6.5606 0.4069 0.9740
-0.4664 7.0641 0.4390 0.9720
2.3699 -0.8786 0.1567 0.9899
12.7036 -3.4561 0.8164 0.9486
11.4158 -2.0328 0.7190 0.9546
11.9070 -1.0363 0.7411 0.9532
9.8416 1.8051 0.6205 0.9607
8.7132 2.4190 0.5607 0.9644
6.8082 3.2855 0.4688 0.9702
4.8583 4.2424 0.4000 0.9745
3.3118 5.0028 0.3720 0.9762
2.8308 5.2396 0.3693 0.9764
1.9267 5.8819 0.3838 0.9755
1.3767 5.9566 0.3791 0.9758
0.8609 6.2113 0.3888 0.9752
-9.9219 -8.6217 0.5183 0.9487
2.3360 -0.9057 0.0988 0.9900
14.5736 -2.8191 0.5853 0.9423
7.7861 2.8012 0.3263 0.9674
5.5379 3.9000 0.2671 0.9732
4.4759 4.5388 0.2514 0.9748
3.9512 4.7970 0.2451 0.9754
2.4299 5.4295 0.2346 0.9765
0.9474 6.1606 0.2458 0.9754
-0.8214 7.0718 0.2807 0.9719
2.3391 -0.9745 0.0999 0.9899
11.3863 -2.4975 0.4597 0.9544
11.7053 -1.4889 0.4653 0.9539
11.8384 0.6196 0.4674 0.9537
10.7644 1.5355 0.4287 0.9574
6.4455 3.5154 0.2895 0.9710
5.7124 3.8142 0.2708 0.9729
4.5182 4.3596 0.2476 0.9752
4.0944 4.7265 0.2466 0.9753
3.5021 4.8596 0.2362 0.9763
3.0400 5.1289 0.2351 0.9764
1.6438 6.0134 0.2458 0.9754
1.0919 6.0893 0.2439 0.9755
-0.0091 6.6328 0.2615 0.9738
-1.3268 7.2837 0.2919 0.9708
11.6115 -1.7712 0.4631 0.9541
12.0484 -0.7476 0.4760 0.9528
11.7061 0.3213 0.4618 0.9542
9.4604 1.9793 0.3811 0.9620
8.4034 2.5595 0.3464 0.9654
5.8921 3.7259 0.2749 0.9725
5.2685 4.0324 0.2616 0.9738
4.2395 4.6551 0.2483 0.9751
3.5980 4.7397 0.2346 0.9765
3.1736 5.0631 0.2356 0.9764
2.2667 5.6570 0.2403 0.9759
1.2344 6.0189 0.2423 0.9757
0.1538 6.5523 0.2584 0.9741
-0.4658 7.0547 0.2788 0.9721
-1.1250 7.1840 0.2867 0.9713
11.9061 -1.0363 0.4712 0.9533
7.6347 2.8755 0.3217 0.9679
6.1338 3.6686 0.2818 0.9718
4.8522 4.2371 0.2540 0.9745
2.8276 5.2335 0.2346 0.9765
2.3505 5.4686 0.2347 0.9765
1.9244 5.8751 0.2438 0.9756
1.3751 5.9496 0.2408 0.9759
0.8599 6.2038 0.2470 0.9752
0.3131 6.4737 0.2556 0.9744
-9.9351 -8.6332 0.2223 0.9487
2.3361 -0.9058 0.0423 0.9900
15.5173 -1.5831 0.2635 0.9395
11.6318 0.8990 0.1971 0.9544
3.3847 4.9515 0.1013 0.9763
0.9462 6.1532 0.1052 0.9754
0.4061 6.4195 0.1087 0.9746
-0.8215 7.0727 0.1203 0.9719
-2.3516 2.1470 0.0538 0.9873
2.3350 -0.9728 0.0427 0.9899
18.1568 -2.3096 0.3092 0.9294
14.9906 -0.5567 0.2534 0.9418
10.7426 1.5324 0.1833 0.9575
8.0362 2.6676 0.1430 0.9667
6.5663 3.5813 0.1263 0.9705
5.7049 3.8091 0.1159 0.9729
5.0989 4.1074 0.1106 0.9741
4.0895 4.7209 0.1055 0.9753
3.4981 4.8540 0.1011 0.9763
2.5595 5.3580 0.1003 0.9765
2.1432 5.7594 0.1038 0.9757
0.5599 6.3437 0.1076 0.9748
-0.0091 6.6243 0.1119 0.9738
19.6941 -3.0041 0.3365 0.9234
14.8841 -0.9235 0.2519 0.9421
11.1882 1.3132 0.1903 0.9559
9.4428 1.9756 0.1630 0.9621
8.3893 2.5552 0.1481 0.9655
6.7402 3.4617 0.1280 0.9701
5.2618 4.0272 0.1119 0.9738
4.2345 4.6495 0.1062 0.9752
3.5938 4.7342 0.1004 0.9765
3.1700 5.0573 0.1008 0.9764
2.6919 5.2928 0.1003 0.9765
1.7826 5.9371 0.1047 0.9755
0.7107 6.2693 0.1066 0.9751
0.1536 6.5440 0.1106 0.9742
-0.4652 7.0454 0.1193 0.9721
-1.1234 7.1739 0.1227 0.9714
2.3783 -0.8817 0.0428 0.9899
13.9973 -3.8080 0.2450 0.9436
15.4592 -1.3455 0.2621 0.9398
12.2334 0.0317 0.2066 0.9522
11.3338 1.0456 0.1923 0.9555
9.8037 1.7981 0.1684 0.9609
8.6832 2.4107 0.1522 0.9646
7.6227 2.8710 0.1376 0.9679
6.2489 3.7375 0.1230 0.9713
4.8462 4.2318 0.1087 0.9746
4.3815 4.5771 0.1070 0.9750
3.8618 4.8330 0.1045 0.9756
3.3041 4.9912 0.1011 0.9763
2.8243 5.2276 0.1004 0.9765
2.3478 5.4623 0.1004 0.9765
1.9222 5.8683 0.1043 0.9756
-2.3946 2.1218 0.0540 0.9873
-9.9308 -8.6295 -0.0741 0.9487
2.3361 -0.9058 -0.0141 0.9900
15.4717 -1.5785 -0.0876 0.9397
14.1754 -0.1739 -0.0798 0.9449
11.6057 0.8970 -0.0655 0.9545
10.0116 1.6829 -0.0572 0.9602
6.9073 3.2077 -0.0429 0.9700
6.3483 3.6699 -0.0413 0.9711
4.9335 4.1806 -0.0364 0.9745
4.4651 4.5278 -0.0358 0.9749
3.9419 4.7857 -0.0349 0.9755
2.8615 5.1133 -0.0330 0.9768
2.4243 5.4171 -0.0334 0.9765
2.0028 5.8207 -0.0347 0.9757
1.4872 6.0254 -0.0349 0.9755
-0.1809 6.8964 -0.0388 0.9728
-0.8216 7.0737 -0.0401 0.9719
-1.5317 7.3658 -0.0424 0.9704
-2.3513 2.1466 -0.0179 0.9873
2.3309 -0.9711 -0.0142 0.9900
14.9486 -0.5551 -0.0842 0.9419
11.8365 0.6195 -0.0667 0.9537
10.7208 1.5293 -0.0610 0.9576
9.0878 2.1384 -0.0526 0.9633
8.0231 2.6632 -0.0476 0.9668
7.1298 3.0980 -0.0438 0.9694
5.0924 4.1023 -0.0368 0.9742
4.5073 4.3490 -0.0353 0.9753
4.0847 4.7153 -0.0351 0.9754
3.4940 4.8483 -0.0336 0.9764
3.0331 5.1171 -0.0335 0.9765
2.5566 5.3519 -0.0334 0.9766
1.0893 6.0748 -0.0347 0.9756
0.5592 6.3359 -0.0358 0.9749
-0.6487 7.1268 -0.0403 0.9718
-2.3289 2.2348 -0.0182 0.9872
19.6195 -2.9927 -0.1117 0.9237
14.8830 -0.9234 -0.0840 0.9421
11.6893 0.3208 -0.0658 0.9543
9.4253 1.9720 -0.0542 0.9622
6.7394 3.4613 -0.0427 0.9701
5.8763 3.7159 -0.0391 0.9726
5.2550 4.0221 -0.0373 0.9739
4.6570 4.2752 -0.0356 0.9750
4.2294 4.6440 -0.0354 0.9752
3.5896 4.7287 -0.0334 0.9765
3.1663 5.0515 -0.0336 0.9764
2.6888 5.2867 -0.0334 0.9766
0.7098 6.2617 -0.0355 0.9751
0.1535 6.5358 -0.0368 0.9742
-0.4646 7.0361 -0.0397 0.9722
15.4105 -1.3413 -0.0871 0.9400
11.3090 1.0433 -0.0639 0.9556
9.7849 1.7947 -0.0560 0.9610
8.6683 2.4065 -0.0506 0.9647
6.7785 3.2712 -0.0424 0.9703
6.2404 3.7324 -0.0409 0.9713
5.4217 3.9400 -0.0377 0.9735
4.8402 4.2266 -0.0362 0.9746
3.3003 4.9854 -0.0337 0.9764
1.9200 5.8615 -0.0347 0.9756
1.3719 5.9356 -0.0343 0.9759
0.8578 6.1888 -0.0352 0.9753
-0.2856 6.9479 -0.0392 0.9726
-9.9662 -8.6602 -0.3718 0.9485
7.7490 2.7879 -0.2319 0.9676
6.8971 3.2030 -0.2141 0.9700
5.5162 3.8848 -0.1900 0.9734
4.9274 4.1754 -0.1819 0.9745
4.4597 4.5224 -0.1788 0.9749
3.3769 4.9401 -0.1685 0.9763
2.8582 5.1074 -0.1648 0.9769
2.4215 5.4109 -0.1669 0.9766
0.9440 6.1384 -0.1749 0.9755
-0.8217 7.0746 -0.2005 0.9719
-2.3509 2.1463 -0.0896 0.9873
2.3269 -0.9694 -0.0710 0.9900
11.3837 -2.4970 -0.3281 0.9544
14.9069 -0.5536 -0.4200 0.9421
11.8355 0.6194 -0.3337 0.9537
10.6991 1.5262 -0.3043 0.9577
8.0100 2.6589 -0.2376 0.9668
5.6898 3.7991 -0.1926 0.9730
5.0860 4.0971 -0.1839 0.9742
4.5018 4.3437 -0.1761 0.9753
3.4900 4.8427 -0.1681 0.9764
2.5537 5.3458 -0.1668 0.9766
1.6381 5.9924 -0.1749 0.9754
-0.6479 7.1172 -0.2012 0.9718
-2.3315 2.2373 -0.0910 0.9872
14.8818 -0.9234 -0.4198 0.9421
11.6883 0.3208 -0.3292 0.9543
11.1412 1.3077 -0.3159 0.9561
9.4078 1.9683 -0.2706 0.9623
8.5299 2.5980 -0.2511 0.9649
6.7385 3.4609 -0.2133 0.9701
5.2484 4.0170 -0.1861 0.9739
4.6513 4.2699 -0.1778 0.9751
4.2244 4.6385 -0.1767 0.9752
2.6857 5.2807 -0.1668 0.9766
-1.1203 7.1539 -0.2039 0.9714
11.2843 1.0410 -0.3191 0.9557
6.7687 3.2664 -0.2116 0.9704
3.8528 4.8217 -0.1738 0.9756
3.2965 4.9797 -0.1682 0.9764
2.8179 5.2156 -0.1669 0.9766
2.3425 5.4498 -0.1670 0.9765
1.3702 5.9286 -0.1713 0.9759
0.8568 6.1813 -0.1757 0.9753
0.3119 6.4495 -0.1818 0.9745
-0.2852 6.9389 -0.1955 0.9726
-0.9263 7.0585 -0.2005 0.9719
-2.3898 2.1176 -0.0899 0.9873
-9.9103 -8.6116 -0.6658 0.9488
2.3363 -0.9059 -0.1271 0.9900
11.5538 0.8930 -0.5877 0.9546
9.9725 1.6764 -0.5128 0.9603
8.9772 2.3492 -0.4706 0.9635
7.7367 2.7834 -0.4170 0.9676
6.8870 3.1983 -0.3851 0.9700
6.3395 3.6649 -0.3714 0.9711
5.5091 3.8797 -0.3417 0.9734
3.9326 4.7745 -0.3137 0.9755
1.9982 5.8073 -0.3115 0.9757
0.9428 6.1311 -0.3146 0.9755
-2.3505 2.1459 -0.1614 0.9873
11.3954 -2.4995 -0.5916 0.9543
17.9666 -2.2854 -0.9185 0.9300
14.8653 -0.5520 -0.7544 0.9422
11.8168 0.6184 -0.6001 0.9537
9.0552 2.1307 -0.4718 0.9634
7.1084 3.0888 -0.3931 0.9694
6.5388 3.5663 -0.3777 0.9706
5.0796 4.0919 -0.3308 0.9742
4.4467 4.2905 -0.3134 0.9756
4.0751 4.7042 -0.3156 0.9754
3.4859 4.8371 -0.3024 0.9764
3.0261 5.1054 -0.3010 0.9765
2.5508 5.3397 -0.3001 0.9766
2.1358 5.7396 -0.3106 0.9758
1.6362 5.9855 -0.3147 0.9755
1.0867 6.0603 -0.3122 0.9756
0.5578 6.3204 -0.3218 0.9749
-0.6470 7.1077 -0.3620 0.9718
-2.3383 2.2438 -0.1644 0.9871
19.2930 -2.9429 -0.9897 0.9248
14.8807 -0.9233 -0.7561 0.9420
11.6874 0.3208 -0.5929 0.9543
9.3904 1.9647 -0.4865 0.9623
8.5156 2.5937 -0.4515 0.9650
5.8606 3.7059 -0.3517 0.9726
5.2417 4.0119 -0.3348 0.9739
4.6456 4.2647 -0.3198 0.9751
4.2194 4.6329 -0.3178 0.9752
3.5813 4.7177 -0.3004 0.9766
3.1591 5.0399 -0.3017 0.9765
2.6827 5.2747 -0.3001 0.9766
2.2563 5.6311 -0.3076 0.9760
1.7764 5.9165 -0.3133 0.9756
-1.1187 7.1439 -0.3667 0.9715
13.9989 -3.8085 -0.7357 0.9436
9.7475 1.7878 -0.5026 0.9611
5.4077 3.9298 -0.3390 0.9736
4.3657 4.5607 -0.3202 0.9750
3.2927 4.9740 -0.3025 0.9764
2.8147 5.2096 -0.3003 0.9766
2.3398 5.4436 -0.3005 0.9765
1.9155 5.8480 -0.3121 0.9757
1.3686 5.9217 -0.3082 0.9760
0.8558 6.1739 -0.3161 0.9753
0.3115 6.4414 -0.3271 0.9745
-2.3883 2.1163 -0.1618 0.9873
-18.6513 -5.1292 -1.4183 0.9254
-16.5638 -7.9437 -1.3469 0.9290
-14.3318 -10.3618 -1.2967 0.9315
-9.8910 -8.5948 -0.9608 0.9488
-6.7859 -15.6827 -1.2529 0.9338
-5.3896 -16.3197 -1.2602 0.9334
-0.9049 -17.8133 -1.3078 0.9310
0.7024 -18.1657 -1.3329 0.9297
2.3742 -18.4395 -1.3632 0.9281
5.9347 -18.7292 -1.4406 0.9242
15.4414 -1.5754 -1.1381 0.9396
11.5280 0.8910 -0.8478 0.9547
9.9531 1.6731 -0.7400 0.9603
7.7244 2.7790 -0.6019 0.9676
5.5019 3.8747 -0.4934 0.9734
3.3691 4.9287 -0.4377 0.9763
2.4160 5.3985 -0.4337 0.9766
1.4876 6.0269 -0.4552 0.9754
0.4041 6.3878 -0.4693 0.9747
-0.1802 6.8697 -0.5039 0.9728
-0.8219 7.0765 -0.5224 0.9718
-1.5251 7.3338 -0.5492 0.9704
-11.0724 -13.1073 -1.2581 0.9335
-5.7822 -16.1495 -1.2577 0.9335
0.2494 -18.0754 -1.3255 0.9301
1.9028 -18.3716 -1.3543 0.9286
5.4212 -18.7111 -1.4284 0.9248
17.4928 -2.2251 -1.2929 0.9317
11.7892 0.6170 -0.8656 0.9538
9.0389 2.1269 -0.6809 0.9634
6.5296 3.5613 -0.5453 0.9706
5.6748 3.7891 -0.5003 0.9730
4.0702 4.6986 -0.4558 0.9754
3.4819 4.8315 -0.4367 0.9764
3.0226 5.0996 -0.4347 0.9765
1.0854 6.0531 -0.4509 0.9756
0.5571 6.3126 -0.4647 0.9749
-0.0090 6.5905 -0.4832 0.9739
-2.3467 2.2519 -0.2385 0.9870
-17.1591 -7.2039 -1.3645 0.9281
-12.6347 -11.8914 -1.2722 0.9328
-11.4171 -12.8534 -1.2605 0.9334
-8.8732 -14.5547 -1.2499 0.9339
-4.7547 -16.5806 -1.2647 0.9332
-3.2897 -17.1180 -1.2781 0.9325
-0.1987 -17.9792 -1.3184 0.9304
4.9140 -18.6855 -1.4166 0.9254
6.7687 -18.7424 -1.4611 0.9232
11.0945 1.3022 -0.8191 0.9562
8.5014 2.5894 -0.6516 0.9650
7.3281 2.9700 -0.5798 0.9688
6.7355 3.4593 -0.5552 0.9701
4.6399 4.2595 -0.4618 0.9751
4.2144 4.6274 -0.4589 0.9752
3.5771 4.7122 -0.4338 0.9766
1.2271 5.9835 -0.4479 0.9758
-0.4627 7.0083 -0.5150 0.9722
-19.4744 -3.8226 -1.4552 0.9235
-17.4525 -6.8221 -1.3739 0.9276
-16.3837 -8.1589 -1.3420 0.9292
-10.5158 -13.5010 -1.2548 0.9337
-9.2358 -14.3354 -1.2504 0.9339
-7.9169 -15.0990 -1.2500 0.9339
-6.5570 -15.7933 -1.2538 0.9337
-5.1531 -16.4189 -1.2618 0.9333
-2.1997 -17.4624 -1.2905 0.9318
-0.6421 -17.8771 -1.3116 0.9308
0.9756 -18.2168 -1.3376 0.9294
2.6586 -18.4771 -1.3687 0.9279
4.4129 -18.6527 -1.4054 0.9260
6.2448 -18.7365 -1.4481 0.9238
17.9942 -8.5690 -1.4613 0.9232
12.1671 0.0315 -0.8921 0.9524
11.2351 1.0365 -0.8273 0.9558
6.2150 3.7172 -0.5310 0.9714
5.4008 3.9247 -0.4895 0.9736
4.8222 4.2109 -0.4694 0.9747
4.3605 4.5552 -0.4624 0.9750
3.2889 4.9682 -0.4369 0.9764
2.3371 5.4374 -0.4339 0.9765
1.9133 5.8412 -0.4507 0.9756
1.3670 5.9147 -0.4451 0.9759
0.8547 6.1665 -0.4565 0.9753
0.3111 6.4334 -0.4723 0.9745
-0.2845 6.9208 -0.5079 0.9726
-0.9237 7.0391 -0.5205 0.9719
-18.7633 -4.9589 -1.4230 0.9251
-14.4602 -10.2361 -1.2990 0.9314
-16.1765 -2.9264 -1.5782 0.9361
-12.0487 -8.7112 -1.4274 0.9420
-9.8405 -8.5510 -1.2516 0.9490
-9.4053 -9.7776 -1.3025 0.9469
-8.4422 -10.5128 -1.2944 0.9473
-5.3436 -12.3493 -1.2918 0.9474
-3.1005 -13.2678 -1.3081 0.9467
-1.9234 -13.6328 -1.3218 0.9462
0.5477 -14.1645 -1.3609 0.9446
8.0200 -15.1939 -1.6494 0.9333
9.6539 -14.8944 -1.7040 0.9312
13.0719 -13.9228 -1.8335 0.9261
14.8531 -13.2257 -1.9093 0.9232
17.8092 -8.8078 -1.9074 0.9233
11.3731 0.8790 -1.0951 0.9552
9.9336 1.6698 -0.9671 0.9603
8.9669 2.3465 -0.8899 0.9634
7.7121 2.7746 -0.7869 0.9676
6.8668 3.1889 -0.7269 0.9700
5.4947 3.8696 -0.6452 0.9734
3.9234 4.7632 -0.5924 0.9755
3.3652 4.9230 -0.5725 0.9763
2.8484 5.0899 -0.5600 0.9768
2.4132 5.3923 -0.5672 0.9765
1.9936 5.7939 -0.5883 0.9757
0.4876 3.1708 -0.3080 0.9872
-18.8541 5.6860 -1.8906 0.9239
-18.5313 3.8241 -1.8166 0.9268
-18.1103 2.0753 -1.7501 0.9294
-17.6029 0.4347 -1.6905 0.9317
-16.3685 -2.5428 -1.5903 0.9356
-14.8909 -5.1493 -1.5127 0.9386
-13.2129 -7.4209 -1.4549 0.9409
-10.5847 -8.7457 -1.3182 0.9463
-9.6668 -9.5621 -1.3054 0.9468
-8.7134 -10.3147 -1.2963 0.9472
-4.5505 -12.7094 -1.2960 0.9472
-2.2544 -13.5378 -1.3176 0.9463
0.1947 -14.1071 -1.3545 0.9449
1.4798 -14.2879 -1.3790 0.9439
9.1947 -14.9893 -1.6882 0.9318
12.5851 -14.0902 -1.8138 0.9269
14.7826 -0.5489 -1.4202 0.9423
11.7373 0.6143 -1.1284 0.9539
10.3284 1.4733 -1.0016 0.9589
9.0227 2.1230 -0.8899 0.9634
7.0871 3.0795 -0.7419 0.9694
3.0192 5.0937 -0.5685 0.9765
1.6324 5.9715 -0.5943 0.9754
0.5586 3.1151 -0.3038 0.9874
0.5565 6.3049 -0.6077 0.9749
-0.0090 6.5821 -0.6319 0.9739
-2.3552 2.2600 -0.3134 0.9870
-18.6315 4.3300 -1.8364 0.9260
-18.2365 2.5503 -1.7678 0.9287
-17.7520 0.8802 -1.7064 0.9311
-15.1090 -4.8078 -1.5222 0.9383
-13.4569 -7.1240 -1.4618 0.9406
-12.5635 -8.1648 -1.4385 0.9416
-9.9255 -9.3416 -1.3086 0.9467
-8.9819 -10.1118 -1.2985 0.9471
-8.0033 -10.8194 -1.2920 0.9474
-5.9415 -12.0504 -1.2899 0.9474
-3.7386 -13.0373 -1.3021 0.9470
-1.3884 -13.7742 -1.3291 0.9459
-0.1552 -14.0442 -1.3484 0.9451
2.4340 -14.3724 -1.3995 0.9431
7.1335 -15.3123 -1.6218 0.9344
8.7393 -15.0751 -1.6729 0.9324
19.1482 -2.9208 -1.8596 0.9251
14.8783 -0.9231 -1.4311 0.9419
9.3556 1.9574 -0.9176 0.9623
8.4872 2.5850 -0.8518 0.9650
6.7259 3.4544 -0.7259 0.9701
5.8449 3.6960 -0.6639 0.9726
4.6342 4.2542 -0.6039 0.9750
3.5729 4.7067 -0.5673 0.9765
3.1518 5.0283 -0.5697 0.9764
2.2511 5.6181 -0.5811 0.9760
1.7723 5.9027 -0.5917 0.9755
0.7064 6.2313 -0.6021 0.9751
0.1527 6.5029 -0.6245 0.9742
-0.4588 6.9483 -0.6685 0.9724
-1.1156 7.1239 -0.6923 0.9714
-18.7237 4.8448 -1.8568 0.9252
-17.8950 1.3337 -1.7228 0.9304
-17.3527 -0.2605 -1.6661 0.9326
-16.7382 -1.7541 -1.6158 0.9346
-14.5345 -5.6814 -1.4982 0.9392
-13.6976 -6.8212 -1.4691 0.9404
-9.6559 -8.6456 -1.2443 0.9493
-9.2477 -9.9041 -1.3009 0.9470
-8.2788 -10.6289 -1.2934 0.9473
-7.2750 -11.2920 -1.2896 0.9475
-6.2364 -11.8939 -1.2893 0.9475
-5.1627 -12.4350 -1.2926 0.9473
-4.0534 -12.9149 -1.2995 0.9471
-2.9075 -13.3328 -1.3101 0.9466
-1.7241 -13.6872 -1.3244 0.9461
-0.5020 -13.9760 -1.3426 0.9454
3.4107 -14.4165 -1.4223 0.9422
5.1541 -15.4642 -1.5649 0.9366
6.6961 -15.3593 -1.6086 0.9349
11.6228 -14.3924 -1.7760 0.9284
13.3647 -13.8175 -1.8455 0.9257
17.9380 -8.5423 -1.9074 0.9233
15.3366 -4.1724 -1.5259 0.9381
12.1661 0.0315 -1.1680 0.9523
8.7825 2.4382 -0.8751 0.9640
5.3937 3.9196 -0.6401 0.9736
4.8162 4.2057 -0.6139 0.9746
3.2851 4.9625 -0.5714 0.9764
2.3344 5.4311 -0.5675 0.9765
1.9111 5.8345 -0.5894 0.9756
0.3108 6.4254 -0.6176 0.9745
-0.9225 7.0294 -0.6806 0.9719
-18.0317 1.7954 -1.7397 0.9298
-16.2543 -2.7730 -1.5830 0.9359
-15.5333 -4.1052 -1.5425 0.9375
-13.9348 -6.5124 -1.4767 0.9401
-13.0654 -7.5955 -1.4509 0.9411
-12.1533 -8.6031 -1.4295 0.9419
-9.9681 -8.4884 -1.2570 0.9487
-14.2513 -1.2798 -1.6997 0.9440
-13.7450 -2.4865 -1.6592 0.9453
-13.1773 -3.6238 -1.6234 0.9464
-12.5534 -4.6933 -1.5920 0.9474
-11.8780 -5.6965 -1.5648 0.9483
-10.3869 -7.5097 -1.5225 0.9497
-8.1312 -8.4530 -1.3932 0.9539
-6.4441 -9.6832 -1.3817 0.9542
-3.6674 -11.1051 -1.3892 0.9540
-2.6789 -11.4636 -1.3984 0.9537
0.4774 -12.3466 -1.4677 0.9514
2.9199 -13.2151 -1.6076 0.9469
5.4572 -13.0431 -1.6795 0.9446
8.1057 -12.5058 -1.7703 0.9417
10.8435 -11.5494 -1.8818 0.9382
12.2347 -10.8942 -1.9460 0.9361
2.3379 -0.9065 -0.2979 0.9900
15.2112 -4.3820 -1.8804 0.9382
12.6885 -0.1557 -1.5073 0.9502
11.3094 0.8741 -1.3474 0.9553
9.6333 1.6194 -1.1604 0.9614
8.6686 2.2685 -1.0644 0.9645
6.8567 3.1842 -0.8980 0.9700
4.4382 4.5006 -0.7508 0.9749
2.8451 5.0840 -0.6920 0.9768
1.9913 5.7872 -0.7270 0.9756
1.4886 6.0310 -0.7379 0.9753
0.4031 6.3719 -0.7584 0.9746
-0.1797 6.8519 -0.8142 0.9728
-0.8221 7.0784 -0.8465 0.9717
-2.3494 2.1449 -0.3779 0.9873
-15.3545 9.6505 -2.1542 0.9296
-15.3965 3.1772 -1.8674 0.9386
-14.3803 -0.9319 -1.7118 0.9436
-13.8922 -2.1581 -1.6700 0.9449
-12.0707 -5.4242 -1.5719 0.9481
-11.3603 -6.3804 -1.5477 0.9489
-10.6046 -7.2728 -1.5275 0.9495
-9.2436 -7.6376 -1.4243 0.9528
-8.3547 -8.2642 -1.3959 0.9538
-7.5378 -8.9231 -1.3875 0.9540
-6.6866 -9.5257 -1.3825 0.9542
-3.9367 -10.9950 -1.3872 0.9540
-1.9459 -11.6854 -1.4072 0.9534
3.8222 -13.1922 -1.6315 0.9462
5.0976 -13.0877 -1.6684 0.9450
7.7317 -12.6042 -1.7564 0.9422
9.0854 -12.2120 -1.8080 0.9405
11.8471 -11.0890 -1.9276 0.9367
13.2436 -10.3412 -1.9959 0.9346
2.3158 -0.9647 -0.2980 0.9899
17.3653 -5.4733 -2.1628 0.9293
11.7976 0.6174 -1.4033 0.9535
8.9044 2.0952 -1.0866 0.9638
7.9580 2.6416 -0.9960 0.9668
7.0765 3.0749 -0.9165 0.9694
4.0606 4.6875 -0.7367 0.9753
3.4738 4.8202 -0.7058 0.9764
3.0157 5.0878 -0.7025 0.9765
1.6305 5.9645 -0.7345 0.9754
0.5531 3.0845 -0.3722 0.9875
-0.6444 7.0791 -0.8444 0.9718
-15.5837 5.1255 -1.9487 0.9361
-15.2205 2.1286 -1.8256 0.9400
-14.5039 -0.5785 -1.7242 0.9432
-14.0344 -1.8244 -1.6811 0.9446
-9.6140 -7.5496 -1.4520 0.9520
-8.5755 -8.0710 -1.3988 0.9537
-6.0512 -9.9259 -1.3809 0.9543
-4.2035 -10.8804 -1.3855 0.9541
-3.2322 -11.2716 -1.3929 0.9539
-0.1336 -12.0839 -1.4355 0.9525
0.9887 -12.5922 -1.5004 0.9504
3.4730 -13.2061 -1.6220 0.9465
6.0363 -12.9570 -1.6979 0.9440
7.3594 -12.6947 -1.7430 0.9426
10.0754 -11.8608 -1.8486 0.9392
14.2524 -9.7171 -2.0490 0.9329
15.7884 -7.0428 -2.0536 0.9327
17.0285 -5.8361 -2.1382 0.9301
18.2199 -4.4737 -2.2286 0.9272
19.0762 -2.9099 -2.2922 0.9252
14.8771 -0.9231 -1.7706 0.9417
11.6845 0.3207 -1.3885 0.9540
9.1486 1.9141 -1.1103 0.9631
5.8370 3.6910 -0.8204 0.9726
1.7702 5.8958 -0.7312 0.9755
0.6373 3.1073 -0.3768 0.9873
-1.1140 7.1139 -0.8553 0.9714
-15.4580 8.8797 -2.1176 0.9307
-15.5924 7.1890 -2.0395 0.9332
-15.6017 5.5647 -1.9676 0.9355
-15.2939 2.5277 -1.8413 0.9395
-14.9987 1.1178 -1.7866 0.9412
-14.6220 -0.2195 -1.7371 0.9428
-13.6548 -2.6803 -1.6530 0.9455
-12.4447 -4.8645 -1.5872 0.9476
-11.7610 -5.8568 -1.5607 0.9485
-11.0302 -6.7845 -1.5382 0.9492
-8.7934 -7.8734 -1.4020 0.9536
-7.9962 -8.5638 -1.3918 0.9539
-6.2978 -9.7753 -1.3813 0.9542
-5.3989 -10.2967 -1.3810 0.9542
-3.5053 -11.1687 -1.3905 0.9539
-0.4322 -12.0323 -1.4302 0.9527
0.6661 -12.4373 -1.4795 0.9511
5.6732 -13.0130 -1.6863 0.9444
11.0739 -11.4491 -1.8921 0.9379
17.8947 -4.8683 -2.2029 0.9280
19.0388 -3.3902 -2.2971 0.9251
15.0612 -1.3109 -1.7958 0.9409
12.1651 0.0315 -1.4451 0.9522
10.9783 1.0128 -1.3096 0.9566
8.5943 2.3860 -1.0595 0.9647
7.5513 2.8441 -0.9585 0.9680
6.7294 3.2475 -0.8876 0.9704
3.8347 4.7991 -0.7297 0.9756
2.8050 5.1917 -0.7010 0.9765
2.3317 5.4249 -0.7014 0.9765
0.8527 6.1516 -0.7377 0.9753
0.3104 6.4173 -0.7632 0.9745
-0.2837 6.9028 -0.8206 0.9726
-0.9212 7.0197 -0.8410 0.9719
-15.3965 9.3607 -2.1404 0.9300
-15.5682 7.6525 -2.0606 0.9325
-15.3602 2.9325 -1.8575 0.9390
-15.0894 1.5024 -1.8013 0.9407
-14.7344 0.1449 -1.7503 0.9424
-14.3038 -1.1406 -1.7045 0.9438
-12.6258 -4.5771 -1.5953 0.9473
-11.9559 -5.5876 -1.5676 0.9482
-10.4749 -7.4150 -1.5245 0.9496
-9.0494 -7.7062 -1.4119 0.9532
-11.4800 -3.1571 -1.6870 0.9530
-10.3963 -4.9859 -1.6337 0.9545
-9.7813 -5.8179 -1.6125 0.9551
-8.4214 -7.3178 -1.5808 0.9559
-6.9053 -8.5989 -1.5626 0.9564
-4.3204 -9.9846 -1.5415 0.9570
-3.4394 -10.4145 -1.5540 0.9567
-2.5297 -10.8252 -1.5751 0.9561
-1.5654 -11.0952 -1.5876 0.9557
-0.5742 -11.3029 -1.6036 0.9553
1.4835 -11.5219 -1.6460 0.9542
2.5470 -11.5273 -1.6727 0.9534
4.7332 -11.3127 -1.7375 0.9517
10.3928 -9.2541 -1.9717 0.9453
11.5174 -8.5413 -2.0317 0.9437
2.3394 -0.9071 -0.3555 0.9899
14.5697 -4.1972 -2.1483 0.9406
15.4052 -2.9799 -2.2232 0.9386
12.6548 -0.1552 -1.7932 0.9502
9.8265 1.6518 -1.4118 0.9605
8.4583 2.2134 -1.2388 0.9653
7.4697 2.6874 -1.1248 0.9684
6.2589 3.6183 -1.0243 0.9712
4.8966 4.1493 -0.9094 0.9744
3.9141 4.7520 -0.8723 0.9754
3.3573 4.9115 -0.8430 0.9763
2.4077 5.3799 -0.8351 0.9765
1.9890 5.7804 -0.8662 0.9756
1.4875 6.0267 -0.8795 0.9752
0.4809 3.1272 -0.4483 0.9873
-0.1795 6.8430 -0.9699 0.9727
-4.1538 13.6976 -2.0281 0.9438
-7.1916 17.8064 -2.7210 0.9254
-10.5328 13.7962 -2.4593 0.9323
-11.3262 12.3679 -2.3762 0.9345
-13.0791 6.6720 -2.0804 0.9424
-13.2078 5.3108 -2.0170 0.9441
-12.7560 0.3150 -1.8079 0.9498
-8.6201 -7.1224 -1.5844 0.9558
-7.8911 -7.8056 -1.5727 0.9561
-7.1247 -8.4340 -1.5643 0.9564
-6.3194 -9.0025 -1.5585 0.9565
-5.4365 -9.4374 -1.5432 0.9570
-4.5632 -9.8658 -1.5402 0.9570
-2.7904 -10.7300 -1.5709 0.9562
1.1919 -11.5077 -1.6392 0.9543
3.3278 -11.4856 -1.6943 0.9528
7.8009 -10.4854 -1.8517 0.9486
8.9403 -10.0095 -1.9016 0.9472
10.0779 -9.4330 -1.9559 0.9458
11.2064 -8.7505 -2.0146 0.9442
2.3135 -0.9638 -0.3551 0.9899
15.1808 -3.3298 -2.2021 0.9391
11.7734 0.6162 -1.6705 0.9535
10.2812 1.4666 -1.4715 0.9589
8.8028 2.0713 -1.2813 0.9641
7.7198 2.5626 -1.1525 0.9677
5.6522 3.7740 -0.9630 0.9729
4.0558 4.6819 -0.8777 0.9753
3.4697 4.8146 -0.8409 0.9763
3.0122 5.0819 -0.8370 0.9764
2.1260 5.7131 -0.8637 0.9757
0.5518 3.0772 -0.4430 0.9874
0.5551 6.2893 -0.8946 0.9748
-0.0090 6.5652 -0.9302 0.9738
-0.6389 7.0184 -0.9985 0.9719
-1.3059 7.1691 -1.0325 0.9710
-8.1301 16.8996 -2.6572 0.9270
-9.2888 15.5736 -2.5693 0.9294
-11.8050 11.3279 -2.3182 0.9360
-12.3439 9.8880 -2.2410 0.9381
-12.7469 8.4606 -2.1677 0.9401
-13.0235 7.0568 -2.0988 0.9419
-13.1830 5.6853 -2.0342 0.9436
-13.2349 4.3529 -1.9741 0.9453
-13.1879 3.0649 -1.9184 0.9468
-13.0507 1.8251 -1.8671 0.9482
-12.5354 -0.5000 -1.7775 0.9506
-11.2573 -3.5822 -1.6738 0.9534
-9.4938 -6.1698 -1.6043 0.9553
-8.8158 -6.9228 -1.5882 0.9557
-8.0976 -7.6212 -1.5756 0.9561
-5.6804 -9.3175 -1.5462 0.9569
-4.8058 -9.7470 -1.5398 0.9570
-3.9309 -10.1749 -1.5455 0.9569
-3.0419 -10.6078 -1.5636 0.9564
-0.1257 -11.3746 -1.6118 0.9551
0.9020 -11.4882 -1.6328 0.9545
1.9531 -11.5332 -1.6574 0.9538
3.0260 -11.5063 -1.6858 0.9531
8.6235 -10.1517 -1.8873 0.9476
12.0109 -8.1889 -2.0597 0.9430
13.0958 -7.3079 -2.1249 0.9412
13.1401 -5.8615 -2.0387 0.9435
14.9501 -3.6708 -2.1812 0.9397
14.8760 -0.9230 -2.1118 0.9416
10.7075 1.2568 -1.5275 0.9574
7.1669 2.9046 -1.0957 0.9692
6.6182 3.3991 -1.0542 0.9704
2.6704 5.2505 -0.8346 0.9765
1.7682 5.8889 -0.8712 0.9755
0.6353 3.0978 -0.4481 0.9873
-0.4609 6.9804 -0.9912 0.9721
-6.4114 18.4682 -2.7699 0.9241
-7.7789 17.2544 -2.6817 0.9264
-10.0239 14.5781 -2.5067 0.9310
-10.9042 13.1645 -2.4220 0.9333
-11.6298 11.7286 -2.3403 0.9354
-12.2082 10.2875 -2.2620 0.9375
-12.9588 7.4441 -2.1175 0.9414
-13.1498 6.0628 -2.0517 0.9432
-13.2307 4.7190 -1.9903 0.9448
-12.8998 0.9614 -1.8328 0.9491
-12.6247 -0.1896 -1.7890 0.9503
-12.2789 -1.2868 -1.7493 0.9513
-11.3979 -3.3174 -1.6820 0.9532
-10.8729 -4.2502 -1.6541 0.9539
-10.2973 -5.1280 -1.6299 0.9546
-9.0084 -6.7190 -1.5923 0.9556
-6.7729 -8.6955 -1.5617 0.9564
-5.0483 -9.6281 -1.5403 0.9570
-3.2912 -10.4866 -1.5573 0.9566
-2.3714 -10.8743 -1.5770 0.9560
-1.4025 -11.1340 -1.5900 0.9557
-0.4070 -11.3312 -1.6065 0.9552
1.6587 -11.5278 -1.6502 0.9540
2.7257 -11.5212 -1.6775 0.9533
7.1688 -10.7084 -1.8259 0.9493
10.5807 -9.1433 -1.9814 0.9451
12.8717 -6.1297 -2.0200 0.9440
13.8204 -5.1238 -2.0884 0.9422
14.7137 -4.0029 -2.1605 0.9403
15.0584 -1.3106 -2.1417 0.9408
11.1615 1.0297 -1.5882 0.9557
9.5722 1.7557 -1.3789 0.9614
8.2633 2.2941 -1.2151 0.9659
7.3566 2.7708 -1.1138 0.9687
6.7058 3.2361 -1.0550 0.9704
6.1822 3.6975 -1.0207 0.9713
4.8042 4.1952 -0.9037 0.9746
2.3290 5.4186 -0.8357 0.9765
1.9067 5.8209 -0.8679 0.9756
1.3622 5.8938 -0.8571 0.9759
0.8516 6.1441 -0.8789 0.9753
-0.2833 6.8937 -0.9776 0.9725
-1.6234 7.2636 -1.0546 0.9704
-8.6649 16.3196 -2.6180 0.9281
-10.6754 13.5605 -2.4453 0.9327
-2.3825 2.1111 -0.4510 0.9872
-12.5391 9.2518 -2.2079 0.9390
-13.2257 3.7752 -1.9488 0.9460
-12.9628 1.2907 -1.8458 0.9487
-12.7085 0.1250 -1.8007 0.9500
-11.9885 -2.0452 -1.7232 0.9521
-11.0241 -3.9964 -1.6615 0.9537
-9.8523 -5.7276 -1.6147 0.9550
-7.7663 -7.9138 -1.5710 0.9562
-10.8740 -0.9765 -1.7986 0.9567
-10.5472 -1.9080 -1.7657 0.9575
-10.1626 -2.7948 -1.7363 0.9582
-8.7029 -5.1765 -1.6682 0.9598
-8.1261 -5.8751 -1.6519 0.9602
-4.6881 -8.6270 -1.6175 0.9610
-3.0936 -9.3676 -1.6252 0.9608
-1.3952 -9.8887 -1.6452 0.9603
-0.5112 -10.0629 -1.6599 0.9600
0.3935 -10.1768 -1.6778 0.9596
1.3169 -10.2282 -1.6989 0.9591
2.2569 -10.2144 -1.7233 0.9585
3.2108 -10.1328 -1.7511 0.9578
7.0998 -9.0639 -1.8967 0.9544
8.0689 -8.5941 -1.9420 0.9533
9.9621 -7.3879 -2.0432 0.9510
10.8969 -5.3893 -2.0027 0.9519
8.6632 2.2670 -1.4752 0.9643
7.5537 2.7176 -1.3225 0.9680
6.6436 3.0853 -1.2067 0.9707
5.9411 3.4346 -1.1305 0.9726
4.8731 4.1294 -1.0523 0.9744
4.4274 4.4896 -1.0388 0.9748
3.9094 4.7463 -1.0130 0.9754
2.8538 5.0995 -0.9627 0.9766
2.4049 5.3736 -0.9699 0.9764
1.9866 5.7737 -1.0059 0.9756
0.9372 6.0942 -1.0158 0.9753
0.3997 6.3172 -1.0428 0.9747
-0.1708 6.5119 -1.0731 0.9739
-0.7237 6.2308 -1.0334 0.9749
-1.4763 7.0989 -1.1945 0.9710
-7.0437 13.7556 -2.5459 0.9393
-8.0144 12.7082 -2.4751 0.9409
-8.8587 11.6034 -2.4049 0.9425
-9.5775 10.4583 -2.3362 0.9441
-11.2765 5.7524 -2.0854 0.9500
-11.4793 2.3688 -1.9309 0.9536
-11.3770 1.3037 -1.8865 0.9546
-9.8514 -3.4066 -1.7172 0.9586
-9.3771 -4.2138 -1.6936 0.9592
-7.6845 -6.3494 -1.6422 0.9604
-7.0403 -6.9640 -1.6314 0.9607
-5.6463 -8.0437 -1.6190 0.9609
-4.9008 -8.5074 -1.6174 0.9610
-4.1253 -8.9190 -1.6189 0.9609
-3.3218 -9.2776 -1.6234 0.9608
-1.6369 -9.8299 -1.6417 0.9604
-0.7591 -10.0205 -1.6555 0.9601
0.1401 -10.1513 -1.6725 0.9597
1.9941 -10.2249 -1.7162 0.9586
2.9444 -10.1625 -1.7430 0.9580
4.8774 -9.8241 -1.8069 0.9565
5.8530 -9.5417 -1.8441 0.9556
10.6762 -5.6145 -1.9872 0.9523
2.3113 -0.9629 -0.4125 0.9899
12.8396 -2.8163 -2.1655 0.9481
7.8387 2.6020 -1.3606 0.9671
6.8777 2.9885 -1.2354 0.9701
6.1272 3.3418 -1.1498 0.9721
5.5325 3.6941 -1.0959 0.9734
5.0139 4.0390 -1.0606 0.9742
3.4656 4.8089 -0.9765 0.9763
3.0087 5.0760 -0.9721 0.9764
2.5361 5.3090 -0.9693 0.9764
2.1235 5.7064 -1.0030 0.9756
1.6148 5.9074 -1.0089 0.9755
0.5527 6.2622 -1.0356 0.9748
-0.6065 6.6623 -1.1021 0.9732
-5.2170 13.9026 -2.4463 0.9416
-6.7515 14.0341 -2.5656 0.9388
-9.3901 10.7797 -2.3551 0.9437
-10.0201 9.6152 -2.2878 0.9453
-10.5306 8.4354 -2.2228 0.9468
-11.4009 4.9168 -2.0454 0.9509
-11.4916 3.7796 -1.9929 0.9521
-11.4936 2.6712 -1.9439 0.9533
-11.4132 1.5961 -1.8985 0.9544
-11.2564 0.5581 -1.8566 0.9553
-11.0290 -0.4399 -1.8183 0.9562
-9.0052 -4.7673 -1.6786 0.9595
-7.2231 -6.7981 -1.6340 0.9606
-6.5527 -7.3770 -1.6255 0.9608
-5.1111 -8.3837 -1.6175 0.9610
-4.3438 -8.8099 -1.6182 0.9610
-3.5478 -9.1833 -1.6218 0.9609
-1.8769 -9.7666 -1.6384 0.9605
-1.0053 -9.9734 -1.6513 0.9602
-0.1119 -10.1211 -1.6674 0.9598
0.8014 -10.2075 -1.6868 0.9593
2.6790 -10.1867 -1.7352 0.9582
3.6381 -10.0739 -1.7645 0.9575
4.6069 -9.8888 -1.7972 0.9567
10.3697 -7.0699 -2.0676 0.9504
11.2464 -6.2759 -2.1217 0.9491
11.2424 -5.0150 -2.0280 0.9513
12.6631 -3.1093 -2.1481 0.9485
13.7898 -0.8556 -2.2761 0.9455
11.6825 0.3206 -1.9253 0.9537
9.3034 1.9465 -1.5658 0.9622
8.1417 2.4798 -1.4021 0.9661
7.1241 2.8873 -1.2663 0.9693
6.3197 3.2458 -1.1704 0.9716
5.1560 3.9463 -1.0696 0.9740
4.1942 4.6053 -1.0261 0.9751
3.5603 4.6901 -0.9700 0.9764
3.1408 5.0108 -0.9742 0.9763
2.2433 5.5986 -0.9936 0.9758
1.7533 5.8394 -1.0044 0.9756
0.6362 3.1022 -0.5217 0.9872
0.7036 6.2068 -1.0291 0.9750
-0.4356 6.5971 -1.0892 0.9736
-4.9057 14.1310 -2.4642 0.9412
-6.4498 14.3063 -2.5853 0.9384
-8.4049 12.2236 -2.4438 0.9416
-10.4004 8.7641 -2.2406 0.9464
-11.1453 6.4023 -2.1174 0.9492
-11.3590 5.2372 -2.0606 0.9506
-11.5016 2.9761 -1.9572 0.9530
-11.0989 -0.1666 -1.8286 0.9560
-10.4872 -2.0585 -1.7606 0.9576
-8.0263 -5.9865 -1.6495 0.9602
-7.4030 -6.6284 -1.6370 0.9605
-6.7425 -7.2211 -1.6275 0.9607
-5.3190 -8.2560 -1.6179 0.9610
-3.7718 -9.0849 -1.6205 0.9609
-2.9563 -9.4194 -1.6264 0.9608
-2.1151 -9.6989 -1.6353 0.9606
0.5457 -10.1898 -1.6811 0.9595
6.2868 -9.3908 -1.8617 0.9552
7.2614 -8.9918 -1.9040 0.9542
11.0272 -5.2513 -2.0121 0.9517
13.1092 -2.3343 -2.1936 0.9475
13.6547 -1.1884 -2.2580 0.9460
11.9841 0.0310 -1.9743 0.9526
11.1369 1.0274 -1.8425 0.9557
9.6542 1.7707 -1.6170 0.9610
8.4648 2.3500 -1.4472 0.9650
4.3395 4.5332 -1.0338 0.9749
3.2736 4.9452 -0.9770 0.9762
2.3263 5.4123 -0.9705 0.9764
1.8987 5.7966 -1.0049 0.9756
1.3606 5.8867 -0.9953 0.9758
0.3071 6.3499 -1.0473 0.9746
-0.2690 6.5439 -1.0789 0.9738
-0.8042 6.1285 -1.0183 0.9753
-6.1385 14.5718 -2.6049 0.9379
-9.6849 10.2653 -2.3249 0.9444
-2.3810 2.1098 -0.5241 0.9872
-11.3096 5.5592 -2.0761 0.9502
-11.4526 4.4086 -2.0216 0.9515
-11.4677 2.1894 -1.9233 0.9538
-11.1638 0.1098 -1.8392 0.9557
-10.5867 -1.8061 -1.7692 0.9574
-10.2083 -2.6979 -1.7394 0.9581
-9.7760 -3.5440 -1.7130 0.9587
-9.2937 -4.3434 -1.6900 0.9593
-6.9297 -7.0613 -1.6299 0.9607
-9.7110 -0.8721 -1.8326 0.9611
-8.3037 -3.9823 -1.7310 0.9632
-7.8329 -4.6590 -1.7130 0.9636
-7.3209 -5.2930 -1.6980 0.9639
-6.7704 -5.8832 -1.6859 0.9642
-5.5641 -6.9288 -1.6703 0.9645
-4.2323 -7.7883 -1.6661 0.9646
-3.5246 -8.1455 -1.6682 0.9645
-2.0352 -8.7091 -1.6811 0.9643
-1.2574 -8.9125 -1.6918 0.9640
1.1831 -9.1888 -1.7414 0.9630
2.0246 -9.1630 -1.7638 0.9625
3.7327 -8.9215 -1.8178 0.9614
4.5927 -8.7009 -1.8493 0.9607
5.4512 -8.4104 -1.8838 0.9600
7.1450 -7.6101 -1.9620 0.9584
9.5379 -5.8306 -2.1012 0.9555
9.5279 -4.7122 -1.9979 0.9577
2.3425 -0.9083 -0.4722 0.9898
11.2484 -2.1758 -2.1534 0.9544
12.0388 -0.1477 -2.2630 0.9522
9.8555 1.6567 -1.8784 0.9601
8.6478 2.2630 -1.6802 0.9643
6.7827 3.1498 -1.4057 0.9700
4.7457 4.0214 -1.1692 0.9750
4.4219 4.4841 -1.1837 0.9747
3.9047 4.7406 -1.1544 0.9753
3.2778 4.7952 -1.0918 0.9766
2.3552 5.2626 -1.0837 0.9768
1.8845 5.4769 -1.0887 0.9767
1.4021 5.6805 -1.0998 0.9765
0.3902 6.1678 -1.1616 0.9752
-0.1696 6.4660 -1.2158 0.9740
-0.6979 6.0089 -1.1370 0.9757
-1.5068 7.2460 -1.3911 0.9703
-5.5892 10.9151 -2.3049 0.9513
-8.2882 9.0505 -2.3067 0.9513
-9.2882 7.0686 -2.1939 0.9536
-10.0735 4.0505 -2.0408 0.9568
-10.1619 3.0646 -1.9950 0.9577
-10.1715 2.0990 -1.9521 0.9586
-9.9743 0.2463 -1.8753 0.9602
-9.7768 -0.6336 -1.8415 0.9609
-9.2059 -2.2872 -1.7830 0.9621
-8.8406 -3.0571 -1.7582 0.9626
-8.4269 -3.7868 -1.7365 0.9631
-7.4672 -5.1211 -1.7019 0.9638
-6.9271 -5.7236 -1.6890 0.9641
-6.3505 -6.2817 -1.6789 0.9643
-5.7396 -6.7945 -1.6718 0.9644
-4.4243 -7.6803 -1.6660 0.9646
-3.7239 -8.0512 -1.6673 0.9645
-2.9977 -8.3726 -1.6715 0.9645
-2.2477 -8.6431 -1.6786 0.9643
-1.4756 -8.8613 -1.6885 0.9641
-0.6837 -9.0256 -1.7013 0.9638
0.9513 -9.1851 -1.7357 0.9631
1.7896 -9.1764 -1.7573 0.9627
2.6382 -9.1057 -1.7819 0.9622
5.2130 -8.4983 -1.8739 0.9602
6.0677 -8.1558 -1.9107 0.9595
7.7421 -7.2466 -1.9932 0.9578
9.3278 -6.0256 -2.0873 0.9558
9.3440 -4.9139 -1.9844 0.9579
2.3091 -0.9620 -0.4702 0.9899
11.5726 -1.4720 -2.1927 0.9536
7.9187 2.6286 -1.5683 0.9666
7.0252 3.0526 -1.4397 0.9693
4.8980 3.9456 -1.1822 0.9747
4.3643 4.2110 -1.1399 0.9756
4.0460 4.6706 -1.1615 0.9752
3.4054 4.7254 -1.0948 0.9766
2.9462 4.9706 -1.0861 0.9768
2.0163 5.4185 -1.0867 0.9767
0.5267 2.9373 -0.5609 0.9879
0.5380 6.0957 -1.1502 0.9754
-1.1199 6.1477 -1.1745 0.9749
-3.4389 12.4457 -2.4270 0.9488
-4.4381 11.8268 -2.3743 0.9499
-6.1734 10.3503 -2.2652 0.9521
-8.1173 9.3185 -2.3228 0.9509
-9.1730 7.3479 -2.2091 0.9533
-9.8383 5.3309 -2.1032 0.9555
-10.1454 3.3368 -2.0074 0.9575
-10.1765 2.3651 -1.9638 0.9584
-10.1324 1.4170 -1.9230 0.9592
-10.0179 0.4967 -1.8853 0.9600
-9.5966 -1.2475 -1.8190 0.9614
-9.2984 -2.0663 -1.7904 0.9620
-8.9471 -2.8471 -1.7648 0.9625
-8.0999 -4.2881 -1.7226 0.9634
-7.6104 -4.9459 -1.7060 0.9637
-6.5143 -6.1310 -1.6814 0.9642
-5.9127 -6.6565 -1.6735 0.9644
-5.2786 -7.1360 -1.6684 0.9645
-0.1007 -9.1097 -1.7124 0.9636
2.4015 -9.1317 -1.7748 0.9623
3.2556 -9.0148 -1.8015 0.9617
4.9744 -8.5806 -1.8642 0.9604
5.8309 -8.2583 -1.9002 0.9597
7.5134 -7.3913 -1.9810 0.9580
9.1149 -6.2144 -2.0735 0.9561
9.8457 -5.4942 -2.1192 0.9551
9.8143 -4.3779 -2.0199 0.9572
10.4226 -3.5721 -2.0709 0.9561
10.9720 -2.6941 -2.1236 0.9551
11.8540 -0.7355 -2.2324 0.9528
11.6816 0.3206 -2.1965 0.9536
10.6620 1.2515 -2.0178 0.9572
9.2858 1.9428 -1.7832 0.9621
8.1876 2.4938 -1.6088 0.9658
5.6889 3.5974 -1.2651 0.9730
5.0538 3.8681 -1.1962 0.9744
4.5088 4.1392 -1.1504 0.9754
4.1891 4.5997 -1.1694 0.9750
3.0739 4.9040 -1.0879 0.9767
2.6133 5.1383 -1.0835 0.9768
2.1473 5.3592 -1.0852 0.9768
0.1476 6.2861 -1.1819 0.9747
-0.4370 6.6193 -1.2469 0.9734
-3.1470 12.6008 -2.4412 0.9485
-4.1687 12.0079 -2.3892 0.9496
-5.1065 11.3267 -2.3353 0.9507
-7.2287 10.5129 -2.3981 0.9494
-8.5450 8.6176 -2.2811 0.9518
-9.0502 7.6264 -2.2245 0.9530
-9.7681 5.6112 -2.1174 0.9552
-9.9886 4.6053 -2.0674 0.9562
-10.0565 0.7495 -1.8955 0.9598
-9.8943 -0.1486 -1.8599 0.9605
-9.0499 -2.6340 -1.7716 0.9624
-7.7506 -4.7673 -1.7103 0.9636
-6.6754 -5.9770 -1.6842 0.9642
-4.8017 -7.4531 -1.6665 0.9646
-2.6675 -8.4991 -1.6743 0.9644
-1.1263 -8.9410 -1.6938 0.9640
-0.3262 -9.0808 -1.7079 0.9637
0.4908 -9.1640 -1.7249 0.9633
1.3221 -9.1887 -1.7449 0.9629
2.1654 -9.1528 -1.7679 0.9624
4.7355 -8.6575 -1.8548 0.9606
5.5934 -8.3552 -1.8899 0.9599
8.8993 -6.3970 -2.0600 0.9564
9.6620 -5.7111 -2.1096 0.9553
11.3266 -2.0169 -2.1624 0.9543
11.9529 0.0309 -2.2467 0.9525
11.1122 1.0251 -2.0975 0.9556
9.6354 1.7673 -1.8413 0.9609
8.4709 2.3517 -1.6524 0.9649
7.5154 2.8306 -1.5095 0.9678
4.3341 4.5277 -1.1781 0.9748
3.8211 4.7820 -1.1505 0.9754
3.2015 4.8363 -1.0902 0.9767
2.2776 5.2990 -1.0841 0.9768
1.8053 5.5114 -1.0901 0.9767
0.8254 5.9552 -1.1300 0.9758
0.3004 6.2117 -1.1689 0.9750
-0.7855 5.9856 -1.1347 0.9757
-2.8492 12.7480 -2.4552 0.9482
-3.8928 12.1822 -2.4038 0.9493
-4.8546 11.5241 -2.3504 0.9504
-5.7279 10.7880 -2.2958 0.9515
-6.5083 9.9880 -2.2407 0.9526
-8.3867 8.8892 -2.2971 0.9515
-2.3795 2.1084 -0.5976 0.9871
-9.6909 5.8918 -2.1317 0.9549
-9.9362 4.8841 -2.0810 0.9559
-10.0939 3.8855 -2.0330 0.9569
-9.7380 -0.7765 -1.8362 0.9610
-9.1487 -2.4179 -1.7786 0.9622
-8.7751 -3.1811 -1.7544 0.9627
-8.3537 -3.9041 -1.7332 0.9632
-7.8877 -4.5855 -1.7149 0.9635
-6.8338 -5.8194 -1.6871 0.9641
-6.2513 -6.3700 -1.6776 0.9643
-8.7656 -0.7872 -1.8603 0.9647
-8.5324 -1.5435 -1.8328 0.9652
-7.9143 -2.9589 -1.7860 0.9660
-7.5360 -3.6141 -1.7667 0.9664
-6.1593 -5.3521 -1.7248 0.9672
-5.6286 -5.8514 -1.7162 0.9674
-5.0661 -6.3087 -1.7103 0.9675
-3.8544 -7.0928 -1.7063 0.9675
-3.2095 -7.4173 -1.7084 0.9675
-2.5413 -7.6952 -1.7130 0.9674
-1.8520 -7.9250 -1.7203 0.9673
-1.1436 -8.1054 -1.7303 0.9671
-0.4183 -8.2349 -1.7429 0.9669
1.8342 -8.3013 -1.7971 0.9658
2.6016 -8.2102 -1.8205 0.9654
4.9072 -7.5710 -1.9071 0.9638
5.6633 -7.2300 -1.9413 0.9631
6.4053 -6.8223 -1.9781 0.9625
7.1277 -6.3467 -2.0174 0.9617
8.4882 -5.1890 -2.1029 0.9601
2.3441 -0.9089 -0.5314 0.9898
9.4742 -2.7293 -2.0841 0.9605
9.8968 -1.9144 -2.1308 0.9596
10.2508 -1.0458 -2.1781 0.9587
10.7197 0.8285 -2.2727 0.9570
8.6323 2.2590 -1.8861 0.9642
6.8158 3.1652 -1.5885 0.9697
6.0974 3.5249 -1.4887 0.9716
5.4248 3.8204 -1.4025 0.9732
3.9000 4.7349 -1.2967 0.9752
2.7946 4.9937 -1.2096 0.9769
2.3362 5.2202 -1.2089 0.9769
1.8769 5.4548 -1.2194 0.9767
0.7981 3.2335 -0.7040 0.9865
0.3960 6.2597 -1.3258 0.9747
-0.1728 6.5863 -1.3927 0.9734
-0.6975 6.0051 -1.2779 0.9756
-4.0890 10.1243 -2.3080 0.9563
-6.2204 8.1477 -2.1668 0.9590
-7.2975 7.9687 -2.2840 0.9568
-8.2260 6.2603 -2.1851 0.9586
-8.9934 3.6162 -2.0489 0.9611
-9.1234 1.8827 -1.9691 0.9626
-8.9828 0.2219 -1.8994 0.9639
-8.6025 -1.3364 -1.8402 0.9650
-8.3317 -2.0700 -1.8147 0.9655
-8.0116 -2.7704 -1.7919 0.9659
-7.6455 -3.4357 -1.7718 0.9663
-7.2365 -4.0643 -1.7544 0.9666
-6.7873 -4.6549 -1.7397 0.9669
-6.3008 -5.2061 -1.7277 0.9671
-5.7794 -5.7168 -1.7183 0.9673
-4.0292 -6.9945 -1.7063 0.9675
-2.0456 -7.8660 -1.7180 0.9673
-0.6215 -8.2041 -1.7392 0.9669
0.1145 -8.2958 -1.7537 0.9666
0.8631 -8.3338 -1.7710 0.9663
2.3878 -8.2414 -1.8137 0.9655
3.9282 -7.9122 -1.8673 0.9645
5.4543 -7.3314 -1.9315 0.9633
7.6336 -5.9606 -2.0472 0.9612
8.3073 -5.3664 -2.0905 0.9604
8.2995 -4.3646 -1.9822 0.9624
2.3068 -0.9610 -0.5282 0.9898
9.3456 -2.9456 -2.0713 0.9607
9.7858 -2.1465 -2.1177 0.9599
10.4591 -0.3884 -2.2124 0.9581
7.9054 2.6242 -1.7607 0.9665
6.2880 3.4295 -1.5140 0.9711
3.3934 4.7087 -1.2269 0.9766
2.0052 5.3885 -1.2153 0.9768
1.5395 5.6318 -1.2341 0.9764
0.5226 2.9144 -0.6259 0.9880
0.5451 6.1756 -1.3105 0.9750
-0.0089 6.4913 -1.3721 0.9738
-1.1176 6.1354 -1.3182 0.9748
-2.9803 10.7856 -2.3653 0.9553
-5.3980 9.0502 -2.2275 0.9578
-6.0526 8.3502 -2.1800 0.9587
-7.1410 8.1978 -2.2981 0.9565
-7.6726 7.3626 -2.2478 0.9575
-8.4774 5.6268 -2.1508 0.9593
-8.7546 4.7437 -2.1048 0.9601
-8.9522 3.8607 -2.0608 0.9609
-9.0735 2.9843 -2.0190 0.9617
-9.1022 1.2729 -1.9427 0.9631
-9.0174 0.4471 -1.9084 0.9638
-8.8716 -0.3538 -1.8768 0.9644
-8.6686 -1.1269 -1.8478 0.9649
-8.1053 -2.5792 -1.7979 0.9658
-7.3543 -3.8933 -1.7590 0.9666
-5.9277 -5.5790 -1.7207 0.9673
-4.8066 -6.4980 -1.7085 0.9675
-4.2021 -6.8927 -1.7064 0.9675
-2.9155 -7.5465 -1.7101 0.9675
-2.2377 -7.8032 -1.7159 0.9674
-0.8234 -8.1693 -1.7356 0.9670
-0.0915 -8.2757 -1.7494 0.9667
0.6539 -8.3288 -1.7660 0.9664
2.1744 -8.2681 -1.8071 0.9657
3.7142 -7.9727 -1.8592 0.9647
4.4826 -7.7323 -1.8892 0.9641
5.2444 -7.4277 -1.9220 0.9635
5.9949 -7.0572 -1.9573 0.9629
6.7289 -6.6196 -1.9952 0.9621
7.4406 -6.1135 -2.0356 0.9614
8.7470 -4.8811 -2.1173 0.9599
9.2126 -3.1574 -2.0586 0.9610
9.6698 -2.3743 -2.1047 0.9601
10.3839 -0.6443 -2.1992 0.9584
9.2682 1.9391 -2.0015 0.9620
8.1736 2.4895 -1.8061 0.9657
6.4853 3.3308 -1.5411 0.9706
5.7991 3.6671 -1.4503 0.9723
5.1440 3.9371 -1.3693 0.9739
4.5596 4.1857 -1.3083 0.9750
4.1839 4.5940 -1.3135 0.9749
3.0523 4.8695 -1.2148 0.9768
0.6034 2.9422 -0.6349 0.9878
-0.4454 6.7457 -1.4290 0.9727
-2.7251 10.9115 -2.3773 0.9551
-6.4755 7.8177 -2.1458 0.9593
-7.5336 7.5976 -2.2617 0.9572
-9.1157 2.3587 -1.9903 0.9622
-9.0472 0.6743 -1.9177 0.9636
-8.9180 -0.1339 -1.8853 0.9642
-8.4885 -1.6662 -1.8285 0.9653
-8.1954 -2.3853 -1.8042 0.9657
-7.4690 -3.7195 -1.7637 0.9665
-7.0418 -4.3313 -1.7475 0.9668
-6.5757 -4.9046 -1.7340 0.9670
-5.5373 -5.9303 -1.7150 0.9674
-4.9697 -6.3805 -1.7095 0.9675
-4.3729 -6.7874 -1.7067 0.9675
-3.7489 -7.1499 -1.7065 0.9675
-2.4282 -7.7367 -1.7140 0.9674
-0.2964 -8.2514 -1.7453 0.9668
1.1990 -8.3330 -1.7796 0.9662
1.9613 -8.2902 -1.8008 0.9658
2.7294 -8.1893 -1.8247 0.9653
3.5001 -8.0283 -1.8513 0.9648
4.2695 -7.8054 -1.8806 0.9643
5.0335 -7.5189 -1.9126 0.9637
8.5885 -5.0766 -2.1089 0.9600
9.5488 -2.5978 -2.0918 0.9603
9.6165 1.7638 -2.0667 0.9608
5.9864 3.5804 -1.4745 0.9719
5.3180 3.8646 -1.3896 0.9735
4.7162 4.1183 -1.3235 0.9747
3.8165 4.7763 -1.2923 0.9753
1.7999 5.4948 -1.2222 0.9766
0.6976 3.0183 -0.6548 0.9874
0.4284 3.0907 -0.6596 0.9873
-0.7848 5.9801 -1.2749 0.9756
-2.4653 11.0305 -2.3891 0.9548
-4.2249 10.0292 -2.3004 0.9565
-5.0000 9.4169 -2.2537 0.9573
-5.6985 8.7453 -2.2064 0.9582
-6.3177 8.0251 -2.1589 0.9591
-2.3780 2.1071 -0.6716 0.9871
-8.6106 5.2351 -2.1301 0.9596
-9.1038 2.5986 -2.0012 0.9620
-9.1216 1.7414 -1.9629 0.9627
-9.0723 0.9033 -1.9272 0.9634
-8.9600 0.0881 -1.8940 0.9640
-8.7883 -0.7008 -1.8636 0.9646
-8.5611 -1.4605 -1.8358 0.9651
-7.9539 -2.8834 -1.7884 0.9660
-7.9812 -0.7167 -1.8833 0.9676
-7.5283 -2.0703 -1.8350 0.9684
-7.2319 -2.7038 -1.8146 0.9688
-6.8926 -3.3056 -1.7966 0.9691
-6.5133 -3.8741 -1.7811 0.9693
-6.0966 -4.4078 -1.7681 0.9696
-4.6463 -5.7858 -1.7440 0.9700
-4.1039 -6.1667 -1.7409 0.9700
-3.5356 -6.5062 -1.7403 0.9700
-2.3304 -7.0565 -1.7465 0.9699
-1.6977 -7.2647 -1.7534 0.9698
-1.0478 -7.4265 -1.7627 0.9697
-0.3831 -7.5405 -1.7745 0.9695
0.9811 -7.6195 -1.8055 0.9689
1.6751 -7.5815 -1.8248 0.9686
2.3733 -7.4898 -1.8465 0.9682
3.0723 -7.3429 -1.8707 0.9678
3.7684 -7.1394 -1.8973 0.9674
4.4580 -6.8779 -1.9263 0.9669
5.1365 -6.5574 -1.9577 0.9664
6.4411 -5.7354 -2.0270 0.9652
7.0566 -5.2331 -2.0647 0.9645
8.8261 -1.7073 -2.1128 0.9637
9.1199 -0.9304 -2.1545 0.9630
9.4916 0.7336 -2.2374 0.9616
9.5568 1.6065 -2.2776 0.9610
8.6168 2.2549 -2.0933 0.9641
6.0887 3.5199 -1.6529 0.9715
5.4511 3.8389 -1.5669 0.9730
4.8717 4.1281 -1.5007 0.9741
4.4109 4.4729 -1.4764 0.9745
3.8953 4.7291 -1.4399 0.9751
3.3156 4.8505 -1.3809 0.9761
2.8409 5.0765 -1.3672 0.9764
1.9083 5.5460 -1.3784 0.9762
-2.8489 9.3945 -2.3072 0.9605
-3.6141 8.9485 -2.2682 0.9611
-4.3202 8.4368 -2.2277 0.9618
-7.3747 5.6124 -2.1780 0.9626
-7.6937 4.8356 -2.1357 0.9633
-8.1149 3.2630 -2.0556 0.9647
-8.2636 1.7053 -1.9831 0.9659
-8.2431 0.9446 -1.9500 0.9665
-8.0283 -0.5203 -1.8908 0.9675
-7.8403 -1.2180 -1.8647 0.9679
-5.7738 -4.7706 -1.7602 0.9697
-5.2984 -5.2410 -1.7515 0.9698
-4.7921 -5.6728 -1.7453 0.9699
-3.6960 -6.4161 -1.7402 0.9700
-3.1105 -6.7250 -1.7414 0.9700
-2.5029 -6.9906 -1.7451 0.9700
-1.2300 -7.3863 -1.7598 0.9697
-0.5692 -7.5137 -1.7710 0.9695
0.7893 -7.6208 -1.8006 0.9690
1.4817 -7.5974 -1.8192 0.9687
2.1790 -7.5207 -1.8402 0.9683
3.5754 -7.2017 -1.8897 0.9675
4.9493 -6.6525 -1.9487 0.9665
6.2652 -5.8642 -2.0168 0.9654
9.2891 -0.3449 -2.1847 0.9625
9.4586 0.4950 -2.2260 0.9618
8.9243 2.0999 -2.1547 0.9630
7.0225 3.0514 -1.7995 0.9690
6.2789 3.4246 -1.6809 0.9710
5.6217 3.7536 -1.5887 0.9726
2.9716 5.0134 -1.3697 0.9763
0.5185 2.8917 -0.6905 0.9880
0.5523 6.2577 -1.4764 0.9745
-0.0090 6.5310 -1.5349 0.9735
-0.6216 6.8285 -1.6115 0.9722
-1.1153 6.1225 -1.4626 0.9748
-3.4071 9.0794 -2.2792 0.9609
-4.1301 8.5851 -2.2390 0.9616
-4.7905 8.0317 -2.1979 0.9623
-5.3844 7.4283 -2.1562 0.9630
-7.6124 5.0526 -2.1473 0.9632
-7.8785 4.2690 -2.1060 0.9638
-8.0732 3.4816 -2.0663 0.9645
-8.2549 1.1544 -1.9590 0.9663
-8.0713 -0.3219 -1.8984 0.9674
-7.4021 -2.3554 -1.8256 0.9686
-6.7290 -3.5623 -1.7894 0.9692
-4.9358 -5.5567 -1.7468 0.9699
-4.4087 -5.9600 -1.7423 0.9700
-3.8546 -6.3226 -1.7403 0.9700
-2.6739 -6.9212 -1.7438 0.9700
-0.0837 -7.5755 -1.7805 0.9694
0.5981 -7.6180 -1.7959 0.9691
2.6838 -7.4314 -1.8570 0.9681
5.4331 -6.3958 -1.9723 0.9661
6.0872 -5.9883 -2.0069 0.9655
7.8613 -4.3869 -2.1158 0.9637
8.2462 -2.8262 -2.0487 0.9648
9.2284 -0.5726 -2.1731 0.9627
9.4193 0.2585 -2.2146 0.9620
9.5310 1.1187 -2.2554 0.9613
9.2505 1.9354 -2.2212 0.9619
8.1595 2.4852 -2.0047 0.9656
5.7972 3.6658 -1.6120 0.9722
4.6287 4.2492 -1.4767 0.9745
3.1031 4.9506 -1.3732 0.9763
2.6335 5.1779 -1.3653 0.9764
0.7012 6.1851 -1.4630 0.9747
0.1515 6.4529 -1.5170 0.9738
-0.4452 6.7429 -1.5882 0.9726
-5.7705 6.9667 -2.1261 0.9635
-6.2451 6.2981 -2.0845 0.9642
-2.4811 2.0907 -0.7625 0.9868
-7.5255 5.2689 -2.1591 0.9630
-7.8118 4.4875 -2.1173 0.9637
-8.0261 3.7005 -2.0772 0.9643
-8.1707 2.9143 -2.0388 0.9650
-8.2149 0.6123 -1.9360 0.9667
-7.7407 -1.5194 -1.8540 0.9681
-7.1784 -2.8060 -1.8114 0.9688
-6.8323 -3.4024 -1.7938 0.9691
-5.5666 -4.9842 -1.7561 0.9698
-4.5580 -5.8519 -1.7433 0.9700
-4.0112 -6.2260 -1.7406 0.9700
-3.4389 -6.5586 -1.7405 0.9700
-2.8433 -6.8484 -1.7427 0.9700
-0.9383 -7.4488 -1.7645 0.9696
-0.2714 -7.5548 -1.7767 0.9694
1.0960 -7.6169 -1.8086 0.9689
1.7909 -7.5700 -1.8282 0.9685
2.4894 -7.4692 -1.8504 0.9682
3.1882 -7.3130 -1.8750 0.9678
3.8836 -7.1000 -1.9020 0.9673
5.2478 -6.4983 -1.9631 0.9663
5.9075 -6.1077 -1.9970 0.9657
9.3739 0.0243 -2.2031 0.9622
9.5083 0.8772 -2.2442 0.9615
9.5592 1.7533 -2.2841 0.9609
8.4410 2.3434 -2.0589 0.9646
5.9779 3.5754 -1.6371 0.9718
4.7798 4.1739 -1.4914 0.9743
4.3234 4.5165 -1.4694 0.9746
3.2357 4.8880 -1.3777 0.9762
0.6923 2.9953 -0.7225 0.9874
0.3084 6.3766 -1.5004 0.9741
-2.1701 9.7098 -2.3383 0.9599
-4.4314 8.3461 -2.2209 0.9619
-5.6262 7.1467 -2.1377 0.9633
-2.3765 2.1058 -0.7462 0.9870
-7.4328 5.4842 -2.1709 0.9628
-8.2333 2.3502 -2.0123 0.9654
-8.2645 1.5778 -1.9774 0.9660
-8.2339 0.8198 -1.9447 0.9666
-8.1449 0.0801 -1.9143 0.9671
-7.8042 -1.3314 -1.8607 0.9680
-6.9326 -3.2399 -1.7985 0.9690
-6.5576 -3.8123 -1.7827 0.9693
-5.6970 -4.8514 -1.7586 0.9697
-5.2163 -5.3154 -1.7503 0.9699
-7.3192 -0.6573 -1.9027 0.9701
-6.9186 -1.9027 -1.8579 0.9708
-6.6522 -2.4870 -1.8388 0.9711
-6.0001 -3.5688 -1.8076 0.9716
-5.2055 -4.5233 -1.7856 0.9719
-3.2629 -6.0044 -1.7694 0.9722
-2.7165 -6.2780 -1.7711 0.9721
-1.5658 -6.7005 -1.7816 0.9720
-0.3530 -6.9484 -1.8014 0.9717
0.2708 -7.0037 -1.8147 0.9715
2.8190 -6.7376 -1.8910 0.9703
4.0805 -6.2955 -1.9425 0.9695
6.9317 -4.2374 -2.1035 0.9670
2.3484 -0.9106 -0.6522 0.9896
7.6493 -2.2036 -2.0611 0.9676
8.2051 -0.8371 -2.1355 0.9665
