ply
format ascii 1.0
element vertex 1591
property float32 x
property float32 y
property float32 z
property float32 I
end_header
-6.4688 -7.4314 -1.6231 0.9608
-5.7604 -7.9539 -1.6179 0.9610
-8.7391 8.2836 -2.2633 0.9522
-2.4664 1.9508 -0.5911 0.9873
-10.1527 3.2678 -2.0047 0.9575
-10.1770 2.2965 -1.9610 0.9584
-10.1265 1.3495 -1.9202 0.9593
-10.0060 0.4309 -1.8825 0.9601
-9.8202 -0.4561 -1.8478 0.9608
-9.5736 -1.3088 -1.8162 0.9614
-9.2704 -2.1249 -1.7877 0.9620
-8.0590 -4.3367 -1.7202 0.9634
-7.5659 -4.9908 -1.7036 0.9638
-6.4635 -6.1682 -1.6793 0.9643
-5.8592 -6.6896 -1.6715 0.9645
-4.5559 -7.5932 -1.6644 0.9646
-3.8611 -7.9734 -1.6652 0.9646
-3.1401 -8.3043 -1.6687 0.9645
-0.0338 -9.1075 -1.7119 0.9636
0.7882 -9.1699 -1.7299 0.9632
3.3245 -8.9929 -1.8021 0.9617
4.1833 -8.8047 -1.8322 0.9611
5.8988 -8.2200 -1.9017 0.9597
7.5794 -7.3413 -1.9833 0.9580
9.8670 -4.3077 -2.0236 0.9571
11.4925 -1.6581 -2.1825 0.9538
11.8880 -0.6406 -2.2377 0.9527
10.9493 1.3766 -2.0742 0.9561
9.4605 2.0612 -1.8199 0.9614
6.4319 3.3720 -1.3650 0.9709
5.0161 3.9074 -1.1951 0.9745
4.4566 4.1620 -1.1462 0.9755
3.0065 4.8905 -1.0790 0.9769
2.5427 5.1095 -1.0727 0.9770
-1.8553 7.1511 -1.3886 0.9704
-4.2751 11.9600 -2.3873 0.9496
-5.2052 11.2679 -2.3330 0.9507
-6.0445 10.5032 -2.2778 0.9519
-6.7892 9.6797 -2.2223 0.9530
-8.0148 9.4942 -2.3354 0.9507
-2.4370 2.0146 -0.5943 0.9872
-10.1453 1.5757 -1.9298 0.9591
-9.8708 -0.2450 -1.8559 0.9606
-8.6117 -3.4658 -1.7448 0.9629
-8.1718 -4.1724 -1.7246 0.9633
-6.0081 -6.5679 -1.6731 0.9644
-3.3165 -8.2290 -1.6676 0.9645
-2.5770 -8.5217 -1.6734 0.9644
-0.2299 -9.0838 -1.7079 0.9637
3.1176 -9.0283 -1.7953 0.9619
3.9757 -8.8563 -1.8247 0.9613
7.3798 -7.4636 -1.9729 0.9582
8.1981 -6.9275 -2.0174 0.9573
9.7496 -5.6171 -2.1149 0.9552
9.7131 -4.4927 -2.0115 0.9574
10.3307 -3.6984 -2.0625 0.9563
11.3847 -1.8943 -2.1693 0.9541
11.3741 1.1811 -2.1494 0.9545
9.7858 1.9117 -1.8741 0.9602
7.5427 2.9414 -1.5217 0.9676
5.8440 3.5889 -1.2890 0.9725
4.2542 4.5509 -1.1709 0.9750
3.7328 4.7873 -1.1410 0.9756
3.1184 4.8352 -1.0815 0.9769
2.6549 5.0580 -1.0737 0.9770
2.1888 5.2661 -1.0719 0.9771
1.7162 5.4616 -1.0761 0.9770
0.3842 3.0442 -0.5767 0.9876
-0.3381 6.3322 -1.1919 0.9745
-0.8651 6.0170 -1.1426 0.9756
-1.6669 7.0474 -1.3612 0.9710
-5.8504 10.6937 -2.2911 0.9516
-7.8555 9.7241 -2.3496 0.9504
-8.9947 7.7686 -2.2339 0.9528
-9.7369 5.7507 -2.1255 0.9550
-9.9683 4.7421 -2.0749 0.9561
-10.1127 3.7440 -2.0269 0.9571
-10.1599 1.8035 -1.9395 0.9589
-10.0726 0.8707 -1.9003 0.9597
-9.9178 -0.0320 -1.8642 0.9604
-9.4236 -1.7355 -1.8011 0.9618
-9.0927 -2.5319 -1.7741 0.9623
-8.7110 -3.2891 -1.7502 0.9628
-8.2821 -4.0056 -1.7292 0.9632
-7.8092 -4.6803 -1.7113 0.9636
-7.2952 -5.3122 -1.6962 0.9639
-6.7430 -5.9002 -1.6841 0.9642
-5.5339 -6.9412 -1.6686 0.9645
-4.8815 -7.3923 -1.6651 0.9646
-3.4914 -8.1507 -1.6667 0.9646
-2.0007 -8.7093 -1.6797 0.9643
-0.4251 -9.0568 -1.7042 0.9638
0.3894 -9.1470 -1.7208 0.9634
6.3384 -8.0218 -1.9217 0.9592
7.1792 -7.5814 -1.9625 0.9584
8.0027 -7.0641 -2.0064 0.9575
8.8020 -6.4682 -2.0531 0.9565
11.2722 -2.1267 -2.1561 0.9544
10.1311 1.7529 -1.9326 0.9590
8.8224 2.3543 -1.7163 0.9635
6.8477 3.2211 -1.4224 0.9697
6.0234 3.5222 -1.3115 0.9720
5.3195 3.7863 -1.2273 0.9738
3.2304 4.7790 -1.0842 0.9768
1.8311 5.4155 -1.0745 0.9770
1.3508 5.6023 -1.0832 0.9768
0.4277 2.8856 -0.5483 0.9882
0.3473 6.0132 -1.1321 0.9758
-0.1988 6.2592 -1.1771 0.9748
-0.8012 6.5779 -1.2455 0.9734
-4.7672 11.6121 -2.3594 0.9502
-5.6509 10.8806 -2.3045 0.9513
-7.6902 9.9516 -2.3639 0.9501
-8.3357 8.9953 -2.3051 0.9513
-9.6674 5.9949 -2.1381 0.9548
-10.0856 3.9837 -2.0382 0.9568
-10.1672 2.9978 -1.9924 0.9578
-10.1704 2.0328 -1.9494 0.9587
-10.1001 1.0933 -1.9095 0.9595
-9.9611 0.1830 -1.8726 0.9603
-9.7581 -0.6948 -1.8388 0.9610
-9.4955 -1.5375 -1.8080 0.9616
-9.1774 -2.3432 -1.7803 0.9622
-8.8076 -3.1099 -1.7557 0.9627
-8.3898 -3.8364 -1.7340 0.9631
-6.8797 -5.7623 -1.6868 0.9641
-5.6868 -6.8253 -1.6698 0.9645
-5.0417 -7.2878 -1.6657 0.9646
-4.3671 -7.7029 -1.6643 0.9646
-2.9370 -8.3867 -1.6702 0.9645
1.0173 -9.1768 -1.7354 0.9631
2.7050 -9.0877 -1.7822 0.9621
3.5609 -8.9477 -1.8101 0.9616
4.4204 -8.7409 -1.8411 0.9609
5.2794 -8.4648 -1.8751 0.9602
7.8058 -7.1961 -1.9955 0.9577
8.6117 -6.6193 -2.0416 0.9568
9.3878 -5.9629 -2.0904 0.9557
11.1554 -2.3552 -2.1430 0.9547
11.9815 -0.3496 -2.2530 0.9524
10.4988 1.5839 -1.9957 0.9577
9.1111 2.2217 -1.7627 0.9626
6.2098 3.4534 -1.3355 0.9715
5.4805 3.7252 -1.2456 0.9734
4.8571 3.9798 -1.1803 0.9748
4.3099 4.2287 -1.1349 0.9757
3.9813 4.6747 -1.1541 0.9753
3.3425 4.7218 -1.0874 0.9767
2.4144 5.1673 -1.0720 0.9771
1.9454 5.3687 -1.0733 0.9770
0.4907 2.8804 -0.5492 0.9882
0.4733 5.9570 -1.1232 0.9760
-0.6493 6.4969 -1.2272 0.9738
-4.5404 11.7773 -2.3725 0.9499
-5.4459 11.0637 -2.3178 0.9510
-2.4751 1.9453 -0.5917 0.9873
-9.8677 5.2282 -2.0990 0.9556
-10.0535 4.2242 -2.0497 0.9566
-10.0007 0.3999 -1.8812 0.9601
-9.8127 -0.4859 -1.8467 0.9608
-9.5641 -1.3374 -1.8152 0.9615
-8.9014 -2.9285 -1.7613 0.9626
-8.4949 -3.6648 -1.7390 0.9630
-8.0428 -4.3598 -1.7196 0.9634
-6.4433 -6.1868 -1.6790 0.9643
-5.2003 -7.1804 -1.6664 0.9646
-4.5326 -7.6070 -1.6644 0.9646
-8.5041 5.5685 -2.1487 0.9593
-9.1240 2.0589 -1.9771 0.9625
-9.0983 1.2125 -1.9402 0.9632
-8.0769 -2.6298 -1.7955 0.9659
-7.3182 -3.9380 -1.7567 0.9666
-6.8765 -4.5360 -1.7413 0.9669
-5.8822 -5.6134 -1.7187 0.9673
-4.7561 -6.5250 -1.7068 0.9675
-3.5165 -7.2618 -1.7055 0.9676
-2.8593 -7.5617 -1.7088 0.9675
-0.7635 -8.1719 -1.7349 0.9670
-0.0307 -8.2739 -1.7489 0.9667
0.7153 -8.3226 -1.7657 0.9664
4.5440 -7.7024 -1.8903 0.9641
5.3051 -7.3927 -1.9234 0.9635
6.0546 -7.0170 -1.9591 0.9628
6.7872 -6.5740 -1.9973 0.9621
7.4971 -6.0625 -2.0380 0.9613
8.1778 -5.4819 -2.0811 0.9605
8.8117 -4.8264 -2.1237 0.9598
8.7447 -3.8178 -2.0169 0.9617
9.2539 -3.0891 -2.0622 0.9609
10.0953 -1.4565 -2.1560 0.9592
10.4106 -0.5610 -2.2038 0.9583
10.6445 0.3793 -2.2515 0.9574
10.7890 1.3564 -2.2985 0.9565
7.3142 3.0358 -1.6740 0.9681
6.4960 3.4057 -1.5504 0.9705
5.7828 3.7256 -1.4541 0.9723
4.5041 4.2064 -1.3027 0.9751
4.1207 4.6035 -1.3060 0.9751
2.9719 4.8341 -1.1995 0.9771
2.5074 5.0385 -1.1896 0.9773
2.0492 5.2473 -1.1908 0.9772
1.5883 5.4646 -1.2029 0.9770
-0.4902 6.5279 -1.3838 0.9736
-0.9751 5.8778 -1.2594 0.9759
-1.8595 7.1673 -1.5652 0.9702
-4.5344 9.8157 -2.2855 0.9568
-5.9505 8.4840 -2.1905 0.9585
-6.5391 7.7461 -2.1428 0.9594
-7.5930 7.5151 -2.2582 0.9573
-8.4264 5.7814 -2.1601 0.9591
-8.7169 4.8975 -2.1135 0.9599
-9.1106 1.4150 -1.9489 0.9630
-8.4557 -1.7468 -1.8251 0.9653
-7.8097 -3.1431 -1.7795 0.9662
-6.9867 -4.3952 -1.7448 0.9668
-6.0096 -5.4920 -1.7208 0.9673
-5.4695 -5.9792 -1.7129 0.9674
-4.8984 -6.4240 -1.7076 0.9675
-4.2984 -6.8255 -1.7050 0.9676
-3.6716 -7.1824 -1.7051 0.9676
-0.9382 -8.1394 -1.7319 0.9671
-0.2089 -8.2541 -1.7453 0.9668
2.0514 -8.2733 -1.8018 0.9658
5.1222 -7.4734 -1.9152 0.9636
5.8749 -7.1138 -1.9502 0.9630
7.3281 -6.1923 -2.0280 0.9615
8.6704 -4.9953 -2.1152 0.9599
8.6143 -3.9845 -2.0062 0.9619
9.1358 -3.2706 -2.0512 0.9611
9.6031 -2.4964 -2.0974 0.9602
10.0079 -1.6652 -2.1445 0.9594
10.3416 -0.7815 -2.1922 0.9585
10.7627 1.1176 -2.2873 0.9567
8.5329 2.4756 -1.8781 0.9643
6.6811 3.3208 -1.5771 0.9700
5.9516 3.6549 -1.4763 0.9718
5.2606 3.9182 -1.3865 0.9735
4.2489 4.5452 -1.3152 0.9749
3.7283 4.7815 -1.2817 0.9755
3.0860 4.7849 -1.2035 0.9770
1.7003 5.4112 -1.1990 0.9771
1.2312 5.6380 -1.2198 0.9767
0.3757 2.9762 -0.6341 0.9878
0.2221 6.1497 -1.3008 0.9752
-0.3444 6.4495 -1.3652 0.9739
-4.3427 9.9602 -2.2968 0.9565
-5.1082 9.3371 -2.2497 0.9574
-6.4045 7.9278 -2.1543 0.9592
-7.9495 6.8659 -2.2203 0.9580
-8.3439 5.9938 -2.1716 0.9589
-8.6543 5.1113 -2.1246 0.9597
-8.8835 4.2261 -2.0795 0.9606
-9.0350 3.3450 -2.0365 0.9614
-9.1190 1.6187 -1.9577 0.9628
-9.0594 0.7831 -1.9221 0.9635
-8.9373 -0.0288 -1.8892 0.9641
-8.5205 -1.5692 -1.8313 0.9652
-8.2331 -2.2925 -1.8065 0.9657
-7.5171 -3.6356 -1.7650 0.9664
-6.6331 -4.8300 -1.7344 0.9670
-5.6029 -5.8654 -1.7146 0.9674
-5.0391 -6.3206 -1.7087 0.9675
-4.4458 -6.7326 -1.7054 0.9676
-3.1795 -7.4227 -1.7069 0.9675
-0.3864 -8.2312 -1.7418 0.9669
1.1055 -8.3262 -1.7754 0.9662
1.8666 -8.2905 -1.7963 0.9659
3.4042 -8.0437 -1.8463 0.9649
4.1738 -7.8288 -1.8753 0.9644
5.6944 -7.2067 -1.9415 0.9631
7.1575 -6.3181 -2.0181 0.9617
7.8532 -5.7709 -2.0600 0.9609
8.5112 -4.1622 -2.0027 0.9620
2.3591 -0.9025 -0.5339 0.9897
10.5423 -0.0799 -2.2285 0.9578
10.1100 1.7493 -2.1688 0.9589
6.8728 3.2329 -1.6055 0.9694
4.7861 4.0975 -1.3318 0.9746
3.8516 4.7256 -1.2887 0.9754
3.2012 4.7357 -1.2083 0.9769
2.7303 4.9395 -1.1930 0.9772
2.2702 5.1457 -1.1888 0.9773
1.3459 5.5819 -1.2137 0.9768
0.3514 6.0825 -1.2879 0.9754
-0.8167 6.7054 -1.4279 0.9728
-1.2769 5.9716 -1.2908 0.9753
-3.2914 10.6363 -2.3535 0.9555
-4.1467 10.1007 -2.3080 0.9563
-5.6374 8.8251 -2.2136 0.9581
-6.2650 8.1073 -2.1658 0.9590
-6.8116 7.3506 -2.1183 0.9599
-2.5629 1.9263 -0.6777 0.9870
-8.5869 5.3249 -2.1358 0.9595
-9.0797 0.9828 -1.9305 0.9634
-8.9723 0.1649 -1.8969 0.9640
-8.8053 -0.6269 -1.8660 0.9646
-8.5823 -1.3897 -1.8378 0.9651
-8.3070 -2.1209 -1.8123 0.9656
-7.6129 -3.4811 -1.7695 0.9664
-7.2003 -4.1067 -1.7522 0.9667
-5.1780 -6.2146 -1.7099 0.9675
-4.5916 -6.6371 -1.7060 0.9675
-2.6742 -7.6361 -1.7102 0.9675
-1.2847 -8.0656 -1.7264 0.9672
-0.5629 -8.2052 -1.7385 0.9669
0.1738 -8.2927 -1.7533 0.9667
0.9230 -8.3264 -1.7708 0.9663
1.6821 -8.3044 -1.7910 0.9660
2.4482 -8.2250 -1.8140 0.9655
3.2181 -8.0863 -1.8397 0.9650
4.7547 -7.6235 -1.8992 0.9639
7.6879 -5.9093 -2.0497 0.9611
8.9642 -4.6262 -2.1323 0.9596
9.8208 -2.0735 -2.1217 0.9598
7.0716 3.1417 -1.6357 0.9689
6.2919 3.4991 -1.5218 0.9710
4.9326 4.0416 -1.3480 0.9743
4.3490 4.2670 -1.2879 0.9754
2.8426 4.8902 -1.1956 0.9771
1.9228 5.3062 -1.1930 0.9772
0.4781 6.0170 -1.2759 0.9756
-0.6617 6.6208 -1.4065 0.9732
-1.1864 6.2004 -1.3344 0.9745
-5.4739 8.9914 -2.2251 0.9579
-6.6871 7.5363 -2.1297 0.9596
-7.7284 7.2807 -2.2444 0.9575
-2.4736 1.9441 -0.6650 0.9872
-8.5147 5.5382 -2.1471 0.9593
-8.7828 4.6534 -2.1010 0.9602
-9.0839 2.8931 -2.0152 0.9618
-9.1243 2.0296 -1.9758 0.9625
-9.0963 1.1839 -1.9390 0.9632
-9.0038 0.3601 -1.9048 0.9638
-8.6410 -1.2083 -1.8443 0.9650
-7.7062 -3.3245 -1.7741 0.9663
-7.3037 -3.9591 -1.7561 0.9666
-6.8607 -4.5558 -1.7408 0.9669
-5.3151 -6.1061 -1.7112 0.9674
-4.1282 -6.9284 -1.7048 0.9676
-6.3976 6.0641 -2.0717 0.9644
-2.4658 1.9503 -0.7389 0.9872
-7.8976 4.2155 -2.1040 0.9639
-8.2069 2.6415 -2.0263 0.9652
-8.2611 1.8642 -1.9904 0.9658
-8.2524 1.0998 -1.9566 0.9664
-8.1840 0.3524 -1.9252 0.9669
-7.8808 -1.0774 -1.8694 0.9678
-7.6525 -1.7540 -1.8452 0.9683
-7.0575 -3.0190 -1.8041 0.9690
-6.2972 -4.1539 -1.7730 0.9695
-5.8616 -4.6685 -1.7612 0.9697
-5.3925 -5.1461 -1.7519 0.9698
-4.8921 -5.5855 -1.7450 0.9700
-2.6226 -6.9355 -1.7426 0.9700
-1.9989 -7.1651 -1.7483 0.9699
-0.0281 -7.5740 -1.7801 0.9694
0.6543 -7.6124 -1.7957 0.9691
5.4867 -6.3588 -1.9739 0.9661
7.3677 -4.9389 -2.0846 0.9642
7.9166 -4.3361 -2.1214 0.9636
8.2816 -2.7646 -2.0520 0.9648
8.6665 -2.0542 -2.0933 0.9641
8.9916 -1.2972 -2.1351 0.9634
9.2501 -0.4985 -2.1771 0.9627
9.4352 0.3362 -2.2189 0.9619
9.4232 2.0531 -2.2666 0.9611
8.2583 2.5906 -2.0342 0.9651
7.3023 3.0309 -1.8582 0.9680
4.1156 4.5977 -1.4502 0.9750
3.6018 4.8309 -1.4162 0.9755
2.5489 5.1219 -1.3446 0.9768
1.5087 3.8632 -0.9747 0.9831
0.5748 2.9350 -0.7029 0.9878
0.3147 3.0164 -0.7128 0.9876
0.0913 6.2937 -1.4793 0.9745
-1.8567 7.1564 -1.7376 0.9701
-4.0123 8.6856 -2.2486 0.9614
-4.6846 8.1402 -2.2073 0.9621
-6.2953 6.2308 -2.0817 0.9643
-2.4411 2.0180 -0.7444 0.9871
-7.5633 5.1892 -2.1557 0.9630
-8.1840 2.8306 -2.0352 0.9650
-8.2539 2.0508 -1.9988 0.9657
-8.2601 1.2829 -1.9646 0.9662
-8.0942 -0.2009 -1.9029 0.9673
-7.9286 -0.9100 -1.8756 0.9677
-7.7121 -1.5932 -1.8508 0.9682
-6.7874 -3.4655 -1.7911 0.9692
-5.9700 -4.5476 -1.7638 0.9696
-5.0157 -5.4830 -1.7465 0.9699
-1.5136 -7.3088 -1.7542 0.9698
-0.8595 -7.4571 -1.7642 0.9696
1.1777 -7.6073 -1.8092 0.9689
4.6515 -6.7867 -1.9337 0.9668
5.3261 -6.4493 -1.9658 0.9662
5.9837 -6.0516 -2.0001 0.9656
6.6189 -5.5930 -2.0366 0.9650
7.7312 -3.5760 -2.0020 0.9656
8.1806 -2.9286 -2.0421 0.9649
8.5788 -2.2301 -2.0832 0.9642
8.9189 -1.4840 -2.1250 0.9635
9.1941 -0.6948 -2.1670 0.9628
9.3975 0.1318 -2.2089 0.9621
9.5637 1.8683 -2.2902 0.9608
8.5174 2.4711 -2.0843 0.9642
7.5178 2.9317 -1.8965 0.9674
6.6709 3.3157 -1.7508 0.9699
5.9431 3.6497 -1.6391 0.9717
5.2971 3.9454 -1.5523 0.9732
4.2436 4.5395 -1.4605 0.9748
3.7238 4.7757 -1.4233 0.9754
2.6620 5.0716 -1.3462 0.9767
2.1955 5.2823 -1.3444 0.9768
0.6630 3.0359 -0.7303 0.9873
0.3723 2.9501 -0.6988 0.9879
-0.3465 6.4881 -1.5270 0.9737
-0.8654 6.0193 -1.4292 0.9753
-3.0918 9.2769 -2.2982 0.9606
-3.8405 8.8084 -2.2584 0.9613
-4.5282 8.2770 -2.2174 0.9620
-5.1506 7.6917 -2.1756 0.9627
-5.7048 7.0617 -2.1336 0.9634
-8.1573 3.0201 -2.0443 0.9649
-8.2643 1.4670 -1.9727 0.9661
-8.2243 0.7109 -1.9401 0.9666
-8.1262 -0.0262 -1.9099 0.9672
-7.9733 -0.7410 -1.8820 0.9676
-7.2172 -2.7250 -1.8131 0.9688
-6.8759 -3.3255 -1.7951 0.9691
-6.0763 -4.4245 -1.7666 0.9696
-5.6231 -4.9202 -1.7560 0.9698
-3.5092 -6.5137 -1.7389 0.9701
-2.9165 -6.8087 -1.7408 0.9700
-1.6692 -7.2660 -1.7522 0.9698
-1.0188 -7.4257 -1.7616 0.9697
1.0107 -7.6122 -1.8047 0.9689
2.4028 -7.4780 -1.8460 0.9682
3.7976 -7.1230 -1.8971 0.9674
4.4866 -6.8592 -1.9263 0.9669
5.1647 -6.5363 -1.9578 0.9663
5.8268 -6.1532 -1.9916 0.9658
7.0823 -5.2045 -2.0656 0.9645
2.3631 -0.9040 -0.5946 0.9897
8.4877 -2.4033 -2.0732 0.9644
8.8425 -1.6683 -2.1149 0.9637
9.1340 -0.8890 -2.1569 0.9630
9.3554 -0.0709 -2.1988 0.9623
9.5618 1.6544 -2.2806 0.9609
6.1103 3.5730 -1.6636 0.9713
4.8481 4.1506 -1.4999 0.9741
4.2912 4.3962 -1.4438 0.9751
3.8469 4.7198 -1.4310 0.9753
3.2550 4.8154 -1.3660 0.9764
2.7757 5.0215 -1.3485 0.9767
2.3078 5.2309 -1.3437 0.9768
1.8419 5.4476 -1.3515 0.9766
1.3686 5.6762 -1.3723 0.9763
0.3567 6.1756 -1.4538 0.9749
-0.2041 6.4249 -1.5108 0.9739
-1.2702 5.9403 -1.4277 0.9753
-2.9025 9.3795 -2.3075 0.9605
-4.3680 8.4106 -2.2274 0.9618
-6.5093 5.8721 -2.0603 0.9646
-2.5557 1.9209 -0.7514 0.9869
-8.2283 2.4261 -2.0162 0.9654
-7.2933 -2.5752 -1.8178 0.9687
-6.9620 -3.1835 -1.7992 0.9690
-6.5903 -3.7588 -1.7831 0.9693
-6.1806 -4.2994 -1.7695 0.9695
-5.7356 -4.8039 -1.7583 0.9697
-5.2575 -5.2711 -1.7497 0.9699
-3.0617 -6.7414 -1.7401 0.9700
-2.4526 -7.0033 -1.7439 0.9700
-1.8237 -7.2204 -1.7503 0.9699
-1.1773 -7.3914 -1.7591 0.9697
-0.5156 -7.5150 -1.7703 0.9695
0.1590 -7.5897 -1.7841 0.9693
0.8440 -7.6140 -1.8004 0.9690
2.9330 -7.3700 -1.8642 0.9679
3.6300 -7.1780 -1.8904 0.9675
4.3211 -6.9283 -1.9191 0.9670
5.0022 -6.6197 -1.9500 0.9665
6.3153 -5.8221 -2.0187 0.9653
7.5270 -4.7809 -2.0957 0.9640
7.5118 -3.8767 -1.9867 0.9659
8.3933 -2.5736 -2.0633 0.9646
8.7624 -1.8500 -2.1048 0.9639
9.0698 -1.0809 -2.1467 0.9632
7.0603 3.1367 -1.8157 0.9688
5.6004 3.8067 -1.5915 0.9726
3.9715 4.6632 -1.4396 0.9751
3.3736 4.7657 -1.3723 0.9763
2.8900 4.9716 -1.3515 0.9766
1.4841 5.6197 -1.3660 0.9764
0.4842 2.8423 -0.6776 0.9882
-2.7101 9.4779 -2.3168 0.9603
-3.4863 9.0431 -2.2778 0.9610
-4.2041 8.5409 -2.2373 0.9616
-4.8585 7.9804 -2.1958 0.9623
-5.4459 7.3709 -2.1539 0.9630
-5.9640 6.7214 -2.1119 0.9638
-2.4721 1.9430 -0.7390 0.9872
-7.9053 4.1885 -2.1026 0.9639
-8.0919 3.4000 -2.0628 0.9646
-8.1806 0.3271 -1.9242 0.9669
-8.0538 -0.3988 -1.8951 0.9674
-7.6438 -1.7767 -1.8444 0.9683
-7.0458 -3.0396 -1.8035 0.9690
-6.6836 -3.6230 -1.7867 0.9692
-5.3758 -5.1618 -1.7516 0.9698
-4.8744 -5.5998 -1.7448 0.9700
-4.3441 -5.9982 -1.7406 0.9700
-3.7871 -6.3559 -1.7388 0.9701
-3.2055 -6.6716 -1.7396 0.9700
-7.1729 3.8286 -2.1052 0.9670
-7.4914 0.3226 -1.9414 0.9695
-7.2316 -0.9886 -1.8898 0.9703
-6.7831 -2.2085 -1.8470 0.9710
-6.4948 -2.7783 -1.8290 0.9712
-5.8031 -3.8279 -1.8000 0.9717
-4.9740 -4.7468 -1.7802 0.9720
-2.9771 -6.1479 -1.7686 0.9722
-2.4200 -6.3999 -1.7716 0.9721
-1.2516 -6.7773 -1.7844 0.9719
-0.6447 -6.9002 -1.7944 0.9718
-0.0259 -6.9776 -1.8066 0.9716
0.6024 -7.0081 -1.8212 0.9714
1.2374 -6.9905 -1.8381 0.9711
2.5160 -6.8059 -1.8787 0.9705
3.1531 -6.6365 -1.9024 0.9701
3.7841 -6.4143 -1.9283 0.9697
4.4050 -6.1385 -1.9562 0.9693
5.0116 -5.8083 -1.9863 0.9688
6.6972 -4.4894 -2.0876 0.9672
7.8194 -1.8535 -2.0807 0.9673
8.0970 -1.1682 -2.1182 0.9668
8.3135 -0.4480 -2.1556 0.9662
8.5416 1.0739 -2.2290 0.9651
7.2903 3.0259 -2.0437 0.9679
6.4764 3.3954 -1.8933 0.9702
5.7723 3.7188 -1.7779 0.9720
5.1439 4.0069 -1.6882 0.9734
4.5709 4.2687 -1.6193 0.9745
4.1104 4.5919 -1.5957 0.9749
3.5974 4.8250 -1.5583 0.9754
3.0494 4.9601 -1.5075 0.9762
2.5750 5.1743 -1.4965 0.9764
1.4959 3.8304 -1.0647 0.9832
0.5756 2.9390 -0.7754 0.9877
0.3129 2.9991 -0.7807 0.9876
0.0912 6.2855 -1.6276 0.9744
-0.4913 6.5438 -1.6991 0.9732
-1.8538 7.1455 -1.9113 0.9700
-4.7576 6.7832 -2.1452 0.9663
-5.6831 5.6248 -2.0703 0.9675
-2.4440 2.0204 -0.8210 0.9870
-6.8537 4.7024 -2.1521 0.9662
-7.1187 3.9996 -2.1142 0.9668
-7.3187 3.2897 -2.0776 0.9674
-7.4554 2.5785 -2.0425 0.9679
-7.5480 1.1723 -1.9777 0.9689
-7.5089 0.4860 -1.9483 0.9694
-7.4165 -0.1841 -1.9208 0.9698
-7.2734 -0.8348 -1.8956 0.9702
-7.0825 -1.4632 -1.8725 0.9706
-6.8466 -2.0668 -1.8517 0.9709
-6.5681 -2.6434 -1.8332 0.9712
-6.2498 -3.1910 -1.8169 0.9714
-5.8943 -3.7079 -1.8030 0.9716
-5.0808 -4.6432 -1.7821 0.9720
-3.1086 -6.0810 -1.7683 0.9722
-1.9848 -6.5633 -1.7753 0.9721
-1.3960 -6.7410 -1.7824 0.9720
-0.1763 -6.9631 -1.8035 0.9716
1.0836 -6.9992 -1.8338 0.9712
2.3616 -6.8389 -1.8733 0.9705
4.8667 -5.8930 -1.9789 0.9689
5.4593 -5.5213 -2.0104 0.9684
6.0292 -5.0948 -2.0438 0.9679
6.5712 -4.6137 -2.0789 0.9674
7.0725 -4.0748 -2.1134 0.9668
8.5295 0.8857 -2.2203 0.9652
8.5503 1.6703 -2.2557 0.9646
6.6606 3.3106 -1.9258 0.9697
5.2899 3.9400 -1.7078 0.9731
4.7050 4.2075 -1.6343 0.9743
3.1652 4.9077 -1.5120 0.9762
1.2590 5.7652 -1.5279 0.9759
-0.3460 6.4794 -1.6800 0.9735
-1.6710 7.0649 -1.8797 0.9704
-2.7632 8.2909 -2.2627 0.9645
-4.0621 7.4250 -2.1914 0.9656
-5.1376 6.3596 -2.1168 0.9668
-5.5845 5.7712 -2.0793 0.9674
-5.9693 5.1556 -2.0422 0.9679
-6.7799 4.8703 -2.1614 0.9661
-7.0608 4.1701 -2.1232 0.9667
-7.2762 3.4615 -2.0863 0.9673
-7.5182 2.0414 -2.0171 0.9683
-7.5233 0.6503 -1.9552 0.9693
-7.3124 -0.6796 -1.9015 0.9701
-7.1329 -1.3136 -1.8779 0.9705
-6.9075 -1.9234 -1.8565 0.9708
-5.9834 -3.5860 -1.8061 0.9716
-5.6011 -4.0785 -1.7940 0.9718
-5.1857 -4.5376 -1.7841 0.9719
-4.2649 -5.3496 -1.7714 0.9721
-3.7639 -5.7000 -1.7686 0.9722
-3.2387 -6.0117 -1.7680 0.9722
-2.6915 -6.2834 -1.7699 0.9722
-0.9394 -6.8465 -1.7893 0.9718
0.9301 -7.0051 -1.8296 0.9712
1.5674 -6.9621 -1.8477 0.9709
2.2072 -6.8690 -1.8681 0.9706
2.8460 -6.7248 -1.8907 0.9703
3.4805 -6.5282 -1.9155 0.9699
4.1067 -6.2784 -1.9425 0.9695
4.7208 -5.9745 -1.9715 0.9690
5.3181 -5.6160 -2.0026 0.9685
6.9603 -4.2128 -2.1065 0.9669
6.9040 -3.3762 -1.9899 0.9687
2.3672 -0.9056 -0.6562 0.9896
7.6653 -2.1704 -2.0627 0.9676
7.9702 -1.5037 -2.1000 0.9670
8.2169 -0.7998 -2.1376 0.9665
8.3996 -0.0636 -2.1749 0.9659
8.5136 2.2719 -2.2815 0.9642
6.8513 3.2228 -1.9604 0.9692
5.4393 3.8716 -1.7287 0.9728
4.2912 4.3962 -1.5906 0.9749
3.8421 4.7139 -1.5746 0.9752
3.2817 4.8549 -1.5173 0.9761
2.8032 5.0713 -1.5003 0.9763
2.3313 5.2841 -1.4954 0.9764
1.3773 5.7122 -1.5214 0.9760
0.3563 6.1677 -1.5996 0.9748
-0.2038 6.4164 -1.6621 0.9738
-0.8145 6.6868 -1.7441 0.9726
-1.2681 5.9308 -1.5703 0.9753
-2.5929 8.3790 -2.2710 0.9644
-3.9166 7.5413 -2.2002 0.9655
-4.4978 7.0410 -2.1633 0.9661
-5.0204 6.4967 -2.1258 0.9666
-5.4823 5.9160 -2.0883 0.9672
-5.8822 5.3064 -2.0511 0.9678
-7.5020 2.2120 -2.0251 0.9682
-7.3486 -0.5232 -1.9075 0.9700
-6.7077 -2.3685 -1.8418 0.9710
-6.4083 -2.9303 -1.8245 0.9713
-5.6965 -3.9627 -1.7967 0.9717
-5.2889 -4.4299 -1.7863 0.9719
-4.8500 -4.8625 -1.7782 0.9720
-3.8872 -5.6189 -1.7690 0.9722
-1.6823 -6.6606 -1.7787 0.9720
-1.0856 -6.8157 -1.7869 0.9719
-0.4752 -6.9261 -1.7975 0.9717
0.1465 -6.9907 -1.8104 0.9715
0.7769 -7.0081 -1.8256 0.9713
1.4132 -6.9770 -1.8431 0.9710
2.6920 -6.7644 -1.8850 0.9704
4.5739 -6.0529 -1.9643 0.9691
5.1757 -5.7076 -1.9949 0.9687
5.7572 -5.3075 -2.0274 0.9682
6.3133 -4.8527 -2.0617 0.9676
6.8387 -4.3437 -2.0977 0.9671
2.3174 -0.9444 -0.6479 0.9897
7.9017 -1.6683 -2.0910 0.9672
8.1630 -0.9729 -2.1285 0.9666
8.3617 -0.2440 -2.1659 0.9660
7.9632 2.7154 -2.1784 0.9658
4.9811 4.0813 -1.6673 0.9737
4.4206 4.3373 -1.6035 0.9747
3.9665 4.6574 -1.5839 0.9750
3.3991 4.8017 -1.5232 0.9760
2.9178 5.0196 -1.5033 0.9763
1.3977 3.8571 -1.0622 0.9832
0.4855 6.1102 -1.5870 0.9750
-0.6615 6.6191 -1.7223 0.9729
-1.1233 5.8707 -1.5476 0.9756
-2.4200 8.4632 -2.2791 0.9643
-3.1187 8.0895 -2.2448 0.9648
-5.3764 6.0592 -2.0974 0.9671
-7.1803 3.8043 -2.1039 0.9670
-7.0219 -1.6322 -1.8666 0.9707
-6.1554 -3.3367 -1.8128 0.9715
-5.7900 -3.8448 -1.7996 0.9717
-5.3903 -4.3202 -1.7886 0.9719
-4.4976 -5.1669 -1.7736 0.9721
-4.0090 -5.5355 -1.7696 0.9722
-3.4952 -5.8661 -1.7680 0.9722
-2.9584 -6.1572 -1.7687 0.9722
-6.3243 4.1412 -2.1400 0.9691
-6.8634 2.2090 -2.0411 0.9705
-6.9288 1.5635 -2.0108 0.9709
-6.9404 0.9249 -1.9822 0.9713
-6.8113 -0.3164 -1.9303 0.9721
-6.6753 -0.9126 -1.9073 0.9724
-6.2722 -2.0422 -1.8674 0.9730
-5.7106 -3.0730 -1.8358 0.9734
-5.3763 -3.5464 -1.8233 0.9736
-4.6119 -4.4012 -1.8047 0.9738
-4.1863 -4.7797 -1.7987 0.9739
-2.7617 -5.7031 -1.7938 0.9740
-2.2446 -5.9361 -1.7966 0.9740
-0.5974 -6.3942 -1.8180 0.9737
-0.0240 -6.4626 -1.8295 0.9735
0.5576 -6.4870 -1.8432 0.9733
1.1446 -6.4663 -1.8590 0.9731
1.7342 -6.3993 -1.8769 0.9728
2.9090 -6.1228 -1.9190 0.9722
4.0552 -5.6509 -1.9690 0.9715
5.1415 -4.9800 -2.0264 0.9707
5.6513 -4.5700 -2.0575 0.9702
6.5614 -3.5938 -2.1179 0.9694
2.3396 -1.0214 -0.7227 0.9894
7.1158 -1.6867 -2.0703 0.9701
7.3564 -1.0613 -2.1041 0.9696
7.5409 -0.4064 -2.1379 0.9691
7.6647 0.2731 -2.1712 0.9686
7.7137 1.6806 -2.2349 0.9677
7.6326 2.3943 -2.2646 0.9673
7.2783 3.0209 -2.2309 0.9678
5.1368 4.0014 -1.8433 0.9733
4.1051 4.5861 -1.7424 0.9747
3.0456 4.9540 -1.6463 0.9761
1.4837 3.7994 -1.1547 0.9832
0.5786 2.9541 -0.8522 0.9876
0.3115 2.9855 -0.8498 0.9876
0.0911 6.2772 -1.7772 0.9742
-1.8510 7.1344 -2.0866 0.9698
-2.4469 2.0228 -0.8988 0.9869
-6.8393 2.3655 -2.0487 0.9704
-6.9148 0.4475 -1.9616 0.9716
-6.8372 -0.1697 -1.9362 0.9720
-6.0768 -2.4457 -1.8544 0.9731
-5.4601 -3.4348 -1.8261 0.9735
-4.2916 -4.6914 -1.8000 0.9739
-3.3760 -5.3608 -1.7935 0.9740
-2.8837 -5.6410 -1.7935 0.9740
-1.8406 -6.0867 -1.8002 0.9739
-1.2943 -6.2497 -1.8068 0.9738
-0.1633 -6.4501 -1.8266 0.9735
0.4166 -6.4852 -1.8397 0.9733
2.1814 -6.3170 -1.8919 0.9726
2.7682 -6.1664 -1.9135 0.9723
3.3487 -5.9671 -1.9371 0.9720
3.9193 -5.7184 -1.9626 0.9716
5.0147 -5.0716 -2.0191 0.9708
6.0193 -4.2262 -2.0821 0.9699
6.3978 -2.9593 -1.9955 0.9711
7.0498 -1.8327 -2.0621 0.9702
7.3033 -1.2152 -2.0959 0.9697
7.7154 0.8012 -2.1959 0.9683
7.6588 2.2220 -2.2576 0.9674
7.4926 2.9219 -2.2767 0.9671
6.6502 3.3054 -2.1024 0.9696
4.6988 4.2019 -1.7845 0.9741
3.7145 4.7638 -1.7101 0.9752
3.1613 4.9017 -1.6512 0.9760
2.2148 5.3288 -1.6337 0.9763
1.7413 5.5415 -1.6444 0.9761
1.2575 5.7580 -1.6685 0.9758
0.3626 2.8732 -0.8198 0.9880
0.2246 6.2179 -1.7614 0.9745
-2.4949 7.4859 -2.2338 0.9677
-4.1995 6.2713 -2.1366 0.9691
-4.6680 5.7783 -2.1029 0.9696
-5.4412 4.6995 -2.0354 0.9706
-5.7442 4.1264 -2.0022 0.9710
-6.4562 3.8131 -2.1227 0.9693
-6.8119 2.5220 -2.0563 0.9703
-6.9040 1.8746 -2.0252 0.9707
-6.7467 -0.6270 -1.9182 0.9722
-6.3847 -1.7779 -1.8762 0.9728
-4.8075 -4.2066 -1.8084 0.9738
-3.9559 -4.9619 -1.7965 0.9740
-3.4916 -5.2876 -1.7938 0.9740
-2.4966 -5.8284 -1.7950 0.9740
-1.4275 -6.2141 -1.8050 0.9738
-0.3020 -6.4350 -1.8237 0.9736
0.8606 -6.4820 -1.8511 0.9732
2.6269 -6.2072 -1.9081 0.9724
4.3432 -5.4966 -1.9832 0.9713
5.9041 -4.3387 -2.0742 0.9700
6.3666 -3.8535 -2.1068 0.9695
6.3075 -3.0846 -1.9877 0.9712
2.3713 -0.9072 -0.7187 0.9895
7.4592 -0.7260 -2.1216 0.9693
7.6128 -0.0577 -2.1552 0.9688
7.7034 0.6321 -2.1881 0.9684
7.5620 2.7623 -2.2791 0.9671
6.8404 3.2177 -2.1400 0.9691
6.0923 3.5625 -1.9979 0.9711
5.4317 3.8661 -1.8874 0.9727
4.8352 4.1395 -1.8019 0.9739
3.2777 4.8489 -1.6569 0.9760
2.7998 5.0652 -1.6384 0.9762
2.3285 5.2777 -1.6330 0.9763
0.4148 2.7985 -0.8009 0.9883
-0.8133 6.6773 -1.9043 0.9724
-2.3403 7.5628 -2.2411 0.9676
-3.5458 6.8274 -2.1779 0.9685
-4.0785 6.3846 -2.1447 0.9690
-4.5598 5.9006 -2.1111 0.9695
-4.9873 5.3819 -2.0772 0.9700
-2.5423 1.9108 -0.9003 0.9869
-6.3974 3.9671 -2.1310 0.9692
-6.7813 2.6785 -2.0641 0.9701
-6.8869 2.0306 -2.0326 0.9706
-6.9373 1.3866 -2.0027 0.9710
-6.8807 0.1264 -1.9482 0.9718
-6.6298 -1.0735 -1.9013 0.9725
-6.4375 -1.6436 -1.8809 0.9728
-5.6218 -3.2064 -1.8322 0.9735
-4.9027 -4.1064 -1.8104 0.9738
-4.4973 -4.5089 -1.8028 0.9739
-4.0643 -4.8780 -1.7974 0.9740
-3.6059 -5.2122 -1.7942 0.9740
-3.1241 -5.5104 -1.7932 0.9740
-2.6210 -5.7712 -1.7944 0.9740
-2.0989 -5.9935 -1.7978 0.9739
-1.5599 -6.1761 -1.8033 0.9739
-1.0063 -6.3178 -1.8111 0.9738
-0.4403 -6.4174 -1.8210 0.9736
0.1357 -6.4738 -1.8331 0.9734
0.7190 -6.4859 -1.8473 0.9732
1.8968 -6.3726 -1.8822 0.9727
2.4854 -6.2452 -1.9028 0.9724
3.0694 -6.0695 -1.9254 0.9721
4.7572 -5.2460 -2.0048 0.9710
2.3164 -0.9440 -0.7081 0.9897
6.9092 -2.1185 -2.0458 0.9704
7.1875 -1.5175 -2.0796 0.9699
7.4131 -0.8835 -2.1135 0.9694
7.6875 0.4640 -2.1802 0.9685
7.7277 1.1658 -2.2124 0.9680
7.6986 1.8773 -2.2433 0.9676
7.0376 3.1266 -2.1801 0.9685
6.2638 3.4835 -2.0290 0.9706
5.5846 3.7959 -1.9116 0.9723
3.3949 4.7958 -1.6634 0.9759
1.3907 3.8380 -1.1556 0.9832
1.4929 5.6528 -1.6551 0.9760
0.4849 6.1023 -1.7330 0.9749
-0.6606 6.6099 -1.8805 0.9728
-2.8181 7.3097 -2.2178 0.9680
-4.4484 6.0209 -2.1192 0.9694
-5.2749 4.9693 -2.0516 0.9703
-6.3344 4.1201 -2.1392 0.9691
-6.7473 2.8350 -2.0719 0.9700
-6.9399 0.9032 -1.9812 0.9713
-6.8074 -0.3371 -1.9295 0.9721
-6.6698 -0.9327 -1.9065 0.9724
-6.4878 -1.5080 -1.8856 0.9727
-6.2639 -2.0607 -1.8667 0.9730
-5.3642 -3.5621 -1.8229 0.9736
-4.9962 -4.0043 -1.8126 0.9737
-4.5978 -4.4148 -1.8045 0.9738
-4.1713 -4.7920 -1.7985 0.9739
-3.7188 -5.1348 -1.7948 0.9740
-3.2424 -5.4418 -1.7933 0.9740
-2.7443 -5.7117 -1.7939 0.9740
-4.8264 4.5749 -2.0454 0.9726
-6.2158 2.6341 -2.0764 0.9721
-6.3351 2.0390 -2.0470 0.9725
-6.4028 1.4448 -2.0189 0.9729
-6.4205 0.8556 -1.9923 0.9733
-6.3901 0.2752 -1.9673 0.9736
-6.3134 -0.2932 -1.9440 0.9739
-6.1927 -0.8466 -1.9225 0.9742
-6.0300 -1.3821 -1.9028 0.9744
-5.8276 -1.8974 -1.8851 0.9747
-5.3122 -2.8586 -1.8555 0.9751
-5.0036 -3.3006 -1.8437 0.9752
-4.6639 -3.7146 -1.8339 0.9754
-4.2952 -4.0990 -1.8262 0.9755
-3.8998 -4.4525 -1.8205 0.9755
-3.4795 -4.7736 -1.8169 0.9756
-3.0366 -5.0611 -1.8154 0.9756
-1.5929 -5.7095 -1.8232 0.9755
-0.5561 -5.9521 -1.8387 0.9753
-0.0223 -6.0132 -1.8495 0.9751
1.6107 -5.9435 -1.8940 0.9746
2.1563 -5.8330 -1.9128 0.9743
2.6976 -5.6777 -1.9334 0.9740
3.7532 -5.2302 -1.9800 0.9734
5.6502 -3.7875 -2.0922 0.9719
6.0352 -3.3056 -2.1165 0.9716
6.2624 -2.0905 -2.0307 0.9727
6.5215 -1.5458 -2.0614 0.9723
6.9960 0.2493 -2.1532 0.9711
7.0404 0.8852 -2.1825 0.9707
5.7556 3.7081 -2.1059 0.9718
3.5884 4.8130 -1.8465 0.9752
0.5825 2.9743 -0.9322 0.9874
0.3110 2.9808 -0.9218 0.9875
-1.8208 7.0183 -2.2301 0.9701
-3.4782 6.0439 -2.1448 0.9712
-4.3700 5.1767 -2.0837 0.9720
-4.7437 4.6950 -2.0529 0.9725
-6.1791 2.7775 -2.0837 0.9720
-6.3111 2.1828 -2.0540 0.9724
-6.3911 1.5880 -2.0255 0.9728
-6.4207 0.9972 -1.9985 0.9732
-6.4017 0.4143 -1.9731 0.9735
-6.3361 -0.1573 -1.9494 0.9738
-5.8800 -1.7750 -1.8892 0.9746
-5.3818 -2.7478 -1.8586 0.9750
-4.7486 -3.6173 -1.8361 0.9753
-3.1455 -4.9948 -1.8156 0.9756
-2.6868 -5.2559 -1.8156 0.9756
-2.2091 -5.4813 -1.8177 0.9756
-0.6837 -5.9313 -1.8364 0.9753
-0.1519 -6.0022 -1.8467 0.9752
0.3874 -6.0319 -1.8591 0.9750
2.0249 -5.8638 -1.9081 0.9744
3.6284 -5.2939 -1.9741 0.9735
4.1395 -5.0125 -1.9995 0.9732
5.1033 -4.3124 -2.0550 0.9724
5.9480 -3.4269 -2.1114 0.9717
5.8812 -2.7203 -1.9931 0.9732
6.4631 -1.6802 -2.0540 0.9724
6.6863 -1.1126 -2.0849 0.9720
6.8346 2.6652 -2.2564 0.9698
5.9170 3.6337 -2.1357 0.9714
5.2752 3.9290 -2.0231 0.9728
4.6925 4.1963 -1.9362 0.9740
4.2273 4.5221 -1.9040 0.9744
3.1574 4.8956 -1.7918 0.9759
2.6604 5.0686 -1.7607 0.9763
1.5959 3.8397 -1.2790 0.9827
1.7391 5.5346 -1.7844 0.9760
0.2243 6.2097 -1.9112 0.9743
-0.3450 6.4616 -1.9903 0.9733
-3.3582 6.1383 -2.1521 0.9711
-4.6580 4.8138 -2.0603 0.9724
-4.9938 4.3131 -2.0296 0.9728
-5.9385 3.5073 -2.1213 0.9715
-6.1392 2.9206 -2.0911 0.9719
-6.4181 1.1393 -2.0049 0.9731
-6.3561 -0.0205 -1.9550 0.9738
-6.2564 -0.5815 -1.9326 0.9740
-6.1137 -1.1259 -1.9121 0.9743
-5.9302 -1.6513 -1.8934 0.9746
-5.7080 -2.1552 -1.8766 0.9748
-5.1566 -3.0905 -1.8491 0.9752
-4.0940 -4.2857 -1.8230 0.9755
-3.6854 -4.6226 -1.8184 0.9756
-3.2532 -4.9265 -1.8159 0.9756
-2.7994 -5.1961 -1.8154 0.9756
-1.3295 -5.7873 -1.8264 0.9755
-0.8106 -5.9081 -1.8342 0.9754
0.2567 -6.0285 -1.8559 0.9751
0.8001 -6.0263 -1.8698 0.9749
1.3466 -5.9810 -1.8857 0.9747
2.4370 -5.7583 -1.9232 0.9742
3.5027 -5.3550 -1.9682 0.9736
4.0176 -5.0846 -1.9932 0.9732
4.5154 -4.7684 -2.0199 0.9729
5.8585 -3.5459 -2.1063 0.9717
6.6370 -1.2522 -2.0774 0.9721
7.0392 1.2179 -2.1973 0.9705
6.9885 1.8649 -2.2247 0.9702
6.8725 2.5104 -2.2504 0.9698
6.0831 3.5571 -2.1675 0.9709
4.8287 4.1339 -1.9551 0.9737
4.2801 4.3848 -1.8847 0.9747
3.8324 4.7020 -1.8658 0.9749
3.2736 4.8429 -1.7980 0.9758
2.7963 5.0589 -1.7779 0.9761
2.3256 5.2712 -1.7721 0.9762
1.3739 5.6981 -1.8028 0.9758
0.3553 6.1516 -1.8952 0.9745
-0.2032 6.3990 -1.9692 0.9736
-0.8121 6.6678 -2.0660 0.9723
-2.1302 6.8836 -2.2163 0.9703
-2.7021 6.5819 -2.1884 0.9707
-4.5694 4.9310 -2.0678 0.9723
-4.9173 4.4360 -2.0370 0.9727
-2.5389 1.9083 -0.9769 0.9868
-5.8767 3.6442 -2.1269 0.9715
-6.0963 3.0633 -2.0985 0.9719
-6.2539 2.4702 -2.0682 0.9723
-6.3734 0.1171 -1.9607 0.9737
-6.1520 -0.9961 -1.9169 0.9743
-4.9129 -3.4176 -1.8408 0.9753
-4.5650 -3.8236 -1.8316 0.9754
-4.1888 -4.1996 -1.8244 0.9755
-1.9553 -5.5834 -1.8196 0.9755
-0.4098 -5.9730 -1.8415 0.9753
1.2145 -5.9959 -1.8817 0.9747
1.7614 -5.9175 -1.8990 0.9745
2.3061 -5.7947 -1.9183 0.9742
3.3763 -5.4134 -1.9624 0.9737
3.8947 -5.1541 -1.9870 0.9733
4.3970 -4.8489 -2.0133 0.9730
5.3366 -4.1020 -2.0703 0.9722
5.7652 -3.6619 -2.1007 0.9718
5.7167 -2.9502 -1.9787 0.9734
2.3160 -0.9438 -0.7692 0.9896
6.3384 -1.9435 -2.0391 0.9726
6.7821 -0.8083 -2.1008 0.9718
6.9266 -0.2021 -2.1314 0.9714
7.0419 1.0623 -2.1904 0.9706
6.9065 2.3551 -2.2444 0.9699
6.7403 2.9946 -2.2686 0.9696
6.2543 3.4782 -2.2012 0.9705
5.5765 3.7905 -2.0739 0.9722
4.4090 4.3259 -1.8999 0.9745
3.9564 4.6456 -1.8768 0.9748
2.9107 5.0073 -1.7814 0.9761
1.3826 3.8155 -1.2482 0.9832
0.4843 6.0943 -1.8804 0.9747
-0.6596 6.6005 -2.0403 0.9726
-1.1206 5.8566 -1.8340 0.9754
-1.9868 6.9484 -2.2228 0.9702
-3.6121 5.9333 -2.1365 0.9713
-4.4780 5.0467 -2.0752 0.9722
-2.4705 1.9417 -0.9665 0.9869
-5.4065 3.5165 -1.9837 0.9734
-6.2207 2.6138 -2.0754 0.9722
-6.4042 1.4245 -2.0179 0.9729
-6.3882 0.2555 -1.9664 0.9736
-6.3100 -0.3125 -1.9432 0.9739
-6.1878 -0.8653 -1.9218 0.9742
-6.0238 -1.4002 -1.9022 0.9745
-5.5787 -2.4067 -1.8688 0.9749
-5.3021 -2.8742 -1.8550 0.9751
-4.9924 -3.3152 -1.8433 0.9752
-4.6517 -3.7282 -1.8336 0.9754
-4.2821 -4.1116 -1.8259 0.9755
-3.8858 -4.4640 -1.8203 0.9755
-3.0211 -5.0703 -1.8154 0.9756
-2.5569 -5.3217 -1.8160 0.9756
-4.9914 3.2684 -1.9832 0.9752
-5.5918 2.9847 -2.1070 0.9736
-5.8765 1.8914 -2.0520 0.9743
-5.9672 0.7952 -2.0011 0.9749
-5.7698 -0.7888 -1.9358 0.9758
-5.6222 -1.2887 -1.9173 0.9760
-5.4369 -1.7702 -1.9006 0.9762
-5.2159 -2.2312 -1.8858 0.9764
-4.3591 -3.4718 -1.8524 0.9768
-3.6467 -4.1635 -1.8398 0.9769
-2.4065 -4.9696 -1.8354 0.9770
-1.9556 -5.1716 -1.8379 0.9770
-1.4893 -5.3385 -1.8423 0.9769
-1.0099 -5.4690 -1.8487 0.9768
-0.5197 -5.5622 -1.8569 0.9767
-0.0208 -5.6171 -1.8672 0.9766
0.4841 -5.6328 -1.8793 0.9765
2.5124 -5.2879 -1.9460 0.9756
3.0068 -5.0968 -1.9670 0.9754
3.4898 -4.8631 -1.9897 0.9751
4.4068 -4.2684 -2.0393 0.9745
4.8332 -3.9083 -2.0661 0.9741
5.2327 -3.5077 -2.0940 0.9738
2.3205 -1.0131 -0.8416 0.9894
6.0123 -1.4251 -2.0539 0.9743
6.1998 -0.8945 -2.0822 0.9739
6.3393 -0.3416 -2.1103 0.9736
6.4274 0.2290 -2.1379 0.9733
6.2152 2.5797 -2.2368 0.9720
6.0141 3.1530 -2.2572 0.9718
5.7471 3.7026 -2.2725 0.9716
5.1225 3.9902 -2.1584 0.9730
4.0227 4.4940 -2.0049 0.9749
3.5210 4.7226 -1.9581 0.9755
1.4251 3.6492 -1.3022 0.9836
0.0908 6.2603 -2.0812 0.9740
-2.2108 6.1847 -2.1832 0.9727
-2.7216 5.8916 -2.1573 0.9730
-3.1965 5.5545 -2.1303 0.9733
-4.0254 4.7685 -2.0743 0.9740
-4.3747 4.3299 -2.0460 0.9744
-2.4529 2.0277 -1.0579 0.9867
-5.7243 2.5731 -2.0862 0.9739
-5.8527 2.0243 -2.0586 0.9742
-5.9329 1.4741 -2.0321 0.9746
-5.7996 -0.6656 -1.9405 0.9757
-5.4849 -1.6557 -1.9045 0.9761
-5.2724 -2.1219 -1.8892 0.9763
-4.7469 -2.9861 -1.8641 0.9766
-3.3509 -4.3945 -1.8370 0.9770
-2.0659 -5.1260 -1.8371 0.9770
-1.6032 -5.3015 -1.8410 0.9769
-1.1268 -5.4408 -1.8469 0.9769
-0.6389 -5.5431 -1.8548 0.9768
-0.1419 -5.6074 -1.8645 0.9766
0.8697 -5.6180 -1.8897 0.9763
4.7325 -3.9990 -2.0595 0.9742
5.4360 -2.5144 -1.9909 0.9751
6.3815 1.8515 -2.2087 0.9724
5.8221 3.5754 -2.2711 0.9716
4.6861 4.1906 -2.0897 0.9738
3.6401 4.6684 -1.9678 0.9754
1.7369 5.5277 -1.9260 0.9759
0.3552 2.8145 -0.9430 0.9881
0.2240 6.2014 -2.0627 0.9742
-0.9573 6.6584 -2.2361 0.9720
-1.5327 6.4804 -2.2136 0.9723
-2.6015 5.9666 -2.1636 0.9729
-3.5307 5.2725 -2.1093 0.9736
-3.9344 4.8703 -2.0812 0.9740
-4.2945 4.4381 -2.0528 0.9743
-4.8783 3.5043 -1.9966 0.9750
-5.4837 3.2387 -2.1170 0.9735
-5.8262 2.1570 -2.0651 0.9742
-5.9623 1.0584 -2.0129 0.9748
-5.9609 0.5153 -1.9888 0.9751
-5.5309 -1.5401 -1.9085 0.9761
-5.3269 -2.0113 -1.8927 0.9763
-4.5152 -3.2878 -1.8566 0.9767
-4.1848 -3.6617 -1.8484 0.9768
-3.0425 -4.6075 -1.8354 0.9770
-2.6182 -4.8597 -1.8349 0.9770
-2.1754 -5.0784 -1.8364 0.9770
-1.2429 -5.4105 -1.8453 0.9769
-0.7576 -5.5219 -1.8527 0.9768
-0.2626 -5.5954 -1.8620 0.9767
0.2397 -5.6302 -1.8732 0.9765
0.7469 -5.6252 -1.8863 0.9764
1.7651 -5.4933 -1.9179 0.9760
2.2705 -5.3649 -1.9365 0.9757
2.7693 -5.1943 -1.9567 0.9755
3.2582 -4.9812 -1.9785 0.9752
3.7339 -4.7255 -2.0020 0.9749
4.6304 -4.0873 -2.0530 0.9743
5.0434 -3.7062 -2.0804 0.9740
5.4198 -3.2805 -2.1059 0.9736
5.6534 -2.1627 -2.0120 0.9748
5.9055 -1.6722 -2.0402 0.9745
6.3915 -0.0484 -2.1246 0.9734
6.4518 0.5294 -2.1518 0.9731
6.4032 1.7087 -2.2029 0.9725
6.2908 2.2980 -2.2263 0.9722
5.8869 3.4423 -2.2668 0.9717
5.4162 3.8551 -2.2099 0.9724
4.8220 4.1282 -2.1100 0.9736
3.7604 4.6136 -1.9785 0.9752
3.2695 4.8368 -1.9406 0.9757
2.3227 5.2647 -1.9128 0.9760
0.4135 2.7894 -0.9374 0.9882
0.3549 6.1434 -2.0455 0.9744
-1.2621 5.9023 -2.0063 0.9749
-1.9524 6.3091 -2.1953 0.9725
-2.4792 6.0389 -2.1700 0.9729
-2.9720 5.7224 -2.1434 0.9732
-3.8409 4.9703 -2.0880 0.9739
-4.5376 4.0934 -2.0314 0.9746
-5.0512 3.1323 -1.9757 0.9753
-5.6447 2.8363 -2.0999 0.9737
-5.7968 2.2897 -2.0718 0.9741
-5.9001 1.7397 -2.0447 0.9744
-5.9653 0.6457 -1.9945 0.9750
-5.7330 -0.9283 -1.9305 0.9758
-5.1489 -2.3545 -1.8820 0.9764
-4.8854 -2.7864 -1.8695 0.9766
-4.5907 -3.1934 -1.8589 0.9767
-3.9164 -3.9265 -1.8434 0.9769
-3.5407 -4.2495 -1.8386 0.9770
-2.7224 -4.8019 -1.8348 0.9770
-1.3584 -5.3781 -1.8439 0.9769
0.1179 -5.6254 -1.8703 0.9766
0.6241 -5.6301 -1.8829 0.9764
1.1332 -5.5946 -1.8974 0.9762
1.6425 -5.5180 -1.9137 0.9760
2.1490 -5.3998 -1.9318 0.9758
2.6496 -5.2394 -1.9517 0.9756
4.5268 -4.1732 -2.0466 0.9744
4.9462 -3.8019 -2.0737 0.9740
5.3358 -3.3892 -2.1012 0.9737
5.8484 -1.7933 -2.0334 0.9745
6.0686 -1.2813 -2.0617 0.9742
6.3689 -0.1858 -2.1180 0.9735
6.4422 0.3888 -2.1453 0.9732
6.4214 1.5659 -2.1971 0.9725
6.3234 2.1563 -2.2208 0.9722
6.1657 2.7393 -2.2427 0.9720
4.9606 4.0646 -2.1318 0.9733
3.8820 4.5582 -1.9902 0.9751
3.3864 4.7837 -1.9482 0.9756
2.9070 5.0010 -1.9228 0.9759
2.4360 5.2136 -1.9129 0.9760
1.3277 3.6639 -1.2954 0.9837
0.5012 2.9419 -0.9920 0.9875
0.4836 6.0863 -2.0295 0.9746
-0.0643 6.3289 -2.1039 0.9737
-0.6587 6.5911 -2.2018 0.9725
-1.1193 5.8494 -1.9797 0.9752
-2.3550 6.1086 -2.1762 0.9728
-2.8563 5.8028 -2.1499 0.9731
-3.3207 5.4545 -2.1227 0.9734
-4.1262 4.6502 -2.0665 0.9741
-5.7646 2.4221 -2.0785 0.9740
-5.8796 1.8725 -2.0511 0.9743
-5.9672 0.7766 -2.0003 0.9750
-5.9426 0.2376 -1.9769 0.9752
-5.7654 -0.8062 -1.9351 0.9758
-5.6164 -1.3055 -1.9167 0.9760
-5.4299 -1.7864 -1.9001 0.9762
-4.3478 -3.4846 -1.8521 0.9768
-2.3913 -4.9771 -1.8355 0.9770
-4.1275 3.9124 -2.0337 0.9761
-2.4642 1.9490 -1.1235 0.9867
-4.6366 3.0360 -1.9819 0.9767
-5.1912 2.7709 -2.1043 0.9753
-5.5430 1.2508 -2.0321 0.9761
-5.4930 -0.2551 -1.9665 0.9769
-4.8859 -2.0901 -1.9004 0.9777
-4.3828 -2.8910 -1.8776 0.9779
-4.0879 -3.2558 -1.8689 0.9780
-3.7668 -3.5947 -1.8620 0.9781
-3.4212 -3.9061 -1.8569 0.9782
-2.6649 -4.4416 -1.8523 0.9782
-2.2581 -4.6631 -1.8528 0.9782
-1.8348 -4.8523 -1.8551 0.9782
-0.4873 -5.2154 -1.8732 0.9780
0.4536 -5.2776 -1.8943 0.9777
0.9297 -5.2523 -1.9075 0.9776
1.8800 -5.0857 -1.9390 0.9772
2.3487 -4.9434 -1.9572 0.9770
2.8090 -4.7614 -1.9769 0.9768
4.8677 -3.2630 -2.0957 0.9754
4.8309 -2.6460 -1.9697 0.9769
5.5707 -1.3204 -2.0473 0.9760
5.7387 -0.8279 -2.0735 0.9757
5.8620 -0.3159 -2.0993 0.9754
5.9375 0.2116 -2.1247 0.9751
5.8560 1.8370 -2.1948 0.9743
5.7213 2.3747 -2.2152 0.9740
5.2895 3.4078 -2.2501 0.9736
4.9947 3.8907 -2.2641 0.9735
4.5465 4.2459 -2.2246 0.9739
3.3338 4.4714 -1.9945 0.9766
3.0342 4.9354 -2.0718 0.9757
1.4758 3.7790 -1.4508 0.9829
0.5857 2.9904 -1.0897 0.9871
0.3104 2.9751 -1.0697 0.9874
0.0907 6.2517 -2.2359 0.9738
-0.9709 5.8524 -2.1215 0.9751
-1.5371 5.9244 -2.1888 0.9743
-2.0390 5.7042 -2.1663 0.9746
-3.3595 4.7898 -2.0922 0.9755
-3.7271 4.4150 -2.0662 0.9758
-4.7850 2.6884 -1.9627 0.9770
-5.3264 2.3942 -2.0883 0.9755
-5.5590 0.3598 -1.9921 0.9766
-5.1347 -1.5500 -1.9181 0.9775
-4.7093 -2.4045 -1.8909 0.9778
-4.1616 -3.1701 -1.8708 0.9780
-2.7605 -4.3834 -1.8525 0.9782
-1.9384 -4.8096 -1.8544 0.9782
-0.5991 -5.1979 -1.8711 0.9780
-0.1331 -5.2564 -1.8803 0.9779
0.3390 -5.2780 -1.8913 0.9778
1.2912 -5.2075 -1.9186 0.9775
1.7660 -5.1141 -1.9348 0.9773
3.5883 -4.3450 -2.0152 0.9763
4.0084 -4.0539 -2.0387 0.9761
4.4075 -3.7243 -2.0635 0.9758
4.7816 -3.3572 -2.0893 0.9755
5.1123 -2.9454 -2.1099 0.9752
5.3047 -1.8991 -2.0149 0.9763
5.5238 -1.4360 -2.0410 0.9760
5.7021 -0.9488 -2.0672 0.9757
5.9238 0.0831 -2.1186 0.9751
5.9616 0.6191 -2.1434 0.9749
5.8803 1.7061 -2.1896 0.9743
5.5828 2.7749 -2.2295 0.9739
5.3529 3.2873 -2.2464 0.9737
5.0706 3.7767 -2.2610 0.9735
3.9046 4.1769 -2.0447 0.9760
2.6538 5.0559 -2.0420 0.9760
1.2527 5.7361 -2.0996 0.9754
0.3526 2.7937 -1.0070 0.9881
0.2237 6.1929 -2.2161 0.9740
-0.8813 6.1295 -2.2145 0.9740
-2.4010 5.5068 -2.1483 0.9748
-3.2649 4.8756 -2.0984 0.9754
-3.6419 4.5082 -2.0725 0.9757
-3.9793 4.1123 -2.0464 0.9760
-5.2891 2.5161 -2.0945 0.9754
-5.5614 0.9872 -2.0199 0.9763
-5.5261 -0.0178 -1.9762 0.9768
-5.4475 -0.5063 -1.9565 0.9770
-4.7675 -2.3058 -1.8938 0.9778
-4.5152 -2.7061 -1.8824 0.9779
-4.2337 -3.0828 -1.8729 0.9780
-3.9250 -3.4344 -1.8651 0.9781
-3.5910 -3.7592 -1.8591 0.9782
-3.2337 -4.0560 -1.8550 0.9782
-2.8549 -4.3234 -1.8527 0.9782
-2.0411 -4.7650 -1.8538 0.9782
-1.6101 -4.9371 -1.8571 0.9782
-1.1659 -5.0752 -1.8622 0.9781
0.2246 -5.2762 -1.8885 0.9778
0.6996 -5.2693 -1.9009 0.9777
1.6517 -5.1402 -1.9307 0.9773
2.1233 -5.0170 -1.9482 0.9771
3.0427 -4.6516 -1.9877 0.9767
3.9088 -4.1278 -2.0329 0.9761
4.9811 -2.4359 -1.9829 0.9767
5.4745 -1.5501 -2.0347 0.9761
5.6630 -1.0684 -2.0609 0.9758
5.8082 -0.5653 -2.0869 0.9755
5.9072 -0.0448 -2.1125 0.9752
5.9558 1.0305 -2.1615 0.9747
5.9015 1.5748 -2.1843 0.9744
5.4133 3.1654 -2.2425 0.9737
4.0239 4.1224 -2.0601 0.9758
3.2653 4.8306 -2.0851 0.9755
2.7893 5.0462 -2.0619 0.9758
2.3198 5.2580 -2.0552 0.9759
0.4150 2.7997 -1.0121 0.9880
0.3544 6.1351 -2.1976 0.9742
-0.7503 6.1601 -2.2192 0.9740
-1.2601 5.8929 -2.1550 0.9747
-1.7999 5.8164 -2.1773 0.9745
-2.7449 5.2853 -2.1298 0.9750
-3.5545 4.5997 -2.0788 0.9756
-4.6934 2.9104 -1.9749 0.9768
-5.4976 1.6210 -2.0497 0.9759
-5.5543 1.1102 -2.0255 0.9762
-5.5677 0.6027 -2.0027 0.9765
-5.5391 0.1018 -1.9811 0.9767
-5.3623 -0.8683 -1.9426 0.9772
-5.2174 -1.3321 -1.9256 0.9774
-5.0373 -1.7787 -1.9104 0.9776
-4.5788 -2.6115 -1.8850 0.9779
-4.0019 -3.3519 -1.8668 0.9781
-3.6738 -3.6833 -1.8604 0.9781
-3.3220 -3.9870 -1.8558 0.9782
-2.9482 -4.2616 -1.8531 0.9782
-2.5545 -4.5058 -1.8523 0.9782
-2.1429 -4.7185 -1.8532 0.9782
-1.7155 -4.8986 -1.8561 0.9782
-0.3590 -5.2327 -1.8757 0.9780
1.0611 -5.2386 -1.9114 0.9775
2.0099 -5.0504 -1.9438 0.9772
2.4766 -4.8972 -1.9625 0.9770
2.9340 -4.7042 -1.9826 0.9767
3.8080 -4.1993 -2.0272 0.9762
4.9597 -3.1503 -2.1012 0.9753
4.9120 -2.5350 -1.9767 0.9768
5.6213 -1.1868 -2.0545 0.9759
5.9497 0.3591 -2.1315 0.9750
5.9609 0.8993 -2.1558 0.9747
5.8243 1.9861 -2.2006 0.9742
5.6746 2.5211 -2.2205 0.9740
5.2133 3.5436 -2.2542 0.9736
4.3972 4.3144 -2.2030 0.9742
3.6579 4.2951 -2.0175 0.9763
3.3820 4.7776 -2.0933 0.9754
2.9034 4.9947 -2.0660 0.9758
2.4330 5.2071 -2.0553 0.9759
0.4830 6.0782 -2.1804 0.9744
-0.0637 6.2673 -2.2414 0.9737
-0.6184 6.1876 -2.2237 0.9739
-1.1179 5.8422 -2.1271 0.9750
-2.6375 5.3583 -2.1357 0.9749
-3.0693 5.0415 -2.1107 0.9752
-3.4647 4.6895 -2.0850 0.9755
-5.1981 2.7541 -2.1037 0.9753
-5.5683 0.7247 -2.0081 0.9764
-5.5497 0.2219 -1.9862 0.9767
-5.4904 -0.2719 -1.9658 0.9769
-4.8783 -2.1045 -1.8999 0.9777
-4.6408 -2.5156 -1.8877 0.9778
-4.0773 -3.2679 -1.8686 0.9780
-3.7553 -3.6058 -1.8618 0.9781
-3.4090 -3.9163 -1.8568 0.9782
-3.0403 -4.1980 -1.8536 0.9782
-2.6513 -4.4497 -1.8523 0.9782
-2.2438 -4.6701 -1.8528 0.9782
-5.0079 2.1223 -2.0843 0.9770
-5.1181 1.6473 -2.0604 0.9772
-5.1865 1.1704 -2.0375 0.9775
-5.2139 0.6948 -2.0157 0.9777
-5.2014 0.2240 -1.9951 0.9779
-5.0623 -0.6921 -1.9580 0.9784
-4.9385 -1.1319 -1.9416 0.9785
-4.7808 -1.5566 -1.9267 0.9787
-4.1210 -2.7184 -1.8919 0.9791
-3.8448 -3.0622 -1.8836 0.9792
-3.5436 -3.3817 -1.8771 0.9792
-3.2190 -3.6753 -1.8723 0.9793
-2.5078 -4.1797 -1.8679 0.9793
-2.1249 -4.3881 -1.8684 0.9793
-1.3145 -4.7117 -1.8746 0.9793
-0.8910 -4.8249 -1.8803 0.9792
0.8733 -4.9339 -1.9202 0.9788
1.3202 -4.8717 -1.9343 0.9786
3.0514 -4.2522 -2.0057 0.9778
3.4553 -4.0046 -2.0269 0.9776
4.5072 -2.4687 -1.9694 0.9782
4.9932 -1.6668 -2.0173 0.9777
5.1839 -1.2287 -2.0416 0.9774
5.3355 -0.7698 -2.0658 0.9772
5.4453 -0.2934 -2.0898 0.9769
5.5107 0.1964 -2.1132 0.9767
5.5006 1.1984 -2.1574 0.9762
5.1157 2.6820 -2.2135 0.9756
4.8885 3.1495 -2.2285 0.9754
4.6139 3.5941 -2.2413 0.9753
4.2942 4.0103 -2.2517 0.9751
3.7819 4.2250 -2.1730 0.9760
0.2943 2.8210 -1.0869 0.9879
-1.8897 5.2867 -2.1515 0.9762
-2.7421 4.7648 -2.1067 0.9767
-3.4660 4.1058 -2.0591 0.9772
-3.7740 3.7352 -2.0348 0.9775
-2.4646 2.0374 -1.2254 0.9864
-4.2744 2.9327 -1.9865 0.9780
-4.9719 2.2349 -2.0890 0.9769
-5.0954 1.7623 -2.0661 0.9772
-5.1738 1.2855 -2.0430 0.9774
-5.2080 0.3371 -2.0000 0.9779
-5.1662 -0.1282 -1.9804 0.9781
-4.9715 -1.0271 -1.9454 0.9785
-4.8219 -1.4556 -1.9302 0.9787
-4.6395 -1.8672 -1.9165 0.9788
-4.4262 -2.2599 -1.9045 0.9789
-3.9139 -2.9814 -1.8855 0.9791
-3.2994 -3.6068 -1.8733 0.9793
-2.9585 -3.8799 -1.8698 0.9793
-2.2189 -4.3405 -1.8681 0.9793
-1.4151 -4.6794 -1.8734 0.9793
-0.9942 -4.8006 -1.8787 0.9792
-0.5635 -4.8885 -1.8858 0.9791
0.3186 -4.9606 -1.9049 0.9789
1.2125 -4.8901 -1.9307 0.9786
2.9516 -4.3065 -2.0007 0.9779
3.7498 -3.7924 -2.0438 0.9774
4.7692 -2.7477 -2.1093 0.9767
4.9417 -1.7691 -2.0115 0.9778
5.4227 -0.4098 -2.0840 0.9770
5.5295 0.5742 -2.1304 0.9765
5.5122 1.0768 -2.1523 0.9762
5.3294 2.0783 -2.1921 0.9758
4.6845 3.4891 -2.2384 0.9753
3.1453 4.8769 -2.2239 0.9754
2.6504 5.0494 -2.1854 0.9759
1.5638 3.7625 -1.5615 0.9827
0.3516 2.7858 -1.0760 0.9880
-0.3079 5.7663 -2.2129 0.9756
-1.7794 5.3390 -2.1566 0.9762
-2.2266 5.1069 -2.1350 0.9764
-2.6455 4.8357 -2.1123 0.9767
-2.6408 1.8970 -1.2460 0.9862
-4.4230 2.6123 -1.9685 0.9782
-4.9324 2.3464 -2.0932 0.9769
-5.1586 1.4007 -2.0485 0.9774
-5.2124 0.4506 -2.0049 0.9778
-5.1094 -0.4749 -1.9664 0.9783
-5.0026 -0.9213 -1.9493 0.9784
-4.6864 -1.7695 -1.9197 0.9788
-3.9814 -2.8992 -1.8874 0.9791
-3.6921 -3.2306 -1.8800 0.9792
-3.3785 -3.5368 -1.8744 0.9793
-3.0427 -3.8165 -1.8705 0.9793
-2.3119 -4.2912 -1.8679 0.9793
-1.0968 -4.7744 -1.8773 0.9792
-0.6682 -4.8704 -1.8839 0.9792
-0.2315 -4.9323 -1.8922 0.9791
1.1046 -4.9063 -1.9273 0.9787
1.5504 -4.8251 -1.9422 0.9785
1.9920 -4.7068 -1.9586 0.9783
2.8510 -4.3586 -1.9959 0.9779
3.2623 -4.1287 -2.0165 0.9777
4.0326 -3.5597 -2.0613 0.9772
4.6997 -2.8446 -2.1052 0.9767
5.5265 0.4535 -2.1250 0.9765
5.3620 1.9587 -2.1876 0.9758
4.7523 3.3826 -2.2354 0.9753
3.5354 4.3376 -2.1445 0.9763
3.2611 4.8244 -2.2315 0.9754
2.3168 5.2513 -2.1996 0.9757
1.8469 5.4624 -2.2097 0.9756
1.3686 5.6762 -2.2376 0.9753
0.4315 2.9113 -1.1279 0.9875
0.3358 5.8128 -2.2313 0.9754
-0.1836 5.7816 -2.2167 0.9755
-3.3041 4.2757 -2.0707 0.9771
-3.6300 3.9172 -2.0466 0.9774
-4.8903 2.4573 -2.0974 0.9768
-5.0425 1.9917 -2.0777 0.9770
-5.1912 0.0954 -1.9897 0.9780
-5.0316 -0.8147 -1.9533 0.9784
-4.8983 -1.2506 -1.9373 0.9786
-4.7315 -1.6707 -1.9229 0.9787
-4.5330 -2.0728 -1.9101 0.9789
-4.3044 -2.4550 -1.8989 0.9790
-3.4563 -3.4653 -1.8756 0.9793
-2.4039 -4.2401 -1.8679 0.9793
-2.0165 -4.4402 -1.8688 0.9793
-1.1988 -4.7462 -1.8760 0.9792
0.5494 -4.9563 -1.9110 0.9789
2.3224 -4.5923 -1.9721 0.9782
3.1644 -4.1876 -2.0114 0.9778
3.5636 -3.9298 -2.0330 0.9775
4.3020 -3.3068 -2.0794 0.9770
4.6282 -2.9397 -2.1012 0.9768
4.5819 -2.3646 -1.9759 0.9782
2.3160 -0.9438 -0.9584 0.9893
5.0495 -1.5483 -2.0240 0.9776
5.5207 0.3332 -2.1195 0.9766
5.5266 0.8338 -2.1419 0.9763
5.3918 1.8386 -2.1831 0.9759
5.2497 2.3323 -2.2014 0.9757
4.8175 3.2746 -2.2323 0.9754
4.5302 3.7119 -2.2444 0.9752
2.8996 4.9882 -2.2111 0.9756
2.4299 5.2004 -2.1997 0.9757
1.4853 5.6241 -2.2292 0.9754
0.4973 2.9188 -1.1346 0.9874
0.4619 5.8125 -2.2345 0.9753
-0.0589 5.7939 -2.2205 0.9755
-1.0722 5.6035 -2.1863 0.9759
-2.8500 4.6813 -2.1003 0.9768
-2.4695 1.9409 -1.2037 0.9866
-4.3311 2.8171 -1.9799 0.9781
-4.5112 2.3902 -1.9564 0.9784
-5.0124 2.1061 -2.0835 0.9770
-5.1881 1.1540 -2.0368 0.9775
-4.9336 -1.1468 -1.9411 0.9785
-3.8349 -3.0736 -1.8834 0.9792
-3.2075 -3.6848 -1.8721 0.9793
-2.4950 -4.1873 -1.8679 0.9793
-3.5905 3.4034 -2.0248 0.9788
-2.4311 1.9229 -1.2686 0.9867
-4.0468 2.6498 -1.9797 0.9793
-4.6892 1.9872 -2.0844 0.9782
-4.8005 1.5451 -2.0640 0.9784
-1.9498 0.2598 -0.8051 0.9915
-1.9386 -0.0900 -0.7943 0.9916
-4.5022 -1.4659 -1.9378 0.9797
-3.8850 -2.5627 -1.9048 0.9801
-3.6255 -2.8875 -1.8969 0.9802
-2.3659 -3.9431 -1.8820 0.9803
-2.0046 -4.1397 -1.8825 0.9803
-1.6286 -4.3070 -1.8846 0.9803
-0.8403 -4.5502 -1.8938 0.9802
0.4017 -4.6734 -1.9198 0.9799
0.8226 -4.6473 -1.9316 0.9798
1.2430 -4.5868 -1.9450 0.9797
1.6603 -4.4913 -1.9598 0.9795
2.4750 -4.1953 -1.9936 0.9792
2.8668 -3.9949 -2.0124 0.9790
3.6040 -3.4908 -2.0535 0.9785
3.9432 -3.1887 -2.0755 0.9783
4.2555 -2.8527 -2.0968 0.9781
4.9795 -0.7184 -2.0591 0.9785
5.0780 -0.2736 -2.0813 0.9783
5.1185 1.1152 -2.1440 0.9776
3.9838 3.7204 -2.2309 0.9767
3.6472 4.0745 -2.2381 0.9766
2.8728 4.6729 -2.2450 0.9766
2.4435 4.9101 -2.2447 0.9766
1.4674 3.7575 -1.6510 0.9827
1.5251 5.2470 -2.2363 0.9767
0.2920 2.7984 -1.1515 0.9879
-0.8699 5.2437 -2.1755 0.9773
-2.9115 4.1511 -2.0752 0.9783
-4.1814 2.3493 -1.9630 0.9795
-4.6539 2.0919 -2.0883 0.9782
-4.8552 1.2064 -2.0475 0.9786
-2.0001 0.3106 -0.8284 0.9913
-1.9493 0.1262 -0.7995 0.9916
-1.9556 -0.2244 -0.8056 0.9915
-4.6792 -0.9667 -1.9555 0.9796
-4.5404 -1.3706 -1.9411 0.9797
-3.4126 -3.1187 -1.8921 0.9802
-2.7909 -3.6601 -1.8838 0.9803
-2.4507 -3.8914 -1.8822 0.9803
-1.3348 -4.4138 -1.8873 0.9803
-0.1179 -4.6586 -1.9073 0.9801
1.1417 -4.6046 -1.9416 0.9797
1.5600 -4.5176 -1.9561 0.9796
2.3786 -4.2385 -1.9892 0.9792
2.7734 -4.0464 -2.0078 0.9790
3.1545 -3.8197 -2.0275 0.9788
3.5188 -3.5588 -2.0483 0.9786
3.8634 -3.2646 -2.0701 0.9784
4.4645 -2.5721 -2.1088 0.9780
4.6201 -1.6540 -2.0084 0.9790
4.8029 -1.2486 -2.0311 0.9788
5.1498 0.5348 -2.1190 0.9779
5.1300 1.0022 -2.1393 0.9777
4.9536 1.9317 -2.1761 0.9773
4.7964 2.3840 -2.1922 0.9771
