ply
format ascii 1.0
element vertex 1595
property float32 x
property float32 y
property float32 z
property float32 I
end_header
-7.9902 6.7731 -2.2141 0.9581
-8.3760 5.9008 -2.1658 0.9590
-8.6783 5.0188 -2.1191 0.9598
-8.9000 4.1346 -2.0744 0.9607
-9.1148 2.3864 -1.9916 0.9622
-9.0499 0.7004 -1.9187 0.9636
-8.9224 -0.1086 -1.8861 0.9642
-8.4958 -1.6427 -1.8291 0.9652
-8.2041 -2.3628 -1.8047 0.9657
-7.8644 -3.0488 -1.7829 0.9661
-7.4801 -3.6990 -1.7639 0.9665
-6.5892 -4.8862 -1.7340 0.9670
-4.9861 -6.3655 -1.7092 0.9675
-3.7672 -7.1374 -1.7059 0.9675
-3.1191 -7.4555 -1.7083 0.9675
-1.7561 -7.9500 -1.7210 0.9673
-1.0454 -8.1235 -1.7313 0.9671
0.4231 -8.3156 -1.7600 0.9665
1.9381 -8.2899 -1.7996 0.9658
4.2460 -7.8109 -1.8792 0.9643
5.0103 -7.5264 -1.9112 0.9637
7.9165 -5.7214 -2.0647 0.9609
8.5694 -5.0948 -2.1074 0.9601
9.5362 -2.6202 -2.0905 0.9604
9.9503 -1.7976 -2.1373 0.9595
10.2947 -0.9220 -2.1848 0.9586
10.5609 0.0010 -2.2324 0.9577
10.7408 0.9640 -2.2795 0.9569
9.6242 1.7406 -2.0674 0.9608
8.4659 2.3279 -1.8559 0.9647
5.9997 3.5686 -1.4756 0.9719
5.3326 3.8555 -1.3910 0.9735
4.7311 4.1113 -1.3249 0.9747
4.3439 4.5161 -1.3245 0.9747
3.8319 4.7721 -1.2937 0.9753
2.2758 5.2605 -1.2116 0.9768
1.8154 5.4986 -1.2240 0.9766
0.7052 3.0189 -0.6553 0.9874
0.4367 3.0976 -0.6612 0.9873
-0.2582 6.6573 -1.4083 0.9731
-0.7720 5.9896 -1.2765 0.9756
-4.9831 9.4366 -2.2557 0.9573
-5.6837 8.7656 -2.2083 0.9582
-6.3049 8.0459 -2.1607 0.9591
-8.6048 5.2575 -2.1315 0.9596
-8.8479 4.3732 -2.0862 0.9605
-9.0127 3.4919 -2.0431 0.9613
-9.1028 2.6197 -2.0022 0.9620
-9.0739 0.9232 -1.9279 0.9634
-8.7922 -0.6822 -1.8641 0.9646
-8.5660 -1.4427 -1.8362 0.9651
-7.9607 -2.8670 -1.7885 0.9660
-7.1731 -4.1501 -1.7517 0.9667
-6.7184 -4.7350 -1.7374 0.9670
-6.2267 -5.2803 -1.7257 0.9672
-4.5539 -6.6677 -1.7068 0.9675
-3.9380 -7.0436 -1.7058 0.9675
-2.6314 -7.6582 -1.7117 0.9674
-1.2391 -8.0816 -1.7283 0.9671
0.9718 -8.3322 -1.7732 0.9663
1.7316 -8.3066 -1.7936 0.9659
2.4982 -8.2234 -1.8167 0.9655
4.0385 -7.8767 -1.8711 0.9645
4.8046 -7.6096 -1.9023 0.9639
5.5623 -7.2775 -1.9362 0.9632
2.3180 -0.9304 -0.5280 0.9898
9.8450 -2.0252 -2.1246 0.9597
10.2090 -1.1634 -2.1720 0.9589
10.7012 0.7005 -2.2669 0.9571
9.9845 1.5578 -2.1361 0.9595
8.7550 2.1814 -1.9072 0.9638
7.7552 2.6877 -1.7350 0.9670
6.1811 3.4772 -1.4991 0.9714
5.5072 3.7827 -1.4123 0.9731
3.3258 4.7454 -1.2249 0.9766
1.9405 5.4332 -1.2195 0.9767
0.4883 2.9472 -0.6315 0.9879
-0.6349 6.0809 -1.2924 0.9753
-1.4200 7.2485 -1.5613 0.9703
-3.9834 10.2011 -2.3149 0.9562
-5.5022 8.9521 -2.2211 0.9579
-6.1451 8.2445 -2.1736 0.9588
-7.2276 8.0773 -2.2911 0.9567
-8.9757 3.7293 -2.0545 0.9610
-9.0856 2.8541 -2.0130 0.9618
-9.0932 1.1476 -1.9374 0.9632
-8.3678 -1.9780 -1.8175 0.9655
-8.0536 -2.6826 -1.7943 0.9659
-6.3630 -5.1370 -1.7286 0.9671
-5.2960 -6.1270 -1.7119 0.9674
-2.8132 -7.5862 -1.7103 0.9675
-2.1323 -7.8355 -1.7165 0.9673
-0.7129 -8.1863 -1.7370 0.9670
0.0211 -8.2847 -1.7512 0.9667
0.7681 -8.3295 -1.7682 0.9664
1.5257 -8.3191 -1.7878 0.9660
3.8308 -7.9380 -1.8631 0.9646
4.5983 -7.6881 -1.8936 0.9640
6.1072 -6.9933 -1.9626 0.9628
7.5461 -6.0290 -2.0417 0.9613
8.2275 -4.4443 -1.9766 0.9625
9.2865 -3.0408 -2.0655 0.9608
9.7348 -2.2488 -2.1119 0.9600
10.6548 0.4394 -2.2541 0.9573
10.3696 1.3624 -2.2108 0.9581
9.0605 2.0266 -1.9625 0.9628
7.1227 3.0020 -1.6339 0.9689
6.3683 3.3828 -1.5243 0.9709
5.6879 3.7079 -1.4352 0.9726
5.0478 3.9756 -1.3582 0.9741
4.4742 4.2231 -1.3005 0.9752
3.4548 4.6847 -1.2304 0.9765
2.5228 5.1358 -1.2095 0.9769
2.0649 5.3686 -1.2159 0.9768
0.0617 6.4704 -1.3678 0.9739
-0.5461 6.8210 -1.4464 0.9724
-2.8704 10.8463 -2.3716 0.9552
-3.7558 10.3490 -2.3272 0.9560
-4.5725 9.7748 -2.2811 0.9568
-5.3150 9.1348 -2.2340 0.9577
-5.9794 8.4401 -2.1864 0.9586
-6.5635 7.7015 -2.1389 0.9595
-8.0699 6.6087 -2.2048 0.9583
-8.4397 5.7339 -2.1568 0.9591
-9.0632 3.0893 -2.0240 0.9616
-9.0304 0.5449 -1.9123 0.9637
-8.6949 -1.0357 -1.8509 0.9648
-6.3475 -4.0937 -1.7752 0.9694
-4.4284 -5.9436 -1.7420 0.9700
-3.8753 -6.3078 -1.7399 0.9700
-3.2973 -6.6301 -1.7403 0.9700
-2.0751 -7.1445 -1.7485 0.9699
-0.1092 -7.5707 -1.7795 0.9694
0.5721 -7.6152 -1.7948 0.9691
1.2622 -7.6084 -1.8126 0.9688
1.9582 -7.5488 -1.8329 0.9685
2.6571 -7.4349 -1.8556 0.9681
4.7348 -6.7532 -1.9384 0.9667
6.0626 -6.0034 -2.0052 0.9655
6.6945 -5.5373 -2.0418 0.9649
7.7878 -3.5043 -2.0071 0.9655
8.2309 -2.8507 -2.0472 0.9648
8.6221 -2.1466 -2.0883 0.9641
9.2210 -0.6018 -2.1718 0.9627
9.4149 0.2283 -2.2134 0.9620
9.2684 1.9085 -2.2240 0.9619
7.2670 2.9186 -1.8405 0.9683
6.4942 3.3096 -1.7131 0.9705
5.2064 3.9591 -1.5372 0.9735
4.1980 4.5809 -1.4603 0.9748
3.6064 4.7204 -1.3961 0.9759
3.1226 4.9477 -1.3750 0.9762
2.6529 5.1768 -1.3671 0.9764
1.5965 3.9494 -1.0012 0.9826
0.1712 6.4607 -1.5189 0.9738
-0.4254 6.7529 -1.5902 0.9726
-0.9240 6.0184 -1.4310 0.9753
-2.3736 9.6268 -2.3303 0.9601
-5.7551 6.9898 -2.1280 0.9635
-6.2319 6.3219 -2.0863 0.9642
-7.1533 6.0638 -2.2040 0.9622
-7.5160 5.2949 -2.1608 0.9629
-7.8046 4.5135 -2.1189 0.9636
-8.0209 3.7263 -2.0786 0.9643
-8.2470 2.1592 -2.0036 0.9656
-8.1138 -0.0988 -1.9071 0.9672
-7.9562 -0.8110 -1.8796 0.9677
-7.4899 -2.1571 -1.8319 0.9685
-7.1874 -2.7863 -1.8117 0.9688
-6.8425 -3.3837 -1.7940 0.9691
-6.4579 -3.9474 -1.7788 0.9694
-6.0362 -4.4762 -1.7661 0.9696
-5.0915 -5.4229 -1.7482 0.9699
-4.5732 -5.8383 -1.7430 0.9700
-2.8609 -6.8383 -1.7421 0.9700
-0.2914 -7.5502 -1.7758 0.9694
0.3871 -7.6082 -1.7904 0.9692
3.1670 -7.3166 -1.8738 0.9678
3.8625 -7.1054 -1.9007 0.9673
4.5508 -6.8361 -1.9301 0.9668
5.2274 -6.5075 -1.9618 0.9663
5.8877 -6.1188 -1.9957 0.9657
6.5265 -5.6692 -2.0318 0.9651
7.1379 -5.1587 -2.0698 0.9645
7.7055 -4.5812 -2.1069 0.9638
8.5220 -2.3416 -2.0771 0.9643
9.1559 -0.8200 -2.1605 0.9629
9.5070 0.8533 -2.2434 0.9615
8.4509 2.3238 -2.0599 0.9646
7.5026 2.8048 -1.8825 0.9676
5.9913 3.5636 -1.6383 0.9718
4.7944 4.1663 -1.4928 0.9742
4.3385 4.5105 -1.4709 0.9746
3.2515 4.8863 -1.3794 0.9762
2.7789 5.1145 -1.3680 0.9764
1.6774 3.8772 -0.9929 0.9828
1.8458 5.5907 -1.3837 0.9761
0.6998 2.9960 -0.7231 0.9874
0.4329 3.0706 -0.7288 0.9873
-0.2588 6.6714 -1.5691 0.9729
-0.7712 5.9838 -1.4180 0.9755
-2.1496 9.7224 -2.3402 0.9599
-4.4160 8.3626 -2.2226 0.9619
-5.0490 7.7867 -2.1811 0.9626
-5.6143 7.1646 -2.1392 0.9633
-2.3765 2.1152 -0.7477 0.9870
-7.4254 5.5041 -2.1723 0.9627
-7.7338 4.7253 -2.1301 0.9634
-7.9695 3.9391 -2.0893 0.9641
-8.1346 3.1517 -2.0503 0.9648
-8.2320 2.3691 -2.0132 0.9654
-8.2644 1.5963 -1.9782 0.9660
-8.1472 0.0976 -1.9149 0.9671
-7.8085 -1.3151 -1.8610 0.9680
-5.2264 -5.3039 -1.7500 0.9699
-4.7160 -5.7300 -1.7441 0.9700
-4.1773 -6.1162 -1.7407 0.9700
-3.6124 -6.4613 -1.7398 0.9700
-3.0237 -6.7640 -1.7413 0.9700
-2.4132 -7.0231 -1.7453 0.9699
-1.7830 -7.2374 -1.7518 0.9698
-1.1354 -7.4055 -1.7608 0.9697
0.8886 -7.6185 -1.8027 0.9690
1.5818 -7.5876 -1.8216 0.9687
2.2795 -7.5032 -1.8430 0.9683
4.3658 -6.9146 -1.9219 0.9670
5.0461 -6.6022 -1.9530 0.9664
6.9758 -5.3025 -2.0594 0.9646
7.5292 -3.8352 -1.9859 0.9659
2.3180 -0.9305 -0.5870 0.9898
8.7827 -1.8067 -2.1074 0.9638
9.0856 -1.0354 -2.1491 0.9631
9.4780 0.6204 -2.2323 0.9617
8.7390 2.1775 -2.1167 0.9637
7.7424 2.6832 -1.9258 0.9669
6.8978 3.1054 -1.7779 0.9694
2.9055 5.0526 -1.3698 0.9763
0.4730 6.3126 -1.4878 0.9743
-0.0964 6.5918 -1.5494 0.9733
-0.6350 6.0814 -1.4370 0.9752
-2.7469 9.4505 -2.3130 0.9604
-4.2338 8.5091 -2.2337 0.9617
-5.4684 7.3366 -2.1506 0.9631
-5.9831 6.6865 -2.1088 0.9638
-7.3294 5.7123 -2.1839 0.9625
-8.0968 3.3641 -2.0607 0.9646
-8.2122 2.5797 -2.0230 0.9652
-8.2619 1.8038 -1.9875 0.9658
-8.1765 0.2955 -1.9229 0.9669
-7.8662 -1.1302 -1.8677 0.9679
-7.6347 -1.8047 -1.8438 0.9683
-7.0339 -3.0651 -1.8033 0.9690
-6.2684 -4.1950 -1.7727 0.9695
-5.3592 -5.1822 -1.7521 0.9698
-4.8567 -5.6188 -1.7455 0.9699
-4.3254 -6.0159 -1.7414 0.9700
-3.7674 -6.3722 -1.7398 0.9700
-3.1849 -6.6865 -1.7406 0.9700
-1.3119 -7.3647 -1.7581 0.9697
-0.6530 -7.4982 -1.7689 0.9695
0.0193 -7.5831 -1.7822 0.9693
1.3940 -7.6011 -1.8162 0.9687
2.0908 -7.5314 -1.8370 0.9684
3.4875 -7.2266 -1.8859 0.9676
4.1802 -6.9889 -1.9139 0.9671
4.8637 -6.6924 -1.9444 0.9666
5.5334 -6.3362 -1.9771 0.9660
6.8114 -5.4420 -2.0490 0.9648
7.4083 -4.9035 -2.0880 0.9642
7.3953 -3.9948 -1.9754 0.9661
8.6900 -2.0075 -2.0961 0.9640
9.2636 -0.4468 -2.1797 0.9626
9.0435 2.0228 -2.1780 0.9626
6.3590 3.3779 -1.6923 0.9708
5.6954 3.7128 -1.5979 0.9725
3.5130 4.7636 -1.3911 0.9760
2.5646 5.2208 -1.3671 0.9764
0.5518 2.8949 -0.6926 0.9880
-0.5453 6.8116 -1.6060 0.9723
-1.0401 6.0847 -1.4508 0.9750
-2.5290 9.5560 -2.3232 0.9602
-3.3164 9.1383 -2.2848 0.9608
-5.8510 6.8655 -2.1200 0.9636
-6.7991 6.6670 -2.2380 0.9616
-7.5764 5.1474 -2.1527 0.9631
-8.1876 2.7909 -2.0330 0.9651
-8.2547 2.0122 -1.9969 0.9657
-8.2584 1.2455 -1.9629 0.9663
-8.2017 0.4949 -1.9311 0.9668
-8.0880 -0.2358 -1.9017 0.9673
-6.5316 -2.7153 -1.8315 0.9712
-6.2088 -3.2592 -1.8156 0.9714
-5.8489 -3.7722 -1.8020 0.9717
-5.0277 -4.6992 -1.7818 0.9720
-4.0865 -5.4848 -1.7709 0.9721
-3.5764 -5.8214 -1.7690 0.9722
-1.9144 -6.5910 -1.7771 0.9720
-0.7183 -6.8918 -1.7941 0.9718
1.1611 -6.9991 -1.8370 0.9711
2.4396 -6.8265 -1.8770 0.9705
3.7093 -6.4475 -1.9259 0.9697
4.3316 -6.1781 -1.9536 0.9693
5.5300 -5.4760 -2.0150 0.9684
7.1139 -4.0002 -2.1132 0.9668
7.0550 -3.1745 -2.0031 0.9685
7.4425 -2.5777 -2.0393 0.9680
8.0655 -1.2568 -2.1135 0.9668
8.2894 -0.5410 -2.1508 0.9663
8.1633 2.4582 -2.2074 0.9654
7.2554 2.9139 -2.0244 0.9682
6.4845 3.3047 -1.8844 0.9704
5.1994 3.9538 -1.6912 0.9734
4.1928 4.5751 -1.6068 0.9747
3.1451 4.9834 -1.5258 0.9759
1.7265 5.6872 -1.5389 0.9757
0.6070 2.9148 -0.7709 0.9878
-0.4248 6.7436 -1.7495 0.9725
-0.9227 6.0102 -1.5744 0.9752
-2.1182 8.5908 -2.2909 0.9641
-5.6247 5.7058 -2.0745 0.9674
-6.8094 4.7972 -2.1567 0.9662
-7.0837 4.0966 -2.1187 0.9668
-7.2929 3.3881 -2.0821 0.9673
-7.5231 1.9697 -2.0135 0.9684
-7.5486 1.2698 -1.9819 0.9689
-7.4331 -0.0905 -1.9247 0.9698
-6.2997 -3.1153 -1.8196 0.9714
-5.5642 -4.1262 -1.7936 0.9718
-5.1460 -4.5820 -1.7840 0.9719
-4.6971 -5.0028 -1.7768 0.9720
-4.2200 -5.3874 -1.7719 0.9721
-3.1893 -6.0423 -1.7690 0.9722
-2.6400 -6.3104 -1.7711 0.9721
-0.8830 -6.8616 -1.7912 0.9718
-0.2685 -6.9569 -1.8026 0.9716
1.6271 -6.9595 -1.8505 0.9709
2.2669 -6.8617 -1.8711 0.9706
3.5394 -6.5111 -1.9188 0.9698
5.3728 -5.5836 -2.0063 0.9685
5.9462 -5.1652 -2.0393 0.9680
6.4925 -4.6922 -2.0741 0.9674
7.3424 -2.7433 -2.0294 0.9681
7.6949 -2.1143 -2.0662 0.9676
7.9944 -1.4443 -2.1034 0.9670
8.4115 0.0008 -2.1779 0.9658
8.5181 0.7645 -2.2144 0.9653
8.4358 2.3196 -2.2652 0.9645
7.4903 2.8002 -2.0705 0.9675
5.9827 3.5585 -1.8023 0.9716
4.7881 4.1609 -1.6424 0.9741
2.8008 5.1548 -1.5190 0.9761
1.6753 3.8724 -1.0924 0.9827
0.3233 6.3775 -1.6534 0.9740
-0.7705 5.9779 -1.5606 0.9754
-3.3286 7.9519 -2.2320 0.9650
-3.9604 7.5000 -2.1960 0.9656
-4.5369 6.9969 -2.1591 0.9661
-5.0547 6.4505 -2.1218 0.9667
-7.2428 3.5799 -2.0918 0.9672
-7.4054 2.8692 -2.0563 0.9677
-7.5062 2.1602 -2.0224 0.9682
-7.5314 0.7663 -1.9601 0.9692
-7.3390 -0.5695 -1.9059 0.9700
-6.3879 -2.9691 -1.8239 0.9713
-5.6717 -3.9973 -1.7966 0.9717
-5.2620 -4.4623 -1.7864 0.9719
-4.8212 -4.8927 -1.7785 0.9720
-4.3515 -5.2872 -1.7730 0.9721
-3.8550 -5.6444 -1.7698 0.9722
-2.7904 -6.2420 -1.7703 0.9721
-1.0469 -6.8281 -1.7886 0.9719
-0.4356 -6.9357 -1.7993 0.9717
0.1868 -6.9972 -1.8124 0.9715
1.4545 -6.9772 -1.8454 0.9710
2.0941 -6.8931 -1.8653 0.9707
7.6047 -2.2883 -2.0562 0.9677
8.1763 -0.9317 -2.1307 0.9666
8.5246 2.1240 -2.2747 0.9644
6.8872 3.1006 -1.9556 0.9693
4.9376 4.0857 -1.6593 0.9739
3.9582 4.6926 -1.5895 0.9750
3.4026 4.8550 -1.5350 0.9758
2.4580 5.3251 -1.5186 0.9761
1.9855 5.5591 -1.5284 0.9759
1.5028 5.7976 -1.5507 0.9756
0.4807 2.9013 -0.7615 0.9879
-0.0962 6.5830 -1.7046 0.9732
-0.6350 6.0819 -1.5833 0.9750
-1.4157 7.2267 -1.9067 0.9700
-3.7951 7.6274 -2.2058 0.9654
-2.3364 2.1829 -0.8279 0.9869
-6.6337 5.1700 -2.1776 0.9658
-6.9437 4.4764 -2.1391 0.9664
-7.3677 3.0612 -2.0657 0.9676
-7.4850 2.3513 -2.0314 0.9681
-7.2187 -1.0372 -1.8883 0.9703
-6.7643 -2.2531 -1.8460 0.9710
-6.1432 -3.3590 -1.8128 0.9715
-5.3758 -4.3401 -1.7889 0.9719
-3.4769 -5.8809 -1.7689 0.9722
-2.3807 -6.4198 -1.7728 0.9721
-1.8035 -6.6271 -1.7783 0.9720
-1.2098 -6.7913 -1.7861 0.9719
0.6467 -7.0124 -1.8233 0.9713
1.2821 -6.9913 -1.8404 0.9711
1.9213 -6.9208 -1.8597 0.9708
4.4483 -6.1209 -1.9591 0.9692
5.0536 -5.7868 -1.9892 0.9688
6.2012 -4.9545 -2.0551 0.9677
6.7331 -4.4566 -2.0906 0.9672
6.7094 -3.6243 -1.9744 0.9690
2.3058 -0.9909 -0.6498 0.9897
7.8396 -1.8110 -2.0833 0.9673
8.1128 -1.1235 -2.1206 0.9667
8.3246 -0.4015 -2.1579 0.9661
8.4695 0.3493 -2.1948 0.9656
8.5391 1.9099 -2.2656 0.9645
7.9799 2.5514 -2.1692 0.9660
6.3497 3.3729 -1.8616 0.9707
4.0953 4.6240 -1.5993 0.9748
3.5326 4.7902 -1.5410 0.9757
3.0553 5.0282 -1.5234 0.9760
2.5849 5.2621 -1.5180 0.9761
0.6187 6.2326 -1.6217 0.9745
0.0620 6.5055 -1.6845 0.9735
-0.5446 6.8021 -1.7668 0.9722
-1.0384 6.0744 -1.5956 0.9749
-2.2576 8.5305 -2.2847 0.9642
-2.9658 8.1721 -2.2509 0.9647
-4.2326 7.2745 -2.1791 0.9658
-4.7825 6.7506 -2.1420 0.9664
-5.2726 6.1867 -2.1047 0.9670
-5.7013 5.5905 -2.0674 0.9675
-6.8666 4.6651 -2.1494 0.9663
-7.1284 3.9625 -2.1117 0.9669
-7.4594 2.5427 -2.0405 0.9680
-7.5057 0.4529 -1.9469 0.9694
-7.0735 -1.4927 -1.8718 0.9706
-5.7485 -3.0175 -1.8379 0.9734
-5.4183 -3.4944 -1.8252 0.9736
-3.3176 -5.4001 -1.7942 0.9740
-2.8227 -5.6758 -1.7945 0.9740
-2.3079 -5.9136 -1.7971 0.9740
-1.7752 -6.1120 -1.8018 0.9739
-0.0932 -6.4601 -1.8290 0.9735
1.0741 -6.4746 -1.8580 0.9731
2.8394 -6.1481 -1.9171 0.9722
3.9880 -5.6880 -1.9666 0.9715
4.5427 -5.3835 -1.9941 0.9711
5.0787 -5.0291 -2.0234 0.9707
5.5915 -4.6250 -2.0542 0.9703
6.4418 -2.8986 -1.9997 0.9711
6.7849 -2.3499 -2.0327 0.9706
7.0824 -1.7632 -2.0662 0.9701
7.3293 -1.1421 -2.0999 0.9696
7.7172 1.5891 -2.2305 0.9678
7.6450 2.3021 -2.2602 0.9674
7.2436 2.9092 -2.2098 0.9681
6.4747 3.2997 -2.0573 0.9702
5.7994 3.6418 -1.9386 0.9719
4.6356 4.2290 -1.7764 0.9743
2.6707 5.2115 -1.6578 0.9759
1.5630 3.8666 -1.1807 0.9828
-0.9214 6.0019 -1.7190 0.9751
-1.9102 7.7473 -2.2589 0.9674
-2.5602 7.4463 -2.2291 0.9678
-3.7338 6.6753 -2.1653 0.9687
-4.7114 5.7222 -2.0983 0.9697
-5.1199 5.1938 -2.0646 0.9701
-6.2180 4.3805 -2.1532 0.9689
-6.6796 3.1031 -2.0850 0.9698
-6.9418 1.1677 -1.9928 0.9712
-6.9217 0.5357 -1.9653 0.9716
-6.7335 -0.6864 -1.9161 0.9723
-6.5700 -1.2704 -1.8944 0.9726
-6.1168 -2.3713 -1.8572 0.9731
-5.8317 -2.8838 -1.8417 0.9733
-5.5108 -3.3685 -1.8284 0.9735
-5.1564 -3.8237 -1.8173 0.9737
-4.7706 -4.2478 -1.8083 0.9738
-3.9141 -4.9969 -1.7969 0.9740
-3.4476 -5.3192 -1.7945 0.9740
-1.9207 -6.0624 -1.8003 0.9739
-1.3765 -6.2314 -1.8066 0.9738
1.5043 -6.4343 -1.8706 0.9729
2.0941 -6.3386 -1.8898 0.9726
2.6816 -6.1952 -1.9110 0.9723
3.8355 -5.7617 -1.9595 0.9716
5.9484 -4.2990 -2.0777 0.9699
7.6225 0.0007 -2.1579 0.9688
7.7071 0.6917 -2.1906 0.9683
7.6716 2.1095 -2.2524 0.9675
7.4779 2.7956 -2.2600 0.9674
5.9741 3.5534 -1.9678 0.9715
5.3507 3.8686 -1.8692 0.9729
4.3275 4.4991 -1.7672 0.9744
3.8178 4.7546 -1.7262 0.9750
0.7066 3.0250 -0.8794 0.9872
-0.2581 6.6531 -1.8849 0.9727
-1.7285 7.8178 -2.2666 0.9673
-3.0094 7.1893 -2.2064 0.9681
-5.0150 5.3393 -2.0737 0.9700
-6.1341 4.5469 -2.1616 0.9688
-6.4139 3.9189 -2.1278 0.9692
-6.6310 3.2775 -2.0940 0.9697
-6.8916 1.9833 -2.0301 0.9706
-6.9384 1.3402 -2.0005 0.9711
-6.6185 -1.1147 -1.9000 0.9725
-5.6009 -3.2405 -1.8318 0.9735
-5.2553 -3.7038 -1.8201 0.9736
-4.8778 -4.1364 -1.8105 0.9738
-4.4706 -4.5369 -1.8031 0.9739
-3.5759 -5.2357 -1.7949 0.9740
-2.5883 -5.7899 -1.7954 0.9740
-1.5249 -6.1898 -1.8047 0.9738
0.1730 -6.4793 -1.8349 0.9734
1.3450 -6.4521 -1.8658 0.9730
1.9349 -6.3692 -1.8844 0.9727
3.6821 -5.8318 -1.9525 0.9717
4.2451 -5.5542 -1.9790 0.9714
5.8182 -4.4226 -2.0689 0.9701
6.2828 -3.9437 -2.1000 0.9696
6.2393 -3.1782 -1.9822 0.9713
2.3182 -0.9305 -0.7072 0.9897
6.9277 -2.0846 -2.0481 0.9704
7.4245 -0.8461 -2.1154 0.9694
7.5887 -0.1825 -2.1489 0.9689
7.7266 1.2056 -2.2138 0.9680
7.6930 1.9168 -2.2444 0.9676
3.3984 4.8491 -1.6763 0.9757
1.9831 5.5524 -1.6691 0.9758
1.5009 5.7904 -1.6934 0.9754
0.4718 6.2962 -1.7874 0.9741
-2.2138 7.6165 -2.2454 0.9676
-2.8458 7.2879 -2.2149 0.9680
-4.4681 5.9946 -2.1166 0.9694
-4.9061 5.4828 -2.0828 0.9699
-6.0419 4.7088 -2.1685 0.9687
-6.5782 3.4515 -2.1030 0.9696
-6.7525 2.8056 -2.0700 0.9701
-6.9310 1.5132 -2.0083 0.9709
-6.9389 0.8757 -1.9799 0.9713
-6.6638 -0.9575 -1.9058 0.9724
-6.2550 -2.0835 -1.8664 0.9730
-5.9903 -2.6103 -1.8498 0.9732
-5.6884 -3.1103 -1.8354 0.9734
-5.3518 -3.5816 -1.8230 0.9736
-4.5833 -4.4320 -1.8049 0.9738
-4.1559 -4.8080 -1.7991 0.9739
-2.2081 -5.9543 -1.7978 0.9739
-1.6723 -6.1452 -1.8029 0.9739
-0.5577 -6.4038 -1.8197 0.9736
0.0165 -6.4692 -1.8314 0.9735
0.5985 -6.4905 -1.8452 0.9733
1.1859 -6.4665 -1.8611 0.9730
1.7756 -6.3962 -1.8792 0.9728
2.9500 -6.1129 -1.9215 0.9722
3.5278 -5.8982 -1.9456 0.9718
4.0945 -5.6341 -1.9717 0.9715
4.6460 -5.3201 -1.9995 0.9711
6.1338 -3.3134 -1.9736 0.9714
7.3700 -1.0207 -2.1063 0.9695
7.6695 0.3163 -2.1730 0.9686
7.7091 1.7243 -2.2363 0.9677
7.6231 2.4374 -2.2657 0.9673
7.0890 2.9878 -2.1778 0.9685
6.3402 3.3679 -2.0324 0.9706
4.0902 4.6182 -1.7464 0.9747
3.0516 5.0220 -1.6636 0.9759
1.5326 3.9845 -1.2086 0.9824
1.6326 5.7255 -1.6855 0.9756
0.6179 6.2246 -1.7708 0.9743
-1.0366 6.0642 -1.7416 0.9747
-2.0365 7.6949 -2.2534 0.9675
-3.2804 7.0126 -2.1917 0.9683
-3.8354 6.5919 -2.1590 0.9688
-4.7931 5.6242 -2.0919 0.9697
-5.1912 5.0904 -2.0582 0.9702
-6.2720 4.2611 -2.1466 0.9690
-6.5211 3.6249 -2.1121 0.9695
-6.9122 0.4171 -1.9603 0.9716
-6.8327 -0.1992 -1.9351 0.9720
-5.3470 -2.8068 -1.8574 0.9750
-4.3410 -4.0574 -1.8276 0.9754
-3.9487 -4.4146 -1.8218 0.9755
-3.0910 -5.0313 -1.8162 0.9756
-2.6299 -5.2881 -1.8166 0.9756
0.9983 -6.0178 -1.8762 0.9748
1.5452 -5.9567 -1.8928 0.9746
3.6914 -5.2650 -1.9778 0.9734
4.6909 -4.6451 -2.0305 0.9728
5.5990 -3.8441 -2.0890 0.9720
6.2276 -2.1569 -2.0271 0.9728
6.4919 -1.6162 -2.0577 0.9724
6.7091 -1.0455 -2.0885 0.9720
6.8749 -0.4487 -2.1191 0.9716
7.0272 1.4470 -2.2068 0.9704
6.9531 2.0938 -2.2335 0.9701
6.8134 2.7364 -2.2584 0.9697
6.4649 3.2947 -2.2318 0.9701
5.7911 3.6366 -2.1033 0.9718
5.1853 3.9431 -2.0036 0.9731
4.6295 4.2234 -1.9275 0.9741
4.1822 4.5635 -1.9039 0.9744
1.5186 3.7567 -1.2463 0.9832
1.7223 5.6731 -1.8236 0.9755
0.7180 6.1669 -1.9096 0.9744
0.1706 6.4348 -1.9799 0.9734
-1.7375 7.0466 -2.2323 0.9701
-2.3314 6.7809 -2.2055 0.9704
-2.8901 6.4617 -2.1772 0.9708
-3.4089 6.0944 -2.1478 0.9712
-3.8841 5.6847 -2.1176 0.9716
-4.3130 5.2383 -2.0870 0.9720
-4.6933 4.7611 -2.0563 0.9724
-2.4687 2.0926 -0.9954 0.9865
-5.9623 3.4481 -2.1185 0.9716
-6.1552 2.8595 -2.0875 0.9720
-6.2948 2.2657 -2.0577 0.9724
-6.3823 1.6710 -2.0292 0.9728
-6.4192 1.0798 -2.0021 0.9731
-6.4073 0.4959 -1.9766 0.9735
-6.2446 -0.6366 -1.9307 0.9741
-6.0981 -1.1791 -1.9104 0.9743
-5.9110 -1.7024 -1.8920 0.9746
-4.8000 -3.5594 -1.8380 0.9753
-4.4424 -3.9556 -1.8296 0.9754
-4.0572 -4.3213 -1.8231 0.9755
-3.2121 -4.9559 -1.8165 0.9756
-2.2813 -5.4530 -1.8181 0.9756
-1.2819 -5.8031 -1.8279 0.9754
-0.7619 -5.9202 -1.8359 0.9753
-0.2315 -5.9972 -1.8460 0.9752
0.3070 -6.0331 -1.8580 0.9750
1.9440 -5.8843 -1.9061 0.9744
2.4874 -5.7465 -1.9260 0.9741
3.5512 -5.3347 -1.9711 0.9735
5.0348 -4.3735 -2.0513 0.9725
5.4830 -3.9626 -2.0808 0.9721
5.8848 -3.4987 -2.1058 0.9718
6.1487 -2.2973 -2.0189 0.9729
6.9612 0.0007 -2.1411 0.9713
7.0361 1.2726 -2.1993 0.9705
6.9795 1.9192 -2.2264 0.9702
6.8577 2.5637 -2.2519 0.9698
6.6616 3.1947 -2.2724 0.9696
5.9654 3.5482 -2.1349 0.9714
4.7755 4.1499 -1.9460 0.9739
4.3220 4.4933 -1.9176 0.9742
3.8130 4.7486 -1.8732 0.9748
1.8519 5.6091 -1.8168 0.9756
0.7137 3.0552 -0.9650 0.9870
0.4309 3.0562 -0.9493 0.9872
-1.5717 7.1085 -2.2392 0.9700
-3.7602 5.7992 -2.1259 0.9715
-4.2019 5.3621 -2.0953 0.9719
-4.5955 4.8926 -2.0646 0.9723
-2.3722 2.1114 -0.9768 0.9868
-5.2332 3.8791 -2.0036 0.9731
-6.1084 3.0192 -2.0958 0.9719
-6.3637 1.8314 -2.0368 0.9727
-6.4141 1.2389 -2.0093 0.9730
-6.4152 0.6527 -1.9834 0.9734
-6.2770 -0.4871 -1.9365 0.9740
-5.9654 -1.5631 -1.8968 0.9745
-5.7500 -2.0708 -1.8798 0.9747
-5.4978 -2.5554 -1.8647 0.9749
-4.8915 -3.4474 -1.8406 0.9753
-4.5418 -3.8515 -1.8316 0.9754
-3.7597 -4.5682 -1.8198 0.9755
-1.4202 -5.7648 -1.8261 0.9755
0.1609 -6.0275 -1.8546 0.9751
1.2498 -5.9951 -1.8836 0.9747
1.7966 -5.9139 -1.9011 0.9745
2.3411 -5.7882 -1.9204 0.9742
3.4101 -5.4010 -1.9646 0.9736
3.9276 -5.1387 -1.9893 0.9733
4.4286 -4.8306 -2.0157 0.9729
5.3648 -4.0779 -2.0727 0.9722
5.7831 -3.6301 -2.1002 0.9718
2.3183 -0.9306 -0.7684 0.9896
6.3547 -1.9122 -2.0412 0.9726
6.5979 -1.3573 -2.0719 0.9722
6.7919 -0.7740 -2.1026 0.9718
6.9328 -0.1668 -2.1330 0.9714
7.0404 1.0985 -2.1917 0.9706
7.0012 1.7445 -2.2193 0.9703
6.7270 3.0285 -2.2691 0.9696
6.1452 3.4570 -2.1687 0.9709
4.4430 4.4013 -1.9236 0.9742
3.9482 4.6809 -1.8835 0.9747
3.3942 4.8431 -1.8190 0.9756
2.8972 5.0382 -1.7876 0.9760
1.4990 5.7832 -1.8376 0.9753
0.4712 6.2878 -1.9394 0.9740
-0.6351 6.0830 -1.8812 0.9747
-1.4038 7.1661 -2.2460 0.9699
-2.0147 6.9313 -2.2202 0.9702
-2.5930 6.6404 -2.1926 0.9706
-3.1339 6.2984 -2.1638 0.9710
-3.6330 5.9109 -2.1340 0.9714
-4.4940 5.0223 -2.0729 0.9722
-2.3417 2.1878 -0.9857 0.9867
-5.1589 4.0206 -2.0117 0.9730
-5.8356 3.7620 -2.1356 0.9714
-6.2260 2.5868 -2.0737 0.9722
-6.3414 1.9920 -2.0445 0.9726
-6.4197 0.8102 -1.9902 0.9733
-5.8119 -1.9359 -1.8842 0.9747
-5.5694 -2.4269 -1.8686 0.9749
-5.2916 -2.8933 -1.8550 0.9751
-4.9808 -3.3334 -1.8434 0.9752
-4.2686 -4.1276 -1.8263 0.9755
-3.8713 -4.4788 -1.8209 0.9755
-2.0570 -5.5469 -1.8196 0.9755
-1.0442 -5.8619 -1.8314 0.9754
0.0153 -6.0189 -1.8513 0.9751
1.1021 -6.0095 -1.8792 0.9748
2.1945 -5.8265 -1.9150 0.9743
2.7353 -5.6680 -1.9357 0.9740
3.7893 -5.2141 -1.9825 0.9734
5.6787 -3.7586 -2.0946 0.9719
5.6592 -3.0570 -1.9784 0.9734
2.3011 -0.9888 -0.7703 0.9896
6.5369 -1.5101 -2.0636 0.9723
6.7446 -0.9341 -2.0943 0.9719
6.9317 2.2163 -2.2384 0.9700
6.7795 2.8573 -2.2629 0.9697
5.6715 3.6972 -2.0824 0.9721
4.5285 4.2743 -1.9153 0.9743
4.0850 4.6123 -1.8951 0.9745
3.0478 5.0159 -1.8053 0.9757
2.5786 5.2493 -1.7988 0.9758
2.1086 5.4822 -1.8066 0.9757
0.6171 6.2164 -1.9214 0.9742
-1.0348 6.0538 -1.8890 0.9746
-1.8527 7.0005 -2.2273 0.9701
-3.5025 6.0197 -2.1421 0.9713
-3.9692 5.6026 -2.1119 0.9717
-5.7611 3.9141 -2.1423 0.9713
-6.0031 3.3370 -2.1125 0.9717
-6.1858 2.7471 -2.0818 0.9721
-6.3154 2.1527 -2.0522 0.9725
-6.4206 0.9683 -1.9972 0.9732
-6.3996 0.3862 -1.9720 0.9735
-6.3321 -0.1846 -1.9484 0.9738
-6.2200 -0.7409 -1.9267 0.9741
-4.9934 -2.6212 -1.8746 0.9765
-4.0583 -3.7931 -1.8465 0.9769
-3.6922 -4.1279 -1.8409 0.9769
-2.8908 -4.7054 -1.8357 0.9770
-2.4596 -4.9456 -1.8360 0.9770
-2.0106 -5.1518 -1.8383 0.9770
-1.5460 -5.3229 -1.8425 0.9769
0.9317 -5.6160 -1.8923 0.9763
2.4525 -5.3104 -1.9444 0.9756
2.9481 -5.1244 -1.9652 0.9754
3.4326 -4.8958 -1.9875 0.9751
3.9024 -4.6247 -2.0114 0.9748
4.3538 -4.3113 -2.0367 0.9745
4.7831 -3.9563 -2.0633 0.9742
5.1860 -3.5606 -2.0910 0.9738
5.7488 -1.9911 -2.0223 0.9747
6.1789 -0.9628 -2.0787 0.9740
6.4187 0.1556 -2.1342 0.9733
6.4591 0.7373 -2.1610 0.9730
6.2349 2.5041 -2.2334 0.9721
6.0414 3.0789 -2.2540 0.9718
5.1781 3.9377 -2.1624 0.9730
4.0905 4.4635 -2.0125 0.9748
3.6110 4.7264 -1.9771 0.9752
3.1335 4.9650 -1.9516 0.9756
1.4940 3.6958 -1.3251 0.9833
0.6250 3.0011 -1.0190 0.9872
0.7171 6.1588 -2.0610 0.9742
0.1703 6.4260 -2.1368 0.9733
-0.4230 6.7150 -2.2365 0.9720
-0.9189 5.9854 -2.0129 0.9748
-1.5915 6.4546 -2.2098 0.9724
-2.6528 5.9311 -2.1598 0.9730
-3.1325 5.6002 -2.1330 0.9733
-3.9724 4.8246 -2.0774 0.9740
-4.3277 4.3902 -2.0492 0.9743
-4.9019 3.4534 -1.9932 0.9750
-5.9582 0.4612 -1.9865 0.9751
-5.9085 -0.0719 -1.9642 0.9754
-5.8165 -0.5929 -1.9434 0.9757
-5.6841 -1.0991 -1.9244 0.9759
-5.5133 -1.5878 -1.9071 0.9761
-4.4856 -3.3263 -1.8563 0.9767
-2.5779 -4.8840 -1.8357 0.9770
-1.6729 -5.2802 -1.8412 0.9769
-1.1984 -5.4250 -1.8468 0.9769
-0.2162 -5.6028 -1.8638 0.9766
0.2867 -5.6339 -1.8752 0.9765
0.7942 -5.6253 -1.8884 0.9763
1.3037 -5.5761 -1.9035 0.9762
1.8123 -5.4857 -1.9204 0.9759
4.2340 -4.4001 -2.0298 0.9746
5.4446 -3.2370 -2.1055 0.9737
5.6778 -2.1213 -2.0148 0.9748
6.1313 -1.1077 -2.0711 0.9741
6.2899 -0.5633 -2.0992 0.9737
6.3984 0.0006 -2.1269 0.9734
6.4536 0.5792 -2.1538 0.9731
6.4531 1.1671 -2.1798 0.9727
6.3946 1.7583 -2.2045 0.9724
6.0996 2.9252 -2.2486 0.9719
4.7691 4.1443 -2.1002 0.9737
3.7424 4.6606 -1.9869 0.9751
2.7905 5.1358 -1.9429 0.9757
1.6426 3.7969 -1.3752 0.9827
1.8496 5.6021 -1.9610 0.9754
0.7213 3.0881 -1.0541 0.9867
0.4303 3.0523 -1.0246 0.9871
-4.2361 4.5101 -2.0568 0.9743
-2.3717 2.1110 -1.0554 0.9867
-5.4551 3.3331 -2.1250 0.9734
-5.6564 2.7958 -2.0974 0.9738
-5.9642 0.6068 -1.9928 0.9750
-5.1328 -2.3858 -1.8815 0.9764
-4.8673 -2.8160 -1.8692 0.9766
-4.5708 -3.2214 -1.8588 0.9767
-3.5158 -4.2718 -1.8390 0.9769
-3.1157 -4.5620 -1.8364 0.9770
-2.6948 -4.8200 -1.8356 0.9770
-1.3278 -5.3895 -1.8451 0.9769
0.1503 -5.6294 -1.8719 0.9765
1.1660 -5.5934 -1.8993 0.9762
1.6752 -5.5142 -1.9157 0.9760
2.1814 -5.3933 -1.9338 0.9758
3.6507 -4.7764 -1.9984 0.9750
4.5542 -4.1532 -2.0488 0.9744
5.3516 -3.3592 -2.1003 0.9737
5.3066 -2.7031 -1.9796 0.9752
6.2519 -0.7124 -2.0916 0.9738
6.3742 -0.1533 -2.1194 0.9735
6.4441 0.4218 -2.1466 0.9731
6.4588 1.0078 -2.1729 0.9728
6.4162 1.5987 -2.1980 0.9725
6.3146 2.1884 -2.2215 0.9722
6.1533 2.7703 -2.2431 0.9720
4.2921 4.2518 -2.0082 0.9749
3.3899 4.8370 -1.9634 0.9754
2.8936 5.0319 -1.9295 0.9758
1.9782 5.5386 -1.9550 0.9755
1.4971 5.7758 -1.9834 0.9752
0.4745 2.8636 -0.9648 0.9878
0.4705 6.2794 -2.0932 0.9738
-0.6352 6.0836 -2.0332 0.9745
-1.2852 6.5607 -2.2223 0.9722
-2.3787 6.0916 -2.1738 0.9728
-2.8780 5.7842 -2.1475 0.9731
-4.1413 4.6282 -2.0644 0.9742
-5.3874 3.4730 -2.1307 0.9733
-5.6079 2.9423 -2.1051 0.9737
-5.7698 2.3973 -2.0769 0.9740
-5.8829 1.8480 -2.0497 0.9743
-5.9481 1.2986 -2.0238 0.9747
-5.9669 0.7530 -1.9992 0.9750
-5.8713 -0.3132 -1.9544 0.9755
-5.7605 -0.8277 -1.9345 0.9758
-5.6102 -1.3261 -1.9162 0.9760
-4.3359 -3.5005 -1.8524 0.9768
-3.6200 -4.1881 -1.8401 0.9769
-3.2259 -4.4867 -1.8369 0.9770
-2.8104 -4.7536 -1.8356 0.9770
-2.3756 -4.9874 -1.8363 0.9770
-1.4563 -5.3513 -1.8435 0.9769
-0.9760 -5.4793 -1.8500 0.9768
0.5196 -5.6349 -1.8810 0.9764
1.5379 -5.5397 -1.9111 0.9761
2.5473 -5.2784 -1.9482 0.9756
3.0410 -5.0843 -1.9693 0.9753
3.9896 -4.5685 -2.0161 0.9748
5.2560 -3.4789 -2.0951 0.9738
5.2204 -2.8199 -1.9723 0.9753
2.2987 -0.9878 -0.8317 0.9895
6.3462 -0.3061 -2.1120 0.9736
6.4306 0.2652 -2.1394 0.9732
6.3479 2.0296 -2.2153 0.9723
5.6633 3.6919 -2.2472 0.9719
5.0695 3.9926 -2.1450 0.9732
4.5225 4.2687 -2.0672 0.9741
4.0093 4.5268 -2.0100 0.9748
3.5194 4.7723 -1.9710 0.9753
0.5489 2.8796 -0.9744 0.9877
-1.0331 6.0434 -2.0380 0.9745
-1.6973 6.4136 -2.2053 0.9724
-2.7467 5.8716 -2.1547 0.9730
-4.0432 4.7443 -2.0720 0.9741
-4.3901 4.3048 -2.0438 0.9744
-4.9468 3.3608 -1.9879 0.9751
-5.5556 3.0882 -2.1129 0.9736
-5.8571 1.9965 -2.0569 0.9743
-5.9663 0.8998 -2.0057 0.9749
-5.8942 -0.1718 -1.9601 0.9755
-5.7944 -0.6902 -1.9397 0.9757
-5.6546 -1.1932 -1.9210 0.9759
-4.9120 -2.0420 -1.9023 0.9777
-4.4161 -2.8481 -1.8792 0.9779
-2.7125 -4.4152 -1.8531 0.9782
-2.3078 -4.6405 -1.8534 0.9782
-1.8864 -4.8336 -1.8555 0.9782
-1.4503 -4.9934 -1.8595 0.9782
-1.0018 -5.1189 -1.8653 0.9781
0.8726 -5.2596 -1.9066 0.9776
1.3491 -5.2004 -1.9213 0.9774
3.2045 -4.5705 -1.9962 0.9766
4.0579 -4.0182 -2.0422 0.9760
4.4539 -3.6841 -2.0670 0.9757
4.7943 -2.6959 -1.9670 0.9769
5.0806 -2.2861 -1.9923 0.9766
5.7200 -0.8913 -2.0702 0.9757
5.9619 0.6806 -2.1459 0.9748
5.9417 1.2235 -2.1694 0.9746
5.8681 1.7670 -2.1915 0.9743
5.7402 2.3054 -2.2121 0.9741
5.3221 3.3421 -2.2474 0.9737
5.0339 3.8280 -2.2615 0.9735
4.6171 4.2121 -2.2350 0.9738
3.8676 4.2203 -2.0471 0.9760
2.6608 5.1921 -2.0863 0.9755
1.5265 3.7761 -1.4565 0.9828
1.7179 5.6587 -2.1148 0.9752
0.6227 2.9898 -1.0921 0.9871
0.7161 6.1506 -2.2143 0.9740
-0.3921 6.2235 -2.2300 0.9739
-1.9714 5.7339 -2.1683 0.9746
-2.8942 5.1743 -2.1202 0.9751
-3.6775 4.4665 -2.0690 0.9757
-4.0106 4.0684 -2.0430 0.9760
-4.5518 3.2067 -1.9911 0.9766
-5.3045 2.4643 -2.0916 0.9755
-5.4355 1.9564 -2.0658 0.9758
-5.5202 -0.0672 -1.9742 0.9768
-5.1608 -1.4863 -1.9205 0.9774
-4.7452 -2.3465 -1.8930 0.9778
-4.4901 -2.7446 -1.8819 0.9779
-4.2060 -3.1190 -1.8725 0.9780
-3.5587 -3.7903 -1.8593 0.9782
-3.1993 -4.0844 -1.8554 0.9782
-2.0017 -4.7847 -1.8547 0.9782
-1.5694 -4.9536 -1.8582 0.9782
-1.1240 -5.0885 -1.8635 0.9781
-0.6677 -5.1884 -1.8707 0.9780
-0.2027 -5.2523 -1.8797 0.9779
0.2686 -5.2794 -1.8904 0.9778
1.2205 -5.2202 -1.9171 0.9775
4.3493 -3.7780 -2.0602 0.9758
5.0604 -3.0086 -2.1053 0.9753
5.4930 -1.5093 -2.0371 0.9761
5.8186 -0.5211 -2.0891 0.9755
5.9584 0.5348 -2.1393 0.9749
5.9524 1.0765 -2.1631 0.9746
5.8933 1.6205 -2.1857 0.9744
5.7801 2.1609 -2.2067 0.9741
5.6125 2.6916 -2.2260 0.9739
5.1168 3.6995 -2.2580 0.9735
3.9969 4.1553 -2.0618 0.9758
3.5305 4.3967 -2.0165 0.9763
3.2572 4.8950 -2.1026 0.9753
2.7870 5.1293 -2.0876 0.9755
1.6440 3.8001 -1.4807 0.9826
0.7137 3.0553 -1.1220 0.9868
0.4298 3.0490 -1.1011 0.9870
0.3186 6.2858 -2.2507 0.9736
-0.2422 6.2443 -2.2347 0.9738
-1.3259 5.9968 -2.1963 0.9742
-1.8376 5.7962 -2.1744 0.9745
-2.7772 5.2593 -2.1269 0.9751
-3.9246 4.1785 -2.0500 0.9759
-5.2613 2.6005 -2.0987 0.9754
-5.5564 1.0732 -2.0237 0.9762
-5.5356 0.0663 -1.9797 0.9768
-5.4640 -0.4240 -1.9598 0.9770
-5.3538 -0.9017 -1.9415 0.9772
-4.8088 -2.2352 -1.8964 0.9777
-4.2855 -3.0203 -1.8749 0.9780
-3.6519 -3.7060 -1.8606 0.9781
-2.1160 -4.7334 -1.8541 0.9782
-1.6875 -4.9113 -1.8571 0.9782
-0.7919 -5.1649 -1.8686 0.9780
-0.3290 -5.2386 -1.8771 0.9779
0.1409 -5.2758 -1.8873 0.9778
1.0918 -5.2372 -1.9131 0.9775
2.5062 -4.8882 -1.9644 0.9769
4.2429 -3.8693 -2.0535 0.9759
4.6278 -3.5178 -2.0788 0.9756
4.9748 -3.1227 -2.1005 0.9754
4.9300 -2.5113 -1.9786 0.9768
2.3196 -0.9311 -0.8938 0.9894
5.8923 -0.1417 -2.1077 0.9753
5.9511 0.3896 -2.1327 0.9750
5.9591 0.9298 -2.1568 0.9747
5.6631 2.5496 -2.2210 0.9740
5.4561 3.0694 -2.2387 0.9738
4.8846 4.0418 -2.2672 0.9734
4.1280 4.0893 -2.0779 0.9756
3.3856 4.8308 -2.1096 0.9753
2.8900 5.0256 -2.0731 0.9757
1.9756 5.5315 -2.1005 0.9754
1.4952 5.7684 -2.1310 0.9750
0.4736 2.8582 -1.0361 0.9878
0.4699 6.2709 -2.2488 0.9736
-0.0915 6.2611 -2.2393 0.9738
-0.6353 6.0841 -2.1876 0.9743
-1.1837 6.0425 -2.2019 0.9742
-1.7018 5.8551 -2.1805 0.9744
-3.0875 5.0234 -2.1086 0.9753
-3.8357 4.2867 -2.0570 0.9759
-2.3474 2.1932 -1.1488 0.9864
-4.4223 3.4466 -2.0050 0.9765
-4.6522 2.9991 -1.9794 0.9768
-5.2147 2.7361 -2.1059 0.9753
-5.4806 1.7216 -2.0543 0.9759
-5.5462 1.2109 -2.0301 0.9762
-5.5682 0.7027 -2.0070 0.9764
-5.3873 -0.7741 -1.9463 0.9771
-5.2499 -1.2410 -1.9291 0.9773
-4.8702 -2.1222 -1.8998 0.9777
-4.3629 -2.9198 -1.8774 0.9779
-4.0662 -3.2828 -1.8688 0.9780
-3.7433 -3.6197 -1.8621 0.9781
-3.0268 -4.2098 -1.8542 0.9782
-1.8047 -4.8665 -1.8561 0.9782
-1.3661 -5.0199 -1.8604 0.9781
-0.9154 -5.1388 -1.8666 0.9781
-0.4548 -5.2223 -1.8746 0.9780
2.8407 -4.7494 -1.9790 0.9768
3.7210 -4.2608 -2.0229 0.9763
4.8511 -2.6205 -1.9717 0.9768
5.7480 -0.7960 -2.0751 0.9757
5.9318 1.3268 -2.1737 0.9745
5.7098 2.4065 -2.2158 0.9740
5.2713 3.4364 -2.2502 0.9736
4.9736 3.9171 -2.2640 0.9735
4.2612 4.0221 -2.0955 0.9754
3.0402 5.0033 -2.0936 0.9754
2.5721 5.2361 -2.0862 0.9755
0.5683 2.9814 -1.0854 0.9872
0.6154 6.1998 -2.2280 0.9739
-1.0314 6.0335 -2.1889 0.9743
-1.5642 5.9106 -2.1864 0.9744
-2.0643 5.6881 -2.1639 0.9746
-2.9749 5.1130 -2.1154 0.9752
-3.7439 4.3930 -2.0641 0.9758
-4.0692 3.9901 -2.0380 0.9761
-4.3529 3.5647 -2.0120 0.9764
-4.5944 3.1214 -1.9863 0.9767
-5.3329 2.3683 -2.0867 0.9755
-5.4553 1.8595 -2.0611 0.9758
-5.5328 1.3487 -2.0365 0.9761
-5.5576 0.3354 -1.9911 0.9766
-4.6150 -1.9185 -1.9153 0.9788
-4.3981 -2.3087 -1.9035 0.9789
-4.1522 -2.6779 -1.8934 0.9791
-3.8792 -3.0245 -1.8850 0.9791
-3.5808 -3.3469 -1.8783 0.9792
-3.2590 -3.6436 -1.8733 0.9793
-2.9156 -3.9133 -1.8701 0.9793
-2.5525 -4.1547 -1.8686 0.9793
-1.7750 -4.5481 -1.8709 0.9793
-1.3645 -4.6979 -1.8747 0.9793
-0.9423 -4.8151 -1.8802 0.9792
-0.5106 -4.8988 -1.8875 0.9791
-0.0714 -4.9482 -1.8964 0.9790
0.8197 -4.9409 -1.9193 0.9788
1.2667 -4.8831 -1.9332 0.9786
1.7113 -4.7884 -1.9487 0.9785
3.0018 -4.2814 -2.0038 0.9779
4.5025 -3.0913 -2.0930 0.9769
5.4336 -0.3546 -2.0867 0.9769
5.5294 0.6312 -2.1327 0.9764
5.5062 1.1338 -2.1544 0.9762
5.4340 1.6363 -2.1748 0.9760
4.9191 3.0891 -2.2260 0.9754
3.8625 4.2147 -2.1908 0.9758
3.5428 4.6371 -2.2363 0.9753
3.1255 4.9523 -2.2442 0.9752
2.6574 5.1855 -2.2329 0.9753
1.7111 5.6364 -2.2573 0.9751
0.6755 5.8018 -2.2384 0.9753
0.1539 5.8048 -2.2253 0.9754
-0.8683 5.6558 -2.1928 0.9758
-1.3580 5.5076 -2.1738 0.9760
-1.8270 5.3139 -2.1534 0.9762
-2.6866 4.8031 -2.1090 0.9767
-3.4196 4.1533 -2.0617 0.9772
-3.7326 3.7865 -2.0375 0.9775
-2.4485 2.0756 -1.2301 0.9863
-4.7734 2.7605 -2.1131 0.9767
-4.9539 2.3015 -2.0933 0.9769
-5.1649 1.3523 -2.0460 0.9774
-4.8459 -1.3957 -1.9325 0.9786
-4.6684 -1.8098 -1.9187 0.9788
-4.2213 -2.5803 -1.8960 0.9790
-3.6638 -3.2623 -1.8799 0.9792
-3.3481 -3.5660 -1.8745 0.9793
-2.6524 -4.0924 -1.8689 0.9793
-2.2762 -4.3124 -1.8687 0.9793
-0.6280 -4.8796 -1.8854 0.9791
-0.1906 -4.9383 -1.8938 0.9791
1.5916 -4.8176 -1.9443 0.9785
2.0326 -4.6959 -1.9609 0.9783
2.4663 -4.5370 -1.9789 0.9781
3.2995 -4.1075 -2.0190 0.9777
4.0660 -3.5319 -2.0639 0.9772
4.4157 -3.1913 -2.0878 0.9769
4.7217 -2.8072 -2.1051 0.9767
4.6686 -2.2378 -1.9840 0.9781
5.2804 -0.9540 -2.0563 0.9773
5.4068 -0.4842 -2.0803 0.9770
5.4584 1.5009 -2.1694 0.9760
5.1913 2.4896 -2.2063 0.9756
4.4257 3.8459 -2.2469 0.9752
3.9915 4.1497 -2.2065 0.9756
3.5218 4.3859 -2.1555 0.9762
2.7834 5.1228 -2.2342 0.9753
1.6355 3.7805 -1.5785 0.9825
0.4075 2.8902 -1.1185 0.9876
0.2945 5.8092 -2.2291 0.9754
-0.2240 5.7740 -2.2144 0.9756
-0.7331 5.6876 -2.1976 0.9757
-1.7027 5.3705 -2.1590 0.9762
-2.9700 4.5804 -2.0920 0.9769
-3.3288 4.2480 -2.0682 0.9771
-3.6518 3.8879 -2.0441 0.9774
-4.9125 2.4281 -2.1000 0.9768
-5.0505 1.9568 -2.0756 0.9771
-5.2140 0.5305 -2.0084 0.9778
-4.8883 -1.2809 -1.9365 0.9786
-4.7195 -1.6997 -1.9223 0.9787
-4.5189 -2.1004 -1.9097 0.9789
-4.2885 -2.4812 -1.8987 0.9790
-4.0299 -2.8402 -1.8893 0.9791
-3.4356 -3.4866 -1.8758 0.9793
-2.7510 -4.0279 -1.8692 0.9793
-2.3795 -4.2559 -1.8685 0.9793
-1.9911 -4.4540 -1.8696 0.9793
-1.5878 -4.6210 -1.8725 0.9793
-0.7448 -4.8578 -1.8834 0.9792
-0.3094 -4.9258 -1.8914 0.9791
1.4716 -4.8441 -1.9401 0.9785
1.9141 -4.7325 -1.9563 0.9784
2.3500 -4.5836 -1.9739 0.9782
3.9673 -3.6180 -2.0576 0.9773
4.3238 -3.2866 -2.0813 0.9770
2.3213 -0.9318 -0.9586 0.9893
5.0615 -1.5231 -2.0256 0.9776
5.2392 -1.0778 -2.0498 0.9773
5.3769 -0.6127 -2.0738 0.9771
5.4719 -0.1316 -2.0975 0.9768
5.0444 2.8378 -2.2180 0.9755
4.8014 3.2979 -2.2322 0.9754
4.1224 4.0837 -2.2237 0.9754
3.3612 4.7960 -2.2443 0.9752
2.8862 5.0192 -2.2188 0.9755
1.7572 3.8067 -1.6067 0.9822
1.9731 5.5244 -2.2480 0.9752
-1.0958 5.5935 -2.1843 0.9759
-3.5682 3.9876 -2.0506 0.9773
-2.3503 2.1959 -1.2326 0.9863
-4.8641 2.5521 -2.1050 0.9767
-5.0174 2.0846 -2.0821 0.9770
-5.1245 1.6097 -2.0584 0.9773
-5.2142 0.6580 -2.0140 0.9777
-5.1989 0.1879 -1.9936 0.9780
-5.1452 -0.2745 -1.9745 0.9782
-5.0545 -0.7262 -1.9569 0.9784
-4.7683 -1.5883 -1.9260 0.9787
-4.3536 -2.3804 -1.9015 0.9790
-3.8244 -3.0876 -1.8836 0.9792
-3.5215 -3.4052 -1.8772 0.9792
-2.8482 -3.9613 -1.8697 0.9793
-2.4815 -4.1973 -1.8686 0.9793
-2.0975 -4.4035 -1.8692 0.9793
-0.8610 -4.8336 -1.8815 0.9792
-0.4277 -4.9109 -1.8890 0.9791
0.0126 -4.9536 -1.8983 0.9790
0.9046 -4.9328 -1.9218 0.9787
1.7951 -4.7663 -1.9518 0.9784
2.2331 -4.6274 -1.9690 0.9782
2.6624 -4.4514 -1.9877 0.9780
3.8671 -3.7014 -2.0514 0.9773
4.2299 -3.3795 -2.0748 0.9771
4.5611 -3.0190 -2.0961 0.9768
4.5258 -2.4448 -1.9713 0.9782
2.2938 -0.9857 -0.9568 0.9894
5.0071 -1.6396 -2.0191 0.9777
5.4506 -0.2629 -2.0912 0.9769
5.4963 1.2294 -2.1583 0.9762
5.2831 2.2267 -2.1970 0.9757
5.1018 2.7101 -2.2138 0.9756
4.5944 3.6184 -2.2411 0.9753
3.7728 4.2598 -2.1806 0.9759
3.4647 4.6981 -2.2370 0.9753
3.0363 4.9969 -2.2407 0.9753
1.6143 5.6612 -2.2560 0.9751
0.5764 5.8065 -2.2361 0.9753
0.0553 5.7995 -2.2226 0.9755
-0.9626 5.6313 -2.1893 0.9758
-1.4488 5.4743 -2.1701 0.9760
-3.4819 4.0856 -2.0571 0.9773
-3.7878 3.7142 -2.0329 0.9775
-2.5387 2.0790 -1.2574 0.9860
-5.0997 1.7383 -2.0647 0.9772
-5.1762 1.2618 -2.0417 0.9774
-4.9658 -1.0479 -1.9449 0.9785
-4.3475 -1.8073 -1.9270 0.9799
-4.1447 -2.1757 -1.9158 0.9800
-3.9142 -2.5244 -1.9062 0.9801
-3.6577 -2.8518 -1.8983 0.9802
-2.7504 -3.6916 -1.8841 0.9803
-2.4080 -3.9195 -1.8827 0.9803
-2.0487 -4.1194 -1.8830 0.9803
1.1927 -4.5976 -1.9440 0.9797
1.6105 -4.5064 -1.9586 0.9795
2.0229 -4.3801 -1.9746 0.9794
2.8203 -4.0225 -2.0107 0.9790
3.1994 -3.7916 -2.0305 0.9788
3.5615 -3.5267 -2.0514 0.9786
3.9033 -3.2286 -2.0732 0.9783
4.1885 -2.3552 -1.9667 0.9794
4.6435 -1.6083 -2.0112 0.9790
4.8220 -1.2005 -2.0338 0.9788
5.0677 -0.3307 -2.0785 0.9783
5.0536 1.5218 -2.1601 0.9774
2.5004 4.8791 -2.2438 0.9766
1.5225 3.7664 -1.6627 0.9826
0.6588 3.1634 -1.3225 0.9861
0.6270 5.3847 -2.2187 0.9768
0.1429 5.3897 -2.2067 0.9770
-0.3368 5.3467 -2.1926 0.9771
-1.7003 4.9453 -2.1403 0.9777
-2.1151 4.7290 -2.1202 0.9779
-2.5038 4.4764 -2.0992 0.9781
-2.8636 4.1911 -2.0775 0.9783
-3.1919 3.8767 -2.0552 0.9785
-3.4867 3.5370 -2.0327 0.9788
-2.3746 2.0129 -1.2741 0.9866
-3.9704 2.7971 -1.9878 0.9792
-4.1576 2.4044 -1.9656 0.9795
-4.8464 1.2689 -2.0504 0.9786
-2.1050 0.3541 -0.8736 0.9908
-4.6968 -0.9082 -1.9579 0.9795
-4.5627 -1.3141 -1.9433 0.9797
-4.3974 -1.7047 -1.9302 0.9798
-4.2023 -2.0780 -1.9187 0.9799
-3.4552 -3.0765 -1.8934 0.9802
-3.1580 -3.3635 -1.8883 0.9803
-2.8398 -3.6253 -1.8848 0.9803
-2.5022 -3.8606 -1.8829 0.9803
-2.1473 -4.0683 -1.8827 0.9803
-1.3928 -4.3961 -1.8874 0.9803
-0.9972 -4.5144 -1.8922 0.9802
-0.1797 -4.6551 -1.9066 0.9801
0.2379 -4.6761 -1.9163 0.9800
0.6584 -4.6634 -1.9275 0.9799
1.0793 -4.6163 -1.9403 0.9797
1.4981 -4.5345 -1.9545 0.9796
1.9122 -4.4177 -1.9702 0.9794
2.3189 -4.2658 -1.9872 0.9792
3.0986 -3.8574 -2.0250 0.9788
3.4656 -3.6016 -2.0456 0.9786
4.1376 -2.9903 -2.0894 0.9782
4.1180 -2.4483 -1.9608 0.9795
4.3687 -2.0940 -1.9828 0.9793
4.5894 -1.7147 -2.0052 0.9790
5.0437 -0.4517 -2.0725 0.9784
5.1173 0.0005 -2.0944 0.9781
5.1354 0.9288 -2.1359 0.9777
5.0772 1.3961 -2.1551 0.9775
4.9731 1.8592 -2.1729 0.9773
4.8230 2.3130 -2.1892 0.9771
4.1064 3.5684 -2.2266 0.9768
3.4272 4.2681 -2.2403 0.9766
2.6178 4.8178 -2.2441 0.9766
1.6384 3.7872 -1.6888 0.9823
1.7141 5.1919 -2.2377 0.9766
1.2399 5.3078 -2.2308 0.9767
-1.5843 4.9971 -2.1455 0.9776
-2.0055 4.7911 -2.1257 0.9778
-2.7695 4.2711 -2.0834 0.9782
-3.1065 3.9642 -2.0613 0.9785
-3.4105 3.6310 -2.0388 0.9787
-3.9136 2.9010 -1.9938 0.9792
-4.1107 2.5116 -1.9716 0.9794
-4.5976 2.2724 -2.0990 0.9781
-4.7348 1.8345 -2.0782 0.9783
-4.8821 0.9430 -2.0351 0.9787
-1.9576 0.1992 -0.8053 0.9915
-1.9549 -0.1517 -0.8025 0.9916
-4.4450 -1.6008 -1.9336 0.9798
-4.2578 -1.9790 -1.9216 0.9799
-4.0420 -2.3386 -1.9112 0.9800
-3.5316 -2.9948 -1.8951 0.9802
-2.9277 -3.5572 -1.8856 0.9803
-2.2448 -4.0150 -1.8826 0.9803
-1.4977 -4.3589 -1.8863 0.9803
-1.1051 -4.4855 -1.8907 0.9802
-0.7023 -4.5807 -1.8967 0.9802
0.1248 -4.6738 -1.9135 0.9800
0.5447 -4.6702 -1.9243 0.9799
0.9657 -4.6324 -1.9367 0.9798
1.3853 -4.5600 -1.9505 0.9796
2.6095 -4.1329 -2.0004 0.9791
3.3682 -3.6740 -2.0400 0.9787
3.7214 -3.3937 -2.0613 0.9785
4.3038 -2.1923 -1.9768 0.9793
4.7300 -1.4233 -2.0216 0.9789
4.8921 -1.0064 -2.0442 0.9786
5.1015 -0.1227 -2.0885 0.9782
5.1433 0.8025 -2.1305 0.9778
5.0974 1.2701 -2.1500 0.9776
5.0057 1.7348 -2.1683 0.9774
4.4571 3.0614 -2.2130 0.9769
4.1865 3.4642 -2.2240 0.9768
3.8756 3.8392 -2.2327 0.9767
3.1451 4.4877 -2.2429 0.9766
1.8402 5.1523 -2.2392 0.9766
1.3689 5.2813 -2.2329 0.9767
0.4933 2.9768 -1.2350 0.9870
0.4041 5.3930 -2.2134 0.9769
-0.0786 5.3758 -2.2004 0.9770
-1.8941 4.8505 -2.1312 0.9777
-2.3043 2.1529 -1.2907 0.9865
-3.8541 3.0037 -1.9998 0.9791
-4.0611 2.6180 -1.9775 0.9793
-4.7029 1.9540 -2.0843 0.9782
-4.8067 1.5099 -2.0620 0.9785
-4.8713 1.0635 -2.0407 0.9787
-1.9524 0.2464 -0.8054 0.9915
-4.3112 -1.8787 -1.9247 0.9799
-2.3410 -3.9596 -1.8826 0.9803
-1.9787 -4.1541 -1.8832 0.9803
-1.6018 -4.3194 -1.8855 0.9803
-0.4032 -4.6299 -1.9021 0.9801
2.5027 -4.1842 -1.9954 0.9791
2.8934 -3.9813 -2.0143 0.9790
4.2368 -2.2886 -1.9708 0.9794
4.8519 -1.1208 -2.0381 0.9787
4.9870 -0.6906 -2.0605 0.9785
5.0827 -0.2452 -2.0826 0.9782
5.1370 0.2119 -2.1042 0.9780
4.5229 2.9484 -2.2097 0.9769
3.2514 4.4089 -2.2421 0.9766
2.8473 4.6858 -2.2441 0.9766
1.9652 5.1093 -2.2404 0.9766
1.4973 5.2512 -2.2349 0.9767
0.5781 3.0327 -1.2636 0.9867
0.5350 5.3894 -2.2166 0.9769
-0.4270 5.3332 -2.1897 0.9771
-0.8948 5.2347 -2.1735 0.9773
-1.3476 5.0919 -2.1557 0.9775
-2.1910 4.6837 -2.1163 0.9779
-2.5744 4.4246 -2.0951 0.9781
-2.9284 4.1335 -2.0733 0.9783
-2.2657 2.2217 -1.2987 0.9864
-2.4674 2.0206 -1.3053 0.9863
-4.0088 2.7235 -1.9835 0.9793
-4.6681 2.0731 -2.0905 0.9782
-4.7826 1.6302 -2.0680 0.9784
-1.9470 0.1175 -0.7983 0.9916
-1.9546 -0.2328 -0.8056 0.9915
-4.6738 -0.9863 -1.9550 0.9796
-4.1052 -1.7066 -1.9376 0.9808
-3.4567 -2.6951 -1.9103 0.9811
-2.6004 -3.4901 -1.8968 0.9812
-2.2767 -3.7058 -1.8955 0.9812
-1.9370 -3.8948 -1.8957 0.9812
-1.5830 -4.0561 -1.8976 0.9812
-1.2166 -4.1888 -1.9010 0.9811
-0.4549 -4.3647 -1.9125 0.9810
0.3318 -4.4164 -1.9302 0.9809
0.7290 -4.3941 -1.9412 0.9808
1.1257 -4.3392 -1.9537 0.9806
1.9075 -4.1303 -1.9828 0.9803
2.2875 -3.9762 -1.9992 0.9802
3.9612 -2.7197 -2.0941 0.9793
2.3150 -1.0417 -1.1064 0.9890
4.5187 -1.1250 -2.0294 0.9799
4.6487 -0.7244 -2.0505 0.9797
4.7423 -0.3095 -2.0712 0.9795
4.7859 0.9855 -2.1296 0.9789
4.4524 2.2690 -2.1779 0.9784
4.0215 3.0581 -2.2018 0.9782
3.4380 3.7516 -2.2177 0.9780
3.0957 4.0520 -2.2223 0.9780
2.3279 4.5426 -2.2246 0.9780
1.9109 4.7272 -2.2222 0.9780
1.4780 4.8686 -2.2175 0.9780
0.1332 5.0238 -2.1902 0.9783
-0.3141 4.9858 -2.1772 0.9784
-0.7529 4.9045 -2.1625 0.9786
-1.1790 4.7815 -2.1463 0.9787
-1.5881 4.6190 -2.1287 0.9789
-2.6798 3.9221 -2.0702 0.9795
-3.2675 3.3146 -2.0285 0.9799
-3.7260 2.6249 -1.9863 0.9803
-3.9043 2.2579 -1.9656 0.9805
-4.3573 2.0243 -2.0939 0.9793
-1.5956 0.5743 -0.7390 0.9926
-1.5526 0.4065 -0.6995 0.9930
-1.5249 -0.0186 -0.6646 0.9934
-1.5259 -0.1556 -0.6685 0.9933
-4.1519 -1.6095 -1.9407 0.9808
-2.9854 -3.1796 -1.9008 0.9811
-2.3658 -3.6501 -1.8957 0.9812
-2.0302 -3.8464 -1.8955 0.9812
-1.3167 -4.1558 -1.8999 0.9812
-0.9426 -4.2670 -1.9045 0.9811
-0.5596 -4.3481 -1.9106 0.9811
-0.1697 -4.3983 -1.9183 0.9810
0.2247 -4.4169 -1.9274 0.9809
0.6217 -4.4034 -1.9381 0.9808
1.0187 -4.3573 -1.9502 0.9807
1.4134 -4.2783 -1.9637 0.9805
2.1858 -4.0211 -1.9946 0.9802
2.5582 -3.8429 -2.0120 0.9801
2.9176 -3.6321 -2.0304 0.9799
3.8676 -2.2995 -1.9610 0.9806
4.1003 -1.9654 -1.9817 0.9804
4.4776 -1.2303 -2.0237 0.9799
4.6171 -0.8341 -2.0448 0.9797
4.7207 -0.4228 -2.0656 0.9795
4.7864 0.0005 -2.0860 0.9793
4.7400 1.3034 -2.1424 0.9788
4.6402 1.7347 -2.1590 0.9786
4.3138 2.5659 -2.1875 0.9783
4.0890 2.9564 -2.1991 0.9782
3.8253 3.3241 -2.2086 0.9781
3.1912 3.9742 -2.2213 0.9780
1.6718 3.8643 -1.8350 0.9818
1.5962 4.8348 -2.2190 0.9780
0.4009 2.8433 -1.2514 0.9875
0.2548 5.0265 -2.1934 0.9783
-0.1940 5.0004 -2.1809 0.9784
-0.6355 4.9306 -2.1666 0.9785
-1.0654 4.8187 -2.1508 0.9787
-1.4795 4.6666 -2.1336 0.9789
-2.2456 4.2525 -2.0958 0.9792
-2.3125 2.0583 -1.3492 0.9866
-4.3156 2.1330 -2.0980 0.9792
-1.5011 0.2899 -0.6663 0.9934
-1.5248 0.0183 -0.6646 0.9934
-1.5056 -0.2536 -0.6654 0.9934
-1.5528 -0.4069 -0.6996 0.9930
-1.5956 -0.5747 -0.7391 0.9926
-4.0211 -1.8690 -1.9325 0.9808
-3.8185 -2.2092 -1.9226 0.9809
-3.5901 -2.5303 -1.9142 0.9810
-3.3378 -2.8305 -1.9073 0.9811
-3.0631 -3.1085 -1.9020 0.9811
-2.7678 -3.3630 -1.8982 0.9812
-2.4536 -3.5925 -1.8960 0.9812
-2.1224 -3.7961 -1.8954 0.9812
-1.0446 -4.2399 -1.9031 0.9811
-0.6638 -4.3292 -1.9088 0.9811
-0.2756 -4.3878 -1.9160 0.9810
0.1179 -4.4150 -1.9248 0.9809
0.5144 -4.4102 -1.9351 0.9808
0.9116 -4.3730 -1.9468 0.9807
1.6987 -4.1998 -1.9744 0.9804
2.0834 -4.0635 -1.9902 0.9803
2.4588 -3.8942 -2.0072 0.9801
2.8220 -3.6922 -2.0253 0.9799
3.5004 -3.1921 -2.0646 0.9795
3.8097 -2.8959 -2.0856 0.9793
4.0827 -2.5627 -2.1008 0.9792
4.0402 -2.0580 -1.9761 0.9804
4.5829 -0.9428 -2.0391 0.9798
4.7725 -0.1148 -2.0806 0.9794
4.8094 0.3148 -2.1005 0.9792
4.8054 0.7498 -2.1196 0.9790
4.7596 1.1859 -2.1377 0.9788
4.5406 2.0442 -2.1702 0.9785
2.9283 4.1784 -2.2237 0.9780
2.5449 4.4256 -2.2249 0.9780
2.1384 4.6328 -2.2238 0.9780
-0.0733 5.0118 -2.1845 0.9784
-1.3695 4.7115 -2.1383 0.9788
-1.7696 4.5317 -2.1202 0.9790
-2.1477 4.3164 -2.1011 0.9792
-2.5006 4.0684 -2.0812 0.9794
-2.8258 3.7912 -2.0607 0.9796
-3.1211 3.4880 -2.0398 0.9798
-2.2773 2.1277 -1.3583 0.9865
-3.8122 2.4576 -1.9768 0.9804
-1.5802 0.4964 -0.7219 0.9928
-1.5221 0.3323 -0.6790 0.9932
-1.5205 0.1919 -0.6679 0.9933
-1.5284 0.0552 -0.6666 0.9933
-3.8758 -2.1192 -1.9251 0.9809
-3.4082 -2.7516 -1.9090 0.9811
-3.1394 -3.0357 -1.9033 0.9811
-2.5402 -3.5331 -1.8964 0.9812
-2.2134 -3.7437 -1.8954 0.9812
-0.7674 -4.3081 -1.9071 0.9811
-0.3810 -4.3750 -1.9139 0.9810
0.0112 -4.4108 -1.9223 0.9809
0.8044 -4.3862 -1.9435 0.9807
1.5935 -4.2309 -1.9703 0.9805
1.9803 -4.1036 -1.9858 0.9803
3.0778 -3.5243 -2.0392 0.9798
3.4131 -3.2670 -2.0591 0.9796
3.7284 -2.9788 -2.0798 0.9794
3.9780 -2.1488 -1.9705 0.9805
2.2893 -0.9838 -1.0859 0.9892
4.6694 -0.6467 -2.0544 0.9796
4.8034 0.1981 -2.0952 0.9792
4.8106 0.6320 -2.1145 0.9791
4.5801 1.9304 -2.1661 0.9785
4.2154 2.7480 -2.1930 0.9783
3.3755 3.8112 -2.2188 0.9780
2.2502 4.5809 -2.2243 0.9780
0.4985 5.0220 -2.1994 0.9782
-0.8349 4.8843 -2.1595 0.9786
-1.6636 4.5839 -2.1252 0.9789
-2.0479 4.3779 -2.1064 0.9791
-2.4079 4.1384 -2.0867 0.9793
-2.7408 3.8687 -2.0663 0.9795
-3.0444 3.5722 -2.0455 0.9797
-2.2418 2.1982 -1.3683 0.9864
-4.3850 1.9474 -2.0910 0.9793
-1.5408 0.3756 -0.6912 0.9931
-1.5296 0.0923 -0.6678 0.9933
-1.5276 -0.0445 -0.6661 0.9934
-1.5223 -0.1813 -0.6681 0.9933
-1.5162 -0.3200 -0.6753 0.9933
-1.3260 -0.5512 -0.6647 0.9937
-3.5012 -2.2581 -1.9285 0.9818
-2.7527 -3.0775 -1.9112 0.9820
-2.4633 -3.3061 -1.9084 0.9820
-2.1568 -3.5106 -1.9072 0.9820
-1.1524 -3.9675 -1.9124 0.9820
-0.4307 -4.1328 -1.9234 0.9819
-0.0602 -4.1714 -1.9311 0.9818
1.0646 -4.1040 -1.9626 0.9815
1.4364 -4.0193 -1.9757 0.9814
1.8026 -3.9033 -1.9901 0.9812
2.1608 -3.7559 -2.0057 0.9811
2.5082 -3.5775 -2.0224 0.9809
2.8423 -3.3685 -2.0401 0.9808
3.4596 -2.8616 -2.0782 0.9804
2.3019 -1.0358 -1.1684 0.9889
4.0945 -1.4181 -2.0057 0.9811
4.2463 -1.0572 -2.0255 0.9809
4.3657 -0.6803 -2.0452 0.9807
4.5113 0.5150 -2.1018 0.9802
4.4841 0.9233 -2.1192 0.9800
4.4174 1.3302 -2.1355 0.9799
3.5029 3.1956 -2.1948 0.9793
2.8925 3.7860 -2.2054 0.9792
2.5453 4.0331 -2.2075 0.9792
2.1750 4.2441 -2.2075 0.9792
1.5797 3.9079 -1.9511 0.9816
0.6571 3.1551 -1.4918 0.9859
-0.2939 4.6648 -2.1635 0.9796
-0.7048 4.5907 -2.1498 0.9797
-1.8531 4.1433 -2.1010 0.9802
-2.1965 3.9268 -2.0827 0.9804
-2.8072 3.4095 -2.0443 0.9807
-3.0706 3.1149 -2.0246 0.9809
-2.3393 1.9830 -1.4195 0.9866
-3.5058 2.4698 -1.9851 0.9813
-1.3125 0.6097 -0.6699 0.9936
-1.3141 0.3440 -0.6288 0.9940
-1.3352 -0.0163 -0.6181 0.9941
-1.3112 -0.2535 -0.6182 0.9941
-1.3308 -0.5159 -0.6607 0.9937
-3.7563 -1.8575 -1.9397 0.9817
-3.3371 -2.4746 -1.9231 0.9819
-2.8277 -3.0117 -1.9122 0.9820
-2.5432 -3.2467 -1.9090 0.9820
-1.9232 -3.6438 -1.9072 0.9820
-1.5913 -3.8037 -1.9085 0.9820
-1.2472 -3.9364 -1.9114 0.9820
-0.8927 -4.0412 -1.9157 0.9819
-0.5299 -4.1173 -1.9216 0.9819
0.5882 -4.1665 -1.9477 0.9816
2.0650 -3.7988 -2.0014 0.9811
2.4156 -3.6287 -2.0178 0.9810
2.7536 -3.4279 -2.0353 0.9808
3.0762 -3.1969 -2.0536 0.9806
3.6610 -2.6459 -2.0909 0.9803
3.6419 -2.1652 -1.9612 0.9815
4.4314 -0.3969 -2.0594 0.9806
4.4903 0.0004 -2.0785 0.9804
4.5120 0.4050 -2.0969 0.9802
4.4393 1.2207 -2.1312 0.9799
4.0348 2.3999 -2.1731 0.9795
3.8232 2.7642 -2.1838 0.9794
3.5756 3.1072 -2.1927 0.9793
3.2942 3.4248 -2.1996 0.9793
