ply
format ascii 1.0
element vertex 1595
property float32 x
property float32 y
property float32 z
property float32 I
end_header
6.5419 -1.4951 -2.0640 0.9723
6.7491 -0.9179 -2.0950 0.9719
6.9040 -0.3156 -2.1257 0.9715
7.0027 0.3071 -2.1560 0.9711
7.0186 1.5903 -2.2135 0.9703
6.9307 2.2379 -2.2401 0.9700
6.7768 2.8798 -2.2648 0.9697
6.4622 3.4579 -2.2543 0.9698
5.7368 3.7654 -2.1106 0.9717
5.0927 4.0375 -1.9990 0.9732
4.5084 4.2835 -1.9128 0.9743
4.0393 4.5920 -1.8811 0.9747
3.5206 4.8088 -1.8331 0.9754
1.5494 5.5137 -1.7616 0.9763
-0.5362 6.3638 -1.9643 0.9736
-1.5838 5.8814 -1.8734 0.9748
-3.0215 6.3839 -2.1724 0.9709
-3.9958 5.5845 -2.1121 0.9717
-4.4135 5.1289 -2.0812 0.9721
-5.1004 4.1348 -2.0195 0.9729
-2.6146 1.7572 -0.9689 0.9869
-6.1971 2.7135 -2.0808 0.9721
-6.3233 2.1181 -2.0511 0.9725
-6.3975 1.5230 -2.0227 0.9729
-6.4215 0.9325 -1.9958 0.9732
-6.3970 0.3504 -1.9705 0.9735
-6.3260 -0.2202 -1.9469 0.9739
-5.3484 -2.8000 -1.8568 0.9751
-4.7074 -3.6633 -1.8347 0.9753
-4.3421 -4.0516 -1.8266 0.9755
-3.9496 -4.4090 -1.8207 0.9755
-3.5321 -4.7342 -1.8168 0.9756
-1.6540 -5.6879 -1.8219 0.9755
-0.0870 -6.0060 -1.8475 0.9752
0.4533 -6.0306 -1.8601 0.9750
0.9983 -6.0128 -1.8747 0.9748
1.5452 -5.9517 -1.8913 0.9746
2.6334 -5.6964 -1.9303 0.9741
3.1681 -5.5010 -1.9525 0.9738
4.2013 -4.9725 -2.0022 0.9731
5.6006 -3.8378 -2.0883 0.9720
6.0001 -3.3661 -2.1161 0.9716
5.9225 -2.6573 -1.9966 0.9732
6.4941 -1.6082 -2.0578 0.9724
6.9875 0.1800 -2.1499 0.9712
7.0390 0.8149 -2.1795 0.9708
7.0285 1.4596 -2.2079 0.9704
6.9537 2.1074 -2.2349 0.9700
6.8132 2.7510 -2.2600 0.9697
6.6063 3.3829 -2.2829 0.9694
5.2173 3.9849 -2.0193 0.9729
4.6223 4.2356 -1.9284 0.9741
4.0739 4.4659 -1.8593 0.9750
2.1180 5.2796 -1.7497 0.9765
1.6456 5.4742 -1.7582 0.9764
-1.4467 5.7867 -1.8347 0.9753
-3.4316 6.0848 -2.1487 0.9712
-3.9057 5.6724 -2.1183 0.9716
-4.3331 5.2234 -2.0874 0.9720
-4.7117 4.7438 -2.0565 0.9724
-5.0402 4.2392 -2.0257 0.9728
-5.9639 3.4170 -2.1141 0.9716
-6.1653 2.8334 -2.0870 0.9720
-6.2374 -0.6651 -1.9294 0.9741
-4.7777 -3.5813 -1.8365 0.9753
-4.4181 -3.9756 -1.8281 0.9754
-3.1824 -4.9698 -1.8151 0.9756
-1.7554 -5.6538 -1.8209 0.9755
-1.2472 -5.8073 -1.8269 0.9754
-0.7264 -5.9217 -1.8350 0.9753
-0.1952 -5.9959 -1.8452 0.9752
1.9813 -5.8713 -1.9059 0.9744
2.5244 -5.7304 -1.9260 0.9741
3.0610 -5.5441 -1.9479 0.9738
4.0999 -5.0342 -1.9969 0.9732
4.5946 -4.7103 -2.0239 0.9728
5.0675 -4.3409 -2.0523 0.9725
5.5140 -3.9267 -2.0821 0.9721
5.8556 -2.7555 -1.9905 0.9733
6.4444 -1.7200 -2.0515 0.9725
6.8480 -0.5615 -2.1134 0.9717
6.9699 0.0536 -2.1438 0.9713
7.0357 1.3290 -2.2023 0.9705
6.8469 2.6218 -2.2551 0.9698
5.3445 3.9312 -2.0407 0.9726
4.7382 4.1869 -1.9448 0.9739
4.1815 4.4208 -1.8716 0.9749
3.7269 4.7226 -1.8504 0.9751
3.1649 4.8456 -1.7801 0.9761
2.2130 5.2403 -1.7497 0.9765
1.2627 5.6314 -1.7751 0.9761
0.3759 2.8508 -0.8844 0.9880
0.1233 2.9623 -0.9119 0.9877
-0.3006 6.2684 -1.9302 0.9741
-0.9004 6.5111 -2.0217 0.9729
-2.2382 6.8357 -2.2124 0.9703
-3.3304 6.1631 -2.1547 0.9711
-3.8136 5.7587 -2.1245 0.9715
-4.6393 4.8428 -2.0627 0.9723
-4.9780 4.3428 -2.0319 0.9727
-6.2787 2.3587 -2.0630 0.9723
-6.3737 1.7630 -2.0340 0.9727
-6.3602 0.0086 -1.9562 0.9737
-6.1216 -1.0991 -1.9130 0.9743
-5.7192 -2.1309 -1.8772 0.9748
0.4388 2.9366 -0.9870 0.9876
-0.1908 6.2155 -2.0671 0.9741
-1.2213 5.7383 -1.9502 0.9756
-3.8391 4.9753 -2.0889 0.9739
-4.8173 3.6249 -2.0040 0.9749
-5.8523 -0.4158 -1.9502 0.9756
-5.3789 -1.8993 -1.8962 0.9762
-4.5895 -3.1936 -1.8586 0.9767
-3.5386 -4.2496 -1.8382 0.9770
-3.1396 -4.5417 -1.8353 0.9770
-2.7197 -4.8017 -1.8344 0.9770
-0.3791 -5.5799 -1.8591 0.9767
0.1218 -5.6238 -1.8698 0.9766
1.1375 -5.5923 -1.8970 0.9762
1.6468 -5.5153 -1.9133 0.9760
2.1534 -5.3967 -1.9314 0.9758
2.6542 -5.2359 -1.9513 0.9756
3.1459 -5.0326 -1.9728 0.9753
4.0881 -4.4982 -2.0205 0.9747
4.5313 -4.1677 -2.0464 0.9744
4.9506 -3.7958 -2.0736 0.9740
5.3419 -3.3836 -2.1019 0.9737
5.2906 -2.7216 -1.9777 0.9752
2.3228 -0.9429 -0.8333 0.9895
5.8516 -1.7852 -2.0336 0.9745
6.3706 -0.1760 -2.1184 0.9735
6.3218 2.1682 -2.2216 0.9722
6.1630 2.7515 -2.2435 0.9720
5.5927 3.8172 -2.2508 0.9719
4.9635 4.0833 -2.1365 0.9733
4.3902 4.3249 -2.0485 0.9744
2.8693 4.9608 -1.9050 0.9761
2.3958 5.1572 -1.8902 0.9763
1.4510 5.5464 -1.9057 0.9761
0.9648 5.7455 -1.9366 0.9757
-0.6563 6.4037 -2.1398 0.9732
-1.8374 6.3628 -2.2015 0.9725
-2.3714 6.1027 -2.1763 0.9728
-2.8721 5.7952 -2.1499 0.9731
-4.1390 4.6378 -2.0663 0.9741
-4.4746 4.1908 -2.0379 0.9745
-4.7644 3.7218 -2.0097 0.9748
-5.0077 3.2357 -1.9818 0.9752
-5.7704 2.4034 -2.0778 0.9740
-5.9489 1.3031 -2.0243 0.9747
-5.4213 -1.8048 -1.8993 0.9762
-4.9402 -2.7012 -1.8716 0.9765
-4.6514 -3.1135 -1.8606 0.9767
-4.3331 -3.4995 -1.8514 0.9768
-3.9875 -3.8578 -1.8443 0.9769
-3.6164 -4.1868 -1.8390 0.9769
-3.2219 -4.4853 -1.8357 0.9770
-2.8061 -4.7519 -1.8344 0.9770
-1.9186 -5.1847 -1.8376 0.9770
0.5257 -5.6305 -1.8797 0.9764
1.0346 -5.6028 -1.8939 0.9763
3.0475 -5.0771 -1.9683 0.9753
3.9961 -4.5599 -2.0154 0.9748
5.2654 -3.4700 -2.0961 0.9738
5.6146 -3.0178 -2.1188 0.9735
2.3193 -0.9907 -0.8383 0.9894
5.8020 -1.8854 -2.0279 0.9746
6.0306 -1.3782 -2.0563 0.9743
6.3495 -0.2902 -2.1128 0.9736
6.4329 0.2821 -2.1404 0.9732
6.4618 0.8666 -2.1672 0.9729
6.4336 1.4578 -2.1928 0.9726
6.3466 2.0493 -2.2169 0.9723
5.9933 3.2070 -2.2595 0.9718
5.7276 3.7593 -2.2773 0.9715
4.5022 4.2777 -2.0644 0.9742
3.9624 4.5045 -1.9942 0.9750
3.4537 4.7174 -1.9434 0.9757
2.4702 5.0754 -1.8763 0.9765
2.0205 5.3122 -1.8892 0.9763
0.2579 2.7082 -0.9043 0.9886
0.0334 6.1247 -2.0359 0.9745
-0.5354 6.3549 -2.1199 0.9735
-1.1582 6.6061 -2.2294 0.9721
-2.7739 5.8608 -2.1554 0.9730
-3.2452 5.5190 -2.1282 0.9734
-4.4106 4.2830 -2.0436 0.9744
-5.7416 2.5141 -2.0835 0.9739
-5.8647 1.9645 -2.0559 0.9743
-5.7860 -0.7229 -1.9382 0.9757
-5.6431 -1.2252 -1.9195 0.9760
-5.4623 -1.7094 -1.9025 0.9762
-4.9948 -2.6149 -1.8741 0.9765
-4.3997 -3.4238 -1.8531 0.9768
-4.0594 -3.7878 -1.8455 0.9769
-3.6933 -4.1228 -1.8399 0.9769
-3.3033 -4.4275 -1.8362 0.9770
-2.8917 -4.7007 -1.8345 0.9770
-2.4602 -4.9410 -1.8347 0.9770
-2.0112 -5.1473 -1.8369 0.9770
-0.0813 -5.6107 -1.8652 0.9766
0.4232 -5.6312 -1.8771 0.9765
1.4413 -5.5514 -1.9065 0.9761
2.9486 -5.1198 -1.9639 0.9754
3.4333 -4.8911 -1.9864 0.9751
4.3550 -4.3062 -2.0358 0.9745
5.1875 -3.5548 -2.0904 0.9738
5.5487 -3.1129 -2.1149 0.9735
5.7508 -1.9843 -2.0222 0.9747
5.9879 -1.4828 -2.0505 0.9743
6.3262 -0.4038 -2.1072 0.9736
6.4440 1.3382 -2.1877 0.9726
6.2344 2.5173 -2.2349 0.9721
6.0398 3.0928 -2.2556 0.9718
5.7859 3.6498 -2.2740 0.9716
4.6160 4.2298 -2.0812 0.9740
3.5544 4.6753 -1.9522 0.9755
3.0632 4.8802 -1.9153 0.9760
2.1154 5.2730 -1.8886 0.9763
1.6436 5.4674 -1.8977 0.9762
0.1430 6.0802 -2.0216 0.9747
-0.4168 6.3070 -2.1010 0.9737
-1.4446 5.7779 -1.9797 0.9752
-2.1596 6.2137 -2.1867 0.9727
-3.9908 4.8108 -2.0778 0.9740
-4.6530 3.9135 -2.0210 0.9747
-2.5555 1.7853 -1.0362 0.9869
-5.1306 2.9396 -1.9655 0.9754
-5.7108 2.6246 -2.0892 0.9739
-5.8437 2.0756 -2.0614 0.9742
-5.9655 0.9767 -2.0094 0.9748
-5.9571 0.4343 -1.9854 0.9751
-5.8100 -0.6195 -1.9422 0.9757
-5.6751 -1.1252 -1.9231 0.9759
-5.5017 -1.6132 -1.9058 0.9761
-5.2920 -2.0814 -1.8903 0.9763
-5.0480 -2.5277 -1.8766 0.9765
-4.7717 -2.9501 -1.8648 0.9766
-4.4651 -3.3469 -1.8549 0.9768
-4.1302 -3.7166 -1.8469 0.9769
-3.7691 -4.0576 -1.8409 0.9769
-2.9764 -4.6481 -1.8347 0.9770
-2.1031 -5.1084 -1.8363 0.9770
-1.6415 -5.2868 -1.8401 0.9769
-1.1660 -5.4291 -1.8458 0.9769
2.3518 -5.3384 -1.9391 0.9757
2.8494 -5.1608 -1.9596 0.9755
3.3365 -4.9407 -1.9817 0.9752
4.6997 -4.0259 -2.0570 0.9743
5.9435 -1.5863 -2.0448 0.9744
6.1457 -1.0633 -2.0732 0.9741
6.4057 0.0492 -2.1293 0.9734
6.4569 0.6295 -2.1565 0.9730
6.4520 1.2187 -2.1826 0.9727
6.3889 1.8108 -2.2074 0.9724
6.0839 2.9779 -2.2516 0.9719
5.3368 3.9255 -2.2022 0.9725
4.1760 4.4149 -2.0200 0.9747
2.6817 5.0387 -1.8973 0.9762
2.2103 5.2338 -1.8885 0.9763
1.1796 3.6814 -1.2850 0.9838
0.3781 2.8675 -0.9614 0.9879
0.1247 2.9976 -0.9973 0.9874
-2.0517 6.2662 -2.1917 0.9726
-2.5731 5.9868 -2.1661 0.9729
-3.0596 5.6619 -2.1393 0.9732
-3.5075 5.2965 -2.1116 0.9736
-2.5326 1.8383 -1.0402 0.9869
-5.6747 2.7332 -2.0937 0.9738
-5.8208 2.1867 -2.0669 0.9741
-5.9150 1.6361 -2.0400 0.9745
-5.9617 1.0870 -2.0144 0.9748
-5.9187 0.0080 -1.9674 0.9754
-5.8324 -0.5155 -1.9463 0.9756
-5.5397 -1.5162 -1.9092 0.9761
0.4365 2.9215 -1.0563 0.9875
0.1701 2.8886 -1.0348 0.9878
-0.1906 6.2070 -2.2207 0.9740
-1.7955 5.8210 -2.1784 0.9745
-3.1658 4.9642 -2.1055 0.9753
-4.4715 3.3647 -2.0012 0.9765
-4.8721 2.4509 -1.9503 0.9771
-5.5547 1.1120 -2.0258 0.9762
-5.5680 0.6041 -2.0029 0.9765
-5.5394 0.1029 -1.9813 0.9767
-5.2172 -1.3318 -1.9255 0.9774
-5.0369 -1.7785 -1.9102 0.9776
-4.8232 -2.2058 -1.8966 0.9777
-4.5779 -2.6116 -1.8848 0.9779
-4.0005 -3.3521 -1.8664 0.9781
-3.6722 -3.6835 -1.8600 0.9781
-3.3200 -3.9871 -1.8554 0.9782
-2.9460 -4.2616 -1.8527 0.9782
-2.1403 -4.7183 -1.8528 0.9782
-1.7126 -4.8982 -1.8556 0.9782
-1.2711 -5.0444 -1.8603 0.9781
0.5885 -5.2727 -1.8973 0.9777
1.0651 -5.2366 -1.9110 0.9776
1.5412 -5.1617 -1.9264 0.9774
2.4808 -4.8939 -1.9621 0.9770
2.9383 -4.7005 -1.9823 0.9767
3.3832 -4.4674 -2.0040 0.9765
4.2219 -3.8831 -2.0513 0.9759
4.9155 -2.5287 -1.9768 0.9768
2.3227 -0.9429 -0.8965 0.9894
5.4258 -1.6553 -2.0286 0.9762
5.6239 -1.1788 -2.0548 0.9759
5.7794 -0.6800 -2.0810 0.9756
5.9610 0.9094 -2.1564 0.9747
5.9188 1.4540 -2.1796 0.9744
5.8227 1.9970 -2.2013 0.9742
5.6720 2.5322 -2.2213 0.9740
5.4669 3.0537 -2.2393 0.9737
3.2155 4.5628 -1.9962 0.9766
2.8657 4.9545 -2.0468 0.9760
2.3927 5.1507 -2.0310 0.9762
1.3569 3.7713 -1.4333 0.9831
1.4492 5.5394 -2.0476 0.9760
-0.0778 6.1613 -2.2035 0.9742
-0.6340 6.1871 -2.2241 0.9739
-1.1273 5.8109 -2.1168 0.9752
-2.1877 5.6299 -2.1599 0.9747
-3.4777 4.6794 -2.0849 0.9755
-3.8334 4.2953 -2.0588 0.9758
-4.1484 3.8853 -2.0325 0.9761
-5.3708 2.2369 -2.0806 0.9756
-5.5468 1.2150 -2.0306 0.9762
-5.5485 0.2034 -1.9855 0.9767
-5.3871 -0.7721 -1.9462 0.9771
-5.2494 -1.2394 -1.9288 0.9773
-5.0761 -1.6898 -1.9132 0.9775
-4.0637 -3.2819 -1.8680 0.9781
-3.3929 -3.9281 -1.8562 0.9782
-2.6331 -4.4590 -1.8518 0.9782
-1.8001 -4.8646 -1.8549 0.9782
0.4925 -5.2754 -1.8947 0.9777
0.9688 -5.2470 -1.9081 0.9776
1.4453 -5.1799 -1.9231 0.9774
2.3872 -4.9281 -1.9582 0.9770
2.8468 -4.7428 -1.9781 0.9768
3.2946 -4.5176 -1.9995 0.9765
4.5324 -3.6070 -2.0714 0.9757
4.8977 -3.2277 -2.0976 0.9754
2.3166 -0.9895 -0.9008 0.9894
5.7515 -0.7823 -2.0757 0.9756
5.8708 -0.2684 -2.1016 0.9753
5.9422 0.2606 -2.1270 0.9750
5.9631 0.7998 -2.1515 0.9748
5.9317 1.3440 -2.1750 0.9745
5.7068 2.4251 -2.2174 0.9740
5.2649 3.4557 -2.2521 0.9736
4.9652 3.9364 -2.2659 0.9734
4.4960 4.2719 -2.2178 0.9740
3.2964 4.5026 -1.9955 0.9766
2.9622 4.9143 -2.0520 0.9759
2.4671 5.0690 -2.0160 0.9763
2.0179 5.3055 -2.0299 0.9762
1.5455 5.4998 -2.0430 0.9760
1.0630 5.6975 -2.0726 0.9757
0.2574 2.7022 -0.9707 0.9885
-1.5767 5.8548 -2.1683 0.9746
-2.0902 5.6809 -2.1647 0.9746
-2.5609 5.4108 -2.1407 0.9749
-2.9990 5.1001 -2.1158 0.9752
-3.4011 4.7533 -2.0901 0.9755
-3.7648 4.3751 -2.0641 0.9758
-5.4625 1.8298 -2.0601 0.9758
-5.5678 0.8086 -2.0120 0.9764
-5.4104 -0.6759 -1.9498 0.9771
-5.1138 -1.6004 -1.9162 0.9775
-4.9134 -2.0357 -1.9019 0.9777
-3.0995 -4.1544 -1.8536 0.9782
-1.8870 -4.8296 -1.8542 0.9782
-1.4509 -4.9895 -1.8582 0.9782
-1.0022 -5.1151 -1.8640 0.9781
-0.5432 -5.2053 -1.8716 0.9780
-0.0762 -5.2594 -1.8810 0.9779
0.3966 -5.2765 -1.8922 0.9778
2.2933 -4.9608 -1.9544 0.9771
2.7549 -4.7834 -1.9740 0.9768
3.2053 -4.5663 -1.9951 0.9766
3.6412 -4.3095 -2.0176 0.9763
4.0591 -4.0136 -2.0413 0.9760
4.4554 -3.6791 -2.0663 0.9758
5.1550 -2.8920 -2.1138 0.9752
5.7219 -0.8838 -2.0705 0.9757
5.8505 -0.3735 -2.0964 0.9754
5.7394 2.3174 -2.2134 0.9740
5.3192 3.3554 -2.2490 0.9736
3.3760 4.4406 -1.9948 0.9766
3.0593 4.8739 -2.0579 0.9759
2.1127 5.2664 -2.0292 0.9762
1.1619 3.8652 -1.4433 0.9830
0.3230 2.8460 -1.0243 0.9879
-0.4115 6.2267 -2.2316 0.9738
-0.9582 6.1126 -2.2126 0.9741
-1.4423 5.7690 -2.1265 0.9751
-1.9915 5.7302 -2.1694 0.9746
-2.9133 5.1659 -2.1209 0.9751
-3.3229 4.8260 -2.0954 0.9754
-4.3163 3.6304 -2.0169 0.9763
-2.5552 1.7851 -1.1147 0.9868
-5.3058 2.4384 -2.0882 0.9755
-5.4420 1.9329 -2.0652 0.9758
-5.5169 -0.0923 -1.9731 0.9768
-5.3094 -1.0527 -1.9356 0.9773
-5.1502 -1.5101 -1.9193 0.9775
-4.9565 -1.9495 -1.9047 0.9776
-4.7301 -2.3685 -1.8917 0.9778
-4.4730 -2.7654 -1.8806 0.9779
-4.1869 -3.1384 -1.8712 0.9780
-3.1750 -4.0989 -1.8541 0.9782
-2.3917 -4.5934 -1.8520 0.9782
-1.9734 -4.7932 -1.8537 0.9782
-1.0937 -5.0925 -1.8626 0.9781
-0.6366 -5.1900 -1.8699 0.9780
0.7764 -5.2630 -1.9025 0.9777
1.7282 -5.1214 -1.9329 0.9773
2.6625 -4.8224 -1.9699 0.9769
3.1154 -4.6133 -1.9907 0.9766
3.5545 -4.3646 -2.0129 0.9764
4.3773 -3.7497 -2.0612 0.9758
4.7536 -3.3852 -2.0869 0.9755
5.0930 -2.9795 -2.1101 0.9752
5.0272 -2.3656 -1.9869 0.9767
5.2866 -1.9317 -2.0128 0.9764
5.8283 -0.4779 -2.0912 0.9755
5.9193 0.0455 -2.1168 0.9752
5.9609 0.5811 -2.1417 0.9749
5.8874 1.6687 -2.1883 0.9743
3.9281 4.1528 -2.0442 0.9760
3.4560 4.3793 -1.9950 0.9766
3.1569 4.8333 -2.0644 0.9758
2.6783 5.0323 -2.0386 0.9761
2.2075 5.2272 -2.0292 0.9762
-0.8491 6.1400 -2.2166 0.9740
-1.3241 5.7344 -2.1046 0.9753
-2.3746 5.5250 -2.1505 0.9748
-3.6227 4.5313 -2.0746 0.9757
-3.9626 4.1364 -2.0484 0.9760
-5.5123 1.5247 -2.0453 0.9760
-5.5606 1.0139 -2.0213 0.9763
-5.5292 0.0075 -1.9773 0.9768
-5.4524 -0.4819 -1.9574 0.9770
-1.1856 5.5710 -2.1827 0.9759
-1.6634 5.3927 -2.1627 0.9761
-2.5443 4.9087 -2.1188 0.9766
-3.3024 4.2797 -2.0716 0.9771
-3.6287 3.9210 -2.0473 0.9774
-3.9175 3.5383 -2.0230 0.9776
-2.5706 1.9343 -1.2328 0.9863
-4.5487 2.2882 -1.9513 0.9784
-5.0394 1.9929 -2.0767 0.9771
-5.1984 1.0407 -2.0317 0.9775
-5.2147 0.5658 -2.0101 0.9778
-5.1914 0.0965 -1.9898 0.9780
-5.0317 -0.8142 -1.9533 0.9784
-4.7312 -1.6706 -1.9228 0.9787
-4.3036 -2.4551 -1.8987 0.9790
-4.0465 -2.8157 -1.8892 0.9791
-3.7629 -3.1530 -1.8813 0.9792
-3.4548 -3.4655 -1.8752 0.9793
-2.0140 -4.4400 -1.8684 0.9793
-1.6114 -4.6089 -1.8711 0.9793
-1.1959 -4.7457 -1.8755 0.9793
-0.7694 -4.8496 -1.8817 0.9792
0.1073 -4.9548 -1.8992 0.9790
0.5530 -4.9547 -1.9105 0.9789
1.0004 -4.9186 -1.9235 0.9787
1.4469 -4.8459 -1.9380 0.9786
4.5851 -2.3587 -1.9760 0.9782
2.3226 -0.9428 -0.9606 0.9893
5.2320 -1.0967 -2.0486 0.9774
5.4692 -0.1511 -2.0967 0.9768
5.5266 0.8431 -2.1424 0.9763
5.3902 1.8486 -2.1837 0.9759
5.2471 2.3426 -2.2021 0.9757
4.8129 3.2849 -2.2330 0.9753
4.5245 3.7221 -2.2452 0.9752
3.6238 4.2728 -2.1470 0.9763
3.1508 4.4710 -2.0961 0.9768
2.3897 5.1441 -2.1736 0.9760
1.3436 3.7343 -1.5209 0.9831
0.9624 5.7306 -2.2268 0.9754
0.2084 2.7048 -1.0396 0.9884
-0.0731 5.7950 -2.2209 0.9755
-1.0867 5.6014 -2.1866 0.9759
-2.0280 5.2190 -2.1457 0.9763
-2.8629 4.6733 -2.1002 0.9768
-3.2321 4.3489 -2.0764 0.9771
-3.8623 3.6173 -2.0279 0.9776
-2.6762 1.7292 -1.2210 0.9864
-5.1249 1.6143 -2.0591 0.9772
-5.1902 1.1370 -2.0362 0.9775
-5.2147 0.6613 -2.0144 0.9777
-5.1993 0.1906 -1.9938 0.9780
-5.1453 -0.2722 -1.9745 0.9782
-4.5750 -1.9931 -1.9124 0.9789
-4.3521 -2.3796 -1.9008 0.9790
-3.5189 -3.4045 -1.8763 0.9792
-2.0936 -4.4021 -1.8680 0.9793
-1.6938 -4.5773 -1.8704 0.9793
-1.2807 -4.7207 -1.8745 0.9793
-0.4227 -4.9082 -1.8879 0.9791
0.0178 -4.9505 -1.8971 0.9790
0.4628 -4.9576 -1.9081 0.9789
0.9101 -4.9288 -1.9207 0.9788
1.3570 -4.8635 -1.9350 0.9786
1.8009 -4.7614 -1.9508 0.9784
2.2389 -4.6220 -1.9681 0.9782
2.6683 -4.4453 -1.9868 0.9780
3.0858 -4.2314 -2.0070 0.9778
3.4885 -3.9806 -2.0283 0.9776
3.8729 -3.6935 -2.0509 0.9773
4.2356 -3.3708 -2.0744 0.9771
4.5732 -3.0139 -2.0989 0.9768
2.3138 -0.9883 -0.9642 0.9893
5.0114 -1.6284 -2.0193 0.9777
5.1988 -1.1881 -2.0436 0.9774
5.3470 -0.7273 -2.0679 0.9771
5.5146 0.2418 -2.1153 0.9766
4.5864 3.6361 -2.2429 0.9752
3.7222 4.2315 -2.1597 0.9761
2.9584 4.9080 -2.1961 0.9758
1.4283 3.7551 -1.5396 0.9829
1.5436 5.4928 -2.1865 0.9759
-3.5014 4.0689 -2.0571 0.9773
-3.8055 3.6954 -2.0328 0.9775
-5.1804 1.2333 -2.0407 0.9774
-5.2130 0.7570 -2.0187 0.9777
-5.0756 -0.6341 -1.9602 0.9783
-4.9562 -1.0760 -1.9436 0.9785
-4.8025 -1.5029 -1.9284 0.9787
-4.6164 -1.9127 -1.9149 0.9788
-3.8805 -3.0197 -1.8843 0.9792
-3.5820 -3.3424 -1.8775 0.9792
-3.2601 -3.6393 -1.8724 0.9793
-2.1724 -4.3630 -1.8678 0.9793
-1.7757 -4.5445 -1.8698 0.9793
-0.9428 -4.8117 -1.8790 0.9792
-0.0716 -4.9448 -1.8951 0.9790
0.3727 -4.9591 -1.9058 0.9789
0.8198 -4.9376 -1.9181 0.9788
1.2669 -4.8797 -1.9320 0.9786
1.7116 -4.7850 -1.9475 0.9785
3.0026 -4.2776 -2.0028 0.9779
4.8084 -2.6975 -2.1128 0.9767
4.7383 -2.1260 -1.9902 0.9780
5.4352 -0.3470 -2.0871 0.9769
5.5059 0.1418 -2.1107 0.9767
5.4337 1.6467 -2.1758 0.9760
5.3109 2.1444 -2.1949 0.9758
5.1381 2.6311 -2.2122 0.9756
4.6465 3.5489 -2.2406 0.9753
4.3312 3.9689 -2.2513 0.9751
3.8219 4.1896 -2.1732 0.9760
3.3392 4.3922 -2.1144 0.9766
3.0553 4.8676 -2.2024 0.9757
2.1101 5.2597 -2.1717 0.9760
1.6394 5.4534 -2.1822 0.9759
0.3222 2.8391 -1.0950 0.9878
0.1366 5.8094 -2.2269 0.9754
-0.3805 5.7583 -2.2115 0.9756
-0.8867 5.6564 -2.1941 0.9758
-2.7043 4.7952 -2.1097 0.9767
-3.4354 4.1414 -2.0620 0.9772
-2.5550 1.7849 -1.1944 0.9867
-4.9487 2.2743 -2.0871 0.9769
-5.0866 1.8067 -2.0686 0.9771
-5.1688 1.3297 -2.0453 0.9774
-5.2097 0.8529 -2.0230 0.9776
-5.0955 -0.5433 -1.9637 0.9783
-4.8362 -1.4181 -1.9314 0.9786
-4.6565 -1.8315 -1.9175 0.9788
-4.4456 -2.2260 -1.9053 0.9789
-1.8569 -4.5104 -1.8692 0.9793
-1.4490 -4.6667 -1.8726 0.9793
0.2827 -4.9591 -1.9035 0.9789
0.7294 -4.9448 -1.9154 0.9788
1.1768 -4.8943 -1.9290 0.9787
2.0629 -4.6827 -1.9609 0.9783
2.4962 -4.5211 -1.9791 0.9781
2.9189 -4.3223 -1.9987 0.9779
3.3279 -4.0863 -2.0196 0.9777
3.7201 -3.8137 -2.0416 0.9774
4.0919 -3.5053 -2.0648 0.9772
4.7511 -2.7794 -2.1094 0.9767
4.6877 -2.2059 -1.9854 0.9781
5.4155 -0.4441 -2.0823 0.9770
5.4953 0.0422 -2.1059 0.9767
5.5154 1.0418 -2.1510 0.9762
5.4525 1.5454 -2.1718 0.9760
5.1770 2.5340 -2.2088 0.9756
4.9649 3.0079 -2.2245 0.9754
4.7046 3.4606 -2.2381 0.9753
4.3984 3.8866 -2.2493 0.9752
3.9228 4.1472 -2.1876 0.9758
3.1528 4.8270 -2.2094 0.9756
2.2047 5.2206 -2.1717 0.9760
1.2579 5.6098 -2.2032 0.9757
-0.2768 5.7727 -2.2148 0.9755
-0.7856 5.6810 -2.1978 0.9757
-1.2792 5.5403 -2.1790 0.9759
-2.2020 5.1234 -2.1370 0.9764
-3.0126 4.5491 -2.0909 0.9769
-3.3680 4.2127 -2.0669 0.9772
-4.4140 2.6360 -1.9702 0.9782
-4.5770 2.2045 -1.9468 0.9785
-5.0649 1.9027 -2.0734 0.9771
-5.1556 1.4260 -2.0499 0.9773
-5.2047 0.9490 -2.0274 0.9776
-5.1825 0.0070 -1.9860 0.9780
-5.1138 -0.4520 -1.9673 0.9782
-4.6953 -1.7494 -1.9202 0.9788
0.8031 5.3754 -2.2244 0.9768
0.1600 2.7172 -1.1140 0.9883
-0.1649 5.3722 -2.1998 0.9770
-0.6400 5.2989 -2.1844 0.9772
-1.5476 5.0172 -2.1489 0.9776
-1.9715 4.8141 -2.1291 0.9778
-2.3705 4.5734 -2.1083 0.9780
-3.6611 3.3068 -2.0191 0.9789
-4.7187 1.8660 -2.0768 0.9783
-4.8800 0.9769 -2.0369 0.9787
-1.9163 0.0356 -0.7844 0.9918
-2.0520 -0.3321 -0.8508 0.9911
-4.2705 -1.9530 -1.9219 0.9799
-4.0562 -2.3140 -1.9112 0.9800
-3.8150 -2.6547 -1.9022 0.9801
-3.2586 -3.2686 -1.8890 0.9802
-2.6153 -3.7833 -1.8824 0.9803
-2.2657 -4.0002 -1.8816 0.9803
-1.1279 -4.4761 -1.8892 0.9802
1.7783 -4.4565 -1.9638 0.9795
2.9762 -3.9299 -2.0176 0.9789
3.3490 -3.6850 -2.0380 0.9787
3.7034 -3.4063 -2.0594 0.9785
4.0363 -3.0948 -2.0817 0.9783
4.3398 -2.7488 -2.1025 0.9780
4.2916 -2.2077 -1.9752 0.9794
2.3225 -0.9428 -1.0259 0.9892
4.8856 -1.0241 -2.0430 0.9787
5.0992 -0.1408 -2.0878 0.9782
4.4676 3.0493 -2.2138 0.9769
3.5300 4.1622 -2.2336 0.9767
3.1216 4.4296 -2.2179 0.9769
2.3108 4.9743 -2.2448 0.9766
0.9009 5.3649 -2.2265 0.9768
-0.0679 5.3813 -2.2026 0.9770
-1.8878 4.8582 -2.1332 0.9777
-2.6689 4.3567 -2.0911 0.9782
-3.0154 4.0573 -2.0689 0.9784
-3.6090 3.3801 -2.0237 0.9789
-4.2310 2.2251 -1.9565 0.9796
-4.6915 1.9540 -2.0800 0.9783
-4.8070 1.5141 -2.0627 0.9785
-1.9522 0.2476 -0.8054 0.9915
-1.9451 -0.2788 -0.8042 0.9915
-4.4899 -1.4947 -1.9367 0.9798
-4.3103 -1.8778 -1.9242 0.9799
-4.1017 -2.2427 -1.9133 0.9800
-3.3189 -3.2110 -1.8900 0.9802
-0.8075 -4.5562 -1.8938 0.9802
0.4361 -4.6714 -1.9202 0.9799
0.8572 -4.6424 -1.9322 0.9798
1.6947 -4.4806 -1.9606 0.9795
2.1058 -4.3472 -1.9770 0.9793
2.5082 -4.1787 -1.9947 0.9792
3.2751 -3.7372 -2.0338 0.9788
4.2829 -2.8225 -2.0993 0.9781
4.2414 -2.2797 -1.9708 0.9794
4.6840 -1.5221 -2.0157 0.9789
4.8554 -1.1097 -2.0384 0.9787
5.1384 0.2253 -2.1051 0.9780
5.1485 0.6905 -2.1260 0.9778
4.5169 2.9647 -2.2113 0.9769
4.2560 3.3742 -2.2229 0.9768
3.9540 3.7569 -2.2323 0.9767
2.4008 4.9327 -2.2452 0.9766
1.9475 5.1204 -2.2421 0.9766
0.2703 2.8378 -1.1667 0.9878
0.0294 5.3885 -2.2054 0.9770
-1.8032 4.9008 -2.1372 0.9777
-2.2126 4.6749 -2.1168 0.9779
-2.9480 4.1201 -2.0734 0.9783
-3.2687 3.7985 -2.0510 0.9786
-3.5554 3.4525 -2.0283 0.9788
-4.1996 2.3064 -1.9609 0.9795
-4.7892 1.6042 -2.0671 0.9784
-4.8617 1.1574 -2.0454 0.9786
-1.9301 -0.0672 -0.7904 0.9917
-1.9528 -0.2440 -0.8055 0.9915
-4.6650 -1.0128 -1.9538 0.9796
-4.5225 -1.4153 -1.9394 0.9797
-3.6590 -2.8474 -1.8976 0.9802
-3.3783 -3.1523 -1.8911 0.9802
-3.0752 -3.4329 -1.8863 0.9803
-2.7515 -3.6879 -1.8832 0.9803
-1.2876 -4.4280 -1.8873 0.9803
-0.8891 -4.5378 -1.8925 0.9802
-0.4817 -4.6158 -1.8994 0.9801
-0.0675 -4.6611 -1.9079 0.9801
0.3512 -4.6731 -1.9180 0.9799
2.4278 -4.2155 -1.9910 0.9792
2.8212 -4.0191 -2.0097 0.9790
3.9048 -3.2244 -2.0726 0.9784
4.2232 -2.8940 -2.0954 0.9781
4.5004 -2.5248 -2.1120 0.9779
4.6452 -1.6028 -2.0111 0.9790
4.8237 -1.1945 -2.0338 0.9788
5.1501 0.5962 -2.1219 0.9778
5.1244 1.0642 -2.1420 0.9776
4.9360 1.9930 -2.1786 0.9773
4.7727 2.4440 -2.1946 0.9771
4.3121 3.2935 -2.2207 0.9768
4.0182 3.6820 -2.2306 0.9767
2.4899 4.8892 -2.2456 0.9766
2.0405 5.0863 -2.2429 0.9766
1.5741 5.2362 -2.2378 0.9766
1.0960 5.3378 -2.2302 0.9767
0.3227 2.8431 -1.1711 0.9877
-1.2802 5.1207 -2.1603 0.9774
-1.7175 4.9418 -2.1412 0.9776
-2.1320 4.7234 -2.1210 0.9779
-2.5203 4.4689 -2.0998 0.9781
-2.8793 4.1817 -2.0779 0.9783
-2.5211 1.7613 -1.2587 0.9868
-4.3151 1.9831 -1.9436 0.9797
-4.7671 1.6932 -2.0705 0.9784
-4.5538 -1.3353 -1.9422 0.9797
-4.1893 -2.0977 -1.9175 0.9800
-3.9642 -2.4509 -1.9075 0.9801
-3.7128 -2.7830 -1.8991 0.9801
-3.4369 -3.0927 -1.8923 0.9802
-3.1381 -3.3783 -1.8871 0.9803
-2.8184 -3.6385 -1.8837 0.9803
-2.4795 -3.8722 -1.8818 0.9803
-1.7518 -4.2549 -1.8833 0.9803
-1.3668 -4.4020 -1.8865 0.9803
-0.9703 -4.5182 -1.8913 0.9802
0.6871 -4.6583 -1.9271 0.9799
1.5268 -4.5245 -1.9544 0.9796
2.3470 -4.2509 -1.9874 0.9792
3.1252 -3.8374 -2.0255 0.9788
3.4912 -3.5791 -2.0463 0.9786
4.7905 -1.2786 -2.0293 0.9788
5.0515 -0.4142 -2.0744 0.9783
5.1220 0.0394 -2.0964 0.9781
5.1332 0.9696 -2.1381 0.9777
4.9633 1.9005 -2.1752 0.9773
3.7555 3.9704 -2.2367 0.9767
3.3538 4.2499 -2.2158 0.9769
2.5780 4.8439 -2.2458 0.9766
1.1888 3.7101 -1.5945 0.9833
1.1932 5.3212 -2.2319 0.9767
-0.7301 5.2794 -2.1813 0.9772
-1.1895 5.1518 -2.1640 0.9774
-2.0504 4.7705 -2.1252 0.9778
-2.8093 4.2421 -2.0824 0.9782
-3.1432 3.9315 -2.0601 0.9785
-3.4438 3.5949 -2.0375 0.9787
-3.7095 3.2362 -2.0148 0.9789
-4.1322 2.4678 -1.9698 0.9794
-4.8371 1.3380 -2.0541 0.9785
-1.9579 0.1784 -0.8046 0.9915
-1.8992 0.0026 -0.7773 0.9918
-1.9578 -0.1730 -0.8044 0.9915
-2.1668 -0.3890 -0.9010 0.9905
-4.4226 -1.6478 -1.9316 0.9798
0.7482 5.0077 -2.2067 0.9781
-0.1538 5.0086 -2.1838 0.9784
-0.5969 4.9425 -2.1697 0.9785
-1.0288 4.8339 -2.1539 0.9787
-1.8421 4.4980 -2.1183 0.9790
-2.2163 4.2758 -2.0989 0.9792
-2.8849 3.7387 -2.0581 0.9796
-3.1746 3.4304 -2.0370 0.9798
-2.4500 1.8435 -1.3363 0.9867
-1.5715 0.4640 -0.7141 0.9929
-1.5247 0.1654 -0.6684 0.9933
-1.5293 -0.1086 -0.6682 0.9933
-1.5084 -0.2441 -0.6659 0.9934
-4.0330 -1.8444 -1.9327 0.9808
-3.6049 -2.5085 -1.9140 0.9810
-3.3539 -2.8102 -1.9070 0.9811
-3.0803 -3.0898 -1.9014 0.9811
-2.4727 -3.5770 -1.8952 0.9812
-1.4371 -4.1103 -1.8977 0.9812
-1.0662 -4.2312 -1.9017 0.9811
-0.2978 -4.3826 -1.9144 0.9810
0.8895 -4.3732 -1.9450 0.9807
1.2854 -4.3050 -1.9580 0.9806
1.6773 -4.2037 -1.9725 0.9804
2.4388 -3.9016 -2.0052 0.9801
3.4837 -3.2042 -2.0628 0.9796
3.7944 -2.9093 -2.0838 0.9794
4.0751 -2.5812 -2.1023 0.9792
4.0290 -2.0726 -1.9746 0.9804
2.3224 -0.9428 -1.0924 0.9891
4.4263 -1.3504 -2.0168 0.9800
4.6924 -0.5521 -2.0591 0.9796
4.8071 0.7334 -2.1193 0.9790
4.3761 2.4444 -2.1845 0.9784
4.1634 2.8416 -2.1968 0.9782
3.6213 3.5674 -2.2154 0.9781
3.2969 3.8873 -2.2214 0.9780
2.9411 4.1734 -2.2251 0.9780
2.1514 4.6312 -2.2255 0.9780
1.2872 4.9201 -2.2164 0.9781
0.8393 4.9976 -2.2085 0.9781
0.2084 2.7058 -1.1827 0.9882
-0.0633 5.0166 -2.1865 0.9783
-0.5082 4.9593 -2.1727 0.9785
-0.9427 4.8592 -2.1572 0.9786
-1.7637 4.5386 -2.1221 0.9790
-2.1427 4.3234 -2.1029 0.9792
-2.4966 4.0754 -2.0829 0.9794
-3.1187 3.4945 -2.0413 0.9798
-3.3830 3.1684 -2.0200 0.9800
-2.4316 1.8995 -1.3448 0.9866
-2.5426 1.6428 -1.3193 0.9869
-1.5295 -0.0809 -0.6675 0.9933
-1.5153 -0.2172 -0.6671 0.9933
-1.5354 -0.3625 -0.6876 0.9931
-3.1373 -3.0352 -1.9024 0.9811
-2.8470 -3.2961 -1.8982 0.9812
-1.8674 -3.9266 -1.8949 0.9812
-1.5106 -4.0823 -1.8971 0.9812
0.0158 -4.4083 -1.9212 0.9809
0.8093 -4.3830 -1.9425 0.9807
1.2057 -4.3214 -1.9553 0.9806
1.9856 -4.0990 -1.9850 0.9803
2.3638 -3.9381 -2.0017 0.9802
2.7306 -3.7443 -2.0196 0.9800
3.4183 -3.2600 -2.0586 0.9796
3.7335 -2.9712 -2.0795 0.9794
4.3918 -1.4271 -2.0125 0.9801
4.6720 -0.6354 -2.0549 0.9796
4.8046 0.2107 -2.0959 0.9792
4.7755 1.0821 -2.1340 0.9789
3.9651 3.1435 -2.2052 0.9782
3.6827 3.4990 -2.2139 0.9781
3.0153 4.1186 -2.2246 0.9780
2.6373 4.3752 -2.2264 0.9780
1.3767 4.8990 -2.2178 0.9780
0.0274 5.0229 -2.1891 0.9783
-2.0681 4.3696 -2.1069 0.9791
-3.3323 3.2359 -2.0243 0.9799
-1.5883 0.5320 -0.7300 0.9927
-1.5368 0.3659 -0.6885 0.9931
-1.5146 0.2200 -0.6670 0.9933
-1.5295 0.0838 -0.6676 0.9933
-1.5283 -0.0532 -0.6665 0.9933
-1.5208 -0.1900 -0.6680 0.9933
-1.5211 -0.3302 -0.6784 0.9932
-3.9163 -2.0503 -1.9265 0.9809
-3.6996 -2.3807 -1.9173 0.9810
-3.4580 -2.6910 -1.9096 0.9811
-1.5837 -4.0532 -1.8965 0.9812
-1.2172 -4.1860 -1.8999 0.9812
-0.8404 -4.2892 -1.9048 0.9811
-0.4552 -4.3620 -1.9114 0.9810
0.3317 -4.4137 -1.9290 0.9809
1.5198 -4.2486 -1.9665 0.9805
1.9081 -4.1275 -1.9817 0.9804
2.2883 -3.9732 -1.9982 0.9802
3.0132 -3.5663 -2.0347 0.9798
3.6716 -3.0319 -2.0752 0.9794
3.9679 -2.7190 -2.0963 0.9792
4.3560 -1.5030 -2.0083 0.9801
4.5202 -1.1194 -2.0295 0.9799
4.7435 -0.3028 -2.0715 0.9795
4.7984 0.1236 -2.0919 0.9793
4.8130 0.5572 -2.1116 0.9791
4.7860 0.9939 -2.1303 0.9789
4.7168 1.4294 -2.1480 0.9787
4.6048 1.8593 -2.1643 0.9786
4.4504 2.2789 -2.1790 0.9784
4.0176 3.0686 -2.2032 0.9782
3.7426 3.4295 -2.2123 0.9781
3.4318 3.7620 -2.2193 0.9780
3.0883 4.0622 -2.2239 0.9780
2.7157 4.3265 -2.2262 0.9780
2.3180 4.5518 -2.2262 0.9780
1.0209 4.9718 -2.2120 0.9781
0.3414 3.0080 -1.3194 0.9869
0.1182 5.0273 -2.1916 0.9783
-0.7688 4.9046 -2.1636 0.9786
-1.1950 4.7799 -2.1473 0.9787
-2.3569 4.1792 -2.0911 0.9793
-2.6945 3.9133 -2.0707 0.9795
-3.0029 3.6199 -2.0498 0.9797
-3.5249 2.9648 -2.0074 0.9801
-4.0549 1.8635 -1.9449 0.9807
-1.5257 -0.0255 -0.6650 0.9934
-4.1416 -1.6290 -1.9396 0.9808
-3.9569 -1.9813 -1.9286 0.9809
-2.6646 -3.4400 -1.8964 0.9812
-2.0076 -3.8557 -1.8945 0.9812
-1.2921 -4.1615 -1.8991 0.9812
-0.9172 -4.2708 -1.9037 0.9811
-0.5335 -4.3498 -1.9099 0.9811
0.2517 -4.4143 -1.9270 0.9809
1.0460 -4.3503 -1.9499 0.9807
2.2123 -4.0070 -1.9948 0.9802
4.1753 -2.4426 -2.1082 0.9791
4.3189 -1.5781 -2.0040 0.9801
4.7277 -0.3877 -2.0673 0.9795
4.7342 1.3418 -2.1445 0.9788
4.4849 2.1953 -2.1762 0.9784
3.8011 3.3588 -2.2107 0.9781
3.1601 4.0044 -2.2232 0.9780
1.2144 3.7899 -1.7344 0.9828
1.1113 4.9561 -2.2136 0.9781
0.6613 5.0157 -2.2048 0.9782
-0.2397 4.9992 -2.1813 0.9784
-1.5231 4.6518 -2.1332 0.9789
-2.2854 4.2293 -2.0951 0.9792
-3.2268 3.3684 -2.0329 0.9799
-3.4782 3.0344 -2.0117 0.9801
-1.5276 0.1392 -0.6685 0.9933
-1.5279 -0.1350 -0.6685 0.9933
-1.5006 -0.2694 -0.6644 0.9934
-1.5983 -0.5955 -0.7434 0.9926
0.6994 4.6812 -2.1909 0.9794
-0.1438 4.6851 -2.1697 0.9796
-1.3536 4.3885 -2.1258 0.9800
-3.2268 2.9145 -2.0127 0.9810
-2.4419 1.8375 -1.4146 0.9866
-1.3297 0.5258 -0.6619 0.9937
-1.3245 0.3910 -0.6392 0.9939
-1.3085 0.2620 -0.6177 0.9941
-1.3349 0.1448 -0.6215 0.9941
-1.3360 0.0248 -0.6185 0.9941
-1.3117 -0.3348 -0.6266 0.9941
-1.3335 -0.4709 -0.6546 0.9938
-1.3148 -0.6013 -0.6692 0.9936
-3.4133 -2.3751 -1.9248 0.9818
-2.9176 -2.9266 -1.9128 0.9820
-2.6391 -3.1694 -1.9091 0.9820
-2.3425 -3.3886 -1.9068 0.9820
-1.7018 -3.7517 -1.9069 0.9820
-1.3613 -3.8935 -1.9092 0.9820
-1.0099 -4.0077 -1.9131 0.9819
-0.2820 -4.1496 -1.9252 0.9818
0.0904 -4.1760 -1.9335 0.9818
0.4657 -4.1720 -1.9432 0.9817
0.8415 -4.1372 -1.9543 0.9816
1.2156 -4.0711 -1.9667 0.9814
1.9490 -3.8449 -1.9953 0.9812
2.3034 -3.6848 -2.0115 0.9810
2.9740 -3.2724 -2.0468 0.9807
3.5758 -2.7417 -2.0857 0.9803
3.7923 -1.9508 -1.9740 0.9814
2.3223 -0.9427 -1.1601 0.9890
4.1610 -1.2695 -2.0137 0.9810
4.4056 -0.5183 -2.0534 0.9806
4.4761 -0.1236 -2.0727 0.9805
4.3785 1.5017 -2.1426 0.9798
4.2556 1.8999 -2.1572 0.9797
4.0934 2.2865 -2.1703 0.9795
3.6560 3.0076 -2.1913 0.9793
3.3843 3.3339 -2.1990 0.9793
2.7478 3.8992 -2.2080 0.9792
1.2029 4.5980 -2.2000 0.9793
0.7845 4.6715 -2.1926 0.9793
-0.4756 4.6406 -2.1593 0.9796
-1.2761 4.4192 -2.1291 0.9799
-1.6528 4.2533 -2.1122 0.9801
-2.0091 4.0539 -2.0943 0.9803
-1.3006 0.2849 -0.6163 0.9941
-1.3314 0.1688 -0.6212 0.9941
-1.3274 -0.1903 -0.6207 0.9941
-1.3039 -0.3079 -0.6202 0.9941
-1.3212 -0.5756 -0.6671 0.9937
-3.4584 -2.3149 -1.9264 0.9818
-2.6969 -3.1222 -1.9097 0.9820
-2.4038 -3.3463 -1.9072 0.9820
-2.0939 -3.5459 -1.9062 0.9820
-1.7691 -3.7198 -1.9066 0.9820
-1.4310 -3.8671 -1.9087 0.9820
-0.7228 -4.0783 -1.9172 0.9819
-0.3566 -4.1406 -1.9237 0.9818
0.3898 -4.1753 -1.9411 0.9817
0.7657 -4.1467 -1.9519 0.9816
1.1403 -4.0870 -1.9641 0.9815
2.5778 -3.5348 -2.0251 0.9809
2.9091 -3.3195 -2.0431 0.9807
3.5188 -2.8004 -2.0817 0.9804
3.7869 -2.4957 -2.0993 0.9802
3.7489 -2.0150 -1.9701 0.9814
2.3054 -0.9847 -1.1604 0.9890
4.1291 -1.3417 -2.0097 0.9810
4.5060 0.1976 -2.0878 0.9803
4.5094 0.6048 -2.1060 0.9801
4.4737 1.0137 -2.1233 0.9800
4.3985 1.4202 -2.1395 0.9798
4.1293 2.2096 -2.1678 0.9796
3.7067 2.9387 -2.1896 0.9794
3.1443 3.5745 -2.2036 0.9792
2.8172 3.8480 -2.2075 0.9792
2.0882 4.2905 -2.2087 0.9792
0.8694 4.6600 -2.1943 0.9793
0.2722 2.8581 -1.3289 0.9874
0.0256 4.6978 -2.1746 0.9795
-0.8013 4.5706 -2.1479 0.9798
-1.1979 4.4483 -2.1324 0.9799
-1.5783 4.2896 -2.1157 0.9801
-2.2771 3.8724 -2.0794 0.9804
-2.8755 3.3416 -2.0406 0.9808
-3.3577 2.7220 -2.0008 0.9811
-3.7141 2.0397 -1.9614 0.9815
-1.3206 0.5783 -0.6673 0.9937
-1.3269 0.1927 -0.6206 0.9941
-1.3287 -0.4158 -0.6445 0.9939
-1.3263 -0.5495 -0.6645 0.9937
-3.5026 -2.2539 -1.9280 0.9818
-3.2746 -2.5482 -1.9206 0.9819
-3.0245 -2.8221 -1.9148 0.9819
-2.7538 -3.0741 -1.9104 0.9820
-2.4644 -3.3030 -1.9076 0.9820
-2.1578 -3.5076 -1.9062 0.9820
-1.8358 -3.6868 -1.9064 0.9820
-1.5002 -3.8396 -1.9081 0.9820
-1.1530 -3.9650 -1.9113 0.9820
-0.7959 -4.0622 -1.9161 0.9819
-0.4311 -4.1304 -1.9223 0.9819
0.3140 -4.1774 -1.9391 0.9817
0.6898 -4.1550 -1.9496 0.9816
1.0649 -4.1016 -1.9615 0.9815
1.4369 -4.0168 -1.9747 0.9814
1.8032 -3.9007 -1.9892 0.9812
3.1616 -3.1262 -2.0581 0.9806
3.4609 -2.8580 -2.0776 0.9804
3.7362 -2.5602 -2.0965 0.9802
3.7044 -2.0782 -1.9661 0.9815
3.9141 -1.7562 -1.9858 0.9813
4.3671 -0.6745 -2.0454 0.9807
4.3100 1.7403 -2.1515 0.9797
4.1636 2.1321 -2.1652 0.9796
3.9785 2.5096 -2.1774 0.9795
2.5371 4.0421 -2.2090 0.9792
1.7751 4.4246 -2.2068 0.9792
0.9542 4.6469 -2.1958 0.9793
0.3406 3.0006 -1.3978 0.9868
-0.3084 4.6663 -2.1647 0.9796
-0.7196 4.5907 -2.1509 0.9797
-1.1191 4.4760 -2.1357 0.9799
-1.5030 4.3245 -2.1192 0.9800
-2.5289 3.6729 -2.0642 0.9805
-3.0825 3.1035 -2.0248 0.9809
-3.3146 2.7879 -2.0048 0.9811
-2.4847 1.7358 -1.4030 0.9867
-3.6840 2.1107 -1.9653 0.9815
-1.3141 0.6039 -0.6694 0.9936
-1.3124 0.3376 -0.6273 0.9940
-1.3216 0.2164 -0.6199 0.9941
-1.3357 -0.0223 -0.6184 0.9941
-1.3352 -0.1424 -0.6216 0.9941
-1.3093 -0.2596 -0.6179 0.9941
-1.3300 -0.5231 -0.6615 0.9937
-3.3225 -2.4904 -1.9220 0.9819
-2.5242 -3.2587 -1.9080 0.9820
-2.2209 -3.4683 -1.9064 0.9820
-1.9019 -3.6527 -1.9063 0.9820
-1.5690 -3.8109 -1.9077 0.9820
-0.8687 -4.0449 -1.9150 0.9819
-0.1356 -4.1636 -1.9283 0.9818
0.2382 -4.1781 -1.9371 0.9817
1.3621 -4.0365 -1.9719 0.9814
2.4400 -3.6131 -2.0181 0.9810
3.4022 -2.9144 -2.0736 0.9804
4.2196 -1.1262 -2.0216 0.9809
4.3457 -0.7519 -2.0414 0.9807
4.4377 -0.3639 -2.0610 0.9806
4.5127 0.4400 -2.0987 0.9802
4.4928 0.8486 -2.1164 0.9800
4.3347 1.6598 -2.1485 0.9797
2.9526 3.7415 -2.2062 0.9792
2.6094 3.9951 -2.2088 0.9792
1.8552 4.3931 -2.2074 0.9792
1.4525 4.5331 -2.2034 0.9792
1.0387 4.6320 -2.1973 0.9793
-0.6374 4.6091 -2.1538 0.9797
-1.0396 4.5022 -2.1388 0.9798
-2.1435 3.9666 -2.0870 0.9803
-3.0320 3.1650 -2.0288 0.9809
-3.2703 2.8530 -2.0088 0.9811
-2.4629 1.7877 -1.4087 0.9867
-3.7952 1.8279 -1.9499 0.9816
-1.3191 0.3649 -0.6335 0.9940
-1.3153 0.2398 -0.6189 0.9941
-1.3376 -0.1182 -0.6216 0.9941
-1.3324 -0.4965 -0.6582 0.9938
0.6558 4.3890 -2.1768 0.9804
-0.1349 4.3953 -2.1570 0.9806
-1.2715 4.1222 -2.1160 0.9810
-1.6225 3.9618 -2.1000 0.9811
-2.2640 3.5501 -2.0654 0.9814
-2.5496 3.3042 -2.0472 0.9816
-3.0408 2.7465 -2.0099 0.9819
-2.4337 1.8313 -1.4940 0.9865
-1.1514 0.4553 -0.6073 0.9945
-1.1590 0.3422 -0.5928 0.9946
-1.1742 0.2351 -0.5874 0.9947
-1.1578 -0.2956 -0.5862 0.9947
-1.1564 -0.4083 -0.6015 0.9946
-1.6150 -3.5602 -1.9177 0.9827
-1.2918 -3.6946 -1.9199 0.9827
0.0858 -3.9601 -1.9430 0.9825
0.4415 -3.9553 -1.9522 0.9824
1.1517 -3.8572 -1.9746 0.9822
1.5017 -3.7635 -1.9876 0.9821
1.8452 -3.6401 -2.0018 0.9820
2.1797 -3.4870 -2.0171 0.9818
3.6201 -2.2930 -2.1020 0.9811
3.5776 -1.8404 -1.9735 0.9822
2.3222 -0.9427 -1.2293 0.9889
3.9211 -1.1963 -2.0109 0.9819
4.1909 1.0295 -2.1168 0.9810
3.9937 1.7830 -2.1454 0.9807
3.4277 2.8198 -2.1772 0.9804
3.1723 3.1251 -2.1843 0.9804
2.8871 3.4042 -2.1895 0.9803
1.8836 4.0546 -2.1930 0.9803
1.1275 4.3098 -2.1852 0.9803
0.7355 4.3796 -2.1784 0.9804
-0.0556 4.4017 -2.1593 0.9806
-1.5531 3.9967 -2.1033 0.9811
-2.4128 1.8848 -1.5018 0.9865
-2.5213 1.6291 -1.4725 0.9867
-1.1202 0.5891 -0.6208 0.9944
-1.1587 0.3650 -0.5959 0.9946
-1.1690 0.2561 -0.5870 0.9947
-1.1895 0.1508 -0.5881 0.9947
-1.1962 -0.0633 -0.5876 0.9947
-1.1867 -0.1701 -0.5881 0.9947
-1.1639 -0.2748 -0.5866 0.9947
-1.1578 -0.3854 -0.5986 0.9946
-1.1445 -0.4986 -0.6123 0.9945
-1.1110 -0.6074 -0.6211 0.9944
-3.2802 -2.1956 -1.9362 0.9826
-2.5590 -2.9627 -1.9203 0.9827
-1.9871 -3.3650 -1.9169 0.9827
-1.6788 -3.5300 -1.9174 0.9827
-1.3579 -3.6696 -1.9193 0.9827
-0.3383 -3.9275 -1.9337 0.9826
0.0142 -3.9575 -1.9413 0.9825
0.3696 -3.9586 -1.9502 0.9824
0.7257 -3.9304 -1.9605 0.9824
1.0805 -3.8725 -1.9721 0.9822
1.4315 -3.7848 -1.9849 0.9821
1.7765 -3.6674 -1.9989 0.9820
3.5735 -2.3551 -2.0993 0.9811
2.3041 -0.9842 -1.2290 0.9889
4.0262 -0.9201 -2.0258 0.9818
4.1298 -0.5617 -2.0444 0.9816
4.2372 0.1858 -2.0804 0.9813
4.2381 0.5684 -2.0975 0.9811
4.2025 0.9522 -2.1137 0.9810
4.1300 1.3335 -2.1288 0.9809
3.8741 2.0730 -2.1553 0.9806
3.6920 2.4232 -2.1662 0.9805
3.4754 2.7553 -2.1755 0.9804
3.2263 3.0654 -2.1830 0.9804
1.9568 4.0206 -2.1934 0.9803
0.8151 4.3687 -2.1799 0.9804
0.2738 2.8750 -1.4166 0.9872
-1.4829 4.0304 -2.1066 0.9810
-1.8228 3.8512 -2.0900 0.9812
-2.1417 3.6423 -2.0726 0.9814
-2.4374 3.4064 -2.0546 0.9815
-2.9506 2.8653 -2.0175 0.9818
-3.1652 2.5660 -1.9987 0.9820
-1.1099 0.6095 -0.6211 0.9944
-1.1440 0.5009 -0.6126 0.9945
-1.1577 0.3878 -0.5989 0.9946
-1.1632 0.2769 -0.5865 0.9947
-1.1864 0.1723 -0.5881 0.9947
-1.1965 -0.0416 -0.5872 0.9947
-1.1897 -0.1486 -0.5881 0.9947
-1.1696 -0.2539 -0.5871 0.9947
-1.1587 -0.3626 -0.5956 0.9946
-3.1063 -2.4173 -1.9307 0.9826
-2.8695 -2.6775 -1.9252 0.9827
-2.3385 -3.1344 -1.9183 0.9827
-1.0940 -3.7622 -1.9219 0.9827
-0.7551 -3.8539 -1.9264 0.9827
1.0091 -3.8866 -1.9697 0.9823
1.3611 -3.8049 -1.9822 0.9822
1.7075 -3.6935 -1.9960 0.9820
2.3738 -3.3818 -2.0267 0.9818
2.6888 -3.1824 -2.0436 0.9816
2.9882 -2.9547 -2.0613 0.9815
2.3611 -1.0594 -1.2694 0.9885
3.8607 -1.3321 -2.0033 0.9820
4.1115 -0.6351 -2.0407 0.9816
4.2327 0.1090 -2.0769 0.9813
4.2127 0.8748 -2.1105 0.9810
4.1476 1.2569 -2.1259 0.9809
4.0454 1.6335 -2.1400 0.9808
3.7316 2.3539 -2.1642 0.9805
2.3775 3.7878 -2.1937 0.9803
2.0294 3.9850 -2.1936 0.9803
1.2838 4.2706 -2.1874 0.9803
-0.2893 4.3783 -2.1523 0.9806
-0.6754 4.3090 -2.1395 0.9808
-1.0509 4.2032 -2.1252 0.9809
-1.7558 3.8898 -2.0934 0.9812
-2.0791 3.6867 -2.0762 0.9813
-2.3796 3.4561 -2.0583 0.9815
-2.6552 3.2007 -2.0399 0.9816
-2.9038 2.9236 -2.0213 0.9818
-3.1242 2.6278 -2.0025 0.9820
-1.1579 0.2979 -0.5865 0.9947
-1.1828 0.1937 -0.5879 0.9947
-1.1953 0.0871 -0.5879 0.9947
-1.1922 -0.1271 -0.5881 0.9947
-1.1747 -0.2329 -0.5874 0.9947
-1.1517 -0.4530 -0.6071 0.9945
-1.1291 -0.5654 -0.6194 0.9944
-3.3627 -2.0790 -1.9393 0.9825
-2.9189 -2.6266 -1.9262 0.9827
-2.3953 -3.0923 -1.9187 0.9827
-2.1076 -3.2914 -1.9171 0.9827
-1.8049 -3.4664 -1.9170 0.9827
-1.4889 -3.6163 -1.9184 0.9827
-1.1614 -3.7404 -1.9211 0.9827
-0.1286 -3.9489 -1.9380 0.9826
0.2259 -3.9617 -1.9465 0.9825
0.5820 -3.9453 -1.9562 0.9824
1.2904 -3.8238 -1.9796 0.9822
1.9783 -3.5832 -2.0077 0.9819
2.3086 -3.4186 -2.0234 0.9818
2.6264 -3.2249 -2.0401 0.9816
2.9291 -3.0029 -2.0577 0.9815
3.2142 -2.7534 -2.0760 0.9813
3.7080 -2.1692 -2.1072 0.9810
2.5067 -0.9159 -1.3091 0.9882
3.9754 -1.0610 -2.0183 0.9818
4.1761 -0.3424 -2.0554 0.9815
4.2213 0.7973 -2.1073 0.9810
4.1637 1.1801 -2.1229 0.9809
3.7697 2.2838 -2.1620 0.9806
3.5669 2.6237 -2.1720 0.9805
3.3307 2.9431 -2.1802 0.9804
3.0632 3.2385 -2.1866 0.9803
2.7671 3.5064 -2.1910 0.9803
2.1012 3.9480 -2.1938 0.9803
1.7386 4.1169 -2.1921 0.9803
0.9736 4.3420 -2.1828 0.9804
0.5796 4.3964 -2.1752 0.9804
0.1836 4.4115 -2.1658 0.9805
-0.2104 4.3878 -2.1548 0.9806
-1.3404 4.0938 -2.1130 0.9810
-1.6879 3.9273 -2.0968 0.9811
-2.0156 3.7300 -2.0797 0.9813
-2.3209 3.5047 -2.0619 0.9814
-3.0821 2.6889 -2.0063 0.9819
-2.4546 1.7817 -1.4878 0.9866
-2.7850 1.6632 -1.5912 0.9857
-1.1540 0.4335 -0.6047 0.9945
-1.1787 0.2149 -0.5877 0.9947
-1.1938 0.1088 -0.5880 0.9947
-1.1941 -0.1055 -0.5880 0.9947
-1.1793 -0.2117 -0.5877 0.9947
-1.1587 -0.3171 -0.5893 0.9947
-0.1269 4.1339 -2.1456 0.9815
-1.8417 3.5532 -2.0762 0.9821
-2.6514 2.8649 -2.0251 0.9826
-2.8716 2.5936 -2.0074 0.9827
-2.4254 1.8251 -1.5747 0.9864
-0.9795 0.6081 -0.5981 0.9948
-1.0545 0.4170 -0.5883 0.9949
-1.0636 0.3140 -0.5753 0.9950
-1.1023 0.1196 -0.5752 0.9950
-1.1055 -0.0785 -0.5750 0.9950
-1.0599 -0.3742 -0.5831 0.9949
-1.0429 -0.4769 -0.5949 0.9948
-1.0016 -0.5714 -0.5982 0.9948
-2.8630 -2.3989 -1.9377 0.9833
-2.6306 -2.6387 -1.9329 0.9834
-2.3800 -2.8582 -1.9295 0.9834
-2.1127 -3.0562 -1.9275 0.9834
-1.8305 -3.2317 -1.9268 0.9834
-0.9105 -3.6134 -1.9332 0.9833
-0.5854 -3.6896 -1.9380 0.9833
-0.2541 -3.7390 -1.9442 0.9833
0.0815 -3.7613 -1.9517 0.9832
0.4192 -3.7558 -1.9605 0.9831
1.0930 -3.6605 -1.9819 0.9829
2.0663 -3.3056 -2.0223 0.9826
2.9386 -2.7029 -2.0713 0.9822
3.1956 -2.4502 -2.0891 0.9820
3.4227 -2.1680 -2.1019 0.9819
3.3819 -1.7398 -1.9730 0.9830
3.8222 -0.8012 -2.0260 0.9826
3.9119 -0.4602 -2.0434 0.9824
3.9704 -0.1097 -2.0605 0.9823
3.9882 0.6084 -2.0929 0.9820
3.9460 0.9694 -2.1079 0.9819
3.8690 1.3269 -2.1219 0.9817
3.4328 2.3429 -2.1561 0.9814
2.9814 2.9370 -2.1711 0.9813
1.7698 3.8097 -2.1792 0.9812
1.3420 3.7299 -2.0564 0.9823
0.6913 4.1167 -2.1656 0.9814
0.2208 2.8659 -1.4912 0.9871
-0.0522 4.1396 -2.1477 0.9815
-0.4198 4.0969 -2.1365 0.9816
-1.1285 3.9078 -2.1101 0.9818
-1.4629 3.7646 -2.0953 0.9820
-2.0773 3.3910 -2.0631 0.9822
-2.6037 2.9175 -2.0286 0.9825
-2.8293 2.6498 -2.0110 0.9827
-2.4032 1.8773 -1.5820 0.9864
-2.5109 1.6224 -1.5509 0.9866
-1.0510 0.4377 -0.5906 0.9949
-1.0628 0.3348 -0.5781 0.9950
-1.0810 0.2368 -0.5741 0.9950
-1.1000 0.1395 -0.5752 0.9950
-1.1066 0.0406 -0.5745 0.9950
-1.1063 -0.0585 -0.5747 0.9950
-1.0975 -0.1573 -0.5752 0.9950
-1.0762 -0.2541 -0.5737 0.9950
-1.0617 -0.3534 -0.5805 0.9950
-3.1160 -2.0858 -1.9453 0.9832
-2.9075 -2.3482 -1.9389 0.9833
-2.4320 -2.8156 -1.9301 0.9834
-2.1679 -3.0180 -1.9278 0.9834
-1.8886 -3.1982 -1.9268 0.9834
-1.5955 -3.3550 -1.9273 0.9834
-1.2905 -3.4875 -1.9291 0.9834
-0.6516 -3.6763 -1.9369 0.9833
-0.3214 -3.7312 -1.9428 0.9833
0.3510 -3.7592 -1.9586 0.9831
1.6849 -3.4782 -2.0050 0.9827
2.0032 -3.3374 -2.0193 0.9826
3.1454 -2.5032 -2.0854 0.9820
3.3440 -1.7974 -1.9695 0.9830
3.8004 -0.8686 -2.0224 0.9826
3.9926 0.5355 -2.0898 0.9820
3.9573 0.8967 -2.1050 0.9819
3.7827 1.6075 -2.1322 0.9816
3.4715 2.2785 -2.1542 0.9815
3.2671 2.5901 -2.1629 0.9814
3.0323 2.8810 -2.1699 0.9813
2.7692 3.1481 -2.1751 0.9813
2.1693 3.5989 -2.1800 0.9812
1.4920 3.9227 -2.1772 0.9813
1.1332 4.0325 -2.1730 0.9813
0.7661 4.1062 -2.1670 0.9814
-0.7079 4.0376 -2.1266 0.9817
-1.0591 3.9329 -2.1130 0.9818
-1.7175 3.6288 -2.0828 0.9821
-2.9900 2.4240 -1.9969 0.9828
-1.0105 0.5550 -0.5981 0.9948
-1.0615 0.3556 -0.5808 0.9950
-1.0756 0.2561 -0.5736 0.9950
-1.0972 0.1593 -0.5752 0.9950
-1.1066 -0.0385 -0.5744 0.9950
-1.0815 -0.2348 -0.5742 0.9950
-1.0629 -0.3326 -0.5778 0.9950
-1.0209 -0.5345 -0.5978 0.9948
-3.1556 -2.0306 -1.9467 0.9832
-2.7267 -2.5443 -1.9347 0.9833
-2.2225 -2.9789 -1.9281 0.9834
-1.9462 -3.1637 -1.9269 0.9834
-1.6557 -3.3252 -1.9271 0.9834
-0.3884 -3.7223 -1.9415 0.9833
-0.0544 -3.7556 -1.9485 0.9832
0.2827 -3.7614 -1.9568 0.9831
0.6208 -3.7392 -1.9664 0.9831
1.2914 -3.6102 -1.9891 0.9829
2.2498 -3.2051 -2.0315 0.9825
2.5472 -3.0147 -2.0475 0.9824
3.0943 -2.5552 -2.0818 0.9821
3.3342 -2.2847 -2.0968 0.9820
3.3050 -1.8542 -1.9660 0.9831
3.7775 -0.9354 -2.0189 0.9826
3.9506 -0.2522 -2.0537 0.9823
3.6746 1.8817 -2.1417 0.9816
3.0820 2.8241 -2.1686 0.9813
2.8245 3.0963 -2.1742 0.9813
2.5408 3.3421 -2.1780 0.9813
2.2338 3.5589 -2.1798 0.9812
1.5631 3.8962 -2.1778 0.9813
1.2064 4.0132 -2.1740 0.9813
-0.9892 3.9567 -2.1158 0.9818
-1.3298 3.8261 -2.1014 0.9819
-1.6542 3.6649 -2.0860 0.9820
-2.2442 3.2594 -2.0530 0.9823
-2.5053 3.0201 -2.0357 0.9825
-2.7414 2.7601 -2.0181 0.9826
-2.9510 2.4820 -2.0004 0.9828
-2.4680 1.7242 -1.5619 0.9865
-1.0005 0.5732 -0.5982 0.9948
-1.0597 0.3764 -0.5834 0.9949
-1.0697 0.2752 -0.5730 0.9950
-1.0939 0.1791 -0.5750 0.9950
-1.1054 0.0806 -0.5750 0.9950
-1.1025 -0.1176 -0.5752 0.9950
-1.0636 -0.3119 -0.5750 0.9950
-1.0548 -0.4149 -0.5880 0.9949
-1.0297 -0.5156 -0.5974 0.9948
-0.9806 -0.6063 -0.5981 0.9948
-2.9942 -2.2444 -1.9413 0.9833
-2.7736 -2.4958 -1.9357 0.9833
-2.5338 -2.7277 -1.9314 0.9834
-2.0031 -3.1282 -1.9271 0.9834
-1.1036 -3.5546 -1.9309 0.9834
-0.4553 -3.7123 -1.9403 0.9833
-0.1221 -3.7511 -1.9470 0.9832
0.2145 -3.7624 -1.9550 0.9832
0.8899 -3.7013 -1.9749 0.9830
1.2244 -3.6284 -1.9866 0.9829
1.5538 -3.5271 -1.9995 0.9828
1.8759 -3.3976 -2.0134 0.9827
2.1881 -3.2402 -2.0283 0.9825
2.4883 -3.0553 -2.0442 0.9824
3.2652 -1.9102 -1.9625 0.9831
2.2271 -1.0480 -1.2769 0.9890
3.7533 -1.0018 -2.0153 0.9826
3.8612 -0.6680 -2.0329 0.9825
3.9388 -0.3230 -2.0502 0.9823
3.9845 0.0306 -2.0671 0.9822
3.9197 1.1110 -2.1136 0.9818
3.8291 1.4662 -2.1271 0.9817
3.5450 2.1477 -2.1502 0.9815
3.3534 2.4666 -2.1596 0.9814
2.6001 3.2947 -2.1774 0.9813
1.9743 3.7094 -2.1800 0.9812
1.2323 3.8459 -2.0951 0.9820
0.9151 4.0809 -2.1696 0.9813
0.5449 4.1328 -2.1626 0.9814
-0.1979 4.1270 -2.1435 0.9816
-0.9188 3.9791 -2.1186 0.9818
-1.5902 3.6998 -2.0892 0.9820
-1.8998 3.5156 -2.0731 0.9822
-2.9109 2.5395 -2.0040 0.9827
-1.0368 0.4994 -0.5970 0.9948
-1.0573 0.3972 -0.5859 0.9949
-1.0638 0.2943 -0.5726 0.9950
-1.0901 0.1988 -0.5748 0.9950
-1.0907 -0.1958 -0.5749 0.9950
-1.0644 -0.2913 -0.5725 0.9950
0.1712 2.9084 -1.5957 0.9868
-0.4651 3.8508 -2.1244 0.9825
-1.1297 3.6624 -2.0992 0.9827
-1.4427 3.5228 -2.0850 0.9828
-2.0169 3.1626 -2.0544 0.9830
-2.2735 2.9463 -2.0383 0.9832
-2.5073 2.7092 -2.0218 0.9833
-2.7168 2.4539 -2.0051 0.9834
-0.8972 0.5570 -0.5784 0.9952
-0.9425 0.4741 -0.5779 0.9952
-0.9815 0.2898 -0.5605 0.9953
-1.0235 0.1110 -0.5639 0.9953
-1.0275 0.0191 -0.5629 0.9953
-0.9765 -0.3448 -0.5672 0.9953
-0.9578 -0.4380 -0.5768 0.9952
-0.9175 -0.5234 -0.5785 0.9952
-2.2649 -2.7200 -1.9386 0.9840
-1.7421 -3.0757 -1.9360 0.9840
-1.4608 -3.2202 -1.9367 0.9840
-0.5570 -3.5104 -1.9467 0.9839
-0.2417 -3.5569 -1.9526 0.9839
0.0775 -3.5774 -1.9598 0.9838
0.3986 -3.5714 -1.9682 0.9837
0.7198 -3.5387 -1.9778 0.9837
1.0388 -3.4790 -1.9886 0.9836
1.9618 -3.1384 -2.0271 0.9833
2.2507 -2.9720 -2.0419 0.9831
2.5264 -2.7799 -2.0574 0.9830
3.2418 -2.0534 -2.1018 0.9827
3.5031 -1.0688 -2.0060 0.9834
3.6144 -0.7576 -2.0226 0.9833
3.6975 -0.4350 -2.0391 0.9832
3.7510 -0.1036 -2.0552 0.9830
3.7737 0.2338 -2.0708 0.9829
3.7232 0.9147 -2.0999 0.9827
3.6492 1.2516 -2.1130 0.9826
3.4043 1.9016 -2.1357 0.9824
3.2348 2.2078 -2.1451 0.9823
2.2786 3.2333 -2.1665 0.9821
1.9814 3.4257 -2.1675 0.9821
1.3378 3.7181 -2.1642 0.9821
0.9981 3.8152 -2.1599 0.9822
0.6513 3.8784 -2.1539 0.9822
-0.3958 3.8627 -2.1267 0.9824
-1.3808 3.5533 -2.0879 0.9828
-1.6808 3.3914 -2.0731 0.9829
-1.9625 3.2035 -2.0576 0.9830
-2.2235 2.9917 -2.0416 0.9831
-2.4620 2.7587 -2.0251 0.9833
-0.8867 0.5729 -0.5782 0.9952
-0.9343 0.4914 -0.5782 0.9952
-0.9673 0.4029 -0.5739 0.9952
-1.0035 0.2198 -0.5627 0.9953
-1.0214 0.1295 -0.5639 0.9953
-1.0276 0.0377 -0.5632 0.9953
-0.9991 -0.2359 -0.5623 0.9953
-0.9785 -0.3257 -0.5648 0.9953
-0.9637 -0.4199 -0.5758 0.9952
-0.8768 -0.5869 -0.5779 0.9952
-2.5492 -2.4663 -1.9427 0.9840
-2.3143 -2.6794 -1.9391 0.9840
-1.7974 -3.0437 -1.9360 0.9840
-1.5185 -3.1929 -1.9365 0.9840
-1.2281 -3.3189 -1.9382 0.9840
-0.9280 -3.4208 -1.9413 0.9840
-0.6200 -3.4979 -1.9457 0.9839
-0.3057 -3.5496 -1.9513 0.9839
0.3337 -3.5748 -1.9664 0.9838
0.6550 -3.5474 -1.9758 0.9837
1.2905 -3.4119 -1.9979 0.9835
1.9021 -3.1689 -2.0243 0.9833
2.1934 -3.0077 -2.0388 0.9832
2.4720 -2.8207 -2.0542 0.9830
2.7355 -2.6088 -2.0703 0.9829
2.9816 -2.3729 -2.0871 0.9828
2.2480 -0.9602 -1.3388 0.9889
3.6831 -0.5009 -2.0358 0.9832
3.7717 0.1654 -2.0677 0.9829
3.7342 0.8461 -2.0971 0.9827
3.6668 1.1840 -2.1104 0.9826
3.5669 1.5157 -2.1227 0.9825
3.4348 1.8380 -2.1337 0.9824
3.2715 2.1473 -2.1433 0.9823
2.6083 2.9651 -2.1629 0.9822
2.3362 3.1910 -2.1661 0.9821
2.0429 3.3892 -2.1674 0.9821
1.7315 3.5576 -2.1670 0.9821
1.0674 3.7983 -2.1609 0.9822
0.7217 3.8684 -2.1553 0.9822
0.2751 2.8885 -1.5892 0.9869
0.0213 3.9057 -2.1392 0.9823
-0.6676 3.8078 -2.1174 0.9825
-1.3182 3.5826 -2.0908 0.9827
-1.9072 3.2434 -2.0608 0.9830
-2.1725 3.0363 -2.0448 0.9831
-2.4157 2.8073 -2.0285 0.9833
-0.8757 0.5885 -0.5779 0.9952
-0.9257 0.5084 -0.5784 0.9952
-0.9633 0.4218 -0.5760 0.9952
-0.9783 0.3277 -0.5651 0.9953
-1.0216 -0.1276 -0.5639 0.9953
-0.9800 -0.3067 -0.5624 0.9953
-0.9677 -0.4009 -0.5737 0.9952
-2.5945 -2.4209 -1.9436 0.9839
-2.1151 -2.8350 -1.9373 0.9840
-1.8522 -3.0109 -1.9361 0.9840
-1.5758 -3.1646 -1.9363 0.9840
-0.3696 -3.5412 -1.9501 0.9839
-0.0517 -3.5723 -1.9568 0.9838
0.2689 -3.5770 -1.9647 0.9838
0.5902 -3.5551 -1.9738 0.9837
0.9104 -3.5063 -1.9841 0.9836
1.2271 -3.4305 -1.9955 0.9835
1.5384 -3.3278 -2.0080 0.9834
1.8419 -3.1982 -2.0214 0.9833
2.6836 -2.6535 -2.0670 0.9829
2.9335 -2.4224 -2.0836 0.9828
3.1583 -2.1642 -2.0970 0.9827
3.1304 -1.7562 -1.9659 0.9838
3.5728 -0.8847 -2.0159 0.9834
3.6675 -0.5665 -2.0325 0.9832
3.7722 0.4367 -2.0798 0.9828
3.4640 1.7739 -2.1315 0.9824
3.3069 2.0860 -2.1415 0.9823
2.6604 2.9163 -2.1620 0.9822
1.7957 3.5261 -2.1673 0.9821
1.1363 3.7800 -2.1619 0.9822
0.3413 3.0073 -1.6577 0.9863
-0.2566 3.8825 -2.1311 0.9824
-0.9332 3.7326 -2.1073 0.9826
-1.2549 3.6108 -2.0937 0.9827
-2.5929 2.6106 -2.0152 0.9834
-0.9571 0.4398 -0.5769 0.9952
-0.9763 0.3468 -0.5674 0.9953
-1.0275 -0.0172 -0.5628 0.9953
-1.0085 -0.2000 -0.5631 0.9953
-0.9821 -0.2880 -0.5606 0.9953
-0.9712 -0.3820 -0.5716 0.9953
-0.9433 -0.4724 -0.5778 0.9952
-0.8983 -0.5554 -0.5784 0.9952
-2.8486 -2.1352 -1.9498 0.9839
-2.4112 -2.5957 -1.9404 0.9840
-1.0503 -3.3826 -1.9399 0.9840
-0.7452 -3.4698 -1.9437 0.9839
-0.1162 -3.5681 -1.9553 0.9839
0.5254 -3.5617 -1.9719 0.9837
0.8459 -3.5183 -1.9819 0.9836
2.3612 -2.8992 -2.0479 0.9831
2.6310 -2.6973 -2.0637 0.9830
