ply
format ascii 1.0
element vertex 1597
property float32 x
property float32 y
property float32 z
property float32 I
end_header
-8.8700 -0.3595 -1.8765 0.9644
-8.6664 -1.1330 -1.8475 0.9649
-8.1015 -2.5861 -1.7976 0.9658
-6.4322 -5.0642 -1.7305 0.9671
-5.3730 -6.0666 -1.7130 0.9674
-3.5583 -7.2481 -1.7068 0.9675
-2.9017 -7.5514 -1.7100 0.9675
-2.2228 -7.8073 -1.7159 0.9674
-1.5237 -8.0145 -1.7244 0.9672
-0.8065 -8.1714 -1.7357 0.9670
-0.0735 -8.2766 -1.7496 0.9667
0.6728 -8.3284 -1.7662 0.9664
2.1950 -8.2646 -1.8075 0.9656
2.9649 -8.1454 -1.8323 0.9652
3.7362 -7.9655 -1.8598 0.9647
4.5051 -7.7230 -1.8899 0.9641
5.2673 -7.4161 -1.9228 0.9635
6.7521 -6.6029 -1.9963 0.9621
8.1459 -5.5162 -2.0795 0.9606
8.7923 -4.8691 -2.1245 0.9597
9.3777 -4.1458 -2.1673 0.9589
9.6852 -2.3421 -2.1063 0.9601
10.0761 -1.4999 -2.1534 0.9592
10.3942 -0.6064 -2.2009 0.9583
10.6311 0.3320 -2.2483 0.9574
10.7787 1.3075 -2.2951 0.9566
9.0233 2.7883 -1.9963 0.9621
7.8172 3.2059 -1.7860 0.9660
6.8271 3.5429 -1.6259 0.9690
5.9976 3.8289 -1.5041 0.9713
4.5609 4.2249 -1.3141 0.9749
3.5829 4.7659 -1.2604 0.9759
3.0651 4.9421 -1.2293 0.9765
3.2835 -7.2863 -1.8783 0.9677
5.3408 -6.4464 -1.9675 0.9662
6.6332 -5.5863 -2.0382 0.9650
7.2397 -5.0647 -2.0765 0.9643
7.8117 -4.4825 -2.1167 0.9637
8.3297 -3.8348 -2.1552 0.9630
9.1974 -0.6770 -2.1674 0.9628
9.3982 0.1506 -2.2091 0.9621
9.5204 1.0083 -2.2500 0.9614
9.5584 1.8880 -2.2898 0.9608
7.9896 3.1357 -2.0172 0.9653
6.1204 3.7777 -1.6904 0.9709
3.1475 4.9069 -1.3701 0.9763
2.0873 5.0586 -1.2861 0.9778
1.6243 5.2167 -1.2841 0.9778
1.1606 5.3827 -1.2941 0.9776
0.0888 2.6611 -0.6258 0.9891
-0.3353 5.9683 -1.4049 0.9757
-0.9030 6.1573 -1.4626 0.9748
-1.8677 5.5502 -1.3763 0.9762
-3.8599 8.7822 -2.2546 0.9613
-4.5455 8.2498 -2.2137 0.9620
-5.7178 7.0334 -2.1303 0.9634
-6.6117 5.6740 -2.0477 0.9648
-6.9534 4.9613 -2.0075 0.9655
-2.6952 1.5800 -0.7343 0.9872
-8.0082 3.7773 -2.0810 0.9643
-8.1595 2.9900 -2.0424 0.9649
-8.2435 2.2084 -2.0057 0.9655
-8.2215 0.6820 -1.9389 0.9667
-8.1219 -0.0547 -1.9089 0.9672
-7.9675 -0.7691 -1.8812 0.9676
-7.7614 -1.4583 -1.8560 0.9681
-6.8638 -3.3513 -1.7952 0.9691
-6.4810 -3.9176 -1.7799 0.9694
-6.0610 -4.4489 -1.7670 0.9696
-5.6061 -4.9437 -1.7567 0.9698
-4.6016 -5.8187 -1.7435 0.9700
-4.0564 -6.1965 -1.7406 0.9700
-2.8912 -6.8263 -1.7423 0.9700
-2.2755 -7.0758 -1.7469 0.9699
-1.6406 -7.2802 -1.7539 0.9698
1.0450 -7.6173 -1.8070 0.9689
1.7402 -7.5743 -1.8265 0.9686
3.1386 -7.3250 -1.8729 0.9678
3.8350 -7.1158 -1.8998 0.9673
4.5242 -6.8484 -1.9290 0.9668
7.1165 -5.1780 -2.0684 0.9645
7.6962 -4.6083 -2.1082 0.9638
8.2343 -3.9779 -2.1492 0.9631
2.3763 -0.8959 -0.5969 0.9896
8.5087 -2.3643 -2.0755 0.9644
9.5577 1.7040 -2.2817 0.9609
9.5251 2.5945 -2.3202 0.9602
8.2263 3.0535 -2.0623 0.9646
7.1714 3.4194 -1.8672 0.9679
6.2860 3.7205 -1.7167 0.9704
5.5307 3.9812 -1.6016 0.9724
4.2580 4.4097 -1.4407 0.9751
3.2536 4.8708 -1.3767 0.9762
2.1842 5.0264 -1.2880 0.9777
0.7863 5.5223 -1.3110 0.9773
0.1398 2.6888 -0.6328 0.9890
-0.2224 5.9217 -1.3927 0.9759
-1.7431 5.5169 -1.3598 0.9765
-5.0425 7.7894 -2.1808 0.9626
-5.6089 7.1675 -2.1390 0.9633
-6.5321 5.8198 -2.0561 0.9647
-6.8882 5.1104 -2.0158 0.9654
-7.7318 4.7277 -2.1299 0.9634
-8.2315 2.3699 -2.0132 0.9654
-8.2642 1.5965 -1.9782 0.9660
-8.2351 0.8374 -1.9454 0.9666
-8.1472 0.0965 -1.9149 0.9671
-8.0039 -0.6228 -1.8868 0.9676
-7.5635 -1.9849 -1.8378 0.9684
-7.2726 -2.6229 -1.8170 0.9687
-6.9383 -3.2295 -1.7987 0.9690
-6.5636 -3.8029 -1.7828 0.9693
-5.7033 -4.8441 -1.7586 0.9697
-5.2225 -5.3090 -1.7503 0.9699
-4.7113 -5.7352 -1.7444 0.9700
-4.1717 -6.1214 -1.7410 0.9700
-1.7738 -7.2415 -1.7522 0.9698
-1.1253 -7.4090 -1.7613 0.9697
2.2939 -7.5020 -1.8437 0.9683
2.9936 -7.3612 -1.8676 0.9679
3.6909 -7.1639 -1.8940 0.9674
4.3819 -6.9087 -1.9228 0.9669
5.0625 -6.5944 -1.9539 0.9664
5.7278 -6.2200 -1.9872 0.9659
6.3727 -5.7849 -2.0228 0.9653
6.9918 -5.2886 -2.0604 0.9646
7.5789 -4.7315 -2.0998 0.9640
8.4285 -2.5116 -2.0670 0.9645
9.3240 -0.1970 -2.1918 0.9624
8.4739 2.9675 -2.1101 0.9638
6.4569 3.6614 -1.7445 0.9700
4.9970 4.1649 -1.5289 0.9736
4.3846 4.3752 -1.4558 0.9749
3.7975 4.5362 -1.3904 0.9760
3.3608 4.8343 -1.3838 0.9761
2.7596 4.8423 -1.3099 0.9774
1.3538 5.3126 -1.2885 0.9777
0.8852 5.4849 -1.3058 0.9774
-0.0539 2.8406 -0.6677 0.9884
-0.6618 6.0773 -1.4368 0.9752
-1.6314 5.5181 -1.3524 0.9766
-3.5571 8.9853 -2.2712 0.9611
-4.9164 7.9130 -2.1894 0.9624
-6.0083 6.6476 -2.1059 0.9639
-7.6737 4.8903 -2.1386 0.9633
-2.7717 1.4356 -0.7336 0.9873
-8.2166 2.5318 -2.0207 0.9653
-8.2460 0.9935 -1.9520 0.9664
-8.1701 0.2486 -1.9211 0.9670
-8.0380 -0.4754 -1.8924 0.9675
-7.8530 -1.1754 -1.8662 0.9679
-7.6182 -1.8487 -1.8424 0.9683
-7.0111 -3.1063 -1.8023 0.9690
-5.7990 -4.7428 -1.7607 0.9697
-5.3249 -5.2157 -1.7518 0.9698
-4.8198 -5.6500 -1.7454 0.9699
-3.7255 -6.3983 -1.7401 0.9700
-2.5335 -6.9777 -1.7447 0.9700
-1.9063 -7.2009 -1.7507 0.9699
-1.2612 -7.3782 -1.7592 0.9697
-0.6004 -7.5080 -1.7702 0.9695
0.0735 -7.5890 -1.7837 0.9693
0.7582 -7.6197 -1.7996 0.9690
1.4509 -7.5986 -1.8181 0.9687
2.1487 -7.5242 -1.8391 0.9684
3.5465 -7.2096 -1.8883 0.9675
4.2392 -6.9665 -1.9166 0.9670
6.8657 -5.3967 -2.0524 0.9648
8.0173 -4.2473 -2.1323 0.9634
8.7212 -1.9383 -2.0997 0.9640
9.0355 -1.1739 -2.1414 0.9633
9.2820 -0.3687 -2.1832 0.9625
9.4539 0.4711 -2.2246 0.9619
3.9147 4.5036 -1.4024 0.9758
2.3794 4.9627 -1.2935 0.9776
1.9121 5.1175 -1.2839 0.9778
1.4499 5.2782 -1.2865 0.9778
-1.1302 6.2325 -1.4887 0.9743
-2.5041 6.6857 -1.6779 0.9711
-4.1260 8.5881 -2.2393 0.9616
-4.7874 8.0345 -2.1981 0.9623
-5.3822 7.4307 -2.1564 0.9630
-6.7489 5.4070 -2.0324 0.9651
-8.1990 2.6941 -2.0283 0.9652
-8.1906 0.4016 -1.9273 0.9669
-8.0699 -0.3270 -1.8982 0.9674
-7.3987 -2.3618 -1.8253 0.9686
-7.0821 -2.9816 -1.8060 0.9689
-6.7239 -3.5690 -1.7891 0.9692
-4.3990 -5.9661 -1.7421 0.9700
-3.8439 -6.3283 -1.7402 0.9700
-2.0380 -7.1583 -1.7492 0.9699
0.6154 -7.6175 -1.7961 0.9691
3.4019 -7.2528 -1.8828 0.9676
4.0961 -7.0218 -1.9105 0.9671
4.7815 -6.7322 -1.9407 0.9666
6.1078 -5.9729 -2.0078 0.9655
6.7383 -5.5021 -2.0445 0.9649
7.3395 -4.9701 -2.0832 0.9642
7.9050 -4.3777 -2.1237 0.9636
8.2611 -2.7997 -2.0500 0.9648
8.6481 -2.0913 -2.0911 0.9641
8.9756 -1.3361 -2.1327 0.9634
9.2367 -0.5389 -2.1745 0.9627
9.4246 0.2943 -2.2161 0.9620
9.0055 2.7828 -2.2152 0.9620
3.0615 4.9362 -1.3651 0.9764
2.4779 4.9311 -1.2970 0.9776
4.8797 -5.8898 -1.9804 0.9689
5.4722 -5.5165 -2.0118 0.9684
7.0909 -4.0689 -2.1167 0.9668
8.0401 -1.3220 -2.1097 0.9669
8.2697 -0.6087 -2.1470 0.9663
8.4339 0.1351 -2.1840 0.9657
8.5274 0.9031 -2.2203 0.9652
8.4847 2.4813 -2.2889 0.9641
7.9750 3.1300 -2.2182 0.9652
6.9649 3.4811 -2.0160 0.9683
6.1111 3.7719 -1.8594 0.9708
5.3784 4.0252 -1.7394 0.9726
2.5969 4.9779 -1.4537 0.9771
0.6939 5.6188 -1.4659 0.9769
-0.3349 5.9614 -1.5459 0.9756
-0.9018 6.1492 -1.6092 0.9746
-5.5952 5.7462 -2.0766 0.9674
-6.2990 4.4943 -2.0035 0.9685
-2.7035 1.5849 -0.8114 0.9871
-7.5192 2.0144 -2.0155 0.9683
-7.5485 1.3133 -1.9838 0.9688
-7.1262 -1.3389 -1.8774 0.9705
-6.8993 -1.9483 -1.8562 0.9708
-6.6294 -2.5311 -1.8373 0.9711
-6.3190 -3.0853 -1.8207 0.9714
-5.9707 -3.6091 -1.8064 0.9716
-4.2460 -5.3691 -1.7723 0.9721
-3.7434 -5.7184 -1.7696 0.9722
-3.2167 -6.0288 -1.7693 0.9722
-2.6679 -6.2992 -1.7712 0.9721
-2.0993 -6.5281 -1.7755 0.9721
-1.5131 -6.7145 -1.7821 0.9720
-0.9115 -6.8571 -1.7910 0.9718
0.9615 -7.0090 -1.8318 0.9712
1.5998 -6.9634 -1.8499 0.9709
2.8796 -6.7205 -1.8931 0.9702
3.5143 -6.5208 -1.9179 0.9699
4.1406 -6.2677 -1.9450 0.9694
6.4734 -4.7101 -2.0728 0.9675
7.6834 -2.1350 -2.0647 0.9676
8.2273 -0.7595 -2.1392 0.9664
8.5141 0.7421 -2.2128 0.9653
8.5483 1.5241 -2.2482 0.9648
8.5040 2.3163 -2.2821 0.9642
8.2110 3.0478 -2.2677 0.9645
7.1594 3.4136 -2.0536 0.9678
6.2763 3.7147 -1.8883 0.9703
5.5227 3.9754 -1.7619 0.9723
4.8582 4.2046 -1.6636 0.9738
4.2589 4.4106 -1.5875 0.9750
2.6971 4.9439 -1.4582 0.9770
2.2188 5.1061 -1.4415 0.9773
0.7952 5.5849 -1.4606 0.9770
0.1391 2.6746 -0.6934 0.9890
-0.2225 5.9241 -1.5349 0.9758
-0.7803 6.1090 -1.5946 0.9749
-3.3209 7.9536 -2.2316 0.9650
-3.9537 7.5021 -2.1957 0.9656
-6.2375 4.6277 -2.0109 0.9684
-7.5058 2.1609 -2.0223 0.9682
-7.5472 1.4580 -1.9902 0.9687
-7.4610 0.0884 -1.9319 0.9696
-7.3388 -0.5710 -1.9059 0.9700
-7.1676 -1.2093 -1.8821 0.9704
-6.9501 -1.8239 -1.8604 0.9707
-6.6889 -2.4124 -1.8411 0.9710
-5.6693 -4.0015 -1.7967 0.9717
-4.8176 -4.8974 -1.7787 0.9720
-4.3471 -5.2919 -1.7732 0.9721
-3.8498 -5.6491 -1.7700 0.9721
-2.7836 -6.2464 -1.7706 0.9721
-1.0375 -6.8312 -1.7890 0.9719
0.1979 -6.9989 -1.8129 0.9715
0.8296 -7.0123 -1.8283 0.9712
1.4671 -6.9770 -1.8460 0.9710
2.7472 -6.7553 -1.8882 0.9703
5.2287 -5.6781 -1.9985 0.9686
6.3622 -4.8124 -2.0655 0.9676
6.8846 -4.2980 -2.1014 0.9670
2.3433 -0.9335 -0.6531 0.9896
7.6140 -2.2689 -2.0571 0.9677
8.1820 -0.9088 -2.1315 0.9666
8.3741 -0.1770 -2.1687 0.9660
8.5475 1.3606 -2.2410 0.9649
6.4468 3.6556 -1.9189 0.9698
4.9901 4.1592 -1.6820 0.9735
4.3789 4.3695 -1.6017 0.9748
3.8187 4.5615 -1.5403 0.9757
3.3566 4.8284 -1.5226 0.9760
1.8450 5.2323 -1.4365 0.9773
0.8959 5.5512 -1.4559 0.9770
0.1938 2.7437 -0.7122 0.9887
-3.1830 8.0402 -2.2389 0.9649
-3.8268 7.6003 -2.2032 0.9655
-4.4160 7.1076 -2.1666 0.9660
-4.9471 6.5697 -2.1294 0.9666
-6.1734 4.7604 -2.0184 0.9683
-2.7681 1.4337 -0.8071 0.9872
-7.3759 3.0181 -2.0634 0.9676
-7.5434 1.6031 -1.9967 0.9686
-7.4800 0.2276 -1.9376 0.9696
-7.3683 -0.4358 -1.9111 0.9700
-6.7465 -2.2925 -1.8449 0.9710
-6.4526 -2.8588 -1.8273 0.9713
-6.1197 -3.3955 -1.8121 0.9715
-5.3469 -4.3730 -1.7885 0.9719
-4.9117 -4.8109 -1.7801 0.9720
-4.4470 -5.2130 -1.7741 0.9721
-3.9551 -5.5781 -1.7705 0.9721
-2.8983 -6.1919 -1.7701 0.9721
-2.3376 -6.4382 -1.7734 0.9721
0.0677 -6.9902 -1.8100 0.9715
0.6979 -7.0135 -1.8249 0.9713
1.9743 -6.9136 -1.8616 0.9707
3.2516 -6.6101 -1.9073 0.9700
3.8819 -6.3793 -1.9335 0.9696
6.2497 -4.9124 -2.0582 0.9677
7.5424 -2.4010 -2.0494 0.9678
8.5434 1.1977 -2.2337 0.9650
8.4406 2.7810 -2.3010 0.9639
5.8231 3.8716 -1.8105 0.9715
5.1250 4.1127 -1.7014 0.9732
4.5010 4.3275 -1.6167 0.9745
3.9315 4.5229 -1.5516 0.9755
3.4647 4.7915 -1.5310 0.9759
1.0224 3.7218 -0.9993 0.9842
0.9960 5.5177 -1.4517 0.9771
0.2486 2.7824 -0.7233 0.9885
-0.0011 2.7655 -0.7160 0.9886
-2.5003 6.6756 -1.8457 0.9710
-4.8418 6.6847 -2.1371 0.9665
-6.1066 4.8924 -2.0259 0.9682
-6.4039 4.2504 -1.9901 0.9687
-2.7065 1.4662 -0.7970 0.9874
-7.4712 2.4549 -2.0362 0.9680
-7.4967 0.3676 -1.9434 0.9695
-7.3957 -0.2997 -1.9164 0.9699
-7.2445 -0.9471 -1.8917 0.9703
-7.0458 -1.5718 -1.8691 0.9706
-6.8024 -2.1714 -1.8488 0.9709
-6.5169 -2.7436 -1.8308 0.9712
-5.8299 -3.7985 -1.8016 0.9717
-5.4333 -4.2778 -1.7905 0.9718
-5.0045 -4.7229 -1.7817 0.9720
-4.5458 -5.1326 -1.7752 0.9721
-1.8801 -6.6036 -1.7777 0.9720
-0.0620 -6.9794 -1.8072 0.9716
3.1198 -6.6513 -1.9022 0.9701
4.3739 -6.1582 -1.9557 0.9693
6.1358 -5.0101 -2.0510 0.9678
7.8036 -1.8871 -2.0787 0.9674
8.3024 -0.4844 -2.1533 0.9662
8.5360 1.0354 -2.2263 0.9651
8.4663 2.6161 -2.2943 0.9640
6.8050 3.5314 -1.9851 0.9688
5.9796 3.8174 -1.8368 0.9711
4.6255 4.2847 -1.6325 0.9743
3.5741 4.7542 -1.5400 0.9757
3.3601 -5.9665 -1.9385 0.9719
3.9309 -5.7165 -1.9640 0.9716
6.4854 -3.7214 -2.1168 0.9694
6.8827 -3.1686 -2.1450 0.9690
6.7534 -2.4038 -2.0293 0.9706
7.5040 -0.5523 -2.1301 0.9692
7.7183 1.5245 -2.2272 0.9678
7.6523 2.2378 -2.2570 0.9674
6.9533 3.4753 -2.2006 0.9682
6.1017 3.7661 -2.0299 0.9706
4.1356 4.4453 -1.7188 0.9751
2.5938 4.9719 -1.5875 0.9770
0.6930 5.6120 -1.6008 0.9768
0.0876 2.6232 -0.7430 0.9891
-0.3345 5.9538 -1.6881 0.9755
-1.8620 5.5332 -1.6527 0.9760
-3.1261 7.1126 -2.1994 0.9682
-4.2130 6.2503 -2.1338 0.9692
-5.0925 5.2300 -2.0665 0.9701
-5.4499 4.6770 -2.0331 0.9706
-6.6658 3.1442 -2.0864 0.9698
-6.8147 2.4972 -2.0547 0.9703
-6.9053 1.8499 -2.0238 0.9707
-6.9412 1.2076 -1.9945 0.9711
-6.9244 0.5744 -1.9670 0.9715
-6.3772 -1.8008 -1.8759 0.9728
-5.8493 -2.8559 -1.8427 0.9733
-5.1771 -3.8001 -1.8180 0.9737
-4.3790 -4.6201 -1.8020 0.9739
-2.4746 -5.8427 -1.7963 0.9740
-1.4028 -6.2252 -1.8065 0.9738
-0.8447 -6.3551 -1.8149 0.9737
-0.2750 -6.4424 -1.8255 0.9735
0.3040 -6.4861 -1.8382 0.9734
1.4791 -6.4381 -1.8701 0.9729
2.0695 -6.3443 -1.8892 0.9726
3.2402 -6.0122 -1.9335 0.9720
4.3735 -5.4830 -1.9855 0.9713
5.4369 -4.7542 -2.0446 0.9704
6.3938 -3.8285 -2.1097 0.9695
6.8072 -3.2885 -2.1401 0.9691
2.3827 -0.8983 -0.7209 0.9895
7.4680 -0.6894 -2.1231 0.9693
7.6176 -0.0195 -2.1565 0.9688
7.7039 0.6715 -2.1892 0.9684
7.6719 2.0897 -2.2510 0.9675
7.5482 2.8018 -2.2793 0.9671
5.5147 3.9696 -1.9236 0.9721
4.8515 4.1988 -1.8164 0.9737
2.6939 4.9379 -1.5924 0.9769
1.2738 5.4175 -1.5755 0.9771
0.7943 5.5782 -1.5951 0.9768
0.1384 2.6622 -0.7547 0.9890
-0.2223 5.9166 -1.6761 0.9757
-0.7793 6.1009 -1.7412 0.9748
-1.7392 5.5043 -1.6342 0.9763
-3.0024 7.1909 -2.2060 0.9681
-3.5801 6.7932 -2.1738 0.9686
-4.1095 6.3480 -2.1408 0.9691
-5.6934 4.2239 -2.0069 0.9710
-5.9506 3.6386 -1.9745 0.9714
-6.6222 3.2753 -2.0915 0.9698
-6.8911 1.9840 -2.0301 0.9706
-6.9321 0.7049 -1.9725 0.9714
-6.4230 -1.6856 -1.8799 0.9728
-5.9111 -2.7513 -1.8458 0.9733
-5.2530 -3.7077 -1.8202 0.9736
-4.8750 -4.1405 -1.8107 0.9738
-4.0318 -4.9080 -1.7981 0.9739
-3.5710 -5.2400 -1.7951 0.9740
-3.0870 -5.5357 -1.7943 0.9740
-2.5819 -5.7939 -1.7957 0.9740
-2.0578 -6.0134 -1.7993 0.9739
-1.5170 -6.1931 -1.8050 0.9738
-0.3941 -6.4279 -1.8231 0.9736
0.1832 -6.4807 -1.8354 0.9734
0.7677 -6.4890 -1.8498 0.9732
1.3566 -6.4517 -1.8664 0.9730
3.1199 -6.0558 -1.9285 0.9721
3.6954 -5.8263 -1.9532 0.9717
4.2585 -5.5472 -1.9798 0.9713
4.8052 -5.2181 -2.0081 0.9709
6.7296 -3.4066 -2.1353 0.9691
2.3431 -0.9334 -0.7140 0.9896
6.9359 -2.0668 -2.0488 0.9704
7.2092 -1.4623 -2.0824 0.9699
7.5916 -0.1604 -2.1496 0.9689
7.6914 0.5266 -2.1825 0.9685
7.6884 1.9415 -2.2449 0.9676
7.5799 2.6545 -2.2736 0.9672
4.3731 4.3637 -1.7489 0.9746
3.8138 4.5557 -1.6819 0.9756
3.3525 4.8224 -1.6627 0.9759
2.3145 5.0667 -1.5769 0.9771
1.8428 5.2261 -1.5688 0.9772
-1.2553 6.2579 -1.8069 0.9738
-1.6289 5.5096 -1.6265 0.9764
-2.8768 7.2669 -2.2126 0.9680
-3.4641 6.8799 -2.1806 0.9685
-4.9279 5.4522 -2.0805 0.9699
-5.3083 4.9093 -2.0469 0.9704
-5.9018 3.7611 -1.9812 0.9713
-6.7606 2.7663 -2.0679 0.9701
-6.7955 -0.4019 -1.9271 0.9721
-6.4670 -1.5693 -1.8839 0.9727
-6.2389 -2.1200 -1.8654 0.9730
-5.9713 -2.6456 -1.8489 0.9732
-5.6668 -3.1442 -1.8346 0.9734
-4.9559 -4.0533 -1.8125 0.9737
-4.1243 -4.8347 -1.7990 0.9739
-3.6686 -5.1740 -1.7956 0.9740
-2.6884 -5.7435 -1.7952 0.9740
-2.1681 -5.9711 -1.7984 0.9739
-1.0780 -6.3063 -1.8112 0.9738
-0.5127 -6.4114 -1.8208 0.9736
0.0627 -6.4734 -1.8327 0.9734
1.2342 -6.4632 -1.8628 0.9730
2.4140 -6.2672 -1.9013 0.9725
4.1429 -5.6093 -1.9741 0.9714
4.6933 -5.2906 -2.0021 0.9710
5.2237 -4.9219 -2.0318 0.9706
6.8729 -2.1879 -2.0419 0.9705
7.1567 -1.5905 -2.0754 0.9700
7.3883 -0.9599 -2.1092 0.9695
7.7018 1.7934 -2.2387 0.9677
7.6085 2.5068 -2.2678 0.9672
6.6122 3.5888 -2.1298 0.9692
5.1177 4.1069 -1.8576 0.9731
3.4604 4.7856 -1.6718 0.9757
2.9499 4.9597 -1.6336 0.9763
1.9404 5.1932 -1.5694 0.9772
0.9948 5.5111 -1.5854 0.9770
-1.5421 5.5963 -1.6433 0.9762
-2.4965 6.6653 -2.0149 0.9708
-3.3460 6.9644 -2.1873 0.9684
-3.8958 6.5382 -2.1546 0.9689
-4.8420 5.5614 -2.0875 0.9698
-5.2339 5.0241 -2.0539 0.9703
-5.8506 3.8831 -1.9879 0.9712
-6.7299 2.9008 -2.0746 0.9700
-6.9252 1.6067 -2.0125 0.9709
-6.9409 0.9674 -1.9839 0.9713
-6.5092 -1.4521 -1.8880 0.9727
-6.2895 -2.0077 -1.8690 0.9729
-6.0300 -2.5386 -1.8522 0.9732
-5.4007 -3.5189 -1.8248 0.9736
-5.0356 -3.9647 -1.8144 0.9737
-3.2906 -5.4174 -1.7944 0.9740
-2.7940 -5.6914 -1.7949 0.9740
-1.7434 -6.1234 -1.8024 0.9739
-1.1938 -6.2791 -1.8094 0.9738
-0.6310 -6.3931 -1.8186 0.9736
-0.0574 -6.4641 -1.8300 0.9735
1.1118 -6.4728 -1.8592 0.9731
1.7020 -6.4083 -1.8770 0.9728
2.2919 -6.2965 -1.8969 0.9725
3.4578 -5.9276 -1.9427 0.9719
5.1155 -5.0025 -2.0255 0.9707
6.5591 -3.6324 -2.1226 0.9693
6.4680 -2.8594 -2.0020 0.9710
7.5316 -0.4394 -2.1358 0.9691
7.7121 1.6455 -2.2324 0.9677
7.4824 3.0686 -2.2894 0.9669
6.7938 3.5256 -2.1668 0.9687
4.6192 4.2789 -1.7825 0.9742
4.0407 4.4779 -1.7075 0.9752
3.5696 4.7482 -1.6817 0.9756
2.5775 -5.7196 -1.9296 0.9741
3.1135 -5.5286 -1.9516 0.9738
5.1133 -4.3063 -2.0562 0.9724
5.5569 -3.8875 -2.0859 0.9720
5.9691 -3.4252 -2.1168 0.9716
6.6899 -1.1000 -2.0853 0.9720
6.8606 -0.5050 -2.1159 0.9716
7.0290 1.3884 -2.2037 0.9705
6.8266 2.6792 -2.2556 0.9698
6.6263 3.3119 -2.2785 0.9695
5.3629 4.0136 -2.0603 0.9724
4.7162 4.2374 -1.9501 0.9738
2.5906 4.9659 -1.7227 0.9768
2.0975 5.0832 -1.6914 0.9772
1.6457 5.2855 -1.7027 0.9771
1.1738 5.4440 -1.7129 0.9770
0.6922 5.6051 -1.7371 0.9766
-0.3341 5.9460 -1.8318 0.9754
-0.8994 6.1327 -1.9065 0.9744
-1.5177 6.3360 -2.0039 0.9731
-1.8592 5.5249 -1.7930 0.9759
-2.8501 6.4847 -2.1787 0.9708
-3.3723 6.1205 -2.1494 0.9712
-3.8511 5.7135 -2.1193 0.9716
-5.0021 4.2927 -2.0274 0.9728
-5.2859 3.7714 -1.9972 0.9732
-5.5188 3.2353 -1.9677 0.9736
-5.7014 2.6893 -1.9389 0.9740
-6.2870 2.3038 -2.0595 0.9724
-6.2522 -0.6035 -1.9320 0.9741
-5.9232 -1.6726 -1.8931 0.9746
-5.4397 -2.6560 -1.8619 0.9750
-5.1455 -3.1103 -1.8493 0.9752
-4.8191 -3.5373 -1.8387 0.9753
-4.4628 -3.9355 -1.8302 0.9754
-3.6687 -4.6392 -1.8192 0.9756
-3.2352 -4.9420 -1.8168 0.9756
-2.7800 -5.2104 -1.8165 0.9756
-2.3054 -5.4432 -1.8182 0.9756
-1.8135 -5.6392 -1.8220 0.9755
-1.3064 -5.7973 -1.8278 0.9754
-0.2559 -5.9953 -1.8457 0.9752
0.2828 -6.0330 -1.8577 0.9750
0.8270 -6.0286 -1.8716 0.9749
1.3741 -5.9811 -1.8876 0.9746
1.9212 -5.8897 -1.9055 0.9744
3.0030 -5.5720 -1.9469 0.9739
4.5423 -4.7525 -2.0220 0.9729
5.8864 -3.5246 -2.1103 0.9717
6.9570 -0.0178 -2.1398 0.9713
7.0352 1.2543 -2.1980 0.9705
6.9801 1.9013 -2.2252 0.9702
5.5065 3.9637 -2.0869 0.9720
3.2416 4.8528 -1.7950 0.9759
2.2135 5.0938 -1.7083 0.9770
1.2723 5.4110 -1.7097 0.9770
0.7933 5.5713 -1.7309 0.9767
-0.2220 5.9089 -1.8187 0.9756
-0.7782 6.0927 -1.8892 0.9746
-3.7555 5.8012 -2.1256 0.9715
-4.1979 5.3643 -2.0951 0.9719
-4.5922 4.8948 -2.0644 0.9723
-4.9369 4.3986 -2.0338 0.9727
-5.2311 3.8810 -2.0034 0.9731
-5.6676 2.8032 -1.9448 0.9739
-6.2616 2.4273 -2.0656 0.9723
-6.4151 0.6523 -1.9833 0.9734
-6.1414 -1.0362 -1.9157 0.9743
-5.9648 -1.5654 -1.8968 0.9745
-5.2093 -3.0182 -1.8518 0.9751
-4.8894 -3.4510 -1.8407 0.9753
-4.5391 -3.8553 -1.8318 0.9754
-4.1606 -4.2295 -1.8248 0.9755
-3.7558 -4.5721 -1.8199 0.9755
-3.3270 -4.8819 -1.8171 0.9756
-2.4054 -5.3979 -1.8177 0.9756
-1.9169 -5.6016 -1.8210 0.9755
-1.4128 -5.7677 -1.8265 0.9755
-0.8953 -5.8949 -1.8339 0.9754
-0.3668 -5.9823 -1.8435 0.9752
0.1704 -6.0286 -1.8550 0.9751
0.7137 -6.0330 -1.8686 0.9749
1.2605 -5.9946 -1.8841 0.9747
2.8921 -5.6134 -1.9422 0.9739
3.4223 -5.3957 -1.9653 0.9736
3.9398 -5.1321 -1.9900 0.9733
4.9211 -4.4671 -2.0442 0.9726
5.3763 -4.0667 -2.0734 0.9722
5.8021 -3.6223 -2.1038 0.9718
6.1848 -3.1308 -2.1322 0.9714
2.3427 -0.9333 -0.7756 0.9895
6.3620 -1.8958 -2.0418 0.9726
6.6038 -1.3395 -2.0725 0.9722
6.7962 -0.7549 -2.1032 0.9718
6.9352 -0.1465 -2.1336 0.9714
6.9969 1.7669 -2.2196 0.9703
6.4262 3.6440 -2.2722 0.9696
4.9761 4.1475 -1.9925 0.9733
4.3672 4.3578 -1.8976 0.9745
3.3483 4.8164 -1.8042 0.9758
2.3117 5.0605 -1.7112 0.9770
1.8406 5.2198 -1.7024 0.9771
0.8938 5.5378 -1.7253 0.9768
0.1948 2.7575 -0.8503 0.9885
-0.0531 2.7996 -0.8613 0.9883
-0.6592 6.0535 -1.8729 0.9748
-3.1606 6.2772 -2.1617 0.9710
-4.5144 4.9947 -2.0708 0.9722
-4.8695 4.5035 -2.0401 0.9726
-5.1742 3.9899 -2.0097 0.9730
-6.3464 1.9555 -2.0426 0.9726
-4.9583 -3.3635 -1.8429 0.9752
-4.6142 -3.7738 -1.8335 0.9754
-4.2414 -4.1544 -1.8261 0.9755
-3.8419 -4.5037 -1.8208 0.9755
-2.5047 -5.3510 -1.8172 0.9756
-1.0037 -5.8718 -1.8322 0.9754
-0.4773 -5.9675 -1.8413 0.9753
0.6006 -6.0356 -1.8656 0.9749
1.1469 -6.0061 -1.8807 0.9747
1.6943 -5.9330 -1.8978 0.9745
2.2400 -5.8155 -1.9168 0.9743
3.3132 -5.4447 -1.9604 0.9737
3.8337 -5.1906 -1.9848 0.9734
4.8233 -4.5446 -2.0383 0.9726
5.2841 -4.1535 -2.0673 0.9723
2.3408 -0.9833 -0.7809 0.9894
6.3060 -2.0074 -2.0355 0.9727
6.7605 -0.8783 -2.0969 0.9719
6.9110 -0.2745 -2.1273 0.9715
7.0050 0.3491 -2.1572 0.9711
7.0108 1.6325 -2.2141 0.9703
6.9178 2.2792 -2.2403 0.9700
5.8055 3.8599 -2.1443 0.9712
5.1104 4.1010 -2.0154 0.9730
4.4889 4.3158 -1.9153 0.9743
2.9463 4.9536 -1.7727 0.9762
2.4102 5.0271 -1.7148 0.9769
1.0127 3.6868 -1.1760 0.9841
-0.0010 2.6477 -0.8144 0.9890
-0.5422 6.0148 -1.8575 0.9750
-1.1256 6.2071 -1.9403 0.9739
-1.5427 5.5984 -1.7861 0.9760
-4.4344 5.0933 -2.0771 0.9721
-4.7999 4.6075 -2.0464 0.9725
-5.1152 4.0981 -2.0160 0.9729
-6.3990 1.4846 -2.0205 0.9729
-6.3203 -0.2561 -1.9456 0.9739
-6.0430 -1.3481 -1.9044 0.9744
-5.0260 -3.2747 -1.8451 0.9752
-4.3210 -4.0779 -1.8275 0.9754
-3.5078 -4.7574 -1.8180 0.9756
-2.6031 -5.3025 -1.8169 0.9756
-1.6238 -5.7034 -1.8240 0.9755
2.1271 -5.8436 -1.9127 0.9743
2.6691 -5.6904 -1.9332 0.9740
3.2035 -5.4917 -1.9555 0.9737
3.7268 -5.2471 -1.9796 0.9734
4.2351 -4.9566 -2.0053 0.9731
5.1907 -4.2383 -2.0612 0.9723
5.9440 -2.6278 -1.9989 0.9732
6.7226 -1.0007 -2.0905 0.9720
6.8842 -0.4017 -2.1210 0.9716
6.9903 0.2183 -2.1511 0.9712
7.0372 0.8536 -2.1803 0.9708
6.7972 2.7876 -2.2597 0.9697
6.5857 3.4176 -2.2821 0.9694
5.9613 3.8058 -2.1754 0.9708
5.2479 4.0534 -2.0396 0.9726
4.6129 4.2731 -1.9340 0.9740
3.0502 4.9181 -1.7800 0.9761
3.3840 -4.9212 -1.9853 0.9751
4.3097 -4.3446 -2.0342 0.9745
4.7416 -3.9932 -2.0606 0.9742
5.1475 -3.6011 -2.0882 0.9739
5.5233 -3.1694 -2.1168 0.9735
6.1619 -1.0132 -2.0758 0.9740
6.4110 0.1027 -2.1313 0.9733
6.3762 1.8646 -2.2083 0.9724
6.2475 2.4520 -2.2309 0.9721
6.0590 3.0283 -2.2516 0.9719
4.1246 4.4335 -2.0129 0.9748
3.5839 4.6194 -1.9435 0.9757
3.0990 4.8313 -1.9079 0.9761
2.5874 4.9598 -1.8595 0.9767
2.0949 5.0770 -1.8257 0.9771
-0.3336 5.9382 -1.9770 0.9752
-1.5156 6.3269 -2.1626 0.9729
-3.0986 5.6239 -2.1344 0.9733
-3.9451 4.8529 -2.0789 0.9740
-4.3039 4.4201 -2.0507 0.9743
-4.6175 3.9626 -2.0226 0.9747
-4.8850 3.4854 -1.9947 0.9750
-5.2807 2.4908 -1.9408 0.9757
-5.9195 1.5858 -2.0371 0.9745
-5.9598 0.4944 -1.9879 0.9751
-5.6931 -1.0697 -1.9255 0.9759
-5.3191 -2.0308 -1.8926 0.9763
-5.0791 -2.4799 -1.8788 0.9765
-4.8065 -2.9054 -1.8669 0.9766
-3.8135 -4.0235 -1.8427 0.9769
-2.6000 -4.8729 -1.8359 0.9770
-2.1560 -5.0903 -1.8376 0.9770
-1.6957 -5.2729 -1.8411 0.9769
-1.2213 -5.4196 -1.8467 0.9769
-0.7350 -5.5293 -1.8541 0.9768
0.2641 -5.6340 -1.8748 0.9765
0.7719 -5.6270 -1.8880 0.9763
1.2819 -5.5795 -1.9030 0.9762
1.7911 -5.4907 -1.9198 0.9759
2.2967 -5.3600 -1.9384 0.9757
2.7955 -5.1870 -1.9586 0.9755
3.2842 -4.9713 -1.9805 0.9752
3.7593 -4.7130 -2.0040 0.9749
4.2172 -4.4123 -2.0288 0.9746
5.4480 -3.2622 -2.1108 0.9736
5.9180 -1.6445 -2.0417 0.9744
6.2848 -0.5801 -2.0980 0.9737
6.4515 0.5623 -2.1527 0.9731
6.1031 2.9100 -2.2475 0.9719
5.4983 3.9578 -2.2519 0.9718
4.8379 4.1870 -2.1268 0.9734
4.2419 4.3930 -2.0299 0.9746
2.6873 4.9258 -1.8652 0.9766
2.2107 5.0876 -1.8439 0.9769
1.7410 5.2462 -1.8374 0.9770
-1.7351 5.4915 -1.9144 0.9760
-2.5112 6.0145 -2.1665 0.9729
-3.0015 5.6954 -2.1400 0.9732
-3.4538 5.3353 -2.1127 0.9736
-3.8651 4.9391 -2.0848 0.9739
-4.2331 4.5121 -2.0566 0.9743
-4.8333 3.5858 -2.0005 0.9750
-5.0640 3.0964 -1.9730 0.9753
-5.7964 2.2470 -2.0665 0.9741
-5.9575 1.1509 -2.0169 0.9747
-5.9640 0.6064 -1.9927 0.9750
-5.8452 -0.4548 -1.9488 0.9756
-5.7234 -0.9657 -1.9294 0.9758
-4.8657 -2.8191 -1.8692 0.9766
-4.5687 -3.2247 -1.8589 0.9767
-4.2428 -3.6036 -1.8504 0.9768
-3.5121 -4.2754 -1.8392 0.9769
-2.6899 -4.8235 -1.8358 0.9770
-2.2495 -5.0480 -1.8371 0.9770
-1.7924 -5.2379 -1.8402 0.9769
-1.3208 -5.3922 -1.8454 0.9769
-0.8368 -5.5096 -1.8524 0.9768
0.1592 -5.6304 -1.8723 0.9765
1.1760 -5.5928 -1.8997 0.9762
3.1837 -5.0196 -1.9759 0.9753
4.1237 -4.4782 -2.0236 0.9747
4.9824 -3.7687 -2.0766 0.9740
2.3424 -0.9332 -0.8381 0.9894
5.8696 -1.7491 -2.0359 0.9745
6.3762 -0.1347 -2.1200 0.9735
6.4443 0.4413 -2.1471 0.9731
6.4121 1.6192 -2.1983 0.9725
5.9212 3.3576 -2.2627 0.9717
3.8039 4.5439 -1.9698 0.9753
3.2830 4.7225 -1.9118 0.9760
2.7877 4.8916 -1.8715 0.9765
0.9113 3.5765 -1.2268 0.9846
0.1955 2.7681 -0.9224 0.9884
-0.0533 2.8112 -0.9346 0.9882
-0.6583 6.0454 -2.0214 0.9747
-3.7833 5.0241 -2.0906 0.9738
-4.1604 4.6030 -2.0624 0.9742
-4.7796 3.6856 -2.0063 0.9749
-5.7651 2.3589 -2.0706 0.9741
-5.8879 1.8142 -2.0480 0.9744
-5.8654 -0.3469 -1.9531 0.9755
-5.4086 -1.8379 -1.8988 0.9762
-4.3127 -3.5272 -1.8520 0.9768
-3.5925 -4.2113 -1.8400 0.9769
-2.7790 -4.7727 -1.8358 0.9770
-2.3424 -5.0042 -1.8366 0.9770
-1.8886 -5.2014 -1.8394 0.9769
-1.4198 -5.3631 -1.8441 0.9769
-0.9381 -5.4883 -1.8508 0.9768
2.0875 -5.4194 -1.9304 0.9758
2.5894 -5.2640 -1.9500 0.9756
3.0827 -5.0660 -1.9712 0.9753
4.4755 -4.2169 -2.0440 0.9744
4.8980 -3.8500 -2.0709 0.9741
5.2931 -3.4427 -2.0989 0.9737
6.4590 0.9055 -2.1680 0.9729
6.3347 2.0871 -2.2170 0.9723
5.9724 3.2416 -2.2588 0.9718
4.4827 4.3099 -2.0671 0.9741
1.9357 5.1806 -1.8383 0.9770
0.9746 3.5479 -1.2230 0.9846
0.2562 2.8679 -0.9571 0.9879
-1.1240 6.1985 -2.0940 0.9738
-1.5433 5.6006 -1.9310 0.9758
-2.2974 6.1336 -2.1772 0.9728
-3.2709 5.4894 -2.1241 0.9734
-3.6995 5.1076 -2.0964 0.9738
-4.0857 4.6928 -2.0683 0.9741
-4.4276 4.2501 -2.0401 0.9745
-4.7239 3.7846 -2.0120 0.9748
-5.3347 2.2994 -1.9310 0.9758
-5.8689 1.9285 -2.0535 0.9743
-5.9471 0.2916 -1.9792 0.9752
-5.8838 -0.2384 -1.9574 0.9755
-5.6339 -1.2569 -1.9188 0.9760
-5.4511 -1.7401 -1.9021 0.9762
-4.9800 -2.6433 -1.8741 0.9765
-4.3815 -3.4497 -1.8537 0.9768
-4.0395 -3.8123 -1.8463 0.9769
-3.6718 -4.1458 -1.8409 0.9769
-3.2804 -4.4490 -1.8374 0.9770
-1.9841 -5.1634 -1.8387 0.9770
-1.5182 -5.3325 -1.8430 0.9769
-1.0391 -5.4654 -1.8493 0.9768
-0.5488 -5.5609 -1.8575 0.9767
0.9643 -5.6139 -1.8934 0.9763
2.4859 -5.2997 -1.9458 0.9756
3.4652 -4.8789 -1.9892 0.9751
3.9343 -4.6045 -2.0132 0.9748
4.8124 -3.9295 -2.0652 0.9742
5.5827 -3.0916 -2.1213 0.9735
6.0012 -1.4512 -2.0523 0.9743
6.1908 -0.9215 -2.0805 0.9740
6.4226 0.2006 -2.1359 0.9733
6.4586 0.7834 -2.1626 0.9729
6.3586 1.9648 -2.2122 0.9723
6.2198 2.5508 -2.2346 0.9721
6.0211 3.1246 -2.2549 0.9718
3.0256 4.8784 -1.9082 0.9761
2.5062 4.9874 -1.8554 0.9767
2.2447 -4.9811 -1.9538 0.9771
2.7075 -4.8077 -1.9732 0.9768
4.4157 -3.7188 -2.0645 0.9758
4.7893 -3.3505 -2.0902 0.9755
5.1332 -2.9455 -2.1164 0.9752
5.0541 -2.3268 -1.9897 0.9766
5.5277 -1.4260 -2.0415 0.9760
5.8379 -0.4297 -2.0933 0.9754
5.9238 0.0949 -2.1187 0.9751
5.9444 1.1741 -2.1668 0.9746
5.0592 3.7863 -2.2598 0.9735
4.7029 4.2255 -2.2609 0.9735
4.1190 4.4275 -2.1625 0.9746
3.4146 4.4012 -1.9920 0.9766
1.6417 5.2725 -1.9748 0.9768
0.6904 5.5911 -2.0146 0.9764
0.0914 2.7394 -0.9802 0.9884
-0.8969 6.1158 -2.2105 0.9741
-1.4276 5.9597 -2.1915 0.9743
-2.8628 5.1959 -2.1215 0.9751
-3.2763 4.8606 -2.0962 0.9754
-3.6521 4.4924 -2.0704 0.9757
-3.9882 4.0959 -2.0444 0.9760
-4.2831 3.6757 -2.0184 0.9763
-4.5358 3.2363 -1.9926 0.9766
-4.7457 2.7821 -1.9672 0.9769
-5.4162 1.9847 -2.0628 0.9758
-5.5637 0.4615 -1.9964 0.9766
-5.5239 -0.0372 -1.9754 0.9768
-5.4441 -0.5255 -1.9559 0.9770
-5.3259 -1.0007 -1.9379 0.9772
-5.1710 -1.4602 -1.9215 0.9774
-4.9814 -1.9019 -1.9068 0.9776
-4.7589 -2.3236 -1.8938 0.9778
-2.8389 -4.3366 -1.8536 0.9782
-2.4396 -4.5723 -1.8533 0.9782
-2.0228 -4.7760 -1.8548 0.9782
-1.5908 -4.9467 -1.8582 0.9782
-1.1455 -5.0834 -1.8634 0.9781
-0.6892 -5.1850 -1.8705 0.9780
1.2001 -5.2235 -1.9166 0.9775
1.6759 -5.1375 -1.9325 0.9773
2.1476 -5.0121 -1.9500 0.9771
2.6122 -4.8470 -1.9690 0.9769
3.0666 -4.6421 -1.9896 0.9766
3.9315 -4.1134 -2.0348 0.9761
5.0651 -3.0329 -2.1112 0.9752
5.3656 -2.5921 -2.1310 0.9750
2.3945 -0.9028 -0.9151 0.9892
5.6717 -1.0411 -2.0621 0.9758
5.8141 -0.5367 -2.0880 0.9755
5.9099 -0.0151 -2.1134 0.9752
5.9567 0.5192 -2.1382 0.9749
5.9520 1.0612 -2.1620 0.9746
5.8942 1.6055 -2.1846 0.9744
5.7823 2.1463 -2.2057 0.9741
5.6160 2.6777 -2.2249 0.9739
5.3955 3.1934 -2.2421 0.9737
4.2361 4.3871 -2.1808 0.9744
3.0979 4.6377 -1.9945 0.9766
2.2080 5.0812 -1.9812 0.9767
0.8846 3.7621 -1.3820 0.9837
0.7913 5.5574 -2.0074 0.9764
0.1429 2.7490 -0.9844 0.9884
-0.2214 5.8935 -2.1090 0.9753
-0.7761 6.0762 -2.1905 0.9743
-1.3193 5.9972 -2.1959 0.9743
-3.5773 4.5713 -2.0758 0.9756
-3.9218 4.1803 -2.0498 0.9759
-4.2254 3.7646 -2.0238 0.9762
-4.4869 3.3288 -1.9979 0.9765
-4.7056 2.8774 -1.9724 0.9768
-4.8816 2.4144 -1.9475 0.9771
-5.5022 1.5841 -2.0476 0.9760
-5.5561 1.0733 -2.0236 0.9762
-5.5355 0.0655 -1.9797 0.9768
-5.3535 -0.9032 -1.9415 0.9772
-5.2061 -1.3662 -1.9248 0.9774
-4.8077 -2.2378 -1.8964 0.9777
-3.9791 -3.3796 -1.8669 0.9781
-3.2951 -4.0112 -1.8564 0.9782
-2.5239 -4.5259 -1.8532 0.9782
-1.6816 -4.9141 -1.8573 0.9782
-0.7847 -5.1668 -1.8689 0.9780
-0.3213 -5.2400 -1.8774 0.9779
1.1011 -5.2365 -1.9136 0.9775
2.5165 -4.8845 -1.9649 0.9769
2.9733 -4.6879 -1.9852 0.9767
3.8451 -4.1755 -2.0299 0.9762
4.2530 -3.8607 -2.0541 0.9759
5.3070 -2.6865 -2.1271 0.9750
5.4420 -1.6217 -2.0307 0.9762
5.9573 0.9483 -2.1572 0.9747
5.9106 1.4926 -2.1800 0.9744
5.8100 2.0346 -2.2014 0.9742
5.6550 2.5685 -2.2211 0.9740
5.1833 3.5868 -2.2541 0.9736
4.8697 4.0588 -2.2670 0.9734
4.3552 4.3459 -2.2002 0.9742
3.5861 4.2838 -1.9978 0.9765
3.1828 4.5783 -1.9940 0.9766
2.7842 4.8854 -2.0109 0.9764
2.3060 5.0480 -1.9846 0.9767
0.9079 3.5628 -1.3148 0.9845
-0.0532 2.8030 -1.0026 0.9882
-1.2101 6.0325 -2.2002 0.9742
-1.6253 5.4975 -2.0501 0.9759
-2.2190 5.6052 -2.1558 0.9747
-2.6808 5.3243 -2.1317 0.9750
-3.8536 4.2637 -2.0552 0.9759
-4.1658 3.8527 -2.0292 0.9762
-4.6638 2.9721 -1.9777 0.9768
-2.7538 1.4263 -1.1090 0.9869
-5.4847 1.6900 -2.0524 0.9759
-5.4820 -0.3242 -1.9638 0.9769
-4.8551 -2.1511 -1.8990 0.9777
-4.3433 -2.9463 -1.8769 0.9780
-3.3704 -3.9509 -1.8571 0.9782
-2.9991 -4.2297 -1.8542 0.9782
-1.7719 -4.8799 -1.8566 0.9782
-0.4181 -5.2278 -1.8755 0.9780
0.0511 -5.2720 -1.8854 0.9779
2.4204 -4.9203 -1.9609 0.9770
2.8795 -4.7319 -1.9809 0.9767
4.1702 -3.9292 -2.0490 0.9760
4.5598 -3.5842 -2.0741 0.9757
5.2468 -2.7796 -2.1233 0.9751
5.5996 -1.2445 -2.0513 0.9759
5.9603 0.8356 -2.1523 0.9748
5.9247 1.3796 -2.1754 0.9745
5.4935 2.9816 -2.2352 0.9738
4.4765 4.3039 -2.2207 0.9740
3.9109 4.4993 -2.1318 0.9750
2.8521 4.7952 -1.9952 0.9766
1.9333 5.1742 -1.9753 0.9768
-0.5407 5.9987 -2.1539 0.9747
-1.0999 6.0656 -2.2045 0.9742
-1.5439 5.6027 -2.0783 0.9756
-2.5876 5.3860 -2.1368 0.9749
-4.9647 2.1399 -1.9333 0.9773
-5.4622 1.7948 -2.0561 0.9759
-5.4039 -0.7065 -1.9489 0.9771
-4.6667 -2.4771 -1.8894 0.9778
-4.1087 -3.2349 -1.8701 0.9780
-3.7890 -3.5758 -1.8631 0.9781
-2.2842 -4.6530 -1.8536 0.9782
-1.8615 -4.8444 -1.8559 0.9782
-1.4242 -5.0024 -1.8600 0.9781
-0.9745 -5.1259 -1.8659 0.9781
-0.5146 -5.2141 -1.8736 0.9780
-0.0468 -5.2659 -1.8832 0.9779
0.4266 -5.2806 -1.8945 0.9777
1.8545 -5.0948 -1.9389 0.9772
2.7851 -4.7743 -1.9766 0.9768
3.2348 -4.5544 -1.9977 0.9765
4.8500 -3.2843 -2.0947 0.9754
5.1000 -2.2546 -1.9941 0.9766
5.5608 -1.3447 -2.0459 0.9760
5.7307 -0.8530 -2.0719 0.9757
5.9335 0.1853 -2.1229 0.9751
5.9610 0.7231 -2.1473 0.9748
5.5391 2.8745 -2.2317 0.9738
5.2985 3.3826 -2.2480 0.9736
5.0059 3.8665 -2.2620 0.9735
2.9404 4.7410 -1.9950 0.9766
2.5030 4.9811 -1.9935 0.9766
2.1055 -4.6722 -1.9639 0.9783
2.9597 -4.3042 -2.0018 0.9779
3.3674 -4.0644 -2.0227 0.9776
4.1274 -3.4760 -2.0679 0.9771
4.7871 -2.7469 -2.1151 0.9766
4.7123 -2.1694 -1.9880 0.9780
5.5281 0.5855 -2.1303 0.9765
5.4412 1.5912 -2.1725 0.9760
5.3234 2.0893 -2.1915 0.9758
5.1557 2.5769 -2.2088 0.9756
4.3637 3.9207 -2.2481 0.9752
4.0106 4.3109 -2.2564 0.9751
2.5809 4.9473 -2.1384 0.9764
2.0897 5.0644 -2.0995 0.9768
1.1578 3.7183 -1.4924 0.9835
1.1694 5.4237 -2.1262 0.9765
0.6895 5.5839 -2.1561 0.9762
0.0911 2.7287 -1.0463 0.9884
-0.3236 5.7595 -2.2106 0.9756
-1.3220 5.5188 -2.1747 0.9760
-2.2394 5.0951 -2.1328 0.9764
-2.6573 4.8229 -2.1102 0.9767
-3.0437 4.5156 -2.0868 0.9769
-3.3958 4.1772 -2.0630 0.9772
-3.9896 3.4238 -2.0147 0.9777
-2.7312 1.6011 -1.2132 0.9865
-4.5879 2.1640 -1.9439 0.9785
-4.7080 1.7252 -1.9215 0.9788
-5.1596 1.3822 -2.0470 0.9774
-5.2062 0.9058 -2.0251 0.9776
-4.2355 -2.5603 -1.8966 0.9790
-3.3656 -3.5510 -1.8749 0.9793
-2.2956 -4.3025 -1.8688 0.9793
-1.9034 -4.4940 -1.8703 0.9793
-1.4967 -4.6541 -1.8735 0.9793
-0.6482 -4.8764 -1.8852 0.9791
-0.2107 -4.9368 -1.8936 0.9791
0.6793 -4.9519 -1.9154 0.9788
4.0526 -3.5437 -2.0630 0.9772
4.4035 -3.2040 -2.0869 0.9769
4.7274 -2.8306 -2.1115 0.9767
2.4060 -0.9071 -0.9854 0.9890
5.2751 -0.9683 -2.0553 0.9773
5.5259 0.4816 -2.1257 0.9765
5.5171 0.9836 -2.1476 0.9763
5.4594 1.4870 -2.1684 0.9761
5.3520 1.9866 -2.1877 0.9758
5.1946 2.4768 -2.2054 0.9756
4.9878 2.9521 -2.2211 0.9755
3.4634 4.2969 -2.1149 0.9766
2.9809 4.4626 -2.0566 0.9773
2.6805 4.9134 -2.1449 0.9763
2.2052 5.0748 -2.1204 0.9766
0.8822 3.7521 -1.4771 0.9836
0.7903 5.5503 -2.1484 0.9763
-0.7265 5.6875 -2.1972 0.9757
-1.2215 5.5527 -2.1788 0.9759
-1.6971 5.3714 -2.1587 0.9762
-2.5731 4.8824 -2.1150 0.9766
-2.9662 4.5820 -2.0917 0.9769
-3.3256 4.2497 -2.0680 0.9771
-3.6491 3.8897 -2.0439 0.9774
-3.9351 3.5060 -2.0197 0.9777
-5.1880 0.0614 -1.9883 0.9780
-5.1241 -0.3987 -1.9696 0.9782
-4.7187 -1.7018 -1.9223 0.9787
-4.5179 -2.1029 -1.9097 0.9789
-4.0281 -2.8431 -1.8894 0.9791
-3.7427 -3.1789 -1.8818 0.9792
-3.1004 -3.7742 -1.8718 0.9793
-2.7471 -4.0310 -1.8694 0.9793
-1.9861 -4.4568 -1.8698 0.9793
-1.5822 -4.6235 -1.8727 0.9793
-0.3021 -4.9271 -1.8917 0.9791
1.0341 -4.9181 -1.9259 0.9787
1.4807 -4.8425 -1.9406 0.9785
2.3597 -4.5800 -1.9744 0.9782
3.2000 -4.1684 -2.0139 0.9777
3.9767 -3.6099 -2.0582 0.9773
4.3327 -3.2773 -2.0819 0.9770
5.0669 -1.5099 -2.0261 0.9776
5.2434 -1.0635 -2.0503 0.9773
5.5229 0.8792 -2.1431 0.9763
5.3784 1.8835 -2.1838 0.9759
5.0348 2.8550 -2.2180 0.9755
4.7897 3.3144 -2.2321 0.9754
4.4979 3.7490 -2.2439 0.9752
4.1621 4.1532 -2.2533 0.9751
3.5672 4.2611 -2.1296 0.9765
2.7807 4.8792 -2.1521 0.9762
2.3031 5.0417 -2.1241 0.9765
1.8338 5.2005 -2.1132 0.9767
0.9260 3.6339 -1.4371 0.9841
0.8904 5.5170 -2.1416 0.9763
0.1952 2.7637 -1.0617 0.9882
-0.0500 2.6346 -1.0098 0.9888
-0.6217 5.7094 -2.2009 0.9757
-1.6002 5.4127 -2.1630 0.9761
-2.4875 4.9404 -2.1197 0.9766
-3.2539 4.3211 -2.0729 0.9771
-3.8789 3.5874 -2.0247 0.9776
-4.1342 3.1879 -2.0006 0.9779
-4.3501 2.7723 -1.9768 0.9781
-5.1214 1.5781 -2.0537 0.9773
-5.2143 0.6283 -2.0126 0.9778
-5.0473 -0.7555 -1.9558 0.9784
-4.9188 -1.1936 -1.9397 0.9786
-4.7565 -1.6163 -1.9251 0.9787
-4.5621 -2.0212 -1.9122 0.9789
-4.0840 -2.7704 -1.8912 0.9791
-3.8040 -3.1112 -1.8832 0.9792
-3.1711 -3.7174 -1.8725 0.9793
-1.2529 -4.7329 -1.8762 0.9792
-0.8276 -4.8413 -1.8822 0.9792
-0.3932 -4.9159 -1.8899 0.9791
0.0480 -4.9559 -1.8993 0.9790
0.9412 -4.9292 -1.9231 0.9787
1.3883 -4.8613 -1.9374 0.9786
2.2698 -4.6142 -1.9706 0.9782
2.6986 -4.4348 -1.9894 0.9780
3.1154 -4.2180 -2.0095 0.9778
3.5169 -3.9644 -2.0309 0.9776
4.2609 -3.3492 -2.0769 0.9771
2.3317 -0.9794 -0.9692 0.9892
5.3549 -0.6957 -2.0693 0.9771
5.4576 -0.2168 -2.0931 0.9769
5.5155 0.2749 -2.1163 0.9766
5.2660 2.2748 -2.1983 0.9757
5.0796 2.7570 -2.2148 0.9755
4.8444 3.2209 -2.2294 0.9754
4.5622 3.6611 -2.2417 0.9753
4.2353 4.0720 -2.2515 0.9751
3.8212 4.3960 -2.2321 0.9754
3.1780 4.3950 -2.0784 0.9770
2.4013 5.0083 -2.1285 0.9765
1.9308 5.1677 -2.1141 0.9766
1.0069 3.6655 -1.4567 0.9838
-0.5164 5.7291 -2.2044 0.9757
-1.5023 5.4521 -2.1672 0.9761
-1.9646 5.2451 -2.1464 0.9763
-2.8070 4.7108 -2.1015 0.9768
-3.8210 3.6678 -2.0297 0.9776
-2.7064 1.4661 -1.1796 0.9869
-5.0996 1.6757 -2.0571 0.9773
-5.1826 1.2024 -2.0388 0.9775
-5.0696 -0.6628 -1.9593 0.9783
-4.9483 -1.1039 -1.9429 0.9785
-4.6050 -1.9387 -1.9147 0.9788
-4.3864 -2.3283 -1.9031 0.9790
-3.2410 -3.6594 -1.8733 0.9793
-2.8961 -3.9278 -1.8702 0.9793
-2.5316 -4.1679 -1.8688 0.9793
-2.1494 -4.3784 -1.8692 0.9793
-1.7515 -4.5582 -1.8713 0.9793
-1.3399 -4.7062 -1.8752 0.9793
-0.9167 -4.8215 -1.8808 0.9792
1.2956 -4.8784 -1.9343 0.9786
3.0300 -4.2661 -2.0052 0.9778
4.7543 -2.1018 -1.9921 0.9780
5.3282 -0.7931 -2.0644 0.9772
5.4399 -0.3174 -2.0882 0.9769
5.5283 0.6706 -2.1341 0.9764
5.5012 1.1737 -2.1556 0.9762
5.4247 1.6763 -2.1758 0.9760
5.2984 2.1730 -2.1946 0.9758
5.1223 2.6582 -2.2116 0.9756
4.6246 3.5720 -2.2393 0.9753
3.9466 4.3735 -2.2575 0.9751
2.8050 4.5228 -2.0395 0.9775
2.4999 4.9748 -2.1336 0.9764
1.9806 -4.3950 -1.9730 0.9794
2.7809 -4.0442 -2.0087 0.9790
3.1619 -3.8165 -2.0284 0.9788
3.8704 -3.2595 -2.0710 0.9784
4.1914 -2.9322 -2.0935 0.9781
4.6242 -1.6459 -2.0089 0.9790
5.0590 -0.3724 -2.0761 0.9783
5.0607 1.4799 -2.1580 0.9775
4.7896 2.3939 -2.1915 0.9771
4.5858 2.8305 -2.2056 0.9770
4.0487 3.6377 -2.2276 0.9768
3.3158 4.2739 -2.2139 0.9769
1.1456 3.6791 -1.5771 0.9835
1.1477 5.3229 -2.2286 0.9767
0.0909 2.7234 -1.1152 0.9883
-0.7720 5.2638 -2.1774 0.9773
-3.4670 3.5606 -2.0340 0.9787
-3.7295 3.2006 -2.0114 0.9790
-3.9560 2.8226 -1.9890 0.9792
-2.6546 1.5562 -1.2594 0.9868
-4.4144 1.6176 -1.9242 0.9799
-4.8353 1.2953 -2.0487 0.9786
-1.9568 0.1623 -0.8036 0.9915
-1.9048 -0.0128 -0.7796 0.9918
-1.9579 -0.1890 -0.8050 0.9915
-2.2005 -0.4134 -0.9164 0.9904
-3.9923 -2.4132 -1.9093 0.9800
-3.7439 -2.7481 -1.9008 0.9801
-3.1745 -3.3493 -1.8887 0.9803
-1.4117 -4.3900 -1.8873 0.9803
-1.0163 -4.5098 -1.8920 0.9802
-0.1986 -4.6537 -1.9064 0.9801
0.6400 -4.6649 -1.9271 0.9799
1.4806 -4.5388 -1.9540 0.9796
2.7000 -4.0871 -2.0048 0.9791
3.0841 -3.8666 -2.0242 0.9789
3.4521 -3.6118 -2.0448 0.9786
4.1268 -3.0027 -2.0888 0.9782
4.5822 -1.7275 -2.0042 0.9791
4.9248 -0.9040 -2.0493 0.9786
5.0401 -0.4652 -2.0716 0.9784
5.1354 0.9156 -2.1349 0.9777
4.6318 2.7413 -2.2028 0.9770
4.3931 3.1623 -2.2153 0.9769
4.1121 3.5589 -2.2257 0.9768
3.7913 3.9264 -2.2339 0.9767
2.5941 4.7550 -2.2169 0.9769
2.1828 5.0232 -2.2416 0.9766
0.7650 5.3727 -2.2211 0.9768
-0.2014 5.3622 -2.1962 0.9771
-0.6751 5.2855 -2.1808 0.9772
-1.1359 5.1633 -2.1637 0.9774
-2.3976 4.5494 -2.1047 0.9780
-2.7660 4.2727 -2.0831 0.9782
-3.4081 3.6327 -2.0386 0.9787
-3.6779 3.2769 -2.0161 0.9789
-4.1095 2.5128 -1.9714 0.9794
-2.7154 1.3430 -1.2398 0.9870
-4.8819 0.9431 -2.0350 0.9787
-1.9099 0.0226 -0.7817 0.9918
-1.9550 -0.1521 -0.8025 0.9916
-2.1139 -0.3567 -0.8774 0.9908
-4.4443 -1.6029 -1.9336 0.9798
-4.0406 -2.3411 -1.9112 0.9800
-3.5294 -2.9977 -1.8952 0.9802
-2.5915 -3.8027 -1.8834 0.9803
-2.2405 -4.0178 -1.8828 0.9803
-1.8735 -4.2043 -1.8838 0.9803
-1.4924 -4.3612 -1.8866 0.9803
0.1321 -4.6743 -1.9138 0.9800
0.5525 -4.6701 -1.9247 0.9799
1.3938 -4.5584 -1.9509 0.9796
1.8098 -4.4502 -1.9662 0.9795
2.2189 -4.3069 -1.9829 0.9793
2.6185 -4.1285 -2.0009 0.9791
3.0056 -3.9152 -2.0201 0.9789
3.7301 -3.3860 -2.0618 0.9785
4.0612 -3.0719 -2.0841 0.9782
4.3671 -2.7264 -2.1071 0.9780
4.7349 -1.4109 -2.0221 0.9789
4.8960 -0.9931 -2.0446 0.9786
5.0194 -0.5575 -2.0670 0.9784
5.1415 0.8185 -2.1308 0.9777
5.0939 1.2863 -2.1503 0.9775
5.0004 1.7511 -2.1684 0.9774
4.6758 2.6514 -2.1999 0.9770
4.4462 3.0767 -2.2129 0.9769
3.8610 3.8527 -2.2324 0.9767
3.0749 4.4231 -2.2047 0.9770
2.6821 4.7062 -2.2170 0.9769
2.2763 4.9831 -2.2422 0.9766
1.8187 5.1577 -2.2383 0.9766
0.9214 3.6158 -1.5271 0.9840
0.8655 5.3627 -2.2232 0.9768
-0.0495 2.6091 -1.0680 0.9888
-1.0415 5.1923 -2.1674 0.9774
-1.4888 5.0357 -2.1492 0.9776
-1.9153 4.8381 -2.1297 0.9778
-3.0361 4.0319 -2.0657 0.9784
-3.3476 3.7038 -2.0433 0.9787
-4.0716 2.5947 -1.9760 0.9793
-2.7041 1.4005 -1.2463 0.9869
-4.3708 1.7884 -1.9328 0.9798
-4.7985 1.4786 -2.0550 0.9785
-4.8738 1.0358 -2.0393 0.9787
-4.6303 -1.1236 -1.9501 0.9796
-4.4795 -1.5221 -1.9363 0.9798
-3.5870 -2.9337 -1.8966 0.9802
-3.3001 -3.2324 -1.8906 0.9802
-2.9912 -3.5065 -1.8863 0.9803
-2.3147 -3.9754 -1.8828 0.9803
-0.7804 -4.5653 -1.8956 0.9802
-0.3706 -4.6346 -1.9029 0.9801
0.0453 -4.6710 -1.9118 0.9800
0.4651 -4.6738 -1.9223 0.9799
0.8865 -4.6424 -1.9344 0.9798
1.7239 -4.4756 -1.9629 0.9795
2.9265 -3.9623 -2.0160 0.9789
3.3015 -3.7217 -2.0361 0.9787
3.9944 -3.1397 -2.0794 0.9783
2.3285 -0.9781 -1.0337 0.9891
4.9970 -0.6492 -2.0623 0.9785
5.1391 0.2561 -2.1059 0.9780
5.0236 1.6552 -2.1648 0.9774
4.7179 2.5607 -2.1970 0.9771
4.4974 2.9902 -2.2104 0.9769
4.2337 3.3975 -2.2217 0.9768
3.9291 3.7776 -2.2308 0.9767
3.5745 4.1123 -2.2300 0.9767
2.3690 4.9410 -2.2426 0.9766
1.0043 3.6561 -1.5518 0.9837
0.9658 5.3505 -2.2252 0.9768
0.4815 5.3898 -2.2147 0.9769
-0.0010 2.6026 -1.0652 0.9888
-0.4798 5.3230 -2.1874 0.9772
-0.9465 5.2194 -2.1710 0.9773
-1.8287 4.8824 -2.1338 0.9777
-2.6166 4.3914 -2.0922 0.9781
-2.9673 4.0967 -2.0703 0.9784
-3.2857 3.7740 -2.0480 0.9786
-3.5702 3.4271 -2.0255 0.9788
-4.3467 1.8735 -1.9372 0.9798
-4.4485 1.4617 -1.9164 0.9800
-1.9471 0.2714 -0.8046 0.9915
-1.9403 0.0951 -0.7951 0.9916
-1.9344 -0.0784 -0.7924 0.9917
-1.9508 -0.2550 -0.8052 0.9915
-4.3382 -1.8264 -1.9264 0.9799
-4.1337 -2.1941 -1.9154 0.9800
-3.3615 -3.1724 -1.8917 0.9802
-2.7320 -3.7053 -1.8841 0.9803
-2.3883 -3.9319 -1.8828 0.9803
-2.0277 -4.1304 -1.8832 0.9803
-1.6522 -4.2997 -1.8852 0.9803
-0.4563 -4.6229 -1.9012 0.9801
0.3778 -4.6760 -1.9200 0.9799
1.2199 -4.5930 -1.9450 0.9797
1.6378 -4.4994 -1.9597 0.9795
2.0501 -4.3707 -1.9758 0.9794
2.4540 -4.2068 -1.9933 0.9792
2.8467 -4.0079 -2.0120 0.9790
3.2250 -3.7744 -2.0319 0.9788
4.2434 -2.8735 -2.0974 0.9781
4.5242 -2.5055 -2.1166 0.9779
4.4477 -1.9663 -1.9903 0.9792
5.1322 0.1603 -2.1015 0.9781
5.0448 1.5589 -2.1610 0.9774
4.5468 2.9027 -2.2078 0.9770
3.9956 3.7012 -2.2291 0.9767
3.2514 4.3250 -2.2145 0.9769
2.8014 4.5169 -2.1753 0.9773
2.4608 4.8970 -2.2430 0.9766
1.8677 -4.1445 -1.9812 0.9804
2.9769 -3.5932 -2.0336 0.9798
3.9388 -2.7555 -2.0949 0.9792
4.1376 -1.9048 -1.9851 0.9803
4.3366 -1.5436 -2.0061 0.9801
4.6375 -0.7625 -2.0482 0.9797
4.7932 0.0768 -2.0892 0.9793
4.8119 0.5096 -2.1088 0.9791
4.7242 1.3815 -2.1451 0.9788
4.2746 2.6384 -2.1892 0.9783
4.0423 3.0252 -2.2004 0.9782
3.7714 3.3885 -2.2096 0.9781
3.1245 4.0272 -2.2214 0.9780
2.3604 4.5245 -2.2240 0.9780
-0.7202 4.9108 -2.1631 0.9786
-1.5584 4.6311 -2.1295 0.9789
-2.3159 4.2032 -2.0915 0.9793
-2.9680 3.6509 -2.0506 0.9797
-3.2488 3.3365 -2.0296 0.9799
-3.4973 3.0013 -2.0085 0.9801
-2.6081 1.5290 -1.3176 0.9869
-1.5971 0.5852 -0.7413 0.9926
-1.5563 0.4169 -0.7022 0.9930
-1.5285 0.1268 -0.6684 0.9933
-1.5237 -0.0103 -0.6641 0.9934
-1.5268 -0.1474 -0.6685 0.9933
-1.4967 -0.2812 -0.6637 0.9934
-3.9802 -1.9433 -1.9303 0.9809
-3.2804 -2.8928 -1.9061 0.9811
-3.0008 -3.1661 -1.9011 0.9811
-2.7010 -3.4154 -1.8977 0.9812
-2.3826 -3.6396 -1.8959 0.9812
-2.0475 -3.8375 -1.8956 0.9812
-1.3346 -4.1500 -1.8999 0.9812
-0.9606 -4.2627 -1.9044 0.9811
-0.1877 -4.3969 -1.9180 0.9810
1.0017 -4.3602 -1.9497 0.9807
1.3970 -4.2825 -1.9632 0.9805
1.7875 -4.1717 -1.9779 0.9804
2.1707 -4.0277 -1.9940 0.9802
2.9040 -3.6408 -2.0297 0.9799
3.5744 -3.1256 -2.0694 0.9795
4.1533 -2.4869 -2.1097 0.9791
4.0925 -1.9770 -1.9808 0.9804
4.2978 -1.6203 -2.0018 0.9802
4.7175 -0.4355 -2.0647 0.9795
4.7843 -0.0122 -2.0851 0.9793
4.8114 0.4194 -2.1048 0.9791
4.7973 0.8553 -2.1237 0.9790
4.3178 2.5555 -2.1866 0.9783
4.0937 2.9467 -2.1983 0.9782
3.1976 3.9671 -2.2206 0.9780
2.4441 4.4802 -2.2242 0.9780
2.0324 4.6771 -2.2225 0.9780
1.1618 4.9410 -2.2121 0.9781
0.7128 5.0057 -2.2036 0.9782
-0.1878 4.9998 -2.1805 0.9784
-1.0601 4.8191 -2.1505 0.9787
-2.2418 4.2538 -2.0956 0.9792
-2.5880 3.9978 -2.0755 0.9794
-2.9058 3.7132 -2.0549 0.9796
-3.4485 3.0724 -2.0129 0.9800
-3.6705 2.7232 -1.9918 0.9803
-2.5943 1.5863 -1.3252 0.9868
-2.6819 1.3265 -1.3040 0.9870
-4.1304 1.6012 -1.9306 0.9809
-1.5011 0.2900 -0.6663 0.9934
-1.5289 -0.1190 -0.6683 0.9933
-1.5957 -0.5755 -0.7393 0.9926
-4.0201 -1.8712 -1.9325 0.9808
-3.8171 -2.2116 -1.9226 0.9809
-3.5884 -2.5328 -1.9142 0.9810
-2.7648 -3.3657 -1.8983 0.9812
-2.4501 -3.5952 -1.8961 0.9812
-1.7713 -3.9749 -1.8965 0.9812
-1.0390 -4.2418 -1.9033 0.9811
-0.2691 -4.3888 -1.9163 0.9810
0.1248 -4.4154 -1.9251 0.9809
0.5217 -4.4101 -1.9354 0.9808
0.9193 -4.3721 -1.9471 0.9807
1.3152 -4.3013 -1.9603 0.9806
1.7070 -4.1974 -1.9748 0.9804
2.8305 -3.6870 -2.0258 0.9799
3.1785 -3.4517 -2.0450 0.9797
3.8174 -2.8875 -2.0860 0.9793
4.0463 -2.0482 -1.9765 0.9804
4.4386 -1.3227 -2.0185 0.9800
4.7563 1.2011 -2.1379 0.9788
4.1435 2.8673 -2.1960 0.9783
3.2694 3.9054 -2.2197 0.9780
2.9118 4.1885 -2.2232 0.9780
2.5270 4.4342 -2.2243 0.9780
2.1194 4.6397 -2.2230 0.9780
1.6935 4.8028 -2.2194 0.9780
0.3549 5.0248 -2.1954 0.9783
-0.0494 2.6019 -1.1342 0.9887
-2.1666 4.3031 -2.0997 0.9792
-3.1361 3.4698 -2.0383 0.9798
-3.3982 3.1428 -2.0173 0.9800
-3.8222 2.4358 -1.9753 0.9804
-2.6597 1.3775 -1.3054 0.9870
-4.1087 1.6812 -1.9347 0.9808
-1.5174 0.3225 -0.6761 0.9933
-1.5278 0.0465 -0.6661 0.9934
-1.5130 -0.2265 -0.6668 0.9933
-3.6379 -2.4678 -1.9158 0.9810
-3.3901 -2.7726 -1.9087 0.9811
-2.8278 -3.3149 -1.8989 0.9812
-1.1171 -4.2196 -1.9023 0.9811
-0.7375 -4.3147 -1.9077 0.9811
-0.3502 -4.3793 -1.9147 0.9810
0.0427 -4.4125 -1.9231 0.9809
0.8369 -4.3827 -1.9446 0.9807
1.2333 -4.3187 -1.9574 0.9806
1.6261 -4.2217 -1.9717 0.9805
2.3903 -3.9281 -2.0040 0.9801
2.7562 -3.7318 -2.0219 0.9800
3.1077 -3.5031 -2.0409 0.9798
3.4416 -3.2428 -2.0608 0.9796
4.0453 -2.6312 -2.1031 0.9792
4.2955 -2.2756 -2.1185 0.9790
2.3259 -0.9770 -1.0994 0.9891
4.4037 -1.4018 -2.0141 0.9800
4.8050 0.2394 -2.0967 0.9792
4.8082 0.6741 -2.1160 0.9790
4.3989 2.3875 -2.1813 0.9784
4.1916 2.7869 -2.1937 0.9783
3.9444 3.1653 -2.2041 0.9782
3.6596 3.5185 -2.2125 0.9781
3.3398 3.8423 -2.2187 0.9780
2.9883 4.1327 -2.2226 0.9780
1.7832 4.7725 -2.2204 0.9780
0.4487 5.0226 -2.1976 0.9782
-0.8832 4.8704 -2.1572 0.9786
-1.3048 4.7351 -2.1406 0.9788
-2.0904 4.3510 -2.1037 0.9792
-2.7775 3.8346 -2.0635 0.9796
-3.3465 3.2123 -2.0216 0.9800
-3.7846 2.5119 -1.9796 0.9804
-2.6415 1.4310 -1.3093 0.9870
-4.0854 1.7609 -1.9388 0.9808
-1.5860 0.5211 -0.7276 0.9927
-1.5325 0.3556 -0.6856 0.9932
-1.5288 -0.0620 -0.6668 0.9933
-1.5192 -0.1986 -0.6677 0.9933
-1.5824 -0.5051 -0.7239 0.9928
-4.0964 -1.7246 -1.9371 0.9808
-3.9046 -2.0725 -1.9265 0.9809
-3.6864 -2.4019 -1.9175 0.9810
-3.1774 -2.9986 -1.9041 0.9811
-2.2580 -3.7175 -1.8956 0.9812
-1.9171 -3.9051 -1.8959 0.9812
-0.8170 -4.2975 -1.9065 0.9811
-0.4312 -4.3684 -1.9131 0.9810
-0.0392 -4.4082 -1.9213 0.9809
0.3568 -4.4162 -1.9309 0.9809
1.1513 -4.3347 -1.9546 0.9806
1.5450 -4.2446 -1.9686 0.9805
1.9331 -4.1212 -1.9839 0.9803
2.6814 -3.7752 -2.0181 0.9800
3.6919 -3.0146 -2.0773 0.9794
4.5292 -1.0953 -2.0308 0.9799
4.7993 0.1499 -2.0926 0.9793
4.7089 1.4551 -2.1480 0.9787
4.5940 1.8841 -2.1640 0.9786
4.4368 2.3024 -2.1785 0.9784
4.2379 2.7055 -2.1913 0.9783
3.4089 3.7777 -2.2176 0.9780
2.6898 4.3369 -2.2241 0.9780
1.7651 -3.9168 -1.9886 0.9812
2.1245 -3.7725 -2.0041 0.9811
3.1293 -3.1547 -2.0568 0.9806
3.9573 -2.2708 -2.1119 0.9801
3.8932 -1.7924 -1.9839 0.9813
4.2328 -1.0919 -2.0234 0.9809
4.3554 -0.7161 -2.0431 0.9807
4.4439 -0.3271 -2.0626 0.9806
4.3213 1.6960 -2.1488 0.9797
3.9979 2.4676 -2.1747 0.9795
3.5251 3.1672 -2.1936 0.9793
3.2375 3.4800 -2.2001 0.9793
2.5741 4.0130 -2.2069 0.9792
1.8170 4.4033 -2.2049 0.9792
0.5788 4.6872 -2.1861 0.9794
0.0920 2.7550 -1.2760 0.9879
-0.2622 4.6676 -2.1640 0.9796
-1.0747 4.4863 -2.1354 0.9799
-1.4601 4.3390 -2.1191 0.9800
-1.8270 4.1569 -2.1018 0.9802
-2.4931 3.6988 -2.0647 0.9805
-2.7873 3.4286 -2.0453 0.9807
-3.2885 2.8221 -2.0059 0.9811
-1.3329 0.4884 -0.6571 0.9938
-1.3379 0.1110 -0.6214 0.9941
-1.3367 -0.1290 -0.6216 0.9941
-1.3133 -0.2468 -0.6185 0.9941
-1.3208 -0.3730 -0.6353 0.9940
-3.5705 -2.1583 -1.9312 0.9818
-3.1066 -2.7396 -1.9173 0.9819
-2.8423 -2.9988 -1.9125 0.9820
-2.5585 -3.2353 -1.9093 0.9820
-0.5469 -4.1147 -1.9214 0.9819
0.1960 -4.1806 -1.9373 0.9817
1.6894 -3.9429 -1.9856 0.9813
2.0507 -3.8050 -2.0008 0.9811
2.4020 -3.6360 -2.0172 0.9810
3.0644 -3.2061 -2.0529 0.9806
3.9090 -2.3406 -2.1090 0.9801
3.8514 -1.8605 -1.9798 0.9813
4.2033 -1.1680 -2.0193 0.9810
4.3328 -0.7953 -2.0391 0.9808
4.4284 -0.4088 -2.0586 0.9806
4.4884 -0.0115 -2.0776 0.9804
4.4405 1.2095 -2.1303 0.9799
4.3459 1.6131 -2.1457 0.9798
4.0386 2.3903 -2.1723 0.9795
3.8277 2.7553 -2.1831 0.9794
3.2998 3.4174 -2.1989 0.9793
2.2836 4.1858 -2.2071 0.9792
1.4982 4.5145 -2.2018 0.9793
1.0858 4.6180 -2.1959 0.9793
0.6664 4.6797 -2.1880 0.9794
-0.0981 2.6120 -1.2099 0.9885
-0.5894 4.6145 -2.1533 0.9797
-1.3815 4.3725 -2.1226 0.9800
