ply
format ascii 1.0
element vertex 1598
property float32 x
property float32 y
property float32 z
property float32 I
end_header
-4.6401 3.9231 -2.0198 0.9747
-5.8365 2.0957 -2.0614 0.9742
-5.9233 1.5469 -2.0350 0.9745
-5.9079 -0.0733 -1.9640 0.9754
-5.5138 -1.5870 -1.9072 0.9761
-4.7926 -2.9258 -1.8665 0.9766
-4.1567 -3.6950 -1.8487 0.9768
-2.5851 -4.8817 -1.8362 0.9770
-2.1416 -5.0976 -1.8379 0.9770
-1.6819 -5.2787 -1.8416 0.9769
-1.2081 -5.4241 -1.8472 0.9768
-0.7226 -5.5326 -1.8547 0.9768
-0.2276 -5.6033 -1.8641 0.9766
0.7814 -5.6276 -1.8886 0.9763
2.3027 -5.3593 -1.9389 0.9757
3.2878 -4.9706 -1.9810 0.9752
3.7618 -4.7126 -2.0044 0.9749
4.2186 -4.4124 -2.0292 0.9746
4.6543 -4.0704 -2.0553 0.9743
5.4466 -3.2649 -2.1109 0.9736
2.3896 -0.9034 -0.8492 0.9893
6.1221 -1.1322 -2.0695 0.9741
6.2825 -0.5897 -2.0975 0.9738
6.3930 -0.0276 -2.1251 0.9734
6.4506 0.5494 -2.1520 0.9731
6.2826 2.3134 -2.2255 0.9722
6.1086 2.8915 -2.2465 0.9719
5.8754 3.4534 -2.2654 0.9717
4.8445 4.1636 -2.1234 0.9734
4.2611 4.3807 -2.0314 0.9746
3.7216 4.5807 -1.9618 0.9754
3.2134 4.7682 -1.9113 0.9761
2.7266 4.9471 -1.8777 0.9765
2.2336 5.0773 -1.8438 0.9769
-0.1920 6.0026 -1.9963 0.9750
-0.7559 6.2034 -2.0773 0.9740
-1.3724 6.4221 -2.1829 0.9727
-1.7387 5.6244 -1.9569 0.9755
-2.4739 6.0337 -2.1677 0.9729
-2.9655 5.7188 -2.1413 0.9732
-4.2038 4.5466 -2.0583 0.9742
-4.8102 3.6264 -2.0024 0.9749
-5.2325 2.6410 -1.9483 0.9756
-5.7900 2.3002 -2.0710 0.9741
-5.8964 1.7523 -2.0447 0.9744
-5.9536 1.2043 -2.0191 0.9747
-5.7382 -0.9116 -1.9313 0.9758
-5.5820 -1.4064 -1.9135 0.9760
-5.3886 -1.8826 -1.8974 0.9762
-4.8986 -2.7702 -1.8707 0.9766
-4.6060 -3.1779 -1.8601 0.9767
-3.5615 -4.2370 -1.8399 0.9769
-3.1646 -4.5306 -1.8370 0.9770
-2.7466 -4.7922 -1.8361 0.9770
-1.3870 -5.3739 -1.8449 0.9769
-0.4139 -5.5813 -1.8604 0.9767
0.0859 -5.6279 -1.8710 0.9766
0.5913 -5.6351 -1.8834 0.9764
1.6084 -5.5285 -1.9139 0.9760
2.1145 -5.4132 -1.9318 0.9758
2.6150 -5.2559 -1.9514 0.9756
3.5862 -4.8142 -1.9955 0.9750
4.4939 -4.2033 -2.0454 0.9744
4.9144 -3.8355 -2.0722 0.9741
5.3074 -3.4276 -2.1002 0.9737
5.8268 -1.8381 -2.0310 0.9746
6.3577 -0.2400 -2.1148 0.9735
6.4354 0.3320 -2.1420 0.9732
6.4585 0.9156 -2.1683 0.9729
6.3324 2.0942 -2.2171 0.9723
5.6998 3.7936 -2.2759 0.9716
5.0773 4.0767 -2.1644 0.9729
2.4290 5.0561 -1.8646 0.9766
1.0330 3.7427 -1.2906 0.9838
0.2565 2.8189 -0.9409 0.9881
-0.5395 6.1264 -2.0443 0.9744
-2.2809 6.1400 -2.1772 0.9728
-2.7857 5.8418 -2.1513 0.9731
-3.2542 5.5004 -2.1244 0.9734
-3.6833 5.1210 -2.0968 0.9738
-4.7106 3.8048 -2.0128 0.9748
-4.9621 3.3234 -1.9852 0.9751
-5.1675 2.8287 -1.9582 0.9755
-5.7304 2.5014 -2.0784 0.9740
-5.9659 0.8634 -2.0038 0.9749
-5.9491 0.3242 -1.9804 0.9752
-5.8887 -0.2052 -1.9586 0.9755
-5.7867 -0.7219 -1.9384 0.9757
-4.7191 -3.0283 -1.8638 0.9766
-3.7043 -4.1192 -1.8415 0.9769
-3.3158 -4.4244 -1.8379 0.9770
-2.9054 -4.6981 -1.8362 0.9770
-2.0275 -5.1464 -1.8387 0.9770
-1.5641 -5.3186 -1.8428 0.9769
-0.5990 -5.5539 -1.8569 0.9767
0.9092 -5.6193 -1.8922 0.9763
1.4181 -5.5609 -1.9076 0.9761
2.4285 -5.3198 -1.9439 0.9757
3.4083 -4.9098 -1.9867 0.9751
3.8783 -4.6412 -2.0105 0.9748
4.3302 -4.3303 -2.0356 0.9745
5.5353 -3.1515 -2.1173 0.9735
5.7324 -2.0214 -2.0205 0.9747
6.3151 -0.4501 -2.1045 0.9737
6.4126 0.1162 -2.1319 0.9733
6.4564 0.6961 -2.1586 0.9730
6.2445 2.4598 -2.2310 0.9721
5.8076 3.5912 -2.2697 0.9716
5.3194 3.9862 -2.2096 0.9724
4.6930 4.2200 -2.0979 0.9737
4.1220 4.4323 -2.0120 0.9748
3.5913 4.6288 -1.9474 0.9756
3.0992 4.8291 -1.9074 0.9761
2.1346 5.1636 -1.8573 0.9767
1.1932 5.5052 -1.8725 0.9765
-0.9052 6.2564 -2.1013 0.9737
-3.0833 5.6329 -2.1346 0.9733
-4.2899 4.4359 -2.0513 0.9743
-4.8734 3.5054 -1.9955 0.9750
-2.6598 1.5738 -1.0273 0.9871
-5.8225 2.1632 -2.0647 0.9742
-5.9152 1.6144 -2.0382 0.9745
-5.9607 1.0671 -2.0129 0.9748
-5.9606 0.5251 -1.9890 0.9751
-5.7025 -1.0375 -1.9267 0.9759
-5.3344 -1.9990 -1.8936 0.9763
-5.0975 -2.4487 -1.8798 0.9764
-4.5278 -3.2763 -1.8578 0.9767
-3.4639 -4.3137 -1.8390 0.9769
-3.0615 -4.5994 -1.8366 0.9770
-1.2671 -5.4081 -1.8464 0.9769
0.2124 -5.6334 -1.8739 0.9765
0.7188 -5.6307 -1.8869 0.9764
2.7395 -5.2098 -1.9566 0.9755
3.2285 -4.9995 -1.9782 0.9752
3.7043 -4.7467 -2.0014 0.9749
4.1634 -4.4516 -2.0261 0.9746
4.6019 -4.1147 -2.0520 0.9743
5.0160 -3.7368 -2.0791 0.9740
5.8869 -1.7129 -2.0380 0.9745
6.4465 0.4778 -2.1487 0.9731
6.4555 1.0634 -2.1748 0.9728
6.4071 1.6534 -2.1995 0.9725
6.2999 2.2415 -2.2227 0.9722
4.3303 4.3550 -2.0415 0.9744
3.7860 4.5568 -1.9693 0.9753
3.2746 4.7457 -1.9166 0.9760
2.3105 5.0994 -1.8609 0.9767
1.3711 5.4409 -1.8651 0.9766
0.8920 5.6139 -1.8895 0.9763
-0.6840 6.1778 -2.0661 0.9741
-1.2931 6.3940 -2.1684 0.9729
-1.6632 5.5973 -1.9410 0.9757
-2.4109 6.0694 -2.1708 0.9728
-2.9070 5.7599 -2.1446 0.9732
-3.3659 5.4085 -2.1175 0.9735
-3.7845 5.0203 -2.0898 0.9738
-4.1605 4.6003 -2.0618 0.9742
-4.4921 4.1536 -2.0337 0.9745
4.6136 4.2413 -2.2411 0.9737
3.3660 4.4383 -1.9920 0.9766
2.9605 4.7265 -1.9944 0.9766
1.0708 3.5658 -1.3314 0.9843
1.1329 5.5196 -2.0150 0.9763
0.6472 5.6944 -2.0495 0.9759
0.0635 2.6569 -0.9504 0.9888
-0.3974 6.0678 -2.1745 0.9745
-1.9818 5.7251 -2.1665 0.9746
-3.3105 4.8276 -2.0933 0.9754
-3.6820 4.4578 -2.0676 0.9757
-4.0139 4.0602 -2.0417 0.9760
-4.9227 2.2816 -1.9403 0.9772
-5.4323 1.9506 -2.0641 0.9758
-5.5209 1.4418 -2.0405 0.9761
-5.5196 -0.0685 -1.9740 0.9768
-4.9703 -1.9251 -1.9061 0.9776
-4.7467 -2.3447 -1.8933 0.9778
-3.5631 -3.7877 -1.8596 0.9782
-0.6776 -5.1880 -1.8710 0.9780
1.2079 -5.2233 -1.9172 0.9775
1.6826 -5.1369 -1.9330 0.9773
2.1532 -5.0113 -1.9505 0.9771
4.9948 -2.4172 -1.9844 0.9767
2.4022 -0.9082 -0.9184 0.9891
5.6693 -1.0485 -2.0618 0.9758
5.8120 -0.5456 -2.0875 0.9755
5.9084 -0.0255 -2.1129 0.9752
5.9559 0.5073 -2.1376 0.9749
5.7857 2.1304 -2.2048 0.9741
5.6212 2.6608 -2.2240 0.9739
5.4030 3.1757 -2.2412 0.9737
4.8108 4.1346 -2.2685 0.9734
4.2554 4.3747 -2.1825 0.9744
2.2308 5.0710 -1.9812 0.9767
1.7816 5.2847 -1.9943 0.9766
1.3111 5.4552 -2.0064 0.9764
0.8310 5.6284 -2.0346 0.9761
-0.1917 5.9946 -2.1448 0.9748
-1.7360 5.6155 -2.1019 0.9753
-2.2829 5.5679 -2.1520 0.9748
-3.1617 4.9580 -2.1028 0.9753
-3.5475 4.5998 -2.0773 0.9756
-4.2006 3.7994 -2.0255 0.9762
-5.5521 1.1231 -2.0257 0.9762
-5.5671 0.6166 -2.0030 0.9765
-5.5402 0.1165 -1.9816 0.9767
-5.3669 -0.8526 -1.9433 0.9772
-5.2239 -1.3162 -1.9265 0.9774
-4.0178 -3.3380 -1.8680 0.9781
-3.3413 -3.9751 -1.8570 0.9782
-2.1670 -4.7108 -1.8543 0.9782
-1.3010 -5.0408 -1.8617 0.9781
-0.8493 -5.1545 -1.8681 0.9781
-0.3880 -5.2327 -1.8764 0.9780
0.0805 -5.2744 -1.8864 0.9778
0.5539 -5.2790 -1.8982 0.9777
1.9777 -5.0629 -1.9438 0.9772
2.4442 -4.9126 -1.9622 0.9770
3.3469 -4.4931 -2.0036 0.9765
3.7766 -4.2241 -2.0263 0.9762
4.5749 -3.5705 -2.0753 0.9756
5.2536 -2.7629 -2.1227 0.9751
5.8779 -0.2219 -2.1035 0.9753
5.9598 0.8449 -2.1526 0.9748
5.9233 1.3876 -2.1756 0.9745
5.8333 1.9292 -2.1972 0.9742
5.6891 2.4637 -2.2171 0.9740
5.4909 2.9852 -2.2350 0.9738
5.2396 3.4873 -2.2508 0.9736
4.9369 3.9639 -2.2641 0.9735
4.4675 4.2958 -2.2164 0.9740
3.6887 4.2423 -2.0104 0.9764
2.9032 4.8748 -2.0290 0.9762
1.9567 5.2210 -1.9939 0.9766
1.0265 3.7192 -1.3798 0.9837
1.0124 5.5631 -2.0221 0.9763
0.0041 2.8511 -1.0196 0.9880
-0.5388 6.1181 -2.1963 0.9742
-1.0861 6.0676 -2.2043 0.9742
-1.5220 5.5773 -2.0674 0.9757
-2.1041 5.6640 -2.1607 0.9747
-2.5721 5.3939 -2.1370 0.9749
-3.0077 5.0836 -2.1123 0.9752
-3.7692 4.3604 -2.0611 0.9758
-4.0908 3.9565 -2.0352 0.9761
-4.3710 3.5305 -2.0093 0.9764
-4.6090 3.0869 -1.9837 0.9767
-4.8043 2.6300 -1.9586 0.9770
-5.4609 1.8236 -2.0589 0.9758
-5.5665 0.8056 -2.0113 0.9764
-5.4110 -0.6751 -1.9500 0.9771
-5.2817 -1.1445 -1.9326 0.9773
-4.9171 -2.0325 -1.9027 0.9777
-3.8166 -3.5490 -1.8637 0.9781
-3.4751 -3.8643 -1.8585 0.9782
-3.1110 -4.1511 -1.8551 0.9782
-2.7261 -4.4082 -1.8535 0.9782
-1.9022 -4.8284 -1.8558 0.9782
-1.4672 -4.9893 -1.8598 0.9781
-0.5617 -5.2076 -1.8731 0.9780
0.3763 -5.2817 -1.8936 0.9778
1.3274 -5.2053 -1.9210 0.9774
1.8013 -5.1090 -1.9373 0.9772
3.6178 -4.3294 -2.0176 0.9763
4.4326 -3.7044 -2.0658 0.9758
4.8043 -3.3353 -2.0915 0.9755
5.1418 -2.9275 -2.1159 0.9752
5.3178 -1.8752 -2.0164 0.9763
5.8407 -0.4163 -2.0940 0.9754
5.9432 1.1843 -2.1671 0.9746
5.8733 1.7269 -2.1893 0.9743
5.5714 2.7919 -2.2285 0.9739
5.0561 3.7889 -2.2594 0.9735
4.1164 4.4264 -2.1616 0.9746
3.0120 4.6933 -1.9943 0.9766
2.6033 4.9849 -2.0111 0.9764
1.1917 5.4984 -2.0119 0.9764
0.7079 5.6726 -2.0443 0.9760
0.0928 2.6593 -0.9516 0.9888
-0.3291 6.0435 -2.1644 0.9746
-1.4147 5.9622 -2.1913 0.9743
-1.9212 5.7540 -2.1693 0.9746
-2.4005 5.5000 -2.1460 0.9748
-2.8486 5.2042 -2.1216 0.9751
-3.6384 4.5049 -2.0708 0.9757
-3.9752 4.1105 -2.0449 0.9760
-4.2710 3.6923 -2.0190 0.9763
-2.6597 1.5737 -1.1051 0.9870
-4.9049 2.3392 -1.9433 0.9772
-5.4164 2.0123 -2.0663 0.9758
-5.5128 1.5046 -2.0435 0.9760
-5.4499 -0.4956 -1.9569 0.9770
-5.3344 -0.9706 -1.9389 0.9772
-5.1824 -1.4301 -1.9225 0.9774
-4.7759 -2.2942 -1.8947 0.9777
-4.5252 -2.6948 -1.8834 0.9779
-3.2498 -4.0472 -1.8561 0.9782
-2.4757 -4.5534 -1.8534 0.9782
-1.1885 -5.0727 -1.8632 0.9781
-0.2709 -5.2466 -1.8787 0.9779
0.1991 -5.2791 -1.8892 0.9778
0.6733 -5.2743 -1.9014 0.9777
1.6243 -5.1497 -1.9310 0.9773
2.0956 -5.0289 -1.9482 0.9771
2.5601 -4.8686 -1.9671 0.9769
3.4565 -4.4292 -2.0091 0.9764
4.6683 -3.4778 -2.0818 0.9756
5.0223 -3.0861 -2.1080 0.9753
5.6487 -1.1090 -2.0586 0.9758
5.7969 -0.6085 -2.0844 0.9755
5.8991 -0.0903 -2.1098 0.9752
5.9556 0.9811 -2.1585 0.9747
5.9058 1.5240 -2.1811 0.9744
5.8022 2.0644 -2.2023 0.9742
5.6444 2.5962 -2.2218 0.9740
4.3244 4.3490 -2.1932 0.9743
3.1660 4.5884 -1.9935 0.9766
2.7821 4.9193 -2.0210 0.9763
2.3076 5.0930 -1.9995 0.9765
-0.1253 5.9709 -2.1357 0.9749
-2.2245 5.6002 -2.1549 0.9747
-4.4348 3.4205 -2.0028 0.9765
4.3202 3.9715 -2.2488 0.9752
2.9208 4.6632 -2.1086 0.9767
2.5417 4.9999 -2.1494 0.9763
2.0717 5.1717 -2.1350 0.9764
1.0941 3.6435 -1.4578 0.9838
1.1315 5.5126 -2.1566 0.9762
0.0635 2.6605 -1.0198 0.9887
-0.3766 5.7501 -2.2083 0.9756
-1.8367 5.3060 -2.1517 0.9762
-2.2794 5.0696 -2.1301 0.9765
-2.6934 4.7948 -2.1075 0.9767
-3.0758 4.4853 -2.0842 0.9770
-3.7358 3.7789 -2.0363 0.9775
-4.0099 3.3902 -2.0123 0.9778
-4.5975 2.1309 -1.9419 0.9785
-5.1644 1.3487 -2.0455 0.9774
-5.2102 0.4014 -2.0025 0.9779
-5.1741 -0.0642 -1.9829 0.9781
-5.1004 -0.5204 -1.9647 0.9783
-4.9906 -0.9648 -1.9479 0.9785
-4.8463 -1.3949 -1.9326 0.9786
-4.6692 -1.8085 -1.9189 0.9788
-4.2233 -2.5783 -1.8962 0.9790
-3.3522 -3.5635 -1.8749 0.9793
-3.0152 -3.8407 -1.8712 0.9793
-1.8906 -4.5003 -1.8706 0.9793
-1.4844 -4.6591 -1.8739 0.9793
-1.0660 -4.7857 -1.8789 0.9792
0.2418 -4.9631 -1.9042 0.9789
0.6876 -4.9522 -1.9160 0.9788
1.1343 -4.9052 -1.9294 0.9787
1.5793 -4.8216 -1.9443 0.9785
2.8763 -4.3485 -1.9980 0.9779
3.6794 -3.8484 -2.0404 0.9775
4.0528 -3.5443 -2.0632 0.9772
4.4029 -3.2054 -2.0870 0.9769
4.8985 -1.8519 -2.0068 0.9778
5.5253 0.4706 -2.1251 0.9765
5.5175 0.9713 -2.1469 0.9763
5.4611 1.4735 -2.1676 0.9761
5.1996 2.4612 -2.2046 0.9757
4.9948 2.9359 -2.2203 0.9755
4.4433 3.8188 -2.2452 0.9752
4.1013 4.2163 -2.2541 0.9751
2.7197 4.9346 -2.1592 0.9762
0.8300 5.6211 -2.1775 0.9760
-0.1847 5.7751 -2.2142 0.9756
-0.6937 5.6928 -2.1977 0.9757
-2.1168 5.1628 -2.1383 0.9764
-2.9365 4.6050 -2.0930 0.9769
-3.2977 4.2759 -2.0693 0.9771
-3.6234 3.9189 -2.0454 0.9774
-3.9118 3.5381 -2.0213 0.9777
-4.1617 3.1375 -1.9973 0.9779
-2.6413 1.6439 -1.1922 0.9868
-4.5436 2.2933 -1.9504 0.9784
-4.6753 1.8574 -1.9279 0.9787
-5.1960 1.0511 -2.0315 0.9775
-5.1921 0.1092 -1.9901 0.9780
-5.1323 -0.3509 -1.9714 0.9782
-5.0358 -0.8000 -1.9540 0.9784
-4.9043 -1.2357 -1.9381 0.9786
-4.5425 -2.0580 -1.9111 0.9789
-4.3156 -2.4405 -1.9000 0.9790
-4.0605 -2.8016 -1.8905 0.9791
-3.7790 -3.1395 -1.8827 0.9792
-3.1438 -3.7401 -1.8724 0.9793
-2.7940 -4.0000 -1.8698 0.9793
-2.4251 -4.2312 -1.8689 0.9793
-2.0391 -4.4327 -1.8698 0.9793
-1.6381 -4.6034 -1.8724 0.9793
-0.7988 -4.8481 -1.8829 0.9792
0.0757 -4.9580 -1.9002 0.9790
0.5205 -4.9605 -1.9114 0.9789
0.9671 -4.9270 -1.9242 0.9787
1.4131 -4.8572 -1.9385 0.9786
1.8556 -4.7505 -1.9544 0.9784
2.2920 -4.6068 -1.9718 0.9782
3.9155 -3.6623 -2.0546 0.9773
4.6085 -2.9763 -2.1023 0.9768
5.0316 -1.5873 -2.0219 0.9777
5.3580 -0.6842 -2.0699 0.9771
5.4592 -0.2061 -2.0936 0.9769
5.5160 0.2846 -2.1166 0.9766
5.5261 0.7834 -2.1389 0.9764
5.4880 1.2856 -2.1600 0.9761
5.4007 1.7861 -2.1799 0.9759
5.2637 2.2795 -2.1982 0.9757
5.0772 2.7603 -2.2146 0.9755
4.5604 3.6617 -2.2413 0.9753
4.2342 4.0715 -2.2511 0.9752
3.1912 4.4099 -2.0860 0.9770
2.8995 4.8686 -2.1715 0.9760
2.4229 5.0434 -2.1442 0.9763
1.0301 3.7324 -1.4838 0.9836
1.0111 5.5560 -2.1641 0.9761
-0.5045 5.7295 -2.2041 0.9757
-1.0052 5.6163 -2.1865 0.9759
-1.4887 5.4556 -2.1671 0.9761
-1.9504 5.2504 -2.1464 0.9763
-2.3862 5.0040 -2.1245 0.9765
-2.7926 4.7201 -2.1017 0.9768
-3.1666 4.4026 -2.0782 0.9770
-3.5058 4.0556 -2.0544 0.9773
-3.8083 3.6832 -2.0303 0.9776
-4.0727 3.2895 -2.0062 0.9778
-2.7657 1.5140 -1.2083 0.9866
-4.6306 2.0213 -1.9362 0.9786
-5.1790 1.2291 -2.0398 0.9775
-5.0761 -0.6333 -1.9603 0.9783
-4.8049 -1.5004 -1.9290 0.9787
-4.1592 -2.6690 -1.8938 0.9791
-3.8874 -3.0158 -1.8855 0.9791
-3.5902 -3.3385 -1.8788 0.9792
-3.2695 -3.6357 -1.8738 0.9793
-2.1855 -4.3608 -1.8693 0.9793
-1.3804 -4.6940 -1.8750 0.9793
-0.9591 -4.8123 -1.8804 0.9792
1.6905 -4.7948 -1.9483 0.9785
2.5606 -4.4979 -1.9834 0.9781
2.9807 -4.2938 -2.0031 0.9779
4.1431 -3.4624 -2.0691 0.9771
4.4868 -3.1149 -2.0932 0.9769
5.3090 -0.8592 -2.0610 0.9772
5.4264 -0.3868 -2.0848 0.9770
5.5001 0.0997 -2.1081 0.9767
5.4392 1.5993 -2.1726 0.9760
5.3208 2.0960 -2.1915 0.9758
5.1528 2.5821 -2.2087 0.9756
4.6713 3.5005 -2.2370 0.9753
3.9614 4.2597 -2.2292 0.9754
3.3701 4.3437 -2.1069 0.9767
2.8993 4.5176 -2.0571 0.9773
2.6000 4.9785 -2.1524 0.9762
2.1293 5.1507 -2.1358 0.9764
1.1902 5.4914 -2.1533 0.9762
0.7070 5.6653 -2.1879 0.9758
0.0937 2.6871 -1.0304 0.9885
-0.3137 5.7591 -2.2103 0.9756
-2.6441 4.8306 -2.1103 0.9767
-3.0305 4.5252 -2.0871 0.9769
-3.3830 4.1887 -2.0633 0.9772
-3.6994 3.8253 -2.0393 0.9775
-3.9782 3.4391 -2.0152 0.9777
-4.2183 3.0343 -1.9913 0.9780
-4.5804 2.1844 -1.9447 0.9785
-5.0552 1.8781 -2.0666 0.9772
-5.1563 1.4073 -2.0482 0.9774
-5.2043 0.9317 -2.0261 0.9776
-5.2120 0.4592 -2.0050 0.9778
-5.1806 -0.0073 -1.9853 0.9781
-4.6927 -1.7585 -1.9205 0.9788
-4.2541 -2.5333 -1.8974 0.9790
-3.9922 -2.8887 -1.8884 0.9791
-3.3922 -3.5275 -1.8754 0.9793
-2.7030 -4.0608 -1.8694 0.9793
-2.3296 -4.2847 -1.8690 0.9793
-1.5352 -4.6413 -1.8734 0.9793
-1.1181 -4.7719 -1.8782 0.9792
0.6326 -4.9555 -1.9144 0.9788
1.0794 -4.9129 -1.9276 0.9787
1.5247 -4.8339 -1.9424 0.9785
2.4004 -4.5648 -1.9764 0.9781
2.8249 -4.3745 -1.9956 0.9779
4.0080 -3.5837 -2.0604 0.9772
4.3612 -3.2490 -2.0841 0.9770
4.6260 -2.3018 -1.9801 0.9781
5.5230 0.4093 -2.1223 0.9766
5.5211 0.9095 -2.1443 0.9763
5.4707 1.4118 -2.1652 0.9761
5.3709 1.9110 -2.1846 0.9759
5.2214 2.4017 -2.2025 0.9757
5.0227 2.8784 -2.2185 0.9755
4.7757 3.3356 -2.2323 0.9754
4.1456 4.1692 -2.2531 0.9751
3.0730 4.4536 -2.0736 0.9771
2.7786 4.9130 -2.1630 0.9761
2.3047 5.0866 -2.1400 0.9764
1.8369 5.2571 -2.1341 0.9764
0.8898 5.5996 -2.1728 0.9760
-0.6317 5.7056 -2.1999 0.9757
-1.6070 5.4081 -2.1620 0.9761
-2.4912 4.9361 -2.1189 0.9766
-2.8897 4.6434 -2.0959 0.9768
-3.2552 4.3180 -2.0723 0.9771
-3.5853 3.9643 -2.0483 0.9774
-3.8783 3.5861 -2.0242 0.9776
-2.6821 1.7105 -1.2190 0.9865
4.3022 3.2984 -2.2187 0.9768
4.0082 3.6847 -2.2283 0.9767
3.6756 4.0405 -2.2356 0.9767
3.2687 4.3100 -2.2139 0.9769
2.4829 4.8844 -2.2425 0.9766
2.0351 5.0802 -2.2398 0.9766
0.0641 2.6840 -1.0988 0.9885
-1.7094 4.9382 -2.1387 0.9777
-2.1228 4.7215 -2.1187 0.9779
-3.1960 3.8694 -2.0540 0.9785
-3.4898 3.5301 -2.0316 0.9788
-3.7488 3.1695 -2.0092 0.9790
-2.6442 1.5256 -1.2494 0.9869
-4.3080 1.9967 -1.9433 0.9797
-1.9547 0.1506 -0.8024 0.9916
-1.9105 -0.0237 -0.7820 0.9918
-1.9576 -0.1997 -0.8054 0.9915
-4.6967 -0.9080 -1.9578 0.9795
-3.4583 -3.0741 -1.8937 0.9802
-3.1618 -3.3611 -1.8886 0.9803
-2.5074 -3.8583 -1.8833 0.9803
-2.1532 -4.0661 -1.8831 0.9803
-1.4002 -4.3946 -1.8877 0.9803
-1.0053 -4.5133 -1.8924 0.9802
-0.6009 -4.6005 -1.8988 0.9801
0.2279 -4.6770 -1.9165 0.9800
0.6477 -4.6651 -1.9276 0.9798
1.4865 -4.5382 -1.9544 0.9796
1.9002 -4.4225 -1.9700 0.9794
2.3066 -4.2719 -1.9870 0.9792
3.8009 -3.3240 -2.0666 0.9784
4.1262 -3.0040 -2.0889 0.9782
4.4210 -2.6501 -2.1096 0.9780
4.5803 -1.7316 -2.0041 0.9791
4.7693 -1.3310 -2.0265 0.9788
4.9228 -0.9104 -2.0490 0.9786
5.1467 0.4384 -2.1141 0.9779
5.1359 0.9041 -2.1343 0.9777
4.8310 2.2868 -2.1875 0.9772
4.4017 3.1469 -2.2146 0.9769
4.1229 3.5434 -2.2250 0.9768
3.8044 3.9112 -2.2331 0.9767
3.4086 4.1955 -2.2124 0.9769
2.6452 4.7995 -2.2429 0.9766
1.2565 3.7272 -1.6098 0.9831
1.2734 5.2981 -2.2301 0.9767
0.7927 5.3687 -2.2211 0.9768
-0.1716 5.3639 -2.1965 0.9771
-0.6447 5.2904 -2.1812 0.9772
-1.5486 5.0094 -2.1460 0.9776
-1.9709 4.8070 -2.1263 0.9778
-2.3685 4.5674 -2.1057 0.9780
-3.0773 3.9902 -2.0623 0.9785
-3.3838 3.6598 -2.0400 0.9787
-3.6560 3.3067 -2.0176 0.9789
-3.8926 2.9347 -1.9952 0.9792
-2.5999 1.6181 -1.2533 0.9869
-4.2563 2.1483 -1.9513 0.9796
-4.3828 1.7412 -1.9301 0.9798
-4.8147 1.4308 -2.0557 0.9785
-1.9565 0.2167 -0.8056 0.9915
-1.9186 0.0403 -0.7854 0.9917
-4.6169 -1.1633 -1.9486 0.9796
-4.2798 -1.9390 -1.9230 0.9799
-4.0674 -2.3001 -1.9124 0.9800
-3.8281 -2.6412 -1.9035 0.9801
-3.5635 -2.9605 -1.8961 0.9802
-2.9655 -3.5279 -1.8862 0.9803
-1.9236 -4.1816 -1.8838 0.9803
-1.5451 -4.3422 -1.8863 0.9803
-1.1543 -4.4725 -1.8905 0.9802
0.0713 -4.6728 -1.9127 0.9800
1.3302 -4.5725 -1.9490 0.9796
1.7460 -4.4699 -1.9640 0.9795
2.5559 -4.1598 -1.9982 0.9791
2.9443 -3.9526 -2.0172 0.9789
3.3178 -3.7109 -2.0373 0.9787
4.3170 -2.7880 -2.1033 0.9780
5.0904 -0.1922 -2.0848 0.9782
5.1394 0.2652 -2.1062 0.9780
5.1452 0.7294 -2.1269 0.9778
5.1062 1.1962 -2.1464 0.9776
5.0218 1.6608 -2.1648 0.9774
4.8915 2.1183 -2.1816 0.9772
4.7157 2.5637 -2.1968 0.9771
4.2321 3.3981 -2.2213 0.9768
3.1724 4.3838 -2.2147 0.9769
2.7710 4.6528 -2.2164 0.9769
2.3723 4.9379 -2.2421 0.9766
1.9197 5.1221 -2.2388 0.9766
0.9732 5.3480 -2.2247 0.9768
0.2546 2.7987 -1.1502 0.9879
0.0039 2.6623 -1.0896 0.9886
-1.3849 5.0749 -2.1530 0.9775
-1.8155 4.8873 -2.1338 0.9777
-3.2730 3.7864 -2.0484 0.9786
-3.8082 3.0759 -2.0035 0.9791
-2.6675 1.4602 -1.2446 0.9869
-1.9445 0.2814 -0.8041 0.9915
-1.9437 0.1059 -0.7967 0.9916
-4.6662 -1.0112 -1.9541 0.9796
-3.9207 -2.5160 -1.9066 0.9801
-3.3859 -3.1485 -1.8923 0.9802
-3.0839 -3.4293 -1.8876 0.9803
-2.7614 -3.6846 -1.8845 0.9803
-2.4200 -3.9131 -1.8831 0.9803
-1.3020 -4.4273 -1.8887 0.9803
-0.9045 -4.5382 -1.8939 0.9802
-0.4980 -4.6173 -1.9007 0.9801
-0.0847 -4.6639 -1.9091 0.9800
0.3332 -4.6772 -1.9191 0.9799
0.7534 -4.6567 -1.9307 0.9798
2.0031 -4.3879 -1.9742 0.9794
2.4072 -4.2285 -1.9914 0.9792
2.8005 -4.0342 -2.0099 0.9790
3.5424 -3.5425 -2.0504 0.9786
3.8849 -3.2466 -2.0721 0.9784
4.2041 -2.9187 -2.0946 0.9781
4.6310 -1.6330 -2.0097 0.9790
4.9555 -0.8020 -2.0546 0.9785
5.0612 -0.3608 -2.0767 0.9783
5.1261 1.0215 -2.1392 0.9777
4.7868 2.3987 -2.1913 0.9771
4.3356 3.2490 -2.2174 0.9769
4.0465 3.6387 -2.2272 0.9768
2.5367 4.8572 -2.2427 0.9766
1.1488 3.6784 -1.5772 0.9835
1.1531 5.3204 -2.2281 0.9767
0.0965 2.7666 -1.1330 0.9881
-0.7617 5.2647 -2.1771 0.9773
-1.6569 4.9622 -2.1411 0.9776
-2.4641 4.5017 -2.1004 0.9781
-3.4555 3.5731 -2.0344 0.9787
-3.7188 3.2149 -2.0119 0.9790
-3.9463 2.8386 -1.9896 0.9792
-4.2915 2.0466 -1.9459 0.9797
-4.4089 1.6380 -1.9249 0.9799
-1.9578 0.1725 -0.8044 0.9915
-1.8993 -0.0027 -0.7773 0.9918
-1.9579 -0.1781 -0.8046 0.9915
-2.1765 -0.3960 -0.9054 0.9905
-4.0097 -2.3878 -1.9100 0.9800
-3.7639 -2.7235 -1.9015 0.9801
-3.1995 -3.3271 -1.8892 0.9802
-2.8844 -3.5921 -1.8855 0.9803
-2.5499 -3.8308 -1.8834 0.9803
-1.8298 -4.2247 -1.8843 0.9803
-0.6511 -4.5915 -1.8980 0.9802
0.1764 -4.6761 -1.9152 0.9800
1.0164 -4.6265 -1.9387 0.9797
1.4352 -4.5500 -1.9526 0.9796
1.8496 -4.4386 -1.9680 0.9794
2.2571 -4.2923 -1.9848 0.9793
2.6547 -4.1110 -2.0029 0.9791
3.0397 -3.8951 -2.0221 0.9789
4.3875 -2.6960 -2.1076 0.9780
4.3293 -2.1542 -1.9791 0.9793
4.7479 -1.3815 -2.0238 0.9789
5.0263 -0.5276 -2.0684 0.9784
5.1067 -0.0781 -2.0903 0.9782
5.1450 0.3813 -2.1115 0.9779
5.1396 0.8467 -2.1319 0.9777
4.9934 1.7766 -2.1692 0.9774
4.8516 2.2316 -2.1856 0.9772
4.6645 2.6732 -2.2003 0.9770
4.4332 3.0963 -2.2131 0.9769
4.1595 3.4960 -2.2238 0.9768
3.8457 3.8676 -2.2322 0.9767
2.6979 4.7703 -2.2430 0.9766
1.8033 5.1611 -2.2375 0.9766
0.8521 5.3626 -2.2223 0.9768
0.1894 2.7694 -1.1361 0.9881
-0.1127 5.3698 -2.1982 0.9771
-0.5870 5.3019 -2.1832 0.9772
-1.0493 5.1884 -2.1665 0.9774
-1.4951 5.0316 -2.1483 0.9776
-1.9202 4.8340 -2.1288 0.9778
-3.3479 3.7018 -2.0428 0.9787
-3.8654 2.9814 -1.9979 0.9791
3.4230 3.7628 -2.2169 0.9780
2.3118 4.5478 -2.2234 0.9780
1.8949 4.7304 -2.2209 0.9780
1.1061 3.6833 -1.6761 0.9834
0.5700 5.0154 -2.1999 0.9782
0.0659 2.7602 -1.2033 0.9880
-0.3263 4.9815 -2.1757 0.9785
-0.7639 4.8992 -2.1610 0.9786
-1.1887 4.7755 -2.1448 0.9788
-2.9930 3.6237 -2.0483 0.9797
-3.5156 2.9723 -2.0064 0.9801
-4.0482 1.8763 -1.9446 0.9807
-1.5059 0.2526 -0.6655 0.9934
-1.5290 0.1178 -0.6683 0.9933
-1.5249 -0.0189 -0.6646 0.9934
-1.5259 -0.1557 -0.6685 0.9933
-1.5677 -0.4512 -0.7109 0.9929
-3.9701 -1.9611 -1.9298 0.9809
-3.7609 -2.2960 -1.9204 0.9810
-2.3706 -3.6478 -1.8960 0.9812
-1.6861 -4.0135 -1.8972 0.9812
-0.9502 -4.2660 -1.9047 0.9811
0.2152 -4.4176 -1.9276 0.9809
0.6116 -4.4049 -1.9382 0.9808
2.9058 -3.6403 -2.0300 0.9799
3.8781 -2.8233 -2.0906 0.9793
4.1503 -2.4878 -2.1088 0.9791
4.0910 -1.9798 -1.9808 0.9804
4.2960 -1.6241 -2.0016 0.9802
4.7832 -0.0206 -2.0846 0.9793
4.7978 0.8446 -2.1231 0.9790
4.6454 1.7106 -2.1574 0.9786
4.5056 2.1327 -2.1725 0.9785
4.3240 2.5416 -2.1859 0.9784
3.5432 3.6426 -2.2147 0.9781
3.2120 3.9535 -2.2200 0.9780
2.8506 4.2299 -2.2230 0.9780
2.4629 4.4686 -2.2237 0.9780
2.0531 4.6670 -2.2221 0.9780
1.1861 4.9348 -2.2119 0.9781
-0.1600 5.0013 -2.1808 0.9784
-1.8416 4.4917 -2.1157 0.9790
-2.5619 4.0175 -2.0766 0.9794
-2.8812 3.7358 -2.0561 0.9796
-3.1703 3.4289 -2.0352 0.9798
-3.4277 3.1002 -2.0142 0.9800
-4.1203 1.6369 -1.9322 0.9808
-1.5725 0.4673 -0.7149 0.9929
-1.5089 0.3052 -0.6709 0.9933
-1.5242 0.1688 -0.6683 0.9933
-1.5265 0.0321 -0.6654 0.9934
-1.5295 -0.1046 -0.6681 0.9933
-1.5096 -0.2398 -0.6661 0.9934
-4.0417 -1.8311 -1.9338 0.9808
-3.6171 -2.4957 -1.9152 0.9810
-3.0960 -3.0783 -1.9027 0.9811
-2.8035 -3.3352 -1.8988 0.9812
-2.1630 -3.7739 -1.8957 0.9812
-1.8186 -3.9534 -1.8965 0.9812
-1.0912 -4.2276 -1.9029 0.9811
-0.3250 -4.3830 -1.9154 0.9810
0.4631 -4.4135 -1.9340 0.9808
1.2553 -4.3148 -1.9584 0.9806
1.6469 -4.2162 -1.9727 0.9804
2.0322 -4.0845 -1.9883 0.9803
2.4085 -3.9199 -2.0050 0.9801
3.1228 -3.4929 -2.0420 0.9798
3.4552 -3.2318 -2.0619 0.9796
3.7672 -2.9401 -2.0826 0.9794
4.0542 -2.6182 -2.1033 0.9792
4.0069 -2.1072 -1.9730 0.9804
2.3210 -0.9673 -1.0959 0.9891
4.4088 -1.3908 -2.0148 0.9800
4.5623 -1.0025 -2.0358 0.9798
4.6809 -0.5978 -2.0566 0.9796
4.7626 -0.1798 -2.0771 0.9794
4.8053 0.2479 -2.0970 0.9792
4.8076 0.6816 -2.1162 0.9790
3.9429 3.1659 -2.2038 0.9782
1.7876 4.7696 -2.2199 0.9780
0.9066 4.9821 -2.2069 0.9781
0.0039 2.6664 -1.1621 0.9884
-0.4372 4.9648 -2.1721 0.9785
-1.2930 4.7382 -2.1405 0.9788
-1.6961 4.5657 -2.1227 0.9790
-2.0778 4.3572 -2.1038 0.9792
-2.4350 4.1157 -2.0841 0.9794
-3.3351 3.2256 -2.0221 0.9800
-2.5388 1.7004 -1.3317 0.9868
-2.6336 1.4417 -1.3085 0.9870
-4.0788 1.7804 -1.9396 0.9808
-1.5363 0.3646 -0.6881 0.9931
-1.5209 -0.1897 -0.6680 0.9933
-3.9200 -2.0470 -1.9273 0.9809
-3.4639 -2.6873 -1.9107 0.9811
-3.2003 -2.9760 -1.9046 0.9811
-2.9153 -3.2418 -1.9001 0.9812
-2.6106 -3.4835 -1.8972 0.9812
-2.2880 -3.6997 -1.8958 0.9812
-1.9492 -3.8894 -1.8960 0.9812
-0.8549 -4.2893 -1.9061 0.9811
-0.4706 -4.3632 -1.9126 0.9810
0.3147 -4.4175 -1.9301 0.9809
0.7113 -4.3967 -1.9411 0.9808
1.1076 -4.3433 -1.9534 0.9806
1.8889 -4.1377 -1.9823 0.9803
2.6380 -3.8002 -2.0161 0.9800
3.6530 -3.0528 -2.0748 0.9794
4.1453 -1.8926 -1.9860 0.9803
4.3428 -1.5314 -2.0069 0.9801
4.6408 -0.7510 -2.0488 0.9797
4.7365 -0.3376 -2.0695 0.9795
4.7940 0.0869 -2.0896 0.9793
4.8116 0.5188 -2.1091 0.9791
4.7880 0.9541 -2.1277 0.9789
4.2720 2.6417 -2.1890 0.9783
3.4630 3.7238 -2.2162 0.9781
3.1239 4.0263 -2.2210 0.9780
2.7555 4.2936 -2.2234 0.9780
2.3618 4.5224 -2.2235 0.9780
1.9472 4.7102 -2.2213 0.9780
1.1862 3.7980 -1.7341 0.9828
1.0741 4.9559 -2.2100 0.9781
0.6254 5.0117 -2.2011 0.9782
0.0961 2.7554 -1.2016 0.9880
-0.2717 4.9887 -2.1774 0.9784
-0.7107 4.9116 -2.1629 0.9786
-1.5475 4.6346 -2.1295 0.9789
-1.9376 4.4393 -2.1110 0.9791
-2.6448 3.9493 -2.0715 0.9795
-2.9567 3.6609 -2.0509 0.9797
-3.2380 3.3482 -2.0300 0.9799
-3.7031 2.6637 -1.9880 0.9803
-2.5941 1.5349 -1.3136 0.9869
-4.0325 1.9231 -1.9470 0.9807
-1.5593 0.4256 -0.7044 0.9930
-1.5280 0.1346 -0.6685 0.9933
-1.5276 -0.1389 -0.6685 0.9933
-1.4994 -0.2728 -0.6642 0.9934
-3.7881 -2.2558 -1.9215 0.9809
-3.5567 -2.5736 -1.9133 0.9810
-3.3016 -2.8705 -1.9067 0.9811
-1.7299 -3.9942 -1.8970 0.9812
-1.3689 -4.1385 -1.8998 0.9812
-0.6153 -4.3392 -1.9100 0.9811
0.1666 -4.4170 -1.9264 0.9809
0.5628 -4.4083 -1.9368 0.9808
0.9594 -4.3671 -1.9486 0.9807
1.3541 -4.2932 -1.9619 0.9805
2.5012 -3.8733 -2.0094 0.9801
2.8623 -3.6678 -2.0276 0.9799
3.5356 -3.1613 -2.0670 0.9795
3.8420 -2.8622 -2.0880 0.9793
4.5955 -0.9022 -2.0410 0.9798
4.7050 -0.4939 -2.0618 0.9796
4.8098 0.3565 -2.1019 0.9792
4.7519 1.2262 -2.1388 0.9788
4.3486 2.4921 -2.1844 0.9784
3.8750 3.2569 -2.2061 0.9782
3.5817 3.6022 -2.2139 0.9781
3.2545 3.9170 -2.2194 0.9780
2.8966 4.1979 -2.2228 0.9780
2.5119 4.4414 -2.2238 0.9780
2.1046 4.6448 -2.2224 0.9780
1.2407 4.9234 -2.2128 0.9781
0.7939 4.9961 -2.2047 0.9782
-0.5475 4.9455 -2.1685 0.9785
-0.9793 4.8421 -2.1530 0.9787
-2.5206 4.0502 -2.0791 0.9794
-2.8435 3.7719 -2.0586 0.9796
3.7477 2.8733 -2.1859 0.9794
2.1600 4.2491 -2.2064 0.9792
0.5329 4.6893 -2.1846 0.9794
0.0661 2.7659 -1.2807 0.9879
-0.7151 4.5859 -2.1484 0.9798
-1.1132 4.4723 -2.1333 0.9799
-1.4960 4.3219 -2.1170 0.9800
-1.8601 4.1370 -2.0996 0.9802
-2.2022 3.9204 -2.0814 0.9804
-2.5200 3.6748 -2.0625 0.9806
-2.8110 3.4033 -2.0432 0.9807
-3.5072 2.4647 -1.9842 0.9813
-1.3128 0.6085 -0.6698 0.9936
-1.3333 0.4787 -0.6558 0.9938
-1.3138 0.3431 -0.6285 0.9940
-1.3203 0.2214 -0.6197 0.9941
-1.3112 -0.2535 -0.6182 0.9941
-1.3224 -0.3806 -0.6370 0.9940
-1.3308 -0.5155 -0.6606 0.9937
-3.7574 -1.8560 -1.9399 0.9817
-3.5603 -2.1735 -1.9309 0.9818
-3.0955 -2.7517 -1.9171 0.9819
-2.8310 -3.0094 -1.9125 0.9820
-2.2457 -3.4556 -1.9076 0.9820
-1.9285 -3.6417 -1.9075 0.9820
-0.5377 -4.1167 -1.9218 0.9819
0.2037 -4.1812 -1.9377 0.9817
0.5787 -4.1679 -1.9478 0.9816
0.9536 -4.1238 -1.9592 0.9815
1.3261 -4.0485 -1.9720 0.9814
1.6937 -3.9420 -1.9860 0.9813
2.4045 -3.6352 -2.0175 0.9810
2.7424 -3.4357 -2.0348 0.9808
4.0404 -1.5275 -1.9994 0.9811
4.3311 -0.8010 -2.0388 0.9808
4.4270 -0.4155 -2.0582 0.9806
4.4875 -0.0193 -2.0772 0.9804
4.5109 0.3842 -2.0956 0.9802
4.4960 0.7915 -2.1131 0.9801
4.3487 1.6013 -2.1451 0.9798
4.0445 2.3773 -2.1716 0.9795
3.5903 3.0856 -2.1913 0.9793
3.3113 3.4043 -2.1983 0.9793
3.0013 3.6942 -2.2032 0.9792
2.6634 3.9521 -2.2060 0.9792
1.9183 4.3607 -2.2052 0.9792
1.5193 4.5068 -2.2015 0.9793
1.1085 4.6123 -2.1957 0.9793
0.6904 4.6761 -2.1880 0.9794
-0.1497 4.6787 -2.1668 0.9796
-1.3548 4.3823 -2.1232 0.9800
-1.7262 4.2101 -2.1062 0.9801
-2.0769 4.0051 -2.0883 0.9803
-2.4040 3.7700 -2.0697 0.9805
-2.7053 3.5078 -2.0505 0.9807
-2.9787 3.2216 -2.0310 0.9808
-3.4355 2.5901 -1.9916 0.9812
-2.5620 1.5945 -1.3968 0.9868
-1.3294 0.5281 -0.6621 0.9937
-1.3077 0.2645 -0.6176 0.9941
-1.3345 0.1478 -0.6215 0.9941
-1.3336 -0.4659 -0.6539 0.9938
-1.3162 -0.5963 -0.6689 0.9937
-3.1893 -2.6496 -1.9193 0.9819
-2.6555 -3.1592 -1.9103 0.9820
-2.3605 -3.3794 -1.9081 0.9820
-1.7228 -3.7450 -1.9081 0.9820
-1.0334 -4.0041 -1.9142 0.9819
-0.3077 -4.1498 -1.9261 0.9818
0.0638 -4.1783 -1.9343 0.9817
1.1871 -4.0804 -1.9670 0.9814
1.5568 -3.9855 -1.9806 0.9813
1.9202 -3.8594 -1.9953 0.9812
3.2581 -3.0474 -2.0650 0.9805
3.8165 -2.4647 -2.1030 0.9802
3.7716 -1.9835 -1.9725 0.9814
4.2864 -0.9419 -2.0314 0.9808
4.3952 -0.5613 -2.0510 0.9807
4.4669 1.0464 -2.1236 0.9800
3.1208 3.5892 -2.2016 0.9793
0.8475 4.6571 -2.1911 0.9794
0.4271 4.6948 -2.1821 0.9794
0.0038 2.6431 -1.2235 0.9884
-0.4091 4.6458 -2.1588 0.9797
-0.8164 4.5609 -2.1447 0.9798
-1.9482 4.0855 -2.0951 0.9802
-2.2845 3.8613 -2.0767 0.9804
-2.5957 3.6089 -2.0577 0.9806
-3.1347 3.0318 -2.0186 0.9810
-3.3594 2.7134 -1.9989 0.9811
-2.6233 1.4360 -1.3843 0.9869
-1.3326 0.4450 -0.6503 0.9938
-1.3270 0.1921 -0.6207 0.9941
-1.3016 -0.2821 -0.6165 0.9941
-1.3286 -0.4149 -0.6443 0.9939
-1.3265 -0.5483 -0.6644 0.9937
-3.0310 -2.8185 -1.9158 0.9819
-2.7614 -3.0706 -1.9116 0.9820
-2.4730 -3.2998 -1.9088 0.9820
-2.1674 -3.5048 -1.9075 0.9820
-0.4456 -4.1314 -1.9234 0.9819
-0.0758 -4.1711 -1.9311 0.9818
0.2978 -4.1807 -1.9401 0.9817
1.4190 -4.0247 -1.9754 0.9814
2.1432 -3.7646 -2.0052 0.9811
2.4907 -3.5880 -2.0218 0.9809
3.1435 -3.1437 -2.0579 0.9806
3.7217 -2.5838 -2.0972 0.9802
3.9004 -1.7807 -1.9847 0.9813
4.0837 -1.4400 -2.0044 0.9811
4.2371 -1.0807 -2.0241 0.9809
4.3584 -0.7053 -2.0437 0.9807
4.4456 -0.3169 -2.0630 0.9805
4.4969 0.0815 -2.0819 0.9804
4.5108 0.4863 -2.1001 0.9802
4.4224 1.3003 -2.1337 0.9799
4.1765 2.0929 -2.1624 0.9796
3.7771 2.8305 -2.1848 0.9794
3.2363 3.4800 -2.1997 0.9793
2.9189 3.7622 -2.2041 0.9792
2.2067 4.2253 -2.2065 0.9792
1.8194 4.4011 -2.2044 0.9792
1.1735 3.7575 -1.8222 0.9828
1.0040 4.6322 -2.1940 0.9793
0.5847 4.6856 -2.1857 0.9794
0.0964 2.7635 -1.2800 0.9879
-0.2542 4.6674 -2.1637 0.9796
-1.4499 4.3423 -2.1191 0.9800
-2.1614 3.9487 -2.0837 0.9804
-2.4823 3.7065 -2.0649 0.9805
-2.7767 3.4380 -2.0456 0.9807
-3.0427 3.1463 -2.0260 0.9809
-2.5858 1.5300 -1.3908 0.9868
-1.3325 0.4951 -0.6580 0.9938
-1.3179 0.3597 -0.6323 0.9940
-1.3165 0.2357 -0.6191 0.9941
-1.3377 0.1178 -0.6216 0.9941
-1.3155 -0.2393 -0.6189 0.9941
-3.7799 -1.8158 -1.9411 0.9817
-3.5859 -2.1354 -1.9319 0.9818
-1.9683 -3.6202 -1.9074 0.9820
-1.6387 -3.7836 -1.9086 0.9820
-0.2148 -4.1597 -1.9280 0.9818
0.5325 -4.1712 -1.9465 0.9816
2.7016 -3.4619 -2.0327 0.9808
3.3335 -2.9806 -2.0699 0.9805
3.8772 -2.3825 -2.1065 0.9801
4.4820 -0.0686 -2.0749 0.9804
4.5100 0.3343 -2.0934 0.9803
4.4999 0.7413 -2.1110 0.9801
4.4509 1.1486 -2.1277 0.9799
3.8631 2.6981 -2.1811 0.9794
3.6223 3.0446 -2.1903 0.9794
3.3474 3.3665 -2.1975 0.9793
2.7064 3.9222 -2.2058 0.9792
0.7421 4.6705 -2.1890 0.9794
0.2005 2.9319 -1.3603 0.9871
-1.3078 4.4011 -2.1252 0.9800
-1.6815 4.2331 -2.1084 0.9801
-2.6697 3.5414 -2.0529 0.9806
-2.9466 3.2580 -2.0334 0.9808
-2.5502 1.6264 -1.4001 0.9868
2.6972 3.5564 -2.1894 0.9803
2.0242 3.9820 -2.1912 0.9803
1.6594 4.1426 -2.1890 0.9803
1.1075 3.6880 -1.8889 0.9830
0.4997 4.3973 -2.1709 0.9805
0.0662 2.7723 -1.3603 0.9877
-0.2864 4.3735 -2.1499 0.9807
-0.6713 4.3048 -2.1371 0.9808
-1.4056 4.0606 -2.1078 0.9810
-2.8954 2.9288 -2.0202 0.9818
-3.1161 2.6345 -2.0016 0.9820
-2.5890 1.4937 -1.4662 0.9868
-1.1385 0.5277 -0.6155 0.9944
-1.1950 0.0921 -0.5879 0.9947
-1.1927 -0.1217 -0.5881 0.9947
-1.1525 -0.4464 -0.6063 0.9945
-1.1309 -0.5586 -0.6187 0.9944
-3.1674 -2.3453 -1.9332 0.9826
-2.9367 -2.6105 -1.9274 0.9826
-2.6861 -2.8554 -1.9229 0.9827
-1.5156 -3.6076 -1.9194 0.9827
-0.5101 -3.9051 -1.9318 0.9826
0.5486 -3.9509 -1.9566 0.9824
0.9037 -3.9078 -1.9675 0.9823
1.2562 -3.8352 -1.9796 0.9822
1.9443 -3.6009 -2.0074 0.9819
2.5936 -3.2492 -2.0393 0.9816
3.1838 -2.7844 -2.0747 0.9813
3.4503 -2.5119 -2.0935 0.9812
3.6852 -2.2091 -2.1076 0.9810
3.6314 -1.7574 -1.9789 0.9822
4.0783 -0.7543 -2.0344 0.9817
4.1663 -0.3911 -2.0527 0.9815
4.2209 -0.0182 -2.0705 0.9814
4.2247 0.7437 -2.1042 0.9811
4.1721 1.1257 -2.1197 0.9809
3.7941 2.2301 -2.1588 0.9806
3.3661 2.8929 -2.1771 0.9804
3.1039 3.1910 -2.1836 0.9804
2.8130 3.4623 -2.1882 0.9803
2.4960 3.7038 -2.1908 0.9803
1.2680 3.7612 -1.9470 0.9825
0.6474 4.3845 -2.1740 0.9804
0.1675 2.9193 -1.4344 0.9871
-0.1404 4.3896 -2.1543 0.9806
-2.2618 3.5468 -2.0634 0.9814
-2.8055 3.0343 -2.0271 0.9818
-3.2394 2.4422 -1.9900 0.9821
-1.1511 0.4573 -0.6076 0.9945
-1.1590 0.3444 -0.5931 0.9946
-1.1737 0.2374 -0.5874 0.9947
-1.1917 0.1320 -0.5881 0.9947
-1.1963 0.0252 -0.5869 0.9947
-1.1838 -0.1881 -0.5880 0.9947
-1.1408 -0.5169 -0.6144 0.9944
-3.0255 -2.5135 -1.9294 0.9826
-2.7821 -2.7662 -1.9244 0.9827
-2.2399 -3.2068 -1.9188 0.9827
-1.6348 -3.5537 -1.9188 0.9827
-0.9805 -3.7990 -1.9246 0.9827
-0.2919 -3.9359 -1.9360 0.9826
1.1247 -3.8659 -1.9749 0.9822
1.4744 -3.7746 -1.9878 0.9821
1.8179 -3.6537 -2.0018 0.9820
3.6009 -2.3255 -2.1027 0.9811
3.5583 -1.8713 -1.9721 0.9822
4.2045 -0.1587 -2.0639 0.9814
4.2375 0.2186 -2.0814 0.9813
4.1961 0.9830 -2.1140 0.9810
3.8590 2.0980 -2.1546 0.9806
3.6747 2.4457 -2.1653 0.9805
3.4562 2.7751 -2.1742 0.9804
2.6175 3.6171 -2.1901 0.9803
2.2860 3.8384 -2.1915 0.9803
1.0557 3.8249 -1.9464 0.9825
0.7946 4.3663 -2.1770 0.9804
0.4006 4.4028 -2.1686 0.9805
-0.3839 4.3597 -2.1468 0.9807
-0.7664 4.2818 -2.1337 0.9808
-1.1374 4.1681 -2.1193 0.9809
-2.7117 3.1370 -2.0340 0.9817
-3.1670 2.5580 -1.9969 0.9820
-1.1107 0.6080 -0.6211 0.9944
-1.1443 0.4995 -0.6124 0.9945
-1.1635 0.2761 -0.5866 0.9947
-1.1865 0.1717 -0.5881 0.9947
-1.1961 0.0652 -0.5876 0.9947
-1.1965 -0.0417 -0.5872 0.9947
-1.1898 -0.1484 -0.5881 0.9947
-1.1587 -0.3618 -0.5955 0.9946
-3.1114 -2.4138 -1.9316 0.9826
-2.8756 -2.6740 -1.9261 0.9827
-2.3466 -3.1312 -1.9194 0.9827
-1.7522 -3.4963 -1.9183 0.9827
-1.4347 -3.6417 -1.9200 0.9827
-1.1061 -3.7611 -1.9230 0.9827
-0.7681 -3.8537 -1.9275 0.9826
-0.4227 -3.9188 -1.9334 0.9826
-0.0719 -3.9557 -1.9407 0.9825
0.2824 -3.9638 -1.9493 0.9825
1.3441 -3.8123 -1.9828 0.9822
1.6902 -3.7025 -1.9964 0.9820
2.3563 -3.3944 -2.0269 0.9818
3.2528 -2.7184 -2.0794 0.9813
3.5130 -2.4389 -2.0978 0.9811
3.7397 -2.1292 -2.1109 0.9810
3.8492 -1.3573 -2.0021 0.9820
4.2293 0.0767 -2.0749 0.9813
4.1530 1.2211 -2.1234 0.9809
4.0543 1.5971 -2.1375 0.9808
3.5419 2.6542 -2.1711 0.9805
3.3031 2.9702 -2.1790 0.9804
3.0334 3.2619 -2.1850 0.9803
2.4127 3.7594 -2.1912 0.9803
2.0680 3.9598 -2.1913 0.9803
1.7052 4.1248 -2.1894 0.9803
1.1602 3.7150 -1.9091 0.9828
-1.0001 4.2147 -2.1248 0.9809
-1.3621 4.0795 -2.1097 0.9810
-1.7073 3.9117 -2.0936 0.9812
-2.3357 3.4876 -2.0590 0.9815
-2.6141 3.2368 -2.0409 0.9816
-3.2857 2.3634 -1.9854 0.9821
-2.5774 1.5250 -1.4690 0.9867
-1.1353 0.5414 -0.6170 0.9944
-1.1545 0.4289 -0.6041 0.9945
-1.1586 0.3162 -0.5891 0.9947
-1.1941 0.1052 -0.5880 0.9947
-1.1788 -0.2145 -0.5877 0.9947
-1.1344 -0.5449 -0.6173 0.9944
-3.4006 -2.0251 -1.9414 0.9825
-2.9662 -2.5789 -1.9280 0.9826
-2.7179 -2.8264 -1.9234 0.9827
-2.1671 -3.2557 -1.9184 0.9827
-0.5527 -3.8977 -1.9310 0.9826
0.1495 -3.9642 -1.9459 0.9825
0.8600 -3.9147 -1.9661 0.9823
1.5614 -3.7471 -1.9912 0.9821
1.9029 -3.6187 -2.0055 0.9819
2.2349 -3.4609 -2.0209 0.9818
2.5551 -3.2741 -2.0372 0.9817
2.8609 -3.0589 -2.0544 0.9815
3.1496 -2.8161 -2.0725 0.9814
3.4187 -2.5468 -2.0911 0.9812
3.6579 -2.2477 -2.1060 0.9811
3.6077 -1.7952 -1.9767 0.9822
3.9417 -1.1469 -2.0137 0.9819
4.1573 -0.4364 -2.0505 0.9815
4.2161 -0.0645 -2.0683 0.9814
4.2402 0.3143 -2.0856 0.9812
3.9739 1.8278 -2.1456 0.9807
3.8160 2.1869 -2.1574 0.9806
3.1378 3.1557 -2.1829 0.9804
2.5363 3.6758 -2.1906 0.9803
2.1993 3.8888 -2.1915 0.9803
1.8429 4.0672 -2.1903 0.9803
1.4707 4.2093 -2.1872 0.9803
1.0870 4.3135 -2.1820 0.9804
0.6958 4.3791 -2.1750 0.9804
-0.0922 4.3937 -2.1557 0.9806
-0.4809 4.3436 -2.1437 0.9807
-0.8608 4.2565 -2.1302 0.9808
-1.2284 4.1341 -2.1155 0.9810
-1.9133 3.7911 -2.0830 0.9813
-2.2250 3.5753 -2.0656 0.9814
-2.5129 3.3334 -2.0477 0.9816
-2.5419 1.6210 -1.4788 0.9867
3.3038 2.5329 -2.1597 0.9814
3.0749 2.8268 -2.1669 0.9814
2.5345 3.3418 -2.1759 0.9813
2.2282 3.5573 -2.1776 0.9813
1.9020 3.7416 -2.1775 0.9813
0.4698 4.1341 -2.1585 0.9814
0.0664 2.7794 -1.4423 0.9875
-0.2695 4.1141 -2.1389 0.9816
-0.6317 4.0509 -2.1269 0.9817
-1.3238 3.8242 -2.0994 0.9819
-2.4973 3.0235 -2.0344 0.9825
-2.7334 2.7650 -2.0170 0.9826
-3.1259 2.1968 -1.9821 0.9829
-0.9988 0.5763 -0.5982 0.9948
-1.0685 0.2790 -0.5729 0.9950
-1.1052 0.0851 -0.5750 0.9950
-1.1063 -0.0137 -0.5740 0.9950
-1.0557 -0.4089 -0.5873 0.9949
-1.0322 -0.5099 -0.5973 0.9948
-0.9841 -0.6008 -0.5981 0.9948
-2.7904 -2.4804 -1.9368 0.9833
-1.7392 -3.2844 -1.9280 0.9834
-1.4404 -3.4285 -1.9292 0.9834
-1.1304 -3.5480 -1.9318 0.9834
-0.8112 -3.6421 -1.9358 0.9833
0.1834 -3.7650 -1.9555 0.9832
0.8577 -3.7093 -1.9751 0.9830
1.5214 -3.5408 -1.9993 0.9828
2.7438 -2.8699 -2.0598 0.9823
3.2642 -2.3764 -2.0946 0.9820
3.7376 -1.0431 -2.0131 0.9827
3.9793 -0.0172 -2.0644 0.9822
3.9791 0.7005 -2.0960 0.9820
3.9279 1.0598 -2.1106 0.9818
3.5682 2.0973 -2.1472 0.9815
3.1641 2.7193 -2.1644 0.9814
2.0262 3.6764 -2.1777 0.9813
1.3382 3.9696 -2.1732 0.9813
0.9767 4.0638 -2.1682 0.9813
0.6086 4.1218 -2.1615 0.9814
-0.1321 4.1288 -2.1430 0.9816
-0.8536 3.9940 -2.1188 0.9818
-1.5283 3.7275 -2.0900 0.9820
-2.1327 3.3445 -2.0578 0.9823
-1.0542 0.4188 -0.5885 0.9949
-1.0854 0.2196 -0.5745 0.9950
-1.1057 -0.0756 -0.5749 0.9950
-1.0948 -0.1739 -0.5751 0.9950
-1.0714 -0.2700 -0.5732 0.9950
-3.0857 -2.1290 -1.9448 0.9832
-2.3946 -2.8487 -1.9306 0.9834
-2.1288 -3.0477 -1.9286 0.9834
-1.5536 -3.3774 -1.9286 0.9834
-0.9317 -3.6099 -1.9341 0.9833
-0.2773 -3.7389 -1.9450 0.9832
1.3988 -3.5809 -1.9944 0.9828
1.7240 -3.4650 -2.0078 0.9827
2.3461 -3.1495 -2.0374 0.9825
3.1729 -2.4763 -2.0880 0.9820
3.4043 -2.1986 -2.1024 0.9819
2.2826 -0.9513 -1.2829 0.9889
3.6886 -1.1636 -2.0065 0.9827
3.9031 -0.4984 -2.0413 0.9824
3.9646 -0.1497 -2.0582 0.9823
3.9937 0.2060 -2.0746 0.9821
3.9895 0.5656 -2.0904 0.9820
3.8783 1.2826 -2.1191 0.9818
2.1480 3.6067 -2.1778 0.9813
1.4711 3.9252 -2.1746 0.9813
0.7469 4.1043 -2.1642 0.9814
-0.3612 4.1015 -2.1360 0.9816
-1.0709 3.9242 -2.1102 0.9818
-1.4067 3.7868 -2.0957 0.9820
-1.7259 3.6194 -2.0802 0.9821
-2.0259 3.4242 -2.0640 0.9822
-2.7887 2.6971 -2.0126 0.9827
-2.9918 2.4165 -1.9951 0.9828
-2.5100 1.6811 -1.5672 0.9865
-1.0112 0.5536 -0.5981 0.9948
-1.0616 0.3545 -0.5806 0.9950
-1.0758 0.2553 -0.5736 0.9950
-1.1066 -0.0386 -0.5744 0.9950
-1.1003 -0.1373 -0.5752 0.9950
-1.0817 -0.2344 -0.5742 0.9950
-1.0630 -0.3319 -0.5777 0.9950
-1.0516 -0.4347 -0.5903 0.9949
-1.0214 -0.5334 -0.5978 0.9948
-2.9560 -2.2933 -1.9409 0.9833
-2.7323 -2.5408 -1.9356 0.9833
-1.9547 -3.1608 -1.9280 0.9834
-1.3635 -3.4609 -1.9298 0.9834
-1.0510 -3.5741 -1.9327 0.9834
-0.7298 -3.6617 -1.9370 0.9833
-0.4016 -3.7229 -1.9426 0.9833
-0.0683 -3.7572 -1.9495 0.9832
0.9421 -3.6943 -1.9779 0.9830
1.2753 -3.6171 -1.9897 0.9829
2.2332 -3.2169 -2.0316 0.9825
3.0786 -2.5728 -2.0814 0.9821
3.3216 -2.3060 -2.0977 0.9819
3.2978 -1.8776 -1.9687 0.9830
2.2398 -1.0226 -1.2773 0.9890
3.6357 -1.2820 -2.0000 0.9828
3.7683 -0.9611 -2.0175 0.9826
3.8720 -0.6266 -2.0348 0.9825
3.9453 -0.2812 -2.0519 0.9823
3.9867 0.0723 -2.0686 0.9822
3.9096 1.1495 -2.1141 0.9818
3.8152 1.5029 -2.1273 0.9817
3.6865 1.8473 -2.1392 0.9816
3.3299 2.4953 -2.1587 0.9814
1.9431 3.7207 -2.1776 0.9813
1.6023 3.8759 -2.1758 0.9813
1.1505 3.6838 -2.0021 0.9828
0.8847 4.0818 -2.1667 0.9814
-0.2244 4.1195 -2.1403 0.9816
-1.6085 3.6854 -2.0861 0.9820
-2.2027 3.2890 -2.0536 0.9823
-2.9190 2.5234 -2.0017 0.9828
-0.9924 0.5872 -0.5982 0.9948
-1.0383 0.4952 -0.5968 0.9948
-1.0646 0.2906 -0.5725 0.9950
-1.1043 0.0973 -0.5751 0.9950
-1.1058 -0.0016 -0.5737 0.9950
-1.0902 -0.1983 -0.5748 0.9950
-1.0574 -0.3962 -0.5858 0.9949
-0.9907 -0.5900 -0.5982 0.9948
-1.7752 -3.2650 -1.9280 0.9834
-1.1691 -3.5347 -1.9314 0.9834
-0.8510 -3.6319 -1.9352 0.9833
-0.1935 -3.7476 -1.9467 0.9832
1.8044 -3.4314 -2.0113 0.9827
2.4209 -3.1022 -2.0414 0.9824
2.7094 -2.8970 -2.0577 0.9823
2.9814 -2.6658 -2.0748 0.9821
3.2346 -2.4097 -2.0925 0.9820
3.4579 -2.1248 -2.1055 0.9819
3.7219 -1.0830 -2.0109 0.9827
3.9215 -0.4116 -2.0456 0.9824
3.9958 0.2962 -2.0787 0.9821
3.9831 0.6561 -2.0942 0.9820
3.8545 1.3714 -2.1225 0.9817
3.5889 2.0568 -2.1459 0.9815
2.9490 2.9659 -2.1698 0.9813
1.7316 3.8218 -2.1767 0.9813
1.3821 3.9556 -2.1737 0.9813
0.6541 4.1166 -2.1624 0.9814
-0.4525 4.0867 -2.1331 0.9816
-0.8102 4.0063 -2.1204 0.9817
-2.6192 2.8960 -2.0257 0.9826
-2.8423 2.6281 -2.0083 0.9827
-0.9718 0.6197 -0.5979 0.9948
2.8968 2.6630 -2.1551 0.9822
2.6540 2.9175 -2.1602 0.9822
2.3871 3.1475 -2.1636 0.9821
1.7913 3.5238 -2.1651 0.9821
0.7908 3.8529 -2.1542 0.9822
0.4427 3.8955 -2.1473 0.9823
0.0667 2.7905 -1.5288 0.9874
-0.2540 3.8787 -2.1289 0.9824
-0.9285 3.7300 -2.1053 0.9826
-2.5854 2.6153 -2.0142 0.9834
-2.7853 2.3548 -1.9977 0.9835
-0.8625 0.6061 -0.5774 0.9952
-0.9150 0.5279 -0.5785 0.9952
-0.9758 0.3504 -0.5679 0.9953
-1.0149 0.1702 -0.5636 0.9953
-1.0274 -0.0127 -0.5627 0.9953
-1.0242 -0.1045 -0.5639 0.9953
-0.9457 -0.4671 -0.5777 0.9952
-0.9015 -0.5503 -0.5785 0.9952
-2.6549 -2.3600 -1.9456 0.9839
-1.9274 -2.9658 -1.9373 0.9840
-1.6552 -3.1256 -1.9371 0.9840
-1.0757 -3.3762 -1.9408 0.9840
-0.7719 -3.4654 -1.9445 0.9839
0.1745 -3.5806 -1.9634 0.9838
0.4952 -3.5666 -1.9722 0.9837
1.4453 -3.3637 -2.0052 0.9834
1.7508 -3.2424 -2.0182 0.9833
2.0470 -3.0948 -2.0323 0.9832
2.3317 -2.9211 -2.0471 0.9831
2.2357 -1.0820 -1.3604 0.9887
2.2786 -0.8614 -1.3342 0.9890
3.5356 -0.9867 -2.0105 0.9834
3.7591 -0.0162 -2.0589 0.9830
3.7733 0.3214 -2.0741 0.9829
3.7557 0.6612 -2.0887 0.9828
3.7059 0.9999 -2.1023 0.9826
3.1867 2.2782 -2.1455 0.9823
2.9810 2.5619 -2.1528 0.9822
1.9083 3.4624 -2.1653 0.9821
1.5910 3.6167 -2.1641 0.9821
1.2605 3.7390 -2.1611 0.9822
0.5734 3.8835 -2.1501 0.9823
-0.4687 3.8460 -2.1220 0.9825
-1.4427 3.5188 -2.0829 0.9828
-1.7383 3.3521 -2.0681 0.9829
-2.2709 2.9446 -2.0367 0.9832
-2.7134 2.4542 -2.0038 0.9835
-2.8973 2.1843 -1.9873 0.9836
-0.9808 0.2915 -0.5604 0.9953
-1.0076 0.2038 -0.5630 0.9953
-1.0233 0.1133 -0.5639 0.9953
-1.0165 -0.1615 -0.5637 0.9953
-0.9948 -0.2506 -0.5619 0.9953
-0.9769 -0.3413 -0.5668 0.9953
-0.9591 -0.4345 -0.5767 0.9952
-0.9194 -0.5199 -0.5785 0.9952
-0.8680 -0.5989 -0.5776 0.9952
-2.7349 -2.2721 -1.9474 0.9839
-2.5155 -2.5011 -1.9429 0.9840
-2.2787 -2.7109 -1.9396 0.9840
-2.0259 -2.9004 -1.9377 0.9840
-1.1873 -3.3366 -1.9397 0.9840
-0.8865 -3.4349 -1.9430 0.9840
-0.2637 -3.5567 -1.9534 0.9839
0.0546 -3.5790 -1.9605 0.9838
0.3751 -3.5749 -1.9688 0.9837
0.6957 -3.5442 -1.9782 0.9837
1.6374 -3.2910 -2.0132 0.9834
1.9373 -3.1531 -2.0269 0.9833
2.5030 -2.7996 -2.0568 0.9830
3.1855 -1.6752 -1.9713 0.9837
3.4899 -1.1009 -2.0043 0.9834
3.6035 -0.7918 -2.0208 0.9833
3.6893 -0.4711 -2.0371 0.9832
3.7661 0.5339 -2.0833 0.9828
3.6582 1.2098 -2.1104 0.9826
3.5558 1.5399 -2.1223 0.9825
3.4215 1.8601 -2.1330 0.9824
3.2563 2.1673 -2.1424 0.9823
3.0613 2.4580 -2.1503 0.9823
2.5891 2.9777 -2.1612 0.9822
2.3165 3.2011 -2.1641 0.9821
1.7116 3.5626 -2.1648 0.9821
1.3856 3.6971 -2.1624 0.9822
1.0272 3.7218 -2.1147 0.9825
0.7037 3.8668 -2.1526 0.9822
0.3549 3.9008 -2.1453 0.9823
-0.3405 3.8671 -2.1262 0.9825
-1.3277 3.5742 -2.0883 0.9828
-1.9138 3.2347 -2.0585 0.9830
-2.4196 2.7991 -2.0265 0.9833
-2.6380 2.5514 -2.0100 0.9834
-2.8315 2.2870 -1.9935 0.9835
-0.8767 0.5872 -0.5779 0.9952
-0.9784 0.3267 -0.5650 0.9953
-0.9988 0.2370 -0.5622 0.9953
-1.0189 0.1475 -0.5638 0.9953
-1.0042 -0.2176 -0.5627 0.9953
-0.9679 -0.4001 -0.5736 0.9952
-0.9357 -0.4886 -0.5782 0.9952
-2.5998 -2.4176 -1.9444 0.9839
-2.3693 -2.6347 -1.9407 0.9840
-2.1223 -2.8319 -1.9383 0.9840
-1.8603 -3.0081 -1.9371 0.9840
-1.5848 -3.1623 -1.9373 0.9840
-1.2975 -3.2935 -1.9388 0.9840
-0.3820 -3.5417 -1.9510 0.9839
0.8954 -3.5114 -1.9847 0.9836
1.2118 -3.4370 -1.9960 0.9835
1.8262 -3.2078 -2.0217 0.9833
2.1197 -3.0535 -2.0359 0.9832
2.6682 -2.6683 -2.0668 0.9829
3.1462 -2.1842 -2.0977 0.9827
3.1180 -1.7752 -1.9651 0.9838
2.2215 -1.0142 -1.3375 0.9889
2.5142 -0.8866 -1.4601 0.9879
3.6606 -0.5924 -2.0310 0.9832
3.7719 0.4067 -2.0779 0.9828
3.7462 0.7465 -2.0922 0.9827
3.5979 1.4173 -2.1180 0.9825
3.3217 2.0540 -2.1391 0.9823
3.1377 2.3513 -2.1475 0.9823
2.9249 2.6301 -2.1544 0.9822
2.1351 3.3269 -2.1651 0.9821
-0.2115 3.8836 -2.1302 0.9824
-0.5540 3.8292 -2.1191 0.9825
-0.8881 3.7428 -2.1069 0.9826
-1.2106 3.6256 -2.0935 0.9827
-1.5186 3.4794 -2.0793 0.9828
-2.0814 3.1079 -2.0487 0.9831
-2.7620 2.3877 -1.9997 0.9835
-0.9885 0.2698 -0.5612 0.9953
-1.0127 0.1813 -0.5634 0.9953
-1.0254 0.0903 -0.5638 0.9953
-1.0270 -0.0014 -0.5625 0.9953
-1.0252 -0.0932 -0.5638 0.9953
-1.0121 -0.1841 -0.5634 0.9953
-0.9076 -0.5404 -0.5785 0.9952
-0.8534 -0.6175 -0.5769 0.9952
-2.6815 -2.3314 -1.9462 0.9839
-2.4576 -2.5557 -1.9419 0.9840
-2.2166 -2.7604 -1.9390 0.9840
-1.4063 -3.2471 -1.9381 0.9840
-1.1125 -3.3636 -1.9404 0.9840
-0.8097 -3.4558 -1.9440 0.9839
-0.1841 -3.5648 -1.9550 0.9839
0.1350 -3.5805 -1.9624 0.9838
0.4557 -3.5697 -1.9710 0.9837
0.7760 -3.5323 -1.9808 0.9836
1.0939 -3.4680 -1.9917 0.9836
1.4071 -3.3768 -2.0036 0.9835
2.0111 -3.1144 -2.0305 0.9832
2.2974 -2.9439 -2.0452 0.9831
2.8270 -2.5277 -2.0770 0.9829
3.0650 -2.2834 -2.0934 0.9827
3.2290 -1.6067 -1.9754 0.9837
2.2735 -0.8882 -1.3369 0.9889
3.6278 -0.7122 -2.0249 0.9833
3.7552 -0.0575 -2.0570 0.9830
3.7732 0.2797 -2.0723 0.9829
3.7596 0.6193 -2.0869 0.9828
3.7138 0.9584 -2.1007 0.9827
3.6355 1.2935 -2.1135 0.9826
3.0078 2.5281 -2.1520 0.9822
2.5227 3.0363 -2.1621 0.9822
2.2445 3.2529 -2.1646 0.9821
1.6309 3.5994 -2.1643 0.9821
1.3018 3.7257 -2.1616 0.9822
0.6163 3.8785 -2.1509 0.9822
-0.4266 3.8534 -2.1234 0.9825
-0.7642 3.7788 -2.1116 0.9826
-1.4052 3.5374 -2.0847 0.9828
-1.9821 3.1849 -2.0546 0.9830
-2.2406 2.9723 -2.0387 0.9832
-2.4768 2.7386 -2.0224 0.9833
-0.8902 0.5677 -0.5783 0.9952
2.2527 2.9704 -2.1524 0.9829
1.9803 3.1616 -2.1539 0.9829
1.6904 3.3254 -2.1538 0.9829
1.3860 3.4601 -2.1520 0.9829
1.0703 3.5642 -2.1486 0.9830
-0.2400 3.6637 -2.1198 0.9832
-0.5629 3.6097 -2.1092 0.9833
-0.8776 3.5255 -2.0976 0.9834
-1.4712 3.2722 -2.0714 0.9836
-2.0006 2.9173 -2.0423 0.9838
-0.8425 0.4860 -0.5615 0.9955
-0.9243 0.2414 -0.5516 0.9956
-0.9453 0.1585 -0.5534 0.9956
-0.9562 0.0737 -0.5537 0.9956
-0.9543 -0.0974 -0.5538 0.9956
-0.8300 -0.5067 -0.5615 0.9955
-0.7870 -0.5828 -0.5654 0.9955
-1.8365 -2.8258 -1.9458 0.9846
-1.3060 -3.1086 -1.9467 0.9845
-0.4391 -3.3620 -1.9575 0.9845
0.7760 -3.3557 -1.9886 0.9842
1.0778 -3.2905 -1.9991 0.9841
1.3748 -3.1996 -2.0106 0.9840
2.4722 -2.5858 -2.0655 0.9836
2.7131 -2.3727 -2.0809 0.9835
3.1288 -1.8755 -2.1061 0.9833
2.2091 -1.0691 -1.4169 0.9887
1.8677 -0.7061 -1.1528 0.9908
1.9457 -0.5430 -1.1663 0.9907
2.0372 -0.1912 -1.1813 0.9906
2.0370 0.1735 -1.1803 0.9906
2.0180 0.3553 -1.1830 0.9906
3.1762 1.8669 -2.1271 0.9831
3.0088 2.1510 -2.1354 0.9831
2.8140 2.4185 -2.1423 0.9830
2.5936 2.6664 -2.1476 0.9830
1.8008 3.2675 -2.1540 0.9829
1.5015 3.4132 -2.1529 0.9829
0.5413 3.6663 -2.1397 0.9830
-0.4428 3.6335 -2.1133 0.9832
-2.1503 2.7881 -2.0328 0.9839
-2.3722 2.5657 -2.0174 0.9840
-0.9140 0.2716 -0.5505 0.9956
-0.9534 0.1056 -0.5538 0.9956
-0.8834 -0.4002 -0.5599 0.9955
-0.8466 -0.4787 -0.5615 0.9955
-2.3965 -2.3827 -1.9511 0.9845
-2.1710 -2.5828 -1.9480 0.9845
-1.9302 -2.7634 -1.9461 0.9846
-1.4087 -3.0624 -1.9462 0.9846
-0.8446 -3.2723 -1.9512 0.9845
-0.2512 -3.3875 -1.9612 0.9844
0.0520 -3.4081 -1.9679 0.9844
0.3571 -3.4036 -1.9759 0.9843
0.6622 -3.3736 -1.9849 0.9842
1.2643 -3.2366 -2.0062 0.9841
1.5572 -3.1298 -2.0183 0.9840
1.8419 -2.9977 -2.0313 0.9839
2.3779 -2.6597 -2.0598 0.9837
3.0583 -1.9751 -2.1019 0.9833
1.9865 -0.4365 -1.1743 0.9906
2.0339 -0.2597 -1.1838 0.9906
2.0325 -0.0767 -1.1743 0.9906
1.9741 0.4625 -1.1706 0.9907
1.9051 0.6301 -1.1585 0.9908
1.8576 0.8044 -1.1687 0.9907
3.2316 1.7569 -2.1237 0.9832
2.6790 2.5760 -2.1458 0.9830
2.1861 3.0209 -2.1529 0.9829
1.9090 3.2055 -2.1540 0.9829
1.6152 3.3621 -2.1535 0.9829
1.3076 3.4892 -2.1513 0.9829
0.6643 3.6503 -2.1421 0.9830
0.3351 3.6831 -2.1352 0.9831
0.0053 3.6839 -2.1269 0.9831
-0.3217 3.6531 -2.1173 0.9832
-0.6428 3.5913 -2.1064 0.9833
-0.9550 3.4997 -2.0945 0.9834
-1.2555 3.3797 -2.0816 0.9835
-2.2917 2.6511 -2.0232 0.9839
-0.7665 0.6191 -0.5689 0.9955
