ply
format ascii 1.0
element vertex 1592
property float32 x
property float32 y
property float32 z
property float32 I
end_header
4.7364 4.3340 0.6894 0.9745
3.7061 4.8651 0.6567 0.9757
2.1662 5.3785 0.6226 0.9769
1.7363 5.7450 0.6445 0.9761
1.2320 5.9511 0.6526 0.9758
0.6896 5.9821 0.6466 0.9761
-0.4122 6.4339 0.6923 0.9744
-1.0654 6.8933 0.7490 0.9723
11.5852 -1.8742 0.9935 0.9540
12.3776 -0.8805 1.0504 0.9514
13.3189 0.2445 1.1277 0.9479
11.7214 1.2676 0.9980 0.9538
10.3404 2.0649 0.8926 0.9586
6.8846 3.4557 0.6521 0.9696
5.4026 4.0558 0.5719 0.9732
4.7814 4.3077 0.5448 0.9745
4.1849 4.5093 0.5208 0.9756
3.7472 4.8408 0.5182 0.9757
3.1544 4.9282 0.4953 0.9768
2.6860 5.1594 0.4924 0.9769
2.2052 5.3554 0.4903 0.9770
1.2659 5.8851 0.5096 0.9761
0.2046 6.1731 0.5229 0.9755
-0.3605 6.4047 0.5430 0.9746
-1.0060 6.8602 0.5869 0.9726
-2.5390 1.8159 0.2643 0.9875
12.1228 -1.1946 1.0312 0.9523
7.1498 3.3485 0.6683 0.9688
5.6583 4.0118 0.5872 0.9725
4.9643 4.2335 0.5523 0.9741
4.3031 4.3908 0.5204 0.9756
3.9087 4.7752 0.5224 0.9755
2.8336 5.0993 0.4938 0.9769
1.4185 5.8193 0.5070 0.9762
0.8889 5.8930 0.5045 0.9764
0.3689 6.1058 0.5178 0.9757
-1.4439 6.8493 0.5926 0.9723
13.4749 -2.9399 1.1675 0.9461
12.7251 -0.4592 1.0779 0.9502
13.1544 0.7018 1.1151 0.9485
5.8698 3.9261 0.5978 0.9720
4.5535 4.4001 0.5360 0.9749
4.0729 4.7084 0.5270 0.9753
2.4631 5.1642 0.4843 0.9773
-0.0114 6.2616 0.5301 0.9752
-0.6080 6.6490 0.5652 0.9736
-1.2688 6.9508 0.5981 0.9720
-1.9529 7.0584 0.6200 0.9710
-5.0503 13.4459 1.2161 0.9440
11.6491 -1.7922 0.9977 0.9538
13.4093 0.3500 1.1355 0.9476
11.7372 1.3613 1.0002 0.9537
10.2041 2.1199 0.8822 0.9590
7.7296 3.1194 0.7056 0.9671
6.8115 3.4853 0.6477 0.9698
6.0891 3.8373 0.6093 0.9715
4.0909 4.4769 0.5134 0.9759
3.7017 4.8593 0.5171 0.9758
2.6442 5.1765 0.4921 0.9769
1.7274 5.7153 0.5054 0.9763
1.2214 5.9001 0.5100 0.9761
0.6888 5.9749 0.5091 0.9761
11.3111 -1.8299 0.7105 0.9551
12.1494 0.2230 0.7535 0.9525
11.7194 1.2674 0.7310 0.9539
10.6331 2.1233 0.6724 0.9575
8.9190 2.6273 0.5766 0.9634
7.8034 3.0792 0.5202 0.9669
6.1443 3.8059 0.4482 0.9714
5.3954 4.0503 0.4184 0.9733
4.7753 4.3022 0.3986 0.9746
3.1507 4.9224 0.3624 0.9768
2.6829 5.1534 0.3603 0.9770
1.2732 5.9191 0.3754 0.9760
0.7325 5.9495 0.3717 0.9763
0.2044 6.1655 0.3825 0.9756
-1.6587 6.9286 0.4418 0.9719
-2.5380 1.8151 0.1935 0.9876
2.3522 -0.9024 0.1562 0.9900
11.6139 -2.2047 0.7330 0.9537
11.5918 -1.1423 0.7223 0.9544
12.0149 -0.1064 0.7451 0.9530
11.0831 1.9012 0.6973 0.9559
6.3746 3.7125 0.4574 0.9709
5.6506 4.0063 0.4295 0.9726
3.9040 4.7694 0.3822 0.9756
3.3830 4.9814 0.3734 0.9762
2.3485 5.2897 0.3589 0.9771
-0.1836 6.3243 0.3923 0.9750
12.3499 0.6589 0.7669 0.9516
11.3732 1.6338 0.7125 0.9550
9.7295 2.2991 0.6199 0.9607
8.5356 2.8420 0.5579 0.9646
6.5523 3.5809 0.4630 0.9705
5.8616 3.9207 0.4373 0.9721
5.1456 4.1517 0.4100 0.9739
2.9788 5.0329 0.3627 0.9768
2.4602 5.1583 0.3544 0.9774
2.0154 5.4256 0.3589 0.9771
1.5804 5.7937 0.3724 0.9762
1.0729 6.0009 0.3780 0.9759
-1.2692 6.9527 0.4383 0.9721
-1.9501 7.0481 0.4535 0.9711
-5.0435 13.4278 0.8895 0.9441
12.1883 0.3181 0.7561 0.9523
10.1830 2.1155 0.6449 0.9592
7.7169 3.1143 0.5160 0.9672
6.8011 3.4800 0.4737 0.9698
6.0805 3.8318 0.4457 0.9716
5.3392 4.0731 0.4164 0.9734
4.7243 4.3229 0.3971 0.9747
4.0858 4.4715 0.3756 0.9760
3.6973 4.8535 0.3783 0.9758
3.1081 4.9397 0.3619 0.9769
2.1612 5.3661 0.3587 0.9771
1.2291 5.9371 0.3760 0.9760
0.6879 5.9678 0.3725 0.9762
0.1571 6.1849 0.3836 0.9755
-0.4111 6.4174 0.3988 0.9746
-1.7219 6.9545 0.4443 0.9717
11.7161 -0.8334 0.4631 0.9541
11.7174 1.2672 0.4647 0.9539
10.6110 2.1189 0.4267 0.9576
6.8636 3.4452 0.3028 0.9697
4.7692 4.2967 0.2531 0.9746
4.1746 4.4982 0.2420 0.9757
3.7382 4.8293 0.2408 0.9758
3.1470 4.9167 0.2302 0.9769
2.2002 5.3431 0.2278 0.9771
1.2718 5.9122 0.2385 0.9761
0.2041 6.1580 0.2429 0.9756
-0.3596 6.3884 0.2523 0.9747
-1.0033 6.8419 0.2727 0.9727
-1.6564 6.9188 0.2805 0.9719
-2.5378 1.8150 0.1230 0.9876
2.3521 -0.9024 0.0993 0.9900
11.9039 -2.2597 0.4778 0.9527
11.6036 -1.1435 0.4598 0.9544
12.0130 -0.1064 0.4737 0.9530
9.2918 2.4644 0.3791 0.9622
8.1828 2.9742 0.3433 0.9657
7.1274 3.3380 0.3103 0.9690
6.3654 3.7071 0.2905 0.9709
5.6429 4.0008 0.2728 0.9727
4.9514 4.2225 0.2566 0.9743
4.2970 4.3846 0.2421 0.9757
3.8993 4.7637 0.2427 0.9757
2.8271 5.0875 0.2295 0.9770
1.4152 5.8058 0.2356 0.9764
0.8868 5.8791 0.2344 0.9765
0.3680 6.0910 0.2406 0.9759
-1.4399 6.8303 0.2752 0.9724
13.2928 -2.9002 0.5365 0.9470
11.8813 -0.4287 0.4688 0.9535
8.5206 2.8370 0.3541 0.9647
5.8535 3.9152 0.2777 0.9722
5.1389 4.1463 0.2604 0.9739
4.5421 4.3891 0.2491 0.9750
3.5349 4.9121 0.2386 0.9761
2.9753 5.0271 0.2303 0.9769
2.4574 5.1523 0.2251 0.9774
2.0131 5.4194 0.2280 0.9771
1.0717 5.9939 0.2401 0.9759
-0.0113 6.2460 0.2463 0.9753
-0.6109 6.6814 0.2646 0.9735
14.5689 -2.2414 0.5812 0.9427
11.7523 -0.7447 0.4643 0.9540
11.6811 1.3548 0.4637 0.9540
8.7968 2.6654 0.3624 0.9639
6.0719 3.8264 0.2830 0.9717
5.3321 4.0677 0.2644 0.9735
4.7183 4.3174 0.2522 0.9747
3.1045 4.9340 0.2299 0.9769
2.1588 5.3600 0.2278 0.9771
1.2277 5.9302 0.2388 0.9760
0.6871 5.9606 0.2366 0.9763
-0.4106 6.4093 0.2532 0.9746
11.4892 -1.8587 0.1966 0.9545
18.5634 -1.3205 0.3144 0.9283
11.7154 1.2670 0.1990 0.9540
6.8532 3.4400 0.1295 0.9698
6.2540 3.8739 0.1243 0.9710
5.3810 4.0395 0.1137 0.9734
4.7631 4.2912 0.1083 0.9747
4.1695 4.4927 0.1035 0.9758
3.7338 4.8235 0.1030 0.9759
3.1433 4.9109 0.0985 0.9769
2.1976 5.3370 0.0975 0.9772
1.2703 5.9053 0.1020 0.9761
-0.3592 6.3803 0.1079 0.9748
-1.0020 6.8328 0.1167 0.9728
2.3520 -0.9023 0.0426 0.9900
15.0350 -0.1332 0.2540 0.9416
11.6480 0.9399 0.1974 0.9543
8.1688 2.9692 0.1468 0.9658
7.1163 3.3328 0.1327 0.9691
6.4398 3.7505 0.1259 0.9706
5.7522 4.0783 0.1191 0.9722
4.9451 4.2171 0.1098 0.9743
4.2953 4.3828 0.1037 0.9757
3.8946 4.7580 0.1039 0.9757
3.3750 4.9698 0.1015 0.9763
1.8651 5.4726 0.0977 0.9771
0.3676 6.0837 0.1030 0.9759
-0.1831 6.3085 0.1066 0.9751
-0.8031 6.7516 0.1149 0.9732
12.7798 0.6819 0.2162 0.9501
9.6911 2.2900 0.1682 0.9609
8.5056 2.8320 0.1514 0.9648
6.5330 3.5703 0.1258 0.9707
5.9667 3.9909 0.1213 0.9717
5.1322 4.1409 0.1114 0.9740
4.5364 4.3836 0.1066 0.9751
4.0582 4.6913 0.1048 0.9755
2.9719 5.0213 0.0986 0.9769
2.4546 5.1464 0.0963 0.9774
2.0108 5.4132 0.0975 0.9772
1.0704 5.9869 0.1027 0.9760
-0.0113 6.2383 0.1054 0.9754
-0.6102 6.6728 0.1132 0.9735
-1.9444 7.0277 0.1232 0.9713
-5.0346 13.4041 0.2419 0.9443
11.6624 1.3526 0.1983 0.9541
8.7808 2.6606 0.1550 0.9640
7.6915 3.1040 0.1401 0.9674
6.1892 3.9003 0.1236 0.9712
5.3250 4.0623 0.1131 0.9736
4.7123 4.3119 0.1079 0.9748
3.1009 4.9282 0.0984 0.9770
2.6350 5.1586 0.0978 0.9771
2.1563 5.3538 0.0975 0.9772
0.6863 5.9536 0.1012 0.9763
0.1567 6.1697 0.1043 0.9756
-2.6399 1.7815 -0.0179 0.9873
11.4858 -1.8581 -0.0655 0.9545
14.9969 0.2753 -0.0845 0.9418
11.7134 1.2667 -0.0663 0.9540
10.5671 2.1101 -0.0607 0.9578
8.8700 2.6128 -0.0521 0.9637
6.2452 3.8684 -0.0414 0.9710
3.1397 4.9052 -0.0328 0.9770
2.1951 5.3309 -0.0325 0.9772
1.7693 5.6944 -0.0336 0.9764
1.2688 5.8985 -0.0340 0.9762
2.3519 -0.9023 -0.0142 0.9900
14.9886 -0.1328 -0.0844 0.9418
8.1549 2.9641 -0.0489 0.9659
7.1053 3.3277 -0.0442 0.9691
5.7444 4.0728 -0.0396 0.9722
4.9387 4.2117 -0.0365 0.9744
4.2936 4.3811 -0.0346 0.9758
3.8900 4.7523 -0.0346 0.9757
2.8206 5.0758 -0.0327 0.9770
2.3405 5.2716 -0.0325 0.9772
1.4119 5.7924 -0.0336 0.9764
-0.1829 6.3006 -0.0355 0.9751
-1.4359 6.8114 -0.0392 0.9725
15.5120 -0.5597 -0.0874 0.9398
11.2961 1.6227 -0.0643 0.9554
9.6721 2.2855 -0.0560 0.9610
8.4907 2.8271 -0.0504 0.9648
6.5234 3.5651 -0.0419 0.9707
3.5266 4.9005 -0.0340 0.9761
2.9685 5.0155 -0.0328 0.9770
2.4518 5.1406 -0.0321 0.9775
1.5749 5.7737 -0.0337 0.9763
1.0692 5.9799 -0.0342 0.9760
0.5276 6.0109 -0.0340 0.9762
-0.6094 6.6643 -0.0377 0.9736
-1.9416 7.0176 -0.0410 0.9713
-5.0314 13.3954 -0.0806 0.9444
18.0784 -1.1455 -0.1020 0.9301
14.7914 0.3860 -0.0833 0.9425
11.6604 1.3524 -0.0661 0.9541
10.1205 2.1025 -0.0582 0.9595
7.6789 3.0989 -0.0466 0.9674
4.0709 4.4551 -0.0340 0.9761
3.6842 4.8363 -0.0342 0.9760
2.6320 5.1527 -0.0326 0.9771
2.1538 5.3477 -0.0325 0.9772
1.7264 5.7119 -0.0336 0.9764
0.6855 5.9465 -0.0337 0.9763
-0.4095 6.3930 -0.0361 0.9747
-1.7146 6.9250 -0.0402 0.9719
-2.6325 1.7766 -0.0894 0.9874
18.4278 -1.3109 -0.5202 0.9287
11.7113 1.2665 -0.3317 0.9540
8.8539 2.6081 -0.2599 0.9637
7.7519 3.0589 -0.2347 0.9672
6.2364 3.8630 -0.2066 0.9711
5.3667 4.0288 -0.1890 0.9735
4.7511 4.2804 -0.1801 0.9747
3.7250 4.8121 -0.1714 0.9759
3.1361 4.8996 -0.1638 0.9770
1.2673 5.8917 -0.1697 0.9762
0.7291 5.9214 -0.1680 0.9764
0.2034 6.1355 -0.1729 0.9757
-0.3583 6.3642 -0.1795 0.9748
-0.9994 6.8147 -0.1939 0.9728
2.3517 -0.9023 -0.0709 0.9900
14.9424 -0.1323 -0.4208 0.9420
9.2391 2.4504 -0.2691 0.9625
7.0942 3.3225 -0.2206 0.9691
6.4280 3.7436 -0.2094 0.9707
5.7367 4.0673 -0.1980 0.9723
3.3672 4.9582 -0.1688 0.9763
2.8173 5.0700 -0.1633 0.9771
2.3378 5.2656 -0.1622 0.9772
1.8608 5.4601 -0.1624 0.9772
0.8837 5.8584 -0.1668 0.9766
0.3667 6.0690 -0.1712 0.9760
-0.1827 6.2927 -0.1773 0.9751
-1.4340 6.8021 -0.1957 0.9726
-2.5322 1.9173 -0.0894 0.9874
2.3565 -0.9785 -0.0718 0.9898
12.2739 0.6549 -0.3461 0.9520
11.2707 1.6191 -0.3206 0.9555
9.6531 2.2810 -0.2793 0.9611
8.6516 2.8806 -0.2568 0.9642
6.5138 3.5598 -0.2090 0.9707
5.9503 3.9800 -0.2016 0.9718
4.5251 4.3727 -0.1772 0.9751
4.0484 4.6801 -0.1742 0.9755
3.5225 4.8948 -0.1698 0.9762
2.9650 5.0097 -0.1639 0.9770
1.0679 5.9729 -0.1709 0.9760
-0.0113 6.2229 -0.1752 0.9754
-1.9388 7.0075 -0.2047 0.9713
-5.0297 13.3911 -0.4028 0.9444
18.0139 -1.1414 -0.5082 0.9303
14.7495 0.3849 -0.4155 0.9427
11.6584 1.3521 -0.3305 0.9541
8.7491 2.6509 -0.2574 0.9641
7.6664 3.0939 -0.2328 0.9675
6.1718 3.8894 -0.2054 0.9712
4.7004 4.3011 -0.1794 0.9748
0.1563 6.1547 -0.1734 0.9757
-0.4090 6.3849 -0.1802 0.9747
-1.0569 6.8382 -0.1948 0.9727
-1.7122 6.9153 -0.2006 0.9719
-2.6252 1.7716 -0.1606 0.9874
11.4884 -1.8586 -0.5902 0.9545
18.3606 -1.3061 -0.9335 0.9289
10.5235 2.1014 -0.5442 0.9579
7.7391 3.0538 -0.4219 0.9672
6.8221 3.4244 -0.3871 0.9699
5.3596 4.0234 -0.3399 0.9735
4.1543 4.4763 -0.3097 0.9758
3.7205 4.8064 -0.3083 0.9760
2.6675 5.1240 -0.2930 0.9771
-0.3578 6.3562 -0.3229 0.9748
-0.9980 6.8057 -0.3488 0.9728
-2.5370 1.8144 -0.1582 0.9876
-9.2018 -9.6485 -0.6762 0.9480
2.3516 -0.9022 -0.1277 0.9900
9.2217 2.4458 -0.4838 0.9625
8.2958 3.0153 -0.4476 0.9653
5.5594 3.9416 -0.3456 0.9731
4.9260 4.2009 -0.3283 0.9744
3.8807 4.7410 -0.3107 0.9758
3.3633 4.9524 -0.3036 0.9763
2.8141 5.0641 -0.2938 0.9771
2.3351 5.2596 -0.2918 0.9772
1.8587 5.4539 -0.2922 0.9772
1.4086 5.7790 -0.3017 0.9765
0.8827 5.8515 -0.3001 0.9766
0.3663 6.0617 -0.3080 0.9760
-0.1825 6.2849 -0.3189 0.9751
-1.4320 6.7927 -0.3521 0.9726
-2.5403 1.9234 -0.1616 0.9873
2.3519 -0.9765 -0.1291 0.9899
15.5071 -0.5595 -0.7869 0.9397
8.6364 2.8756 -0.4616 0.9642
6.5042 3.5546 -0.3759 0.9707
5.1122 4.1247 -0.3331 0.9740
4.0435 4.6744 -0.3134 0.9755
3.5183 4.8890 -0.3055 0.9762
2.4462 5.1288 -0.2882 0.9775
2.0039 5.3947 -0.2919 0.9772
1.0667 5.9659 -0.3074 0.9760
0.5264 5.9965 -0.3053 0.9762
-0.6078 6.6472 -0.3385 0.9736
-1.2619 6.9129 -0.3564 0.9722
-1.9360 6.9974 -0.3682 0.9713
17.9651 -1.1383 -0.9129 0.9304
14.7077 0.3838 -0.7461 0.9428
11.6564 1.3519 -0.5951 0.9541
6.7501 3.4539 -0.3845 0.9701
5.3039 4.0462 -0.3383 0.9736
4.0610 4.4443 -0.3053 0.9762
3.0901 4.9111 -0.2943 0.9770
2.6260 5.1409 -0.2928 0.9771
2.1489 5.3355 -0.2917 0.9772
0.6839 5.9324 -0.3029 0.9764
-1.0555 6.8291 -0.3504 0.9727
-1.7098 6.9055 -0.3608 0.9719
-2.5520 1.7955 -0.1582 0.9876
-19.2791 -4.1234 -1.4456 0.9240
-17.2380 -7.0746 -1.3662 0.9280
-16.1613 -8.3894 -1.3351 0.9296
-11.5118 -12.7477 -1.2594 0.9334
-10.2633 -13.6381 -1.2515 0.9338
-4.8794 -16.4932 -1.2611 0.9333
-0.3497 -17.9060 -1.3132 0.9307
1.2753 -18.2301 -1.3399 0.9293
4.7298 -18.6332 -1.4096 0.9258
17.7866 -1.2653 -1.3074 0.9310
14.9301 0.2741 -1.0949 0.9419
11.7073 1.2661 -0.8634 0.9539
10.5018 2.0971 -0.7852 0.9580
6.8117 3.4192 -0.5588 0.9699
6.2188 3.8521 -0.5364 0.9711
5.3524 4.0181 -0.4907 0.9735
4.1492 4.4708 -0.4472 0.9758
3.7161 4.8007 -0.4451 0.9759
2.6645 5.1181 -0.4231 0.9771
1.7632 5.6749 -0.4357 0.9764
1.2644 5.8780 -0.4408 0.9762
-0.3574 6.3482 -0.4662 0.9748
-1.6448 6.8704 -0.5180 0.9721
-2.5367 1.8143 -0.2287 0.9876
-18.5872 -5.2015 -1.4152 0.9255
-14.2566 -10.4023 -1.2940 0.9317
-9.1339 -9.5772 -0.9704 0.9483
-9.3733 -14.2146 -1.2484 0.9340
-6.7090 -15.6833 -1.2507 0.9339
-5.3134 -16.3146 -1.2581 0.9335
-2.3790 -17.3704 -1.2855 0.9321
-0.8322 -17.7922 -1.3060 0.9311
0.7738 -18.1397 -1.3312 0.9298
2.4442 -18.4088 -1.3616 0.9282
6.0021 -18.6895 -1.4393 0.9243
2.3515 -0.9022 -0.1847 0.9899
11.0088 1.8885 -0.8190 0.9562
9.2042 2.4412 -0.6982 0.9625
8.2817 3.0102 -0.6461 0.9653
7.0722 3.3122 -0.5726 0.9692
4.9197 4.1955 -0.4741 0.9744
4.2885 4.3759 -0.4492 0.9757
3.3593 4.9466 -0.4384 0.9763
2.3325 5.2536 -0.4215 0.9772
0.3658 6.0544 -0.4447 0.9760
-0.1822 6.2771 -0.4604 0.9751
-0.7989 6.7165 -0.4959 0.9732
-1.4300 6.7833 -0.5083 0.9726
-2.5485 1.9296 -0.2344 0.9873
-16.8212 -7.6007 -1.3534 0.9286
-13.4472 -11.1553 -1.2811 0.9323
-8.4650 -14.7568 -1.2474 0.9340
-7.1252 -15.4775 -1.2493 0.9339
-4.3156 -16.7132 -1.2656 0.9331
-1.3092 -17.6715 -1.2993 0.9314
0.2782 -18.0419 -1.3230 0.9302
3.6471 -18.5470 -1.3860 0.9270
5.4403 -18.6706 -1.4259 0.9250
2.3472 -0.9746 -0.1863 0.9899
15.5046 -0.5595 -1.1376 0.9397
12.2086 0.6514 -0.8964 0.9521
11.2200 1.6118 -0.8311 0.9556
8.6213 2.8706 -0.6663 0.9642
7.3524 3.2025 -0.5880 0.9683
6.4946 3.5494 -0.5427 0.9708
4.5138 4.3618 -0.4602 0.9751
4.0387 4.6688 -0.4526 0.9755
3.5142 4.8833 -0.4411 0.9762
2.9582 4.9981 -0.4259 0.9770
2.4434 5.1229 -0.4162 0.9775
2.0017 5.3885 -0.4215 0.9772
1.5695 5.7538 -0.4373 0.9764
1.0655 5.9590 -0.4439 0.9760
-0.0113 6.2076 -0.4552 0.9754
-0.6070 6.6386 -0.4888 0.9736
-5.0338 13.4019 -1.0497 0.9442
-19.1941 -4.2608 -1.4416 0.9242
-14.9519 -9.7092 -1.3072 0.9310
-13.8035 -10.8306 -1.2865 0.9320
-12.6214 -11.8686 -1.2703 0.9329
-11.4051 -12.8277 -1.2586 0.9335
-10.1535 -13.7118 -1.2510 0.9339
-6.1686 -15.9383 -1.2531 0.9338
-1.7808 -17.5440 -1.2930 0.9317
-0.2115 -17.9371 -1.3153 0.9306
14.6662 0.3828 -1.0757 0.9429
11.6544 1.3517 -0.8603 0.9540
10.0587 2.0897 -0.7533 0.9596
8.7175 2.6414 -0.6679 0.9641
7.6413 3.0838 -0.6042 0.9675
6.7399 3.4487 -0.5551 0.9701
5.2969 4.0409 -0.4885 0.9736
4.6886 4.2902 -0.4660 0.9748
4.0561 4.4389 -0.4409 0.9762
2.6230 5.1350 -0.4228 0.9771
2.1465 5.3294 -0.4213 0.9772
1.7204 5.6923 -0.4360 0.9764
0.6831 5.9254 -0.4373 0.9764
0.1560 6.1397 -0.4503 0.9757
-0.4080 6.3687 -0.4679 0.9747
-18.4997 -5.3317 -1.4117 0.9257
-17.4678 -6.7745 -1.3737 0.9276
-15.2949 -9.3503 -1.3144 0.9306
-12.9849 -11.5611 -1.2748 0.9326
-7.9459 -15.0469 -1.2477 0.9340
-6.5899 -15.7407 -1.2512 0.9338
-5.1905 -16.3660 -1.2589 0.9335
-18.6698 4.4928 -1.8436 0.9257
-18.2792 2.7025 -1.7740 0.9284
-17.7986 1.0230 -1.7116 0.9309
-17.2388 -0.5511 -1.6559 0.9330
-15.1687 -4.6934 -1.5244 0.9382
-11.7018 -9.0361 -1.4194 0.9423
-9.0577 -10.0301 -1.2975 0.9471
-8.0832 -10.7413 -1.2906 0.9474
-7.0743 -11.3908 -1.2873 0.9475
-4.9524 -12.5075 -1.2915 0.9474
-3.8384 -12.9744 -1.2990 0.9471
-1.5001 -13.7205 -1.3251 0.9460
-0.2733 -13.9960 -1.3439 0.9453
5.4206 -15.4239 -1.5696 0.9364
6.9682 -15.3017 -1.6142 0.9347
10.2143 -14.7375 -1.7215 0.9305
11.9131 -14.2754 -1.7850 0.9280
10.1703 2.0309 -0.9957 0.9592
8.8054 2.5938 -0.8813 0.9638
7.7136 3.0438 -0.7961 0.9672
6.8014 3.4140 -0.7306 0.9699
3.7117 4.7950 -0.5822 0.9759
2.6614 5.1122 -0.5533 0.9771
2.1851 5.3066 -0.5510 0.9772
1.7612 5.6684 -0.5699 0.9764
1.2629 5.8712 -0.5766 0.9762
0.3709 3.0121 -0.2914 0.9879
0.2026 6.1131 -0.5872 0.9757
-0.9954 6.7877 -0.6586 0.9728
-18.7690 5.0606 -1.8663 0.9249
-18.4082 3.2356 -1.7944 0.9276
-17.9538 1.5229 -1.7298 0.9302
-16.1339 -2.9941 -1.5754 0.9362
-15.4021 -4.3102 -1.5355 0.9378
-13.7854 -6.6864 -1.4709 0.9403
-11.9896 -8.7481 -1.4249 0.9421
-8.3836 -10.5313 -1.2923 0.9473
-6.3522 -11.8067 -1.2871 0.9476
-5.2844 -12.3532 -1.2899 0.9474
-4.1814 -12.8387 -1.2963 0.9472
-1.8658 -13.6235 -1.3201 0.9462
-0.6510 -13.9192 -1.3378 0.9455
0.6035 -14.1472 -1.3594 0.9447
6.4917 -15.3495 -1.6000 0.9352
8.0742 -15.1562 -1.6487 0.9333
9.7071 -14.8532 -1.7035 0.9312
11.3906 -14.4299 -1.7649 0.9288
14.9048 -13.1737 -1.9097 0.9232
2.3514 -0.9021 -0.2418 0.9899
9.1868 2.4366 -0.9125 0.9625
8.2676 3.0051 -0.8445 0.9653
6.4233 3.7408 -0.7136 0.9706
5.5444 3.9310 -0.6525 0.9731
3.3554 4.9408 -0.5734 0.9763
2.8076 5.0525 -0.5549 0.9770
1.4054 5.7657 -0.5697 0.9764
0.8806 5.8378 -0.5668 0.9766
0.3654 6.0471 -0.5816 0.9760
-0.1820 6.2692 -0.6021 0.9751
-1.4280 6.7740 -0.6646 0.9726
-18.8582 5.6394 -1.8897 0.9240
-18.5285 3.7792 -1.8155 0.9268
-18.1013 2.0328 -1.7487 0.9294
-17.0004 -1.1392 -1.6358 0.9338
-14.8619 -5.1741 -1.5108 0.9387
-11.3269 -9.3963 -1.4129 0.9426
-9.3950 -9.3290 -1.2711 0.9482
-8.6808 -10.3156 -1.2944 0.9473
-6.6703 -11.6282 -1.2870 0.9476
-4.5210 -12.6974 -1.2940 0.9473
-3.3930 -13.1402 -1.3029 0.9469
-2.2280 -13.5204 -1.3155 0.9464
0.2172 -14.0852 -1.3524 0.9450
2.8255 -14.3688 -1.4059 0.9429
7.5870 -15.2263 -1.6332 0.9339
12.5910 -14.0584 -1.8119 0.9270
14.3577 -13.4034 -1.8857 0.9241
2.3425 -0.9726 -0.2435 0.9899
15.4354 -0.5570 -1.4828 0.9398
12.1760 0.6496 -1.1706 0.9522
11.1947 1.6081 -1.0858 0.9556
9.5964 2.2676 -0.9467 0.9612
7.3407 3.1974 -0.7687 0.9683
6.4851 3.5441 -0.7095 0.9707
4.5082 4.3563 -0.6019 0.9751
3.5101 4.8776 -0.5769 0.9761
2.9548 4.9924 -0.5569 0.9770
2.4406 5.1171 -0.5443 0.9775
1.9994 5.3823 -0.5512 0.9772
1.5677 5.7472 -0.5719 0.9763
-0.0112 6.1999 -0.5952 0.9754
-0.6017 6.5807 -0.6344 0.9738
-1.2585 6.8942 -0.6728 0.9722
-18.6399 4.3332 -1.8372 0.9260
-18.2410 2.5528 -1.7683 0.9287
-17.1870 -0.6826 -1.6513 0.9332
-15.8543 -3.5194 -1.5591 0.9368
-15.1014 -4.8010 -1.5213 0.9383
-9.9174 -9.3259 -1.3070 0.9468
-6.9853 -11.4442 -1.2872 0.9475
-4.8573 -12.5503 -1.2920 0.9474
-3.7403 -13.0119 -1.2998 0.9470
1.1052 -14.2172 -1.3690 0.9443
2.4175 -14.3450 -1.3966 0.9432
3.7729 -14.3954 -1.4287 0.9420
5.5526 -15.4172 -1.5732 0.9363
8.7067 -15.0514 -1.6694 0.9325
10.3595 -14.7026 -1.7267 0.9303
12.0626 -14.2291 -1.7909 0.9278
13.8148 -13.6186 -1.8624 0.9250
17.8222 -1.1293 -1.7145 0.9308
14.6247 0.3817 -1.4045 0.9429
8.7116 2.6396 -0.8739 0.9641
7.6288 3.0787 -0.7898 0.9675
6.7297 3.4435 -0.7258 0.9701
6.1001 3.8442 -0.6922 0.9714
5.2899 4.0355 -0.6388 0.9736
3.6668 4.8134 -0.5809 0.9760
2.1440 5.3233 -0.5510 0.9772
1.7185 5.6858 -0.5702 0.9764
1.2192 5.8890 -0.5774 0.9761
-1.0527 6.8109 -0.6616 0.9727
-1.7050 6.8860 -0.6811 0.9719
-2.5499 1.7940 -0.2993 0.9875
-17.9104 1.3797 -1.7246 0.9304
-16.7519 -1.7122 -1.6166 0.9346
-16.0727 -3.1116 -1.5717 0.9363
-13.7112 -6.7820 -1.4686 0.9404
-12.8305 -7.8438 -1.4437 0.9414
-11.9081 -8.8307 -1.4233 0.9422
-10.1975 -9.0793 -1.3108 0.9466
-9.1091 -9.7004 -1.2775 0.9479
-7.2971 -11.2545 -1.2877 0.9475
-14.8728 12.1012 -2.2776 0.9257
-15.6154 6.8780 -2.0269 0.9336
-15.4727 3.7234 -1.8904 0.9379
-15.2475 2.2543 -1.8309 0.9398
-14.5402 -0.4649 -1.7281 0.9431
-14.0749 -1.7162 -1.6843 0.9445
-13.5446 -2.8969 -1.6453 0.9457
-10.8785 -6.9450 -1.5331 0.9493
-9.0353 -8.3656 -1.4627 0.9516
-7.8807 -8.7268 -1.3967 0.9537
-4.2864 -10.8254 -1.3830 0.9542
-3.3196 -11.2208 -1.3900 0.9540
-1.2938 -11.8339 -1.4141 0.9532
-0.2353 -12.0479 -1.4314 0.9526
0.8581 -12.2661 -1.4606 0.9517
2.0454 -12.7379 -1.5325 0.9494
5.9007 -12.9574 -1.6912 0.9443
8.5623 -12.3539 -1.7855 0.9412
11.3088 -11.3221 -1.9009 0.9376
14.0987 -9.7961 -2.0393 0.9332
16.8320 -7.6890 -2.1981 0.9282
18.1608 -1.2919 -2.1627 0.9293
14.8442 0.2725 -1.7636 0.9419
11.7033 1.2657 -1.3983 0.9537
9.8534 1.9676 -1.1936 0.9603
6.7911 3.4088 -0.9026 0.9699
6.2013 3.8412 -0.8665 0.9710
5.3382 4.0074 -0.7929 0.9735
4.1390 4.4599 -0.7228 0.9758
2.6583 5.1063 -0.6838 0.9771
2.1826 5.3005 -0.6809 0.9772
0.2024 6.1057 -0.7257 0.9757
-0.9941 6.7787 -0.8138 0.9728
-1.6401 6.8511 -0.8368 0.9720
-14.7205 12.6583 -2.3062 0.9248
-15.5967 7.3828 -2.0497 0.9329
-15.6163 5.7488 -1.9767 0.9352
-15.5221 4.1852 -1.9097 0.9373
-14.6680 -0.0697 -1.7424 0.9426
-14.2238 -1.3427 -1.6971 0.9441
-13.7126 -2.5448 -1.6567 0.9454
-13.1406 -3.6773 -1.6209 0.9465
-10.3384 -7.5434 -1.5202 0.9498
-9.5270 -8.3511 -1.5049 0.9502
-8.1982 -8.5962 -1.4110 0.9533
-7.2555 -9.1142 -1.3838 0.9542
-6.3943 -9.6969 -1.3797 0.9543
-5.5004 -10.2235 -1.3790 0.9543
-4.5745 -10.6936 -1.3816 0.9542
-1.6101 -11.7563 -1.4095 0.9533
1.6716 -12.5896 -1.5086 0.9501
4.2223 -13.1474 -1.6403 0.9459
5.5046 -13.0154 -1.6786 0.9447
6.8149 -12.7923 -1.7217 0.9433
8.1508 -12.4719 -1.7698 0.9418
9.5094 -12.0468 -1.8231 0.9400
12.2769 -10.8511 -1.9463 0.9361
2.3518 -0.9023 -0.2992 0.9899
17.7350 -5.0416 -2.1901 0.9284
18.8909 -3.5861 -2.2840 0.9255
19.7359 -1.9449 -2.3557 0.9232
14.8230 -0.1313 -1.7608 0.9420
11.5678 0.9334 -1.3786 0.9543
9.0398 2.3976 -1.1109 0.9630
8.2535 2.9999 -1.0432 0.9652
7.0502 3.3019 -0.9248 0.9691
3.3515 4.9350 -0.7086 0.9763
2.3271 5.2415 -0.6812 0.9772
1.4038 5.7590 -0.7041 0.9764
0.3649 6.0398 -0.7187 0.9759
-0.7969 6.6989 -0.8013 0.9732
-14.5524 13.2193 -2.3353 0.9239
-15.3785 9.6135 -2.1543 0.9296
-15.5662 7.8937 -2.0732 0.9321
-15.5621 4.6537 -1.9294 0.9367
-15.1348 1.6997 -1.8091 0.9405
-14.3664 -0.9627 -1.7104 0.9437
-13.3209 -3.3397 -1.6313 0.9462
-12.7096 -4.4248 -1.5986 0.9472
-11.3343 -6.3960 -1.5459 0.9489
-10.5774 -7.2852 -1.5256 0.9496
-3.9120 -10.9870 -1.3854 0.9541
-2.9332 -11.3595 -1.3936 0.9538
5.1111 -13.0649 -1.6665 0.9451
6.4131 -12.8703 -1.7081 0.9437
13.2481 -10.3173 -1.9946 0.9346
17.3703 -5.4530 -2.1626 0.9293
19.6486 -2.4777 -2.3525 0.9233
12.1435 0.6479 -1.4445 0.9522
10.9272 1.5697 -1.3113 0.9565
6.4755 3.5389 -0.8766 0.9707
5.0922 4.1086 -0.7772 0.9740
4.5025 4.3509 -0.7437 0.9751
4.0289 4.6575 -0.7315 0.9755
3.5059 4.8718 -0.7130 0.9761
1.9971 5.3761 -0.6812 0.9772
1.0629 5.9450 -0.7174 0.9760
-1.2568 6.8848 -0.8313 0.9722
-14.9132 11.9435 -2.2696 0.9259
-15.2932 10.1491 -2.1803 0.9287
-15.5235 8.4107 -2.0972 0.9314
-15.5923 5.1288 -1.9498 0.9360
-14.0315 -1.8212 -1.6807 0.9446
-12.9015 -4.1016 -1.6081 0.9469
-12.2535 -5.1400 -1.5784 0.9479
-11.5559 -6.1127 -1.5529 0.9487
-10.8124 -7.0211 -1.5314 0.9494
-10.0259 -7.8666 -1.5138 0.9500
-7.7918 -8.7638 -1.3930 0.9539
-6.9227 -9.3488 -1.3818 0.9542
-6.0486 -9.9095 -1.3791 0.9543
-1.2034 -11.8550 -1.4154 0.9531
0.9566 -12.3053 -1.4661 0.9515
2.1539 -12.7809 -1.5396 0.9491
10.0460 -11.8504 -1.8454 0.9393
11.4291 -11.2667 -1.9064 0.9374
12.8227 -10.5589 -1.9731 0.9353
14.2195 -9.7178 -2.0458 0.9330
15.6097 -8.7342 -2.1247 0.9305
17.0008 -5.8496 -2.1357 0.9301
18.1952 -4.4916 -2.2262 0.9273
11.5908 1.3443 -1.3861 0.9541
8.6744 2.6283 -1.0767 0.9641
7.6162 3.0737 -0.9756 0.9675
6.1372 3.8676 -0.8617 0.9712
5.2828 4.0301 -0.7893 0.9736
4.0462 4.4281 -0.7125 0.9761
3.6624 4.8077 -0.7179 0.9759
3.0794 4.8940 -0.6868 0.9770
2.1416 5.3172 -0.6809 0.9772
0.3392 2.9423 -0.3518 0.9881
0.1556 6.1246 -0.7278 0.9756
-0.4069 6.3525 -0.7561 0.9747
-14.7654 12.4995 -2.2980 0.9250
-2.5496 1.7938 -0.3703 0.9875
-15.4684 8.9336 -2.1219 0.9306
-15.5090 4.0532 -1.9041 0.9375
-15.3044 2.5682 -1.8434 0.9394
-15.0092 1.1562 -1.7882 0.9412
-12.4562 -4.8309 -1.5870 0.9476
-11.7733 -5.8234 -1.5602 0.9485
-9.3862 -8.3570 -1.4928 0.9506
-8.1071 -8.6334 -1.4068 0.9534
-6.3182 -9.7447 -1.3796 0.9543
-4.4929 -10.7316 -1.3820 0.9542
-11.0732 12.9078 -2.4097 0.9336
-11.7684 11.4659 -2.3280 0.9358
-12.3177 10.0223 -2.2500 0.9379
-2.6081 1.7600 -0.4458 0.9874
-13.0150 7.1824 -2.1063 0.9417
-13.2407 4.4692 -1.9801 0.9451
-13.0684 1.9321 -1.8718 0.9480
-12.2030 -1.4879 -1.7418 0.9515
-9.5457 -6.0941 -1.6046 0.9553
-8.8715 -6.8505 -1.5881 0.9557
-6.6163 -8.7920 -1.5591 0.9565
-5.7940 -9.3293 -1.5560 0.9566
-3.1370 -10.6036 -1.5668 0.9563
-2.1923 -10.9121 -1.5770 0.9560
-0.2216 -11.3448 -1.6077 0.9552
0.8020 -11.4644 -1.6284 0.9546
1.8492 -11.5160 -1.6526 0.9540
2.9182 -11.4963 -1.6806 0.9532
4.0070 -11.4016 -1.7123 0.9523
5.1131 -11.2280 -1.7481 0.9514
6.2336 -10.9710 -1.7879 0.9503
8.5020 -10.1878 -1.8801 0.9478
9.6399 -9.6512 -1.9328 0.9464
11.8903 -8.2617 -2.0515 0.9432
12.9854 -7.3983 -2.1176 0.9414
14.8594 -3.7904 -2.1728 0.9399
16.3899 -1.1659 -2.3281 0.9358
14.8014 0.2717 -2.0975 0.9419
11.6983 1.2651 -1.6672 0.9536
8.5521 2.5192 -1.2632 0.9646
4.1339 4.4544 -0.8611 0.9757
3.7029 4.7836 -0.8571 0.9759
2.6553 5.1004 -0.8147 0.9770
2.1801 5.2944 -0.8113 0.9771
1.7571 5.6553 -0.8391 0.9764
0.3625 2.9445 -0.4204 0.9881
-0.9927 6.7696 -0.9694 0.9727
-6.2659 18.6362 -2.7858 0.9236
-9.9342 14.7582 -2.5207 0.9307
-10.8313 13.3440 -2.4352 0.9329
-11.5726 11.9058 -2.3525 0.9351
-2.5361 1.8138 -0.4418 0.9875
-12.9274 1.0966 -1.8383 0.9489
-12.3196 -1.1630 -1.7533 0.9512
-11.4503 -3.2043 -1.6847 0.9531
-10.9306 -4.1422 -1.6562 0.9539
-9.7426 -5.8529 -1.6104 0.9551
-9.0811 -6.6260 -1.5928 0.9556
-8.3786 -7.3445 -1.5787 0.9560
-6.8601 -8.6174 -1.5606 0.9565
-6.0479 -9.1716 -1.5566 0.9566
-5.2027 -9.6702 -1.5559 0.9566
-4.3260 -10.1127 -1.5585 0.9565
-1.5190 -11.0909 -1.5861 0.9558
-0.5283 -11.2952 -1.6022 0.9553
3.6735 -11.4386 -1.7023 0.9526
4.7746 -11.2894 -1.7368 0.9517
5.8911 -11.0583 -1.7753 0.9506
7.0194 -10.7406 -1.8180 0.9495
8.1554 -10.3314 -1.8650 0.9482
9.2937 -9.8253 -1.9163 0.9468
10.4284 -9.2172 -1.9720 0.9453
12.6551 -7.6735 -2.0970 0.9420
2.3530 -0.9028 -0.3571 0.9899
14.5974 -4.1497 -2.1502 0.9405
16.1813 -1.5946 -2.3038 0.9364
14.8164 -0.1312 -2.0994 0.9419
11.5658 0.9332 -1.6441 0.9542
8.9720 2.3796 -1.3152 0.9632
7.7628 2.8216 -1.1703 0.9672
6.9592 3.2593 -1.0888 0.9694
6.3751 3.7128 -1.0453 0.9706
5.5293 3.9203 -0.9604 0.9730
4.9007 4.1793 -0.9126 0.9743
3.8621 4.7183 -0.8639 0.9757
3.3475 4.9292 -0.8442 0.9762
2.8011 5.0408 -0.8171 0.9770
1.4021 5.7523 -0.8389 0.9764
0.8785 5.8240 -0.8345 0.9765
-0.1816 6.2535 -0.8864 0.9750
-0.7958 6.6901 -0.9546 0.9731
-1.4241 6.7552 -0.9782 0.9725
-7.2475 17.8080 -2.7242 0.9253
-8.5206 16.5324 -2.6353 0.9276
-9.6291 15.1809 -2.5472 0.9299
-12.0001 10.9008 -2.2971 0.9366
-12.8561 8.0367 -2.1482 0.9406
-13.2362 3.9582 -1.9575 0.9457
-11.5978 -2.9077 -1.6941 0.9528
-11.0944 -3.8625 -1.6645 0.9536
-10.5390 -4.7621 -1.6386 0.9544
-9.9354 -5.6067 -1.6164 0.9550
-9.2870 -6.3964 -1.5978 0.9555
-7.8672 -7.8120 -1.5709 0.9562
-2.7710 -10.7313 -1.5704 0.9562
5.5497 -11.1377 -1.7631 0.9510
6.6749 -10.8468 -1.8046 0.9498
10.0837 -9.4135 -1.9546 0.9458
11.2114 -8.7312 -2.0134 0.9442
12.3219 -7.9379 -2.0768 0.9425
2.3352 -0.9696 -0.3583 0.9898
14.1328 -3.0834 -2.0496 0.9432
15.3072 -0.5523 -2.1703 0.9400
5.9093 3.9526 -1.0073 0.9717
4.0240 4.6518 -0.8715 0.9755
2.9479 4.9808 -0.8201 0.9769
1.9948 5.3699 -0.8117 0.9771
1.5641 5.7338 -0.8421 0.9763
0.2581 2.9398 -0.4181 0.9881
-0.6047 6.6129 -0.9409 0.9735
-1.2457 6.8244 -0.9829 0.9724
-9.3090 15.5989 -2.5739 0.9292
-10.3040 14.2093 -2.4869 0.9315
-11.1394 12.7834 -2.4025 0.9338
-12.3587 9.8977 -2.2434 0.9380
-13.0340 7.0619 -2.1004 0.9419
-13.2411 4.3554 -1.9750 0.9452
-12.8314 0.6379 -1.8203 0.9494
-12.5345 -0.4979 -1.7774 0.9506
-12.1688 -1.5794 -1.7387 0.9516
-11.7400 -2.6061 -1.7039 0.9526
-10.7134 -4.4940 -1.6461 0.9541
-10.1241 -5.3553 -1.6228 0.9548
-7.3378 -8.2530 -1.5647 0.9564
-5.7212 -9.3732 -1.5559 0.9566
-4.8636 -9.8500 -1.5565 0.9566
-2.1092 -10.9359 -1.5781 0.9560
-1.1347 -11.1783 -1.5920 0.9556
-0.1339 -11.3577 -1.6094 0.9551
4.1021 -11.3897 -1.7153 0.9523
6.3311 -10.9447 -1.7915 0.9502
11.9862 -8.1915 -2.0570 0.9430
13.0788 -7.3180 -2.1235 0.9412
14.0550 -4.8360 -2.1060 0.9417
14.9327 -3.6863 -2.1793 0.9398
9.9306 2.0631 -1.4371 0.9599
8.4388 2.5570 -1.2494 0.9650
7.3995 2.9862 -1.1306 0.9683
6.6923 3.4243 -1.0651 0.9701
6.1286 3.8621 -1.0264 0.9712
5.2758 4.0248 -0.9402 0.9735
4.6707 4.2739 -0.8970 0.9747
2.6139 5.1173 -0.8142 0.9771
1.7145 5.6726 -0.8397 0.9763
0.3382 2.9334 -0.4184 0.9881
-0.4064 6.3444 -0.9008 0.9746
-1.0499 6.7927 -0.9739 0.9726
-1.6982 6.8587 -1.0012 0.9719
-7.7649 17.3199 -2.6894 0.9262
-8.9737 16.0115 -2.6007 0.9285
-10.0182 14.6372 -2.5132 0.9308
-10.9016 13.2201 -2.4279 0.9331
-11.6297 11.7807 -2.3455 0.9353
-12.2100 10.3363 -2.2667 0.9374
-12.9633 7.4868 -2.1211 0.9413
-13.1552 6.1030 -2.0548 0.9431
-13.2368 4.7569 -1.9929 0.9448
-12.9071 0.9943 -1.8342 0.9490
-12.6325 -0.1577 -1.7900 0.9502
-10.8832 -4.2208 -1.6539 0.9539
-9.6870 -5.9220 -1.6087 0.9552
-8.3160 -7.4041 -1.5776 0.9560
-7.5717 -8.0632 -1.5672 0.9563
-5.1281 -9.7108 -1.5560 0.9566
-4.2486 -10.1483 -1.5588 0.9565
-9.3432 10.8912 -2.3640 0.9435
-10.5020 8.5449 -2.2304 0.9466
-11.2020 6.1819 -2.1078 0.9495
-11.3950 5.0191 -2.0512 0.9508
-11.4922 3.8790 -1.9982 0.9520
-11.2734 0.6479 -1.8602 0.9553
-11.0507 -0.3533 -1.8214 0.9562
-10.7625 -1.3123 -1.7861 0.9570
-10.4137 -2.2273 -1.7543 0.9577
-9.5523 -3.9203 -1.7010 0.9590
-9.0474 -4.6966 -1.6793 0.9595
-8.4979 -5.4252 -1.6609 0.9600
-7.2763 -6.7370 -1.6336 0.9606
-6.6096 -7.3192 -1.6246 0.9608
-5.9085 -7.8514 -1.6188 0.9609
-3.6192 -9.1404 -1.6195 0.9609
-1.9554 -9.7327 -1.6354 0.9606
-0.1972 -10.0973 -1.6637 0.9599
1.6408 -10.2184 -1.7049 0.9589
3.5410 -10.0758 -1.7594 0.9576
5.4806 -9.6458 -1.8276 0.9560
7.4287 -8.9017 -1.9100 0.9541
10.2712 -7.1366 -2.0604 0.9506
11.1590 -5.0975 -2.0211 0.9515
14.1734 0.2602 -2.3353 0.9442
10.1070 2.0183 -1.6979 0.9591
7.5527 2.9803 -1.3376 0.9676
6.5727 3.2992 -1.2115 0.9706
5.8255 3.6085 -1.1289 0.9726
3.6984 4.7778 -0.9954 0.9758
3.1142 4.8654 -0.9516 0.9769
2.6522 5.0945 -0.9462 0.9770
2.1776 5.2882 -0.9421 0.9771
1.7551 5.6487 -0.9744 0.9763
0.2019 6.0906 -1.0039 0.9756
-0.3521 6.2547 -1.0320 0.9749
-0.9382 6.3975 -1.0652 0.9741
-8.3222 12.3635 -2.4552 0.9414
-9.1240 11.2406 -2.3850 0.9430
-11.3467 5.3710 -2.0681 0.9504
-10.8569 -1.0249 -1.7965 0.9568
-10.1379 -2.8370 -1.7343 0.9582
-9.6966 -3.6746 -1.7083 0.9588
-9.2060 -4.4652 -1.6856 0.9594
-8.0909 -5.9035 -1.6500 0.9602
-6.8163 -7.1472 -1.6270 0.9608
-3.8633 -9.0312 -1.6182 0.9610
-0.4704 -10.0571 -1.6586 0.9600
1.3565 -10.2164 -1.6978 0.9591
3.2486 -10.1154 -1.7502 0.9578
4.2125 -9.9602 -1.7815 0.9571
6.1590 -9.4241 -1.8547 0.9554
9.0561 -8.0043 -1.9911 0.9522
10.8989 -6.6086 -2.0998 0.9496
11.7580 -5.7628 -2.1571 0.9483
13.0305 -2.4736 -2.1850 0.9477
13.5891 -1.3391 -2.2495 0.9461
14.0531 -0.1245 -2.3152 0.9446
10.5912 1.8168 -1.7703 0.9574
6.8467 3.2066 -1.2455 0.9698
4.8750 4.1574 -1.0555 0.9744
4.2449 4.3314 -0.9991 0.9757
3.8574 4.7126 -1.0033 0.9756
3.3436 4.9234 -0.9804 0.9762
2.7978 5.0349 -0.9489 0.9769
1.8480 5.4226 -0.9438 0.9770
0.8775 5.8170 -0.9691 0.9764
0.3640 6.0250 -0.9944 0.9758
-0.1803 6.2098 -1.0234 0.9751
-0.7559 6.3547 -1.0542 0.9744
-1.2536 5.9463 -1.0011 0.9757
-2.1005 6.8598 -1.1819 0.9713
-5.5616 13.6655 -2.4305 0.9419
-7.0857 13.7484 -2.5480 0.9392
-8.0529 12.6960 -2.4768 0.9409
-10.1997 9.2653 -2.2701 0.9457
-10.6735 8.0814 -2.2055 0.9472
-11.5056 3.4406 -1.9784 0.9525
-11.3746 1.2774 -1.8856 0.9547
-10.6331 -1.6754 -1.7733 0.9573
-9.8363 -3.4245 -1.7158 0.9587
-8.8377 -4.9872 -1.6717 0.9597
-6.3394 -7.5333 -1.6220 0.9609
-5.6255 -8.0458 -1.6173 0.9610
-2.4726 -9.5758 -1.6293 0.9607
-0.7417 -10.0113 -1.6538 0.9601
1.0737 -10.2084 -1.6910 0.9592
2.9571 -10.1485 -1.7414 0.9581
6.8369 -9.1632 -1.8834 0.9547
7.8073 -8.7172 -1.9278 0.9537
8.7670 -8.1843 -1.9758 0.9525
9.7093 -7.5614 -2.0273 0.9513
10.6261 -6.8455 -2.0823 0.9500
2.3327 -0.9685 -0.4161 0.9898
12.8438 -2.8022 -2.1656 0.9481
13.4283 -1.6933 -2.2297 0.9466
12.0785 0.6444 -1.9926 0.9521
8.2612 2.7507 -1.4344 0.9653
5.0384 4.0652 -1.0665 0.9741
4.4912 4.3399 -1.0289 0.9750
3.4976 4.8602 -0.9864 0.9760
1.0583 5.9187 -0.9905 0.9759
0.2614 2.9773 -0.4924 0.9880
-0.0112 6.1644 -1.0155 0.9753
-0.5771 6.3113 -1.0441 0.9746
-1.8659 6.7440 -1.1527 0.9720
-7.7719 13.0232 -2.4984 0.9404
-8.6508 11.9295 -2.4276 0.9420
-10.5414 8.4423 -2.2249 0.9467
-11.2227 6.0805 -2.1027 0.9496
-11.4072 4.9194 -2.0465 0.9509
-11.4963 3.7815 -1.9937 0.9521
-9.9714 -3.1701 -1.7237 0.9585
-8.4483 -5.4860 -1.6595 0.9600
-7.8535 -6.1621 -1.6445 0.9603
-7.2200 -6.7894 -1.6327 0.9606
-5.8463 -7.8951 -1.6184 0.9610
-5.1103 -8.3723 -1.6159 0.9610
-4.3440 -8.7978 -1.6164 0.9610
-2.7278 -9.4896 -1.6266 0.9608
-1.8811 -9.7533 -1.6364 0.9605
-0.1192 -10.1077 -1.6653 0.9598
1.7219 -10.2178 -1.7070 0.9589
2.6668 -10.1751 -1.7328 0.9583
4.5917 -9.8795 -1.7947 0.9568
5.5651 -9.6203 -1.8309 0.9559
6.5403 -9.2823 -1.8706 0.9550
8.4763 -8.3559 -1.9608 0.9529
9.4247 -7.7607 -2.0113 0.9517
11.2441 -6.2915 -2.1226 0.9491
11.2257 -5.0234 -2.0260 0.9514
11.9680 -4.1179 -2.0850 0.9500
14.2057 0.3707 -2.3410 0.9440
11.6818 1.3549 -1.9374 0.9534
6.5037 3.3278 -1.2035 0.9708
5.7680 3.6349 -1.1232 0.9727
5.2042 3.9702 -1.0783 0.9738
4.0362 4.4172 -0.9857 0.9760
3.6536 4.7962 -0.9933 0.9759
2.6109 5.1113 -0.9455 0.9770
2.1366 5.3050 -0.9422 0.9771
1.7125 5.6660 -0.9751 0.9763
0.1552 6.1095 -1.0068 0.9755
-0.4015 6.2673 -1.0346 0.9749
-0.9906 6.4096 -1.0684 0.9741
-1.4355 5.7977 -0.9839 0.9761
-4.8886 14.1756 -2.4702 0.9410
-5.9718 13.3204 -2.4048 0.9425
-8.3966 12.2680 -2.4491 0.9415
-10.3988 8.8030 -2.2445 0.9463
-11.1465 6.4376 -2.1205 0.9492
-11.4789 4.1251 -2.0094 0.9518
-11.5057 3.0069 -1.9591 0.9529
-11.3127 0.8715 -1.8692 0.9550
-11.1050 -0.1387 -1.8296 0.9560
-10.8306 -1.1070 -1.7935 0.9568
-10.4947 -2.0317 -1.7610 0.9576
-10.1017 -2.9113 -1.7319 0.9583
-9.6560 -3.7449 -1.7062 0.9589
-9.1613 -4.5315 -1.6838 0.9594
-8.6213 -5.2705 -1.6646 0.9599
-7.4168 -6.6036 -1.6360 0.9605
-6.7578 -7.1965 -1.6263 0.9608
-6.0641 -7.7397 -1.6198 0.9609
-5.3376 -8.2324 -1.6163 0.9610
-4.5804 -8.6737 -1.6159 0.9610
-3.7942 -9.0627 -1.6185 0.9610
-8.6589 8.4363 -2.2723 0.9520
-9.1440 7.4400 -2.2158 0.9532
-9.8234 5.4211 -2.1089 0.9554
-10.0258 4.4160 -2.0592 0.9564
-10.1428 3.4235 -2.0121 0.9574
-10.1794 2.4496 -1.9679 0.9583
-10.0310 0.5765 -1.8885 0.9599
-9.8555 -0.3151 -1.8534 0.9607
-9.6186 -1.1728 -1.8213 0.9613
-9.3245 -1.9943 -1.7923 0.9619
-8.5805 -3.5215 -1.7433 0.9630
-7.1258 -5.5025 -1.6922 0.9640
-6.5625 -6.0761 -1.6810 0.9643
-4.6725 -7.5235 -1.6646 0.9646
-3.9829 -7.9116 -1.6649 0.9646
-3.2669 -8.2507 -1.6680 0.9645
-0.9797 -8.9611 -1.6944 0.9640
-0.1775 -9.0903 -1.7090 0.9637
0.6410 -9.1629 -1.7265 0.9633
1.4735 -9.1767 -1.7469 0.9629
4.0272 -8.8434 -1.8264 0.9612
4.8861 -8.5994 -1.8590 0.9605
8.2421 -6.8946 -2.0198 0.9572
9.7882 -5.5767 -2.1174 0.9552
9.7458 -4.4520 -2.0139 0.9573
10.3600 -3.6546 -2.0649 0.9563
11.8169 -0.8406 -2.2267 0.9529
12.1394 0.2228 -2.2821 0.9518
11.6416 1.2590 -2.2009 0.9535
10.0858 2.0140 -1.9332 0.9590
8.7406 2.5747 -1.7127 0.9636
6.7135 3.3699 -1.4119 0.9699
5.1681 3.8797 -1.2147 0.9740
2.1458 5.2111 -1.0593 0.9773
1.6748 5.3903 -1.0609 0.9773
-0.3447 6.1237 -1.1528 0.9753
-1.3838 5.7802 -1.1172 0.9761
-4.0671 12.0965 -2.3987 0.9494
-5.0151 11.4224 -2.3448 0.9505
-7.3069 9.0020 -2.1793 0.9539
-9.0069 7.7451 -2.2328 0.9528
-2.5368 1.8143 -0.5862 0.9874
-9.7441 5.7286 -2.1246 0.9550
-10.1159 3.7240 -2.0261 0.9571
-10.1600 1.7858 -1.9390 0.9589
-9.6970 -0.9154 -1.8308 0.9611
-9.4199 -1.7481 -1.8008 0.9618
-8.2771 -4.0147 -1.7291 0.9633
-5.5290 -6.9454 -1.6686 0.9645
-4.8769 -7.3957 -1.6651 0.9646
-4.1957 -7.7986 -1.6645 0.9646
-2.7544 -8.4571 -1.6718 0.9644
-1.9980 -8.7103 -1.6797 0.9643
-0.4236 -9.0569 -1.7042 0.9638
0.3902 -9.1469 -1.7208 0.9634
1.2187 -9.1788 -1.7404 0.9630
2.0594 -9.1505 -1.7630 0.9625
2.9095 -9.0597 -1.7885 0.9620
4.6246 -8.6810 -1.8488 0.9608
6.3334 -8.0232 -1.9213 0.9593
7.1733 -7.5836 -1.9621 0.9584
7.9960 -7.0674 -2.0059 0.9575
10.2704 -5.0337 -2.1498 0.9545
11.2646 -2.1384 -2.1551 0.9544
10.5681 1.8128 -2.0154 0.9573
9.1168 2.4180 -1.7729 0.9623
7.9683 2.8963 -1.5936 0.9661
6.1179 3.5630 -1.3307 0.9716
4.7453 4.0467 -1.1722 0.9749
2.2882 5.1539 -1.0599 0.9773
1.8189 5.3371 -1.0598 0.9773
0.3530 5.8420 -1.1001 0.9765
-0.1758 6.0556 -1.1387 0.9756
-0.7507 6.3106 -1.1945 0.9745
-1.2144 5.7608 -1.1066 0.9763
-7.1134 9.2680 -2.1960 0.9536
-8.8605 8.0488 -2.2500 0.9524
-9.6563 6.0364 -2.1405 0.9547
-10.1664 3.0402 -1.9945 0.9577
-9.9699 0.2240 -1.8744 0.9602
-9.7699 -0.6547 -1.8405 0.9609
-9.5102 -1.4985 -1.8096 0.9616
-8.4126 -3.8012 -1.7352 0.9631
-7.4507 -5.1316 -1.7005 0.9638
-6.3327 -6.2882 -1.6774 0.9643
-5.7215 -6.7990 -1.6702 0.9645
-2.9801 -8.3698 -1.6699 0.9645
-2.2306 -8.6387 -1.6770 0.9643
-1.4593 -8.8554 -1.6869 0.9641
-0.6681 -9.0182 -1.6997 0.9639
0.1407 -9.1256 -1.7155 0.9635
0.9650 -9.1754 -1.7341 0.9631
1.8023 -9.1656 -1.7558 0.9627
2.6499 -9.0941 -1.7804 0.9622
3.5046 -8.9584 -1.8081 0.9616
5.2214 -8.4849 -1.8726 0.9603
6.0751 -8.1422 -1.9095 0.9595
6.9191 -7.7255 -1.9493 0.9587
8.5545 -6.6621 -2.0380 0.9568
10.0728 -5.2815 -2.1378 0.9548
11.1165 -2.4254 -2.1386 0.9547
11.5764 -1.4598 -2.1931 0.9536
11.9542 -0.4314 -2.2484 0.9525
9.5206 2.2497 -1.8388 0.9610
8.2928 2.7612 -1.6429 0.9651
6.3695 3.4810 -1.3643 0.9709
3.4934 4.8544 -1.1241 0.9760
2.8964 4.8938 -1.0689 0.9771
1.9623 5.2827 -1.0592 0.9773
1.4886 5.4571 -1.0632 0.9772
1.0049 5.6200 -1.0731 0.9770
0.2492 2.8390 -0.5357 0.9885
-0.0109 5.9890 -1.1257 0.9759
-5.3617 11.1374 -2.3234 0.9509
-6.1837 10.3620 -2.2681 0.9521
-6.9110 9.5303 -2.2127 0.9532
-9.1813 7.3531 -2.2110 0.9533
-9.8444 5.3337 -2.1045 0.9555
-10.0392 4.3295 -2.0550 0.9565
-10.0183 0.4981 -1.8854 0.9600
-8.9448 -2.8437 -1.7642 0.9625
-5.9110 -6.6483 -1.6721 0.9644
-4.6138 -7.5590 -1.6646 0.9646
-3.2037 -8.2778 -1.6684 0.9645
-2.4612 -8.5623 -1.6745 0.9644
0.7126 -9.1664 -1.7281 0.9633
2.3909 -9.1225 -1.7726 0.9623
3.2438 -9.0067 -1.7993 0.9618
5.8160 -8.2542 -1.8979 0.9597
6.6635 -7.8603 -1.9369 0.9589
7.4975 -7.3910 -1.9789 0.9581
8.3116 -6.8442 -2.0238 0.9571
9.8518 -5.5124 -2.1219 0.9551
9.8010 -4.3858 -2.0182 0.9572
10.9618 -2.7060 -2.1222 0.9551
11.4446 -1.7607 -2.1764 0.9540
12.1628 0.3174 -2.2869 0.9517
11.6689 1.3533 -2.2080 0.9533
9.9557 2.0683 -1.9112 0.9595
6.6352 3.3951 -1.4009 0.9701
5.1111 3.8991 -1.2083 0.9742
4.5228 4.1385 -1.1523 0.9754
3.6492 4.7904 -1.1319 0.9758
2.1053 5.2271 -1.0592 0.9773
1.1534 5.5716 -1.0694 0.9771
0.3231 2.8032 -0.5304 0.9886
0.1505 5.9239 -1.1138 0.9762
-0.3936 6.1434 -1.1571 0.9753
-1.5109 6.1024 -1.1816 0.9747
-7.9312 9.6180 -2.3432 0.9505
-8.5399 8.6508 -2.2848 0.9517
-9.0468 7.6585 -2.2279 0.9529
-2.5490 1.7934 -0.5858 0.9874
-9.7675 5.6411 -2.1201 0.9551
-10.1551 1.7041 -1.9355 0.9590
-10.0606 0.7750 -1.8966 0.9598
-9.8991 -0.1236 -1.8608 0.9605
-9.6752 -0.9889 -1.8280 0.9612
-9.3933 -1.8185 -1.7984 0.9618
-9.0573 -2.6103 -1.7717 0.9624
-8.6709 -3.3629 -1.7481 0.9629
-8.2378 -4.0747 -1.7274 0.9633
-7.7611 -4.7446 -1.7098 0.9637
-4.1354 -7.8312 -1.6646 0.9646
-2.6898 -8.4811 -1.6724 0.9644
-6.5879 7.6794 -2.1388 0.9595
-8.0891 6.5817 -2.2044 0.9583
-8.7388 4.8225 -2.1098 0.9600
-8.9421 3.9387 -2.0654 0.9608
-9.0689 3.0610 -2.0232 0.9616
-9.1077 1.3465 -1.9461 0.9631
-9.0276 0.5189 -1.9114 0.9637
-8.8862 -0.2841 -1.8793 0.9643
-8.4348 -1.8040 -1.8233 0.9653
-8.1319 -2.5162 -1.7993 0.9658
-7.3882 -3.8353 -1.7596 0.9665
-6.4804 -5.0042 -1.7307 0.9671
-5.9717 -5.5291 -1.7203 0.9673
-5.4298 -6.0128 -1.7125 0.9674
-4.8571 -6.4542 -1.7074 0.9675
-2.9749 -7.5132 -1.7081 0.9675
-0.1613 -8.2596 -1.7462 0.9668
0.5819 -8.3177 -1.7625 0.9665
6.6526 -6.6605 -1.9899 0.9622
8.7036 -4.9588 -2.1174 0.9599
8.6421 -3.9478 -2.0083 0.9619
9.1604 -3.2314 -2.0533 0.9611
10.6046 0.1947 -2.2420 0.9576
10.7668 1.1644 -2.2892 0.9567
5.9833 3.7062 -1.4877 0.9716
4.6277 4.1692 -1.3166 0.9749
3.6894 4.7662 -1.2741 0.9757
2.5687 4.9342 -1.1759 0.9775
0.1976 5.9623 -1.2610 0.9759
-0.9570 6.5257 -1.3942 0.9734
-3.5301 10.4993 -2.3414 0.9557
-4.3659 9.9438 -2.2956 0.9566
-5.8141 8.6375 -2.2009 0.9583
-6.4197 7.9089 -2.1532 0.9592
-6.9441 7.1441 -2.1060 0.9601
-2.5378 1.8150 -0.6595 0.9873
-8.8885 4.2074 -2.0787 0.9606
-9.1139 2.4573 -1.9953 0.9621
-9.1194 1.6029 -1.9572 0.9629
-8.9355 -0.0424 -1.8888 0.9641
-8.7538 -0.8263 -1.8586 0.9647
-8.5172 -1.5806 -1.8311 0.9652
-8.2293 -2.3029 -1.8063 0.9657
-7.5126 -3.6439 -1.7650 0.9664
-6.6283 -4.8363 -1.7344 0.9670
-5.5982 -5.8700 -1.7146 0.9674
-5.0346 -6.3244 -1.7087 0.9675
-4.4416 -6.7357 -1.7055 0.9676
-2.5076 -7.6996 -1.7117 0.9674
-1.1100 -8.1044 -1.7291 0.9671
-0.3850 -8.2313 -1.7418 0.9669
1.1055 -8.3260 -1.7754 0.9662
3.4020 -8.0438 -1.8461 0.9649
4.1708 -7.8292 -1.8751 0.9644
5.6900 -7.2082 -1.9412 0.9632
7.1518 -6.3211 -2.0176 0.9617
7.8469 -5.7750 -2.0595 0.9610
8.5094 -5.1598 -2.1036 0.9601
9.1083 -4.4642 -2.1441 0.9594
2.3569 -0.9042 -0.5336 0.9897
9.4892 -2.6975 -2.0853 0.9605
10.2624 -1.0113 -2.1798 0.9587
10.5375 -0.0933 -2.2275 0.9578
10.7272 0.8656 -2.2749 0.9570
7.9544 2.8912 -1.7890 0.9660
6.2054 3.6140 -1.5179 0.9711
5.4791 3.8847 -1.4197 0.9729
4.8144 4.1057 -1.3375 0.9745
4.2233 4.3094 -1.2754 0.9756
3.3356 4.9116 -1.2550 0.9760
2.7098 4.8765 -1.1792 0.9774
2.2487 5.0650 -1.1714 0.9776
1.7899 5.2520 -1.1729 0.9776
1.3275 5.4463 -1.1849 0.9773
0.1785 2.9535 -0.6255 0.9880
-0.1783 6.1422 -1.2989 0.9752
-0.7648 6.4299 -1.3687 0.9739
-1.2136 5.7569 -1.2436 0.9762
-4.1189 10.1207 -2.3097 0.9563
-5.6138 8.8505 -2.2154 0.9581
-6.2439 8.1350 -2.1677 0.9589
-6.7931 7.3802 -2.1203 0.9598
-8.2424 6.2408 -2.1854 0.9586
-9.0839 1.0201 -1.9322 0.9633
-8.8151 -0.5907 -1.8675 0.9645
-8.5948 -1.3543 -1.8392 0.9651
-8.0005 -2.7853 -1.7907 0.9660
-7.6331 -3.4490 -1.7705 0.9663
-6.7729 -4.6648 -1.7384 0.9669
-5.7637 -5.7232 -1.7169 0.9673
-4.0130 -6.9958 -1.7048 0.9676
-3.3751 -7.3314 -1.7060 0.9675
-2.7135 -7.6208 -1.7100 0.9675
-2.0302 -7.8627 -1.7165 0.9673
-1.3275 -8.0556 -1.7258 0.9672
-0.6074 -8.1982 -1.7377 0.9669
0.8757 -8.3257 -1.7696 0.9664
1.6335 -8.3072 -1.7896 0.9660
3.9370 -7.9011 -1.8660 0.9646
4.7031 -7.6426 -1.8969 0.9640
5.4614 -7.3196 -1.9304 0.9634
6.2070 -6.9304 -1.9666 0.9627
2.3276 -0.9664 -0.5327 0.9897
9.3487 -2.9348 -2.0712 0.9607
9.7889 -2.1357 -2.1178 0.9599
10.1629 -1.2816 -2.1652 0.9590
10.6790 0.5698 -2.2605 0.9572
9.5015 2.2452 -2.0637 0.9609
6.4368 3.5178 -1.5505 0.9705
5.7003 3.8128 -1.4496 0.9724
5.0078 4.0405 -1.3601 0.9740
4.3969 4.2488 -1.2924 0.9753
3.4892 4.8485 -1.2627 0.9759
2.8518 4.8183 -1.1835 0.9774
2.3885 5.0079 -1.1728 0.9776
1.4688 5.3846 -1.1798 0.9774
0.9998 5.5919 -1.2008 0.9770
0.2471 2.8151 -0.5973 0.9885
-0.0110 6.0617 -1.2813 0.9755
-0.5796 6.3381 -1.3453 0.9743
-1.2129 6.6445 -1.4277 0.9728
-6.0605 8.3575 -2.1822 0.9587
-6.6344 7.6136 -2.1346 0.9596
-8.7595 4.7459 -2.1059 0.9601
-9.0177 0.4483 -1.9085 0.9638
-7.7496 -3.2508 -1.7764 0.9662
-7.3521 -3.8891 -1.7581 0.9666
-6.9139 -4.4896 -1.7426 0.9669
-5.3815 -6.0527 -1.7120 0.9674
-4.2022 -6.8846 -1.7049 0.9676
-3.5719 -7.2340 -1.7054 0.9676
-2.9173 -7.5377 -1.7085 0.9675
-0.8283 -8.1602 -1.7338 0.9670
-0.0975 -8.2668 -1.7475 0.9668
0.6468 -8.3202 -1.7640 0.9665
2.9332 -8.1442 -1.8298 0.9652
5.2316 -7.4249 -1.9199 0.9635
5.9817 -7.0560 -1.9553 0.9629
6.7154 -6.6200 -1.9933 0.9622
7.4270 -6.1158 -2.0337 0.9614
8.1102 -5.5426 -2.0764 0.9606
8.7581 -4.9004 -2.1214 0.9598
9.6615 -2.3850 -2.1036 0.9601
10.0565 -1.5472 -2.1508 0.9593
10.3796 -0.6577 -2.1984 0.9584
10.7765 1.2499 -2.2932 0.9566
8.6222 2.6125 -1.9044 0.9638
7.5657 3.0533 -1.7246 0.9672
4.5758 4.1870 -1.3110 0.9750
4.0318 4.4123 -1.2634 0.9759
3.6448 4.7846 -1.2714 0.9757
2.9952 4.7602 -1.1888 0.9773
2.5288 4.9505 -1.1751 0.9775
2.0694 5.1381 -1.1709 0.9776
0.3207 2.7818 -0.5919 0.9886
0.1520 5.9840 -1.2653 0.9758
-0.4004 6.2502 -1.3239 0.9747
-3.6052 10.4542 -2.3375 0.9558
-4.4349 9.8923 -2.2916 0.9566
-5.1912 9.2625 -2.2444 0.9575
-6.4683 7.8440 -2.1491 0.9593
-6.9857 7.0765 -2.1019 0.9602
-2.5488 1.7932 -0.6588 0.9873
-8.6840 5.0153 -2.1198 0.9598
-8.9044 4.1309 -2.0749 0.9607
-9.0476 3.2514 -2.0322 0.9615
-9.1167 1.5298 -1.9540 0.9629
-8.9220 -0.1114 -1.8861 0.9642
-8.4943 -1.6445 -1.8289 0.9652
-8.2021 -2.3639 -1.8043 0.9657
-7.8621 -3.0492 -1.7825 0.9661
-7.4776 -3.6986 -1.7634 0.9665
-6.5866 -4.8844 -1.7333 0.9670
-6.0855 -5.4182 -1.7223 0.9672
-4.9844 -6.3617 -1.7083 0.9675
-3.7665 -7.1324 -1.7050 0.9676
-3.1190 -7.4502 -1.7073 0.9675
-2.4487 -7.7211 -1.7122 0.9674
-5.8729 6.8459 -2.1199 0.9636
-6.3335 6.1707 -2.0782 0.9643
-7.6937 -1.6455 -1.8491 0.9682
-7.1137 -2.9195 -1.8072 0.9689
-6.7598 -3.5091 -1.7900 0.9692
-6.3668 -4.0647 -1.7753 0.9694
-4.4552 -5.9202 -1.7413 0.9700
-2.1089 -7.1285 -1.7471 0.9699
-1.4707 -7.3202 -1.7548 0.9698
-0.8162 -7.4651 -1.7649 0.9696
-0.1477 -7.5619 -1.7776 0.9694
0.5323 -7.6092 -1.7927 0.9691
1.2212 -7.6053 -1.8103 0.9688
2.6142 -7.4384 -1.8530 0.9681
3.3118 -7.2724 -1.8781 0.9677
4.0054 -7.0495 -1.9055 0.9672
6.0198 -6.0268 -2.0020 0.9656
6.6529 -5.5653 -2.0385 0.9650
7.2577 -5.0428 -2.0770 0.9643
7.7554 -3.5427 -2.0039 0.9656
8.2017 -2.8932 -2.0440 0.9649
8.5966 -2.1929 -2.0851 0.9642
9.4043 0.1726 -2.2106 0.9621
8.7079 2.5651 -2.1335 0.9634
7.6363 3.0133 -1.9294 0.9668
6.7387 3.3825 -1.7721 0.9695
5.3020 3.9802 -1.5581 0.9731
4.6965 4.2312 -1.4857 0.9744
4.1271 4.4470 -1.4259 0.9754
3.6849 4.7604 -1.4148 0.9756
3.0879 4.8243 -1.3462 0.9767
1.6763 5.3952 -1.3278 0.9771
1.2050 5.6021 -1.3467 0.9767
0.2011 6.0678 -1.4269 0.9754
-0.3542 6.2913 -1.4809 0.9744
-0.9581 6.5338 -1.5520 0.9732
-3.1149 9.2644 -2.2971 0.9606
-5.1667 7.6757 -2.1746 0.9627
-2.5389 1.8158 -0.7336 0.9873
-8.2447 2.2230 -2.0069 0.9655
-8.2237 0.6976 -1.9397 0.9667
-6.8718 -3.3331 -1.7950 0.9691
-6.4904 -3.8992 -1.7795 0.9694
-6.0719 -4.4304 -1.7665 0.9696
-5.6187 -4.9252 -1.7560 0.9698
-4.6177 -5.8007 -1.7425 0.9700
-4.0745 -6.1789 -1.7395 0.9700
-3.5056 -6.5159 -1.7389 0.9701
-2.2997 -7.0610 -1.7453 0.9699
-1.0170 -7.4260 -1.7616 0.9697
-0.3525 -7.5376 -1.7735 0.9695
1.0107 -7.6120 -1.8047 0.9689
1.7041 -7.5718 -1.8241 0.9686
2.4015 -7.4779 -1.8459 0.9682
3.0996 -7.3289 -1.8702 0.9678
4.4833 -6.8601 -1.9261 0.9669
5.8223 -6.1553 -1.9913 0.9658
7.0769 -5.2083 -2.0651 0.9645
8.1745 -4.0065 -2.1395 0.9633
2.3582 -0.9047 -0.5936 0.9897
8.4822 -2.4113 -2.0725 0.9644
8.8374 -1.6776 -2.1141 0.9637
9.1295 -0.8997 -2.1560 0.9630
9.4972 0.7663 -2.2393 0.9616
9.5603 1.6400 -2.2797 0.9609
7.9404 2.8861 -1.9856 0.9659
6.9946 3.2758 -1.8152 0.9688
6.1962 3.6086 -1.6852 0.9710
4.2997 4.3873 -1.4437 0.9751
3.8432 4.6952 -1.4260 0.9754
3.3315 4.9057 -1.3937 0.9759
1.3498 5.5377 -1.3396 0.9769
0.4330 2.8701 -0.6822 0.9881
-0.1806 6.2215 -1.4628 0.9747
-0.7681 6.4576 -1.5284 0.9736
-2.1462 7.0089 -1.7228 0.9703
-4.3447 8.4301 -2.2289 0.9618
-4.9851 7.8593 -2.1873 0.9625
-6.0614 6.5853 -2.1035 0.9639
-7.3893 5.5948 -2.1783 0.9626
-7.9490 4.0310 -2.0947 0.9640
-8.2260 2.4599 -2.0179 0.9653
-7.8336 -1.2343 -1.8638 0.9679
-7.5945 -1.9040 -1.8401 0.9683
-7.3090 -2.5446 -1.8189 0.9687
-6.9801 -3.1540 -1.8002 0.9690
-6.2031 -4.2724 -1.7702 0.9695
-5.7602 -4.7785 -1.7590 0.9697
-1.2166 -7.3825 -1.7585 0.9697
0.1170 -7.5864 -1.7832 0.9693
1.4924 -7.5896 -1.8179 0.9687
3.5837 -7.1921 -1.8885 0.9675
5.6228 -6.2781 -1.9808 0.9660
7.4851 -4.8220 -2.0926 0.9641
8.3626 -2.6252 -2.0600 0.9646
9.0476 -1.1409 -2.1432 0.9632
9.2918 -0.3353 -2.1852 0.9625
9.4613 0.5048 -2.2268 0.9618
9.5501 1.3719 -2.2675 0.9611
5.0583 4.0813 -1.5275 0.9736
2.8982 4.8968 -1.3373 0.9769
2.4246 5.0835 -1.3237 0.9771
1.9594 5.2748 -1.3225 0.9771
1.0168 5.6870 -1.3578 0.9765
0.2450 2.7915 -0.6586 0.9886
-0.5837 6.3835 -1.5065 0.9740
-1.2112 6.6352 -1.5852 0.9727
-1.6446 5.9440 -1.4495 0.9750
-4.1368 8.5931 -2.2414 0.9616
-4.7971 8.0385 -2.2001 0.9623
-5.3908 7.4340 -2.1582 0.9630
-5.9155 6.7886 -2.1162 0.9637
-2.6283 1.7442 -0.7414 0.9871
-7.8825 4.2708 -2.1070 0.9638
-8.2012 2.6977 -2.0291 0.9651
-8.2558 1.1554 -1.9592 0.9663
-8.0710 -0.3206 -1.8984 0.9674
-7.0847 -2.9719 -1.8056 0.9689
-6.7273 -3.5585 -1.7886 0.9692
-6.3311 -4.1111 -1.7741 0.9695
-5.8987 -4.6283 -1.7621 0.9697
-4.4085 -5.9534 -1.7410 0.9700
-3.8550 -6.3157 -1.7390 0.9701
-3.2767 -6.6361 -1.7394 0.9700
-2.6758 -6.9136 -1.7423 0.9700
-1.4146 -7.3346 -1.7556 0.9698
-0.7588 -7.4754 -1.7659 0.9696
0.5916 -7.6109 -1.7941 0.9691
1.2812 -7.6025 -1.8120 0.9688
1.9766 -7.5415 -1.8323 0.9685
2.6746 -7.4263 -1.8551 0.9681
3.3721 -7.2554 -1.8804 0.9677
4.7498 -6.7411 -1.9381 0.9667
5.4216 -6.3953 -1.9705 0.9661
6.0756 -5.9893 -2.0051 0.9656
