ply
format ascii 1.0
element vertex 1593
property float32 x
property float32 y
property float32 z
property float32 I
end_header
-8.2511 -2.2585 -1.8083 0.9656
-7.9179 -2.9503 -1.7861 0.9660
-7.5396 -3.6065 -1.7667 0.9664
-7.1190 -4.2255 -1.7499 0.9667
-6.6590 -4.8060 -1.7359 0.9670
-6.1623 -5.3467 -1.7246 0.9672
-5.6314 -5.8465 -1.7159 0.9674
-3.8561 -7.0892 -1.7059 0.9675
-3.2107 -7.4141 -1.7078 0.9675
-0.4177 -8.2321 -1.7423 0.9669
0.3225 -8.3090 -1.7577 0.9666
1.0747 -8.3316 -1.7757 0.9662
2.6042 -8.2066 -1.8200 0.9654
4.1455 -7.8425 -1.8751 0.9644
6.4103 -6.8159 -1.9778 0.9625
7.1331 -6.3394 -2.0172 0.9617
7.8299 -5.7941 -2.0590 0.9610
8.4620 -4.1722 -1.9943 0.9622
9.4796 -2.7166 -2.0844 0.9605
9.9019 -1.9002 -2.1312 0.9596
10.2554 -1.0300 -2.1787 0.9587
10.5316 -0.1117 -2.2263 0.9579
10.7223 0.8476 -2.2736 0.9570
10.2899 1.7492 -2.2063 0.9582
8.9314 2.3556 -1.9525 0.9629
6.9360 3.2388 -1.6181 0.9692
5.4561 3.8611 -1.4129 0.9730
4.8092 4.0949 -1.3352 0.9745
4.2307 4.3113 -1.2768 0.9756
3.8610 4.7120 -1.2877 0.9754
1.3481 5.5327 -1.2037 0.9770
-1.3005 6.1478 -1.3283 0.9746
-4.1242 10.1061 -2.3073 0.9564
-4.9096 9.5010 -2.2606 0.9572
-6.2485 8.1189 -2.1656 0.9590
-6.7973 7.3635 -2.1183 0.9599
-2.5032 1.8886 -0.6628 0.9873
-8.5788 5.3412 -2.1361 0.9595
-8.8297 4.4561 -2.0906 0.9604
-9.0017 3.5734 -2.0472 0.9612
-7.2098 -4.0999 -1.7532 0.9667
-6.2685 -5.2376 -1.7267 0.9672
-5.7445 -5.7460 -1.7175 0.9673
-5.1881 -6.2126 -1.7109 0.9675
-2.6830 -7.6382 -1.7113 0.9674
-1.9974 -7.8783 -1.7180 0.9673
-1.2923 -8.0692 -1.7274 0.9671
-0.5700 -8.2095 -1.7395 0.9669
1.6773 -8.3098 -1.7919 0.9659
3.2147 -8.0919 -1.8405 0.9650
3.9855 -7.8919 -1.8689 0.9645
5.5115 -7.3009 -1.9336 0.9633
6.2573 -6.9064 -1.9700 0.9626
7.6874 -5.9132 -2.0501 0.9611
9.8194 -2.0746 -2.1214 0.9598
10.4809 -0.3064 -2.2164 0.9580
8.0530 2.7472 -1.7986 0.9658
6.3160 3.5142 -1.5278 0.9709
5.6016 3.8096 -1.4319 0.9727
4.9374 4.0479 -1.3496 0.9742
3.9694 4.6643 -1.2946 0.9753
3.4579 4.8890 -1.2658 0.9758
2.8291 4.8721 -1.1909 0.9772
1.9080 5.2742 -1.1856 0.9773
1.4456 5.4869 -1.1994 0.9771
0.4953 2.9186 -0.6258 0.9880
-0.0677 6.2307 -1.3171 0.9748
-4.7524 9.6322 -2.2704 0.9570
-5.4777 8.9779 -2.2231 0.9579
-6.1241 8.2714 -2.1755 0.9588
-6.6899 7.5233 -2.1281 0.9597
-2.4740 1.9399 -0.6645 0.9872
-8.7841 4.6403 -2.0999 0.9602
-9.0845 2.8801 -2.0145 0.9618
-9.1244 2.0166 -1.9753 0.9625
-9.0960 1.1709 -1.9386 0.9632
-8.6392 -1.2215 -1.8443 0.9650
-6.8550 -4.5693 -1.7414 0.9669
-6.3733 -5.1267 -1.7289 0.9671
-5.3064 -6.1191 -1.7121 0.9674
-4.7259 -6.5518 -1.7076 0.9675
-4.1171 -6.9407 -1.7058 0.9675
-3.4821 -7.2846 -1.7067 0.9675
-2.8229 -7.5822 -1.7102 0.9675
-1.4405 -8.0336 -1.7252 0.9672
-0.7215 -8.1845 -1.7368 0.9670
0.7605 -8.3289 -1.7679 0.9664
1.5186 -8.3190 -1.7875 0.9660
2.2842 -8.2518 -1.8099 0.9656
3.8254 -7.9387 -1.8627 0.9646
4.5936 -7.6889 -1.8932 0.9640
5.3546 -7.3745 -1.9264 0.9634
6.1035 -6.9940 -1.9622 0.9628
7.5436 -6.0293 -2.0413 0.9613
9.2857 -3.0392 -2.0653 0.9608
10.1172 -1.3982 -2.1589 0.9591
10.7910 1.4235 -2.3008 0.9565
9.4569 2.1212 -2.0487 0.9612
8.2701 2.6504 -1.8357 0.9651
6.4721 3.4449 -1.5498 0.9705
5.7514 3.7568 -1.4521 0.9723
5.0687 4.0002 -1.3649 0.9739
4.4644 4.2230 -1.2990 0.9752
4.0790 4.6162 -1.3021 0.9751
2.9269 4.8311 -1.1940 0.9772
2.4623 5.0302 -1.1838 0.9774
2.0033 5.2313 -1.1841 0.9774
0.5601 2.9648 -0.6378 0.9877
0.0478 6.1716 -1.3046 0.9751
-1.0131 5.8578 -1.2566 0.9760
-3.7761 10.3371 -2.3263 0.9560
-4.5919 9.7607 -2.2801 0.9569
-5.9963 8.4221 -2.1854 0.9586
-7.6295 7.4440 -2.2532 0.9574
-8.0827 6.5844 -2.2037 0.9583
-8.4505 5.7084 -2.1556 0.9592
-8.7351 4.8244 -2.1093 0.9600
-8.9395 3.9399 -2.0650 0.9608
-9.1219 2.1949 -1.9832 0.9624
-9.1074 1.3451 -1.9460 0.9631
-8.8863 -0.2876 -1.8794 0.9643
-8.6875 -1.0638 -1.8501 0.9648
-8.1313 -2.5227 -1.7996 0.9658
-6.4764 -5.0141 -1.7313 0.9671
-5.9666 -5.5395 -1.7210 0.9673
-5.4233 -6.0237 -1.7133 0.9674
-3.6163 -7.2168 -1.7063 0.9675
-2.2851 -7.7843 -1.7149 0.9674
-1.5879 -7.9959 -1.7232 0.9672
-0.8724 -8.1574 -1.7341 0.9670
4.4342 -7.7461 -1.8867 0.9642
5.1971 -7.4453 -1.9193 0.9636
7.3985 -6.1425 -2.0326 0.9614
8.0839 -5.5711 -2.0753 0.9607
8.6688 -3.9173 -2.0108 0.9619
9.6459 -2.4162 -2.1019 0.9602
10.3688 -0.6900 -2.1966 0.9584
10.6138 0.2446 -2.2441 0.9575
10.7703 1.2172 -2.2911 0.9567
8.4964 2.5496 -1.8751 0.9644
7.4869 2.9992 -1.7048 0.9676
6.6328 3.3735 -1.5730 0.9700
5.8997 3.6989 -1.4719 0.9719
3.6679 4.7968 -1.2764 0.9756
3.0253 4.7901 -1.1976 0.9771
2.5580 4.9884 -1.1850 0.9773
2.0986 5.1889 -1.1831 0.9774
1.6390 5.3971 -1.1923 0.9772
-0.4049 6.4052 -1.3566 0.9741
-1.0344 6.7246 -1.4382 0.9726
-1.7350 7.0251 -1.5296 0.9708
-3.5975 10.4477 -2.3357 0.9558
-4.4282 9.8864 -2.2898 0.9567
-5.1854 9.2571 -2.2428 0.9575
-5.8650 8.5709 -2.1953 0.9584
-6.4644 7.8389 -2.1477 0.9593
-8.3809 5.8916 -2.1655 0.9590
-8.9034 4.1236 -2.0741 0.9607
-9.1159 1.5203 -1.9535 0.9629
-9.0493 0.6868 -1.9183 0.9636
-8.9206 -0.1225 -1.8858 0.9642
-8.4915 -1.6571 -1.8288 0.9652
-7.8574 -3.0631 -1.7827 0.9661
-7.4718 -3.7131 -1.7637 0.9665
-7.0444 -4.3258 -1.7474 0.9668
-6.5781 -4.8997 -1.7338 0.9670
-5.5389 -5.9265 -1.7147 0.9674
-4.3737 -6.7843 -1.7062 0.9675
-8.2399 2.2785 -2.0092 0.9655
-8.2650 1.5064 -1.9745 0.9661
-7.9839 -0.7060 -1.8837 0.9676
-7.7821 -1.3975 -1.8582 0.9680
-7.2352 -2.6959 -1.8146 0.9688
-6.5165 -3.8679 -1.7810 0.9693
-6.0996 -4.4022 -1.7679 0.9696
-5.1633 -5.3606 -1.7492 0.9699
-3.5372 -6.5031 -1.7399 0.9700
-2.3312 -7.0539 -1.7460 0.9699
3.0752 -7.3395 -1.8702 0.9678
4.4618 -6.8736 -1.9260 0.9669
5.1407 -6.5524 -1.9573 0.9664
5.8039 -6.1710 -1.9910 0.9658
7.5992 -3.7468 -1.9913 0.9658
2.3511 -0.9081 -0.5923 0.9897
8.8304 -1.6946 -2.1132 0.9637
9.1237 -0.9164 -2.1551 0.9630
9.3469 -0.0992 -2.1969 0.9623
9.4935 0.7505 -2.2382 0.9616
9.5574 1.6247 -2.2784 0.9609
6.9252 3.2337 -1.7963 0.9691
4.8696 4.1463 -1.5031 0.9741
3.8563 4.7062 -1.4300 0.9753
3.2595 4.7955 -1.3628 0.9765
-1.2371 5.8477 -1.4048 0.9757
-4.9900 7.8463 -2.1854 0.9625
-5.5627 7.2277 -2.1435 0.9632
-6.4985 5.8846 -2.0604 0.9646
-2.5017 1.8875 -0.7365 0.9872
-7.7088 4.7995 -2.1342 0.9634
-7.9514 4.0129 -2.0933 0.9641
-8.1231 3.2246 -2.0540 0.9647
-8.2649 1.6659 -1.9815 0.9659
-8.2410 0.9053 -1.9485 0.9665
-8.1581 0.1625 -1.9177 0.9670
-8.0194 -0.5589 -1.8893 0.9675
-7.8282 -1.2559 -1.8633 0.9679
-7.3004 -2.5665 -1.8187 0.9687
-6.5986 -3.7523 -1.7840 0.9693
-5.7445 -4.7997 -1.7593 0.9697
-5.2666 -5.2680 -1.7507 0.9699
-4.7580 -5.6976 -1.7446 0.9700
-4.2209 -6.0873 -1.7409 0.9700
-3.6575 -6.4359 -1.7398 0.9700
-1.8312 -7.2227 -1.7512 0.9698
-1.1843 -7.3944 -1.7600 0.9697
0.1532 -7.5936 -1.7850 0.9693
0.8389 -7.6183 -1.8013 0.9690
1.5322 -7.5911 -1.8201 0.9687
2.2303 -7.5104 -1.8413 0.9683
2.9298 -7.3748 -1.8650 0.9679
3.6274 -7.1827 -1.8912 0.9675
4.3191 -6.9329 -1.9197 0.9670
6.3145 -5.8259 -2.0192 0.9653
7.5265 -4.7838 -2.0960 0.9640
8.3925 -2.5750 -2.0632 0.9646
8.7613 -1.8510 -2.1046 0.9639
9.3066 -0.2720 -2.1882 0.9625
9.4696 0.5715 -2.2296 0.9618
9.1700 2.2369 -2.2184 0.9620
7.1001 3.1558 -1.8261 0.9686
5.6128 3.8172 -1.5953 0.9725
4.9916 4.0924 -1.5170 0.9738
3.9645 4.6586 -1.4377 0.9752
2.8763 4.9534 -1.3462 0.9767
2.4053 5.1546 -1.3369 0.9769
1.3971 3.8622 -0.9653 0.9833
0.4905 2.8903 -0.6890 0.9880
-0.0685 6.3010 -1.4810 0.9744
-2.7156 9.4668 -2.3146 0.9603
-4.2084 8.5297 -2.2354 0.9617
-5.4492 7.3598 -2.1522 0.9631
-6.4143 6.0294 -2.0690 0.9645
-7.6492 4.9624 -2.1429 0.9632
-7.9068 4.1768 -2.1016 0.9639
-8.1800 0.3153 -1.9239 0.9669
-7.0421 -3.0519 -1.8038 0.9690
-6.6791 -3.6352 -1.7872 0.9692
-6.2774 -4.1843 -1.7731 0.9695
-5.3686 -5.1738 -1.7523 0.9698
-3.7767 -6.3669 -1.7398 0.9700
-2.5890 -6.9539 -1.7439 0.9700
-0.6609 -7.4967 -1.7687 0.9696
0.0119 -7.5821 -1.7820 0.9693
0.6956 -7.6174 -1.7977 0.9691
1.3875 -7.6011 -1.8160 0.9687
3.4826 -7.2274 -1.8855 0.9676
4.1759 -6.9897 -1.9136 0.9671
6.8092 -5.4424 -2.0487 0.9648
7.4066 -4.9035 -2.0876 0.9642
7.9546 -4.2972 -2.1249 0.9635
2.3321 -1.0020 -0.5965 0.9896
8.6894 -2.0055 -2.0959 0.9640
9.0098 -1.2451 -2.1376 0.9633
9.4422 0.3936 -2.2211 0.9619
8.2554 2.6457 -2.0374 0.9650
7.2872 3.0778 -1.8591 0.9680
6.4624 3.4397 -1.7205 0.9704
5.7503 3.7561 -1.6142 0.9722
5.1158 4.0374 -1.5317 0.9736
4.5382 4.2928 -1.4682 0.9747
4.0739 4.6104 -1.4460 0.9750
2.9758 4.9119 -1.3497 0.9767
2.5025 5.1124 -1.3378 0.9769
1.5684 5.5329 -1.3516 0.9766
0.5532 2.9279 -0.7003 0.9878
0.0484 6.2507 -1.4691 0.9746
-1.0125 5.8544 -1.3963 0.9759
-4.0643 8.6393 -2.2439 0.9615
-4.7317 8.0902 -2.2027 0.9622
-5.3328 7.4902 -2.1610 0.9629
-5.8650 6.8483 -2.1191 0.9636
-6.3271 6.1732 -2.0775 0.9643
-7.8592 4.3407 -2.1101 0.9638
-8.0601 3.5523 -2.0701 0.9645
-8.2583 1.2197 -1.9619 0.9663
-8.0837 -0.2616 -1.9008 0.9673
-7.9139 -0.9691 -1.8738 0.9678
-7.1125 -2.9264 -1.8076 0.9689
-6.3640 -4.0730 -1.7758 0.9694
-5.9337 -4.5938 -1.7636 0.9696
-5.4692 -5.0778 -1.7540 0.9698
-3.8949 -6.2960 -1.7400 0.9700
-2.7166 -6.9010 -1.7430 0.9700
-0.7992 -7.4727 -1.7663 0.9696
-0.1290 -7.5684 -1.7790 0.9694
1.2431 -7.6088 -1.8120 0.9688
2.6388 -7.4379 -1.8548 0.9681
3.3377 -7.2695 -1.8800 0.9677
4.0323 -7.0439 -1.9075 0.9672
4.7186 -6.7598 -1.9375 0.9667
5.3922 -6.4161 -1.9697 0.9661
6.0481 -6.0119 -2.0042 0.9656
7.7783 -3.5149 -2.0061 0.9655
8.9485 -1.4069 -2.1289 0.9635
9.2162 -0.6133 -2.1708 0.9628
9.5276 1.0768 -2.2534 0.9614
9.5590 1.9579 -2.2932 0.9607
6.6227 3.3684 -1.7462 0.9699
4.6545 4.2414 -1.4800 0.9745
3.6635 4.7910 -1.4175 0.9755
3.0761 4.8704 -1.3538 0.9766
2.6000 5.0704 -1.3392 0.9769
1.6664 5.4872 -1.3478 0.9767
-0.4076 6.4468 -1.5182 0.9738
-5.2134 7.6187 -2.1697 0.9628
-6.2368 6.3160 -2.0861 0.9642
-7.1550 6.0536 -2.2027 0.9622
-7.5205 5.2867 -2.1605 0.9629
-7.8085 4.5043 -2.1186 0.9636
-8.1699 2.9290 -2.0398 0.9650
-8.2485 2.1479 -2.0032 0.9656
-8.2630 1.3780 -1.9688 0.9662
-8.2165 0.6236 -1.9366 0.9667
-7.9535 -0.8240 -1.8793 0.9677
-6.8349 -3.3966 -1.7938 0.9691
-5.5685 -4.9803 -1.7558 0.9698
-4.5592 -5.8489 -1.7429 0.9700
-4.0120 -6.2233 -1.7402 0.9700
-3.4393 -6.5561 -1.7400 0.9700
-2.2261 -7.0921 -1.7470 0.9699
-7.5491 1.3760 -1.9868 0.9688
-7.4498 0.0097 -1.9289 0.9697
-7.3215 -0.6474 -1.9031 0.9701
-5.6223 -4.0577 -1.7952 0.9718
-4.7631 -4.9452 -1.7777 0.9720
-3.7891 -5.6878 -1.7695 0.9722
-3.2645 -6.0017 -1.7689 0.9722
-2.1508 -6.5082 -1.7747 0.9721
-1.5662 -6.6984 -1.7811 0.9720
0.9042 -7.0094 -1.8299 0.9712
1.5420 -6.9683 -1.8479 0.9709
2.1823 -6.8771 -1.8681 0.9706
2.8217 -6.7346 -1.8906 0.9703
5.8743 -5.2207 -2.0348 0.9680
6.4247 -4.7542 -2.0694 0.9675
6.9431 -4.2337 -2.1055 0.9670
6.8893 -3.3968 -1.9888 0.9688
2.3525 -0.9086 -0.6530 0.9896
7.6534 -2.1932 -2.0614 0.9676
8.2083 -0.8244 -2.1360 0.9665
8.3928 -0.0890 -2.1732 0.9659
8.5081 0.6726 -2.2098 0.9654
8.5126 2.2452 -2.2794 0.9643
7.8175 2.8303 -2.1527 0.9662
6.9142 3.2286 -1.9758 0.9690
5.4707 3.8714 -1.7352 0.9727
4.8632 4.1408 -1.6538 0.9740
3.2870 4.8359 -1.5140 0.9761
1.3208 3.8752 -1.0600 0.9832
-2.5741 8.3818 -2.2702 0.9644
-3.2625 7.9946 -2.2357 0.9650
-3.9003 7.5478 -2.1998 0.9655
-5.0072 6.5061 -2.1257 0.9666
-5.8723 5.3176 -2.0512 0.9678
-2.5013 1.8872 -0.8113 0.9871
-7.3938 2.9351 -2.0597 0.9677
-7.5002 2.2251 -2.0256 0.9682
-7.5468 1.5212 -1.9933 0.9687
-7.5358 0.8278 -1.9629 0.9692
-7.3523 -0.5124 -1.9083 0.9700
-7.1852 -1.1527 -1.8842 0.9704
-6.0779 -3.4562 -1.8103 0.9715
-5.7043 -3.9576 -1.7976 0.9717
-4.3902 -5.2571 -1.7734 0.9721
-3.8952 -5.6176 -1.7700 0.9721
-3.3755 -5.9396 -1.7689 0.9722
-2.2703 -6.4633 -1.7737 0.9721
-1.6891 -6.6624 -1.7796 0.9720
-1.0920 -6.8181 -1.7878 0.9719
-0.4811 -6.9291 -1.7984 0.9717
2.6890 -6.7685 -1.8857 0.9704
3.3253 -6.5847 -1.9100 0.9700
3.9545 -6.3477 -1.9364 0.9696
5.1745 -5.7112 -1.9954 0.9687
5.7563 -5.3109 -2.0278 0.9682
7.3020 -3.7709 -2.1278 0.9666
7.9008 -1.6692 -2.0908 0.9672
8.1617 -0.9735 -2.1282 0.9666
8.4900 0.5123 -2.2022 0.9655
8.5471 1.2897 -2.2380 0.9649
6.2971 3.5037 -1.8658 0.9707
4.9849 4.0869 -1.6690 0.9737
3.9596 4.6528 -1.5819 0.9751
-4.3665 7.1567 -2.1707 0.9660
-2.4759 1.9414 -0.8146 0.9871
-7.1819 3.7939 -2.1031 0.9670
-7.5419 1.6669 -1.9999 0.9686
-7.5427 0.9710 -1.9691 0.9691
-7.2239 -1.0214 -1.8890 0.9703
-7.0197 -1.6433 -1.8667 0.9707
-6.7711 -2.2397 -1.8466 0.9710
-5.7849 -3.8559 -1.8000 0.9717
-4.9519 -4.7722 -1.7806 0.9720
-4.4898 -5.1775 -1.7744 0.9721
-4.0003 -5.5458 -1.7705 0.9721
-3.4855 -5.8759 -1.7689 0.9722
-2.9477 -6.1666 -1.7697 0.9722
-2.3889 -6.4165 -1.7728 0.9721
-1.8114 -6.6245 -1.7782 0.9720
-0.6091 -6.9097 -1.7960 0.9717
0.6403 -7.0120 -1.8231 0.9713
1.9158 -6.9212 -1.8594 0.9708
2.5560 -6.8002 -1.8810 0.9704
3.1935 -6.6273 -1.9047 0.9701
3.8244 -6.4014 -1.9307 0.9697
4.4449 -6.1217 -1.9588 0.9692
5.0508 -5.7876 -1.9889 0.9688
5.6372 -5.3987 -2.0209 0.9683
7.2127 -3.8965 -2.1226 0.9667
2.3274 -1.0000 -0.6559 0.9896
7.5102 -2.4581 -2.0460 0.9679
7.8392 -1.8092 -2.0831 0.9673
8.1124 -1.1211 -2.1204 0.9667
8.3241 -0.3985 -2.1577 0.9662
8.5414 1.1267 -2.2307 0.9650
8.2406 2.6410 -2.2405 0.9649
6.4525 3.4345 -1.8926 0.9702
5.7421 3.7508 -1.7758 0.9721
4.5323 4.2872 -1.6153 0.9746
4.0688 4.6046 -1.5910 0.9749
1.4638 3.8225 -1.0598 0.9832
0.5545 2.9351 -0.7734 0.9877
0.0483 6.2426 -1.6164 0.9745
-4.7964 6.7368 -2.1412 0.9664
-5.7129 5.5740 -2.0666 0.9676
-6.0780 4.9513 -2.0298 0.9681
-6.8759 4.6448 -2.1484 0.9663
-7.1361 3.9413 -2.1107 0.9669
-7.3313 3.2311 -2.0744 0.9674
-7.4634 2.5200 -2.0396 0.9680
-7.5472 1.1147 -1.9753 0.9690
-7.5039 0.4292 -1.9461 0.9694
-7.4075 -0.2397 -1.9189 0.9698
-7.2605 -0.8891 -1.8939 0.9702
-7.0659 -1.5159 -1.8711 0.9706
-6.2228 -3.2382 -1.8163 0.9714
-5.0443 -4.6833 -1.7822 0.9720
-3.5946 -5.8104 -1.7690 0.9722
-1.3422 -6.7587 -1.7841 0.9719
1.1436 -6.9997 -1.8364 0.9711
1.7827 -6.9399 -1.8552 0.9708
2.4230 -6.8296 -1.8763 0.9705
3.0613 -6.6676 -1.8996 0.9701
3.6939 -6.4528 -1.9251 0.9697
4.9262 -5.8616 -1.9825 0.9689
5.5171 -5.4841 -2.0141 0.9684
6.0847 -5.0517 -2.0476 0.9679
7.1213 -4.0201 -2.1173 0.9668
7.0468 -3.1844 -2.0022 0.9686
7.7751 -1.9476 -2.0753 0.9674
8.2854 -0.5514 -2.1500 0.9663
8.4445 0.1946 -2.1870 0.9657
8.5325 0.9643 -2.2233 0.9651
8.5449 1.7502 -2.2584 0.9646
6.6124 3.3632 -1.9208 0.9698
5.8827 3.6882 -1.7977 0.9717
5.2354 3.9758 -1.7021 0.9732
4.6484 4.2359 -1.6283 0.9743
4.1793 4.5559 -1.6007 0.9748
3.6590 4.7851 -1.5596 0.9754
2.1559 5.3305 -1.4888 0.9765
1.6815 5.5369 -1.4983 0.9764
0.3270 2.8099 -0.7325 0.9884
-0.4070 6.4382 -1.6703 0.9737
-2.8386 8.2436 -2.2574 0.9646
-3.5085 7.8332 -2.2223 0.9652
-4.1261 7.3659 -2.1860 0.9657
-4.6871 6.8496 -2.1490 0.9663
-5.1887 6.2920 -2.1116 0.9669
-6.8135 4.7897 -2.1564 0.9662
-7.0874 4.0884 -2.1185 0.9668
-7.2959 3.3791 -2.0818 0.9673
-7.4410 2.6677 -2.0467 0.9679
-7.5246 1.9594 -2.0132 0.9684
-7.5492 1.2590 -1.9816 0.9689
-7.5174 0.5706 -1.9520 0.9693
-7.2951 -0.7558 -1.8989 0.9702
-6.2928 -3.1272 -1.8194 0.9714
-5.5549 -4.1376 -1.7934 0.9718
-4.6855 -5.0133 -1.7767 0.9720
-4.2071 -5.3971 -1.7718 0.9721
-2.0538 -6.5432 -1.7756 0.9721
-6.9409 1.2651 -1.9973 0.9711
-6.8657 0.0089 -1.9436 0.9719
-6.3973 -1.7511 -1.8776 0.9728
-5.8760 -2.8107 -1.8440 0.9733
-5.5599 -3.3000 -1.8303 0.9735
-5.2098 -3.7600 -1.8188 0.9736
-4.4168 -4.5856 -1.8024 0.9739
-3.9784 -4.9484 -1.7975 0.9739
-3.5148 -5.2761 -1.7947 0.9740
-1.9947 -6.0358 -1.7996 0.9739
-1.4521 -6.2105 -1.8056 0.9738
1.4258 -6.4432 -1.8681 0.9729
2.0162 -6.3536 -1.8870 0.9727
4.3232 -5.5104 -1.9827 0.9713
4.8675 -5.1755 -2.0113 0.9709
5.3905 -4.7908 -2.0416 0.9705
5.8873 -4.3566 -2.0734 0.9700
6.2943 -3.1035 -1.9867 0.9712
2.3539 -0.9092 -0.7144 0.9896
6.9706 -1.9975 -2.0527 0.9703
7.6995 0.6086 -2.1865 0.9684
7.7250 1.3132 -2.2183 0.9679
7.6806 2.0257 -2.2487 0.9675
5.4630 3.8659 -1.8946 0.9726
4.8566 4.1353 -1.8058 0.9738
4.2999 4.3818 -1.7379 0.9748
3.2829 4.8300 -1.6533 0.9760
2.8028 5.0405 -1.6327 0.9763
2.3304 5.2469 -1.6253 0.9764
1.3145 3.8568 -1.1535 0.9832
-0.1869 6.3353 -1.7943 0.9740
-2.3234 7.5655 -2.2405 0.9676
-3.5312 6.8334 -2.1775 0.9685
-4.0651 6.3920 -2.1445 0.9690
-4.9768 5.3914 -2.0771 0.9700
-2.5010 1.8870 -0.8869 0.9871
-6.3910 3.9791 -2.1313 0.9692
-6.6138 3.3379 -2.0973 0.9697
-6.7780 2.6907 -2.0645 0.9701
-6.9369 1.3983 -2.0033 0.9710
-6.7816 -0.4726 -1.9245 0.9721
-6.6339 -1.0643 -1.9020 0.9725
-5.9373 -2.7054 -1.8471 0.9732
-5.6285 -3.2006 -1.8330 0.9734
-4.9099 -4.1024 -1.8113 0.9738
-3.6132 -5.2109 -1.7951 0.9740
-2.6280 -5.7714 -1.7952 0.9740
-1.0121 -6.3198 -1.8119 0.9737
0.1307 -6.4767 -1.8339 0.9734
0.7145 -6.4890 -1.8481 0.9732
1.3031 -6.4559 -1.8645 0.9730
2.4825 -6.2488 -1.9035 0.9724
3.0670 -6.0731 -1.9261 0.9721
3.6433 -5.8483 -1.9506 0.9718
5.2837 -4.8749 -2.0352 0.9706
5.7864 -4.4509 -2.0666 0.9701
6.2590 -3.9782 -2.0995 0.9696
2.3188 -0.9455 -0.7089 0.9896
6.9086 -2.1197 -2.0458 0.9704
7.1867 -1.5183 -2.0794 0.9699
7.6856 0.4638 -2.1797 0.9685
7.7254 1.1657 -2.2118 0.9680
7.6957 1.8772 -2.2425 0.9676
7.5940 2.5906 -2.2715 0.9672
5.5969 3.8064 -1.9161 0.9723
2.9017 4.9972 -1.6359 0.9763
2.4284 5.2041 -1.6258 0.9764
1.3751 3.8013 -1.1444 0.9833
0.2343 2.9744 -0.8446 0.9877
-2.8225 7.3019 -2.2162 0.9680
-5.2775 4.9609 -2.0505 0.9703
-2.4769 1.9422 -0.8911 0.9870
-6.3317 4.1077 -2.1366 0.9691
-6.7486 2.8255 -2.0712 0.9700
-6.8675 2.1772 -2.0395 0.9705
-6.9400 0.8934 -1.9809 0.9713
-6.6683 -0.9428 -1.9065 0.9724
-6.4857 -1.5183 -1.8857 0.9727
-6.2612 -2.0710 -1.8669 0.9730
-5.9970 -2.5989 -1.8503 0.9732
-5.6956 -3.1000 -1.8357 0.9734
-5.3594 -3.5723 -1.8234 0.9736
-4.9905 -4.0144 -1.8131 0.9737
-4.5913 -4.4247 -1.8051 0.9738
-2.2157 -5.9512 -1.7977 0.9739
-1.6797 -6.1428 -1.8028 0.9739
-1.1285 -6.2936 -1.8101 0.9738
-0.5644 -6.4026 -1.8196 0.9736
0.0101 -6.4685 -1.8312 0.9735
2.9460 -6.1137 -1.9212 0.9722
3.5243 -5.8991 -1.9453 0.9718
5.6842 -4.5432 -2.0600 0.9702
6.1635 -4.0805 -2.0926 0.9697
6.5908 -3.5605 -2.1207 0.9693
2.3227 -0.9980 -0.7157 0.9895
7.1330 -1.6463 -2.0724 0.9700
7.3697 -1.0185 -2.1061 0.9695
7.5499 -0.3614 -2.1398 0.9691
7.6690 0.3197 -2.1729 0.9686
7.7227 1.0187 -2.2052 0.9681
7.7077 1.7288 -2.2362 0.9677
7.6212 2.4425 -2.2656 0.9673
7.2632 3.0677 -2.2320 0.9678
6.4426 3.4292 -2.0661 0.9701
4.5264 4.2816 -1.7638 0.9744
4.0636 4.5988 -1.7373 0.9748
3.5494 4.8254 -1.6958 0.9754
2.5265 5.1613 -1.6268 0.9764
1.5799 5.5734 -1.6400 0.9762
0.0483 6.2344 -1.7650 0.9744
-0.5312 6.4829 -1.8414 0.9733
-1.0112 5.8474 -1.6799 0.9756
-1.8837 7.0601 -2.0686 0.9701
-2.6939 7.3747 -2.2226 0.9679
-3.8491 6.5810 -2.1583 0.9688
-5.5433 4.5157 -2.0241 0.9707
-6.2697 4.2353 -2.1419 0.9690
-6.5283 3.6056 -2.1113 0.9695
-6.8474 2.3120 -2.0460 0.9704
-6.9220 1.6655 -2.0155 0.9708
-6.5272 -1.4004 -1.8899 0.9726
-6.0551 -2.4913 -1.8536 0.9731
-4.6767 -4.3420 -1.8066 0.9738
-3.8069 -5.0758 -1.7962 0.9740
-3.3344 -5.3899 -1.7942 0.9740
-1.7925 -6.1062 -1.8016 0.9739
-0.1101 -6.4584 -1.8286 0.9735
0.4710 -6.4894 -1.8419 0.9733
1.0579 -6.4753 -1.8574 0.9731
1.6478 -6.4150 -1.8750 0.9728
3.9746 -5.6940 -1.9658 0.9715
5.0670 -5.0367 -2.0225 0.9707
5.5807 -4.6333 -2.0534 0.9703
6.0664 -4.1807 -2.0857 0.9698
7.6494 0.1763 -2.1661 0.9687
7.7167 1.5806 -2.2299 0.9678
7.4494 2.9842 -2.2718 0.9672
6.6022 3.3579 -2.0969 0.9697
5.8741 3.6829 -1.9627 0.9716
5.2281 3.9703 -1.8585 0.9731
4.6423 4.2303 -1.7780 0.9742
4.1739 4.5501 -1.7480 0.9747
3.6544 4.7791 -1.7031 0.9753
3.1010 4.9098 -1.6439 0.9761
2.6031 5.0763 -1.6150 0.9766
1.1955 5.7399 -1.6598 0.9759
0.1630 6.1851 -1.7516 0.9746
-0.4065 6.4295 -1.8238 0.9736
-1.0301 6.6962 -1.9179 0.9722
-1.4843 6.0099 -1.7525 0.9746
-2.5636 7.4449 -2.2291 0.9678
-4.2528 6.2149 -2.1319 0.9692
-4.7155 5.7181 -2.0982 0.9697
-5.4769 4.6339 -2.0310 0.9706
-5.7739 4.0589 -1.9980 0.9711
-6.4817 3.7390 -2.1183 0.9694
-6.6824 3.0949 -2.0848 0.9698
-6.9110 1.7996 -2.0217 0.9707
-6.9425 1.1578 -1.9925 0.9712
-6.9215 0.5253 -1.9651 0.9716
-6.8503 -0.0941 -1.9395 0.9719
-6.7313 -0.6974 -1.9158 0.9723
-6.1115 -2.3825 -1.8570 0.9731
-5.5033 -3.3794 -1.8283 0.9735
-5.1478 -3.8343 -1.8171 0.9737
-4.7609 -4.2580 -1.8082 0.9738
-4.3450 -4.6490 -1.8014 0.9739
-3.4346 -5.3276 -1.7944 0.9740
-2.4337 -5.8598 -1.7962 0.9740
-6.4126 0.5838 -1.9805 0.9734
-5.7212 -2.1318 -1.8779 0.9748
-4.1139 -4.2711 -1.8240 0.9755
-3.2747 -4.9156 -1.8167 0.9756
-1.3524 -5.7839 -1.8270 0.9754
-0.8335 -5.9064 -1.8347 0.9753
0.7778 -6.0298 -1.8700 0.9749
1.3247 -5.9863 -1.8858 0.9747
1.8719 -5.8988 -1.9035 0.9744
2.4162 -5.7668 -1.9231 0.9742
2.9546 -5.5894 -1.9446 0.9739
3.4835 -5.3664 -1.9679 0.9736
4.9755 -4.4219 -2.0474 0.9725
2.3577 -0.9106 -0.7774 0.9895
6.3928 -1.8320 -2.0454 0.9726
6.6291 -1.2721 -2.0762 0.9721
6.9483 -0.0737 -2.1373 0.9713
7.0234 0.5552 -2.1670 0.9709
7.0377 1.1963 -2.1957 0.9706
6.9887 1.8432 -2.2231 0.9702
6.8745 2.4889 -2.2488 0.9699
6.6940 3.1258 -2.2724 0.9696
6.1276 3.5603 -2.1798 0.9708
5.4552 3.8604 -2.0555 0.9724
4.2942 4.3761 -1.8858 0.9747
3.8418 4.6885 -1.8644 0.9750
2.3276 5.2405 -1.7637 0.9763
1.3078 3.8371 -1.2469 0.9832
-0.7870 6.5835 -2.0394 0.9726
-1.2322 5.8248 -1.8312 0.9754
-2.1148 6.8863 -2.2157 0.9703
-3.2223 6.2356 -2.1589 0.9711
-4.1611 5.4067 -2.0985 0.9719
-4.5598 4.9397 -2.0677 0.9723
-4.9091 4.4453 -2.0370 0.9727
-2.5007 1.8867 -0.9635 0.9870
-6.0918 3.0744 -2.0988 0.9718
-6.3571 1.8859 -2.0395 0.9726
-6.4175 0.7050 -1.9858 0.9733
-6.1556 -0.9875 -1.9175 0.9742
-5.7701 -2.0285 -1.8812 0.9747
-4.9193 -3.4129 -1.8416 0.9753
-4.5716 -3.8198 -1.8324 0.9754
-3.7930 -4.5421 -1.8201 0.9755
-3.3663 -4.8548 -1.8171 0.9756
-2.9174 -5.1335 -1.8161 0.9756
-2.4484 -5.3770 -1.8172 0.9756
-1.9614 -5.5840 -1.8204 0.9755
-1.4587 -5.7535 -1.8256 0.9755
-0.9424 -5.8842 -1.8329 0.9754
0.1216 -6.0252 -1.8536 0.9751
0.6644 -6.0335 -1.8670 0.9749
1.7582 -5.9207 -1.8997 0.9745
2.3034 -5.7979 -1.9189 0.9742
3.3744 -5.4166 -1.9629 0.9736
4.3958 -4.8518 -2.0137 0.9730
4.8781 -4.5007 -2.0415 0.9726
5.3359 -4.1044 -2.0706 0.9722
5.7646 -3.6640 -2.1009 0.9718
5.7162 -2.9519 -1.9788 0.9734
6.7812 -0.8088 -2.1005 0.9718
6.9253 -0.2024 -2.1310 0.9714
6.7370 2.9944 -2.2676 0.9696
6.2780 3.4931 -2.2098 0.9704
4.4065 4.3264 -1.8994 0.9745
3.4409 4.8651 -1.8328 0.9754
1.4780 5.6098 -1.7843 0.9760
-0.0682 6.2760 -1.9305 0.9741
-0.6574 6.5281 -2.0181 0.9729
-1.1164 5.8092 -1.8195 0.9755
-1.9913 6.9419 -2.2213 0.9702
-2.5716 6.6528 -2.1938 0.9706
-3.1144 6.3124 -2.1650 0.9710
-3.6157 5.9261 -2.1352 0.9714
-4.0721 5.4998 -2.1048 0.9718
-4.4810 5.0392 -2.0741 0.9722
-5.4085 3.5087 -1.9829 0.9734
-6.0521 3.1970 -2.1053 0.9718
-6.3393 2.0098 -2.0455 0.9726
-6.4204 0.8265 -1.9911 0.9733
-6.3879 0.2462 -1.9662 0.9736
-6.3092 -0.3218 -1.9431 0.9739
-6.1865 -0.8747 -1.9217 0.9742
-5.5755 -2.4163 -1.8690 0.9749
-5.2983 -2.8837 -1.8554 0.9751
-4.9878 -3.3247 -1.8437 0.9752
-4.6464 -3.7376 -1.8341 0.9754
-3.4569 -4.7925 -1.8175 0.9756
-3.0125 -5.0784 -1.8162 0.9756
-2.5475 -5.3293 -1.8168 0.9756
-2.0641 -5.5440 -1.8196 0.9755
0.0094 -6.0182 -1.8511 0.9751
1.0970 -6.0097 -1.8790 0.9748
2.1903 -5.8272 -1.9147 0.9743
2.7316 -5.6687 -1.9354 0.9740
3.2648 -5.4648 -1.9580 0.9737
5.2429 -4.1905 -2.0644 0.9723
2.3180 -0.9959 -0.7760 0.9895
6.2809 -2.0558 -2.0327 0.9727
6.5366 -1.5086 -2.0634 0.9723
6.7444 -0.9321 -2.0941 0.9719
6.8999 -0.3303 -2.1247 0.9715
7.0393 0.9286 -2.1839 0.9707
6.9300 2.2209 -2.2383 0.9700
6.7772 2.8624 -2.2628 0.9697
6.4327 3.4239 -2.2414 0.9700
5.7255 3.7399 -2.1034 0.9718
5.0949 4.0208 -1.9963 0.9732
3.5449 4.8193 -1.8401 0.9753
1.5780 5.5665 -1.7796 0.9761
1.0915 5.7771 -1.8083 0.9757
0.2843 2.9143 -0.9006 0.9878
-1.0110 5.8457 -1.8247 0.9755
-1.8664 6.9951 -2.2268 0.9702
-2.4538 6.7174 -2.1996 0.9705
-3.0048 6.3872 -2.1711 0.9709
-3.5151 6.0100 -2.1415 0.9713
-4.7699 4.6539 -2.0498 0.9725
-5.3589 3.6200 -1.9891 0.9733
-6.0099 3.3193 -2.1117 0.9717
-6.1912 2.7286 -2.0810 0.9721
-6.3293 -0.2048 -1.9478 0.9738
-6.0594 -1.3000 -1.9062 0.9744
-5.6288 -2.3159 -1.8721 0.9748
-5.3587 -2.7886 -1.8580 0.9750
-4.3553 -4.0436 -1.8279 0.9754
-3.9635 -4.4023 -1.8220 0.9755
-3.5466 -4.7288 -1.8181 0.9756
-2.6458 -5.2801 -1.8165 0.9756
-1.1587 -5.8346 -1.8296 0.9754
-0.6355 -5.9422 -1.8381 0.9753
-0.1025 -6.0094 -1.8486 0.9752
0.4380 -6.0352 -1.8612 0.9750
1.5306 -5.9586 -1.8922 0.9746
3.6791 -5.2707 -1.9770 0.9735
5.1487 -4.2747 -2.0583 0.9724
6.2220 -2.1655 -2.0264 0.9728
6.4873 -1.6250 -2.0570 0.9724
6.7053 -1.0542 -2.0878 0.9720
6.8721 -0.4573 -2.1184 0.9716
6.9835 0.1610 -2.1485 0.9712
7.0361 0.7952 -2.1779 0.9708
7.0269 1.4393 -2.2062 0.9704
6.9535 2.0866 -2.2330 0.9701
6.5918 3.3527 -2.2747 0.9695
4.1686 4.5442 -1.8967 0.9745
3.6498 4.7731 -1.8481 0.9752
2.5999 5.0701 -1.7525 0.9764
1.6774 5.5234 -1.7755 0.9761
1.1940 5.7328 -1.8011 0.9758
0.1628 6.1769 -1.9006 0.9745
-1.0286 6.6865 -2.0808 0.9721
-1.4780 5.9846 -1.8960 0.9745
-2.3345 6.7796 -2.2054 0.9704
-2.8935 6.4599 -2.1771 0.9708
-3.4125 6.0920 -2.1477 0.9712
-5.0274 4.2536 -2.0255 0.9728
-5.3071 3.7307 -1.9953 0.9732
-5.9611 3.4387 -2.1167 0.9716
-6.2969 2.2575 -2.0575 0.9724
-6.3837 1.6623 -2.0290 0.9728
-6.4071 0.4863 -1.9764 0.9735
-6.3474 -0.0872 -1.9525 0.9738
-6.0953 -1.1895 -1.9101 0.9743
-5.6806 -2.2145 -1.8753 0.9748
-5.4177 -2.6924 -1.8608 0.9750
-4.7920 -3.5693 -1.8379 0.9753
-4.0471 -4.3303 -1.8231 0.9755
-3.6353 -4.6636 -1.8187 0.9756
-3.2000 -4.9637 -1.8165 0.9756
-2.7433 -5.2293 -1.8163 0.9756
-1.7741 -5.6522 -1.8221 0.9755
-5.9141 1.6354 -2.0397 0.9745
-5.9612 1.0865 -2.0142 0.9748
-5.8332 -0.5158 -1.9466 0.9756
-5.3390 -1.9894 -1.8939 0.9763
-5.1019 -2.4404 -1.8799 0.9764
-4.8321 -2.8681 -1.8679 0.9766
-3.8464 -3.9934 -1.8430 0.9769
-2.1963 -5.0716 -1.8371 0.9770
-1.7375 -5.2573 -1.8405 0.9769
-0.7790 -5.5203 -1.8531 0.9768
-0.2839 -5.5955 -1.8624 0.9767
0.2186 -5.6318 -1.8735 0.9765
1.2358 -5.5847 -1.9013 0.9762
2.7506 -5.2036 -1.9565 0.9755
3.2403 -4.9919 -1.9783 0.9752
3.7168 -4.7375 -2.0016 0.9749
4.1764 -4.4406 -2.0263 0.9746
4.6152 -4.1017 -2.0524 0.9743
5.4099 -3.2988 -2.1062 0.9736
5.3517 -2.6387 -1.9834 0.9752
6.4492 0.5098 -2.1504 0.9731
6.4554 1.0974 -2.1766 0.9728
5.8923 3.4236 -2.2652 0.9717
4.2886 4.3703 -2.0353 0.9745
3.7693 4.6000 -1.9768 0.9752
2.7959 5.0280 -1.9124 0.9760
1.3757 5.6463 -1.9318 0.9758
0.4377 2.9057 -0.9768 0.9877
-0.1863 6.3181 -2.1011 0.9737
-0.7859 6.5741 -2.2008 0.9725
-2.9597 5.7276 -2.1431 0.9732
-3.8308 4.9775 -2.0878 0.9739
-2.5004 1.8865 -1.0412 0.9869
-5.0460 3.1417 -1.9759 0.9753
-5.8984 1.7499 -2.0451 0.9744
-5.9553 1.2004 -2.0194 0.9747
-5.9317 0.1181 -1.9721 0.9753
-5.5787 -1.4160 -1.9132 0.9760
-4.8908 -2.7812 -1.8702 0.9766
-4.5965 -3.1890 -1.8596 0.9767
-4.2731 -3.5703 -1.8510 0.9768
-3.9225 -3.9236 -1.8442 0.9769
-2.2897 -5.0286 -1.8367 0.9770
-1.8341 -5.2216 -1.8397 0.9769
-1.3638 -5.3790 -1.8446 0.9769
-0.3876 -5.5830 -1.8603 0.9767
0.1136 -5.6275 -1.8710 0.9766
1.1298 -5.5972 -1.8981 0.9762
2.6474 -5.2423 -1.9522 0.9755
3.1395 -5.0394 -1.9736 0.9753
3.6190 -4.7939 -1.9966 0.9750
4.9455 -3.8041 -2.0740 0.9740
2.3176 -0.9451 -0.8320 0.9895
6.0679 -1.2820 -2.0615 0.9742
6.2424 -0.7446 -2.0897 0.9738
6.3678 -0.1861 -2.1176 0.9735
6.4409 0.3887 -2.1449 0.9732
6.4194 1.5659 -2.1964 0.9725
6.3210 2.1563 -2.2200 0.9722
6.1629 2.7392 -2.2418 0.9720
5.9450 3.3078 -2.2614 0.9717
4.9644 4.0701 -2.1339 0.9733
4.4006 4.3206 -2.0500 0.9743
2.8946 4.9848 -1.9161 0.9760
1.4762 5.6028 -1.9260 0.9759
0.4991 2.9408 -0.9915 0.9875
0.2349 2.9816 -0.9942 0.9875
-0.0681 6.2676 -2.0835 0.9739
-0.6565 6.5189 -2.1779 0.9728
-4.4657 4.1977 -2.0373 0.9745
-5.9473 1.3144 -2.0246 0.9747
-5.7641 -0.8150 -1.9351 0.9758
-5.6146 -1.3143 -1.9168 0.9760
-5.2046 -2.2556 -1.8855 0.9764
-4.6602 -3.1063 -1.8617 0.9767
-3.2329 -4.4819 -1.8370 0.9770
-2.8174 -4.7495 -1.8356 0.9770
-2.3824 -4.9841 -1.8363 0.9770
-1.4627 -5.3493 -1.8434 0.9769
-0.9822 -5.4778 -1.8499 0.9768
-0.4909 -5.5688 -1.8583 0.9767
0.0088 -5.6215 -1.8686 0.9766
1.0237 -5.6079 -1.8949 0.9763
1.5336 -5.5401 -1.9108 0.9761
2.0413 -5.4307 -1.9285 0.9758
2.5439 -5.2792 -1.9479 0.9756
5.6050 -3.0279 -2.1176 0.9735
5.7968 -1.8973 -2.0275 0.9746
6.2101 -0.8582 -2.0839 0.9739
6.4597 0.8521 -2.1659 0.9729
6.2007 2.6189 -2.2374 0.9720
5.9952 3.1911 -2.2576 0.9718
5.0877 4.0152 -2.1544 0.9730
4.5143 4.2702 -2.0656 0.9741
3.4781 4.7284 -1.9512 0.9756
2.5202 5.1486 -1.9055 0.9761
1.4343 3.7455 -1.3332 0.9832
1.5760 5.5596 -1.9208 0.9759
1.0901 5.7697 -1.9518 0.9756
0.2857 2.9285 -0.9781 0.9877
0.0481 6.2178 -2.0669 0.9741
-0.5297 6.4648 -2.1561 0.9730
-1.7099 6.4088 -2.2048 0.9724
-2.2504 6.1606 -2.1802 0.9727
-2.7587 5.8641 -2.1542 0.9731
-3.6633 5.1452 -2.0995 0.9737
-5.5523 3.0666 -2.1084 0.9736
-5.9374 1.4286 -2.0299 0.9746
-5.9512 0.3404 -1.9815 0.9752
-5.7903 -0.7090 -1.9391 0.9757
-5.0042 -2.6041 -1.8752 0.9765
-4.7226 -3.0225 -1.8638 0.9766
-4.0715 -3.7801 -1.8468 0.9769
-3.7061 -4.1163 -1.8412 0.9769
-3.3167 -4.4222 -1.8375 0.9770
-2.9055 -4.6966 -1.8358 0.9770
-2.4744 -4.9381 -1.8360 0.9770
-2.0256 -5.1456 -1.8382 0.9770
-1.5611 -5.3179 -1.8423 0.9769
-1.0831 -5.4541 -1.8484 0.9768
-0.0957 -5.6137 -1.8663 0.9766
0.4090 -5.6353 -1.8781 0.9765
1.9360 -5.4569 -1.9247 0.9759
2.9361 -5.1290 -1.9645 0.9754
3.4212 -4.9012 -1.9869 0.9751
5.1778 -3.5683 -2.0903 0.9738
5.4658 -2.4699 -1.9938 0.9750
5.7438 -1.9991 -2.0216 0.9747
5.9817 -1.4983 -2.0498 0.9743
6.3218 -0.4207 -2.1061 0.9736
6.4170 0.1479 -2.1336 0.9733
6.4582 0.7299 -2.1604 0.9730
6.4429 1.3197 -2.1861 0.9727
6.2359 2.4981 -2.2330 0.9721
5.7905 3.6304 -2.2718 0.9716
5.2134 3.9592 -2.1761 0.9728
4.6298 4.2189 -2.0821 0.9739
4.0898 4.4583 -2.0111 0.9748
3.0932 4.8976 -1.9255 0.9759
2.1480 5.3110 -1.9043 0.9761
1.1925 5.7255 -1.9440 0.9756
0.3216 2.7637 -0.9249 0.9883
-0.4054 6.4117 -2.1356 0.9733
-1.0211 6.6378 -2.2324 0.9721
-2.6559 5.9295 -2.1597 0.9730
-3.1358 5.5980 -2.1329 0.9733
-3.5767 5.2269 -2.1053 0.9737
-3.9759 4.8212 -2.0773 0.9740
-4.3312 4.3862 -2.0490 0.9744
-4.6412 3.9268 -2.0208 0.9747
-5.1223 2.9548 -1.9657 0.9754
-5.9253 1.5430 -2.0353 0.9745
-5.9646 0.9947 -2.0101 0.9748
-5.9582 0.4522 -1.9862 0.9751
-5.9076 -0.0812 -1.9639 0.9754
-5.8147 -0.6024 -1.9432 0.9757
-5.3015 -2.0667 -1.8914 0.9763
-5.0588 -2.5140 -1.8778 0.9765
-4.7837 -2.9375 -1.8660 0.9766
-4.1443 -3.7065 -1.8482 0.9768
-3.7841 -4.0489 -1.8422 0.9769
-3.3996 -4.3612 -1.8381 0.9770
-2.9927 -4.6422 -1.8360 0.9770
-1.6589 -5.2850 -1.8413 0.9769
-5.5115 1.5241 -2.0449 0.9760
-5.5602 1.0134 -2.0211 0.9763
-5.5657 0.5067 -1.9986 0.9765
-5.5295 0.0072 -1.9774 0.9768
-5.4531 -0.4822 -1.9577 0.9770
-4.7801 -2.2865 -1.8949 0.9777
-3.9413 -3.4197 -1.8660 0.9781
-3.2517 -4.0445 -1.8558 0.9782
-2.8736 -4.3135 -1.8535 0.9782
-1.1859 -5.0719 -1.8627 0.9781
-0.7305 -5.1767 -1.8696 0.9780
-0.2662 -5.2456 -1.8783 0.9779
0.2048 -5.2777 -1.8888 0.9778
0.6801 -5.2723 -1.9011 0.9777
1.1570 -5.2287 -1.9151 0.9775
1.6330 -5.1462 -1.9308 0.9773
2.1052 -5.0244 -1.9481 0.9771
2.5705 -4.8629 -1.9670 0.9769
3.0260 -4.6616 -1.9874 0.9767
4.9712 -2.4511 -1.9821 0.9767
2.3659 -0.9138 -0.9070 0.9893
5.9550 0.4707 -2.1362 0.9749
5.9552 1.0123 -2.1602 0.9747
5.7955 2.0982 -2.2042 0.9742
5.6341 2.6309 -2.2236 0.9739
5.1501 3.6445 -2.2562 0.9736
4.2828 4.3644 -2.1867 0.9744
3.2705 4.8117 -2.0806 0.9756
2.7923 5.0217 -2.0548 0.9759
2.3218 5.2274 -2.0455 0.9760
1.2978 3.8076 -1.4385 0.9831
1.3740 5.6391 -2.0756 0.9756
-1.7870 5.8189 -2.1768 0.9745
-2.2755 5.5760 -2.1537 0.9747
-2.7337 5.2901 -2.1294 0.9750
-2.5001 1.8863 -1.1200 0.9868
-4.6886 2.9191 -1.9751 0.9768
-5.2368 2.6429 -2.0977 0.9754
-5.5536 1.1194 -2.0260 0.9762
-5.5680 0.6116 -2.0031 0.9765
-5.5404 0.1103 -1.9817 0.9767
-5.4722 -0.3814 -1.9616 0.9770
-5.0415 -1.7724 -1.9110 0.9776
-4.8285 -2.2002 -1.8975 0.9777
-4.5838 -2.6066 -1.8857 0.9778
-4.3095 -2.9899 -1.8757 0.9780
-4.0075 -3.3484 -1.8675 0.9781
-3.6795 -3.6805 -1.8611 0.9781
-2.5601 -4.5049 -1.8530 0.9782
-2.1484 -4.7182 -1.8540 0.9782
-1.7208 -4.8988 -1.8568 0.9782
-1.2793 -5.0457 -1.8615 0.9781
-0.3634 -5.2343 -1.8763 0.9780
1.0578 -5.2410 -1.9120 0.9775
1.5342 -5.1666 -1.9273 0.9774
4.2167 -3.8905 -2.0517 0.9759
4.9116 -2.5364 -1.9768 0.9768
5.6208 -1.1875 -2.0544 0.9759
5.8868 -0.1721 -2.1060 0.9753
5.8222 1.9862 -2.1999 0.9742
5.6722 2.5211 -2.2197 0.9740
4.3947 4.3148 -2.2024 0.9742
3.6512 4.2904 -2.0147 0.9764
3.2513 4.5970 -2.0136 0.9764
2.4194 5.1848 -2.0461 0.9760
1.4743 5.5957 -2.0694 0.9757
0.4954 2.9188 -1.0587 0.9875
0.2336 2.9650 -1.0636 0.9874
-0.0681 6.2590 -2.2384 0.9738
-0.6227 6.1833 -2.2224 0.9739
-1.1142 5.7977 -2.1112 0.9752
-2.1763 5.6302 -2.1586 0.9747
-3.0726 5.0359 -2.1096 0.9753
-3.4678 4.6836 -2.0840 0.9755
-2.4830 1.9470 -1.1284 0.9867
-5.3667 2.2469 -2.0806 0.9756
-5.5495 0.2139 -1.9860 0.9767
-5.4897 -0.2800 -1.9657 0.9769
-5.3905 -0.7622 -1.9469 0.9771
-5.2539 -1.2299 -1.9296 0.9773
-5.0816 -1.6809 -1.9141 0.9775
-4.6372 -2.5239 -1.8880 0.9778
-4.0725 -3.2759 -1.8690 0.9780
-3.0334 -4.2053 -1.8542 0.9782
-2.6436 -4.4566 -1.8530 0.9782
-2.2354 -4.6765 -1.8536 0.9782
-1.8109 -4.8640 -1.8561 0.9782
-1.3721 -5.0180 -1.8604 0.9781
0.4821 -5.2792 -1.8957 0.9777
1.9094 -5.0799 -1.9407 0.9772
2.3780 -4.9349 -1.9590 0.9770
3.2861 -4.5257 -2.0000 0.9765
3.7190 -4.2616 -2.0227 0.9763
4.1333 -3.9584 -2.0466 0.9760
4.5252 -3.6168 -2.0716 0.9757
4.8910 -3.2381 -2.0976 0.9754
4.8506 -2.6204 -1.9715 0.9769
2.3117 -0.9933 -0.8998 0.9894
5.3761 -1.7596 -2.0229 0.9763
5.5829 -1.2885 -2.0490 0.9760
5.9615 0.7864 -2.1503 0.9748
5.8466 1.8737 -2.1955 0.9743
5.5148 2.9353 -2.2341 0.9738
4.9696 3.9220 -2.2639 0.9735
4.5082 4.2644 -2.2191 0.9740
3.7473 4.2409 -2.0238 0.9762
3.3033 4.4909 -1.9936 0.9766
2.9899 4.9351 -2.0634 0.9758
1.4458 3.7756 -1.4458 0.9830
1.5740 5.5525 -2.0639 0.9758
1.0887 5.7623 -2.0971 0.9754
0.2716 2.7842 -1.0004 0.9882
-0.5084 6.2045 -2.2262 0.9739
-1.0112 5.8472 -2.1221 0.9751
-2.0758 5.6825 -2.1634 0.9746
-3.3887 4.7596 -2.0894 0.9755
-5.3377 2.3525 -2.0860 0.9755
-5.5672 0.8223 -2.0125 0.9764
-5.4143 -0.6630 -1.9507 0.9771
-5.1203 -1.5886 -1.9172 0.9775
-4.9210 -2.0247 -1.9029 0.9776
-4.6893 -2.4402 -1.8904 0.9778
-3.8189 -3.5456 -1.8635 0.9781
-3.4768 -3.8617 -1.8582 0.9782
-3.1119 -4.1492 -1.8547 0.9782
-1.9005 -4.8278 -1.8554 0.9782
-1.4645 -4.9888 -1.8593 0.9782
0.3832 -5.2802 -1.8932 0.9778
1.8112 -5.1050 -1.9371 0.9773
2.2811 -4.9683 -1.9550 0.9770
2.7431 -4.7919 -1.9745 0.9768
3.6304 -4.3198 -2.0179 0.9763
4.4457 -3.6910 -2.0663 0.9758
4.8172 -3.3198 -2.0921 0.9755
5.1445 -2.9042 -2.1126 0.9752
5.3282 -1.8544 -2.0175 0.9763
5.7172 -0.8988 -2.0696 0.9757
5.9289 0.1367 -2.1208 0.9751
5.9612 0.6737 -2.1453 0.9748
5.9416 1.2170 -2.1689 0.9746
5.8686 1.7610 -2.1911 0.9743
5.0358 3.8243 -2.2613 0.9735
3.3866 4.4290 -1.9938 0.9766
2.5934 5.0575 -2.0325 0.9761
2.1453 5.3044 -2.0461 0.9760
1.6732 5.5095 -2.0591 0.9758
0.1624 6.1604 -2.2038 0.9742
-0.9401 6.1113 -2.2112 0.9741
-2.4516 5.4734 -2.1447 0.9748
-4.7612 2.7465 -1.9656 0.9769
-5.3049 2.4569 -2.0907 0.9755
-5.5228 1.4381 -2.0408 0.9760
-5.5625 0.4222 -1.9949 0.9766
-5.3152 -1.0373 -1.9366 0.9773
-4.4841 -2.7535 -1.8817 0.9779
-4.1991 -3.1277 -1.8724 0.9780
-3.5499 -3.7983 -1.8592 0.9782
-3.1896 -4.0918 -1.8553 0.9782
-2.8081 -4.3558 -1.8533 0.9782
-5.1549 1.4255 -2.0496 0.9773
-5.2044 0.9486 -2.0273 0.9776
-5.2132 0.4746 -2.0061 0.9778
-5.1828 0.0067 -1.9861 0.9780
-5.1144 -0.4522 -1.9676 0.9782
-4.6967 -1.7500 -1.9207 0.9788
-4.4921 -2.1488 -1.9083 0.9789
-3.9956 -2.8837 -1.8883 0.9791
-3.0596 -3.8056 -1.8713 0.9793
-2.7040 -4.0590 -1.8691 0.9793
-1.9391 -4.4776 -1.8699 0.9793
-0.6871 -4.8688 -1.8843 0.9792
0.6390 -4.9538 -1.9141 0.9788
1.5329 -4.8307 -1.9422 0.9785
2.8353 -4.3680 -1.9956 0.9779
3.2475 -4.1393 -2.0162 0.9777
4.0195 -3.5723 -2.0608 0.9772
4.3727 -3.2358 -2.0846 0.9770
4.6908 -2.8603 -2.1054 0.9767
4.6362 -2.2859 -1.9809 0.9781
2.3701 -0.9154 -0.9737 0.9892
5.0897 -1.4585 -2.0290 0.9776
5.2617 -1.0097 -2.0532 0.9773
5.3933 -0.5417 -2.0772 0.9770
5.5205 0.9384 -2.1459 0.9763
5.3645 1.9422 -2.1863 0.9759
5.2117 2.4336 -2.2042 0.9757
4.7587 3.3676 -2.2341 0.9753
4.4617 3.7989 -2.2456 0.9752
3.2663 4.8055 -2.2267 0.9754
2.3188 5.2208 -2.1892 0.9758
1.3055 3.8304 -1.5508 0.9828
1.3722 5.6318 -2.2214 0.9755
-0.6813 5.6989 -2.1995 0.9757
-1.1780 5.5684 -2.1811 0.9759
-2.9329 4.6116 -2.0944 0.9769
-3.2955 4.2819 -2.0706 0.9771
-3.9117 3.5422 -2.0223 0.9776
-2.4998 1.8861 -1.2000 0.9867
-4.3737 2.7231 -1.9744 0.9782
-4.5452 2.2939 -1.9510 0.9784
-5.0398 2.0006 -2.0780 0.9770
-5.2146 0.5728 -2.0104 0.9778
-5.1317 -0.3576 -1.9713 0.9782
-5.0342 -0.8076 -1.9539 0.9784
-4.7353 -1.6647 -1.9235 0.9787
-4.5372 -2.0674 -1.9107 0.9789
-4.3089 -2.4503 -1.8996 0.9790
-3.1310 -3.7494 -1.8719 0.9793
-2.7796 -4.0087 -1.8694 0.9793
-2.4091 -4.2392 -1.8685 0.9793
-2.0216 -4.4398 -1.8695 0.9793
-1.6191 -4.6093 -1.8722 0.9793
-0.7770 -4.8513 -1.8828 0.9792
-0.3417 -4.9219 -1.8907 0.9791
2.7478 -4.4109 -1.9915 0.9780
3.1630 -4.1899 -2.0118 0.9778
3.5625 -3.9320 -2.0333 0.9775
4.6291 -2.9422 -2.1020 0.9768
4.5990 -2.3750 -1.9836 0.9781
5.2292 -1.1048 -2.0481 0.9774
5.3694 -0.6404 -2.0722 0.9771
5.5254 0.8338 -2.1414 0.9763
5.4824 1.3374 -2.1626 0.9761
4.1456 4.0702 -2.2264 0.9754
3.6420 4.2796 -2.1535 0.9762
2.8872 4.9721 -2.2034 0.9757
2.4163 5.1782 -2.1898 0.9758
1.3427 3.7118 -1.5126 0.9832
1.4724 5.5885 -2.2147 0.9755
0.4933 2.9065 -1.1298 0.9875
0.2342 2.9724 -1.1426 0.9873
-1.0761 5.5995 -2.1851 0.9759
-1.5581 5.4317 -2.1655 0.9761
-2.8532 4.6763 -2.0993 0.9768
-3.2229 4.3530 -2.0756 0.9771
-2.4861 1.9494 -1.2107 0.9866
-4.3330 2.8110 -1.9793 0.9781
-5.1474 -0.2626 -1.9751 0.9782
-4.9320 -1.1545 -1.9411 0.9785
-4.7726 -1.5787 -1.9264 0.9787
-4.5809 -1.9853 -1.9133 0.9788
-4.3588 -2.3724 -1.9018 0.9790
-4.1080 -2.7382 -1.8919 0.9791
-3.8303 -3.0811 -1.8838 0.9792
-3.5275 -3.3995 -1.8774 0.9792
-3.2016 -3.6919 -1.8727 0.9793
-2.8543 -3.9571 -1.8698 0.9793
-2.4876 -4.1937 -1.8686 0.9793
-2.1035 -4.4006 -1.8691 0.9793
-1.7039 -4.5767 -1.8715 0.9793
-1.2909 -4.7209 -1.8755 0.9793
-0.8665 -4.8323 -1.8814 0.9792
-0.4328 -4.9100 -1.8889 0.9791
0.9005 -4.9330 -1.9216 0.9787
2.2302 -4.6282 -1.9688 0.9782
3.4808 -3.9887 -2.0287 0.9776
3.8656 -3.7021 -2.0511 0.9773
4.2288 -3.3799 -2.0746 0.9771
2.3091 -0.9921 -0.9631 0.9893
5.1949 -1.1990 -2.0431 0.9774
5.3437 -0.7385 -2.0672 0.9772
5.5126 0.2298 -2.1144 0.9766
5.4133 1.7349 -2.1784 0.9759
5.2813 2.2306 -2.1970 0.9757
5.0995 2.7143 -2.2138 0.9756
4.8687 3.1803 -2.2286 0.9754
3.7423 4.2352 -2.1658 0.9761
2.9860 4.9288 -2.2084 0.9756
2.5139 5.1356 -2.1912 0.9758
1.5720 5.5454 -2.2088 0.9756
-0.4702 5.7388 -2.2066 0.9756
-1.9240 5.2671 -2.1489 0.9763
-2.3627 5.0223 -2.1270 0.9765
-2.7720 4.7395 -2.1041 0.9768
-3.1489 4.4227 -2.0806 0.9770
-4.0629 3.3097 -2.0082 0.9778
-4.4787 2.4736 -1.9607 0.9783
-5.1031 1.7230 -2.0641 0.9772
-5.1783 1.2460 -2.0411 0.9774
-5.2063 0.2978 -1.9984 0.9779
-5.1614 -0.1670 -1.9790 0.9781
-5.0791 -0.6220 -1.9610 0.9783
-4.9609 -1.0643 -1.9444 0.9785
-4.4074 -2.2936 -1.9040 0.9789
-4.1624 -2.6640 -1.8938 0.9791
-3.8902 -3.0118 -1.8853 0.9791
-3.2712 -3.6333 -1.8735 0.9793
-2.9282 -3.9042 -1.8702 0.9793
-2.1848 -4.3601 -1.8689 0.9793
-1.3778 -4.6936 -1.8746 0.9793
-0.9556 -4.8119 -1.8800 0.9792
-0.5237 -4.8967 -1.8872 0.9791
-0.0843 -4.9471 -1.8961 0.9790
0.8074 -4.9418 -1.9189 0.9788
1.2548 -4.8849 -1.9327 0.9786
2.1396 -4.6601 -1.9651 0.9783
2.5713 -4.4919 -1.9834 0.9781
2.9920 -4.2863 -2.0032 0.9779
3.3984 -4.0437 -2.0242 0.9776
3.7873 -3.7646 -2.0464 0.9774
4.9632 -1.7274 -2.0139 0.9777
5.1589 -1.2922 -2.0381 0.9775
5.3161 -0.8358 -2.0622 0.9772
5.4318 -0.3615 -2.0862 0.9770
5.5034 0.1269 -2.1096 0.9767
5.5288 0.6248 -2.1322 0.9764
5.5063 1.1278 -2.1539 0.9762
5.3129 2.1283 -2.1933 0.9758
4.6523 3.5331 -2.2387 0.9753
2.5901 5.0510 -2.1753 0.9760
1.5214 3.7617 -1.5550 0.9828
1.6710 5.5025 -2.2037 0.9757
1.1894 5.7107 -2.2354 0.9753
-0.3639 5.7555 -2.2100 0.9756
-0.8700 5.6555 -2.1928 0.9758
-1.3601 5.5070 -2.1738 0.9760
-3.0733 4.4912 -2.0855 0.9770
-3.7356 3.7830 -2.0374 0.9775
-4.0106 3.3932 -2.0132 0.9777
-4.4428 2.5629 -1.9655 0.9783
-4.9476 2.2915 -2.0895 0.9769
-5.0822 1.8220 -2.0690 0.9771
-5.2086 0.8686 -2.0236 0.9776
-5.1739 -0.0711 -1.9829 0.9781
-4.9884 -0.9735 -1.9477 0.9785
-4.8429 -1.4042 -1.9323 0.9786
-3.9490 -2.9414 -1.8870 0.9791
-3.6564 -3.2701 -1.8798 0.9792
-3.3399 -3.5735 -1.8744 0.9793
-3.0012 -3.8502 -1.8708 0.9793
-2.2653 -4.3182 -1.8687 0.9793
-1.8719 -4.5072 -1.8703 0.9793
-4.8366 1.3374 -2.0538 0.9785
-2.1777 0.3969 -0.9060 0.9905
-1.9579 0.1783 -0.8046 0.9915
-1.9578 -0.1731 -0.8044 0.9915
-2.1669 -0.3891 -0.9011 0.9905
-4.5848 -1.2550 -1.9455 0.9797
-4.4238 -1.6484 -1.9321 0.9798
-4.2327 -2.0247 -1.9203 0.9799
-4.0133 -2.3821 -1.9101 0.9800
-2.1980 -4.0409 -1.8827 0.9803
0.1815 -4.6751 -1.9148 0.9800
1.4429 -4.5470 -1.9524 0.9796
1.8581 -4.4348 -1.9679 0.9794
3.0500 -3.8875 -2.0223 0.9789
4.3915 -2.6778 -2.1051 0.9780
4.3387 -2.1392 -1.9799 0.9793
2.3844 -0.9209 -1.0461 0.9890
4.9126 -0.9427 -2.0473 0.9786
5.1465 0.4068 -2.1129 0.9779
5.0859 1.3414 -2.1527 0.9775
4.9871 1.8056 -2.1707 0.9773
3.8226 3.8955 -2.2337 0.9767
3.0445 4.4792 -2.2166 0.9769
2.6646 4.7920 -2.2441 0.9766
2.2241 5.0073 -2.2424 0.9766
1.2716 3.7308 -1.6132 0.9831
1.2908 5.2977 -2.2316 0.9767
-0.6331 5.2958 -2.1829 0.9772
-1.9644 4.8136 -2.1278 0.9778
-3.3827 3.6645 -2.0411 0.9787
-4.2577 2.1488 -1.9519 0.9796
-4.8213 1.4303 -2.0583 0.9785
-4.8790 0.9835 -2.0370 0.9787
-1.9516 -0.1360 -0.8007 0.9916
-2.0408 -0.3274 -0.8459 0.9911
-4.6144 -1.1712 -1.9484 0.9796
-4.4598 -1.5679 -1.9348 0.9798
-4.2748 -1.9479 -1.9227 0.9799
-3.8205 -2.6506 -1.9031 0.9801
-2.9535 -3.5367 -1.8858 0.9803
-1.9071 -4.1883 -1.8835 0.9803
-1.1351 -4.4770 -1.8903 0.9802
-0.7327 -4.5746 -1.8961 0.9802
-0.3221 -4.6401 -1.9036 0.9801
0.5144 -4.6714 -1.9234 0.9799
1.3559 -4.5660 -1.9494 0.9796
2.1821 -4.3209 -1.9812 0.9793
2.5827 -4.1457 -1.9990 0.9791
2.9710 -3.9356 -2.0182 0.9789
3.3441 -3.6910 -2.0384 0.9787
3.6988 -3.4126 -2.0597 0.9785
4.0320 -3.1014 -2.0819 0.9783
2.3174 -0.9450 -1.0243 0.9892
4.8830 -1.0316 -2.0426 0.9787
5.1426 0.3103 -2.1085 0.9780
5.1441 0.7762 -2.1292 0.9778
4.8762 2.1673 -2.1839 0.9772
4.6952 2.6124 -2.1990 0.9770
3.5449 4.1655 -2.2386 0.9766
3.1266 4.4207 -2.2161 0.9769
2.7533 4.7416 -2.2441 0.9766
2.3174 4.9663 -2.2430 0.9766
0.2194 2.7844 -1.1431 0.9880
-0.5352 5.3147 -2.1862 0.9772
-1.0004 5.2058 -2.1696 0.9773
-2.6599 4.3596 -2.0901 0.9782
-3.3215 3.7354 -2.0458 0.9786
-3.6019 3.3858 -2.0232 0.9789
-4.0552 2.6308 -1.9784 0.9793
-4.8044 1.5232 -2.0628 0.9785
-1.9515 0.2512 -0.8053 0.9915
-1.9415 -0.0990 -0.7957 0.9916
-4.6425 -1.0868 -1.9514 0.9796
-3.8727 -2.5814 -1.9048 0.9801
-3.6118 -2.9053 -1.8971 0.9802
-2.6926 -3.7329 -1.8838 0.9803
-2.3468 -3.9563 -1.8826 0.9803
-1.6073 -4.3172 -1.8854 0.9803
-1.2176 -4.4527 -1.8893 0.9802
-0.4081 -4.6292 -1.9020 0.9801
0.0073 -4.6686 -1.9107 0.9800
0.4268 -4.6744 -1.9211 0.9799
1.6861 -4.4857 -1.9613 0.9795
2.0975 -4.3529 -1.9776 0.9793
2.5003 -4.1850 -1.9952 0.9792
2.8914 -3.9821 -2.0141 0.9790
3.2679 -3.7447 -2.0341 0.9787
3.9647 -3.1688 -2.0772 0.9783
4.2363 -2.2886 -1.9707 0.9794
4.8518 -1.1198 -2.0379 0.9787
5.0825 -0.2433 -2.0825 0.9782
5.1135 1.1469 -2.1448 0.9776
4.9081 2.0730 -2.1806 0.9772
4.7365 2.5211 -2.1961 0.9771
4.5201 2.9525 -2.2097 0.9769
3.9593 3.7451 -2.2305 0.9767
2.8410 4.6893 -2.2440 0.9766
2.4099 4.9232 -2.2434 0.9766
1.4403 3.7611 -1.6483 0.9827
1.4891 5.2531 -2.2347 0.9767
0.0417 5.3847 -2.2039 0.9770
-0.4369 5.3316 -2.1894 0.9771
-1.3576 5.0882 -2.1553 0.9775
-1.7909 4.9025 -2.1362 0.9777
-2.2007 4.6779 -2.1158 0.9779
-2.6439 1.7860 -1.3058 0.9863
-4.1941 2.3164 -1.9609 0.9795
-4.7859 1.6159 -2.0674 0.9784
-4.8598 1.1693 -2.0457 0.9786
-1.9536 -0.2392 -0.8055 0.9915
-4.3554 -1.7920 -1.9275 0.9799
-3.0855 -3.4271 -1.8873 0.9803
-2.7623 -3.6830 -1.8842 0.9803
-2.4202 -3.9121 -1.8827 0.9803
-2.0610 -4.1132 -1.8829 0.9803
-1.6869 -4.2851 -1.8848 0.9803
-0.9012 -4.5379 -1.8935 0.9802
-0.4937 -4.6168 -1.9003 0.9801
-0.0795 -4.6631 -1.9088 0.9800
0.7605 -4.6549 -1.9304 0.9798
1.1814 -4.5993 -1.9435 0.9797
1.5997 -4.5089 -1.9581 0.9795
2.4174 -4.2228 -1.9914 0.9792
3.1909 -3.7969 -2.0299 0.9788
3.5537 -3.5325 -2.0508 0.9786
4.4917 -2.5357 -2.1111 0.9780
4.6398 -1.6148 -2.0107 0.9790
4.8190 -1.2071 -2.0332 0.9788
4.9619 -0.7801 -2.0557 0.9785
5.1289 0.1182 -2.0997 0.9781
5.0542 1.5166 -2.1597 0.9775
3.2870 4.2987 -2.2147 0.9769
2.9275 4.6352 -2.2438 0.9766
2.5015 4.8783 -2.2437 0.9766
2.0531 5.0764 -2.2412 0.9766
1.5876 5.2277 -2.2361 0.9767
1.1103 5.3307 -2.2285 0.9767
0.3334 2.8647 -1.1804 0.9876
0.1421 5.3897 -2.2066 0.9770
-0.8086 5.2566 -2.1767 0.9773
-2.1176 4.7277 -2.1202 0.9779
-2.5065 4.4747 -2.0991 0.9781
-2.5151 1.7680 -1.2582 0.9868
-4.1599 2.3996 -1.9655 0.9795
-4.6310 2.1448 -2.0888 0.9782
-4.7655 1.7085 -2.0720 0.9784
-2.0928 0.3490 -0.8684 0.9909
-1.9542 0.1483 -0.8021 0.9916
-1.9118 -0.0263 -0.7825 0.9918
-1.9574 -0.2028 -0.8054 0.9915
-4.6947 -0.9162 -1.9577 0.9795
-4.5599 -1.3222 -1.9431 0.9797
-4.1978 -2.0861 -1.9185 0.9799
-3.9737 -2.4402 -1.9085 0.9800
-3.7233 -2.7733 -1.9001 0.9801
-3.4482 -3.0839 -1.8933 0.9802
-2.4928 -3.8667 -1.8829 0.9803
-2.1370 -4.0737 -1.8828 0.9803
-1.7658 -4.2518 -1.8843 0.9803
-1.3811 -4.4000 -1.8875 0.9803
-1.5276 0.1391 -0.6685 0.9933
-1.5225 0.0020 -0.6635 0.9934
-1.5983 -0.5956 -0.7434 0.9926
-3.9976 -1.9122 -1.9313 0.9809
-3.7914 -2.2504 -1.9215 0.9809
-3.5598 -2.5692 -1.9133 0.9810
-3.3043 -2.8670 -1.9066 0.9811
-2.7286 -3.3939 -1.8979 0.9812
-2.4118 -3.6203 -1.8959 0.9812
-2.0781 -3.8206 -1.8954 0.9812
-1.3676 -4.1381 -1.8994 0.9812
-0.6123 -4.3387 -1.9096 0.9811
-0.2229 -4.3932 -1.9171 0.9810
0.5685 -4.4069 -1.9365 0.9808
0.9660 -4.3651 -1.9484 0.9807
1.3615 -4.2904 -1.9617 0.9806
2.1364 -4.0416 -1.9924 0.9803
2.5105 -3.8676 -2.0095 0.9801
3.5458 -3.1513 -2.0674 0.9795
3.8521 -2.8505 -2.0885 0.9793
4.7098 -0.4730 -2.0629 0.9796
4.8008 0.8161 -2.1223 0.9790
4.3367 2.5198 -2.1859 0.9784
4.1163 2.9129 -2.1977 0.9782
3.8566 3.2838 -2.2075 0.9781
3.5601 3.6280 -2.2152 0.9781
3.2296 3.9414 -2.2207 0.9780
2.8685 4.2203 -2.2239 0.9780
2.4808 4.4615 -2.2248 0.9780
2.0708 4.6622 -2.2233 0.9780
1.2022 4.9342 -2.2133 0.9781
-0.1476 5.0052 -2.1823 0.9784
-0.5905 4.9398 -2.1682 0.9785
-1.0222 4.8321 -2.1525 0.9787
-1.4385 4.6839 -2.1354 0.9788
-2.5585 4.0230 -2.0778 0.9794
-2.8790 3.7408 -2.0572 0.9796
-3.1692 3.4332 -2.0363 0.9798
-4.0000 2.0187 -1.9527 0.9806
-4.4337 1.7600 -2.0790 0.9794
-1.5722 0.4664 -0.7147 0.9929
-1.5083 0.3040 -0.6706 0.9933
-1.5294 -0.1066 -0.6682 0.9933
-1.5475 -0.3928 -0.6958 0.9931
-3.8365 -2.1816 -1.9234 0.9809
-3.6100 -2.5046 -1.9149 0.9810
-3.0862 -3.0870 -1.9024 0.9811
-1.0729 -4.2319 -1.9027 0.9811
0.4858 -4.4115 -1.9342 0.9808
0.8834 -4.3765 -1.9458 0.9807
1.2795 -4.3087 -1.9588 0.9806
1.6717 -4.2078 -1.9732 0.9804
2.0573 -4.0737 -1.9889 0.9803
3.1475 -3.4741 -2.0431 0.9798
3.4793 -3.2101 -2.0631 0.9796
4.0257 -2.0789 -1.9746 0.9804
2.3173 -0.9450 -1.0907 0.9891
4.4236 -1.3573 -2.0166 0.9800
4.8079 0.2901 -2.0992 0.9792
4.8063 0.7253 -2.1184 0.9790
4.5483 2.0216 -2.1692 0.9785
4.3774 2.4356 -2.1832 0.9784
3.6247 3.5588 -2.2138 0.9781
3.3010 3.8789 -2.2198 0.9780
2.5634 4.4146 -2.2248 0.9780
2.1577 4.6239 -2.2238 0.9780
1.3598 3.7588 -1.7421 0.9827
1.2947 4.9142 -2.2148 0.9781
0.8473 4.9925 -2.2069 0.9781
-0.9336 4.8579 -2.1559 0.9786
-2.8148 3.8017 -2.0615 0.9796
-3.3764 3.1738 -2.0196 0.9800
-3.9703 2.0973 -1.9569 0.9806
-4.4067 1.8450 -2.0821 0.9794
-1.5814 0.5014 -0.7230 0.9928
-1.5198 0.1956 -0.6678 0.9933
-1.5159 -0.2143 -0.6672 0.9933
-3.8804 -2.1120 -1.9254 0.9809
-3.6592 -2.4390 -1.9165 0.9810
-3.4134 -2.7458 -1.9092 0.9811
-2.8549 -3.2922 -1.8992 0.9812
-2.2188 -3.7405 -1.8954 0.9812
0.4031 -4.4146 -1.9320 0.9808
1.1973 -4.3255 -1.9560 0.9806
1.5905 -4.2315 -1.9701 0.9805
1.9777 -4.1043 -1.9856 0.9803
2.3563 -3.9440 -2.0022 0.9802
2.7234 -3.7507 -2.0201 0.9800
3.0762 -3.5250 -2.0390 0.9798
2.3036 -0.9898 -1.0927 0.9891
4.6693 -0.6453 -2.0543 0.9796
4.7556 -0.2277 -2.0750 0.9794
4.8031 0.2002 -2.0951 0.9792
4.7754 1.0711 -2.1329 0.9789
4.6983 1.5057 -2.1502 0.9787
4.2128 2.7518 -2.1930 0.9783
3.0222 4.1087 -2.2229 0.9780
2.2438 4.5838 -2.2242 0.9780
1.4848 3.8773 -1.8095 0.9820
0.2677 2.7445 -1.2018 0.9880
-0.4074 4.9723 -2.1743 0.9785
-0.8443 4.8819 -2.1592 0.9786
-1.2674 4.7503 -2.1427 0.9788
-2.0571 4.3725 -2.1060 0.9791
