ply
format ascii 1.0
element vertex 1595
property float32 x
property float32 y
property float32 z
property float32 I
end_header
0.0589 -8.2870 -1.7517 0.9667
0.8048 -8.3288 -1.7687 0.9664
1.5610 -8.3156 -1.7884 0.9660
2.3245 -8.2454 -1.8109 0.9656
3.0923 -8.1165 -1.8360 0.9651
4.6263 -7.6751 -1.8943 0.9640
5.3844 -7.3589 -1.9275 0.9634
6.8590 -6.5279 -2.0015 0.9620
7.5642 -6.0106 -2.0422 0.9613
8.2396 -5.4246 -2.0853 0.9605
8.8783 -4.7698 -2.1304 0.9596
2.3660 -1.0109 -0.5439 0.9895
9.7392 -2.2324 -2.1121 0.9600
8.5365 2.7346 -1.8948 0.9640
7.4776 3.1548 -1.7155 0.9674
3.9438 4.4476 -1.2565 0.9760
2.9049 4.7701 -1.1806 0.9774
2.4394 4.9513 -1.1667 0.9777
1.5221 5.3068 -1.1670 0.9777
1.0573 5.4948 -1.1828 0.9774
0.2806 2.7725 -0.5890 0.9887
0.0691 5.9291 -1.2534 0.9760
-1.0895 6.4712 -1.3871 0.9735
-1.5708 6.0007 -1.3112 0.9750
-3.7294 10.3694 -2.3293 0.9559
-5.2910 9.1621 -2.2364 0.9577
-7.0490 6.9654 -2.0947 0.9603
-8.7171 4.8961 -2.1134 0.9599
-8.9273 4.0138 -2.0690 0.9608
-9.0609 3.1371 -2.0268 0.9616
-9.1215 2.2717 -1.9870 0.9623
-9.0392 0.5942 -1.9148 0.9636
-8.9040 -0.2100 -1.8826 0.9642
-7.4334 -3.7732 -1.7621 0.9665
-7.0035 -4.3804 -1.7461 0.9668
-6.5350 -4.9489 -1.7328 0.9670
-6.0308 -5.4777 -1.7221 0.9672
-5.4930 -5.9654 -1.7141 0.9674
-4.9242 -6.4111 -1.7088 0.9675
-4.3265 -6.8136 -1.7061 0.9675
-1.6888 -7.9679 -1.7217 0.9672
-0.9780 -8.1362 -1.7322 0.9671
1.2420 -8.3280 -1.7798 0.9662
2.7691 -8.1780 -1.8251 0.9653
3.5378 -8.0142 -1.8518 0.9648
4.3051 -7.7887 -1.8811 0.9643
5.0669 -7.4998 -1.9132 0.9637
5.8185 -7.1457 -1.9479 0.9630
7.2709 -6.2365 -2.0248 0.9616
9.2041 -4.3477 -2.1517 0.9592
10.3079 -0.8720 -2.1867 0.9586
10.5691 0.0510 -2.2341 0.9577
10.5134 1.9487 -2.2602 0.9572
9.0525 2.5297 -1.9868 0.9623
7.8976 2.9882 -1.7849 0.9661
6.9421 3.3615 -1.6304 0.9690
5.4032 3.9345 -1.4128 0.9730
4.1452 4.3355 -1.2679 0.9758
3.7699 4.7221 -1.2772 0.9756
3.2569 4.9225 -1.2477 0.9762
2.6338 4.8757 -1.1714 0.9776
2.1733 5.0546 -1.1630 0.9778
0.4039 2.9000 -0.6189 0.9881
0.1418 2.8809 -0.6097 0.9883
-4.9874 9.4372 -2.2563 0.9573
-6.8463 7.2925 -2.1144 0.9599
-7.8718 7.0124 -2.2284 0.9578
-8.2804 6.1458 -2.1797 0.9587
-8.8485 4.3845 -2.0874 0.9604
-9.0779 0.9398 -1.9291 0.9634
-8.7990 -0.6638 -1.8652 0.9646
-8.2978 -2.1519 -1.8120 0.9656
-7.6021 -3.5066 -1.7696 0.9664
-7.1891 -4.1297 -1.7525 0.9667
-3.9678 -7.0266 -1.7057 0.9675
-0.5585 -8.2104 -1.7395 0.9669
0.1768 -8.2972 -1.7543 0.9666
1.6820 -8.3083 -1.7918 0.9659
5.5040 -7.3026 -1.9330 0.9633
6.2476 -6.9101 -1.9691 0.9626
7.6738 -5.9220 -2.0489 0.9611
8.3439 -5.3250 -2.0923 0.9603
8.9760 -4.6594 -2.1377 0.9595
9.3682 -2.9016 -2.0731 0.9607
9.8044 -2.1014 -2.1195 0.9598
10.1742 -1.2465 -2.1667 0.9590
8.3535 2.8073 -1.8628 0.9646
7.3270 3.2144 -1.6913 0.9678
6.4609 3.5519 -1.5585 0.9703
5.7122 3.8402 -1.4549 0.9723
5.0066 4.0578 -1.3622 0.9740
4.3865 4.2562 -1.2919 0.9753
3.9936 4.6345 -1.2932 0.9753
2.8301 4.7993 -1.1777 0.9775
2.3662 4.9797 -1.1654 0.9777
1.9081 5.1574 -1.1624 0.9778
1.4486 5.3352 -1.1686 0.9777
0.2387 2.7471 -0.5829 0.9888
-0.0152 5.9674 -1.2614 0.9759
-0.5729 6.2256 -1.3215 0.9748
-1.6102 5.8133 -1.2751 0.9756
-3.8641 10.2836 -2.3221 0.9561
-4.6704 9.7017 -2.2760 0.9569
-5.4022 9.0556 -2.2289 0.9578
-6.6293 7.6146 -2.1341 0.9596
-7.1220 6.8405 -2.0874 0.9604
-8.1190 6.5121 -2.2000 0.9583
-2.5851 1.7189 -0.6562 0.9874
-9.1247 2.1355 -1.9809 0.9624
-9.1055 1.2894 -1.9439 0.9631
-9.0217 0.4646 -1.9095 0.9637
-8.6754 -1.1077 -1.8487 0.9649
-7.3677 -3.8723 -1.7594 0.9665
-6.4572 -5.0357 -1.7309 0.9671
-5.4046 -6.0391 -1.7131 0.9674
-4.2290 -6.8735 -1.7059 0.9675
-2.9475 -7.5298 -1.7092 0.9675
-2.2828 -7.0712 -1.7463 0.9699
-1.6502 -7.2754 -1.7533 0.9698
-0.3366 -7.5435 -1.7746 0.9694
0.3396 -7.6046 -1.7890 0.9692
3.1118 -7.3290 -1.8713 0.9678
4.4933 -6.8587 -1.9271 0.9669
6.4689 -5.7098 -2.0279 0.9652
7.6614 -4.6416 -2.1053 0.9639
8.8355 -1.6792 -2.1137 0.9637
9.1266 -0.9027 -2.1554 0.9630
9.5564 1.6314 -2.2785 0.9609
9.2425 2.4420 -2.2467 0.9615
8.0511 2.9164 -2.0125 0.9654
6.2477 3.6270 -1.6979 0.9708
4.8960 4.1611 -1.5101 0.9739
3.8491 4.6834 -1.4248 0.9754
3.3329 4.8854 -1.3899 0.9760
2.7493 4.9213 -1.3249 0.9771
1.8148 5.2807 -1.3123 0.9773
1.3494 5.4715 -1.3245 0.9771
0.4706 3.0602 -0.7277 0.9874
-0.7333 6.3434 -1.5008 0.9741
-1.3642 6.5836 -1.5802 0.9728
-5.5306 7.2685 -2.1466 0.9632
-6.0367 6.6158 -2.1049 0.9639
-6.4728 5.9330 -2.0636 0.9646
-7.3630 5.6287 -2.1782 0.9626
-7.9368 4.0740 -2.0967 0.9640
-8.2220 2.5055 -2.0201 0.9653
-8.2654 1.7321 -1.9848 0.9659
-8.2467 0.9722 -1.9516 0.9665
-7.8499 -1.1890 -1.8660 0.9679
-7.6146 -1.8598 -1.8422 0.9683
-6.6416 -3.6909 -1.7858 0.9693
-6.2375 -4.2349 -1.7719 0.9695
-5.3251 -5.2144 -1.7516 0.9698
-4.2894 -6.0408 -1.7412 0.9700
-3.7309 -6.3935 -1.7397 0.9700
-2.5432 -6.9719 -1.7442 0.9700
-1.2757 -7.3726 -1.7585 0.9697
-0.6175 -7.5030 -1.7693 0.9695
0.0540 -7.5850 -1.7827 0.9693
0.7361 -7.6170 -1.7985 0.9690
1.4262 -7.5977 -1.8168 0.9687
2.1215 -7.5254 -1.8376 0.9684
2.8189 -7.3988 -1.8608 0.9680
3.5147 -7.2164 -1.8865 0.9676
4.2054 -6.9768 -1.9146 0.9671
5.5543 -6.3213 -1.9777 0.9660
6.2030 -5.9036 -2.0126 0.9654
6.8275 -5.4252 -2.0495 0.9648
7.4220 -4.8862 -2.0884 0.9641
7.9801 -4.2873 -2.1290 0.9635
8.6938 -1.9928 -2.0962 0.9640
9.0123 -1.2342 -2.1379 0.9633
9.2639 -0.4346 -2.1796 0.9626
9.4420 0.4001 -2.2211 0.9619
9.5403 1.2625 -2.2617 0.9612
8.5207 2.7296 -2.1028 0.9639
7.4650 3.1495 -1.9042 0.9673
6.5785 3.4959 -1.7509 0.9699
5.8223 3.7954 -1.6334 0.9718
2.4749 5.0236 -1.3162 0.9773
1.5459 5.3900 -1.3178 0.9772
1.0752 5.5877 -1.3373 0.9769
0.2799 2.7657 -0.6533 0.9886
-1.0909 6.4796 -1.5443 0.9734
-1.4907 5.6946 -1.3834 0.9761
-3.2927 9.1553 -2.2866 0.9608
-5.2970 7.5320 -2.1641 0.9629
-5.8324 6.8944 -2.1224 0.9636
-6.2980 6.2232 -2.0809 0.9643
-6.6935 5.5267 -2.0401 0.9650
-2.5803 1.7690 -0.7353 0.9872
-7.8416 4.4044 -2.1137 0.9637
-8.0476 3.6183 -2.0737 0.9644
-8.1845 2.8337 -2.0356 0.9650
-8.2549 2.0559 -1.9994 0.9656
-8.2087 0.5396 -1.9334 0.9668
-8.0985 -0.1910 -1.9039 0.9673
-6.8003 -3.4518 -1.7923 0.9691
-6.4119 -4.0104 -1.7774 0.9694
-5.5278 -5.0208 -1.7551 0.9698
-5.0369 -5.4700 -1.7476 0.9699
-4.5165 -5.8802 -1.7426 0.9700
-3.9688 -6.2502 -1.7401 0.9700
-3.3960 -6.5787 -1.7400 0.9700
-2.8001 -6.8647 -1.7424 0.9700
-2.1834 -7.1067 -1.7473 0.9699
-1.5479 -7.3036 -1.7546 0.9698
-0.8960 -7.4540 -1.7645 0.9696
-0.2298 -7.5565 -1.7768 0.9694
0.4481 -7.6097 -1.7916 0.9692
1.8287 -7.5624 -1.8286 0.9685
2.5256 -7.4588 -1.8508 0.9682
3.9159 -7.0846 -1.9025 0.9673
7.7503 -4.5464 -2.1118 0.9638
8.2572 -3.9004 -2.1462 0.9632
8.5416 -2.2983 -2.0789 0.9643
8.8862 -1.5585 -2.1203 0.9636
9.3765 0.0453 -2.2037 0.9622
9.0348 2.5248 -2.2047 0.9622
7.8837 2.9830 -1.9811 0.9660
6.9310 3.3561 -1.8099 0.9689
5.4268 3.9517 -1.5777 0.9728
4.8005 4.1987 -1.4989 0.9741
3.7652 4.7163 -1.4183 0.9755
2.6736 4.9493 -1.3221 0.9772
2.2044 5.1270 -1.3116 0.9773
0.1367 2.7791 -0.6540 0.9886
-0.2468 6.1576 -1.4483 0.9750
-3.7237 8.8828 -2.2637 0.9612
-4.4197 8.3629 -2.2231 0.9619
-5.0514 7.7880 -2.1817 0.9626
-6.1107 6.5090 -2.0983 0.9640
-6.5357 5.8221 -2.0571 0.9647
-7.7337 4.7338 -2.1311 0.9634
-7.9695 3.9490 -2.0904 0.9641
-8.1351 3.1631 -2.0514 0.9648
-8.2382 0.8529 -1.9465 0.9665
-8.1516 0.1136 -1.9160 0.9671
-7.8157 -1.2975 -1.8620 0.9680
-6.1699 -4.3181 -1.7699 0.9695
-3.6397 -6.4457 -1.7397 0.9700
-0.5115 -7.5193 -1.7713 0.9695
0.8454 -7.6174 -1.8013 0.9690
2.9297 -7.3736 -1.8647 0.9679
4.3145 -6.9334 -1.9192 0.9670
4.9940 -6.6259 -1.9500 0.9665
6.3041 -5.8316 -2.0183 0.9653
7.5133 -4.7950 -2.0948 0.9640
8.0604 -4.1841 -2.1344 0.9634
2.3288 -0.9561 -0.5917 0.9897
8.3793 -2.5953 -2.0616 0.9646
8.7487 -1.8751 -2.1028 0.9639
9.4631 0.5356 -2.2276 0.9618
9.5482 1.4017 -2.2681 0.9611
9.5472 2.2856 -2.3072 0.9605
8.3382 2.8022 -2.0674 0.9645
6.4510 3.5465 -1.7301 0.9702
5.7110 3.8394 -1.6173 0.9721
5.0562 4.0979 -1.5296 0.9736
4.4638 4.3312 -1.4618 0.9748
3.9886 4.6288 -1.4360 0.9752
3.4655 4.8336 -1.3978 0.9759
2.8749 4.8753 -1.3302 0.9770
2.4004 5.0518 -1.3145 0.9773
1.9358 5.2324 -1.3112 0.9773
0.9990 5.6205 -1.3416 0.9768
0.2370 2.7278 -0.6435 0.9888
-0.0154 6.0691 -1.4264 0.9754
-1.5865 5.7277 -1.3968 0.9759
-4.7939 8.0358 -2.1991 0.9623
-6.3655 6.1139 -2.0743 0.9644
-7.8790 4.2795 -2.1073 0.9638
-8.0739 3.4933 -2.0675 0.9645
-8.2000 2.7094 -2.0297 0.9651
-8.1949 0.4220 -1.9285 0.9668
-8.0759 -0.3052 -1.8994 0.9673
-7.6808 -1.6871 -1.8482 0.9682
-6.7411 -3.5429 -1.7898 0.9692
-5.9161 -4.6138 -1.7633 0.9696
-4.9560 -5.5379 -1.7466 0.9699
-4.4311 -5.9418 -1.7420 0.9700
-3.3027 -6.6271 -1.7402 0.9700
-2.1061 -6.5240 -1.7750 0.9721
-1.5220 -6.7103 -1.7816 0.9720
-0.9226 -6.8531 -1.7904 0.9718
0.3127 -7.0029 -1.8150 0.9715
0.9436 -7.0075 -1.8307 0.9712
2.2180 -6.8696 -1.8691 0.9706
2.8552 -6.7247 -1.8916 0.9703
4.1127 -6.2777 -1.9432 0.9695
5.3207 -5.6158 -2.0030 0.9685
6.4424 -4.7361 -2.0703 0.9675
6.9580 -4.2154 -2.1064 0.9669
7.4146 -3.6319 -2.1377 0.9665
7.6599 -2.1780 -2.0619 0.9676
7.9643 -1.5136 -2.0990 0.9671
8.2108 -0.8121 -2.1363 0.9665
8.3938 -0.0786 -2.1734 0.9659
8.5079 0.6809 -2.2099 0.9653
8.5485 1.4594 -2.2454 0.9648
8.5114 2.2488 -2.2794 0.9643
8.0367 2.9112 -2.2131 0.9653
7.0652 3.2982 -2.0188 0.9683
2.7831 4.9817 -1.4775 0.9767
2.3087 5.1663 -1.4651 0.9769
0.4692 3.0510 -0.7992 0.9873
-0.1582 6.1160 -1.5841 0.9750
-0.7323 6.3348 -1.6511 0.9740
-3.2282 8.0179 -2.2379 0.9649
-3.8671 7.5755 -2.2022 0.9655
-4.4513 7.0809 -2.1655 0.9660
-5.4437 5.9659 -2.0911 0.9672
-5.8482 5.3605 -2.0541 0.9678
-7.5400 0.8889 -1.9658 0.9691
-7.4792 0.2104 -1.9373 0.9696
-7.2043 -1.0912 -1.8866 0.9703
-6.1170 -3.3993 -1.8119 0.9715
-5.7484 -3.9028 -1.7990 0.9717
-5.3459 -4.3734 -1.7883 0.9719
-4.9119 -4.8098 -1.7800 0.9720
-4.4487 -5.2106 -1.7739 0.9721
-3.9584 -5.5746 -1.7702 0.9721
-3.4432 -5.9005 -1.7688 0.9722
-1.7696 -6.6372 -1.7785 0.9720
0.6775 -7.0114 -1.8238 0.9713
1.9495 -6.9152 -1.8603 0.9707
3.2228 -6.6169 -1.9056 0.9700
3.8513 -6.3894 -1.9316 0.9696
5.0726 -5.7730 -1.9898 0.9687
6.7454 -4.4408 -2.0910 0.9672
2.3421 -1.0007 -0.6594 0.9895
7.8430 -1.7978 -2.0834 0.9673
8.4686 0.3588 -2.1946 0.9656
8.5406 1.1302 -2.2306 0.9650
7.4523 3.1441 -2.0942 0.9671
6.5682 3.4905 -1.9258 0.9697
5.1485 4.0531 -1.6966 0.9733
3.9965 4.5070 -1.5596 0.9754
3.5425 4.7958 -1.5438 0.9757
2.9856 4.9028 -1.4863 0.9766
2.5072 5.0891 -1.4689 0.9768
2.0360 5.2721 -1.4633 0.9769
1.0851 5.6393 -1.4869 0.9766
0.0702 6.0287 -1.5610 0.9754
-1.4888 5.6873 -1.5222 0.9760
-4.7635 6.7734 -2.1440 0.9664
-5.2552 6.2121 -2.1068 0.9669
-7.1189 3.9985 -2.1141 0.9668
-7.5317 1.8758 -2.0097 0.9684
-7.5113 0.4937 -1.9490 0.9694
-7.0889 -1.4520 -1.8736 0.9705
-6.8546 -2.0549 -1.8528 0.9709
-6.5778 -2.6310 -1.8343 0.9712
-4.6469 -5.0465 -1.7762 0.9721
-3.1341 -6.0714 -1.7691 0.9722
-1.4276 -6.7360 -1.7828 0.9720
-0.8260 -6.8717 -1.7920 0.9718
0.4126 -7.0068 -1.8173 0.9714
1.6811 -6.9519 -1.8518 0.9709
2.3195 -6.8500 -1.8725 0.9706
3.5881 -6.4915 -1.9204 0.9698
4.8210 -5.9206 -1.9769 0.9689
5.9838 -5.1325 -2.0412 0.9680
6.5267 -4.6569 -2.0759 0.9674
7.0366 -4.1278 -2.1122 0.9669
6.9674 -3.2911 -1.9951 0.9687
7.3633 -2.7051 -2.0311 0.9681
7.7120 -2.0750 -2.0678 0.9675
8.0075 -1.4044 -2.1049 0.9670
8.5478 1.5844 -2.2509 0.9647
8.4981 2.3748 -2.2846 0.9642
7.8698 2.9777 -2.1786 0.9658
6.9198 3.3507 -1.9907 0.9687
4.2237 4.4177 -1.5825 0.9751
3.7605 4.7104 -1.5606 0.9754
2.2338 5.1954 -1.4642 0.9769
1.2370 3.7728 -1.0280 0.9837
1.2881 5.5611 -1.4780 0.9767
0.3975 2.8539 -0.7460 0.9882
-0.2465 6.1497 -1.5935 0.9749
-1.2709 5.7235 -1.5180 0.9761
-3.3333 7.9514 -2.2323 0.9650
-3.9637 7.5001 -2.1964 0.9656
-5.5122 5.8714 -2.0852 0.9673
-6.2396 4.6311 -2.0119 0.9684
-7.4056 2.8794 -2.0573 0.9677
-7.5070 2.1717 -2.0234 0.9682
-7.5489 1.4705 -1.9913 0.9687
-7.3439 -0.5540 -1.9069 0.9700
-7.1742 -1.1910 -1.8830 0.9704
-6.9584 -1.8045 -1.8613 0.9707
-6.3991 -2.9517 -1.8246 0.9713
-6.0608 -3.4815 -1.8097 0.9715
-5.6866 -3.9798 -1.7971 0.9717
-4.8401 -4.8760 -1.7789 0.9720
-3.8781 -5.6290 -1.7699 0.9722
-3.3591 -5.9487 -1.7688 0.9722
-2.8177 -6.2289 -1.7701 0.9721
-2.2561 -6.4683 -1.7737 0.9721
-1.6763 -6.6658 -1.7796 0.9720
-1.0806 -6.8200 -1.7879 0.9719
-0.4714 -6.9298 -1.7984 0.9717
0.1490 -6.9939 -1.8113 0.9715
2.0510 -6.8990 -1.8635 0.9707
3.3233 -6.5843 -1.9096 0.9700
4.5664 -6.0586 -1.9643 0.9691
5.1668 -5.7147 -1.9947 0.9687
6.8266 -4.3567 -2.0968 0.9671
7.3050 -3.7920 -2.1311 0.9666
2.3276 -0.9557 -0.6515 0.9897
7.5715 -2.3451 -2.0523 0.9678
8.3523 -0.2731 -2.1637 0.9661
8.4850 0.4802 -2.2004 0.9655
6.4410 3.5410 -1.9031 0.9701
4.4579 4.3255 -1.6083 0.9747
3.4613 4.8276 -1.5380 0.9758
2.9088 4.9327 -1.4827 0.9766
1.4889 5.4837 -1.4712 0.9768
0.2355 2.7099 -0.7043 0.9888
-0.5775 6.2759 -1.6318 0.9743
-3.0527 8.1241 -2.2471 0.9648
-3.7051 7.6965 -2.2116 0.9653
-4.3040 7.2148 -2.1752 0.9659
-5.3277 6.1196 -2.1008 0.9670
-5.7484 5.5212 -2.0637 0.9676
-7.4717 2.4688 -2.0374 0.9680
-7.5384 1.7642 -2.0046 0.9685
-7.5470 1.0687 -1.9736 0.9690
-7.5003 0.3862 -1.9445 0.9694
-7.4008 -0.2797 -1.9176 0.9699
-7.2513 -0.9259 -1.8927 0.9702
-6.2076 -3.2625 -1.8157 0.9714
-5.4543 -4.2536 -1.7909 0.9718
-5.0283 -4.6991 -1.7819 0.9720
-4.5725 -5.1093 -1.7753 0.9721
-3.5802 -5.8190 -1.7690 0.9722
-3.0480 -6.1160 -1.7693 0.9722
-1.9532 -6.0504 -1.7999 0.9739
-1.4111 -6.2215 -1.8060 0.9738
0.2896 -6.4839 -1.8374 0.9734
2.6354 -6.2069 -1.9089 0.9724
4.3470 -5.4959 -1.9837 0.9713
6.7706 -3.3165 -2.1343 0.9691
6.9763 -1.9837 -2.0532 0.9703
7.6079 -0.0712 -2.1538 0.9689
7.6993 0.6162 -2.1866 0.9684
7.6795 2.0290 -2.2486 0.9675
7.5628 2.7395 -2.2771 0.9671
7.0535 3.2927 -2.2036 0.9682
6.2287 3.6160 -2.0389 0.9705
3.3248 4.8734 -1.6701 0.9758
1.3626 5.5251 -1.6110 0.9766
0.1701 2.6815 -0.7607 0.9889
-0.1581 6.1080 -1.7297 0.9749
-1.3603 6.5649 -1.8979 0.9725
-3.5007 6.8577 -2.1797 0.9685
-4.0359 6.4201 -2.1468 0.9690
-4.5204 5.9409 -2.1133 0.9694
-4.9516 5.4266 -2.0797 0.9699
-5.6491 4.3185 -2.0130 0.9709
-6.5999 3.3878 -2.1001 0.9696
-6.8794 2.0964 -2.0359 0.9705
-6.9385 0.8179 -1.9778 0.9714
-6.7939 -0.4156 -1.9269 0.9721
-6.4641 -1.5788 -1.8837 0.9727
-6.2359 -2.1274 -1.8652 0.9730
-5.9685 -2.6510 -1.8488 0.9732
-5.6644 -3.1478 -1.8345 0.9734
-3.1940 -5.4735 -1.7940 0.9740
-1.6409 -6.1545 -1.8032 0.9739
-0.5273 -6.4077 -1.8201 0.9736
0.6271 -6.4894 -1.8457 0.9733
1.2133 -6.4632 -1.8616 0.9730
2.3893 -6.2714 -1.8999 0.9725
2.9729 -6.1039 -1.9220 0.9722
4.6633 -5.3073 -2.0000 0.9711
2.3370 -0.9985 -0.7194 0.9895
6.8498 -2.2286 -2.0392 0.9705
7.1364 -1.6358 -2.0727 0.9700
7.3716 -1.0095 -2.1063 0.9695
7.5506 -0.3542 -2.1399 0.9691
7.6687 0.3249 -2.1729 0.9686
7.7220 1.0219 -2.2051 0.9681
7.7070 1.7298 -2.2361 0.9677
7.4395 3.1387 -2.2858 0.9670
5.8052 3.7842 -1.9618 0.9716
5.1413 4.0475 -1.8524 0.9732
4.5425 4.2841 -1.7677 0.9744
2.9820 4.8968 -1.6231 0.9764
2.0336 5.2657 -1.5980 0.9768
1.0973 3.8260 -1.1268 0.9836
1.0838 5.6324 -1.6238 0.9764
-1.0879 6.4616 -1.8550 0.9731
-3.2612 7.0277 -2.1933 0.9683
-4.3231 6.1471 -2.1274 0.9692
-4.7769 5.6467 -2.0938 0.9697
-5.5209 4.5585 -2.0268 0.9707
-2.5865 1.7733 -0.8878 0.9870
-6.5078 3.6552 -2.1130 0.9694
-6.7044 3.0144 -2.0810 0.9699
-6.9185 1.7231 -2.0184 0.9708
-6.9436 1.0840 -1.9895 0.9712
-6.7165 -0.7609 -1.9136 0.9723
-6.0855 -2.4340 -1.8555 0.9731
-5.4722 -3.4227 -1.8272 0.9735
-4.7264 -4.2929 -1.8075 0.9738
-1.8681 -6.0803 -1.8007 0.9739
0.3820 -6.4869 -1.8396 0.9733
1.5542 -6.4270 -1.8719 0.9729
2.1425 -6.3274 -1.8912 0.9726
3.8779 -5.7400 -1.9610 0.9716
4.4344 -5.4458 -1.9881 0.9712
6.4370 -3.7760 -2.1127 0.9695
6.3640 -3.0061 -1.9925 0.9712
7.0219 -1.8894 -2.0586 0.9702
7.2793 -1.2767 -2.0922 0.9697
7.4825 -0.6330 -2.1258 0.9693
7.6267 0.0368 -2.1591 0.9688
7.7078 0.7271 -2.1917 0.9683
6.9085 3.3452 -2.1730 0.9686
6.1092 3.6635 -2.0166 0.9708
4.7876 4.1874 -1.8006 0.9739
4.2182 4.4120 -1.7280 0.9749
2.7038 5.0053 -1.6105 0.9766
1.2317 3.7566 -1.1192 0.9837
0.4004 2.8746 -0.8216 0.9880
-0.2462 6.1416 -1.7400 0.9748
-0.8272 6.3627 -1.8164 0.9737
-1.2713 5.7251 -1.6602 0.9759
-3.0136 7.1887 -2.2067 0.9681
-4.1165 6.3465 -2.1415 0.9690
-4.5926 5.8613 -2.1080 0.9695
-2.7056 1.6561 -0.8980 0.9869
-6.6305 3.2855 -2.0948 0.9697
-6.7896 2.6399 -2.0622 0.9702
-6.8920 1.9938 -2.0311 0.9706
-6.9342 0.7179 -1.9735 0.9714
-6.8783 0.0958 -1.9474 0.9718
-6.7742 -0.5110 -1.9232 0.9722
-6.4306 -1.6676 -1.8807 0.9728
-6.1959 -2.2124 -1.8625 0.9730
-5.9225 -2.7319 -1.8464 0.9733
-5.6128 -3.2242 -1.8324 0.9734
-5.2690 -3.6876 -1.8206 0.9736
-4.8933 -4.1204 -1.8110 0.9738
-4.4880 -4.5212 -1.8035 0.9739
-4.0553 -4.8887 -1.7981 0.9739
-3.5973 -5.2214 -1.7950 0.9740
-2.6137 -5.7778 -1.7952 0.9740
-2.0924 -5.9990 -1.7986 0.9739
-1.0017 -6.3216 -1.8119 0.9737
-0.4368 -6.4206 -1.8218 0.9736
0.7201 -6.4883 -1.8481 0.9732
1.8953 -6.3750 -1.8828 0.9727
2.4825 -6.2480 -1.9033 0.9724
4.2023 -5.5755 -1.9765 0.9714
5.2754 -4.8800 -2.0344 0.9706
6.6724 -3.4636 -2.1282 0.9692
2.3264 -0.9552 -0.7119 0.9896
7.6817 0.4347 -2.1781 0.9685
7.7243 1.1339 -2.2101 0.9681
7.6981 1.8430 -2.2408 0.9676
6.4310 3.5355 -2.0775 0.9700
5.0423 4.0867 -1.8374 0.9734
4.4521 4.3198 -1.7561 0.9745
3.9785 4.6170 -1.7254 0.9750
3.4570 4.8216 -1.6796 0.9756
1.9589 5.2947 -1.5982 0.9768
0.2341 2.6936 -0.7654 0.9888
-0.0154 6.0536 -1.7137 0.9751
-0.5768 6.2675 -1.7818 0.9742
-1.1895 6.5001 -1.8707 0.9729
-2.7581 7.3402 -2.2198 0.9679
-5.2350 5.0281 -2.0549 0.9703
-5.5705 4.4681 -2.0216 0.9707
-6.5463 3.5556 -2.1089 0.9695
-6.9260 1.6209 -2.0137 0.9709
-6.9079 0.3557 -1.9582 0.9717
-6.6926 -0.8546 -1.9100 0.9723
-6.2994 -1.9863 -1.8699 0.9729
-5.7473 -3.0206 -1.8380 0.9734
-5.4175 -3.4964 -1.8253 0.9736
-5.0550 -3.9422 -1.8148 0.9737
-4.6619 -4.3567 -1.8064 0.9738
-3.7928 -5.0858 -1.7961 0.9740
-2.8273 -5.6733 -1.7945 0.9740
-2.3097 -5.4402 -1.8179 0.9756
-1.3142 -5.7940 -1.8274 0.9754
-0.2674 -5.9926 -1.8450 0.9752
0.2693 -6.0312 -1.8569 0.9751
0.8117 -6.0278 -1.8708 0.9749
1.9023 -5.8920 -1.9044 0.9744
2.4447 -5.7578 -1.9240 0.9742
3.5076 -5.3541 -1.9687 0.9736
4.5174 -4.7680 -2.0202 0.9729
5.4422 -4.0008 -2.0776 0.9721
5.8619 -3.5514 -2.1081 0.9717
6.3980 -1.8192 -2.0459 0.9725
6.6325 -1.2605 -2.0765 0.9721
7.0232 0.5621 -2.1671 0.9709
7.0370 1.2013 -2.1957 0.9706
6.9877 1.8462 -2.2230 0.9702
5.5088 3.8930 -2.0748 0.9722
4.3001 4.3717 -1.8861 0.9747
3.8345 4.6657 -1.8575 0.9750
2.3031 5.1538 -1.7363 0.9767
1.3610 5.5183 -1.7482 0.9765
-0.1578 6.1000 -1.8768 0.9748
-1.3583 6.5554 -2.0591 0.9724
-1.7697 5.8548 -1.8813 0.9747
-2.6590 6.6041 -2.1897 0.9706
-4.1356 5.4352 -2.1007 0.9718
-4.8878 4.4802 -2.0394 0.9726
-5.1892 3.9669 -2.0090 0.9730
-6.0711 3.1163 -2.0990 0.9718
-6.2409 2.5291 -2.0712 0.9722
-6.3511 1.9354 -2.0421 0.9726
-6.4197 0.7568 -1.9882 0.9733
-6.3817 0.1795 -1.9637 0.9736
-6.1708 -0.9347 -1.9197 0.9742
-6.0022 -1.4660 -1.9004 0.9745
-5.7943 -1.9768 -1.8831 0.9747
-5.5493 -2.4649 -1.8677 0.9749
-4.6135 -3.7742 -1.8334 0.9754
-2.9759 -5.0997 -1.8161 0.9756
-2.0275 -5.5582 -1.8198 0.9755
-1.0153 -5.8679 -1.8317 0.9754
0.0428 -6.0200 -1.8517 0.9751
0.5831 -6.0344 -1.8647 0.9749
2.2172 -5.8197 -1.9155 0.9743
3.2876 -5.4541 -1.9588 0.9737
4.3110 -4.9063 -2.0089 0.9730
5.2565 -4.1769 -2.0651 0.9723
5.6893 -3.7456 -2.0951 0.9719
6.0789 -3.2659 -2.1225 0.9715
2.3319 -0.9963 -0.7800 0.9894
6.2855 -2.0450 -2.0330 0.9727
6.9005 -0.3237 -2.1248 0.9715
6.9992 0.2965 -2.1547 0.9711
7.0163 1.5748 -2.2117 0.9704
5.7966 3.7786 -2.1283 0.9715
3.5337 4.7838 -1.8293 0.9754
2.5012 5.0768 -1.7407 0.9766
2.0311 5.2593 -1.7341 0.9767
0.2838 2.8037 -0.8668 0.9883
0.0700 6.0131 -1.8496 0.9751
-1.0864 6.4525 -2.0126 0.9730
-1.4849 5.6726 -1.8036 0.9758
-2.4223 6.7353 -2.2015 0.9705
-2.9740 6.4089 -2.1731 0.9709
-3.4853 6.0355 -2.1437 0.9713
-3.9528 5.6206 -2.1135 0.9717
-4.3737 5.1701 -2.0829 0.9721
-2.5897 1.7755 -0.9658 0.9869
-5.5625 3.1243 -1.9623 0.9737
-6.1791 2.7782 -2.0838 0.9720
-6.3111 2.1851 -2.0542 0.9724
-6.4216 1.0025 -1.9991 0.9732
-6.3387 -0.1495 -1.9502 0.9738
-5.8864 -1.7646 -1.8901 0.9746
-5.6567 -2.2625 -1.8739 0.9748
-5.3912 -2.7366 -1.8596 0.9750
-4.7614 -3.6058 -1.8371 0.9753
-4.0140 -4.3592 -1.8226 0.9755
-3.6013 -4.6888 -1.8185 0.9756
-3.1656 -4.9852 -1.8164 0.9756
-2.2328 -5.4738 -1.8183 0.9756
-1.7400 -5.6636 -1.8224 0.9755
-1.2326 -5.8156 -1.8285 0.9754
-0.7126 -5.9286 -1.8366 0.9753
-0.1825 -6.0015 -1.8468 0.9752
1.4438 -5.9704 -1.8893 0.9746
1.9888 -5.8736 -1.9074 0.9744
3.0655 -5.5460 -1.9491 0.9738
4.1012 -5.0367 -1.9978 0.9732
5.0659 -4.3451 -2.0528 0.9725
5.9255 -3.4760 -2.1130 0.9717
5.8508 -2.7637 -1.9902 0.9733
6.4384 -1.7324 -2.0507 0.9725
6.6654 -1.1690 -2.0814 0.9721
7.0334 1.3037 -2.2002 0.9705
6.6593 3.2246 -2.2757 0.9695
5.4036 3.9348 -2.0560 0.9724
3.7510 4.6985 -1.8492 0.9752
2.7005 4.9991 -1.7476 0.9765
2.2284 5.1828 -1.7352 0.9767
0.4049 2.9069 -0.9027 0.9878
0.1326 2.6953 -0.8300 0.9888
-0.8261 6.3539 -1.9708 0.9735
-2.1794 6.8571 -2.2131 0.9703
-2.7467 6.5522 -2.1852 0.9707
-3.7618 5.7997 -2.1263 0.9715
-4.2026 5.3635 -2.0958 0.9719
-4.9391 4.3999 -2.0345 0.9727
-6.3639 1.8410 -2.0376 0.9727
-6.3714 0.0888 -1.9599 0.9737
-6.1467 -1.0205 -1.9165 0.9743
-5.9717 -1.5486 -1.8975 0.9745
-5.7578 -2.0560 -1.8805 0.9747
-4.9042 -3.4323 -1.8411 0.9753
-3.3515 -4.8647 -1.8170 0.9756
-2.9032 -5.1414 -1.8161 0.9756
-2.4351 -5.3830 -1.8172 0.9756
-1.9492 -5.5884 -1.8204 0.9755
-0.9326 -5.8859 -1.8329 0.9754
1.2143 -5.9979 -1.8823 0.9747
2.3034 -5.7972 -1.9187 0.9742
2.8416 -5.6299 -1.9397 0.9740
3.3711 -5.4172 -1.9625 0.9737
5.3273 -4.1112 -2.0698 0.9722
6.1344 -3.1843 -2.1259 0.9715
7.0394 1.0334 -2.1884 0.9707
6.9099 2.3222 -2.2421 0.9700
6.4208 3.5299 -2.2537 0.9698
5.6860 3.8226 -2.1074 0.9717
3.9734 4.6111 -1.8722 0.9748
3.4526 4.8156 -1.8225 0.9755
2.9016 4.9207 -1.7570 0.9764
1.9565 5.2882 -1.7343 0.9767
1.4853 5.4703 -1.7435 0.9766
1.0052 5.6552 -1.7667 0.9762
0.2341 2.6943 -0.8318 0.9887
-0.0154 6.0457 -1.8595 0.9750
-0.5760 6.2590 -1.9333 0.9740
-1.1878 6.4909 -2.0296 0.9728
-2.5126 6.6867 -2.1971 0.9705
-2.5879 1.7207 -0.9559 0.9871
-6.2035 2.6841 -2.0790 0.9721
-6.3273 2.0906 -2.0496 0.9725
-6.3996 1.4977 -2.0216 0.9729
-6.4219 0.9094 -1.9949 0.9732
-6.3962 0.3294 -1.9699 0.9736
-6.3242 -0.2390 -1.9466 0.9739
-6.2082 -0.7927 -1.9250 0.9741
-5.8523 -1.8453 -1.8874 0.9746
-5.6168 -2.3396 -1.8715 0.9749
-5.3459 -2.8096 -1.8575 0.9750
-4.7061 -3.6701 -1.8356 0.9753
-4.3415 -4.0573 -1.8277 0.9754
-3.5335 -4.7382 -1.8180 0.9756
-3.0943 -5.0292 -1.8162 0.9756
-2.6342 -5.2858 -1.8165 0.9756
-2.1555 -5.5065 -1.8188 0.9756
-1.7013 -5.2699 -1.8408 0.9769
-1.2286 -5.4166 -1.8462 0.9769
-0.7440 -5.5265 -1.8536 0.9768
0.2515 -5.6324 -1.8741 0.9765
0.7577 -5.6265 -1.8872 0.9764
2.2776 -5.3643 -1.9372 0.9757
4.1943 -4.4270 -2.0271 0.9746
5.4257 -3.2872 -2.1087 0.9736
2.3680 -0.9083 -0.8431 0.9894
6.1112 -1.1614 -2.0677 0.9741
6.2744 -0.6206 -2.0958 0.9738
6.3880 -0.0598 -2.1235 0.9734
6.4490 0.5161 -2.1505 0.9731
6.2924 2.2793 -2.2246 0.9722
6.1224 2.8581 -2.2459 0.9719
4.8692 4.1383 -2.1241 0.9734
3.7609 4.5762 -1.9690 0.9753
3.2570 4.7741 -1.9211 0.9759
2.7729 4.9634 -1.8899 0.9763
1.3593 5.5114 -1.8869 0.9764
0.1692 2.6669 -0.8883 0.9888
-0.1576 6.0919 -2.0256 0.9746
-1.7617 5.8283 -2.0240 0.9747
-2.9337 5.7471 -2.1449 0.9732
-3.8070 5.0034 -2.0899 0.9738
-2.6304 1.6619 -1.0343 0.9870
-5.2223 2.6807 -1.9513 0.9756
-5.7842 2.3440 -2.0746 0.9740
-5.8923 1.7956 -2.0476 0.9744
-5.9372 0.1670 -1.9743 0.9753
-5.8641 -0.3588 -1.9529 0.9755
-5.7500 -0.8709 -1.9331 0.9758
-5.5967 -1.3669 -1.9151 0.9760
-5.1804 -2.3010 -1.8842 0.9764
-4.9215 -2.7350 -1.8716 0.9765
-4.6314 -3.1444 -1.8608 0.9767
-3.5940 -4.2095 -1.8399 0.9769
-3.1991 -4.5054 -1.8368 0.9770
-2.3481 -5.0006 -1.8363 0.9770
-1.8960 -5.1976 -1.8391 0.9769
-1.4289 -5.3593 -1.8437 0.9769
0.0400 -5.6230 -1.8692 0.9766
2.0663 -5.4236 -1.9292 0.9758
2.5669 -5.2704 -1.9487 0.9756
4.0043 -4.5573 -2.0166 0.9748
4.4501 -4.2353 -2.0421 0.9744
5.2685 -3.4685 -2.0967 0.9738
2.3267 -0.9941 -0.8410 0.9894
6.0286 -1.3819 -2.0559 0.9743
6.3465 -0.2977 -2.1119 0.9736
6.4318 1.4436 -2.1912 0.9726
6.3461 2.0329 -2.2151 0.9723
6.2011 2.6162 -2.2372 0.9720
5.7336 3.7375 -2.2750 0.9716
5.1268 4.0360 -2.1689 0.9729
3.9810 4.4895 -1.9945 0.9750
1.0962 3.8219 -1.3217 0.9834
1.0811 5.6184 -1.9019 0.9762
0.0699 6.0052 -1.9963 0.9750
-0.4831 6.2155 -2.0723 0.9741
-1.0848 6.4433 -2.1719 0.9728
-1.4830 5.6652 -1.9466 0.9756
-2.2214 6.1766 -2.1819 0.9727
-2.7302 5.8836 -2.1560 0.9730
-3.2032 5.5469 -2.1292 0.9734
-4.3770 4.3251 -2.0454 0.9744
-4.6799 3.8641 -2.0174 0.9747
-5.7195 2.5716 -2.0845 0.9739
-5.9331 1.4777 -2.0325 0.9746
-5.9668 0.9315 -2.0074 0.9749
-5.9000 -0.1392 -1.9617 0.9754
-5.8029 -0.6574 -1.9412 0.9757
-5.2795 -2.1117 -1.8901 0.9763
-5.0343 -2.5554 -1.8767 0.9765
-4.7570 -2.9753 -1.8651 0.9766
-4.4498 -3.3698 -1.8554 0.9767
-3.7531 -4.0759 -1.8418 0.9769
-2.9605 -4.6623 -1.8358 0.9770
-2.0880 -5.1190 -1.8377 0.9770
-1.1522 -5.4366 -1.8473 0.9768
-0.1705 -5.6067 -1.8646 0.9766
0.3318 -5.6341 -1.8761 0.9765
0.8384 -5.6219 -1.8894 0.9763
1.3468 -5.5692 -1.9046 0.9761
1.8540 -5.4754 -1.9216 0.9759
2.8534 -5.1624 -1.9607 0.9754
4.2653 -4.3758 -2.0312 0.9746
4.6981 -4.0297 -2.0575 0.9742
5.4815 -3.2155 -2.1125 0.9736
5.4086 -2.5548 -1.9883 0.9751
5.6929 -2.0914 -2.0160 0.9748
6.2958 -0.5326 -2.1002 0.9737
6.4013 0.0309 -2.1279 0.9734
6.4537 0.6088 -2.1548 0.9730
6.3893 1.7855 -2.2052 0.9724
6.2693 2.3721 -2.2281 0.9721
6.0899 2.9489 -2.2491 0.9719
5.3957 3.9291 -2.2187 0.9723
4.2071 4.4003 -2.0236 0.9747
2.2256 5.1764 -1.8730 0.9765
1.1843 3.6120 -1.2636 0.9841
1.2834 5.5407 -1.8905 0.9763
0.4292 3.0815 -1.0342 0.9870
0.1315 2.6732 -0.8897 0.9888
-2.5204 6.0124 -2.1671 0.9729
-3.0089 5.6935 -2.1406 0.9732
-3.4596 5.3338 -2.1133 0.9736
-3.8694 4.9383 -2.0854 0.9739
-4.8344 3.5882 -2.0013 0.9749
-2.6888 1.6458 -1.0479 0.9868
-5.6419 2.7957 -2.0930 0.9738
-5.8046 2.2569 -2.0702 0.9741
-5.9051 1.7083 -2.0434 0.9744
-5.9655 0.6176 -1.9936 0.9750
-5.8487 -0.4412 -1.9497 0.9756
-4.5825 -3.2071 -1.8592 0.9767
-3.9081 -3.9370 -1.8440 0.9769
-2.7152 -4.8084 -1.8356 0.9770
-2.2773 -5.0342 -1.8367 0.9770
-0.8717 -5.5014 -1.8515 0.9768
0.1199 -5.6274 -1.8710 0.9766
0.6250 -5.6319 -1.8836 0.9764
1.6410 -5.5199 -1.9142 0.9760
2.1464 -5.4020 -1.9322 0.9758
2.6459 -5.2422 -1.9519 0.9756
4.5190 -4.1802 -2.0463 0.9744
5.3286 -3.4007 -2.1012 0.9737
5.6707 -2.9437 -2.1238 0.9734
6.0608 -1.2990 -2.0604 0.9742
6.3633 -0.2081 -2.1163 0.9735
6.1726 2.7080 -2.2406 0.9720
5.9587 3.2758 -2.2603 0.9717
5.0281 4.0752 -2.1514 0.9731
4.4401 4.3082 -2.0565 0.9743
3.3865 4.7233 -1.9319 0.9758
2.4231 5.0997 -1.8768 0.9765
1.4835 5.4636 -1.8819 0.9764
-0.5752 6.2504 -2.0864 0.9739
-1.1861 6.4816 -2.1903 0.9726
-1.5770 5.6932 -1.9637 0.9754
-2.3046 6.1331 -2.1779 0.9728
-3.7022 5.1086 -2.0972 0.9738
-4.0873 4.6948 -2.0691 0.9741
-4.7238 3.7890 -2.0129 0.9748
-2.5891 1.7215 -1.0335 0.9870
-5.1768 2.8118 -1.9582 0.9755
-5.7466 2.4863 -2.0813 0.9740
-5.9416 1.3905 -2.0284 0.9746
-5.8873 -0.2225 -1.9584 0.9755
-5.7837 -0.7385 -1.9381 0.9757
-5.4595 -1.7214 -1.9028 0.9762
-5.2427 -2.1837 -1.8878 0.9763
-4.9923 -2.6238 -1.8747 0.9765
-4.7101 -3.0398 -1.8634 0.9766
-4.3983 -3.4300 -1.8540 0.9768
-4.0587 -3.7929 -1.8466 0.9769
-3.6934 -4.1271 -1.8410 0.9769
-3.3045 -4.4310 -1.8374 0.9770
-2.0266 -4.7735 -1.8545 0.9782
-1.5961 -4.9440 -1.8579 0.9782
-0.6977 -5.1825 -1.8700 0.9780
0.2357 -5.2782 -1.8894 0.9778
0.7097 -5.2703 -1.9017 0.9777
1.1852 -5.2244 -1.9158 0.9775
3.0468 -4.6507 -1.9882 0.9767
4.6931 -3.4501 -2.0830 0.9756
5.0431 -3.0553 -2.1086 0.9753
2.3718 -0.9097 -0.9084 0.9893
5.6596 -1.0756 -2.0601 0.9758
5.9042 -0.0553 -2.1115 0.9752
5.9548 0.4766 -2.1363 0.9749
5.9016 1.5593 -2.1829 0.9744
5.6341 2.6301 -2.2235 0.9739
5.4194 3.1461 -2.2409 0.9737
4.8342 4.1085 -2.2687 0.9734
4.2885 4.3599 -2.1870 0.9744
2.7694 4.9572 -2.0306 0.9762
1.2952 3.7686 -1.4251 0.9832
1.3576 5.5045 -2.0274 0.9762
0.4789 3.1144 -1.1268 0.9867
-0.1574 6.0836 -2.1763 0.9745
-2.7094 5.3077 -2.1311 0.9750
-3.1344 4.9861 -2.1061 0.9753
-3.8726 4.2441 -2.0546 0.9759
-5.3794 2.1800 -2.0757 0.9756
-5.4898 1.6729 -2.0523 0.9759
-5.5510 1.1633 -2.0282 0.9762
-5.5690 0.6565 -2.0053 0.9765
-5.5451 0.1560 -1.9838 0.9767
-5.2375 -1.2792 -1.9280 0.9774
-5.0620 -1.7269 -1.9126 0.9775
-4.8530 -2.1556 -1.8989 0.9777
-4.0439 -3.3082 -1.8684 0.9780
-3.3718 -3.9493 -1.8570 0.9782
-3.0017 -4.2273 -1.8541 0.9782
-1.7788 -4.8764 -1.8562 0.9782
-0.8901 -5.1440 -1.8669 0.9781
0.0375 -5.2702 -1.8847 0.9779
0.5101 -5.2782 -1.8963 0.9777
1.9328 -5.0731 -1.9414 0.9772
2.3995 -4.9266 -1.9596 0.9770
3.3037 -4.5152 -2.0007 0.9765
4.5367 -3.6049 -2.0722 0.9757
4.9005 -3.2262 -2.0981 0.9754
5.2202 -2.8045 -2.1191 0.9751
5.3800 -1.7504 -2.0232 0.9763
5.8682 -0.2753 -2.1008 0.9754
5.9610 0.7888 -2.1503 0.9748
5.9304 1.3311 -2.1735 0.9745
5.8464 1.8729 -2.1954 0.9743
5.7083 2.4083 -2.2156 0.9740
5.5162 2.9314 -2.2339 0.9738
3.7443 4.2226 -2.0182 0.9763
3.3123 4.4842 -1.9936 0.9766
2.4950 5.0642 -2.0188 0.9763
1.0797 5.6113 -2.0435 0.9760
0.0699 5.9972 -2.1448 0.9748
-0.4825 6.2069 -2.2263 0.9739
-1.0252 6.0894 -2.2083 0.9741
-2.5205 5.4317 -2.1413 0.9749
-2.9600 5.1258 -2.1167 0.9752
-3.3642 4.7836 -2.0913 0.9755
-3.7304 4.4097 -2.0655 0.9758
-4.0568 4.0087 -2.0395 0.9761
-4.3419 3.5850 -2.0136 0.9764
-5.4508 1.8872 -2.0628 0.9758
-5.3008 -1.0858 -1.9350 0.9773
-4.4592 -2.7890 -1.8809 0.9779
-4.1725 -3.1598 -1.8717 0.9780
-3.8591 -3.5052 -1.8643 0.9781
-3.5209 -3.8237 -1.8588 0.9782
-2.7779 -4.3747 -1.8532 0.9782
-2.3770 -4.6047 -1.8531 0.9782
-0.6245 -5.1954 -1.8713 0.9780
0.3109 -5.2794 -1.8912 0.9778
1.2608 -5.2136 -1.9182 0.9775
1.7346 -5.1229 -1.9342 0.9773
3.1178 -4.6148 -1.9916 0.9766
4.3757 -3.7532 -2.0616 0.9758
4.7510 -3.3899 -2.0871 0.9755
5.0929 -2.9875 -2.1115 0.9752
5.0231 -2.3727 -1.9866 0.9767
5.2820 -1.9405 -2.0123 0.9764
5.6857 -0.9972 -2.0643 0.9758
5.8238 -0.4927 -2.0901 0.9755
5.9156 0.0286 -2.1155 0.9752
5.9582 0.5620 -2.1402 0.9749
5.9497 1.1028 -2.1639 0.9746
5.8882 1.6455 -2.1864 0.9744
5.7730 2.1843 -2.2073 0.9741
5.1049 3.7173 -2.2582 0.9735
4.2014 4.3944 -2.1741 0.9745
3.4763 4.3544 -1.9925 0.9766
2.2229 5.1700 -2.0125 0.9764
1.2817 5.5337 -2.0313 0.9762
0.4313 3.0966 -1.1180 0.9868
-0.2452 6.1169 -2.1892 0.9743
-0.7991 6.1464 -2.2165 0.9740
-1.2724 5.7300 -2.0990 0.9754
-2.3259 5.5484 -2.1514 0.9748
-2.7793 5.2591 -2.1272 0.9750
-3.1987 4.9316 -2.1021 0.9753
-3.5812 4.5705 -2.0764 0.9756
-3.9245 4.1803 -2.0505 0.9759
-4.8817 2.4190 -1.9483 0.9771
-5.4023 2.1005 -2.0728 0.9757
-5.5567 1.0824 -2.0245 0.9762
-5.5680 0.5764 -2.0018 0.9765
-5.0309 -1.7964 -1.9103 0.9776
-4.8168 -2.2218 -1.8969 0.9777
-4.5713 -2.6259 -1.8853 0.9779
-4.2964 -3.0069 -1.8753 0.9780
-3.9940 -3.3632 -1.8672 0.9781
-3.3144 -3.9954 -1.8564 0.9782
-2.1368 -4.7235 -1.8540 0.9782
-1.2695 -5.0483 -1.8615 0.9781
-0.3561 -5.2348 -1.8763 0.9780
1.0609 -5.2401 -1.9119 0.9775
1.5358 -5.1658 -1.9272 0.9774
2.4730 -4.8997 -1.9627 0.9770
2.9294 -4.7075 -1.9827 0.9767
5.6144 -1.2033 -2.0533 0.9759
5.7712 -0.7071 -2.0793 0.9756
5.8828 -0.1924 -2.1049 0.9753
5.9464 0.3365 -2.1299 0.9750
5.9596 0.8749 -2.1540 0.9747
5.8280 1.9586 -2.1987 0.9742
5.6814 2.4925 -2.2186 0.9740
4.9220 3.9892 -2.2657 0.9734
3.2492 4.5319 -1.9941 0.9766
2.8944 4.9083 -2.0377 0.9761
2.4201 5.0933 -2.0165 0.9763
1.0026 5.6409 -2.0488 0.9760
-1.1099 6.0654 -2.2051 0.9741
-2.1259 5.6576 -2.1613 0.9747
-2.5927 5.3856 -2.1375 0.9749
-3.7850 4.3476 -2.0614 0.9758
-4.3833 3.5159 -2.0095 0.9764
-4.8131 2.6142 -1.9587 0.9770
-5.3394 2.3102 -2.0805 0.9756
-5.4665 1.8062 -2.0588 0.9758
-5.5392 1.2964 -2.0344 0.9761
-5.5684 0.7885 -2.0112 0.9764
-5.5554 0.2861 -1.9893 0.9766
-5.5014 -0.2079 -1.9688 0.9769
-5.2776 -1.1593 -1.9323 0.9773
-4.9107 -2.0454 -1.9024 0.9777
-4.6782 -2.4587 -1.8899 0.9778
-4.4155 -2.8496 -1.8793 0.9779
-4.1244 -3.2165 -1.8704 0.9780
-3.8069 -3.5577 -1.8633 0.9781
-3.1005 -4.1575 -1.8546 0.9782
-2.7153 -4.4134 -1.8531 0.9782
-1.8912 -4.8314 -1.8554 0.9782
-1.9070 -4.4917 -1.8700 0.9793
-1.0840 -4.7795 -1.8781 0.9792
-0.6562 -4.8742 -1.8847 0.9792
1.1130 -4.9065 -1.9280 0.9787
1.9981 -4.7060 -1.9593 0.9783
2.4315 -4.5503 -1.9771 0.9781
2.8548 -4.3576 -1.9963 0.9779
3.2649 -4.1279 -2.0169 0.9777
3.6588 -3.8617 -2.0386 0.9775
4.0330 -3.5598 -2.0614 0.9772
5.0936 -1.4483 -2.0293 0.9776
5.2642 -1.0005 -2.0535 0.9773
5.3947 -0.5336 -2.0774 0.9770
5.2117 2.4329 -2.2041 0.9757
5.0102 2.9085 -2.2201 0.9755
4.7606 3.3643 -2.2339 0.9753
4.4649 3.7946 -2.2455 0.9752
4.1257 4.1944 -2.2546 0.9751
2.2945 5.1345 -2.1552 0.9762
1.2765 3.7143 -1.5051 0.9833
1.3558 5.4975 -2.1699 0.9760
0.8738 5.6825 -2.2032 0.9757
-0.1496 5.7828 -2.2168 0.9755
-0.6594 5.7041 -2.2005 0.9757
-1.6327 5.4015 -2.1625 0.9761
-2.5141 4.9251 -2.1191 0.9766
-2.9110 4.6305 -2.0960 0.9768
-3.2746 4.3036 -2.0724 0.9771
-3.6028 3.9484 -2.0483 0.9774
-4.1465 3.1698 -2.0001 0.9779
-2.6273 1.6599 -1.1909 0.9868
-4.5340 2.3274 -1.9530 0.9784
-5.0194 2.0341 -2.0755 0.9771
-5.1946 1.0886 -2.0339 0.9775
-5.2152 0.6148 -2.0124 0.9778
-5.1964 0.1462 -1.9921 0.9780
-5.1394 -0.3144 -1.9732 0.9782
-4.7543 -1.6220 -1.9251 0.9787
-4.5600 -2.0254 -1.9121 0.9789
-4.3356 -2.4094 -1.9008 0.9790
-4.0828 -2.7720 -1.8911 0.9791
-2.4575 -4.2113 -1.8685 0.9793
-1.2610 -4.7297 -1.8758 0.9793
-0.8372 -4.8384 -1.8817 0.9792
-0.4044 -4.9136 -1.8893 0.9791
0.0352 -4.9544 -1.8986 0.9790
0.4793 -4.9600 -1.9096 0.9789
0.9255 -4.9299 -1.9222 0.9787
1.3711 -4.8635 -1.9364 0.9786
2.2503 -4.6203 -1.9694 0.9782
4.5757 -3.0124 -2.0994 0.9768
2.3210 -0.9917 -0.9672 0.9892
5.0105 -1.6302 -2.0192 0.9777
5.1972 -1.1913 -2.0433 0.9774
5.5124 0.2336 -2.1144 0.9766
5.4950 1.2334 -2.1582 0.9762
5.2817 2.2283 -2.1968 0.9757
5.1008 2.7107 -2.2136 0.9756
4.5947 3.6171 -2.2409 0.9753
3.7376 4.2150 -2.1589 0.9762
2.9670 4.8722 -2.1861 0.9759
1.0943 3.8153 -1.5210 0.9831
1.0783 5.6041 -2.1870 0.9758
0.2839 2.8045 -1.0802 0.9880
-0.4464 5.7433 -2.2076 0.9756
-0.9489 5.6357 -2.1901 0.9758
-1.4346 5.4804 -2.1710 0.9760
-2.3380 5.0384 -2.1286 0.9765
-2.7480 4.7586 -2.1058 0.9767
-3.4692 4.1009 -2.0585 0.9773
-4.0450 3.3399 -2.0102 0.9778
-5.0939 1.7636 -2.0657 0.9772
-5.1739 1.2886 -2.0433 0.9774
-5.2114 0.8136 -2.0213 0.9777
-5.2091 0.3424 -2.0005 0.9779
-4.9752 -1.0191 -1.9462 0.9785
-4.8266 -1.4469 -1.9310 0.9786
-4.6455 -1.8581 -1.9174 0.9788
-3.9240 -2.9717 -1.8863 0.9791
-2.6140 -4.1167 -1.8688 0.9793
-1.4360 -4.6742 -1.8739 0.9793
-0.5873 -4.8861 -1.8859 0.9791
0.2922 -4.9620 -1.9048 0.9789
1.1839 -4.8959 -1.9303 0.9787
1.6281 -4.8083 -1.9454 0.9785
2.9210 -4.3235 -1.9995 0.9779
3.3288 -4.0880 -2.0203 0.9777
3.7197 -3.8161 -2.0422 0.9774
4.0905 -3.5085 -2.0652 0.9772
4.6839 -2.2125 -1.9851 0.9781
5.4115 -0.4578 -2.0812 0.9770
5.5270 0.5214 -2.1275 0.9765
5.4536 1.5240 -2.1700 0.9760
5.3431 2.0217 -2.1892 0.9758
5.1829 2.5097 -2.2068 0.9756
4.9736 2.9825 -2.2224 0.9755
4.4138 3.8604 -2.2471 0.9752
3.4543 4.3269 -2.1217 0.9766
2.9849 4.5114 -2.0730 0.9771
2.6903 4.9803 -2.1692 0.9760
2.2200 5.1634 -2.1538 0.9762
1.2177 3.7139 -1.4978 0.9834
1.2801 5.5266 -2.1740 0.9760
0.1314 2.6700 -1.0244 0.9886
-1.7066 5.3697 -2.1592 0.9762
-2.5794 4.8806 -2.1155 0.9766
-2.9711 4.5806 -2.0923 0.9769
-3.3292 4.2489 -2.0686 0.9771
-3.6516 3.8896 -2.0445 0.9774
-3.9366 3.5068 -2.0203 0.9777
-4.1831 3.1047 -1.9963 0.9779
-5.0412 1.9601 -2.0728 0.9771
-5.1459 1.4886 -2.0528 0.9773
-5.2006 1.0130 -2.0304 0.9776
-5.1899 0.0723 -1.9890 0.9780
-4.8932 -1.2689 -1.9372 0.9786
-4.7255 -1.6874 -1.9229 0.9787
-4.2972 -2.4685 -1.8991 0.9790
-3.1185 -3.7594 -1.8718 0.9793
-2.3975 -4.2457 -1.8685 0.9793
-1.6089 -4.6129 -1.8722 0.9793
-1.1943 -4.7492 -1.8766 0.9792
-0.7689 -4.8526 -1.8828 0.9792
0.5502 -4.9576 -1.9115 0.9789
0.9964 -4.9218 -1.9244 0.9787
1.4417 -4.8496 -1.9388 0.9786
3.1591 -4.1915 -2.0114 0.9778
3.5576 -3.9348 -2.0328 0.9775
3.9372 -3.6421 -2.0554 0.9773
2.3215 -0.9531 -0.9617 0.9893
5.3646 -0.6573 -2.0712 0.9771
5.4636 -0.1787 -2.0949 0.9769
5.5180 0.3123 -2.1180 0.9766
5.4853 1.3132 -2.1615 0.9761
5.2563 2.3060 -2.1996 0.9757
4.8304 3.2473 -2.2305 0.9754
4.2184 4.0931 -2.2525 0.9751
3.6589 4.2462 -2.1480 0.9763
3.1797 4.4349 -2.0912 0.9769
2.8907 4.9020 -2.1808 0.9759
1.9492 5.2684 -2.1527 0.9762
-1.0273 5.6142 -2.1872 0.9758
-1.9706 5.2444 -2.1470 0.9763
-2.8103 4.7109 -2.1021 0.9768
-3.1828 4.3920 -2.0786 0.9770
-3.5205 4.0438 -2.0546 0.9773
-3.8214 3.6704 -2.0305 0.9776
-2.5915 1.7232 -1.1926 0.9868
-4.4923 2.4400 -1.9591 0.9783
-4.6371 2.0063 -1.9362 0.9786
-5.1825 1.2129 -2.0397 0.9775
-4.9538 -1.0881 -1.9436 0.9785
-4.8000 -1.5135 -1.9287 0.9787
-3.8790 -3.0251 -1.8851 0.9791
-3.5812 -3.3467 -1.8784 0.9792
-3.2601 -3.6428 -1.8734 0.9793
-2.9174 -3.9120 -1.8701 0.9793
-2.5552 -4.1531 -1.8686 0.9793
-1.7989 -4.2373 -1.8840 0.9803
-1.4165 -4.3877 -1.8870 0.9803
-1.0224 -4.5076 -1.8917 0.9802
-0.2076 -4.6521 -1.9059 0.9801
1.0481 -4.6204 -1.9390 0.9797
1.4662 -4.5413 -1.9531 0.9796
1.8799 -4.4274 -1.9686 0.9794
2.6828 -4.0950 -2.0036 0.9791
3.4339 -3.6244 -2.0434 0.9787
3.7825 -3.3387 -2.0649 0.9784
4.1090 -3.0207 -2.0872 0.9782
4.4038 -2.6680 -2.1073 0.9780
2.3812 -0.9133 -1.0438 0.9890
4.7593 -1.3533 -2.0251 0.9788
5.1106 -0.0478 -2.0917 0.9782
5.1463 0.4119 -2.1130 0.9779
5.1383 0.8772 -2.1334 0.9777
4.9866 1.8063 -2.1707 0.9773
4.6527 2.7010 -2.2018 0.9770
3.0522 4.4739 -2.2166 0.9769
2.6743 4.7869 -2.2441 0.9766
2.2356 5.0027 -2.2426 0.9766
1.3059 5.2950 -2.2320 0.9767
-1.9429 4.8257 -2.1291 0.9778
-2.7141 4.3174 -2.0871 0.9782
-3.3643 3.6870 -2.0428 0.9787
-3.6389 3.3354 -2.0203 0.9789
-2.5878 1.6350 -1.2528 0.9869
-4.2469 2.1800 -1.9538 0.9796
-4.3761 1.7734 -1.9325 0.9798
-4.8761 1.0218 -2.0390 0.9787
-1.9549 0.2305 -0.8056 0.9915
-1.9474 -0.1191 -0.7985 0.9916
-1.9702 -0.2984 -0.8156 0.9914
-4.6285 -1.1305 -1.9500 0.9796
-4.2962 -1.9083 -1.9240 0.9799
-3.8490 -2.6132 -1.9041 0.9801
-3.3005 -3.2318 -1.8906 0.9802
-2.6645 -3.7525 -1.8836 0.9803
-1.5788 -4.3281 -1.8856 0.9803
-1.1894 -4.4609 -1.8895 0.9802
-0.3812 -4.6325 -1.9024 0.9801
0.4516 -4.6734 -1.9216 0.9799
1.2908 -4.5788 -1.9470 0.9796
2.1164 -4.3455 -1.9782 0.9793
2.5175 -4.1765 -1.9958 0.9791
2.9068 -3.9727 -2.0147 0.9789
3.9746 -3.1583 -2.0777 0.9783
4.5556 -2.4475 -2.1165 0.9779
4.6832 -1.5237 -2.0156 0.9789
5.1365 0.2176 -2.1041 0.9780
5.1131 1.1476 -2.1447 0.9776
4.9085 2.0709 -2.1804 0.9772
4.7378 2.5178 -2.1959 0.9771
3.2162 4.3540 -2.2154 0.9769
1.9722 5.1069 -2.2406 0.9766
1.5056 5.2494 -2.2351 0.9767
-0.8820 5.2387 -2.1742 0.9773
-1.3343 5.0974 -2.1565 0.9775
-1.7675 4.9145 -2.1375 0.9777
-2.9157 4.1460 -2.0744 0.9783
-3.5277 3.4858 -2.0298 0.9788
-2.5489 1.7475 -1.2648 0.9867
-4.3263 1.9452 -1.9414 0.9797
-2.0064 0.3132 -0.8311 0.9913
-1.9498 0.1282 -0.7997 0.9916
-1.9208 -0.0453 -0.7864 0.9917
-1.9559 -0.2216 -0.8056 0.9915
-4.5448 -1.3624 -1.9418 0.9797
-4.3760 -1.7503 -1.9289 0.9798
-3.4235 -3.1096 -1.8929 0.9802
-2.1101 -4.0878 -1.8828 0.9803
-1.7390 -4.2632 -1.8844 0.9803
-1.3545 -4.4088 -1.8877 0.9803
-0.5538 -4.6071 -1.8991 0.9801
-0.1417 -4.6580 -1.9073 0.9801
0.2754 -4.6759 -1.9170 0.9800
2.7447 -4.0626 -2.0066 0.9790
3.4907 -3.5812 -2.0468 0.9786
4.1586 -2.9672 -2.0909 0.9782
4.4465 -2.6084 -2.1099 0.9780
4.9363 -0.8658 -2.0511 0.9786
5.0479 -0.4270 -2.0734 0.9783
5.1192 0.0247 -2.0952 0.9781
5.1329 0.9514 -2.1365 0.9777
4.6184 2.7695 -2.2040 0.9770
4.3778 3.1879 -2.2164 0.9769
4.0953 3.5818 -2.2267 0.9768
3.7734 3.9466 -2.2347 0.9767
3.3748 4.2273 -2.2138 0.9769
2.6060 4.8242 -2.2441 0.9766
2.1639 5.0328 -2.2421 0.9766
1.2165 3.7102 -1.5980 0.9833
0.1328 2.6997 -1.1062 0.9884
-0.2149 5.3627 -2.1966 0.9771
-0.6871 5.2850 -2.1812 0.9772
-2.7704 4.2713 -2.0837 0.9782
-3.1068 3.9650 -2.0616 0.9785
-3.4103 3.6325 -2.0392 0.9787
-3.9127 2.9041 -1.9943 0.9792
-4.2699 2.1158 -1.9504 0.9796
-4.8822 0.9510 -2.0357 0.9787
-1.9120 0.0266 -0.7826 0.9918
-2.0865 -0.3464 -0.8656 0.9909
-4.6066 -1.1946 -1.9477 0.9796
-4.4507 -1.5892 -1.9342 0.9798
-4.2647 -1.9672 -1.9222 0.9799
-3.5426 -2.9830 -1.8955 0.9802
-3.2529 -3.2770 -1.8898 0.9802
-2.9417 -3.5462 -1.8857 0.9803
-2.2617 -4.0053 -1.8826 0.9803
-1.5177 -4.3513 -1.8861 0.9803
-1.1264 -4.4792 -1.8903 0.9802
-0.3157 -4.6406 -1.9037 0.9801
1.3572 -4.5653 -1.9493 0.9796
1.7723 -4.4606 -1.9644 0.9795
2.1809 -4.3209 -1.9809 0.9793
2.9674 -3.9371 -2.0178 0.9789
4.3319 -2.7646 -2.1032 0.9780
4.2819 -2.2227 -1.9745 0.9794
2.3204 -0.9527 -1.0266 0.9892
5.1447 0.7552 -2.1281 0.9778
5.0169 1.6860 -2.1661 0.9774
4.8844 2.1429 -2.1830 0.9772
4.7066 2.5874 -2.1982 0.9771
4.4842 3.0146 -2.2115 0.9769
0.2431 2.7971 -1.1491 0.9879
-0.0137 5.3815 -2.2025 0.9770
-0.4899 5.3233 -2.1879 0.9772
-1.4046 5.0710 -2.1536 0.9775
-3.2868 3.7753 -2.0487 0.9786
-3.8190 3.0632 -2.0037 0.9791
-4.7884 1.5821 -2.0640 0.9784
-4.8639 1.1383 -2.0445 0.9786
-1.9460 0.2756 -0.8044 0.9915
-1.9519 -0.2492 -0.8054 0.9915
-4.6627 -1.0242 -1.9538 0.9796
-4.3464 -1.8104 -1.9270 0.9799
-4.1437 -2.1778 -1.9159 0.9800
-3.9135 -2.5257 -1.9063 0.9801
-3.6575 -2.8524 -1.8983 0.9802
-3.3775 -3.1563 -1.8920 0.9802
-3.0750 -3.4361 -1.8872 0.9803
-2.7521 -3.6904 -1.8841 0.9803
-2.4105 -3.9179 -1.8827 0.9803
-2.0521 -4.1176 -1.8829 0.9803
-1.6787 -4.2884 -1.8848 0.9803
-1.7008 -4.0061 -1.8967 0.9812
-0.5847 -4.3434 -1.9100 0.9811
0.5932 -4.4049 -1.9371 0.9808
0.9894 -4.3613 -1.9490 0.9807
1.3835 -4.2849 -1.9624 0.9805
1.7729 -4.1756 -1.9771 0.9804
2.1552 -4.0333 -1.9930 0.9802
2.5276 -3.8582 -2.0102 0.9801
2.8874 -3.6505 -2.0285 0.9799
3.2317 -3.4109 -2.0478 0.9797
3.5575 -3.1401 -2.0680 0.9795
4.1346 -2.5049 -2.1068 0.9791
4.0787 -1.9979 -1.9793 0.9804
2.3960 -0.9190 -1.1184 0.9889
4.4611 -1.2685 -2.0213 0.9800
4.7805 -0.0448 -2.0835 0.9794
4.8002 0.8195 -2.1223 0.9790
4.3374 2.5180 -2.1858 0.9784
4.1179 2.9101 -2.1976 0.9782
2.4898 4.4567 -2.2249 0.9780
2.0815 4.6579 -2.2234 0.9780
1.2163 4.9316 -2.2137 0.9781
0.7691 5.0018 -2.2055 0.9782
0.1770 2.7897 -1.2182 0.9879
-1.0026 4.8384 -2.1535 0.9787
-1.4184 4.6926 -2.1365 0.9788
-2.1899 4.2900 -2.0992 0.9792
-2.5391 4.0391 -2.0792 0.9794
-2.8604 3.7593 -2.0587 0.9796
-3.4114 3.1269 -2.0168 0.9800
-2.5547 1.6140 -1.3170 0.9869
-1.5760 0.4803 -0.7181 0.9928
-1.5150 0.3175 -0.6746 0.9933
-1.5226 0.1795 -0.6682 0.9933
-1.5275 0.0430 -0.6660 0.9934
-1.5296 -0.0936 -0.6679 0.9933
-1.5124 -0.2291 -0.6666 0.9933
-1.5412 -0.3764 -0.6914 0.9931
-3.8599 -2.1450 -1.9245 0.9809
-1.8491 -3.9379 -1.8960 0.9812
0.4265 -4.4136 -1.9325 0.9808
0.8229 -4.3836 -1.9438 0.9807
1.9955 -4.0972 -1.9861 0.9803
3.0890 -3.5155 -2.0395 0.9798
3.4229 -3.2577 -2.0594 0.9796
3.7368 -2.9693 -2.0801 0.9794
3.9833 -2.1400 -1.9706 0.9805
4.3911 -1.4286 -2.0124 0.9801
4.6982 1.5050 -2.1500 0.9787
4.5790 1.9319 -2.1659 0.9785
4.2151 2.7477 -2.1928 0.9783
3.6927 3.4827 -2.2122 0.9781
3.3775 3.8089 -2.2186 0.9780
3.0304 4.1025 -2.2229 0.9780
2.6551 4.3600 -2.2248 0.9780
2.2556 4.5783 -2.2243 0.9780
0.9578 4.9778 -2.2092 0.9781
0.3012 2.9764 -1.3038 0.9870
0.0311 2.6728 -1.1649 0.9884
-0.3868 4.9759 -2.1751 0.9785
-0.8229 4.8879 -2.1602 0.9786
-1.2457 4.7587 -2.1438 0.9788
-2.3956 4.1483 -2.0877 0.9793
-3.0330 3.5853 -2.0467 0.9797
-2.8113 1.5790 -1.4052 0.9860
-4.0657 1.8280 -1.9428 0.9807
-1.5919 0.5511 -0.7342 0.9927
-1.5444 0.3846 -0.6936 0.9931
-1.5106 0.2358 -0.6663 0.9934
-1.5295 0.1005 -0.6680 0.9933
-1.5269 -0.0360 -0.6656 0.9934
-1.5237 -0.1726 -0.6683 0.9933
-1.5737 -0.4718 -0.7160 0.9929
-3.9461 -2.0030 -1.9286 0.9809
-3.4964 -2.6478 -1.9115 0.9810
-2.6517 -3.4524 -1.8972 0.9812
-1.9950 -3.8649 -1.8955 0.9812
-0.9062 -4.2758 -1.9049 0.9811
-0.5233 -4.3538 -1.9111 0.9810
-0.1339 -4.4009 -1.9189 0.9810
0.2601 -4.4165 -1.9281 0.9809
0.6562 -4.4002 -1.9389 0.9808
1.8343 -4.1552 -1.9795 0.9804
2.2152 -4.0077 -1.9957 0.9802
2.5858 -3.8273 -2.0130 0.9800
3.2848 -3.3699 -2.0509 0.9797
3.6075 -3.0942 -2.0713 0.9795
4.6233 -0.8108 -2.0456 0.9797
4.8119 0.4539 -2.1064 0.9791
4.7947 0.8887 -2.1252 0.9789
4.7357 1.3234 -2.1430 0.9788
4.4906 2.1744 -2.1744 0.9785
4.0794 2.9705 -2.1993 0.9782
3.8149 3.3366 -2.2088 0.9781
3.5141 3.6755 -2.2162 0.9781
2.8161 4.2563 -2.2242 0.9780
2.4263 4.4915 -2.2248 0.9780
2.0148 4.6860 -2.2230 0.9780
1.2188 3.7173 -1.7049 0.9831
0.1375 2.7950 -1.2196 0.9879
-0.2004 5.0002 -2.1809 0.9784
-0.6409 4.9300 -2.1667 0.9785
-1.0698 4.8179 -2.1509 0.9787
-1.8765 4.4763 -2.1153 0.9790
-3.1952 3.4035 -2.0345 0.9798
-2.5705 1.5735 -1.3135 0.9869
-1.5025 0.2927 -0.6671 0.9933
-1.5256 0.1579 -0.6685 0.9933
-1.5291 -0.1153 -0.6683 0.9933
-1.5511 -0.4022 -0.6983 0.9930
-1.5949 -0.5695 -0.7381 0.9926
-3.8261 -2.1979 -1.9230 0.9809
-3.5992 -2.5189 -1.9146 0.9810
-2.4683 -3.5827 -1.8961 0.9812
-2.1384 -3.7870 -1.8954 0.9812
-1.7933 -3.9643 -1.8962 0.9812
-1.4348 -4.1136 -1.8987 0.9812
-1.0648 -4.2340 -1.9027 0.9811
-0.6853 -4.3247 -1.9083 0.9811
0.0940 -4.4138 -1.9241 0.9809
1.6717 -4.2074 -1.9731 0.9804
2.0561 -4.0737 -1.9887 0.9803
2.4314 -3.9072 -2.0056 0.9801
2.7947 -3.7079 -2.0236 0.9799
4.5698 -0.9794 -2.0368 0.9798
4.8068 0.2720 -2.0982 0.9792
4.7656 1.1409 -2.1356 0.9788
4.5561 1.9988 -2.1683 0.9785
4.1792 2.8095 -2.1947 0.9783
3.9307 3.1857 -2.2050 0.9782
3.6448 3.5366 -2.2133 0.9781
3.3244 3.8579 -2.2195 0.9780
2.5931 4.3974 -2.2248 0.9780
1.3321 4.9059 -2.2155 0.9781
-0.0127 5.0167 -2.1864 0.9783
-0.4569 4.9647 -2.1729 0.9785
-1.7136 4.5604 -2.1232 0.9790
-2.0943 4.3505 -2.1043 0.9792
-2.4504 4.1076 -2.0845 0.9793
-3.0786 3.5362 -2.0433 0.9798
-3.3467 3.2144 -2.0223 0.9800
-3.5821 2.8732 -2.0013 0.9802
-2.5283 1.6811 -1.3232 0.9868
-4.0846 1.7673 -1.9396 0.9808
-1.5867 0.5242 -0.7283 0.9927
-1.5339 0.3590 -0.6866 0.9931
-1.5201 -0.1941 -0.6679 0.9933
-4.1042 -1.7095 -1.9376 0.9808
-3.9140 -2.0571 -1.9270 0.9809
-2.9070 -3.2483 -1.8998 0.9812
-2.6020 -3.4890 -1.8968 0.9812
-2.2791 -3.7043 -1.8955 0.9812
0.5613 -4.1681 -1.9468 0.9816
0.9359 -4.1254 -1.9581 0.9815
1.3082 -4.0517 -1.9708 0.9814
2.0362 -3.8105 -1.9999 0.9811
3.0485 -3.2176 -2.0517 0.9807
3.3540 -2.9605 -2.0708 0.9805
3.8919 -2.3579 -2.1063 0.9801
3.8385 -1.8802 -1.9785 0.9813
4.0304 -1.5459 -1.9981 0.9812
4.1932 -1.1923 -2.0179 0.9810
4.3246 -0.8219 -2.0376 0.9808
4.5108 0.3610 -2.0947 0.9803
4.4984 0.7680 -2.1124 0.9801
4.2260 1.9728 -2.1588 0.9797
3.8504 2.7211 -2.1824 0.9794
3.6077 3.0661 -2.1916 0.9793
3.0231 3.6784 -2.2039 0.9792
2.3262 4.1639 -2.2078 0.9792
1.2933 3.7632 -1.8419 0.9826
0.7190 4.6758 -2.1898 0.9794
-0.5349 4.6268 -2.1559 0.9797
-0.9387 4.5300 -2.1414 0.9798
-1.3287 4.3957 -2.1256 0.9800
-2.3825 3.7900 -2.0722 0.9805
-3.4222 2.6161 -1.9939 0.9812
-2.5464 1.6088 -1.3942 0.9868
-1.3280 0.5382 -0.6633 0.9937
-1.3332 0.1572 -0.6214 0.9941
-1.3385 -0.0819 -0.6207 0.9941
-1.3073 -0.3193 -0.6229 0.9941
-1.3336 -0.4550 -0.6523 0.9938
-1.3189 -0.5858 -0.6680 0.9937
-3.4434 -2.3378 -1.9265 0.9818
-3.2099 -2.6260 -1.9197 0.9819
-2.9548 -2.8934 -1.9143 0.9819
-2.0765 -3.5584 -1.9071 0.9820
-0.7066 -4.0838 -1.9184 0.9819
-0.3411 -4.1446 -1.9250 0.9818
0.0297 -4.1758 -1.9330 0.9818
0.4036 -4.1768 -1.9424 0.9817
2.5846 -3.5324 -2.0260 0.9809
3.2279 -3.0721 -2.0627 0.9806
3.5219 -2.7985 -2.0822 0.9804
3.7902 -2.4952 -2.1005 0.9802
3.7497 -2.0145 -1.9703 0.9814
4.1284 -1.3432 -2.0096 0.9810
4.2733 -0.9795 -2.0293 0.9809
4.5083 0.5966 -2.1050 0.9802
4.4734 1.0041 -2.1222 0.9800
4.3992 1.4093 -2.1382 0.9798
4.1328 2.1962 -2.1663 0.9796
3.7140 2.9238 -2.1880 0.9794
3.4513 3.2550 -2.1960 0.9793
3.1562 3.5593 -2.2020 0.9793
2.1074 4.2775 -2.2073 0.9792
1.7159 4.4431 -2.2047 0.9792
0.8953 4.6528 -2.1932 0.9793
0.3008 2.9721 -1.3828 0.9869
0.0308 2.6411 -1.2226 0.9884
-0.7703 4.5754 -2.1477 0.9798
-1.9082 4.1122 -2.0984 0.9802
-2.2473 3.8915 -2.0801 0.9804
-3.3355 2.7540 -2.0022 0.9811
-2.5040 1.7167 -1.4053 0.9867
-2.7500 1.5446 -1.4600 0.9862
-1.3173 0.5923 -0.6685 0.9937
-1.3093 0.3261 -0.6246 0.9941
-1.3239 0.2067 -0.6202 0.9941
-1.3385 0.0880 -0.6209 0.9941
-1.3341 -0.1511 -0.6215 0.9941
-1.3067 -0.2676 -0.6174 0.9941
-1.3257 -0.3974 -0.6406 0.9939
-3.5347 -2.2108 -1.9298 0.9818
-3.3108 -2.5072 -1.9224 0.9819
-3.0646 -2.7836 -1.9164 0.9819
-2.2087 -3.4784 -1.9073 0.9820
-1.8899 -3.6613 -1.9072 0.9820
-1.2129 -3.9477 -1.9117 0.9820
-0.1267 -4.1664 -1.9294 0.9818
0.2461 -4.1801 -1.9383 0.9817
0.9953 -4.1158 -1.9600 0.9815
