ply
format ascii 1.0
element vertex 1596
property float32 x
property float32 y
property float32 z
property float32 I
end_header
-9.0739 2.9895 -2.0195 0.9617
-9.0162 0.4490 -1.9082 0.9638
-8.6659 -1.1264 -1.8472 0.9649
-8.4085 -1.8693 -1.8208 0.9654
-7.3482 -3.8936 -1.7578 0.9666
-6.9092 -4.4948 -1.7423 0.9669
-6.4321 -5.0568 -1.7295 0.9671
-5.9194 -5.5785 -1.7193 0.9673
-4.1919 -6.8908 -1.7049 0.9676
-2.2261 -7.7994 -1.7145 0.9674
-0.8110 -8.1639 -1.7342 0.9670
-0.0787 -8.2694 -1.7481 0.9668
0.6670 -8.3216 -1.7647 0.9664
2.1881 -8.2590 -1.8060 0.9657
3.7286 -7.9614 -1.8583 0.9647
6.0100 -7.0420 -1.9569 0.9629
7.4560 -6.0950 -2.0356 0.9614
9.3711 -4.1489 -2.1663 0.9590
9.2262 -3.1323 -2.0596 0.9609
9.6827 -2.3468 -2.1060 0.9601
10.3947 -0.6117 -2.2010 0.9583
10.7826 1.3026 -2.2958 0.9566
7.8067 3.1974 -1.7832 0.9661
5.9950 3.8235 -1.5030 0.9713
5.2368 4.0411 -1.3982 0.9733
4.5617 4.2219 -1.3139 0.9749
3.9639 4.3889 -1.2501 0.9761
3.5864 4.7664 -1.2609 0.9759
3.0692 4.9441 -1.2301 0.9765
2.4501 4.8708 -1.1525 0.9780
1.9884 5.0285 -1.1430 0.9781
1.0690 5.3409 -1.1514 0.9780
0.5975 5.5081 -1.1711 0.9776
0.0501 2.6994 -0.5707 0.9890
-0.4203 5.9141 -1.2533 0.9761
-4.5001 9.8389 -2.2869 0.9567
-5.2506 9.2032 -2.2397 0.9576
-5.9232 8.5117 -2.1920 0.9585
-6.5154 7.7752 -2.1443 0.9594
-8.9193 4.0456 -2.0702 0.9607
-8.1668 -2.4388 -1.8016 0.9658
-7.8216 -3.1213 -1.7801 0.9662
-7.0010 -4.3766 -1.7452 0.9668
-6.5313 -4.9466 -1.7319 0.9671
-6.0256 -5.4766 -1.7212 0.9673
-3.6898 -7.1733 -1.7051 0.9676
-3.0386 -7.4860 -1.7078 0.9675
-1.6700 -7.9689 -1.7210 0.9673
-0.9570 -8.1363 -1.7317 0.9671
0.5156 -8.3155 -1.7611 0.9665
1.2702 -8.3239 -1.7799 0.9662
2.8021 -8.1693 -1.8256 0.9653
4.3425 -7.7737 -1.8822 0.9643
5.8597 -7.1224 -1.9496 0.9630
7.3145 -6.2030 -2.0272 0.9615
8.0038 -5.6401 -2.0697 0.9608
9.1271 -3.2836 -2.0503 0.9611
9.5955 -2.5100 -2.0965 0.9603
10.0015 -1.6792 -2.1437 0.9594
10.3365 -0.7958 -2.1914 0.9585
10.5920 0.1341 -2.2391 0.9576
10.7600 1.1031 -2.2864 0.9567
9.2832 2.6811 -2.0425 0.9613
7.0109 3.4750 -1.6540 0.9685
6.1519 3.7689 -1.5250 0.9709
4.6909 4.1867 -1.3291 0.9746
3.6942 4.7293 -1.2685 0.9758
3.1716 4.9089 -1.2354 0.9764
1.6229 5.1529 -1.1420 0.9782
1.1628 5.3091 -1.1488 0.9780
-0.3107 5.8690 -1.2423 0.9763
-0.8751 6.1041 -1.3035 0.9751
-1.5053 6.3747 -1.3845 0.9736
-5.1053 9.3363 -2.2493 0.9574
-9.0341 3.3426 -2.0361 0.9614
-9.1113 2.4715 -1.9955 0.9621
-9.1180 1.6157 -1.9574 0.9628
-9.0583 0.7798 -1.9218 0.9635
-8.7548 -0.8177 -1.8586 0.9647
-7.8949 -2.9864 -1.7842 0.9661
-6.1304 -5.3729 -1.7231 0.9672
-5.5977 -5.8701 -1.7146 0.9674
-4.4395 -6.7370 -1.7055 0.9676
-3.1719 -7.4266 -1.7070 0.9675
-1.8118 -7.9290 -1.7192 0.9673
-1.1023 -8.1066 -1.7293 0.9671
0.3646 -8.3071 -1.7576 0.9666
2.6467 -8.1955 -1.8205 0.9654
3.4175 -8.0411 -1.8469 0.9649
4.9528 -7.5452 -1.9078 0.9638
5.7087 -7.2001 -1.9423 0.9631
6.4502 -6.7882 -1.9794 0.9624
7.1718 -6.3082 -2.0190 0.9617
7.8672 -5.7593 -2.0610 0.9609
8.5297 -5.1410 -2.1052 0.9601
2.3677 -0.9005 -0.5355 0.9897
9.5058 -2.6708 -2.0871 0.9604
9.9250 -1.8513 -2.1341 0.9596
10.2750 -0.9781 -2.1817 0.9587
10.5473 -0.0570 -2.2295 0.9578
6.3134 3.7127 -1.5482 0.9705
4.1975 4.3228 -1.2736 0.9757
2.6392 4.8061 -1.1590 0.9778
1.7153 5.1215 -1.1417 0.9782
1.2562 5.2775 -1.1467 0.9781
0.1480 2.7037 -0.5724 0.9890
-0.2030 5.8251 -1.2320 0.9765
-0.7566 6.0541 -1.2897 0.9754
-1.8290 5.8435 -1.2943 0.9753
-4.1757 10.0771 -2.3057 0.9564
-4.9569 9.4671 -2.2589 0.9573
-5.6613 8.7968 -2.2113 0.9581
-6.2861 8.0772 -2.1635 0.9590
-6.8299 7.3189 -2.1161 0.9599
-7.2923 6.5319 -2.0694 0.9608
-8.5972 5.2881 -2.1335 0.9596
9.5566 1.5064 -2.2738 0.9610
8.4735 2.9531 -2.1090 0.9638
7.3768 3.3373 -1.9029 0.9673
5.6860 3.9223 -1.6234 0.9720
3.8065 4.5336 -1.3913 0.9760
3.3705 4.8333 -1.3849 0.9761
2.7692 4.8429 -1.3111 0.9773
2.2912 4.9967 -1.2919 0.9777
1.8257 5.1541 -1.2851 0.9778
-0.0503 2.8597 -0.6722 0.9883
-0.6546 6.0900 -1.4395 0.9751
-1.2527 6.2900 -1.5073 0.9740
-3.5490 9.0007 -2.2739 0.9610
-6.8180 5.2719 -2.0255 0.9652
-2.7993 1.4545 -0.7414 0.9871
-8.2626 1.7671 -1.9858 0.9659
-8.1705 0.2590 -1.9212 0.9670
-8.0387 -0.4652 -1.8924 0.9675
-7.8539 -1.1654 -1.8661 0.9679
-7.6194 -1.8389 -1.8421 0.9683
-7.3380 -2.4833 -1.8207 0.9687
-7.0128 -3.0966 -1.8017 0.9690
-5.3283 -5.2064 -1.7508 0.9699
-4.2904 -6.0356 -1.7404 0.9700
-3.7305 -6.3894 -1.7389 0.9701
-1.9132 -7.1930 -1.7493 0.9699
-0.6086 -7.5011 -1.7687 0.9696
0.0648 -7.5827 -1.7822 0.9693
0.7489 -7.6141 -1.7981 0.9691
2.1385 -7.5204 -1.8375 0.9684
3.5357 -7.2078 -1.8868 0.9675
8.7174 -1.9469 -2.0993 0.9640
9.0333 -1.1830 -2.1412 0.9633
9.4552 0.4616 -2.2248 0.9618
9.5481 1.3288 -2.2657 0.9612
9.5548 2.2149 -2.3051 0.9605
7.5808 3.2659 -1.9400 0.9667
6.6334 3.5919 -1.7729 0.9695
5.1361 4.1135 -1.5465 0.9733
3.4757 4.7971 -1.3923 0.9760
2.9640 4.9729 -1.3606 0.9765
2.3863 4.9655 -1.2948 0.9776
1.9191 5.1219 -1.2855 0.9778
0.0013 2.7869 -0.6550 0.9886
-2.5056 6.7071 -1.6827 0.9710
-4.1230 8.6005 -2.2416 0.9616
-4.7852 8.0462 -2.2002 0.9623
-7.6090 5.0591 -2.1475 0.9632
-8.0735 3.4875 -2.0669 0.9645
-8.1991 2.7012 -2.0289 0.9652
-8.2584 1.9228 -1.9928 0.9658
-8.2544 1.1569 -1.9589 0.9663
-7.8953 -1.0262 -1.8712 0.9678
-7.6705 -1.7052 -1.8468 0.9682
-7.3984 -2.3557 -1.8248 0.9686
-7.0819 -2.9755 -1.8053 0.9689
-5.8935 -4.6334 -1.7619 0.9697
-4.4002 -5.9592 -1.7410 0.9700
-3.2660 -6.6416 -1.7395 0.9700
-0.7430 -7.4787 -1.7663 0.9696
-0.0721 -7.5702 -1.7793 0.9694
0.6101 -7.6119 -1.7947 0.9691
1.9975 -7.5396 -1.8331 0.9685
2.6967 -7.4225 -1.8560 0.9681
3.3952 -7.2496 -1.8814 0.9676
4.7746 -6.7306 -1.9394 0.9667
5.4468 -6.3821 -1.9719 0.9661
6.1011 -5.9731 -2.0067 0.9655
6.7320 -5.5031 -2.0435 0.9649
7.3336 -4.9720 -2.0823 0.9642
8.2579 -2.8035 -2.0496 0.9648
8.9748 -1.3407 -2.1327 0.9634
9.2371 -0.5436 -2.1747 0.9627
9.5361 1.1520 -2.2575 0.9613
7.7928 3.1917 -1.9792 0.9660
4.0363 4.4691 -1.4153 0.9756
2.4821 4.9344 -1.2981 0.9776
1.0850 5.4204 -1.2992 0.9775
0.6077 5.6023 -1.3244 0.9771
0.0496 2.6763 -0.6291 0.9891
-0.4274 6.0139 -1.4170 0.9755
-1.0046 6.2071 -1.4778 0.9745
-1.6387 6.4187 -1.5569 0.9731
-1.9976 5.6570 -1.4100 0.9757
-3.9816 8.7054 -2.2498 0.9614
-5.2660 7.5673 -2.1667 0.9628
-6.2768 6.2571 -2.0830 0.9642
-6.6766 5.5591 -2.0419 0.9649
-7.0063 4.8430 -2.0017 0.9656
-8.0399 3.6467 -2.0748 0.9644
-8.1792 2.8595 -2.0364 0.9650
-8.2516 2.0790 -1.9999 0.9656
-8.2602 1.3103 -1.9656 0.9662
-8.2080 0.5575 -1.9335 0.9668
-8.0985 -0.1757 -1.9038 0.9673
-7.9347 -0.8859 -1.8764 0.9677
-7.4570 -2.2268 -1.8290 0.9685
-6.7992 -3.4469 -1.7916 0.9692
-6.4099 -4.0071 -1.7766 0.9694
-5.5233 -5.0200 -1.7542 0.9698
-4.5090 -5.8811 -1.7417 0.9700
-3.9595 -6.2516 -1.7392 0.9701
-3.3849 -6.5804 -1.7392 0.9701
-2.7871 -6.8664 -1.7416 0.9700
-0.2084 -7.5557 -1.7764 0.9694
0.4717 -7.6076 -1.7914 0.9692
1.1610 -7.6084 -1.8088 0.9689
3.2545 -7.2891 -1.8761 0.9677
3.9497 -7.0705 -1.9034 0.9673
4.6371 -6.7936 -1.9331 0.9668
6.6068 -5.6029 -2.0359 0.9650
7.7887 -4.5046 -2.1146 0.9637
8.1730 -2.9404 -2.0414 0.9649
9.1899 -0.7076 -2.1662 0.9628
9.3944 0.1189 -2.2081 0.9621
9.5207 0.9760 -2.2493 0.9614
9.5628 1.8556 -2.2894 0.9608
9.2643 2.6757 -2.2663 0.9612
4.7565 4.2453 -1.4984 0.9741
4.1547 4.4364 -1.4285 0.9753
3.6896 4.7235 -1.4086 0.9757
3.1678 4.9030 -1.3719 0.9763
2.5785 4.9034 -1.3020 0.9775
-1.5052 6.3742 -1.5393 0.9734
-1.8523 5.5634 -1.3781 0.9762
-3.8376 8.8079 -2.2580 0.9613
-4.5257 8.2764 -2.2170 0.9620
-5.7031 7.0611 -2.1332 0.9634
-6.1876 6.3951 -2.0914 0.9641
-6.6016 5.7017 -2.0501 0.9648
-2.6833 1.5844 -0.7324 0.9873
-8.0034 3.8059 -2.0828 0.9642
-8.2422 2.2357 -2.0071 0.9655
-7.9719 -0.7446 -1.8817 0.9676
-7.5138 -2.0967 -1.8334 0.9685
-6.0726 -4.4289 -1.7665 0.9696
-2.2948 -7.0630 -1.7454 0.9699
-1.0100 -7.4279 -1.7618 0.9697
-0.3443 -7.5392 -1.7737 0.9695
2.4144 -7.4764 -1.8465 0.9682
3.1136 -7.3262 -1.8709 0.9678
5.8395 -6.1455 -1.9924 0.9658
6.4805 -5.7001 -2.0284 0.9652
7.0947 -5.1937 -2.0665 0.9645
7.6759 -4.6264 -2.1064 0.9638
2.3688 -0.9009 -0.5956 0.9896
8.8497 -1.6507 -2.1158 0.9637
9.5614 1.6767 -2.2814 0.9609
7.1891 3.4030 -1.8693 0.9678
4.8823 4.2016 -1.5139 0.9739
3.2710 4.8675 -1.3783 0.9762
1.2736 5.3507 -1.2927 0.9777
0.8024 5.5271 -1.3126 0.9773
0.1471 2.6874 -0.6325 0.9890
-0.2066 5.9299 -1.3945 0.9759
-1.3748 6.3307 -1.5225 0.9737
-1.7307 5.5294 -1.3617 0.9765
-5.5967 7.1914 -2.1417 0.9632
-6.5237 5.8435 -2.0584 0.9647
-6.8816 5.1338 -2.0178 0.9653
-7.7262 4.7524 -2.1319 0.9634
-7.9641 3.9651 -2.0909 0.9641
8.5248 2.1391 -2.2757 0.9643
5.6777 3.9165 -1.7859 0.9719
4.3876 4.3653 -1.6025 0.9748
3.8279 4.5590 -1.5413 0.9757
0.1977 2.7444 -0.7124 0.9887
-1.2509 6.2814 -1.6583 0.9739
-3.1753 8.0531 -2.2413 0.9649
-3.8203 7.6132 -2.2054 0.9654
-4.4105 7.1203 -2.1686 0.9660
-5.4142 6.0064 -2.0937 0.9671
-6.1711 4.7717 -2.0198 0.9683
-6.4562 4.1264 -1.9839 0.9688
-2.7903 1.4498 -0.8142 0.9871
-7.3750 3.0289 -2.0643 0.9676
-7.4892 2.3183 -2.0299 0.9681
-7.5393 0.9182 -1.9665 0.9691
-7.3690 -0.4265 -1.9111 0.9700
-7.2079 -1.0696 -1.8867 0.9703
-7.0000 -1.6894 -1.8645 0.9707
-6.1218 -3.3868 -1.8114 0.9715
-5.7528 -3.8921 -1.7984 0.9717
-5.3498 -4.3645 -1.7876 0.9719
-4.9150 -4.8025 -1.7792 0.9720
-4.4508 -5.2048 -1.7732 0.9721
-3.9594 -5.5700 -1.7694 0.9722
-3.4430 -5.8969 -1.7680 0.9722
-2.3436 -6.4309 -1.7722 0.9721
0.6894 -7.0089 -1.8235 0.9713
1.3255 -6.9845 -1.8407 0.9711
2.6050 -6.7857 -1.8820 0.9704
3.2420 -6.6089 -1.9060 0.9700
3.8722 -6.3791 -1.9321 0.9696
4.4917 -6.0955 -1.9604 0.9692
5.0962 -5.7573 -1.9908 0.9687
6.2411 -4.9165 -2.0571 0.9677
6.7711 -4.4143 -2.0928 0.9672
7.2654 -3.8588 -2.1300 0.9666
7.5379 -2.4082 -2.0489 0.9678
8.1322 -1.0650 -2.1235 0.9667
8.3393 -0.3398 -2.1610 0.9661
8.5364 1.9788 -2.2688 0.9644
7.5675 3.2602 -2.1334 0.9665
5.1289 4.1078 -1.7014 0.9732
3.9375 4.5212 -1.5523 0.9755
1.9497 5.2037 -1.4388 0.9773
0.2506 2.7779 -0.7222 0.9885
0.0013 2.7752 -0.7185 0.9886
-0.5394 6.0438 -1.5711 0.9752
-1.1259 6.2397 -1.6417 0.9741
-1.5325 5.5801 -1.4983 0.9764
-3.6944 7.7065 -2.2128 0.9653
-5.3240 6.1253 -2.1013 0.9670
-6.4037 4.2577 -1.9910 0.9687
-2.7116 1.4717 -0.7988 0.9873
-7.4711 2.4614 -2.0367 0.9680
-7.5370 1.7548 -2.0037 0.9685
-7.5446 1.0575 -1.9725 0.9690
-7.4966 0.3733 -1.9434 0.9695
-7.3955 -0.2941 -1.9163 0.9699
-7.2443 -0.9416 -1.8915 0.9703
-6.8023 -2.1659 -1.8483 0.9709
-6.5168 -2.7381 -1.8302 0.9712
-6.1919 -3.2809 -1.8144 0.9715
-5.8301 -3.7928 -1.8008 0.9717
-5.0052 -4.7170 -1.7807 0.9720
-4.0607 -5.4994 -1.7700 0.9721
-3.5491 -5.8341 -1.7681 0.9722
-1.2912 -6.7679 -1.7839 0.9719
-0.6849 -6.8939 -1.7937 0.9718
-0.0664 -6.9743 -1.8058 0.9716
0.5617 -7.0079 -1.8203 0.9714
1.1968 -6.9934 -1.8370 0.9711
1.8359 -6.9295 -1.8561 0.9708
2.4760 -6.8150 -1.8774 0.9705
3.7457 -6.4298 -1.9267 0.9697
4.3677 -6.1571 -1.9546 0.9693
4.9756 -5.8300 -1.9845 0.9688
6.1303 -5.0113 -2.0501 0.9678
6.6669 -4.5200 -2.0855 0.9673
7.1689 -3.9751 -2.1224 0.9667
8.4564 0.2599 -2.1905 0.9656
8.5386 1.0315 -2.2269 0.9651
8.5447 1.8188 -2.2619 0.9645
7.7789 3.1860 -2.1765 0.9659
6.7991 3.5244 -1.9829 0.9689
5.9770 3.8120 -1.8355 0.9711
5.2628 4.0612 -1.7212 0.9729
4.6269 4.2823 -1.6323 0.9743
4.0486 4.4827 -1.5640 0.9754
3.0618 4.9321 -1.5031 0.9763
1.1059 3.7463 -1.0114 0.9840
0.3281 3.0244 -0.7877 0.9875
-0.4269 6.0062 -1.5590 0.9754
-1.0033 6.1988 -1.6259 0.9744
-1.6364 6.4097 -1.7128 0.9730
-1.9927 5.6431 -1.5495 0.9756
-3.5663 7.7975 -2.2201 0.9652
-4.1791 7.3251 -2.1836 0.9658
-4.7351 6.8043 -2.1464 0.9663
-5.6660 5.6483 -2.0715 0.9675
-2.6809 1.5184 -0.7977 0.9874
-7.3113 3.3162 -2.0787 0.9674
-7.5285 1.8968 -2.0102 0.9684
-7.5106 0.5101 -1.9491 0.9694
-7.4200 -0.1609 -1.9216 0.9698
-7.0894 -1.4422 -1.8732 0.9705
-6.8548 -2.0470 -1.8523 0.9709
-6.2606 -3.1738 -1.8174 0.9714
-5.9060 -3.6920 -1.8034 0.9716
-5.5164 -4.1779 -1.7917 0.9718
-5.0941 -4.6300 -1.7823 0.9720
-4.6416 -5.0468 -1.7753 0.9721
-4.1609 -5.4271 -1.7706 0.9721
-3.6543 -5.7697 -1.7683 0.9722
-3.1239 -6.0732 -1.7683 0.9722
-0.8083 -6.8721 -1.7916 0.9718
5.4476 -5.5295 -2.0098 0.9684
6.0183 -5.1038 -2.0431 0.9679
7.3921 -2.6594 -2.0340 0.9681
8.2635 -0.6362 -2.1459 0.9663
8.5498 1.6590 -2.2550 0.9647
8.4926 2.4528 -2.2888 0.9641
7.9990 3.1086 -2.2220 0.9652
6.9878 3.4635 -2.0193 0.9683
6.1331 3.7574 -1.8623 0.9707
4.7500 4.2395 -1.6485 0.9740
3.6850 4.7175 -1.5499 0.9756
2.6166 4.9758 -1.4556 0.9770
2.1219 5.0950 -1.4290 0.9775
1.6690 5.2992 -1.4385 0.9773
0.7129 5.6231 -1.4676 0.9769
-0.3160 5.9690 -1.5477 0.9756
-0.8829 6.1586 -1.6109 0.9746
-5.1361 6.3590 -2.1164 0.9668
-5.5833 5.7706 -2.0790 0.9674
-5.9683 5.1548 -2.0419 0.9679
-2.6866 1.5864 -0.8078 0.9872
-7.2756 3.4598 -2.0859 0.9673
-7.5225 0.6476 -1.9549 0.9693
-7.4425 -0.0270 -1.9270 0.9697
-7.1314 -1.3171 -1.8777 0.9705
-6.6369 -2.5105 -1.8373 0.9711
-6.3276 -3.0655 -1.8205 0.9714
-5.9804 -3.5900 -1.8060 0.9716
-5.5977 -4.0825 -1.7939 0.9718
-5.1819 -4.5415 -1.7840 0.9719
-4.7352 -4.9656 -1.7766 0.9720
-4.2600 -5.3534 -1.7714 0.9721
-3.2328 -6.0151 -1.7681 0.9722
-2.6850 -6.2866 -1.7699 0.9721
-1.5320 -6.7045 -1.7806 0.9720
-0.9312 -6.8484 -1.7895 0.9718
0.9398 -7.0051 -1.8300 0.9712
1.5776 -6.9613 -1.8481 0.9709
3.4916 -6.5246 -1.9160 0.9699
4.1181 -6.2737 -1.9431 0.9695
4.7322 -5.9686 -1.9722 0.9690
5.3295 -5.6088 -2.0033 0.9685
5.9052 -5.1941 -2.0363 0.9680
7.4415 -3.6214 -2.1428 0.9664
7.6726 -2.1558 -2.0635 0.9676
8.5143 0.7177 -2.2123 0.9653
8.2286 3.0280 -2.2702 0.9644
7.1769 3.3972 -2.0559 0.9677
4.8756 4.1959 -1.6655 0.9738
4.2762 4.4039 -1.5893 0.9750
3.2670 4.8616 -1.5166 0.9761
2.7141 4.9424 -1.4599 0.9770
2.2356 5.1062 -1.4432 0.9772
1.2918 5.4273 -1.4445 0.9772
0.8115 5.5898 -1.4625 0.9769
0.1462 2.6718 -0.6928 0.9890
-0.2067 5.9324 -1.5369 0.9758
-1.3729 6.3220 -1.6750 0.9736
-3.3037 7.9727 -2.2345 0.9650
-3.9384 7.5220 -2.1984 0.9655
-5.8957 5.2809 -2.0493 0.9678
7.7273 1.2181 -2.2146 0.9680
7.6928 1.9303 -2.2453 0.9676
7.3513 3.3258 -2.2842 0.9670
6.4417 3.6401 -2.0946 0.9697
5.6692 3.9107 -1.9497 0.9718
4.9910 4.1475 -1.8371 0.9734
2.8043 4.9043 -1.5993 0.9768
0.9040 5.5515 -1.5923 0.9769
0.1982 2.7504 -0.7806 0.9886
-0.6529 6.0741 -1.7294 0.9749
-1.2492 6.2727 -1.8106 0.9738
-3.4578 6.8909 -2.1826 0.9685
-4.4881 5.9768 -2.1159 0.9694
-4.9242 5.4628 -2.0820 0.9699
-5.3053 4.9197 -2.0483 0.9704
-5.6306 4.3538 -2.0149 0.9708
-5.8999 3.7709 -1.9822 0.9713
-6.9325 1.4826 -2.0069 0.9710
-6.7961 -0.3933 -1.9271 0.9721
-6.6542 -0.9874 -1.9044 0.9724
-6.4681 -1.5610 -1.8837 0.9727
-5.6689 -3.1362 -1.8340 0.9734
-4.9588 -4.0456 -1.8117 0.9737
-2.1737 -5.9647 -1.7972 0.9740
-0.5198 -6.4063 -1.8195 0.9736
1.2260 -6.4600 -1.8614 0.9730
1.8161 -6.3865 -1.8797 0.9728
4.6848 -5.2926 -2.0010 0.9710
5.2156 -4.9249 -2.0307 0.9706
5.7219 -4.5075 -2.0621 0.9702
6.1989 -4.0413 -2.0949 0.9697
6.6415 -3.5274 -2.1289 0.9692
6.8690 -2.1945 -2.0414 0.9705
7.3867 -0.9674 -2.1090 0.9695
7.5625 -0.3081 -2.1427 0.9690
7.7258 1.0752 -2.2082 0.9681
5.8166 3.8592 -1.9761 0.9714
3.9324 4.5153 -1.6951 0.9754
3.4670 4.7852 -1.6728 0.9757
2.9568 4.9609 -1.6349 0.9763
2.4202 5.0360 -1.5817 0.9770
1.9474 5.1975 -1.5713 0.9772
1.0273 3.7264 -1.0943 0.9841
0.0013 2.7697 -0.7841 0.9886
-1.1243 6.2312 -1.7925 0.9740
-3.3428 6.9731 -2.1891 0.9684
-4.8406 5.5691 -2.0889 0.9698
-6.7296 2.9070 -2.0753 0.9700
-6.9408 0.9728 -1.9841 0.9713
-6.5091 -1.4471 -1.8877 0.9727
-5.4011 -3.5137 -1.8241 0.9736
-4.6407 -4.3735 -1.8052 0.9738
-4.2168 -4.7545 -1.7991 0.9739
-3.2924 -5.4121 -1.7933 0.9740
-1.1970 -6.2742 -1.8082 0.9738
-0.0615 -6.4598 -1.8288 0.9735
0.5200 -6.4871 -1.8423 0.9733
1.1071 -6.4692 -1.8580 0.9731
2.2867 -6.2939 -1.8957 0.9725
2.8730 -6.1345 -1.9176 0.9722
3.4523 -5.9262 -1.9416 0.9719
4.0211 -5.6684 -1.9674 0.9715
4.5752 -5.3607 -1.9951 0.9711
5.1103 -5.0031 -2.0246 0.9707
6.1053 -4.1393 -2.0881 0.9698
7.1004 -1.7209 -2.0683 0.9701
7.3441 -1.0971 -2.1021 0.9696
7.6590 0.2354 -2.1692 0.9686
7.7153 1.6422 -2.2331 0.9677
7.6379 2.3562 -2.2628 0.9673
5.9679 3.8062 -2.0038 0.9710
3.0580 4.9261 -1.6414 0.9762
2.5166 5.0030 -1.5854 0.9770
1.0981 5.4859 -1.5838 0.9770
-0.4263 5.9984 -1.7024 0.9753
-3.2259 7.0533 -2.1957 0.9683
-3.7862 6.6364 -2.1630 0.9687
-5.1582 5.1420 -2.0619 0.9702
-5.5061 4.5846 -2.0283 0.9707
-5.7979 4.0078 -1.9953 0.9711
-6.6973 3.0377 -2.0819 0.9699
-6.8345 2.3894 -2.0496 0.9703
-6.9154 1.7424 -2.0189 0.9708
-6.9161 0.4697 -1.9624 0.9716
-6.8403 -0.1484 -1.9369 0.9720
-6.3371 -1.8924 -1.8723 0.9729
-6.0855 -2.4285 -1.8549 0.9731
-5.7960 -2.9383 -1.8396 0.9733
-4.7229 -4.2925 -1.8067 0.9738
-4.3045 -4.6804 -1.8001 0.9739
-2.8979 -5.6338 -1.7935 0.9740
-2.3857 -5.8774 -1.7957 0.9740
-1.8553 -6.0819 -1.8001 0.9739
-0.7491 -6.3688 -1.8154 0.9737
-0.1779 -6.4489 -1.8263 0.9735
0.9883 -6.4765 -1.8547 0.9731
2.7551 -6.1706 -1.9131 0.9723
3.3361 -5.9722 -1.9366 0.9720
3.9074 -5.7244 -1.9621 0.9716
4.4647 -5.4269 -1.9894 0.9712
6.0103 -4.2353 -2.0815 0.9699
6.8672 -3.1898 -2.1435 0.9690
7.0449 -1.8428 -2.0615 0.9702
7.2993 -1.2255 -2.0953 0.9697
7.4987 -0.5774 -2.1291 0.9692
7.7222 1.4984 -2.2269 0.9678
7.6594 2.2121 -2.2569 0.9674
5.3920 4.0076 -1.9019 0.9725
4.1561 4.4378 -1.7212 0.9750
3.6803 4.7116 -1.6925 0.9755
1.6670 5.2929 -1.5709 0.9772
1.1944 5.4533 -1.5804 0.9771
-3.1072 7.1314 -2.2021 0.9682
-5.7436 4.1255 -2.0019 0.9710
-6.6613 3.1677 -2.0881 0.9698
-6.9035 1.8726 -2.0250 0.9707
-6.9408 1.2299 -1.9955 0.9711
-6.9254 0.5962 -1.9678 0.9715
-6.7455 -0.6300 -1.9179 0.9722
-6.5859 -1.2163 -1.8960 0.9725
-6.3831 -1.7812 -1.8760 0.9728
-4.8039 -4.2103 -1.8083 0.9738
-4.3912 -4.6048 -1.8013 0.9739
-2.4906 -5.8313 -1.7951 0.9740
-1.4204 -6.2163 -1.8051 0.9738
-0.8631 -6.3474 -1.8135 0.9737
-0.2940 -6.4362 -1.8239 0.9736
0.8696 -6.4819 -1.8514 0.9732
1.4587 -6.4366 -1.8684 0.9729
3.7931 -5.7784 -1.9568 0.9717
4.3535 -5.4909 -1.9837 0.9713
4.8969 -5.1535 -2.0125 0.9709
5.4186 -4.7661 -2.0429 0.9704
5.9139 -4.3293 -2.0749 0.9700
2.3710 -0.9017 -0.7181 0.9895
6.9873 -1.9632 -2.0547 0.9703
7.2522 -1.3527 -2.0885 0.9698
7.4631 -0.7104 -2.1223 0.9693
7.6153 -0.0412 -2.1559 0.9688
7.6779 2.0680 -2.2510 0.9675
7.5570 2.7808 -2.2796 0.9671
7.1647 3.3914 -2.2440 0.9676
6.2839 3.6954 -2.0638 0.9701
5.5321 3.9587 -1.9258 0.9721
2.7108 4.9364 -1.5943 0.9769
2.2329 5.1000 -1.5761 0.9771
0.8105 5.5830 -1.5971 0.9768
0.1454 2.6571 -0.7533 0.9890
-0.2065 5.9248 -1.6783 0.9757
-0.7637 6.1110 -1.7434 0.9747
-1.3709 6.3132 -1.8289 0.9735
-1.7266 5.5164 -1.6364 0.9763
-3.5659 6.8104 -2.1763 0.9685
-5.9454 3.6570 -1.9760 0.9714
6.7243 3.0421 -2.2701 0.9696
6.4313 3.6343 -2.2721 0.9696
3.8180 4.5473 -1.8263 0.9755
3.3579 4.8153 -1.8056 0.9757
2.3214 5.0627 -1.7131 0.9770
1.8502 5.2235 -1.7044 0.9771
0.9029 5.5446 -1.7279 0.9768
0.1987 2.7576 -0.8504 0.9885
-0.0494 2.8107 -0.8646 0.9883
-0.6520 6.0660 -1.8765 0.9748
-1.2475 6.2640 -1.9645 0.9736
-1.6216 5.5128 -1.7674 0.9762
-2.6147 6.6312 -2.1924 0.9706
-3.6527 5.8969 -2.1335 0.9714
-4.1056 5.4674 -2.1030 0.9718
-4.5107 5.0041 -2.0722 0.9722
-4.8665 4.5128 -2.0414 0.9726
-5.4264 3.4682 -1.9808 0.9734
-2.7721 1.4404 -0.9609 0.9870
-6.3457 1.9643 -2.0432 0.9726
-6.4187 0.7817 -1.9889 0.9733
-6.3000 -0.3646 -1.9410 0.9739
-6.1738 -0.9161 -1.9197 0.9742
-6.0059 -1.4495 -1.9003 0.9745
-5.5537 -2.4523 -1.8673 0.9749
-5.2737 -2.9176 -1.8538 0.9751
-4.9608 -3.3563 -1.8422 0.9752
-4.2446 -4.1474 -1.8253 0.9755
-1.5243 -5.7310 -1.8240 0.9755
-1.0099 -5.8668 -1.8311 0.9754
0.0514 -6.0185 -1.8512 0.9751
0.5933 -6.0323 -1.8644 0.9750
1.1393 -6.0035 -1.8795 0.9748
1.6866 -5.9310 -1.8966 0.9745
2.2321 -5.8143 -1.9156 0.9743
2.7728 -5.6525 -1.9365 0.9740
3.8258 -5.1918 -1.9836 0.9734
5.2773 -4.1573 -2.0663 0.9723
2.3407 -0.9861 -0.7812 0.9894
6.5550 -1.4639 -2.0658 0.9723
6.7591 -0.8852 -2.0967 0.9719
7.0058 0.3420 -2.1574 0.9711
5.1143 4.0961 -2.0154 0.9730
3.4626 4.7792 -1.8152 0.9756
2.4173 5.0299 -1.7165 0.9769
1.9450 5.1912 -1.7051 0.9771
1.0182 3.6936 -1.1785 0.9841
0.2531 2.8056 -0.8664 0.9883
0.0013 2.7650 -0.8504 0.9885
-1.1228 6.2226 -1.9448 0.9739
-3.5558 5.9790 -2.1396 0.9713
-4.0180 5.5570 -2.1092 0.9717
-4.4329 5.1001 -2.0784 0.9721
-4.7987 4.6139 -2.0476 0.9725
-6.1979 2.6773 -2.0766 0.9721
-6.3271 2.0845 -2.0490 0.9725
-6.3988 1.4898 -2.0208 0.9729
-6.3203 -0.2514 -1.9455 0.9739
-6.0431 -1.3434 -1.9041 0.9744
-5.6060 -2.3553 -1.8703 0.9749
-5.3329 -2.8258 -1.8563 0.9751
-4.3219 -4.0731 -1.8266 0.9755
-3.9281 -4.4290 -1.8208 0.9755
-3.5092 -4.7526 -1.8171 0.9756
-2.6052 -5.2978 -1.8158 0.9756
-2.1241 -5.5169 -1.8183 0.9756
-1.1147 -5.8426 -1.8295 0.9754
0.4836 -6.0329 -1.8616 0.9750
1.0289 -6.0128 -1.8763 0.9748
1.5762 -5.9492 -1.8930 0.9746
2.1223 -5.8414 -1.9116 0.9743
3.7219 -5.2467 -1.9786 0.9734
4.7199 -4.6209 -2.0316 0.9727
6.2462 -2.1206 -2.0289 0.9728
6.8845 -0.4051 -2.1212 0.9716
6.9913 0.2148 -2.1514 0.9712
7.0390 0.8503 -2.1808 0.9708
6.9460 2.1427 -2.2358 0.9700
6.5905 3.4163 -2.2833 0.9694
5.9587 3.8003 -2.1738 0.9709
5.2476 4.0495 -2.0388 0.9726
3.5685 4.7426 -1.8255 0.9755
1.0906 3.6944 -1.1848 0.9840
1.0967 5.4792 -1.7187 0.9769
0.3316 3.0575 -0.9459 0.9872
0.0485 2.6136 -0.8040 0.9891
-1.6317 6.3913 -2.0289 0.9728
-1.9834 5.6168 -1.8321 0.9754
-3.9284 5.6452 -2.1154 0.9716
-4.7289 4.7141 -2.0538 0.9724
-6.1616 2.7948 -2.0810 0.9721
-6.3884 1.6096 -2.0263 0.9728
-6.4199 1.0184 -1.9993 0.9732
-6.3387 -0.1375 -1.9501 0.9738
-6.2299 -0.6956 -1.9281 0.9741
-5.8868 -1.7579 -1.8897 0.9746
-5.6568 -2.2574 -1.8733 0.9748
-5.3908 -2.7329 -1.8590 0.9750
-5.0909 -3.1825 -1.8466 0.9752
-4.3982 -3.9975 -1.8281 0.9754
-3.5957 -4.6899 -1.8177 0.9756
-3.1585 -4.9868 -1.8156 0.9756
-2.7001 -5.2491 -1.8156 0.9756
-2.2226 -5.4757 -1.8177 0.9756
-1.2190 -5.8167 -1.8280 0.9754
-0.6974 -5.9290 -1.8362 0.9753
-0.1656 -6.0011 -1.8465 0.9752
0.3740 -6.0318 -1.8588 0.9750
0.9187 -6.0203 -1.8732 0.9748
1.4657 -5.9656 -1.8895 0.9746
2.0123 -5.8668 -1.9077 0.9744
3.0915 -5.5343 -1.9498 0.9738
3.6174 -5.2996 -1.9736 0.9735
4.6228 -4.6923 -2.0260 0.9728
5.0943 -4.3202 -2.0545 0.9724
5.5392 -3.9033 -2.0843 0.9720
6.1880 -2.2262 -2.0227 0.9729
6.8560 -0.5279 -2.1150 0.9716
6.9744 0.0883 -2.1453 0.9712
7.0343 0.7211 -2.1749 0.9708
7.0327 1.3646 -2.2035 0.9705
6.9671 2.0122 -2.2305 0.9701
6.6384 3.2904 -2.2789 0.9695
6.1140 3.7458 -2.2054 0.9704
2.6102 4.9637 -1.7250 0.9768
1.6650 5.2865 -1.7048 0.9771
-1.4989 6.3473 -2.0060 0.9731
-1.8438 5.5378 -1.7952 0.9759
-2.8325 6.5011 -2.1811 0.9708
-3.3564 6.1380 -2.1518 0.9711
-4.2713 5.2883 -2.0909 0.9720
-4.6571 4.8133 -2.0600 0.9724
-4.9930 4.3124 -2.0293 0.9728
-6.2836 2.3249 -2.0607 0.9724
-6.4176 1.1372 -2.0047 0.9731
-6.3553 -0.0230 -1.9548 0.9738
-6.2554 -0.5842 -1.9324 0.9741
-6.1125 -1.1289 -1.9119 0.9743
-5.9287 -1.6544 -1.8932 0.9746
-5.7062 -2.1585 -1.8765 0.9748
-5.4473 -2.6390 -1.8617 0.9750
-5.1541 -3.0940 -1.8490 0.9752
-4.8287 -3.5217 -1.8382 0.9753
-3.2485 -4.9296 -1.8159 0.9756
-2.3204 -5.4329 -1.8171 0.9756
-1.8292 -5.6300 -1.8208 0.9755
-1.3229 -5.7893 -1.8266 0.9755
-0.8035 -5.9096 -1.8344 0.9754
0.8085 -6.0261 -1.8701 0.9749
2.4462 -5.7558 -1.9236 0.9742
2.9840 -5.5761 -1.9452 0.9739
5.0012 -4.3989 -2.0486 0.9725
5.4518 -3.9910 -2.0781 0.9721
5.8722 -3.5393 -2.1089 0.9717
6.9551 -0.0376 -2.1393 0.9713
7.0271 0.5923 -2.1690 0.9709
7.0381 1.2342 -2.1978 0.9705
6.2740 3.6896 -2.2387 0.9700
5.5239 3.9528 -2.0892 0.9720
3.2588 4.8495 -1.7971 0.9758
2.7074 4.9304 -1.7301 0.9767
2.2302 5.0938 -1.7103 0.9770
0.1449 2.6476 -0.8156 0.9890
-0.7627 6.1028 -1.8917 0.9746
-1.3690 6.3043 -1.9843 0.9734
-3.2541 6.2150 -2.1578 0.9711
-4.1875 5.3806 -2.0971 0.9719
-4.5832 4.9114 -2.0662 0.9723
-4.9293 4.4153 -2.0354 0.9727
-5.2248 3.8978 -2.0050 0.9731
-5.4696 3.3643 -1.9751 0.9735
-5.6638 2.8198 -1.9460 0.9739
6.4156 1.6098 -2.1987 0.9725
6.3130 2.2002 -2.2223 0.9722
6.1506 2.7826 -2.2440 0.9719
5.9285 3.3501 -2.2635 0.9717
4.9768 4.1357 -2.1510 0.9731
4.3698 4.3477 -2.0490 0.9744
3.2925 4.7215 -1.9134 0.9760
2.7974 4.8922 -1.8733 0.9765
0.9191 3.5855 -1.2304 0.9845
0.9018 5.5378 -1.8650 0.9766
0.1994 2.7676 -0.9224 0.9884
-0.0497 2.8257 -0.9394 0.9882
-0.6511 6.0578 -2.0252 0.9746
-1.2457 6.2551 -2.1201 0.9735
-2.3986 6.0832 -2.1736 0.9728
-3.3584 5.4217 -2.1199 0.9735
-3.7791 5.0326 -2.0920 0.9738
-4.7771 3.6938 -2.0073 0.9749
-5.0180 3.2072 -1.9796 0.9752
-2.7680 1.4382 -1.0369 0.9869
-5.7646 2.3675 -2.0715 0.9741
-5.8871 1.8223 -2.0485 0.9744
-5.9377 0.1882 -1.9747 0.9753
-5.6001 -1.3516 -1.9150 0.9760
-5.1845 -2.2893 -1.8839 0.9764
-4.9256 -2.7250 -1.8711 0.9766
-3.5960 -4.2051 -1.8392 0.9769
-3.2002 -4.5020 -1.8361 0.9770
-2.7832 -4.7670 -1.8349 0.9770
-2.3470 -4.9988 -1.8357 0.9770
-1.4252 -5.3584 -1.8431 0.9769
-0.9440 -5.4840 -1.8497 0.9768
0.0480 -5.6217 -1.8688 0.9766
0.5540 -5.6320 -1.8811 0.9764
1.0631 -5.6020 -1.8954 0.9763
1.5728 -5.5311 -1.9114 0.9761
2.5821 -5.2638 -1.9489 0.9756
3.0755 -5.0666 -1.9702 0.9753
3.5568 -4.8268 -1.9930 0.9750
4.4689 -4.2198 -2.0431 0.9744
4.8919 -3.8536 -2.0700 0.9741
5.2875 -3.4471 -2.0981 0.9737
5.6449 -2.9981 -2.1246 0.9734
2.3377 -0.9849 -0.8432 0.9894
6.0421 -1.3494 -2.0579 0.9742
6.3551 -0.2589 -2.1142 0.9735
5.9781 3.2371 -2.2598 0.9718
0.2560 2.8372 -0.9469 0.9881
-0.5373 6.0199 -2.0090 0.9748
-2.7995 5.8396 -2.1526 0.9731
-4.0841 4.6988 -2.0694 0.9741
-4.4264 4.2559 -2.0411 0.9744
-4.7229 3.7901 -2.0129 0.9748
-4.9731 3.3065 -1.9851 0.9751
-2.7073 1.4694 -1.0239 0.9871
-5.8686 1.9335 -2.0539 0.9743
-5.9470 0.2961 -1.9793 0.9752
-5.8838 -0.2340 -1.9574 0.9755
-5.7788 -0.7511 -1.9371 0.9757
-5.2328 -2.1986 -1.8867 0.9764
-4.9804 -2.6390 -1.8736 0.9765
-4.6962 -3.0551 -1.8623 0.9767
-3.2819 -4.4446 -1.8365 0.9770
-1.9864 -5.1592 -1.8377 0.9770
-1.5208 -5.3286 -1.8420 0.9769
-1.0420 -5.4616 -1.8482 0.9768
-0.5521 -5.5574 -1.8564 0.9767
0.4515 -5.6331 -1.8785 0.9765
4.8086 -3.9308 -2.0645 0.9742
5.2101 -3.5323 -2.0924 0.9738
5.7655 -1.9574 -2.0239 0.9747
6.3325 -0.3727 -2.1086 0.9736
6.4602 0.7804 -2.1630 0.9729
6.4402 1.3708 -2.1887 0.9726
6.2234 2.5489 -2.2355 0.9721
6.0253 3.1233 -2.2559 0.9718
5.7679 3.6786 -2.2740 0.9716
5.2399 4.0435 -2.2001 0.9725
3.0299 4.8808 -1.9096 0.9761
2.5104 4.9907 -1.8570 0.9767
1.0737 3.6372 -1.2606 0.9841
0.6113 5.6356 -1.8843 0.9764
0.0484 2.6095 -0.8676 0.9891
-0.9991 6.1734 -2.0788 0.9740
-1.9789 5.6038 -1.9755 0.9753
-2.7002 5.9039 -2.1580 0.9730
-3.1769 5.5685 -2.1310 0.9733
-4.3609 4.3473 -2.0468 0.9744
-2.6850 1.5207 -1.0257 0.9871
-5.8482 2.0445 -2.0593 0.9742
-5.9652 0.9462 -2.0077 0.9749
-5.8033 -0.6479 -1.9410 0.9757
-5.4912 -1.6398 -1.9049 0.9761
-5.0340 -2.5520 -1.8761 0.9765
-4.4479 -3.3687 -1.8547 0.9768
-4.1116 -3.7370 -1.8469 0.9769
-3.3626 -4.3859 -1.8371 0.9770
-2.9540 -4.6639 -1.8351 0.9770
-2.5253 -4.9093 -1.8351 0.9770
-2.0785 -5.1208 -1.8370 0.9770
-1.1396 -5.4377 -1.8468 0.9769
-0.1547 -5.6064 -1.8643 0.9766
0.3492 -5.6326 -1.8759 0.9765
0.8574 -5.6190 -1.8894 0.9763
1.3672 -5.5647 -1.9047 0.9761
2.8776 -5.1513 -1.9614 0.9754
3.8367 -4.6635 -2.0074 0.9749
4.7242 -4.0064 -2.0590 0.9742
5.5087 -3.1860 -2.1153 0.9735
5.4305 -2.5225 -1.9904 0.9751
5.9562 -1.5580 -2.0465 0.9744
6.1556 -1.0335 -2.0748 0.9740
6.3079 -0.4857 -2.1030 0.9737
6.4094 0.0811 -2.1307 0.9733
6.4573 0.6620 -2.1577 0.9730
6.4489 1.2514 -2.1836 0.9727
6.3822 1.8433 -2.2082 0.9724
4.7303 4.2219 -2.1076 0.9736
4.1450 4.4260 -2.0157 0.9748
2.6070 4.9576 -1.8619 0.9767
0.7103 5.6023 -1.8771 0.9765
-1.4967 6.3382 -2.1648 0.9729
-3.0838 5.6395 -2.1365 0.9733
-3.9333 4.8700 -2.0809 0.9740
-4.2937 4.4377 -2.0525 0.9743
-2.7123 1.6016 -1.0470 0.9868
-5.9175 1.6052 -2.0381 0.9745
-5.9619 1.0564 -2.0126 0.9748
-5.9603 0.5131 -1.9886 0.9751
-5.8261 -0.5441 -1.9451 0.9756
-5.6971 -1.0522 -1.9258 0.9759
-5.5295 -1.5430 -1.9083 0.9761
-5.3252 -2.0144 -1.8925 0.9763
-4.8146 -2.8902 -1.8666 0.9766
-4.5124 -3.2910 -1.8565 0.9767
-4.1816 -3.6649 -1.8483 0.9768
-3.0381 -4.6104 -1.8354 0.9770
-2.1700 -5.0809 -1.8365 0.9770
-1.7105 -5.2645 -1.8400 0.9769
-0.2556 -5.5963 -1.8622 0.9767
0.7546 -5.6250 -1.8865 0.9764
1.7735 -5.4917 -1.9183 0.9760
5.0515 -3.6980 -2.0810 0.9740
5.4351 -3.2759 -2.1095 0.9736
2.3768 -0.9039 -0.8453 0.9893
5.9105 -1.6607 -2.0408 0.9745
6.2811 -0.5979 -2.0973 0.9738
6.3932 -0.0346 -2.1252 0.9734
6.4521 0.5439 -2.1523 0.9731
6.4004 1.7239 -2.2034 0.9724
5.8789 3.4572 -2.2670 0.9717
5.5156 3.9469 -2.2545 0.9718
3.2030 4.7665 -1.9089 0.9761
2.7041 4.9242 -1.8674 0.9766
2.2274 5.0876 -1.8461 0.9769
1.7576 5.2478 -1.8396 0.9769
0.1502 2.7442 -0.9135 0.9885
-0.2059 5.9094 -1.9655 0.9754
-1.3671 6.2953 -2.1414 0.9732
-2.9891 5.7088 -2.1420 0.9732
-3.8553 4.9537 -2.0866 0.9739
-4.5489 4.0745 -2.0300 0.9746
-5.2444 2.6111 -1.9474 0.9756
5.9138 1.4839 -2.1804 0.9744
5.8144 2.0264 -2.2019 0.9742
5.1908 3.5806 -2.2551 0.9736
4.8780 4.0536 -2.2681 0.9734
3.5949 4.2815 -1.9992 0.9765
3.1915 4.5767 -1.9953 0.9766
2.7939 4.8860 -2.0127 0.9764
1.8457 5.2106 -1.9768 0.9768
0.9440 3.6826 -1.3595 0.9840
0.2001 2.7772 -0.9957 0.9882
-0.6503 6.0495 -2.1758 0.9745
-1.2027 6.0389 -2.2020 0.9742
-1.6192 5.5047 -2.0519 0.9759
-2.6755 5.3317 -2.1333 0.9750
-3.4967 4.6566 -2.0825 0.9756
-3.8502 4.2713 -2.0564 0.9759
-4.1629 3.8603 -2.0302 0.9762
-4.4337 3.4283 -2.0042 0.9765
-4.9896 2.0492 -1.9289 0.9773
-5.4846 1.6978 -2.0531 0.9759
-5.5481 1.1866 -2.0289 0.9762
-5.5679 0.6781 -2.0058 0.9765
-5.2407 -1.2648 -1.9279 0.9774
-4.6162 -2.5538 -1.8866 0.9778
-4.0471 -3.3018 -1.8678 0.9781
-3.7225 -3.6373 -1.8612 0.9781
-3.3737 -3.9452 -1.8564 0.9782
-3.0028 -4.2242 -1.8534 0.9782
-2.2022 -4.6904 -1.8530 0.9782
-1.7767 -4.8753 -1.8556 0.9782
-0.4239 -5.2244 -1.8744 0.9780
0.0450 -5.2691 -1.8843 0.9779
1.4721 -5.1767 -1.9246 0.9774
1.9457 -5.0683 -1.9414 0.9772
2.4136 -4.9204 -1.9599 0.9770
3.3198 -4.5052 -2.0013 0.9765
4.5543 -3.5877 -2.0733 0.9757
4.9180 -3.2062 -2.0994 0.9754
5.2422 -2.7842 -2.1226 0.9751
2.3346 -0.9836 -0.9059 0.9893
5.3938 -1.7232 -2.0249 0.9762
5.7593 -0.7543 -2.0772 0.9756
5.9441 0.2902 -2.1282 0.9750
5.9619 0.8297 -2.1526 0.9748
5.8388 1.9174 -2.1977 0.9742
5.6959 2.4539 -2.2179 0.9740
5.4986 2.9774 -2.2361 0.9738
4.4815 4.3006 -2.2212 0.9740
3.9168 4.4974 -2.1327 0.9750
2.4113 5.0174 -1.9907 0.9766
0.9748 3.5362 -1.3118 0.9845
0.9976 5.4981 -1.9983 0.9765
0.2575 2.8540 -1.0247 0.9879
-1.0955 6.0711 -2.2061 0.9741
-1.5347 5.5884 -2.0724 0.9757
-2.1159 5.6639 -2.1622 0.9746
-3.7821 4.3513 -2.0617 0.9758
-4.1032 3.9451 -2.0355 0.9761
-4.3825 3.5169 -2.0094 0.9764
-4.6192 3.0712 -1.9837 0.9767
-2.7068 1.4691 -1.1014 0.9870
-5.5673 0.7803 -2.0104 0.9764
-5.1037 -1.6251 -1.9154 0.9775
-4.9016 -2.0594 -1.9013 0.9777
-4.1095 -3.2309 -1.8694 0.9780
-3.0793 -4.1703 -1.8538 0.9782
-2.2862 -4.6491 -1.8527 0.9782
-0.9773 -5.1225 -1.8649 0.9781
-0.5177 -5.2109 -1.8726 0.9780
-0.0501 -5.2630 -1.8822 0.9779
1.8505 -5.0934 -1.9379 0.9772
2.3198 -4.9534 -1.9560 0.9770
3.2308 -4.5543 -1.9968 0.9766
5.1819 -2.8734 -2.1189 0.9751
5.0979 -2.2570 -1.9937 0.9766
5.5597 -1.3475 -2.0458 0.9760
5.9625 0.7203 -2.1477 0.9748
5.9385 1.2640 -2.1712 0.9745
5.7291 2.3465 -2.2140 0.9740
5.0103 3.8663 -2.2632 0.9735
4.6014 4.2587 -2.2421 0.9737
4.0272 4.4590 -2.1487 0.9748
3.3525 4.4555 -1.9940 0.9766
2.9444 4.7431 -1.9964 0.9766
2.0349 5.1461 -1.9789 0.9768
1.0940 5.4655 -1.9933 0.9766
-0.4246 5.9745 -2.1419 0.9749
-0.9875 6.1011 -2.2102 0.9741
-1.5144 5.9319 -2.1893 0.9743
-1.9743 5.5908 -2.1203 0.9751
-2.9355 5.1453 -2.1184 0.9751
-3.3430 4.8038 -2.0929 0.9754
-4.3295 3.6049 -2.0147 0.9764
-4.5749 3.1624 -1.9888 0.9767
-5.5651 0.8828 -2.0150 0.9763
-5.3014 -1.0785 -1.9347 0.9773
-4.9451 -1.9734 -1.9040 0.9776
-4.4583 -2.7871 -1.8802 0.9779
-4.1709 -3.1589 -1.8710 0.9780
-3.8565 -3.5051 -1.8636 0.9781
-3.5173 -3.8244 -1.8581 0.9782
-3.1550 -4.1152 -1.8544 0.9782
-2.3695 -4.6065 -1.8525 0.9782
-1.9502 -4.8047 -1.8543 0.9782
-1.5160 -4.9696 -1.8580 0.9782
-0.6111 -5.1960 -1.8709 0.9780
-0.1450 -5.2555 -1.8801 0.9779
0.3273 -5.2780 -1.8911 0.9778
1.7551 -5.1168 -1.9344 0.9773
2.2257 -4.9849 -1.9522 0.9771
2.6887 -4.8132 -1.9716 0.9769
3.1411 -4.6018 -1.9924 0.9766
3.5794 -4.3507 -2.0147 0.9764
5.0431 -2.3426 -1.9885 0.9767
5.3003 -1.9069 -2.0144 0.9764
5.6993 -0.9569 -2.0666 0.9757
5.9477 1.1541 -2.1666 0.9746
5.5847 2.7681 -2.2290 0.9739
3.4310 4.3925 -1.9932 0.9766
3.0292 4.6885 -1.9961 0.9766
2.6037 4.9514 -2.0005 0.9765
-0.8781 6.1251 -2.2128 0.9741
-3.2637 4.8755 -2.0981 0.9754
-3.6410 4.5080 -2.0722 0.9757
-3.9785 4.1120 -2.0461 0.9760
-4.5288 3.2529 -1.9940 0.9766
-5.5150 1.4960 -2.0435 0.9760
-5.5610 0.9854 -2.0196 0.9763
-5.5640 0.4790 -1.9971 0.9766
-5.4467 -0.5087 -1.9563 0.9770
-5.3296 -0.9843 -1.9381 0.9772
-5.1758 -1.4443 -1.9216 0.9774
-4.9872 -1.8865 -1.9068 0.9776
-4.2311 -3.0859 -1.8727 0.9780
-3.9220 -3.4374 -1.8650 0.9781
-2.8507 -4.3261 -1.8527 0.9782
-2.0361 -4.7673 -1.8538 0.9782
-1.6047 -4.9390 -1.8571 0.9782
-1.1600 -5.0768 -1.8623 0.9781
-0.7043 -5.1796 -1.8693 0.9780
0.2316 -5.2765 -1.8887 0.9778
1.1837 -5.2232 -1.9152 0.9775
2.1312 -5.0147 -1.9485 0.9771
3.0508 -4.6477 -1.9881 0.9767
3.4922 -4.4045 -2.0101 0.9764
4.3210 -3.8007 -2.0579 0.9759
4.7011 -3.4415 -2.0835 0.9756
5.0534 -3.0458 -2.1100 0.9752
5.3555 -2.6063 -2.1299 0.9750
2.3802 -0.9052 -0.9106 0.9892
5.8108 -0.5531 -2.0874 0.9755
5.9086 -0.0319 -2.1130 0.9752
5.8988 1.5888 -2.1846 0.9744
5.4059 3.1791 -2.2427 0.9737
5.1344 3.6741 -2.2578 0.9735
4.8120 4.1412 -2.2703 0.9734
4.2532 4.3803 -2.1834 0.9744
3.5082 4.3278 -1.9923 0.9766
3.1127 4.6321 -1.9957 0.9766
2.7007 4.9180 -2.0064 0.9764
2.2247 5.0812 -1.9836 0.9767
1.7554 5.2413 -1.9767 0.9768
-0.2056 5.9016 -2.1117 0.9752
-0.7606 6.0861 -2.1934 0.9743
-1.3043 6.0063 -2.1980 0.9742
-2.3046 5.5616 -2.1529 0.9748
-2.7608 5.2730 -2.1285 0.9750
-3.1829 4.9458 -2.1033 0.9753
-3.5680 4.5846 -2.0775 0.9756
-4.2184 3.7785 -2.0252 0.9762
-4.4810 3.3429 -1.9992 0.9765
5.5247 0.8709 -2.1433 0.9763
5.4783 1.3746 -2.1645 0.9761
5.2363 2.3689 -2.2025 0.9757
5.0407 2.8484 -2.2188 0.9755
4.1703 4.1492 -2.2544 0.9751
3.5760 4.2590 -2.1312 0.9765
3.0881 4.4284 -2.0689 0.9771
2.7903 4.8797 -2.1541 0.9762
0.9349 3.6474 -1.4429 0.9840
0.8995 5.5237 -2.1447 0.9763
-0.0495 2.8150 -1.0789 0.9880
-1.5939 5.4188 -2.1645 0.9761
-2.4824 4.9470 -2.1211 0.9766
-2.8828 4.6540 -2.0979 0.9768
-3.5817 3.9734 -2.0500 0.9773
-4.3482 2.7791 -1.9776 0.9781
-2.7605 1.4343 -1.1922 0.9868
-5.1917 1.1103 -2.0345 0.9775
-5.1967 0.1647 -1.9925 0.9780
-5.1409 -0.2975 -1.9734 0.9782
-4.7578 -1.6101 -1.9249 0.9787
-4.5637 -2.0152 -1.9118 0.9789
-4.3393 -2.4006 -1.9004 0.9790
-3.1744 -3.7121 -1.8718 0.9793
-2.0723 -4.4137 -1.8686 0.9793
-1.6717 -4.5873 -1.8710 0.9793
-1.2578 -4.7290 -1.8752 0.9793
0.0423 -4.9533 -1.8983 0.9790
0.4877 -4.9584 -1.9093 0.9789
0.9352 -4.9276 -1.9220 0.9787
2.2636 -4.6144 -1.9696 0.9782
2.6924 -4.4356 -1.9884 0.9780
3.1093 -4.2195 -2.0086 0.9778
3.5110 -3.9666 -2.0300 0.9776
4.2558 -3.3525 -2.0761 0.9771
4.5918 -2.9936 -2.1006 0.9768
4.8878 -2.5960 -2.1209 0.9766
2.3316 -0.9823 -0.9695 0.9892
5.0230 -1.6047 -2.0207 0.9777
5.2082 -1.1631 -2.0450 0.9774
5.5281 0.7693 -2.1389 0.9764
5.4917 1.2730 -2.1603 0.9761
5.2698 2.2703 -2.1989 0.9757
5.0841 2.7530 -2.2156 0.9755
4.8496 3.2176 -2.2303 0.9754
4.5679 3.6584 -2.2427 0.9752
4.2414 4.0701 -2.2527 0.9751
3.8275 4.3949 -2.2334 0.9753
3.1843 4.3950 -2.0799 0.9770
2.4082 5.0110 -2.1305 0.9765
1.9378 5.1718 -2.1165 0.9766
-0.5117 5.7336 -2.2060 0.9756
-1.0139 5.6192 -2.1881 0.9758
-1.4987 5.4570 -2.1687 0.9760
-1.9613 5.2501 -2.1477 0.9763
-2.3978 5.0018 -2.1257 0.9765
-3.8197 3.6726 -2.0306 0.9776
-4.3077 2.8641 -1.9824 0.9781
-4.6373 2.0032 -1.9358 0.9786
-5.1823 1.2066 -2.0391 0.9775
-5.0697 -0.6589 -1.9591 0.9783
-4.9485 -1.1001 -1.9426 0.9785
-4.7931 -1.5262 -1.9277 0.9787
-4.6054 -1.9350 -1.9143 0.9788
-4.3869 -2.3245 -1.9026 0.9790
-4.1396 -2.6930 -1.8925 0.9791
-3.8651 -3.0387 -1.8841 0.9792
-3.5654 -3.3601 -1.8775 0.9792
-3.2423 -3.6557 -1.8725 0.9793
-2.8976 -3.9242 -1.8694 0.9793
-2.5333 -4.1643 -1.8679 0.9793
-1.7537 -4.5548 -1.8704 0.9793
-1.3423 -4.7030 -1.8743 0.9793
-0.4868 -4.9005 -1.8872 0.9791
0.8448 -4.9367 -1.9194 0.9788
1.2921 -4.8768 -1.9334 0.9786
1.7367 -4.7800 -1.9489 0.9785
2.6068 -4.4747 -1.9845 0.9781
4.7524 -2.1040 -1.9917 0.9780
5.1739 -1.2540 -2.0401 0.9775
5.3278 -0.7959 -2.0644 0.9772
5.4400 -0.3201 -2.0883 0.9769
5.5080 0.1693 -2.1118 0.9767
5.3013 2.1712 -2.1953 0.9758
5.1256 2.6569 -2.2124 0.9756
4.9008 3.1256 -2.2275 0.9754
3.2816 4.3613 -2.0916 0.9769
2.8089 4.5249 -2.0410 0.9774
2.0323 5.1396 -2.1180 0.9766
1.0848 3.6748 -1.4683 0.9837
0.6097 5.6212 -2.1668 0.9761
0.0484 2.6096 -1.0002 0.9889
-0.4087 5.7507 -2.2093 0.9756
-0.9138 5.6462 -2.1919 0.9758
-1.4025 5.4935 -2.1727 0.9760
-1.8699 5.2953 -2.1521 0.9762
-2.3120 5.0551 -2.1302 0.9765
-3.7618 3.7500 -2.0355 0.9775
-4.0333 3.3582 -2.0113 0.9778
-2.6878 1.5223 -1.1837 0.9869
-4.6113 2.0916 -1.9404 0.9785
-4.7246 1.6517 -1.9180 0.9788
-5.2099 0.8264 -2.0215 0.9777
-5.2084 0.3538 -2.0006 0.9779
-4.9758 -1.0122 -1.9459 0.9785
-4.8272 -1.4415 -1.9306 0.9787
-4.6458 -1.8539 -1.9169 0.9788
-3.3093 -3.5982 -1.8734 0.9793
-2.9688 -3.8723 -1.8699 0.9793
-1.8351 -4.5210 -1.8698 0.9793
-1.4263 -4.6757 -1.8733 0.9793
-1.0055 -4.7979 -1.8786 0.9792
-0.1363 -4.9412 -1.8943 0.9790
0.3076 -4.9607 -1.9047 0.9789
0.7545 -4.9444 -1.9167 0.9788
1.2019 -4.8918 -1.9304 0.9787
1.6473 -4.8025 -1.9457 0.9785
2.9427 -4.3112 -2.0003 0.9779
3.3509 -4.0731 -2.0212 0.9777
3.7421 -3.7983 -2.0433 0.9774
4.1128 -3.4878 -2.0665 0.9772
4.7752 -2.7618 -2.1140 0.9766
5.1380 -1.3440 -2.0352 0.9775
5.4208 -0.4174 -2.0835 0.9770
5.4979 0.0696 -2.1071 0.9767
5.3307 2.0716 -2.1917 0.9758
4.3783 3.9078 -2.2490 0.9752
2.9026 4.4925 -2.0497 0.9773
2.1089 5.0638 -2.1021 0.9768
1.1757 3.7330 -1.4998 0.9834
1.1884 5.4262 -2.1287 0.9765
0.7085 5.5880 -2.1586 0.9762
-0.3052 5.7657 -2.2126 0.9756
-0.8131 5.6713 -2.1955 0.9758
-1.3054 5.5280 -2.1767 0.9760
-2.2250 5.1068 -2.1347 0.9764
-3.0318 4.5291 -2.0886 0.9769
-3.3852 4.1913 -2.0647 0.9772
-3.7024 3.8265 -2.0404 0.9775
-3.9816 3.4389 -2.0161 0.9777
-4.2219 3.0325 -1.9920 0.9780
-2.7279 1.6107 -1.2140 0.9865
-4.7049 1.7408 -1.9225 0.9787
-5.1578 1.3991 -2.0480 0.9774
-5.2054 0.9224 -2.0259 0.9776
-5.1792 -0.0188 -1.9848 0.9781
-5.1086 -0.4771 -1.9662 0.9783
-4.6850 -1.7722 -1.9195 0.9788
-4.2428 -2.5469 -1.8964 0.9790
-3.9790 -2.9020 -1.8873 0.9791
-3.6893 -3.2334 -1.8799 0.9792
-3.3754 -3.5396 -1.8743 0.9793
-1.9160 -4.4860 -1.8693 0.9793
-1.5099 -4.6471 -1.8725 0.9793
-0.2253 -4.9330 -1.8924 0.9791
0.2177 -4.9596 -1.9024 0.9790
0.6642 -4.9506 -1.9142 0.9788
1.5577 -4.8235 -1.9425 0.9785
3.2698 -4.1241 -2.0169 0.9777
3.6647 -3.8567 -2.0388 0.9775
4.0398 -3.5533 -2.0618 0.9772
2.3836 -0.9065 -0.9773 0.9891
5.1006 -1.4331 -2.0303 0.9776
5.2705 -0.9831 -2.0546 0.9773
5.3999 -0.5140 -2.0787 0.9770
5.4637 1.4716 -2.1684 0.9761
4.9973 2.9388 -2.2217 0.9755
4.1009 4.2234 -2.2559 0.9751
2.9970 4.4599 -2.0592 0.9772
2.6972 4.9117 -2.1474 0.9763
2.2218 5.0748 -2.1230 0.9765
0.8943 3.7571 -1.4800 0.9836
0.8065 5.5550 -2.1511 0.9762
0.1499 2.7400 -1.0516 0.9883
-0.2014 5.7786 -2.2158 0.9755
-0.7117 5.6943 -2.1991 0.9757
-1.2075 5.5607 -2.1806 0.9759
-1.6841 5.3805 -2.1606 0.9761
-2.1369 5.1569 -2.1392 0.9764
-2.5621 4.8933 -2.1167 0.9766
-2.9563 4.5936 -2.0934 0.9769
-3.3168 4.2618 -2.0695 0.9771
-3.9284 3.5187 -2.0210 0.9777
-4.3853 2.6974 -1.9730 0.9782
-2.8196 1.4038 -1.2070 0.9866
5.1432 0.8107 -2.1310 0.9777
3.4808 4.1457 -2.2155 0.9769
3.0840 4.4225 -2.2066 0.9770
1.8272 5.1584 -2.2398 0.9766
0.9292 3.6249 -1.5315 0.9840
0.8737 5.3651 -2.2247 0.9768
-0.0460 2.6191 -1.0721 0.9887
-1.9099 4.8439 -2.1310 0.9777
-3.0323 4.0382 -2.0668 0.9784
-3.3444 3.7102 -2.0443 0.9786
-2.7065 1.4063 -1.2483 0.9869
-4.7982 1.4853 -2.0557 0.9785
-4.8733 1.0422 -2.0396 0.9787
-1.9277 0.0611 -0.7893 0.9917
-1.9456 -0.1126 -0.7976 0.9916
-1.9468 -0.2889 -0.8055 0.9915
-4.6313 -1.1177 -1.9499 0.9796
-4.0896 -2.2625 -1.9129 0.9800
-2.9944 -3.5016 -1.8857 0.9803
-2.6656 -3.7499 -1.8830 0.9803
-2.3185 -3.9710 -1.8820 0.9803
-1.5769 -4.3273 -1.8850 0.9803
-1.1863 -4.4603 -1.8890 0.9802
-0.7853 -4.5621 -1.8946 0.9802
0.4595 -4.6719 -1.9213 0.9799
1.3011 -4.5757 -1.9469 0.9796
1.7181 -4.4753 -1.9620 0.9795
2.1289 -4.3399 -1.9784 0.9793
2.5308 -4.1693 -1.9962 0.9791
3.2961 -3.7238 -2.0353 0.9787
3.6535 -3.4498 -2.0566 0.9785
4.3016 -2.8043 -2.1016 0.9781
5.1396 0.2509 -2.1060 0.9780
5.1096 1.1845 -2.1467 0.9776
5.0264 1.6506 -2.1653 0.9774
4.7220 2.5569 -2.1978 0.9771
4.5021 2.9870 -2.2113 0.9769
4.2388 3.3949 -2.2227 0.9768
3.9346 3.7757 -2.2319 0.9767
2.7749 4.6557 -2.2182 0.9768
1.9209 5.1268 -2.2407 0.9766
0.2567 2.8448 -1.1690 0.9877
0.0013 2.6021 -1.0650 0.9888
-1.8256 4.8868 -2.1351 0.9777
-2.6144 4.3960 -2.0933 0.9781
-3.2841 3.7784 -2.0489 0.9786
-3.5689 3.4314 -2.0263 0.9788
-3.8182 3.0641 -2.0037 0.9791
-4.3461 1.8774 -1.9376 0.9797
-4.4481 1.4655 -1.9168 0.9800
-1.9408 0.0966 -0.7953 0.9916
-1.9511 -0.2536 -0.8052 0.9915
-4.6579 -1.0355 -1.9529 0.9796
-4.5137 -1.4372 -1.9387 0.9797
-4.1343 -2.1906 -1.9149 0.9800
-3.9023 -2.5387 -1.9054 0.9801
-3.6445 -2.8653 -1.8974 0.9802
-3.3626 -3.1690 -1.8911 0.9802
-3.0583 -3.4483 -1.8864 0.9803
-2.7335 -3.7019 -1.8834 0.9803
-2.3899 -3.9286 -1.8820 0.9803
-1.6543 -4.2967 -1.8844 0.9803
-1.2661 -4.4360 -1.8880 0.9803
-0.8670 -4.5442 -1.8934 0.9802
-0.4590 -4.6204 -1.9003 0.9801
-0.0444 -4.6639 -1.9089 0.9800
1.6343 -4.4984 -1.9588 0.9795
2.0466 -4.3700 -1.9750 0.9794
2.8433 -4.0081 -2.0112 0.9790
3.5830 -3.5078 -2.0522 0.9786
3.9237 -3.2075 -2.0742 0.9783
4.4460 -1.9684 -1.9900 0.9792
4.6562 -1.5808 -2.0125 0.9790
4.8327 -1.1713 -2.0351 0.9787
4.9725 -0.7428 -2.0577 0.9785
5.0733 -0.2986 -2.0800 0.9783
5.1208 1.0900 -2.1428 0.9776
5.0469 1.5569 -2.1616 0.9774
4.9269 2.0179 -2.1790 0.9773
4.7610 2.4679 -2.1948 0.9771
4.5500 2.9019 -2.2087 0.9769
3.6643 4.0572 -2.2375 0.9766
2.0140 5.0933 -2.2416 0.9766
1.0772 3.6490 -1.5571 0.9837
-0.8494 5.2481 -2.1759 0.9773
-1.3044 5.1092 -2.1582 0.9775
-1.7403 4.9282 -2.1391 0.9777
-2.1533 4.7080 -2.1188 0.9779
-3.2225 3.8456 -2.0534 0.9785
-3.7708 3.1397 -2.0082 0.9790
-3.9911 2.7588 -1.9857 0.9792
-2.6494 1.5006 -1.2462 0.9869
-4.3211 1.9599 -1.9419 0.9797
-4.4305 1.5489 -1.9209 0.9799
-4.8492 1.2218 -2.0467 0.9786
-2.0264 0.3214 -0.8397 0.9912
-1.9192 -0.0416 -0.7856 0.9917
-4.6831 -0.9527 -1.9559 0.9796
-4.5453 -1.3573 -1.9415 0.9797
-4.3764 -1.7464 -1.9285 0.9798
-3.6986 -2.8012 -1.8989 0.9801
-3.1214 -3.3940 -1.8872 0.9803
-2.4607 -3.8851 -1.8822 0.9803
-2.1036 -4.0895 -1.8822 0.9803
-0.9483 -4.5249 -1.8922 0.9802
-0.5419 -4.6076 -1.8988 0.9801
0.2898 -4.6747 -1.9169 0.9800
1.9640 -4.3988 -1.9716 0.9794
2.3698 -4.2424 -1.9888 0.9792
3.8568 -3.2707 -2.0697 0.9784
4.1788 -2.9447 -2.0923 0.9781
4.4689 -2.5846 -2.1129 0.9779
5.0562 -0.3893 -2.0755 0.9783
5.1302 0.9955 -2.1388 0.9777
4.9548 1.9256 -2.1756 0.9773
4.3502 3.2333 -2.2183 0.9768
2.8987 4.4866 -2.1862 0.9772
2.1062 5.0573 -2.2421 0.9766
0.6824 5.3828 -2.2207 0.9768
-0.2835 5.3556 -2.1950 0.9771
-0.7556 5.2707 -2.1792 0.9772
-1.2140 5.1407 -2.1618 0.9774
-1.6541 4.9680 -2.1430 0.9776
-2.0719 4.7554 -2.1230 0.9778
-2.4641 4.5062 -2.1020 0.9780
-2.8274 4.2237 -2.0802 0.9783
-3.7219 3.2146 -2.0128 0.9790
-4.4114 1.6322 -1.9251 0.9799
-2.1574 0.3823 -0.8967 0.9906
-1.9016 -0.0069 -0.7783 0.9918
-2.1875 -0.4040 -0.9104 0.9904
-4.4129 -1.6693 -1.9310 0.9798
-4.2202 -2.0445 -1.9192 0.9799
-3.7516 -2.7361 -1.9004 0.9801
-3.4792 -3.0493 -1.8934 0.9802
-3.1837 -3.3386 -1.8881 0.9803
-2.8669 -3.6027 -1.8844 0.9803
-2.5307 -3.8405 -1.8824 0.9803
-1.8074 -4.2319 -1.8834 0.9803
-0.2124 -4.6503 -1.9052 0.9801
0.2051 -4.6740 -1.9148 0.9800
1.0469 -4.6194 -1.9386 0.9797
1.8811 -4.4261 -1.9683 0.9794
2.2887 -4.2768 -1.9853 0.9793
3.0709 -3.8732 -2.0230 0.9789
3.4395 -3.6197 -2.0436 0.9787
2.3872 -0.9078 -1.0453 0.9890
4.7657 -1.3390 -2.0260 0.9788
4.9206 -0.9178 -2.0486 0.9786
5.0375 -0.4795 -2.0710 0.9784
5.1139 -0.0276 -2.0930 0.9781
5.1479 0.4339 -2.1144 0.9779
5.1377 0.9010 -2.1348 0.9777
4.9809 1.8329 -2.1722 0.9773
4.8335 2.2879 -2.1886 0.9772
4.6405 2.7290 -2.2033 0.9770
2.6088 4.7508 -2.2182 0.9768
2.1980 5.0204 -2.2430 0.9766
1.7372 5.1868 -2.2387 0.9766
1.2628 5.3052 -2.2320 0.9767
-0.1870 5.3670 -2.1979 0.9771
-0.6613 5.2916 -2.1826 0.9772
-1.1228 5.1705 -2.1655 0.9774
-2.7566 4.2832 -2.0847 0.9782
-3.9066 2.9144 -1.9948 0.9792
-2.6208 1.6121 -1.2593 0.9868
4.7587 1.1941 -2.1382 0.9788
4.1492 2.8621 -2.1968 0.9782
3.6029 3.5846 -2.2150 0.9781
3.2767 3.9025 -2.2208 0.9780
2.9194 4.1864 -2.2243 0.9780
2.5348 4.4330 -2.2255 0.9780
1.7014 4.8033 -2.2208 0.9780
0.9273 3.6177 -1.6276 0.9838
-0.0458 2.6075 -1.1366 0.9887
-1.3846 4.7070 -2.1383 0.9788
-1.7844 4.5255 -2.1201 0.9790
-2.5143 4.0590 -2.0809 0.9794
-2.8387 3.7803 -2.0603 0.9796
-3.3955 3.1487 -2.0181 0.9800
-2.6575 1.3808 -1.3052 0.9870
-1.5217 0.1853 -0.6681 0.9933
-1.5279 0.0484 -0.6662 0.9934
-1.5135 -0.2246 -0.6668 0.9933
-1.5391 -0.3715 -0.6900 0.9931
-3.8633 -2.1373 -1.9242 0.9809
-3.1222 -3.0507 -1.9024 0.9811
-1.4908 -4.0910 -1.8976 0.9812
-0.7422 -4.3119 -1.9068 0.9811
0.8315 -4.3816 -1.9436 0.9807
1.2279 -4.3181 -1.9565 0.9806
1.6207 -4.2216 -1.9708 0.9805
2.0072 -4.0919 -1.9863 0.9803
3.1027 -3.5052 -2.0401 0.9798
3.7508 -2.9548 -2.0810 0.9794
4.0414 -2.6347 -2.1026 0.9792
4.7611 -0.1940 -2.0767 0.9794
4.8056 0.2346 -2.0968 0.9792
4.4026 2.3840 -2.1820 0.9784
4.1958 2.7838 -2.1945 0.9783
3.3451 3.8410 -2.2198 0.9780
2.9938 4.1321 -2.2238 0.9780
2.2112 4.6011 -2.2248 0.9780
0.0013 2.6076 -1.1364 0.9887
-0.4434 4.9679 -2.1737 0.9785
-0.8795 4.8741 -2.1585 0.9786
-1.3015 4.7390 -2.1418 0.9788
-2.7756 3.8387 -2.0645 0.9795
-3.0761 3.5390 -2.0436 0.9797
-3.3451 3.2163 -2.0224 0.9800
-3.5813 2.8740 -2.0012 0.9802
-3.7837 2.5157 -1.9802 0.9804
-4.0849 1.7645 -1.9392 0.9808
-1.5163 0.2125 -0.6673 0.9933
-1.5294 0.0762 -0.6674 0.9933
-1.5194 -0.1975 -0.6678 0.9933
-1.5252 -0.3391 -0.6809 0.9932
-4.0969 -1.7213 -1.9367 0.9808
-3.9052 -2.0692 -1.9261 0.9809
-3.6871 -2.3987 -1.9170 0.9810
-2.5844 -3.5000 -1.8961 0.9812
-1.9189 -3.9022 -1.8952 0.9812
-1.5640 -4.0622 -1.8971 0.9812
-1.1969 -4.1934 -1.9006 0.9812
-0.4338 -4.3662 -1.9122 0.9810
0.7513 -4.3904 -1.9412 0.9808
1.1481 -4.3336 -1.9538 0.9806
1.5418 -4.2437 -1.9678 0.9805
2.3096 -3.9646 -1.9996 0.9802
2.6782 -3.7755 -2.0174 0.9800
3.0330 -3.5538 -2.0362 0.9798
3.3710 -3.3003 -2.0560 0.9796
3.6893 -3.0158 -2.0767 0.9794
4.1719 -1.8470 -1.9884 0.9803
4.3662 -1.4823 -2.0095 0.9801
4.5284 -1.0976 -2.0307 0.9799
4.6562 -0.6955 -2.0518 0.9797
4.7474 -0.2794 -2.0726 0.9795
4.8120 0.5813 -2.1124 0.9791
4.7825 1.0180 -2.1310 0.9789
4.7108 1.4532 -2.1485 0.9787
4.5963 1.8825 -2.1646 0.9786
4.4394 2.3012 -2.1792 0.9784
3.7249 3.4475 -2.2120 0.9781
3.0671 4.0762 -2.2232 0.9780
2.2943 4.5611 -2.2251 0.9780
1.8752 4.7424 -2.2225 0.9780
0.5447 5.0212 -2.2011 0.9782
0.0503 2.7135 -1.1828 0.9882
-0.3541 4.9817 -2.1766 0.9784
-1.2176 4.7695 -2.1453 0.9788
-2.0125 4.4002 -2.1087 0.9791
-2.3753 4.1634 -2.0890 0.9793
-2.7113 3.8961 -2.0686 0.9795
-3.0179 3.6015 -2.0478 0.9797
-3.5363 2.9445 -2.0055 0.9801
-3.7456 2.5891 -1.9844 0.9803
-2.6217 1.4849 -1.3131 0.9869
-4.0608 1.8419 -1.9433 0.9807
-1.5097 0.2395 -0.6662 0.9934
-1.5099 -0.3072 -0.6715 0.9933
-1.5732 -0.4698 -0.7155 0.9929
-3.7332 -2.3337 -1.9187 0.9810
-2.6478 -3.4536 -1.8966 0.9812
-1.6367 -4.0322 -1.8966 0.9812
-1.2719 -4.1693 -1.8997 0.9812
-0.8963 -4.2770 -1.9045 0.9811
-0.5121 -4.3543 -1.9108 0.9811
0.2738 -4.4154 -1.9280 0.9809
0.6711 -4.3979 -1.9389 0.9808
2.2337 -3.9987 -1.9962 0.9802
2.6049 -3.8163 -2.0137 0.9800
2.9627 -3.6011 -2.0323 0.9799
3.9271 -2.7674 -2.0938 0.9793
4.1948 -2.4261 -2.1119 0.9791
4.3295 -1.5576 -2.0052 0.9801
4.4984 -1.1767 -2.0264 0.9799
4.7320 -0.3643 -2.0684 0.9795
4.7924 0.0607 -2.0888 0.9793
4.6228 1.7966 -2.1615 0.9786
4.4744 2.2178 -2.1764 0.9784
4.2842 2.6247 -2.1897 0.9783
4.0533 3.0127 -2.2010 0.9782
2.7706 4.2884 -2.2251 0.9780
2.3765 4.5194 -2.2253 0.9780
1.9612 4.7092 -2.2232 0.9780
1.0859 4.9582 -2.2121 0.9781
0.1003 2.7383 -1.1942 0.9881
-0.2644 4.9937 -2.1794 0.9784
-0.7049 4.9170 -2.1648 0.9786
-2.9585 3.6630 -2.0520 0.9797
-3.4900 3.0143 -2.0098 0.9801
-2.6036 1.5374 -1.3178 0.9869
-1.5978 0.5912 -0.7425 0.9926
-1.5584 0.4227 -0.7037 0.9930
-1.5017 0.2661 -0.6646 0.9934
