ply
format ascii 1.0
element vertex 1595
property float32 x
property float32 y
property float32 z
property float32 I
end_header
-11.5032 3.6160 -1.9865 0.9523
-11.3973 1.4386 -1.8925 0.9545
-11.2280 0.4051 -1.8509 0.9555
-10.9888 -0.5878 -1.8129 0.9564
-9.9033 -3.3033 -1.7198 0.9586
-8.3556 -5.6000 -1.6570 0.9600
-4.2103 -8.8665 -1.6170 0.9610
-3.4095 -9.2307 -1.6211 0.9609
-2.5822 -9.5406 -1.6283 0.9607
-1.7300 -9.7948 -1.6386 0.9605
0.9588 -10.2042 -1.6884 0.9593
4.7726 -9.8374 -1.8013 0.9566
6.7245 -9.2093 -1.8785 0.9548
7.6970 -8.7722 -1.9226 0.9538
8.6595 -8.2485 -1.9702 0.9527
10.5266 -6.9281 -2.0760 0.9502
12.7771 -2.9120 -2.1589 0.9483
13.3707 -1.8103 -2.2228 0.9468
13.8753 -0.6258 -2.2881 0.9452
9.7171 2.2080 -1.6416 0.9604
8.4143 2.7226 -1.4569 0.9648
5.6495 3.7130 -1.1137 0.9730
4.5415 4.3203 -1.0326 0.9749
3.5384 4.8393 -0.9876 0.9760
2.0266 5.3382 -0.9407 0.9771
0.2699 2.8527 -0.4720 0.9885
0.0296 6.1360 -1.0109 0.9754
-0.5331 6.2811 -1.0385 0.9748
-1.5787 5.8480 -0.9979 0.9757
-6.2124 13.1046 -2.3891 0.9429
-7.7099 13.0931 -2.5031 0.9403
-8.5985 12.0015 -2.4322 0.9419
-9.3604 10.8640 -2.3624 0.9435
-10.5151 8.5137 -2.2289 0.9466
-11.4007 4.9836 -2.0497 0.9508
-11.4952 3.8425 -1.9967 0.9521
-11.5003 2.7303 -1.9472 0.9532
-11.2679 0.6100 -1.8590 0.9553
-11.0423 -0.3912 -1.8202 0.9562
-10.3995 -2.2647 -1.7534 0.9578
-9.9918 -3.1338 -1.7251 0.9584
-9.5322 -3.9565 -1.7002 0.9590
-9.0245 -4.7318 -1.6787 0.9595
-7.8778 -6.1384 -1.6452 0.9603
-7.2446 -6.7685 -1.6333 0.9606
-5.8710 -7.8794 -1.6188 0.9609
-5.1348 -8.3589 -1.6161 0.9610
-4.3682 -8.7867 -1.6165 0.9610
-3.5730 -9.1617 -1.6200 0.9609
-1.9036 -9.7481 -1.6362 0.9605
-1.0326 -9.9565 -1.6490 0.9602
-0.1399 -10.1059 -1.6650 0.9599
2.6492 -10.1770 -1.7324 0.9583
4.5766 -9.8833 -1.7943 0.9568
5.5513 -9.6247 -1.8304 0.9560
7.5017 -8.8671 -1.9134 0.9540
8.4668 -8.3611 -1.9603 0.9529
9.4165 -7.7658 -2.0107 0.9517
10.3434 -7.0781 -2.0647 0.9505
11.2218 -5.0263 -2.0256 0.9514
12.6480 -3.1234 -2.1462 0.9486
13.7815 -0.8708 -2.2749 0.9456
14.2048 0.3751 -2.3409 0.9440
11.6569 1.3571 -1.9333 0.9535
10.0135 2.0862 -1.6850 0.9594
7.4727 3.0230 -1.3280 0.9678
6.5075 3.3377 -1.2048 0.9708
5.1995 3.9767 -1.0784 0.9738
4.0266 4.4198 -0.9850 0.9761
3.6422 4.7973 -0.9923 0.9759
3.0595 4.8814 -0.9491 0.9769
11.3556 -1.9492 -2.1656 0.9542
11.7759 -0.9499 -2.2206 0.9531
12.1086 0.1091 -2.2760 0.9519
10.2926 1.9583 -1.9693 0.9583
8.8949 2.5339 -1.7384 0.9631
5.2359 3.8620 -1.2229 0.9739
4.0768 4.3215 -1.1167 0.9761
3.7387 4.7506 -1.1363 0.9757
2.6502 4.9956 -1.0629 0.9772
1.2330 5.5332 -1.0655 0.9772
0.2363 5.8689 -1.1040 0.9764
-0.2998 6.0826 -1.1447 0.9755
-0.8865 6.3480 -1.2048 0.9743
-1.3339 5.7420 -1.1080 0.9763
-4.9495 11.4737 -2.3487 0.9504
-5.8158 10.7280 -2.2937 0.9515
-8.4538 8.8011 -2.2938 0.9515
-9.7277 5.7917 -2.1280 0.9550
-9.9630 4.7822 -2.0772 0.9560
-10.1762 2.8000 -1.9838 0.9580
-10.1641 1.8391 -1.9415 0.9588
-9.7110 -0.8714 -1.8326 0.9611
-9.4364 -1.7074 -1.8025 0.9617
-9.1070 -2.5058 -1.7754 0.9623
-8.7266 -3.2649 -1.7513 0.9628
-8.2989 -3.9833 -1.7302 0.9632
-7.8269 -4.6599 -1.7122 0.9636
-7.3138 -5.2936 -1.6970 0.9639
-5.5542 -6.9280 -1.6690 0.9645
-4.2209 -7.7860 -1.6647 0.9646
-1.2439 -8.9064 -1.6903 0.9641
2.0394 -9.1524 -1.7625 0.9626
6.3194 -8.0298 -1.9206 0.9593
7.1607 -7.5907 -1.9614 0.9584
7.9848 -7.0747 -2.0052 0.9575
10.2674 -5.0427 -2.1501 0.9545
11.2612 -2.1427 -2.1546 0.9544
7.9881 2.9067 -1.5978 0.9660
7.0126 3.2885 -1.4558 0.9690
4.7415 4.0508 -1.1722 0.9749
3.3296 4.9164 -1.1161 0.9761
2.7443 4.9550 -1.0646 0.9772
2.2771 5.1503 -1.0585 0.9773
1.3302 5.5006 -1.0637 0.9772
0.4569 3.0689 -0.5832 0.9875
0.3400 5.8275 -1.0972 0.9765
-0.1886 6.0383 -1.1355 0.9757
-0.7629 6.2884 -1.1906 0.9745
-1.2271 5.7509 -1.1053 0.9764
-2.1553 6.9743 -1.3721 0.9707
-4.7640 11.6151 -2.3597 0.9502
-5.6487 10.8837 -2.3048 0.9513
-6.4403 10.0868 -2.2494 0.9525
-7.1363 9.2380 -2.1941 0.9536
-8.3361 8.9978 -2.3055 0.9513
-9.9228 4.9849 -2.0872 0.9558
-10.1695 2.9964 -1.9927 0.9578
-10.1725 2.0307 -1.9498 0.9587
-10.1020 1.0905 -1.9098 0.9595
-9.7593 -0.6987 -1.8391 0.9610
-9.4962 -1.5420 -1.8083 0.9616
-9.1776 -2.3481 -1.7806 0.9622
-8.3887 -3.8419 -1.7342 0.9631
-7.4203 -5.1695 -1.6998 0.9639
-6.8764 -5.7683 -1.6870 0.9641
-6.2961 -6.3224 -1.6771 0.9643
-5.6818 -6.8311 -1.6701 0.9645
-4.3604 -7.7082 -1.6646 0.9646
-2.9286 -8.3912 -1.6705 0.9645
-2.1763 -8.6568 -1.6778 0.9643
-1.4022 -8.8699 -1.6879 0.9641
0.2029 -9.1321 -1.7169 0.9635
2.7185 -9.0860 -1.7826 0.9621
6.1484 -8.1092 -1.9128 0.9594
6.9925 -7.6853 -1.9530 0.9586
8.6260 -6.6062 -2.0422 0.9567
9.4017 -5.9477 -2.0911 0.9557
10.1393 -5.2087 -2.1425 0.9547
2.3304 -0.9445 -0.4726 0.9898
10.6383 -3.2390 -2.0902 0.9557
11.1638 -2.3334 -2.1437 0.9546
11.6165 -1.3600 -2.1984 0.9535
11.9858 -0.3242 -2.2537 0.9524
11.8984 0.7441 -2.2408 0.9526
9.4168 2.3190 -1.8229 0.9613
8.2028 2.8185 -1.6303 0.9653
7.2129 3.2251 -1.4851 0.9684
6.2893 3.5177 -1.3545 0.9711
3.4315 4.8751 -1.1206 0.9760
2.8384 4.9138 -1.0666 0.9772
1.4271 5.4675 -1.0621 0.9773
0.2274 2.9746 -0.5607 0.9879
-0.0791 5.9947 -1.1269 0.9759
-0.6421 6.2304 -1.1773 0.9748
-1.1416 5.8660 -1.1233 0.9760
-4.5750 11.7532 -2.3706 0.9500
-5.4779 11.0368 -2.3159 0.9511
-6.2885 10.2519 -2.2606 0.9522
-7.0038 9.4125 -2.2052 0.9534
-8.7784 8.2121 -2.2594 0.9523
-10.0615 4.1838 -2.0481 0.9566
-10.1219 1.2777 -1.9176 0.9593
-9.9961 0.3606 -1.8801 0.9601
-9.8053 -0.5245 -1.8456 0.9608
-9.5538 -1.3750 -1.8143 0.9615
-8.8858 -2.9639 -1.7606 0.9626
-8.4767 -3.6989 -1.7384 0.9631
-7.5253 -5.0436 -1.7028 0.9638
-5.8082 -6.7324 -1.6713 0.9645
-4.4987 -7.6285 -1.6646 0.9646
-3.0774 -8.3315 -1.6694 0.9645
-2.3297 -8.6075 -1.6761 0.9644
-0.7699 -9.0013 -1.6981 0.9639
0.8619 -9.1730 -1.7318 0.9632
1.6990 -9.1706 -1.7531 0.9628
3.4020 -8.9785 -1.8047 0.9617
4.2615 -8.7839 -1.8351 0.9610
5.1213 -8.5204 -1.8685 0.9603
5.9770 -8.1855 -1.9051 0.9596
6.8235 -7.7768 -1.9446 0.9588
7.6553 -7.2919 -1.9872 0.9579
9.2482 -6.0868 -2.0810 0.9559
9.9942 -5.3640 -2.1320 0.9549
2.3573 -1.0052 -0.4817 0.9896
11.0635 -2.5214 -2.1328 0.9549
12.2136 0.5430 -2.2980 0.9515
11.3375 1.5276 -2.1503 0.9545
5.6618 3.7211 -1.2735 0.9728
4.4031 4.1887 -1.1423 0.9756
3.5342 4.8335 -1.1255 0.9759
2.9326 4.8719 -1.0688 0.9771
2.4654 5.0734 -1.0602 0.9773
1.9970 5.2602 -1.0576 0.9774
1.0405 5.5960 -1.0699 0.9771
-0.5240 6.1740 -1.1647 0.9751
-1.5856 5.8733 -1.1435 0.9755
-4.3823 11.8880 -2.3815 0.9497
-5.3033 11.1870 -2.3270 0.9509
-6.1328 10.4148 -2.2718 0.9520
-6.8675 9.5853 -2.2164 0.9531
-8.6729 8.4117 -2.2710 0.9520
-9.1563 7.4135 -2.2144 0.9532
-10.0317 4.3851 -2.0578 0.9564
-10.1463 3.3916 -2.0108 0.9574
-9.8487 -0.3489 -1.8523 0.9607
-9.6091 -1.2066 -1.8203 0.9613
-9.3124 -2.0279 -1.7914 0.9620
-8.9624 -2.8109 -1.7655 0.9625
-8.5628 -3.5541 -1.7426 0.9630
-7.1000 -5.5324 -1.6918 0.9640
-6.5341 -6.1046 -1.6808 0.9643
-2.4821 -8.5560 -1.6745 0.9644
-1.7166 -8.7905 -1.6835 0.9642
1.5295 -9.1760 -1.7485 0.9628
3.2293 -9.0095 -1.7989 0.9618
4.9483 -8.5792 -1.8615 0.9605
6.6540 -7.8651 -1.9364 0.9589
7.4893 -7.3958 -1.9784 0.9581
8.3047 -6.8489 -2.0233 0.9571
9.0933 -6.2226 -2.0711 0.9561
9.8473 -5.5161 -2.1215 0.9551
9.7979 -4.3885 -2.0179 0.9572
10.9603 -2.7066 -2.1220 0.9551
12.1621 0.3211 -2.2868 0.9517
9.9926 2.0819 -1.9186 0.9593
8.6599 2.6305 -1.7011 0.9638
7.5898 3.0703 -1.5389 0.9672
6.6404 3.4058 -1.4027 0.9701
4.5153 4.1429 -1.1518 0.9754
3.9974 4.3878 -1.1157 0.9761
3.0269 4.8294 -1.0713 0.9771
9.5758 -2.5422 -2.0942 0.9603
10.5813 0.0953 -2.2368 0.9577
10.7531 1.0627 -2.2841 0.9568
10.2705 1.9541 -2.2099 0.9582
6.0609 3.6829 -1.4991 0.9714
5.3374 3.9369 -1.4019 0.9732
4.6858 4.1517 -1.3233 0.9747
3.7341 4.7448 -1.2763 0.9756
-0.3045 6.1772 -1.3073 0.9750
-0.9034 6.4692 -1.3807 0.9736
-3.4657 10.5370 -2.3447 0.9557
-4.3079 9.9863 -2.2989 0.9565
-5.0772 9.3657 -2.2519 0.9574
-5.7693 8.6866 -2.2043 0.9583
-6.3813 7.9599 -2.1565 0.9591
-6.9121 7.1961 -2.1092 0.9600
-7.9328 6.9020 -2.2227 0.9579
-8.8777 4.2612 -2.0815 0.9605
-8.9446 0.0000 -1.8907 0.9641
-8.5314 -1.5437 -1.8326 0.9652
-7.9113 -2.9598 -1.7855 0.9661
-7.5319 -3.6152 -1.7660 0.9664
-3.8443 -7.0912 -1.7050 0.9676
-2.5300 -7.6921 -1.7116 0.9674
0.3344 -8.3050 -1.7569 0.9666
2.6154 -8.2000 -1.8193 0.9654
6.4197 -6.8052 -1.9775 0.9625
7.1420 -6.3279 -2.0170 0.9617
7.8384 -5.7818 -2.0589 0.9610
2.3552 -0.9055 -0.5334 0.9897
9.9074 -1.8851 -2.1318 0.9596
10.5359 -0.0950 -2.2272 0.9578
10.7259 0.8651 -2.2746 0.9570
10.5974 1.8190 -2.2728 0.9570
7.9741 2.9017 -1.7937 0.9659
7.0167 3.2904 -1.6382 0.9688
6.2099 3.6218 -1.5196 0.9710
5.4794 3.8911 -1.4206 0.9729
4.8107 4.1099 -1.3375 0.9745
3.8397 4.7019 -1.2832 0.9755
3.3256 4.9105 -1.2536 0.9760
2.6989 4.8731 -1.1775 0.9775
2.2370 5.0596 -1.1694 0.9776
1.7776 5.2445 -1.1705 0.9776
1.3145 5.4353 -1.1820 0.9774
-0.1912 6.1229 -1.2949 0.9753
-1.2263 5.7469 -1.2421 0.9763
-4.1439 10.1032 -2.3083 0.9563
-4.9284 9.4958 -2.2615 0.9572
-5.6363 8.8275 -2.2139 0.9581
-7.8422 7.0755 -2.2327 0.9577
-8.2577 6.2068 -2.1836 0.9586
-8.5884 5.3254 -2.1361 0.9595
-9.0072 3.5563 -2.0470 0.9612
-9.1020 2.6819 -2.0058 0.9619
-8.9736 0.1618 -1.8972 0.9640
-8.8062 -0.6305 -1.8662 0.9645
-8.5828 -1.3937 -1.8380 0.9651
-8.3071 -2.1253 -1.8125 0.9656
-7.9823 -2.8234 -1.7897 0.9660
-7.6118 -3.4861 -1.7697 0.9664
-7.1986 -4.1119 -1.7524 0.9667
-6.7455 -4.6994 -1.7378 0.9669
-5.7305 -5.7545 -1.7166 0.9673
-3.3307 -7.3535 -1.7064 0.9675
-1.2755 -8.0684 -1.7267 0.9672
-0.5531 -8.2074 -1.7388 0.9669
0.9341 -8.3268 -1.7711 0.9663
4.0012 -7.8822 -1.8685 0.9645
6.2716 -6.8930 -1.9699 0.9626
7.7005 -5.8974 -2.0502 0.9611
2.3293 -0.9440 -0.5313 0.9898
9.3932 -2.8599 -2.0755 0.9607
9.8277 -2.0542 -2.1223 0.9598
10.8108 1.6556 -2.3118 0.9563
8.1882 2.8135 -1.8301 0.9652
7.2012 3.2199 -1.6674 0.9683
5.6255 3.8442 -1.4403 0.9725
4.9385 4.0674 -1.3524 0.9742
4.3315 4.2719 -1.2860 0.9754
1.8702 5.2073 -1.1696 0.9776
0.9373 5.6011 -1.2004 0.9770
-0.0801 6.0699 -1.2832 0.9755
-1.1419 5.8675 -1.2635 0.9759
-2.0056 6.9303 -1.5250 0.9709
-4.7764 9.6234 -2.2710 0.9570
-6.1445 8.2577 -2.1757 0.9588
-6.7081 7.5076 -2.1282 0.9597
-7.7481 7.2482 -2.2427 0.9575
-8.1809 6.3830 -2.1934 0.9585
-8.7935 4.6180 -2.0995 0.9602
-8.9792 3.7337 -2.0556 0.9610
-9.0954 1.1481 -1.9378 0.9632
-9.0003 0.3247 -1.9037 0.9638
-8.8446 -0.4731 -1.8722 0.9644
-8.3666 -1.9806 -1.8174 0.9655
-8.0515 -2.6856 -1.7941 0.9659
-7.6900 -3.3556 -1.7735 0.9663
-6.8399 -4.5842 -1.7405 0.9669
-3.4617 -7.2901 -1.7059 0.9675
-2.1205 -7.8347 -1.7157 0.9674
-0.6999 -8.1835 -1.7361 0.9670
0.7822 -8.3246 -1.7674 0.9664
1.5401 -8.3130 -1.7871 0.9660
3.0754 -8.1164 -1.8347 0.9651
5.3744 -7.3603 -1.9264 0.9634
6.1228 -6.9781 -1.9623 0.9628
6.8538 -6.5284 -2.0008 0.9620
7.5614 -6.0101 -2.0417 0.9613
8.2392 -5.4227 -2.0850 0.9605
2.3439 -0.9995 -0.5386 0.9896
9.2982 -3.0152 -2.0662 0.9608
9.7453 -2.2210 -2.1128 0.9600
9.6776 2.1990 -2.0978 0.9602
8.4111 2.7216 -1.8687 0.9645
7.3858 3.1439 -1.6968 0.9677
6.5205 3.4942 -1.5637 0.9702
5.7762 3.7963 -1.4611 0.9721
5.0696 4.0242 -1.3682 0.9739
3.5299 4.8277 -1.2642 0.9758
2.8874 4.7969 -1.1835 0.9774
2.4224 4.9848 -1.1715 0.9776
1.5014 5.3555 -1.1757 0.9775
0.0291 6.0182 -1.2721 0.9757
-0.5337 6.2880 -1.3339 0.9745
-1.1606 6.5959 -1.4157 0.9730
-1.5729 5.8264 -1.2757 0.9756
-3.8073 10.3281 -2.3268 0.9560
-6.6011 7.6615 -2.1377 0.9595
-7.0997 6.8859 -2.0906 0.9604
-8.1006 6.5587 -2.2032 0.9583
-8.9480 3.9114 -2.0642 0.9609
-9.0726 3.0327 -2.0221 0.9616
-9.1069 1.3167 -1.9450 0.9631
-9.0244 0.4886 -1.9104 0.9637
-8.8806 -0.3146 -1.8784 0.9643
-8.6793 -1.0899 -1.8490 0.9649
-8.4242 -1.8345 -1.8224 0.9654
-8.1188 -2.5464 -1.7986 0.9658
-6.9327 -4.4674 -1.7433 0.9668
-6.4571 -5.0314 -1.7303 0.9671
-5.9459 -5.5551 -1.7200 0.9673
-5.4015 -6.0375 -1.7124 0.9674
-4.2223 -6.8735 -1.7051 0.9676
-3.5918 -7.2249 -1.7055 0.9676
-1.5618 -7.9981 -1.7226 0.9672
0.6307 -8.3202 -1.7638 0.9665
2.1509 -8.2628 -1.8048 0.9657
3.6910 -7.9707 -1.8567 0.9647
6.7082 -6.6245 -1.9929 0.9622
7.4210 -6.1201 -2.0333 0.9614
8.1054 -5.5466 -2.0761 0.9606
8.7543 -4.9038 -2.1210 0.9598
8.6863 -3.8906 -2.0119 0.9618
9.6603 -2.3856 -2.1033 0.9601
10.0558 -1.5466 -2.1506 0.9593
10.7757 1.2546 -2.2931 0.9566
9.9717 2.0775 -2.1531 0.9592
3.9975 4.3879 -1.2547 0.9760
2.9824 4.7584 -1.1871 0.9773
8.5557 -2.2714 -2.0804 0.9643
8.8994 -1.5276 -2.1222 0.9636
9.1785 -0.7404 -2.1642 0.9629
9.5157 0.9405 -2.2473 0.9615
9.5614 1.8192 -2.2875 0.9608
6.0520 3.6775 -1.6644 0.9713
5.3669 3.9587 -1.5674 0.9730
4.7521 4.2104 -1.4922 0.9742
4.1780 4.4288 -1.4309 0.9753
3.7295 4.7389 -1.4173 0.9755
2.1763 5.1726 -1.3189 0.9772
0.3635 2.7856 -0.6602 0.9885
0.2427 6.0254 -1.4172 0.9755
-0.9059 6.4866 -1.5393 0.9734
-1.3311 5.7298 -1.3825 0.9761
-3.0575 9.2961 -2.2999 0.9606
-5.1260 7.7180 -2.1775 0.9626
-5.6836 7.0895 -2.1355 0.9634
-6.1711 6.4247 -2.0937 0.9641
-6.5881 5.7320 -2.0524 0.9648
-7.7718 4.6272 -2.1258 0.9635
-7.9981 3.8391 -2.0851 0.9642
-8.1541 3.0507 -2.0461 0.9649
-8.2424 2.2679 -2.0091 0.9655
-8.2661 1.4957 -1.9743 0.9661
-8.2283 0.7385 -1.9416 0.9666
-7.9812 -0.7162 -1.8833 0.9676
-7.7783 -1.4074 -1.8578 0.9680
-7.2293 -2.7047 -1.8141 0.9688
-6.8891 -3.3067 -1.7960 0.9691
-6.5089 -3.8752 -1.7803 0.9694
-5.6388 -4.9060 -1.7566 0.9698
-5.1538 -5.3654 -1.7485 0.9699
-4.6386 -5.7859 -1.7429 0.9700
-3.5266 -6.5052 -1.7391 0.9701
-2.9341 -6.8016 -1.7409 0.9700
-2.3202 -7.0542 -1.7453 0.9699
-1.6870 -7.2616 -1.7521 0.9698
-1.0366 -7.4226 -1.7614 0.9697
-0.3715 -7.5357 -1.7732 0.9695
0.9933 -7.6128 -1.8043 0.9689
1.6876 -7.5737 -1.8236 0.9686
2.3860 -7.4809 -1.8454 0.9683
3.7815 -7.1281 -1.8964 0.9674
5.8124 -6.1614 -1.9907 0.9658
6.4542 -5.7186 -2.0266 0.9652
7.0695 -5.2146 -2.0646 0.9645
2.3565 -0.9060 -0.5934 0.9897
9.1140 2.4195 -2.2162 0.9620
6.2006 3.6163 -1.6870 0.9709
5.4985 3.9047 -1.5850 0.9727
4.8713 4.1617 -1.5058 0.9740
4.2932 4.3896 -1.4431 0.9751
3.8349 4.6961 -1.4249 0.9754
2.7411 4.9492 -1.3297 0.9770
0.1698 2.9098 -0.6850 0.9881
-0.7809 6.4371 -1.5240 0.9737
-2.1574 6.9809 -1.7172 0.9704
-3.6626 8.9297 -2.2684 0.9611
-5.0054 7.8395 -2.1860 0.9625
-5.5769 7.2193 -2.1440 0.9632
-6.0786 6.5611 -2.1021 0.9639
-7.7175 4.7854 -2.1342 0.9634
-7.9583 3.9980 -2.0931 0.9641
-8.1282 3.2092 -2.0538 0.9647
-8.2664 1.6502 -1.9811 0.9660
-8.0159 -0.5739 -1.8887 0.9675
-7.8232 -1.2703 -1.8627 0.9680
-7.5811 -1.9396 -1.8391 0.9684
-7.2927 -2.5795 -1.8180 0.9687
-6.5886 -3.7635 -1.7833 0.9693
-6.1783 -4.3042 -1.7697 0.9695
-5.7326 -4.8088 -1.7586 0.9697
-5.2540 -5.2760 -1.7499 0.9699
-4.7447 -5.7044 -1.7438 0.9700
-3.6432 -6.4403 -1.7390 0.9701
-3.0553 -6.7454 -1.7404 0.9700
-2.4455 -7.0069 -1.7442 0.9700
-0.5066 -7.5168 -1.7706 0.9695
0.1686 -7.5908 -1.7844 0.9693
0.8542 -7.6143 -1.8008 0.9690
1.5474 -7.5858 -1.8196 0.9687
2.2452 -7.5040 -1.8409 0.9683
5.6805 -6.2433 -1.9838 0.9659
6.3269 -5.8127 -2.0192 0.9653
7.5376 -4.7684 -2.0962 0.9640
8.0766 -4.1490 -2.1340 0.9634
8.4006 -2.5577 -2.0638 0.9646
8.7683 -1.8327 -2.1053 0.9639
9.4733 0.5924 -2.2308 0.9617
9.5535 1.4630 -2.2715 0.9611
7.1894 3.2146 -1.8509 0.9682
5.6332 3.8495 -1.6035 0.9724
4.4106 4.3499 -1.4559 0.9749
3.9414 4.6527 -1.4331 0.9753
2.8375 4.9122 -1.3332 0.9770
2.3642 5.0970 -1.3205 0.9772
1.4317 5.4851 -1.3323 0.9770
0.4928 2.9447 -0.7017 0.9878
0.2191 2.8658 -0.6755 0.9883
-0.0813 6.1595 -1.4477 0.9750
-1.1421 5.8690 -1.4052 0.9757
-3.5135 9.0263 -2.2764 0.9610
-4.2296 8.5216 -2.2359 0.9617
-5.4673 7.3476 -2.1525 0.9631
-5.9832 6.6963 -2.1105 0.9638
-6.4286 6.0139 -2.0689 0.9645
-7.6337 -1.8071 -1.8437 0.9683
-7.3544 -2.4531 -1.8221 0.9686
-6.2639 -4.1981 -1.7722 0.9695
-5.8251 -4.7101 -1.7606 0.9697
-5.3529 -5.1849 -1.7515 0.9698
-4.8496 -5.6213 -1.7448 0.9700
-4.3175 -6.0180 -1.7407 0.9700
-2.5700 -6.9578 -1.7432 0.9700
-1.3005 -7.3634 -1.7573 0.9697
0.0317 -7.5799 -1.7815 0.9693
1.4072 -7.5958 -1.8156 0.9688
2.1044 -7.5248 -1.8364 0.9684
2.8036 -7.3992 -1.8596 0.9680
3.5016 -7.2175 -1.8854 0.9676
5.5477 -6.3226 -1.9769 0.9660
6.1985 -5.9043 -2.0119 0.9654
7.4217 -4.8846 -2.0881 0.9642
7.9792 -4.2825 -2.1283 0.9635
8.6990 -1.9826 -2.0969 0.9640
9.0180 -1.2210 -2.1388 0.9633
9.5552 2.1712 -2.3029 0.9605
8.3957 2.7166 -2.0739 0.9644
7.3735 3.1387 -1.8834 0.9676
5.7710 3.7929 -1.6230 0.9720
4.0492 4.6088 -1.4418 0.9751
3.5256 4.8218 -1.4038 0.9758
2.4586 5.0595 -1.3221 0.9772
1.9924 5.2479 -1.3193 0.9772
1.0510 5.6527 -1.3513 0.9767
0.2619 2.7680 -0.6534 0.9886
-1.1590 6.5867 -1.5718 0.9729
-3.3620 9.1201 -2.2844 0.9608
-5.3549 7.4742 -2.1609 0.9629
-5.8849 6.8303 -2.1189 0.9636
-6.7337 5.4520 -2.0363 0.9650
-8.0681 3.5268 -2.0694 0.9645
-8.2583 1.1940 -1.9611 0.9663
-8.1971 0.4438 -1.9293 0.9668
-8.0789 -0.2862 -1.8999 0.9673
-7.9069 -0.9929 -1.8729 0.9678
-7.6844 -1.6734 -1.8483 0.9682
-7.4143 -2.3254 -1.8262 0.9686
-7.0997 -2.9468 -1.8066 0.9689
-6.3480 -4.0906 -1.7749 0.9694
-5.9163 -4.6100 -1.7627 0.9697
-5.4506 -5.0924 -1.7531 0.9698
-4.4269 -5.9413 -1.7413 0.9700
-3.2949 -6.6277 -1.7395 0.9700
-2.0718 -7.1417 -1.7477 0.9699
-0.7751 -7.4731 -1.7658 0.9696
-0.1048 -7.5670 -1.7786 0.9694
0.5769 -7.6109 -1.7939 0.9691
1.9637 -7.5435 -1.8320 0.9685
4.0554 -7.0312 -1.9077 0.9672
5.4141 -6.3996 -1.9701 0.9661
7.8721 -4.4097 -2.1206 0.9636
7.7936 -3.4908 -2.0070 0.9655
8.2365 -2.8360 -2.0473 0.9648
8.9589 -1.3779 -2.1303 0.9634
9.2246 -0.5829 -2.1723 0.9627
9.5602 1.9918 -2.2951 0.9607
7.5642 3.0600 -1.9177 0.9670
5.9123 3.7349 -1.6435 0.9717
5.2426 4.0096 -1.5512 0.9732
4.6392 4.2566 -1.4797 0.9745
4.0688 4.4661 -1.4199 0.9755
3.6289 4.7798 -1.4104 0.9756
3.0325 4.8383 -1.3420 0.9768
7.7242 -2.0506 -2.0692 0.9675
8.2541 -0.6658 -2.1441 0.9664
8.4244 0.0759 -2.1813 0.9658
8.5244 0.8425 -2.2179 0.9652
8.5494 1.6266 -2.2533 0.9647
8.4956 2.4201 -2.2872 0.9642
7.7414 2.9761 -2.1474 0.9663
4.1835 4.4347 -1.5785 0.9751
3.7249 4.7330 -1.5595 0.9754
3.1596 4.8514 -1.4990 0.9764
2.6774 5.0467 -1.4792 0.9767
1.2523 5.6200 -1.4908 0.9765
-0.3076 6.2413 -1.6180 0.9745
-1.3297 5.7239 -1.5215 0.9760
-2.7323 8.3074 -2.2643 0.9645
-3.4104 7.9059 -2.2293 0.9650
-5.5679 5.7967 -2.0811 0.9673
-2.5536 1.8483 -0.8162 0.9871
-7.0519 4.1986 -2.1250 0.9667
-7.2701 3.4896 -2.0880 0.9672
-7.4245 2.7778 -2.0525 0.9678
-7.5265 0.6755 -1.9566 0.9693
-7.1412 -1.2921 -1.8790 0.9705
-6.9172 -1.9032 -1.8575 0.9708
-6.6500 -2.4879 -1.8384 0.9711
-5.9963 -3.5700 -1.8069 0.9716
-5.2001 -4.5243 -1.7847 0.9719
-4.2803 -5.3391 -1.7718 0.9721
-3.7797 -5.6908 -1.7688 0.9722
-3.2548 -6.0038 -1.7682 0.9722
-2.7078 -6.2768 -1.7700 0.9721
-2.1408 -6.5086 -1.7740 0.9721
-1.5560 -6.6980 -1.7804 0.9720
-0.3424 -6.9444 -1.8002 0.9717
0.2818 -6.9988 -1.8136 0.9715
0.9141 -7.0057 -1.8293 0.9712
1.5517 -6.9638 -1.8473 0.9710
3.4659 -6.5332 -1.9148 0.9699
6.9497 -4.2230 -2.1056 0.9670
7.4045 -3.6366 -2.1359 0.9665
7.9641 -1.5153 -2.0990 0.9671
8.5101 0.6864 -2.2106 0.9653
7.9459 2.8914 -2.1893 0.9657
6.1913 3.6109 -1.8557 0.9708
5.4908 3.8992 -1.7437 0.9726
4.8647 4.1561 -1.6566 0.9739
3.8301 4.6902 -1.5678 0.9753
3.3175 4.8986 -1.5318 0.9759
2.2989 5.1995 -1.4720 0.9768
1.3497 5.5810 -1.4867 0.9766
-0.1935 6.1961 -1.6051 0.9747
-1.2248 5.7397 -1.5196 0.9760
-3.2778 7.9916 -2.2365 0.9649
-5.0199 6.4983 -2.1261 0.9666
-6.2204 4.6755 -2.0148 0.9684
-7.0000 4.3405 -2.1326 0.9665
-7.3985 2.9211 -2.0595 0.9677
-7.5033 2.2108 -2.0253 0.9682
-7.5482 1.5068 -1.9929 0.9687
-7.1808 -1.1660 -1.8836 0.9704
-6.9659 -1.7822 -1.8617 0.9707
-6.7072 -2.3724 -1.8420 0.9710
-6.4073 -2.9345 -1.8247 0.9713
-6.0689 -3.4666 -1.8096 0.9715
-5.6944 -3.9671 -1.7969 0.9717
-5.2862 -4.4343 -1.7865 0.9719
-4.8467 -4.8670 -1.7784 0.9720
-4.3780 -5.2636 -1.7727 0.9721
-3.8826 -5.6230 -1.7692 0.9722
-3.3624 -5.9440 -1.7682 0.9722
-2.8196 -6.2251 -1.7694 0.9722
-1.0778 -6.8179 -1.7872 0.9719
0.1553 -6.9916 -1.8107 0.9715
0.7862 -7.0082 -1.8259 0.9713
1.4230 -6.9762 -1.8435 0.9710
2.7025 -6.7617 -1.8854 0.9704
3.3385 -6.5768 -1.9097 0.9700
3.9673 -6.3388 -1.9362 0.9696
4.5847 -6.0468 -1.9648 0.9691
5.1864 -5.7002 -1.9954 0.9687
7.3200 -3.7604 -2.1307 0.9666
2.3271 -0.9431 -0.6501 0.9897
7.5900 -2.3109 -2.0542 0.9677
7.9069 -1.6527 -2.0915 0.9672
8.4929 0.5311 -2.2032 0.9655
7.1775 3.2093 -2.0357 0.9680
5.6251 3.8440 -1.7640 0.9722
4.9859 4.1064 -1.6724 0.9737
3.4190 4.8574 -1.5380 0.9758
2.3940 5.1612 -1.4731 0.9768
1.4466 5.5422 -1.4830 0.9766
0.9600 5.7369 -1.5060 0.9763
0.2185 2.8573 -0.7420 0.9882
-1.1424 5.8704 -1.5485 0.9756
-3.7909 7.6379 -2.2078 0.9654
-4.9193 6.6112 -2.1336 0.9665
-5.8069 5.4323 -2.0589 0.9677
-7.1900 3.7759 -2.1027 0.9670
-7.3699 3.0645 -2.0666 0.9676
-7.0128 -1.6601 -1.8659 0.9707
-6.1400 -3.3619 -1.8125 0.9715
-4.9376 -4.7827 -1.7798 0.9720
-3.9844 -5.5537 -1.7697 0.9722
-1.7936 -6.6269 -1.7776 0.9720
0.0292 -6.9825 -1.8079 0.9716
1.2944 -6.9867 -1.8398 0.9711
3.8414 -6.3910 -1.9307 0.9697
4.4614 -6.1100 -1.9588 0.9692
6.7453 -4.4394 -2.0908 0.9672
7.2336 -3.8823 -2.1256 0.9666
2.3340 -0.9953 -0.6570 0.9896
7.8475 -1.7885 -2.0840 0.9673
8.1194 -1.0993 -2.1214 0.9667
8.3296 -0.3757 -2.1589 0.9661
8.4726 0.3767 -2.1959 0.9656
8.5435 1.1511 -2.2320 0.9650
8.5377 1.9400 -2.2669 0.9645
8.3802 2.7115 -2.2805 0.9643
6.5004 3.4835 -1.9095 0.9700
4.5180 4.2980 -1.6146 0.9746
4.0441 4.6030 -1.5864 0.9750
3.5213 4.8158 -1.5447 0.9757
2.9672 4.9294 -1.4897 0.9765
2.0171 5.3130 -1.4714 0.9768
1.5429 5.5036 -1.4799 0.9767
1.0593 5.6972 -1.5004 0.9763
0.2598 2.7455 -0.7140 0.9887
0.0295 6.1075 -1.5814 0.9751
-0.5374 6.3324 -1.6455 0.9741
-3.0066 8.1559 -2.2506 0.9647
-4.2692 7.2501 -2.1785 0.9658
-5.3034 6.1553 -2.1037 0.9670
-5.7288 5.5562 -2.0663 0.9676
-6.0918 4.9323 -2.0294 0.9681
-7.1460 3.9187 -2.1102 0.9669
-7.3388 3.2080 -2.0737 0.9674
-7.4684 2.4965 -2.0389 0.9680
-7.5372 1.7894 -2.0058 0.9685
-7.4034 -0.2623 -1.9181 0.9699
-7.0579 -1.5370 -1.8702 0.9706
-5.8494 -3.7694 -1.8017 0.9717
-5.4545 -4.2502 -1.7904 0.9718
-4.0852 -5.4828 -1.7703 0.9721
-1.3202 -6.7609 -1.7836 0.9719
-0.7145 -6.8890 -1.7932 0.9718
-0.0965 -6.9715 -1.8052 0.9716
0.5312 -7.0073 -1.8195 0.9714
1.1659 -6.9950 -1.8361 0.9711
2.4450 -6.8214 -1.8762 0.9705
3.0829 -6.6576 -1.8996 0.9701
3.7151 -6.4411 -1.9252 0.9697
4.3376 -6.1709 -1.9530 0.9693
4.9461 -5.8464 -1.9828 0.9689
6.1029 -5.0330 -2.0482 0.9678
7.1445 -4.0021 -2.1203 0.9667
7.7858 -1.9227 -2.0764 0.9674
8.0694 -1.2411 -2.1139 0.9668
8.2924 -0.5240 -2.1513 0.9663
8.4757 2.5746 -2.2935 0.9641
6.6619 3.4169 -1.9385 0.9695
5.9036 3.7294 -1.8080 0.9716
5.2354 4.0041 -1.7065 0.9731
4.6330 4.2509 -1.6280 0.9744
3.6244 4.7739 -1.5519 0.9755
7.0326 -1.8670 -2.0598 0.9702
7.2891 -1.2512 -2.0937 0.9697
7.4908 -0.6043 -2.1275 0.9692
7.6331 0.0688 -2.1610 0.9688
7.7116 0.7621 -2.1937 0.9683
7.7225 1.4693 -2.2254 0.9678
7.6627 2.1828 -2.2556 0.9674
7.5300 2.8948 -2.2838 0.9670
4.7394 4.1991 -1.7926 0.9740
3.7202 4.7271 -1.7029 0.9753
2.6741 5.0406 -1.6153 0.9766
2.2011 5.2315 -1.6068 0.9767
1.2508 5.6131 -1.6280 0.9764
0.1189 2.9530 -0.8366 0.9878
-3.0837 7.1485 -2.2040 0.9682
-4.1788 6.2918 -2.1382 0.9691
-2.5570 1.8507 -0.8936 0.9870
-6.4417 3.8353 -2.1223 0.9693
-6.6571 3.1954 -2.0904 0.9698
-6.9420 1.2561 -1.9972 0.9711
-6.5947 -1.1932 -1.8972 0.9725
-5.2030 -3.7658 -1.8183 0.9737
-4.8207 -4.1942 -1.8089 0.9738
-3.9701 -4.9521 -1.7968 0.9740
-3.0193 -5.5695 -1.7935 0.9740
-1.9854 -6.0364 -1.7989 0.9739
-0.3172 -6.4336 -1.8235 0.9736
1.4348 -6.4392 -1.8676 0.9729
2.0250 -6.3490 -1.8865 0.9727
2.6132 -6.2110 -1.9076 0.9724
3.1960 -6.0244 -1.9306 0.9720
2.3592 -0.9070 -0.7155 0.9895
7.6095 -0.0686 -2.1543 0.9689
7.7259 1.3261 -2.2191 0.9679
7.6805 2.0390 -2.2496 0.9675
6.1819 3.6054 -2.0259 0.9707
5.4829 3.8936 -1.9037 0.9724
2.7702 5.0017 -1.6186 0.9765
2.2961 5.1933 -1.6075 0.9767
0.1684 2.8857 -0.8183 0.9881
-0.1933 6.1879 -1.7526 0.9746
-0.7788 6.4195 -1.8306 0.9735
-2.9629 7.2239 -2.2104 0.9681
-4.0775 6.3862 -2.1450 0.9690
-4.5592 5.9020 -2.1113 0.9695
-4.9872 5.3831 -2.0774 0.9700
-5.3600 4.8360 -2.0437 0.9704
-6.3868 3.9603 -2.1274 0.9692
-6.6197 3.3255 -2.0972 0.9697
-6.7824 2.6779 -2.0643 0.9701
-6.8881 2.0296 -2.0328 0.9706
-6.7789 -0.4853 -1.9240 0.9721
-6.4373 -1.6470 -1.8811 0.9728
-6.2032 -2.1941 -1.8627 0.9730
-5.9301 -2.7159 -1.8465 0.9732
-5.2762 -3.6758 -1.8204 0.9736
-4.4942 -4.5130 -1.8030 0.9739
-4.0606 -4.8820 -1.7976 0.9739
-2.0928 -5.9964 -1.7980 0.9739
-0.9991 -6.3198 -1.8113 0.9738
-0.4326 -6.4188 -1.8212 0.9736
0.1438 -6.4746 -1.8334 0.9734
1.9062 -6.3709 -1.8826 0.9727
3.6552 -5.8401 -1.9504 0.9718
4.7669 -5.2392 -2.0052 0.9710
5.7962 -4.4390 -2.0668 0.9701
2.3259 -0.9427 -0.7105 0.9896
6.9149 -2.1054 -2.0463 0.9704
7.4165 -0.8683 -2.1139 0.9694
7.5832 -0.2051 -2.1475 0.9690
7.7264 1.1832 -2.2128 0.9680
7.6954 1.8951 -2.2436 0.9676
7.5923 2.6087 -2.2727 0.9672
7.1656 3.2039 -2.2221 0.9679
3.4147 4.8514 -1.6795 0.9756
1.3601 3.7869 -1.1391 0.9834
1.4448 5.5355 -1.6195 0.9765
0.9589 5.7298 -1.6446 0.9761
-0.0811 6.1435 -1.7393 0.9748
-0.6566 6.3712 -1.8132 0.9737
-1.9965 6.8989 -2.0332 0.9706
-2.8404 7.2970 -2.2167 0.9680
-3.4309 6.9126 -2.1847 0.9684
-3.9741 6.4789 -2.1517 0.9689
-4.9054 5.4901 -2.0842 0.9699
-5.2894 4.9482 -2.0505 0.9703
-2.6638 1.7190 -0.8975 0.9869
-6.9326 1.5144 -2.0089 0.9709
-6.8964 0.2488 -1.9536 0.9717
-6.6636 -0.9591 -1.9059 0.9724
-5.9881 -2.6130 -1.8496 0.9732
-4.9783 -4.0255 -1.8124 0.9737
-4.1500 -4.8104 -1.7985 0.9739
-3.6959 -5.1516 -1.7949 0.9740
-3.2181 -5.4569 -1.7934 0.9740
-2.7185 -5.7251 -1.7942 0.9740
-2.1996 -5.9549 -1.7971 0.9740
-1.6632 -6.1452 -1.8022 0.9739
0.6096 -6.4873 -1.8446 0.9733
2.3766 -6.2723 -1.8988 0.9725
4.1066 -5.6241 -1.9714 0.9715
4.6580 -5.3087 -1.9994 0.9711
6.1758 -4.0646 -2.0930 0.9697
7.3757 -0.9986 -2.1071 0.9695
7.5545 -0.3407 -2.1408 0.9691
7.7242 1.0407 -2.2064 0.9681
6.4903 3.4780 -2.0845 0.9699
5.1023 4.0502 -1.8442 0.9733
4.5120 4.2923 -1.7630 0.9744
4.0389 4.5971 -1.7323 0.9749
2.9636 4.9234 -1.6268 0.9764
2.4657 5.0739 -1.5970 0.9768
2.0147 5.3066 -1.6069 0.9767
1.5411 5.4969 -1.6161 0.9765
0.2577 2.7232 -0.7744 0.9887
0.0295 6.0996 -1.7268 0.9750
-1.5645 5.7953 -1.6993 0.9754
-4.3715 6.1016 -2.1249 0.9693
-4.8214 5.5959 -2.0911 0.9698
-5.2165 5.0594 -2.0572 0.9702
-5.5559 4.4984 -2.0238 0.9707
-6.5376 3.5851 -2.1108 0.9695
-6.7238 2.9392 -2.0774 0.9700
-6.9429 1.0038 -1.9859 0.9713
-6.9093 0.3741 -1.9588 0.9716
-6.8260 -0.2418 -1.9336 0.9720
-6.5201 -1.4199 -1.8891 0.9726
-6.3024 -1.9766 -1.8698 0.9729
-5.7494 -3.0146 -1.8378 0.9734
-5.4188 -3.4919 -1.8250 0.9736
-5.0553 -3.9391 -1.8143 0.9737
-4.2384 -4.7375 -1.7995 0.9739
-3.3161 -5.3984 -1.7936 0.9740
-2.8208 -5.6741 -1.7938 0.9740
-0.0894 -6.4574 -1.8282 0.9735
0.4917 -6.4868 -1.8416 0.9733
2.2582 -6.3001 -1.8946 0.9726
2.8446 -6.1430 -1.9164 0.9722
5.0845 -5.0210 -2.0229 0.9707
5.5973 -4.6160 -2.0539 0.9703
6.0820 -4.1620 -2.0863 0.9698
6.7895 -2.3378 -2.0328 0.9706
7.3327 -1.1278 -2.1002 0.9696
7.5233 -0.4754 -2.1340 0.9691
7.7165 1.6077 -2.2314 0.9678
7.6427 2.3216 -2.2612 0.9673
7.4957 3.0323 -2.2890 0.9669
5.2280 3.9985 -1.8633 0.9730
3.6199 4.7679 -1.6947 0.9754
6.4479 -1.7118 -2.0519 0.9725
6.6740 -1.1456 -2.0828 0.9721
6.8493 -0.5525 -2.1135 0.9717
6.9700 0.0628 -2.1439 0.9713
7.0324 0.6950 -2.1736 0.9709
7.0334 1.3382 -2.2021 0.9705
6.6474 3.2647 -2.2779 0.9695
6.0248 3.6609 -2.1684 0.9709
4.7329 4.1934 -1.9449 0.9739
4.1727 4.4231 -1.8703 0.9749
3.1518 4.8394 -1.7763 0.9761
2.6708 5.0344 -1.7529 0.9764
2.1985 5.2252 -1.7436 0.9766
1.2038 3.7742 -1.2185 0.9836
1.2493 5.6062 -1.7666 0.9762
-0.3068 6.2247 -1.9169 0.9743
-2.2459 6.8284 -2.2110 0.9704
-2.8110 6.5163 -2.1828 0.9707
-3.3367 6.1551 -2.1535 0.9711
-4.2556 5.3083 -2.0926 0.9719
-4.9816 4.3343 -2.0310 0.9727
-5.5057 3.2780 -1.9709 0.9735
-6.3748 1.7540 -2.0336 0.9727
-6.4183 1.1614 -2.0062 0.9731
-6.1203 -1.1074 -1.9130 0.9743
-5.7170 -2.1389 -1.8775 0.9748
-5.4594 -2.6204 -1.8626 0.9750
-4.8432 -3.5055 -1.8389 0.9753
-4.4889 -3.9056 -1.8301 0.9754
-3.6986 -4.6134 -1.8187 0.9756
-1.3437 -5.7839 -1.8264 0.9755
-0.8248 -5.9057 -1.8341 0.9754
0.2427 -6.0283 -1.8557 0.9751
4.0064 -5.0908 -1.9925 0.9733
4.9819 -4.4141 -2.0473 0.9725
5.4336 -4.0080 -2.0767 0.9721
5.8553 -3.5580 -2.1074 0.9717
2.3622 -0.9081 -0.7784 0.9895
6.3966 -1.8222 -2.0457 0.9725
6.6324 -1.2619 -2.0766 0.9721
6.8183 -0.6739 -2.1074 0.9717
6.9503 -0.0627 -2.1378 0.9713
7.0247 0.5666 -2.1677 0.9709
7.0383 1.2081 -2.1965 0.9706
6.9884 1.8552 -2.2239 0.9702
6.1724 3.5999 -2.1978 0.9705
5.4750 3.8880 -2.0654 0.9723
3.8204 4.6783 -1.8578 0.9750
3.3093 4.8864 -1.8152 0.9756
2.7668 4.9956 -1.7564 0.9764
1.2595 3.7161 -1.2069 0.9837
-0.1930 6.1797 -1.9017 0.9745
-1.2234 5.7333 -1.8031 0.9758
-2.1277 6.8849 -2.2165 0.9703
-2.7002 6.5833 -2.1886 0.9707
-3.2342 6.2315 -2.1594 0.9710
-3.7257 5.8352 -2.1294 0.9714
-4.1715 5.4001 -2.0988 0.9718
-4.9175 4.4368 -2.0372 0.9727
-5.2152 3.9200 -2.0067 0.9731
-6.0973 3.0631 -2.0987 0.9718
-6.3599 1.8739 -2.0393 0.9726
-6.4136 1.2803 -2.0116 0.9730
-6.4177 0.6928 -1.9854 0.9733
-6.3742 0.1150 -1.9609 0.9737
-6.1521 -0.9990 -1.9170 0.9743
-5.7645 -2.0390 -1.8807 0.9747
-4.9110 -3.4213 -1.8409 0.9753
-3.7828 -4.5480 -1.8195 0.9755
-3.3555 -4.8598 -1.8165 0.9756
-2.9062 -5.1375 -1.8155 0.9756
-1.9496 -5.5861 -1.8198 0.9755
-1.4467 -5.7546 -1.8251 0.9755
-0.4026 -5.9743 -1.8417 0.9753
0.1338 -6.0234 -1.8531 0.9751
1.2229 -5.9952 -1.8820 0.9747
1.7700 -5.9159 -1.8993 0.9745
3.3854 -5.4091 -1.9627 0.9736
4.4059 -4.8425 -2.0137 0.9730
4.8877 -4.4905 -2.0415 0.9726
5.7730 -3.6521 -2.1011 0.9718
6.1474 -3.1580 -2.1257 0.9715
2.3251 -0.9423 -0.7717 0.9896
6.9282 -0.1874 -2.1318 0.9714
7.0145 0.4387 -2.1617 0.9710
6.9018 2.3715 -2.2447 0.9699
6.3240 3.5371 -2.2287 0.9701
2.8631 4.9565 -1.7606 0.9763
2.3882 5.1486 -1.7457 0.9765
1.4430 5.5287 -1.7575 0.9764
0.2178 2.8484 -0.8787 0.9881
-0.0810 6.1354 -1.8873 0.9746
-0.6557 6.3625 -1.9673 0.9736
-1.1433 5.8753 -1.8410 0.9753
-3.6303 5.9183 -2.1355 0.9714
-5.1594 4.0256 -2.0128 0.9730
-6.3429 1.9939 -2.0451 0.9726
-6.4068 1.3995 -2.0171 0.9729
-6.4208 0.8105 -1.9906 0.9733
-6.3867 0.2304 -1.9657 0.9736
-6.3065 -0.3374 -1.9425 0.9739
-6.1823 -0.8898 -1.9211 0.9742
-5.8106 -1.9381 -1.8840 0.9747
-4.9775 -3.3360 -1.8430 0.9752
-4.6351 -3.7479 -1.8334 0.9754
-2.9984 -5.0844 -1.8155 0.9756
-2.5329 -5.3341 -1.8162 0.9756
0.0252 -6.0169 -1.8507 0.9751
0.5668 -6.0326 -1.8637 0.9750
1.6599 -5.9355 -1.8957 0.9745
2.2056 -5.8208 -1.9146 0.9743
3.2793 -5.4559 -1.9579 0.9737
4.3063 -4.9079 -2.0083 0.9730
5.2550 -4.1769 -2.0647 0.9723
5.6893 -3.7445 -2.0949 0.9719
6.0771 -3.2617 -2.1214 0.9715
2.3246 -0.9913 -0.7773 0.9895
6.5432 -1.4912 -2.0641 0.9723
6.9039 -0.3114 -2.1256 0.9715
7.0019 0.3113 -2.1558 0.9711
7.0403 0.9486 -2.1850 0.9707
6.4800 3.4725 -2.2612 0.9697
5.0951 4.0445 -2.0009 0.9731
4.0337 4.5912 -1.8797 0.9747
2.9599 4.9173 -1.7653 0.9763
2.4627 5.0677 -1.7330 0.9767
2.0122 5.3002 -1.7437 0.9766
-1.1541 6.5587 -2.0483 0.9725
-1.5618 5.7851 -1.8431 0.9752
-2.4739 6.7111 -2.2000 0.9705
-3.0240 6.3789 -2.1713 0.9709
-3.5330 5.9998 -2.1416 0.9713
-3.9976 5.5797 -2.1112 0.9717
-4.4150 5.1242 -2.0804 0.9721
-5.1014 4.1304 -2.0189 0.9729
-6.0091 3.2953 -2.1079 0.9717
-6.3980 1.5189 -2.0226 0.9729
-6.3973 0.3464 -1.9706 0.9735
-5.3478 -2.8041 -1.8573 0.9750
-4.7065 -3.6673 -1.8352 0.9753
-3.9482 -4.4130 -1.8213 0.9755
-3.5304 -4.7382 -1.8174 0.9756
-3.0897 -5.0298 -1.8156 0.9756
-2.6282 -5.2867 -1.8159 0.9756
-2.1479 -5.5076 -1.8183 0.9756
-0.6164 -5.9429 -1.8377 0.9753
1.0025 -6.0147 -1.8755 0.9748
2.6381 -5.6969 -1.9310 0.9741
3.6967 -5.2592 -1.9772 0.9735
6.2318 -2.1457 -2.0272 0.9728
6.4956 -1.6041 -2.0579 0.9724
6.9868 0.1845 -2.1497 0.9712
7.0263 1.4639 -2.2075 0.9704
6.9508 2.1114 -2.2344 0.9701
6.6019 3.3861 -2.2821 0.9694
5.8860 3.7183 -2.1414 0.9713
5.2206 3.9928 -2.0216 0.9729
4.6206 4.2395 -1.9288 0.9741
5.9466 -1.5787 -2.0451 0.9744
6.1479 -1.0553 -2.0735 0.9740
6.3021 -0.5084 -2.1017 0.9737
6.4058 0.0577 -2.1294 0.9734
6.4559 0.6381 -2.1564 0.9730
6.4499 1.2272 -2.1824 0.9727
6.3857 1.8191 -2.2071 0.9724
6.2621 2.4074 -2.2301 0.9721
5.8356 3.5460 -2.2698 0.9716
4.7264 4.1876 -2.0990 0.9737
3.6446 4.6310 -1.9589 0.9755
3.1478 4.8333 -1.9173 0.9760
2.6675 5.0281 -1.8920 0.9763
1.1576 3.6294 -1.2663 0.9841
0.3747 2.8717 -0.9627 0.9879
0.1194 2.9645 -0.9862 0.9876
-0.3064 6.2162 -2.0688 0.9741
-1.3255 5.7056 -1.9471 0.9756
-2.0589 6.2598 -2.1904 0.9726
-2.5796 5.9800 -2.1648 0.9729
-3.0655 5.6548 -2.1381 0.9733
-3.5128 5.2891 -2.1106 0.9736
-4.2809 4.4568 -2.0542 0.9743
-5.0933 3.0324 -1.9704 0.9753
-5.6741 2.7235 -2.0921 0.9738
-5.9161 1.6278 -2.0396 0.9745
-5.9623 1.0788 -2.0141 0.9748
-5.9625 0.5351 -1.9899 0.9751
-5.7042 -1.0321 -1.9269 0.9759
-5.0974 -2.4467 -1.8795 0.9764
-4.8270 -2.8739 -1.8674 0.9766
-4.5259 -3.2758 -1.8571 0.9767
-2.6311 -4.8533 -1.8351 0.9770
-1.7295 -5.2581 -1.8399 0.9769
0.7341 -5.6260 -1.8860 0.9764
3.2473 -4.9863 -1.9780 0.9752
4.1828 -4.4339 -2.0262 0.9746
4.6212 -4.0945 -2.0523 0.9743
5.4195 -3.2932 -2.1080 0.9736
5.3561 -2.6305 -1.9835 0.9752
6.1110 -1.1627 -2.0678 0.9741
6.4503 0.5203 -2.1511 0.9731
6.4557 1.1081 -2.1773 0.9728
6.2918 2.2895 -2.2256 0.9722
6.1203 2.8701 -2.2470 0.9719
4.8447 4.1389 -2.1181 0.9735
3.7475 4.5890 -1.9694 0.9753
3.2462 4.7933 -1.9243 0.9759
2.2904 5.1805 -1.8828 0.9764
0.4786 3.2150 -1.0804 0.9864
0.1689 2.8948 -0.9639 0.9879
-0.7766 6.4015 -2.1435 0.9732
-1.2225 5.7294 -1.9474 0.9756
-2.4774 6.0402 -2.1701 0.9729
-2.9706 5.7237 -2.1436 0.9732
-3.4260 5.3658 -2.1162 0.9735
-3.8404 4.9714 -2.0882 0.9739
-4.2115 4.5458 -2.0599 0.9742
-4.8180 3.6214 -2.0035 0.9749
-5.0518 3.1325 -1.9759 0.9753
-5.7977 2.2891 -2.0720 0.9741
-5.9567 1.1891 -2.0191 0.9747
-5.9661 0.6440 -1.9947 0.9750
-5.8525 -0.4190 -1.9504 0.9756
-5.7331 -0.9309 -1.9307 0.9758
-5.5746 -1.4262 -1.9127 0.9760
-4.8840 -2.7898 -1.8697 0.9766
-4.5889 -3.1969 -1.8591 0.9767
-4.2648 -3.5775 -1.8504 0.9768
-3.9136 -3.9300 -1.8436 0.9769
-3.5374 -4.2529 -1.8388 0.9770
-1.8231 -5.2237 -1.8391 0.9769
0.1250 -5.6259 -1.8706 0.9766
0.6316 -5.6300 -1.8832 0.9764
1.1410 -5.5938 -1.8977 0.9762
3.1497 -5.0325 -1.9735 0.9753
3.6288 -4.7861 -1.9965 0.9750
4.0918 -4.4972 -2.0211 0.9747
5.3448 -3.3812 -2.1023 0.9737
5.2930 -2.7191 -1.9780 0.9752
5.8530 -1.7821 -2.0338 0.9745
6.0723 -1.2692 -2.0621 0.9742
6.3703 -0.1723 -2.1183 0.9735
6.4187 1.5807 -2.1973 0.9725
6.1597 2.7542 -2.2429 0.9720
4.9652 4.0893 -2.1382 0.9733
3.3454 4.7529 -1.9320 0.9758
2.8595 4.9504 -1.9003 0.9762
2.3852 5.1422 -1.8842 0.9764
1.3407 3.7327 -1.3184 0.9834
1.4412 5.5218 -1.8970 0.9762
0.9564 5.7154 -1.9262 0.9759
0.2185 2.8584 -0.9529 0.9880
-0.0809 6.1271 -2.0369 0.9745
-0.6548 6.3536 -2.1232 0.9734
-2.8742 5.7909 -2.1490 0.9731
-3.7603 5.0535 -2.0938 0.9738
-4.7653 3.7181 -2.0091 0.9748
-2.6481 1.7089 -1.0476 0.9868
-5.2051 2.7335 -1.9543 0.9755
-5.7710 2.3997 -2.0776 0.9740
-5.8716 -0.3141 -1.9545 0.9755
-5.7603 -0.8291 -1.9345 0.9758
-5.6095 -1.3279 -1.9162 0.9760
-5.1972 -2.2678 -1.8849 0.9764
-4.3323 -3.5031 -1.8520 0.9768
-3.9864 -3.8613 -1.8448 0.9769
-3.6151 -4.1903 -1.8396 0.9769
-3.2204 -4.4887 -1.8364 0.9770
-2.8043 -4.7552 -1.8351 0.9770
-2.3689 -4.9887 -1.8357 0.9770
-1.9162 -5.1878 -1.8383 0.9770
-1.4484 -5.3516 -1.8429 0.9769
-0.9677 -5.4789 -1.8494 0.9768
0.5292 -5.6324 -1.8805 0.9764
1.0383 -5.6044 -1.8946 0.9763
1.5480 -5.5354 -1.9106 0.9761
2.0555 -5.4248 -1.9283 0.9758
3.0516 -5.0770 -1.9690 0.9753
4.0000 -4.5588 -2.0160 0.9748
4.4473 -4.2362 -2.0416 0.9744
4.8715 -3.8721 -2.0685 0.9741
5.8037 -1.8820 -2.0281 0.9746
6.4322 0.2860 -2.1402 0.9732
6.4604 0.8705 -2.1669 0.9729
6.4315 1.4614 -2.1924 0.9726
6.3439 2.0527 -2.2164 0.9723
5.9895 3.2096 -2.2588 0.9718
5.7233 3.7615 -2.2765 0.9715
4.4999 4.2807 -2.0645 0.9742
3.9566 4.5035 -1.9927 0.9750
3.4455 4.7122 -1.9404 0.9757
2.4596 5.0614 -1.8706 0.9766
1.5373 5.4833 -1.8930 0.9763
0.0294 6.0835 -2.0222 0.9747
-0.5352 6.3065 -2.1038 0.9737
-1.5590 5.7749 -1.9883 0.9751
-2.2689 6.1548 -2.1805 0.9727
-2.7763 5.8565 -2.1544 0.9731
-3.2473 5.5146 -2.1273 0.9734
-2.5851 1.7350 -1.0349 0.9870
-5.8652 1.9606 -2.0557 0.9743
-5.9678 0.8629 -2.0044 0.9749
-5.9503 0.3222 -1.9808 0.9752
-5.8891 -0.2086 -1.9588 0.9755
-5.2451 -2.1770 -1.8877 0.9763
-4.7114 -3.0360 -1.8631 0.9767
-4.3987 -3.4275 -1.8536 0.9768
-4.0582 -3.7915 -1.8461 0.9769
-3.6918 -4.1265 -1.8405 0.9769
-3.3017 -4.4311 -1.8369 0.9770
-2.4580 -4.9444 -1.8354 0.9770
-1.5438 -5.3215 -1.8418 0.9769
-0.5760 -5.5538 -1.8560 0.9767
0.4270 -5.6332 -1.8779 0.9765
0.9356 -5.6133 -1.8916 0.9763
1.4454 -5.5526 -1.9072 0.9761
2.9529 -5.1197 -1.9646 0.9754
3.4376 -4.8905 -1.9870 0.9751
5.1909 -3.5522 -2.0908 0.9738
5.4758 -2.4527 -1.9944 0.9750
5.7527 -1.9808 -2.0224 0.9747
6.4198 0.1695 -2.1347 0.9733
6.4420 1.3421 -2.1873 0.9726
6.0360 3.0958 -2.2549 0.9718
4.6143 4.2337 -2.0816 0.9739
4.0631 4.4599 -2.0055 0.9749
3.0534 4.8717 -1.9112 0.9761
5.6924 -0.9771 -2.0654 0.9758
5.8293 -0.4702 -2.0914 0.9755
5.9489 1.1318 -2.1655 0.9746
5.8845 1.6763 -2.1881 0.9743
5.7659 2.2166 -2.2090 0.9741
5.5927 2.7467 -2.2282 0.9739
5.0858 3.7513 -2.2599 0.9735
4.7198 4.1818 -2.2550 0.9736
3.4469 4.3798 -1.9931 0.9766
3.1438 4.8272 -2.0600 0.9758
2.6642 5.0218 -2.0329 0.9761
1.1956 3.7485 -1.4070 0.9834
-1.3240 5.6994 -2.0924 0.9755
-1.8984 5.7719 -2.1729 0.9745
-2.3808 5.5189 -2.1494 0.9748
-2.8319 5.2238 -2.1249 0.9751
-3.2483 4.8908 -2.0996 0.9754
-3.9665 4.1294 -2.0476 0.9760
-4.2646 3.7104 -2.0215 0.9763
-2.5839 1.8702 -1.1407 0.9865
-4.7334 2.8182 -1.9700 0.9769
-5.2700 2.5296 -2.0905 0.9755
-5.5612 1.0063 -2.0210 0.9763
-5.5659 0.4995 -1.9984 0.9765
-5.5289 0.0000 -1.9772 0.9768
-5.4517 -0.4892 -1.9574 0.9770
-5.3360 -0.9655 -1.9392 0.9772
-5.1836 -1.4263 -1.9226 0.9774
-4.5244 -2.6937 -1.8830 0.9779
-4.2437 -3.0715 -1.8734 0.9780
-2.8668 -4.3163 -1.8530 0.9782
-2.0534 -4.7600 -1.8538 0.9782
-1.1783 -5.0722 -1.8621 0.9781
-0.7229 -5.1763 -1.8690 0.9780
-0.2585 -5.2446 -1.8778 0.9779
0.6876 -5.2701 -1.9006 0.9777
1.1645 -5.2258 -1.9146 0.9775
1.6403 -5.1427 -1.9304 0.9773
3.0325 -4.6565 -1.9872 0.9767
3.8998 -4.1339 -2.0323 0.9761
4.6860 -3.4565 -2.0823 0.9756
5.0361 -3.0602 -2.1074 0.9753
4.9840 -2.4478 -1.9857 0.9767
2.3699 -0.9111 -0.9080 0.9893
5.6594 -1.0768 -2.0602 0.9758
5.8054 -0.5738 -2.0862 0.9755
5.9018 1.5668 -2.1836 0.9744
5.4156 3.1585 -2.2420 0.9737
3.5378 4.3322 -2.0002 0.9765
2.7598 4.9830 -2.0370 0.9761
2.2876 5.1740 -2.0230 0.9763
0.4393 2.9508 -1.0669 0.9874
-0.1925 6.1629 -2.2050 0.9741
-0.7474 6.1606 -2.2192 0.9740
-1.7978 5.8174 -2.1774 0.9745
-3.9014 4.2111 -2.0529 0.9759
-4.2079 3.7965 -2.0267 0.9762
-5.4984 1.6201 -2.0498 0.9759
-5.5551 1.1089 -2.0257 0.9762
-5.4704 -0.3916 -1.9613 0.9770
-5.3623 -0.8707 -1.9427 0.9772
-5.2172 -1.3348 -1.9258 0.9774
-2.9446 -4.2646 -1.8533 0.9782
-2.5504 -4.5087 -1.8524 0.9782
-0.8155 -5.1582 -1.8675 0.9781
0.1171 -5.2727 -1.8860 0.9778
1.5447 -5.1626 -1.9270 0.9774
2.0176 -5.0482 -1.9441 0.9772
2.4844 -4.8941 -1.9628 0.9770
2.9418 -4.7003 -1.9829 0.9767
3.8156 -4.1937 -2.0275 0.9762
2.3249 -0.9422 -0.8971 0.9894
5.6247 -1.1756 -2.0549 0.9759
5.7797 -0.6767 -2.0810 0.9756
5.9497 0.3721 -2.1318 0.9750
5.9597 0.9127 -2.1561 0.9747
5.9169 1.4571 -2.1792 0.9744
5.2047 3.5567 -2.2543 0.9736
4.3813 4.3211 -2.2006 0.9742
3.6305 4.2857 -2.0086 0.9764
3.2115 4.5626 -1.9953 0.9766
0.9552 5.7081 -2.0696 0.9757
0.2075 2.7136 -0.9732 0.9885
-3.0849 5.0292 -2.1099 0.9752
-3.4792 4.6757 -2.0842 0.9755
-4.4224 3.4506 -2.0059 0.9765
-5.3689 2.2325 -2.0793 0.9756
-5.4816 1.7231 -2.0548 0.9759
-5.5487 0.2002 -1.9855 0.9767
-5.4875 -0.2935 -1.9652 0.9769
-5.0758 -1.6931 -1.9135 0.9775
-4.3602 -2.9223 -1.8770 0.9779
-3.0216 -4.2118 -1.8537 0.9782
-2.6314 -4.4620 -1.8524 0.9782
-1.7979 -4.8674 -1.8556 0.9782
-0.9076 -5.1386 -1.8660 0.9781
-0.4466 -5.2214 -1.8740 0.9780
0.9723 -5.2483 -1.9088 0.9776
1.4489 -5.1809 -1.9238 0.9774
2.3910 -4.9283 -1.9589 0.9770
3.2983 -4.5170 -2.0001 0.9765
4.1443 -3.9476 -2.0468 0.9760
4.9006 -3.2253 -2.0980 0.9754
2.3191 -0.9889 -0.9016 0.9893
5.3824 -1.7454 -2.0235 0.9762
5.7520 -0.7788 -2.0757 0.9756
5.9619 0.8033 -2.1513 0.9748
5.9298 1.3474 -2.1746 0.9745
5.8441 1.8909 -2.1966 0.9742
5.7039 2.4280 -2.2169 0.9740
5.2611 3.4577 -2.2514 0.9736
4.4937 4.2749 -2.2180 0.9740
3.7237 4.2383 -2.0175 0.9763
3.2922 4.5025 -1.9946 0.9766
2.4565 5.0551 -2.0099 0.9764
2.0072 5.2870 -2.0223 0.9763
1.5353 5.4764 -2.0339 0.9761
0.2550 2.6948 -0.9680 0.9886
-3.0009 5.0963 -2.1150 0.9752
-3.7663 4.3713 -2.0634 0.9758
-5.3374 2.3331 -2.0831 0.9756
-5.4631 1.8261 -2.0599 0.9758
-5.5561 0.3008 -1.9898 0.9766
-5.5030 -0.1950 -1.9692 0.9769
-5.4104 -0.6794 -1.9500 0.9771
-4.6800 -2.4539 -1.8897 0.9778
-4.4167 -2.8461 -1.8790 0.9779
-3.8065 -3.5563 -1.8629 0.9781
-2.7115 -4.4141 -1.8525 0.9782
-2.3064 -4.6394 -1.8528 0.9782
-1.8846 -4.8325 -1.8549 0.9782
-1.4482 -4.9922 -1.8589 0.9782
-0.5401 -5.2077 -1.8723 0.9780
-0.0728 -5.2615 -1.8817 0.9779
0.8763 -5.2572 -1.9059 0.9776
1.3530 -5.1976 -1.9206 0.9774
1.8277 -5.0990 -1.9370 0.9773
3.2092 -4.5656 -1.9957 0.9766
3.6450 -4.3084 -2.0181 0.9763
4.8293 -3.3048 -2.0927 0.9754
5.1589 -2.8898 -2.1146 0.9752
5.0845 -2.2774 -1.9923 0.9766
5.3362 -1.8374 -2.0182 0.9763
5.5500 -1.3706 -2.0443 0.9760
5.7226 -0.8801 -2.0705 0.9757
5.9312 0.1566 -2.1218 0.9751
5.9406 1.2377 -2.1700 0.9746
5.8657 1.7818 -2.1923 0.9743
5.7365 2.3206 -2.2129 0.9741
5.5528 2.8480 -2.2317 0.9738
5.3153 3.3577 -2.2483 0.9736
4.6079 4.2279 -2.2363 0.9738
3.8211 4.1943 -2.0290 0.9762
3.0495 4.8655 -2.0534 0.9759
5.1303 -1.3620 -2.0341 0.9775
5.2939 -0.9087 -2.0584 0.9773
5.4164 -0.4369 -2.0824 0.9770
5.4953 0.0495 -2.1060 0.9767
5.5284 0.5464 -2.1289 0.9765
5.1726 2.5404 -2.2084 0.9756
4.3918 3.8912 -2.2486 0.9752
3.9940 4.2338 -2.2305 0.9754
3.4231 4.3495 -2.1211 0.9766
3.1397 4.8209 -2.2047 0.9757
1.1766 3.6889 -1.4838 0.9836
-0.7928 5.6770 -2.1966 0.9757
-1.2860 5.5357 -2.1779 0.9759
-3.0173 4.5431 -2.0900 0.9769
-3.3723 4.2065 -2.0661 0.9772
-3.6910 3.8426 -2.0418 0.9774
-5.0642 1.8947 -2.0721 0.9771
-5.1567 1.4189 -2.0496 0.9774
-5.1823 0.0000 -1.9859 0.9780
-5.0075 -0.9061 -1.9501 0.9784
-4.8671 -1.3392 -1.9345 0.9786
-4.4883 -2.1543 -1.9079 0.9789
-4.2535 -2.5324 -1.8970 0.9790
-3.3889 -3.5281 -1.8747 0.9793
-2.3232 -4.2855 -1.8681 0.9793
-1.5266 -4.6415 -1.8724 0.9793
-1.1085 -4.7716 -1.8773 0.9792
0.1997 -4.9593 -1.9020 0.9790
1.9816 -4.7100 -1.9582 0.9783
2.8415 -4.3632 -1.9954 0.9779
4.0248 -3.5660 -2.0607 0.9772
4.3776 -3.2290 -2.0846 0.9770
4.6400 -2.2788 -1.9810 0.9781
5.0926 -1.4508 -2.0292 0.9776
5.2641 -1.0016 -2.0535 0.9773
5.5255 0.4457 -2.1243 0.9765
5.5205 0.9476 -2.1465 0.9763
5.4667 1.4513 -2.1675 0.9761
5.3631 1.9516 -2.1871 0.9758
4.7551 3.3767 -2.2349 0.9753
4.4572 3.8079 -2.2465 0.9752
3.5197 4.3100 -2.1324 0.9764
1.2641 3.7297 -1.5092 0.9833
1.3413 5.5462 -2.1867 0.9759
0.1677 2.8745 -1.1034 0.9877
-0.1806 5.7818 -2.2168 0.9755
-0.6914 5.6996 -2.2002 0.9757
-1.1881 5.5680 -2.1818 0.9759
-1.6656 5.3896 -2.1618 0.9761
-2.1195 5.1676 -2.1404 0.9764
-2.5460 4.9056 -2.1180 0.9766
-2.9416 4.6072 -2.0948 0.9769
-3.3036 4.2766 -2.0709 0.9771
-3.6298 3.9179 -2.0467 0.9774
-4.1683 3.1330 -1.9983 0.9779
-4.5493 2.2854 -1.9510 0.9784
-5.0375 1.9889 -2.0755 0.9771
-5.1419 1.5150 -2.0542 0.9773
-5.2150 0.5630 -2.0101 0.9778
-5.1916 0.0936 -1.9899 0.9780
-5.0317 -0.8170 -1.9535 0.9784
-4.8981 -1.2532 -1.9375 0.9786
-4.7310 -1.6734 -1.9231 0.9787
-4.5321 -2.0757 -1.9103 0.9789
-4.0458 -2.8186 -1.8896 0.9791
-3.7621 -3.1559 -1.8818 0.9792
-3.4538 -3.4683 -1.8757 0.9793
-3.1228 -3.7545 -1.8714 0.9793
-2.4000 -4.2428 -1.8680 0.9793
-2.0122 -4.4426 -1.8690 0.9793
-1.6094 -4.6113 -1.8717 0.9793
-1.1936 -4.7480 -1.8761 0.9792
-0.3317 -4.9214 -1.8903 0.9791
0.1101 -4.9565 -1.8999 0.9790
1.0035 -4.9197 -1.9241 0.9787
1.8931 -4.7367 -1.9548 0.9784
2.7569 -4.4048 -1.9914 0.9780
3.5707 -3.9245 -2.0333 0.9775
4.3086 -3.2997 -2.0797 0.9770
4.6386 -2.9344 -2.1034 0.9768
4.5870 -2.3564 -1.9762 0.9782
5.2327 -1.0937 -2.0486 0.9774
5.4690 -0.1480 -2.0966 0.9768
5.5254 0.8462 -2.1421 0.9763
5.2445 2.3450 -2.2015 0.9757
4.5208 3.7234 -2.2444 0.9752
4.1878 4.1302 -2.2540 0.9751
3.1422 4.4642 -2.0921 0.9769
2.8522 4.9377 -2.1852 0.9759
1.4375 5.5077 -2.1814 0.9759
0.2061 2.6954 -1.0360 0.9885
-0.5895 5.7202 -2.2037 0.9757
-1.0895 5.5983 -2.1856 0.9759
-2.0302 5.2157 -2.1448 0.9763
-2.4625 4.9614 -2.1226 0.9766
-3.2335 4.3456 -2.0758 0.9771
-2.6409 1.7042 -1.2045 0.9866
-4.5181 2.3727 -1.9557 0.9784
-5.1254 1.6111 -2.0589 0.9772
-5.1995 0.1876 -1.9938 0.9780
-5.0544 -0.7275 -1.9569 0.9784
-4.9277 -1.1665 -1.9406 0.9785
-4.7673 -1.5901 -1.9259 0.9787
-4.0998 -2.7478 -1.8914 0.9791
-3.8213 -3.0899 -1.8832 0.9792
-0.4199 -4.9102 -1.8885 0.9791
0.4660 -4.9591 -1.9088 0.9789
1.3604 -4.8643 -1.9356 0.9786
1.8043 -4.7618 -1.9514 0.9784
2.2424 -4.6221 -1.9687 0.9782
2.6717 -4.4450 -1.9874 0.9780
3.8760 -3.6920 -2.0513 0.9773
4.2385 -3.3689 -2.0748 0.9771
4.5758 -3.0116 -2.0992 0.9768
2.3162 -0.9877 -0.9650 0.9893
5.1997 -1.1850 -2.0437 0.9774
5.5140 0.2451 -2.1152 0.9766
5.5284 0.7449 -2.1377 0.9764
5.4943 1.2485 -2.1592 0.9762
5.2774 2.2464 -2.1980 0.9757
5.0942 2.7299 -2.2148 0.9755
4.5826 3.6376 -2.2422 0.9752
3.7160 4.2296 -2.1576 0.9762
2.9487 4.8986 -2.1911 0.9758
2.0047 5.2802 -2.1644 0.9761
1.0526 5.6613 -2.2067 0.9756
0.2552 2.6975 -1.0383 0.9885
0.0280 5.8005 -2.2229 0.9755
-0.9901 5.6268 -2.1894 0.9758
-2.3777 5.0157 -2.1272 0.9765
-2.7861 4.7315 -2.1042 0.9768
-3.5028 4.0655 -2.0565 0.9773
-3.8067 3.6921 -2.0322 0.9775
-2.5828 1.7335 -1.1921 0.9868
-4.9789 2.1764 -2.0823 0.9770
-5.1072 1.7072 -2.0636 0.9772
-5.1808 1.2300 -2.0406 0.9774
-5.2057 0.2818 -1.9979 0.9779
-4.8022 -1.5062 -1.9287 0.9787
-4.6159 -1.9159 -1.9152 0.9788
-3.8795 -3.0229 -1.8847 0.9792
-2.9150 -3.9123 -1.8697 0.9793
-2.5516 -4.1538 -1.8681 0.9793
-1.7734 -4.5472 -1.8704 0.9793
-0.5079 -4.8975 -1.8869 0.9791
0.8232 -4.9387 -1.9187 0.9788
1.2705 -4.8805 -1.9326 0.9786
3.4120 -4.0331 -2.0245 0.9776
3.8002 -3.7528 -2.0467 0.9774
4.5101 -3.0863 -2.0943 0.9769
4.7403 -2.1232 -1.9904 0.9780
4.9706 -1.7115 -2.0146 0.9777
5.3210 -0.8184 -2.0631 0.9772
5.5051 1.1469 -2.1550 0.9762
5.4317 1.6499 -2.1754 0.9760
5.3083 2.1474 -2.1944 0.9758
5.1351 2.6337 -2.2116 0.9756
4.6426 3.5507 -2.2398 0.9753
4.3271 3.9702 -2.2505 0.9752
3.3309 4.3872 -2.1109 0.9767
3.0456 4.8592 -2.1977 0.9757
4.7929 -1.2724 -2.0295 0.9788
4.9418 -0.8483 -2.0521 0.9786
5.1220 0.0461 -2.0964 0.9781
5.1490 0.5089 -2.1176 0.9779
5.1317 0.9764 -2.1379 0.9777
5.0689 1.4440 -2.1571 0.9775
4.9601 1.9069 -2.1749 0.9773
4.6052 2.7983 -2.2055 0.9770
4.3610 3.2167 -2.2179 0.9769
3.3470 4.2528 -2.2149 0.9769
2.5705 4.8453 -2.2448 0.9766
2.1251 5.0508 -2.2427 0.9766
1.1753 3.6847 -1.5829 0.9834
1.1856 5.3203 -2.2309 0.9767
0.2173 5.3946 -2.2097 0.9769
-0.7368 5.2759 -2.1802 0.9772
-1.1958 5.1477 -2.1629 0.9774
-2.0558 4.7657 -2.1242 0.9778
-2.4491 4.5178 -2.1032 0.9780
-2.8138 4.2366 -2.0815 0.9783
-3.1472 3.9258 -2.0593 0.9785
-3.4474 3.5890 -2.0368 0.9787
-2.8014 1.6679 -1.3344 0.9860
-4.2899 2.0591 -1.9475 0.9796
-4.7425 1.7743 -2.0724 0.9784
-4.8382 1.3312 -2.0537 0.9785
-2.1724 0.3931 -0.9036 0.9905
-2.1724 -0.3931 -0.9035 0.9905
-4.5824 -1.2608 -1.9452 0.9797
-4.0092 -2.3870 -1.9097 0.9800
-3.4911 -3.0374 -1.8939 0.9802
-3.1965 -3.3277 -1.8885 0.9803
-2.5449 -3.8317 -1.8826 0.9803
-1.4400 -4.3782 -1.8863 0.9803
-1.0455 -4.5003 -1.8909 0.9802
-0.6412 -4.5907 -1.8971 0.9802
0.1882 -4.6738 -1.9144 0.9800
3.0555 -3.8826 -2.0221 0.9789
4.3982 -2.6726 -2.1063 0.9780
4.3423 -2.1326 -1.9800 0.9793
4.7584 -1.3556 -2.0250 0.9788
4.9148 -0.9351 -2.0476 0.9786
5.1114 -0.0461 -2.0920 0.9781
5.1471 0.4152 -2.1134 0.9779
5.1388 0.8820 -2.1339 0.9777
5.0852 1.3500 -2.1533 0.9775
4.9857 1.8142 -2.1714 0.9773
4.8402 2.2698 -2.1880 0.9772
4.6491 2.7115 -2.2027 0.9770
2.2164 5.0131 -2.2433 0.9766
1.2822 5.3019 -2.2325 0.9767
0.1579 2.7069 -1.1097 0.9883
-0.1677 5.3698 -2.1988 0.9770
-2.3721 4.5705 -2.1075 0.9780
-2.7428 4.2958 -2.0860 0.9782
-3.0827 3.9906 -2.0638 0.9784
-3.3897 3.6587 -2.0413 0.9787
-3.6621 3.3041 -2.0187 0.9789
-2.4852 1.8679 -1.2724 0.9867
-2.6544 1.6459 -1.2783 0.9866
-4.8236 1.4213 -2.0581 0.9785
-4.8804 0.9743 -2.0368 0.9787
-1.9569 0.2112 -0.8055 0.9915
-1.9158 0.0345 -0.7842 0.9918
