ply
format ascii 1.0
element vertex 1594
property float32 x
property float32 y
property float32 z
property float32 I
end_header
7.9540 -4.2849 -2.1234 0.9636
2.3205 -0.9945 -0.5934 0.9897
8.6929 -2.0025 -2.0965 0.9640
9.0122 -1.2440 -2.1382 0.9633
9.4435 0.3903 -2.2213 0.9619
9.5425 1.2529 -2.2620 0.9612
9.2755 2.0721 -2.2337 0.9617
7.2173 3.0367 -1.8402 0.9683
5.7365 3.7317 -1.6084 0.9723
3.0121 4.9367 -1.3592 0.9765
2.5419 5.1486 -1.3495 0.9767
1.4974 3.8679 -0.9748 0.9831
1.6093 5.5938 -1.3680 0.9764
0.6219 6.0971 -1.4404 0.9751
0.0787 6.3445 -1.4912 0.9743
-0.9879 5.8938 -1.4045 0.9757
-3.2852 9.1542 -2.2858 0.9608
-4.0165 8.6709 -2.2459 0.9615
-4.6862 8.1273 -2.2049 0.9622
-5.8257 6.8953 -2.1215 0.9636
-6.2917 6.2246 -2.0801 0.9643
-8.0427 3.6214 -2.0730 0.9644
-8.2511 2.0594 -1.9987 0.9657
-8.2587 1.2935 -1.9646 0.9662
-8.2060 0.5434 -1.9328 0.9668
-7.9326 -0.8951 -1.8762 0.9677
-6.8005 -3.4486 -1.7920 0.9692
-6.4125 -4.0075 -1.7772 0.9694
-5.9878 -4.5313 -1.7648 0.9696
-5.5290 -5.0186 -1.7549 0.9698
-4.5181 -5.8787 -1.7425 0.9700
-3.3978 -6.5780 -1.7401 0.9700
-1.5497 -7.3041 -1.7548 0.9698
0.4469 -7.6113 -1.7919 0.9692
2.5254 -7.4611 -1.8513 0.9682
3.9165 -7.0872 -1.9031 0.9673
8.1433 -2.9913 -2.0389 0.9650
8.8898 -1.5584 -2.1212 0.9636
9.1702 -0.7749 -2.1629 0.9629
9.3799 0.0463 -2.2045 0.9622
8.5815 2.3996 -2.0942 0.9640
7.5823 2.8704 -1.9054 0.9672
6.7356 3.2631 -1.7590 0.9697
6.0081 3.6045 -1.6467 0.9716
5.3625 3.9067 -1.5593 0.9731
4.3110 4.5113 -1.4665 0.9747
3.7920 4.7524 -1.4289 0.9753
2.7324 5.0618 -1.3519 0.9766
2.2667 5.2765 -1.3497 0.9767
1.8011 5.4995 -1.3601 0.9765
0.4043 2.9107 -0.6906 0.9880
0.3047 6.2416 -1.4687 0.9746
-0.2631 6.4998 -1.5289 0.9736
-0.8846 6.7817 -1.6074 0.9723
-4.4210 8.3555 -2.2217 0.9619
-5.0521 7.7805 -2.1803 0.9626
-7.4237 5.5034 -2.1719 0.9627
-7.7316 4.7264 -2.1297 0.9635
-7.9670 3.9418 -2.0891 0.9641
-8.1323 3.1562 -2.0502 0.9648
-8.2300 2.3752 -2.0132 0.9654
-8.2630 1.6040 -1.9783 0.9660
-8.2345 0.8469 -1.9455 0.9666
-8.0056 -0.6095 -1.8870 0.9675
-7.5686 -1.9687 -1.8380 0.9684
-6.9476 -3.2111 -1.7988 0.9690
-6.5752 -3.7839 -1.7829 0.9693
-6.1652 -4.3221 -1.7696 0.9695
-5.2420 -5.2895 -1.7502 0.9699
-4.1969 -6.1030 -1.7408 0.9700
-3.6342 -6.4490 -1.7398 0.9700
-2.4390 -7.0134 -1.7451 0.9700
-1.8109 -7.2292 -1.7515 0.9698
-1.1653 -7.3991 -1.7604 0.9697
0.1692 -7.5955 -1.7856 0.9693
0.8532 -7.6191 -1.8019 0.9690
1.5448 -7.5911 -1.8206 0.9687
2.2410 -7.5098 -1.8419 0.9683
2.9387 -7.3739 -1.8656 0.9679
3.6344 -7.1819 -1.8917 0.9675
6.3145 -5.8280 -2.0195 0.9653
6.9347 -5.3390 -2.0569 0.9647
7.5237 -4.7894 -2.0961 0.9640
8.3879 -2.5869 -2.0630 0.9646
9.3034 -0.2926 -2.1876 0.9625
9.5516 1.4147 -2.2693 0.9611
7.0623 3.1096 -1.8136 0.9688
5.6173 3.7875 -1.5923 0.9725
4.0003 4.6557 -1.4426 0.9751
3.4063 4.7654 -1.3767 0.9762
1.5216 5.6374 -1.3723 0.9763
0.5025 2.8521 -0.6806 0.9882
-0.0261 6.3921 -1.5023 0.9741
-0.6237 6.6635 -1.5729 0.9729
-1.0918 5.9134 -1.4133 0.9756
-2.6470 9.4972 -2.3171 0.9603
-3.4249 9.0698 -2.2785 0.9609
-5.9171 6.7736 -2.1138 0.9637
-2.4672 1.9720 -0.7423 0.9871
-7.6149 5.0444 -2.1467 0.9632
-8.1899 0.4067 -1.9272 0.9669
-8.0700 -0.3199 -1.8981 0.9674
-7.8967 -1.0232 -1.8714 0.9678
-6.7317 -3.5545 -1.7891 0.9692
-6.3367 -4.1070 -1.7747 0.9694
-5.4406 -5.1046 -1.7534 0.9698
-4.9443 -5.5470 -1.7464 0.9699
-4.4189 -5.9502 -1.7419 0.9700
-3.2894 -6.6342 -1.7403 0.9700
-7.5475 1.3100 -1.9834 0.9688
-7.3067 -0.7026 -1.9006 0.9701
-6.9005 -1.9421 -1.8561 0.9708
-5.9763 -3.5992 -1.8063 0.9716
-5.1793 -4.5477 -1.7846 0.9719
-4.2598 -5.3573 -1.7721 0.9721
-3.7595 -5.7067 -1.7694 0.9722
-2.6888 -6.2886 -1.7708 0.9721
0.2954 -7.0034 -1.8149 0.9715
1.5626 -6.9669 -1.8487 0.9709
2.8389 -6.7312 -1.8915 0.9703
3.4722 -6.5356 -1.9162 0.9699
4.7106 -5.9846 -1.9719 0.9690
6.8921 -3.3955 -1.9893 0.9688
2.3528 -0.9086 -0.6530 0.9896
8.2081 -0.8302 -2.1361 0.9665
8.5506 1.4407 -2.2451 0.9648
7.7402 2.7851 -2.1299 0.9666
6.8705 3.1896 -1.9613 0.9692
4.8751 4.1260 -1.6536 0.9740
4.3275 4.3815 -1.5945 0.9749
1.9034 5.5030 -1.5077 0.9762
1.4233 5.7231 -1.5269 0.9759
0.4414 2.8339 -0.7426 0.9882
0.4045 6.1880 -1.6056 0.9747
-0.7638 6.7180 -1.7506 0.9724
-1.2251 5.9688 -1.5776 0.9751
-2.5233 8.4042 -2.2720 0.9644
-3.2130 8.0227 -2.2376 0.9649
-3.8527 7.5814 -2.2019 0.9655
-4.9652 6.5498 -2.1281 0.9666
-5.4324 5.9748 -2.0908 0.9672
-5.8381 5.3701 -2.0538 0.9678
-6.9652 4.4173 -2.1355 0.9665
-7.5379 0.9012 -1.9656 0.9691
-7.4782 0.2225 -1.9371 0.9696
-7.3665 -0.4388 -1.9107 0.9700
-6.9979 -1.6975 -1.8644 0.9707
-6.7464 -2.2898 -1.8446 0.9710
-6.4535 -2.8546 -1.8271 0.9713
-6.1219 -3.3898 -1.8119 0.9715
-4.9189 -4.8024 -1.7799 0.9720
-3.9664 -5.5689 -1.7702 0.9721
-3.4516 -5.8956 -1.7688 0.9722
-2.3557 -6.4299 -1.7730 0.9721
-1.7788 -6.6350 -1.7786 0.9720
-1.1857 -6.7971 -1.7865 0.9719
-0.5785 -6.9150 -1.7967 0.9717
1.3028 -6.9902 -1.8411 0.9710
1.9408 -6.9183 -1.8604 0.9707
3.8439 -6.3948 -1.9318 0.9696
5.0662 -5.7798 -1.9900 0.9687
6.2108 -4.9470 -2.0559 0.9677
6.7412 -4.4492 -2.0913 0.9672
7.2129 -3.8856 -2.1213 0.9667
2.3160 -0.9926 -0.6524 0.9896
7.5143 -2.4539 -2.0467 0.9679
8.4698 0.3501 -2.1949 0.9656
8.5425 1.1216 -2.2308 0.9650
8.1370 2.5978 -2.2116 0.9653
6.4178 3.4027 -1.8808 0.9704
5.1108 4.0158 -1.6829 0.9735
3.0385 4.9800 -1.5105 0.9762
2.5664 5.1980 -1.5010 0.9763
0.3137 3.0755 -0.8004 0.9873
0.0786 6.3361 -1.6407 0.9742
-3.5983 7.7680 -2.2166 0.9652
-4.7575 6.7740 -2.1433 0.9664
-7.1142 4.0011 -2.1133 0.9668
-7.4518 2.5844 -2.0422 0.9679
-7.5466 1.1820 -1.9778 0.9689
-7.4182 -0.1715 -1.9212 0.9698
-7.0880 -1.4486 -1.8731 0.9706
-6.8540 -2.0516 -1.8524 0.9709
-6.5777 -2.6279 -1.8340 0.9712
-6.2616 -3.1754 -1.8178 0.9714
-5.9082 -3.6923 -1.8039 0.9716
-5.5200 -4.1772 -1.7923 0.9718
-5.0992 -4.6285 -1.7831 0.9719
-4.6482 -5.0447 -1.7761 0.9721
-4.1692 -5.4247 -1.7715 0.9721
-3.6643 -5.7671 -1.7691 0.9722
-3.1357 -6.0707 -1.7691 0.9722
-2.5856 -6.3343 -1.7714 0.9721
-2.0161 -6.5566 -1.7760 0.9721
-0.2131 -6.9634 -1.8038 0.9716
1.6805 -6.9537 -1.8523 0.9709
2.9564 -6.6990 -1.8959 0.9702
3.5885 -6.4937 -1.9210 0.9698
4.2118 -6.2352 -1.9482 0.9694
4.8222 -5.9228 -1.9775 0.9689
5.4151 -5.5559 -2.0088 0.9685
7.0329 -4.1254 -2.1111 0.9669
6.9701 -3.2922 -1.9958 0.9687
7.3661 -2.7057 -2.0318 0.9681
8.2471 -0.6969 -2.1429 0.9664
8.4193 0.0415 -2.1799 0.9658
8.5218 0.8049 -2.2163 0.9653
8.4999 2.3767 -2.2852 0.9642
5.3552 3.9014 -1.7155 0.9730
4.3055 4.5056 -1.6136 0.9746
3.2333 4.8899 -1.5178 0.9761
2.7357 5.0679 -1.4911 0.9765
2.2880 5.3262 -1.5009 0.9763
1.8155 5.5434 -1.5103 0.9762
1.3331 5.7644 -1.5319 0.9758
-0.2628 6.4911 -1.6820 0.9735
-0.8833 6.7721 -1.7683 0.9722
-3.3351 7.9454 -2.2311 0.9650
-3.9651 7.4939 -2.1952 0.9656
-5.5120 5.8650 -2.0839 0.9673
-5.9062 5.2556 -2.0470 0.9679
-7.0141 4.2878 -2.1285 0.9666
-7.5044 2.1658 -2.0223 0.9682
-7.5461 1.4648 -1.9903 0.9687
-7.5309 0.7746 -1.9602 0.9692
-6.6953 -2.3964 -1.8412 0.9710
-6.3951 -2.9558 -1.8241 0.9713
-6.0566 -3.4854 -1.8093 0.9715
-5.2745 -4.4487 -1.7866 0.9719
-4.3677 -5.2743 -1.7731 0.9721
-3.3539 -5.9517 -1.7688 0.9722
-2.8123 -6.2318 -1.7702 0.9721
-2.2504 -6.4710 -1.7739 0.9721
-0.4649 -6.9318 -1.7988 0.9717
0.1559 -6.9956 -1.8117 0.9715
0.7852 -7.0123 -1.8270 0.9713
2.0589 -6.8995 -1.8642 0.9707
3.3317 -6.5837 -1.9105 0.9700
4.5753 -6.0567 -1.9653 0.9691
5.1759 -5.7120 -1.9958 0.9687
5.7562 -5.3128 -2.0282 0.9682
6.3112 -4.8590 -2.0623 0.9676
6.7964 -3.5179 -1.9815 0.9689
2.3147 -0.9471 -0.6476 0.9897
8.3573 -0.2628 -2.1649 0.9660
8.4888 0.4912 -2.2016 0.9655
8.5478 1.2660 -2.2373 0.9649
7.9533 2.6845 -2.1734 0.9659
7.0510 3.1046 -1.9948 0.9687
5.0029 4.0663 -1.6692 0.9737
4.4462 4.3262 -1.6062 0.9747
3.9954 4.6499 -1.5873 0.9750
3.4301 4.7987 -1.5272 0.9759
2.4795 5.2381 -1.5005 0.9763
1.4274 3.8757 -1.0694 0.9831
1.5314 5.6736 -1.5216 0.9760
0.4991 2.8326 -0.7447 0.9882
0.5236 6.1338 -1.5939 0.9749
-0.0261 6.3837 -1.6529 0.9740
-3.0635 8.1131 -2.2454 0.9648
-3.7148 7.6845 -2.2099 0.9653
-5.7531 5.5070 -2.0620 0.9676
-2.4656 1.9708 -0.8173 0.9870
-6.9032 4.5729 -2.1440 0.9664
-7.4705 2.4536 -2.0359 0.9680
-7.0481 -1.5620 -1.8691 0.9706
-6.5222 -2.7313 -1.8308 0.9712
-5.8390 -3.7844 -1.8016 0.9717
-4.5617 -5.1178 -1.7751 0.9721
-3.5683 -5.8262 -1.7690 0.9722
-3.0356 -6.1225 -1.7694 0.9722
-6.9404 1.2046 -1.9941 0.9711
-6.8564 -0.0454 -1.9410 0.9719
-6.7416 -0.6483 -1.9173 0.9722
-6.5815 -1.2324 -1.8956 0.9725
-6.3784 -1.7951 -1.8758 0.9728
-5.5353 -3.3336 -1.8292 0.9735
-4.3897 -4.6092 -1.8019 0.9739
-3.9510 -4.9689 -1.7971 0.9740
-3.4874 -5.2936 -1.7945 0.9740
-1.4268 -6.2178 -1.8060 0.9738
-0.3034 -6.4385 -1.8247 0.9736
0.2735 -6.4844 -1.8373 0.9734
0.8571 -6.4858 -1.8521 0.9732
2.0335 -6.3510 -1.8878 0.9727
3.7740 -5.7908 -1.9568 0.9717
4.8763 -5.1710 -2.0121 0.9709
5.3976 -4.7867 -2.0423 0.9705
5.8928 -4.3531 -2.0740 0.9700
6.2968 -3.1022 -1.9872 0.9712
7.4516 -0.7537 -2.1202 0.9693
7.6069 -0.0880 -2.1536 0.9689
7.6998 0.5993 -2.1863 0.9684
7.6830 2.0123 -2.2484 0.9675
7.5678 2.7230 -2.2768 0.9671
5.4616 3.8426 -1.8905 0.9726
2.3720 5.2798 -1.6386 0.9762
1.9011 5.4963 -1.6464 0.9761
0.4379 2.8116 -0.8055 0.9882
-0.7627 6.7086 -1.9114 0.9723
-1.2231 5.9588 -1.7221 0.9750
-2.9041 7.2515 -2.2114 0.9680
-4.0238 6.4266 -2.1465 0.9690
-4.5092 5.9482 -2.1131 0.9694
-5.3189 4.8925 -2.0459 0.9704
-2.5525 1.9583 -0.9107 0.9867
-6.7627 2.7539 -2.0671 0.9701
-6.9324 1.4648 -2.0058 0.9710
-6.9365 0.8293 -1.9777 0.9714
-6.6521 -0.9967 -1.9042 0.9724
-6.4662 -1.5685 -1.8836 0.9727
-5.3311 -3.6077 -1.8223 0.9736
-4.9610 -4.0461 -1.8123 0.9737
-3.6792 -5.1656 -1.7953 0.9740
-3.2019 -5.4689 -1.7940 0.9740
-2.7030 -5.7353 -1.7949 0.9740
-0.5360 -6.4073 -1.8202 0.9736
2.3816 -6.2750 -1.9000 0.9725
5.1880 -4.9493 -2.0298 0.9706
2.3122 -0.9910 -0.7122 0.9896
7.3713 -1.0175 -2.1065 0.9695
7.5509 -0.3622 -2.1401 0.9691
7.6697 0.3170 -2.1731 0.9686
7.7092 1.7222 -2.2362 0.9677
7.6235 2.4338 -2.2655 0.9673
7.1938 3.0268 -2.2095 0.9681
6.4081 3.3975 -2.0533 0.9703
5.7202 3.7212 -1.9318 0.9720
5.1039 4.0103 -1.8375 0.9734
4.5401 4.2741 -1.7652 0.9744
3.0348 4.9739 -1.6495 0.9761
2.5632 5.1917 -1.6391 0.9762
1.4760 3.8125 -1.1574 0.9831
1.6185 5.6259 -1.6572 0.9760
0.5695 2.9473 -0.8498 0.9876
0.3110 3.0487 -0.8676 0.9873
-0.5076 6.5932 -1.8720 0.9729
-2.0108 7.7040 -2.2540 0.9674
-3.8113 6.6099 -2.1600 0.9688
-2.4291 2.0081 -0.8922 0.9870
-6.2511 4.2909 -2.1464 0.9690
-6.7006 3.0171 -2.0803 0.9699
-6.9156 1.7261 -2.0178 0.9708
-6.9411 1.0871 -1.9889 0.9712
-6.8387 -0.1581 -1.9365 0.9720
-6.3363 -1.8967 -1.8724 0.9729
-6.0855 -2.4312 -1.8551 0.9731
-5.7969 -2.9397 -1.8400 0.9733
-5.1156 -3.8712 -1.8161 0.9737
-4.7274 -4.2910 -1.8074 0.9738
-4.3106 -4.6783 -1.8009 0.9739
-3.3991 -5.3497 -1.7943 0.9740
-1.3251 -6.2452 -1.8073 0.9738
-0.7669 -6.3689 -1.8160 0.9737
0.3810 -6.4880 -1.8399 0.9733
0.9656 -6.4811 -1.8550 0.9731
1.5536 -6.4285 -1.8723 0.9729
2.7282 -6.1820 -1.9129 0.9723
3.3082 -5.9865 -1.9363 0.9720
3.8786 -5.7418 -1.9616 0.9716
4.4354 -5.4476 -1.9887 0.9712
5.4912 -4.7102 -2.0481 0.9704
6.4296 -3.7716 -2.1102 0.9695
6.3662 -3.0069 -1.9931 0.9712
6.7174 -2.4675 -2.0259 0.9707
7.7235 1.4327 -2.2238 0.9679
7.6671 2.1439 -2.2538 0.9674
4.7645 4.1692 -1.7923 0.9740
4.3000 4.4998 -1.7620 0.9745
3.7826 4.7407 -1.7169 0.9751
3.2293 4.8839 -1.6575 0.9760
2.7323 5.0617 -1.6284 0.9764
1.8133 5.5366 -1.6493 0.9761
0.3957 2.8486 -0.8142 0.9881
0.3039 6.2255 -1.7645 0.9744
-0.8821 6.7625 -1.9306 0.9720
-1.5741 7.0745 -2.0517 0.9703
-2.3963 7.5279 -2.2365 0.9677
-4.5931 5.8558 -2.1068 0.9695
-5.3826 4.7896 -2.0397 0.9705
-5.6943 4.2214 -2.0067 0.9710
-6.6290 3.2798 -2.0938 0.9697
-6.8898 1.9885 -2.0301 0.9706
-6.9371 1.3466 -2.0005 0.9711
-6.8755 0.0911 -1.9466 0.9718
-6.7712 -0.5155 -1.9224 0.9722
-6.6209 -1.1041 -1.9002 0.9725
-6.4272 -1.6718 -1.8800 0.9728
-6.1924 -2.2164 -1.8619 0.9730
-5.9189 -2.7357 -1.8459 0.9733
-5.6090 -3.2278 -1.8320 0.9735
-5.2650 -3.6911 -1.8203 0.9736
-4.8892 -4.1238 -1.8107 0.9738
-4.4838 -4.5245 -1.8033 0.9739
-4.0509 -4.8918 -1.7980 0.9739
-2.6086 -5.7804 -1.7953 0.9740
-1.5488 -6.1829 -1.8044 0.9739
-0.9959 -6.3236 -1.8122 0.9737
0.1443 -6.4780 -1.8343 0.9734
1.3137 -6.4555 -1.8650 0.9730
1.9025 -6.3753 -1.8834 0.9727
2.4899 -6.2478 -1.9040 0.9724
4.2103 -5.5735 -1.9774 0.9714
4.7571 -5.2499 -2.0056 0.9710
5.7850 -4.4539 -2.0668 0.9701
6.2566 -3.9828 -2.0996 0.9696
6.9049 -2.1295 -2.0456 0.9704
7.4089 -0.8984 -2.1128 0.9695
7.6847 0.4447 -2.1791 0.9685
7.7262 1.1444 -2.2111 0.9681
7.5997 2.5651 -2.2707 0.9672
7.0397 3.0996 -2.1775 0.9685
5.6015 3.7769 -1.9125 0.9723
4.9962 4.0608 -1.8226 0.9736
3.9904 4.6441 -1.7334 0.9749
2.9472 5.0145 -1.6466 0.9761
2.4765 5.2317 -1.6386 0.9762
-0.0261 6.3752 -1.8048 0.9738
-0.6220 6.6450 -1.8894 0.9726
-4.4056 6.0580 -2.1205 0.9693
-6.3068 4.1778 -2.1416 0.9690
-6.5477 3.5416 -2.1074 0.9695
-6.7300 2.8978 -2.0743 0.9700
-6.8550 2.2515 -2.0426 0.9705
-6.9043 0.3429 -1.9570 0.9717
-6.0349 -2.5272 -1.8522 0.9732
-5.7396 -3.0307 -1.8374 0.9734
-4.2305 -4.7462 -1.7999 0.9739
-3.7823 -5.0931 -1.7959 0.9740
-3.3101 -5.4045 -1.7941 0.9740
-6.4085 0.5306 -1.9779 0.9734
-6.3526 -0.0421 -1.9540 0.9738
-6.2519 -0.6012 -1.9318 0.9741
-5.9243 -1.6674 -1.8930 0.9746
-5.4432 -2.6483 -1.8618 0.9750
-5.1503 -3.1018 -1.8492 0.9752
-3.2491 -4.9320 -1.8166 0.9756
-2.7960 -5.2008 -1.8162 0.9756
-1.3288 -5.7905 -1.8273 0.9754
0.2544 -6.0316 -1.8568 0.9751
0.7968 -6.0296 -1.8707 0.9749
1.8879 -5.8962 -1.9043 0.9744
2.4307 -5.7634 -1.9239 0.9742
2.9674 -5.5855 -1.9454 0.9739
4.0088 -5.0930 -1.9935 0.9732
4.5059 -4.7782 -2.0201 0.9729
5.8470 -3.5607 -2.1056 0.9718
5.7902 -2.8526 -1.9853 0.9733
6.6291 -1.2752 -2.0763 0.9721
7.0237 0.5467 -2.1669 0.9709
7.0388 1.1859 -2.1955 0.9706
6.9910 1.8310 -2.2228 0.9702
6.8783 2.4750 -2.2484 0.9699
6.1085 3.5290 -2.1698 0.9709
5.4539 3.8372 -2.0511 0.9725
4.8621 4.1149 -1.9592 0.9737
3.8715 4.6912 -1.8708 0.9749
3.3141 4.8367 -1.8034 0.9758
2.8384 5.0569 -1.7837 0.9760
2.3691 5.2734 -1.7781 0.9761
1.8987 5.4896 -1.7866 0.9760
0.4372 2.8069 -0.8737 0.9882
0.4035 6.1719 -1.9024 0.9744
-0.7616 6.6990 -2.0737 0.9722
-1.2211 5.9491 -1.8680 0.9749
-3.1824 6.2623 -2.1606 0.9710
-4.1254 5.4419 -2.1004 0.9718
-2.5452 1.9527 -0.9867 0.9867
-5.8472 3.7083 -2.1297 0.9714
-6.0724 3.1301 -2.1013 0.9718
-6.2360 2.5394 -2.0710 0.9722
-6.4073 1.3538 -2.0143 0.9730
-6.4179 0.7673 -1.9881 0.9733
-6.0041 -1.4564 -1.9003 0.9745
-5.2737 -2.9201 -1.8541 0.9751
-4.9617 -3.3577 -1.8427 0.9752
-4.2477 -4.1471 -1.8259 0.9755
-1.0234 -5.8667 -1.8317 0.9754
0.0348 -6.0204 -1.8518 0.9751
0.5752 -6.0355 -1.8648 0.9749
1.1198 -6.0082 -1.8798 0.9747
2.2100 -5.8229 -1.9157 0.9743
3.8011 -5.2082 -1.9832 0.9734
4.3056 -4.9120 -2.0091 0.9730
5.6483 -3.0428 -1.9733 0.9735
2.3098 -0.9899 -0.7729 0.9895
6.7457 -0.9312 -2.0945 0.9719
6.9007 -0.3310 -2.1250 0.9715
7.0000 0.2893 -2.1549 0.9711
7.0182 1.5678 -2.2119 0.9704
6.9321 2.2131 -2.2382 0.9700
6.7805 2.8529 -2.2626 0.9697
5.7120 3.7158 -2.0959 0.9719
4.0807 4.5937 -1.8899 0.9746
3.5740 4.8295 -1.8480 0.9752
1.4410 3.7222 -1.2277 0.9834
0.5719 2.9596 -0.9272 0.9875
0.0784 6.3193 -1.9438 0.9739
-0.5069 6.5840 -2.0311 0.9727
-1.8293 7.0085 -2.2279 0.9701
-2.4170 6.7350 -2.2009 0.9705
-3.9480 5.6214 -2.1129 0.9717
-4.3691 5.1713 -2.0823 0.9721
-4.7417 4.6912 -2.0516 0.9725
-5.3370 3.6635 -1.9911 0.9733
-6.3082 2.1878 -2.0536 0.9724
-6.4195 1.0054 -1.9986 0.9732
-6.4016 0.4239 -1.9733 0.9735
-5.8860 -1.7619 -1.8898 0.9746
-5.6567 -2.2599 -1.8736 0.9748
-5.3915 -2.7341 -1.8594 0.9750
-5.0926 -3.1827 -1.8471 0.9752
-4.7622 -3.6038 -1.8369 0.9753
-4.0151 -4.3576 -1.8225 0.9755
-3.6026 -4.6875 -1.8184 0.9756
-1.2339 -5.8158 -1.8286 0.9754
-0.1837 -6.0022 -1.8470 0.9752
0.8975 -6.0245 -1.8735 0.9748
1.4432 -5.9717 -1.8896 0.9746
3.5908 -5.3158 -1.9731 0.9735
4.1021 -5.0382 -1.9983 0.9732
4.5956 -4.7150 -2.0251 0.9728
5.8526 -2.7643 -1.9908 0.9733
6.1673 -2.2654 -2.0209 0.9729
6.6674 -1.1688 -2.0820 0.9721
6.8441 -0.5784 -2.1126 0.9717
6.9665 0.0344 -2.1428 0.9713
7.0311 0.6641 -2.1722 0.9709
7.0348 1.3050 -2.2007 0.9705
6.9750 1.9504 -2.2277 0.9701
6.6596 3.2263 -2.2761 0.9695
5.9818 3.5887 -2.1456 0.9712
5.3403 3.8905 -2.0322 0.9727
4.7581 4.1636 -1.9447 0.9739
4.2945 4.4940 -1.9119 0.9743
3.7779 4.7347 -1.8631 0.9750
3.2253 4.8778 -1.7986 0.9758
2.2825 5.3133 -1.7787 0.9761
1.8111 5.5298 -1.7897 0.9759
1.3297 5.7501 -1.8153 0.9756
0.3955 2.8475 -0.8842 0.9880
-0.2621 6.4734 -1.9927 0.9733
-2.7485 6.5479 -2.1842 0.9707
-3.2769 6.1933 -2.1551 0.9711
-3.7629 5.7950 -2.1252 0.9715
-4.2032 5.3587 -2.0948 0.9719
-4.9390 4.3950 -2.0335 0.9727
-5.2321 3.8787 -2.0033 0.9731
-5.8959 3.6042 -2.1255 0.9715
-6.1066 3.0213 -2.0956 0.9719
-6.3621 1.8362 -2.0367 0.9727
-6.4130 1.2449 -2.0093 0.9730
-6.4146 0.6598 -1.9834 0.9734
-6.3690 0.0844 -1.9591 0.9737
-6.1439 -1.0245 -1.9158 0.9743
-5.9687 -1.5525 -1.8969 0.9745
-5.7546 -2.0597 -1.8800 0.9747
-5.5038 -2.5438 -1.8649 0.9749
-3.7737 -4.5570 -1.8198 0.9755
-3.3472 -4.8674 -1.8169 0.9756
-2.8987 -5.1440 -1.8161 0.9756
-1.9442 -5.5906 -1.8206 0.9755
-1.4424 -5.7584 -1.8259 0.9755
-0.9272 -5.8876 -1.8332 0.9754
0.1343 -6.0263 -1.8540 0.9751
1.2207 -5.9985 -1.8828 0.9747
2.3102 -5.7968 -1.9194 0.9742
2.8486 -5.6290 -1.9404 0.9739
4.3968 -4.8523 -2.0140 0.9730
4.8779 -4.5021 -2.0417 0.9726
5.7623 -3.6681 -2.1010 0.9718
5.7134 -2.9573 -1.9788 0.9734
2.3127 -0.9463 -0.7686 0.9896
6.3344 -1.9536 -2.0389 0.9726
6.7784 -0.8220 -2.1002 0.9718
6.9234 -0.2177 -2.1305 0.9714
7.0072 1.6872 -2.2168 0.9703
6.7453 2.9700 -2.2669 0.9696
5.5935 3.7715 -2.0750 0.9722
4.9894 4.0553 -1.9776 0.9735
4.4346 4.3150 -1.9031 0.9744
3.9853 4.6382 -1.8809 0.9747
3.4216 4.7868 -1.8098 0.9757
2.9436 5.0083 -1.7868 0.9760
1.4130 3.8367 -1.2576 0.9830
1.5276 5.6596 -1.8031 0.9758
0.4981 2.8270 -0.8829 0.9881
0.5222 6.1180 -1.8886 0.9746
-0.0260 6.3666 -1.9582 0.9737
-1.0875 5.8904 -1.8424 0.9752
-1.9404 6.9622 -2.2230 0.9702
-2.5218 6.6785 -2.1957 0.9706
-3.0665 6.3434 -2.1671 0.9709
-3.5701 5.9623 -2.1375 0.9713
-4.0294 5.5407 -2.1072 0.9717
-5.7862 3.8329 -2.1348 0.9714
-6.0286 3.2608 -2.1081 0.9717
-6.2042 2.6714 -2.0776 0.9721
-6.3983 1.4853 -2.0203 0.9729
-6.3932 0.3175 -1.9688 0.9736
-5.6103 -2.3494 -1.8708 0.9749
-4.6978 -3.6785 -1.8352 0.9753
-4.3328 -4.0651 -1.8274 0.9754
-3.9407 -4.4211 -1.8216 0.9755
-3.5238 -4.7449 -1.8179 0.9756
-2.6235 -5.2913 -1.8166 0.9756
-5.8229 -0.5599 -1.9445 0.9756
-5.6934 -1.0661 -1.9254 0.9759
-5.0823 -2.4728 -1.8788 0.9765
-4.5094 -3.2969 -1.8569 0.9767
-4.1794 -3.6696 -1.8488 0.9768
-3.4420 -4.3288 -1.8383 0.9770
-2.6150 -4.8640 -1.8357 0.9770
-1.7147 -5.2655 -1.8408 0.9769
-1.2422 -5.4134 -1.8462 0.9769
-0.7578 -5.5245 -1.8536 0.9768
0.2376 -5.6328 -1.8740 0.9765
0.7438 -5.6281 -1.8871 0.9764
2.7625 -5.1998 -1.9572 0.9755
3.2507 -4.9877 -1.9790 0.9752
4.1836 -4.4365 -2.0270 0.9746
4.6210 -4.0980 -2.0530 0.9743
5.0338 -3.7185 -2.0803 0.9740
5.3535 -2.6375 -1.9838 0.9752
5.8976 -1.6913 -2.0394 0.9745
6.2724 -0.6344 -2.0956 0.9738
6.3873 -0.0739 -2.1233 0.9734
6.4495 0.5020 -2.1503 0.9731
6.4564 1.0878 -2.1764 0.9728
6.2966 2.2657 -2.2244 0.9722
5.4461 3.8317 -2.2135 0.9723
4.8554 4.1093 -2.1144 0.9735
4.3107 4.3645 -2.0391 0.9745
3.7989 4.6033 -1.9839 0.9752
3.3099 4.8306 -1.9465 0.9756
2.8349 5.0506 -1.9252 0.9759
2.3662 5.2669 -1.9193 0.9760
0.4366 2.8028 -0.9429 0.9881
0.4029 6.1637 -2.0532 0.9743
-0.1538 6.4157 -2.1332 0.9733
-0.7605 6.6893 -2.2379 0.9720
-1.2191 5.9395 -2.0155 0.9748
-1.8998 6.3273 -2.1960 0.9725
-2.9229 5.7517 -2.1446 0.9732
-3.7976 5.0096 -2.0896 0.9738
-4.1721 4.5887 -2.0615 0.9742
-4.5022 4.1413 -2.0334 0.9745
-2.5379 1.9471 -1.0633 0.9866
-5.0250 3.1869 -1.9779 0.9752
-5.6219 2.8979 -2.1024 0.9737
-5.7796 2.3535 -2.0744 0.9740
-5.9657 0.7132 -1.9972 0.9750
-5.8643 -0.3493 -1.9528 0.9755
-5.7510 -0.8617 -1.9330 0.9758
-5.5985 -1.3580 -1.9149 0.9760
-5.4087 -1.8358 -1.8986 0.9762
-4.3172 -3.5211 -1.8518 0.9768
-3.6000 -4.2042 -1.8398 0.9769
-3.2056 -4.5007 -1.8367 0.9770
-2.7900 -4.7655 -1.8356 0.9770
-1.4363 -5.3575 -1.8437 0.9769
-0.9566 -5.4837 -1.8503 0.9768
1.0449 -5.6064 -1.8957 0.9762
2.5606 -5.2740 -1.9488 0.9756
3.5338 -4.8421 -1.9926 0.9750
4.4455 -4.2409 -2.0423 0.9744
4.8688 -3.8781 -2.0691 0.9741
5.2650 -3.4749 -2.0969 0.9738
5.2247 -2.8146 -1.9727 0.9753
2.3072 -0.9888 -0.8344 0.9895
6.2112 -0.8574 -2.0842 0.9739
6.3466 -0.3044 -2.1121 0.9736
6.4306 0.2658 -2.1394 0.9732
6.4604 0.8482 -2.1659 0.9729
6.4335 1.4372 -2.1913 0.9726
5.0898 3.9993 -2.1517 0.9731
4.5280 4.2627 -2.0672 0.9741
4.0042 4.5076 -2.0042 0.9749
3.0273 4.9616 -1.9320 0.9758
2.5569 5.1789 -1.9199 0.9759
1.6145 5.6119 -1.9411 0.9757
0.5764 2.9828 -1.0098 0.9873
0.3111 3.0504 -1.0192 0.9872
-0.9839 5.8697 -1.9783 0.9752
-1.6759 6.4208 -2.2058 0.9724
-2.2165 6.1765 -2.1813 0.9727
-2.7255 5.8838 -2.1555 0.9730
-3.1986 5.5475 -2.1286 0.9734
-4.0248 4.7637 -2.0730 0.9741
-4.3731 4.3265 -2.0448 0.9744
-5.9309 1.4803 -2.0319 0.9746
-5.8987 -0.1364 -1.9613 0.9754
-5.6652 -1.1579 -1.9221 0.9759
-5.4904 -1.6434 -1.9051 0.9761
-5.2796 -2.1092 -1.8898 0.9763
-4.1154 -3.7355 -1.8475 0.9768
-3.3690 -4.3836 -1.8378 0.9770
-2.9618 -4.6614 -1.8358 0.9770
-2.5346 -4.9068 -1.8358 0.9770
-2.0894 -5.1186 -1.8377 0.9770
-0.6672 -5.5410 -1.8551 0.9767
-0.1716 -5.6073 -1.8648 0.9766
1.3462 -5.5703 -1.9049 0.9761
1.8537 -5.4767 -1.9219 0.9759
2.8536 -5.1638 -1.9611 0.9754
3.3396 -4.9439 -1.9832 0.9752
4.6993 -4.0309 -2.0580 0.9742
5.6945 -2.0917 -2.0165 0.9748
6.2975 -0.5322 -2.1008 0.9737
6.4028 0.0316 -2.1284 0.9734
6.4514 1.1967 -2.1811 0.9727
6.3902 1.7868 -2.2056 0.9724
6.0901 2.9504 -2.2494 0.9719
1.8088 5.5229 -1.9318 0.9758
1.3281 5.7428 -1.9593 0.9755
0.3910 2.8152 -0.9448 0.9881
0.3031 6.2090 -2.0663 0.9741
-0.8706 6.6745 -2.2374 0.9720
-1.3488 6.0619 -2.0643 0.9742
-3.4607 5.3296 -2.1123 0.9736
-3.8701 4.9340 -2.0844 0.9739
-4.2365 4.5078 -2.0563 0.9743
-4.5582 4.0561 -2.0282 0.9746
-5.6548 2.7978 -2.0972 0.9738
-5.8034 2.2524 -2.0693 0.9741
-5.9636 0.6134 -1.9928 0.9750
-5.9263 0.0785 -1.9701 0.9753
-4.8742 -2.8050 -1.8694 0.9766
-4.5792 -3.2102 -1.8589 0.9767
-4.2552 -3.5890 -1.8504 0.9768
-2.7110 -4.8108 -1.8356 0.9770
-2.2729 -5.0364 -1.8367 0.9770
-0.8666 -5.5030 -1.8518 0.9768
-0.3745 -5.5849 -1.8606 0.9767
1.1389 -5.5967 -1.8985 0.9762
3.1429 -5.0386 -1.9740 0.9753
3.6211 -4.7936 -1.9969 0.9750
4.0833 -4.5062 -2.0214 0.9747
4.9442 -3.8065 -2.0741 0.9740
5.3319 -3.3942 -2.1010 0.9737
5.8448 -1.8026 -2.0331 0.9745
6.4403 0.3727 -2.1444 0.9732
6.4598 0.9568 -2.1707 0.9728
3.4173 4.7808 -1.9534 0.9755
2.9399 5.0021 -1.9286 0.9758
1.5257 5.6525 -1.9462 0.9756
0.5207 2.9555 -0.9975 0.9874
0.5215 6.1099 -2.0384 0.9745
-0.6202 6.6261 -2.2122 0.9723
-1.0861 5.8826 -1.9885 0.9751
-1.7780 6.3795 -2.2014 0.9725
-2.8158 5.8248 -2.1506 0.9731
-4.0925 4.6849 -2.0678 0.9741
-4.4326 4.2429 -2.0396 0.9745
-2.4609 1.9670 -1.0472 0.9868
-5.7487 2.4753 -2.0805 0.9740
-5.8686 1.9275 -2.0533 0.9743
-5.9662 0.8339 -2.0025 0.9749
-5.8840 -0.2332 -1.9574 0.9755
-5.6357 -1.2490 -1.9188 0.9760
-5.4541 -1.7311 -1.9021 0.9762
-5.2368 -2.1930 -1.8872 0.9764
-4.9857 -2.6326 -1.8741 0.9765
-4.7030 -3.0482 -1.8629 0.9767
-4.3906 -3.4379 -1.8536 0.9768
-4.0505 -3.8003 -1.8463 0.9769
-3.6848 -4.1339 -1.8408 0.9769
-3.2954 -4.4373 -1.8373 0.9770
-2.8843 -4.7093 -1.8357 0.9770
-5.5614 0.9653 -2.0185 0.9763
-5.4438 -0.5235 -1.9557 0.9770
-5.3262 -0.9973 -1.9378 0.9772
-5.1721 -1.4556 -1.9214 0.9774
-4.9834 -1.8962 -1.9067 0.9776
-4.7619 -2.3169 -1.8938 0.9778
-4.5096 -2.7159 -1.8825 0.9779
-4.2283 -3.0914 -1.8731 0.9780
-2.0388 -4.7683 -1.8545 0.9782
-0.7107 -5.1806 -1.8700 0.9780
-0.2473 -5.2478 -1.8788 0.9779
0.2226 -5.2785 -1.8893 0.9778
0.6967 -5.2718 -1.9016 0.9777
1.1724 -5.2271 -1.9157 0.9775
2.1177 -5.0211 -1.9488 0.9771
2.5816 -4.8592 -1.9677 0.9769
3.9005 -4.1362 -2.0331 0.9761
5.0274 -3.0616 -2.1050 0.9753
4.9728 -2.4499 -1.9824 0.9767
2.3715 -0.9158 -0.9091 0.9893
5.4673 -1.5679 -2.0339 0.9761
5.1591 3.6298 -2.2558 0.9736
4.0588 4.1095 -2.0655 0.9758
3.5828 4.3413 -2.0129 0.9764
3.3057 4.8245 -2.0914 0.9755
2.8313 5.0442 -2.0686 0.9757
2.3632 5.2602 -2.0622 0.9758
1.4162 5.6944 -2.0984 0.9754
-1.2171 5.9299 -2.1648 0.9746
-1.7513 5.8330 -2.1779 0.9745
-2.2404 5.5941 -2.1550 0.9747
-2.6995 5.3121 -2.1308 0.9750
-3.8647 4.2505 -2.0544 0.9759
-4.1746 3.8399 -2.0284 0.9762
-5.5675 0.6656 -2.0052 0.9765
-5.4810 -0.3265 -1.9635 0.9769
-5.3786 -0.8059 -1.9449 0.9772
-5.2392 -1.2709 -1.9279 0.9774
-5.0644 -1.7189 -1.9125 0.9775
-4.3463 -2.9413 -1.8767 0.9780
-4.0487 -3.3021 -1.8683 0.9781
-3.7251 -3.6369 -1.8617 0.9781
-3.0077 -4.2229 -1.8540 0.9782
-0.8971 -5.1429 -1.8669 0.9781
0.5031 -5.2791 -1.8964 0.9777
0.9785 -5.2499 -1.9097 0.9776
1.4538 -5.1824 -1.9248 0.9774
2.3935 -4.9300 -1.9598 0.9770
2.8519 -4.7445 -1.9796 0.9768
3.2985 -4.5195 -2.0009 0.9765
3.7298 -4.2552 -2.0235 0.9762
4.1425 -3.9519 -2.0474 0.9760
4.8958 -3.2312 -2.0977 0.9754
2.3047 -0.9877 -0.8967 0.9894
5.3785 -1.7565 -2.0233 0.9763
5.5845 -1.2865 -2.0493 0.9759
5.8683 -0.2815 -2.1010 0.9754
5.9402 0.2455 -2.1261 0.9751
5.9621 0.7828 -2.1504 0.9748
5.8484 1.8671 -2.1954 0.9743
5.5190 2.9261 -2.2339 0.9738
5.2740 3.4309 -2.2499 0.9736
4.5219 4.2570 -2.2209 0.9740
3.0235 4.9553 -2.0759 0.9756
0.3108 3.0471 -1.0953 0.9871
-0.9829 5.8637 -2.1262 0.9751
-2.0444 5.6969 -2.1645 0.9746
-2.9558 5.1264 -2.1161 0.9752
-3.3602 4.7845 -2.0908 0.9755
-3.7267 4.4109 -2.0650 0.9758
-4.0532 4.0100 -2.0390 0.9761
-2.4320 2.0105 -1.1284 0.9867
-4.5817 3.1450 -1.9873 0.9767
-5.1411 2.8914 -2.1093 0.9753
-5.4485 1.8896 -2.0623 0.9758
-5.5588 0.3681 -1.9922 0.9766
-5.5116 -0.1275 -1.9715 0.9769
-4.9449 -1.9755 -1.9042 0.9776
-3.5219 -3.8224 -1.8587 0.9782
-2.3782 -4.6041 -1.8531 0.9782
-1.9604 -4.8025 -1.8550 0.9782
-1.0819 -5.0993 -1.8641 0.9781
0.7846 -5.2664 -1.9041 0.9776
1.2602 -5.2146 -1.9185 0.9775
2.2040 -4.9942 -1.9521 0.9771
2.6663 -4.8249 -1.9713 0.9769
3.1181 -4.6160 -1.9920 0.9766
3.5561 -4.3676 -2.0141 0.9764
3.9768 -4.0802 -2.0375 0.9761
4.3767 -3.7542 -2.0620 0.9758
5.0853 -2.9830 -2.1083 0.9753
5.0244 -2.3732 -1.9871 0.9767
5.5054 -1.4810 -2.0387 0.9761
5.8252 -0.4923 -2.0905 0.9755
5.9168 0.0292 -2.1159 0.9752
5.9506 1.1038 -2.1643 0.9746
5.6036 2.7147 -2.2267 0.9739
3.9678 4.1521 -2.0538 0.9759
3.5000 4.3864 -2.0068 0.9764
3.2172 4.8655 -2.0859 0.9755
2.7222 5.0429 -2.0493 0.9759
1.8065 5.5159 -2.0756 0.9756
0.3893 2.8025 -1.0118 0.9881
0.3027 6.2006 -2.2200 0.9740
-0.8014 6.1440 -2.2158 0.9740
-3.5820 4.5667 -2.0755 0.9756
-3.9250 4.1764 -2.0496 0.9759
-4.2273 3.7616 -2.0236 0.9762
-4.4877 3.3269 -1.9978 0.9765
-5.2587 2.6018 -2.0981 0.9754
-5.4030 2.0970 -2.0726 0.9757
-5.5553 1.0784 -2.0237 0.9762
-5.5663 0.5725 -2.0011 0.9765
-5.4649 -0.4161 -1.9599 0.9770
-5.0283 -1.7997 -1.9099 0.9776
-3.9908 -3.3660 -1.8670 0.9781
-3.6626 -3.6958 -1.8607 0.9781
-3.3107 -3.9980 -1.8563 0.9782
-2.5438 -4.5141 -1.8529 0.9782
-2.1326 -4.7256 -1.8540 0.9782
-1.7056 -4.9045 -1.8569 0.9782
-0.3511 -5.2360 -1.8766 0.9780
0.1175 -5.2749 -1.8868 0.9778
1.0664 -5.2404 -1.9124 0.9775
2.9354 -4.7059 -1.9834 0.9767
4.6023 -3.5433 -2.0771 0.9756
4.9562 -3.1550 -2.1010 0.9754
4.9091 -2.5410 -1.9768 0.9768
5.4196 -1.6715 -2.0281 0.9762
5.6181 -1.1970 -2.0542 0.9759
5.7743 -0.7002 -2.0801 0.9756
5.8270 1.9668 -2.1993 0.9742
5.2229 3.5216 -2.2527 0.9736
4.9170 3.9964 -2.2659 0.9734
4.4228 4.3034 -2.2068 0.9741
3.6828 4.2862 -2.0209 0.9763
2.4673 5.2123 -2.0622 0.9758
1.5237 5.6453 -2.0910 0.9755
0.5184 2.9423 -1.0684 0.9874
-0.0256 6.2661 -2.2408 0.9737
-0.5794 6.1905 -2.2234 0.9739
-1.6388 5.8799 -2.1828 0.9744
-2.6000 5.3784 -2.1363 0.9749
-3.4308 4.7177 -2.0860 0.9755
-3.7901 4.3387 -2.0602 0.9758
-4.1091 3.9333 -2.0342 0.9761
-4.6220 3.0618 -1.9826 0.9767
-5.4666 1.7955 -2.0576 0.9759
-5.5385 1.2857 -2.0333 0.9761
-5.5670 0.7781 -2.0101 0.9764
-5.5531 0.2758 -1.9883 0.9767
-5.4985 -0.2179 -1.9679 0.9769
-5.2733 -1.1687 -1.9315 0.9773
-4.9052 -2.0542 -1.9017 0.9777
-4.6721 -2.4670 -1.8894 0.9778
-4.1173 -3.2239 -1.8700 0.9780
-3.7993 -3.5646 -1.8630 0.9781
-3.4569 -3.8783 -1.8579 0.9782
-2.7064 -4.4188 -1.8530 0.9782
-5.1774 -0.0343 -1.9841 0.9781
-5.1060 -0.4910 -1.9657 0.9783
-4.8564 -1.3668 -1.9334 0.9786
-3.9763 -2.9071 -1.8876 0.9791
-3.6871 -3.2374 -1.8803 0.9792
-3.0386 -3.8215 -1.8710 0.9793
-2.6830 -4.0726 -1.8689 0.9793
-2.3089 -4.2947 -1.8686 0.9793
-1.9184 -4.4868 -1.8700 0.9793
-1.0961 -4.7766 -1.8780 0.9792
-0.6684 -4.8724 -1.8847 0.9792
0.2093 -4.9614 -1.9030 0.9790
1.1010 -4.9089 -1.9279 0.9787
1.5459 -4.8282 -1.9428 0.9785
1.9867 -4.7106 -1.9592 0.9783
2.8442 -4.3641 -1.9962 0.9779
3.2550 -4.1353 -2.0168 0.9777
4.0244 -3.5689 -2.0613 0.9772
4.8809 -1.8848 -2.0051 0.9778
5.3930 -0.5455 -2.0772 0.9770
5.4816 -0.0634 -2.1008 0.9768
5.5250 0.4300 -2.1237 0.9765
5.5214 0.9303 -2.1457 0.9763
5.4692 1.4324 -2.1666 0.9761
5.2163 2.4216 -2.2039 0.9757
4.0534 4.1039 -2.2105 0.9756
3.3009 4.8175 -2.2379 0.9753
2.8277 5.0378 -2.2139 0.9756
2.3602 5.2535 -2.2071 0.9756
0.4567 2.9323 -1.1373 0.9874
0.3797 5.8091 -2.2309 0.9754
-0.1386 5.7825 -2.2166 0.9755
-1.1448 5.5776 -2.1820 0.9759
-1.6225 5.4039 -2.1622 0.9761
-2.5049 4.9292 -2.1189 0.9766
-2.9023 4.6353 -2.0958 0.9768
-3.2665 4.3090 -2.0721 0.9771
-4.3548 2.7618 -1.9762 0.9782
-4.8702 2.5105 -2.0997 0.9768
-5.0267 2.0469 -2.0799 0.9770
-5.1303 1.5728 -2.0563 0.9773
-5.1923 1.0971 -2.0337 0.9775
-5.2138 0.6233 -2.0123 0.9778
-4.9184 -1.1931 -1.9395 0.9786
-4.7566 -1.6145 -1.9250 0.9787
-4.5629 -2.0183 -1.9120 0.9789
-4.0868 -2.7657 -1.8911 0.9791
-3.8080 -3.1058 -1.8831 0.9792
-3.1778 -3.7111 -1.8723 0.9793
-2.8302 -3.9737 -1.8695 0.9793
-2.4635 -4.2077 -1.8685 0.9793
-2.0794 -4.4122 -1.8692 0.9793
-1.6801 -4.5860 -1.8717 0.9793
-0.8438 -4.8374 -1.8818 0.9792
-0.4110 -4.9132 -1.8894 0.9791
0.0286 -4.9546 -1.8987 0.9790
0.9191 -4.9313 -1.9223 0.9787
1.3649 -4.8655 -1.9365 0.9786
1.8077 -4.7630 -1.9523 0.9784
2.2447 -4.6234 -1.9696 0.9782
2.6729 -4.4467 -1.9882 0.9780
3.8742 -3.6959 -2.0519 0.9773
4.2359 -3.3740 -2.0753 0.9771
5.0090 -1.6358 -2.0193 0.9777
5.1963 -1.1970 -2.0434 0.9774
5.4508 -0.2615 -2.0913 0.9769
5.5129 0.2278 -2.1145 0.9766
5.5287 0.7259 -2.1369 0.9764
5.4964 1.2279 -2.1582 0.9762
5.4150 1.7288 -2.1783 0.9759
5.1034 2.7058 -2.2136 0.9756
4.5979 3.6127 -2.2408 0.9753
3.7654 4.2387 -2.1727 0.9760
3.3166 4.4817 -2.1366 0.9764
3.0196 4.9490 -2.2217 0.9755
2.5505 5.1658 -2.2078 0.9756
1.4628 3.7784 -1.5527 0.9828
1.6104 5.5975 -2.2321 0.9754
0.5726 2.9631 -1.1565 0.9872
-0.4421 5.7425 -2.2071 0.9756
-1.4304 5.4802 -2.1705 0.9760
-2.3340 5.0387 -2.1280 0.9765
-2.7441 4.7592 -2.1053 0.9767
-3.1222 4.4456 -2.0818 0.9770
-2.4330 2.0113 -1.2097 0.9866
-4.2722 2.9326 -1.9858 0.9780
-4.4631 2.5101 -1.9623 0.9783
-4.9717 2.2386 -2.0895 0.9769
-5.0931 1.7664 -2.0658 0.9772
-5.1720 1.2909 -2.0428 0.9774
-5.2099 0.8160 -2.0209 0.9777
-5.2078 0.3448 -2.0001 0.9779
-4.9748 -1.0167 -1.9458 0.9785
-4.4338 -2.2485 -1.9051 0.9789
-3.3136 -3.5962 -1.8740 0.9793
-2.9743 -3.8700 -1.8705 0.9793
-2.2379 -4.3325 -1.8687 0.9793
-1.8446 -4.5189 -1.8705 0.9793
-1.0177 -4.7968 -1.8791 0.9792
-0.5883 -4.8864 -1.8861 0.9791
0.7371 -4.9477 -1.9170 0.9788
1.1834 -4.8968 -1.9306 0.9787
1.6278 -4.8092 -1.9457 0.9785
2.4996 -4.5232 -1.9804 0.9781
3.3292 -4.0890 -2.0207 0.9777
3.7203 -3.8170 -2.0426 0.9774
4.4386 -3.1671 -2.0896 0.9769
4.9222 -1.8080 -2.0095 0.9778
5.1245 -1.3785 -2.0336 0.9775
5.2889 -0.9272 -2.0577 0.9773
5.4127 -0.4574 -2.0816 0.9770
5.4931 0.0271 -2.1051 0.9767
5.5280 0.5221 -2.1278 0.9765
5.4541 1.5251 -2.1703 0.9760
4.9734 2.9837 -2.2226 0.9755
4.7160 3.4357 -2.2360 0.9753
3.9624 4.1465 -2.1979 0.9757
3.4861 4.3691 -2.1420 0.9763
3.2130 4.8593 -2.2324 0.9754
2.7187 5.0364 -2.1933 0.9758
1.8042 5.5088 -2.2214 0.9755
-1.2347 5.5490 -2.1785 0.9759
-1.7084 5.3670 -2.1584 0.9762
-2.1584 5.1420 -2.1371 0.9764
-3.3300 4.2455 -2.0677 0.9772
-3.9369 3.5032 -2.0195 0.9777
-2.6064 1.9322 -1.2433 0.9862
-4.3901 2.6837 -1.9718 0.9782
-5.1449 1.4848 -2.0521 0.9773
-5.2134 0.5362 -2.0084 0.9778
-5.1251 -0.3902 -1.9697 0.9782
-4.8909 -1.2722 -1.9367 0.9786
-4.5238 -2.0909 -1.9098 0.9789
-4.2945 -2.4714 -1.8988 0.9790
-4.0372 -2.8303 -1.8895 0.9791
-3.1151 -3.7617 -1.8717 0.9793
-2.7638 -4.0191 -1.8692 0.9793
-2.3937 -4.2478 -1.8685 0.9793
-2.0067 -4.4467 -1.8695 0.9793
-1.6048 -4.6146 -1.8723 0.9793
-1.1900 -4.7507 -1.8768 0.9792
-0.7644 -4.8539 -1.8830 0.9792
-0.3302 -4.9234 -1.8910 0.9791
0.1105 -4.9584 -1.9006 0.9790
0.5552 -4.9581 -1.9119 0.9789
1.0016 -4.9219 -1.9248 0.9787
1.8890 -4.7400 -1.9554 0.9784
2.3246 -4.5936 -1.9729 0.9782
2.7508 -4.4100 -1.9918 0.9780
3.1648 -4.1895 -2.0121 0.9778
4.5792 -2.3702 -1.9759 0.9782
2.3127 -0.9463 -0.9576 0.9894
5.0464 -1.5564 -2.0238 0.9776
5.4657 -0.1719 -2.0956 0.9768
5.5194 0.3194 -2.1187 0.9766
5.5264 0.8185 -2.1409 0.9764
5.4851 1.3207 -2.1620 0.9761
5.3945 1.8208 -2.1818 0.9759
4.8266 3.2544 -2.2308 0.9754
3.3950 4.7496 -2.2373 0.9753
2.9324 4.9893 -2.2178 0.9755
1.3797 3.7462 -1.5299 0.9830
1.5218 5.6380 -2.2379 0.9753
0.4958 5.8079 -2.2338 0.9753
-0.0237 5.7929 -2.2200 0.9755
-1.0358 5.6101 -2.1862 0.9759
-2.4121 4.9898 -2.1239 0.9765
-3.1884 4.3843 -2.0774 0.9770
-3.8254 3.6618 -2.0294 0.9776
-4.4941 2.4308 -1.9580 0.9784
-4.9979 2.1520 -2.0853 0.9770
-5.1108 1.6786 -2.0615 0.9772
-5.1821 1.2030 -2.0387 0.9775
-5.2031 0.2584 -1.9964 0.9779
-5.0704 -0.6570 -1.9593 0.9783
-4.6087 -1.9300 -1.9148 0.9788
-4.3914 -2.3188 -1.9031 0.9790
-3.8723 -3.0321 -1.8847 0.9792
-3.5740 -3.3533 -1.8781 0.9792
-3.2525 -3.6489 -1.8732 0.9793
-1.9579 -0.1883 -0.8050 0.9915
-4.2169 -2.0517 -1.9193 0.9799
-3.9962 -2.4067 -1.9092 0.9800
-3.4771 -3.0531 -1.8938 0.9802
-3.1823 -3.3415 -1.8886 0.9803
-2.8663 -3.6049 -1.8849 0.9803
-2.1782 -4.0515 -1.8826 0.9803
-1.8097 -4.2326 -1.8840 0.9803
-1.4276 -4.3840 -1.8870 0.9803
-0.2192 -4.6514 -1.9058 0.9801
0.1972 -4.6756 -1.9153 0.9800
1.0368 -4.6227 -1.9389 0.9797
1.4551 -4.5446 -1.9530 0.9796
3.4252 -3.6322 -2.0433 0.9787
4.7558 -1.3639 -2.0249 0.9788
4.9124 -0.9450 -2.0474 0.9786
5.0313 -0.5089 -2.0697 0.9784
5.1101 -0.0591 -2.0916 0.9782
4.9900 1.7955 -2.1705 0.9773
4.8466 2.2500 -2.1869 0.9772
4.6579 2.6910 -2.2016 0.9770
4.4250 3.1133 -2.2144 0.9769
4.1498 3.5121 -2.2250 0.9768
3.8347 3.8825 -2.2334 0.9767
3.4815 4.2186 -2.2386 0.9766
3.0976 4.5208 -2.2429 0.9766
2.6836 4.7810 -2.2439 0.9766
1.7877 5.1686 -2.2383 0.9766
1.3161 5.2919 -2.2318 0.9767
0.4583 2.9421 -1.2186 0.9872
0.3525 5.3927 -2.2118 0.9769
-0.1287 5.3705 -2.1986 0.9770
-0.6027 5.3010 -2.1835 0.9772
-1.0645 5.1860 -2.1667 0.9774
-1.5096 5.0277 -2.1485 0.9776
-1.9339 4.8288 -2.1289 0.9778
-2.7060 4.3218 -2.0869 0.9782
-3.6327 3.3415 -2.0201 0.9789
-4.0760 2.5850 -1.9754 0.9794
-4.2428 2.1870 -1.9536 0.9796
-4.7119 1.9187 -2.0822 0.9783
-4.8124 1.4753 -2.0601 0.9785
-4.8740 1.0298 -2.0388 0.9787
-1.9544 0.2337 -0.8056 0.9915
-1.9261 0.0573 -0.7886 0.9917
-1.9466 -0.1159 -0.7981 0.9916
-1.9578 -0.2934 -0.8102 0.9915
-4.6299 -1.1231 -1.9499 0.9796
-4.0894 -2.2644 -1.9132 0.9800
-2.6699 -3.7486 -1.8836 0.9803
-2.3240 -3.9695 -1.8826 0.9803
-1.1955 -4.4593 -1.8895 0.9802
1.2850 -4.5806 -1.9471 0.9796
1.7011 -4.4819 -1.9620 0.9795
2.5125 -4.1798 -1.9960 0.9791
2.9021 -3.9765 -2.0148 0.9789
3.2772 -3.7388 -2.0348 0.9787
3.6346 -3.4674 -2.0559 0.9785
3.9712 -3.1631 -2.0779 0.9783
4.6818 -1.5289 -2.0157 0.9789
4.8530 -1.1180 -2.0382 0.9787
5.0829 -0.2438 -2.0827 0.9782
5.1370 0.2123 -2.1042 0.9780
5.1479 0.6759 -2.1250 0.9778
4.9106 2.0661 -2.1804 0.9772
4.7402 2.5132 -2.1959 0.9771
4.5252 2.9437 -2.2094 0.9769
4.2669 3.3527 -2.2210 0.9768
3.9677 3.7353 -2.2303 0.9767
3.2198 4.3508 -2.2153 0.9769
2.4265 4.9148 -2.2433 0.9766
1.5097 5.2474 -2.2348 0.9767
1.0323 5.3421 -2.2268 0.9768
0.5496 5.3880 -2.2166 0.9769
0.0668 5.3853 -2.2042 0.9770
-2.1739 4.6931 -2.1168 0.9779
-2.9124 4.1468 -2.0739 0.9783
-3.5247 3.4871 -2.0293 0.9788
-3.9975 2.7440 -1.9844 0.9793
-4.7762 1.6565 -2.0690 0.9784
-4.8535 1.2114 -2.0474 0.9786
-2.0104 0.3149 -0.8329 0.9912
-1.9560 -0.2207 -0.8056 0.9915
-4.6821 -0.9569 -1.9559 0.9796
-4.3761 -1.7483 -1.9287 0.9798
-3.9524 -2.4701 -1.9075 0.9801
-3.7005 -2.8004 -1.8993 0.9801
-3.4243 -3.1082 -1.8927 0.9802
-3.1255 -3.3921 -1.8878 0.9803
-2.8058 -3.6507 -1.8844 0.9803
-1.7400 -4.2628 -1.8844 0.9803
-0.9598 -4.5238 -1.8927 0.9802
-0.5547 -4.6073 -1.8993 0.9801
-0.1425 -4.6584 -1.9075 0.9801
1.1143 -4.6109 -1.9414 0.9797
1.9449 -4.4070 -1.9715 0.9794
2.3501 -4.2527 -1.9886 0.9792
3.8367 -3.2910 -2.0688 0.9784
4.1595 -2.9679 -2.0913 0.9782
4.4413 -2.6053 -2.1074 0.9780
4.7875 -1.2879 -2.0291 0.9788
4.9373 -0.8656 -2.0515 0.9786
5.0489 -0.4267 -2.0738 0.9783
5.1201 0.0253 -2.0955 0.9781
5.0731 1.4185 -2.1559 0.9775
4.3773 3.1890 -2.2165 0.9769
4.0945 3.5828 -2.2267 0.9768
3.0231 4.5720 -2.2433 0.9766
2.6042 4.8244 -2.2438 0.9766
0.4061 2.9236 -1.2080 0.9873
0.2632 5.3922 -2.2095 0.9769
-0.2170 5.3611 -2.1960 0.9771
-0.6891 5.2831 -2.1806 0.9772
-2.0097 4.7878 -2.1252 0.9778
-2.4047 4.5448 -2.1044 0.9780
-2.7715 4.2683 -2.0829 0.9782
-3.1076 3.9619 -2.0608 0.9785
-3.4109 3.6293 -2.0384 0.9787
-2.5383 1.8817 -1.2932 0.9864
-4.8811 0.9475 -2.0350 0.9787
-1.9575 0.2013 -0.8054 0.9915
-1.9113 0.0253 -0.7823 0.9918
-1.9544 -0.1488 -0.8022 0.9916
-2.0927 -0.3490 -0.8683 0.9909
-3.5397 -2.9855 -1.8952 0.9802
-3.2499 -3.2794 -1.8896 0.9802
-2.9385 -3.5484 -1.8856 0.9803
-2.2582 -4.0073 -1.8826 0.9803
-1.8930 -4.1948 -1.8835 0.9803
-1.5138 -4.3529 -1.8862 0.9803
-0.3113 -4.6415 -1.9039 0.9801
0.1041 -4.6731 -1.9131 0.9800
0.9433 -4.6354 -1.9360 0.9798
1.7774 -4.4599 -1.9649 0.9795
2.9727 -3.9351 -2.0184 0.9789
3.6985 -3.4136 -2.0599 0.9785
4.3305 -2.7567 -2.1010 0.9781
4.7161 -1.4545 -2.0199 0.9789
5.0961 -0.1603 -2.0867 0.9782
5.1423 0.2976 -2.1081 0.9780
5.1451 0.7621 -2.1287 0.9778
4.8825 2.1498 -2.1834 0.9772
4.4806 3.0211 -2.2117 0.9769
4.2147 3.4256 -2.2228 0.9768
3.9082 3.8027 -2.2317 0.9767
3.5641 4.1480 -2.2383 0.9766
2.7781 4.7267 -2.2439 0.9766
2.3447 4.9533 -2.2429 0.9766
1.3774 3.7399 -1.6312 0.9829
0.5242 2.9751 -1.2364 0.9870
0.4602 5.3911 -2.2145 0.9769
-0.4980 5.3205 -2.1871 0.9772
-0.9629 5.2154 -2.1706 0.9773
-1.4121 5.0666 -2.1526 0.9775
-1.8414 4.8765 -2.1334 0.9777
-2.9745 4.0902 -2.0699 0.9784
-3.2914 3.7678 -2.0476 0.9786
-3.5744 3.4215 -2.0251 0.9788
-2.4252 1.9384 -1.2706 0.9867
-4.2088 2.2765 -1.9584 0.9795
-1.9469 0.2721 -0.8046 0.9915
-1.9338 -0.0767 -0.7921 0.9917
-4.6591 -1.0326 -1.9531 0.9796
-4.5158 -1.4333 -1.9391 0.9797
-4.1385 -2.1852 -1.9154 0.9800
-3.6513 -2.8590 -1.8980 0.9802
-3.0679 -3.4418 -1.8870 0.9803
-2.4025 -3.9227 -1.8826 0.9803
-2.0437 -4.1219 -1.8829 0.9803
-1.5033 0.2609 -0.6650 0.9934
-1.5285 0.1266 -0.6684 0.9933
-1.4970 -0.2803 -0.6638 0.9934
-4.1633 -1.5841 -1.9413 0.9808
-3.5427 -2.5901 -1.9126 0.9810
-3.2865 -2.8856 -1.9061 0.9811
-3.0083 -3.1587 -1.9010 0.9811
-2.0594 -3.8306 -1.8954 0.9812
-1.7110 -4.0016 -1.8967 0.9812
-0.9771 -4.2581 -1.9040 0.9811
-0.5956 -4.3418 -1.9100 0.9811
-0.2071 -4.3948 -1.9175 0.9810
0.1863 -4.4165 -1.9265 0.9809
0.5823 -4.4062 -1.9370 0.9808
2.1454 -4.0383 -1.9929 0.9802
2.5183 -3.8640 -2.0101 0.9801
3.2234 -3.4183 -2.0476 0.9797
3.5500 -3.1482 -2.0679 0.9795
3.8552 -2.8479 -2.0889 0.9793
4.1238 -2.5114 -2.1043 0.9792
4.0738 -2.0070 -1.9792 0.9804
4.6014 -0.8851 -2.0421 0.9798
4.8016 0.8090 -2.1221 0.9790
4.7502 1.2441 -2.1400 0.9788
4.6564 1.6755 -2.1567 0.9786
3.8658 3.2718 -2.2072 0.9781
3.5714 3.6159 -2.2149 0.9781
3.2430 3.9296 -2.2205 0.9780
2.8841 4.2092 -2.2237 0.9780
2.4985 4.4513 -2.2246 0.9780
2.0905 4.6533 -2.2232 0.9780
1.6647 4.8129 -2.2195 0.9780
1.2258 4.9288 -2.2135 0.9781
0.4610 2.9598 -1.3055 0.9870
-0.1200 5.0071 -2.1828 0.9784
-0.5622 4.9446 -2.1688 0.9785
-1.8069 4.5117 -2.1181 0.9790
-2.1819 4.2936 -2.0990 0.9792
-2.5316 4.0433 -2.0790 0.9794
-3.1453 3.4594 -2.0377 0.9798
-3.4056 3.1326 -2.0166 0.9800
-3.9857 2.0545 -1.9543 0.9806
-4.4251 1.8020 -2.0823 0.9794
-1.5769 0.4834 -0.7188 0.9928
-1.5277 0.0455 -0.6661 0.9934
-1.5296 -0.0911 -0.6678 0.9933
-1.5400 -0.3736 -0.6906 0.9931
-1.5897 -0.5396 -0.7317 0.9927
-4.0596 -1.7957 -1.9346 0.9808
-3.6405 -2.4636 -1.9157 0.9810
-3.3936 -2.7678 -1.9085 0.9811
-2.1973 -3.7531 -1.8954 0.9812
-1.4983 -4.0897 -1.8982 0.9812
1.2127 -4.3228 -1.9567 0.9806
1.6046 -4.2278 -1.9708 0.9805
2.7334 -3.7453 -2.0208 0.9800
3.7335 -2.9738 -2.0802 0.9794
4.0183 -2.6521 -2.0983 0.9792
2.2969 -0.9844 -1.0891 0.9892
4.3897 -1.4336 -2.0125 0.9801
4.5471 -1.0475 -2.0336 0.9798
4.7559 -0.2281 -2.0751 0.9794
4.8033 0.1985 -2.0952 0.9792
4.8105 0.6316 -2.1145 0.9791
4.4198 2.3433 -2.1802 0.9784
4.2176 2.7436 -2.1928 0.9783
3.9755 3.1237 -2.2034 0.9782
2.6586 4.3573 -2.2246 0.9780
2.2592 4.5759 -2.2241 0.9780
1.4609 3.7735 -1.7635 0.9825
1.4059 4.8869 -2.2162 0.9781
0.0623 5.0200 -2.1880 0.9783
-1.2420 4.7586 -2.1434 0.9788
-1.6475 4.5907 -2.1257 0.9789
-2.3923 4.1490 -2.0872 0.9793
-2.7258 3.8811 -2.0669 0.9795
-3.0301 3.5864 -2.0462 0.9797
-1.5920 0.5522 -0.7344 0.9927
-1.5295 0.1013 -0.6681 0.9933
-1.5268 -0.0353 -0.6656 0.9934
-3.7342 -2.3337 -1.9191 0.9810
-3.2366 -2.9379 -1.9050 0.9811
-2.9546 -3.2066 -1.9003 0.9812
-2.6526 -3.4515 -1.8971 0.9812
-2.3325 -3.6711 -1.8955 0.9812
-1.9961 -3.8643 -1.8955 0.9812
-1.2815 -4.1676 -1.9003 0.9812
-0.1347 -4.4012 -1.9190 0.9810
0.2594 -4.4170 -1.9283 0.9809
0.6556 -4.4008 -1.9391 0.9808
1.0518 -4.3520 -1.9513 0.9807
2.5859 -3.8282 -2.0134 0.9800
2.9436 -3.6154 -2.0318 0.9799
3.9082 -2.7886 -2.0924 0.9793
4.3162 -1.5854 -2.0040 0.9801
4.7888 0.0236 -2.0871 0.9793
4.8125 0.4546 -2.1067 0.9791
4.7360 1.3243 -2.1432 0.9788
2.8147 4.2568 -2.2241 0.9780
2.0130 4.6860 -2.2227 0.9780
0.2454 5.0257 -2.1929 0.9783
-1.0716 4.8160 -2.1502 0.9787
-2.9097 3.7096 -2.0547 0.9796
-3.1958 3.4005 -2.0338 0.9798
-2.3252 2.0691 -1.3565 0.9865
-2.4611 1.8245 -1.3352 0.9867
-3.8585 2.3587 -1.9709 0.9805
-4.0114 1.9847 -1.9505 0.9807
-1.5681 0.4526 -0.7113 0.9929
-1.5019 0.2916 -0.6668 0.9933
-1.5258 0.1569 -0.6685 0.9933
-1.5251 0.0202 -0.6647 0.9934
-1.5290 -0.1164 -0.6683 0.9933
-1.5063 -0.2512 -0.6655 0.9934
-1.5516 -0.4036 -0.6987 0.9930
-3.8238 -2.2005 -1.9227 0.9809
-3.5966 -2.5214 -1.9143 0.9810
-3.3455 -2.8217 -1.9074 0.9811
-3.0721 -3.0999 -1.9020 0.9811
-2.7780 -3.3547 -1.8982 0.9812
-2.4651 -3.5847 -1.8960 0.9812
-2.1351 -3.7888 -1.8954 0.9812
-1.4311 -4.1151 -1.8988 0.9812
-1.0609 -4.2353 -1.9029 0.9811
0.4940 -4.4113 -1.9345 0.9808
1.2855 -4.3077 -1.9592 0.9806
1.6765 -4.2067 -1.9736 0.9804
2.4362 -3.9056 -2.0061 0.9801
2.7996 -3.7060 -2.0242 0.9799
3.7892 -2.9173 -2.0841 0.9793
4.4213 -1.3636 -2.0164 0.9800
4.8073 0.7120 -2.1180 0.9790
4.7653 1.1474 -2.1361 0.9788
4.3855 2.4187 -2.1827 0.9784
3.9265 3.1914 -2.2052 0.9782
3.6400 3.5418 -2.2134 0.9781
2.5865 4.4007 -2.2246 0.9780
2.1831 4.6119 -2.2237 0.9780
1.4102 3.8290 -1.7783 0.9824
-0.4645 4.9622 -2.1721 0.9785
-1.3184 4.7304 -2.1402 0.9788
-2.4560 4.1016 -2.0835 0.9794
-2.7843 3.8286 -2.0631 0.9796
-3.0830 3.5293 -2.0423 0.9798
-2.3963 1.9153 -1.3370 0.9867
-3.9532 2.1383 -1.9588 0.9806
-1.5859 0.5209 -0.7275 0.9927
-1.5326 0.3558 -0.6857 0.9932
-1.5294 0.0760 -0.6674 0.9933
-4.0998 -1.7168 -1.9371 0.9808
-3.9091 -2.0641 -1.9266 0.9809
-3.6922 -2.3930 -1.9175 0.9810
-2.5948 -3.4940 -1.8967 0.9812
-1.9322 -3.8971 -1.8957 0.9812
-1.3183 0.2288 -0.6194 0.9941
-1.3380 0.1108 -0.6214 0.9941
-1.3135 -0.2460 -0.6186 0.9941
-1.3206 -0.3717 -0.6350 0.9940
-1.3317 -0.5067 -0.6595 0.9937
-3.5740 -2.1524 -1.9312 0.9818
-3.1124 -2.7328 -1.9172 0.9819
-2.2669 -3.4410 -1.9074 0.9820
-1.9509 -3.6288 -1.9071 0.9820
-1.6208 -3.7907 -1.9083 0.9820
-1.2783 -3.9256 -1.9110 0.9820
-0.5640 -4.1114 -1.9209 0.9819
0.1763 -4.1802 -1.9367 0.9817
0.5510 -4.1693 -1.9467 0.9816
0.9257 -4.1275 -1.9580 0.9815
1.2983 -4.0546 -1.9707 0.9814
1.6661 -3.9505 -1.9846 0.9813
2.0269 -3.8152 -1.9997 0.9811
2.3780 -3.6488 -2.0160 0.9810
3.0408 -3.2245 -2.0516 0.9807
3.8823 -2.3643 -2.1041 0.9802
3.8339 -1.8888 -1.9783 0.9813
4.0265 -1.5549 -1.9980 0.9812
4.1901 -1.2016 -2.0177 0.9810
4.3224 -0.8315 -2.0374 0.9808
4.5112 0.3511 -2.0945 0.9803
4.3592 1.5685 -2.1444 0.9798
4.2298 1.9637 -2.1586 0.9797
4.0617 2.3465 -2.1713 0.9795
3.8557 2.7128 -2.1822 0.9794
3.3377 3.3793 -2.1986 0.9793
3.0303 3.6719 -2.2037 0.9792
2.6946 3.9327 -2.2067 0.9792
1.5555 4.4974 -2.2028 0.9792
0.3072 4.6997 -2.1800 0.9795
-0.1123 4.6838 -2.1687 0.9796
-0.5261 4.6273 -2.1557 0.9797
-0.9301 4.5313 -2.1412 0.9798
-1.6935 4.2286 -2.1085 0.9801
-2.3754 3.7939 -2.0720 0.9805
-2.6791 3.5341 -2.0528 0.9806
-3.2014 2.9448 -2.0135 0.9810
-2.4147 1.8526 -1.4088 0.9867
-3.6016 2.2842 -1.9741 0.9814
-1.3277 0.5406 -0.6636 0.9937
-1.3273 0.4069 -0.6426 0.9939
-1.3040 0.2755 -0.6169 0.9941
-1.3329 0.1593 -0.6214 0.9941
-1.3371 0.0398 -0.6192 0.9941
-1.3385 -0.0797 -0.6207 0.9941
-1.3066 -0.3170 -0.6224 0.9941
-1.3194 -0.5836 -0.6678 0.9937
-3.2137 -2.6211 -1.9196 0.9819
-2.0815 -3.5554 -1.9070 0.9820
-1.7569 -3.7279 -1.9076 0.9820
-1.4193 -3.8739 -1.9097 0.9820
0.0242 -4.1759 -1.9330 0.9818
0.3981 -4.1774 -1.9424 0.9817
1.5169 -3.9967 -1.9788 0.9813
2.2363 -3.7203 -2.0093 0.9810
2.9107 -3.3207 -2.0440 0.9807
4.1271 -1.3478 -2.0097 0.9810
4.2724 -0.9842 -2.0294 0.9809
4.4632 -0.2141 -2.0683 0.9805
4.5050 0.1862 -2.0870 0.9803
4.4745 0.9996 -2.1222 0.9800
4.4006 1.4049 -2.1383 0.9798
4.2873 1.8039 -2.1530 0.9797
2.8346 3.8304 -2.2057 0.9792
2.1108 4.2753 -2.2070 0.9792
0.8989 4.6515 -2.1929 0.9793
0.3075 3.0145 -1.4026 0.9867
-0.3584 4.6552 -2.1612 0.9796
-1.1632 4.4566 -2.1320 0.9799
-1.9050 4.1126 -2.0980 0.9802
-2.2442 3.8921 -2.0796 0.9804
-2.5586 3.6431 -2.0607 0.9806
-2.3662 1.9561 -1.4211 0.9866
-3.5304 2.4234 -1.9821 0.9813
-1.3171 0.5930 -0.6686 0.9937
-1.3336 0.4625 -0.6534 0.9938
-1.3095 0.3268 -0.6247 0.9941
-1.3385 0.0886 -0.6209 0.9941
-1.3365 -0.0309 -0.6188 0.9941
-1.3341 -0.1505 -0.6215 0.9941
-3.7350 -1.8941 -1.9385 0.9817
-3.3114 -2.5059 -1.9222 0.9819
-1.5584 -3.8177 -1.9087 0.9820
-1.2138 -3.9476 -1.9117 0.9820
-0.8592 -4.0495 -1.9162 0.9819
-0.4964 -4.1228 -1.9222 0.9819
-0.1275 -4.1666 -1.9296 0.9818
0.6203 -4.1639 -1.9487 0.9816
2.0926 -3.7868 -2.0027 0.9811
2.7780 -3.4120 -2.0366 0.9808
3.4013 -2.9176 -2.0743 0.9804
3.6805 -2.6261 -2.0929 0.9803
3.8716 -1.8287 -1.9819 0.9813
4.0591 -1.4910 -2.0016 0.9811
4.2170 -1.1344 -2.0214 0.9809
4.4356 -0.3748 -2.0605 0.9806
4.3382 1.6423 -2.1472 0.9798
4.2016 2.0355 -2.1611 0.9796
3.5652 3.1197 -2.1929 0.9793
3.2831 3.4356 -2.1997 0.9793
2.9702 3.7226 -2.2044 0.9792
2.6298 3.9772 -2.2070 0.9792
2.2653 4.1966 -2.2075 0.9792
1.6402 3.8181 -1.9235 0.9819
0.4087 2.9424 -1.3751 0.9870
0.2294 4.6998 -2.1781 0.9795
-0.1893 4.6764 -2.1664 0.9796
-0.6016 4.6125 -2.1531 0.9797
-1.0034 4.5094 -2.1384 0.9798
-1.3908 4.3691 -2.1224 0.9800
-2.1088 3.9856 -2.0872 0.9803
-2.7322 3.4833 -2.0492 0.9807
-3.7784 1.8694 -1.9513 0.9816
-1.3227 0.3817 -0.6372 0.9940
-1.3109 0.2545 -0.6181 0.9941
-1.3358 0.1374 -0.6216 0.9941
-1.3353 0.0177 -0.6181 0.9941
-1.3206 -0.2202 -0.6197 0.9941
-1.3134 -0.3416 -0.6282 0.9940
-3.1682 -2.6722 -1.9185 0.9819
-2.9097 -2.9361 -1.9134 0.9819
-2.3352 -3.3958 -1.9076 0.9820
-2.0226 -3.5892 -1.9070 0.9820
-1.6954 -3.7569 -1.9079 0.9820
-1.3556 -3.8980 -1.9103 0.9820
-0.6451 -4.0964 -1.9195 0.9819
0.4675 -4.1744 -1.9443 0.9817
1.2156 -4.0736 -1.9678 0.9814
1.5847 -3.9764 -1.9814 0.9813
1.9473 -3.8480 -1.9963 0.9812
2.3008 -3.6885 -2.0123 0.9810
3.2804 -3.0277 -2.0663 0.9805
3.7873 -1.9603 -1.9740 0.9814
2.3127 -0.9463 -1.1567 0.9890
4.4022 -0.5338 -2.0526 0.9806
4.5086 0.2609 -2.0904 0.9803
4.5056 0.6673 -2.1083 0.9801
4.4638 1.0748 -2.1253 0.9800
4.3826 1.4793 -2.1411 0.9798
4.2620 1.8766 -2.1556 0.9797
3.9048 2.6329 -2.1800 0.9795
3.6706 2.9834 -2.1895 0.9794
3.4019 3.3101 -2.1971 0.9793
2.7717 3.8775 -2.2062 0.9792
1.4442 3.9213 -1.9343 0.9817
1.2377 4.5857 -2.1986 0.9793
-0.0192 4.6909 -2.1714 0.9795
-1.9695 4.0741 -2.0947 0.9803
-2.6138 3.5941 -2.0571 0.9806
-2.3883 1.9090 -1.4153 0.9866
-3.5633 2.3605 -1.9785 0.9813
-3.7227 2.0136 -1.9591 0.9815
-1.3225 0.5695 -0.6665 0.9937
-1.3383 0.0665 -0.6203 0.9941
-1.3379 -0.0530 -0.6198 0.9941
-1.3307 -0.1724 -0.6211 0.9941
-1.2994 -0.2880 -0.6161 0.9942
-1.3253 -0.5550 -0.6651 0.9937
