ply
format ascii 1.0
element vertex 1592
property float32 x
property float32 y
property float32 z
property float32 I
end_header
2.3499 -10.2151 -1.7268 0.9584
4.2704 -9.9668 -1.7863 0.9570
5.2432 -9.7326 -1.8212 0.9562
8.1613 -8.5492 -1.9471 0.9532
9.1156 -7.9830 -1.9962 0.9521
10.9541 -6.5746 -2.1046 0.9495
2.3721 -0.8979 -0.4178 0.9898
13.0621 -2.4197 -2.1885 0.9476
14.0684 -0.0629 -2.3176 0.9446
5.9192 3.4810 -1.1313 0.9725
3.2757 4.8666 -0.9664 0.9765
2.7954 5.0795 -0.9551 0.9768
0.8835 6.0207 -1.0025 0.9756
-0.2121 6.4240 -1.0589 0.9743
-0.8141 6.6208 -1.0989 0.9733
-1.4897 6.9316 -1.1680 0.9717
-4.2439 13.6689 -2.3578 0.9436
-5.5935 13.5927 -2.4214 0.9422
-7.1131 13.6718 -2.5389 0.9394
-8.0740 12.6220 -2.4684 0.9411
-10.2066 9.2017 -2.2639 0.9458
-11.0356 6.8417 -2.1390 0.9487
-11.4412 4.5204 -2.0266 0.9514
-11.5013 3.3937 -1.9755 0.9525
-9.8264 -3.4595 -1.7162 0.9586
-9.3496 -4.2637 -1.6928 0.9592
-8.8259 -5.0207 -1.6728 0.9597
-8.2586 -5.7299 -1.6559 0.9601
-7.6506 -6.3906 -1.6422 0.9604
-7.0044 -7.0023 -1.6316 0.9606
-5.6069 -8.0763 -1.6197 0.9609
-3.2778 -9.3014 -1.6247 0.9608
-1.5903 -9.8476 -1.6433 0.9604
-0.7113 -10.0349 -1.6573 0.9600
1.1083 -10.2280 -1.6948 0.9592
5.9043 -9.5299 -1.8468 0.9556
7.8503 -8.7128 -1.9320 0.9536
9.7509 -7.5479 -2.0314 0.9512
11.3774 -2.4487 -1.9172 0.9539
11.7190 0.6576 -1.9336 0.9535
9.0869 2.1732 -1.5392 0.9628
7.9162 2.6594 -1.3757 0.9667
6.9183 3.0353 -1.2446 0.9698
4.9995 4.0552 -1.0605 0.9742
3.4315 4.7937 -0.9712 0.9764
-0.0266 6.3664 -1.0488 0.9745
-1.1031 5.9647 -0.9993 0.9757
-6.7764 13.9955 -2.5616 0.9389
-7.7778 12.9676 -2.4911 0.9405
-8.6533 11.8779 -2.4210 0.9422
-10.0301 9.5807 -2.2850 0.9453
-10.9318 7.2216 -2.1584 0.9483
-11.2179 6.0477 -2.0995 0.9496
-11.4925 2.6473 -1.9428 0.9533
-11.0255 -0.4594 -1.8179 0.9563
-10.7323 -1.4139 -1.7833 0.9571
-10.3789 -2.3246 -1.7522 0.9578
-9.9696 -3.1901 -1.7244 0.9585
-9.5087 -4.0094 -1.7000 0.9590
-8.4462 -5.5063 -1.6610 0.9600
-7.8510 -6.1828 -1.6463 0.9603
-7.2169 -6.8104 -1.6347 0.9606
-5.8413 -7.9167 -1.6208 0.9609
-2.7174 -9.5114 -1.6296 0.9607
0.8097 -10.2138 -1.6879 0.9593
1.7408 -10.2359 -1.7105 0.9588
3.6464 -10.0782 -1.7656 0.9575
4.6150 -9.8924 -1.7983 0.9567
5.5894 -9.6310 -1.8344 0.9559
6.5655 -9.2905 -1.8741 0.9549
7.5382 -8.8675 -1.9173 0.9539
9.4497 -7.7604 -2.0144 0.9516
11.2443 -5.0148 -2.0283 0.9513
12.6624 -3.1096 -2.1480 0.9485
8.2850 2.5200 -1.4266 0.9655
7.2158 2.9208 -1.2824 0.9689
6.3706 3.2680 -1.1795 0.9714
5.7032 3.6021 -1.1112 0.9730
5.1673 3.9500 -1.0715 0.9740
4.6502 4.2632 -1.0393 0.9747
4.1898 4.5938 -1.0243 0.9751
3.6760 4.8346 -1.0005 0.9757
3.1258 4.9776 -0.9683 0.9765
2.1776 5.4198 -0.9622 0.9766
1.7510 5.8105 -0.9997 0.9757
0.6991 6.1060 -1.0125 0.9754
0.1555 6.3082 -1.0395 0.9747
-0.4203 6.4868 -1.0709 0.9740
-0.9429 6.0725 -1.0124 0.9754
-6.4268 14.3107 -2.5844 0.9384
-7.4685 13.3068 -2.5138 0.9400
-8.3847 12.2351 -2.4435 0.9416
-9.1749 11.1135 -2.3741 0.9433
-9.8411 9.9581 -2.3064 0.9448
-10.8168 7.6023 -2.1780 0.9478
-11.5015 3.0009 -1.9582 0.9530
-11.3123 0.8674 -1.8691 0.9550
-11.1065 -0.1424 -1.8298 0.9560
-10.1075 -2.9159 -1.7330 0.9583
-9.6628 -3.7502 -1.7075 0.9589
-8.6295 -5.2778 -1.6664 0.9598
-8.0474 -5.9699 -1.6507 0.9602
-6.7664 -7.2075 -1.6286 0.9607
-6.0723 -7.7519 -1.6222 0.9609
-5.3453 -8.2457 -1.6188 0.9609
-4.5874 -8.6881 -1.6185 0.9610
-3.8003 -9.0782 -1.6213 0.9609
-2.9857 -9.4146 -1.6271 0.9608
-2.1454 -9.6960 -1.6359 0.9605
0.5130 -10.1929 -1.6813 0.9595
1.4387 -10.2359 -1.7028 0.9590
2.3805 -10.2134 -1.7276 0.9584
3.3358 -10.1226 -1.7558 0.9577
4.3017 -9.9604 -1.7874 0.9570
8.1924 -8.5323 -1.9486 0.9532
10.0790 -7.3029 -2.0505 0.9508
11.7513 -4.4096 -2.0677 0.9504
13.0813 -2.3842 -2.1905 0.9475
10.9548 -2.7237 -2.1218 0.9551
11.4368 -1.7793 -2.1755 0.9540
11.8398 -0.7706 -2.2301 0.9529
11.8359 0.2883 -2.2253 0.9530
10.9921 1.2552 -2.0795 0.9560
9.5131 1.9586 -1.8256 0.9612
7.3898 2.9665 -1.4967 0.9681
5.7460 3.6060 -1.2751 0.9728
5.0875 3.8659 -1.2010 0.9743
3.6878 4.8213 -1.1409 0.9756
3.0772 4.8690 -1.0826 0.9768
2.6154 5.0948 -1.0764 0.9770
1.6766 5.5064 -1.0819 0.9768
0.6398 3.0583 -0.5873 0.9874
0.6947 5.9165 -1.1197 0.9760
-4.1186 12.0295 -2.3899 0.9496
-5.0596 11.3539 -2.3364 0.9507
-6.6694 9.7925 -2.2269 0.9529
-7.9012 9.6270 -2.3409 0.9506
-8.5129 8.6640 -2.2830 0.9518
-2.4081 2.0483 -0.5942 0.9872
-10.1166 3.6637 -2.0224 0.9572
-10.1743 2.6859 -1.9779 0.9581
-10.0644 0.8009 -1.8977 0.9597
-9.9064 -0.0985 -1.8621 0.9605
-9.6857 -0.9649 -1.8295 0.9612
-9.4068 -1.7958 -1.8000 0.9618
-9.0734 -2.5893 -1.7735 0.9623
-8.6895 -3.3437 -1.7500 0.9628
-8.2585 -4.0576 -1.7295 0.9632
-7.7836 -4.7297 -1.7119 0.9636
-7.2678 -5.3591 -1.6973 0.9639
-6.7137 -5.9447 -1.6855 0.9642
-5.5010 -6.9810 -1.6706 0.9645
-4.8468 -7.4297 -1.6674 0.9645
-4.1636 -7.8308 -1.6670 0.9645
-3.4533 -8.1831 -1.6695 0.9645
-2.7180 -8.4854 -1.6747 0.9644
-0.3810 -9.0778 -1.7078 0.9637
1.2652 -9.1936 -1.7443 0.9629
2.1076 -9.1617 -1.7670 0.9625
2.9591 -9.0671 -1.7927 0.9619
6.3853 -8.0127 -1.9258 0.9592
9.6077 -5.7664 -2.1062 0.9554
9.5880 -4.6459 -2.0026 0.9576
2.3762 -0.8995 -0.4776 0.9897
12.0625 -0.0539 -2.2673 0.9521
11.5624 0.9838 -2.1811 0.9539
9.9494 1.7512 -1.8989 0.9597
6.7794 3.2104 -1.4099 0.9699
5.9783 3.5158 -1.3036 0.9722
3.8510 4.7448 -1.1486 0.9754
2.7646 5.0236 -1.0778 0.9769
2.3007 5.2398 -1.0756 0.9770
1.8304 5.4432 -1.0794 0.9769
1.3496 5.6355 -1.0892 0.9767
0.4353 2.9665 -0.5636 0.9879
0.3429 6.0790 -1.1444 0.9755
-0.8217 6.6829 -1.2656 0.9730
-3.7969 12.2292 -2.4069 0.9492
-4.7656 11.5807 -2.3538 0.9503
-6.4351 10.0600 -2.2446 0.9526
-8.3268 8.9780 -2.3016 0.9514
-9.3129 6.9966 -2.1894 0.9537
-9.6598 5.9887 -2.1363 0.9548
-10.0809 3.9829 -2.0373 0.9568
-9.9644 0.1882 -1.8733 0.9602
-9.5029 -1.5317 -1.8092 0.9616
-9.1866 -2.3375 -1.7818 0.9622
-8.8187 -3.1047 -1.7573 0.9627
-8.4025 -3.8318 -1.7358 0.9631
-7.9414 -4.5175 -1.7173 0.9635
-7.4385 -5.1608 -1.7017 0.9638
-5.7055 -6.8263 -1.6722 0.9644
-4.3870 -7.7067 -1.6668 0.9646
-2.9578 -8.3934 -1.6727 0.9644
-2.2065 -8.6611 -1.6799 0.9643
-1.4335 -8.8764 -1.6900 0.9641
-0.6406 -9.0376 -1.7030 0.9638
0.1700 -9.1431 -1.7188 0.9635
0.9959 -9.1908 -1.7376 0.9631
1.8347 -9.1788 -1.7594 0.9626
4.3988 -8.7609 -1.8426 0.9609
6.1117 -8.1401 -1.9133 0.9594
6.9555 -7.7197 -1.9531 0.9586
7.7835 -7.2232 -1.9959 0.9577
9.3650 -5.9945 -2.0900 0.9558
2.3152 -0.9535 -0.4706 0.9899
10.6069 -3.2966 -2.0878 0.9558
11.1342 -2.3963 -2.1407 0.9547
11.5894 -1.4285 -2.1948 0.9536
11.7176 0.6575 -2.2059 0.9534
10.4225 1.5262 -1.9799 0.9580
9.0700 2.1692 -1.7529 0.9628
7.9872 2.6832 -1.5837 0.9663
7.0694 3.1016 -1.4510 0.9691
6.2224 3.4219 -1.3348 0.9715
5.5024 3.7013 -1.2465 0.9734
4.8833 3.9610 -1.1819 0.9747
4.3409 4.2163 -1.1374 0.9757
4.0165 4.6672 -1.1574 0.9753
3.3750 4.7148 -1.0899 0.9767
2.4509 5.1715 -1.0757 0.9770
1.9831 5.3789 -1.0775 0.9769
1.5061 5.5746 -1.0854 0.9768
0.5113 2.8998 -0.5534 0.9881
0.5123 6.0008 -1.1320 0.9758
-0.0261 6.2493 -1.1746 0.9749
-1.1672 6.3113 -1.2064 0.9742
-3.4668 12.4192 -2.4236 0.9489
-4.4624 11.7992 -2.3711 0.9500
-6.1910 10.3220 -2.2624 0.9522
-7.4520 10.2290 -2.3788 0.9498
-8.1300 9.2889 -2.3202 0.9510
-9.5582 6.3142 -2.1532 0.9544
-10.0365 4.3038 -2.0526 0.9565
-10.1462 3.3145 -2.0063 0.9575
-10.1310 1.3972 -1.9223 0.9592
-10.0158 0.4782 -1.8847 0.9600
-9.8350 -0.4098 -1.8502 0.9607
-9.5932 -1.2639 -1.8187 0.9614
-8.5418 -3.6017 -1.7424 0.9630
-7.6051 -4.9580 -1.7064 0.9637
-6.5085 -6.1418 -1.6820 0.9642
-5.9066 -6.6667 -1.6742 0.9644
-4.6076 -7.5775 -1.6669 0.9645
-3.9146 -7.9614 -1.6675 0.9645
-3.1952 -8.2962 -1.6710 0.9645
-2.4514 -8.5804 -1.6773 0.9643
-1.6851 -8.8127 -1.6865 0.9641
-0.8984 -8.9916 -1.6985 0.9639
-0.0933 -9.1153 -1.7134 0.9636
2.4088 -9.1355 -1.7758 0.9623
4.1215 -8.8346 -1.8324 0.9611
5.8371 -8.2598 -1.9011 0.9597
6.6848 -7.8636 -1.9399 0.9589
9.1185 -6.2143 -2.0741 0.9561
9.8636 -5.5025 -2.1229 0.9551
9.8158 -4.3777 -2.0202 0.9572
10.4231 -3.5720 -2.0710 0.9561
11.8513 -0.7371 -2.2319 0.9528
11.7681 0.3206 -2.2128 0.9532
9.4714 1.9785 -1.8187 0.9614
8.3131 2.5286 -1.6332 0.9653
5.7233 3.6148 -1.2724 0.9728
5.0679 3.8740 -1.1990 0.9744
3.0623 4.8765 -1.0823 0.9768
2.6005 5.1019 -1.0763 0.9770
2.1348 5.3133 -1.0763 0.9770
1.6612 5.5126 -1.0822 0.9768
0.6283 3.0470 -0.5848 0.9874
0.1520 6.1671 -1.1595 0.9752
-0.9190 5.9184 -1.1258 0.9759
-3.1286 12.5990 -2.4400 0.9485
-5.0885 11.3308 -2.3346 0.9507
-8.5310 8.6324 -2.2812 0.9518
-2.4115 2.0393 -0.5936 0.9872
-9.4468 6.6394 -2.1703 0.9541
-9.7604 5.6309 -2.1180 0.9552
-10.1198 3.6319 -2.0209 0.9572
-9.9002 -0.1269 -1.8610 0.9605
-9.6776 -0.9922 -1.8286 0.9612
-9.0618 -2.6143 -1.7727 0.9623
-7.2505 -5.3787 -1.6969 0.9639
-6.6953 -5.9629 -1.6852 0.9642
-6.1044 -6.5024 -1.6764 0.9644
-5.4804 -6.9962 -1.6704 0.9645
-4.8252 -7.4434 -1.6673 0.9645
-4.1411 -7.8429 -1.6670 0.9645
-1.9346 -8.7436 -1.6832 0.9642
-1.1543 -8.9399 -1.6943 0.9640
-0.3549 -9.0815 -1.7083 0.9637
1.2921 -9.1935 -1.7450 0.9629
2.9866 -9.0630 -1.7936 0.9619
4.7039 -8.6715 -1.8543 0.9606
5.5616 -8.3718 -1.8892 0.9599
6.4125 -7.9995 -1.9271 0.9591
8.0723 -7.0283 -2.0118 0.9574
9.6090 -4.6219 -2.0042 0.9575
10.2332 -3.8399 -2.0544 0.9565
10.8016 -2.9852 -2.1064 0.9554
11.7315 -1.0698 -2.2142 0.9532
9.1973 -3.1816 -2.0572 0.9610
10.0502 -1.5636 -2.1500 0.9593
10.6149 0.2585 -2.2444 0.9575
5.8585 3.6766 -1.4620 0.9721
5.1820 3.9376 -1.3757 0.9737
4.5815 4.1761 -1.3104 0.9750
3.6833 4.8155 -1.2815 0.9755
3.0501 4.8262 -1.2068 0.9769
2.5860 5.0375 -1.1969 0.9771
1.6678 5.4774 -1.2103 0.9769
0.6238 2.9819 -0.6440 0.9876
0.1722 6.2541 -1.3225 0.9747
-0.4068 6.5720 -1.3919 0.9734
-0.9011 5.9154 -1.2648 0.9758
-2.6794 10.9247 -2.3777 0.9551
-3.5765 10.4462 -2.3339 0.9559
-5.1639 9.2630 -2.2417 0.9576
-6.4445 7.8521 -2.1472 0.9593
-7.5046 7.6377 -2.2634 0.9572
-8.3657 5.9157 -2.1658 0.9590
-8.6701 5.0352 -2.1193 0.9598
-8.8940 4.1524 -2.0748 0.9607
-9.0406 3.2740 -2.0324 0.9615
-9.1134 2.4059 -1.9924 0.9622
-9.1164 1.5532 -1.9548 0.9629
-9.0533 0.7204 -1.9197 0.9636
-8.9279 -0.0887 -1.8873 0.9642
-8.2158 -2.3446 -1.8060 0.9657
-7.4955 -3.6827 -1.7653 0.9664
-7.0711 -4.2968 -1.7490 0.9667
-6.1078 -5.4082 -1.7245 0.9672
-5.0085 -6.3560 -1.7105 0.9675
-4.4137 -6.7658 -1.7076 0.9675
-3.7916 -7.1311 -1.7072 0.9675
-3.1444 -7.4510 -1.7095 0.9675
-2.4741 -7.7241 -1.7144 0.9674
-1.0728 -8.1244 -1.7322 0.9671
-0.3462 -8.2487 -1.7452 0.9668
1.1474 -8.3376 -1.7790 0.9662
1.9090 -8.2987 -1.8000 0.9658
5.7352 -7.1970 -1.9453 0.9631
8.5481 -5.1305 -2.1074 0.9601
8.5075 -4.1223 -1.9983 0.9621
9.5143 -2.6589 -2.0882 0.9604
10.2770 -0.9670 -2.1820 0.9587
10.7292 0.9129 -2.2761 0.9569
8.6805 2.3424 -1.9005 0.9639
4.7683 4.1011 -1.3294 0.9746
1.8172 5.4039 -1.2051 0.9770
1.3498 5.6366 -1.2251 0.9766
-0.2134 6.4649 -1.3673 0.9739
-0.8358 6.7970 -1.4476 0.9724
-1.5291 7.1151 -1.5383 0.9707
-3.2941 10.6097 -2.3483 0.9556
-4.9279 9.4716 -2.2569 0.9573
-5.6332 8.8063 -2.2097 0.9582
-7.8346 7.0632 -2.2297 0.9578
-8.2498 6.1979 -2.1811 0.9587
-8.8304 4.4370 -2.0890 0.9604
-9.0015 3.5565 -2.0459 0.9612
-9.0978 2.6845 -2.0051 0.9620
-8.9749 0.1695 -1.8975 0.9640
-8.5884 -1.3843 -1.8388 0.9651
-8.3147 -2.1157 -1.8136 0.9655
-7.2124 -4.1029 -1.7540 0.9666
-6.7613 -4.6910 -1.7395 0.9669
-6.2729 -5.2398 -1.7277 0.9671
-5.7497 -5.7481 -1.7186 0.9673
-5.1942 -6.2146 -1.7121 0.9674
-3.9951 -7.0182 -1.7070 0.9675
-3.3558 -7.3529 -1.7085 0.9675
-2.0080 -7.8818 -1.7193 0.9673
-1.3038 -8.0733 -1.7287 0.9671
-0.5822 -8.2143 -1.7407 0.9669
0.9035 -8.3381 -1.7728 0.9663
1.6625 -8.3175 -1.7929 0.9659
4.7348 -7.6423 -1.9004 0.9639
5.4931 -7.3162 -1.9339 0.9633
6.2384 -6.9239 -1.9700 0.9626
6.9653 -6.4639 -2.0086 0.9619
7.6678 -5.9354 -2.0497 0.9611
8.3393 -5.3379 -2.0929 0.9603
8.3267 -4.3353 -1.9844 0.9623
2.3142 -0.9531 -0.5290 0.9898
9.8033 -2.1099 -2.1197 0.9598
10.1733 -1.2539 -2.1667 0.9590
9.0530 2.1651 -1.9676 0.9627
6.3029 3.4662 -1.5205 0.9710
5.6085 3.7726 -1.4288 0.9727
4.9614 4.0243 -1.3504 0.9742
4.3827 4.2569 -1.2915 0.9753
4.0116 4.6615 -1.3000 0.9752
3.3573 4.6902 -1.2192 0.9767
2.8841 4.9009 -1.2020 0.9770
2.4233 5.1133 -1.1961 0.9771
1.9656 5.3315 -1.2011 0.9770
1.5021 5.5599 -1.2174 0.9767
0.5075 2.8784 -0.6178 0.9881
0.5181 6.0684 -1.2874 0.9754
-0.0266 6.3623 -1.3449 0.9743
-1.1506 6.2217 -1.3374 0.9745
-6.6382 7.5845 -2.1305 0.9596
-7.6824 7.3382 -2.2457 0.9575
-8.4832 5.6040 -2.1491 0.9593
-8.7586 4.7219 -2.1033 0.9601
-9.1223 2.1013 -1.9788 0.9625
-9.0157 0.4304 -1.9079 0.9638
-8.4085 -1.8833 -1.8214 0.9654
-8.1013 -2.5923 -1.7980 0.9658
-7.3496 -3.9049 -1.7592 0.9665
-6.4344 -5.0671 -1.7312 0.9671
-5.3768 -6.0687 -1.7139 0.9674
-3.5647 -7.2499 -1.7077 0.9675
-2.9091 -7.5533 -1.7109 0.9674
-1.5330 -8.0170 -1.7253 0.9672
-0.8168 -8.1745 -1.7365 0.9670
2.9499 -8.1531 -1.8327 0.9652
3.7203 -7.9746 -1.8601 0.9647
4.4883 -7.7337 -1.8901 0.9641
7.4442 -6.1134 -2.0362 0.9614
8.1265 -5.5382 -2.0787 0.9606
8.7011 -3.8805 -2.0139 0.9618
9.6693 -2.3746 -2.1046 0.9601
10.0617 -1.5357 -2.1515 0.9592
10.3818 -0.6457 -2.1987 0.9584
10.7721 1.2615 -2.2926 0.9566
9.4530 1.9746 -2.0413 0.9613
5.8360 3.6859 -1.4591 0.9722
3.6672 4.8231 -1.2807 0.9755
2.5712 5.0444 -1.1968 0.9771
2.1135 5.2602 -1.1983 0.9771
1.6528 5.4849 -1.2109 0.9769
0.3560 3.1092 -0.6615 0.9873
0.1544 6.2638 -1.3244 0.9747
-0.9182 5.9130 -1.2649 0.9758
-2.7093 10.9106 -2.3763 0.9551
-3.6044 10.4294 -2.3325 0.9559
-4.4322 9.8694 -2.2869 0.9567
-5.1870 9.2419 -2.2402 0.9576
-7.5212 7.6106 -2.2618 0.9572
-2.4114 2.0392 -0.6675 0.9872
-8.3768 5.8874 -2.1643 0.9590
-8.6786 5.0068 -2.1179 0.9599
-9.1154 1.5260 -1.9536 0.9629
-8.9229 -0.1144 -1.8863 0.9642
-8.2057 -2.3673 -1.8053 0.9657
-7.8664 -3.0530 -1.7836 0.9661
-6.5921 -4.8903 -1.7350 0.9670
-6.0911 -5.4248 -1.7241 0.9672
-5.5562 -5.9184 -1.7160 0.9674
-4.9898 -6.3699 -1.7104 0.9675
-4.3940 -6.7782 -1.7075 0.9675
-3.1231 -7.4605 -1.7096 0.9675
-2.4521 -7.7321 -1.7146 0.9674
-1.0496 -8.1292 -1.7326 0.9670
-0.3225 -8.2519 -1.7456 0.9668
0.4188 -8.3218 -1.7613 0.9665
1.1718 -8.3372 -1.7796 0.9662
3.4718 -8.0389 -1.8510 0.9648
5.0051 -7.5341 -1.9119 0.9637
7.9100 -5.7313 -2.0648 0.9609
8.5688 -5.1093 -2.1088 0.9600
9.0536 -3.3973 -2.0440 0.9612
9.9426 -1.8122 -2.1363 0.9595
7.8562 -4.4124 -2.1177 0.9637
7.7911 -3.5016 -2.0075 0.9655
8.2331 -2.8480 -2.0475 0.9648
6.5533 3.3379 -1.7284 0.9702
5.2226 3.9685 -1.5416 0.9734
4.1913 4.5690 -1.4572 0.9748
3.6789 4.8097 -1.4231 0.9754
3.1011 4.9069 -1.3642 0.9764
2.6289 5.1210 -1.3529 0.9766
1.5625 3.8568 -0.9780 0.9830
1.6958 5.5693 -1.3682 0.9764
0.6186 2.9570 -0.7100 0.9877
-0.4080 6.5919 -1.5522 0.9732
-0.9004 5.9110 -1.4053 0.9757
-3.1570 9.2209 -2.2906 0.9607
-4.5794 8.2146 -2.2104 0.9621
-5.1949 7.6276 -2.1689 0.9628
-6.2205 6.3308 -2.0859 0.9642
-2.4098 2.0498 -0.7436 0.9871
-7.7971 4.5282 -2.1191 0.9636
-8.0153 3.7422 -2.0790 0.9643
-8.1639 2.9565 -2.0406 0.9650
-8.2455 2.1767 -2.0043 0.9656
-8.2630 1.4078 -1.9700 0.9661
-8.1184 -0.0807 -1.9081 0.9672
-7.5002 -2.1403 -1.8331 0.9685
-7.1994 -2.7703 -1.8130 0.9688
-6.4730 -3.9333 -1.7801 0.9694
-6.0527 -4.4632 -1.7675 0.9696
-2.8839 -6.8338 -1.7432 0.9700
-2.2686 -7.0825 -1.7479 0.9699
-1.6342 -7.2861 -1.7549 0.9698
-0.3169 -7.5524 -1.7765 0.9694
0.3612 -7.6122 -1.7911 0.9692
1.0488 -7.6213 -1.8081 0.9689
2.4414 -7.4809 -1.8495 0.9682
3.1400 -7.3286 -1.8738 0.9678
3.8355 -7.1195 -1.9006 0.9673
4.5238 -6.8525 -1.9298 0.9668
5.2007 -6.5262 -1.9613 0.9663
7.1127 -5.1850 -2.0687 0.9645
8.5033 -2.3764 -2.0751 0.9644
9.3583 -0.0418 -2.1994 0.9623
9.5556 1.6819 -2.2803 0.9609
8.6647 2.3382 -2.1092 0.9638
6.0676 3.5683 -1.6544 0.9715
5.4181 3.8760 -1.5657 0.9730
4.8298 4.1540 -1.4972 0.9742
4.3535 4.4795 -1.4681 0.9747
3.8417 4.7333 -1.4327 0.9753
2.7800 5.0516 -1.3551 0.9766
2.3135 5.2688 -1.3524 0.9766
1.8475 5.4941 -1.3623 0.9765
1.3727 5.7323 -1.3853 0.9761
-0.2147 6.5030 -1.5292 0.9736
-0.8346 6.7876 -1.6073 0.9723
-1.3173 6.1293 -1.4734 0.9746
-2.9056 9.3585 -2.3030 0.9605
-3.6658 8.9083 -2.2640 0.9612
-4.3668 8.3932 -2.2236 0.9619
-7.0064 6.3166 -2.2171 0.9620
-7.9527 3.9960 -2.0917 0.9641
-8.1234 3.2096 -2.0528 0.9647
-8.2400 0.8953 -1.9480 0.9665
-8.1572 0.1541 -1.9175 0.9670
-6.9713 -3.1791 -1.8007 0.9690
-6.6007 -3.7549 -1.7848 0.9693
-6.1922 -4.2962 -1.7713 0.9695
-5.7482 -4.8015 -1.7603 0.9697
-5.2711 -5.2696 -1.7517 0.9698
-4.2271 -6.0888 -1.7421 0.9700
-3.0779 -6.7441 -1.7423 0.9700
-1.8408 -7.2255 -1.7524 0.9698
-1.1947 -7.3977 -1.7612 0.9697
0.8261 -7.6240 -1.8023 0.9690
1.5187 -7.5978 -1.8210 0.9687
2.2160 -7.5182 -1.8421 0.9683
2.9148 -7.3839 -1.8657 0.9679
6.2970 -5.8437 -2.0190 0.9653
7.5089 -4.8064 -2.0953 0.9640
7.4814 -3.8952 -1.9824 0.9659
8.3778 -2.6038 -2.0619 0.9646
8.7476 -1.8827 -2.1030 0.9639
9.0561 -1.1162 -2.1445 0.9632
9.5465 1.3980 -2.2676 0.9611
7.0596 3.0973 -1.8118 0.9688
6.2936 3.4611 -1.6881 0.9709
5.6201 3.7804 -1.5919 0.9726
5.0140 4.0670 -1.5173 0.9738
3.4140 4.7694 -1.3785 0.9762
2.9322 4.9825 -1.3587 0.9765
2.4634 5.1980 -1.3519 0.9766
0.5038 2.8573 -0.6819 0.9881
0.5261 6.1620 -1.4535 0.9749
-0.6277 6.6927 -1.5798 0.9728
-4.1475 8.5659 -2.2367 0.9616
-4.8055 8.0119 -2.1957 0.9623
-5.9201 6.7641 -2.1126 0.9637
-6.3732 6.0877 -2.0714 0.9644
-2.4857 1.9821 -0.7472 0.9870
-7.6181 5.0326 -2.1458 0.9632
-8.0759 3.4631 -2.0652 0.9645
-7.0823 -2.9863 -1.8064 0.9689
-5.4285 -5.1227 -1.7542 0.9698
-4.4031 -5.9675 -1.7430 0.9700
-3.8488 -6.3296 -1.7410 0.9700
-3.2697 -6.6499 -1.7416 0.9700
-2.6679 -6.9271 -1.7446 0.9700
-2.0456 -7.1600 -1.7501 0.9699
-1.4049 -7.3472 -1.7581 0.9697
-0.0776 -7.5793 -1.7814 0.9693
0.6042 -7.6213 -1.7968 0.9691
1.9907 -7.5498 -1.8350 0.9684
2.6894 -7.4333 -1.8578 0.9680
3.3874 -7.2610 -1.8831 0.9676
4.7656 -6.7435 -1.9407 0.9666
7.3223 -4.9901 -2.0825 0.9642
7.8722 -4.3916 -2.1186 0.9636
7.8060 -3.4814 -2.0088 0.9655
8.2465 -2.8261 -2.0488 0.9648
8.9637 -1.3682 -2.1311 0.9634
9.2268 -0.5739 -2.1727 0.9627
9.4171 0.2565 -2.2141 0.9620
9.4344 1.9708 -2.2652 0.9612
8.2840 2.5197 -2.0350 0.9650
6.5292 3.3493 -1.7246 0.9703
5.2033 3.9776 -1.5393 0.9734
4.6325 4.2471 -1.4770 0.9745
4.1744 4.5769 -1.4559 0.9749
3.6627 4.8173 -1.4223 0.9754
2.6138 5.1280 -1.3527 0.9766
1.5496 3.8568 -0.9769 0.9831
1.6806 5.5769 -1.3689 0.9764
0.3508 3.0644 -0.7249 0.9874
0.1561 6.3325 -1.4887 0.9743
-2.3865 9.6104 -2.3273 0.9601
-3.1818 9.2068 -2.2894 0.9608
-3.9216 8.7325 -2.2498 0.9614
-4.6003 8.1965 -2.2090 0.9621
-6.2347 6.3089 -2.0846 0.9642
-2.4123 2.0399 -0.7425 0.9871
-7.5172 5.2832 -2.1594 0.9629
-8.0212 3.7168 -2.0777 0.9643
-8.2172 0.6301 -1.9369 0.9667
-7.9568 -0.8158 -1.8798 0.9677
-7.1890 -2.7901 -1.8124 0.9688
-6.4600 -3.9510 -1.7797 0.9694
-6.0386 -4.4797 -1.7671 0.9696
-3.4591 -6.5512 -1.7411 0.9700
-0.9616 -7.4475 -1.7649 0.9696
-0.2952 -7.5551 -1.7770 0.9694
0.3832 -7.6133 -1.7916 0.9692
1.0711 -7.6207 -1.8086 0.9689
1.7657 -7.5757 -1.8282 0.9685
2.4639 -7.4769 -1.8502 0.9682
3.1625 -7.3227 -1.8747 0.9678
4.5458 -6.8429 -1.9308 0.9668
5.2223 -6.5147 -1.9623 0.9663
5.8823 -6.1264 -1.9961 0.9657
7.6540 -3.6815 -1.9961 0.9657
8.8645 -1.6157 -2.1177 0.9637
7.1260 -4.0023 -2.1161 0.9668
7.4443 -2.5752 -2.0395 0.9680
8.0652 -1.2548 -2.1133 0.9668
8.4451 0.2057 -2.1872 0.9657
8.5312 0.9742 -2.2232 0.9651
8.5419 1.7587 -2.2580 0.9646
8.3027 2.4993 -2.2450 0.9648
7.3540 2.9522 -2.0518 0.9678
5.8420 3.6662 -1.7858 0.9719
5.2155 3.9631 -1.6960 0.9733
4.6442 4.2332 -1.6270 0.9744
4.1861 4.5633 -1.6033 0.9747
3.6744 4.8038 -1.5659 0.9753
3.1264 4.9468 -1.5152 0.9761
1.7075 5.6079 -1.5178 0.9761
0.1739 6.3160 -1.6359 0.9742
-0.4075 6.5829 -1.7077 0.9731
-2.8224 8.2437 -2.2561 0.9646
-3.4919 7.8359 -2.2212 0.9652
-4.6707 6.8579 -2.1483 0.9663
-5.1730 6.3029 -2.1112 0.9669
-5.6144 5.7140 -2.0741 0.9674
-6.8010 4.8092 -2.1567 0.9662
-7.2877 3.4025 -2.0824 0.9673
-7.3031 -0.7275 -1.9003 0.9701
-7.1210 -1.3594 -1.8770 0.9705
-5.9632 -3.6235 -1.8067 0.9716
-4.7145 -4.9929 -1.7780 0.9720
-4.2383 -5.3787 -1.7730 0.9721
-3.7360 -5.7269 -1.7704 0.9721
-3.2095 -6.0364 -1.7701 0.9721
-2.6611 -6.3058 -1.7721 0.9721
-0.9061 -6.8617 -1.7920 0.9718
0.9650 -7.0124 -1.8327 0.9712
1.6026 -6.9666 -1.8509 0.9709
2.8808 -6.7235 -1.8939 0.9702
3.5147 -6.5240 -1.9187 0.9698
4.1401 -6.2712 -1.9457 0.9694
5.3489 -5.6031 -2.0056 0.9685
6.4699 -4.7164 -2.0730 0.9675
6.9237 -3.3549 -1.9920 0.9687
7.3247 -2.7726 -2.0278 0.9682
7.6788 -2.1460 -2.0643 0.9676
8.2231 -0.7738 -2.1385 0.9664
7.6419 2.8149 -2.1086 0.9669
6.0589 3.5632 -1.8199 0.9714
4.8235 4.1486 -1.6473 0.9741
3.8369 4.7275 -1.5764 0.9752
3.2810 4.8744 -1.5213 0.9760
1.8617 5.5363 -1.5123 0.9762
1.3793 5.7599 -1.5335 0.9758
0.4218 2.8744 -0.7522 0.9881
0.3517 6.2342 -1.6167 0.9745
-0.2144 6.4943 -1.6824 0.9735
-1.3116 6.1031 -1.6163 0.9745
-2.5962 8.3619 -2.2670 0.9645
-3.9161 7.5270 -2.1969 0.9655
-4.4959 7.0284 -2.1603 0.9661
-5.8782 5.2995 -2.0492 0.9678
-6.6979 5.0320 -2.1691 0.9660
-7.5002 2.2131 -2.0247 0.9682
-7.5351 0.8187 -1.9625 0.9692
-7.1848 -1.1581 -1.8843 0.9704
-6.7146 -2.3639 -1.8431 0.9710
-6.0796 -3.4584 -1.8110 0.9715
-5.3001 -4.4272 -1.7881 0.9719
-4.8621 -4.8607 -1.7801 0.9720
-4.3949 -5.2583 -1.7744 0.9721
-3.9008 -5.6188 -1.7710 0.9721
-3.3818 -5.9409 -1.7700 0.9721
-2.2782 -6.4650 -1.7748 0.9721
-1.6979 -6.6646 -1.7807 0.9720
-1.1015 -6.8208 -1.7889 0.9719
-0.4914 -6.9324 -1.7994 0.9717
3.9395 -6.3587 -1.9367 0.9696
4.5569 -6.0693 -1.9651 0.9691
5.1588 -5.7256 -1.9954 0.9687
5.7404 -5.3272 -2.0277 0.9682
6.8224 -4.3670 -2.0973 0.9671
2.3122 -0.9523 -0.6475 0.9897
7.5700 -2.3528 -2.0525 0.9678
7.8890 -1.6979 -2.0894 0.9672
8.1515 -1.0047 -2.1265 0.9666
8.4841 0.4761 -2.2001 0.9655
8.5439 1.2511 -2.2358 0.9650
7.9463 2.6695 -2.1704 0.9660
7.0484 3.0924 -1.9929 0.9687
6.2844 3.4560 -1.8570 0.9708
5.0074 4.0616 -1.6694 0.9737
4.4518 4.3240 -1.6069 0.9747
4.0017 4.6500 -1.5884 0.9750
3.4369 4.8014 -1.5288 0.9759
2.9576 5.0258 -1.5099 0.9762
1.5365 5.6872 -1.5253 0.9760
-0.6269 6.6835 -1.7381 0.9726
-1.0972 5.9331 -1.5622 0.9754
-2.3653 8.4732 -2.2777 0.9643
-4.3151 7.1944 -2.1721 0.9659
-4.8558 6.6653 -2.1352 0.9665
-5.3367 6.0974 -2.0980 0.9671
-5.7561 5.4983 -2.0610 0.9676
-7.1590 3.8595 -2.1058 0.9670
-7.4727 2.4412 -2.0354 0.9680
-7.5448 1.0406 -1.9720 0.9690
-7.4963 0.3579 -1.9431 0.9695
-7.0453 -1.5780 -1.8693 0.9706
-5.8308 -3.8013 -1.8022 0.9716
-5.0067 -4.7247 -1.7824 0.9720
-4.5487 -5.1340 -1.7760 0.9721
-3.5518 -5.8412 -1.7700 0.9721
-2.4617 -6.3916 -1.7734 0.9721
0.5562 -7.0159 -1.8222 0.9713
1.1908 -7.0018 -1.8389 0.9711
2.4691 -6.8244 -1.8791 0.9705
3.1064 -6.6588 -1.9025 0.9701
3.7378 -6.4405 -1.9280 0.9697
4.3593 -6.1686 -1.9557 0.9693
6.6565 -4.5364 -2.0857 0.9673
7.0710 -3.1535 -2.0046 0.9685
8.5328 0.9993 -2.2244 0.9651
6.5194 3.3443 -1.8971 0.9702
5.1963 3.9722 -1.6935 0.9733
4.1692 4.5712 -1.6019 0.9748
3.6583 4.8114 -1.5649 0.9753
2.6378 5.1751 -1.5040 0.9763
1.5404 3.8338 -1.0698 0.9831
0.6098 2.9575 -0.7818 0.9876
0.3484 3.0432 -0.7931 0.9874
0.1559 6.3243 -1.6380 0.9742
-0.4271 6.5919 -1.7103 0.9731
-2.1299 8.5773 -2.2883 0.9641
-2.8448 8.2315 -2.2550 0.9647
-3.5127 7.8218 -2.2200 0.9652
-4.1284 7.3556 -2.1840 0.9657
-4.6878 6.8406 -2.1471 0.9663
-5.1882 6.2844 -2.1100 0.9669
-5.6276 5.6945 -2.0729 0.9675
-6.8109 4.7868 -2.1554 0.9662
-7.2934 3.3796 -2.0813 0.9673
-7.5233 1.9629 -2.0131 0.9684
-7.5487 1.2637 -1.9817 0.9689
-7.5179 0.5764 -1.9522 0.9693
-7.4334 -0.0953 -1.9248 0.9698
-7.2980 -0.7482 -1.8995 0.9701
-7.1144 -1.3794 -1.8763 0.9705
-6.8852 -1.9863 -1.8554 0.9708
-6.6133 -2.5667 -1.8367 0.9711
-6.3012 -3.1185 -1.8204 0.9714
-5.5662 -4.1292 -1.7945 0.9718
-4.6996 -5.0059 -1.7778 0.9720
-4.2225 -5.3905 -1.7729 0.9721
-3.7194 -5.7375 -1.7704 0.9721
-2.6431 -6.3138 -1.7722 0.9721
-2.0743 -6.5407 -1.7766 0.9720
-1.4880 -6.7250 -1.7833 0.9719
-0.8865 -6.8656 -1.7924 0.9718
-0.2720 -6.9610 -1.8037 0.9716
0.3528 -7.0101 -1.8173 0.9714
0.9855 -7.0117 -1.8333 0.9712
1.6232 -6.9643 -1.8515 0.9709
2.2629 -6.8667 -1.8720 0.9706
3.5350 -6.5167 -1.9196 0.9698
4.7725 -5.9536 -1.9756 0.9690
5.3677 -5.5905 -2.0067 0.9685
5.9410 -5.1727 -2.0396 0.9680
6.9373 -3.3368 -1.9932 0.9687
7.3368 -2.7531 -2.0290 0.9681
7.9889 -1.4561 -2.1026 0.9670
6.4442 -2.8963 -2.0001 0.9711
6.7865 -2.3476 -2.0329 0.9706
7.5195 -0.4894 -2.1332 0.9692
7.6499 0.1863 -2.1663 0.9687
7.7159 0.8811 -2.1985 0.9682
7.6414 2.3002 -2.2591 0.9674
7.3420 2.9473 -2.2397 0.9676
6.5334 3.3278 -2.0757 0.9700
5.8336 3.6609 -1.9497 0.9718
5.2084 3.9577 -1.8519 0.9732
4.6381 4.2277 -1.7766 0.9742
4.1808 4.5575 -1.7508 0.9746
3.1226 4.9408 -1.6546 0.9760
0.6231 2.9784 -0.8614 0.9874
0.1737 6.3077 -1.7863 0.9741
-0.8991 5.9019 -1.6901 0.9755
-1.7643 7.1935 -2.0968 0.9697
-2.5491 7.4454 -2.2278 0.9678
-3.1585 7.0877 -2.1967 0.9683
-4.2380 6.2225 -2.1313 0.9692
-2.4117 2.0514 -0.8963 0.9869
-6.2032 4.3865 -2.1508 0.9689
-6.9417 1.1827 -1.9935 0.9712
-6.9233 0.5509 -1.9661 0.9715
-6.8547 -0.0681 -1.9406 0.9719
-6.5765 -1.2555 -1.8954 0.9726
-6.3717 -1.8183 -1.8758 0.9728
-6.1263 -2.3574 -1.8583 0.9731
-5.1699 -3.8122 -1.8184 0.9736
-4.7854 -4.2373 -1.8094 0.9738
-4.3717 -4.6298 -1.8026 0.9739
-2.9771 -5.5992 -1.7952 0.9740
-1.3973 -6.2298 -1.8074 0.9738
-0.8397 -6.3591 -1.8158 0.9737
1.4816 -6.4408 -1.8710 0.9729
3.2405 -6.0150 -1.9342 0.9720
4.9142 -5.1477 -2.0147 0.9708
5.4343 -4.7591 -2.0450 0.9704
5.9279 -4.3213 -2.0767 0.9700
6.3249 -3.0647 -1.9897 0.9712
6.6808 -2.5289 -2.0223 0.9707
7.2556 -1.3440 -2.0889 0.9698
7.4645 -0.7024 -2.1225 0.9693
7.5509 2.7813 -2.2780 0.9671
6.0500 3.5580 -1.9869 0.9712
4.8171 4.1431 -1.7987 0.9739
4.3508 4.4767 -1.7672 0.9744
2.7788 5.0495 -1.6316 0.9763
2.3316 5.3101 -1.6418 0.9762
1.8595 5.5296 -1.6515 0.9760
0.4179 2.8481 -0.8149 0.9881
-0.8323 6.7684 -1.9305 0.9720
-1.3067 6.0802 -1.7606 0.9745
-2.3437 7.5486 -2.2376 0.9677
-4.0773 6.3740 -2.1420 0.9690
-5.3566 4.8292 -2.0417 0.9705
-6.3941 3.9641 -2.1298 0.9692
-6.6157 3.3242 -2.0960 0.9697
-6.8822 0.1300 -1.9486 0.9718
-6.7810 -0.4786 -1.9244 0.9721
-6.6335 -1.0693 -1.9021 0.9725
-6.2098 -2.1862 -1.8637 0.9730
-5.9382 -2.7080 -1.8476 0.9732
-5.2874 -3.6684 -1.8218 0.9736
-4.5082 -4.5068 -1.8046 0.9738
-3.6181 -5.2117 -1.7961 0.9740
-3.1369 -5.5107 -1.7951 0.9740
-2.1128 -5.9957 -1.7996 0.9739
-1.5742 -6.1793 -1.8052 0.9738
-0.4552 -6.4227 -1.8228 0.9736
0.1205 -6.4801 -1.8348 0.9734
1.8812 -6.3823 -1.8836 0.9727
2.4697 -6.2562 -1.9041 0.9724
3.0536 -6.0817 -1.9265 0.9721
3.6295 -5.8582 -1.9509 0.9718
5.2692 -4.8899 -2.0350 0.9706
6.2447 -3.9972 -2.0990 0.9696
7.1764 -1.5445 -2.0781 0.9699
7.4033 -0.9125 -2.1117 0.9695
7.5729 -0.2522 -2.1450 0.9690
7.5982 2.5526 -2.2691 0.9672
6.2750 3.4509 -2.0273 0.9707
4.4461 4.3184 -1.7546 0.9746
3.9967 4.6442 -1.7346 0.9748
2.9540 5.0197 -1.6488 0.9761
2.4831 5.2395 -1.6414 0.9762
0.4965 2.8159 -0.8094 0.9882
0.5248 6.1463 -1.7463 0.9747
-0.6260 6.6742 -1.8977 0.9725
-3.3641 6.9479 -2.1853 0.9684
-3.9113 6.5212 -2.1527 0.9689
-6.7326 2.8870 -2.0738 0.9700
-6.8571 2.2401 -2.0422 0.9705
-6.9411 0.9573 -1.9836 0.9713
-6.9046 0.3296 -1.9569 0.9717
-6.8188 -0.2841 -1.9320 0.9720
-6.6860 -0.8809 -1.9091 0.9724
-6.5087 -1.4578 -1.8882 0.9727
-5.7332 -3.0461 -1.8379 0.9734
-5.4015 -3.5214 -1.8254 0.9736
-5.0369 -3.9666 -1.8150 0.9737
-4.6418 -4.3803 -1.8068 0.9738
-1.7497 -6.1244 -1.8032 0.9739
-0.6389 -6.3948 -1.8193 0.9736
2.8660 -6.1433 -1.9191 0.9722
3.4449 -5.9357 -1.9428 0.9719
5.1014 -5.0155 -2.0253 0.9707
6.0958 -4.1543 -2.0883 0.9698
6.4559 -2.8792 -2.0011 0.9710
6.7968 -2.3293 -2.0340 0.9706
7.0918 -1.7416 -2.0673 0.9701
7.6531 0.2085 -2.1673 0.9687
7.7170 0.9038 -2.1996 0.9682
7.7129 1.6111 -2.2306 0.9678
7.6378 2.3232 -2.2600 0.9674
7.3141 2.9606 -2.2338 0.9677
6.5095 3.3392 -2.0711 0.9700
5.1893 3.9668 -1.8491 0.9732
4.6205 4.2360 -1.7745 0.9743
4.1639 4.5654 -1.7493 0.9746
3.6538 4.8054 -1.7090 0.9752
1.5283 3.8039 -1.1605 0.9831
1.6900 5.6082 -1.6582 0.9759
0.6125 2.9708 -0.8587 0.9875
0.1557 6.3160 -1.7885 0.9741
-0.9158 5.8977 -1.6896 0.9755
-1.9210 7.7360 -2.2565 0.9674
-3.1774 7.0753 -2.1957 0.9683
-4.2537 6.2072 -2.1302 0.9692
-6.4795 3.7381 -2.1176 0.9694
-6.8231 2.4487 -2.0522 0.9703
-6.9420 1.1622 -1.9926 0.9712
-6.8517 -0.0878 -1.9398 0.9719
-6.7338 -0.6904 -1.9163 0.9723
-6.1177 -2.3743 -1.8577 0.9731
-5.5122 -3.3713 -1.8292 0.9735
-4.3578 -4.6419 -1.8024 0.9739
-3.4500 -5.3220 -1.7955 0.9740
-2.9610 -5.6079 -1.7953 0.9740
-0.8215 -6.3626 -1.8162 0.9737
0.3266 -6.4899 -1.8396 0.9733
2.0903 -6.3430 -1.8907 0.9726
2.6776 -6.1998 -1.9118 0.9723
3.2591 -6.0081 -1.9350 0.9720
4.3900 -5.4764 -1.9870 0.9712
4.9313 -5.1359 -2.0156 0.9708
5.4506 -4.7457 -2.0460 0.9704
6.3965 -3.8141 -2.1083 0.9695
7.0020 -1.9351 -2.0565 0.9703
7.4702 -0.6812 -2.1235 0.9693
5.9919 -3.3653 -2.1138 0.9716
6.2290 -2.1548 -2.0273 0.9728
6.7089 -1.0438 -2.0883 0.9720
6.8740 -0.4474 -2.1188 0.9716
6.9838 0.1701 -2.1487 0.9712
7.0350 0.8034 -2.1779 0.9708
7.0246 1.4463 -2.2059 0.9704
6.8103 2.7339 -2.2572 0.9698
6.5234 3.3226 -2.2517 0.9698
5.8251 3.6556 -2.1153 0.9716
3.6653 4.7919 -1.8556 0.9751
1.7034 5.5942 -1.7986 0.9758
0.1735 6.2993 -1.9383 0.9740
-0.4063 6.5648 -2.0231 0.9728
-0.8983 5.8968 -1.8347 0.9753
-1.7278 7.0446 -2.2310 0.9701
-2.3214 6.7803 -2.2043 0.9705
-2.8800 6.4627 -2.1762 0.9708
-3.3988 6.0970 -2.1470 0.9712
-4.6848 4.7680 -2.0560 0.9724
-5.2972 3.7458 -1.9955 0.9732
-5.9564 3.4592 -2.1186 0.9716
-6.1506 2.8716 -2.0878 0.9720
-6.3806 1.6844 -2.0298 0.9728
-6.4085 0.5100 -1.9774 0.9735
-5.4335 -2.6696 -1.8621 0.9750
-4.4559 -3.9456 -1.8306 0.9754
-4.0718 -4.3122 -1.8242 0.9755
-3.6619 -4.6472 -1.8198 0.9755
-2.7736 -5.2166 -1.8172 0.9756
-2.2994 -5.4486 -1.8190 0.9756
0.8300 -6.0311 -1.8725 0.9748
1.9228 -5.8919 -1.9063 0.9744
3.0031 -5.5745 -1.9476 0.9738
4.5404 -4.7562 -2.0225 0.9729
6.1346 -2.3222 -2.0175 0.9729
6.4124 -1.7921 -2.0479 0.9725
6.6445 -1.2308 -2.0785 0.9721
6.9547 -0.0311 -2.1391 0.9713
5.3957 3.8599 -2.0405 0.9726
4.8107 4.1375 -1.9516 0.9738
4.3456 4.4714 -1.9178 0.9742
3.2729 4.8625 -1.8028 0.9758
2.7754 5.0433 -1.7706 0.9762
2.3288 5.3036 -1.7816 0.9761
0.4173 2.8442 -0.8842 0.9880
-0.8310 6.7587 -2.0945 0.9719
-2.1335 6.8717 -2.2131 0.9703
-2.7039 6.5707 -2.1854 0.9707
-3.7259 5.8247 -2.1267 0.9715
-5.2121 3.9157 -2.0051 0.9731
-5.8788 3.6447 -2.1275 0.9715
-6.3747 0.1204 -1.9611 0.9737
-6.2867 -0.4437 -1.9385 0.9740
-6.1552 -0.9921 -1.9176 0.9742
-5.5214 -2.5179 -1.8665 0.9749
-5.2376 -2.9794 -1.8534 0.9751
-4.9211 -3.4142 -1.8422 0.9752
-4.5741 -3.8207 -1.8331 0.9754
-3.3708 -4.8554 -1.8180 0.9756
-2.4543 -5.3778 -1.8182 0.9756
-1.4661 -5.7548 -1.8266 0.9755
-0.4237 -5.9775 -1.8432 0.9752
0.1120 -6.0282 -1.8545 0.9751
0.6542 -6.0372 -1.8678 0.9749
1.2000 -6.0035 -1.8831 0.9747
2.2914 -5.8046 -1.9194 0.9742
2.8308 -5.6379 -1.9404 0.9739
3.3616 -5.4258 -1.9632 0.9736
4.3825 -4.8640 -2.0137 0.9730
4.8647 -4.5145 -2.0413 0.9726
5.3225 -4.1200 -2.0703 0.9722
5.7097 -2.9728 -1.9800 0.9734
6.3276 -1.9666 -2.0381 0.9727
6.7735 -0.8349 -2.0992 0.9718
5.5964 3.7645 -2.0745 0.9722
4.9939 4.0507 -1.9778 0.9734
4.4403 4.3128 -1.9039 0.9744
3.9917 4.6383 -1.8822 0.9747
2.9504 5.0135 -1.7893 0.9759
2.4801 5.2332 -1.7812 0.9761
1.4244 3.8635 -1.2665 0.9829
1.5327 5.6732 -1.8075 0.9757
0.4969 2.8183 -0.8802 0.9881
0.5241 6.1384 -1.8949 0.9745
-1.0942 5.9167 -1.8507 0.9751
-1.9421 6.9573 -2.2217 0.9702
-2.5239 6.6735 -2.1945 0.9706
-3.5727 5.9567 -2.1364 0.9714
-4.0322 5.5348 -2.1062 0.9717
-4.4446 5.0782 -2.0757 0.9722
-4.8082 4.5928 -2.0451 0.9726
-2.4761 1.9744 -0.9741 0.9868
-5.7912 3.8257 -2.1348 0.9714
-6.2067 2.6615 -2.0772 0.9721
-6.3999 1.4742 -2.0200 0.9729
-6.3934 0.3052 -1.9687 0.9736
-6.3199 -0.2633 -1.9456 0.9739
-6.0425 -1.3534 -1.9046 0.9744
-3.5108 -4.7581 -1.8188 0.9756
-2.1268 -5.5222 -1.8201 0.9755
-1.1182 -5.8480 -1.8313 0.9754
0.4787 -6.0390 -1.8633 0.9750
1.0237 -6.0191 -1.8779 0.9748
1.5705 -5.9560 -1.8945 0.9746
2.1161 -5.8487 -1.9131 0.9743
2.6576 -5.6966 -1.9335 0.9740
3.1915 -5.4992 -1.9557 0.9737
4.2224 -4.9670 -2.0052 0.9731
4.7116 -4.6322 -2.0323 0.9727
5.1778 -4.2521 -2.0608 0.9724
5.6165 -3.8277 -2.0906 0.9720
5.9332 -2.6461 -1.9982 0.9732
6.2382 -2.1378 -2.0283 0.9728
6.5002 -1.5963 -2.0587 0.9724
6.7150 -1.0249 -2.0893 0.9720
6.4994 3.3341 -2.2468 0.9699
5.1822 3.9614 -2.0063 0.9731
4.6144 4.2305 -1.9255 0.9741
4.1586 4.5596 -1.8981 0.9745
2.6314 5.1626 -1.7823 0.9760
1.4919 3.7133 -1.2309 0.9834
-3.4149 6.0844 -2.1460 0.9712
-3.8890 5.6749 -2.1160 0.9716
-5.3054 3.7287 -1.9945 0.9732
-6.2953 2.2593 -2.0572 0.9724
-6.3826 1.6653 -2.0289 0.9728
-6.4194 1.0747 -2.0019 0.9731
-5.6861 -2.2068 -1.8760 0.9748
-5.1289 -3.1369 -1.8492 0.9752
-4.4440 -3.9579 -1.8304 0.9754
-4.0589 -4.3235 -1.8240 0.9755
-3.6483 -4.6574 -1.8197 0.9755
-3.2142 -4.9582 -1.8175 0.9756
-1.7917 -5.6496 -1.8230 0.9755
-1.2846 -5.8058 -1.8289 0.9754
-0.7648 -5.9231 -1.8369 0.9753
-0.2345 -6.0002 -1.8469 0.9752
0.8476 -6.0302 -1.8730 0.9748
1.3940 -5.9811 -1.8890 0.9746
1.9404 -5.8882 -1.9069 0.9744
4.0604 -5.0652 -1.9967 0.9732
5.0302 -4.3796 -2.0514 0.9725
5.8857 -3.5095 -2.1077 0.9717
5.8264 -2.8025 -1.9886 0.9733
6.1442 -2.3056 -2.0185 0.9729
6.6512 -1.2123 -2.0795 0.9721
6.1787 -0.9613 -2.0786 0.9740
6.2323 2.5019 -2.2323 0.9721
5.1940 3.9468 -2.1684 0.9729
4.0897 4.4582 -2.0110 0.9748
3.5968 4.7023 -1.9679 0.9754
3.1149 4.9286 -1.9380 0.9757
1.7012 5.5872 -1.9414 0.9757
0.6352 3.0362 -1.0311 0.9870
0.3543 3.0176 -1.0099 0.9873
0.1732 6.2909 -2.0919 0.9738
-0.8975 5.8917 -1.9810 0.9752
-1.5827 6.4531 -2.2086 0.9724
-3.1233 5.6027 -2.1322 0.9733
-3.9640 4.8298 -2.0769 0.9740
-5.5048 3.1970 -2.1160 0.9735
-5.9222 1.5634 -2.0360 0.9745
-5.9635 1.0160 -2.0109 0.9748
-5.6892 -1.0861 -1.9253 0.9759
-5.5198 -1.5752 -1.9080 0.9761
-5.3138 -2.0447 -1.8926 0.9763
-4.1652 -3.6881 -1.8493 0.9768
-3.0193 -4.6283 -1.8369 0.9770
-2.5939 -4.8786 -1.8366 0.9770
-1.6903 -5.2772 -1.8420 0.9769
0.2674 -5.6363 -1.8757 0.9765
1.2840 -5.5815 -1.9038 0.9761
1.7925 -5.4927 -1.9206 0.9759
2.2974 -5.3620 -1.9391 0.9757
3.2836 -4.9738 -1.9811 0.9752
3.7581 -4.7159 -2.0045 0.9749
4.2154 -4.4157 -2.0292 0.9746
4.6516 -4.0736 -2.0553 0.9743
5.0628 -3.6906 -2.0826 0.9739
5.3764 -2.6051 -1.9859 0.9751
5.6650 -2.1444 -2.0135 0.9748
5.9147 -1.6530 -2.0414 0.9744
6.3928 -0.0286 -2.1250 0.9734
6.4524 1.1357 -2.1778 0.9728
6.1077 2.8924 -2.2464 0.9719
5.8741 3.4545 -2.2652 0.9717
4.8042 4.1319 -2.1063 0.9736
4.2114 4.3333 -2.0086 0.9749
2.7720 5.0370 -1.9111 0.9761
2.3259 5.2971 -1.9230 0.9759
1.8549 5.5160 -1.9344 0.9758
0.4138 2.8200 -0.9474 0.9881
0.3503 6.2097 -2.0674 0.9741
-0.2135 6.4678 -2.1511 0.9731
-1.9557 6.2989 -2.1924 0.9726
-2.4811 6.0293 -2.1672 0.9729
-2.9727 5.7136 -2.1409 0.9732
-4.2100 4.5392 -2.0579 0.9742
-4.5355 4.0890 -2.0299 0.9746
-5.4274 3.3648 -2.1227 0.9734
-5.8989 1.7406 -2.0444 0.9744
-5.9655 0.6482 -1.9946 0.9750
-5.8540 -0.4132 -1.9507 0.9756
-5.7358 -0.9245 -1.9312 0.9758
-5.5785 -1.4194 -1.9134 0.9760
-5.3841 -1.8955 -1.8974 0.9762
-5.1545 -2.3506 -1.8832 0.9764
-4.8919 -2.7828 -1.8708 0.9766
-4.5981 -3.1902 -1.8603 0.9767
-3.1523 -4.5406 -1.8374 0.9770
-2.2952 -5.0291 -1.8376 0.9770
-1.3707 -5.3801 -1.8455 0.9769
-0.3959 -5.5850 -1.8611 0.9767
0.6107 -5.6359 -1.8844 0.9764
1.6287 -5.5259 -1.9150 0.9760
2.1351 -5.4088 -1.9329 0.9758
3.6067 -4.8037 -1.9968 0.9750
5.2757 -2.7468 -1.9771 0.9752
2.3092 -0.9511 -0.8301 0.9895
5.8387 -1.8147 -2.0324 0.9746
6.2357 -0.7686 -2.0885 0.9739
6.4580 0.9457 -2.1696 0.9729
6.3255 2.1250 -2.2181 0.9723
5.9559 3.2754 -2.2594 0.9718
4.4344 4.3071 -2.0549 0.9743
2.9467 5.0073 -1.9313 0.9758
2.4770 5.2267 -1.9226 0.9759
1.4109 3.8271 -1.3558 0.9830
0.5218 2.9597 -0.9990 0.9874
0.5234 6.1303 -2.0452 0.9744
-0.0266 6.3824 -2.1215 0.9735
-2.3151 6.1215 -2.1755 0.9728
-3.7110 5.0940 -2.0950 0.9738
-4.4354 4.2367 -2.0389 0.9745
-2.4738 1.9726 -1.0517 0.9868
-4.9787 3.2889 -1.9834 0.9752
-5.9422 1.3688 -2.0269 0.9746
-5.9470 0.2839 -1.9791 0.9752
-5.7783 -0.7613 -1.9373 0.9757
-5.6334 -1.2617 -1.9190 0.9760
-5.4508 -1.7441 -1.9024 0.9762
-5.2323 -2.2062 -1.8875 0.9763
-4.3824 -3.4512 -1.8542 0.9768
-4.0410 -3.8134 -1.8469 0.9769
-2.4385 -4.9594 -1.8370 0.9770
-0.5558 -5.5622 -1.8581 0.9767
-0.0575 -5.6198 -1.8682 0.9766
1.9723 -5.4511 -1.9269 0.9759
2.4751 -5.3055 -1.9461 0.9756
4.3728 -4.2991 -2.0384 0.9745
5.2019 -3.5451 -2.0925 0.9738
5.7583 -1.9734 -2.0234 0.9747
5.9933 -1.4718 -2.0514 0.9743
6.3273 -0.3935 -2.1073 0.9736
6.4194 0.1749 -2.1347 0.9733
6.4576 0.7563 -2.1612 0.9730
6.4393 1.3451 -2.1867 0.9727
4.0773 4.4705 -2.0112 0.9748
3.5810 4.7098 -1.9667 0.9754
1.4624 3.6397 -1.3039 0.9836
1.6858 5.5943 -1.9422 0.9757
0.3466 3.0272 -1.0128 0.9872
0.1553 6.2991 -2.0945 0.9738
-2.1457 6.2088 -2.1836 0.9727
-2.6596 5.9223 -2.1580 0.9730
-3.1382 5.5914 -2.1313 0.9733
-3.9761 4.8162 -2.0760 0.9740
-4.3307 4.3822 -2.0480 0.9744
-2.4159 2.0430 -1.0517 0.9868
-5.5123 3.1801 -2.1154 0.9735
-5.8374 2.0950 -2.0616 0.9742
-5.9243 1.5457 -2.0352 0.9745
-5.9583 0.4569 -1.9864 0.9751
-5.6844 -1.1022 -1.9247 0.9759
-5.3066 -2.0595 -1.8921 0.9763
-4.7911 -2.9302 -1.8668 0.9766
-3.4116 -4.3553 -1.8390 0.9769
-3.0059 -4.6369 -1.8369 0.9770
-2.5799 -4.8861 -1.8367 0.9770
-2.1356 -5.1017 -1.8384 0.9770
-0.7147 -5.5354 -1.8553 0.9767
-0.2191 -5.6055 -1.8647 0.9766
0.7911 -5.6283 -1.8893 0.9763
1.3004 -5.5793 -1.9043 0.9761
2.3136 -5.3571 -1.9397 0.9757
2.8115 -5.1829 -1.9600 0.9755
3.7731 -4.7069 -2.0052 0.9749
5.4449 -3.2466 -2.1072 0.9736
6.1276 -1.1168 -2.0704 0.9741
4.7966 -2.6940 -1.9673 0.9769
5.7199 -0.8899 -2.0701 0.9757
5.8481 -0.3806 -2.0957 0.9754
5.9603 0.6806 -2.1453 0.9748
5.8659 1.7658 -2.1907 0.9743
5.7380 2.3034 -2.2111 0.9741
5.5558 2.8298 -2.2297 0.9739
5.3201 3.3387 -2.2461 0.9737
4.6196 4.2108 -2.2353 0.9738
3.8584 4.2061 -2.0411 0.9760
3.3992 4.4440 -2.0008 0.9765
3.1109 4.9224 -2.0824 0.9756
1.5314 3.7801 -1.4585 0.9828
-0.3850 6.2202 -2.2287 0.9739
-0.8969 5.8875 -2.1297 0.9750
-1.9631 5.7339 -2.1673 0.9746
-2.4403 5.4760 -2.1439 0.9749
-3.2966 4.8404 -2.0943 0.9754
-3.6698 4.4714 -2.0686 0.9757
-4.0034 4.0744 -2.0427 0.9760
-2.4145 2.0538 -1.1335 0.9866
-5.4326 1.9674 -2.0662 0.9758
-5.5629 0.9478 -2.0180 0.9763
-5.5223 -0.0549 -1.9749 0.9768
-5.1667 -1.4744 -1.9214 0.9774
-4.2166 -3.1092 -1.8735 0.9780
-3.2127 -4.0771 -1.8563 0.9782
-1.5857 -4.9506 -1.8590 0.9782
-0.6850 -5.1878 -1.8713 0.9780
1.6772 -5.1392 -1.9332 0.9773
2.6123 -4.8489 -1.9696 0.9769
3.0661 -4.6443 -1.9901 0.9766
5.0500 -3.0310 -2.1062 0.9753
5.2566 -1.9898 -2.0100 0.9764
5.8118 -0.5469 -2.0875 0.9755
5.9083 -0.0264 -2.1129 0.9752
5.9558 0.5067 -2.1375 0.9749
5.8956 1.5909 -2.1837 0.9744
5.1307 3.6703 -2.2559 0.9736
3.5433 4.3657 -2.0107 0.9764
2.3230 5.2905 -2.0663 0.9758
0.4124 2.8106 -1.0159 0.9880
0.3498 6.2013 -2.2212 0.9740
-0.2061 6.2443 -2.2342 0.9738
-2.2896 5.5640 -2.1516 0.9748
-3.1681 4.9527 -2.1025 0.9753
-3.5537 4.5937 -2.0769 0.9756
-3.9002 4.2053 -2.0511 0.9759
-4.2060 3.7919 -2.0251 0.9762
-5.2471 2.6365 -2.0999 0.9754
-5.3949 2.1315 -2.0744 0.9757
-5.4965 1.6218 -2.0494 0.9759
-5.5538 1.1118 -2.0255 0.9762
-5.5678 0.6050 -2.0028 0.9765
-5.5400 0.1046 -1.9815 0.9767
-5.3648 -0.8647 -1.9432 0.9772
-5.2208 -1.3284 -1.9265 0.9774
-4.8289 -2.2021 -1.8979 0.9777
-4.3109 -2.9909 -1.8763 0.9780
-3.6820 -3.6809 -1.8618 0.9781
-3.3308 -3.9851 -1.8573 0.9782
-2.5646 -4.5052 -1.8538 0.9782
-2.1535 -4.7186 -1.8548 0.9782
-0.8331 -5.1591 -1.8688 0.9780
-0.3711 -5.2360 -1.8771 0.9779
0.0981 -5.2764 -1.8872 0.9778
1.0483 -5.2447 -1.9126 0.9775
1.5242 -5.1712 -1.9279 0.9774
2.4635 -4.9064 -1.9633 0.9769
3.3660 -4.4831 -2.0048 0.9765
4.2052 -3.9025 -2.0516 0.9759
4.9017 -2.5521 -1.9762 0.9768
5.4141 -1.6827 -2.0275 0.9762
5.6135 -1.2081 -2.0534 0.9759
5.7706 -0.7113 -2.0792 0.9756
5.9460 0.3337 -2.1297 0.9750
5.9590 0.8726 -2.1537 0.9747
5.9197 1.4158 -2.1766 0.9745
5.4782 3.0127 -2.2358 0.9738
5.2238 3.5139 -2.2514 0.9736
4.4285 4.3014 -2.2077 0.9741
3.6887 4.2862 -2.0222 0.9763
2.4739 5.2201 -2.0658 0.9758
0.5197 2.9475 -1.0703 0.9874
0.5227 6.1221 -2.1973 0.9742
-1.0911 5.9001 -2.1457 0.9748
-1.6404 5.8763 -2.1818 0.9744
-2.1358 5.6474 -2.1592 0.9747
-2.6022 5.3744 -2.1353 0.9750
-3.4335 4.7129 -2.0852 0.9755
-4.1119 3.9277 -2.0335 0.9761
-5.5679 0.7679 -2.0100 0.9764
-5.1031 -1.6329 -1.9160 0.9775
-4.9010 -2.0665 -1.9021 0.9777
-4.4023 -2.8700 -1.8793 0.9779
-4.1095 -3.2363 -1.8706 0.9780
-3.7903 -3.5768 -1.8637 0.9781
-3.4466 -3.8901 -1.8586 0.9782
-3.0803 -4.1748 -1.8553 0.9782
-2.6934 -4.4296 -1.8539 0.9782
-1.4293 -5.0028 -1.8606 0.9781
0.8946 -5.2602 -1.9081 0.9776
1.3709 -5.1992 -1.9228 0.9774
3.2240 -4.5621 -1.9977 0.9765
4.0753 -4.0066 -2.0437 0.9760
4.4700 -3.6709 -2.0685 0.9757
5.3412 -1.8305 -2.0191 0.9763
5.8515 -0.3639 -2.0966 0.9754
5.9309 0.1616 -2.1217 0.9751
5.9605 0.6980 -2.1461 0.9748
5.9382 1.2404 -2.1694 0.9746
5.7330 2.3206 -2.2117 0.9741
5.5490 2.8465 -2.2302 0.9739
5.3116 3.3547 -2.2466 0.9737
4.6020 4.2191 -2.2327 0.9738
2.6249 5.1497 -2.0670 0.9757
1.5191 3.7809 -1.4571 0.9828
0.6185 2.9996 -1.0952 0.9871
0.1547 6.2752 -2.2447 0.9737
-0.4029 6.2175 -2.2281 0.9739
-0.9135 5.8829 -2.1290 0.9750
-1.4751 5.9402 -2.1888 0.9743
-1.9790 5.7263 -2.1666 0.9746
-2.4552 5.4670 -2.1431 0.9749
-3.6812 4.4590 -2.0678 0.9757
-4.0135 4.0612 -2.0418 0.9760
-2.4169 2.0438 -1.1319 0.9866
-4.5535 3.2003 -1.9903 0.9766
-5.3054 2.4584 -2.0910 0.9755
-5.5218 1.4407 -2.0407 0.9760
-5.5203 -0.0708 -1.9743 0.9768
-5.1611 -1.4889 -1.9209 0.9774
-4.9698 -1.9288 -1.9064 0.9776
-4.7457 -2.3487 -1.8936 0.9778
-4.4908 -2.7466 -1.8825 0.9779
-3.2008 -4.0861 -1.8562 0.9782
-2.8204 -4.3507 -1.8542 0.9782
-2.4207 -4.5846 -1.8540 0.9782
-2.0037 -4.7865 -1.8556 0.9782
-0.6702 -5.1905 -1.8716 0.9780
-0.2054 -5.2546 -1.8805 0.9779
1.6924 -5.1358 -1.9337 0.9773
2.1633 -5.0091 -1.9512 0.9771
3.5203 -4.3915 -2.0127 0.9764
3.9431 -4.1067 -2.0360 0.9761
4.3453 -3.7833 -2.0604 0.9758
4.7232 -3.4223 -2.0858 0.9755
5.0601 -3.0172 -2.1068 0.9753
5.4894 -1.5171 -2.0367 0.9761
5.6743 -1.0342 -2.0626 0.9758
4.4756 -2.5137 -1.9671 0.9783
4.7381 -2.1295 -1.9907 0.9780
4.9682 -1.7186 -2.0146 0.9777
5.1627 -1.2836 -2.0387 0.9775
5.3186 -0.8275 -2.0627 0.9772
5.4330 -0.3536 -2.0864 0.9769
5.5280 0.6313 -2.1322 0.9764
4.9174 3.0860 -2.2248 0.9754
4.3358 3.9521 -2.2482 0.9752
3.3828 4.4226 -2.1337 0.9764
3.1069 4.9161 -2.2286 0.9754
0.6336 3.0286 -1.1857 0.9868
0.3338 2.8430 -1.0970 0.9878
0.1597 5.8013 -2.2240 0.9754
-1.8194 5.3140 -2.1525 0.9762
-2.2634 5.0791 -2.1309 0.9765
-2.6789 4.8055 -2.1084 0.9767
-3.0628 4.4970 -2.0851 0.9770
-3.4125 4.1579 -2.0613 0.9772
-4.4359 2.5762 -1.9658 0.9783
-5.2115 0.4147 -2.0034 0.9779
-5.1764 -0.0515 -1.9838 0.9781
-4.6749 -1.7989 -1.9196 0.9788
-4.2301 -2.5704 -1.8969 0.9790
-3.9652 -2.9239 -1.8880 0.9791
-2.6657 -4.0863 -1.8697 0.9793
-1.0732 -4.7849 -1.8792 0.9792
-0.6442 -4.8790 -1.8859 0.9791
-0.2073 -4.9389 -1.8944 0.9790
0.2355 -4.9640 -1.9044 0.9789
0.6817 -4.9536 -1.9162 0.9788
1.5742 -4.8237 -1.9445 0.9785
2.0153 -4.7035 -1.9609 0.9783
2.4491 -4.5460 -1.9788 0.9781
2.8727 -4.3513 -1.9981 0.9779
3.2829 -4.1196 -2.0187 0.9777
3.6766 -3.8514 -2.0405 0.9774
4.0505 -3.5472 -2.0633 0.9772
4.4010 -3.2082 -2.0871 0.9769
4.8977 -1.8539 -2.0069 0.9778
5.1040 -1.4264 -2.0309 0.9776
5.2727 -0.9767 -2.0550 0.9773
5.4008 -0.5082 -2.0788 0.9770
5.4857 -0.0245 -2.1023 0.9768
5.5253 0.4701 -2.1250 0.9765
5.4609 1.4736 -2.1676 0.9761
4.9939 2.9369 -2.2202 0.9755
4.7408 3.3914 -2.2338 0.9753
4.4417 3.8202 -2.2451 0.9752
3.2594 4.8425 -2.2369 0.9753
1.6652 3.7925 -1.5873 0.9824
0.4129 2.8135 -1.0897 0.9879
0.3275 5.8058 -2.2284 0.9754
-0.1906 5.7741 -2.2139 0.9756
-2.5482 4.8977 -2.1157 0.9766
-2.9426 4.6001 -2.0927 0.9769
-3.3036 4.2704 -2.0690 0.9771
-3.6289 3.9127 -2.0450 0.9774
-2.6117 1.9621 -1.2518 0.9861
-4.3765 2.7133 -1.9733 0.9782
-5.1976 1.0405 -2.0313 0.9775
-5.2145 0.5666 -2.0100 0.9778
-5.1312 -0.3622 -1.9713 0.9782
-5.0338 -0.8114 -1.9540 0.9784
-4.3097 -2.4516 -1.9001 0.9790
-4.0536 -2.8124 -1.8907 0.9791
-3.1339 -3.7495 -1.8727 0.9793
-2.7830 -4.0088 -1.8701 0.9793
-2.4132 -4.2393 -1.8694 0.9793
-1.6244 -4.6097 -1.8730 0.9793
-0.7836 -4.8523 -1.8836 0.9792
-0.3490 -4.9234 -1.8915 0.9791
0.5375 -4.9609 -1.9122 0.9789
0.9846 -4.9260 -1.9251 0.9787
2.3101 -4.6009 -1.9729 0.9782
2.7373 -4.4182 -1.9917 0.9780
3.1522 -4.1984 -2.0119 0.9778
3.5516 -3.9419 -2.0333 0.9775
3.9323 -3.6492 -2.0558 0.9773
4.6165 -2.9550 -2.1005 0.9768
4.5723 -2.3806 -1.9755 0.9782
5.2226 -1.1240 -2.0472 0.9774
5.3640 -0.6612 -2.0712 0.9771
5.4632 -0.1820 -2.0948 0.9769
5.5176 0.3096 -2.1178 0.9766
5.5252 0.8091 -2.1400 0.9764
5.4845 1.3117 -2.1610 0.9761
5.2547 2.3054 -2.1990 0.9757
5.0654 2.7857 -2.2153 0.9755
4.8276 3.2474 -2.2296 0.9754
4.1643 4.0448 -2.2247 0.9754
2.4708 5.2135 -2.2109 0.9756
1.3886 3.7664 -1.5383 0.9830
1.5269 5.6516 -2.2434 0.9752
0.5188 2.9425 -1.1450 0.9873
-1.5195 5.4434 -2.1658 0.9761
-2.8189 4.6998 -2.1002 0.9768
-4.8324 2.6052 -2.1038 0.9768
-5.0002 2.1442 -2.0849 0.9770
-5.1128 1.6702 -2.0612 0.9772
-5.2134 0.7190 -2.0168 0.9777
-5.1549 -0.2148 -1.9772 0.9781
-4.7924 -1.5335 -1.9283 0.9787
-4.3864 -2.3305 -1.9035 0.9789
-4.1392 -2.6985 -1.8935 0.9791
-3.5655 -3.3647 -1.8787 0.9792
-2.8984 -3.9282 -1.8708 0.9793
-2.1529 -4.3786 -1.8698 0.9793
-1.7556 -4.5584 -1.8719 0.9793
-1.3446 -4.7066 -1.8758 0.9793
-0.4900 -4.9042 -1.8887 0.9791
-0.0507 -4.9519 -1.8977 0.9790
0.3936 -4.9644 -1.9084 0.9789
1.2872 -4.8816 -1.9347 0.9786
1.7314 -4.7853 -1.9501 0.9784
3.4247 -4.0286 -2.0263 0.9776
3.8117 -3.7475 -2.0484 0.9774
4.1777 -3.4308 -2.0716 0.9771
4.5180 -3.0790 -2.0952 0.9769
4.4846 -2.5018 -1.9679 0.9782
4.7461 -2.1167 -1.9915 0.9780
5.3229 -0.8124 -2.0635 0.9772
5.4360 -0.3381 -2.0872 0.9769
5.5051 0.1500 -2.1104 0.9767
3.0917 4.9232 -2.2278 0.9754
1.5127 3.7649 -1.5549 0.9828
1.6815 5.5801 -2.2334 0.9753
-0.8773 5.6499 -2.1911 0.9758
-2.2772 5.0708 -2.1302 0.9765
-5.0810 1.8235 -2.0687 0.9771
-5.1008 -0.5230 -1.9650 0.9783
-4.6687 -1.8120 -1.9192 0.9788
-4.2220 -2.5822 -1.8965 0.9790
-3.9563 -2.9349 -1.8877 0.9791
-3.6648 -3.2639 -1.8806 0.9792
-3.3493 -3.5676 -1.8752 0.9793
-2.6539 -4.0939 -1.8697 0.9793
-2.2778 -4.3140 -1.8695 0.9793
-1.8854 -4.5038 -1.8711 0.9793
-1.0595 -4.7885 -1.8794 0.9792
-0.1931 -4.9403 -1.8947 0.9790
0.2499 -4.9643 -1.9048 0.9789
0.6961 -4.9526 -1.9166 0.9788
2.0294 -4.6990 -1.9615 0.9783
2.8861 -4.3444 -1.9988 0.9779
3.2959 -4.1116 -2.0194 0.9777
4.4119 -3.1967 -2.0879 0.9769
5.1101 -1.4122 -2.0317 0.9775
5.4042 -0.4928 -2.0796 0.9770
4.4327 -1.9922 -1.9890 0.9792
4.6444 -1.6066 -2.0113 0.9790
4.8224 -1.1990 -2.0338 0.9788
5.1290 0.1249 -2.0998 0.9781
5.0520 1.5208 -2.1593 0.9775
4.9354 1.9813 -2.1766 0.9773
3.2969 4.3102 -2.2210 0.9768
2.9272 4.6317 -2.2425 0.9766
1.5239 3.7615 -1.6610 0.9826
1.5905 5.2235 -2.2347 0.9767
-0.3308 5.3443 -2.1915 0.9771
-1.2561 5.1216 -2.1583 0.9775
-1.6933 4.9456 -2.1395 0.9777
-2.1079 4.7302 -2.1195 0.9779
-2.4967 4.4787 -2.0986 0.9781
-2.8566 4.1944 -2.0770 0.9783
-3.1852 3.8810 -2.0549 0.9785
-4.7612 1.7242 -2.0725 0.9784
-4.8447 1.2790 -2.0508 0.9786
-2.1302 0.3629 -0.8844 0.9907
-1.9556 0.1556 -0.8029 0.9916
-2.2128 -0.4224 -0.9220 0.9903
-4.5677 -1.3035 -1.9441 0.9797
-4.4034 -1.6944 -1.9310 0.9798
-3.9872 -2.4228 -1.9095 0.9800
-3.1689 -3.3561 -1.8891 0.9802
-2.8515 -3.6187 -1.8856 0.9803
-2.1605 -4.0634 -1.8835 0.9803
-1.7906 -4.2432 -1.8849 0.9803
-1.0121 -4.5126 -1.8928 0.9802
0.6422 -4.6664 -1.9278 0.9798
1.0629 -4.6206 -1.9405 0.9797
1.4817 -4.5402 -1.9546 0.9796
2.3027 -4.2743 -1.9871 0.9792
3.0830 -3.8688 -2.0247 0.9788
3.7987 -3.3267 -2.0666 0.9784
4.1245 -3.0066 -2.0890 0.9782
4.4112 -2.6475 -2.1056 0.9780
4.3578 -2.1115 -1.9819 0.9793
4.9226 -0.9119 -2.0490 0.9786
5.0383 -0.4741 -2.0712 0.9784
5.0798 1.3708 -2.1534 0.9775
4.9780 1.8336 -2.1712 0.9773
4.6376 2.7273 -2.2019 0.9770
4.4006 3.1481 -2.2145 0.9769
4.1214 3.5447 -2.2249 0.9768
3.0588 4.5444 -2.2420 0.9766
2.2013 5.0134 -2.2409 0.9766
1.7419 5.1799 -2.2367 0.9767
1.2689 5.2986 -2.2299 0.9767
0.4304 2.9334 -1.2134 0.9873
-0.6503 5.2890 -2.1810 0.9772
-1.1110 5.1695 -2.1640 0.9774
-1.9768 4.8038 -2.1260 0.9778
-2.3743 4.5636 -2.1054 0.9780
-3.3890 3.6541 -2.0397 0.9787
-4.0967 2.5398 -1.9728 0.9794
-4.5782 2.3004 -2.0970 0.9781
-4.7258 1.8672 -2.0797 0.9783
-4.8220 1.4228 -2.0577 0.9785
