ply
format ascii 1.0
element vertex 1593
property float32 x
property float32 y
property float32 z
property float32 I
end_header
-3.2335 -6.0148 -1.7681 0.9722
0.9360 -7.0047 -1.8298 0.9712
1.5734 -6.9612 -1.8478 0.9709
2.2130 -6.8676 -1.8682 0.9706
2.8517 -6.7229 -1.8908 0.9703
3.4860 -6.5258 -1.9156 0.9699
4.1121 -6.2754 -1.9426 0.9695
4.7259 -5.9710 -1.9716 0.9690
5.3229 -5.6121 -2.0027 0.9685
6.4472 -4.7299 -2.0703 0.9675
7.4289 -3.6258 -2.1403 0.9664
7.6670 -2.1646 -2.0627 0.9676
7.9713 -1.4977 -2.1000 0.9670
8.2174 -0.7936 -2.1375 0.9665
8.5123 0.7048 -2.2115 0.9653
8.5510 1.4860 -2.2472 0.9648
8.5115 2.2780 -2.2813 0.9642
7.1200 3.3554 -2.0379 0.9680
6.2623 3.6678 -1.8791 0.9705
4.2852 4.3962 -1.5895 0.9750
2.2417 5.0901 -1.4401 0.9773
-0.7608 6.2139 -1.6209 0.9745
-1.7465 5.6315 -1.5266 0.9759
-3.2847 7.9871 -2.2361 0.9649
-3.9208 7.5383 -2.2000 0.9655
-5.0239 6.4933 -2.1257 0.9666
-5.8849 5.3027 -2.0510 0.9678
-2.6369 1.6331 -0.8031 0.9873
-7.2320 3.6288 -2.0950 0.9671
-7.3986 2.9176 -2.0592 0.9677
-7.5477 1.5043 -1.9927 0.9687
-7.4677 0.1332 -1.9338 0.9696
-7.1800 -1.1665 -1.8834 0.9704
-6.9652 -1.7822 -1.8615 0.9707
-6.4070 -2.9337 -1.8245 0.9713
-5.6948 -3.9656 -1.7968 0.9717
-5.2870 -4.4326 -1.7864 0.9719
-4.3797 -5.2616 -1.7725 0.9721
-3.8847 -5.6209 -1.7691 0.9722
-2.8228 -6.2230 -1.7693 0.9722
-2.2602 -6.4634 -1.7729 0.9721
-1.0826 -6.8164 -1.7870 0.9719
-0.4722 -6.9265 -1.7976 0.9717
0.7798 -7.0079 -1.8257 0.9713
1.4162 -6.9765 -1.8432 0.9710
3.3305 -6.5792 -1.9093 0.9700
4.5761 -6.0510 -1.9643 0.9691
5.1777 -5.7055 -1.9949 0.9687
5.7590 -5.3052 -2.0274 0.9682
6.3148 -4.8502 -2.0616 0.9676
6.8399 -4.3411 -2.0975 0.9671
2.3346 -0.9505 -0.6526 0.9896
7.5838 -2.3226 -2.0536 0.9678
-3.6107 -5.2093 -1.7943 0.9740
-3.1291 -5.5078 -1.7933 0.9740
-2.1044 -5.9916 -1.7977 0.9739
-1.5656 -6.1745 -1.8033 0.9739
0.1296 -6.4734 -1.8329 0.9734
1.3007 -6.4529 -1.8635 0.9730
2.4790 -6.2465 -1.9025 0.9724
3.0630 -6.0713 -1.9251 0.9721
3.6388 -5.8470 -1.9496 0.9718
4.2028 -5.5732 -1.9761 0.9714
4.7508 -5.2494 -2.0043 0.9710
5.2784 -4.8759 -2.0343 0.9706
6.2538 -3.9810 -2.0987 0.9697
6.6842 -3.4582 -2.1305 0.9692
2.3327 -0.9534 -0.7134 0.9896
6.9048 -2.1249 -2.0452 0.9704
7.7264 1.1573 -2.2117 0.9680
5.7013 3.8663 -1.9501 0.9718
5.0317 4.1136 -1.8399 0.9733
4.4286 4.3357 -1.7545 0.9746
3.4171 4.8158 -1.6717 0.9758
1.9102 5.2529 -1.5823 0.9770
0.9596 5.5943 -1.6068 0.9767
0.2237 2.7752 -0.7882 0.9885
-0.0260 2.8846 -0.8166 0.9881
-3.4024 6.9329 -2.1863 0.9684
-4.4423 6.0277 -2.1197 0.9694
-5.6012 4.4133 -2.0187 0.9708
-6.5610 3.4865 -2.1033 0.9696
-6.9407 0.9121 -1.9818 0.9713
-6.0049 -2.5814 -1.8504 0.9732
-5.0021 -3.9984 -1.8128 0.9737
-4.6041 -4.4093 -1.8047 0.9738
-4.1779 -4.7870 -1.7987 0.9739
-2.2345 -5.9404 -1.7967 0.9740
-1.1496 -6.2854 -1.8089 0.9738
-0.5865 -6.3959 -1.8182 0.9737
-0.0130 -6.4634 -1.8298 0.9735
1.1557 -6.4652 -1.8593 0.9731
2.3344 -6.2822 -1.8973 0.9725
3.4980 -5.9068 -1.9434 0.9719
4.6176 -5.3338 -1.9972 0.9711
6.5873 -3.5940 -2.1243 0.9693
6.4915 -2.8215 -2.0038 0.9710
6.8287 -2.2673 -2.0369 0.9705
7.3592 -1.0497 -2.1044 0.9696
7.5426 -0.3943 -2.1382 0.9691
7.6651 0.2854 -2.1714 0.9686
7.7117 1.6930 -2.2351 0.9677
7.6293 2.4065 -2.2647 0.9673
7.4737 3.1158 -2.2923 0.9669
5.8790 3.8005 -1.9818 0.9713
4.5719 4.2830 -1.7735 0.9743
4.0070 4.4904 -1.7037 0.9753
3.5445 4.7693 -1.6822 0.9756
2.9807 4.8651 -1.6152 0.9766
2.4987 5.0402 -1.5926 0.9769
2.0260 5.2111 -1.5828 0.9770
1.0787 5.5517 -1.6010 0.9768
0.2899 2.8198 -0.8025 0.9883
-0.4673 6.1021 -1.7325 0.9749
-1.0564 6.3103 -1.8113 0.9738
-1.4625 5.6031 -1.6393 0.9762
-3.2608 7.0317 -2.1942 0.9683
-4.3254 6.1480 -2.1280 0.9692
-5.5249 4.5540 -2.0269 0.9707
-2.7416 1.5352 -0.8895 0.9870
-6.7074 3.0036 -2.0805 0.9699
-6.9193 1.7089 -2.0177 0.9708
-6.9145 0.4379 -1.9614 0.9716
-6.7105 -0.7795 -1.9125 0.9723
-6.0731 -2.4538 -1.8543 0.9731
-5.4553 -3.4421 -1.8261 0.9735
-4.7048 -4.3111 -1.8065 0.9738
-4.2854 -4.6971 -1.8000 0.9739
-3.3690 -5.3654 -1.7935 0.9740
-2.8764 -5.6451 -1.7936 0.9740
-1.2863 -6.2518 -1.8069 0.9738
-0.1550 -6.4509 -1.8267 0.9735
1.0108 -6.4748 -1.8552 0.9731
1.6001 -6.4184 -1.8726 0.9729
2.1896 -6.3150 -1.8921 0.9726
3.3565 -5.9636 -1.9373 0.9720
3.9269 -5.7142 -1.9628 0.9716
5.0215 -5.0660 -2.0193 0.9708
6.0251 -4.2193 -2.0823 0.9699
6.7498 -2.4073 -2.0287 0.9706
7.0526 -1.8245 -2.0623 0.9702
7.5029 -0.5581 -2.1299 0.9692
7.7147 0.8102 -2.1960 0.9683
7.7209 1.5176 -2.2276 0.9678
7.5189 2.9420 -2.2857 0.9670
6.8797 3.4293 -2.1762 0.9685
6.0625 3.7325 -2.0155 0.9708
4.7185 4.2290 -1.7938 0.9740
3.1589 4.9099 -1.6528 0.9760
2.6162 4.9976 -1.5969 0.9768
1.1718 3.7433 -1.1104 0.9838
1.1969 5.5094 -1.5960 0.9768
0.7111 5.6832 -1.6214 0.9765
0.0933 2.6628 -0.7543 0.9890
-0.3297 6.0533 -1.7162 0.9751
-3.1163 7.1274 -2.2021 0.9682
-5.0869 5.2463 -2.0687 0.9701
-5.7477 4.1201 -2.0020 0.9710
-2.6614 1.5683 -0.8745 0.9872
-6.8138 2.5150 -2.0561 0.9703
-6.8600 -0.0287 -1.9420 0.9719
-6.7458 -0.6334 -1.9181 0.9722
-6.3829 -1.7838 -1.8762 0.9728
-5.5389 -3.3266 -1.8291 0.9735
-5.1870 -3.7843 -1.8177 0.9737
-3.9515 -4.9656 -1.7965 0.9740
-3.4870 -5.2908 -1.7938 0.9740
-2.4916 -5.8309 -1.7951 0.9740
-1.9651 -6.0433 -1.7990 0.9739
0.2814 -6.4809 -1.8364 0.9734
0.8661 -6.4816 -1.8512 0.9732
1.4548 -6.4366 -1.8681 0.9729
2.6322 -6.2054 -1.9082 0.9724
4.3478 -5.4934 -1.9833 0.9713
4.8909 -5.1566 -2.0120 0.9709
5.4124 -4.7700 -2.0423 0.9705
6.7827 -3.3104 -2.1366 0.9691
2.3670 -0.9034 -0.7172 0.9895
7.4596 -0.7204 -2.1216 0.9693
7.7027 0.6378 -2.1880 0.9684
7.7259 1.3426 -2.2199 0.9679
7.1080 3.3497 -2.2245 0.9679
6.2525 3.6621 -2.0513 0.9703
4.8684 4.1738 -1.8154 0.9737
3.8045 4.6743 -1.7062 0.9753
2.2390 5.0840 -1.5726 0.9772
1.3144 5.4672 -1.5918 0.9769
0.1526 2.6722 -0.7577 0.9889
-0.1946 6.0054 -1.7010 0.9753
-1.3777 6.4235 -1.8598 0.9731
-1.7438 5.6227 -1.6665 0.9758
-3.5497 6.8247 -2.1777 0.9685
-4.0820 6.3817 -2.1446 0.9690
-4.5629 5.8975 -2.1109 0.9695
-5.3622 4.8317 -2.0433 0.9704
-6.6203 3.3219 -2.0969 0.9697
-6.9349 0.7469 -1.9746 0.9714
-6.7782 -0.4862 -1.9238 0.9721
-6.2028 -2.1937 -1.8626 0.9730
-5.9299 -2.7152 -1.8463 0.9733
-5.6204 -3.2093 -1.8322 0.9735
-5.2766 -3.6744 -1.8203 0.9736
-4.9009 -4.1089 -1.8105 0.9738
-4.0622 -4.8801 -1.7975 0.9739
-3.6036 -5.2141 -1.7943 0.9740
-1.5572 -6.1770 -1.8034 0.9739
0.7217 -6.4857 -1.8474 0.9732
1.3097 -6.4520 -1.8638 0.9730
1.8994 -6.3718 -1.8823 0.9727
2.4879 -6.2442 -1.9028 0.9724
3.6475 -5.8432 -1.9500 0.9718
4.7590 -5.2441 -2.0047 0.9710
5.7885 -4.4460 -2.0663 0.9701
6.2607 -3.9735 -2.0992 0.9696
6.6901 -3.4496 -2.1309 0.9692
6.9094 -2.1160 -2.0457 0.9704
7.1874 -1.5150 -2.0794 0.9699
7.4128 -0.8810 -2.1133 0.9694
-2.9155 -5.1318 -1.8154 0.9756
-2.4469 -5.3749 -1.8164 0.9756
-1.9604 -5.5816 -1.8196 0.9755
-0.9423 -5.8814 -1.8321 0.9754
0.1206 -6.0224 -1.8527 0.9751
0.6628 -6.0307 -1.8661 0.9749
2.3002 -5.7960 -1.9180 0.9742
3.3704 -5.4156 -1.9620 0.9737
3.8889 -5.1568 -1.9866 0.9733
4.3912 -4.8521 -2.0128 0.9730
5.3311 -4.1062 -2.0698 0.9722
5.7599 -3.6667 -2.1001 0.9718
6.1445 -3.1789 -2.1279 0.9715
6.7792 -0.8151 -2.1001 0.9718
7.0409 1.0546 -2.1898 0.9706
7.0064 1.7007 -2.2176 0.9703
6.7418 2.9866 -2.2680 0.9696
5.6928 3.8605 -2.1156 0.9716
4.4226 4.3298 -1.9037 0.9744
3.4128 4.8097 -1.8140 0.9756
2.8572 4.9027 -1.7454 0.9765
2.3788 5.0763 -1.7243 0.9768
1.0078 3.7986 -1.2088 0.9837
0.2243 2.7823 -0.8586 0.9884
-1.2084 6.3555 -1.9899 0.9733
-1.5877 5.5772 -1.7836 0.9760
-2.5600 6.6637 -2.1957 0.9706
-3.1037 6.3242 -2.1668 0.9709
-3.6059 5.9388 -2.1370 0.9713
-4.4730 5.0532 -2.0757 0.9722
-4.8336 4.5646 -2.0449 0.9726
-6.3374 2.0270 -2.0465 0.9725
-6.4208 0.8438 -1.9919 0.9733
-6.3119 -0.3046 -1.9437 0.9739
-6.1903 -0.8576 -1.9222 0.9742
-6.0268 -1.3928 -1.9026 0.9744
-5.5828 -2.4000 -1.8691 0.9749
-4.6571 -3.7226 -1.8338 0.9754
-4.2879 -4.1065 -1.8261 0.9755
-3.8919 -4.4593 -1.8205 0.9755
-2.5640 -5.3183 -1.8160 0.9756
-1.5831 -5.7127 -1.8233 0.9755
2.1665 -5.8303 -1.9131 0.9743
3.7626 -5.2248 -1.9804 0.9734
4.2693 -4.9314 -2.0062 0.9731
4.7568 -4.5922 -2.0336 0.9727
5.2209 -4.2077 -2.0625 0.9723
6.0579 -3.3052 -2.1226 0.9715
6.2667 -2.0807 -2.0310 0.9727
6.7352 -0.9607 -2.0926 0.9719
6.8936 -0.3604 -2.1232 0.9715
7.0397 0.8964 -2.1827 0.9707
7.0208 1.5413 -2.2109 0.9704
6.9376 2.1883 -2.2375 0.9700
6.7886 2.8302 -2.2622 0.9697
5.8701 3.7948 -2.1499 0.9712
3.5400 4.7633 -1.8254 0.9755
2.9771 4.8591 -1.7528 0.9764
2.4956 5.0340 -1.7282 0.9768
2.0235 5.2048 -1.7176 0.9769
0.0352 2.7040 -0.8318 0.9887
-0.4667 6.0940 -1.8799 0.9747
-1.0550 6.3015 -1.9652 0.9736
-2.9735 6.4123 -2.1740 0.9709
-3.4863 6.0376 -2.1444 0.9712
-3.9549 5.6214 -2.1141 0.9716
-4.3766 5.1693 -2.0833 0.9721
-5.0723 4.1809 -2.0218 0.9729
-2.7329 1.5304 -0.9634 0.9870
-6.1797 2.7673 -2.0826 0.9721
-6.4015 0.4054 -1.9729 0.9735
-6.3352 -0.1660 -1.9492 0.9738
-6.2242 -0.7230 -1.9273 0.9741
-5.0765 -3.2031 -1.8463 0.9752
-4.3814 -4.0148 -1.8278 0.9754
-3.9918 -4.3754 -1.8217 0.9755
-3.5770 -4.7039 -1.8176 0.9756
-2.2020 -5.4844 -1.8178 0.9756
2.0325 -5.8618 -1.9083 0.9744
2.5749 -5.7167 -1.9285 0.9741
4.1461 -5.0079 -1.9997 0.9732
5.8849 -2.7134 -1.9932 0.9732
6.1964 -2.2100 -2.0235 0.9728
6.8597 -0.5103 -2.1157 0.9716
6.9764 0.1060 -2.1460 0.9712
7.0346 0.7388 -2.1756 0.9708
7.0314 1.3821 -2.2041 0.9705
6.8314 2.6731 -2.2563 0.9698
6.6325 3.3060 -2.2794 0.9695
5.3440 3.9897 -2.0513 0.9725
4.7120 4.2232 -1.9462 0.9739
4.1366 4.4350 -1.8654 0.9749
3.6689 4.7161 -1.8378 0.9753
2.6130 4.9915 -1.7329 0.9767
2.1393 5.1630 -1.7189 0.9769
1.1954 5.5026 -1.7320 0.9767
0.7102 5.6761 -1.7595 0.9763
0.0928 2.6476 -0.8148 0.9890
-2.8409 6.4975 -2.1812 0.9708
-3.3640 6.1339 -2.1518 0.9711
-3.8438 5.7274 -2.1216 0.9715
-4.2772 5.2836 -2.0909 0.9720
-4.6623 4.8084 -2.0600 0.9724
-4.9975 4.3075 -2.0293 0.9728
-5.2821 3.7864 -1.9990 0.9732
-6.2857 2.3201 -2.0609 0.9723
-6.3776 1.7250 -2.0321 0.9727
-6.4108 0.5479 -1.9790 0.9734
-6.2555 -0.5874 -1.9325 0.9740
-5.9285 -1.6568 -1.8933 0.9746
-5.7059 -2.1605 -1.8766 0.9748
-5.1537 -3.0953 -1.8491 0.9752
-4.4732 -3.9213 -1.8297 0.9754
-3.6813 -4.6261 -1.8184 0.9756
-2.7949 -5.1988 -1.8155 0.9756
-0.2760 -5.9893 -1.8441 0.9752
0.2618 -6.0286 -1.8560 0.9751
3.5073 -5.3524 -1.9682 0.9736
4.0219 -5.0816 -1.9933 0.9732
4.9956 -4.4027 -2.0481 0.9725
5.4462 -3.9955 -2.0776 0.9721
2.3698 -0.9045 -0.7802 0.9894
6.4035 -1.8079 -2.0466 0.9725
6.9530 -0.0475 -2.1386 0.9713
7.0259 0.5818 -2.1684 0.9709
7.0380 1.2231 -2.1972 0.9705
6.8703 2.5152 -2.2503 0.9698
6.2427 3.6564 -2.2252 0.9702
4.2739 4.3845 -1.8833 0.9747
3.2793 4.8585 -1.8029 0.9758
2.7310 4.9486 -1.7385 0.9766
2.2362 5.0778 -1.7066 0.9770
1.7850 5.2908 -1.7175 0.9769
0.8312 5.6329 -1.7513 0.9765
-0.7588 6.1971 -1.9203 0.9742
-1.3757 6.4144 -2.0178 0.9729
-1.7411 5.6140 -1.8079 0.9757
-3.2391 6.2276 -2.1591 0.9711
-3.7299 5.8312 -2.1291 0.9714
-4.1750 5.3960 -2.0985 0.9719
-4.5721 4.9280 -2.0676 0.9723
-4.9197 4.4329 -2.0369 0.9727
-2.6408 1.6355 -0.9554 0.9871
-6.2551 2.4667 -2.0681 0.9723
-6.4172 0.6911 -1.9852 0.9734
-6.2843 -0.4508 -1.9379 0.9740
-6.1515 -0.9994 -1.9169 0.9743
-5.9774 -1.5294 -1.8978 0.9745
-5.7642 -2.0386 -1.8806 0.9747
-5.2290 -2.9858 -1.8521 0.9751
-4.5633 -3.8259 -1.8316 0.9754
-4.1869 -4.2018 -1.8245 0.9755
-3.7842 -4.5462 -1.8194 0.9755
-3.3574 -4.8580 -1.8163 0.9756
-2.9085 -5.1357 -1.8154 0.9756
-2.4396 -5.3783 -1.8165 0.9756
-1.9529 -5.5845 -1.8197 0.9755
-0.4072 -5.9733 -1.8415 0.9753
0.6711 -6.0305 -1.8663 0.9749
1.2170 -5.9955 -1.8817 0.9747
2.8478 -5.6257 -1.9394 0.9740
3.3784 -5.4120 -1.9623 0.9737
3.8966 -5.1525 -1.9870 0.9733
4.3987 -4.8471 -2.0133 0.9730
6.5846 -1.3879 -2.0698 0.9722
6.7818 -0.8060 -2.1006 0.9718
-3.1462 -4.5391 -1.8358 0.9770
-2.7268 -4.7996 -1.8349 0.9770
-2.2884 -5.0267 -1.8359 0.9770
-1.8332 -5.2195 -1.8389 0.9770
-0.3881 -5.5805 -1.8595 0.9767
0.6188 -5.6301 -1.8828 0.9764
1.1278 -5.5950 -1.8972 0.9762
2.1435 -5.4010 -1.9315 0.9758
2.6441 -5.2411 -1.9513 0.9756
3.1358 -5.0387 -1.9728 0.9753
3.6150 -4.7937 -1.9958 0.9750
4.0782 -4.5063 -2.0203 0.9747
4.9412 -3.8059 -2.0732 0.9741
5.3329 -3.3948 -2.1014 0.9737
5.6795 -2.9383 -2.1256 0.9734
6.0655 -1.2871 -2.0611 0.9742
6.2407 -0.7503 -2.0894 0.9739
6.3669 -0.1924 -2.1173 0.9735
6.4597 0.9676 -2.1712 0.9728
6.3241 2.1490 -2.2202 0.9722
5.6749 3.8484 -2.2792 0.9715
4.4166 4.3239 -2.0545 0.9743
3.3468 4.7167 -1.9225 0.9759
2.8537 4.8966 -1.8839 0.9764
2.3759 5.0701 -1.8612 0.9767
0.9573 5.5805 -1.8821 0.9764
0.2252 2.7930 -0.9314 0.9883
-0.6060 6.1351 -2.0493 0.9743
-3.7395 5.0740 -2.0952 0.9738
-4.4590 4.2109 -2.0387 0.9745
-5.1953 2.7608 -1.9556 0.9755
-5.7555 2.4266 -2.0763 0.9740
-5.8787 1.8802 -2.0516 0.9743
-5.9465 1.3304 -2.0255 0.9746
-5.7676 -0.7991 -1.9355 0.9758
-5.4331 -1.7798 -1.9004 0.9762
-5.2114 -2.2403 -1.8856 0.9764
-4.0088 -3.8392 -1.8451 0.9769
-3.6393 -4.1698 -1.8397 0.9769
-1.0006 -5.4711 -1.8488 0.9768
-0.5102 -5.5636 -1.8571 0.9767
-0.0113 -5.6177 -1.8674 0.9766
0.4938 -5.6326 -1.8795 0.9764
1.0023 -5.6074 -1.8935 0.9763
1.5118 -5.5414 -1.9093 0.9761
3.0158 -5.0925 -1.9673 0.9754
3.4984 -4.8580 -1.9900 0.9751
4.4145 -4.2618 -2.0396 0.9745
5.6005 -3.0556 -2.1207 0.9735
6.2020 -0.8846 -2.0824 0.9739
6.4362 1.4129 -2.1904 0.9726
6.0093 3.1625 -2.2572 0.9718
5.7481 3.7159 -2.2752 0.9716
5.1746 4.0437 -2.1830 0.9727
3.9965 4.4786 -1.9953 0.9750
3.4715 4.6711 -1.9346 0.9758
2.9733 4.8530 -1.8919 0.9763
2.4925 5.0278 -1.8654 0.9766
2.0210 5.1984 -1.8540 0.9768
1.0365 3.5864 -1.2409 0.9844
1.0760 5.5380 -1.8753 0.9765
0.0349 2.6840 -0.8922 0.9887
-0.4660 6.0858 -2.0289 0.9746
-1.4609 5.5968 -1.9227 0.9759
-3.6388 5.1721 -2.1021 0.9737
-4.3801 4.3228 -2.0456 0.9744
-4.9402 3.3791 -1.9895 0.9751
-5.7143 2.5589 -2.0812 0.9740
-5.8547 2.0157 -2.0583 0.9742
-5.8969 -0.1545 -1.9608 0.9754
-5.7981 -0.6735 -1.9403 0.9757
-5.6593 -1.1772 -1.9214 0.9759
-5.0220 -2.5727 -1.8756 0.9765
-4.4333 -3.3865 -1.8544 0.9768
-4.0959 -3.7532 -1.8467 0.9769
-3.7325 -4.0912 -1.8409 0.9769
-2.9358 -4.6754 -1.8351 0.9770
-2.5065 -4.9191 -1.8352 0.9770
-2.0593 -5.1289 -1.8372 0.9770
-1.5964 -5.3038 -1.8411 0.9769
-0.1348 -5.6080 -1.8647 0.9766
0.3690 -5.6326 -1.8763 0.9765
0.8769 -5.6174 -1.8899 0.9763
1.8946 -5.4643 -1.9224 0.9759
3.3808 -4.9197 -1.9843 0.9752
3.8524 -4.6531 -2.0080 0.9749
4.7378 -3.9936 -2.0597 0.9742
5.1438 -3.6022 -2.0874 0.9739
6.1604 -1.0175 -2.0755 0.9740
6.3111 -0.4695 -2.1036 0.9737
6.0645 3.0229 -2.2524 0.9718
5.8178 3.5819 -2.2710 0.9716
4.7054 4.2173 -2.1004 0.9737
4.1311 4.4291 -2.0132 0.9748
3.1082 4.8310 -1.9095 0.9761
2.1367 5.1566 -1.8554 0.9767
1.1940 5.4958 -1.8694 0.9766
0.7093 5.6689 -1.8991 0.9762
0.0928 2.6480 -0.8807 0.9889
-2.6073 5.9631 -2.1633 0.9729
-3.5356 5.2682 -2.1090 0.9736
-3.9389 4.8656 -2.0809 0.9740
-4.6129 3.9760 -2.0243 0.9747
-4.8812 3.4990 -1.9964 0.9750
-2.6613 1.5682 -1.0268 0.9871
-5.8278 2.1511 -2.0649 0.9742
-5.9190 1.6010 -2.0382 0.9745
-5.9629 1.0525 -2.0128 0.9748
-5.9149 -0.0247 -1.9661 0.9754
-5.8263 -0.5471 -1.9452 0.9756
-5.6971 -1.0548 -1.9259 0.9759
-5.5293 -1.5453 -1.9084 0.9761
-4.8143 -2.8914 -1.8667 0.9766
-4.5122 -3.2919 -1.8566 0.9767
-3.8243 -4.0108 -1.8421 0.9769
-3.0385 -4.6104 -1.8354 0.9770
-2.6139 -4.8622 -1.8350 0.9770
-2.1709 -5.0805 -1.8365 0.9770
-1.2383 -5.4118 -1.8454 0.9769
-0.7529 -5.5228 -1.8528 0.9768
-0.2579 -5.5959 -1.8621 0.9767
3.2624 -4.9788 -1.9786 0.9752
4.1962 -4.4242 -2.0269 0.9746
4.6338 -4.0838 -2.0531 0.9743
2.3733 -0.9058 -0.8444 0.9893
5.9068 -1.6676 -2.0402 0.9745
6.1159 -1.1491 -2.0685 0.9741
6.2786 -0.6063 -2.0967 0.9738
6.3914 -0.0437 -2.1246 0.9734
6.4512 0.5342 -2.1517 0.9731
6.2888 2.3024 -2.2261 0.9722
6.1162 2.8824 -2.2475 0.9719
5.8840 3.4463 -2.2667 0.9717
5.5023 3.9222 -2.2461 0.9719
4.8548 4.1621 -2.1256 0.9734
4.2681 4.3786 -2.0326 0.9746
3.2159 4.7645 -1.9108 0.9761
1.7828 5.2843 -1.8538 0.9768
0.8301 5.6258 -1.8903 0.9763
0.1583 2.7720 -0.9229 0.9884
-0.7577 6.1886 -2.0725 0.9741
-1.3738 6.4051 -2.1775 0.9728
-1.7384 5.6054 -1.9508 0.9756
-2.4827 6.0369 -2.1698 0.9729
-2.9752 5.7202 -2.1432 0.9732
-3.8436 4.9677 -2.0878 0.9739
-4.2141 4.5422 -2.0596 0.9742
-4.8195 3.6180 -2.0032 0.9749
-2.6441 1.6376 -1.0338 0.9870
-5.2397 2.6291 -1.9487 0.9756
-5.9010 1.7364 -2.0447 0.9744
-5.9564 1.1872 -2.0189 0.9747
-5.9656 0.6425 -1.9945 0.9750
-5.9302 0.1058 -1.9716 0.9753
-5.8519 -0.4197 -1.9502 0.9756
-5.5741 -1.4262 -1.9126 0.9760
-5.3785 -1.9022 -1.8964 0.9762
-3.5388 -4.2513 -1.8387 0.9770
-3.1400 -4.5433 -1.8358 0.9770
-1.8262 -5.2221 -1.8389 0.9770
-0.3805 -5.5814 -1.8596 0.9767
0.1203 -5.6254 -1.8703 0.9766
1.1356 -5.5941 -1.8974 0.9762
1.6447 -5.5173 -1.9137 0.9760
2.1511 -5.3989 -1.9318 0.9758
2.6517 -5.2383 -1.9516 0.9756
3.6222 -4.7897 -1.9961 0.9750
4.0851 -4.5016 -2.0206 0.9747
4.5282 -4.1714 -2.0465 0.9744
4.9474 -3.7999 -2.0736 0.9740
5.3386 -3.3883 -2.1018 0.9737
5.6843 -2.9310 -2.1259 0.9734
6.2430 -0.7420 -2.0898 0.9738
-3.3257 -3.9843 -1.8559 0.9782
-2.1472 -4.7166 -1.8533 0.9782
-0.3638 -5.2321 -1.8755 0.9780
2.0048 -5.0516 -1.9435 0.9772
5.2743 -2.7287 -2.1236 0.9751
5.8859 -0.1779 -2.1058 0.9753
5.9603 0.8928 -2.1552 0.9747
5.4727 3.0358 -2.2380 0.9738
4.9081 4.0126 -2.2671 0.9734
3.6409 4.2655 -2.0055 0.9765
2.3729 5.0637 -1.9998 0.9765
1.9031 5.2336 -1.9915 0.9766
0.9944 3.7482 -1.3868 0.9837
0.2251 2.7928 -1.0020 0.9882
-0.0261 2.8969 -1.0360 0.9878
-0.6051 6.1267 -2.2016 0.9742
-1.1514 6.0556 -2.2043 0.9742
-2.1662 5.6387 -2.1601 0.9747
-3.4598 4.6945 -2.0854 0.9755
-3.8170 4.3122 -2.0594 0.9758
-5.4763 1.7516 -2.0561 0.9759
-5.5443 1.2405 -2.0317 0.9762
-5.3937 -0.7473 -1.9473 0.9771
-5.0869 -1.6663 -1.9142 0.9775
-4.3774 -2.8987 -1.8775 0.9779
-4.0820 -3.2629 -1.8688 0.9780
-3.4144 -3.9121 -1.8569 0.9782
-3.0460 -4.1942 -1.8537 0.9782
-2.6572 -4.4463 -1.8523 0.9782
-1.8265 -4.8557 -1.8552 0.9782
-0.9385 -5.1314 -1.8655 0.9781
-0.4784 -5.2166 -1.8733 0.9780
-0.0106 -5.2656 -1.8830 0.9779
1.4150 -5.1868 -1.9226 0.9774
2.8173 -4.7573 -1.9772 0.9768
3.2657 -4.5348 -1.9984 0.9765
2.3648 -1.0278 -0.9221 0.9891
5.3647 -1.7812 -2.0214 0.9763
5.7407 -0.8188 -2.0737 0.9757
5.8630 -0.3065 -2.0995 0.9754
5.9377 0.2211 -2.1248 0.9751
5.9622 0.7592 -2.1494 0.9748
5.8533 1.8463 -2.1949 0.9743
5.7177 2.3837 -2.2153 0.9740
5.5278 2.9091 -2.2338 0.9738
4.9886 3.8984 -2.2641 0.9735
4.5531 4.2653 -2.2310 0.9738
2.9695 4.8468 -2.0327 0.9761
2.4894 5.0215 -2.0043 0.9765
1.0291 3.5606 -1.3254 0.9844
0.2939 2.8582 -1.0275 0.9879
0.0346 2.6597 -0.9512 0.9888
-1.4599 5.5932 -2.0672 0.9757
-2.5200 5.4342 -2.1421 0.9749
-2.9607 5.1273 -2.1173 0.9752
-3.7328 4.4089 -2.0658 0.9758
-4.5879 3.1382 -1.9878 0.9767
-2.7253 1.5261 -1.1170 0.9868
-4.9453 2.2145 -1.9377 0.9772
-5.4518 1.8770 -2.0619 0.9758
-5.5317 1.3662 -2.0376 0.9761
-5.5666 0.8566 -2.0141 0.9764
-5.5589 0.3520 -1.9919 0.9766
-4.9353 -1.9941 -1.9035 0.9776
-4.7059 -2.4108 -1.8908 0.9778
-4.4459 -2.8052 -1.8799 0.9779
-4.1572 -3.1756 -1.8708 0.9780
-3.1387 -4.1275 -1.8543 0.9782
-2.3519 -4.6158 -1.8526 0.9782
-0.5925 -5.1990 -1.8712 0.9780
-0.1263 -5.2569 -1.8805 0.9779
0.3458 -5.2779 -1.8915 0.9778
1.2979 -5.2063 -1.9188 0.9775
1.7726 -5.1123 -1.9350 0.9773
2.2426 -4.9790 -1.9528 0.9771
3.5940 -4.3409 -2.0153 0.9763
4.4124 -3.7193 -2.0637 0.9758
4.7860 -3.3516 -2.0895 0.9755
5.3073 -1.8929 -2.0150 0.9763
5.7036 -0.9421 -2.0673 0.9757
5.9239 0.0900 -2.1187 0.9751
5.5795 2.7812 -2.2294 0.9739
5.3490 3.2933 -2.2463 0.9737
5.0661 3.7822 -2.2609 0.9735
4.6988 4.2114 -2.2564 0.9736
4.1255 4.4231 -2.1630 0.9746
3.0205 4.6947 -1.9963 0.9766
2.1340 5.1502 -1.9936 0.9766
1.1640 3.7184 -1.3933 0.9836
0.7084 5.6617 -2.0405 0.9761
-0.8876 6.1278 -2.2142 0.9740
-1.4182 5.9682 -2.1937 0.9743
-1.9109 5.7137 -2.1545 0.9747
-2.6612 1.5681 -1.1046 0.9870
-5.5164 1.4920 -2.0436 0.9760
-5.5620 0.9817 -2.0198 0.9763
-5.5258 -0.0231 -1.9761 0.9768
-5.4468 -0.5115 -1.9564 0.9770
-5.1756 -1.4464 -1.9217 0.9774
-3.5876 -3.7625 -1.8591 0.9782
-2.0370 -4.7670 -1.8538 0.9782
-0.2417 -5.2460 -1.8780 0.9779
0.2291 -5.2762 -1.8886 0.9778
0.7041 -5.2689 -1.9010 0.9777
1.6560 -5.1391 -1.9308 0.9773
2.1275 -5.0155 -1.9483 0.9771
2.5920 -4.8523 -1.9673 0.9769
3.0466 -4.6493 -1.9878 0.9767
3.9122 -4.1248 -2.0330 0.9761
4.3164 -3.8041 -2.0575 0.9759
5.0489 -3.0505 -2.1095 0.9753
4.9830 -2.4320 -1.9829 0.9767
5.8086 -0.5609 -2.0868 0.9755
5.9071 -0.0403 -2.1125 0.9752
5.9566 0.4932 -2.1374 0.9749
5.6281 2.6523 -2.2249 0.9739
3.5184 4.3228 -1.9932 0.9766
3.1224 4.6259 -1.9958 0.9766
2.7242 4.9362 -2.0162 0.9763
2.2307 5.0652 -1.9792 0.9768
1.3096 5.4469 -2.0034 0.9765
-0.7541 6.1591 -2.2190 0.9740
-1.2895 6.0122 -2.1989 0.9742
-2.7479 5.2833 -2.1296 0.9750
-3.5570 4.5973 -2.0787 0.9756
-3.9038 4.2077 -2.0526 0.9759
-4.2098 3.7933 -2.0264 0.9762
-2.6475 1.6397 -1.1136 0.9869
-5.3872 2.1244 -2.0709 0.9757
-5.5548 1.1071 -2.0255 0.9762
-5.5679 0.5997 -2.0027 0.9765
-5.5391 0.0988 -1.9811 0.9767
-5.4699 -0.3923 -1.9611 0.9770
-5.2168 -1.3348 -1.9257 0.9774
-4.5776 -2.6139 -1.8851 0.9779
-4.3028 -2.9963 -1.8750 0.9780
-4.0004 -3.3539 -1.8668 0.9781
-3.3201 -3.9887 -1.8559 0.9782
-2.5525 -4.5071 -1.8523 0.9782
-2.1408 -4.7196 -1.8533 0.9782
-1.2720 -5.0457 -1.8608 0.9781
-0.8191 -5.1571 -1.8673 0.9781
-0.3568 -5.2329 -1.8757 0.9780
0.1127 -5.2723 -1.8858 0.9778
1.5392 -5.1635 -1.9268 0.9774
2.4785 -4.8961 -1.9624 0.9770
2.9358 -4.7030 -1.9826 0.9767
3.8095 -4.1978 -2.0272 0.9762
4.2190 -3.8866 -2.0513 0.9759
4.6054 -3.5373 -2.0766 0.9756
4.9649 -3.1511 -2.1029 0.9753
2.3294 -0.9484 -0.8994 0.9894
5.6213 -1.1849 -2.0544 0.9759
5.7771 -0.6866 -2.0805 0.9756
-3.1292 -3.7489 -1.8714 0.9793
-2.0205 -4.4384 -1.8688 0.9793
-0.7770 -4.8494 -1.8821 0.9792
-0.3421 -4.9199 -1.8900 0.9791
0.9919 -4.9209 -1.9237 0.9787
1.4383 -4.8489 -1.9382 0.9786
1.8811 -4.7399 -1.9542 0.9784
2.3176 -4.5938 -1.9718 0.9782
2.7448 -4.4105 -1.9907 0.9780
3.1597 -4.1899 -2.0110 0.9778
4.2978 -3.3103 -2.0789 0.9770
4.6303 -2.9476 -2.1034 0.9768
4.9177 -2.5442 -2.1218 0.9766
5.0467 -1.5531 -2.0235 0.9776
5.3680 -0.6454 -2.0719 0.9771
5.5197 0.3273 -2.1190 0.9766
5.5262 0.8277 -2.1413 0.9763
5.4841 1.3312 -2.1626 0.9761
4.8201 3.2687 -2.2318 0.9754
4.5335 3.7063 -2.2440 0.9752
4.2024 4.1142 -2.2537 0.9751
3.6257 4.2478 -2.1402 0.9764
2.3699 5.0573 -2.1403 0.9764
-0.0522 5.7943 -2.2206 0.9755
-1.0658 5.6052 -2.1865 0.9759
-2.0081 5.2271 -2.1458 0.9763
-2.4415 4.9749 -2.1237 0.9765
-3.8486 3.6344 -2.0285 0.9776
-4.6501 1.9606 -1.9339 0.9786
-5.1877 1.1607 -2.0372 0.9775
-5.2011 0.2145 -1.9948 0.9779
-5.0604 -0.7011 -1.9578 0.9784
-4.5869 -1.9719 -1.9133 0.9788
-3.2126 -3.6809 -1.8723 0.9793
-2.8663 -3.9467 -1.8692 0.9793
-2.5006 -4.1841 -1.8680 0.9793
-2.1174 -4.3919 -1.8684 0.9793
-1.3064 -4.7142 -1.8747 0.9793
-0.4499 -4.9057 -1.8879 0.9791
-0.0099 -4.9502 -1.8970 0.9790
0.4348 -4.9595 -1.9079 0.9789
0.8818 -4.9330 -1.9204 0.9788
1.3286 -4.8700 -1.9345 0.9786
2.2109 -4.6333 -1.9673 0.9782
2.6407 -4.4591 -1.9860 0.9780
3.0589 -4.2477 -2.0059 0.9778
3.8478 -3.7147 -2.0496 0.9774
4.5510 -3.0400 -2.0973 0.9768
4.8509 -2.6466 -2.1176 0.9766
5.1864 -1.2205 -2.0418 0.9774
5.3372 -0.7613 -2.0660 0.9772
5.4462 -0.2847 -2.0899 0.9769
5.4990 1.2072 -2.1575 0.9762
5.1115 2.6900 -2.2135 0.9756
4.6083 3.6011 -2.2412 0.9753
3.8790 4.3469 -2.2326 0.9754
3.2575 4.3831 -2.0928 0.9769
2.9657 4.8406 -2.1755 0.9760
2.0160 5.1853 -2.1320 0.9764
1.0733 5.5239 -2.1565 0.9762
0.2911 2.8314 -1.0908 0.9879
0.0345 2.6526 -1.0166 0.9887
-0.4401 5.7465 -2.2086 0.9756
-1.4313 5.4837 -2.1718 0.9760
-1.8972 5.2830 -2.1511 0.9762
-3.4714 4.1001 -2.0588 0.9772
-3.7787 3.7292 -2.0345 0.9775
-4.0479 3.3365 -2.0103 0.9778
-4.2779 2.9262 -1.9862 0.9780
-2.7216 1.5240 -1.1953 0.9867
-4.6191 2.0684 -1.9395 0.9786
-5.0892 1.7522 -2.0626 0.9772
-5.1750 1.2781 -2.0427 0.9774
-5.2080 0.3298 -1.9998 0.9779
-5.1655 -0.1354 -1.9802 0.9781
-5.0856 -0.5908 -1.9620 0.9783
-4.4230 -2.2658 -1.9044 0.9789
-4.1801 -2.6374 -1.8941 0.9791
-3.2946 -3.6112 -1.8733 0.9793
-2.9534 -3.8839 -1.8698 0.9793
-2.5923 -4.1284 -1.8681 0.9793
-2.2132 -4.3435 -1.8682 0.9793
-1.4091 -4.6814 -1.8735 0.9793
-0.9880 -4.8022 -1.8788 0.9792
-0.5572 -4.8895 -1.8859 0.9791
-0.1188 -4.9425 -1.8946 0.9790
1.2188 -4.8889 -1.9309 0.9786
2.9572 -4.3031 -2.0009 0.9779
3.3646 -4.0639 -2.0218 0.9777
4.1244 -3.4766 -2.0672 0.9772
4.4700 -3.1304 -2.0913 0.9769
4.7819 -2.7473 -2.1134 0.9767
4.9441 -1.7633 -2.0116 0.9778
5.1432 -1.3305 -2.0358 0.9775
5.3039 -0.8761 -2.0601 0.9772
5.4234 -0.4034 -2.0841 0.9770
5.4992 0.0835 -2.1076 0.9767
5.5290 0.5806 -2.1304 0.9765
5.4438 1.5862 -2.1729 0.9760
5.3270 2.0844 -2.1921 0.9758
5.1602 2.5722 -2.2095 0.9756
4.9442 3.0440 -2.2250 0.9754
4.6803 3.4942 -2.2383 0.9753
4.3708 3.9174 -2.2493 0.9752
4.0184 4.3083 -2.2577 0.9751
1.1909 5.4819 -2.1498 0.9763
-0.3140 5.7653 -2.2127 0.9756
-1.3132 5.5263 -2.1767 0.9760
-1.7847 5.3365 -2.1564 0.9762
-2.6502 4.8324 -2.1121 0.9767
-3.3900 4.1876 -2.0647 0.9772
-2.6610 1.5681 -1.1837 0.9869
-4.5857 2.1759 -1.9451 0.9785
-5.0594 1.8675 -2.0667 0.9772
-5.2063 0.9190 -2.0260 0.9776
-5.2125 0.4455 -2.0048 0.9778
-5.1795 -0.0217 -1.9849 0.9781
-5.1087 -0.4797 -1.9664 0.9783
-5.0016 -0.9260 -1.9493 0.9784
-4.6847 -1.7738 -1.9196 0.9788
-4.2425 -2.5480 -1.8965 0.9790
-3.9788 -2.9028 -1.8874 0.9791
-3.6891 -3.2339 -1.8800 0.9792
-3.0393 -3.8193 -1.8705 0.9793
-2.6829 -4.0709 -1.8684 0.9793
-2.3081 -4.2934 -1.8680 0.9793
-1.9168 -4.4857 -1.8694 0.9793
-1.5110 -4.6467 -1.8725 0.9793
-1.0927 -4.7755 -1.8774 0.9792
-0.6641 -4.8711 -1.8840 0.9792
-0.2273 -4.9327 -1.8923 0.9791
0.2154 -4.9594 -1.9023 0.9790
1.1088 -4.9056 -1.9273 0.9787
1.5545 -4.8240 -1.9422 0.9785
1.9959 -4.7053 -1.9587 0.9783
2.8546 -4.3564 -1.9959 0.9779
3.6605 -3.8593 -2.0384 0.9775
4.0355 -3.5565 -2.0613 0.9772
5.0976 -1.4392 -2.0299 0.9776
5.2680 -0.9898 -2.0541 0.9773
5.5199 0.9592 -2.1470 0.9763
5.4650 1.4626 -2.1680 0.9761
5.3604 1.9625 -2.1875 0.9758
5.2059 2.4533 -2.2054 0.9756
3.0177 4.4709 -2.0671 0.9772
1.2722 3.7706 -1.5250 0.9831
0.8280 5.6114 -2.1737 0.9760
-0.1873 5.7810 -2.2166 0.9755
-1.6708 5.3873 -2.1615 0.9761
-2.1241 5.1650 -2.1402 0.9764
-2.5500 4.9027 -2.1177 0.9766
-2.9450 4.6041 -2.0945 0.9769
-3.3064 4.2735 -2.0706 0.9771
-3.6321 3.9148 -2.0465 0.9774
-3.9202 3.5323 -2.0222 0.9776
-2.6510 1.6418 -1.1949 0.9867
-4.5498 2.2830 -1.9508 0.9784
-5.1419 1.5130 -2.0540 0.9773
-5.1986 1.0361 -2.0314 0.9775
-5.1912 0.0926 -1.9897 0.9780
-5.1296 -0.3679 -1.9708 0.9782
-5.0312 -0.8174 -1.9533 0.9784
-4.8977 -1.2532 -1.9374 0.9786
-4.7307 -1.6731 -1.9229 0.9787
-3.4547 -3.4670 -1.8756 0.9793
-3.1240 -3.7531 -1.8713 0.9793
-2.7725 -4.0116 -1.8687 0.9793
-2.4020 -4.2413 -1.8679 0.9793
-1.6121 -4.6100 -1.8715 0.9793
-1.1967 -4.7468 -1.8760 0.9792
0.1060 -4.9561 -1.8997 0.9790
0.5515 -4.9561 -1.9110 0.9789
0.9987 -4.9200 -1.9239 0.9787
1.4450 -4.8475 -1.9384 0.9786
3.1659 -4.1863 -2.0114 0.9778
3.5650 -3.9284 -2.0329 0.9775
3.9452 -3.6344 -2.0556 0.9773
4.9218 -2.5379 -2.1221 0.9766
5.0498 -1.5465 -2.0239 0.9776
5.2297 -1.1023 -2.0482 0.9774
5.3699 -0.6382 -2.0723 0.9771
-2.6207 -3.7809 -1.8828 0.9803
-1.1347 -4.4754 -1.8896 0.9802
-0.7327 -4.5729 -1.8955 0.9802
0.5132 -4.6698 -1.9227 0.9799
0.9342 -4.6345 -1.9349 0.9798
1.3540 -4.5647 -1.9487 0.9796
1.7700 -4.4600 -1.9639 0.9795
2.1796 -4.3202 -1.9804 0.9793
2.5799 -4.1454 -1.9983 0.9791
3.3409 -3.6916 -2.0378 0.9787
4.0288 -3.1031 -2.0813 0.9783
4.7164 -1.4515 -2.0197 0.9789
5.1022 1.2385 -2.1488 0.9776
5.0138 1.7037 -2.1673 0.9774
4.6993 2.6068 -2.1994 0.9770
3.8983 3.8165 -2.2328 0.9767
3.5300 4.1356 -2.2253 0.9768
2.7293 4.6831 -2.2184 0.9768
2.3265 4.9647 -2.2440 0.9766
0.9195 5.3604 -2.2259 0.9768
-0.0240 2.6681 -1.0920 0.9885
-0.9908 5.2109 -2.1709 0.9773
-1.4402 5.0590 -2.1528 0.9775
-1.8693 4.8657 -2.1333 0.9777
-2.2743 4.6343 -2.1128 0.9779
-2.6521 4.3679 -2.0914 0.9782
-2.9997 4.0702 -2.0694 0.9784
-3.5961 3.3960 -2.0243 0.9788
-2.5732 1.6782 -1.2573 0.9868
-1.9505 0.2563 -0.8052 0.9915
-1.9349 0.0798 -0.7926 0.9917
-1.9398 -0.0936 -0.7948 0.9916
-1.9475 -0.2698 -0.8047 0.9915
-4.6462 -1.0737 -1.9517 0.9796
-4.3214 -1.8577 -1.9251 0.9799
-4.1145 -2.2235 -1.9141 0.9800
-2.3590 -3.9473 -1.8821 0.9803
-1.6212 -4.3100 -1.8846 0.9803
-0.4242 -4.6253 -1.9010 0.9801
-0.0094 -4.6659 -1.9097 0.9800
0.8306 -4.6464 -1.9318 0.9798
1.2509 -4.5851 -1.9452 0.9797
1.6681 -4.4890 -1.9600 0.9795
2.0795 -4.3579 -1.9762 0.9793
2.4823 -4.1917 -1.9938 0.9792
2.8737 -3.9906 -2.0127 0.9790
3.6102 -3.4853 -2.0537 0.9785
3.9489 -3.1826 -2.0758 0.9783
2.3376 -1.0160 -1.0432 0.9890
4.6704 -1.5507 -2.0141 0.9790
5.0789 -0.2655 -2.0815 0.9783
5.1484 0.6556 -2.1241 0.9778
5.1170 1.1233 -2.1441 0.9776
5.0398 1.5897 -2.1629 0.9774
4.9167 2.0498 -2.1802 0.9772
4.2766 3.3419 -2.2213 0.9768
3.9779 3.7265 -2.2308 0.9767
3.6408 4.0799 -2.2380 0.9766
3.2299 4.3460 -2.2161 0.9769
1.9846 5.1046 -2.2415 0.9766
1.0511 3.6369 -1.5494 0.9838
-0.4088 5.3385 -2.1913 0.9771
-1.7657 4.9170 -2.1382 0.9777
-2.5618 4.4365 -2.0967 0.9781
-2.9171 4.1462 -2.0748 0.9783
-3.2405 3.8274 -2.0525 0.9786
-3.5301 3.4839 -2.0299 0.9788
-3.7846 3.1195 -2.0073 0.9790
-2.6680 1.4940 -1.2515 0.9869
-4.8563 1.1994 -2.0473 0.9786
-1.9889 0.3061 -0.8236 0.9913
-1.9486 0.1234 -0.7991 0.9916
-4.6775 -0.9730 -1.9554 0.9796
-4.3679 -1.7648 -1.9281 0.9798
-4.1680 -2.1352 -1.9167 0.9800
-3.6866 -2.8160 -1.8987 0.9801
-3.4084 -3.1232 -1.8921 0.9802
-3.1076 -3.4063 -1.8871 0.9803
-2.7861 -3.6638 -1.8838 0.9803
-2.0879 -4.0977 -1.8822 0.9803
-1.7151 -4.2717 -1.8840 0.9803
-0.9318 -4.5289 -1.8924 0.9802
-0.1119 -4.6590 -1.9074 0.9801
0.3063 -4.6745 -1.9173 0.9800
1.9789 -4.3934 -1.9721 0.9794
2.3841 -4.2359 -1.9894 0.9792
2.7786 -4.0433 -2.0079 0.9790
3.1594 -3.8161 -2.0276 0.9788
3.5235 -3.5547 -2.0485 0.9786
3.8676 -3.2601 -2.0703 0.9784
4.4067 -2.0319 -1.9860 0.9792
4.6223 -1.6486 -2.0085 0.9790
4.9509 -0.8178 -2.0537 0.9785
5.0631 1.4753 -2.1584 0.9775
4.5907 2.8263 -2.2064 0.9770
4.3438 3.2430 -2.2186 0.9768
4.0551 3.6345 -2.2287 0.9767
3.3235 4.2721 -2.2152 0.9769
2.5438 4.8593 -2.2448 0.9766
1.1498 3.6730 -1.5752 0.9835
1.1569 5.3253 -2.2304 0.9767
-0.7633 5.2697 -2.1793 0.9772
-1.2212 5.1391 -2.1619 0.9774
-1.6608 4.9659 -2.1430 0.9776
-2.4697 4.5032 -2.1020 0.9780
-2.8325 4.2205 -2.0803 0.9783
-3.1639 3.9083 -2.0580 0.9785
-3.4620 3.5705 -2.0355 0.9787
-2.6253 1.5470 -1.2472 0.9869
-4.8396 1.3090 -2.0519 0.9786
-2.1546 0.3803 -0.8955 0.9906
-1.9022 -0.0080 -0.7785 0.9918
-2.1894 -0.4054 -0.9113 0.9904
-4.5755 -1.2787 -1.9444 0.9797
-4.4126 -1.6708 -1.9311 0.9798
-3.4791 -3.0498 -1.8935 0.9802
-2.5311 -3.8404 -1.8824 0.9803
-1.0305 -4.5039 -1.8910 0.9802
-0.2143 -4.6501 -1.9052 0.9801
0.2030 -4.6738 -1.9147 0.9800
0.6232 -4.6639 -1.9258 0.9799
1.8778 -4.4269 -1.9681 0.9794
3.0671 -3.8752 -2.0227 0.9789
3.7849 -3.3357 -2.0648 0.9784
4.1120 -3.0167 -2.0873 0.9782
4.4094 -2.6641 -2.1085 0.9780
4.3488 -2.1225 -1.9806 0.9793
4.7630 -1.3447 -2.0256 0.9788
5.0357 -0.4863 -2.0706 0.9784
5.1128 -0.0349 -2.0926 0.9781
4.6448 2.7205 -2.2031 0.9770
4.4086 3.1426 -2.2158 0.9769
3.0137 4.4650 -2.2047 0.9770
2.6504 4.8025 -2.2450 0.9766
2.2091 5.0162 -2.2433 0.9766
1.7489 5.1838 -2.2391 0.9766
1.2751 5.3034 -2.2324 0.9767
0.1576 2.7593 -1.1312 0.9881
-0.1740 5.3691 -2.1986 0.9770
-0.6483 5.2950 -2.1833 0.9772
-1.1100 5.1753 -2.1663 0.9774
-1.9776 4.8088 -2.1281 0.9778
-2.3758 4.5679 -2.1073 0.9780
-2.7460 4.2930 -2.0857 0.9782
-3.0853 3.9877 -2.0635 0.9784
-3.3918 3.6559 -2.0410 0.9787
-3.6637 3.3013 -2.0184 0.9789
-2.6050 1.6134 -1.2541 0.9868
-4.2621 2.1386 -1.9516 0.9796
-4.8802 0.9727 -2.0366 0.9787
-1.9569 0.2108 -0.8055 0.9915
-1.9156 0.0342 -0.7841 0.9918
-2.0573 -0.3342 -0.8530 0.9910
-4.6108 -1.1798 -1.9479 0.9796
-4.0558 -2.3159 -1.9115 0.9800
-3.8147 -2.6564 -1.9025 0.9801
-3.5483 -2.9749 -1.8951 0.9802
-3.2585 -3.2700 -1.8893 0.9802
-2.6155 -3.7844 -1.8828 0.9803
-0.7265 -4.5742 -1.8956 0.9802
-0.3163 -4.6391 -1.9031 0.9801
0.9406 -4.6337 -1.9351 0.9798
1.7763 -4.4581 -1.9641 0.9795
2.1857 -4.3178 -1.9807 0.9793
2.5859 -4.1425 -1.9986 0.9791
2.9738 -3.9323 -2.0178 0.9789
2.3283 -0.9479 -1.0289 0.9892
4.7192 -1.4453 -2.0200 0.9789
4.8835 -1.0294 -2.0426 0.9787
5.0105 -0.5955 -2.0651 0.9784
-2.4778 -3.5747 -1.8956 0.9812
-2.1477 -3.7803 -1.8948 0.9812
-1.4432 -4.1091 -1.8981 0.9812
-0.6925 -4.3220 -1.9076 0.9811
-0.3048 -4.3829 -1.9147 0.9810
0.8819 -4.3752 -1.9451 0.9807
1.2777 -4.3076 -1.9582 0.9806
1.6696 -4.2069 -1.9726 0.9804
2.4311 -3.9063 -2.0052 0.9801
2.7952 -3.7066 -2.0233 0.9799
3.1447 -3.4747 -2.0424 0.9798
3.7873 -2.9172 -2.0835 0.9794
4.0232 -2.0814 -1.9741 0.9804
4.6893 -0.5638 -2.0584 0.9796
4.7643 1.1564 -2.1366 0.9788
3.3077 3.8752 -2.2205 0.9780
2.5714 4.4122 -2.2257 0.9780
0.8566 4.9935 -2.2080 0.9781
0.2291 2.8415 -1.2424 0.9876
-0.4900 4.9607 -2.1725 0.9785
-1.7463 4.5456 -2.1222 0.9790
-2.8079 3.8100 -2.0627 0.9796
-3.3708 3.1832 -2.0206 0.9800
-2.6606 1.4138 -1.3131 0.9869
-4.0966 1.7272 -1.9376 0.9808
-1.5826 0.5062 -0.7241 0.9928
-1.5262 0.3415 -0.6816 0.9932
-1.5293 -0.0738 -0.6673 0.9933
-4.0807 -1.7542 -1.9358 0.9808
-3.8866 -2.1004 -1.9254 0.9809
-3.4215 -2.7349 -1.9090 0.9811
-3.1537 -3.0203 -1.9031 0.9811
-2.5565 -3.5201 -1.8960 0.9812
-2.2304 -3.7321 -1.8949 0.9812
-1.8886 -3.9173 -1.8953 0.9812
-0.7869 -4.3023 -1.9061 0.9811
-0.4008 -4.3708 -1.9128 0.9810
0.3869 -4.4136 -1.9309 0.9809
1.1806 -4.3273 -1.9548 0.9806
1.5736 -4.2348 -1.9689 0.9805
1.9608 -4.1091 -1.9843 0.9803
2.3394 -3.9504 -2.0009 0.9802
3.3965 -3.2790 -2.0575 0.9796
4.0063 -2.6761 -2.0997 0.9792
4.2605 -2.3245 -2.1152 0.9790
2.3317 -1.0135 -1.1081 0.9890
4.7523 -0.2485 -2.0740 0.9794
4.8019 0.1788 -2.0942 0.9793
4.8111 0.6126 -2.1137 0.9791
4.7787 1.0491 -2.1322 0.9789
4.7040 1.4838 -2.1497 0.9787
4.4269 2.3297 -2.1802 0.9784
4.2257 2.7318 -2.1929 0.9783
2.6678 4.3543 -2.2255 0.9780
1.0642 3.6822 -1.6705 0.9834
0.9673 4.9782 -2.2102 0.9781
-0.3812 4.9784 -2.1760 0.9784
-0.8187 4.8905 -2.1610 0.9786
-1.6493 4.5928 -2.1268 0.9789
-2.3959 4.1493 -2.0882 0.9793
-3.5494 2.9256 -2.0046 0.9801
-1.5430 0.3811 -0.6927 0.9931
-1.5115 0.2326 -0.6665 0.9933
-1.5296 0.0969 -0.6679 0.9933
-1.5230 -0.1769 -0.6682 0.9933
-1.5137 -0.3149 -0.6738 0.9933
-4.1243 -1.6664 -1.9386 0.9808
-3.9369 -2.0168 -1.9278 0.9809
-3.4839 -2.6613 -1.9107 0.9811
-3.2217 -2.9521 -1.9044 0.9811
-2.6341 -3.4639 -1.8965 0.9812
-2.3122 -3.6824 -1.8950 0.9812
-1.6215 -4.0386 -1.8967 0.9812
-0.8807 -4.2807 -1.9047 0.9811
-0.1058 -4.4018 -1.9189 0.9810
0.2892 -4.4152 -1.9283 0.9809
0.6863 -4.3964 -1.9392 0.9808
1.0832 -4.3450 -1.9516 0.9807
1.4773 -4.2606 -1.9653 0.9805
1.8661 -4.1432 -1.9804 0.9804
2.2472 -3.9926 -1.9967 0.9802
2.6176 -3.8090 -2.0142 0.9800
4.2009 -2.4136 -2.1115 0.9791
4.1356 -1.9069 -1.9847 0.9803
4.6366 -0.7659 -2.0481 0.9797
4.7341 -0.3522 -2.0689 0.9795
4.7934 0.0728 -2.0893 0.9793
4.4701 2.2282 -2.1768 0.9784
4.0474 3.0217 -2.2013 0.9782
3.7772 3.3854 -2.2106 0.9781
2.7627 4.2940 -2.2252 0.9780
1.9528 4.7130 -2.2233 0.9780
1.5210 4.8588 -2.2189 0.9780
1.0776 4.9602 -2.2121 0.9781
0.0963 2.7483 -1.1985 0.9881
-0.2719 4.9934 -2.1794 0.9784
-0.7121 4.9161 -2.1649 0.9786
-1.1398 4.7968 -2.1487 0.9787
-3.4932 3.0109 -2.0098 0.9801
-3.7088 2.6586 -1.9887 0.9803
-2.5971 1.5304 -1.3138 0.9869
-4.0371 1.9156 -1.9474 0.9807
-1.5976 0.5897 -0.7422 0.9926
-1.5579 0.4214 -0.7034 0.9930
-1.5020 0.2651 -0.6647 0.9934
-1.5282 0.1306 -0.6685 0.9933
-1.5231 -0.0064 -0.6638 0.9934
-1.5272 -0.1434 -0.6685 0.9933
-1.4979 -0.2773 -0.6639 0.9934
-3.9855 -1.9322 -1.9303 0.9809
-3.7779 -2.2690 -1.9206 0.9810
-3.5450 -2.5863 -1.9124 0.9810
-3.2883 -2.8826 -1.9058 0.9811
-2.3931 -3.6311 -1.8952 0.9812
-1.7096 -4.0008 -1.8961 0.9812
-1.3474 -4.1437 -1.8990 0.9812
-0.9741 -4.2573 -1.9034 0.9811
-0.2024 -4.3936 -1.9169 0.9810
2.1542 -4.0327 -1.9926 0.9802
2.5275 -3.8572 -2.0098 0.9801
2.8881 -3.6491 -2.0282 0.9799
4.1396 -2.5011 -2.1078 0.9791
4.4645 -1.2604 -2.0218 0.9800
4.8117 0.3984 -2.1042 0.9792
4.7461 1.2702 -2.1412 0.9788
4.6498 1.7023 -2.1580 0.9786
4.3299 2.5360 -2.1869 0.9783
3.5495 3.6414 -2.2162 0.9781
1.6286 4.8270 -2.2202 0.9780
-0.1622 5.0058 -2.1828 0.9784
-0.6047 4.9391 -2.1686 0.9785
-1.0359 4.8299 -2.1528 0.9787
-1.8478 4.4932 -2.1173 0.9790
-2.2213 4.2708 -2.0980 0.9792
-2.8886 3.7334 -2.0572 0.9796
-4.0041 2.0092 -1.9524 0.9806
-1.5248 0.1642 -0.6684 0.9933
-1.5259 0.0272 -0.6651 0.9934
-1.5081 -0.2450 -0.6659 0.9934
-1.5940 -0.5637 -0.7368 0.9926
-4.0326 -1.8464 -1.9329 0.9808
-3.8315 -2.1878 -1.9229 0.9809
-3.6046 -2.5101 -1.9143 0.9810
-3.0802 -3.0911 -1.9018 0.9811
-2.7860 -3.3470 -1.8979 0.9812
-2.4729 -3.5781 -1.8956 0.9812
-1.7968 -3.9612 -1.8957 0.9812
-1.4377 -4.1112 -1.8981 0.9812
-0.6866 -4.3232 -1.9077 0.9811
0.0943 -4.4126 -1.9235 0.9809
0.8880 -4.3744 -1.9453 0.9807
1.2837 -4.3063 -1.9584 0.9806
2.0607 -4.0708 -1.9885 0.9803
3.4812 -3.2070 -2.0628 0.9796
4.0763 -2.5871 -2.1041 0.9792
4.0267 -2.0763 -1.9744 0.9804
4.5751 -0.9643 -2.0377 0.9798
-2.6434 -3.1669 -1.9095 0.9820
-2.3472 -3.3864 -1.9073 0.9820
-1.7072 -3.7502 -1.9073 0.9820
-1.3671 -3.8924 -1.9096 0.9820
-0.6558 -4.0929 -1.9187 0.9819
-0.2886 -4.1498 -1.9255 0.9818
1.2083 -4.0736 -1.9668 0.9814
1.5782 -3.9768 -1.9805 0.9813
1.9417 -3.8486 -1.9954 0.9812
2.2960 -3.6893 -2.0114 0.9810
3.5692 -2.7491 -2.0854 0.9803
3.8336 -2.4404 -2.1035 0.9802
3.7869 -1.9592 -1.9736 0.9814
4.2963 -0.9117 -2.0330 0.9808
4.4741 -0.1352 -2.0720 0.9805
4.5088 0.2674 -2.0907 0.9803
4.2591 1.8868 -2.1563 0.9797
4.0983 2.2734 -2.1694 0.9796
3.8993 2.6443 -2.1808 0.9794
3.6636 2.9951 -2.1904 0.9794
3.0908 3.6210 -2.2037 0.9792
2.7593 3.8888 -2.2072 0.9792
1.6276 4.4759 -2.2046 0.9792
0.8007 4.6677 -2.1921 0.9793
-0.0237 2.6338 -1.2192 0.9885
-0.8655 4.5520 -2.1448 0.9798
-1.2594 4.4240 -2.1292 0.9799
-1.9935 4.0621 -2.0945 0.9803
-2.3275 3.8334 -2.0759 0.9804
-2.9169 3.2953 -2.0371 0.9808
-3.1684 2.9921 -2.0172 0.9810
-2.5407 1.6569 -1.4040 0.9867
-1.3247 0.5585 -0.6654 0.9937
-1.3301 0.4254 -0.6464 0.9939
-1.2985 0.2905 -0.6159 0.9942
-1.3316 -0.4362 -0.6486 0.9938
-1.3227 -0.5686 -0.6664 0.9937
-3.6788 -1.9881 -1.9356 0.9817
-3.4712 -2.2986 -1.9271 0.9818
-2.9870 -2.8606 -1.9144 0.9819
-2.7136 -3.1092 -1.9103 0.9820
-2.1130 -3.5356 -1.9066 0.9820
-1.1033 -3.9813 -1.9123 0.9820
-0.7452 -4.0744 -1.9173 0.9819
-0.3795 -4.1385 -1.9237 0.9818
1.1165 -4.0926 -1.9636 0.9815
1.4877 -4.0035 -1.9770 0.9814
1.8529 -3.8831 -1.9916 0.9812
2.2097 -3.7314 -2.0073 0.9811
2.5555 -3.5486 -2.0242 0.9809
3.2031 -3.0923 -2.0609 0.9806
3.4995 -2.8204 -2.0805 0.9804
2.3258 -1.0109 -1.1739 0.9889
4.1175 -1.3671 -2.0082 0.9811
4.5098 0.5743 -2.1044 0.9802
4.4770 0.9828 -2.1217 0.9800
4.2927 1.7897 -2.1528 0.9797
4.1415 2.1795 -2.1663 0.9796
3.9517 2.5546 -2.1781 0.9795
3.7249 2.9108 -2.1882 0.9794
3.1680 3.5502 -2.2025 0.9792
2.4924 4.0681 -2.2084 0.9792
1.0679 3.6951 -1.7804 0.9832
0.9041 4.6531 -2.1941 0.9793
0.4829 4.6965 -2.1854 0.9794
-1.5454 4.3035 -2.1166 0.9800
-2.5626 3.6424 -2.0615 0.9806
-3.3379 2.7513 -2.0023 0.9811
-2.6118 1.4626 -1.3856 0.9869
-1.3084 0.3232 -0.6239 0.9941
-1.3245 0.2038 -0.6203 0.9941
-1.3385 0.0848 -0.6208 0.9941
-1.3053 -0.2715 -0.6172 0.9941
-3.7261 -1.9089 -1.9379 0.9817
-3.2990 -2.5200 -1.9216 0.9819
-3.0512 -2.7959 -1.9156 0.9819
-2.1905 -3.4884 -1.9067 0.9820
-1.8701 -3.6702 -1.9067 0.9820
-1.1901 -3.9540 -1.9114 0.9820
-0.4701 -4.1255 -1.9220 0.9819
0.2738 -4.1788 -1.9385 0.9817
0.6494 -4.1598 -1.9488 0.9816
1.3967 -4.0284 -1.9736 0.9814
1.7637 -3.9157 -1.9879 0.9812
2.1228 -3.7716 -2.0034 0.9811
2.4715 -3.5965 -2.0200 0.9809
3.1271 -3.1549 -2.0562 0.9806
3.4285 -2.8899 -2.0756 0.9804
4.0764 -1.4539 -2.0033 0.9811
4.4435 -0.3305 -2.0625 0.9806
4.4964 0.0683 -2.0816 0.9804
4.5119 0.4738 -2.0999 0.9802
4.4261 1.2897 -2.1340 0.9799
3.5305 3.1643 -2.1945 0.9793
3.2435 3.4775 -2.2012 0.9793
2.9259 3.7611 -2.2057 0.9792
2.5811 4.0118 -2.2081 0.9792
2.2126 4.2267 -2.2083 0.9792
1.8246 4.4035 -2.2064 0.9792
1.1757 3.7557 -1.8217 0.9828
1.0072 4.6360 -2.1960 0.9793
0.5868 4.6897 -2.1877 0.9794
0.0966 2.7570 -1.2769 0.9879
-0.6665 4.6012 -2.1520 0.9797
-1.0674 4.4917 -2.1370 0.9799
-1.8204 4.1635 -2.1034 0.9802
-2.7822 3.4368 -2.0468 0.9807
-3.2845 2.8310 -2.0071 0.9811
-3.4894 2.5013 -1.9873 0.9813
-2.5888 1.5255 -1.3909 0.9868
-3.8029 1.8045 -1.9484 0.9816
-1.3378 0.1143 -0.6215 0.9941
-1.3371 -0.1256 -0.6216 0.9941
-1.3143 -0.2433 -0.6187 0.9941
-1.3200 -0.3689 -0.6344 0.9940
-3.5764 -2.1480 -1.9311 0.9818
-2.5677 -3.2266 -1.9088 0.9820
-1.6195 -3.7900 -1.9078 0.9820
-0.9226 -4.0322 -1.9147 0.9819
-0.5604 -4.1106 -1.9204 0.9819
-0.1917 -4.1597 -1.9275 0.9818
0.1815 -4.1788 -1.9361 0.9817
0.5569 -4.1673 -1.9461 0.9816
1.3055 -4.0513 -1.9702 0.9814
1.6740 -3.9463 -1.9842 0.9813
2.0353 -3.8100 -1.9994 0.9811
3.8964 -2.3542 -2.1072 0.9801
3.8416 -1.8749 -1.9787 0.9813
4.0336 -1.5395 -1.9984 0.9812
4.1963 -1.1847 -2.0183 0.9810
4.3274 -0.8131 -2.0381 0.9808
4.4868 -0.0306 -2.0769 0.9804
4.5116 0.3736 -2.0955 0.9802
4.4980 0.7817 -2.1133 0.9801
4.3528 1.5936 -2.1456 0.9798
4.2208 1.9891 -2.1599 0.9796
4.0499 2.3720 -2.1725 0.9795
3.5961 3.0830 -2.1926 0.9793
2.6683 3.9533 -2.2077 0.9792
2.3053 4.1772 -2.2085 0.9792
1.9217 4.3636 -2.2070 0.9792
1.5218 4.5104 -2.2034 0.9792
0.6906 4.6804 -2.1899 0.9794
-0.9699 4.5222 -2.1408 0.9798
-1.3597 4.3845 -2.1249 0.9800
-1.7319 4.2113 -2.1077 0.9801
-2.0831 4.0052 -2.0897 0.9803
-2.4107 3.7689 -2.0709 0.9805
-2.9855 3.2180 -2.0319 0.9808
-3.2292 2.9097 -2.0120 0.9810
-3.4419 2.5839 -1.9922 0.9812
-1.3298 0.5244 -0.6617 0.9937
-1.3089 0.2609 -0.6178 0.9941
-1.3350 0.1438 -0.6215 0.9941
-1.3119 -0.3357 -0.6268 0.9940
-1.3147 -0.6020 -0.6693 0.9936
-2.9174 -2.9277 -1.9132 0.9819
-2.3426 -3.3896 -1.9072 0.9820
0.0893 -4.1769 -1.9339 0.9818
0.8400 -4.1382 -1.9546 0.9816
1.2140 -4.0723 -1.9670 0.9814
2.9718 -3.2747 -2.0469 0.9807
3.2826 -3.0240 -2.0659 0.9805
3.5734 -2.7447 -2.0857 0.9803
4.1591 -1.2737 -2.0134 0.9810
4.2982 -0.9060 -2.0333 0.9808
-1.6201 -3.5587 -1.9180 0.9827
-1.2972 -3.6934 -1.9202 0.9827
0.7907 -3.9228 -1.9629 0.9823
1.4947 -3.7664 -1.9877 0.9821
2.4958 -3.3096 -2.0333 0.9817
2.8050 -3.0994 -2.0505 0.9815
3.0975 -2.8613 -2.0685 0.9814
3.3709 -2.5964 -2.0871 0.9812
3.6170 -2.3025 -2.1032 0.9811
3.9170 -1.2054 -2.0103 0.9819
4.1442 -0.4983 -2.0475 0.9816
4.2091 -0.1272 -2.0656 0.9814
4.2394 0.2514 -2.0832 0.9813
4.2340 0.6342 -2.1000 0.9811
4.1920 1.0175 -2.1160 0.9810
3.1807 3.1140 -2.1834 0.9804
2.8968 3.3937 -2.1887 0.9803
2.2513 3.8629 -2.1932 0.9803
1.5254 4.1949 -2.1895 0.9803
-0.0396 4.4013 -2.1590 0.9806
-0.8125 4.2735 -2.1338 0.9808
-1.1829 4.1551 -2.1192 0.9809
-1.5378 4.0029 -2.1034 0.9811
-2.1894 3.6059 -2.0693 0.9814
-2.4809 3.3663 -2.0513 0.9815
-2.7469 3.1031 -2.0328 0.9817
-3.1954 2.5177 -1.9955 0.9820
-1.1178 0.5940 -0.6209 0.9944
-1.1585 0.3705 -0.5966 0.9946
-1.1964 0.0493 -0.5874 0.9947
-1.1876 -0.1645 -0.5881 0.9947
-1.1581 -0.3794 -0.5978 0.9946
-3.2922 -2.1801 -1.9369 0.9826
-3.0736 -2.4568 -1.9301 0.9826
-2.8339 -2.7140 -1.9248 0.9827
-2.5749 -2.9503 -1.9208 0.9827
-2.2981 -3.1644 -1.9184 0.9827
-2.0052 -3.3552 -1.9173 0.9827
-1.6978 -3.5216 -1.9177 0.9827
-1.3777 -3.6627 -1.9195 0.9827
-1.0469 -3.7776 -1.9228 0.9827
0.3472 -3.9602 -1.9500 0.9824
0.7032 -3.9338 -1.9602 0.9824
1.0579 -3.8778 -1.9717 0.9823
1.7544 -3.6766 -1.9982 0.9820
2.0913 -3.5314 -2.0132 0.9819
2.4175 -3.3570 -2.0292 0.9817
3.0272 -2.9224 -2.0640 0.9814
3.3055 -2.6641 -2.0825 0.9813
2.3212 -1.0089 -1.2415 0.9888
4.0173 -0.9454 -2.0244 0.9818
4.1231 -0.5881 -2.0430 0.9816
4.2352 0.1577 -2.0789 0.9813
4.2387 0.5397 -2.0960 0.9811
4.2058 0.9233 -2.1122 0.9810
4.1360 1.3046 -2.1273 0.9809
3.7064 2.3960 -2.1649 0.9805
3.2462 3.0410 -2.1819 0.9804
2.9693 3.3275 -2.1876 0.9803
1.9855 4.0051 -2.1927 0.9803
0.8476 4.3622 -2.1798 0.9804
0.0361 2.7733 -1.3605 0.9877
-2.1139 3.6609 -2.0736 0.9813
-2.6839 3.1700 -2.0374 0.9817
-2.9293 2.8909 -2.0188 0.9818
-3.3341 2.2806 -1.9815 0.9822
-1.1571 0.3984 -0.6003 0.9946
-1.1603 0.2866 -0.5863 0.9947
-1.1958 0.0757 -0.5877 0.9947
-1.1964 -0.0314 -0.5871 0.9947
-1.1910 -0.1383 -0.5881 0.9947
-1.1721 -0.2438 -0.5873 0.9947
-1.1501 -0.4647 -0.6085 0.9945
-3.1294 -2.3905 -1.9317 0.9826
-2.8948 -2.6526 -1.9260 0.9827
-2.3678 -3.1138 -1.9188 0.9827
-1.4576 -3.6304 -1.9190 0.9827
-1.1292 -3.7518 -1.9219 0.9827
0.6156 -3.9430 -1.9576 0.9824
1.3231 -3.8160 -1.9811 0.9822
1.6700 -3.7078 -1.9947 0.9820
2.3383 -3.4026 -2.0252 0.9818
2.6547 -3.2064 -2.0419 0.9816
3.7297 -2.1428 -2.1100 0.9810
4.1000 -0.6772 -2.0384 0.9817
4.1814 -0.3111 -2.0567 0.9815
4.2289 0.0642 -2.0746 0.9813
4.2412 0.4454 -2.0918 0.9812
4.2173 0.8289 -2.1083 0.9810
4.1566 1.2111 -2.1237 0.9809
4.0589 1.5882 -2.1379 0.9808
3.9244 1.9561 -2.1509 0.9807
3.3098 2.9664 -2.1802 0.9804
2.7421 3.5248 -2.1906 0.9803
2.4188 3.7595 -2.1928 0.9803
2.0735 3.9608 -2.1930 0.9803
1.7099 4.1268 -2.1912 0.9803
1.1617 3.7112 -1.9075 0.9828
0.0970 2.7665 -1.3578 0.9877
-1.0022 4.2177 -2.1265 0.9809
-2.3405 3.4874 -2.0602 0.9815
-3.0956 2.6682 -2.0047 0.9820
-1.1548 0.4262 -0.6038 0.9945
-1.1800 0.2083 -0.5878 0.9947
-1.1943 0.1021 -0.5880 0.9947
-1.1956 -0.0050 -0.5865 0.9947
-1.1780 -0.2181 -0.5877 0.9947
-1.1588 -0.3239 -0.5902 0.9947
-1.1537 -0.4368 -0.6051 0.9945
-3.3917 -2.0370 -1.9407 0.9825
-3.1839 -2.3229 -1.9333 0.9826
-2.9545 -2.5899 -1.9272 0.9826
-2.7048 -2.8366 -1.9226 0.9827
-2.4365 -3.0618 -1.9194 0.9827
-2.1513 -3.2642 -1.9176 0.9827
-1.2110 -3.7243 -1.9210 0.9827
-0.5316 -3.8994 -1.9305 0.9826
0.1721 -3.9624 -1.9455 0.9825
1.5852 -3.7372 -1.9913 0.9821
1.9266 -3.6066 -2.0057 0.9819
2.2584 -3.4465 -2.0212 0.9818
3.1709 -2.7946 -2.0733 0.9813
3.4389 -2.5229 -2.0921 0.9812
3.6759 -2.2210 -2.1067 0.9810
3.9538 -1.1162 -2.0152 0.9819
4.0750 -0.7656 -2.0339 0.9817
4.1644 -0.4022 -2.0523 0.9815
4.2204 -0.0288 -2.0703 0.9814
4.1750 1.1174 -2.1200 0.9809
3.7991 2.2251 -2.1596 0.9806
3.3715 2.8904 -2.1784 0.9804
3.1093 3.1898 -2.1850 0.9803
1.8009 4.0893 -2.1918 0.9803
1.0404 4.3273 -2.1831 0.9804
-0.1423 4.3932 -2.1561 0.9806
-0.5311 4.3380 -2.1438 0.9807
-1.2773 4.1185 -2.1151 0.9810
-1.6276 3.9578 -2.0991 0.9811
-2.2680 3.5457 -2.0646 0.9814
-2.8119 3.0308 -2.0280 0.9817
-3.0431 2.7420 -2.0093 0.9819
-2.5573 1.5838 -1.4755 0.9867
-1.1288 0.5664 -0.6195 0.9944
-1.1590 0.3410 -0.5926 0.9946
-1.1962 0.0213 -0.5869 0.9947
-1.1953 -0.0857 -0.5878 0.9947
-1.1831 -0.1922 -0.5879 0.9947
-1.1579 -0.2963 -0.5863 0.9947
-1.1398 -0.5219 -0.6149 0.9944
-3.4394 -1.9639 -1.9427 0.9825
-3.2372 -2.2542 -1.9350 0.9826
-3.0129 -2.5260 -1.9286 0.9826
-2.7680 -2.7779 -1.9236 0.9827
-2.5042 -3.0084 -1.9201 0.9827
-1.9261 -3.4011 -1.9173 0.9827
-1.6153 -3.5610 -1.9180 0.9827
-0.6169 -3.8838 -1.9290 0.9826
-0.2684 -3.9366 -1.9355 0.9826
0.0847 -3.9609 -1.9433 0.9825
0.4402 -3.9561 -1.9526 0.9824
0.7961 -3.9220 -1.9631 0.9823
1.1502 -3.8583 -1.9749 0.9822
1.5000 -3.7648 -1.9879 0.9821
2.1777 -3.4887 -2.0173 0.9818
2.5006 -3.3066 -2.0336 0.9817
3.1018 -2.8575 -2.0687 0.9814
2.3275 -0.9476 -1.2327 0.9889
3.9192 -1.2003 -2.0106 0.9819
4.1455 -0.4927 -2.0478 0.9816
-2.3838 -2.8559 -1.9299 0.9834
-1.8350 -3.2300 -1.9272 0.9834
0.0753 -3.7618 -1.9519 0.9832
0.7506 -3.7239 -1.9707 0.9830
1.0864 -3.6627 -1.9819 0.9829
1.4181 -3.5732 -1.9943 0.9828
1.7432 -3.4554 -2.0078 0.9827
2.3650 -3.1361 -2.0377 0.9825
2.6568 -2.9356 -2.0540 0.9823
2.9325 -2.7088 -2.0710 0.9822
3.1898 -2.4569 -2.0888 0.9820
3.4195 -2.1768 -2.1029 0.9819
3.3772 -1.7472 -1.9726 0.9830
3.6990 -1.1384 -2.0078 0.9827
3.9095 -0.4700 -2.0428 0.9824
3.9687 -0.1199 -2.0598 0.9823
3.9884 0.5974 -2.0922 0.9820
3.8712 1.3155 -2.1211 0.9817
3.6162 2.0059 -2.1453 0.9815
3.2289 2.6397 -2.1636 0.9814
-0.7647 4.0218 -2.1238 0.9817
-2.3402 3.1754 -2.0463 0.9824
-1.1066 0.0456 -0.5745 0.9950
-1.1064 -0.0534 -0.5747 0.9950
-1.0983 -0.1522 -0.5752 0.9950
-1.0776 -0.2490 -0.5738 0.9950
-3.1274 -2.0709 -1.9459 0.9832
-2.9202 -2.3342 -1.9395 0.9833
-0.9948 -3.5898 -1.9325 0.9834
-0.6717 -3.6728 -1.9370 0.9833
1.0040 -3.6804 -1.9791 0.9830
2.2910 -3.1813 -2.0338 0.9825
2.5863 -2.9874 -2.0499 0.9824
3.1283 -2.5212 -2.0843 0.9821
3.3658 -2.2483 -2.0998 0.9819
3.6651 -1.2169 -2.0034 0.9827
3.7922 -0.8924 -2.0211 0.9826
3.8901 -0.5549 -2.0385 0.9824
3.9605 0.8695 -2.1035 0.9819
