ply
format ascii 1.0
element vertex 1582
property float32 x
property float32 y
property float32 z
property float32 I
end_header
1.5886 5.7928 0.2368 0.9762
0.5376 6.0350 0.2389 0.9760
-0.0035 6.2580 0.2468 0.9753
-0.6040 6.6961 0.2651 0.9734
-1.2581 6.9387 0.2781 0.9722
-5.0298 13.4369 0.5657 0.9442
11.7659 -0.7386 0.4649 0.9539
12.2042 0.3261 0.4814 0.9523
11.6857 1.3631 0.4639 0.9540
8.7660 2.6631 0.3613 0.9640
7.6820 3.1070 0.3267 0.9674
6.0598 3.8259 0.2826 0.9717
5.3232 4.0683 0.2642 0.9735
4.0886 4.4830 0.2393 0.9760
3.1012 4.9398 0.2300 0.9769
2.1556 5.3690 0.2281 0.9771
1.7266 5.7360 0.2362 0.9763
1.2232 5.9432 0.2393 0.9760
0.1498 6.1948 0.2443 0.9755
-1.0741 6.8899 0.2750 0.9725
-1.7363 6.9727 0.2833 0.9716
-2.5713 1.8029 0.1238 0.9875
2.3711 -0.8807 0.0997 0.9899
12.0799 0.0240 0.4763 0.9528
7.0090 3.3773 0.3068 0.9693
5.5034 3.9944 0.2681 0.9731
4.8751 4.2521 0.2551 0.9744
4.2730 4.4586 0.2435 0.9756
1.8089 5.5117 0.2287 0.9770
0.3001 6.1329 0.2421 0.9757
-0.2579 6.3629 0.2511 0.9748
-0.8837 6.7635 0.2690 0.9731
-2.5126 1.8560 0.1232 0.9876
-9.2932 -9.4599 0.5229 0.9483
2.3463 -0.9124 0.0425 0.9900
15.1088 -0.2000 0.2552 0.9413
9.3126 2.4274 0.1626 0.9622
8.2031 2.9423 0.1472 0.9657
3.3997 4.9633 0.1016 0.9762
0.3909 6.0879 0.1030 0.9759
15.5184 -0.5894 0.2623 0.9398
11.3172 1.6046 0.1931 0.9553
9.6916 2.2718 0.1681 0.9610
7.4053 3.2104 0.1363 0.9682
6.5403 3.5601 0.1258 0.9706
5.1414 4.1346 0.1114 0.9740
4.0684 4.6885 0.1049 0.9755
2.9823 5.0219 0.0987 0.9769
1.5868 5.7861 0.1013 0.9763
-0.0035 6.2502 0.1056 0.9753
-1.9414 7.0482 0.1235 0.9712
-5.0226 13.4177 0.2420 0.9443
17.9948 -1.1296 0.3046 0.9304
11.6837 1.3629 0.1987 0.9540
6.7644 3.4681 0.1284 0.9700
6.1767 3.8996 0.1234 0.9712
4.0869 4.4811 0.1024 0.9760
3.6843 4.8463 0.1028 0.9759
2.1532 5.3629 0.0976 0.9771
1.7247 5.7294 0.1011 0.9763
1.2218 5.9363 0.1024 0.9760
0.1496 6.1872 0.1045 0.9755
-0.4195 6.4215 0.1087 0.9746
-1.0726 6.8807 0.1176 0.9725
-1.7338 6.9627 0.1212 0.9717
19.3633 -1.6970 0.3283 0.9252
14.9162 0.0297 0.2520 0.9421
10.8553 1.9844 0.1864 0.9568
9.0914 2.5182 0.1594 0.9630
8.0229 3.0163 0.1448 0.9663
4.8689 4.2466 0.1091 0.9745
4.2678 4.4531 0.1042 0.9756
2.7653 5.1112 0.0982 0.9770
1.3622 5.8785 0.1019 0.9761
0.8227 5.9102 0.1008 0.9764
-0.2576 6.3548 0.1074 0.9749
-2.5134 1.8566 0.0528 0.9876
15.0619 -0.1994 -0.0848 0.9415
11.6708 0.8907 -0.0659 0.9543
11.0749 1.8507 -0.0632 0.9561
9.2949 2.4228 -0.0541 0.9623
8.1892 2.9373 -0.0490 0.9658
5.7725 4.0569 -0.0397 0.9722
4.3069 4.3591 -0.0345 0.9758
3.3957 4.9575 -0.0338 0.9763
2.3640 5.2690 -0.0325 0.9772
1.8864 5.4654 -0.0326 0.9771
1.4357 5.7930 -0.0336 0.9764
0.9080 5.8677 -0.0334 0.9765
0.3904 6.0806 -0.0343 0.9759
-0.1595 6.3067 -0.0355 0.9751
-2.5144 1.9173 -0.0178 0.9874
12.2966 0.6331 -0.0693 0.9519
11.2916 1.6010 -0.0642 0.9554
8.4943 2.8117 -0.0504 0.9648
7.3934 3.2052 -0.0454 0.9683
5.1347 4.1293 -0.0371 0.9740
4.0635 4.6829 -0.0349 0.9755
3.5370 4.8994 -0.0340 0.9761
2.9788 5.0161 -0.0328 0.9769
2.4620 5.1429 -0.0321 0.9775
2.0186 5.4110 -0.0325 0.9772
1.5850 5.7795 -0.0337 0.9763
1.0788 5.9876 -0.0343 0.9760
0.5363 6.0206 -0.0340 0.9761
-0.0035 6.2425 -0.0351 0.9753
14.6899 0.3925 -0.0827 0.9429
10.0772 2.1008 -0.0580 0.9597
8.7415 2.6556 -0.0514 0.9641
5.3091 4.0575 -0.0376 0.9736
4.6997 4.3082 -0.0359 0.9748
4.0851 4.4791 -0.0341 0.9760
3.6800 4.8406 -0.0342 0.9760
3.0940 4.9283 -0.0328 0.9770
1.7227 5.7228 -0.0336 0.9764
1.2204 5.9294 -0.0341 0.9761
0.6800 5.9615 -0.0338 0.9763
0.1494 6.1797 -0.0348 0.9756
-0.4190 6.4133 -0.0362 0.9746
-1.0712 6.8715 -0.0392 0.9726
-1.7314 6.9529 -0.0403 0.9717
19.2891 -1.6905 -0.1090 0.9255
11.6483 1.0676 -0.0659 0.9543
8.0094 3.0113 -0.0482 0.9664
6.9875 3.3669 -0.0437 0.9695
6.3762 3.8085 -0.0418 0.9707
4.8626 4.2412 -0.0363 0.9745
2.7621 5.1053 -0.0327 0.9770
2.2827 5.3024 -0.0325 0.9772
1.8047 5.4990 -0.0326 0.9771
0.2994 6.1180 -0.0345 0.9758
-0.8813 6.7457 -0.0383 0.9732
-1.5315 6.8707 -0.0396 0.9722
-2.5144 1.8573 -0.0176 0.9876
2.3450 -0.9119 -0.0708 0.9900
15.0153 -0.1988 -0.4228 0.9417
11.6412 0.8884 -0.3287 0.9544
9.2773 2.4182 -0.2700 0.9624
8.3445 2.9930 -0.2496 0.9651
7.1252 3.3005 -0.2211 0.9691
6.4506 3.7209 -0.2097 0.9706
5.7646 4.0514 -0.1984 0.9722
4.3016 4.3537 -0.1723 0.9758
2.8412 5.0656 -0.1635 0.9770
1.4340 5.7863 -0.1679 0.9764
0.9070 5.8608 -0.1670 0.9765
0.3900 6.0732 -0.1714 0.9759
-0.1593 6.2988 -0.1774 0.9751
-1.4100 6.8121 -0.1959 0.9725
2.3759 -0.9922 -0.0725 0.9897
12.2638 0.6314 -0.3458 0.9520
9.6535 2.2629 -0.2792 0.9611
8.6550 2.8649 -0.2567 0.9642
7.3817 3.2001 -0.2265 0.9683
4.0585 4.6772 -0.1744 0.9755
3.5329 4.8937 -0.1700 0.9761
2.4592 5.1371 -0.1604 0.9775
1.5832 5.7728 -0.1686 0.9763
1.0775 5.9806 -0.1711 0.9760
0.5357 6.0134 -0.1700 0.9761
-1.2583 6.9397 -0.1986 0.9722
-1.9358 7.0279 -0.2053 0.9713
-5.0128 13.3913 -0.4027 0.9444
11.6798 1.3624 -0.3311 0.9540
10.0567 2.0965 -0.2893 0.9597
7.6444 3.0918 -0.2322 0.9675
6.7441 3.4576 -0.2134 0.9701
4.6938 4.3028 -0.1793 0.9748
3.0904 4.9226 -0.1637 0.9770
1.7207 5.7163 -0.1681 0.9764
1.2190 5.9225 -0.1703 0.9761
-0.4184 6.4052 -0.1807 0.9746
-1.0697 6.8623 -0.1956 0.9726
-1.7289 6.9430 -0.2015 0.9718
11.6464 1.0674 -0.3293 0.9543
8.1616 3.0685 -0.2455 0.9657
6.9768 3.3617 -0.2181 0.9695
5.4812 3.9783 -0.1907 0.9733
4.2573 4.4422 -0.1733 0.9757
3.8203 4.7753 -0.1722 0.9758
2.7589 5.0994 -0.1633 0.9771
2.2801 5.2964 -0.1624 0.9772
1.3591 5.8649 -0.1695 0.9762
0.2990 6.1106 -0.1723 0.9758
-0.8802 6.7368 -0.1913 0.9732
-1.5294 6.8611 -0.1979 0.9723
-9.3237 -9.4909 -0.3746 0.9482
-9.2000 -9.5447 -0.6723 0.9483
2.3449 -0.9118 -0.1276 0.9900
14.9689 -0.1982 -0.7592 0.9418
11.0711 1.8500 -0.5692 0.9560
8.3303 2.9879 -0.4488 0.9652
5.7568 4.0459 -0.3568 0.9722
4.9522 4.1883 -0.3289 0.9744
3.9057 4.7326 -0.3112 0.9757
2.8379 5.0597 -0.2942 0.9770
2.3587 5.2569 -0.2922 0.9772
1.8821 5.4529 -0.2926 0.9772
0.9059 5.8540 -0.3004 0.9766
0.3895 6.0659 -0.3083 0.9759
2.3596 -0.9854 -0.1297 0.9898
12.2311 0.6298 -0.6211 0.9521
11.2408 1.5938 -0.5758 0.9555
9.6346 2.2585 -0.5019 0.9611
8.6398 2.8599 -0.4615 0.9642
5.9505 3.9660 -0.3627 0.9718
4.0537 4.6716 -0.3137 0.9755
2.9719 5.0046 -0.2952 0.9770
2.0140 5.3987 -0.2922 0.9772
1.5813 5.7662 -0.3032 0.9763
1.0763 5.9736 -0.3078 0.9760
-0.0035 6.2271 -0.3158 0.9754
-0.6009 6.6616 -0.3392 0.9736
-1.2566 6.9303 -0.3572 0.9722
17.9864 -1.1291 -0.9140 0.9304
8.7382 2.6546 -0.4631 0.9641
7.6319 3.0868 -0.4175 0.9676
6.1507 3.8833 -0.3689 0.9713
4.6878 4.2974 -0.3225 0.9749
3.6713 4.8292 -0.3076 0.9760
1.2175 5.9156 -0.3063 0.9761
0.1490 6.1646 -0.3127 0.9756
-0.4179 6.3970 -0.3251 0.9747
-1.0683 6.8531 -0.3518 0.9726
19.1422 -1.6776 -0.9745 0.9259
10.7867 1.9718 -0.5561 0.9570
9.0408 2.5041 -0.4758 0.9631
8.1479 3.0633 -0.4415 0.9657
6.3581 3.7976 -0.3756 0.9708
5.4739 3.9730 -0.3430 0.9733
4.8502 4.2304 -0.3264 0.9746
4.2521 4.4367 -0.3117 0.9757
3.8157 4.7697 -0.3098 0.9758
3.1856 4.8061 -0.2924 0.9772
2.2775 5.2903 -0.2921 0.9772
1.3575 5.8581 -0.3050 0.9762
0.8198 5.8893 -0.3016 0.9765
0.2987 6.1032 -0.3099 0.9758
-1.5273 6.8516 -0.3560 0.9723
-9.2754 -9.4417 -0.6712 0.9484
-15.4508 -9.1687 -1.3173 0.9305
-14.3174 -10.3292 -1.2945 0.9316
-13.1505 -11.4037 -1.2763 0.9326
-10.7142 -13.3144 -1.2531 0.9338
-9.4427 -14.1580 -1.2478 0.9340
-8.1333 -14.9307 -1.2466 0.9341
-5.3910 -16.2690 -1.2567 0.9336
0.6821 -18.1101 -1.3288 0.9299
19.7630 -2.0357 -1.4567 0.9234
11.5920 0.8847 -0.8524 0.9544
9.2421 2.4090 -0.7003 0.9624
8.3161 2.9828 -0.6478 0.9652
6.4320 3.7101 -0.5444 0.9707
5.7490 4.0405 -0.5152 0.9722
4.9458 4.1829 -0.4749 0.9744
4.2931 4.3451 -0.4479 0.9758
3.9010 4.7269 -0.4494 0.9757
3.3838 4.9402 -0.4390 0.9763
2.8346 5.0539 -0.4249 0.9770
2.3560 5.2509 -0.4220 0.9772
0.9048 5.8471 -0.4338 0.9765
-0.1589 6.2831 -0.4608 0.9751
-0.7746 6.7244 -0.4963 0.9732
-18.9180 -4.6821 -1.4290 0.9248
-14.6342 -10.0171 -1.3003 0.9313
-9.4589 -9.3398 -0.9747 0.9481
-7.1611 -15.4464 -1.2484 0.9340
-5.7806 -16.1003 -1.2543 0.9337
0.2328 -18.0205 -1.3214 0.9303
1.8808 -18.3163 -1.3501 0.9288
3.5971 -18.5305 -1.3841 0.9271
5.3879 -18.6568 -1.4239 0.9251
14.1819 -3.1234 -1.0647 0.9434
12.1985 0.6281 -0.8956 0.9522
11.2155 1.5902 -0.8306 0.9556
6.5019 3.5392 -0.5428 0.9707
5.9423 3.9605 -0.5236 0.9718
5.1146 4.1131 -0.4812 0.9740
4.5235 4.3574 -0.4605 0.9751
4.0488 4.6659 -0.4530 0.9755
2.4536 5.1253 -0.4166 0.9775
1.5795 5.7595 -0.4379 0.9763
1.0750 5.9666 -0.4445 0.9760
0.5344 5.9990 -0.4416 0.9761
-0.0035 6.2194 -0.4560 0.9754
-1.2549 6.9209 -0.5157 0.9722
-1.9302 7.0076 -0.5329 0.9713
-17.1431 -7.1815 -1.3628 0.9282
-14.9485 -9.6983 -1.3065 0.9310
-13.8001 -10.8197 -1.2858 0.9321
-11.4019 -12.8164 -1.2578 0.9335
-8.8623 -14.5120 -1.2468 0.9341
-7.5353 -15.2535 -1.2474 0.9340
-6.1668 -15.9263 -1.2522 0.9338
-4.7539 -16.5306 -1.2612 0.9333
-1.7805 -17.5318 -1.2921 0.9318
-0.2116 -17.9249 -1.3144 0.9306
1.4185 -18.2424 -1.3416 0.9292
3.1153 -18.4797 -1.3741 0.9276
4.8848 -18.6311 -1.4122 0.9257
16.1522 -1.0139 -1.1867 0.9372
10.0159 2.0880 -0.7502 0.9598
8.7365 2.6541 -0.6695 0.9640
5.2881 4.0414 -0.4880 0.9737
4.6819 4.2919 -0.4657 0.9748
4.0798 4.4734 -0.4439 0.9760
3.6669 4.8235 -0.4443 0.9760
3.0833 4.9112 -0.4252 0.9770
2.1433 5.3384 -0.4218 0.9772
1.2161 5.9087 -0.4423 0.9761
-1.0669 6.8440 -0.5079 0.9726
-1.7240 6.9233 -0.5231 0.9718
-18.4689 -5.3623 -1.4101 0.9258
-17.4355 -6.8023 -1.3723 0.9277
-16.3653 -8.1364 -1.3401 0.9293
-15.2601 -9.3727 -1.3131 0.9307
-14.1211 -10.5181 -1.2910 0.9318
-12.9484 -11.5785 -1.2736 0.9327
-11.7417 -12.5589 -1.2606 0.9334
-10.5002 -13.4632 -1.2519 0.9338
-9.2224 -14.2946 -1.2473 0.9340
-2.2043 -17.4101 -1.2867 0.9320
-0.6514 -17.8236 -1.3077 0.9310
0.9612 -18.1624 -1.3336 0.9297
6.2140 -18.6828 -1.4437 0.9241
2.3811 -0.8844 -0.1862 0.9899
18.6762 -1.6368 -1.3746 0.9276
14.9067 0.0297 -1.0930 0.9420
11.6425 1.0670 -0.8572 0.9542
9.0239 2.4995 -0.6866 0.9631
8.1343 3.0582 -0.6372 0.9657
5.4665 3.9676 -0.4953 0.9733
4.2468 4.4313 -0.4500 0.9757
3.1819 4.8005 -0.4223 0.9772
2.7526 5.0877 -0.4241 0.9771
1.3559 5.8513 -0.4404 0.9762
0.8188 5.8824 -0.4355 0.9765
0.2983 6.0958 -0.4475 0.9758
-0.2563 6.3229 -0.4640 0.9749
-1.5251 6.8420 -0.5140 0.9723
-2.5174 1.8596 -0.2295 0.9875
-17.7251 -6.4150 -1.3821 0.9272
-15.5692 -9.0402 -1.3201 0.9303
-9.2574 -9.4234 -0.9686 0.9484
-10.8472 -13.2205 -1.2539 0.9337
-6.9291 -15.5626 -1.2491 0.9340
-5.5411 -16.2048 -1.2557 0.9336
-4.1073 -16.7786 -1.2666 0.9331
-1.0867 -17.7166 -1.3015 0.9313
0.5089 -18.0764 -1.3259 0.9300
3.8967 -18.5584 -1.3904 0.9268
5.7008 -18.6690 -1.4313 0.9247
-12.9566 -7.6887 -1.4464 0.9413
-9.0930 -9.4337 -1.2579 0.9487
-7.4403 -11.1558 -1.2874 0.9475
-5.3440 -12.3161 -1.2889 0.9475
-4.2432 -12.8051 -1.2951 0.9472
-3.1063 -13.2325 -1.3049 0.9468
-1.9323 -13.5969 -1.3185 0.9463
-0.7199 -13.8964 -1.3359 0.9456
6.4043 -15.3495 -1.5968 0.9354
9.6146 -14.8660 -1.6997 0.9313
11.2958 -14.4500 -1.7608 0.9289
14.8064 -13.2103 -1.9050 0.9234
2.3447 -0.9117 -0.2415 0.9899
9.2245 2.4044 -0.9152 0.9624
8.3019 2.9777 -0.8467 0.9652
6.4275 3.7075 -0.7124 0.9706
5.6985 4.0050 -0.6687 0.9724
4.2914 4.3434 -0.5862 0.9758
2.8314 5.0481 -0.5557 0.9770
2.3533 5.2449 -0.5519 0.9772
1.8777 5.4404 -0.5525 0.9771
1.4291 5.7662 -0.5703 0.9764
-0.1587 6.2752 -0.6026 0.9751
-1.4041 6.7840 -0.6651 0.9725
-18.8672 5.7088 -1.8924 0.9238
-18.1149 2.0926 -1.7507 0.9293
-17.0173 -1.0873 -1.6371 0.9338
-16.3637 -2.5269 -1.5896 0.9356
-12.2976 -8.4177 -1.4307 0.9419
-11.3519 -9.3625 -1.4127 0.9426
-9.4155 -9.2968 -1.2703 0.9482
-8.7062 -10.2876 -1.2939 0.9473
-6.6981 -11.6035 -1.2863 0.9476
-4.5512 -12.6760 -1.2930 0.9473
-1.0591 -13.8202 -1.3307 0.9458
0.1818 -14.0712 -1.3510 0.9450
1.4635 -14.2522 -1.3755 0.9441
2.7874 -14.3592 -1.4043 0.9429
9.1586 -14.9594 -1.6840 0.9319
10.8258 -14.5776 -1.7432 0.9296
12.5433 -14.0678 -1.8095 0.9271
14.3097 -13.4171 -1.8832 0.9242
2.3462 -0.9798 -0.2441 0.9898
14.1525 -3.1169 -1.3913 0.9434
11.1903 1.5867 -1.0851 0.9556
8.6096 2.8499 -0.8707 0.9642
6.4923 3.5339 -0.7097 0.9707
5.1079 4.1077 -0.6293 0.9740
4.5178 4.3519 -0.6022 0.9751
4.0439 4.6603 -0.5924 0.9755
3.5204 4.8764 -0.5774 0.9761
2.9651 4.9930 -0.5575 0.9769
2.4508 5.1194 -0.5449 0.9775
2.0094 5.3863 -0.5519 0.9772
-0.0035 6.2117 -0.5964 0.9753
-0.5949 6.5951 -0.6357 0.9737
-1.2532 6.9114 -0.6744 0.9722
-5.0057 13.3725 -1.3708 0.9442
-18.6409 4.3477 -1.8376 0.9260
-17.7531 0.8942 -1.7065 0.9311
-16.5507 -2.1383 -1.6022 0.9351
-15.8531 -3.5100 -1.5588 0.9368
-15.0999 -4.7920 -1.5209 0.9383
-14.2962 -5.9889 -1.4881 0.9396
-11.6174 -9.1083 -1.4173 0.9424
-9.9157 -9.3180 -1.3063 0.9468
-8.9730 -10.0862 -1.2961 0.9472
-7.9957 -10.7919 -1.2895 0.9475
-5.9377 -12.0195 -1.2871 0.9476
-4.8565 -12.5422 -1.2912 0.9474
-3.7397 -13.0038 -1.2990 0.9471
-2.5863 -13.4032 -1.3105 0.9466
-1.3953 -13.7389 -1.3258 0.9460
1.1049 -14.2093 -1.3683 0.9443
3.7723 -14.3879 -1.4280 0.9420
5.5520 -15.4094 -1.5725 0.9363
10.3596 -14.6955 -1.7262 0.9303
12.0633 -14.2223 -1.7904 0.9278
13.8164 -13.6119 -1.8620 0.9250
16.0952 -1.0103 -1.5483 0.9373
14.5254 0.3881 -1.3950 0.9433
11.5919 1.3522 -1.1204 0.9542
9.9955 2.0838 -0.9802 0.9598
8.7349 2.6536 -0.8764 0.9640
6.7137 3.4421 -0.7243 0.9701
4.6760 4.2865 -0.6090 0.9748
4.0781 4.4714 -0.5810 0.9760
3.0797 4.9055 -0.5561 0.9770
2.6169 5.1364 -0.5534 0.9771
0.3397 2.9784 -0.2878 0.9880
0.1487 6.1495 -0.5906 0.9756
-0.4168 6.3807 -0.6139 0.9746
-1.0655 6.8348 -0.6641 0.9726
-1.7216 6.9135 -0.6840 0.9718
-2.5604 1.7952 -0.3002 0.9875
-18.3614 3.0472 -1.7869 0.9279
-17.8965 1.3457 -1.7230 0.9304
-17.3505 -0.2490 -1.6659 0.9326
-16.7331 -1.7425 -1.6151 0.9346
-12.8034 -7.8638 -1.4425 0.9414
-11.8799 -8.8488 -1.4221 0.9422
-6.2305 -11.8642 -1.2865 0.9476
-4.0521 -12.8823 -1.2965 0.9472
-2.9090 -13.2991 -1.3070 0.9468
0.7494 -14.1609 -1.3614 0.9446
2.0498 -14.3094 -1.3878 0.9436
4.7806 -14.3732 -1.4542 0.9409
6.6698 -15.3250 -1.6046 0.9350
8.2582 -15.1199 -1.6540 0.9331
9.8973 -14.8039 -1.7096 0.9309
11.5871 -14.3663 -1.7719 0.9285
13.3267 -13.7952 -1.8415 0.9258
9.0071 2.4948 -0.8973 0.9631
6.3399 3.7868 -0.7090 0.9708
4.8378 4.2196 -0.6163 0.9745
4.2416 4.4258 -0.5885 0.9757
2.2723 5.2782 -0.5517 0.9772
1.7965 5.4738 -0.5531 0.9771
1.3544 5.8445 -0.5760 0.9762
0.8178 5.8754 -0.5695 0.9764
0.2979 6.0884 -0.5852 0.9758
-0.2559 6.3150 -0.6068 0.9749
-1.5230 6.8325 -0.6721 0.9723
-18.8190 5.3829 -1.8792 0.9244
-18.0336 1.8054 -1.7400 0.9298
-16.2462 -2.7627 -1.5821 0.9359
-15.5231 -4.0937 -1.5412 0.9375
-13.9217 -6.4973 -1.4749 0.9401
-13.0516 -7.5784 -1.4489 0.9412
-11.1870 -9.5163 -1.4100 0.9427
-8.5406 -10.4092 -1.2927 0.9473
-6.5207 -11.7043 -1.2863 0.9476
-5.4589 -12.2606 -1.2885 0.9475
-4.3618 -12.7561 -1.2943 0.9473
-3.2288 -13.1901 -1.3037 0.9469
-2.0588 -13.5613 -1.3169 0.9464
-0.8506 -13.8678 -1.3339 0.9457
0.3972 -14.1070 -1.3549 0.9449
1.6860 -14.2757 -1.3801 0.9439
3.0172 -14.3698 -1.4097 0.9427
4.3923 -14.3841 -1.4439 0.9414
6.2394 -15.3634 -1.5920 0.9355
7.8139 -15.1873 -1.6397 0.9337
11.1147 -14.5002 -1.7540 0.9292
-11.8726 -5.6789 -1.5633 0.9484
-11.1491 -6.6161 -1.5400 0.9491
-10.3815 -7.4896 -1.5206 0.9497
-9.5724 -8.3009 -1.5050 0.9502
-8.2469 -8.5558 -1.4116 0.9533
-7.3018 -9.0738 -1.3835 0.9542
-6.4425 -9.6596 -1.3792 0.9543
-5.5505 -10.1894 -1.3783 0.9543
-2.6848 -11.4369 -1.3955 0.9538
-0.6202 -11.9722 -1.4240 0.9529
4.1513 -13.1463 -1.6376 0.9460
12.2012 -10.8859 -1.9423 0.9363
14.9940 -9.1863 -2.0888 0.9316
2.3446 -0.9117 -0.2988 0.9899
17.6762 -5.1108 -2.1857 0.9286
18.8376 -3.6629 -2.2796 0.9256
10.3816 1.7348 -1.2503 0.9585
9.0684 2.3637 -1.1132 0.9630
7.0809 3.2800 -0.9270 0.9691
6.4259 3.7066 -0.8812 0.9706
3.8917 4.7155 -0.7263 0.9757
2.3505 5.2389 -0.6821 0.9771
0.1953 3.0418 -0.3621 0.9878
-0.1585 6.2673 -0.7447 0.9751
-0.7726 6.7068 -0.8019 0.9732
-14.5344 13.2940 -2.3397 0.9237
-15.0333 11.4628 -2.2456 0.9267
-15.3710 9.6806 -2.1578 0.9294
-15.5629 7.9571 -2.0763 0.9320
-15.4019 3.1930 -1.8684 0.9386
-14.7995 0.3790 -1.7585 0.9421
-13.3364 -3.3007 -1.6320 0.9462
-12.7267 -4.3880 -1.5991 0.9472
-8.5537 -8.4459 -1.4279 0.9527
-7.5335 -8.9019 -1.3853 0.9541
-4.8852 -10.5375 -1.3797 0.9543
-2.9607 -11.3438 -1.3926 0.9539
-0.9129 -11.9130 -1.4192 0.9530
0.1564 -12.1038 -1.4379 0.9524
1.2778 -12.4438 -1.4859 0.9509
2.5114 -12.9375 -1.5655 0.9483
3.8022 -13.1662 -1.6279 0.9463
7.7044 -12.5842 -1.7527 0.9423
9.0563 -12.1949 -1.8043 0.9406
10.4283 -11.6957 -1.8613 0.9388
14.6089 -9.4548 -2.0671 0.9323
17.3440 -5.4829 -2.1607 0.9293
14.1343 -3.1129 -1.7192 0.9434
12.1335 0.6247 -1.4432 0.9522
9.3394 2.1893 -1.1395 0.9621
5.9259 3.9495 -0.8459 0.9717
4.5122 4.3465 -0.7442 0.9751
4.0390 4.6547 -0.7320 0.9755
2.9616 4.9872 -0.6890 0.9769
2.0071 5.3801 -0.6821 0.9771
1.5759 5.7462 -0.7078 0.9763
0.2623 2.9446 -0.3512 0.9882
-0.0035 6.2040 -0.7369 0.9753
-0.5986 6.6358 -0.7914 0.9735
-1.2515 6.9020 -0.8332 0.9721
-14.9121 11.9648 -2.2710 0.9259
-15.2929 10.1680 -2.1815 0.9287
-15.4572 3.6052 -1.8854 0.9381
-14.9026 0.7506 -1.7725 0.9417
-14.0311 -1.8128 -1.6805 0.9446
-12.2526 -5.1328 -1.5780 0.9479
-11.5549 -6.1057 -1.5524 0.9487
-10.8114 -7.0142 -1.5308 0.9494
-10.0249 -7.8598 -1.5132 0.9500
-5.1415 -10.4079 -1.3789 0.9543
-3.2342 -11.2462 -1.3900 0.9540
-2.2341 -11.5778 -1.4006 0.9536
-1.2034 -11.8489 -1.4147 0.9532
-0.1424 -12.0575 -1.4324 0.9526
0.9576 -12.3154 -1.4673 0.9515
2.1571 -12.7959 -1.5414 0.9491
3.4555 -13.1797 -1.6185 0.9466
4.7201 -13.1004 -1.6541 0.9455
7.3346 -12.6736 -1.7394 0.9427
8.6802 -12.3132 -1.7895 0.9411
10.0471 -11.8452 -1.8450 0.9394
11.4308 -11.2616 -1.9061 0.9374
14.2230 -9.7123 -2.0458 0.9330
15.6143 -8.7283 -2.1249 0.9305
17.0077 -5.8429 -2.1362 0.9301
18.2036 -4.4837 -2.2270 0.9273
16.0384 -1.0068 -1.9089 0.9373
6.7036 3.4369 -0.8949 0.9701
6.1248 3.8669 -0.8604 0.9712
4.0763 4.4695 -0.7186 0.9759
3.6582 4.8120 -0.7180 0.9759
2.6139 5.1305 -0.6840 0.9771
2.1384 5.3261 -0.6818 0.9771
1.2133 5.8949 -0.7149 0.9760
0.1485 6.1419 -0.7298 0.9756
-1.0640 6.8256 -0.8206 0.9726
-14.7783 12.4704 -2.2969 0.9251
-15.4739 8.9027 -2.1206 0.9306
-15.6113 5.5799 -1.9693 0.9354
-15.5049 4.0230 -1.9027 0.9375
-14.9997 1.1279 -1.7868 0.9412
-14.6205 -0.2099 -1.7369 0.9428
-14.1681 -1.4754 -1.6921 0.9442
-10.2466 -7.6322 -1.5177 0.9498
-8.0677 -8.6292 -1.4032 0.9535
-5.3954 -10.2740 -1.3785 0.9543
-4.4660 -10.7376 -1.3814 0.9542
-1.4915 -11.7801 -1.4105 0.9533
0.6453 -12.1931 -1.4504 0.9520
5.6531 -12.9889 -1.6827 0.9445
11.0467 -11.4351 -1.8886 0.9380
12.4389 -10.7624 -1.9539 0.9359
13.8366 -9.9589 -2.0251 0.9336
16.6102 -7.9223 -2.1860 0.9286
2.3883 -0.8871 -0.3026 0.9898
17.8787 -4.8756 -2.2013 0.9281
7.8676 2.9579 -0.9984 0.9667
6.9339 3.3411 -0.9143 0.9695
5.4518 3.9569 -0.8002 0.9732
4.8316 4.2141 -0.7616 0.9745
3.1744 4.7893 -0.6825 0.9771
1.7944 5.4675 -0.6835 0.9771
1.3528 5.8377 -0.7118 0.9762
-0.2556 6.3070 -0.7498 0.9749
-0.8777 6.7176 -0.8047 0.9731
-14.6314 12.9791 -2.3233 0.9242
-2.5194 1.8611 -0.3721 0.9875
-15.4136 9.3827 -2.1435 0.9299
-15.5821 7.6699 -2.0630 0.9324
-15.3643 2.9419 -1.8582 0.9389
-14.7331 0.1528 -1.7502 0.9424
-13.7992 -2.3466 -1.6627 0.9452
-13.2365 -3.4907 -1.6261 0.9464
-12.6174 -4.5665 -1.5939 0.9474
-11.9467 -5.5756 -1.5660 0.9483
-11.2281 -6.5196 -1.5423 0.9490
-10.4651 -7.3998 -1.5225 0.9497
-9.6602 -8.2176 -1.5065 0.9502
-7.3911 -9.0083 -1.3841 0.9541
-6.5354 -9.6001 -1.3795 0.9543
-4.7262 -10.6151 -1.3803 0.9543
-3.7741 -11.0374 -1.3856 0.9541
-0.7330 -11.9500 -1.4222 0.9529
0.3415 -12.1298 -1.4414 0.9523
1.4791 -12.5245 -1.4981 0.9505
2.7352 -13.0269 -1.5812 0.9478
4.0169 -13.1547 -1.6338 0.9461
6.6008 -12.8294 -1.7138 0.9435
7.9330 -12.5254 -1.7611 0.9420
9.2886 -12.1178 -1.8137 0.9404
-9.7778 -5.8023 -1.6110 0.9551
-9.1187 -6.5786 -1.5932 0.9556
-7.6795 -7.9672 -1.5679 0.9563
-6.9040 -8.5795 -1.5603 0.9565
-5.2505 -9.6386 -1.5552 0.9566
-4.3756 -10.0842 -1.5575 0.9566
-2.5359 -10.8027 -1.5722 0.9562
-1.5735 -11.0726 -1.5846 0.9558
0.4303 -11.4242 -1.6198 0.9549
1.4691 -11.5007 -1.6428 0.9542
2.5305 -11.5072 -1.6694 0.9535
3.6125 -11.4401 -1.6998 0.9527
4.7129 -11.2955 -1.7342 0.9518
8.0928 -10.3526 -1.8618 0.9483
9.2317 -9.8521 -1.9130 0.9469
11.4922 -8.5401 -2.0287 0.9438
2.3445 -0.9117 -0.3564 0.9899
14.5543 -4.2081 -2.1467 0.9406
11.5609 0.8823 -1.6428 0.9542
9.0137 2.3495 -1.3198 0.9631
6.4041 3.6940 -1.0475 0.9706
5.5564 3.9050 -0.9623 0.9729
4.9266 4.1667 -0.9142 0.9743
2.8248 5.0364 -0.8182 0.9769
1.8734 5.4279 -0.8136 0.9771
0.9016 5.8263 -0.8354 0.9765
-0.7716 6.6980 -0.9553 0.9731
-1.4002 6.7651 -0.9789 0.9725
-7.1969 17.8676 -2.7293 0.9251
-11.3388 12.4047 -2.3812 0.9344
-12.4808 9.5165 -2.2238 0.9386
-12.8464 8.0906 -2.1511 0.9405
-13.0880 6.6917 -2.0828 0.9423
-13.2150 5.3278 -2.0189 0.9441
-12.9995 1.5017 -1.8541 0.9485
-12.7564 0.3267 -1.8080 0.9498
-11.6107 -2.8736 -1.6948 0.9528
-10.5547 -4.7316 -1.6389 0.9543
-8.6161 -7.1061 -1.5824 0.9559
-7.1220 -8.4156 -1.5621 0.9564
-6.3212 -8.9881 -1.5569 0.9566
-4.6206 -9.9667 -1.5565 0.9566
-3.7236 -10.3710 -1.5613 0.9565
2.2348 -11.5126 -1.6617 0.9537
3.3113 -11.4662 -1.6910 0.9529
4.4069 -11.3435 -1.7243 0.9520
5.5188 -11.1402 -1.7615 0.9510
7.7781 -10.4737 -1.8485 0.9487
8.9167 -10.0004 -1.8984 0.9473
11.1826 -8.7473 -2.0116 0.9443
12.2944 -7.9569 -2.0750 0.9426
13.3793 -7.0506 -2.1428 0.9407
2.3368 -0.9759 -0.3588 0.9898
14.3096 -4.5236 -2.1264 0.9412
14.1259 -3.1111 -2.0495 0.9432
11.1397 1.5795 -1.5942 0.9556
6.4731 3.5235 -1.0442 0.9707
4.0340 4.6490 -0.8721 0.9754
3.5121 4.8649 -0.8502 0.9761
2.0048 5.3739 -0.8127 0.9771
0.2621 2.9421 -0.4185 0.9881
-0.0034 6.1962 -0.8779 0.9753
-0.5978 6.6272 -0.9428 0.9735
-10.2977 14.2308 -2.4889 0.9315
-11.8183 11.3589 -2.3226 0.9359
-13.2408 4.3665 -1.9755 0.9452
-13.0529 1.8359 -1.8677 0.9481
-12.5344 -0.4901 -1.7773 0.9506
-12.1686 -1.5722 -1.7385 0.9516
-11.7398 -2.5993 -1.7037 0.9526
-10.1236 -5.3494 -1.6223 0.9548
-8.0929 -7.6050 -1.5735 0.9561
-7.3373 -8.2476 -1.5641 0.9564
-6.5461 -8.8353 -1.5580 0.9565
-5.7209 -9.3679 -1.5553 0.9566
-3.0563 -10.6275 -1.5668 0.9563
-1.1348 -11.1734 -1.5913 0.9556
-0.1340 -11.3528 -1.6087 0.9552
0.8916 -11.4668 -1.6296 0.9546
3.0116 -11.4865 -1.6825 0.9532
5.2098 -11.2048 -1.7508 0.9513
6.3316 -10.9405 -1.7910 0.9502
7.4637 -10.5876 -1.8354 0.9490
8.6017 -10.1412 -1.8842 0.9477
10.8718 -8.9461 -1.9949 0.9447
13.1228 -5.8653 -2.0366 0.9436
14.9387 -3.6796 -2.1799 0.9397
14.4436 0.3860 -2.0472 0.9433
9.8817 2.0601 -1.4302 0.9600
8.4058 2.5536 -1.2448 0.9651
6.6804 3.4250 -1.0637 0.9701
6.1162 3.8615 -1.0249 0.9712
5.2670 4.0253 -0.9393 0.9736
4.6641 4.2756 -0.8965 0.9748
3.0725 4.8940 -0.8188 0.9769
2.6108 5.1245 -0.8149 0.9770
2.1359 5.3200 -0.8123 0.9771
1.7108 5.6834 -0.8410 0.9763
1.2119 5.8880 -0.8517 0.9760
0.3346 2.9329 -0.4183 0.9881
-0.4158 6.3644 -0.9037 0.9746
-6.4185 18.5296 -2.7785 0.9238
-7.7894 17.3093 -2.6894 0.9262
-10.0381 14.6201 -2.5128 0.9309
-11.6442 11.7590 -2.3448 0.9353
-12.9692 7.4616 -2.1200 0.9413
-13.1584 6.0774 -2.0536 0.9431
-13.2372 4.7313 -1.9918 0.9448
-13.2148 3.4288 -1.9344 0.9463
-13.0999 2.1740 -1.8815 0.9478
-12.9004 0.9701 -1.8330 0.9491
-12.6236 -0.1812 -1.7888 0.9503
-11.8644 -2.3207 -1.7129 0.9523
-10.8674 -4.2398 -1.6528 0.9540
-10.2913 -5.1166 -1.6284 0.9546
-9.6685 -5.9384 -1.6077 0.9552
-8.2953 -7.4177 -1.5767 0.9560
-6.7684 -8.6783 -1.5594 0.9565
-5.9524 -9.2262 -1.5557 0.9566
-5.1037 -9.7185 -1.5553 0.9566
-4.2235 -10.1545 -1.5583 0.9565
-3.3132 -10.5331 -1.5645 0.9564
-1.4069 -11.1125 -1.5871 0.9558
0.6055 -11.4420 -1.6235 0.9548
2.7134 -11.5011 -1.6743 0.9534
3.7987 -11.4211 -1.7054 0.9525
4.9019 -11.2629 -1.7404 0.9516
7.1498 -10.6944 -1.8227 0.9494
8.2867 -10.2743 -1.8703 0.9481
9.4255 -9.7568 -1.9222 0.9467
12.7832 -7.5665 -2.1047 0.9418
13.8349 -6.5986 -2.1718 0.9400
14.7024 -4.0094 -2.1593 0.9403
16.2684 -1.4258 -2.3139 0.9362
6.2747 3.7479 -1.0356 0.9709
5.4444 3.9516 -0.9532 0.9732
4.8254 4.2087 -0.9072 0.9745
4.2311 4.4149 -0.8664 0.9756
3.1707 4.7836 -0.8132 0.9771
2.7430 5.0701 -0.8168 0.9770
2.2671 5.2660 -0.8123 0.9771
1.7923 5.4612 -0.8144 0.9770
1.3512 5.8309 -0.8481 0.9761
0.2972 6.0735 -0.8616 0.9757
-0.8779 6.7196 -0.9602 0.9730
-1.5187 6.8133 -0.9891 0.9722
-7.4266 17.6572 -2.7141 0.9255
-9.7663 15.0062 -2.5368 0.9302
-11.4587 12.1588 -2.3673 0.9347
-12.0762 10.7125 -2.2873 0.9369
-2.5205 1.8618 -0.4440 0.9874
-12.8961 7.8502 -2.1392 0.9408
-13.1405 2.5161 -1.8957 0.9474
-12.9636 1.2978 -1.8460 0.9487
-12.7075 0.1318 -1.8006 0.9500
-12.3791 -0.9804 -1.7595 0.9511
-11.5291 -3.0404 -1.6894 0.9530
-11.0180 -3.9876 -1.6602 0.9538
-10.4555 -4.8796 -1.6348 0.9545
-9.1907 -6.4987 -1.5949 0.9555
-8.4947 -7.2261 -1.5802 0.9559
-7.7598 -7.8989 -1.5689 0.9563
-6.1814 -9.0802 -1.5564 0.9566
-4.4700 -10.0396 -1.5571 0.9566
-0.6907 -11.2615 -1.5986 0.9554
2.4167 -11.5099 -1.6664 0.9536
4.5952 -11.3147 -1.7303 0.9519
5.7096 -11.0973 -1.7683 0.9508
7.9719 -10.4000 -1.8567 0.9484
-9.2345 -4.4171 -1.6864 0.9594
-7.5076 -6.5104 -1.6371 0.9605
-6.8537 -7.1105 -1.6269 0.9608
-6.1648 -7.6609 -1.6199 0.9609
-5.4429 -8.1609 -1.6160 0.9610
-3.9078 -9.0063 -1.6173 0.9610
-3.0981 -9.3496 -1.6226 0.9609
-2.2626 -9.6383 -1.6310 0.9607
0.3827 -10.1596 -1.6749 0.9596
1.3045 -10.2117 -1.6959 0.9591
2.2428 -10.1989 -1.7203 0.9586
3.1952 -10.1185 -1.7480 0.9579
4.1587 -9.9673 -1.7792 0.9572
5.1300 -9.7423 -1.8138 0.9563
7.0799 -9.0568 -1.8938 0.9545
8.0485 -8.5894 -1.9392 0.9534
9.0051 -8.0343 -1.9881 0.9523
10.8520 -6.6486 -2.0966 0.9497
2.3444 -0.9116 -0.4144 0.9899
12.3577 -3.5730 -2.1192 0.9492
13.5656 -1.3973 -2.2466 0.9462
14.0356 -0.1858 -2.3124 0.9447
11.5590 0.8821 -1.9098 0.9541
9.1717 2.3907 -1.5614 0.9623
7.9308 2.8446 -1.3880 0.9664
6.8791 3.1866 -1.2489 0.9697
6.0700 3.5013 -1.1544 0.9720
5.4450 3.8268 -1.0964 0.9734
4.8990 4.1433 -1.0570 0.9743
3.8822 4.7041 -1.0048 0.9756
3.3679 4.9169 -0.9818 0.9761
2.8215 5.0305 -0.9502 0.9769
1.8712 5.4216 -0.9448 0.9770
1.4240 5.7461 -0.9752 0.9763
0.9005 5.8194 -0.9701 0.9764
-0.7330 6.3636 -1.0553 0.9744
-1.2334 5.9591 -1.0025 0.9756
-5.5210 13.7068 -2.4343 0.9419
-8.0201 12.7434 -2.4805 0.9408
-8.8655 11.6348 -2.4097 0.9424
-9.5850 10.4860 -2.3404 0.9440
-10.1814 9.3125 -2.2731 0.9456
-10.6593 8.1276 -2.2082 0.9471
-11.2824 5.7685 -2.0875 0.9499
-11.4403 4.6123 -2.0321 0.9512
-11.5045 3.4810 -1.9801 0.9524
-11.3784 1.3144 -1.8869 0.9546
-10.6426 -1.6434 -1.7740 0.9573
-10.2729 -2.5425 -1.7434 0.9580
-9.3742 -4.2024 -1.6924 0.9592
-8.2877 -5.6729 -1.6545 0.9601
-7.6819 -6.3357 -1.6404 0.9604
-7.0382 -6.9495 -1.6294 0.9607
-6.3587 -7.5137 -1.6216 0.9609
-5.6458 -8.0277 -1.6168 0.9610
-4.1270 -8.9019 -1.6164 0.9610
-2.4961 -9.5640 -1.6283 0.9607
-1.6429 -9.8122 -1.6389 0.9605
-0.7666 -10.0028 -1.6527 0.9601
1.0478 -10.2036 -1.6898 0.9593
2.9305 -10.1476 -1.7400 0.9581
3.8913 -10.0164 -1.7702 0.9574
6.8107 -9.1711 -1.8819 0.9547
7.7816 -8.7273 -1.9262 0.9537
8.7421 -8.1968 -1.9742 0.9526
10.6037 -6.8627 -2.0808 0.9501
11.4877 -6.0538 -2.1392 0.9487
2.3331 -0.9743 -0.4165 0.9898
12.1673 -3.8464 -2.1022 0.9496
12.8310 -2.8259 -2.1644 0.9481
13.4184 -1.7184 -2.2286 0.9466
6.2751 3.4157 -1.1770 0.9715
5.6011 3.7330 -1.1089 0.9731
4.0291 4.6433 -1.0128 0.9754
3.5079 4.8591 -0.9873 0.9760
2.4558 5.1298 -0.9369 0.9772
-0.0034 6.1747 -1.0172 0.9753
-0.5704 6.3236 -1.0460 0.9746
-1.8634 6.7651 -1.1560 0.9720
-4.9511 13.2265 -2.3266 0.9444
-6.2698 13.0598 -2.3866 0.9430
-10.0285 9.6387 -2.2914 0.9452
-10.9342 7.2700 -2.1631 0.9482
-11.2213 6.0918 -2.1034 0.9496
-11.4957 3.7910 -1.9941 0.9521
-11.4964 2.6814 -1.9447 0.9533
-10.7346 -1.3869 -1.7831 0.9571
-10.3808 -2.2984 -1.7515 0.9578
-9.9713 -3.1644 -1.7234 0.9585
-9.0015 -4.7564 -1.6772 0.9596
-7.8534 -6.1573 -1.6440 0.9604
-7.2199 -6.7847 -1.6322 0.9606
-5.8462 -7.8907 -1.6178 0.9610
-4.3440 -8.7935 -1.6157 0.9610
-3.5493 -9.1664 -1.6193 0.9609
-2.7278 -9.4854 -1.6260 0.9608
1.7219 -10.2141 -1.7064 0.9589
2.6668 -10.1715 -1.7323 0.9583
4.5920 -9.8761 -1.7942 0.9568
8.4779 -8.3524 -1.9606 0.9529
9.4267 -7.7571 -2.0111 0.9517
10.3527 -7.0695 -2.0652 0.9504
11.2292 -5.0189 -2.0263 0.9514
12.6545 -3.1170 -2.1470 0.9485
13.2644 -2.0332 -2.2107 0.9471
13.7880 -0.8655 -2.2759 0.9455
14.2115 0.3798 -2.3420 0.9440
8.6227 2.6195 -1.4846 0.9641
6.4885 3.3266 -1.2012 0.9709
3.6495 4.8005 -0.9934 0.9759
2.6078 5.1186 -0.9464 0.9770
2.1335 5.3138 -0.9433 0.9771
1.7088 5.6768 -0.9766 0.9763
1.2104 5.8810 -0.9891 0.9760
-0.4105 6.2831 -1.0373 0.9748
-1.0019 6.4272 -1.0716 0.9740
-4.9085 14.1703 -2.4705 0.9410
-5.9906 13.3122 -2.4049 0.9425
-8.4136 12.2540 -2.4487 0.9415
-9.2025 11.1254 -2.3785 0.9431
-9.8665 9.9638 -2.3100 0.9447
-10.4093 8.7837 -2.2438 0.9463
-11.3649 5.2491 -2.0623 0.9505
-11.5047 2.9851 -1.9580 0.9530
-11.4452 1.8994 -1.9113 0.9541
-11.3077 0.8503 -1.8681 0.9551
-11.0981 -0.1593 -1.8285 0.9560
-10.0899 -2.9295 -1.7308 0.9583
-9.1468 -4.5475 -1.6828 0.9594
-8.6054 -5.2854 -1.6637 0.9599
-8.0219 -5.9751 -1.6478 0.9603
-6.7388 -7.2078 -1.6255 0.9608
-4.5588 -8.6810 -1.6153 0.9610
-2.9576 -9.4027 -1.6238 0.9608
-2.1178 -9.6819 -1.6327 0.9606
-0.3680 -10.0690 -1.6599 0.9600
0.5384 -10.1729 -1.6782 0.9595
2.4041 -10.1901 -1.7248 0.9584
5.2960 -9.6963 -1.8201 0.9562
6.2714 -9.3805 -1.8589 0.9553
7.2454 -8.9833 -1.9013 0.9543
10.0994 -7.2690 -2.0499 0.9508
13.1037 -2.3415 -2.1929 0.9475
14.1053 0.0281 -2.3237 0.9444
10.3577 1.8934 -1.7346 0.9582
8.9566 2.4808 -1.5311 0.9630
5.3500 3.8831 -1.0890 0.9736
4.8085 4.1940 -1.0511 0.9745
3.7929 4.7411 -1.0002 0.9757
3.1669 4.7779 -0.9443 0.9770
2.7398 5.0641 -0.9485 0.9769
1.7902 5.4548 -0.9458 0.9770
1.3496 5.8240 -0.9849 0.9761
0.8149 5.8544 -0.9737 0.9763
0.2968 6.0660 -1.0005 0.9757
-0.2530 6.2421 -1.0292 0.9750
-1.3063 5.8604 -0.9891 0.9760
-2.2131 6.9393 -1.1999 0.9709
-5.7026 13.5584 -2.4231 0.9421
-7.2221 13.6205 -2.5397 0.9394
-8.1730 12.5581 -2.4684 0.9411
-8.9969 11.4415 -2.3978 0.9427
-10.2710 9.1111 -2.2618 0.9459
-2.5215 1.8626 -0.5164 0.9874
-11.0755 6.7420 -2.1360 0.9488
-11.3161 5.5701 -2.0778 0.9502
-11.4576 4.4177 -2.0230 0.9514
-11.4697 2.1962 -1.9238 0.9538
-11.1630 0.1158 -1.8391 0.9558
-10.2044 -2.6911 -1.7385 0.9581
-8.7595 -5.0862 -1.6687 0.9598
-8.1873 -5.7892 -1.6519 0.9602
-4.7714 -8.5645 -1.6151 0.9610
-2.3525 -9.6102 -1.6299 0.9607
-0.6152 -10.0294 -1.6553 0.9601
0.2858 -10.1504 -1.6728 0.9597
3.0934 -10.1303 -1.7449 0.9580
5.0266 -9.7698 -1.8100 0.9564
6.0016 -9.4759 -1.8478 0.9555
6.9765 -9.1015 -1.8892 0.9546
-8.3023 -3.9712 -1.7298 0.9632
-7.8316 -4.6474 -1.7117 0.9636
-7.3198 -5.2808 -1.6965 0.9639
-6.7697 -5.8705 -1.6842 0.9642
-5.5646 -6.9151 -1.6683 0.9645
-4.9142 -7.3681 -1.6647 0.9646
-3.5279 -8.1307 -1.6659 0.9646
-2.7961 -8.4380 -1.6708 0.9645
-2.0409 -8.6941 -1.6786 0.9643
-1.2645 -8.8977 -1.6892 0.9641
-0.4687 -9.0470 -1.7028 0.9638
1.1721 -9.1756 -1.7387 0.9631
2.8621 -9.0635 -1.7865 0.9621
3.7182 -8.9116 -1.8150 0.9615
7.1282 -7.6072 -1.9595 0.9585
9.5227 -5.8342 -2.0991 0.9556
10.2361 -5.0749 -2.1475 0.9546
12.0383 -0.1594 -2.2629 0.9522
9.1540 2.3860 -1.7781 0.9622
8.0014 2.8700 -1.5978 0.9660
4.2147 4.2658 -1.1272 0.9759
2.3110 5.1508 -1.0611 0.9773
1.8416 5.3358 -1.0610 0.9773
0.4753 3.0716 -0.5842 0.9874
-4.7001 11.6687 -2.3645 0.9501
-5.5903 10.9424 -2.3096 0.9512
-6.3878 10.1497 -2.2541 0.9524
-7.0898 9.3044 -2.1987 0.9535
-8.8430 8.0883 -2.2526 0.9524
-9.9056 5.0646 -2.0911 0.9557
-10.0768 4.0626 -2.0422 0.9567
-9.5183 -1.4698 -1.8103 0.9616
-8.8388 -3.0475 -1.7573 0.9627
-5.7391 -6.7815 -1.6699 0.9645
-4.4254 -7.6664 -1.6638 0.9646
-3.0009 -8.3581 -1.6692 0.9645
-2.2520 -8.6285 -1.6761 0.9644
-1.4812 -8.8468 -1.6860 0.9642
-0.6906 -9.0112 -1.6987 0.9639
0.1179 -9.1202 -1.7144 0.9636
0.9418 -9.1717 -1.7330 0.9632
2.6263 -9.0940 -1.7792 0.9622
4.3396 -8.7600 -1.8375 0.9610
5.1982 -8.4907 -1.8712 0.9603
6.0523 -8.1499 -1.9081 0.9595
8.5344 -6.6758 -2.0366 0.9569
9.3134 -6.0276 -2.0852 0.9559
10.0555 -5.2990 -2.1364 0.9548
10.5726 -3.3423 -2.0842 0.9559
11.1063 -2.4460 -2.1376 0.9548
11.5686 -1.4815 -2.1922 0.9536
12.0360 0.6197 -2.2653 0.9521
6.3767 3.4710 -1.3646 0.9709
5.5969 3.7303 -1.2642 0.9730
4.9329 3.9670 -1.1898 0.9746
4.3640 4.2038 -1.1389 0.9756
3.5037 4.8532 -1.1251 0.9759
2.9063 4.8940 -1.0699 0.9771
1.9720 5.2859 -1.0604 0.9773
1.4979 5.4619 -1.0645 0.9772
1.0137 5.6265 -1.0746 0.9770
-0.5627 6.2375 -1.1772 0.9748
-1.9019 6.9050 -1.3462 0.9713
-5.3532 11.1506 -2.3249 0.9509
-6.1767 10.3748 -2.2695 0.9520
-6.9053 9.5427 -2.2140 0.9532
-8.7010 8.3628 -2.2684 0.9521
-9.8428 5.3435 -2.1051 0.9554
-10.0381 4.3385 -2.0554 0.9565
-10.1483 3.3467 -2.0085 0.9574
-10.1785 2.3740 -1.9645 0.9584
-9.8373 -0.3846 -1.8504 0.9607
-9.5954 -1.2397 -1.8185 0.9614
-9.2966 -2.0583 -1.7897 0.9620
-8.5440 -3.5792 -1.7412 0.9630
-8.0972 -4.2786 -1.7214 0.9634
-7.6078 -4.9358 -1.7046 0.9638
-7.0786 -5.5498 -1.6907 0.9641
-6.5122 -6.1196 -1.6797 0.9643
-5.9111 -6.6445 -1.6716 0.9645
-4.6140 -7.5553 -1.6640 0.9646
-3.2039 -8.2743 -1.6678 0.9645
-0.9111 -8.9712 -1.6949 0.9640
1.5462 -9.1720 -1.7483 0.9629
4.1020 -8.8221 -1.8287 0.9612
8.3135 -6.8410 -2.0236 0.9571
9.1013 -6.2149 -2.0715 0.9561
9.8544 -5.5086 -2.1220 0.9551
10.4138 -3.5776 -2.0697 0.9562
11.8526 -0.7440 -2.2322 0.9528
9.9137 2.0667 -1.9034 0.9596
7.5568 3.0564 -1.5322 0.9674
6.6171 3.3925 -1.3977 0.9702
5.1018 3.8990 -1.2069 0.9742
4.5166 4.1403 -1.1517 0.9754
3.0354 4.8350 -1.0730 0.9770
2.1019 5.2351 -1.0603 0.9773
1.6298 5.4144 -1.0628 0.9772
1.1489 5.5820 -1.0712 0.9771
0.3197 2.8031 -0.5303 0.9886
0.1436 5.9407 -1.1169 0.9761
-1.0063 6.4552 -1.2280 0.9738
-4.1695 12.0368 -2.3943 0.9495
-7.9443 9.6044 -2.3428 0.9505
-9.0563 7.6420 -2.2273 0.9529
-10.1260 3.6193 -2.0212 0.9572
-10.1531 1.6850 -1.9345 0.9590
-9.8936 -0.1420 -1.8598 0.9605
-9.3847 -1.8357 -1.7974 0.9618
-8.6596 -3.3785 -1.7471 0.9629
-7.7473 -4.7583 -1.7089 0.9637
-7.2288 -5.3844 -1.6942 0.9640
-6.6724 -5.9665 -1.6824 0.9642
-4.1161 -7.8380 -1.6640 0.9646
-3.4050 -8.1866 -1.6666 0.9646
-2.6691 -8.4853 -1.6719 0.9644
-1.1302 -8.9270 -1.6913 0.9640
1.3144 -9.1757 -1.7423 0.9630
2.1564 -9.1404 -1.7652 0.9625
3.8644 -8.8791 -1.8201 0.9614
5.5807 -8.3474 -1.8873 0.9600
6.4313 -7.9739 -1.9255 0.9592
7.2699 -7.5255 -1.9667 0.9583
8.8865 -6.3961 -2.0580 0.9564
9.6501 -5.7120 -2.1078 0.9554
10.3414 -4.9324 -2.1535 0.9544
10.2506 -3.8074 -2.0553 0.9565
10.8193 -2.9505 -2.1079 0.9554
11.3224 -2.0232 -2.1619 0.9543
11.7494 -1.0297 -2.2169 0.9531
11.6327 1.0662 -2.1957 0.9536
10.3355 1.8893 -1.9749 0.9581
8.9396 2.4761 -1.7436 0.9629
7.8276 2.9429 -1.5718 0.9665
6.8703 3.3104 -1.4334 0.9694
5.2853 3.8361 -1.2275 0.9738
3.1648 4.7747 -1.0767 0.9770
2.6980 4.9867 -1.0657 0.9772
2.2314 5.1832 -1.0607 0.9773
1.7611 5.3661 -1.0615 0.9773
0.4122 2.9611 -0.5619 0.9879
0.2878 5.8819 -1.1069 0.9763
-1.2857 5.7678 -1.1107 0.9762
-3.8944 12.2108 -2.4090 0.9492
-5.7328 10.8117 -2.3002 0.9514
-6.5141 10.0091 -2.2447 0.9526
-7.1998 9.1561 -2.1893 0.9537
-10.1714 2.9094 -1.9885 0.9579
-10.1673 1.9468 -1.9458 0.9587
-9.7365 -0.7711 -1.8358 0.9610
-9.4686 -1.6102 -1.8053 0.9617
-9.1457 -2.4119 -1.7778 0.9622
-8.7716 -3.1746 -1.7534 0.9627
-7.3761 -5.2156 -1.6980 0.9639
-6.8299 -5.8100 -1.6854 0.9642
-5.6319 -6.8642 -1.6689 0.9645
-4.9847 -7.3222 -1.6649 0.9646
-4.3081 -7.7329 -1.6638 0.9646
-3.6042 -8.0952 -1.6656 0.9646
-2.8750 -8.4078 -1.6702 0.9645
1.9225 -9.1563 -1.7586 0.9626
2.7714 -9.0758 -1.7837 0.9621
3.6271 -8.9309 -1.8118 0.9615
4.4860 -8.7190 -1.8430 0.9609
-7.5352 -3.6043 -1.7656 0.9664
-7.1149 -4.2221 -1.7488 0.9667
-5.6290 -5.8399 -1.7145 0.9674
-5.0671 -6.2968 -1.7085 0.9675
-2.5457 -7.6826 -1.7108 0.9675
-1.8574 -7.9125 -1.7180 0.9673
-0.4260 -8.2230 -1.7405 0.9669
0.3126 -8.3004 -1.7558 0.9666
1.8233 -8.2914 -1.7945 0.9659
2.5898 -8.2013 -1.8180 0.9654
4.1286 -7.8404 -1.8730 0.9644
5.6492 -7.2266 -1.9389 0.9632
7.1137 -6.3469 -2.0152 0.9618
7.8108 -5.8044 -2.0570 0.9610
8.4756 -5.1927 -2.1011 0.9602
2.3448 -0.9118 -0.5318 0.9898
9.4668 -2.7371 -2.0830 0.9605
9.8914 -1.9234 -2.1300 0.9596
10.7221 0.8183 -2.2730 0.9570
7.9874 2.8650 -1.7937 0.9659
7.0361 3.2593 -1.6391 0.9688
5.5076 3.8708 -1.4230 0.9729
4.8411 4.0943 -1.3402 0.9744
4.2488 4.3003 -1.2778 0.9756
3.3598 4.9051 -1.2568 0.9760
1.3500 5.4473 -1.1863 0.9773
-0.7415 6.4373 -1.3697 0.9739
-1.1937 5.7673 -1.2449 0.9762
-2.1252 7.0318 -1.5528 0.9704
-4.0872 10.1472 -2.3124 0.9563
-5.5888 8.8803 -2.2179 0.9580
-6.7746 7.4115 -2.1225 0.9598
-7.8079 7.1416 -2.2367 0.9577
-8.5656 5.3946 -2.1398 0.9595
-8.8201 4.5096 -2.0939 0.9603
-8.9957 3.6267 -2.0502 0.9611
-9.0959 2.7522 -2.0088 0.9619
-9.0857 1.0496 -1.9333 0.9633
-8.8205 -0.5636 -1.8683 0.9645
-8.6018 -1.3283 -1.8398 0.9650
-8.3306 -2.0618 -1.8141 0.9655
-7.2351 -4.0550 -1.7532 0.9667
-6.2999 -5.1959 -1.7262 0.9672
-4.0307 -6.9826 -1.7042 0.9676
-3.3934 -7.3196 -1.7054 0.9676
-2.0498 -7.8538 -1.7157 0.9674
-1.3475 -8.0482 -1.7249 0.9672
0.1071 -8.2844 -1.7513 0.9667
2.3773 -8.2321 -1.8112 0.9656
3.1464 -8.0990 -1.8366 0.9651
6.1877 -6.9397 -1.9653 0.9627
6.9162 -6.4848 -2.0041 0.9620
8.9285 -4.7051 -2.1333 0.9596
2.3279 -0.9722 -0.5333 0.9897
9.3383 -2.9521 -2.0702 0.9607
9.7805 -2.1540 -2.1169 0.9599
10.6773 0.5498 -2.2600 0.9572
10.8054 1.5321 -2.3069 0.9564
9.5018 2.2274 -2.0629 0.9609
7.2873 3.1592 -1.6789 0.9680
5.7087 3.8048 -1.4502 0.9723
2.8618 4.8191 -1.1847 0.9773
2.3985 5.0102 -1.1742 0.9775
1.0089 5.6000 -1.2028 0.9770
0.2505 2.8123 -0.5968 0.9885
-0.0034 6.0742 -1.2840 0.9755
-1.2078 6.6612 -1.4310 0.9727
-3.8562 10.3015 -2.3251 0.9560
-6.0551 8.3678 -2.1833 0.9587
-7.6756 7.3773 -2.2504 0.9574
-8.1212 6.5161 -2.2009 0.9583
-8.7578 4.7544 -2.1064 0.9601
-9.1236 2.1280 -1.9803 0.9624
-9.1030 1.2803 -1.9431 0.9631
-9.0176 0.4542 -1.9086 0.9638
-8.6677 -1.1198 -1.8474 0.9649
-8.4107 -1.8622 -1.8209 0.9654
-8.1036 -2.5717 -1.7971 0.9658
-7.3524 -3.8850 -1.7578 0.9666
-6.9142 -4.4858 -1.7422 0.9669
-6.4380 -5.0476 -1.7293 0.9671
-4.8063 -6.4871 -1.7066 0.9675
-3.5721 -7.2310 -1.7048 0.9676
-2.2406 -7.7913 -1.7137 0.9674
-0.8285 -8.1575 -1.7332 0.9670
-0.0976 -8.2642 -1.7470 0.9668
3.7034 -7.9649 -1.8567 0.9647
4.4711 -7.7257 -1.8868 0.9642
5.2325 -7.4225 -1.9196 0.9636
6.7168 -6.6174 -1.9931 0.9622
8.6914 -3.8846 -2.0123 0.9618
9.2056 -3.1625 -2.0575 0.9610
9.6644 -2.3805 -2.1039 0.9601
10.3828 -0.6518 -2.1990 0.9584
10.6255 0.2839 -2.2468 0.9575
10.7795 1.2574 -2.2940 0.9566
9.8931 2.0624 -2.1362 0.9595
7.5442 3.0513 -1.7202 0.9673
6.6627 3.4159 -1.5827 0.9699
4.0691 4.4616 -1.2764 0.9756
1.6062 5.3358 -1.1779 0.9775
1.1404 5.5407 -1.1957 0.9771
0.1451 6.0028 -1.2692 0.9757
-1.0258 6.5804 -1.4078 0.9731
-1.4687 5.8980 -1.2848 0.9755
-6.9952 7.0642 -2.1015 0.9602
-8.0068 6.7564 -2.2145 0.9581
-8.9081 4.1144 -2.0741 0.9607
-9.1154 1.5128 -1.9532 0.9629
-9.0475 0.6803 -1.9179 0.9636
-8.4869 -1.6601 -1.8280 0.9653
-7.8522 -3.0635 -1.7816 0.9661
-7.0393 -4.3235 -1.7462 0.9668
-5.5355 -5.9207 -1.7133 0.9674
-4.9684 -6.3704 -1.7077 0.9675
-4.3722 -6.7768 -1.7047 0.9676
-3.7490 -7.1389 -1.7044 0.9676
-3.1009 -7.4554 -1.7068 0.9675
-2.4299 -7.7251 -1.7118 0.9674
-1.7382 -7.9468 -1.7195 0.9673
-0.3011 -8.2399 -1.7429 0.9669
0.4397 -8.3083 -1.7587 0.9666
1.1922 -8.3223 -1.7771 0.9662
1.9535 -8.2802 -1.7983 0.9658
2.7207 -8.1800 -1.8222 0.9654
3.4905 -8.0200 -1.8489 0.9649
4.2593 -7.7982 -1.8782 0.9643
5.0228 -7.5129 -1.9103 0.9637
7.2344 -6.2594 -2.0221 0.9616
9.5435 -2.6026 -2.0910 0.9604
10.5669 0.0210 -2.2336 0.9577
10.7462 0.9849 -2.2811 0.9568
10.3132 1.8852 -2.2161 0.9580
8.9226 2.4714 -1.9571 0.9629
7.8141 2.9378 -1.7646 0.9664
6.1081 3.6484 -1.5039 0.9713
5.3877 3.9104 -1.4072 0.9731
3.7836 4.7296 -1.2803 0.9755
3.1249 4.7145 -1.1956 0.9771
1.2705 5.4825 -1.1896 0.9773
0.4012 2.8825 -0.6152 0.9882
0.2903 5.9336 -1.2557 0.9760
-0.2511 6.1946 -1.3105 0.9750
-0.8480 6.4907 -1.3837 0.9736
-1.3581 6.0925 -1.3194 0.9748
-5.0030 9.4354 -2.2575 0.9573
-7.8858 6.9952 -2.2282 0.9578
-9.0180 3.4770 -2.0430 0.9613
-9.1058 2.6045 -2.0020 0.9620
-9.1227 1.7468 -1.9634 0.9627
-8.9595 0.0929 -1.8940 0.9640
-8.7871 -0.6959 -1.8632 0.9646
-8.5593 -1.4555 -1.8352 0.9651
-8.2795 -2.1834 -1.8099 0.9656
-7.9511 -2.8777 -1.7874 0.9660
-7.5774 -3.5364 -1.7676 0.9664
-7.1614 -4.1582 -1.7505 0.9667
-6.2136 -5.2857 -1.7244 0.9672
-5.6869 -5.7889 -1.7153 0.9674
-5.1282 -6.2503 -1.7090 0.9675
-3.9239 -7.0432 -1.7043 0.9676
-3.2825 -7.3725 -1.7059 0.9675
-1.9315 -7.8904 -1.7171 0.9673
-1.2261 -8.0763 -1.7267 0.9672
-0.5037 -8.2116 -1.7390 0.9669
1.7422 -8.2976 -1.7922 0.9659
2.5081 -8.2136 -1.8153 0.9655
4.8124 -7.5983 -1.9012 0.9639
-6.8923 -3.2967 -1.7956 0.9691
-6.0966 -4.3983 -1.7668 0.9696
-5.6452 -4.8954 -1.7561 0.9698
-4.6476 -5.7755 -1.7423 0.9700
-3.5383 -6.4955 -1.7384 0.9701
-2.9472 -6.7925 -1.7402 0.9700
-2.3347 -7.0457 -1.7445 0.9700
-1.7029 -7.2541 -1.7512 0.9698
-1.0539 -7.4161 -1.7605 0.9697
2.3628 -7.4826 -1.8442 0.9683
3.0611 -7.3367 -1.8684 0.9679
3.7568 -7.1344 -1.8950 0.9674
4.4459 -6.8743 -1.9241 0.9669
5.1243 -6.5551 -1.9555 0.9664
7.0451 -5.2354 -2.0629 0.9646
2.3461 -0.9123 -0.5916 0.9897
8.4631 -2.4470 -2.0705 0.9644
8.8217 -1.7153 -2.1121 0.9637
9.1175 -0.9392 -2.1542 0.9630
7.0248 3.2540 -1.8195 0.9687
4.3257 4.3781 -1.4465 0.9750
3.3558 4.8992 -1.3956 0.9759
2.7762 4.9497 -1.3338 0.9770
2.3057 5.1390 -1.3238 0.9771
1.3727 5.5387 -1.3411 0.9768
0.4451 2.8765 -0.6841 0.9881
0.1866 2.9052 -0.6842 0.9881
-0.7448 6.4653 -1.5296 0.9736
-4.3190 8.4540 -2.2312 0.9617
-4.9622 7.8847 -2.1895 0.9624
-5.5380 7.2679 -2.1475 0.9632
-6.0443 6.6125 -2.1055 0.9639
-6.4801 5.9271 -2.0640 0.9646
-7.3766 5.6246 -2.1802 0.9626
-7.9415 4.0604 -2.0963 0.9640
-8.2232 2.4882 -2.0192 0.9653
-8.1638 0.2090 -1.9193 0.9670
-8.0281 -0.5129 -1.8906 0.9675
-7.8398 -1.2106 -1.8644 0.9679
-7.3179 -2.5231 -1.8192 0.9687
-6.6218 -3.7113 -1.7840 0.9693
-6.2153 -4.2544 -1.7702 0.9695
-5.7734 -4.7616 -1.7588 0.9697
-5.2984 -5.2316 -1.7500 0.9699
-2.5062 -6.9801 -1.7430 0.9700
-1.8794 -7.2010 -1.7491 0.9699
-1.2350 -7.3760 -1.7577 0.9697
0.7816 -7.6117 -1.7983 0.9690
2.1697 -7.5131 -1.8379 0.9684
2.8681 -7.3827 -1.8614 0.9680
3.5649 -7.1961 -1.8874 0.9675
4.2562 -6.9521 -1.9158 0.9671
5.6056 -6.2869 -1.9796 0.9660
6.2540 -5.8639 -2.0149 0.9654
6.8778 -5.3800 -2.0522 0.9648
2.3254 -0.9711 -0.5923 0.9897
8.3538 -2.6408 -2.0591 0.9646
9.0424 -1.1580 -2.1425 0.9632
9.2885 -0.3528 -2.1846 0.9625
9.4601 0.4871 -2.2263 0.9618
8.2665 2.7363 -2.0465 0.9649
4.0141 4.6260 -1.4395 0.9751
3.4952 4.8414 -1.4034 0.9758
1.5031 5.4808 -1.3357 0.9769
1.0261 5.6953 -1.3601 0.9765
0.2485 2.7888 -0.6580 0.9886
-3.4054 9.0973 -2.2830 0.9609
-4.1296 8.6019 -2.2426 0.9616
-4.7910 8.0473 -2.2011 0.9622
-5.9113 6.7971 -2.1171 0.9637
-7.2709 5.8338 -2.1909 0.9624
-7.8807 4.2783 -2.1075 0.9638
-8.2555 1.1611 -1.9593 0.9663
-8.0710 -0.3156 -1.8983 0.9674
-7.6726 -1.6988 -1.8469 0.9682
-7.4009 -2.3487 -1.8249 0.9686
-5.8990 -4.6250 -1.7617 0.9697
-4.9354 -5.5477 -1.7451 0.9700
-3.8553 -6.3130 -1.7385 0.9701
-3.2770 -6.6335 -1.7389 0.9701
-2.6760 -6.9111 -1.7418 0.9700
-1.4148 -7.3323 -1.7550 0.9698
-0.0893 -7.5658 -1.7783 0.9694
0.5916 -7.6088 -1.7936 0.9691
2.6750 -7.4243 -1.8547 0.9681
4.7507 -6.7390 -1.9378 0.9667
5.4227 -6.3932 -1.9702 0.9661
7.3103 -4.9919 -2.0805 0.9643
7.7980 -3.4853 -2.0074 0.9655
8.2403 -2.8309 -2.0478 0.9648
9.2276 -0.5792 -2.1730 0.9627
9.5343 1.1122 -2.2560 0.9613
9.5633 1.9937 -2.2959 0.9607
8.5765 2.6055 -2.1066 0.9638
4.6400 4.2535 -1.4794 0.9745
2.5646 5.0338 -1.3278 0.9771
2.0979 5.2252 -1.3233 0.9771
0.3149 2.7610 -0.6531 0.9886
0.1476 6.1035 -1.4349 0.9752
-0.4136 6.3312 -1.4912 0.9743
-3.1946 9.2226 -2.2939 0.9607
-4.6146 8.2061 -2.2126 0.9621
-5.2280 7.6144 -2.1708 0.9628
-2.5528 1.7899 -0.7327 0.9873
-7.8145 4.4959 -2.1188 0.9636
-8.0283 3.7080 -2.0784 0.9643
-8.1725 2.9210 -2.0397 0.9650
-8.2496 2.1405 -2.0030 0.9656
-8.2151 0.6177 -1.9362 0.9667
-8.1098 -0.1164 -1.9062 0.9672
-7.9502 -0.8279 -1.8786 0.9677
-7.4806 -2.1719 -1.8307 0.9685
-7.1766 -2.7999 -1.8105 0.9688
-6.8304 -3.3959 -1.7928 0.9691
-5.5651 -4.9763 -1.7546 0.9698
-4.5572 -5.8432 -1.7416 0.9700
-4.0109 -6.2169 -1.7388 0.9701
-3.4393 -6.5491 -1.7385 0.9701
-0.9418 -7.4390 -1.7623 0.9697
-0.2758 -7.5451 -1.7745 0.9695
0.4023 -7.6020 -1.7891 0.9692
3.1799 -7.3063 -1.8727 0.9678
4.5623 -6.8241 -1.9293 0.9668
5.8980 -6.1054 -1.9951 0.9657
6.5361 -5.6552 -2.0313 0.9651
7.1470 -5.1440 -2.0695 0.9645
8.5283 -2.3257 -2.0775 0.9643
8.8767 -1.5862 -2.1193 0.9636
9.1611 -0.8029 -2.1613 0.9629
9.5111 0.8717 -2.2447 0.9615
8.9054 2.4667 -2.1718 0.9627
7.8006 2.9327 -1.9586 0.9663
4.8001 4.1867 -1.4970 0.9742
3.1777 4.7943 -1.3518 0.9766
2.6952 4.9817 -1.3312 0.9770
2.2264 5.1717 -1.3233 0.9771
1.2918 5.5748 -1.3449 0.9768
-0.2540 6.2665 -1.4740 0.9746
-0.8503 6.5080 -1.5425 0.9734
-1.2830 5.7556 -1.3859 0.9761
-3.7365 8.8838 -2.2651 0.9612
-5.6292 7.1587 -2.1403 0.9633
-6.5473 5.8079 -2.0569 0.9647
-2.5292 1.8683 -0.7390 0.9872
-8.1394 3.1383 -2.0502 0.9648
-8.2653 1.5826 -1.9778 0.9660
-8.2341 0.8244 -1.9449 0.9666
-8.1445 0.0845 -1.9143 0.9671
-7.8027 -1.3269 -1.8601 0.9680
-7.5568 -1.9929 -1.8368 0.9684
-7.2651 -2.6294 -1.8158 0.9688
-6.9302 -3.2344 -1.7974 0.9691
-6.5552 -3.8062 -1.7815 0.9693
-5.6948 -4.8443 -1.7571 0.9697
-3.0111 -6.7630 -1.7399 0.9700
-2.4007 -7.0209 -1.7439 0.9700
-1.7709 -7.2341 -1.7504 0.9699
-1.1236 -7.4011 -1.7594 0.9697
-0.4613 -7.5206 -1.7708 0.9695
0.2137 -7.5913 -1.7848 0.9693
1.5915 -7.5798 -1.8203 0.9687
4.3732 -6.9047 -1.9209 0.9670
5.0528 -6.5919 -1.9520 0.9664
-6.3451 -3.0350 -1.8211 0.9714
-5.6197 -4.0543 -1.7942 0.9718
-4.2887 -5.3296 -1.7712 0.9721
-3.2657 -5.9950 -1.7676 0.9722
-2.7199 -6.2686 -1.7693 0.9722
-2.1542 -6.5011 -1.7733 0.9721
0.2635 -6.9957 -1.8126 0.9715
0.8947 -7.0041 -1.8282 0.9712
1.5314 -6.9639 -1.8462 0.9710
2.8091 -6.7326 -1.8888 0.9703
5.2825 -5.6375 -2.0003 0.9686
5.8594 -5.2278 -2.0332 0.9681
6.4101 -4.7635 -2.0678 0.9675
6.9291 -4.2452 -2.1040 0.9670
2.3474 -0.9128 -0.6521 0.9896
8.2031 -0.8450 -2.1352 0.9665
8.3901 -0.1111 -2.1725 0.9659
8.5528 1.4292 -2.2452 0.9648
8.5195 2.2206 -2.2795 0.9643
7.0134 3.2488 -2.0013 0.9686
5.5177 3.8779 -1.7462 0.9725
3.3517 4.8932 -1.5356 0.9758
1.3857 5.5912 -1.4915 0.9765
0.1858 2.8935 -0.7507 0.9881
-1.1920 5.7590 -1.5227 0.9760
-2.1187 7.0103 -1.8962 0.9702
-3.8720 7.5790 -2.2036 0.9654
-4.4572 7.0822 -2.1666 0.9660
-4.9841 6.5409 -2.1292 0.9666
-5.4504 5.9628 -2.0917 0.9672
-5.8548 5.3551 -2.0544 0.9677
-6.9792 4.3955 -2.1356 0.9665
-7.2152 3.6890 -2.0982 0.9671
-7.3869 2.9781 -2.0622 0.9676
-7.5377 0.8707 -1.9646 0.9691
-7.4748 0.1914 -1.9360 0.9696
-7.3598 -0.4702 -1.9095 0.9700
-6.4339 -2.8843 -1.8256 0.9713
-4.4223 -5.2256 -1.7725 0.9721
-3.9300 -5.5881 -1.7688 0.9722
-2.8730 -6.1970 -1.7686 0.9722
-2.3126 -6.4410 -1.7719 0.9721
0.0903 -6.9849 -1.8087 0.9715
0.7195 -7.0066 -1.8237 0.9713
1.3549 -6.9799 -1.8410 0.9710
2.6328 -6.7769 -1.8824 0.9704
3.2686 -6.5981 -1.9065 0.9700
4.5159 -6.0809 -1.9611 0.9692
6.2607 -4.8973 -2.0580 0.9677
7.2677 -3.8299 -2.1270 0.9666
2.3228 -0.9700 -0.6517 0.9897
7.5493 -2.3865 -2.0500 0.9678
7.8727 -1.7339 -2.0872 0.9672
8.1399 -1.0424 -2.1248 0.9667
8.4828 0.4368 -2.1993 0.9655
8.5482 1.2120 -2.2354 0.9650
5.0604 4.0695 -1.6813 0.9735
4.0091 4.6202 -1.5838 0.9750
3.4909 4.8355 -1.5442 0.9757
2.9406 4.9518 -1.4911 0.9765
2.4441 5.1056 -1.4656 0.9769
1.0333 5.7352 -1.5089 0.9762
-1.2044 6.6424 -1.7479 0.9725
-3.0456 8.1361 -2.2493 0.9647
-4.8444 6.6947 -2.1396 0.9664
-6.1084 4.9011 -2.0277 0.9682
-7.5455 1.0613 -1.9729 0.9690
-7.4975 0.3777 -1.9437 0.9695
-7.3967 -0.2892 -1.9166 0.9699
-7.0475 -1.5604 -1.8689 0.9706
-6.5197 -2.7312 -1.8302 0.9712
-6.1955 -3.2737 -1.8143 0.9715
-5.8344 -3.7853 -1.8007 0.9717
-4.0687 -5.4916 -1.7696 0.9722
-2.4695 -6.3776 -1.7708 0.9721
-1.8956 -6.5914 -1.7758 0.9721
-1.3049 -6.7623 -1.7832 0.9719
-0.0823 -6.9706 -1.8049 0.9716
0.5447 -7.0053 -1.8193 0.9714
1.1787 -6.9922 -1.8360 0.9711
1.8169 -6.9299 -1.8549 0.9708
3.7246 -6.4358 -1.9253 0.9697
4.9539 -5.8405 -1.9829 0.9689
5.5432 -5.4611 -2.0148 0.9684
6.1091 -5.0270 -2.0484 0.9678
6.6463 -4.5385 -2.0838 0.9673
7.0641 -3.1573 -2.0034 0.9685
8.0719 -1.2373 -2.1144 0.9668
8.2948 -0.5207 -2.1519 0.9662
8.4518 0.2258 -2.1891 0.9657
8.4785 2.5757 -2.2943 0.9640
5.8928 3.7204 -1.8044 0.9716
