ply
format ascii 1.0
element vertex 1597
property float32 x
property float32 y
property float32 z
property float32 I
end_header
-5.0100 -4.7197 -1.7821 0.9720
-2.4677 -6.3877 -1.7730 0.9721
-1.8935 -6.6014 -1.7781 0.9720
-1.3026 -6.7722 -1.7856 0.9719
1.1819 -7.0013 -1.8384 0.9711
1.8203 -6.9386 -1.8573 0.9708
3.7279 -6.4436 -1.9275 0.9697
4.3494 -6.1727 -1.9551 0.9693
4.9568 -5.8477 -1.9848 0.9688
6.1110 -5.0337 -2.0499 0.9678
7.1332 -3.9938 -2.1167 0.9668
7.0639 -3.1638 -2.0040 0.9685
7.7868 -1.9259 -2.0769 0.9674
8.0693 -1.2455 -2.1140 0.9668
8.4477 0.2154 -2.1880 0.9657
8.5330 0.9839 -2.2240 0.9651
6.5389 3.3385 -1.9009 0.9701
5.8371 3.6708 -1.7853 0.9719
5.2104 3.9667 -1.6955 0.9733
3.6690 4.8047 -1.5653 0.9753
1.5508 3.8357 -1.0712 0.9831
0.1701 6.3100 -1.6344 0.9743
-2.8262 8.2427 -2.2562 0.9646
-3.4952 7.8346 -2.2212 0.9652
-4.1121 7.3698 -2.1851 0.9657
-5.1748 6.3011 -2.1111 0.9669
-7.2875 3.4010 -2.0822 0.9673
-7.4348 2.6915 -2.0472 0.9679
-7.5188 0.5982 -1.9529 0.9693
-7.4359 -0.0738 -1.9254 0.9697
-7.1200 -1.3587 -1.8768 0.9705
-6.8925 -1.9661 -1.8558 0.9708
-6.6221 -2.5471 -1.8370 0.9711
-6.3114 -3.0995 -1.8205 0.9714
-5.9629 -3.6217 -1.8064 0.9716
-4.7151 -4.9905 -1.7777 0.9720
-1.5103 -6.7176 -1.7827 0.9720
-0.9096 -6.8598 -1.7917 0.9718
0.3282 -7.0080 -1.8165 0.9714
0.9603 -7.0115 -1.8323 0.9712
6.4642 -4.7215 -2.0726 0.9675
6.9768 -4.1966 -2.1080 0.9669
7.3206 -2.7797 -2.0275 0.9682
7.6753 -2.1538 -2.0640 0.9676
7.9774 -1.4868 -2.1011 0.9670
8.2212 -0.7829 -2.1383 0.9665
8.5117 0.7140 -2.2116 0.9653
8.5483 1.4938 -2.2468 0.9648
8.5070 2.2841 -2.2806 0.9643
6.0719 3.5597 -1.8224 0.9713
5.4216 3.8671 -1.7243 0.9729
4.8328 4.1446 -1.6484 0.9740
4.3233 4.4355 -1.6037 0.9747
3.8446 4.7225 -1.5767 0.9752
3.2880 4.8689 -1.5212 0.9760
2.8119 5.0908 -1.5058 0.9763
0.4246 2.8599 -0.7486 0.9881
0.3617 6.2222 -1.6138 0.9746
-0.2025 6.4805 -1.6787 0.9736
-0.8192 6.7621 -1.7636 0.9722
-1.2888 6.0506 -1.6018 0.9748
-2.5818 8.3702 -2.2680 0.9645
-3.2678 7.9836 -2.2336 0.9650
-4.4841 7.0402 -2.1612 0.9661
-5.4691 5.9207 -2.0869 0.9672
-7.2215 3.6480 -2.0948 0.9671
-7.4976 2.2304 -2.0253 0.9682
-7.5450 1.5281 -1.9932 0.9687
-7.3543 -0.5018 -1.9086 0.9700
-6.9767 -1.7573 -1.8628 0.9707
-6.7210 -2.3478 -1.8433 0.9710
-6.4240 -2.9104 -1.8260 0.9713
-5.3113 -4.4134 -1.7880 0.9719
-4.8743 -4.8476 -1.7799 0.9720
-4.4082 -5.2460 -1.7742 0.9721
-3.3972 -5.9305 -1.7696 0.9722
-2.2955 -6.4569 -1.7743 0.9721
0.1097 -6.9956 -1.8115 0.9715
0.7394 -7.0157 -1.8266 0.9713
1.3751 -6.9875 -1.8439 0.9710
5.1375 -5.7384 -1.9942 0.9687
6.7693 -3.5529 -1.9794 0.9689
7.5573 -2.3767 -2.0512 0.9678
8.5442 1.2204 -2.2347 0.9650
8.5305 2.0081 -2.2691 0.9644
5.6402 3.7638 -1.7557 0.9724
4.0230 4.6390 -1.5899 0.9749
3.4566 4.7902 -1.5295 0.9759
2.9768 5.0140 -1.5098 0.9762
2.5051 5.2334 -1.5023 0.9763
1.4455 3.8740 -1.0706 0.9831
0.5121 2.8385 -0.7468 0.9882
-3.0342 8.1254 -2.2457 0.9648
-3.6879 7.6993 -2.2104 0.9653
-4.8315 6.6919 -2.1370 0.9665
-2.4628 1.9815 -0.8184 0.9870
7.7045 0.6776 -2.1895 0.9684
7.7229 1.3817 -2.2210 0.9679
7.6712 2.0930 -2.2510 0.9675
6.7599 3.2237 -2.1201 0.9693
6.0320 3.5692 -1.9842 0.9713
5.3863 3.8749 -1.8784 0.9728
4.3355 4.4841 -1.7657 0.9744
2.3173 5.3129 -1.6409 0.9762
1.8452 5.5315 -1.6507 0.9761
1.3634 5.7539 -1.6740 0.9757
-0.2289 6.4840 -1.8367 0.9734
-0.8474 6.7659 -1.9303 0.9721
-2.3597 7.5418 -2.2371 0.9677
-2.9814 7.2008 -2.2063 0.9681
-3.5594 6.8059 -2.1743 0.9686
-4.5682 5.8801 -2.1079 0.9695
-5.6792 4.2492 -2.0079 0.9709
-6.6194 3.3103 -2.0952 0.9697
-6.9364 1.3756 -2.0019 0.9710
-6.6294 -1.0799 -1.9015 0.9725
-5.6234 -3.2103 -1.8331 0.9734
-4.5006 -4.5122 -1.8042 0.9739
-4.0682 -4.8813 -1.7989 0.9739
-2.6265 -5.7749 -1.7960 0.9740
-2.1049 -5.9975 -1.7994 0.9739
-1.0132 -6.3226 -1.8127 0.9737
1.2984 -6.4595 -1.8652 0.9730
2.4760 -6.2538 -1.9041 0.9724
4.1989 -5.5818 -1.9773 0.9714
4.7465 -5.2587 -2.0055 0.9710
5.2738 -4.8859 -2.0352 0.9706
6.2487 -3.9929 -2.0993 0.9696
6.2049 -3.2247 -1.9796 0.9713
6.8998 -2.1393 -2.0450 0.9704
7.7243 1.1352 -2.2102 0.9681
7.6973 1.8448 -2.2408 0.9676
6.2749 3.4540 -2.0277 0.9707
5.6035 3.7722 -1.9123 0.9723
4.9992 4.0577 -1.8228 0.9736
3.9946 4.6441 -1.7342 0.9749
3.4304 4.7946 -1.6689 0.9758
2.9517 5.0179 -1.6481 0.9761
2.4809 5.2369 -1.6405 0.9762
1.4278 3.8742 -1.1689 0.9830
1.5328 5.6757 -1.6643 0.9759
-0.0266 6.3916 -1.8094 0.9738
-1.0936 5.9155 -1.7030 0.9753
-2.1337 7.6467 -2.2474 0.9675
-2.7695 7.3260 -2.2172 0.9680
-3.3632 6.9492 -2.1856 0.9684
-4.4074 6.0528 -2.1196 0.9694
-4.8516 5.5463 -2.0861 0.9698
-6.3086 4.1708 -2.1409 0.9690
-6.7314 2.8900 -2.0738 0.9700
-6.8561 2.2433 -2.0422 0.9705
-6.9404 0.9610 -1.9835 0.9713
-6.9041 0.3335 -1.9568 0.9717
-6.8186 -0.2800 -1.9319 0.9720
-6.6862 -0.8766 -1.9090 0.9724
-6.2900 -2.0079 -1.8692 0.9729
-6.0312 -2.5379 -1.8524 0.9732
-5.7349 -3.0415 -1.8377 0.9734
-5.4036 -3.5167 -1.8252 0.9736
-5.0395 -3.9619 -1.8148 0.9737
-4.6449 -4.3757 -1.8065 0.9738
-4.2218 -4.7566 -1.8005 0.9739
-3.2992 -5.4141 -1.7948 0.9740
-2.2887 -5.9244 -1.7980 0.9739
-1.7558 -6.1213 -1.8028 0.9739
-0.0736 -6.4647 -1.8302 0.9735
0.5070 -6.4929 -1.8437 0.9733
1.0933 -6.4761 -1.8593 0.9731
1.6824 -6.4133 -1.8770 0.9728
2.8571 -6.1454 -1.9185 0.9722
4.0041 -5.6827 -1.9680 0.9715
6.7913 -2.3396 -2.0335 0.9706
7.6520 0.1951 -2.1669 0.9687
7.7173 0.8899 -2.1992 0.9682
7.7147 1.5970 -2.2303 0.9678
5.8287 3.6655 -1.9492 0.9718
5.2033 3.9613 -1.8513 0.9732
4.6329 4.2303 -1.7760 0.9743
2.6445 5.1609 -1.6417 0.9762
1.5369 3.8014 -1.1608 0.9831
0.6209 2.9776 -0.8611 0.9874
0.1699 6.3017 -1.7846 0.9741
-0.9017 5.8989 -1.6893 0.9755
-1.7653 7.1829 -2.0939 0.9697
-2.5525 7.4445 -2.2279 0.9678
-3.1614 7.0865 -2.1967 0.9683
-4.2401 6.2210 -2.1313 0.9692
-4.7029 5.7265 -2.0978 0.9697
-2.4138 2.0522 -0.8969 0.9869
-6.2032 4.3844 -2.1504 0.9689
-6.8190 2.4686 -2.0530 0.9703
-6.7375 -0.6708 -1.9168 0.9722
-6.5757 -1.2548 -1.8951 0.9726
-6.3710 -1.8173 -1.8755 0.9728
-5.8422 -2.8691 -1.8426 0.9733
-5.1700 -3.8103 -1.8181 0.9737
-3.9320 -4.9863 -1.7977 0.9739
-2.9788 -5.5970 -1.7949 0.9740
-2.4703 -5.8465 -1.7968 0.9740
-1.9433 -6.0572 -1.8008 0.9739
-1.4002 -6.2279 -1.8071 0.9738
-0.8430 -6.3574 -1.8155 0.9737
-0.2741 -6.4445 -1.8261 0.9735
0.3039 -6.4882 -1.8388 0.9734
1.4770 -6.4405 -1.8706 0.9729
2.0664 -6.3470 -1.8896 0.9726
2.6536 -6.2059 -1.9107 0.9723
3.8075 -5.7775 -1.9588 0.9716
4.9088 -5.1510 -2.0143 0.9709
5.9228 -4.3260 -2.0763 0.9700
6.3208 -3.0705 -1.9893 0.9712
6.6772 -2.5354 -2.0219 0.9707
7.4628 -0.7107 -2.1222 0.9693
7.6139 -0.0429 -2.1555 0.9688
7.6751 2.0608 -2.2497 0.9675
6.7952 3.2069 -2.1271 0.9692
4.8264 4.1392 -1.8000 0.9739
4.3219 4.4341 -1.7529 0.9746
3.8398 4.7167 -1.7218 0.9750
3.2840 4.8630 -1.6612 0.9759
2.8085 5.0846 -1.6444 0.9761
1.8667 5.5215 -1.6500 0.9761
0.3613 6.2141 -1.7622 0.9745
-0.8180 6.7525 -1.9256 0.9721
-2.3306 7.5558 -2.2384 0.9677
-3.5342 6.8248 -2.1757 0.9686
-4.5477 5.9028 -2.1095 0.9695
-4.9756 5.3865 -2.0759 0.9700
-5.3486 4.8419 -2.0424 0.9705
-6.3879 3.9790 -2.1305 0.9692
-6.7752 2.6940 -2.0641 0.9701
-6.8833 0.1459 -1.9491 0.9718
-6.7833 -0.4628 -1.9248 0.9721
-6.6371 -1.0536 -1.9024 0.9724
-6.4470 -1.6239 -1.8821 0.9727
-6.2156 -2.1712 -1.8639 0.9730
-5.9452 -2.6934 -1.8477 0.9732
-5.6381 -3.1886 -1.8337 0.9734
-5.2966 -3.6549 -1.8218 0.9736
-4.9230 -4.0908 -1.8120 0.9737
-4.5195 -4.4947 -1.8045 0.9738
-4.0883 -4.8653 -1.7990 0.9739
-3.6315 -5.2012 -1.7958 0.9740
-2.1289 -5.9883 -1.7992 0.9739
0.1016 -6.4780 -1.8341 0.9734
0.6843 -6.4927 -1.8482 0.9732
1.2717 -6.4620 -1.8644 0.9730
2.4495 -6.2605 -1.9031 0.9724
3.0334 -6.0879 -1.9255 0.9721
4.1737 -5.5953 -1.9761 0.9714
6.1872 -3.2474 -1.9782 0.9714
7.1672 -1.5680 -2.0770 0.9700
7.5682 -0.2783 -2.1440 0.9690
7.6047 2.5244 -2.2684 0.9672
7.0754 3.0737 -2.1838 0.9684
5.6323 3.7585 -1.9169 0.9722
5.0254 4.0453 -1.8263 0.9735
4.0179 4.6332 -1.7361 0.9748
2.9732 5.0079 -1.6487 0.9761
2.5021 5.2271 -1.6405 0.9762
1.4389 3.8562 -1.1652 0.9830
1.5547 5.6656 -1.6632 0.9759
-0.0008 6.3798 -1.8061 0.9738
-0.5965 6.6516 -1.8906 0.9726
-1.0673 5.9072 -1.6994 0.9754
-2.7416 7.3418 -2.2186 0.9679
-3.8867 6.5429 -2.1544 0.9689
-4.3860 6.0749 -2.1211 0.9693
-5.2249 5.0345 -2.0540 0.9703
-2.4612 1.9802 -0.8943 0.9870
6.9585 -0.0111 -2.1403 0.9713
7.0271 0.6181 -2.1697 0.9709
6.8589 2.5479 -2.2505 0.9698
6.6724 3.1820 -2.2737 0.9695
5.3788 3.8694 -2.0380 0.9727
4.7946 4.1456 -1.9495 0.9738
3.8121 4.7215 -1.8665 0.9749
3.2582 4.8671 -1.8015 0.9758
2.7611 5.0469 -1.7694 0.9762
1.3617 5.7467 -1.8165 0.9756
0.4105 2.8438 -0.8838 0.9880
-0.2286 6.4751 -1.9928 0.9732
-0.8462 6.7562 -2.0943 0.9719
-2.1481 6.8656 -2.2126 0.9703
-3.2484 6.2113 -2.1560 0.9711
-3.7371 5.8152 -2.1261 0.9715
-5.8837 3.6320 -2.1267 0.9715
-6.3586 1.8636 -2.0380 0.9727
-6.4160 0.6857 -1.9847 0.9734
-6.3726 0.1093 -1.9604 0.9737
-6.2838 -0.4543 -1.9378 0.9740
-6.1515 -1.0021 -1.9170 0.9743
-5.9780 -1.5315 -1.8981 0.9745
-5.2315 -2.9866 -1.8529 0.9751
-4.5673 -3.8265 -1.8327 0.9754
-4.1916 -4.2024 -1.8256 0.9755
-3.7897 -4.5471 -1.8206 0.9755
-3.3635 -4.8591 -1.8177 0.9756
-2.9152 -5.1372 -1.8168 0.9756
-2.4470 -5.3801 -1.8179 0.9756
-1.9608 -5.5868 -1.8211 0.9755
-1.4588 -5.7560 -1.8264 0.9755
0.1189 -6.0278 -1.8544 0.9751
0.6608 -6.0363 -1.8677 0.9749
1.7529 -5.9244 -1.9003 0.9745
2.2973 -5.8024 -1.9195 0.9742
2.8364 -5.6353 -1.9405 0.9739
3.3668 -5.4229 -1.9633 0.9736
5.3265 -4.1161 -2.0705 0.9722
2.3110 -0.9499 -0.7685 0.9896
6.3299 -1.9626 -2.0384 0.9726
6.5769 -1.4110 -2.0689 0.9722
6.7752 -0.8309 -2.0995 0.9718
6.2655 3.4488 -2.1998 0.9705
4.9924 4.0522 -1.9777 0.9734
4.4384 4.3135 -1.9037 0.9744
3.4261 4.7886 -1.8110 0.9757
2.4778 5.2306 -1.7802 0.9761
1.4204 3.8542 -1.2634 0.9830
0.4969 2.8194 -0.8806 0.9881
-1.0921 5.9075 -1.8478 0.9752
-1.9416 6.9582 -2.2220 0.9702
-3.5718 5.9579 -2.1366 0.9713
-4.0312 5.5361 -2.1064 0.9717
-4.4435 5.0797 -2.0758 0.9722
-4.8070 4.5944 -2.0452 0.9726
-2.4712 1.9719 -0.9724 0.9869
-6.0303 3.2541 -2.1076 0.9717
-6.2056 2.6642 -2.0772 0.9721
-6.3281 2.0705 -2.0479 0.9725
-6.3991 1.4774 -2.0200 0.9729
-6.3930 0.3088 -1.9687 0.9736
-6.3198 -0.2595 -1.9455 0.9739
-6.2024 -0.8132 -1.9240 0.9742
-5.8437 -1.8654 -1.8868 0.9747
-5.3344 -2.8290 -1.8572 0.9750
-5.0286 -3.2726 -1.8454 0.9752
-4.6917 -3.6885 -1.8356 0.9753
-4.3256 -4.0749 -1.8279 0.9754
-3.9326 -4.4306 -1.8221 0.9755
-3.5146 -4.7541 -1.8185 0.9756
-2.6122 -5.2995 -1.8173 0.9756
-1.6354 -5.7014 -1.8243 0.9755
-1.1243 -5.8455 -1.8309 0.9754
1.0161 -6.0189 -1.8775 0.9748
2.1081 -5.8500 -1.9126 0.9743
3.7061 -5.2598 -1.9791 0.9734
5.1701 -4.2587 -2.0602 0.9724
5.9976 -3.3580 -2.1142 0.9716
6.2332 -2.1474 -2.0278 0.9728
6.8763 -0.4395 -2.1193 0.9716
6.9855 0.1781 -2.1493 0.9712
7.0361 0.8113 -2.1785 0.9708
6.9499 2.0999 -2.2331 0.9701
6.8094 2.7415 -2.2578 0.9697
6.5188 3.3283 -2.2513 0.9698
4.6268 4.2247 -1.9271 0.9741
3.6598 4.7928 -1.8548 0.9751
3.1134 4.9347 -1.7946 0.9759
2.6413 5.1546 -1.7815 0.9761
1.5029 3.7173 -1.2333 0.9834
1.6984 5.5914 -1.7974 0.9758
0.6256 2.9999 -0.9425 0.9873
-0.9009 5.8938 -1.8339 0.9754
-1.7312 7.0440 -2.2311 0.9701
-2.3245 6.7795 -2.2044 0.9705
-3.4012 6.0956 -2.1470 0.9712
-3.8763 5.6873 -2.1170 0.9716
-4.6860 4.7665 -2.0559 0.9724
-5.2976 3.7444 -1.9954 0.9732
-6.3801 1.6837 -2.0296 0.9728
-6.4183 1.0932 -2.0026 0.9731
-6.4078 0.5098 -1.9771 0.9735
-6.1032 -1.1646 -1.9111 0.9743
-5.9175 -1.6880 -1.8927 0.9746
-5.4332 -2.6682 -1.8618 0.9750
-5.1388 -3.1211 -1.8493 0.9752
-4.8125 -3.5468 -1.8388 0.9753
-3.6629 -4.6451 -1.8195 0.9755
-3.2298 -4.9470 -1.8172 0.9756
-2.3014 -5.4467 -1.8187 0.9756
-1.3039 -5.7997 -1.8284 0.9754
0.2826 -6.0348 -1.8582 0.9750
0.8260 -6.0305 -1.8722 0.9748
1.3721 -5.9832 -1.8881 0.9746
1.9183 -5.8921 -1.9059 0.9744
2.9983 -5.5757 -1.9472 0.9739
3.5254 -5.3494 -1.9705 0.9735
5.0104 -4.3959 -2.0502 0.9725
5.4596 -3.9877 -2.0795 0.9721
5.8700 -3.5308 -2.1069 0.9717
5.8118 -2.8233 -1.9873 0.9733
6.1313 -2.3281 -2.0172 0.9729
6.4096 -1.7986 -2.0476 0.9725
6.8251 -0.6500 -2.1088 0.9717
6.9540 -0.0392 -2.1389 0.9713
6.8658 2.5189 -2.2494 0.9699
6.6823 3.1536 -2.2727 0.9696
5.4065 3.8563 -2.0426 0.9726
4.8200 4.1336 -1.9530 0.9738
3.2799 4.8569 -1.8026 0.9758
2.3357 5.2965 -1.7805 0.9761
0.4202 2.8302 -0.8801 0.9881
0.3608 6.2060 -1.9121 0.9743
-0.2020 6.4630 -1.9888 0.9733
-2.1215 6.8780 -2.2139 0.9703
-4.1612 5.4012 -2.0971 0.9719
-4.5589 4.9354 -2.0665 0.9723
-4.9074 4.4424 -2.0360 0.9727
-5.2056 3.9278 -2.0058 0.9731
-5.8718 3.6575 -2.1277 0.9715
-6.3550 1.8904 -2.0393 0.9726
-6.4106 1.2983 -2.0118 0.9730
-6.4169 0.7120 -1.9858 0.9733
-6.2888 -0.4291 -1.9388 0.9740
-5.9867 -1.5080 -1.8989 0.9745
-5.7758 -2.0176 -1.8818 0.9747
-4.2092 -4.1861 -1.8259 0.9755
-3.8084 -4.5322 -1.8208 0.9755
-0.9669 -5.8815 -1.8333 0.9754
-0.4407 -5.9743 -1.8426 0.9752
0.6362 -6.0368 -1.8671 0.9749
1.7282 -5.9289 -1.8995 0.9745
2.2727 -5.8089 -1.9186 0.9742
4.3648 -4.8752 -2.0127 0.9730
5.7364 -3.6983 -2.0993 0.9718
5.6916 -2.9872 -1.9771 0.9735
6.3177 -1.9868 -2.0370 0.9727
6.5667 -1.4366 -2.0676 0.9723
6.9154 -0.2543 -2.1285 0.9715
7.0393 1.0055 -2.1871 0.9707
6.7538 2.9340 -2.2649 0.9697
6.2978 3.4334 -2.2062 0.9704
5.0186 4.0398 -1.9816 0.9734
4.0128 4.6273 -1.8839 0.9747
3.4481 4.7783 -1.8124 0.9756
2.9695 5.0018 -1.7891 0.9760
2.4991 5.2207 -1.7803 0.9761
1.5528 5.6586 -1.8048 0.9757
-0.0008 6.3712 -1.9596 0.9737
-0.5957 6.6422 -2.0512 0.9725
-1.0660 5.8995 -1.8439 0.9752
-3.0442 6.3554 -2.1675 0.9709
-4.0114 5.5560 -2.1078 0.9717
6.4519 0.5675 -2.1529 0.9731
6.3948 1.7448 -2.2034 0.9724
4.7881 4.1400 -2.1040 0.9737
4.2013 4.3454 -2.0091 0.9748
3.7408 4.6331 -1.9794 0.9752
3.2541 4.8610 -1.9445 0.9756
2.7577 5.0406 -1.9099 0.9761
1.8406 5.5178 -1.9335 0.9758
0.4067 2.8181 -0.9465 0.9881
0.3358 6.2090 -2.0669 0.9741
-0.2283 6.4661 -2.1507 0.9731
-1.3144 6.0503 -2.0581 0.9742
-1.9691 6.2934 -2.1920 0.9726
-3.4368 5.3480 -2.1131 0.9736
-3.8489 4.9541 -2.0854 0.9739
-4.2179 4.5293 -2.0573 0.9742
-4.5422 4.0786 -2.0292 0.9746
-4.8209 3.6070 -2.0014 0.9749
-5.9001 1.7292 -2.0437 0.9744
-5.9647 0.6374 -1.9940 0.9750
-5.8514 -0.4230 -1.9501 0.9756
-5.7325 -0.9338 -1.9306 0.9758
-5.5745 -1.4281 -1.9128 0.9760
-5.1495 -2.3581 -1.8826 0.9764
-4.8863 -2.7896 -1.8703 0.9766
-4.2690 -3.5766 -1.8512 0.9768
-3.1455 -4.5441 -1.8371 0.9770
-2.2883 -5.0314 -1.8373 0.9770
-1.3638 -5.3812 -1.8453 0.9769
-0.8817 -5.5019 -1.8522 0.9768
1.1256 -5.6000 -1.8987 0.9762
3.1324 -5.0452 -1.9740 0.9753
3.6113 -4.8007 -1.9969 0.9750
4.9367 -3.8150 -2.0739 0.9740
5.3253 -3.4028 -2.1007 0.9737
5.2784 -2.7432 -1.9774 0.9752
2.3100 -0.9495 -0.8302 0.9895
6.0616 -1.3005 -2.0608 0.9742
6.4387 0.3649 -2.1437 0.9732
6.3257 2.1283 -2.2185 0.9723
6.1704 2.7103 -2.2402 0.9720
5.9557 3.2783 -2.2598 0.9718
4.9856 4.0466 -2.1344 0.9733
3.9149 4.5514 -1.9956 0.9750
3.4218 4.7826 -1.9548 0.9755
2.9444 5.0056 -1.9304 0.9758
0.5213 2.9577 -0.9983 0.9874
0.5227 6.1235 -2.0429 0.9744
-0.6231 6.6456 -2.2187 0.9723
-1.7792 6.3761 -2.2004 0.9725
-2.3145 6.1224 -2.1757 0.9728
-3.2836 5.4771 -2.1227 0.9734
-3.7101 5.0952 -2.0951 0.9738
-4.9776 3.2908 -1.9835 0.9752
-5.5817 3.0121 -2.1083 0.9736
-5.9414 1.3717 -2.0269 0.9746
-5.8833 -0.2416 -1.9573 0.9755
-5.6339 -1.2579 -1.9188 0.9760
-4.9816 -2.6419 -1.8744 0.9765
-4.3848 -3.4472 -1.8540 0.9768
-4.0438 -3.8094 -1.8467 0.9769
-3.6771 -4.1428 -1.8413 0.9769
-2.8747 -4.7174 -1.8363 0.9770
-2.4430 -4.9561 -1.8367 0.9770
-1.5290 -5.3306 -1.8434 0.9769
-1.0510 -5.4641 -1.8496 0.9768
-0.5619 -5.5604 -1.8577 0.9767
1.9648 -5.4523 -1.9265 0.9759
2.4675 -5.3075 -1.9456 0.9756
2.9624 -5.1203 -1.9664 0.9754
3.4461 -4.8907 -1.9887 0.9751
4.3654 -4.3043 -2.0378 0.9745
4.7935 -3.9485 -2.0644 0.9742
5.4779 -2.4534 -1.9952 0.9750
5.7538 -1.9822 -2.0229 0.9747
5.9896 -1.4814 -2.0510 0.9743
6.4187 0.1636 -2.1343 0.9733
6.4410 1.3333 -2.1864 0.9727
6.0373 3.0824 -2.2533 0.9718
4.6206 4.2191 -2.0799 0.9740
4.0867 4.4625 -2.0114 0.9748
3.5914 4.7032 -1.9670 0.9754
3.1095 4.9286 -1.9371 0.9757
1.6963 5.5845 -1.9401 0.9757
-0.4089 6.5483 -2.1809 0.9727
-0.9004 5.8903 -1.9807 0.9752
-2.1314 6.2164 -2.1845 0.9727
-3.1255 5.6015 -2.1322 0.9733
-3.9654 4.8284 -2.0769 0.9740
-4.3210 4.3952 -2.0488 0.9744
-4.8962 3.4607 -1.9930 0.9750
-5.5046 3.1955 -2.1157 0.9735
-5.8336 2.1118 -2.0623 0.9742
-5.9218 1.5628 -2.0358 0.9745
-5.9586 0.4741 -1.9869 0.9751
-5.9102 -0.0587 -1.9647 0.9754
-5.8196 -0.5795 -1.9440 0.9756
-5.6886 -1.0855 -1.9251 0.9759
-5.3134 -2.0437 -1.8923 0.9763
-4.8003 -2.9156 -1.8669 0.9766
-4.4972 -3.3144 -1.8570 0.9767
-3.4253 -4.3438 -1.8388 0.9770
-3.0206 -4.6265 -1.8366 0.9770
-2.1521 -5.0935 -1.8380 0.9770
-1.6926 -5.2755 -1.8416 0.9769
-1.2189 -5.4217 -1.8472 0.9768
-0.7334 -5.5311 -1.8547 0.9768
-0.2383 -5.6027 -1.8641 0.9766
0.2639 -5.6355 -1.8753 0.9765
1.2800 -5.5814 -1.9034 0.9762
2.2931 -5.3628 -1.9387 0.9757
2.7911 -5.1904 -1.9589 0.9755
3.2790 -4.9756 -1.9808 0.9752
3.7535 -4.7182 -2.0041 0.9749
4.2108 -4.4186 -2.0289 0.9746
5.0585 -3.6948 -2.0823 0.9739
5.6621 -2.1499 -2.0132 0.9748
5.9122 -1.6591 -2.0412 0.9744
6.1198 -1.1406 -2.0693 0.9741
6.3922 -0.0360 -2.1248 0.9734
6.4506 0.5411 -2.1517 0.9731
6.4534 1.1277 -2.1777 0.9728
6.3987 1.7181 -2.2023 0.9725
6.2849 2.3058 -2.2253 0.9722
6.1116 2.8843 -2.2464 0.9719
5.8790 3.4467 -2.2653 0.9717
5.3989 3.8508 -2.2044 0.9724
3.2758 4.8509 -1.9457 0.9756
1.3820 5.7293 -1.9591 0.9755
0.3603 6.1978 -2.0636 0.9742
-0.2017 6.4540 -2.1464 0.9731
-0.8100 6.6857 -2.2386 0.9720
-2.4705 6.0359 -2.1679 0.9729
-2.9627 5.7211 -2.1416 0.9732
-3.4172 5.3650 -2.1144 0.9735
-3.8311 4.9727 -2.0866 0.9739
-4.2021 4.5491 -2.0586 0.9742
-4.8093 3.6288 -2.0026 0.9749
-5.7915 2.3028 -2.0717 0.9741
-5.8965 1.7541 -2.0449 0.9744
-5.9539 1.2058 -2.0193 0.9747
-5.8559 -0.3995 -1.9510 0.9756
-5.7387 -0.9110 -1.9315 0.9758
-5.5825 -1.4061 -1.9136 0.9760
-5.3891 -1.8825 -1.8975 0.9762
-4.2842 -3.5600 -1.8516 0.9768
-3.1640 -4.5316 -1.8372 0.9770
-1.8544 -5.2161 -1.8402 0.9769
1.1025 -5.6025 -1.8980 0.9762
2.1178 -5.4129 -1.9321 0.9758
3.1104 -5.0552 -1.9730 0.9753
4.0537 -4.5278 -2.0201 0.9747
5.3093 -3.4229 -2.0998 0.9737
5.2639 -2.7628 -1.9761 0.9753
5.8297 -1.8334 -2.0314 0.9746
6.0526 -1.3242 -2.0595 0.9742
6.4364 0.3386 -2.1425 0.9732
6.4589 0.9226 -2.1688 0.9729
6.3313 2.1017 -2.2175 0.9723
5.9667 3.2530 -2.2590 0.9718
3.9377 4.5407 -1.9978 0.9750
3.4437 4.7723 -1.9562 0.9755
2.9658 4.9956 -1.9312 0.9758
1.5509 5.6515 -1.9480 0.9756
0.5466 6.1126 -2.0400 0.9745
-0.0008 6.3625 -2.1149 0.9735
-0.5948 6.6328 -2.2136 0.9723
-1.0645 5.8917 -1.9901 0.9751
-2.7953 5.8357 -2.1509 0.9731
-4.0779 4.6999 -2.0684 0.9741
-4.4199 4.2588 -2.0403 0.9745
5.9110 -0.0094 -2.1138 0.9752
5.6154 2.6779 -2.2247 0.9739
5.3953 3.1924 -2.2418 0.9737
5.1226 3.6851 -2.2566 0.9735
4.0009 4.1380 -2.0583 0.9758
2.7542 5.0343 -2.0521 0.9759
2.3087 5.2932 -2.0651 0.9758
0.3353 6.2006 -2.2206 0.9740
-1.3036 6.0006 -2.1959 0.9743
-1.8155 5.8026 -2.1742 0.9745
-2.7564 5.2705 -2.1270 0.9750
-3.1777 4.9448 -2.1019 0.9753
-3.5622 4.5851 -2.0764 0.9756
-3.9076 4.1961 -2.0505 0.9759
-4.4752 3.3484 -1.9987 0.9765
-5.4977 1.6113 -2.0487 0.9760
-5.5671 0.5950 -2.0022 0.9765
-5.5384 0.0950 -1.9809 0.9767
-5.3618 -0.8734 -1.9427 0.9772
-5.2171 -1.3366 -1.9259 0.9774
-5.0373 -1.7825 -1.9108 0.9776
-4.0036 -3.3542 -1.8678 0.9781
-3.6760 -3.6855 -1.8615 0.9781
-2.9513 -4.2636 -1.8543 0.9782
-2.5581 -4.5079 -1.8535 0.9782
-1.7201 -4.9010 -1.8574 0.9782
-1.2793 -5.0477 -1.8621 0.9781
0.1041 -5.2760 -1.8871 0.9778
0.5779 -5.2787 -1.8990 0.9777
1.0539 -5.2435 -1.9126 0.9775
2.0020 -5.0566 -1.9449 0.9772
2.9255 -4.7120 -1.9834 0.9767
3.3703 -4.4803 -2.0049 0.9765
3.7992 -4.2092 -2.0277 0.9762
4.2088 -3.8992 -2.0517 0.9759
4.9041 -2.5487 -1.9764 0.9768
5.6150 -1.2047 -2.0537 0.9759
5.7719 -0.7078 -2.0795 0.9756
5.9467 0.3370 -2.1300 0.9750
5.9595 0.8758 -2.1541 0.9747
5.9200 1.4189 -2.1770 0.9745
3.6866 4.2860 -2.0217 0.9763
2.4717 5.2175 -2.0646 0.9758
1.4099 3.8256 -1.4580 0.9828
1.5271 5.6544 -2.0945 0.9754
0.5220 6.1154 -2.1949 0.9743
-0.0261 6.2634 -2.2399 0.9737
-1.0892 5.8917 -2.1426 0.9749
-1.6399 5.8771 -2.1820 0.9744
-3.7918 4.3347 -2.0595 0.9758
-2.4680 1.9693 -1.1291 0.9867
-4.6237 3.0568 -1.9821 0.9767
-5.1822 2.7965 -2.1058 0.9753
-5.3515 2.2975 -2.0826 0.9756
-5.4677 1.7890 -2.0573 0.9759
-5.5393 1.2789 -2.0330 0.9761
-5.4979 -0.2258 -1.9678 0.9769
-4.9021 -2.0628 -1.9019 0.9777
-4.1118 -3.2325 -1.8704 0.9780
-3.7929 -3.5731 -1.8635 0.9781
-3.0837 -4.1713 -1.8551 0.9782
-2.6973 -4.4263 -1.8536 0.9782
-2.2922 -4.6502 -1.8540 0.9782
-1.8705 -4.8420 -1.8562 0.9782
-1.4343 -5.0004 -1.8603 0.9781
-0.9857 -5.1246 -1.8662 0.9781
-0.5268 -5.2135 -1.8739 0.9780
-0.0600 -5.2663 -1.8834 0.9779
0.4124 -5.2821 -1.8947 0.9777
0.8880 -5.2601 -1.9077 0.9776
3.2169 -4.5655 -1.9973 0.9766
4.0685 -4.0116 -2.0432 0.9760
4.4635 -3.6767 -2.0680 0.9757
4.8331 -3.3046 -2.0937 0.9754
4.8011 -2.6881 -1.9677 0.9769
5.7222 -0.8832 -2.0705 0.9757
5.8499 -0.3739 -2.0962 0.9754
5.9302 0.1512 -2.1214 0.9751
5.9609 0.6873 -2.1458 0.9748
5.7369 2.3097 -2.2116 0.9741
5.5543 2.8358 -2.2302 0.9739
5.3181 3.3444 -2.2466 0.9737
5.0298 3.8292 -2.2606 0.9735
4.6143 4.2134 -2.2345 0.9738
3.8532 4.2075 -2.0403 0.9761
3.3945 4.4453 -2.0002 0.9765
1.5282 3.7799 -1.4580 0.9828
0.3508 3.0034 -1.0813 0.9872
0.1692 6.2763 -2.2453 0.9737
-0.3884 6.2204 -2.2288 0.9739
-0.8997 5.8861 -2.1294 0.9750
-2.4426 5.4751 -2.1439 0.9749
-3.6711 4.4701 -2.0685 0.9757
-4.0044 4.0731 -2.0426 0.9760
-4.5465 3.2135 -1.9910 0.9766
-4.7540 2.7597 -1.9657 0.9769
-5.3004 2.4737 -2.0917 0.9755
-5.4323 1.9666 -2.0660 0.9758
-5.5628 0.4426 -1.9956 0.9766
-5.5217 -0.0548 -1.9747 0.9768
-5.4408 -0.5417 -1.9553 0.9770
-5.3217 -1.0155 -1.9374 0.9772
-4.9762 -1.9140 -1.9066 0.9776
-4.7533 -2.3343 -1.8937 0.9778
-4.2167 -3.1078 -1.8732 0.9780
-3.9069 -3.4575 -1.8657 0.9781
-2.8341 -4.3409 -1.8539 0.9782
-2.0192 -4.7789 -1.8553 0.9782
-1.5878 -4.9491 -1.8587 0.9782
-0.6877 -5.1866 -1.8710 0.9780
-0.2234 -5.2521 -1.8799 0.9779
0.7221 -5.2721 -1.9029 0.9776
1.1983 -5.2252 -1.9171 0.9775
2.1442 -5.0146 -1.9503 0.9771
3.0618 -4.6460 -1.9898 0.9766
3.5021 -4.4023 -2.0117 0.9764
5.0468 -3.0357 -2.1061 0.9753
5.6672 -1.0562 -2.0615 0.9758
5.8106 -0.5534 -2.0873 0.9755
4.8068 4.1223 -2.2645 0.9735
4.0231 4.1275 -2.0612 0.9758
3.5502 4.3609 -2.0109 0.9764
2.3299 5.2833 -2.0649 0.9758
1.3803 5.7220 -2.1049 0.9753
0.4168 2.8075 -1.0150 0.9880
0.3598 6.1894 -2.2171 0.9740
-0.1952 6.2463 -2.2348 0.9738
-2.7365 5.2844 -2.1281 0.9750
-3.5456 4.6021 -2.0775 0.9756
-4.1995 3.8016 -2.0257 0.9762
-5.2418 2.6480 -2.1001 0.9754
-5.4941 1.6344 -2.0498 0.9759
-5.5524 1.1245 -2.0259 0.9762
-5.5674 0.6178 -2.0032 0.9765
-5.3674 -0.8521 -1.9435 0.9772
-5.2244 -1.3160 -1.9267 0.9774
-4.8345 -2.1903 -1.8980 0.9777
-4.5913 -2.5966 -1.8863 0.9778
-3.6913 -3.6711 -1.8617 0.9781
-2.9687 -4.2518 -1.8544 0.9782
-2.5764 -4.4975 -1.8535 0.9782
-2.1660 -4.7118 -1.8545 0.9782
-1.2995 -5.0418 -1.8619 0.9781
-0.3860 -5.2334 -1.8766 0.9780
0.0827 -5.2750 -1.8866 0.9778
1.0324 -5.2459 -1.9120 0.9775
2.4474 -4.9119 -1.9625 0.9770
3.7802 -4.2223 -2.0266 0.9762
4.1907 -3.9141 -2.0506 0.9759
4.5784 -3.5678 -2.0757 0.9756
4.9353 -3.1818 -2.0999 0.9754
2.3063 -0.9589 -0.8932 0.9894
5.4059 -1.7001 -2.0265 0.9762
5.7657 -0.7307 -2.0784 0.9756
5.9449 0.3128 -2.1289 0.9750
5.9229 1.3943 -2.1760 0.9745
5.8322 1.9360 -2.1976 0.9742
5.4883 2.9921 -2.2354 0.9738
4.9325 3.9706 -2.2644 0.9735
4.4507 4.2906 -2.2108 0.9741
2.9621 4.9893 -2.0750 0.9757
1.4230 3.8137 -1.4557 0.9829
0.5459 6.1044 -2.1917 0.9743
-1.0631 5.8839 -2.1382 0.9749
-2.1134 5.6595 -2.1604 0.9747
-3.0161 5.0773 -2.1119 0.9752
-3.4154 4.7305 -2.0865 0.9755
-3.7764 4.3525 -2.0607 0.9758
-4.0973 3.9480 -2.0347 0.9761
-2.4565 1.9764 -1.1275 0.9867
5.4881 -0.0087 -2.1032 0.9768
5.5262 0.4860 -2.1259 0.9765
5.1941 2.4770 -2.2052 0.9757
4.7332 3.4050 -2.2344 0.9753
4.4328 3.8328 -2.2457 0.9752
3.2458 4.8486 -2.2360 0.9753
2.7507 5.0279 -2.1963 0.9757
1.3541 5.7147 -2.2506 0.9752
-0.2038 5.7731 -2.2138 0.9756
-0.7126 5.6890 -2.1972 0.9757
-1.2070 5.5559 -2.1788 0.9759
-1.6822 5.3764 -2.1588 0.9762
-2.1338 5.1537 -2.1376 0.9764
-2.5580 4.8913 -2.1153 0.9766
-2.9515 4.5929 -2.0922 0.9769
-3.6359 3.9043 -2.0445 0.9774
-3.9228 3.5224 -2.0204 0.9777
-4.3805 2.7041 -1.9728 0.9782
-4.8955 2.4482 -2.0976 0.9768
-5.0433 1.9818 -2.0765 0.9771
-5.1413 1.5068 -2.0531 0.9773
-5.1979 1.0309 -2.0307 0.9776
-5.2139 0.5572 -2.0095 0.9778
-5.1291 -0.3708 -1.9707 0.9782
-4.3049 -2.4577 -1.8996 0.9790
-4.0485 -2.8179 -1.8903 0.9791
-3.7656 -3.1549 -1.8826 0.9792
-3.1281 -3.7533 -1.8724 0.9793
-2.4072 -4.2419 -1.8691 0.9793
-1.2035 -4.7485 -1.8772 0.9792
-0.7777 -4.8529 -1.8834 0.9792
0.5430 -4.9601 -1.9122 0.9789
3.1562 -4.1957 -2.0120 0.9778
3.5553 -3.9390 -2.0334 0.9775
2.3099 -0.9494 -0.9571 0.9894
5.0431 -1.5636 -2.0234 0.9776
5.3652 -0.6579 -2.0714 0.9771
5.4641 -0.1788 -2.0950 0.9769
5.2545 2.3080 -2.1993 0.9757
4.8272 3.2496 -2.2300 0.9754
4.5426 3.6870 -2.2420 0.9752
3.6817 4.2803 -2.1636 0.9761
2.9370 4.9929 -2.2198 0.9755
2.4685 5.2109 -2.2096 0.9756
1.3853 3.7588 -1.5352 0.9830
1.5251 5.6471 -2.2416 0.9753
0.5182 2.9400 -1.1440 0.9873
-1.0367 5.6077 -2.1854 0.9759
-2.8181 4.7007 -2.1003 0.9768
-3.5270 4.0320 -2.0529 0.9773
-3.8272 3.6579 -2.0288 0.9776
-5.1829 1.1966 -2.0384 0.9775
-5.2129 0.7218 -2.0167 0.9777
-5.0693 -0.6646 -1.9593 0.9783
-4.6058 -1.9381 -1.9149 0.9788
-4.3878 -2.3270 -1.9033 0.9789
-4.1409 -2.6949 -1.8933 0.9791
-3.2456 -3.6566 -1.8736 0.9793
-2.1569 -4.3758 -1.8695 0.9793
0.3876 -4.9639 -1.9081 0.9789
0.8342 -4.9412 -1.9204 0.9788
1.2808 -4.8822 -1.9343 0.9786
2.1636 -4.6537 -1.9667 0.9783
2.5941 -4.4837 -1.9851 0.9781
3.4182 -4.0326 -2.0258 0.9776
4.5128 -3.0855 -2.0950 0.9769
4.7418 -2.1237 -1.9911 0.9780
5.3206 -0.8212 -2.0631 0.9772
5.5046 0.1403 -2.1101 0.9767
5.5045 1.1394 -2.1542 0.9762
5.4315 1.6412 -2.1744 0.9760
5.3089 2.1374 -2.1932 0.9758
5.1367 2.6226 -2.2102 0.9756
4.6469 3.5377 -2.2381 0.9753
3.3776 4.4232 -2.1327 0.9764
3.1016 4.9160 -2.2275 0.9754
2.6313 5.1352 -2.2112 0.9756
1.6920 5.5702 -2.2309 0.9754
0.3310 2.8344 -1.0936 0.9879
-0.3593 5.7529 -2.2089 0.9756
-0.8642 5.6537 -2.1918 0.9758
-1.3533 5.5062 -2.1729 0.9760
-2.2655 5.0782 -2.1309 0.9765
-2.6807 4.8044 -2.1083 0.9767
-3.0643 4.4959 -2.0850 0.9770
-3.4137 4.1567 -2.0612 0.9772
-2.4230 2.0599 -1.2187 0.9865
-4.4361 2.5752 -1.9657 0.9783
-5.2070 0.8869 -2.0242 0.9776
-5.2110 0.4146 -2.0032 0.9779
-5.1032 -0.5081 -1.9653 0.9783
-4.8510 -1.3837 -1.9331 0.9786
-3.9654 -2.9225 -1.8878 0.9791
-1.8999 -4.4967 -1.8707 0.9793
-1.0755 -4.7837 -1.8789 0.9792
-0.2101 -4.9380 -1.8941 0.9791
0.6784 -4.9532 -1.9159 0.9788
1.1253 -4.9069 -1.9292 0.9787
2.0115 -4.7042 -1.9606 0.9783
3.2790 -4.1217 -2.0184 0.9777
4.7088 -2.8324 -2.1058 0.9767
4.6540 -2.2608 -1.9828 0.9781
4.8952 -1.8588 -2.0066 0.9778
5.1019 -1.4317 -2.0307 0.9776
5.2711 -0.9824 -2.0548 0.9773
5.3997 -0.5142 -2.0786 0.9770
5.5255 0.4635 -2.1249 0.9765
5.5184 0.9643 -2.1468 0.9763
5.3573 1.9655 -2.1868 0.9759
4.0177 4.1220 -2.2058 0.9756
3.2672 4.8381 -2.2372 0.9753
1.8574 5.4939 -2.2224 0.9755
-0.1805 5.7758 -2.2145 0.9756
-1.1850 5.5629 -2.1796 0.9759
-1.6612 5.3855 -2.1598 0.9761
-2.1140 5.1647 -2.1386 0.9764
-2.5395 4.9039 -2.1163 0.9766
-2.9344 4.6071 -2.0932 0.9769
-3.2960 4.2781 -2.0696 0.9771
-3.9107 3.5402 -2.0215 0.9777
-2.5664 1.9365 -1.2321 0.9863
-4.3719 2.7232 -1.9738 0.9782
-4.8874 2.4689 -2.0983 0.9768
-5.2141 0.5786 -2.0104 0.9778
-5.1925 0.1101 -1.9903 0.9780
-5.0363 -0.7995 -1.9542 0.9784
-4.9048 -1.2354 -1.9383 0.9786
-4.5428 -2.0581 -1.9112 0.9789
-4.3159 -2.4408 -1.9001 0.9790
-4.0607 -2.8020 -1.8907 0.9791
-3.4726 -3.4535 -1.8768 0.9792
-3.1435 -3.7409 -1.8725 0.9793
-2.7934 -4.0008 -1.8699 0.9793
-1.6369 -4.6043 -1.8726 0.9793
-0.7972 -4.8489 -1.8831 0.9792
-0.3630 -4.9210 -1.8909 0.9791
1.4158 -4.8571 -1.9388 0.9786
2.2951 -4.6061 -1.9721 0.9782
2.7225 -4.4248 -1.9909 0.9780
3.1377 -4.2065 -2.0111 0.9778
3.5376 -3.9514 -2.0324 0.9775
3.9189 -3.6601 -2.0549 0.9773
4.2780 -3.3337 -2.0784 0.9770
5.2166 -1.1413 -2.0464 0.9774
5.2619 2.2859 -2.1985 0.9757
5.0747 2.7667 -2.2150 0.9755
4.8390 3.2292 -2.2294 0.9754
4.5564 3.6678 -2.2415 0.9753
3.7031 4.2702 -2.1660 0.9761
3.4147 4.7321 -2.2363 0.9753
1.3969 3.7438 -1.5313 0.9830
1.5469 5.6371 -2.2401 0.9753
0.5310 2.9430 -1.1460 0.9873
-0.0007 5.7924 -2.2197 0.9755
-1.9591 5.2463 -2.1461 0.9763
-2.4548 1.9751 -1.2074 0.9866
5.1157 -0.0081 -2.0937 0.9781
4.6316 2.7406 -2.2026 0.9770
3.7932 3.9232 -2.2335 0.9767
3.4286 4.2465 -2.2338 0.9767
2.6304 4.8079 -2.2430 0.9766
2.1892 5.0192 -2.2411 0.9766
0.2915 5.3906 -2.2094 0.9769
-0.6622 5.2870 -2.1807 0.9772
-1.1223 5.1663 -2.1638 0.9774
-1.5652 5.0026 -2.1453 0.9776
-1.9868 4.7987 -2.1257 0.9778
-2.3835 4.5576 -2.1050 0.9780
-2.7522 4.2827 -2.0835 0.9782
-3.3956 3.6463 -2.0392 0.9787
-2.3415 2.1025 -1.2879 0.9865
-2.5339 1.8959 -1.2952 0.9864
-4.1005 2.5312 -1.9722 0.9794
-4.5812 2.2910 -2.0964 0.9781
-4.8796 0.9677 -2.0360 0.9787
-1.9528 -0.1412 -0.8013 0.9916
-2.0609 -0.3357 -0.8546 0.9910
-4.4562 -1.5769 -1.9346 0.9798
-4.2711 -1.9558 -1.9226 0.9799
-3.5509 -2.9750 -1.8959 0.9802
-2.9506 -3.5403 -1.8862 0.9803
-2.2709 -4.0017 -1.8831 0.9803
-1.5266 -4.3496 -1.8866 0.9803
-1.1350 -4.4785 -1.8909 0.9802
-0.7333 -4.5760 -1.8968 0.9802
-0.3235 -4.6415 -1.9042 0.9801
0.0922 -4.6740 -1.9133 0.9800
0.9322 -4.6380 -1.9362 0.9798
1.3517 -4.5685 -1.9499 0.9796
2.1767 -4.3246 -1.9815 0.9793
2.9646 -3.9410 -2.0184 0.9789
4.0249 -3.1103 -2.0818 0.9783
5.0062 -0.6139 -2.0643 0.9784
5.0946 -0.1667 -2.0862 0.9782
5.1445 0.7561 -2.1281 0.9778
5.1030 1.2230 -2.1477 0.9776
4.4813 3.0167 -2.2110 0.9769
4.2154 3.4215 -2.2221 0.9768
3.9090 3.7990 -2.2309 0.9767
3.5649 4.1446 -2.2374 0.9766
2.3453 4.9507 -2.2421 0.9766
1.4223 5.2663 -2.2326 0.9767
0.4600 5.3891 -2.2136 0.9769
-0.0224 5.3776 -2.2009 0.9770
-0.4987 5.3185 -2.1863 0.9772
-0.9638 5.2133 -2.1698 0.9773
-2.2484 4.6456 -2.1123 0.9779
-2.9761 4.0872 -2.0693 0.9784
-3.2930 3.7645 -2.0470 0.9786
-3.5761 3.4179 -2.0246 0.9788
-2.4296 1.9387 -1.2721 0.9867
-4.0354 2.6679 -1.9799 0.9793
-4.6831 2.0106 -2.0859 0.9782
-4.8644 1.1231 -2.0432 0.9787
-1.9398 0.0937 -0.7948 0.9916
-4.3389 -1.8258 -1.9266 0.9799
-3.9035 -2.5404 -1.9062 0.9801
-3.6463 -2.8666 -1.8983 0.9802
-2.7372 -3.7025 -1.8845 0.9803
-0.8743 -4.5456 -1.8945 0.9802
-0.4671 -4.6224 -1.9015 0.9801
0.3652 -4.6773 -1.9201 0.9799
1.6232 -4.5044 -1.9596 0.9795
4.2262 -2.8896 -2.0954 0.9781
4.4361 -1.9868 -1.9894 0.9792
4.8248 -1.1933 -2.0342 0.9787
4.9660 -0.7665 -2.0565 0.9785
5.1484 0.5937 -2.1211 0.9778
5.1226 1.0604 -2.1410 0.9776
4.5640 2.8702 -2.2066 0.9770
4.0202 3.6709 -2.2281 0.9767
2.4989 4.8767 -2.2427 0.9766
1.5210 3.7619 -1.6607 0.9826
1.5871 5.2251 -2.2350 0.9767
0.3296 2.8220 -1.1628 0.9878
0.1452 5.3870 -2.2056 0.9770
-2.1099 4.7294 -2.1195 0.9779
-3.4814 3.5412 -2.0324 0.9788
-2.3814 2.0246 -1.2793 0.9866
-4.1535 2.4112 -1.9656 0.9795
-4.6307 2.1611 -2.0915 0.9782
-4.7610 1.7235 -2.0723 0.9784
-2.1299 0.3628 -0.8843 0.9907
-1.9556 0.1556 -0.8029 0.9916
-1.9080 -0.0189 -0.7810 0.9918
-1.9578 -0.1949 -0.8052 0.9915
-4.5674 -1.3028 -1.9439 0.9797
-3.7387 -2.7555 -1.9009 0.9801
-3.1695 -3.3547 -1.8889 0.9803
-2.5158 -3.8534 -1.8835 0.9803
-1.4091 -4.3919 -1.8878 0.9803
-1.0143 -4.5114 -1.8925 0.9802
-0.1980 -4.6548 -1.9068 0.9801
0.6391 -4.6661 -1.9275 0.9799
1.4783 -4.5405 -1.9543 0.9796
1.8923 -4.4255 -1.9699 0.9794
2.6957 -4.0905 -2.0050 0.9790
4.3551 -2.1156 -1.9816 0.9793
4.9211 -0.9172 -2.0488 0.9786
5.0373 -0.4797 -2.0710 0.9784
5.1133 -0.0288 -2.0928 0.9781
5.1470 0.4317 -2.1139 0.9779
5.1367 0.8976 -2.1342 0.9777
4.9804 1.8272 -2.1712 0.9773
4.6414 2.7211 -2.2020 0.9770
4.4052 3.1420 -2.2145 0.9769
3.4492 4.2368 -2.2360 0.9767
3.0661 4.5403 -2.2422 0.9766
1.7505 5.1779 -2.2370 0.9767
-0.1677 5.3646 -2.1967 0.9771
-0.6410 5.2914 -2.1815 0.9772
-1.1018 5.1727 -2.1646 0.9774
-1.5456 5.0109 -2.1462 0.9776
-1.9683 4.8087 -2.1266 0.9778
-2.3662 4.5693 -2.1059 0.9780
-3.6550 3.3087 -2.0178 0.9789
-2.5154 1.8980 -1.2897 0.9865
-4.8198 1.4338 -2.0581 0.9785
-4.8779 0.9879 -2.0369 0.9787
-1.9564 0.2171 -0.8056 0.9915
-1.9187 0.0407 -0.7855 0.9917
-4.4638 -1.5593 -1.9352 0.9798
-4.2801 -1.9391 -1.9231 0.9799
-3.8282 -2.6416 -1.9036 0.9801
-3.5635 -2.9611 -1.8962 0.9802
-3.2752 -3.2572 -1.8905 0.9802
-2.6351 -3.7742 -1.8839 0.9803
-2.2870 -3.9925 -1.8831 0.9803
-1.5440 -4.3431 -1.8865 0.9803
-0.3422 -4.6392 -1.9039 0.9801
0.0733 -4.6733 -1.9129 0.9800
0.4926 -4.6739 -1.9235 0.9799
1.3328 -4.5724 -1.9492 0.9796
1.7487 -4.4695 -1.9643 0.9795
2.5589 -4.1589 -1.9985 0.9791
4.3126 -2.7803 -2.1001 0.9781
4.2705 -2.2414 -1.9739 0.9794
2.3042 -0.9580 -1.0213 0.9893
4.7047 -1.4796 -2.0185 0.9789
4.8715 -1.0658 -2.0410 0.9787
5.0013 -0.6339 -2.0633 0.9784
5.1454 0.7350 -2.1272 0.9778
5.1058 1.2019 -2.1468 0.9776
5.0208 1.6667 -2.1651 0.9774
4.8898 2.1243 -2.1820 0.9772
4.7134 2.5697 -2.1971 0.9771
3.9237 3.7826 -2.2306 0.9767
3.5813 4.1297 -2.2372 0.9767
3.1667 4.3884 -2.2149 0.9769
2.7978 4.7126 -2.2430 0.9766
1.3958 3.7406 -1.6340 0.9829
0.5389 2.9866 -1.2421 0.9870
0.4819 5.3885 -2.2142 0.9769
-0.0007 5.3791 -2.2015 0.9770
-0.4773 5.3221 -2.1870 0.9772
-0.9430 5.2191 -2.1706 0.9773
-1.3932 5.0720 -2.1527 0.9775
-2.2306 4.6567 -2.1132 0.9779
-2.6106 4.3947 -2.0921 0.9781
-2.9610 4.1012 -2.0703 0.9784
-2.4205 1.9474 -1.2715 0.9867
4.7850 -0.0076 -2.0854 0.9793
4.8115 0.4232 -2.1050 0.9791
4.5007 2.1463 -2.1731 0.9785
3.8317 3.3130 -2.2076 0.9781
3.5328 3.6539 -2.2150 0.9781
2.8377 4.2390 -2.2232 0.9780
2.4490 4.4765 -2.2238 0.9780
2.0384 4.6735 -2.2221 0.9780
1.6105 4.8279 -2.2181 0.9780
0.4243 2.9395 -1.2943 0.9871
0.2717 5.0241 -2.1928 0.9783
-0.1765 4.9998 -2.1804 0.9784
-1.8566 4.4840 -2.1151 0.9790
-2.2287 4.2615 -2.0959 0.9792
-2.5751 4.0071 -2.0759 0.9794
-2.8934 3.7243 -2.0554 0.9796
-3.1814 3.4163 -2.0345 0.9798
-2.3173 2.0808 -1.3573 0.9865
-2.4557 1.8374 -1.3366 0.9867
-3.8499 2.3765 -1.9718 0.9805
-4.0046 2.0027 -1.9514 0.9807
-1.5704 0.4602 -0.7132 0.9929
-1.5055 0.2986 -0.6689 0.9933
-1.5258 0.0262 -0.6651 0.9934
-1.5079 -0.2456 -0.6658 0.9934
-4.0335 -1.8471 -1.9334 0.9808
-3.3560 -2.8117 -1.9081 0.9811
-3.0831 -3.0910 -1.9027 0.9811
-2.7895 -3.3470 -1.8988 0.9812
-2.1470 -3.7834 -1.8959 0.9812
-1.8018 -3.9617 -1.8968 0.9812
-1.4432 -4.1119 -1.8992 0.9812
0.0871 -4.4152 -1.9246 0.9809
0.8800 -4.3783 -1.9463 0.9807
1.2755 -4.3110 -1.9593 0.9806
2.0521 -4.0772 -1.9893 0.9803
2.4280 -3.9107 -2.0061 0.9801
3.1412 -3.4801 -2.0432 0.9798
4.0619 -2.5955 -2.1008 0.9792
4.4185 -1.3700 -2.0161 0.9800
4.5702 -0.9805 -2.0371 0.9798
4.7664 -0.1560 -2.0784 0.9794
4.8069 0.2724 -2.0983 0.9792
4.8069 0.7065 -2.1174 0.9790
4.7652 1.1421 -2.1355 0.9788
4.5547 2.0006 -2.1680 0.9785
4.3861 2.4143 -2.1820 0.9784
3.9274 3.1877 -2.2045 0.9782
3.3197 3.8595 -2.2187 0.9780
1.7612 4.7790 -2.2197 0.9780
0.4286 5.0221 -2.1967 0.9782
-0.0209 5.0133 -2.1849 0.9784
-0.4651 4.9604 -2.1713 0.9785
-2.3964 1.9122 -1.3361 0.9867
-3.9546 2.1340 -1.9584 0.9806
-4.3975 1.8880 -2.0857 0.9793
-1.5316 0.3536 -0.6851 0.9932
-1.5169 0.2100 -0.6674 0.9933
-1.5293 0.0739 -0.6673 0.9933
-1.5259 -0.3407 -0.6814 0.9932
-1.5823 -0.5051 -0.7239 0.9928
-4.0971 -1.7240 -1.9372 0.9808
-3.9058 -2.0714 -1.9268 0.9809
-3.4459 -2.7091 -1.9103 0.9811
-2.8940 -3.2605 -1.9000 0.9812
-2.5878 -3.5005 -1.8972 0.9812
-1.5695 -4.0628 -1.8982 0.9812
-1.2031 -4.1943 -1.9017 0.9811
1.5313 -4.2493 -1.9685 0.9805
1.9189 -4.1274 -1.9837 0.9803
2.6667 -3.7846 -2.0177 0.9800
3.0214 -3.5644 -2.0364 0.9798
3.6778 -3.0295 -2.0766 0.9794
3.9695 -2.7141 -2.0957 0.9792
4.5212 -1.1182 -2.0298 0.9799
4.7430 -0.3032 -2.0713 0.9795
4.7973 0.1223 -2.0914 0.9793
4.8115 0.5548 -2.1108 0.9791
4.7845 0.9904 -2.1294 0.9789
4.7152 1.4247 -2.1467 0.9787
4.6035 1.8534 -2.1628 0.9786
4.2541 2.6753 -2.1902 0.9783
3.4354 3.7512 -2.2168 0.9780
3.0934 4.0510 -2.2214 0.9780
2.3266 4.5406 -2.2235 0.9780
1.5296 3.7833 -1.7785 0.9824
1.4781 4.8660 -2.2164 0.9781
1.0349 4.9629 -2.2094 0.9781
0.3260 2.7918 -1.2250 0.9878
-0.3112 4.9838 -2.1763 0.9784
-0.7494 4.9029 -2.1616 0.9786
-1.5836 4.6187 -2.1279 0.9789
-1.9719 4.4201 -2.1094 0.9791
-2.6747 3.9242 -2.0697 0.9795
-2.9840 3.6334 -2.0491 0.9797
-3.2625 3.3185 -2.0281 0.9799
-2.3542 2.0015 -1.3467 0.9866
-3.9004 2.2642 -1.9655 0.9805
-4.3475 2.0289 -2.0909 0.9793
-1.5961 0.5778 -0.7398 0.9926
-1.5539 0.4101 -0.7004 0.9930
-1.5263 -0.1520 -0.6685 0.9933
-1.5663 -0.4468 -0.7098 0.9929
-3.5330 -2.6038 -1.9127 0.9810
-2.3786 -3.6432 -1.8962 0.9812
-2.0439 -3.8404 -1.8960 0.9812
-1.6944 -4.0102 -1.8973 0.9812
-0.9587 -4.2642 -1.9048 0.9811
-0.5763 -4.3465 -1.9108 0.9811
-0.1871 -4.3979 -1.9184 0.9810
0.2069 -4.4180 -1.9275 0.9809
1.0002 -4.3614 -1.9501 0.9807
1.3948 -4.2840 -1.9635 0.9805
1.7846 -4.1736 -1.9782 0.9804
2.5397 -3.8538 -2.0115 0.9801
2.8995 -3.6448 -2.0298 0.9799
3.2437 -3.4037 -2.0491 0.9797
3.5693 -3.1315 -2.0694 0.9795
3.8733 -2.8291 -2.0904 0.9793
4.1394 -2.4899 -2.1052 0.9791
4.0877 -1.9857 -1.9806 0.9804
4.2933 -1.6302 -2.0014 0.9802
4.4680 -1.2538 -2.0225 0.9800
4.6094 -0.8591 -2.0434 0.9797
4.7442 1.2738 -2.1408 0.9788
4.3269 2.5367 -2.1859 0.9784
3.8443 3.2969 -2.2072 0.9781
3.5470 3.6391 -2.2147 0.9781
2.4671 4.4666 -2.2238 0.9780
2.0574 4.6655 -2.2222 0.9780
1.1902 4.9342 -2.2121 0.9781
0.4369 2.9426 -1.2965 0.9871
-0.5980 4.9359 -2.1669 0.9785
-1.4434 4.6794 -2.1342 0.9789
-2.2124 4.2723 -2.0968 0.9792
-2.3144 2.0952 -1.3606 0.9865
-1.5726 0.4678 -0.7150 0.9929
-1.5091 0.3056 -0.6711 0.9933
-1.5265 0.0324 -0.6654 0.9934
-1.5928 -0.5564 -0.7353 0.9927
-3.3678 -2.7985 -1.9084 0.9811
-3.0959 -3.0789 -1.9029 0.9811
-2.4914 -3.5682 -1.8966 0.9812
-1.8178 -3.9542 -1.8967 0.9812
-1.0899 -4.2284 -1.9030 0.9811
-0.7104 -4.3213 -1.9086 0.9811
0.0692 -4.4146 -1.9242 0.9809
0.4652 -4.4138 -1.9343 0.9808
1.6495 -4.2159 -1.9730 0.9804
2.7758 -3.7213 -2.0233 0.9799
3.1257 -3.4913 -2.0423 0.9798
3.4581 -3.2298 -2.0622 0.9796
3.7700 -2.9378 -2.0830 0.9794
4.0093 -2.1043 -1.9734 0.9804
2.3040 -0.9579 -1.0874 0.9892
4.4108 -1.3872 -2.0151 0.9800
4.6824 -0.5934 -2.0570 0.9796
4.7636 -0.1751 -2.0775 0.9794
4.8059 0.2528 -2.0974 0.9792
4.7679 1.1224 -2.1347 0.9789
4.5613 1.9815 -2.1674 0.9785
3.9395 3.1712 -2.2040 0.9782
3.6546 3.5231 -2.2123 0.9781
3.3350 3.8457 -2.2184 0.9780
2.6049 4.3877 -2.2238 0.9780
1.4272 3.8249 -1.7792 0.9823
1.3447 4.9001 -2.2145 0.9781
-0.4451 4.9638 -2.1720 0.9785
-1.7036 4.5623 -2.1224 0.9790
-2.0851 4.3531 -2.1035 0.9792
-2.4420 4.1108 -2.0838 0.9794
-3.3406 3.2188 -2.0218 0.9800
4.5113 0.3968 -2.0963 0.9802
4.4952 0.8043 -2.1138 0.9801
4.4401 1.2114 -2.1304 0.9799
4.3454 1.6142 -2.1457 0.9798
4.2113 2.0083 -2.1597 0.9796
3.5817 3.0969 -2.1917 0.9793
3.3016 3.4147 -2.1986 0.9793
2.9904 3.7038 -2.2035 0.9792
2.2881 4.1824 -2.2068 0.9792
1.0936 4.6155 -2.1956 0.9793
0.4258 2.9501 -1.3797 0.9869
0.2541 4.6984 -2.1780 0.9795
-0.1651 4.6774 -2.1665 0.9796
-0.5781 4.6158 -2.1533 0.9797
-1.3694 4.3766 -2.1227 0.9800
-1.7402 4.2030 -2.1057 0.9801
-2.9891 3.2099 -2.0303 0.9809
-3.7720 1.8863 -1.9521 0.9816
-1.3301 0.5226 -0.6615 0.9937
-1.3093 0.2597 -0.6179 0.9941
-1.3358 0.0229 -0.6184 0.9941
-1.3384 -0.0968 -0.6211 0.9941
-1.3120 -0.3361 -0.6269 0.9940
-1.3335 -0.4719 -0.6548 0.9938
-1.3147 -0.6020 -0.6693 0.9936
-2.9201 -2.9276 -1.9140 0.9819
-2.3463 -3.3895 -1.9082 0.9820
-2.0339 -3.5841 -1.9075 0.9820
-1.7068 -3.7529 -1.9084 0.9820
-1.3670 -3.8949 -1.9107 0.9820
-0.6563 -4.0954 -1.9199 0.9819
-0.2894 -4.1522 -1.9267 0.9818
0.0825 -4.1793 -1.9349 0.9817
0.8325 -4.1418 -1.9555 0.9816
1.9390 -3.8523 -1.9963 0.9812
2.6355 -3.5035 -2.0293 0.9809
2.9635 -3.2833 -2.0473 0.9807
3.2745 -3.0336 -2.0662 0.9805
2.3100 -0.9494 -1.1560 0.9891
4.1537 -1.2879 -2.0130 0.9810
4.2937 -0.9212 -2.0327 0.9808
4.4006 -0.5397 -2.0522 0.9806
4.4725 -0.1463 -2.0714 0.9805
4.5052 0.6621 -2.1078 0.9801
4.3829 1.4746 -2.1405 0.9798
3.9056 2.6292 -2.1793 0.9795
3.4028 3.3071 -2.1964 0.9793
3.1022 3.6065 -2.2020 0.9792
2.7725 3.8750 -2.2055 0.9792
1.6458 4.4656 -2.2030 0.9792
0.5471 3.1041 -1.4590 0.9862
-0.0195 4.6894 -2.1707 0.9795
-1.6132 4.2673 -2.1117 0.9801
-1.9708 4.0721 -2.0941 0.9803
-2.3057 3.8459 -2.0756 0.9804
-2.6153 3.5916 -2.0566 0.9806
-2.8976 3.3124 -2.0371 0.9808
-3.7241 2.0096 -1.9588 0.9815
-1.3229 0.5679 -0.6664 0.9937
-1.3315 0.4357 -0.6485 0.9938
-1.3017 0.3005 -0.6184 0.9941
-1.3383 0.0646 -0.6202 0.9941
-1.3304 -0.1744 -0.6211 0.9941
-1.3300 -0.4246 -0.6462 0.9939
-3.6968 -1.9605 -1.9369 0.9817
-3.2630 -2.5653 -1.9213 0.9819
-2.1445 -3.5192 -1.9076 0.9820
-1.8223 -3.6970 -1.9079 0.9820
-1.4867 -3.8485 -1.9097 0.9820
-1.1395 -3.9727 -1.9131 0.9819
-0.7826 -4.0687 -1.9179 0.9819
-0.0475 -4.1733 -1.9319 0.9818
0.3264 -4.1806 -1.9410 0.9817
0.7018 -4.1572 -1.9516 0.9816
1.0763 -4.1029 -1.9634 0.9815
1.4477 -4.0173 -1.9766 0.9814
2.5176 -3.5731 -2.0233 0.9809
3.1683 -3.1239 -2.0595 0.9806
3.4666 -2.8555 -2.0789 0.9804
3.7380 -2.5558 -2.0960 0.9802
3.7078 -2.0760 -1.9670 0.9814
4.3672 -0.6741 -2.0454 0.9807
4.4515 -0.2845 -2.0647 0.9805
4.4998 0.1147 -2.0836 0.9804
4.5105 0.5201 -2.1017 0.9802
4.3089 1.7348 -2.1501 0.9797
3.7571 2.8603 -2.1857 0.9794
3.5002 3.1961 -2.1940 0.9793
3.2104 3.5056 -2.2003 0.9793
2.8904 3.7852 -2.2045 0.9792
2.5437 4.0317 -2.2066 0.9792
1.5256 3.7734 -1.8840 0.9822
1.3813 4.5474 -2.1999 0.9793
-0.2912 4.6630 -2.1626 0.9796
-0.7015 4.5893 -2.1490 0.9797
-1.1003 4.4769 -2.1339 0.9799
-1.4838 4.3276 -2.1176 0.9800
-1.8486 4.1438 -2.1003 0.9802
-2.5104 3.6832 -2.0633 0.9805
-2.8024 3.4124 -2.0439 0.9807
-3.6722 2.1318 -1.9655 0.9815
-1.3148 0.3470 -0.6294 0.9940
-1.3194 0.2247 -0.6195 0.9941
-1.3381 0.1065 -0.6214 0.9941
-1.3363 -0.1331 -0.6216 0.9941
-1.3122 -0.2504 -0.6183 0.9941
-1.3217 -0.3770 -0.6362 0.9940
-1.3312 -0.5120 -0.6602 0.9937
-2.8379 -3.0036 -1.9127 0.9820
-2.2532 -3.4512 -1.9078 0.9820
-0.1771 -4.1636 -1.9290 0.9818
0.1959 -4.1815 -1.9377 0.9817
0.5710 -4.1689 -1.9477 0.9816
1.3188 -4.0507 -1.9719 0.9814
1.6867 -3.9447 -1.9859 0.9813
2.0474 -3.8074 -2.0010 0.9811
2.3982 -3.6390 -2.0173 0.9810
4.1995 -1.1784 -2.0190 0.9810
4.3296 -0.8069 -2.0386 0.9808
4.4262 -0.4215 -2.0581 0.9806
4.4872 -0.0253 -2.0771 0.9804
3.8384 2.7378 -2.1824 0.9794
3.5936 3.0819 -2.1913 0.9793
3.0051 3.6914 -2.2033 0.9792
2.6673 3.9498 -2.2061 0.9792
1.5233 4.5058 -2.2017 0.9793
1.1124 4.6117 -2.1959 0.9793
0.4387 2.9548 -1.3827 0.9869
0.2731 4.6984 -2.1785 0.9795
-0.1463 4.6793 -2.1670 0.9796
-0.5596 4.6195 -2.1539 0.9797
-1.3521 4.3836 -2.1234 0.9800
-1.7238 4.2116 -2.1065 0.9801
-2.0748 4.0067 -2.0885 0.9803
-2.3052 2.0868 -1.4393 0.9864
-2.4294 1.8331 -1.4087 0.9867
-1.3162 -0.5963 -0.6689 0.9937
-3.6372 -2.0570 -1.9342 0.9818
-3.4248 -2.3633 -1.9261 0.9818
-3.1893 -2.6501 -1.9194 0.9819
-2.6552 -3.1598 -1.9105 0.9820
-2.3600 -3.3801 -1.9082 0.9820
-2.0483 -3.5758 -1.9075 0.9820
-1.7219 -3.7458 -1.9083 0.9820
-1.3826 -3.8891 -1.9106 0.9820
-1.0322 -4.0048 -1.9144 0.9819
-0.6728 -4.0921 -1.9196 0.9819
-0.3061 -4.1503 -1.9263 0.9818
0.0655 -4.1787 -1.9345 0.9817
1.1894 -4.0802 -1.9673 0.9814
2.2773 -3.7012 -2.0115 0.9810
2.6203 -3.5127 -2.0285 0.9809
2.9490 -3.2939 -2.0465 0.9807
3.2608 -3.0455 -2.0653 0.9805
3.8134 -2.4585 -2.1002 0.9802
3.7738 -1.9807 -1.9729 0.9814
4.1467 -1.3041 -2.0121 0.9810
4.2880 -0.9381 -2.0318 0.9808
4.3965 -0.5572 -2.0513 0.9807
4.4700 -0.1644 -2.0705 0.9805
4.5071 0.2371 -2.0891 0.9803
4.5062 0.6437 -2.1070 0.9801
4.4665 1.0514 -2.1240 0.9800
3.6828 2.9646 -2.1884 0.9794
3.4157 3.2928 -2.1961 0.9793
3.1164 3.5936 -2.2018 0.9793
2.7880 3.8636 -2.2054 0.9792
2.4338 4.0995 -2.2068 0.9792
0.4199 4.6953 -2.1821 0.9794
-0.4165 4.6448 -2.1587 0.9797
-0.8238 4.5592 -2.1446 0.9798
-1.5965 4.2754 -2.1125 0.9801
-2.2910 3.8568 -2.0765 0.9804
-2.6019 3.6037 -2.0574 0.9806
-2.8854 3.3256 -2.0380 0.9808
-3.1399 3.0255 -2.0183 0.9810
4.2411 0.3730 -2.0884 0.9812
4.1701 1.1378 -2.1203 0.9809
4.0794 1.5154 -2.1346 0.9808
3.7884 2.2417 -2.1593 0.9806
3.5899 2.5825 -2.1692 0.9805
3.3580 2.9035 -2.1775 0.9804
2.8027 3.4713 -2.1885 0.9803
2.1443 3.9196 -2.1916 0.9803
0.4275 2.9621 -1.4680 0.9868
-0.1549 4.3885 -2.1540 0.9806
-0.9210 4.2394 -2.1280 0.9809
-1.6355 3.9502 -2.0972 0.9811
-1.9655 3.7582 -2.0804 0.9813
-2.8154 3.0233 -2.0265 0.9818
-2.3010 2.0661 -1.5169 0.9863
-1.1293 0.5648 -0.6193 0.9944
-1.1590 0.3397 -0.5924 0.9946
-1.1962 0.0205 -0.5868 0.9947
-1.1953 -0.0864 -0.5878 0.9947
-1.1579 -0.2966 -0.5863 0.9947
-1.1563 -0.4092 -0.6017 0.9946
-1.1398 -0.5219 -0.6149 0.9944
-2.7705 -2.7777 -1.9244 0.9827
-2.5072 -3.0082 -1.9209 0.9827
-1.6197 -3.5612 -1.9190 0.9827
-0.9641 -3.8040 -1.9249 0.9827
-0.6226 -3.8850 -1.9300 0.9826
-0.2745 -3.9382 -1.9365 0.9826
0.4334 -3.9588 -1.9535 0.9824
1.4924 -3.7695 -1.9887 0.9821
1.8356 -3.6470 -2.0027 0.9820
2.4928 -3.3138 -2.0341 0.9817
2.8017 -3.1041 -2.0511 0.9815
3.0942 -2.8666 -2.0690 0.9814
3.6090 -2.3061 -2.1008 0.9811
4.2076 -0.1377 -2.0650 0.9814
4.2386 0.2402 -2.0825 0.9813
4.1930 1.0050 -2.1150 0.9810
3.8494 2.1189 -2.1554 0.9806
3.6630 2.4658 -2.1660 0.9805
3.4425 2.7941 -2.1748 0.9804
2.9076 3.3803 -2.1871 0.9803
2.5983 3.6316 -2.1904 0.9803
1.1605 4.2969 -2.1833 0.9804
0.5487 3.1133 -1.5507 0.9860
0.3759 4.4040 -2.1681 0.9805
-0.0183 4.3992 -2.1579 0.9806
-0.7904 4.2758 -2.1329 0.9808
-1.5159 4.0100 -2.1028 0.9811
-1.8529 3.8284 -2.0863 0.9812
-2.1688 3.6177 -2.0690 0.9814
-2.7286 3.1193 -2.0329 0.9817
-2.3803 1.8993 -1.4937 0.9865
-3.3626 2.2231 -1.9773 0.9822
-1.1142 0.6012 -0.6210 0.9944
-1.1457 0.4919 -0.6116 0.9945
-1.1582 0.3789 -0.5977 0.9946
-1.1876 0.1644 -0.5881 0.9947
-1.1964 -0.0491 -0.5874 0.9947
-1.1888 -0.1559 -0.5881 0.9947
-1.1585 -0.3698 -0.5965 0.9946
-1.1183 -0.5930 -0.6209 0.9944
-2.8579 -2.6923 -1.9259 0.9827
-1.7293 -3.5082 -1.9186 0.9827
-1.0812 -3.7693 -1.9235 0.9827
-0.7424 -3.8599 -1.9281 0.9826
-0.3964 -3.9229 -1.9341 0.9826
-0.0451 -3.9576 -1.9414 0.9825
1.0199 -3.8876 -1.9715 0.9823
2.3817 -3.3802 -2.0283 0.9817
2.9943 -2.9524 -2.0627 0.9814
2.3049 -1.0323 -1.2388 0.9888
3.8621 -1.3305 -2.0037 0.9820
4.0021 -0.9898 -2.0223 0.9818
4.1887 -0.2677 -2.0588 0.9815
4.2318 0.1079 -2.0765 0.9813
4.2115 0.8718 -2.1096 0.9810
3.9062 1.9943 -2.1513 0.9806
2.7089 3.5475 -2.1895 0.9803
2.3838 3.7783 -2.1914 0.9803
1.2947 4.2624 -2.1851 0.9803
0.3473 2.9735 -1.4685 0.9868
-1.7377 3.8951 -2.0922 0.9812
-2.0613 3.6943 -2.0751 0.9813
-2.3382 1.9879 -1.5054 0.9864
-2.6305 1.8592 -1.5801 0.9858
-3.4652 2.0116 -1.9654 0.9823
-1.1377 0.5310 -0.6159 0.9944
-1.1555 0.4183 -0.6028 0.9945
-1.1959 -0.0119 -0.5867 0.9947
-1.1766 -0.2245 -0.5876 0.9947
-1.1317 -0.5558 -0.6184 0.9944
-3.3817 -2.0539 -1.9408 0.9825
-2.9429 -2.6044 -1.9277 0.9826
-2.6926 -2.8499 -1.9232 0.9827
-2.4238 -3.0738 -1.9201 0.9827
-2.1382 -3.2749 -1.9185 0.9827
-1.5231 -3.6047 -1.9196 0.9827
-1.1971 -3.7314 -1.9222 0.9827
-0.8614 -3.8314 -1.9263 0.9827
0.8965 -3.9093 -1.9674 0.9823
1.2493 -3.8373 -1.9795 0.9822
1.5973 -3.7355 -1.9928 0.9821
2.5880 -3.2532 -2.0392 0.9816
3.4437 -2.5153 -2.0918 0.9812
3.9567 -1.1103 -2.0158 0.9819
4.0770 -0.7599 -2.0343 0.9817
4.1656 -0.3967 -2.0526 0.9815
4.2410 0.3557 -2.0876 0.9812
4.0843 1.4984 -2.1340 0.9808
3.9585 1.8682 -2.1471 0.9807
3.1073 3.1879 -2.1837 0.9804
2.8165 3.4597 -2.1883 0.9803
1.4278 4.2232 -2.1868 0.9803
1.0428 4.3232 -2.1814 0.9804
0.2562 4.4066 -2.1652 0.9805
-0.5253 4.3356 -2.1423 0.9807
-0.9041 4.2443 -2.1287 0.9809
-2.2601 3.5484 -2.0637 0.9814
-2.8043 3.0359 -2.0273 0.9818
-2.2959 2.0784 -1.5191 0.9863
-1.1511 0.4577 -0.6076 0.9945
-1.1590 0.3448 -0.5931 0.9946
-1.1736 0.2377 -0.5874 0.9947
-1.1917 0.1322 -0.5881 0.9947
-1.1963 0.0254 -0.5869 0.9947
-1.1955 -0.0816 -0.5878 0.9947
-1.1838 -0.1879 -0.5880 0.9947
-1.1586 -0.2918 -0.5861 0.9947
-1.1567 -0.4040 -0.6010 0.9946
-2.7820 -2.7667 -1.9246 0.9827
-2.5195 -2.9983 -1.9210 0.9827
-1.9438 -3.3932 -1.9182 0.9827
-1.6340 -3.5545 -1.9190 0.9827
-1.3119 -3.6902 -1.9211 0.9827
-0.6382 -3.8819 -1.9297 0.9826
0.4173 -3.9596 -1.9531 0.9824
0.7729 -3.9275 -1.9635 0.9823
1.8203 -3.6532 -2.0021 0.9820
2.7881 -3.1142 -2.0503 0.9815
3.0813 -2.8779 -2.0682 0.9814
3.5986 -2.3200 -2.1002 0.9811
3.5604 -1.8687 -1.9724 0.9822
