ply
format ascii 1.0
element vertex 1586
property float32 x
property float32 y
property float32 z
property float32 I
end_header
-10.3022 -5.1199 -1.6300 0.9546
-9.0118 -6.7119 -1.5921 0.9556
-7.5574 -8.0846 -1.5681 0.9563
-4.2249 -10.1671 -1.5600 0.9565
-2.3718 -10.8661 -1.5759 0.9561
-1.4029 -11.1255 -1.5888 0.9557
0.6134 -11.4540 -1.6252 0.9547
2.7248 -11.5110 -1.6761 0.9533
4.9165 -11.2696 -1.7421 0.9515
7.1668 -10.6968 -1.8244 0.9493
11.6998 -8.3990 -2.0407 0.9435
13.8674 -6.5911 -2.1755 0.9399
2.3954 -0.8859 -0.3619 0.9897
14.7116 -3.9886 -2.1597 0.9403
11.5257 1.0763 -1.6402 0.9543
8.9406 2.4941 -1.3152 0.9632
6.9084 3.3455 -1.0876 0.9695
5.4550 3.9766 -0.9565 0.9731
3.2591 4.9419 -0.8388 0.9764
2.7125 5.0423 -0.8113 0.9771
1.3206 5.7662 -0.8382 0.9764
0.7895 5.7832 -0.8270 0.9767
0.1379 2.9823 -0.4230 0.9880
-0.8825 6.6101 -0.9449 0.9734
-1.5213 6.7335 -0.9781 0.9725
-5.5537 13.0945 -2.0153 0.9442
-8.7099 16.3061 -2.6193 0.9280
-9.7930 14.9453 -2.5317 0.9304
-12.0920 10.6555 -2.2836 0.9370
-13.2305 5.0475 -2.0064 0.9444
-13.2329 3.7336 -1.9482 0.9460
-13.1403 2.4663 -1.8944 0.9474
-12.9611 1.2489 -1.8450 0.9488
-12.3719 -1.0276 -1.7590 0.9511
-11.9749 -2.0844 -1.7222 0.9521
-11.5171 -3.0861 -1.6894 0.9530
-11.0035 -4.0325 -1.6605 0.9538
-9.8255 -5.7597 -1.6137 0.9550
-9.1682 -6.5408 -1.5957 0.9555
-8.4694 -7.2671 -1.5812 0.9559
-7.7315 -7.9386 -1.5701 0.9562
-5.3043 -9.6226 -1.5568 0.9566
-4.4295 -10.0722 -1.5590 0.9565
-2.5897 -10.7981 -1.5734 0.9561
-0.6376 -11.2829 -1.6012 0.9554
3.5613 -11.4550 -1.6997 0.9527
8.0437 -10.3794 -1.8606 0.9483
9.1830 -9.8819 -1.9114 0.9470
10.3191 -9.2827 -1.9666 0.9455
11.4445 -8.5764 -2.0264 0.9439
12.5505 -7.7578 -2.0906 0.9421
14.1877 -2.8136 -2.0494 0.9432
9.2865 2.3867 -1.3586 0.9620
6.3413 3.6305 -1.0353 0.9709
5.7823 4.0365 -0.9992 0.9719
4.9610 4.1693 -0.9182 0.9742
4.3724 4.3984 -0.8787 0.9753
3.3753 4.8969 -0.8427 0.9763
2.8230 4.9995 -0.8135 0.9771
2.3113 5.1129 -0.7950 0.9776
1.8692 5.3679 -0.8054 0.9773
1.4345 5.7224 -0.8359 0.9764
0.9314 5.9157 -0.8485 0.9761
0.1949 2.9175 -0.4143 0.9883
-1.3810 6.7533 -0.9767 0.9725
-2.0432 6.8177 -1.0084 0.9717
-9.5595 15.2619 -2.5516 0.9298
-10.5171 13.8620 -2.4654 0.9321
-11.3164 12.4306 -2.3818 0.9343
-12.4686 9.5447 -2.2249 0.9385
-2.6403 1.6697 -0.4426 0.9875
-13.2157 5.3545 -2.0204 0.9440
-13.2410 4.0304 -1.9611 0.9456
-13.1695 2.7521 -1.9063 0.9471
-12.7685 0.3458 -1.8098 0.9497
-12.4537 -0.7780 -1.7680 0.9508
-12.0713 -1.8473 -1.7303 0.9519
-11.6270 -2.8617 -1.6966 0.9528
-11.1258 -3.8207 -1.6668 0.9536
-10.5721 -4.7245 -1.6407 0.9543
-9.9698 -5.5731 -1.6183 0.9549
-8.6329 -7.1056 -1.5842 0.9558
-7.9038 -7.7897 -1.5724 0.9562
-7.1373 -8.4189 -1.5639 0.9564
-6.3356 -8.9931 -1.5587 0.9565
-5.5001 -9.5118 -1.5568 0.9566
-3.7341 -10.3798 -1.5630 0.9564
-2.8062 -10.7270 -1.5710 0.9562
-1.8499 -11.0144 -1.5825 0.9559
2.2337 -11.5232 -1.6631 0.9537
6.6479 -10.8591 -1.8041 0.9499
8.9223 -10.0046 -1.8994 0.9473
10.0597 -9.4291 -1.9536 0.9458
11.1883 -8.7478 -2.0123 0.9442
12.2995 -7.9553 -2.0755 0.9425
14.3102 -4.5165 -2.1262 0.9412
15.1675 -3.3321 -2.2003 0.9392
15.9452 -2.0325 -2.2775 0.9371
15.7560 -0.5883 -2.2340 0.9383
11.4507 1.6325 -1.6389 0.9543
7.2436 3.1485 -1.1191 0.9686
5.9102 3.9482 -1.0071 0.9717
5.1035 4.1137 -0.9288 0.9739
4.5027 4.3477 -0.8869 0.9750
3.4927 4.8514 -0.8470 0.9761
2.9150 4.9241 -0.8108 0.9771
0.2542 2.9086 -0.4137 0.9883
-0.5804 6.3077 -0.8975 0.9747
-1.2305 6.7151 -0.9673 0.9728
-6.8364 18.1535 -2.7485 0.9246
-8.1591 16.9066 -2.6599 0.9270
-9.3174 15.5757 -2.5716 0.9293
-12.3653 9.8738 -2.2421 0.9381
-13.0391 7.0371 -2.0994 0.9419
-13.1954 5.6636 -2.0346 0.9436
-13.2441 4.3296 -1.9743 0.9453
-13.1939 3.0405 -1.9184 0.9468
-12.8304 0.6107 -1.8200 0.9494
-12.5319 -0.5255 -1.7772 0.9506
-12.1645 -1.6074 -1.7386 0.9516
-11.7339 -2.6343 -1.7040 0.9526
-11.2453 -3.6060 -1.6733 0.9534
-10.7033 -4.5224 -1.6464 0.9541
-8.7943 -6.9413 -1.5874 0.9557
-8.0741 -7.6379 -1.5748 0.9561
-7.3160 -8.2797 -1.5655 0.9563
-6.5221 -8.8665 -1.5596 0.9565
-5.6942 -9.3980 -1.5569 0.9566
-3.0212 -10.6527 -1.5689 0.9563
-2.0712 -10.9539 -1.5796 0.9560
-0.0903 -11.3707 -1.6111 0.9551
1.9898 -11.5236 -1.6569 0.9539
4.1560 -11.3881 -1.7177 0.9522
8.6614 -10.1220 -1.8876 0.9476
9.7998 -9.5700 -1.9408 0.9462
10.9311 -8.9134 -1.9985 0.9446
12.0472 -8.1468 -2.0606 0.9429
13.1383 -7.2653 -2.1272 0.9411
14.1046 -4.7714 -2.1097 0.9416
14.9777 -3.6135 -2.1831 0.9397
-1.9195 -9.7485 -1.6368 0.9605
-1.0490 -9.9578 -1.6495 0.9602
-0.1565 -10.1081 -1.6654 0.9598
0.7558 -10.1973 -1.6845 0.9594
1.6860 -10.2229 -1.7069 0.9589
5.5328 -9.6337 -1.8302 0.9560
8.4473 -8.3746 -1.9596 0.9529
12.0408 -5.4235 -2.1755 0.9479
11.4546 -1.7875 -1.9099 0.9541
13.7658 -0.9007 -2.2726 0.9456
10.2177 2.1038 -1.7186 0.9586
8.8164 2.6552 -1.5168 0.9634
7.5819 3.0459 -1.3461 0.9674
5.2252 3.9755 -1.0816 0.9737
4.6790 4.2712 -1.0437 0.9746
4.0721 4.4466 -0.9933 0.9759
3.6508 4.7826 -0.9912 0.9759
2.1239 5.2626 -0.9349 0.9773
0.6734 5.8204 -0.9653 0.9765
0.1549 6.0190 -0.9919 0.9759
-0.3947 6.1839 -1.0208 0.9752
-5.9706 13.3123 -2.4035 0.9426
-7.4787 13.3364 -2.5189 0.9399
-8.3972 12.2598 -2.4480 0.9415
-9.1889 11.1333 -2.3781 0.9432
-10.8307 7.6083 -2.1805 0.9478
-11.3645 5.2595 -2.0630 0.9505
-11.5082 2.9939 -1.9590 0.9529
-11.4502 1.9072 -1.9123 0.9540
-11.3140 0.8567 -1.8692 0.9550
-11.1055 -0.1542 -1.8297 0.9560
-10.0987 -2.9290 -1.7322 0.9583
-9.6516 -3.7630 -1.7066 0.9589
-9.1554 -4.5500 -1.6842 0.9594
-8.6137 -5.2893 -1.6652 0.9599
-8.0295 -5.9803 -1.6493 0.9602
-6.0489 -7.7581 -1.6206 0.9609
-3.7727 -9.0788 -1.6196 0.9609
-2.9570 -9.4132 -1.6254 0.9608
-2.1156 -9.6924 -1.6343 0.9606
-1.2503 -9.9150 -1.6463 0.9603
3.3697 -10.1041 -1.7547 0.9577
4.3360 -9.9391 -1.7864 0.9570
5.3094 -9.6994 -1.8216 0.9562
6.2857 -9.3816 -1.8603 0.9553
7.2602 -8.9823 -1.9027 0.9543
11.0171 -6.5019 -2.1075 0.9495
11.8753 -5.6443 -2.1661 0.9481
2.4069 -0.8901 -0.4228 0.9897
13.6540 -1.1747 -2.2576 0.9460
14.1028 0.0514 -2.3233 0.9444
9.1076 2.5407 -1.5577 0.9624
7.8442 2.9661 -1.3815 0.9666
6.7844 3.2855 -1.2418 0.9699
5.9751 3.5853 -1.1479 0.9721
4.1631 4.3631 -0.9935 0.9758
3.7711 4.7359 -0.9973 0.9758
2.7093 5.0364 -0.9421 0.9771
2.2324 5.2208 -0.9354 0.9772
1.7584 5.4035 -0.9361 0.9772
-1.3413 5.9370 -1.0027 0.9756
-2.1723 6.7430 -1.1671 0.9717
-6.7287 12.5969 -2.3527 0.9437
-8.1982 12.5113 -2.4642 0.9412
-9.0188 11.3947 -2.3940 0.9428
-9.7139 10.2409 -2.3253 0.9444
-10.2869 9.0648 -2.2587 0.9459
-11.0861 6.6966 -2.1336 0.9488
-11.4632 4.3733 -2.0212 0.9515
-11.3518 1.0938 -1.8787 0.9548
-10.1938 -2.7315 -1.7386 0.9581
-9.2731 -4.3740 -1.6891 0.9593
-6.8992 -7.0839 -1.6290 0.9607
-6.2112 -7.6382 -1.6218 0.9609
-5.4900 -8.1420 -1.6177 0.9610
-4.7375 -8.5945 -1.6167 0.9610
-3.9556 -8.9947 -1.6187 0.9609
-2.3104 -9.6335 -1.6320 0.9606
1.2580 -10.2192 -1.6962 0.9591
2.1969 -10.2093 -1.7204 0.9585
3.1499 -10.1317 -1.7479 0.9579
7.0375 -9.0811 -1.8927 0.9545
8.0070 -8.6164 -1.9377 0.9534
8.9644 -8.0641 -1.9864 0.9523
11.6874 -5.8514 -2.1532 0.9484
2.3423 -0.9212 -0.4146 0.9898
13.5371 -1.4445 -2.2427 0.9463
12.0381 0.8759 -1.9884 0.9522
10.9944 1.7979 -1.8353 0.9558
4.3669 4.3929 -1.0204 0.9752
3.8930 4.6885 -1.0039 0.9756
2.8197 4.9937 -0.9448 0.9770
1.8671 5.3617 -0.9353 0.9772
1.4329 5.7157 -0.9707 0.9764
-0.1395 6.1215 -1.0087 0.9755
-0.7051 6.2557 -1.0371 0.9748
-1.3085 6.3986 -1.0759 0.9739
-1.9960 6.6600 -1.1454 0.9722
-5.2429 13.1018 -2.3248 0.9444
-6.5108 12.8139 -2.3678 0.9434
-7.9924 12.7600 -2.4804 0.9408
-8.8421 11.6542 -2.4099 0.9424
-10.1663 9.3353 -2.2738 0.9456
-10.6482 8.1512 -2.2091 0.9471
-2.6371 1.6676 -0.5140 0.9874
-11.4398 4.6349 -2.0334 0.9512
-11.4869 2.4005 -1.9332 0.9535
-11.3857 1.3330 -1.8885 0.9546
-10.6547 -1.6306 -1.7757 0.9572
-9.8626 -3.3869 -1.7179 0.9586
-8.8672 -4.9567 -1.6735 0.9597
-7.6960 -6.3345 -1.6421 0.9604
-6.3717 -7.5158 -1.6232 0.9608
-4.9125 -8.4955 -1.6167 0.9610
-4.1371 -8.9077 -1.6180 0.9610
-3.3337 -9.2669 -1.6224 0.9609
-2.5039 -9.5715 -1.6299 0.9607
-1.6493 -9.8202 -1.6404 0.9604
-0.7717 -10.0113 -1.6541 0.9601
0.1272 -10.1427 -1.6710 0.9597
1.0453 -10.2123 -1.6912 0.9592
1.9806 -10.2175 -1.7146 0.9587
2.9306 -10.1556 -1.7413 0.9581
4.8631 -9.8187 -1.8050 0.9566
7.7859 -8.7304 -1.9271 0.9537
10.6078 -6.8611 -2.0812 0.9501
11.4911 -6.0505 -2.1394 0.9487
2.3412 -0.9766 -0.4179 0.9898
12.8300 -2.8186 -2.1640 0.9481
13.4153 -1.7100 -2.2279 0.9467
13.9102 -0.5193 -2.2932 0.9451
8.4151 2.7938 -1.4607 0.9647
6.3219 3.4495 -1.1864 0.9712
4.0063 4.6288 -1.0085 0.9755
3.4885 4.8456 -0.9836 0.9761
2.9116 4.9184 -0.9416 0.9771
2.4500 5.1367 -0.9375 0.9772
1.9756 5.3199 -0.9349 0.9773
1.5460 5.6722 -0.9685 0.9764
-0.5729 6.2256 -1.0299 0.9750
-1.5934 5.7420 -0.9817 0.9761
-6.2869 13.0271 -2.3829 0.9430
-7.7801 13.0057 -2.4966 0.9404
-8.6587 11.9116 -2.4260 0.9420
-9.4110 10.7728 -2.3565 0.9437
-10.0394 9.6052 -2.2889 0.9452
-10.5481 8.4227 -2.2237 0.9467
-11.4114 4.8978 -2.0457 0.9509
-11.4996 3.7593 -1.9931 0.9521
-11.4989 2.6499 -1.9440 0.9533
-11.0262 -0.4623 -1.8180 0.9562
-10.7309 -1.4179 -1.7832 0.9571
-9.9642 -3.1952 -1.7238 0.9585
-8.9905 -4.7867 -1.6779 0.9596
-8.4351 -5.5109 -1.6599 0.9600
-6.5304 -7.3907 -1.6247 0.9608
-4.3172 -8.8180 -1.6174 0.9610
-3.5200 -9.1894 -1.6211 0.9609
-1.8471 -9.7683 -1.6377 0.9605
-0.9746 -9.9728 -1.6507 0.9602
-0.0804 -10.1180 -1.6669 0.9598
6.5913 -9.2655 -1.8732 0.9550
8.5280 -8.3281 -1.9637 0.9528
9.4759 -7.7268 -2.0143 0.9516
11.2925 -6.2446 -2.1258 0.9490
12.6848 -3.0603 -2.1496 0.9485
-2.4961 -8.5552 -1.6751 0.9644
-0.9451 -8.9724 -1.6958 0.9639
0.6796 -9.1689 -1.7281 0.9633
1.5139 -9.1797 -1.7487 0.9628
4.0719 -8.8355 -1.8286 0.9612
6.6372 -7.8759 -1.9359 0.9589
10.5057 -4.7320 -2.1657 0.9542
10.9463 -2.7284 -2.1204 0.9551
8.7998 2.6502 -1.7274 0.9633
7.6877 3.0884 -1.5572 0.9668
6.7180 3.4249 -1.4173 0.9698
5.1404 3.9110 -1.2141 0.9741
2.0958 5.1930 -1.0526 0.9775
1.6246 5.3632 -1.0533 0.9775
-0.3855 6.0392 -1.1374 0.9757
-4.1512 12.0352 -2.3929 0.9495
-6.7006 9.7828 -2.2288 0.9529
-9.0494 7.6509 -2.2274 0.9529
-9.4577 6.6437 -2.1724 0.9540
-9.7705 5.6321 -2.1197 0.9551
-9.9920 4.6243 -2.0695 0.9562
-10.1271 3.6277 -2.0219 0.9572
-10.1570 1.6918 -1.9354 0.9590
-9.0545 -2.6261 -1.7720 0.9624
-8.6668 -3.3791 -1.7485 0.9628
-8.2323 -4.0912 -1.7279 0.9633
-7.2350 -5.3885 -1.6956 0.9639
-6.0854 -6.5100 -1.6750 0.9644
-5.4598 -7.0025 -1.6690 0.9645
-4.8032 -7.4482 -1.6658 0.9646
-4.1178 -7.8461 -1.6655 0.9646
-2.6682 -8.4939 -1.6734 0.9644
-1.9080 -8.7413 -1.6817 0.9642
-0.3265 -9.0751 -1.7069 0.9637
0.4904 -9.1581 -1.7238 0.9634
1.3218 -9.1826 -1.7438 0.9629
2.1651 -9.1463 -1.7667 0.9625
3.0172 -9.0472 -1.7926 0.9619
3.8751 -8.8826 -1.8215 0.9613
4.7351 -8.6503 -1.8536 0.9607
5.5929 -8.3477 -1.8886 0.9599
7.2827 -7.5219 -1.9679 0.9583
8.1032 -6.9945 -2.0120 0.9574
8.8987 -6.3882 -2.0590 0.9564
10.2586 -3.7938 -2.0558 0.9565
11.3262 -2.0059 -2.1620 0.9543
12.0879 0.0441 -2.2721 0.9520
10.5700 1.9516 -2.0203 0.9572
9.0900 2.5358 -1.7738 0.9623
7.9227 2.9958 -1.5921 0.9661
6.9371 3.3594 -1.4488 0.9691
6.0467 3.6282 -1.3254 0.9717
4.6676 4.0887 -1.1663 0.9751
3.2514 4.9302 -1.1101 0.9762
1.2564 5.4861 -1.0579 0.9774
0.4128 3.0238 -0.5736 0.9877
-0.2593 5.9911 -1.1272 0.9759
-2.2182 6.8855 -1.3597 0.9710
-8.4116 8.8679 -2.2974 0.9515
-8.9421 7.8798 -2.2402 0.9526
-9.3728 6.8750 -2.1848 0.9538
-9.7071 5.8636 -2.1316 0.9549
-9.9491 4.8543 -2.0808 0.9559
-10.1035 3.8546 -2.0326 0.9569
-10.1751 2.8709 -1.9872 0.9579
-10.1689 1.9086 -1.9447 0.9588
-10.0897 0.9722 -1.9053 0.9596
-9.7315 -0.8083 -1.8354 0.9610
-9.4614 -1.6469 -1.8051 0.9617
-9.1362 -2.4481 -1.7778 0.9622
-7.3572 -5.2488 -1.6987 0.9639
-6.2241 -6.3908 -1.6768 0.9643
-5.6058 -6.8938 -1.6701 0.9645
-3.5708 -8.1196 -1.6672 0.9645
-2.0839 -8.6893 -1.6796 0.9643
-0.5113 -9.0481 -1.7034 0.9638
0.3020 -9.1442 -1.7197 0.9634
1.1304 -9.1822 -1.7389 0.9630
5.3969 -8.4233 -1.8803 0.9601
7.0920 -7.6318 -1.9582 0.9585
7.9173 -7.1221 -2.0017 0.9576
8.7192 -6.5340 -2.0480 0.9566
10.2220 -5.1177 -2.1487 0.9545
10.7011 -3.1379 -2.0961 0.9556
11.6608 -1.2443 -2.2042 0.9534
12.0189 -0.2024 -2.2594 0.9523
10.9694 1.7939 -2.0892 0.9558
7.1693 3.2923 -1.4828 0.9684
5.4586 3.8105 -1.2513 0.9733
4.2331 4.2583 -1.1286 0.9759
2.7780 4.9198 -1.0620 0.9773
2.3102 5.1105 -1.0542 0.9774
1.8410 5.2869 -1.0522 0.9775
-0.1354 5.9439 -1.1175 0.9761
-0.6948 6.1639 -1.1659 0.9751
-1.3201 6.4556 -1.2385 0.9735
-1.7588 5.8687 -1.1516 0.9754
-5.5654 10.9531 -2.3093 0.9512
-6.3658 10.1631 -2.2541 0.9524
-8.2758 9.0907 -2.3107 0.9512
-8.8296 8.1079 -2.2532 0.9524
-9.2828 7.1060 -2.1973 0.9535
-10.0757 4.0823 -2.0434 0.9567
-10.1658 3.0944 -1.9973 0.9577
-10.1769 2.1267 -1.9542 0.9586
-10.1140 1.1841 -1.9140 0.9594
-9.9819 0.2703 -1.8769 0.9602
-9.7851 -0.6113 -1.8428 0.9609
-9.2153 -2.2681 -1.7838 0.9621
-7.9782 -4.4598 -1.7180 0.9635
-6.9375 -5.7102 -1.6889 0.9641
-5.7502 -6.7827 -1.6714 0.9645
-4.4351 -7.6699 -1.6653 0.9646
-2.2588 -8.6345 -1.6776 0.9643
-1.4869 -8.8533 -1.6874 0.9641
-0.6951 -9.0181 -1.7001 0.9639
0.1144 -9.1272 -1.7157 0.9635
0.9395 -9.1788 -1.7343 0.9631
2.6261 -9.1005 -1.7803 0.9622
3.4819 -8.9662 -1.8079 0.9616
4.3413 -8.7652 -1.8385 0.9610
5.2007 -8.4951 -1.8722 0.9603
6.0554 -8.1534 -1.9089 0.9595
6.9005 -7.7376 -1.9487 0.9587
7.7302 -7.2457 -1.9915 0.9578
8.5381 -6.6756 -2.0371 0.9568
9.3168 -6.0261 -2.0856 0.9558
2.3375 -0.9751 -0.4761 0.9897
10.5734 -3.3371 -2.0840 0.9559
11.5665 -1.4744 -2.1916 0.9537
6.4337 3.5105 -1.3776 0.9706
5.6258 3.7583 -1.2717 0.9728
4.9402 3.9821 -1.1927 0.9745
4.0043 4.6264 -1.1501 0.9754
3.4843 4.8398 -1.1209 0.9760
2.8853 4.8739 -1.0646 0.9772
1.9488 5.2477 -1.0522 0.9775
0.9939 5.5684 -1.0632 0.9772
-0.0135 5.8973 -1.1085 0.9763
-1.1700 6.3850 -1.2201 0.9739
-4.4554 11.8309 -2.3762 0.9498
-5.3690 11.1251 -2.3219 0.9510
-6.1909 10.3491 -2.2667 0.9521
-6.9180 9.5169 -2.2115 0.9532
-8.1347 9.3118 -2.3241 0.9509
-8.7118 8.3349 -2.2662 0.9521
-9.8494 5.3157 -2.1037 0.9555
-10.0434 4.3107 -2.0543 0.9565
-10.1523 3.3189 -2.0076 0.9575
-10.1811 2.3462 -1.9638 0.9584
-10.1347 1.3975 -1.9229 0.9592
-9.8356 -0.4124 -1.8503 0.9607
-9.5921 -1.2675 -1.8186 0.9614
-8.9383 -2.8662 -1.7643 0.9625
-8.5356 -3.6065 -1.7417 0.9630
-6.4961 -6.1452 -1.6808 0.9643
-5.8929 -6.6692 -1.6728 0.9644
-5.2574 -7.1471 -1.6677 0.9645
-4.5915 -7.5780 -1.6654 0.9646
-3.8975 -7.9607 -1.6660 0.9646
-3.1771 -8.2942 -1.6694 0.9645
-2.4325 -8.5770 -1.6757 0.9644
-1.6654 -8.8079 -1.6849 0.9642
-0.0724 -9.1073 -1.7119 0.9636
0.7494 -9.1722 -1.7298 0.9632
2.4311 -9.1222 -1.7745 0.9623
5.0042 -8.5632 -1.8642 0.9604
5.8604 -8.2380 -1.9003 0.9597
7.5419 -7.3651 -1.9814 0.9580
9.1415 -6.1819 -2.0742 0.9561
9.8362 -4.3416 -2.0209 0.9572
10.4426 -3.5326 -2.0721 0.9561
10.9898 -2.6514 -2.1249 0.9550
-0.8594 -8.1582 -1.7340 0.9670
0.6168 -8.3225 -1.7640 0.9665
1.3727 -8.3231 -1.7831 0.9661
2.1366 -8.2670 -1.8049 0.9657
4.4449 -7.7395 -1.8866 0.9642
7.4062 -6.1327 -2.0326 0.9614
8.7400 -4.9195 -2.1200 0.9598
8.6735 -3.9067 -2.0108 0.9619
9.6488 -2.4050 -2.1020 0.9602
10.0453 -1.5676 -2.1491 0.9593
10.3698 -0.6785 -2.1967 0.9584
10.6139 0.2561 -2.2442 0.9575
10.1741 2.0948 -2.1957 0.9584
8.7831 2.6452 -1.9390 0.9632
6.7512 3.4418 -1.6018 0.9695
3.6420 4.7710 -1.2687 0.9758
2.5172 4.9180 -1.1678 0.9777
0.3290 2.8436 -0.6051 0.9884
-0.9902 6.4124 -1.3715 0.9738
-1.4076 5.6861 -1.2382 0.9763
-5.1916 9.2579 -2.2436 0.9575
-5.8708 8.5713 -2.1961 0.9584
-6.4699 7.8389 -2.1485 0.9593
-6.9878 7.0710 -2.1014 0.9602
-8.3856 5.8906 -2.1662 0.9590
-8.6868 5.0074 -2.1194 0.9598
-9.0502 3.2420 -2.0321 0.9615
-9.1193 2.3724 -1.9918 0.9622
-9.0515 0.6854 -1.9188 0.9636
-8.1994 -2.3781 -1.8046 0.9657
-7.4724 -3.7136 -1.7638 0.9665
-6.5785 -4.8996 -1.7339 0.9670
-6.0758 -5.4333 -1.7229 0.9672
-4.9715 -6.3762 -1.7091 0.9675
-3.7502 -7.1457 -1.7058 0.9675
-3.1010 -7.4625 -1.7082 0.9675
-1.7361 -7.9540 -1.7209 0.9673
-1.0247 -8.1260 -1.7313 0.9671
1.1988 -8.3279 -1.7785 0.9662
1.9612 -8.2849 -1.7997 0.9658
3.4999 -8.0226 -1.8502 0.9648
5.7876 -7.1604 -1.9462 0.9631
6.5268 -6.7412 -1.9834 0.9624
7.2453 -6.2539 -2.0231 0.9616
7.9369 -5.6977 -2.0652 0.9608
8.5948 -5.0724 -2.1096 0.9600
9.1899 -4.3679 -2.1508 0.9593
10.3023 -0.8863 -2.1857 0.9586
10.7421 1.0031 -2.2805 0.9568
9.0724 2.5309 -1.9909 0.9622
7.9089 2.9906 -1.7873 0.9660
6.9476 3.3645 -1.6317 0.9689
6.1380 3.6831 -1.5131 0.9712
5.4012 3.9374 -1.4129 0.9730
3.2475 4.9243 -1.2469 0.9762
2.6235 4.8769 -1.1706 0.9776
0.3954 2.8966 -0.6180 0.9881
-0.8471 6.3444 -1.3530 0.9742
-1.2907 5.7130 -1.2381 0.9763
-5.0250 9.4075 -2.2545 0.9573
-6.3399 8.0101 -2.1593 0.9591
-6.8764 7.2494 -2.1121 0.9600
-8.6251 5.2100 -2.1300 0.9596
-8.8637 4.3247 -2.0847 0.9605
-9.1098 2.5703 -2.0008 0.9620
-9.1246 1.7126 -1.9624 0.9628
-8.5528 -1.4887 -1.8351 0.9651
-8.2709 -2.2162 -1.8100 0.9656
-7.5645 -3.5681 -1.7679 0.9664
-7.1463 -4.1891 -1.7510 0.9667
-6.1940 -5.3147 -1.7252 0.9672
-5.1042 -6.2769 -1.7101 0.9675
-4.5135 -6.6939 -1.7066 0.9675
-3.8953 -7.0667 -1.7057 0.9675
-3.2517 -7.3941 -1.7074 0.9675
-1.8965 -7.9076 -1.7189 0.9673
-0.4647 -8.2237 -1.7411 0.9669
0.2743 -8.3038 -1.7562 0.9666
1.7860 -8.2998 -1.7946 0.9659
2.5531 -8.2122 -1.8178 0.9655
4.0935 -7.8561 -1.8725 0.9644
5.6161 -7.2469 -1.9380 0.9632
7.0829 -6.3716 -2.0138 0.9618
2.3420 -0.9211 -0.5320 0.9898
9.4455 -2.7697 -2.0807 0.9606
10.2307 -1.0917 -2.1748 0.9588
10.5126 -0.1770 -2.2225 0.9579
10.7098 0.7792 -2.2698 0.9570
10.8142 1.7685 -2.3163 0.9562
9.3776 2.4101 -2.0466 0.9612
8.1540 2.8938 -1.8289 0.9652
7.1576 3.2870 -1.6649 0.9683
6.3129 3.6143 -1.5377 0.9707
4.8781 4.0996 -1.3469 0.9743
3.8834 4.6770 -1.2850 0.9755
3.3632 4.8794 -1.2527 0.9761
2.7304 4.8355 -1.1738 0.9776
2.2669 5.0148 -1.1633 0.9778
1.3461 5.3696 -1.1701 0.9776
0.1835 2.7481 -0.5822 0.9888
-0.1370 6.0139 -1.2715 0.9757
-1.3444 6.5743 -1.4184 0.9729
-4.8545 9.5540 -2.2653 0.9571
-5.5697 8.8920 -2.2179 0.9580
-6.2056 8.1793 -2.1702 0.9589
-6.7607 7.4264 -2.1229 0.9598
-2.6329 1.6650 -0.6585 0.9873
-8.9941 3.6440 -2.0513 0.9611
-9.0965 2.7689 -2.0099 0.9619
-9.0901 1.0642 -1.9346 0.9633
-8.9889 0.2435 -1.9008 0.9639
-8.8277 -0.5515 -1.8696 0.9645
-8.0201 -2.7542 -1.7925 0.9659
-7.2456 -4.0503 -1.7546 0.9666
-6.7967 -4.6418 -1.7398 0.9669
-6.3103 -5.1940 -1.7276 0.9671
-5.7890 -5.7055 -1.7181 0.9673
-4.0392 -6.9853 -1.7056 0.9675
-2.7394 -7.6147 -1.7106 0.9675
-2.0558 -7.8586 -1.7171 0.9673
-0.6319 -8.1979 -1.7380 0.9669
0.1039 -8.2902 -1.7525 0.9667
0.8525 -8.3287 -1.7697 0.9664
3.9175 -7.9094 -1.8657 0.9646
5.4438 -7.3299 -1.9300 0.9634
6.1906 -6.9415 -1.9660 0.9627
6.9193 -6.4855 -2.0046 0.9620
7.6240 -5.9610 -2.0457 0.9612
8.9348 -4.7045 -2.1345 0.9596
9.3392 -2.9476 -2.0701 0.9608
10.4553 -0.3903 -2.2116 0.9581
10.7989 1.5396 -2.3057 0.9564
9.7004 2.2824 -2.1065 0.9601
6.4937 3.5432 -1.5637 0.9702
5.0278 4.0527 -1.3650 0.9739
2.8379 4.7938 -1.1776 0.9775
2.3724 4.9740 -1.1649 0.9777
-0.0137 5.9577 -1.2593 0.9759
-1.6143 5.8171 -1.2761 0.9756
-6.6408 7.6017 -2.1337 0.9596
-7.1333 6.8247 -2.0868 0.9604
-9.0796 2.9682 -2.0192 0.9617
-9.1044 1.2554 -1.9427 0.9631
-8.6647 -1.1449 -1.8475 0.9649
-8.0975 -2.5966 -1.7975 0.9658
-7.7420 -3.2712 -1.7766 0.9662
-7.3429 -3.9095 -1.7584 0.9666
-6.9029 -4.5098 -1.7429 0.9669
-6.4249 -5.0711 -1.7301 0.9671
-5.3648 -6.0715 -1.7126 0.9674
-3.5494 -7.2499 -1.7063 0.9675
-1.5152 -8.0133 -1.7239 0.9672
0.6802 -8.3247 -1.7655 0.9664
1.4368 -8.3206 -1.7848 0.9661
3.7412 -7.9595 -1.8591 0.9647
5.2709 -7.4094 -1.9221 0.9635
6.0210 -7.0364 -1.9575 0.9628
6.7543 -6.5960 -1.9956 0.9621
8.1469 -5.5093 -2.0789 0.9606
8.7188 -3.8484 -2.0145 0.9618
-0.1172 -7.5682 -1.7789 0.9694
0.5642 -7.6130 -1.7941 0.9691
1.9506 -7.5473 -1.8321 0.9685
2.6496 -7.4338 -1.8548 0.9681
4.0420 -7.0380 -1.9075 0.9672
6.0559 -6.0038 -2.0042 0.9656
6.6881 -5.5380 -2.0408 0.9649
7.2914 -5.0113 -2.0793 0.9643
8.9502 -1.3967 -2.1290 0.9635
9.2171 -0.6031 -2.1709 0.9628
9.4115 0.2271 -2.2126 0.9621
9.5269 1.0869 -2.2536 0.9614
9.5575 1.9679 -2.2934 0.9607
8.7664 2.6402 -2.1517 0.9631
6.7406 3.4364 -1.7782 0.9694
3.6375 4.7651 -1.4089 0.9757
2.5541 4.9902 -1.3175 0.9772
1.6216 5.3534 -1.3146 0.9773
1.1517 5.5484 -1.3318 0.9770
0.3252 2.8109 -0.6650 0.9884
0.0753 2.9258 -0.6878 0.9880
-0.9934 6.4328 -1.5298 0.9736
-3.9231 8.7470 -2.2530 0.9614
-4.6036 8.2093 -2.2120 0.9621
-5.7648 6.9846 -2.1284 0.9635
-8.0273 3.7151 -2.0789 0.9643
-8.2510 2.1466 -2.0037 0.9656
-8.2183 0.6223 -1.9370 0.9667
-8.1138 -0.1127 -1.9071 0.9672
-7.9547 -0.8251 -1.8796 0.9677
-7.4857 -2.1711 -1.8318 0.9685
-7.1817 -2.8001 -1.8116 0.9688
-5.5689 -4.9800 -1.7558 0.9698
-5.0793 -5.4336 -1.7481 0.9699
-3.4401 -6.5549 -1.7398 0.9700
-2.8443 -6.8448 -1.7420 0.9700
-2.2274 -7.0906 -1.7467 0.9699
-0.2717 -7.5508 -1.7758 0.9694
0.4074 -7.6072 -1.7904 0.9692
2.4895 -7.4646 -1.8494 0.9682
4.5717 -6.8235 -1.9304 0.9668
5.9077 -6.1018 -1.9961 0.9657
7.7330 -4.5637 -2.1103 0.9638
8.2448 -3.9187 -2.1455 0.9632
8.8796 -1.5726 -2.1194 0.9636
9.1622 -0.7882 -2.1613 0.9629
9.5077 0.8879 -2.2443 0.9615
9.5582 1.7648 -2.2844 0.9608
9.0546 2.5259 -2.2093 0.9621
6.1289 3.6776 -1.6799 0.9711
5.4249 3.9547 -1.5778 0.9728
4.7963 4.2014 -1.4986 0.9741
4.2138 4.4162 -1.4346 0.9752
3.2436 4.9184 -1.3847 0.9761
2.6628 4.9499 -1.3210 0.9772
1.2602 5.5026 -1.3267 0.9771
0.1283 2.7758 -0.6531 0.9886
-0.2665 6.1569 -1.4484 0.9750
-1.2900 5.7099 -1.3758 0.9762
-3.7585 8.8617 -2.2623 0.9612
-4.4534 8.3374 -2.2215 0.9619
-5.0836 7.7582 -2.1799 0.9626
-5.6458 7.1332 -2.1380 0.9633
-6.1383 6.4713 -2.0963 0.9640
-6.5603 5.7810 -2.0550 0.9647
-7.4482 5.4633 -2.1709 0.9628
-7.7526 4.6830 -2.1287 0.9635
-8.2674 1.5517 -1.9770 0.9660
-8.2343 0.7934 -1.9442 0.9666
-8.1427 0.0537 -1.9138 0.9671
-7.9958 -0.6642 -1.8857 0.9676
-7.7969 -1.3572 -1.8600 0.9680
-7.2552 -2.6588 -1.8160 0.9687
-6.9183 -3.2633 -1.7978 0.9691
-6.5412 -3.8344 -1.7820 0.9693
-6.1264 -4.3707 -1.7687 0.9696
-5.6766 -4.8707 -1.7579 0.9697
-5.1941 -5.3332 -1.7496 0.9699
-2.9827 -6.7823 -1.7413 0.9700
-2.3704 -7.0383 -1.7454 0.9699
-1.0895 -7.4140 -1.7612 0.9697
-0.4256 -7.5309 -1.7728 0.9695
0.9375 -7.6160 -1.8034 0.9690
2.3294 -7.4926 -1.8441 0.9683
3.0285 -7.3490 -1.8681 0.9679
4.4151 -6.8909 -1.9234 0.9669
5.0945 -6.5738 -1.9546 0.9664
5.7584 -6.1967 -1.9881 0.9658
6.4018 -5.7588 -2.0238 0.9652
7.6042 -4.7003 -2.1010 0.9639
8.1382 -4.0744 -2.1390 0.9633
2.3418 -0.9210 -0.5914 0.9897
8.4452 -2.4764 -2.0684 0.9645
8.8057 -1.7462 -2.1098 0.9638
9.4842 0.6901 -2.2349 0.9617
9.5543 1.5625 -2.2753 0.9610
9.3587 2.4053 -2.2710 0.9611
8.1393 2.8886 -2.0298 0.9651
7.1459 3.2816 -1.8481 0.9682
6.3034 3.6088 -1.7071 0.9706
5.5786 3.8943 -1.5989 0.9724
3.8786 4.6712 -1.4269 0.9754
2.2993 5.0863 -1.3119 0.9773
1.8343 5.2677 -1.3109 0.9773
1.3681 5.4576 -1.3223 0.9771
0.8911 5.6600 -1.3466 0.9767
0.1819 2.7230 -0.6414 0.9888
-1.3425 6.5651 -1.5749 0.9728
-4.2999 8.4626 -2.2309 0.9617
-4.9452 7.8951 -2.1895 0.9624
-6.0318 6.6256 -2.1058 0.9639
-7.3605 5.6345 -2.1785 0.9626
-8.1147 3.2877 -2.0577 0.9647
-8.2233 2.5031 -2.0202 0.9653
-8.2664 1.7275 -1.9848 0.9659
-8.1686 0.2212 -1.9205 0.9670
-8.0341 -0.5019 -1.8919 0.9675
-7.8468 -1.2008 -1.8657 0.9679
-6.9991 -3.1278 -1.8017 0.9690
-6.2246 -4.2511 -1.7715 0.9695
-5.7825 -4.7595 -1.7602 0.9697
-5.3073 -5.2307 -1.7513 0.9698
-4.8012 -5.6633 -1.7449 0.9700
-4.2665 -6.0561 -1.7411 0.9700
-3.1199 -6.7175 -1.7407 0.9700
-2.5123 -6.9836 -1.7443 0.9700
-1.2396 -7.3804 -1.7589 0.9697
0.7796 -7.6166 -1.7994 0.9690
2.8685 -7.3868 -1.8624 0.9680
3.5660 -7.1998 -1.8883 0.9675
4.9401 -6.6517 -1.9473 0.9665
6.2566 -5.8644 -2.0154 0.9654
6.8804 -5.3796 -2.0526 0.9647
2.3322 -0.9728 -0.5939 0.9897
8.7284 -1.9175 -2.1003 0.9639
9.2861 -0.3467 -2.1840 0.9625
9.4564 0.4936 -2.2255 0.9618
9.5458 1.3610 -2.2662 0.9612
7.3575 3.1980 -1.8855 0.9676
6.4837 3.5377 -1.7359 0.9701
4.4796 4.3255 -1.4635 0.9747
4.0001 4.6215 -1.4365 0.9752
3.4759 4.8281 -1.3982 0.9759
2.8828 4.8696 -1.3300 0.9770
2.4065 5.0456 -1.3138 0.9773
1.9406 5.2256 -1.3101 0.9774
1.4754 5.4131 -1.3186 0.9772
0.2386 2.7297 -0.6440 0.9888
-0.0139 6.0608 -1.4244 0.9754
-0.5774 6.2751 -1.4810 0.9744
-1.1926 6.5083 -1.5551 0.9732
-3.4198 9.0810 -2.2806 0.9609
-4.1431 8.5848 -2.2403 0.9616
-4.8034 8.0296 -2.1990 0.9623
-6.7597 5.3976 -2.0330 0.9651
-2.5883 1.7119 -0.7293 0.9873
-8.2043 2.6821 -2.0286 0.9652
-8.2569 1.1385 -1.9589 0.9663
-8.0697 -0.3384 -1.8982 0.9674
-7.6683 -1.7216 -1.8471 0.9682
-7.3952 -2.3714 -1.8252 0.9686
-7.0777 -2.9905 -1.8058 0.9689
-6.7187 -3.5771 -1.7889 0.9692
-5.8867 -4.6464 -1.7626 0.9697
-5.4189 -5.1262 -1.7531 0.9698
-4.9197 -5.5677 -1.7462 0.9699
-3.2559 -6.6504 -1.7403 0.9700
-2.6533 -6.9266 -1.7433 0.9700
-2.0301 -7.1584 -1.7487 0.9699
-0.0602 -7.5739 -1.7801 0.9694
0.6221 -7.6144 -1.7955 0.9691
1.3129 -7.6036 -1.8135 0.9688
2.0094 -7.5399 -1.8339 0.9684
2.7085 -7.4217 -1.8568 0.9681
4.7850 -6.7264 -1.9401 0.9667
5.4567 -6.3768 -1.9725 0.9661
6.1101 -5.9669 -2.0072 0.9655
7.9057 -4.3718 -2.1232 0.9636
7.8218 -3.4524 -2.0094 0.9655
8.2611 -2.7946 -2.0496 0.9648
-1.9220 -6.5875 -1.7767 0.9720
1.1541 -6.9977 -1.8363 0.9711
2.4329 -6.8258 -1.8762 0.9705
3.7028 -6.4474 -1.9251 0.9697
6.0911 -5.0437 -2.0476 0.9679
7.1335 -4.0153 -2.1195 0.9667
7.0506 -3.1758 -2.0022 0.9686
8.0620 -1.2581 -2.1127 0.9668
8.4446 0.2038 -2.1871 0.9657
8.5319 0.9734 -2.2234 0.9651
5.9510 3.7387 -1.8197 0.9714
5.2678 4.0079 -1.7138 0.9730
4.0926 4.4690 -1.5690 0.9753
3.6330 4.7592 -1.5502 0.9756
3.0692 4.8680 -1.4900 0.9765
2.5873 5.0550 -1.4703 0.9768
1.1631 5.6037 -1.4818 0.9766
0.0747 2.9022 -0.7517 0.9881
-0.3956 6.1981 -1.6081 0.9747
-0.9920 6.4240 -1.6830 0.9735
-2.8437 8.2445 -2.2581 0.9646
-3.5134 7.8337 -2.2229 0.9651
-4.1307 7.3661 -2.1866 0.9657
-4.6915 6.8495 -2.1496 0.9663
-6.0107 5.0818 -2.0379 0.9680
-6.3262 4.4440 -2.0017 0.9686
-7.4434 2.6664 -2.0472 0.9679
-7.5267 1.9581 -2.0137 0.9684
-7.4330 -0.1032 -1.9247 0.9698
-7.2962 -0.7568 -1.8992 0.9701
-6.8804 -1.9955 -1.8549 0.9708
-6.6069 -2.5759 -1.8361 0.9711
-5.9419 -3.6487 -1.8054 0.9716
-5.5553 -4.1375 -1.7935 0.9718
-4.6859 -5.0128 -1.7767 0.9720
-4.2076 -5.3965 -1.7718 0.9721
-3.7032 -5.7424 -1.7692 0.9722
-3.1749 -6.0495 -1.7689 0.9722
-2.6247 -6.3164 -1.7710 0.9721
-2.0550 -6.5419 -1.7754 0.9721
-1.4678 -6.7247 -1.7821 0.9720
-0.2504 -6.9575 -1.8026 0.9716
2.2864 -6.8558 -1.8712 0.9706
3.5588 -6.5015 -1.9190 0.9698
4.7961 -5.9337 -1.9754 0.9690
5.3910 -5.5681 -2.0067 0.9685
6.5090 -4.6726 -2.0746 0.9674
7.0214 -4.1438 -2.1110 0.9669
7.7045 -2.0888 -2.0668 0.9676
8.4144 0.0307 -2.1787 0.9658
8.5478 1.5782 -2.2506 0.9647
8.4986 2.3708 -2.2844 0.9642
7.8810 2.9801 -2.1815 0.9658
6.1197 3.6721 -1.8479 0.9709
4.7898 4.1958 -1.6487 0.9740
4.2175 4.4202 -1.5818 0.9751
3.7526 4.7126 -1.5598 0.9754
2.6965 5.0126 -1.4737 0.9768
2.2220 5.1963 -1.4632 0.9769
0.1264 2.7326 -0.7083 0.9888
-0.8505 6.3705 -1.6641 0.9738
-1.2893 5.7068 -1.5148 0.9761
-3.9943 7.4778 -2.1950 0.9656
-5.0834 6.4226 -2.1208 0.9667
-5.5376 5.8380 -2.0834 0.9673
-5.9297 5.2253 -2.0463 0.9679
-7.0336 4.2487 -2.1276 0.9666
-7.2567 3.5406 -2.0906 0.9672
-7.4158 2.8292 -2.0551 0.9677
-7.5506 1.4172 -1.9891 0.9688
-7.4573 0.0492 -1.9309 0.9697
-4.7915 -4.9198 -1.7781 0.9720
-4.3195 -5.3119 -1.7727 0.9721
-3.2978 -5.9827 -1.7688 0.9722
-2.7525 -6.2589 -1.7703 0.9721
-1.0046 -6.8358 -1.7889 0.9719
-0.3922 -6.9401 -1.7998 0.9717
0.2311 -6.9982 -1.8130 0.9715
0.8628 -7.0089 -1.8284 0.9712
2.1399 -6.8830 -1.8663 0.9707
2.7791 -6.7440 -1.8886 0.9703
3.4144 -6.5527 -1.9131 0.9699
4.0418 -6.3082 -1.9398 0.9695
4.6573 -6.0097 -1.9686 0.9691
6.3868 -4.7862 -2.0665 0.9676
6.9073 -4.2696 -2.1025 0.9670
7.3741 -3.6919 -2.1352 0.9665
2.3417 -0.9209 -0.6515 0.9897
7.6287 -2.2370 -2.0584 0.9677
8.5011 0.6185 -2.2069 0.9654
8.5479 1.3979 -2.2426 0.9648
8.5169 2.1889 -2.2769 0.9643
7.1341 3.2762 -2.0326 0.9681
3.3551 4.8675 -1.5307 0.9759
1.8583 5.3365 -1.4631 0.9769
1.3835 5.5191 -1.4732 0.9768
0.4839 3.0734 -0.8056 0.9872
-0.1390 6.1006 -1.5800 0.9751
-0.7122 6.3181 -1.6462 0.9741
-1.3406 6.5558 -1.7325 0.9727
-3.8549 7.5868 -2.2034 0.9654
-4.4420 7.0917 -2.1666 0.9660
-4.9708 6.5517 -2.1293 0.9666
-5.4391 5.9746 -2.0919 0.9672
-5.8454 5.3677 -2.0548 0.9677
-7.3849 2.9921 -2.0631 0.9676
-7.4961 2.2817 -2.0288 0.9681
-7.5405 0.8828 -1.9657 0.9691
-7.2016 -1.1021 -1.8863 0.9703
-6.7373 -2.3137 -1.8444 0.9710
-6.4417 -2.8787 -1.8268 0.9713
-6.1073 -3.4140 -1.8116 0.9715
-5.7365 -3.9178 -1.7986 0.9717
-2.3182 -6.4438 -1.7731 0.9721
-1.7387 -6.6464 -1.7788 0.9720
-0.5334 -6.9202 -1.7971 0.9717
0.7176 -7.0107 -1.8247 0.9713
2.6330 -6.7804 -1.8833 0.9704
3.2695 -6.6012 -1.9073 0.9700
5.1210 -5.7423 -1.9921 0.9687
5.7045 -5.3469 -2.0244 0.9682
7.2770 -3.8316 -2.1294 0.9666
2.3295 -0.9717 -0.6535 0.9896
7.5501 -2.3829 -2.0499 0.9678
8.1390 -1.0375 -2.1244 0.9667
8.3432 -0.3115 -2.1617 0.9661
8.3797 2.7821 -2.2861 0.9642
5.7281 3.8266 -1.7836 0.9719
5.0692 4.0860 -1.6858 0.9735
4.4738 4.3198 -1.6102 0.9746
3.9965 4.6174 -1.5811 0.9751
3.4716 4.8221 -1.5384 0.9757
2.9168 4.9272 -1.4825 0.9766
2.4385 5.1126 -1.4666 0.9769
1.9663 5.2949 -1.4624 0.9769
0.2372 2.7139 -0.7054 0.9888
-0.0139 6.0530 -1.5672 0.9753
-1.1909 6.4993 -1.7108 0.9731
-1.5840 5.7079 -1.5337 0.9758
-3.7126 7.6930 -2.2117 0.9653
-4.3126 7.2092 -2.1751 0.9659
-5.3373 6.1096 -2.1005 0.9670
-5.7579 5.5089 -2.0633 0.9676
-2.5892 1.7126 -0.8038 0.9873
-7.3507 3.1550 -2.0711 0.9675
-7.4760 2.4440 -2.0365 0.9680
-7.5406 1.7377 -2.0036 0.9685
-7.5469 1.0406 -1.9725 0.9690
-7.4977 0.3569 -1.9435 0.9695
-7.3955 -0.3101 -1.9165 0.9699
-7.2433 -0.9571 -1.8917 0.9703
-7.0436 -1.5813 -1.8691 0.9706
-6.7992 -2.1803 -1.8487 0.9709
-6.1871 -3.2941 -1.8149 0.9715
-5.4274 -4.2838 -1.7902 0.9718
-4.5390 -5.1369 -1.7749 0.9721
-4.0523 -5.5089 -1.7707 0.9721
-3.5402 -5.8429 -1.7688 0.9722
-2.4483 -6.3915 -1.7721 0.9721
-1.8729 -6.6038 -1.7773 0.9720
-1.2807 -6.7730 -1.7847 0.9719
-0.6741 -6.8980 -1.7945 0.9718
1.2078 -6.9945 -1.8378 0.9711
1.8468 -6.9296 -1.8568 0.9708
2.4867 -6.8141 -1.8781 0.9705
3.1242 -6.6468 -1.9016 0.9701
3.7557 -6.4268 -1.9273 0.9697
5.5729 -5.4423 -2.0168 0.9683
7.1742 -3.9673 -2.1226 0.9667
7.0850 -3.1272 -2.0052 0.9685
7.4689 -2.5266 -2.0415 0.9679
-1.7824 -6.1088 -1.8015 0.9739
-1.2341 -6.2673 -1.8083 0.9738
0.4809 -6.4884 -1.8418 0.9733
1.6573 -6.4123 -1.8749 0.9728
4.5373 -5.3841 -1.9932 0.9712
5.5866 -4.6260 -2.0533 0.9703
6.0717 -4.1730 -2.0857 0.9698
6.7815 -2.3512 -2.0319 0.9706
7.0793 -1.7645 -2.0654 0.9701
7.5181 -0.4919 -2.1329 0.9692
7.6495 0.1846 -2.1662 0.9687
7.7165 0.8803 -2.1987 0.9682
7.6434 2.3020 -2.2598 0.9674
7.4983 3.0123 -2.2876 0.9670
6.7190 3.4254 -2.1350 0.9691
4.6483 4.2432 -1.7817 0.9742
4.0874 4.4633 -1.7133 0.9752
3.6285 4.7533 -1.6929 0.9754
3.0654 4.8621 -1.6271 0.9764
2.5841 5.0489 -1.6056 0.9767
2.1114 5.2317 -1.5971 0.9768
1.1426 3.7719 -1.1157 0.9837
1.1617 5.5968 -1.6182 0.9765
-0.3951 6.1899 -1.7559 0.9745
-0.9906 6.4152 -1.8376 0.9734
-1.4024 5.6649 -1.6521 0.9760
-2.5681 7.4455 -2.2296 0.9678
-3.1777 7.0852 -2.1983 0.9682
-3.7419 6.6727 -2.1657 0.9687
-4.2566 6.2147 -2.1324 0.9692
-4.7191 5.7177 -2.0987 0.9697
-5.4800 4.6331 -2.0315 0.9706
-5.7767 4.0580 -1.9985 0.9711
-6.4763 3.7332 -2.1162 0.9694
-6.6848 3.0937 -2.0853 0.9698
-6.8270 2.4456 -2.0529 0.9703
-6.9128 1.7984 -2.0221 0.9707
-6.9441 1.1566 -1.9929 0.9712
-6.3601 -1.8446 -1.8747 0.9728
-6.1120 -2.3830 -1.8571 0.9731
-5.5037 -3.3796 -1.8284 0.9735
-4.3454 -4.6485 -1.8014 0.9739
-3.4352 -5.3268 -1.7944 0.9740
-2.4346 -5.8588 -1.7961 0.9740
-1.3608 -6.2347 -1.8066 0.9738
0.3473 -6.4854 -1.8386 0.9734
2.1121 -6.3331 -1.8899 0.9726
3.2811 -5.9941 -1.9345 0.9720
3.8531 -5.7510 -1.9597 0.9716
4.4117 -5.4582 -1.9868 0.9712
4.9526 -5.1154 -2.0156 0.9708
5.9633 -4.2810 -2.0781 0.9699
7.2746 -1.2884 -2.0914 0.9698
7.4794 -0.6435 -2.1252 0.9693
7.6250 0.0278 -2.1586 0.9688
7.7071 0.7197 -2.1913 0.9683
7.7219 1.4257 -2.2230 0.9679
6.9138 3.3481 -2.1747 0.9686
4.2121 4.4144 -1.7273 0.9750
3.7479 4.7067 -1.7033 0.9753
3.2356 4.9064 -1.6638 0.9759
1.2721 5.5545 -1.6132 0.9766
0.3918 2.8699 -0.8200 0.9880
0.1248 2.6990 -0.7649 0.9888
-0.2658 6.1409 -1.7401 0.9748
-0.8494 6.3618 -1.8170 0.9737
-1.2888 5.7047 -1.6557 0.9760
-2.2153 6.8763 -2.0452 0.9704
-3.6170 6.7714 -2.1733 0.9686
-4.1433 6.3232 -2.1401 0.9691
-4.6180 5.8346 -2.1065 0.9695
-5.0387 5.3121 -2.0727 0.9700
-5.7137 4.1911 -2.0060 0.9710
-5.9674 3.6047 -1.9736 0.9714
-6.7995 2.5941 -2.0602 0.9702
-6.7636 -0.5618 -1.9213 0.9722
-6.6092 -1.1504 -1.8992 0.9725
-6.4113 -1.7180 -1.8790 0.9728
-5.8945 -2.7804 -1.8450 0.9733
-5.5805 -3.2713 -1.8312 0.9735
-4.8525 -4.1636 -1.8101 0.9738
-4.4431 -4.5620 -1.8028 0.9739
-3.5443 -5.2564 -1.7947 0.9740
-3.0592 -5.5498 -1.7940 0.9740
-0.9311 -6.3359 -1.8129 0.9737
-0.3633 -6.4297 -1.8231 0.9736
0.2140 -6.4801 -1.8355 0.9734
1.3871 -6.4461 -1.8666 0.9730
1.9771 -6.3596 -1.8854 0.9727
3.7232 -5.8111 -1.9538 0.9717
4.2853 -5.5296 -1.9804 0.9713
5.3549 -4.8170 -2.0390 0.9705
6.3211 -3.9073 -2.1037 0.9696
6.7343 -3.3716 -2.1320 0.9692
2.3415 -0.9209 -0.7123 0.9896
6.9489 -2.0376 -2.0500 0.9703
7.4375 -0.7936 -2.1175 0.9694
7.5739 2.6880 -2.2751 0.9671
6.2841 3.5978 -2.0499 0.9703
3.3509 4.8615 -1.6715 0.9758
2.8030 4.9640 -1.6138 0.9766
2.3078 5.1052 -1.5861 0.9770
1.3186 3.7866 -1.1351 0.9835
1.3819 5.5124 -1.6088 0.9767
-0.1388 6.0927 -1.7252 0.9750
-1.3387 6.5465 -1.8916 0.9726
-4.5140 5.9496 -2.1142 0.9694
-4.9472 5.4343 -2.0804 0.9699
-5.3254 4.8901 -2.0468 0.9704
-6.6003 3.3895 -2.1005 0.9696
-6.9389 0.8124 -1.9778 0.9714
-6.8902 0.1866 -1.9513 0.9718
-6.7926 -0.4243 -1.9267 0.9721
-6.6485 -1.0175 -1.9041 0.9724
-5.6554 -3.1614 -1.8342 0.9734
-4.9421 -4.0678 -1.8121 0.9737
-4.5393 -4.4738 -1.8042 0.9739
-4.1086 -4.8463 -1.7986 0.9739
-3.1722 -5.4859 -1.7940 0.9740
-2.1500 -5.9765 -1.7981 0.9739
-1.0595 -6.3085 -1.8109 0.9738
-0.4943 -6.4120 -1.8206 0.9736
0.0811 -6.4725 -1.8325 0.9734
0.6642 -6.4886 -1.8465 0.9732
3.5927 -5.8685 -1.9479 0.9718
4.7075 -5.2785 -2.0022 0.9710
5.7418 -4.4893 -2.0633 0.9702
6.2170 -4.0212 -2.0961 0.9697
2.3268 -0.9706 -0.7137 0.9896
7.1624 -1.5735 -2.0760 0.9700
7.3927 -0.9423 -2.1097 0.9695
7.7237 1.1012 -2.2086 0.9681
7.7006 1.8119 -2.2395 0.9676
7.6058 2.5252 -2.2687 0.9672
7.3326 3.1872 -2.2634 0.9673
5.7197 3.8210 -1.9473 0.9718
4.4679 4.3141 -1.7582 0.9745
2.9133 4.9212 -1.6190 0.9765
2.4355 5.1064 -1.6016 0.9768
1.9639 5.2886 -1.5971 0.9768
1.4911 5.4705 -1.6052 0.9767
-0.0139 6.0452 -1.7114 0.9752
-0.5759 6.2583 -1.7792 0.9742
-1.5817 5.6996 -1.6745 0.9757
-2.7637 7.3387 -2.2200 0.9679
-4.4072 6.0629 -2.1219 0.9693
-4.8529 5.5551 -2.0882 0.9698
-5.2438 5.0169 -2.0545 0.9703
-6.5535 3.5369 -2.1082 0.9695
-6.8599 2.2426 -2.0431 0.9704
-6.9284 1.5966 -2.0128 0.9709
-6.8192 -0.2859 -1.9322 0.9720
-6.6855 -0.8834 -1.9091 0.9724
-5.7286 -3.0500 -1.8373 0.9734
-5.3958 -3.5252 -1.8246 0.9736
-4.2095 -4.7640 -1.7997 0.9739
-3.7588 -5.1099 -1.7958 0.9740
-3.2840 -5.4200 -1.7940 0.9740
-2.7873 -5.6932 -1.7945 0.9740
-1.7367 -6.1238 -1.8020 0.9739
-0.0513 -6.4625 -1.8295 0.9735
1.1172 -6.4701 -1.8587 0.9731
1.7070 -6.4051 -1.8765 0.9728
2.2965 -6.2928 -1.8964 0.9725
2.8825 -6.1325 -1.9183 0.9722
3.4615 -5.9233 -1.9422 0.9719
4.0297 -5.6647 -1.9680 0.9715
5.6286 -4.5897 -2.0560 0.9703
6.5577 -3.6264 -2.1214 0.9693
6.4686 -2.8552 -2.0017 0.9710
-1.6602 -5.6901 -1.8231 0.9755
-1.1492 -5.8362 -1.8296 0.9754
1.5394 -5.9561 -1.8922 0.9746
2.0855 -5.8512 -1.9106 0.9743
2.6276 -5.7015 -1.9309 0.9741
3.1624 -5.5064 -1.9531 0.9738
3.6863 -5.2655 -1.9770 0.9735
5.5949 -3.8453 -2.0881 0.9720
6.0001 -3.3773 -2.1178 0.9716
5.9173 -2.6653 -1.9962 0.9732
6.2247 -2.1582 -2.0264 0.9728
6.4892 -1.6174 -2.0570 0.9724
6.7067 -1.0466 -2.0878 0.9720
6.9518 2.0937 -2.2331 0.9701
6.6064 3.3680 -2.2808 0.9694
4.6420 4.2374 -1.9332 0.9740
3.6239 4.7473 -1.8370 0.9753
3.0616 4.8561 -1.7657 0.9763
2.5810 5.0427 -1.7424 0.9766
2.1089 5.2253 -1.7331 0.9767
1.1603 5.5899 -1.7560 0.9764
0.0739 2.8733 -0.8841 0.9880
-3.4162 6.0919 -2.1482 0.9712
-3.8913 5.6813 -2.1181 0.9716
-4.3200 5.2341 -2.0874 0.9720
-4.7000 4.7560 -2.0566 0.9724
-5.0301 4.2527 -2.0260 0.9728
-5.3096 3.7298 -1.9958 0.9732
-6.3853 1.6612 -2.0294 0.9728
-6.4083 0.4853 -1.9767 0.9735
-5.4181 -2.6926 -1.8609 0.9750
-3.2005 -4.9630 -1.8164 0.9756
-2.7440 -5.2285 -1.8162 0.9756
-2.2682 -5.4583 -1.8180 0.9756
-1.7752 -5.6512 -1.8219 0.9755
-1.2673 -5.8062 -1.8279 0.9754
-0.7467 -5.9220 -1.8359 0.9753
-0.2158 -5.9978 -1.8460 0.9752
0.8672 -6.0246 -1.8722 0.9748
1.4141 -5.9739 -1.8882 0.9746
1.9607 -5.8792 -1.9062 0.9744
2.5040 -5.7398 -1.9261 0.9741
3.5675 -5.3247 -1.9714 0.9735
4.0805 -5.0484 -1.9966 0.9732
4.5758 -4.7262 -2.0234 0.9728
5.0493 -4.3585 -2.0516 0.9725
5.9133 -3.4898 -2.1119 0.9717
6.1579 -2.2773 -2.0194 0.9729
6.6613 -1.1797 -2.0808 0.9721
6.8395 -0.5884 -2.1114 0.9717
7.0290 0.6564 -2.1714 0.9709
7.0336 1.2987 -2.1999 0.9705
6.9745 1.9456 -2.2271 0.9702
6.8500 2.5902 -2.2525 0.9698
6.6594 3.2249 -2.2758 0.9695
5.4017 3.9378 -2.0561 0.9724
4.7768 4.1844 -1.9532 0.9738
3.2316 4.9003 -1.8055 0.9757
2.6900 5.0004 -1.7465 0.9765
1.2068 3.7085 -1.1995 0.9838
1.2706 5.5477 -1.7505 0.9765
0.3959 2.9001 -0.9003 0.9878
0.1245 2.6918 -0.8288 0.9888
-1.2888 5.7047 -1.7989 0.9758
-2.2055 6.8459 -2.2122 0.9703
-2.7728 6.5377 -2.1842 0.9707
-3.3011 6.1801 -2.1551 0.9711
-4.2261 5.3394 -2.0944 0.9719
-4.6174 4.8679 -2.0637 0.9723
-5.4904 3.3165 -1.9729 0.9735
-6.1184 2.9852 -2.0939 0.9719
-6.2716 2.3927 -2.0646 0.9723
-6.3700 1.7973 -2.0358 0.9727
-6.4174 1.2045 -2.0083 0.9730
-6.4155 0.6182 -1.9824 0.9734
-6.3661 0.0420 -1.9581 0.9737
-6.1333 -1.0676 -1.9149 0.9743
-5.9542 -1.5955 -1.8960 0.9745
-5.7362 -2.1021 -1.8791 0.9748
-5.1920 -3.0436 -1.8511 0.9751
-4.8703 -3.4746 -1.8401 0.9753
-3.7322 -4.5897 -1.8195 0.9755
-3.3021 -4.8973 -1.8167 0.9756
-2.8503 -5.1708 -1.8160 0.9756
-1.8895 -5.6103 -1.8209 0.9755
-0.8669 -5.8990 -1.8339 0.9754
-0.3381 -5.9840 -1.8435 0.9752
0.1991 -6.0281 -1.8551 0.9751
1.2888 -5.9894 -1.8844 0.9747
2.3801 -5.7757 -1.9214 0.9742
3.4480 -5.3815 -1.9658 0.9736
3.9645 -5.1157 -1.9907 0.9733
4.9431 -4.4466 -2.0450 0.9726
5.3968 -4.0443 -2.0743 0.9722
5.8209 -3.5980 -2.1048 0.9718
6.1904 -3.0993 -2.1293 0.9714
2.3413 -0.9208 -0.7738 0.9895
6.8033 -0.7260 -2.1044 0.9718
7.0193 0.5107 -2.1647 0.9710
6.8843 2.4433 -2.2469 0.9699
6.2743 3.5922 -2.2237 0.9702
5.5544 3.8774 -2.0835 0.9720
4.3331 4.3589 -1.8904 0.9746
3.3467 4.8554 -1.8138 0.9756
2.7995 4.9579 -1.7513 0.9765
2.3050 5.0990 -1.7211 0.9769
1.3802 5.5057 -1.7458 0.9765
0.4861 3.0875 -0.9613 0.9870
-1.7345 5.7875 -1.8583 0.9750
-3.6794 5.8742 -2.1320 0.9714
-4.5321 4.9784 -2.0707 0.9722
-4.8852 4.4859 -2.0400 0.9726
-6.0708 3.1175 -2.0991 0.9718
-6.2418 2.5289 -2.0714 0.9722
-6.3521 1.9335 -2.0423 0.9726
-6.3815 0.1728 -1.9635 0.9736
-5.5428 -2.4770 -1.8673 0.9749
-5.2612 -2.9410 -1.8539 0.9751
-4.6015 -3.7874 -1.8331 0.9754
-4.2276 -4.1666 -1.8257 0.9755
-3.8273 -4.5146 -1.8204 0.9755
-2.4883 -5.3575 -1.8169 0.9756
-2.0029 -5.5675 -1.8199 0.9755
-0.9865 -5.8739 -1.8320 0.9754
-0.4600 -5.9681 -1.8411 0.9753
0.0755 -6.0217 -1.8523 0.9751
0.6176 -6.0334 -1.8655 0.9749
1.1636 -6.0025 -1.8806 0.9747
2.7961 -5.6453 -1.9377 0.9740
3.3278 -5.4359 -1.9604 0.9737
4.3515 -4.8794 -2.0109 0.9730
4.8355 -4.5324 -2.0385 0.9726
5.2954 -4.1403 -2.0675 0.9723
5.7266 -3.7040 -2.0977 0.9719
6.1116 -3.2180 -2.1244 0.9715
2.3241 -0.9694 -0.7745 0.9895
6.5626 -1.4417 -2.0667 0.9723
6.7644 -0.8623 -2.0974 0.9719
7.0063 0.3657 -2.1579 0.9711
6.7549 2.9360 -2.2654 0.9696
6.4532 3.5211 -2.2611 0.9697
5.0551 4.0747 -1.9971 0.9732
3.9862 4.6055 -1.8735 0.9748
1.0082 5.6481 -1.7647 0.9763
0.2374 2.7159 -0.8386 0.9887
-0.5751 6.2499 -1.9304 0.9741
-2.5176 6.6853 -2.1972 0.9705
-3.5699 5.9676 -2.1389 0.9713
-4.4443 5.0874 -2.0778 0.9721
-4.8088 4.6008 -2.0470 0.9725
-5.1231 4.0908 -2.0165 0.9729
-6.3202 -0.2650 -1.9457 0.9739
-6.2018 -0.8195 -1.9241 0.9742
-5.6025 -2.3672 -1.8707 0.9749
-5.3287 -2.8371 -1.8568 0.9751
-4.3157 -4.0825 -1.8272 0.9754
-3.9212 -4.4377 -1.8215 0.9755
-3.0598 -5.0499 -1.8161 0.9756
-2.5969 -5.3043 -1.8165 0.9756
-2.1155 -5.5227 -1.8190 0.9756
-1.6176 -5.7039 -1.8236 0.9755
-0.5814 -5.9501 -1.8388 0.9753
0.4930 -6.0345 -1.8623 0.9750
1.0384 -6.0134 -1.8770 0.9748
2.1314 -5.8404 -1.9123 0.9743
3.7299 -5.2431 -1.9791 0.9734
4.2377 -4.9524 -2.0048 0.9731
4.7267 -4.6159 -2.0321 0.9727
6.0305 -3.3348 -2.1196 0.9716
5.9448 -2.6239 -1.9987 0.9732
6.5095 -1.5704 -2.0596 0.9724
0.9261 -5.6153 -1.8918 0.9763
2.4475 -5.3106 -1.9437 0.9757
2.9432 -5.1248 -1.9645 0.9754
3.4279 -4.8964 -1.9868 0.9751
3.8980 -4.6255 -2.0107 0.9748
4.3497 -4.3123 -2.0360 0.9745
5.5482 -3.1229 -2.1163 0.9735
5.7463 -1.9923 -2.0216 0.9747
6.1769 -0.9639 -2.0781 0.9740
6.4171 0.1549 -2.1337 0.9733
6.3676 1.9177 -2.2105 0.9724
6.2339 2.5043 -2.2331 0.9721
6.0404 3.0794 -2.2537 0.9718
4.6356 4.2316 -2.0864 0.9739
4.0766 4.4516 -2.0065 0.9749
3.5544 4.6562 -1.9472 0.9756
2.5778 5.0365 -1.8807 0.9764
1.0979 3.6246 -1.2589 0.9842
1.1588 5.5830 -1.8954 0.9763
0.3284 2.8387 -0.9499 0.9880
0.0747 2.9040 -0.9656 0.9878
-0.3940 6.1732 -2.0562 0.9743
-0.9878 6.3971 -2.1516 0.9731
-2.1442 6.2166 -2.1859 0.9727
-3.1391 5.5978 -2.1334 0.9733
-3.9788 4.8207 -2.0777 0.9740
-4.3338 4.3854 -2.0495 0.9743
-4.9072 3.4472 -1.9934 0.9750
-5.6979 2.6370 -2.0870 0.9739
-5.8405 2.0922 -2.0622 0.9742
-5.9085 -0.0821 -1.9642 0.9754
-5.8154 -0.6032 -1.9435 0.9757
-5.3019 -2.0671 -1.8916 0.9763
-4.4785 -3.3355 -1.8562 0.9767
-4.1446 -3.7063 -1.8482 0.9768
-3.4000 -4.3607 -1.8380 0.9770
-2.9933 -4.6415 -1.8359 0.9770
-2.5663 -4.8899 -1.8357 0.9770
-2.1211 -5.1044 -1.8374 0.9770
-1.6599 -5.2841 -1.8411 0.9769
-0.2016 -5.6034 -1.8638 0.9766
2.3327 -5.3471 -1.9392 0.9757
3.3181 -4.9525 -1.9816 0.9752
3.7919 -4.6913 -2.0051 0.9749
5.4714 -3.2291 -2.1118 0.9736
5.4001 -2.5666 -1.9875 0.9751
5.6862 -2.1029 -2.0152 0.9748
5.9330 -1.6085 -2.0434 0.9744
6.2935 -0.5414 -2.0997 0.9737
6.4506 1.1910 -2.1804 0.9727
6.3898 1.7825 -2.2051 0.9724
6.2698 2.3708 -2.2281 0.9721
6.0900 2.9492 -2.2492 0.9719
5.8506 3.5106 -2.2680 0.9716
4.7702 4.1786 -2.1080 0.9736
3.6713 4.6105 -1.9591 0.9755
3.1697 4.8064 -1.9138 0.9760
1.2690 5.5408 -1.8895 0.9763
0.4204 3.0795 -1.0331 0.9870
0.1235 2.6702 -0.8885 0.9888
-0.2651 6.1245 -2.0377 0.9745
-3.0326 5.6775 -2.1396 0.9732
-3.8912 4.9164 -2.0842 0.9739
-4.5767 4.0330 -2.0277 0.9746
-4.8509 3.5582 -1.9998 0.9750
-2.7181 1.6419 -1.0556 0.9867
-5.9112 1.6678 -2.0416 0.9744
-5.9610 1.1188 -2.0161 0.9748
-5.9239 0.0391 -1.9692 0.9753
-5.8404 -0.4851 -1.9481 0.9756
-5.7160 -0.9950 -1.9286 0.9758
-5.5528 -1.4879 -1.9109 0.9761
-5.1176 -2.4139 -1.8809 0.9764
-4.8497 -2.8429 -1.8686 0.9766
-4.5510 -3.2468 -1.8583 0.9767
-4.2235 -3.6239 -1.8499 0.9768
-3.8692 -3.9728 -1.8434 0.9769
-3.4901 -4.2919 -1.8388 0.9770
-3.0882 -4.5801 -1.8362 0.9770
-2.2245 -5.0584 -1.8368 0.9770
-1.7668 -5.2461 -1.8401 0.9769
-1.2946 -5.3982 -1.8453 0.9769
-0.3160 -5.5911 -1.8615 0.9767
0.1859 -5.6299 -1.8724 0.9765
1.2024 -5.5879 -1.9000 0.9762
1.7116 -5.5056 -1.9165 0.9760
2.7174 -5.2151 -1.9548 0.9755
3.6848 -4.7548 -1.9996 0.9750
4.5855 -4.1250 -2.0502 0.9743
2.3425 -0.9213 -0.8367 0.9894
5.8802 -1.7243 -2.0369 0.9745
6.0941 -1.2085 -2.0651 0.9742
6.2620 -0.6682 -2.0933 0.9738
6.4562 1.0558 -2.1746 0.9728
6.4089 1.6472 -2.1996 0.9725
6.3026 2.2368 -2.2230 0.9722
5.9106 3.3840 -2.2639 0.9717
5.5462 3.8717 -2.2483 0.9719
4.3273 4.3531 -2.0403 0.9745
3.7897 4.5641 -1.9719 0.9753
0.4915 3.1221 -1.0506 0.9868
0.1784 2.6703 -0.8896 0.9888
-0.1384 6.0766 -2.0204 0.9747
-0.7092 6.2922 -2.1048 0.9737
-1.7306 5.7744 -2.0038 0.9749
-2.4277 6.0668 -2.1721 0.9728
-3.3831 5.4011 -2.1185 0.9735
-3.8014 5.0105 -2.0906 0.9738
-4.7923 3.6685 -2.0061 0.9749
-2.6254 1.6603 -1.0326 0.9870
-5.2226 2.6820 -1.9516 0.9756
-5.9537 1.2442 -2.0218 0.9747
-5.9370 0.1608 -1.9742 0.9753
-5.7480 -0.8797 -1.9329 0.9758
-5.4016 -1.8550 -1.8985 0.9762
-5.1744 -2.3124 -1.8839 0.9764
-4.6220 -3.1566 -1.8605 0.9767
-4.3009 -3.5400 -1.8516 0.9768
-3.5789 -4.2215 -1.8397 0.9769
-2.7642 -4.7803 -1.8355 0.9770
-1.8729 -5.2063 -1.8392 0.9769
-1.4039 -5.3666 -1.8439 0.9769
0.0705 -5.6245 -1.8697 0.9766
0.5766 -5.6328 -1.8822 0.9764
1.0857 -5.6009 -1.8964 0.9762
1.5952 -5.5281 -1.9125 0.9760
2.6037 -5.2569 -1.9500 0.9756
3.0964 -5.0579 -1.9713 0.9753
4.4868 -4.2056 -2.0442 0.9744
4.9085 -3.8378 -2.0711 0.9741
5.3026 -3.4297 -2.0992 0.9737
5.8251 -1.8385 -2.0304 0.9746
6.0490 -1.3289 -2.0587 0.9742
6.3578 -0.2374 -2.1148 0.9735
6.1797 2.6860 -2.2398 0.9720
5.9675 3.2561 -2.2597 0.9718
5.0479 4.0689 -2.1552 0.9730
4.4558 4.3025 -2.0589 0.9742
3.9097 4.5171 -1.9858 0.9751
2.4295 5.0939 -1.8760 0.9765
1.9591 5.2756 -1.8707 0.9766
1.0069 5.6411 -1.9048 0.9761
-0.0138 6.0294 -2.0042 0.9749
-3.2815 5.4856 -2.1248 0.9734
-4.4358 4.2439 -2.0406 0.9745
-2.5928 1.7149 -1.0333 0.9870
-5.1828 2.7971 -1.9577 0.9755
-5.7521 2.4688 -2.0807 0.9740
-5.8727 1.9198 -2.0538 0.9743
-5.9686 0.8230 -2.0028 0.9749
-5.9480 0.2831 -1.9794 0.9752
-5.8838 -0.2467 -1.9575 0.9755
-5.7779 -0.7635 -1.9373 0.9757
-5.4488 -1.7472 -1.9020 0.9762
-4.9764 -2.6495 -1.8740 0.9765
-4.0346 -3.8166 -1.8461 0.9769
-2.8616 -4.7229 -1.8356 0.9770
-2.4287 -4.9608 -1.8360 0.9770
-1.0334 -5.4653 -1.8489 0.9768
-0.0446 -5.6170 -1.8672 0.9766
2.4896 -5.2965 -1.9454 0.9756
3.4682 -4.8752 -1.9888 0.9751
3.9368 -4.6007 -2.0128 0.9748
4.3868 -4.2840 -2.0382 0.9745
4.8142 -3.9256 -2.0649 0.9742
5.2150 -3.5266 -2.0927 0.9738
5.5759 -3.0834 -2.1180 0.9735
5.4937 -2.4248 -1.9961 0.9750
5.7679 -1.9512 -2.0240 0.9747
6.0016 -1.4479 -2.0522 0.9743
-1.4562 -4.9910 -1.8592 0.9782
-0.5486 -5.2076 -1.8726 0.9780
-0.0815 -5.2620 -1.8820 0.9779
0.3913 -5.2794 -1.8931 0.9778
0.8673 -5.2590 -1.9061 0.9776
1.8186 -5.1023 -1.9370 0.9773
2.7498 -4.7880 -1.9745 0.9768
4.4505 -3.6852 -2.0663 0.9758
4.8214 -3.3137 -2.0921 0.9755
5.1541 -2.9011 -2.1151 0.9752
5.3304 -1.8481 -2.0175 0.9763
5.5450 -1.3821 -2.0436 0.9760
5.7183 -0.8924 -2.0697 0.9757
5.9289 0.1431 -2.1208 0.9751
5.9608 0.6800 -2.1454 0.9748
5.8671 1.7670 -2.1912 0.9743
3.3819 4.4303 -1.9931 0.9766
1.0968 3.6209 -1.3529 0.9841
0.0694 2.6965 -0.9646 0.9886
-0.3935 6.1648 -2.2090 0.9741
-0.9438 6.1120 -2.2116 0.9741
-2.4548 5.4733 -2.1451 0.9748
-2.9004 5.1721 -2.1205 0.9751
-3.3108 4.8337 -2.0952 0.9754
-4.0162 4.0640 -2.0433 0.9760
-4.5567 3.2009 -1.9914 0.9766
-4.7629 2.7456 -1.9660 0.9769
-4.9264 2.2799 -1.9412 0.9772
-5.4388 1.9483 -2.0660 0.9758
-5.5241 1.4371 -2.0412 0.9760
-5.5634 0.4213 -1.9952 0.9766
-5.5202 -0.0767 -1.9742 0.9768
-5.1579 -1.4960 -1.9205 0.9774
-4.7404 -2.3558 -1.8930 0.9778
-4.1994 -3.1276 -1.8725 0.9780
-3.8874 -3.4762 -1.8649 0.9781
-3.5503 -3.7979 -1.8592 0.9782
-3.1900 -4.0914 -1.8553 0.9782
-2.8086 -4.3552 -1.8532 0.9782
-0.1890 -5.2528 -1.8797 0.9779
0.2827 -5.2787 -1.8904 0.9778
0.7582 -5.2671 -1.9030 0.9776
2.1813 -4.9999 -1.9507 0.9771
2.6450 -4.8320 -1.9699 0.9769
3.0983 -4.6243 -1.9905 0.9766
3.5378 -4.3770 -2.0126 0.9764
4.3618 -3.7650 -2.0605 0.9758
4.7390 -3.4020 -2.0861 0.9755
5.0154 -2.3838 -1.9858 0.9767
5.2759 -1.9511 -2.0116 0.9764
5.6824 -1.0064 -2.0637 0.9758
5.9146 0.0216 -2.1151 0.9752
5.9580 0.5564 -2.1399 0.9749
5.6036 2.7136 -2.2265 0.9739
5.1034 3.7203 -2.2584 0.9735
4.1952 4.3968 -2.1732 0.9745
3.4702 4.3580 -1.9922 0.9766
2.2111 5.1709 -2.0111 0.9764
1.2122 3.7249 -1.4008 0.9835
0.4225 3.0949 -1.1170 0.9868
-1.8641 5.7862 -2.1739 0.9745
-2.3482 5.5366 -2.1506 0.9748
-2.8013 5.2445 -2.1262 0.9751
-3.6016 4.5504 -2.0753 0.9756
-3.9436 4.1576 -2.0492 0.9760
-4.5034 3.3033 -1.9973 0.9766
-5.4122 2.0648 -2.0715 0.9757
-5.5596 1.0435 -2.0229 0.9763
-5.5675 0.5365 -2.0002 0.9765
-5.5336 0.0365 -1.9789 0.9768
-5.4595 -0.4535 -1.9591 0.9770
-5.3468 -0.9307 -1.9408 0.9772
-4.7947 -2.2616 -1.8958 0.9777
-4.5456 -2.6646 -1.8842 0.9779
-3.9611 -3.3988 -1.8665 0.9781
-2.8977 -4.2975 -1.8535 0.9782
-2.5013 -4.5377 -1.8529 0.9782
-1.2144 -5.0636 -1.8621 0.9781
0.1743 -5.2761 -1.8878 0.9778
0.6491 -5.2731 -1.8999 0.9777
2.0740 -5.0328 -1.9466 0.9771
2.5396 -4.8739 -1.9654 0.9769
2.9956 -4.6754 -1.9857 0.9767
3.8652 -4.1594 -2.0305 0.9762
4.2719 -3.8428 -2.0548 0.9759
