ply
format ascii 1.0
element vertex 1600
property float32 x
property float32 y
property float32 z
property float32 I
end_header
3.1614 5.0312 0.9103 0.9762
2.6381 5.1742 0.8897 0.9768
2.7330 5.1250 0.7563 0.9768
2.2890 5.4080 0.7647 0.9766
1.8606 5.7907 0.7920 0.9758
1.3538 6.0148 0.8028 0.9754
0.8044 6.0646 0.7967 0.9756
0.2672 6.3029 0.8215 0.9749
-0.3187 6.7568 0.8809 0.9731
-1.6461 7.1543 0.9560 0.9708
14.4053 -0.1578 1.8760 0.9435
11.7394 0.9241 1.5334 0.9536
8.9155 2.3485 1.2006 0.9635
6.2908 3.6529 0.9473 0.9711
5.5947 3.9570 0.8923 0.9727
4.3705 4.4517 0.8124 0.9751
2.3845 5.3659 0.7646 0.9766
1.9599 5.7468 0.7907 0.9758
0.3766 6.2544 0.8159 0.9750
-0.1911 6.5065 0.8477 0.9741
-1.4988 7.0887 0.9435 0.9712
2.3591 -0.9608 0.3317 0.9898
14.3143 -0.4113 1.8648 0.9439
11.7652 0.7159 1.5349 0.9536
9.1639 2.2405 1.2285 0.9627
6.4398 3.5879 0.9600 0.9707
5.7265 3.8993 0.9022 0.9724
5.0897 4.1778 0.8575 0.9738
2.9634 5.1108 0.7693 0.9765
2.4800 5.3238 0.7648 0.9766
1.0096 5.9737 0.7889 0.9759
-2.4839 1.9444 0.4108 0.9874
12.2048 0.5251 1.5908 0.9519
11.2515 1.4997 1.4781 0.9552
6.5929 3.5211 0.9733 0.9703
5.2111 4.1247 0.8654 0.9735
4.6205 4.3832 0.8293 0.9746
4.1461 4.7059 0.8167 0.9750
3.6202 4.9368 0.7972 0.9756
3.0603 5.0681 0.7710 0.9764
1.6574 5.8805 0.7956 0.9757
1.1108 5.9288 0.7855 0.9760
0.5913 6.1591 0.8057 0.9754
15.7524 -1.0140 2.0555 0.9383
13.1105 0.3308 1.7078 0.9485
9.6974 2.0085 1.2896 0.9608
5.3349 4.0705 0.8738 0.9733
4.7339 4.3335 0.8357 0.9744
4.2539 4.6586 0.8215 0.9749
2.6350 5.1682 0.7554 0.9769
2.2863 5.4017 0.6299 0.9767
1.8584 5.7839 0.6524 0.9759
1.3522 6.0077 0.6613 0.9755
-0.3090 6.5506 0.7042 0.9740
2.3461 -0.9072 0.2701 0.9899
13.7212 -0.1503 1.4735 0.9463
9.1368 2.4068 1.0146 0.9627
5.5871 3.9516 0.7348 0.9728
4.3650 4.4461 0.6691 0.9752
3.9293 4.7931 0.6655 0.9754
2.8635 5.1473 0.6325 0.9766
2.3817 5.3596 0.6298 0.9767
1.9576 5.7401 0.6512 0.9759
1.4539 5.9627 0.6590 0.9756
0.9065 6.0116 0.6528 0.9758
-1.4967 7.0785 0.7769 0.9713
14.6861 -0.4220 1.5777 0.9426
11.7351 0.7141 1.2625 0.9538
10.8793 1.6474 1.1816 0.9567
9.3909 2.2960 1.0381 0.9619
8.2169 2.8080 0.9324 0.9657
6.4911 3.6165 0.7979 0.9705
5.7726 3.9307 0.7499 0.9723
4.4708 4.3947 0.6732 0.9751
4.0346 4.7469 0.6690 0.9752
3.5144 4.9755 0.6541 0.9758
2.9599 5.1048 0.6336 0.9765
1.9963 5.5297 0.6313 0.9766
1.5549 5.9180 0.6571 0.9757
-0.0747 6.4466 0.6923 0.9744
-9.4743 -9.1490 1.4143 0.9484
14.8173 -0.6896 1.5928 0.9421
10.9943 1.4654 1.1910 0.9564
5.2043 4.1192 0.7127 0.9737
4.1410 4.7001 0.6727 0.9751
3.6159 4.9309 0.6566 0.9757
2.5726 5.2755 0.6303 0.9767
2.0920 5.4875 0.6306 0.9767
0.5905 6.1516 0.6636 0.9754
0.0396 6.3959 0.6868 0.9746
-2.4434 1.9838 0.3380 0.9874
13.0751 -2.0268 1.4208 0.9482
15.5889 -1.0035 1.6774 0.9391
13.0079 0.3282 1.3973 0.9490
9.9367 2.0581 1.0897 0.9600
8.6534 2.6176 0.9708 0.9643
7.6155 3.0704 0.8817 0.9675
6.7403 3.4472 0.8129 0.9700
6.0474 3.8105 0.7675 0.9717
5.3278 4.0651 0.7196 0.9734
4.2487 4.6529 0.6766 0.9750
3.7182 4.8859 0.6593 0.9756
2.6320 5.1621 0.6222 0.9770
1.8426 5.7346 0.5099 0.9761
1.3406 5.9564 0.5168 0.9758
0.8025 6.0499 0.5166 0.9758
-0.3086 6.5421 0.5544 0.9741
-1.6413 7.1336 0.6197 0.9710
2.3451 -0.9068 0.2128 0.9900
11.4345 -2.1986 0.9857 0.9543
11.7362 0.9238 0.9966 0.9538
10.5294 1.7864 0.9041 0.9580
9.1198 2.4023 0.7984 0.9628
4.9576 4.2191 0.5511 0.9742
4.3596 4.4406 0.5268 0.9753
3.9246 4.7874 0.5240 0.9755
2.8602 5.1413 0.4980 0.9767
1.9409 5.6912 0.5090 0.9762
1.4415 5.9118 0.5151 0.9759
0.9054 6.0044 0.5140 0.9759
0.3757 6.2389 0.5291 0.9752
-0.1906 6.4898 0.5496 0.9743
-2.5598 1.9314 0.2715 0.9872
13.0009 -0.3736 1.1010 0.9491
11.7054 0.7123 0.9927 0.9540
10.8558 1.6438 0.9294 0.9569
9.3730 2.2916 0.8168 0.9620
8.2801 2.8296 0.7407 0.9655
6.4817 3.6112 0.6281 0.9707
4.4687 4.3927 0.5304 0.9752
2.9565 5.0989 0.4989 0.9766
1.5417 5.8675 0.5136 0.9759
1.0072 5.9594 0.5116 0.9760
-1.3515 7.0049 0.6039 0.9718
-2.4810 1.9421 0.2667 0.9874
-9.4841 -9.1585 1.1161 0.9485
12.5414 -2.8772 1.0892 0.9497
11.9081 -1.6297 1.0174 0.9529
12.8032 -0.5959 1.0850 0.9498
12.1709 0.5237 1.0313 0.9523
11.2012 1.4930 0.9566 0.9557
9.6384 2.1757 0.8364 0.9611
6.5735 3.5107 0.6309 0.9705
5.1975 4.1138 0.5611 0.9737
4.6089 4.3722 0.5378 0.9748
4.1360 4.6944 0.5296 0.9752
3.6116 4.9250 0.5170 0.9758
3.0531 5.0563 0.5000 0.9766
2.5696 5.2694 0.4963 0.9767
1.1082 5.9147 0.5094 0.9761
-0.5722 6.8521 0.5821 0.9728
13.1609 0.3320 1.1145 0.9485
9.9169 2.0540 0.8573 0.9602
6.7302 3.4421 0.6399 0.9701
5.3208 4.0597 0.5666 0.9735
3.7138 4.8801 0.5191 0.9757
2.7235 5.1072 0.3589 0.9771
0.8015 6.0427 0.3780 0.9759
0.2662 6.2795 0.3897 0.9751
-0.3082 6.5337 0.4056 0.9741
11.2393 -2.1611 0.7097 0.9552
11.7346 0.9237 0.7299 0.9539
10.7443 1.8229 0.6758 0.9573
9.1029 2.3979 0.5837 0.9630
7.0530 3.2910 0.4826 0.9693
6.3230 3.6716 0.4534 0.9711
5.5721 3.9410 0.4232 0.9730
3.9199 4.7816 0.3834 0.9755
3.3242 4.8885 0.3666 0.9766
2.3762 5.3473 0.3629 0.9768
1.4504 5.9487 0.3797 0.9758
0.3753 6.2312 0.3871 0.9753
-0.8310 6.9580 0.4345 0.9723
2.3457 -0.9553 0.1571 0.9899
11.5859 -1.3763 0.7235 0.9543
8.2660 2.8248 0.5417 0.9656
5.7031 3.8834 0.4279 0.9727
4.4631 4.3873 0.3881 0.9752
4.0249 4.7354 0.3854 0.9754
2.9530 5.0930 0.3651 0.9767
2.4714 5.3053 0.3629 0.9768
1.9917 5.5170 0.3637 0.9768
1.0060 5.9523 0.3743 0.9761
-0.0745 6.4302 0.3988 0.9746
-0.6947 6.8492 0.4269 0.9728
12.4640 -2.8595 0.7930 0.9500
11.4987 -1.5737 0.7197 0.9546
11.9480 -0.5561 0.7417 0.9532
9.6197 2.1715 0.6115 0.9612
8.4806 2.7308 0.5525 0.9649
7.4078 3.1409 0.4989 0.9683
5.1907 4.1085 0.4105 0.9738
3.6074 4.9192 0.3783 0.9758
1.1068 5.9077 0.3727 0.9762
0.0395 6.3798 0.3956 0.9748
-1.2103 6.9333 0.4364 0.9722
11.4124 -1.7691 0.7161 0.9548
11.8565 -0.7632 0.7367 0.9535
12.3389 0.3113 0.7654 0.9517
8.7040 2.6329 0.5639 0.9642
7.5910 3.0606 0.5075 0.9677
6.7202 3.4370 0.4681 0.9702
3.1466 5.0077 0.3667 0.9766
2.1825 5.4327 0.3631 0.9768
2.7203 5.1013 0.2280 0.9771
1.8520 5.7638 0.2387 0.9761
0.8006 6.0355 0.2401 0.9759
-0.3078 6.5253 0.2576 0.9742
2.3440 -0.9064 0.0991 0.9900
14.4461 -2.7777 0.5801 0.9428
11.6824 -1.1775 0.4630 0.9541
12.1333 -0.1329 0.4785 0.9526
11.7330 0.9236 0.4641 0.9540
7.9712 2.8833 0.3342 0.9666
4.9449 4.2083 0.2560 0.9743
4.3489 4.4297 0.2448 0.9755
3.9153 4.7760 0.2435 0.9756
3.3203 4.8828 0.2328 0.9766
0.9032 5.9902 0.2389 0.9760
-2.5461 1.9211 0.1258 0.9873
12.0636 -2.5428 0.4861 0.9518
11.6076 -1.3789 0.4609 0.9543
12.0392 -0.3460 0.4749 0.9529
11.6609 0.7096 0.4607 0.9543
9.3377 2.2830 0.3790 0.9623
8.2521 2.8200 0.3439 0.9657
5.6954 3.8782 0.2717 0.9728
4.0201 4.7298 0.2448 0.9755
1.9894 5.5106 0.2310 0.9768
1.5495 5.8973 0.2404 0.9759
-0.0744 6.4222 0.2532 0.9746
-2.4781 1.9399 0.1241 0.9875
-9.5037 -9.1774 0.5209 0.9485
11.5333 -1.5784 0.4590 0.9545
11.9465 -0.5560 0.4716 0.9533
11.1518 1.4864 0.4436 0.9560
8.4660 2.7261 0.3507 0.9650
7.3961 3.1359 0.3168 0.9684
4.5974 4.3613 0.2499 0.9750
4.1260 4.6831 0.2461 0.9753
3.6031 4.9135 0.2403 0.9759
3.0461 5.0446 0.2324 0.9767
2.5638 5.2572 0.2306 0.9769
1.1056 5.9008 0.2367 0.9763
-2.4452 1.9852 0.1242 0.9875
11.8550 -0.7631 0.4684 0.9536
11.5150 1.3269 0.4571 0.9547
9.8776 2.0459 0.3978 0.9604
8.6887 2.6282 0.3579 0.9643
6.7103 3.4319 0.2972 0.9703
6.0223 3.7946 0.2807 0.9719
5.3069 4.0491 0.2632 0.9736
3.1430 5.0019 0.2329 0.9766
1.3458 5.9796 0.1035 0.9758
0.2656 6.2640 0.1059 0.9752
-0.3074 6.5170 0.1102 0.9742
-0.9623 6.9985 0.1193 0.9721
-1.6343 7.1030 0.1231 0.9713
18.8027 -1.8952 0.3192 0.9272
11.7314 0.9235 0.1988 0.9540
9.0695 2.3891 0.1584 0.9632
7.9580 2.8785 0.1429 0.9667
7.0316 3.2810 0.1311 0.9694
5.5572 3.9305 0.1150 0.9731
4.3436 4.4243 0.1047 0.9755
3.3165 4.8771 0.0996 0.9767
2.8503 5.1236 0.0990 0.9768
1.9486 5.7137 0.1020 0.9761
0.3743 6.2160 0.1052 0.9754
-1.4882 7.0385 0.1215 0.9716
-2.5394 1.9160 0.0537 0.9874
2.3390 -0.9526 0.0427 0.9899
11.1110 1.6825 0.1898 0.9560
9.3202 2.2787 0.1621 0.9623
8.2382 2.8153 0.1471 0.9658
7.2021 3.2059 0.1332 0.9690
5.0569 4.1509 0.1105 0.9742
4.4522 4.3765 0.1055 0.9753
4.0153 4.7242 0.1047 0.9755
3.4979 4.9522 0.1024 0.9760
2.9463 5.0813 0.0992 0.9768
2.4658 5.2932 0.0986 0.9769
1.9871 5.5043 0.0989 0.9769
0.4817 6.1687 0.1045 0.9756
-0.0743 6.4141 0.1084 0.9747
-0.6929 6.8312 0.1160 0.9729
-2.4767 1.9388 0.0531 0.9875
-9.5135 -9.1869 0.2234 0.9485
15.3080 -0.7124 0.2589 0.9405
12.1661 0.5235 0.2057 0.9525
9.5827 2.1631 0.1659 0.9615
3.0426 5.0388 0.0994 0.9767
2.5608 5.2512 0.0987 0.9769
1.1043 5.8939 0.1013 0.9763
0.5877 6.1219 0.1039 0.9757
0.0394 6.3639 0.1075 0.9749
-0.5699 6.8253 0.1157 0.9730
-1.2069 6.9143 0.1186 0.9723
-2.4461 1.9859 0.0532 0.9875
15.5057 -0.9981 0.2625 0.9397
13.1707 0.3323 0.2226 0.9487
11.4889 1.3239 0.1954 0.9548
8.6734 2.6236 0.1531 0.9644
7.5668 3.0508 0.1378 0.9679
6.7004 3.4268 0.1271 0.9703
6.1373 3.8671 0.1225 0.9714
4.7042 4.3063 0.1077 0.9748
3.7007 4.8628 0.1032 0.9758
3.1393 4.9961 0.0997 0.9767
2.6199 5.1384 0.0974 0.9772
2.1775 5.4203 0.0987 0.9769
2.7141 5.0897 -0.0325 0.9772
0.7987 6.0211 -0.0342 0.9760
0.2652 6.2564 -0.0353 0.9753
-0.9610 6.9891 -0.0397 0.9722
18.7335 -1.8883 -0.1060 0.9275
10.7365 1.8216 -0.0613 0.9574
9.0529 2.3847 -0.0527 0.9632
7.9448 2.8737 -0.0476 0.9668
6.4254 3.7310 -0.0418 0.9707
5.5498 3.9252 -0.0383 0.9732
4.9324 4.1977 -0.0365 0.9744
4.3383 4.4189 -0.0349 0.9755
3.9060 4.7647 -0.0347 0.9757
2.8471 5.1177 -0.0330 0.9768
1.9463 5.7071 -0.0339 0.9762
0.9011 5.9760 -0.0340 0.9761
-0.1896 6.4570 -0.0364 0.9745
-0.8277 6.9304 -0.0393 0.9725
-2.5363 1.9137 -0.0179 0.9874
2.3367 -0.9516 -0.0142 0.9900
11.6391 0.7083 -0.0656 0.9544
11.0874 1.6789 -0.0631 0.9561
7.1910 3.2010 -0.0443 0.9690
6.5662 3.6583 -0.0423 0.9704
4.4467 4.3711 -0.0351 0.9754
2.9429 5.0754 -0.0330 0.9768
1.9848 5.4980 -0.0329 0.9769
0.4811 6.1612 -0.0348 0.9756
-0.0742 6.4061 -0.0361 0.9747
-9.5195 -9.1927 -0.0745 0.9484
15.2596 -0.7102 -0.0860 0.9407
9.5643 2.1590 -0.0552 0.9615
8.4369 2.7167 -0.0499 0.9652
7.3730 3.1261 -0.0451 0.9685
6.5353 3.4903 -0.0417 0.9708
5.1706 4.0926 -0.0371 0.9740
4.5860 4.3505 -0.0356 0.9750
4.1162 4.6719 -0.0351 0.9754
3.0391 5.0330 -0.0331 0.9768
1.6458 5.8396 -0.0342 0.9760
0.5870 6.1145 -0.0346 0.9757
0.0394 6.3560 -0.0358 0.9749
-0.5692 6.8164 -0.0385 0.9730
-1.2053 6.9048 -0.0395 0.9724
-2.4470 1.9867 -0.0177 0.9875
13.1354 0.3314 -0.0740 0.9488
8.6582 2.6190 -0.0509 0.9645
2.6169 5.1326 -0.0324 0.9772
2.1750 5.4141 -0.0329 0.9769
2.7110 5.0838 -0.1622 0.9772
2.2706 5.3647 -0.1640 0.9770
1.8456 5.7440 -0.1699 0.9761
1.3427 5.9657 -0.1722 0.9758
0.2649 6.2487 -0.1761 0.9753
-0.3066 6.5004 -0.1832 0.9743
-1.6296 7.0828 -0.2046 0.9713
18.6648 -1.8813 -0.5282 0.9277
14.9804 -0.1641 -0.4218 0.9418
11.7282 0.9232 -0.3313 0.9540
7.9318 2.8690 -0.2375 0.9668
7.0103 3.2711 -0.2178 0.9695
6.4163 3.7257 -0.2089 0.9707
4.3330 4.4135 -0.1742 0.9756
3.9014 4.7590 -0.1733 0.9757
3.3088 4.8658 -0.1657 0.9767
2.8438 5.1118 -0.1647 0.9769
1.9441 5.7006 -0.1696 0.9762
1.4437 5.9212 -0.1716 0.9759
0.9000 5.9689 -0.1700 0.9761
-0.1894 6.4488 -0.1817 0.9745
-1.4840 7.0187 -0.2020 0.9717
2.3343 -0.9507 -0.0710 0.9900
14.8692 -0.4273 -0.4189 0.9422
11.0639 1.6753 -0.3151 0.9562
9.2853 2.2702 -0.2692 0.9625
8.3788 2.8633 -0.2493 0.9652
7.1800 3.1961 -0.2213 0.9690
6.5648 3.6575 -0.2116 0.9704
5.6725 3.8626 -0.1932 0.9729
4.4412 4.3657 -0.1754 0.9754
1.9825 5.4918 -0.1644 0.9769
1.5441 5.8769 -0.1711 0.9760
1.0013 5.9243 -0.1692 0.9762
-0.0741 6.3980 -0.1802 0.9747
-0.6911 6.8134 -0.1928 0.9730
-2.4740 1.9366 -0.0885 0.9875
-9.5331 -9.2058 -0.3732 0.9484
9.5460 2.1549 -0.2756 0.9616
7.3615 3.1212 -0.2251 0.9685
6.5284 3.4866 -0.2084 0.9708
5.9804 3.9185 -0.2013 0.9718
5.1639 4.0873 -0.1854 0.9740
4.1113 4.6663 -0.1751 0.9754
2.5550 5.2393 -0.1641 0.9769
2.0776 5.4498 -0.1642 0.9769
1.6440 5.8329 -0.1706 0.9760
-1.2036 6.8953 -0.1971 0.9724
-2.4480 1.9874 -0.0888 0.9875
13.1004 0.3305 -0.3690 0.9489
8.8203 2.6681 -0.2595 0.9638
6.6808 3.4168 -0.2113 0.9704
6.1205 3.8565 -0.2037 0.9715
5.2861 4.0333 -0.1872 0.9737
4.2179 4.6192 -0.1761 0.9753
3.6920 4.8514 -0.1717 0.9759
3.1321 4.9846 -0.1658 0.9767
2.6139 5.1267 -0.1620 0.9772
2.1725 5.4080 -0.1641 0.9769
2.7079 5.0780 -0.2919 0.9772
0.7968 6.0069 -0.3073 0.9760
-0.3062 6.4922 -0.3296 0.9743
-0.9584 6.9704 -0.3568 0.9722
2.3438 -0.9063 -0.1274 0.9900
11.4446 -2.2006 -0.5910 0.9544
18.5966 -1.8745 -0.9479 0.9279
11.7266 0.9231 -0.5965 0.9540
7.9187 2.8643 -0.4271 0.9668
5.5351 3.9148 -0.3438 0.9732
4.9199 4.1871 -0.3276 0.9745
3.8968 4.7534 -0.3117 0.9757
2.8405 5.1060 -0.2963 0.9769
1.9419 5.6941 -0.3051 0.9762
1.4421 5.9143 -0.3087 0.9759
-0.1891 6.4407 -0.3268 0.9745
-0.8255 6.9120 -0.3530 0.9725
-2.5301 1.9090 -0.1607 0.9874
2.3319 -0.9497 -0.1277 0.9900
14.8624 -0.4271 -0.7540 0.9422
11.0404 1.6718 -0.5663 0.9563
9.2680 2.2660 -0.4839 0.9625
8.3647 2.8585 -0.4483 0.9652
4.4358 4.3604 -0.3154 0.9754
3.4857 4.9350 -0.3064 0.9761
2.9361 5.0638 -0.2969 0.9768
2.4574 5.2751 -0.2951 0.9770
1.9803 5.4855 -0.2958 0.9769
1.5424 5.8701 -0.3078 0.9760
1.0001 5.9173 -0.3043 0.9763
0.4799 6.1463 -0.3127 0.9756
-0.0740 6.3900 -0.3241 0.9747
-1.3402 6.9466 -0.3588 0.9721
-9.4802 -9.1548 -0.6684 0.9486
15.1637 -0.7057 -0.7698 0.9410
11.9535 0.5143 -0.6068 0.9532
9.5278 2.1507 -0.4954 0.9616
8.5804 2.7629 -0.4572 0.9645
6.5271 3.4859 -0.3753 0.9708
5.9722 3.9131 -0.3621 0.9718
4.5747 4.3398 -0.3198 0.9751
4.1063 4.6608 -0.3150 0.9754
3.0321 5.0214 -0.2975 0.9768
2.0753 5.4436 -0.2954 0.9769
1.6421 5.8262 -0.3070 0.9760
0.0393 6.3402 -0.3215 0.9749
-0.5677 6.7987 -0.3460 0.9730
-1.2020 6.8859 -0.3545 0.9724
-2.4489 1.9882 -0.1600 0.9874
15.4773 -0.9963 -0.7865 0.9398
13.0655 0.3296 -0.6628 0.9490
11.4115 1.3150 -0.5826 0.9550
6.6710 3.4118 -0.3800 0.9704
6.1121 3.8512 -0.3664 0.9715
5.2793 4.0280 -0.3368 0.9738
2.6109 5.1209 -0.2915 0.9772
2.7048 5.0722 -0.4215 0.9772
2.2655 5.3525 -0.4262 0.9770
1.8414 5.7309 -0.4414 0.9761
1.3396 5.9519 -0.4473 0.9758
0.2643 6.2334 -0.4575 0.9753
-0.9571 6.9611 -0.5152 0.9722
-15.4844 -9.1763 -1.3197 0.9304
-14.3499 -10.3418 -1.2969 0.9315
-11.9781 -12.4195 -1.2651 0.9331
-10.7398 -13.3408 -1.2558 0.9336
-8.1517 -14.9647 -1.2495 0.9339
-5.4006 -16.3091 -1.2597 0.9334
-2.4624 -17.3769 -1.2868 0.9320
-0.9135 -17.8041 -1.3072 0.9310
0.6947 -18.1567 -1.3323 0.9297
2.3674 -18.4307 -1.3625 0.9282
11.4300 -2.1978 -0.8534 0.9544
14.9765 -0.1640 -1.0982 0.9417
11.7250 0.9230 -0.8624 0.9539
9.0034 2.3717 -0.6827 0.9633
6.9891 3.2612 -0.5655 0.9695
5.5277 3.9096 -0.4964 0.9732
4.9137 4.1818 -0.4731 0.9745
3.8921 4.7478 -0.4501 0.9757
2.3600 5.3108 -0.4261 0.9770
1.9397 5.6876 -0.4406 0.9762
1.4404 5.9075 -0.4458 0.9759
0.3725 6.1859 -0.4544 0.9755
-0.1889 6.4325 -0.4719 0.9745
-0.8244 6.9029 -0.5097 0.9725
-2.5271 1.9067 -0.2321 0.9874
-18.8729 -4.7925 -1.4277 0.9249
-14.5779 -10.1174 -1.3011 0.9313
-9.4779 -9.4839 -0.9831 0.9476
-9.7211 -14.0258 -1.2513 0.9338
-7.0702 -15.5365 -1.2516 0.9338
-5.6818 -16.1879 -1.2579 0.9335
-4.2474 -16.7705 -1.2685 0.9330
-2.7633 -17.2834 -1.2834 0.9322
0.3704 -18.0928 -1.3269 0.9300
2.0298 -18.3828 -1.3561 0.9285
3.7583 -18.5900 -1.3906 0.9268
5.5621 -18.7081 -1.4311 0.9247
19.2948 -2.2920 -1.4247 0.9250
14.8605 -0.4270 -1.0901 0.9421
9.2507 2.2617 -0.6983 0.9625
7.1579 3.1862 -0.5745 0.9691
5.6573 3.8522 -0.5018 0.9729
3.9962 4.7017 -0.4524 0.9756
3.4817 4.9292 -0.4425 0.9761
2.9328 5.0580 -0.4287 0.9768
2.4546 5.2691 -0.4262 0.9770
1.9780 5.4792 -0.4271 0.9769
1.5406 5.8634 -0.4445 0.9760
0.9989 5.9104 -0.4395 0.9762
0.4794 6.1389 -0.4515 0.9756
-0.6893 6.7955 -0.5008 0.9730
-2.4734 1.9362 -0.2303 0.9875
-13.6495 -11.0024 -1.2855 0.9321
-8.6781 -14.6647 -1.2494 0.9339
-5.9611 -16.0640 -1.2563 0.9336
-4.5361 -16.6603 -1.2660 0.9331
-3.0622 -17.1872 -1.2800 0.9324
-1.5356 -17.6431 -1.2985 0.9314
0.0485 -18.0258 -1.3217 0.9303
3.4092 -18.5557 -1.3833 0.9271
5.1975 -18.6920 -1.4225 0.9251
15.1300 -0.7041 -1.1106 0.9411
5.9641 3.9078 -0.5228 0.9718
5.1506 4.0768 -0.4816 0.9740
4.1014 4.6552 -0.4549 0.9754
2.5492 5.2273 -0.4264 0.9769
2.0729 5.4374 -0.4267 0.9769
1.6402 5.8195 -0.4433 0.9760
0.0392 6.3323 -0.4643 0.9749
-0.5670 6.7899 -0.4996 0.9730
-1.2003 6.8765 -0.5118 0.9724
-2.4498 1.9889 -0.2314 0.9874
-19.2659 -4.1693 -1.4453 0.9240
-18.2641 -5.7024 -1.4029 0.9261
-16.1439 -8.4384 -1.3357 0.9295
-15.0300 -9.6581 -1.3099 0.9309
-9.6997 -9.0391 -0.9721 0.9482
-8.9389 -14.5106 -1.2496 0.9339
-7.6096 -15.2586 -1.2502 0.9339
1.3627 -18.2772 -1.3438 0.9291
3.0631 -18.5179 -1.3762 0.9275
4.8361 -18.6723 -1.4143 0.9256
6.6885 -18.7329 -1.4585 0.9233
15.3914 -3.8203 -1.1628 0.9384
11.3859 1.3121 -0.8404 0.9551
9.7811 2.0259 -0.7324 0.9607
3.6834 4.8401 -0.4460 0.9759
2.6079 5.1150 -0.4210 0.9772
2.2629 5.3463 -0.5574 0.9769
1.3380 5.9449 -0.5850 0.9758
0.2640 6.2258 -0.5982 0.9753
-0.3054 6.4756 -0.6224 0.9743
-0.9559 6.9518 -0.6737 0.9722
-1.6227 7.0526 -0.6948 0.9713
-18.7890 5.2117 -1.8719 0.9246
-18.4391 3.3758 -1.7997 0.9274
-17.9938 1.6523 -1.7348 0.9300
-17.4649 0.0360 -1.6767 0.9322
-16.8622 -1.4782 -1.6251 0.9342
-16.1937 -2.8957 -1.5793 0.9360
-14.6855 -5.4600 -1.5042 0.9390
-12.0636 -8.6941 -1.4276 0.9420
-10.3464 -8.9649 -1.3143 0.9465
-8.4540 -10.5015 -1.2943 0.9473
-6.4218 -11.7890 -1.2888 0.9475
-5.3533 -12.3410 -1.2915 0.9474
-4.2492 -12.8319 -1.2977 0.9471
-1.9309 -13.6263 -1.3213 0.9462
0.5418 -14.1587 -1.3603 0.9447
4.5641 -14.4086 -1.4510 0.9411
11.3390 -14.4667 -1.7647 0.9288
13.0742 -13.9139 -1.8330 0.9261
14.8568 -13.2155 -1.9090 0.9232
14.9746 -0.1640 -1.4377 0.9416
11.7234 0.9228 -1.1290 0.9538
8.9870 2.3673 -0.8922 0.9633
5.5204 3.9044 -0.6491 0.9732
4.9075 4.1764 -0.6187 0.9744
3.2973 4.8489 -0.5630 0.9767
2.8340 5.0943 -0.5597 0.9768
0.4574 3.0335 -0.2945 0.9877
0.3721 6.1783 -0.5942 0.9754
-1.4778 6.9892 -0.6858 0.9717
-2.5240 1.9044 -0.3036 0.9874
-18.8459 5.5902 -1.8872 0.9240
-18.5165 3.7313 -1.8134 0.9269
-18.0893 1.9859 -1.7471 0.9295
-17.5762 0.3488 -1.6877 0.9318
-14.0244 -6.3927 -1.4797 0.9399
-12.2491 -8.5011 -1.4314 0.9418
-10.5265 -8.7983 -1.3171 0.9464
-7.6564 -11.0468 -1.2904 0.9474
-3.3382 -13.1806 -1.3054 0.9468
-2.1678 -13.5588 -1.3182 0.9463
-0.9592 -13.8722 -1.3350 0.9457
0.2890 -14.1182 -1.3557 0.9448
4.2856 -14.4145 -1.4437 0.9414
9.3247 -14.9560 -1.6921 0.9316
11.0003 -14.5603 -1.7519 0.9293
2.3272 -0.9478 -0.2412 0.9900
14.8586 -0.4270 -1.4271 0.9420
10.9128 1.6525 -1.0596 0.9566
8.3366 2.8489 -0.8458 0.9652
5.6496 3.8470 -0.6562 0.9729
3.9915 4.6961 -0.5917 0.9755
3.4776 4.9235 -0.5787 0.9761
2.9294 5.0522 -0.5607 0.9768
2.4517 5.2630 -0.5574 0.9769
1.5388 5.8566 -0.5813 0.9760
0.4788 6.1315 -0.5904 0.9756
-0.0738 6.3740 -0.6120 0.9747
-1.3365 6.9274 -0.6773 0.9720
-2.4731 1.9360 -0.3015 0.9875
-18.8985 5.9733 -1.9028 0.9234
-18.5902 4.0914 -1.8275 0.9264
-17.1099 -0.8886 -1.6448 0.9335
-16.4666 -2.3439 -1.5968 0.9353
-15.7619 -3.7055 -1.5545 0.9370
-13.3338 -7.2742 -1.4582 0.9408
-11.4910 -9.2625 -1.4170 0.9424
-9.4157 -9.0925 -1.2566 0.9488
-7.8562 -10.9154 -1.2911 0.9474
-6.8365 -11.5527 -1.2888 0.9475
-4.6921 -12.6442 -1.2948 0.9472
-1.2024 -13.8152 -1.3313 0.9458
0.0379 -14.0748 -1.3513 0.9450
2.6421 -14.3800 -1.4037 0.9429
4.0088 -14.4170 -1.4366 0.9416
7.3830 -15.2754 -1.6288 0.9341
8.9980 -15.0202 -1.6810 0.9321
10.6635 -14.6489 -1.7395 0.9298
12.3791 -14.1501 -1.8050 0.9272
11.9244 0.5131 -1.1459 0.9532
9.4914 2.1425 -0.9341 0.9617
8.5510 2.7534 -0.8625 0.9645
7.3270 3.1066 -0.7640 0.9685
6.5246 3.4846 -0.7101 0.9707
5.9122 3.8738 -0.6786 0.9720
5.1440 4.0715 -0.6298 0.9740
4.5634 4.3290 -0.6039 0.9750
4.0965 4.6496 -0.5949 0.9754
3.5779 4.8791 -0.5809 0.9760
2.5462 5.2213 -0.5577 0.9769
2.0705 5.4312 -0.5580 0.9769
1.6383 5.8128 -0.5798 0.9760
1.0978 5.8594 -0.5723 0.9763
0.5842 6.0852 -0.5869 0.9757
-0.5621 6.7312 -0.6485 0.9732
-1.1987 6.8670 -0.6692 0.9724
-2.4507 1.9897 -0.3031 0.9874
-17.7896 0.9865 -1.7105 0.9309
-15.9065 -3.4423 -1.5624 0.9367
-15.1569 -4.7323 -1.5244 0.9382
-13.5076 -7.0604 -1.4633 0.9406
-12.6152 -8.1064 -1.4396 0.9415
-11.6813 -9.0781 -1.4203 0.9423
-9.0325 -10.0702 -1.2987 0.9471
-8.0546 -10.7815 -1.2920 0.9474
-7.0418 -11.4310 -1.2890 0.9475
-5.9942 -12.0194 -1.2895 0.9475
-3.7927 -13.0127 -1.3013 0.9470
-2.6372 -13.4162 -1.3127 0.9465
2.3758 -14.3632 -1.3977 0.9432
8.6732 -15.0798 -1.6701 0.9325
18.1446 -8.1531 -1.9097 0.9232
15.3380 -3.8071 -1.5172 0.9385
12.7757 0.3223 -1.2269 0.9499
11.3088 1.3032 -1.0929 0.9553
6.0504 3.8124 -0.6866 0.9717
3.6791 4.8344 -0.5832 0.9759
2.6049 5.1091 -0.5506 0.9772
2.1651 5.3895 -0.5576 0.9769
2.6986 5.0606 -0.6813 0.9772
1.3365 5.9380 -0.7230 0.9758
-0.3051 6.4673 -0.7691 0.9743
-0.9546 6.9424 -0.8324 0.9722
-1.6204 7.0425 -0.8584 0.9713
-14.6578 12.8069 -2.3121 0.9246
-15.1179 10.9904 -2.2202 0.9275
-15.5304 4.3079 -1.9144 0.9371
-15.0646 1.3833 -1.7970 0.9409
-13.1906 -3.6003 -1.6242 0.9464
-12.5668 -4.6723 -1.5926 0.9474
-11.1677 -6.6181 -1.5420 0.9491
-10.3996 -7.4949 -1.5227 0.9497
-9.2838 -8.0442 -1.4592 0.9517
-7.3149 -9.0865 -1.3856 0.9541
-5.5597 -10.2063 -1.3806 0.9543
-4.6333 -10.6813 -1.3830 0.9542
-3.6753 -11.0990 -1.3888 0.9540
0.4667 -12.1963 -1.4498 0.9520
2.9162 -13.2108 -1.6070 0.9470
4.1709 -13.1674 -1.6407 0.9459
12.2382 -10.8862 -1.9456 0.9362
13.6367 -10.1001 -2.0158 0.9339
2.3437 -0.9063 -0.2985 0.9899
17.7060 -5.0812 -2.1881 0.9285
14.9726 -0.1640 -1.7786 0.9415
11.7218 0.9227 -1.3967 0.9537
10.0368 1.7029 -1.2093 0.9598
8.8848 2.3404 -1.0914 0.9637
6.9679 3.2513 -0.9134 0.9695
5.5130 3.8992 -0.8021 0.9732
4.9012 4.1711 -0.7645 0.9744
2.8308 5.0884 -0.6917 0.9768
2.3546 5.2986 -0.6887 0.9769
1.4371 5.8937 -0.7206 0.9759
0.3716 6.1708 -0.7343 0.9754
-0.1884 6.4162 -0.7625 0.9745
-2.5209 1.9021 -0.3751 0.9874
-15.3724 9.5709 -2.1510 0.9297
-15.6166 6.1988 -1.9958 0.9346
-15.5555 4.6141 -1.9273 0.9367
-15.3887 3.1010 -1.8647 0.9387
-15.1270 1.6607 -1.8077 0.9405
-14.7802 0.2933 -1.7560 0.9422
-14.3566 -1.0018 -1.7095 0.9437
-13.8637 -2.2255 -1.6679 0.9450
-13.3080 -3.3793 -1.6310 0.9462
-12.6950 -4.4647 -1.5985 0.9472
-11.3150 -6.4365 -1.5463 0.9489
-10.5555 -7.3257 -1.5262 0.9496
-9.6069 -8.0297 -1.4873 0.9508
-8.3331 -8.3383 -1.4003 0.9536
-5.7399 -10.1052 -1.3805 0.9543
-4.8199 -10.5915 -1.3823 0.9542
-3.8681 -11.0206 -1.3874 0.9540
-1.8711 -11.7028 -1.4078 0.9534
-0.8265 -11.9525 -1.4232 0.9529
0.2485 -12.1383 -1.4422 0.9523
1.3903 -12.5911 -1.5047 0.9503
2.6552 -13.1337 -1.5917 0.9475
5.1980 -13.0712 -1.6709 0.9449
7.8382 -12.5717 -1.7598 0.9421
11.9609 -11.0266 -1.9324 0.9366
13.3588 -10.2670 -2.0014 0.9344
14.7560 -9.3702 -2.0763 0.9320
2.3253 -0.9470 -0.2982 0.9899
18.6386 -3.9286 -2.2626 0.9261
19.3989 -2.3044 -2.3205 0.9243
11.6269 0.7075 -1.3837 0.9542
10.3576 1.5684 -1.2444 0.9587
6.5299 3.6381 -0.8879 0.9703
5.6420 3.8418 -0.8108 0.9729
5.0182 4.1191 -0.7712 0.9742
3.4735 4.9177 -0.7152 0.9760
2.4489 5.2570 -0.6889 0.9769
1.5370 5.8498 -0.7185 0.9759
0.5116 3.0272 -0.3647 0.9877
0.4782 6.1240 -0.7297 0.9756
-0.0737 6.3660 -0.7562 0.9747
-1.3347 6.9177 -0.8369 0.9720
-14.4278 13.5400 -2.3503 0.9234
-15.3184 9.9194 -2.1678 0.9291
-15.5336 8.1889 -2.0859 0.9317
-15.5764 4.9232 -1.9405 0.9363
-15.4297 3.3958 -1.8767 0.9383
-13.9668 -1.9881 -1.6758 0.9448
-12.8211 -4.2545 -1.6046 0.9470
-9.9161 -7.9930 -1.5129 0.9500
-8.5425 -8.2492 -1.4106 0.9533
-5.9188 -10.0019 -1.3805 0.9543
-4.0597 -10.9400 -1.3861 0.9541
-3.0828 -11.3226 -1.3939 0.9538
-1.0364 -11.9079 -1.4198 0.9530
0.0326 -12.1066 -1.4381 0.9524
1.1548 -12.4899 -1.4900 0.9507
2.3924 -13.0211 -1.5726 0.9481
3.6689 -13.1946 -1.6268 0.9463
6.2432 -12.9171 -1.7042 0.9438
7.5714 -12.6389 -1.7501 0.9424
10.2961 -11.7691 -1.8575 0.9390
13.0809 -10.4285 -1.9872 0.9348
14.4790 -9.5596 -2.0610 0.9325
15.8680 -8.5462 -2.1409 0.9300
15.9946 -6.8479 -2.0667 0.9323
18.4116 -4.2240 -2.2439 0.9267
11.9227 0.5130 -1.4176 0.9531
10.7294 1.4301 -1.2858 0.9573
9.2554 2.0893 -1.1271 0.9625
8.4736 2.7285 -1.0574 0.9648
6.5233 3.4839 -0.8785 0.9707
5.1373 4.0662 -0.7783 0.9740
4.0916 4.6440 -0.7352 0.9754
3.0216 5.0041 -0.6944 0.9767
1.6364 5.8061 -0.7165 0.9760
-0.5655 6.7722 -0.8072 0.9730
-1.1970 6.8576 -0.8269 0.9723
-15.2584 10.2701 -2.1848 0.9286
-15.6089 6.8476 -2.0247 0.9336
-15.5931 5.2351 -1.9538 0.9359
-15.4669 3.6934 -1.8889 0.9380
-15.2417 2.2241 -1.8297 0.9398
-14.9276 0.8277 -1.7759 0.9416
-14.5335 -0.4959 -1.7274 0.9431
-13.5359 -2.9293 -1.6451 0.9457
-10.8624 -6.9801 -1.5337 0.9493
-6.9709 -9.3310 -1.3835 0.9542
-5.1892 -10.4052 -1.3812 0.9542
-4.2499 -10.8571 -1.3850 0.9541
-2.2776 -11.5864 -1.4026 0.9535
-0.1823 -12.0815 -1.4353 0.9525
0.9238 -12.3906 -1.4759 0.9512
2.1356 -12.9111 -1.5545 0.9487
4.6866 -13.1259 -1.6556 0.9454
8.6533 -12.3427 -1.7906 0.9411
10.0221 -11.8755 -1.8458 0.9393
11.4074 -11.2923 -1.9067 0.9374
12.8031 -10.5846 -1.9733 0.9353
14.2017 -9.7434 -2.0458 0.9330
15.5934 -8.7594 -2.1245 0.9305
15.7448 -7.0748 -2.0504 0.9328
16.9873 -5.8718 -2.1350 0.9302
12.5859 0.3175 -1.4955 0.9506
11.1276 1.2823 -1.3305 0.9559
9.4620 1.9598 -1.1478 0.9618
8.6213 2.6079 -1.0699 0.9644
7.4948 3.0218 -0.9599 0.9680
4.6691 4.2742 -0.7519 0.9748
4.1976 4.5970 -0.7395 0.9752
3.1177 4.9616 -0.6961 0.9767
2.1626 5.3833 -0.6891 0.9769
2.6955 5.0547 -0.8117 0.9771
1.8350 5.7111 -0.8499 0.9761
0.3984 3.0035 -0.4293 0.9878
0.2633 6.2104 -0.8807 0.9752
-0.9463 6.8821 -0.9843 0.9723
-6.1115 18.7141 -2.7894 0.9235
-8.7541 16.2295 -2.6127 0.9282
-9.8295 14.8675 -2.5253 0.9305
-10.7432 13.4583 -2.4399 0.9328
-11.5003 12.0230 -2.3574 0.9350
-12.5752 9.1419 -2.2028 0.9391
-13.2262 4.9797 -2.0024 0.9445
-13.2246 3.6683 -1.9445 0.9461
-13.1284 2.4035 -1.8911 0.9475
-11.9511 -2.1371 -1.7202 0.9521
-9.7924 -5.8032 -1.6128 0.9551
-8.4320 -7.3061 -1.5808 0.9559
-6.1033 -9.1491 -1.5583 0.9565
-5.2581 -9.6527 -1.5574 0.9566
-1.5716 -11.0909 -1.5872 0.9558
1.4796 -11.5186 -1.6455 0.9542
3.6287 -11.4556 -1.7026 0.9526
4.7318 -11.3093 -1.7370 0.9517
6.9807 -10.7653 -1.8179 0.9495
8.1188 -10.3582 -1.8647 0.9482
9.2593 -9.8540 -1.9159 0.9468
11.5215 -8.5334 -2.0315 0.9437
2.3443 -0.9065 -0.3561 0.9899
14.5759 -4.1830 -2.1486 0.9406
16.1622 -1.6291 -2.3016 0.9365
14.9706 -0.1640 -2.1213 0.9413
11.7202 0.9226 -1.6658 0.9536
10.3035 1.7481 -1.4808 0.9587
7.6397 2.7634 -1.1511 0.9677
6.3242 3.6723 -1.0362 0.9709
4.3066 4.3866 -0.8710 0.9755
3.2896 4.8376 -0.8289 0.9766
2.8275 5.0825 -0.8241 0.9768
2.3519 5.2925 -0.8206 0.9769
1.9330 5.6679 -0.8485 0.9761
0.3711 6.1632 -0.8748 0.9754
-0.1882 6.4080 -0.9083 0.9744
-9.6289 15.1425 -2.5426 0.9301
-10.5744 13.7409 -2.4567 0.9323
-11.3620 12.3092 -2.3735 0.9346
-11.9988 10.8659 -2.2936 0.9367
-2.5179 1.8997 -0.4469 0.9873
-12.8542 8.0031 -2.1455 0.9407
-13.0915 6.6068 -2.0777 0.9425
-12.9886 1.4259 -1.8514 0.9486
-12.7423 0.2528 -1.8058 0.9498
-12.0355 -1.9320 -1.7271 0.9519
-9.9182 -5.6419 -1.6168 0.9549
-9.2673 -6.4317 -1.5983 0.9555
-7.8420 -7.8469 -1.5719 0.9562
-5.4286 -9.5572 -1.5573 0.9566
-4.5416 -9.9801 -1.5536 0.9567
-2.7250 -10.7594 -1.5726 0.9562
2.3308 -11.5288 -1.6666 0.9536
3.4117 -11.4753 -1.6963 0.9528
4.5114 -11.3447 -1.7299 0.9519
6.7554 -10.8351 -1.8092 0.9497
7.8923 -10.4466 -1.8551 0.9485
9.0328 -9.9621 -1.9054 0.9471
10.1709 -9.3764 -1.9600 0.9456
11.2993 -8.6841 -2.0192 0.9441
12.4093 -7.8800 -2.0828 0.9423
2.3243 -0.9466 -0.3556 0.9899
9.0293 2.2076 -1.3170 0.9631
7.8331 2.6769 -1.1729 0.9671
7.0288 3.1288 -1.0901 0.9694
4.4140 4.3389 -0.8770 0.9753
2.4461 5.2509 -0.8208 0.9769
1.9712 5.4603 -0.8225 0.9768
1.5352 5.8430 -0.8560 0.9759
-0.0736 6.3579 -0.9009 0.9746
-0.6894 6.7972 -0.9680 0.9728
-1.3328 6.9080 -0.9968 0.9720
-2.0444 7.1069 -1.0478 0.9706
-6.9764 18.0079 -2.7363 0.9249
-8.2813 16.7523 -2.6478 0.9273
-10.3993 14.0223 -2.4736 0.9319
-11.2178 12.5951 -2.3898 0.9341
-11.8840 11.1527 -2.3092 0.9363
-2.4726 1.9355 -0.4449 0.9874
-13.1988 5.5126 -2.0267 0.9439
-13.2370 4.1838 -1.9670 0.9455
-12.7973 0.4816 -1.8145 0.9496
-12.4915 -0.6487 -1.7723 0.9507
-12.1174 -1.7248 -1.7342 0.9518
-11.6806 -2.7461 -1.7001 0.9527
-10.0423 -5.4785 -1.6208 0.9548
-8.7153 -7.0251 -1.5861 0.9558
-7.9905 -7.7162 -1.5739 0.9561
-7.2280 -8.3524 -1.5651 0.9564
-5.5977 -9.4594 -1.5574 0.9566
-4.7202 -9.9016 -1.5542 0.9567
-2.9115 -10.6933 -1.5703 0.9562
-1.9582 -10.9908 -1.5818 0.9559
-0.9769 -11.2240 -1.5963 0.9555
0.0307 -11.3935 -1.6143 0.9550
4.2916 -11.3770 -1.7229 0.9521
5.4044 -11.1816 -1.7597 0.9511
6.5305 -10.9013 -1.8005 0.9500
9.9454 -9.5010 -1.9488 0.9459
13.2788 -7.1518 -2.1370 0.9409
15.8753 -2.1726 -2.2703 0.9373
15.0990 -0.7027 -2.1417 0.9408
11.9211 0.5129 -1.6907 0.9529
9.3175 2.1033 -1.3534 0.9621
8.0341 2.5870 -1.1959 0.9665
7.1650 3.0379 -1.1027 0.9690
6.5220 3.4832 -1.0476 0.9706
5.1306 4.0609 -0.9271 0.9739
3.5695 4.8676 -0.8553 0.9759
3.0181 4.9983 -0.8273 0.9767
0.0391 6.3086 -0.8939 0.9748
-1.1954 6.8481 -0.9850 0.9723
-6.6978 18.2452 -2.7538 0.9245
-8.0352 17.0089 -2.6654 0.9268
-11.0676 12.8803 -2.4062 0.9337
-11.7634 11.4396 -2.3249 0.9359
-2.4540 1.9923 -0.4479 0.9873
-13.2375 4.4443 -1.9785 0.9451
-12.8493 0.7125 -1.8234 0.9493
-12.1969 -1.5155 -1.7415 0.9516
-11.7721 -2.5476 -1.7066 0.9525
-11.2888 -3.5246 -1.6757 0.9533
-10.1645 -5.3130 -1.6251 0.9547
-9.5311 -6.1246 -1.6052 0.9553
-8.8545 -6.8813 -1.5889 0.9557
-8.1375 -7.5833 -1.5760 0.9561
-5.7656 -9.3594 -1.5576 0.9566
-4.8989 -9.8230 -1.5553 0.9566
-1.1739 -11.1827 -1.5932 0.9556
-0.1715 -11.3650 -1.6105 0.9551
1.9071 -11.5295 -1.6558 0.9539
2.9799 -11.5056 -1.6840 0.9531
4.0725 -11.4061 -1.7160 0.9522
5.1822 -11.2270 -1.7520 0.9513
6.3060 -10.9640 -1.7921 0.9502
10.8527 -8.9722 -1.9952 0.9447
11.9712 -8.2131 -2.0570 0.9430
13.1073 -5.8896 -2.0360 0.9436
14.0446 -4.8546 -2.1055 0.9417
12.2752 0.3097 -1.7398 0.9516
11.3090 1.3032 -1.6130 0.9551
8.2438 2.4937 -1.2203 0.9658
7.3085 2.9467 -1.1165 0.9687
5.2517 4.0070 -0.9360 0.9737
4.1925 4.5914 -0.8810 0.9752
2.5989 5.0974 -0.8107 0.9771
2.7295 5.1185 -0.9556 0.9768
2.2551 5.3279 -0.9531 0.9768
-0.8975 6.5272 -1.0854 0.9736
-4.6704 14.3015 -2.4785 0.9408
-5.7786 13.4734 -2.4151 0.9423
-8.2321 12.4513 -2.4590 0.9413
-9.0469 11.3334 -2.3890 0.9429
-9.7365 10.1791 -2.3205 0.9445
-10.3042 9.0031 -2.2542 0.9460
-11.3275 5.4661 -2.0720 0.9503
-11.3407 1.0414 -1.8761 0.9549
-11.1452 0.0230 -1.8361 0.9558
-10.1717 -2.7763 -1.7370 0.9582
-9.7340 -3.6191 -1.7108 0.9588
-9.2465 -4.4150 -1.6880 0.9593
-8.7127 -5.1632 -1.6684 0.9598
-7.5187 -6.5148 -1.6389 0.9605
-5.4506 -8.1707 -1.6181 0.9610
-2.2628 -9.6524 -1.6332 0.9606
0.3893 -10.1741 -1.6773 0.9596
1.3135 -10.2256 -1.6984 0.9591
4.1746 -9.9775 -1.7818 0.9571
5.1480 -9.7505 -1.8164 0.9563
6.1251 -9.4458 -1.8546 0.9554
7.1012 -9.0599 -1.8964 0.9544
8.0710 -8.5895 -1.9417 0.9533
9.0283 -8.0309 -1.9906 0.9522
10.8752 -6.6375 -2.0989 0.9497
11.7112 -5.7801 -2.1515 0.9484
2.3457 -0.9071 -0.4143 0.9899
12.3744 -3.5512 -2.1208 0.9491
11.4035 -2.1927 -1.9130 0.9540
7.7510 2.8036 -1.3579 0.9671
6.7605 3.1545 -1.2290 0.9702
3.8736 4.7251 -1.0066 0.9755
1.9307 5.6614 -0.9854 0.9760
1.4336 5.8796 -0.9970 0.9758
0.4347 2.8829 -0.4803 0.9883
-0.1858 6.3276 -1.0429 0.9747
-0.7751 6.4902 -1.0768 0.9739
-1.2469 5.8972 -0.9930 0.9759
-4.4381 14.4560 -2.4912 0.9405
-5.5643 13.6381 -2.4265 0.9420
-7.0883 13.7194 -2.5440 0.9393
-10.2009 9.2377 -2.2672 0.9457
-2.5154 1.8979 -0.5191 0.9873
-11.0350 6.8704 -2.1414 0.9487
-11.3709 1.2483 -1.8845 0.9547
-10.2524 -2.6034 -1.7426 0.9580
-8.8222 -5.0184 -1.6720 0.9597
-8.2536 -5.7282 -1.6551 0.9601
-7.6443 -6.3893 -1.6413 0.9604
-4.8484 -8.5357 -1.6172 0.9610
-3.2638 -9.2990 -1.6235 0.9608
-0.6935 -10.0299 -1.6563 0.9601
0.2079 -10.1563 -1.6735 0.9597
1.1285 -10.2205 -1.6939 0.9592
3.0183 -10.1520 -1.7448 0.9580
3.9821 -10.0137 -1.7753 0.9573
4.9542 -9.8016 -1.8093 0.9565
5.9309 -9.5126 -1.8467 0.9556
7.8792 -8.6898 -1.9324 0.9536
9.7816 -7.5176 -2.0323 0.9512
11.5632 -5.9651 -2.1434 0.9486
12.2386 -3.7489 -2.1086 0.9494
12.8939 -2.7178 -2.1708 0.9480
13.4709 -1.6002 -2.2348 0.9465
11.6237 0.7073 -1.9184 0.9539
9.1813 2.2448 -1.5571 0.9624
7.9730 2.7247 -1.3880 0.9664
6.9401 3.0893 -1.2515 0.9697
6.1382 3.4198 -1.1576 0.9719
5.5120 3.7533 -1.0986 0.9733
4.9741 4.0829 -1.0601 0.9742
4.3590 4.2849 -1.0070 0.9755
3.4654 4.9062 -0.9895 0.9759
1.5334 5.8361 -0.9941 0.9758
0.5139 3.0408 -0.5080 0.9876
0.4770 6.1090 -1.0095 0.9755
-0.6551 6.4583 -1.0694 0.9740
-1.1445 5.9323 -0.9953 0.9758
-2.0295 7.0551 -1.2094 0.9707
-5.3494 13.8082 -2.4395 0.9417
-8.7384 11.7827 -2.4166 0.9423
-9.4774 10.6410 -2.3475 0.9439
-10.0930 9.4719 -2.2802 0.9454
-2.4723 1.9353 -0.5172 0.9874
-10.9720 7.1049 -2.1534 0.9484
-11.2468 5.9290 -2.0945 0.9498
-11.4990 3.6345 -1.9867 0.9523
-11.4895 2.5286 -1.9381 0.9534
-11.3983 1.4568 -1.8930 0.9545
-11.2313 0.4227 -1.8515 0.9555
-10.9943 -0.5710 -1.8136 0.9564
-8.3699 -5.5911 -1.6582 0.9600
-7.7685 -6.2619 -1.6438 0.9604
-7.1284 -6.8837 -1.6325 0.9606
-5.7418 -7.9776 -1.6192 0.9609
-4.9994 -8.4483 -1.6172 0.9610
-4.2270 -8.8671 -1.6182 0.9610
0.9443 -10.2128 -1.6896 0.9593
1.8787 -10.2254 -1.7127 0.9587
6.7139 -9.2232 -1.8793 0.9548
7.6869 -8.7867 -1.9233 0.9538
8.6500 -8.2635 -1.9707 0.9527
9.5963 -7.6504 -2.0218 0.9515
11.4058 -6.1430 -2.1342 0.9488
2.3503 -1.0063 -0.4212 0.9897
13.8676 -0.6454 -2.2870 0.9453
11.9195 0.5129 -1.9654 0.9528
10.9339 1.4574 -1.8172 0.9563
9.4366 2.1302 -1.5937 0.9615
7.1269 3.0218 -1.2753 0.9691
6.2825 3.3553 -1.1733 0.9715
5.6220 3.6837 -1.1073 0.9731
5.0790 4.0201 -1.0671 0.9741
4.5463 4.3128 -1.0323 0.9749
3.5653 4.8619 -0.9932 0.9759
2.0634 5.4124 -0.9542 0.9768
1.0939 5.8387 -0.9786 0.9762
-1.0558 6.0485 -1.0115 0.9754
-1.8719 6.9717 -1.1892 0.9712
-4.9195 13.4011 -2.3517 0.9438
-8.5766 12.0049 -2.4305 0.9419
-9.3406 10.8704 -2.3611 0.9436
-9.9804 9.7056 -2.2934 0.9451
-2.4568 1.9946 -0.5213 0.9873
-10.9048 7.3398 -2.1655 0.9481
-11.3935 4.9983 -2.0496 0.9508
-11.4981 2.7457 -1.9474 0.9532
-11.4226 1.6668 -1.9017 0.9543
-10.7574 -1.3366 -1.7858 0.9570
-10.4073 -2.2522 -1.7542 0.9578
-10.0011 -3.1225 -1.7260 0.9584
-7.2584 -6.7641 -1.6345 0.9606
-6.5892 -7.3461 -1.6257 0.9608
-5.1493 -8.3589 -1.6174 0.9610
-3.5874 -9.1644 -1.6213 0.9609
-2.7650 -9.4867 -1.6279 0.9607
-1.9173 -9.7534 -1.6375 0.9605
-1.0459 -9.9630 -1.6503 0.9602
-0.1526 -10.1134 -1.6663 0.9598
0.7607 -10.2026 -1.6854 0.9594
1.6918 -10.2281 -1.7079 0.9588
2.6385 -10.1873 -1.7336 0.9582
3.5980 -10.0773 -1.7628 0.9575
4.5673 -9.8949 -1.7953 0.9568
7.4943 -8.8802 -1.9142 0.9540
9.4100 -7.7795 -2.0114 0.9517
10.3372 -7.0921 -2.0652 0.9504
11.2163 -5.0399 -2.0257 0.9514
11.9595 -4.1339 -2.0846 0.9500
12.6422 -3.1379 -2.1459 0.9486
13.2519 -2.0542 -2.2092 0.9471
13.7752 -0.8867 -2.2740 0.9456
12.2423 0.3089 -2.0174 0.9516
9.7042 2.0100 -1.6326 0.9606
8.4498 2.5560 -1.4543 0.9648
6.4308 3.2889 -1.1899 0.9711
5.7333 3.6125 -1.1164 0.9729
5.1848 3.9560 -1.0744 0.9739
3.1104 4.9501 -0.9631 0.9766
2.6824 5.0302 -1.0715 0.9771
2.2162 5.2361 -1.0687 0.9771
1.7444 5.4291 -1.0718 0.9771
0.3805 2.8687 -0.5439 0.9883
0.2551 6.0163 -1.1318 0.9758
-0.2954 6.2627 -1.1784 0.9748
-3.9653 12.1423 -2.4009 0.9493
-4.9224 11.4771 -2.3473 0.9504
-5.7902 10.7347 -2.2925 0.9516
-6.5647 9.9293 -2.2373 0.9527
-9.3858 6.8233 -2.1811 0.9539
-10.1049 3.8045 -2.0295 0.9570
-10.1636 1.8607 -1.9421 0.9588
-10.0813 0.9257 -1.9029 0.9596
-9.1173 -2.4885 -1.7764 0.9623
-8.7386 -3.2490 -1.7524 0.9628
-7.3295 -5.2823 -1.6982 0.9639
-4.9205 -7.3761 -1.6666 0.9646
-4.2396 -7.7829 -1.6658 0.9646
-2.0409 -8.7057 -1.6807 0.9643
-1.2625 -8.9096 -1.6914 0.9640
1.1800 -9.1867 -1.7409 0.9630
4.5926 -8.6985 -1.8489 0.9608
6.3051 -8.0442 -1.9211 0.9593
7.9717 -7.0911 -2.0054 0.9575
9.5417 -5.8237 -2.1011 0.9555
9.5318 -4.7045 -1.9979 0.9577
2.3471 -0.9076 -0.4730 0.9898
11.2524 -2.1636 -2.1538 0.9544
10.2700 1.7424 -1.9579 0.9585
7.8401 2.8359 -1.5671 0.9666
5.3504 3.7841 -1.2318 0.9737
4.7415 4.0352 -1.1703 0.9750
4.1989 4.2770 -1.1266 0.9759
1.3594 5.5754 -1.0787 0.9769
0.4303 2.8535 -0.5424 0.9883
0.3596 5.9706 -1.1243 0.9759
-0.1823 6.2072 -1.1672 0.9750
-0.7779 6.5134 -1.2330 0.9737
-1.3157 6.2228 -1.1955 0.9744
-8.3169 9.0103 -2.3048 0.9513
-2.5139 1.8968 -0.5919 0.9873
-9.6579 6.0131 -2.1384 0.9548
-9.9140 5.0032 -2.0873 0.9558
-10.1659 3.0154 -1.9931 0.9578
-10.1032 1.1092 -1.9104 0.9595
-9.9661 0.1978 -1.8736 0.9602
-9.5035 -1.5256 -1.8092 0.9616
-9.1866 -2.3328 -1.7815 0.9622
-8.4005 -3.8292 -1.7353 0.9631
-7.9384 -4.5157 -1.7166 0.9635
-7.4344 -5.1596 -1.7009 0.9638
-6.8912 -5.7598 -1.6881 0.9641
-5.6979 -6.8258 -1.6712 0.9645
-5.0523 -7.2896 -1.6671 0.9645
-3.6741 -8.0738 -1.6673 0.9645
-1.4187 -8.8734 -1.6890 0.9641
0.1871 -9.1381 -1.7180 0.9635
1.8541 -9.1711 -1.7587 0.9626
2.7041 -9.0954 -1.7835 0.9621
3.5611 -8.9551 -1.8114 0.9615
4.4216 -8.7478 -1.8423 0.9609
5.2815 -8.4710 -1.8763 0.9602
6.1364 -8.1223 -1.9134 0.9594
7.8096 -7.1996 -1.9965 0.9577
9.3918 -5.9639 -2.0911 0.9557
10.1091 -5.2149 -2.1380 0.9548
11.6094 -1.3791 -2.1975 0.9535
11.6221 0.7072 -2.1885 0.9537
8.0380 2.7469 -1.5966 0.9660
4.8546 3.9848 -1.1805 0.9748
4.3036 4.2304 -1.1343 0.9757
3.3317 4.7169 -1.0855 0.9768
2.8669 4.9443 -1.0743 0.9770
1.9328 5.3539 -1.0699 0.9771
0.4874 2.8837 -0.5497 0.9882
-0.0713 6.1588 -1.1577 0.9752
-0.6541 6.4486 -1.2183 0.9740
-1.1299 5.8563 -1.1211 0.9760
-5.4565 11.0379 -2.3144 0.9511
-6.2684 10.2559 -2.2593 0.9523
-6.9853 9.4190 -2.2041 0.9534
-8.1963 9.2026 -2.3163 0.9511
-2.4720 1.9351 -0.5901 0.9873
-9.5961 6.2140 -2.1488 0.9545
-10.0552 4.1997 -2.0482 0.9566
-10.1224 1.2938 -1.9181 0.9593
-9.8097 -0.5095 -1.8463 0.9608
-9.2537 -2.1755 -1.7868 0.9620
-8.4871 -3.6879 -1.7393 0.9630
-7.5377 -5.0352 -1.7038 0.9638
-7.0021 -5.6441 -1.6905 0.9641
-5.8224 -6.7281 -1.6724 0.9644
-5.1830 -7.2012 -1.6677 0.9645
-1.5741 -8.8350 -1.6868 0.9641
0.0246 -9.1219 -1.7146 0.9636
1.6864 -9.1786 -1.7541 0.9627
3.3905 -8.9882 -1.8056 0.9617
4.2506 -8.7944 -1.8360 0.9610
7.6466 -7.3050 -1.9877 0.9579
8.4577 -6.7427 -2.0331 0.9569
9.9822 -5.3762 -2.1311 0.9549
2.3363 -1.0003 -0.4777 0.9897
10.5181 -3.4276 -2.0793 0.9560
11.0573 -2.5367 -2.1323 0.9549
11.5257 -1.5774 -2.1866 0.9538
11.9129 -0.5544 -2.2416 0.9526
8.2437 2.6545 -1.6278 0.9654
6.3829 3.4089 -1.3601 0.9710
5.6224 3.6839 -1.2634 0.9730
4.0767 4.6271 -1.1591 0.9752
3.5610 4.8561 -1.1319 0.9758
2.0265 5.3156 -1.0693 0.9771
1.5512 5.5038 -1.0748 0.9770
0.5646 5.8809 -1.1105 0.9762
0.0379 6.1111 -1.1487 0.9754
-1.9113 7.1184 -1.3854 0.9704
-5.2842 11.1855 -2.3252 0.9509
-6.8506 9.5889 -2.2150 0.9532
-8.6583 8.4199 -2.2700 0.9520
-2.4596 1.9969 -0.5955 0.9872
-10.0254 4.3981 -2.0577 0.9564
-10.1783 2.4305 -1.9669 0.9583
-10.1388 1.4795 -1.9259 0.9592
-8.5718 -3.5449 -1.7435 0.9630
-8.1271 -4.2481 -1.7237 0.9634
-5.9456 -6.6286 -1.6737 0.9644
-4.6487 -7.5463 -1.6659 0.9646
-3.9565 -7.9335 -1.6663 0.9646
-3.2378 -8.2715 -1.6696 0.9645
-2.4946 -8.5590 -1.6757 0.9644
-1.7288 -8.7945 -1.6847 0.9642
-0.9423 -8.9766 -1.6965 0.9639
1.5191 -9.1838 -1.7496 0.9628
2.3655 -9.1331 -1.7733 0.9623
3.2201 -9.0187 -1.8000 0.9618
4.0796 -8.8384 -1.8297 0.9612
4.9403 -8.5895 -1.8625 0.9605
7.4828 -7.4073 -1.9790 0.9581
9.8418 -5.5285 -2.1218 0.9551
9.7930 -4.4004 -2.0180 0.9572
10.9555 -2.7193 -2.1217 0.9551
11.4388 -1.7731 -2.1757 0.9540
9.6849 2.0060 -1.8590 0.9605
7.4586 3.0072 -1.5116 0.9678
5.0878 3.8820 -1.2029 0.9743
4.5173 4.1352 -1.1511 0.9754
4.1823 4.5802 -1.1658 0.9751
3.6616 4.8115 -1.1365 0.9757
2.1851 5.1626 -1.1850 0.9773
1.7261 5.3721 -1.1927 0.9772
1.2587 5.5927 -1.2117 0.9768
0.2581 6.0884 -1.2881 0.9754
-3.4413 10.5378 -2.3432 0.9557
-4.2846 9.9900 -2.2977 0.9565
-6.3628 7.9710 -2.1559 0.9592
-6.8957 7.2091 -2.1087 0.9600
-7.9174 6.9177 -2.2224 0.9579
-8.3181 6.0471 -2.1738 0.9588
-8.6346 5.1652 -2.1268 0.9597
-9.1092 2.5268 -1.9982 0.9621
-8.9481 0.0185 -1.8914 0.9641
-8.7710 -0.7689 -1.8611 0.9646
-3.8610 -7.0880 -1.7061 0.9675
-3.2157 -7.4132 -1.7081 0.9675
-2.5470 -7.6917 -1.7127 0.9674
-1.8572 -7.9221 -1.7200 0.9673
-1.1482 -8.1030 -1.7299 0.9671
-0.4224 -8.2328 -1.7425 0.9669
1.8321 -8.2997 -1.7966 0.9658
2.6002 -8.2086 -1.8201 0.9654
3.3713 -8.0576 -1.8463 0.9649
4.1419 -7.8448 -1.8752 0.9644
7.1302 -6.3425 -2.0172 0.9617
7.8272 -5.7973 -2.0589 0.9610
8.4598 -4.1754 -1.9942 0.9622
2.3485 -0.9081 -0.5322 0.9898
10.2538 -1.0335 -2.1784 0.9587
10.5301 -0.1153 -2.2260 0.9579
10.2483 1.7387 -2.1972 0.9584
7.8268 2.8311 -1.7593 0.9665
6.9251 3.2313 -1.6153 0.9692
6.1580 3.5758 -1.5052 0.9713
5.4532 3.8569 -1.4119 0.9731
4.8093 4.0929 -1.3349 0.9745
3.2100 4.7206 -1.2067 0.9769
2.7372 4.9202 -1.1901 0.9772
1.8176 5.3297 -1.1903 0.9772
1.3527 5.5477 -1.2070 0.9769
0.4272 2.8334 -0.6057 0.9884
-0.1855 6.3175 -1.3360 0.9745
-0.7928 6.6388 -1.4133 0.9730
-3.2657 10.6373 -2.3521 0.9555
-4.1227 10.1047 -2.3069 0.9564
-4.9082 9.4999 -2.2603 0.9572
-8.5783 5.3409 -2.1360 0.9595
-8.8294 4.4558 -2.0905 0.9604
-9.0016 3.5731 -2.0472 0.9612
-9.0986 2.6989 -2.0061 0.9619
-9.0821 0.9971 -1.9313 0.9633
-8.9763 0.1781 -1.8978 0.9640
-8.8107 -0.6148 -1.8669 0.9645
-7.9914 -2.8105 -1.7906 0.9660
-6.7579 -4.6901 -1.7388 0.9669
-3.3458 -7.3523 -1.7075 0.9675
-2.6816 -7.6402 -1.7116 0.9674
-1.9958 -7.8802 -1.7183 0.9673
-0.5678 -8.2112 -1.7398 0.9669
0.1699 -8.2990 -1.7546 0.9666
0.9201 -8.3328 -1.7721 0.9663
3.2181 -8.0924 -1.8409 0.9650
3.9891 -7.8921 -1.8692 0.9645
4.7563 -7.6286 -1.9003 0.9639
5.5153 -7.3002 -1.9340 0.9633
6.2612 -6.9053 -1.9703 0.9626
8.9713 -4.6280 -2.1338 0.9596
2.3213 -0.9454 -0.5298 0.9898
9.8215 -2.0702 -2.1217 0.9598
10.4818 -0.3012 -2.2166 0.9580
10.6903 0.6505 -2.2639 0.9572
10.5581 1.5988 -2.2572 0.9573
9.1464 2.2362 -1.9903 0.9622
5.5913 3.8073 -1.4299 0.9727
4.9311 4.0477 -1.3485 0.9743
2.8298 4.8805 -1.1925 0.9772
2.3672 5.0815 -1.1850 0.9773
1.9089 5.2878 -1.1883 0.9773
1.4460 5.5034 -1.2028 0.9770
0.4848 2.8685 -0.6149 0.9882
-0.0725 6.2586 -1.3230 0.9747
-0.6665 6.5713 -1.3962 0.9734
-3.0876 10.7335 -2.3608 0.9554
-5.4828 8.9706 -2.2223 0.9579
-6.1287 8.2638 -2.1748 0.9588
-6.6938 7.5156 -2.1274 0.9597
-7.7345 7.2585 -2.2421 0.9576
-2.4717 1.9349 -0.6635 0.9872
-8.5188 5.5163 -2.1453 0.9594
-8.7859 4.6316 -2.0994 0.9602
-9.1246 2.0082 -1.9749 0.9625
-9.0956 1.1625 -1.9383 0.9632
-9.0022 0.3388 -1.9042 0.9638
-8.6373 -1.2295 -1.8442 0.9650
-8.3732 -1.9685 -1.8182 0.9654
-8.0594 -2.6744 -1.7949 0.9659
-7.2951 -3.9798 -1.7566 0.9666
-5.8510 -5.6501 -1.7193 0.9673
-4.7197 -6.5576 -1.7078 0.9675
-4.1105 -6.9461 -1.7061 0.9675
-3.4750 -7.2895 -1.7070 0.9675
-2.8153 -7.5868 -1.7105 0.9675
0.7702 -8.3305 -1.7684 0.9664
3.0648 -8.1248 -1.8356 0.9651
5.3654 -7.3707 -1.9271 0.9634
6.1143 -6.9891 -1.9629 0.9627
7.5539 -6.0221 -2.0421 0.9613
8.2321 -5.4352 -2.0852 0.9605
9.2927 -3.0283 -2.0660 0.9608
10.1221 -1.3853 -2.1595 0.9591
10.7914 1.4384 -2.3013 0.9565
8.2292 2.6498 -1.8274 0.9653
7.2691 3.0821 -1.6689 0.9682
5.7333 3.7566 -1.4489 0.9724
4.4552 4.2263 -1.2981 0.9752
4.0717 4.6214 -1.3019 0.9751
3.5568 4.8502 -1.2714 0.9757
2.4584 5.0413 -1.1856 0.9773
2.0000 5.2462 -1.1868 0.9773
1.5387 5.4596 -1.1990 0.9771
0.5521 2.9467 -0.6337 0.9878
0.0384 6.2012 -1.3108 0.9750
-0.5432 6.5057 -1.3800 0.9737
-1.0219 5.8540 -1.2561 0.9760
-1.9155 7.1338 -1.5614 0.9703
-3.7905 10.3255 -2.3250 0.9560
-4.6051 9.7481 -2.2789 0.9569
-5.3451 9.1051 -2.2318 0.9578
-6.0068 8.4078 -2.1842 0.9586
-7.6378 7.4276 -2.2520 0.9574
-2.4625 1.9992 -0.6705 0.9871
-9.1066 1.3289 -1.9453 0.9631
-9.0257 0.5005 -1.9108 0.9637
-8.4298 -1.8243 -1.8231 0.9654
-7.7741 -3.2150 -1.7783 0.9662
-6.9421 -4.4609 -1.7443 0.9668
-6.4671 -5.0260 -1.7313 0.9671
-5.9565 -5.5508 -1.7210 0.9673
-5.4124 -6.0342 -1.7134 0.9674
-2.9482 -7.5315 -1.7096 0.9675
-2.2707 -7.7907 -1.7153 0.9674
-1.5728 -8.0012 -1.7237 0.9672
-0.8568 -8.1617 -1.7347 0.9670
5.9668 -7.0702 -1.9556 0.9629
6.7022 -6.6346 -1.9934 0.9622
7.4154 -6.1305 -2.0338 0.9614
8.1001 -5.5573 -2.0764 0.9606
8.6819 -3.9011 -2.0119 0.9618
9.1968 -3.1789 -2.0569 0.9610
10.0518 -1.5581 -2.1501 0.9593
10.3752 -0.6679 -2.1977 0.9584
10.6180 0.2679 -2.2452 0.9575
10.7721 1.2413 -2.2921 0.9566
9.6655 2.0019 -2.0865 0.9604
8.4424 2.5537 -1.8644 0.9646
7.4465 3.0023 -1.6971 0.9677
6.6020 3.3765 -1.5674 0.9701
5.1834 3.9549 -1.3782 0.9737
4.5695 4.1830 -1.3095 0.9750
3.0169 4.8012 -1.1986 0.9771
0.2620 6.1793 -1.4536 0.9749
-0.9203 6.6934 -1.5879 0.9726
-1.3679 5.9454 -1.4338 0.9752
-3.0363 9.2974 -2.2987 0.9606
-4.4810 8.3075 -2.2184 0.9620
-5.6673 7.0996 -2.1350 0.9634
-7.0781 6.1844 -2.2090 0.9621
-2.6090 1.8967 -0.7583 0.9868
-7.7624 4.6435 -2.1258 0.9635
-8.1351 0.0168 -1.9119 0.9671
-7.5344 -2.0565 -1.8355 0.9684
-6.8995 -3.2943 -1.7969 0.9691
-6.5203 -3.8640 -1.7813 0.9693
-4.6530 -5.7799 -1.7439 0.9700
-2.9495 -6.7996 -1.7419 0.9700
-2.3357 -7.0534 -1.7462 0.9699
-1.7025 -7.2622 -1.7530 0.9698
-1.0521 -7.4244 -1.7623 0.9697
-0.3868 -7.5388 -1.7741 0.9695
0.2910 -7.6038 -1.7884 0.9692
1.6733 -7.5802 -1.8244 0.9686
3.7685 -7.1377 -1.8970 0.9674
4.4586 -6.8759 -1.9260 0.9669
5.1377 -6.5549 -1.9574 0.9664
5.8011 -6.1737 -1.9910 0.9658
6.4435 -5.7317 -2.0268 0.9652
7.0593 -5.2285 -2.0646 0.9645
7.6425 -4.6645 -2.1043 0.9639
7.5973 -3.7497 -1.9912 0.9658
8.4724 -2.4314 -2.0716 0.9644
9.1224 -0.9195 -2.1548 0.9630
9.3458 -0.1024 -2.1966 0.9623
9.4925 0.7472 -2.2379 0.9616
9.5566 1.6214 -2.2781 0.9610
7.8135 2.8262 -1.9528 0.9664
6.1490 3.5705 -1.6711 0.9712
5.4757 3.8728 -1.5763 0.9728
4.3086 4.3886 -1.4454 0.9750
2.3138 5.2068 -1.3391 0.9769
1.3755 5.6414 -1.3647 0.9764
0.3693 6.1325 -1.4439 0.9751
-0.1872 6.3749 -1.4989 0.9741
-0.7928 6.6380 -1.5712 0.9729
-1.2420 5.8740 -1.4110 0.9756
-2.8801 9.3811 -2.3063 0.9605
-4.3486 8.4168 -2.2266 0.9618
-6.0650 6.5706 -2.1015 0.9639
-7.9511 4.0126 -2.0932 0.9641
-8.2650 1.6655 -1.9815 0.9659
-8.2412 0.9047 -1.9485 0.9665
-8.1583 0.1619 -1.9178 0.9670
-7.8285 -1.2567 -1.8634 0.9679
-6.9701 -3.1771 -1.8003 0.9690
-4.7575 -5.6993 -1.7448 0.9700
-1.1825 -7.3959 -1.7603 0.9697
-0.5200 -7.5199 -1.7716 0.9695
0.8413 -7.6194 -1.8016 0.9690
2.9328 -7.3751 -1.8653 0.9679
4.3223 -6.9326 -1.9201 0.9670
5.0040 -6.6234 -1.9510 0.9665
6.3178 -5.8243 -2.0195 0.9653
6.9394 -5.3333 -2.0569 0.9647
7.5296 -4.7814 -2.0963 0.9640
8.7630 -1.8471 -2.1048 0.9639
8.0102 2.7374 -1.9895 0.9658
6.2927 3.5059 -1.6930 0.9708
2.8770 4.9619 -1.3480 0.9767
2.4064 5.1657 -1.3393 0.9769
1.4012 3.8813 -0.9698 0.9832
0.4752 6.0863 -1.4348 0.9752
-1.1273 5.8430 -1.3986 0.9758
-4.2137 8.5238 -2.2347 0.9617
-4.8670 7.9631 -2.1934 0.9624
-6.4175 6.0226 -2.0684 0.9645
-7.9086 4.1692 -2.1012 0.9639
-8.0944 3.3807 -2.0616 0.9646
-8.2625 1.8184 -1.9883 0.9658
-8.1793 0.3078 -1.9237 0.9669
-7.3613 -2.4428 -1.8228 0.9686
-7.0391 -3.0587 -1.8038 0.9690
-6.2735 -4.1907 -1.7731 0.9695
-5.8354 -4.7037 -1.7615 0.9697
-4.8609 -5.6171 -1.7458 0.9699
-4.3291 -6.0149 -1.7417 0.9700
-1.9562 -7.1847 -1.7500 0.9699
-1.3123 -7.3656 -1.7583 0.9697
0.7044 -7.6186 -1.7982 0.9691
1.3967 -7.6016 -1.8165 0.9687
2.0942 -7.5314 -1.8372 0.9684
2.7939 -7.4065 -1.8604 0.9680
3.4923 -7.2255 -1.8861 0.9676
7.9601 -4.2872 -2.1249 0.9635
8.3147 -2.7096 -2.0553 0.9647
8.6945 -1.9947 -2.0965 0.9640
9.0139 -1.2336 -2.1382 0.9633
9.5414 1.2717 -2.2623 0.9612
9.3813 2.1177 -2.2603 0.9613
7.2573 3.0771 -1.8526 0.9681
4.5290 4.2964 -1.4672 0.9747
4.0666 4.6157 -1.4458 0.9750
2.9719 4.9218 -1.3512 0.9767
2.4992 5.1249 -1.3400 0.9768
1.5645 5.5511 -1.3555 0.9766
0.0389 6.2765 -1.4752 0.9745
-0.5453 6.5306 -1.5402 0.9734
-5.3424 7.4779 -2.1599 0.9629
-5.8735 6.8355 -2.1181 0.9636
-2.4654 2.0016 -0.7463 0.9870
-7.5918 5.1099 -2.1508 0.9631
-8.0631 3.5373 -2.0693 0.9645
-8.2574 1.9718 -1.9952 0.9657
-8.2579 1.2050 -1.9613 0.9663
-8.1981 0.4546 -1.9297 0.9668
-7.9105 -0.9829 -1.8735 0.9678
-7.6891 -1.6640 -1.8490 0.9682
-7.4201 -2.3167 -1.8269 0.9686
-7.1064 -2.9389 -1.8074 0.9689
-6.7509 -3.5287 -1.7903 0.9692
-6.3563 -4.0845 -1.7757 0.9694
-5.9252 -4.6048 -1.7636 0.9696
-5.4600 -5.0881 -1.7540 0.9698
-4.4369 -5.9391 -1.7423 0.9700
-3.8835 -6.3042 -1.7402 0.9700
-3.3052 -6.6274 -1.7405 0.9700
-2.7039 -6.9075 -1.7434 0.9700
-2.0820 -7.1433 -1.7487 0.9699
-0.1142 -7.5711 -1.7796 0.9694
0.5678 -7.6158 -1.7949 0.9691
1.2586 -7.6092 -1.8126 0.9688
2.6549 -7.4358 -1.8556 0.9681
3.3539 -7.2660 -1.8808 0.9677
4.0485 -7.0390 -1.9084 0.9672
4.7347 -6.7534 -1.9384 0.9667
6.0635 -6.0024 -2.0052 0.9655
