ply
format ascii 1.0
element vertex 1588
property float32 x
property float32 y
property float32 z
property float32 I
end_header
3.9816 4.5482 -0.0340 0.9761
2.9139 4.8559 -0.0319 0.9776
2.4796 5.1178 -0.0320 0.9775
2.0012 5.2865 -0.0318 0.9776
1.5248 5.4545 -0.0319 0.9776
1.0751 5.7995 -0.0332 0.9767
0.5468 5.7994 -0.0328 0.9770
15.3439 0.2382 -0.0864 0.9405
9.3119 2.7121 -0.0546 0.9619
8.1420 3.1833 -0.0492 0.9656
7.0499 3.5104 -0.0443 0.9690
6.2083 3.8174 -0.0410 0.9713
5.6261 4.1940 -0.0395 0.9723
4.8036 4.2978 -0.0363 0.9745
3.7326 4.7864 -0.0342 0.9760
2.6560 5.0555 -0.0322 0.9774
2.1445 5.1519 -0.0314 0.9779
1.2575 5.7352 -0.0331 0.9768
-0.3179 6.1043 -0.0344 0.9758
-2.2477 6.7846 -0.0402 0.9718
14.5414 1.0526 -0.0821 0.9433
11.5839 1.8879 -0.0661 0.9541
8.5691 3.0326 -0.0512 0.9643
7.3976 3.3877 -0.0458 0.9680
6.4875 3.7036 -0.0421 0.9706
5.8914 4.1004 -0.0404 0.9717
5.0335 4.2167 -0.0370 0.9741
4.4218 4.4326 -0.0353 0.9753
3.3962 4.9051 -0.0336 0.9764
2.3494 5.1637 -0.0319 0.9776
1.4385 5.6714 -0.0329 0.9769
0.9384 5.8477 -0.0333 0.9766
-0.6805 6.2322 -0.0353 0.9752
-1.9769 6.6892 -0.0393 0.9725
-2.6614 1.7025 -0.0178 0.9874
6.7996 3.5935 -0.0433 0.9697
5.2724 4.1324 -0.0377 0.9736
3.5878 4.8375 -0.0339 0.9762
2.0459 5.2707 -0.0318 0.9776
1.5696 5.4387 -0.0319 0.9776
1.1137 5.7390 -0.0329 0.9769
0.5941 5.7827 -0.0327 0.9770
0.0780 5.9647 -0.0336 0.9764
-1.7251 6.6230 -0.0385 0.9730
-2.4578 6.8587 -0.0410 0.9713
3.8752 4.7288 -0.1722 0.9758
2.2696 5.1010 -0.1572 0.9779
1.3905 5.6813 -0.1647 0.9769
0.8897 5.8577 -0.1668 0.9766
-2.6394 1.6574 -0.0878 0.9876
19.1693 -0.7905 -0.5402 0.9261
10.5087 2.4236 -0.3037 0.9578
6.7073 3.6169 -0.2146 0.9700
6.0880 4.0222 -0.2055 0.9712
3.9767 4.5427 -0.1700 0.9761
2.9106 4.8503 -0.1593 0.9776
1.0739 5.7929 -0.1659 0.9767
0.5461 5.7927 -0.1638 0.9770
-1.1554 6.5779 -0.1881 0.9736
-1.7815 6.6120 -0.1928 0.9730
15.2940 0.2374 -0.4307 0.9406
11.8754 1.2493 -0.3362 0.9533
10.9184 2.1464 -0.3133 0.9564
9.2939 2.7068 -0.2726 0.9620
7.0388 3.5049 -0.2214 0.9690
6.2062 3.8161 -0.2051 0.9713
4.7974 4.2923 -0.1813 0.9746
3.2042 4.9658 -0.1664 0.9766
2.6530 5.0497 -0.1606 0.9774
2.1421 5.1460 -0.1570 0.9779
1.6968 5.3871 -0.1590 0.9777
1.2561 5.7286 -0.1651 0.9768
-0.9243 6.4966 -0.1848 0.9741
-2.2445 6.7749 -0.2010 0.9718
-2.6522 1.5773 -0.0869 0.9877
2.3541 -0.9245 -0.0712 0.9899
17.9995 -0.3066 -0.5069 0.9305
11.5812 1.8875 -0.3304 0.9541
9.8269 2.5181 -0.2856 0.9602
7.3856 3.3822 -0.2287 0.9680
5.8832 4.0947 -0.2018 0.9717
4.4162 4.4270 -0.1761 0.9753
3.8306 4.5954 -0.1685 0.9763
2.8121 4.9540 -0.1604 0.9775
2.3468 5.1578 -0.1596 0.9776
1.4369 5.6649 -0.1646 0.9769
-0.1174 6.0264 -0.1697 0.9762
-0.6797 6.2243 -0.1763 0.9753
-1.3327 6.6403 -0.1907 0.9733
11.5291 1.4956 -0.3274 0.9545
8.9282 2.8362 -0.2638 0.9632
4.0282 4.5245 -0.1706 0.9761
3.0664 5.0144 -0.1655 0.9768
2.0436 5.2648 -0.1590 0.9777
1.5678 5.4325 -0.1592 0.9776
-1.7257 6.6255 -0.1928 0.9730
-2.7295 1.5352 -0.0882 0.9875
5.8008 4.1098 -0.3605 0.9719
4.9606 4.2268 -0.3305 0.9742
4.3563 4.4407 -0.3155 0.9754
3.8705 4.7231 -0.3097 0.9758
2.2670 5.0952 -0.2828 0.9779
1.8236 5.3356 -0.2860 0.9777
0.8887 5.8510 -0.3001 0.9766
0.3600 5.8512 -0.2973 0.9768
-0.1682 6.0370 -0.3063 0.9761
-1.3934 6.6535 -0.3447 0.9731
-2.6425 1.6593 -0.1582 0.9876
14.8711 0.7155 -0.7550 0.9421
10.5062 2.4231 -0.5468 0.9577
6.0794 4.0165 -0.3695 0.9712
5.1962 4.1433 -0.3370 0.9737
4.5702 4.3650 -0.3205 0.9750
1.9967 5.2745 -0.2860 0.9777
1.0726 5.7862 -0.2984 0.9767
0.0281 5.9680 -0.3027 0.9764
-1.1540 6.5694 -0.3383 0.9736
15.2444 0.2366 -0.7732 0.9408
11.8442 1.2460 -0.6040 0.9534
10.9158 2.1459 -0.5642 0.9564
9.2759 2.7016 -0.4900 0.9620
8.2854 3.2394 -0.4512 0.9650
7.0277 3.4994 -0.3981 0.9690
5.6108 4.1826 -0.3549 0.9724
3.2004 4.9600 -0.2994 0.9766
2.1396 5.1402 -0.2824 0.9779
0.7507 5.8996 -0.3016 0.9765
-0.9231 6.4883 -0.3324 0.9741
-2.2413 6.7652 -0.3614 0.9719
2.3529 -0.9240 -0.1282 0.9899
16.1234 -0.2747 -0.8178 0.9375
14.4594 1.0467 -0.7352 0.9436
7.3736 3.3767 -0.4113 0.9680
5.8750 4.0890 -0.3630 0.9717
5.0203 4.2056 -0.3321 0.9741
3.3882 4.8936 -0.3019 0.9764
2.8089 4.9483 -0.2886 0.9775
2.3441 5.1519 -0.2871 0.9776
-1.9714 6.6705 -0.3528 0.9725
-8.7411 -10.1457 -0.6792 0.9478
11.5265 1.4952 -0.5895 0.9545
7.9841 3.3463 -0.4390 0.9659
6.7786 3.5824 -0.3888 0.9698
6.1519 3.9908 -0.3719 0.9711
4.6263 4.3451 -0.3219 0.9749
3.5793 4.8261 -0.3047 0.9762
2.5191 5.0902 -0.2880 0.9775
2.0413 5.2588 -0.2861 0.9777
1.1111 5.7259 -0.2958 0.9769
-1.7263 6.6279 -0.3473 0.9729
-2.7242 1.5322 -0.1585 0.9876
5.7978 4.1077 -0.5210 0.9719
4.9541 4.2212 -0.4772 0.9742
2.2644 5.0895 -0.4084 0.9779
1.3874 5.6683 -0.4279 0.9769
0.3596 5.8443 -0.4293 0.9768
-0.7329 6.2280 -0.4598 0.9752
-1.3915 6.6446 -0.4978 0.9731
-2.6455 1.6612 -0.2290 0.9875
-17.9029 -6.1770 -1.3886 0.9269
-15.7624 -8.8340 -1.3249 0.9301
-13.4839 -11.1155 -1.2813 0.9323
-8.5127 -14.7241 -1.2470 0.9341
-7.1761 -15.4467 -1.2488 0.9340
-5.7973 -16.1008 -1.2547 0.9337
-4.3733 -16.6867 -1.2648 0.9332
5.3558 -18.6638 -1.4237 0.9251
11.5308 -1.5135 -0.8528 0.9544
7.6331 3.2746 -0.6090 0.9672
5.1892 4.1378 -0.4866 0.9737
4.5644 4.3595 -0.4628 0.9750
3.5256 4.8378 -0.4389 0.9763
2.4711 5.1003 -0.4155 0.9775
1.0714 5.7796 -0.4310 0.9767
0.0281 5.9608 -0.4371 0.9764
-0.5218 6.1539 -0.4528 0.9755
-1.1524 6.5608 -0.4884 0.9736
-1.7766 6.5939 -0.5007 0.9730
-19.2771 -4.1166 -1.4453 0.9240
-18.2773 -5.6475 -1.4027 0.9261
-15.0531 -9.5970 -1.3090 0.9309
-13.9093 -10.7253 -1.2878 0.9320
-8.9833 -9.9308 -0.9819 0.9477
-3.4433 -17.0233 -1.2735 0.9327
-1.9373 -17.4956 -1.2907 0.9318
1.2466 -18.2214 -1.3392 0.9294
2.9348 -18.4672 -1.3710 0.9277
4.6949 -18.6278 -1.4085 0.9258
6.2022 3.8136 -0.5338 0.9712
5.6031 4.1769 -0.5124 0.9724
4.7850 4.2812 -0.4708 0.9746
3.7193 4.7693 -0.4435 0.9760
2.6469 5.0382 -0.4173 0.9774
2.1372 5.1344 -0.4078 0.9779
1.6930 5.3748 -0.4132 0.9777
0.2197 5.8934 -0.4324 0.9766
-1.5753 6.7090 -0.5053 0.9727
-2.2381 6.7555 -0.5218 0.9719
-2.6521 1.5772 -0.2262 0.9877
-14.3302 -10.3239 -1.2950 0.9316
-13.1650 -11.3984 -1.2768 0.9325
-11.9659 -12.3921 -1.2631 0.9332
-10.7321 -13.3094 -1.2536 0.9337
-9.4624 -14.1534 -1.2483 0.9340
-6.8070 -15.6306 -1.2500 0.9339
-3.9794 -16.8336 -1.2683 0.9330
-0.9518 -17.7586 -1.3040 0.9312
4.0445 -18.5795 -1.3942 0.9266
5.8536 -18.6824 -1.4355 0.9245
2.3517 -0.9235 -0.1853 0.9899
16.0661 -0.2737 -1.1782 0.9376
9.7870 2.5079 -0.7408 0.9603
5.8223 4.0523 -0.5201 0.9720
4.4051 4.4159 -0.4573 0.9753
3.8261 4.5900 -0.4381 0.9763
2.8057 4.9426 -0.4167 0.9775
1.8660 5.3138 -0.4129 0.9777
0.9351 5.8275 -0.4328 0.9766
0.4075 5.8274 -0.4283 0.9768
-1.3292 6.6228 -0.4953 0.9733
-1.9686 6.6612 -0.5093 0.9725
-19.0104 -4.5429 -1.4331 0.9246
-16.9508 -7.4311 -1.3571 0.9285
-12.4070 -12.0389 -1.2676 0.9330
-8.6865 -10.0823 -0.9758 0.9480
-7.3032 -15.3819 -1.2485 0.9340
-5.9285 -16.0424 -1.2540 0.9337
-4.5088 -16.6347 -1.2637 0.9332
1.6970 -18.2960 -1.3473 0.9290
3.4041 -18.5194 -1.3806 0.9273
19.0990 -0.9479 -1.4021 0.9262
14.8232 0.5889 -1.0877 0.9422
10.6920 2.3718 -0.8030 0.9570
8.8948 2.8256 -0.6843 0.9633
6.7682 3.5769 -0.5613 0.9698
4.6204 4.3396 -0.4648 0.9749
4.0183 4.5134 -0.4431 0.9761
3.0593 5.0028 -0.4300 0.9768
2.5162 5.0844 -0.4160 0.9775
1.5643 5.4202 -0.4136 0.9776
1.1098 5.7193 -0.4272 0.9769
-0.4685 6.1352 -0.4512 0.9756
-1.0924 6.5398 -0.4862 0.9738
-1.7270 6.6303 -0.5024 0.9729
-2.4471 6.8287 -0.5319 0.9713
-2.7209 1.5303 -0.2289 0.9876
5.7459 4.0709 -0.6760 0.9721
4.9476 4.2157 -0.6240 0.9742
3.8612 4.7117 -0.5848 0.9758
2.7570 4.9529 -0.5442 0.9775
2.2618 5.0836 -0.5342 0.9779
1.3858 5.6619 -0.5596 0.9768
0.8867 5.8375 -0.5669 0.9766
0.1792 2.9132 -0.2802 0.9883
-0.7320 6.2201 -0.6013 0.9751
-1.3897 6.6358 -0.6509 0.9731
-2.0338 6.6756 -0.6700 0.9723
-2.6486 1.6632 -0.3003 0.9875
-18.1102 2.0778 -1.7501 0.9294
-17.0143 -1.0965 -1.6368 0.9338
-16.3618 -2.5340 -1.5895 0.9356
-14.0671 -6.3079 -1.4801 0.9399
-13.2057 -7.4011 -1.4534 0.9410
-12.3018 -8.4183 -1.4311 0.9419
-9.6648 -9.5364 -1.3035 0.9469
-7.7282 -10.9754 -1.2887 0.9475
-4.5640 -12.6756 -1.2934 0.9473
-3.4386 -13.1206 -1.3022 0.9470
0.1628 -14.0732 -1.3512 0.9450
2.7647 -14.3634 -1.4043 0.9429
4.1303 -14.3931 -1.4376 0.9416
7.5109 -15.2346 -1.6307 0.9340
14.8645 0.7152 -1.4287 0.9420
11.5576 1.5978 -1.1201 0.9542
10.5010 2.4219 -1.0346 0.9576
7.6203 3.2691 -0.7961 0.9672
5.1823 4.1323 -0.6363 0.9737
3.5215 4.8321 -0.5740 0.9763
2.4683 5.0944 -0.5435 0.9775
1.9922 5.2625 -0.5402 0.9776
1.5179 5.4298 -0.5413 0.9776
1.0702 5.7729 -0.5637 0.9767
0.5442 5.7724 -0.5566 0.9770
-1.1509 6.5523 -0.6387 0.9736
-1.7741 6.5848 -0.6547 0.9730
-18.2755 2.7021 -1.7736 0.9285
-17.2360 -0.5483 -1.6556 0.9331
-15.9156 -3.3988 -1.5624 0.9367
-13.5249 -7.0115 -1.4626 0.9406
-10.7371 -9.9258 -1.4038 0.9429
-8.9444 -9.8878 -1.2800 0.9478
-8.0915 -10.7315 -1.2903 0.9474
-7.0840 -11.3811 -1.2870 0.9476
-6.0421 -11.9699 -1.2873 0.9475
-3.8531 -12.9655 -1.2986 0.9471
-2.7045 -13.3709 -1.3097 0.9467
-1.5184 -13.7129 -1.3246 0.9461
-0.2936 -13.9893 -1.3433 0.9453
0.9713 -14.1971 -1.3662 0.9444
3.6273 -14.3917 -1.4249 0.9421
8.5303 -15.0806 -1.6634 0.9327
11.8726 -14.2868 -1.7834 0.9281
15.6647 -2.5773 -1.5241 0.9382
11.8021 1.2416 -1.1393 0.9534
10.9106 2.1449 -1.0675 0.9563
9.2399 2.6911 -0.9239 0.9621
8.2567 3.2282 -0.8511 0.9650
6.2002 3.8124 -0.6988 0.9712
5.5530 4.1395 -0.6649 0.9726
4.7789 4.2757 -0.6156 0.9746
2.6439 5.0324 -0.5458 0.9774
2.1348 5.1285 -0.5333 0.9779
0.7489 5.8859 -0.5696 0.9764
0.1081 2.8996 -0.2786 0.9884
-0.3163 6.0744 -0.5840 0.9759
-1.5731 6.7000 -0.6607 0.9727
-2.2348 6.7458 -0.6822 0.9718
-18.7836 5.1710 -1.8704 0.9247
-17.9800 1.6235 -1.7332 0.9300
-16.8439 -1.4952 -1.6235 0.9343
-15.4469 -4.2273 -1.5375 0.9377
-14.6667 -5.4608 -1.5025 0.9390
-13.8382 -6.6117 -1.4724 0.9402
-12.0499 -8.6811 -1.4258 0.9421
-8.4502 -10.4795 -1.2924 0.9473
-7.4553 -11.1513 -1.2878 0.9475
-4.2628 -12.8022 -1.2954 0.9472
-0.7448 -13.8963 -1.3360 0.9456
1.7965 -14.2919 -1.3829 0.9438
3.1302 -14.3794 -1.4128 0.9426
4.5078 -14.3869 -1.4474 0.9412
9.5703 -14.8812 -1.6986 0.9314
12.9762 -13.9259 -1.8274 0.9264
14.3780 1.0408 -1.3840 0.9437
9.7671 2.5028 -0.9680 0.9603
5.8141 4.0466 -0.6801 0.9719
5.0071 4.1946 -0.6271 0.9741
4.3996 4.4104 -0.5981 0.9753
3.8238 4.5873 -0.5733 0.9763
3.3803 4.8821 -0.5701 0.9764
2.8024 4.9369 -0.5450 0.9774
1.8639 5.3078 -0.5401 0.9776
1.4320 5.6456 -0.5592 0.9769
0.9341 5.8208 -0.5660 0.9766
-0.1169 6.0045 -0.5766 0.9762
-1.3274 6.6140 -0.6476 0.9733
-1.9659 6.6518 -0.6659 0.9725
-18.8869 5.8672 -1.8987 0.9236
-18.5698 3.9950 -1.8236 0.9265
-18.1538 2.2370 -1.7560 0.9291
-14.9570 -5.0208 -1.5147 0.9386
-14.1456 -6.2013 -1.4828 0.9398
-12.3883 -8.3261 -1.4330 0.9418
-11.4476 -9.2770 -1.4146 0.9425
-9.7522 -9.4628 -1.3046 0.9469
-8.6233 -10.0090 -1.2684 0.9483
-6.8053 -11.5465 -1.2867 0.9476
-5.7540 -12.1190 -1.2880 0.9475
-4.6677 -12.6308 -1.2928 0.9473
-3.5457 -13.0814 -1.3012 0.9470
1.3209 -14.2411 -1.3731 0.9441
2.6389 -14.3565 -1.4014 0.9430
7.3621 -15.2536 -1.6261 0.9342
12.3406 -14.1399 -1.8018 0.9274
14.0992 -13.5070 -1.8745 0.9245
14.8199 0.5887 -1.4239 0.9421
10.6692 2.3667 -1.0492 0.9570
6.7577 3.5714 -0.7338 0.9698
6.0877 3.9492 -0.6967 0.9713
4.6145 4.3340 -0.6078 0.9749
3.5708 4.8146 -0.5755 0.9762
3.0558 4.9970 -0.5623 0.9767
1.5625 5.4141 -0.5410 0.9776
1.1102 5.7212 -0.5595 0.9769
0.5913 5.7558 -0.5555 0.9770
0.0776 5.9362 -0.5700 0.9764
-2.4435 6.8187 -0.6954 0.9713
-2.7176 1.5285 -0.2993 0.9875
5.7817 4.0963 -0.8417 0.9719
4.9411 4.2102 -0.7711 0.9742
4.3399 4.4240 -0.7362 0.9753
3.8565 4.7060 -0.7227 0.9758
3.3279 4.8935 -0.7030 0.9764
2.7538 4.9472 -0.6726 0.9775
1.8174 5.3174 -0.6675 0.9776
1.3842 5.6554 -0.6916 0.9768
0.8857 5.8307 -0.7005 0.9765
-1.3878 6.6270 -0.8043 0.9731
-2.0310 6.6662 -0.8278 0.9723
-15.0355 11.4301 -2.2435 0.9267
-2.6564 1.6680 -0.3726 0.9874
-15.3987 3.1781 -1.8677 0.9386
-15.1402 1.7371 -1.8102 0.9405
-14.3766 -0.9265 -1.7113 0.9436
-13.3357 -3.3051 -1.6320 0.9462
-12.7267 -4.3911 -1.5992 0.9472
-12.0655 -5.4103 -1.5707 0.9481
-10.6012 -7.2546 -1.5259 0.9496
-1.9656 -11.6589 -1.4045 0.9535
2.4390 -12.6710 -1.5328 0.9494
3.7664 -13.1249 -1.6220 0.9465
6.3502 -12.8803 -1.7058 0.9438
10.3962 -11.7126 -1.8603 0.9389
14.5712 -9.4839 -2.0652 0.9324
17.3213 -7.2906 -2.2324 0.9271
17.3056 -5.5263 -2.1579 0.9294
11.4997 -1.5094 -1.3777 0.9544
18.8773 -0.7785 -2.2443 0.9267
14.8612 0.7150 -1.7673 0.9418
9.8687 2.2760 -1.2030 0.9600
8.7230 2.8517 -1.0901 0.9637
7.6075 3.2637 -0.9833 0.9672
6.0534 3.9994 -0.8618 0.9712
4.5528 4.3483 -0.7478 0.9750
3.9573 4.5205 -0.7137 0.9761
2.8971 4.8279 -0.6688 0.9776
2.4655 5.0886 -0.6717 0.9775
1.5162 5.4236 -0.6689 0.9776
0.0280 5.9464 -0.7064 0.9763
-0.5205 6.1385 -0.7318 0.9755
-2.7689 1.5269 -0.3756 0.9873
-15.6134 6.8730 -2.0264 0.9336
-15.5966 5.2618 -1.9553 0.9358
-15.4700 3.7216 -1.8900 0.9379
-14.9312 0.8594 -1.7766 0.9415
-14.5382 -0.4625 -1.7278 0.9431
-13.5437 -2.8923 -1.6451 0.9457
-11.6199 -6.0240 -1.5547 0.9486
-7.0533 -9.3546 -1.3917 0.9539
-6.1342 -9.8550 -1.3789 0.9543
-5.2318 -10.3646 -1.3791 0.9543
-3.3325 -11.2135 -1.3896 0.9540
-1.3097 -11.8280 -1.4136 0.9532
-0.2528 -12.0429 -1.4308 0.9526
3.2648 -12.9536 -1.5868 0.9476
4.5839 -13.1171 -1.6505 0.9456
5.8732 -12.9602 -1.6902 0.9443
11.2751 -11.3369 -1.8993 0.9376
15.4537 -8.8532 -2.1156 0.9308
16.8617 -5.9961 -2.1258 0.9304
15.0464 0.2336 -1.7875 0.9412
10.4888 2.0620 -1.2698 0.9579
9.0862 2.6463 -1.1242 0.9626
8.2424 3.2226 -1.0513 0.9650
6.9945 3.4828 -0.9281 0.9690
6.1981 3.8111 -0.8643 0.9711
4.1860 4.4788 -0.7282 0.9756
3.7104 4.7579 -0.7167 0.9760
3.1892 4.9426 -0.6987 0.9766
2.1323 5.1227 -0.6591 0.9779
1.2504 5.7025 -0.6935 0.9768
0.1069 2.8673 -0.3408 0.9885
-14.6905 12.7581 -2.3112 0.9246
-2.6520 1.5772 -0.3665 0.9876
-15.5281 4.2748 -1.9131 0.9372
-15.0552 1.3594 -1.7956 0.9409
-11.1558 -6.6117 -1.5404 0.9491
-10.3895 -7.4849 -1.5210 0.9497
-9.5817 -8.2959 -1.5055 0.9502
-8.5953 -8.9015 -1.4698 0.9514
-6.4551 -9.6553 -1.3796 0.9543
-5.5645 -10.1854 -1.3787 0.9543
-4.6419 -10.6591 -1.3810 0.9542
-3.6880 -11.0759 -1.3867 0.9541
-0.6416 -11.9719 -1.4241 0.9529
0.4344 -12.1458 -1.4437 0.9522
1.5546 -12.3675 -1.4806 0.9510
4.1210 -13.1525 -1.6372 0.9460
5.3998 -13.0278 -1.6752 0.9448
12.1586 -10.9115 -1.9406 0.9363
14.9479 -9.2224 -2.0864 0.9317
18.7926 -3.7239 -2.2757 0.9257
15.9521 -0.2717 -1.8952 0.9378
14.3373 1.0378 -1.7075 0.9437
9.4698 2.4266 -1.1612 0.9614
8.5733 3.0341 -1.0803 0.9640
7.3376 3.3602 -0.9586 0.9680
6.4390 3.6759 -0.8807 0.9706
5.0005 4.1890 -0.7749 0.9741
3.8216 4.5845 -0.7090 0.9762
3.3763 4.8763 -0.7045 0.9764
2.3361 5.1343 -0.6700 0.9775
1.4304 5.6391 -0.6911 0.9768
0.9330 5.8141 -0.6995 0.9766
-0.6763 6.1930 -0.7400 0.9752
-1.9631 6.6425 -0.8228 0.9725
-15.3460 9.8164 -2.1639 0.9292
-15.1682 1.8691 -1.8154 0.9403
-14.4191 -0.8080 -1.7155 0.9435
-13.3899 -3.1998 -1.6353 0.9461
-11.4243 -6.2776 -1.5484 0.9488
-9.8809 -8.0074 -1.5107 0.9501
-5.8930 -9.9986 -1.3786 0.9543
-4.9820 -10.4930 -1.3798 0.9543
-3.0658 -11.3107 -1.3920 0.9539
-2.0614 -11.6319 -1.4032 0.9535
-1.0265 -11.8924 -1.4179 0.9531
0.0386 -12.0900 -1.4361 0.9525
1.1342 -12.2285 -1.4588 0.9517
2.3217 -12.6308 -1.5255 0.9496
3.6352 -13.0801 -1.6126 0.9468
4.9302 -13.0834 -1.6608 0.9452
6.2271 -12.9021 -1.7018 0.9439
7.5508 -12.6263 -1.7476 0.9425
11.6512 -11.1618 -1.9166 0.9371
14.4405 -9.5720 -2.0580 0.9326
18.3769 -4.2676 -2.2410 0.9268
14.8166 0.5886 -1.7614 0.9420
10.0184 2.2224 -1.2190 0.9595
8.8146 2.8001 -1.0986 0.9634
6.7473 3.5659 -0.9065 0.9697
6.1255 3.9737 -0.8673 0.9710
5.2371 4.1047 -0.7904 0.9736
4.0085 4.5023 -0.7161 0.9760
3.5665 4.8089 -0.7112 0.9762
3.0522 4.9912 -0.6949 0.9767
2.0343 5.2409 -0.6678 0.9776
-0.4673 6.1199 -0.7291 0.9756
-1.0895 6.5228 -0.7856 0.9737
-1.7283 6.6353 -0.8145 0.9728
-2.7143 1.5266 -0.3699 0.9875
-15.6090 7.0277 -2.0334 0.9334
-14.9642 0.9871 -1.7814 0.9414
4.9345 4.2046 -0.9186 0.9741
4.3345 4.4184 -0.8770 0.9753
3.3239 4.8877 -0.8375 0.9764
2.2567 5.0720 -0.7866 0.9778
1.8153 5.3113 -0.7953 0.9776
0.8846 5.8239 -0.8346 0.9765
0.1760 2.8614 -0.4062 0.9885
-1.3860 6.6181 -0.9581 0.9731
-2.0250 6.6466 -0.9845 0.9723
-8.5001 16.5561 -2.6369 0.9276
-9.6104 15.2064 -2.5488 0.9299
-13.0882 6.6716 -2.0815 0.9424
-13.2351 3.9903 -1.9586 0.9457
-13.1601 2.7161 -1.9039 0.9472
-12.9973 1.4912 -1.8537 0.9485
-12.7543 0.3181 -1.8077 0.9498
-12.0547 -1.8669 -1.7284 0.9519
-11.6099 -2.8774 -1.6948 0.9528
-11.1087 -3.8328 -1.6650 0.9536
-9.9540 -5.5787 -1.6168 0.9549
-8.6195 -7.1056 -1.5828 0.9559
-6.3279 -8.9868 -1.5573 0.9566
-5.4947 -9.5040 -1.5555 0.9566
-3.7338 -10.3700 -1.5617 0.9564
-2.8086 -10.7166 -1.5697 0.9562
-0.8746 -11.2298 -1.5960 0.9555
0.1318 -11.3922 -1.6143 0.9550
2.2166 -11.5159 -1.6616 0.9537
3.2917 -11.4709 -1.6909 0.9529
4.3858 -11.3497 -1.7240 0.9520
5.4962 -11.1483 -1.7611 0.9510
6.6199 -10.8620 -1.8023 0.9499
10.0259 -9.4450 -1.9517 0.9459
14.2810 -4.5605 -2.1241 0.9412
11.4882 -1.5079 -1.6417 0.9543
16.6091 -0.6850 -2.3553 0.9350
14.8578 0.7149 -2.1076 0.9417
3.5131 4.8206 -0.8452 0.9762
2.8937 4.8223 -0.7968 0.9775
2.4626 5.0827 -0.8002 0.9774
1.9876 5.2505 -0.7955 0.9776
1.0677 5.7596 -0.8300 0.9766
0.5429 5.7588 -0.8196 0.9769
-0.5198 6.1308 -0.8718 0.9754
-1.7692 6.5666 -0.9636 0.9729
-2.4711 6.7181 -1.0142 0.9715
-12.3193 10.0143 -2.2495 0.9379
-13.1808 5.8022 -2.0405 0.9435
-13.2390 4.4664 -1.9797 0.9451
-12.5614 -0.3996 -1.7807 0.9505
-12.2019 -1.4848 -1.7416 0.9516
-11.7789 -2.5154 -1.7066 0.9525
-10.7629 -4.4113 -1.6481 0.9541
-5.8023 -9.3218 -1.5558 0.9566
-3.1493 -10.5970 -1.5664 0.9563
-1.2352 -11.1546 -1.5902 0.9557
2.8974 -11.4959 -1.6798 0.9532
3.9848 -11.4030 -1.7115 0.9524
11.8618 -8.2824 -2.0499 0.9432
12.9570 -7.4230 -2.1158 0.9415
14.0185 -6.4453 -2.1861 0.9396
13.9511 -4.9610 -2.0980 0.9419
16.3714 -1.2100 -2.3260 0.9358
11.7967 1.2410 -1.6807 0.9532
9.0237 2.6281 -1.3317 0.9627
6.9035 3.4375 -1.0927 0.9693
2.6378 5.0208 -0.8036 0.9773
2.1299 5.1168 -0.7853 0.9779
1.6872 5.3565 -0.7957 0.9776
1.2489 5.6959 -0.8262 0.9767
-0.3156 6.0594 -0.8597 0.9758
-0.8907 6.2603 -0.8960 0.9748
-5.6323 12.9868 -2.0057 0.9444
-8.8170 16.1970 -2.6129 0.9282
-11.5360 11.9832 -2.3568 0.9350
-12.5958 9.1033 -2.2020 0.9391
-2.6519 1.5771 -0.4372 0.9876
-13.1332 6.2992 -2.0638 0.9429
-13.2297 4.9486 -2.0014 0.9445
-13.2239 3.6405 -1.9434 0.9461
-12.6756 0.0096 -1.7960 0.9501
-12.3406 -1.0955 -1.7554 0.9512
-11.4796 -3.1416 -1.6863 0.9531
-10.3972 -4.9676 -1.6327 0.9545
-9.7832 -5.7982 -1.6113 0.9551
-9.1253 -6.5742 -1.5936 0.9556
-6.9144 -8.5748 -1.5607 0.9565
-5.2635 -9.6345 -1.5555 0.9566
-4.3900 -10.0805 -1.5579 0.9566
-1.5922 -11.0712 -1.5848 0.9558
-0.6046 -11.2801 -1.6006 0.9554
0.4086 -11.4249 -1.6198 0.9549
3.5862 -11.4457 -1.6995 0.9527
4.6850 -11.3032 -1.7337 0.9518
6.9259 -10.7693 -1.8142 0.9496
9.1980 -9.8712 -1.9117 0.9470
10.3324 -9.2726 -1.9671 0.9455
11.4563 -8.5672 -2.0269 0.9438
12.5610 -7.7498 -2.0912 0.9421
2.3482 -0.9222 -0.3575 0.9899
15.9415 -0.2716 -2.2591 0.9376
14.2967 1.0349 -2.0310 0.9437
11.4635 1.8683 -1.6457 0.9542
8.1455 2.8827 -1.2243 0.9657
7.1785 3.2874 -1.1187 0.9686
6.4293 3.6704 -1.0490 0.9705
3.8193 4.5818 -0.8452 0.9762
2.7959 4.9254 -0.8025 0.9774
2.3334 5.1284 -0.7983 0.9775
1.8596 5.2957 -0.7953 0.9776
0.2012 2.8768 -0.4086 0.9884
-0.1167 5.9899 -0.8489 0.9761
-0.6754 6.1852 -0.8816 0.9752
-1.3239 6.5965 -0.9533 0.9732
-1.9603 6.6331 -0.9800 0.9724
-9.5133 15.3355 -2.5570 0.9297
-11.2808 12.5086 -2.3866 0.9342
-11.9339 11.0657 -2.3060 0.9364
-12.8195 8.2003 -2.1562 0.9404
-13.2069 5.4363 -2.0236 0.9439
-13.2374 4.1122 -1.9640 0.9455
-13.1710 2.8335 -1.9089 0.9470
-13.0161 1.6039 -1.8582 0.9484
-12.0934 -1.7693 -1.7317 0.9518
-10.6094 -4.6511 -1.6414 0.9543
-10.0123 -5.5017 -1.6187 0.9549
-6.4043 -8.9354 -1.5577 0.9566
-4.7120 -9.9245 -1.5566 0.9566
-3.8191 -10.3344 -1.5611 0.9565
-2.8966 -10.6866 -1.5688 0.9563
-1.9457 -10.9795 -1.5799 0.9560
-0.9677 -11.2113 -1.5944 0.9556
0.0364 -11.3797 -1.6124 0.9551
2.1169 -11.5164 -1.6591 0.9538
4.2825 -11.3644 -1.7207 0.9521
5.3915 -11.1707 -1.7575 0.9511
6.5140 -10.8926 -1.7983 0.9500
11.0483 -8.8371 -2.0046 0.9444
13.2483 -7.1700 -2.1344 0.9410
14.1969 -4.6649 -2.1174 0.9414
15.0638 -3.4982 -2.1912 0.9394
11.5158 1.4938 -1.6453 0.9542
8.6248 2.7399 -1.2822 0.9641
6.7091 3.5457 -1.0752 0.9698
6.1091 3.9631 -1.0318 0.9710
4.6027 4.3229 -0.8947 0.9748
4.0035 4.4968 -0.8531 0.9760
3.0486 4.9853 -0.8280 0.9767
2.0320 5.2349 -0.7956 0.9776
0.5899 5.7423 -0.8179 0.9769
0.0381 2.9093 -0.4123 0.9883
-0.4667 6.1123 -0.8686 0.9755
-1.7289 6.6377 -0.9719 0.9727
-2.4037 6.7077 -1.0096 0.9716
-9.1219 15.8329 -2.5890 0.9288
-10.1437 14.4524 -2.5018 0.9312
-11.0053 13.0323 -2.4169 0.9334
-2.7110 1.5248 -0.4407 0.9875
-13.2379 4.5899 -1.9852 0.9450
5.4726 3.8773 -1.1049 0.9732
3.8471 4.6945 -0.9999 0.9757
3.3200 4.8819 -0.9726 0.9764
2.7474 4.9357 -0.9306 0.9774
2.2861 5.1383 -0.9265 0.9775
0.8836 5.8171 -0.9693 0.9764
0.1772 2.8801 -0.4754 0.9884
-1.3075 6.2431 -1.0508 0.9745
-1.7073 5.6037 -0.9650 0.9765
-5.5440 13.6805 -2.4317 0.9419
-6.5591 12.7755 -2.3658 0.9434
-8.0364 12.7159 -2.4781 0.9408
-8.8782 11.6084 -2.4075 0.9425
-2.6726 1.6782 -0.5199 0.9873
-11.2834 5.7516 -2.0864 0.9500
-11.5037 3.4682 -1.9794 0.9525
-7.6848 -6.3351 -1.6407 0.9604
-6.3635 -7.5124 -1.6219 0.9609
-5.6515 -8.0263 -1.6171 0.9610
-4.9081 -8.4892 -1.6154 0.9610
-4.1349 -8.9005 -1.6168 0.9610
0.1173 -10.1350 -1.6697 0.9597
1.0328 -10.2055 -1.6898 0.9593
1.9656 -10.2120 -1.7132 0.9587
2.9132 -10.1518 -1.7399 0.9581
4.8411 -9.8194 -1.8035 0.9566
6.7888 -9.1824 -1.8812 0.9548
8.7184 -8.2133 -1.9732 0.9526
9.6610 -7.5957 -2.0246 0.9514
10.5788 -6.8854 -2.0794 0.9501
13.8985 -0.5732 -2.2916 0.9452
14.2948 0.6878 -2.3576 0.9436
11.5494 1.5966 -1.9207 0.9538
10.1279 2.3358 -1.7123 0.9587
8.7090 2.8471 -1.5094 0.9635
6.4479 3.4770 -1.2068 0.9707
5.1058 4.0713 -1.0758 0.9739
4.5411 4.3372 -1.0345 0.9749
3.5089 4.8148 -0.9815 0.9761
1.9853 5.2445 -0.9238 0.9775
0.0279 5.9320 -0.9772 0.9762
-1.5592 5.7871 -0.9874 0.9760
-6.2024 13.1145 -2.3899 0.9429
-7.1438 12.1629 -2.3238 0.9444
-9.3477 10.8831 -2.3634 0.9435
-2.7520 1.5177 -0.5177 0.9873
-11.4909 3.8767 -1.9978 0.9520
-11.4235 1.6890 -1.9024 0.9543
-11.0494 -0.3515 -1.8212 0.9562
-9.5531 -3.9154 -1.7008 0.9590
-9.0490 -4.6912 -1.6791 0.9595
-8.5003 -5.4193 -1.6607 0.9600
-7.2806 -6.7305 -1.6334 0.9606
-6.6149 -7.3126 -1.6244 0.9608
-5.9149 -7.8448 -1.6185 0.9610
-4.4201 -8.7566 -1.6159 0.9610
-3.6290 -9.1344 -1.6192 0.9609
-2.8109 -9.4585 -1.6255 0.9608
-1.1007 -9.9400 -1.6475 0.9603
-0.2119 -10.0939 -1.6632 0.9599
1.6237 -10.2172 -1.7043 0.9589
2.5662 -10.1816 -1.7298 0.9583
3.5217 -10.0776 -1.7586 0.9576
4.4872 -9.9019 -1.7909 0.9569
5.4593 -9.6513 -1.8267 0.9560
6.4338 -9.3225 -1.8660 0.9551
9.3198 -7.8314 -2.0054 0.9518
10.2476 -7.1553 -2.0590 0.9506
11.1450 -6.3849 -2.1160 0.9493
11.8861 -4.2267 -2.0782 0.9501
12.5754 -3.2427 -2.1394 0.9487
14.1631 0.2199 -2.3335 0.9442
10.7467 2.1127 -1.8043 0.9566
6.7795 3.3758 -1.2476 0.9698
5.9470 3.6567 -1.1501 0.9721
5.3145 3.9617 -1.0920 0.9735
4.7520 4.2517 -1.0504 0.9745
4.1755 4.4676 -1.0074 0.9755
3.1817 4.9310 -0.9668 0.9765
2.1577 5.1836 -0.9250 0.9775
1.6853 5.3503 -0.9241 0.9775
-0.3151 6.0501 -0.9980 0.9757
-2.1590 6.5167 -1.1309 0.9726
-6.8141 12.5176 -2.3479 0.9439
-9.0845 11.3010 -2.3887 0.9429
-10.7729 7.7859 -2.1897 0.9475
-2.6518 1.5771 -0.5083 0.9876
-11.4663 4.2889 -2.0168 0.9516
-11.4601 2.0776 -1.9187 0.9539
-10.8738 -0.9653 -1.7984 0.9567
-10.5470 -1.8956 -1.7653 0.9575
-10.1627 -2.7812 -1.7357 0.9582
-9.7251 -3.6209 -1.7095 0.9588
-9.2381 -4.4138 -1.6867 0.9593
-8.1298 -5.8570 -1.6507 0.9602
-7.5144 -6.5060 -1.6374 0.9605
0.3634 -10.1603 -1.6749 0.9596
8.0198 -8.6068 -1.9380 0.9534
11.6950 -5.8455 -2.1539 0.9484
12.3317 -3.6118 -2.1169 0.9492
13.5435 -1.4455 -2.2438 0.9463
14.0166 -0.2388 -2.3094 0.9448
14.2561 1.0320 -2.3547 0.9437
9.7072 2.4875 -1.6508 0.9602
8.3445 2.9531 -1.4582 0.9648
6.2285 3.5557 -1.1815 0.9713
4.9536 4.1498 -1.0646 0.9741
4.3829 4.3936 -1.0224 0.9752
3.3682 4.8648 -0.9748 0.9763
2.7927 4.9197 -0.9319 0.9773
2.3307 5.1225 -0.9271 0.9774
0.2026 2.8977 -0.4785 0.9883
-0.6687 6.1239 -1.0148 0.9753
-1.6634 5.6285 -0.9669 0.9765
-6.4688 12.8636 -2.3720 0.9433
-7.9510 12.8171 -2.4848 0.9407
-9.5325 10.5701 -2.3448 0.9439
-10.6240 8.2177 -2.2127 0.9470
-10.9973 7.0347 -2.1506 0.9485
-11.4295 4.7047 -2.0362 0.9511
-11.4861 2.4710 -1.9355 0.9535
-11.3898 1.4035 -1.8905 0.9545
-10.9777 -0.6152 -1.8113 0.9564
-9.8905 -3.3201 -1.7187 0.9586
-9.4212 -4.1302 -1.6946 0.9592
-8.9047 -4.8931 -1.6738 0.9596
-7.7432 -6.2750 -1.6419 0.9604
-7.1038 -6.8930 -1.6307 0.9607
-6.4286 -7.4616 -1.6225 0.9609
-4.2086 -8.8641 -1.6165 0.9610
-3.4100 -9.2275 -1.6206 0.9609
-1.7351 -9.7908 -1.6381 0.9605
-0.8621 -9.9876 -1.6515 0.9602
0.0323 -10.1252 -1.6680 0.9598
0.9462 -10.2015 -1.6878 0.9593
3.7823 -10.0372 -1.7670 0.9574
5.7232 -9.5701 -1.8370 0.9558
6.6975 -9.2195 -1.8773 0.9549
8.6290 -8.2665 -1.9686 0.9527
9.5736 -7.6575 -2.0196 0.9515
12.0791 -3.9691 -2.0946 0.9498
12.7504 -2.9609 -2.1564 0.9483
13.8557 -0.6877 -2.2854 0.9453
11.5131 1.4935 -1.9125 0.9540
10.2810 2.2806 -1.7349 0.9582
8.8277 2.8043 -1.5259 0.9631
7.5563 3.1670 -1.3497 0.9673
5.1591 4.0436 -1.0798 0.9738
4.5967 4.3173 -1.0389 0.9748
3.9985 4.4912 -0.9906 0.9759
3.0451 4.9794 -0.9615 0.9766
2.5047 5.0610 -0.9303 0.9774
2.0296 5.2288 -0.9240 0.9775
1.5571 5.3955 -0.9251 0.9775
1.1132 5.7365 -0.9626 0.9766
0.0774 5.9147 -0.9745 0.9763
-0.4644 6.0820 -1.0049 0.9756
-1.0347 6.1944 -1.0346 0.9749
-1.5230 5.8473 -0.9954 0.9758
-5.9299 12.8148 -2.3262 0.9444
-9.9309 9.8287 -2.3018 0.9449
-10.4600 8.6494 -2.2360 0.9465
-10.8739 7.4654 -2.1729 0.9479
-11.3803 5.1238 -2.0560 0.9507
-11.4857 3.9824 -2.0027 0.9519
-11.5014 2.8690 -1.9528 0.9531
-11.4339 1.7885 -1.9065 0.9542
-11.2892 0.7447 -1.8638 0.9552
5.4471 3.8592 -1.2548 0.9732
4.1947 4.2760 -1.1259 0.9759
3.8424 4.6887 -1.1394 0.9756
3.3160 4.8761 -1.1084 0.9763
2.7301 4.9047 -1.0551 0.9774
1.7929 5.2459 -1.0420 0.9777
0.8405 5.5337 -1.0521 0.9775
0.1678 2.7282 -0.5138 0.9889
-0.1620 5.8144 -1.0933 0.9766
-0.7066 6.0042 -1.1363 0.9757
-1.3095 6.2530 -1.2008 0.9743
-1.8187 5.9694 -1.1729 0.9749
-7.7042 8.4002 -2.1424 0.9547
-8.8497 8.0692 -2.2510 0.9524
-9.2976 7.0681 -2.1952 0.9536
-9.6487 6.0588 -2.1415 0.9547
-9.9071 5.0501 -2.0901 0.9558
-10.0773 4.0498 -2.0414 0.9568
-9.9732 0.2488 -1.8752 0.9602
-9.5172 -1.4739 -1.8102 0.9616
-9.2037 -2.2811 -1.7823 0.9621
-7.9670 -4.4651 -1.7166 0.9635
-7.4670 -5.1098 -1.7007 0.9638
-6.3526 -6.2682 -1.6775 0.9643
-5.7433 -6.7802 -1.6702 0.9645
-5.1022 -7.2460 -1.6657 0.9646
-4.4314 -7.6648 -1.6641 0.9646
-3.7330 -8.0354 -1.6654 0.9646
-2.2611 -8.6275 -1.6764 0.9644
0.1055 -9.1209 -1.7145 0.9636
0.9284 -9.1733 -1.7330 0.9632
3.4644 -8.9654 -1.8066 0.9616
4.3221 -8.7666 -1.8372 0.9610
5.1797 -8.4991 -1.8708 0.9603
7.7059 -7.2595 -1.9899 0.9578
8.5134 -6.6934 -2.0355 0.9569
9.2923 -6.0481 -2.0840 0.9559
10.5544 -3.3704 -2.0825 0.9559
11.4799 -1.5068 -2.1763 0.9540
11.9359 -0.4922 -2.2454 0.9525
12.2265 0.5883 -2.3008 0.9514
11.5467 1.5962 -2.1910 0.9537
10.1062 2.3308 -1.9494 0.9587
6.5799 3.5482 -1.4051 0.9700
5.7242 3.7818 -1.2895 0.9725
5.0009 3.9876 -1.2022 0.9743
4.4002 4.2026 -1.1437 0.9755
3.8631 4.4128 -1.1024 0.9764
3.5046 4.8090 -1.1185 0.9761
2.9019 4.8358 -1.0600 0.9773
1.9640 5.1880 -1.0427 0.9777
1.4935 5.3426 -1.0427 0.9777
1.0168 5.4848 -1.0485 0.9776
0.0271 5.7484 -1.0805 0.9769
-0.5031 5.9333 -1.1192 0.9761
-2.4934 6.7788 -1.3576 0.9710
-5.2945 11.1948 -2.3277 0.9508
-6.1229 10.4248 -2.2724 0.9520
-6.8570 9.5976 -2.2171 0.9531
-9.1457 7.4345 -2.2153 0.9532
-9.5316 6.4271 -2.1608 0.9543
-10.1418 3.4215 -2.0118 0.9574
-10.1782 2.4486 -1.9677 0.9583
-9.8545 -0.3135 -1.8532 0.9607
-9.6179 -1.1704 -1.8211 0.9613
-8.9775 -2.7739 -1.7661 0.9625
-8.5812 -3.5171 -1.7432 0.9630
-5.9692 -6.5988 -1.6725 0.9644
-5.3395 -7.0816 -1.6670 0.9645
-2.5364 -8.5348 -1.6735 0.9644
-1.7744 -8.7726 -1.6823 0.9642
-0.1908 -9.0875 -1.7085 0.9637
0.6267 -9.1610 -1.7259 0.9633
4.0092 -8.8469 -1.8257 0.9612
4.8673 -8.6047 -1.8582 0.9606
8.2219 -6.9089 -2.0186 0.9572
9.0121 -6.2926 -2.0660 0.9562
9.7687 -5.5964 -2.1161 0.9552
10.4773 -4.8172 -2.1675 0.9542
10.3438 -3.6783 -2.0635 0.9563
11.3930 -1.8745 -2.1702 0.9541
11.8065 -0.8726 -2.2252 0.9530
12.1319 0.1883 -2.2806 0.9518
11.6578 1.2264 -2.2033 0.9534
10.7224 2.1079 -2.0540 0.9565
7.9519 3.1090 -1.6048 0.9658
6.9422 3.4568 -1.4577 0.9689
6.0184 3.7006 -1.3280 0.9717
4.6124 4.1267 -1.1633 0.9751
4.0461 4.3291 -1.1138 0.9762
3.1779 4.9251 -1.1017 0.9764
1.6656 5.2878 -1.0420 0.9777
-0.8622 6.0601 -1.1505 0.9754
-1.8825 5.6822 -1.1251 0.9759
-4.9695 11.4587 -2.3476 0.9504
-6.6004 9.9050 -2.2372 0.9527
-7.2736 9.0483 -2.1821 0.9538
-9.4021 6.7952 -2.1804 0.9539
-2.6518 1.5771 -0.5799 0.9875
-9.9617 4.7781 -2.0766 0.9560
-10.1088 3.7812 -2.0286 0.9570
-10.1739 2.8008 -1.9834 0.9580
-10.1618 1.8423 -1.9412 0.9588
-10.0775 0.9099 -1.9019 0.9597
-9.7110 -0.8620 -1.8325 0.9611
-9.4376 -1.6962 -1.8023 0.9617
-7.3248 -5.2770 -1.6968 0.9639
-6.1909 -6.4114 -1.6752 0.9644
-5.5727 -6.9109 -1.6687 0.9645
-4.2449 -7.7700 -1.6642 0.9646
-3.5394 -8.1274 -1.6662 0.9646
-2.0547 -8.6919 -1.6788 0.9643
-1.2794 -8.8963 -1.6894 0.9641
-0.4848 -9.0465 -1.7028 0.9638
0.3269 -9.1409 -1.7192 0.9635
1.1536 -9.1774 -1.7386 0.9631
1.9927 -9.1540 -1.7609 0.9626
2.8413 -9.0683 -1.7862 0.9621
4.5545 -8.7010 -1.8460 0.9608
5.4114 -8.4144 -1.8804 0.9601
6.2627 -8.0559 -1.9179 0.9593
7.1032 -7.6231 -1.9585 0.9585
8.7275 -6.5265 -2.0484 0.9566
10.2281 -5.1123 -2.1493 0.9545
10.7057 -3.1355 -2.0968 0.9556
12.0242 -0.2048 -2.2604 0.9522
12.2880 0.8895 -2.3157 0.9511
9.6872 2.4823 -1.8796 0.9601
8.3644 2.9602 -1.6677 0.9645
6.3323 3.6150 -1.3705 0.9708
5.5168 3.8396 -1.2634 0.9730
3.8147 4.5763 -1.1198 0.9760
3.3642 4.8589 -1.1108 0.9762
2.7742 4.8872 -1.0563 0.9774
2.3053 5.0667 -1.0463 0.9776
0.8860 5.5213 -1.0511 0.9775
0.1929 2.7584 -0.5197 0.9888
-0.1129 5.7973 -1.0899 0.9767
-0.6536 5.9857 -1.1318 0.9758
-1.6501 5.5833 -1.0943 0.9766
-5.5280 10.9927 -2.3128 0.9512
-6.3311 10.2059 -2.2574 0.9523
-7.6516 8.4845 -2.1475 0.9546
-8.8026 8.1623 -2.2564 0.9523
-9.2597 7.1625 -2.2004 0.9535
-10.1594 3.1560 -1.9996 0.9576
-10.1163 1.2466 -1.9158 0.9594
-9.7963 -0.5490 -1.8442 0.9609
-9.2354 -2.2070 -1.7848 0.9621
-8.8749 -2.9792 -1.7596 0.9626
-8.0118 -4.4024 -1.7183 0.9635
-6.9801 -5.6566 -1.6887 0.9641
-6.4081 -6.2179 -1.6783 0.9643
-5.8018 -6.7341 -1.6707 0.9645
-5.1636 -7.2043 -1.6660 0.9646
-4.4955 -7.6275 -1.6642 0.9646
-3.7996 -8.0028 -1.6651 0.9646
-3.0779 -8.3288 -1.6690 0.9645
-2.3322 -8.6043 -1.6756 0.9644
-0.7767 -8.9981 -1.6976 0.9639
0.0291 -9.1131 -1.7129 0.9636
0.8506 -9.1709 -1.7312 0.9632
2.5310 -9.1069 -1.7766 0.9623
3.3841 -8.9806 -1.8039 0.9617
5.9533 -8.1951 -1.9039 0.9596
6.7984 -7.7897 -1.9433 0.9588
7.6290 -7.3085 -1.9858 0.9579
8.4388 -6.7498 -2.0311 0.9570
9.2207 -6.1120 -2.0793 0.9560
9.9667 -5.3940 -2.1301 0.9549
11.0420 -2.5642 -2.1307 0.9549
11.5104 1.4931 -2.1816 0.9539
8.8109 2.7990 -1.7377 0.9631
6.6687 3.5244 -1.4177 0.9698
5.0628 3.9681 -1.2091 0.9742
3.0414 4.9736 -1.0958 0.9766
2.4760 5.0031 -1.0492 0.9775
2.0079 5.1728 -1.0430 0.9777
1.5379 5.3287 -1.0425 0.9777
1.0619 5.4720 -1.0477 0.9776
0.3064 2.9821 -0.5635 0.9879
-0.4517 5.9154 -1.1151 0.9761
-6.0492 10.4997 -2.2776 0.9519
-7.4394 8.8096 -2.1673 0.9542
-9.1045 7.5285 -2.2206 0.9531
-9.4995 6.5218 -2.1658 0.9542
-2.7044 1.5210 -0.5832 0.9875
-10.0099 4.5068 -2.0634 0.9563
-10.1344 3.5138 -2.0161 0.9573
-10.1780 2.5389 -1.9717 0.9582
-10.0428 0.6625 -1.8918 0.9599
3.3120 4.8702 -1.2450 0.9762
2.2129 4.9737 -1.1507 0.9780
0.8298 5.4632 -1.1681 0.9777
0.1671 2.7157 -0.5751 0.9889
-0.1634 5.8665 -1.2405 0.9763
-1.7892 5.8727 -1.2977 0.9752
-5.6015 8.8631 -2.2163 0.9580
-6.2324 8.1490 -2.1686 0.9589
-8.2338 6.2594 -2.1863 0.9586
-8.8219 4.4969 -2.0931 0.9603
-9.0848 1.0423 -1.9329 0.9633
-8.9819 0.2240 -1.8992 0.9639
-8.6009 -1.3320 -1.8397 0.9650
-7.2359 -4.0554 -1.7534 0.9667
-6.7876 -4.6449 -1.7385 0.9669
-6.3020 -5.1951 -1.7264 0.9672
-5.7818 -5.7050 -1.7170 0.9673
-5.2292 -6.1734 -1.7102 0.9675
-3.3998 -7.3181 -1.7057 0.9675
-0.6380 -8.1921 -1.7369 0.9670
0.0958 -8.2849 -1.7514 0.9667
0.8425 -8.3243 -1.7686 0.9664
3.1315 -8.1037 -1.8364 0.9651
3.9003 -7.9112 -1.8645 0.9646
6.1699 -6.9512 -1.9647 0.9627
8.9144 -4.7284 -2.1330 0.9596
2.3541 -0.9909 -0.5399 0.9896
9.7664 -2.1820 -2.1153 0.9599
10.8009 1.4932 -2.3048 0.9564
8.6760 2.8363 -1.9294 0.9634
7.5560 3.2416 -1.7380 0.9669
6.6249 3.5725 -1.5910 0.9697
5.0966 4.0639 -1.3779 0.9737
3.5004 4.8031 -1.2563 0.9760
2.8493 4.7482 -1.1705 0.9776
2.3810 4.9142 -1.1543 0.9779
1.0011 5.4005 -1.1610 0.9778
0.2669 2.8315 -0.6012 0.9884
-1.1016 6.2710 -1.3459 0.9743
-1.5057 5.5887 -1.2235 0.9766
-5.3516 9.1116 -2.2337 0.9577
-6.5914 7.6741 -2.1384 0.9595
-7.0901 6.9006 -2.0914 0.9604
-8.4562 5.7020 -2.1559 0.9592
-2.7374 1.5096 -0.6608 0.9873
-9.1218 2.1944 -1.9832 0.9624
-9.1067 1.3465 -1.9459 0.9631
-8.8853 -0.2826 -1.8791 0.9643
-8.1322 -2.5128 -1.7992 0.9658
-7.3896 -3.8309 -1.7594 0.9665
-6.9555 -4.4344 -1.7436 0.9668
-6.4832 -4.9991 -1.7305 0.9671
-4.2618 -6.8469 -1.7048 0.9676
-3.6346 -7.2005 -1.7050 0.9676
-2.9830 -7.5085 -1.7078 0.9675
-2.3090 -7.7695 -1.7133 0.9674
-0.1733 -8.2572 -1.7458 0.9668
0.5690 -8.3162 -1.7620 0.9665
2.0841 -8.2688 -1.8025 0.9657
6.6350 -6.6713 -1.9889 0.9623
9.1468 -3.2526 -2.0520 0.9611
10.0146 -1.6477 -2.1453 0.9594
10.3464 -0.7647 -2.1930 0.9585
10.5989 0.1645 -2.2407 0.9576
9.1495 2.6648 -2.0144 0.9618
6.1112 3.7576 -1.5164 0.9711
4.6745 4.1823 -1.3259 0.9747
3.6923 4.7347 -1.2692 0.9758
2.5503 4.8543 -1.1591 0.9778
2.0886 5.0176 -1.1488 0.9780
1.6313 5.1790 -1.1478 0.9780
1.1711 5.3409 -1.1558 0.9779
0.7015 5.5136 -1.1749 0.9775
0.1006 2.6976 -0.5706 0.9890
-1.5153 6.4537 -1.4013 0.9733
-6.3894 7.9484 -2.1557 0.9592
-6.9177 7.1858 -2.1084 0.9600
-7.3651 6.3963 -2.0620 0.9609
-2.6530 1.5778 -0.6525 0.9875
-8.8768 4.2577 -2.0810 0.9605
-9.0306 3.3779 -2.0381 0.9613
-9.1199 1.6534 -1.9592 0.9628
-8.9437 0.0068 -1.8905 0.9641
-7.9154 -2.9471 -1.7854 0.9661
-7.5378 -3.6014 -1.7659 0.9664
-7.1183 -4.2188 -1.7491 0.9667
-5.6352 -5.8360 -1.7148 0.9674
-4.4839 -6.7069 -1.7054 0.9676
-3.8662 -7.0768 -1.7046 0.9676
-3.2233 -7.4016 -1.7065 0.9675
-2.5572 -7.6798 -1.7110 0.9674
-1.8700 -7.9104 -1.7182 0.9673
0.2969 -8.3009 -1.7558 0.9666
1.0465 -8.3255 -1.7737 0.9663
1.8056 -8.2944 -1.7943 0.9659
4.1082 -7.8484 -1.8725 0.9644
4.8722 -7.5760 -1.9040 0.9638
6.3691 -6.8353 -1.9749 0.9625
7.0914 -6.3641 -2.0141 0.9618
2.3474 -0.9219 -0.5331 0.9897
10.7144 0.7756 -2.2707 0.9570
7.2891 3.3380 -1.6946 0.9678
5.6298 3.9183 -1.4499 0.9723
4.9124 4.1152 -1.3546 0.9741
3.8123 4.5735 -1.2586 0.9760
3.3601 4.8530 -1.2477 0.9762
2.7211 4.7937 -1.1652 0.9777
1.3397 5.2816 -1.1518 0.9780
-1.2739 6.3474 -1.3685 0.9739
-4.0279 10.1834 -2.3148 0.9562
-4.8209 9.5866 -2.2682 0.9571
-5.5382 8.9277 -2.2208 0.9580
-6.1766 8.2178 -2.1730 0.9588
-6.7344 7.4674 -2.1256 0.9597
-8.1981 6.3412 -2.1908 0.9585
-8.5408 5.4633 -2.1431 0.9594
-8.9833 3.6978 -2.0535 0.9611
-9.0897 2.8237 -2.0119 0.9618
-8.8371 -0.4952 -1.8709 0.9645
-8.6237 -1.2617 -1.8423 0.9650
-7.6805 -3.3671 -1.7727 0.9663
-7.2760 -3.9981 -1.7549 0.9666
-6.3491 -5.1452 -1.7274 0.9671
-5.8320 -5.6589 -1.7177 0.9673
-4.7025 -6.5610 -1.7063 0.9675
-3.4605 -7.2885 -1.7055 0.9676
-1.4233 -8.0314 -1.7241 0.9672
0.0264 -8.2785 -1.7499 0.9667
0.7720 -8.3229 -1.7668 0.9664
3.0593 -8.1186 -1.8339 0.9652
3.8283 -7.9319 -1.8617 0.9646
4.5944 -7.6827 -1.8922 0.9641
5.3535 -7.3693 -1.9254 0.9634
6.8307 -6.5437 -1.9995 0.9621
8.8564 -4.7931 -2.1286 0.9597
8.7924 -3.7877 -2.0237 0.9616
9.2784 -3.0488 -2.0644 0.9609
9.7275 -2.2590 -2.1109 0.9600
10.1118 -1.4135 -2.1582 0.9591
10.4230 -0.5173 -2.2059 0.9582
8.7940 2.7936 -1.9504 0.9630
7.6516 3.2070 -1.7537 0.9666
5.1620 4.0458 -1.3863 0.9735
4.5047 4.2309 -1.3063 0.9751
3.9196 4.4025 -1.2460 0.9762
3.5494 4.7857 -1.2595 0.9759
2.8939 4.7323 -1.1725 0.9776
2.4244 4.8988 -1.1554 0.9779
1.9646 5.0614 -1.1477 0.9780
-1.0432 6.2453 -1.3384 0.9744
-1.4632 5.6176 -1.2271 0.9765
-2.4255 6.7684 -1.5198 0.9710
-5.2857 9.1744 -2.2381 0.9576
-6.5404 7.7451 -2.1428 0.9594
-7.0468 6.9743 -2.0957 0.9603
-8.4255 5.7845 -2.1603 0.9591
-8.9260 4.0188 -2.0692 0.9608
-9.0594 3.1411 -2.0268 0.9616
5.5677 3.9447 -1.6037 0.9724
4.9081 4.1821 -1.5155 0.9739
4.3074 4.3908 -1.4456 0.9750
3.8328 4.6771 -1.4212 0.9755
2.7151 4.8777 -1.3120 0.9773
1.7778 5.2017 -1.2920 0.9777
0.1664 2.7048 -0.6369 0.9889
-0.7264 6.1723 -1.4606 0.9748
-1.3369 6.3837 -1.5329 0.9736
-3.6281 8.9527 -2.2703 0.9611
-4.9739 7.8701 -2.1881 0.9625
-5.5475 7.2534 -2.1461 0.9632
-6.0518 6.5985 -2.1043 0.9639
-6.4858 5.9138 -2.0628 0.9646
-7.9434 4.0491 -2.0954 0.9640
-8.1174 3.2622 -2.0561 0.9647
-8.2642 1.7056 -1.9832 0.9659
-8.2429 0.9457 -1.9500 0.9665
-8.0271 -0.5173 -1.8905 0.9675
-7.8389 -1.2140 -1.8643 0.9679
-7.3176 -2.5248 -1.8193 0.9687
-6.2166 -4.2541 -1.7704 0.9695
-5.7753 -4.7609 -1.7591 0.9697
-4.7959 -5.6618 -1.7439 0.9700
-4.2624 -6.0534 -1.7400 0.9700
-0.5844 -7.5035 -1.7688 0.9695
0.0877 -7.5832 -1.7824 0.9693
1.4612 -7.5911 -1.8168 0.9687
2.8545 -7.3870 -1.8612 0.9680
3.5506 -7.2018 -1.8871 0.9675
4.2413 -6.9592 -1.9154 0.9671
4.9225 -6.6581 -1.9460 0.9665
6.8615 -5.3946 -2.0513 0.9648
7.4548 -4.8521 -2.0905 0.9641
8.0115 -4.2495 -2.1314 0.9634
8.7167 -1.9474 -2.0991 0.9640
9.2802 -0.3827 -2.1829 0.9626
9.5559 2.2039 -2.3048 0.9605
8.6594 2.8309 -2.1411 0.9633
5.8284 3.8507 -1.6418 0.9717
4.5233 4.3202 -1.4701 0.9746
3.4961 4.7972 -1.3951 0.9759
1.9462 5.1412 -1.2920 0.9777
1.0173 5.4877 -1.3117 0.9773
0.2631 2.7903 -0.6587 0.9885
0.0132 2.8103 -0.6605 0.9885
-0.5172 6.0996 -1.4387 0.9752
-1.5047 5.5847 -1.3593 0.9765
-2.4951 6.7834 -1.6987 0.9707
-4.0832 8.6336 -2.2446 0.9615
-4.7479 8.0836 -2.2033 0.9622
-5.3463 7.4832 -2.1615 0.9629
-5.8760 6.8412 -2.1195 0.9636
-6.3357 6.1664 -2.0779 0.9643
-6.7252 5.4669 -2.0369 0.9650
-7.5915 5.1189 -2.1519 0.9631
-2.7340 1.5077 -0.7338 0.9873
-8.0620 3.5489 -2.0702 0.9645
-8.1925 2.7639 -2.0320 0.9651
-8.2577 1.2209 -1.9618 0.9663
-7.9134 -0.9630 -1.8736 0.9678
-6.7611 -3.5051 -1.7898 0.9692
-4.4601 -5.9153 -1.7411 0.9700
-3.9096 -6.2812 -1.7388 0.9701
-2.7361 -6.8870 -1.7417 0.9700
-2.1173 -7.1246 -1.7468 0.9699
-0.8263 -7.4623 -1.7645 0.9696
-0.1587 -7.5599 -1.7771 0.9694
0.5205 -7.6080 -1.7922 0.9692
1.2086 -7.6051 -1.8098 0.9689
1.9028 -7.5498 -1.8299 0.9685
2.6001 -7.4405 -1.8524 0.9681
3.2972 -7.2759 -1.8774 0.9677
3.9903 -7.0544 -1.9048 0.9672
6.6373 -5.5773 -2.0375 0.9650
7.8132 -4.4761 -2.1163 0.9637
8.1899 -2.9124 -2.0429 0.9649
8.5862 -2.2140 -2.0840 0.9642
9.1980 -0.6798 -2.1676 0.9628
7.9236 3.0979 -1.9995 0.9656
4.7412 4.2420 -1.4952 0.9742
4.1468 4.4369 -1.4273 0.9754
1.6528 5.2473 -1.2930 0.9776
1.1887 5.4214 -1.3044 0.9775
0.0999 2.6790 -0.6301 0.9890
-0.8860 6.2276 -1.4784 0.9745
-1.5132 6.4447 -1.5558 0.9732
-1.8746 5.6585 -1.4010 0.9758
-4.5130 8.2905 -2.2184 0.9620
-5.1360 7.7074 -2.1767 0.9627
-5.6909 7.0795 -2.1348 0.9634
-6.5913 5.7243 -2.0517 0.9648
-8.1527 3.0495 -2.0457 0.9649
-8.2407 2.2686 -2.0088 0.9655
-8.2644 1.4983 -1.9740 0.9661
-7.2331 -2.6931 -1.8139 0.9688
-6.5161 -3.8619 -1.7802 0.9694
-6.1004 -4.3949 -1.7671 0.9696
-5.6500 -4.8918 -1.7564 0.9698
-4.1133 -6.1525 -1.7394 0.9700
-2.9567 -6.7894 -1.7404 0.9700
-0.4036 -7.5300 -1.7723 0.9695
0.2717 -7.5963 -1.7864 0.9692
2.3458 -7.4867 -1.8439 0.9683
3.0433 -7.3424 -1.8680 0.9679
3.7383 -7.1418 -1.8945 0.9674
4.4269 -6.8835 -1.9235 0.9669
5.7673 -6.1894 -1.9883 0.9658
7.0254 -5.2537 -2.0618 0.9646
7.6095 -4.6948 -2.1014 0.9639
8.8083 -1.7454 -2.1104 0.9638
9.1062 -0.9719 -2.1523 0.9631
9.3349 -0.1590 -2.1942 0.9624
9.5589 1.5579 -2.2762 0.9610
9.5426 2.4453 -2.3152 0.9603
7.2768 3.3324 -1.8810 0.9676
6.3900 3.6480 -1.7293 0.9702
5.6336 3.9209 -1.6131 0.9722
4.9669 4.1609 -1.5228 0.9737
4.3641 4.3748 -1.4523 0.9749
3.8100 4.5706 -1.3985 0.9758
2.7604 4.8628 -1.3142 0.9773
1.8211 5.1860 -1.2918 0.9777
0.8887 5.5381 -1.3182 0.9772
0.1929 2.7584 -0.6499 0.9887
-0.1159 5.9506 -1.3988 0.9758
-1.2770 6.3630 -1.5253 0.9737
-6.0074 6.6613 -2.1082 0.9638
-6.8186 5.2743 -2.0260 0.9652
-8.1041 3.3359 -2.0597 0.9646
-8.2630 1.7776 -1.9864 0.9659
-8.1728 0.2724 -1.9219 0.9670
-8.0421 -0.4507 -1.8930 0.9674
-7.8587 -1.1498 -1.8666 0.9679
-7.6257 -1.8223 -1.8427 0.9683
-7.3461 -2.4660 -1.8212 0.9687
-6.6586 -3.6588 -1.7856 0.9693
-5.3468 -5.1881 -1.7509 0.9699
-3.7562 -6.3732 -1.7386 0.9701
-3.1745 -6.6860 -1.7395 0.9700
-1.9464 -7.1811 -1.7486 0.9699
-1.3045 -7.3609 -1.7569 0.9697
0.0242 -7.5779 -1.7810 0.9693
0.7061 -7.6123 -1.7967 0.9691
1.3961 -7.5953 -1.8150 0.9688
2.0915 -7.5256 -1.8357 0.9684
2.7891 -7.4015 -1.8589 0.9680
3.4855 -7.2216 -1.8846 0.9676
4.8592 -6.6889 -1.9431 0.9666
5.5278 -6.3338 -1.9758 0.9660
6.1780 -5.9185 -2.0107 0.9655
7.4006 -4.9056 -2.0867 0.9642
9.4413 0.3751 -2.2207 0.9619
9.5589 2.1205 -2.3012 0.9606
8.7769 2.7882 -2.1644 0.9629
5.2013 4.0766 -1.5532 0.9732
3.5450 4.7798 -1.3986 0.9758
3.0342 4.9617 -1.3669 0.9764
0.2890 2.8133 -0.6647 0.9884
0.0357 2.7302 -0.6417 0.9888
-0.4644 6.0813 -1.4334 0.9753
-4.6883 8.1375 -2.2072 0.9621
-5.2931 7.5414 -2.1654 0.9628
-5.8293 6.9029 -2.1234 0.9636
-6.6916 5.5333 -2.0407 0.9650
-7.5593 5.1898 -2.1550 0.9630
-2.7004 1.5188 -0.7281 0.9874
-8.2534 2.0588 -1.9992 0.9657
-8.2067 0.5414 -1.9329 0.9668
4.9014 4.1763 -1.6673 0.9737
4.3066 4.3901 -1.5923 0.9749
3.8280 4.6712 -1.5637 0.9754
3.3039 4.8583 -1.5212 0.9760
2.2754 5.1141 -1.4493 0.9771
1.8047 5.2804 -1.4448 0.9772
0.8528 5.6148 -1.4704 0.9768
-0.7254 6.1641 -1.6070 0.9747
-3.2467 8.0114 -2.2382 0.9649
-4.4679 7.0696 -2.1654 0.9660
-5.8602 5.3434 -2.0534 0.9678
-7.2171 3.6789 -2.0974 0.9671
-7.4966 2.2602 -2.0273 0.9682
-7.5455 1.5573 -1.9948 0.9687
-7.5371 0.8648 -1.9643 0.9691
-7.4740 0.1864 -1.9358 0.9696
-7.3590 -0.4742 -1.9093 0.9700
-7.1948 -1.1143 -1.8851 0.9704
-6.7296 -2.3219 -1.8432 0.9710
-6.0998 -3.4186 -1.8105 0.9715
-5.7294 -3.9208 -1.7975 0.9717
-3.9337 -5.5866 -1.7691 0.9722
-3.4173 -5.9108 -1.7678 0.9722
-2.8783 -6.1955 -1.7688 0.9722
-2.3187 -6.4397 -1.7721 0.9721
-1.7407 -6.6420 -1.7778 0.9720
-1.1466 -6.8012 -1.7858 0.9719
0.7092 -7.0077 -1.8237 0.9713
1.9820 -6.9067 -1.8604 0.9707
2.6203 -6.7809 -1.8822 0.9704
3.2555 -6.6033 -1.9062 0.9700
5.1045 -5.7509 -1.9910 0.9687
6.2462 -4.9108 -2.0572 0.9677
7.2676 -3.8549 -2.1300 0.9666
2.3434 -0.9864 -0.6583 0.9895
7.5379 -2.4071 -2.0488 0.9678
8.3382 -0.3439 -2.1608 0.9661
8.4782 0.4079 -2.1977 0.9655
7.5298 3.2303 -2.1214 0.9667
6.6039 3.5611 -1.9426 0.9695
5.8197 3.8450 -1.8060 0.9716
5.1330 4.0929 -1.6998 0.9732
3.9538 4.5165 -1.5542 0.9755
3.4917 4.7913 -1.5350 0.9758
2.9296 4.8821 -1.4742 0.9767
2.4482 5.0529 -1.4538 0.9771
1.9760 5.2199 -1.4451 0.9772
1.0294 5.5529 -1.4622 0.9769
0.0132 2.7989 -0.7247 0.9885
-0.5165 6.0917 -1.5829 0.9751
-1.5039 5.5820 -1.4968 0.9764
-4.2619 7.2563 -2.1789 0.9658
-4.8084 6.7303 -2.1416 0.9664
-5.7206 5.5677 -2.0669 0.9676
-6.0838 4.9456 -2.0300 0.9681
-6.3851 4.3054 -1.9939 0.9687
-7.4641 2.5181 -2.0396 0.9680
-7.5345 1.8126 -2.0065 0.9685
-7.5032 0.4319 -1.9459 0.9694
-7.0661 -1.5090 -1.8708 0.9706
-6.5464 -2.6831 -1.8318 0.9712
-6.2259 -3.2276 -1.8157 0.9714
-5.8685 -3.7414 -1.8020 0.9717
-2.5249 -6.3554 -1.7706 0.9721
-1.9534 -6.5731 -1.7755 0.9721
-0.7618 -6.8794 -1.7921 0.9718
0.4792 -7.0050 -1.8180 0.9714
1.7491 -6.9399 -1.8531 0.9709
2.3877 -6.8327 -1.8740 0.9705
3.0245 -6.6741 -1.8972 0.9702
6.0457 -5.0802 -2.0446 0.9679
6.5858 -4.5985 -2.0797 0.9674
7.0924 -4.0631 -2.1163 0.9668
7.4068 -2.6339 -2.0354 0.9680
7.7504 -1.9985 -2.0723 0.9675
8.0401 -1.3228 -2.1097 0.9669
8.2703 -0.6112 -2.1472 0.9663
8.4353 0.1309 -2.1843 0.9657
8.5300 0.8974 -2.2208 0.9652
8.4908 2.4729 -2.2898 0.9641
7.9093 3.0923 -2.1988 0.9655
6.9270 3.4492 -2.0036 0.9685
6.0927 3.7463 -1.8519 0.9709
5.3739 4.0060 -1.7355 0.9727
3.6831 4.7229 -1.5507 0.9756
3.1664 4.9073 -1.5121 0.9762
1.6774 5.3253 -1.4456 0.9772
0.7203 5.6611 -1.4776 0.9767
0.0992 2.6610 -0.6895 0.9891
-0.3136 6.0213 -1.5611 0.9754
-0.8848 6.2193 -1.6265 0.9744
-1.5111 6.4356 -1.7116 0.9731
-1.8710 5.6475 -1.5404 0.9757
-4.6160 6.9270 -2.1553 0.9662
-5.1248 6.3752 -2.1179 0.9668
-5.5727 5.7887 -2.0804 0.9673
-5.9586 5.1748 -2.0434 0.9679
-7.5253 0.6795 -1.9564 0.9693
-7.4479 0.0056 -1.9284 0.9697
-6.6535 -2.4772 -1.8382 0.9711
-6.3472 -3.0326 -1.8213 0.9714
-5.6232 -4.0511 -1.7944 0.9718
-5.2104 -4.5113 -1.7845 0.9719
-4.2947 -5.3261 -1.7715 0.9721
-2.7287 -6.2657 -1.7695 0.9722
-0.9832 -6.8367 -1.7884 0.9719
0.8806 -7.0055 -1.8281 0.9712
2.1550 -6.8777 -1.8661 0.9707
4.6667 -6.0029 -1.9687 0.9691
5.8416 -5.2424 -2.0322 0.9681
6.9119 -4.2645 -2.1028 0.9670
7.3876 -3.6925 -2.1384 0.9665
7.6310 -2.2350 -2.0588 0.9677
8.1936 -0.8745 -2.1335 0.9665
8.3830 -0.1428 -2.1708 0.9660
8.5515 1.3937 -2.2434 0.9648
8.5216 2.1837 -2.2777 0.9643
7.2645 3.3267 -2.0687 0.9675
6.3800 3.6423 -1.9021 0.9701
5.6254 3.9152 -1.7746 0.9721
4.9601 4.1552 -1.6753 0.9736
4.3602 4.3709 -1.5985 0.9748
1.8488 5.2648 -1.4448 0.9772
0.1922 2.7484 -0.7134 0.9887
-0.6711 6.1453 -1.6006 0.9748
-1.6445 5.5644 -1.5023 0.9763
-3.1842 8.0502 -2.2415 0.9649
-4.4157 7.1182 -2.1688 0.9660
-4.9462 6.5808 -2.1315 0.9666
-5.4165 6.0061 -2.0941 0.9671
-6.4561 4.1298 -1.9843 0.9688
-7.3746 3.0356 -2.0648 0.9676
-7.4890 2.3265 -2.0304 0.9681
-7.5434 1.6228 -1.9978 0.9686
-7.5403 0.9292 -1.9671 0.9691
-7.4822 0.2493 -1.9383 0.9695
-7.2122 -1.0552 -1.8872 0.9703
-7.0057 -1.6742 -1.8650 0.9707
-6.7552 -2.2676 -1.8450 0.9710
-6.4634 -2.8335 -1.8272 0.9713
-6.1327 -3.3699 -1.8118 0.9715
-5.7656 -3.8750 -1.7987 0.9717
-4.9320 -4.7857 -1.7793 0.9720
-4.4700 -5.1883 -1.7732 0.9721
-2.9297 -6.1705 -1.7686 0.9722
-2.3720 -6.4185 -1.7717 0.9721
-1.2030 -6.7881 -1.7849 0.9719
-0.5962 -6.9072 -1.7950 0.9718
0.0223 -6.9808 -1.8075 0.9716
0.6500 -7.0076 -1.8222 0.9713
1.9221 -6.9159 -1.8585 0.9708
3.1962 -6.6222 -1.9039 0.9701
3.8255 -6.3969 -1.9298 0.9697
7.5049 -2.4660 -2.0454 0.9679
8.5429 1.1082 -2.2305 0.9650
8.5417 1.8948 -2.2654 0.9645
8.4608 2.6878 -2.2985 0.9640
5.1940 4.0709 -1.7087 0.9731
4.0049 4.4983 -1.5594 0.9754
3.0305 4.9556 -1.5040 0.9763
2.0201 5.2044 -1.4455 0.9772
1.0802 3.7428 -1.0086 0.9840
1.0745 5.5371 -1.4604 0.9770
0.0353 2.6969 -0.6983 0.9889
-1.0483 6.2758 -1.6474 0.9741
-1.4637 5.6197 -1.5036 0.9763
-2.4181 6.7478 -1.8559 0.9708
-4.7597 6.7814 -2.1452 0.9663
-5.6833 5.6248 -2.0704 0.9675
-6.0524 5.0048 -2.0335 0.9681
-6.3595 4.3661 -1.9973 0.9686
-7.5304 1.8784 -2.0095 0.9684
-7.5479 1.1807 -1.9780 0.9689
-7.5096 0.4954 -1.9486 0.9694
4.3009 4.3843 -1.7387 0.9748
3.8231 4.6652 -1.7075 0.9752
3.2998 4.8523 -1.6612 0.9759
2.7492 4.9390 -1.6002 0.9768
2.2727 5.1080 -1.5827 0.9770
1.8025 5.2741 -1.5778 0.9771
-1.6958 5.5661 -1.6472 0.9761
-4.0510 6.4099 -2.1466 0.9690
-5.6585 4.3016 -2.0122 0.9709
-5.9221 3.7187 -1.9796 0.9713
-6.7722 2.7215 -2.0662 0.9701
-6.8813 2.0747 -2.0347 0.9706
-6.9353 1.4314 -2.0047 0.9710
-6.9362 0.7958 -1.9765 0.9714
-6.6425 -1.0287 -1.9029 0.9724
-6.4538 -1.5995 -1.8823 0.9727
-6.2236 -2.1473 -1.8638 0.9730
-5.6487 -3.1658 -1.8331 0.9734
-4.9363 -4.0693 -1.8111 0.9738
-4.5342 -4.4740 -1.8033 0.9739
-4.1044 -4.8454 -1.7977 0.9739
-3.6490 -5.1822 -1.7943 0.9740
-2.6700 -5.7472 -1.7940 0.9740
-1.6142 -6.1590 -1.8025 0.9739
-1.0629 -6.3046 -1.8100 0.9738
-0.4991 -6.4084 -1.8197 0.9736
0.0748 -6.4692 -1.8315 0.9735
0.6564 -6.4860 -1.8455 0.9733
1.2430 -6.4576 -1.8617 0.9730
1.8317 -6.3829 -1.8799 0.9728
2.4194 -6.2611 -1.9002 0.9725
4.6925 -5.2867 -2.0011 0.9710
5.7265 -4.5023 -2.0622 0.9702
6.2022 -4.0368 -2.0949 0.9697
6.6422 -3.5232 -2.1285 0.9692
7.1534 -1.5982 -2.0750 0.9700
7.5617 -0.3118 -2.1425 0.9690
7.6764 0.3694 -2.1757 0.9686
7.7067 1.7774 -2.2390 0.9677
7.6160 2.4898 -2.2683 0.9672
7.4521 3.1970 -2.2956 0.9669
6.5932 3.5554 -2.1206 0.9693
5.1257 4.0871 -1.8559 0.9731
4.5112 4.3087 -1.7660 0.9744
3.9488 4.5107 -1.6971 0.9754
3.4874 4.7853 -1.6763 0.9757
