ply
format ascii 1.0
element vertex 1586
property float32 x
property float32 y
property float32 z
property float32 I
end_header
-1.6975 6.9595 -1.0150 0.9715
-6.3300 18.5631 -2.7789 0.9238
-7.7082 17.3528 -2.6904 0.9262
-9.9736 14.6788 -2.5145 0.9308
-12.1837 10.3840 -2.2682 0.9374
-2.6078 1.8477 -0.4528 0.9872
-12.9481 7.5351 -2.1226 0.9413
-13.2159 3.4997 -1.9371 0.9463
-13.1074 2.2429 -1.8842 0.9477
-12.9138 1.0364 -1.8356 0.9490
-12.6425 -0.1176 -1.7914 0.9502
-12.3002 -1.2179 -1.7513 0.9513
-11.8927 -2.2636 -1.7153 0.9523
-8.3430 -7.3830 -1.5785 0.9560
-6.0060 -9.2032 -1.5571 0.9566
-5.1587 -9.6995 -1.5566 0.9566
-4.2733 -10.1237 -1.5570 0.9566
-2.4326 -10.8458 -1.5749 0.9561
-1.4665 -11.1093 -1.5877 0.9557
3.7362 -11.4386 -1.7050 0.9525
4.8392 -11.2849 -1.7398 0.9516
5.9572 -11.0489 -1.7786 0.9506
7.0868 -10.7258 -1.8215 0.9494
9.3628 -9.7985 -1.9203 0.9467
10.4976 -9.1838 -1.9763 0.9452
11.6205 -8.4612 -2.0367 0.9436
13.7641 -6.6585 -2.1664 0.9401
14.6516 -4.0832 -2.1551 0.9404
11.4186 -2.1062 -1.6452 0.9542
16.2243 -1.5134 -2.3088 0.9363
10.2971 1.8223 -1.4817 0.9586
8.7378 2.3671 -1.2827 0.9641
7.6162 2.8142 -1.1505 0.9677
6.8718 3.2631 -1.0779 0.9697
4.8569 4.1873 -0.9086 0.9744
4.2672 4.4015 -0.8686 0.9755
2.3109 5.2832 -0.8170 0.9770
1.8917 5.6526 -0.8446 0.9762
1.3952 5.8647 -0.8542 0.9759
0.4313 2.9712 -0.4254 0.9879
0.3359 6.1265 -0.8694 0.9755
-0.8501 6.8201 -0.9738 0.9726
-1.4961 6.9041 -1.0009 0.9719
-9.6865 15.0805 -2.5396 0.9301
-12.0289 10.8011 -2.2906 0.9368
-2.5068 1.8753 -0.4436 0.9874
-12.8691 7.9414 -2.1426 0.9407
-13.0999 6.5475 -2.0751 0.9426
-12.7286 0.2106 -1.8037 0.9499
-12.4061 -0.9053 -1.7625 0.9510
-12.0169 -1.9669 -1.7253 0.9520
-11.5666 -2.9735 -1.6921 0.9529
-9.8950 -5.6629 -1.6154 0.9550
-7.0493 -8.4816 -1.5626 0.9564
-5.4070 -9.5617 -1.5564 0.9566
-4.5346 -10.0122 -1.5573 0.9566
-2.7068 -10.7583 -1.5718 0.9562
-1.7486 -11.0394 -1.5837 0.9558
-0.7634 -11.2588 -1.5989 0.9554
0.2476 -11.4143 -1.6177 0.9549
1.2830 -11.5031 -1.6400 0.9543
2.3413 -11.5223 -1.6659 0.9536
3.4205 -11.4684 -1.6957 0.9528
-8.7160 -5.1515 -1.6679 0.9598
-8.1405 -5.8509 -1.6515 0.9602
-7.5249 -6.5018 -1.6383 0.9605
-5.4621 -8.1571 -1.6172 0.9610
-4.7095 -8.6075 -1.6164 0.9610
-3.1181 -9.3505 -1.6238 0.9608
-2.2825 -9.6407 -1.6321 0.9606
-1.4227 -9.8746 -1.6435 0.9604
0.3630 -10.1664 -1.6759 0.9596
1.2850 -10.2198 -1.6969 0.9591
5.1118 -9.7557 -1.8144 0.9563
6.0874 -9.4547 -1.8525 0.9554
7.0623 -9.0729 -1.8941 0.9545
8.9881 -8.0531 -1.9881 0.9523
9.9256 -7.4085 -2.0404 0.9510
11.6884 -5.8262 -2.1515 0.9484
12.9878 -2.5550 -2.1806 0.9478
13.5523 -1.4262 -2.2449 0.9463
11.6311 0.8614 -1.9213 0.9538
9.0852 2.3460 -1.5458 0.9627
7.8724 2.8034 -1.3767 0.9667
6.8484 3.1532 -1.2420 0.9699
4.9060 4.1294 -1.0564 0.9743
3.9017 4.7048 -1.0069 0.9755
1.8971 5.4531 -0.9511 0.9769
1.4600 5.8295 -0.9900 0.9759
0.9231 5.8689 -0.9787 0.9762
-0.1428 6.2709 -1.0333 0.9749
-0.7239 6.4269 -1.0655 0.9741
-1.2073 5.9089 -0.9935 0.9758
-10.1579 9.3407 -2.2734 0.9456
-2.4888 1.9083 -0.5167 0.9874
-11.2713 5.8014 -2.0883 0.9499
-11.4823 2.4134 -1.9329 0.9535
-10.9635 -0.6696 -1.8095 0.9564
-10.6556 -1.6147 -1.7754 0.9573
-9.8667 -3.3705 -1.7176 0.9586
-8.3112 -5.6536 -1.6559 0.9601
-7.7069 -6.3186 -1.6418 0.9604
-7.0644 -6.9346 -1.6308 0.9607
-5.6740 -8.0173 -1.6181 0.9610
-2.5267 -9.5625 -1.6294 0.9607
-1.6737 -9.8129 -1.6399 0.9604
-0.7976 -10.0057 -1.6536 0.9601
0.0998 -10.1392 -1.6704 0.9597
1.0166 -10.2109 -1.6905 0.9593
1.9507 -10.2185 -1.7138 0.9587
2.8995 -10.1593 -1.7405 0.9581
3.8605 -10.0303 -1.7705 0.9574
5.8051 -9.5499 -1.8411 0.9557
6.7807 -9.1918 -1.8817 0.9548
7.7520 -8.7505 -1.9259 0.9537
10.5758 -6.8936 -2.0797 0.9501
11.4606 -6.0875 -2.1378 0.9488
12.8091 -2.8656 -2.1623 0.9482
13.3981 -1.7612 -2.2262 0.9467
13.8974 -0.5745 -2.2914 0.9452
10.9796 1.5189 -1.8260 0.9561
9.4583 2.1833 -1.5991 0.9614
7.1206 3.0580 -1.2766 0.9691
4.0540 4.6391 -1.0149 0.9753
3.5363 4.8622 -0.9904 0.9759
2.9852 4.9866 -0.9574 0.9767
2.5079 5.1914 -0.9498 0.9769
1.6041 5.7680 -0.9863 0.9760
1.0921 5.9387 -0.9947 0.9758
0.0192 6.2246 -1.0254 0.9751
-0.5522 6.3824 -1.0554 0.9744
-1.0800 6.0836 -1.0179 0.9753
-4.9173 13.2857 -2.3338 0.9442
-6.7037 14.0975 -2.5716 0.9387
-9.3611 10.8460 -2.3602 0.9436
-9.9967 9.6811 -2.2925 0.9451
-10.5124 8.5005 -2.2271 0.9467
-10.9136 7.3164 -2.1645 0.9481
-11.3963 4.9776 -2.0487 0.9508
-11.4964 2.7284 -1.9465 0.9532
-11.2654 0.6116 -1.8586 0.9553
-11.0409 -0.3883 -1.8200 0.9562
-10.7509 -1.3459 -1.7849 0.9570
-9.9940 -3.1279 -1.7252 0.9584
-9.5358 -3.9500 -1.7004 0.9590
-9.0294 -4.7250 -1.6789 0.9595
-8.4784 -5.4523 -1.6606 0.9600
-7.8857 -6.1313 -1.6456 0.9603
-7.2540 -6.7615 -1.6336 0.9606
-5.8832 -7.8732 -1.6191 0.9609
-4.3833 -8.7818 -1.6169 0.9610
-2.7688 -9.4796 -1.6269 0.9608
-1.9228 -9.7463 -1.6365 0.9605
-1.0532 -9.9560 -1.6493 0.9602
-0.1618 -10.1068 -1.6652 0.9599
0.7496 -10.1967 -1.6843 0.9594
2.6238 -10.1835 -1.7324 0.9583
4.5491 -9.8944 -1.7940 0.9568
5.5229 -9.6384 -1.8300 0.9560
6.4988 -9.3038 -1.8696 0.9550
7.4719 -8.8869 -1.9127 0.9540
11.2088 -6.3305 -2.1207 0.9492
11.1949 -5.0629 -2.0241 0.9514
11.9394 -4.1608 -2.0829 0.9500
12.6241 -3.1689 -2.1442 0.9486
13.7630 -0.9257 -2.2724 0.9456
9.8582 2.0087 -1.6574 0.9600
7.4168 2.9606 -1.3156 0.9681
5.7696 3.6058 -1.1208 0.9728
5.2146 3.9474 -1.0774 0.9738
4.6838 4.2541 -1.0424 0.9747
4.2017 4.5644 -1.0220 0.9752
3.6835 4.7988 -0.9966 0.9758
2.6234 5.0902 -0.9434 0.9771
1.2442 5.9035 -0.9939 0.9758
0.3405 2.8641 -0.4751 0.9884
0.1788 6.1777 -1.0181 0.9753
-0.3836 6.3374 -1.0459 0.9746
-0.9808 6.4958 -1.0822 0.9737
-1.4500 5.9446 -1.0080 0.9755
-4.8406 14.1955 -2.4708 0.9410
-8.3585 12.3018 -2.4501 0.9415
-9.8254 10.0201 -2.3119 0.9447
-11.3514 5.3115 -2.0646 0.9505
-11.4730 4.1653 -2.0108 0.9517
-11.4497 1.9592 -1.9136 0.9540
-10.8412 -1.0735 -1.7947 0.9568
-10.1170 -2.8816 -1.7330 0.9583
-9.1806 -4.5058 -1.6847 0.9594
-7.4405 -6.5843 -1.6368 0.9605
-3.8219 -9.0544 -1.6191 0.9609
-3.0088 -9.3921 -1.6247 0.9608
-2.1700 -9.6749 -1.6334 0.9606
-1.3070 -9.9013 -1.6453 0.9603
3.3034 -10.1136 -1.7527 0.9578
5.2409 -9.7204 -1.8193 0.9562
7.1911 -9.0161 -1.8999 0.9543
8.1589 -8.5386 -1.9456 0.9533
10.0479 -7.3162 -2.0476 0.9509
10.9536 -6.5654 -2.1038 0.9495
11.7861 -5.7017 -2.1569 0.9483
11.4154 -2.1056 -1.9123 0.9540
14.0777 -0.0510 -2.3192 0.9445
11.6927 1.0054 -1.9334 0.9535
10.2885 1.8208 -1.7213 0.9585
8.9224 2.4171 -1.5228 0.9632
7.7246 2.8542 -1.3566 0.9672
6.7287 3.1952 -1.2271 0.9703
5.3721 3.8524 -1.0890 0.9736
3.8327 4.7345 -1.0035 0.9756
3.2448 4.8345 -0.9592 0.9767
1.8895 5.6460 -0.9808 0.9762
-0.2179 6.2919 -1.0371 0.9748
-0.8036 6.4472 -1.0703 0.9740
-1.2667 5.8456 -0.9853 0.9760
-4.5058 14.4236 -2.4894 0.9406
-10.2285 9.1844 -2.2646 0.9458
-11.0498 6.8187 -2.1390 0.9487
-11.4475 4.4942 -2.0260 0.9514
-11.5037 3.3668 -1.9746 0.9526
-11.4736 2.2700 -1.9268 0.9537
-10.9263 -0.7973 -1.8048 0.9566
-10.6102 -1.7366 -1.7712 0.9574
-10.2356 -2.6313 -1.7410 0.9581
-9.8069 -3.4803 -1.7143 0.9587
-9.3279 -4.2826 -1.6909 0.9592
-8.8024 -5.0375 -1.6708 0.9597
-8.2334 -5.7445 -1.6539 0.9601
-7.6239 -6.4030 -1.6401 0.9604
-6.9765 -7.0125 -1.6296 0.9607
-4.8294 -8.5403 -1.6163 0.9610
-4.0520 -8.9468 -1.6180 0.9610
-3.2467 -9.3000 -1.6228 0.9609
0.2202 -10.1523 -1.6729 0.9597
1.1394 -10.2157 -1.6934 0.9592
2.0756 -10.2146 -1.7171 0.9586
3.0262 -10.1463 -1.7443 0.9580
3.9885 -10.0078 -1.7748 0.9573
-7.3340 -5.2713 -1.6976 0.9639
-6.7848 -5.8623 -1.6854 0.9642
-6.1997 -6.4087 -1.6760 0.9644
-5.5811 -6.9096 -1.6695 0.9645
-4.2519 -7.7711 -1.6650 0.9646
-3.5455 -8.1295 -1.6670 0.9645
-2.8138 -8.4382 -1.6719 0.9644
-2.0588 -8.6957 -1.6796 0.9643
-1.2823 -8.9006 -1.6902 0.9641
1.1546 -9.1824 -1.7395 0.9630
3.7015 -8.9221 -1.8156 0.9614
4.5608 -8.7042 -1.8470 0.9608
6.2714 -8.0568 -1.9191 0.9593
8.7384 -6.5224 -2.0496 0.9566
10.2134 -5.0910 -2.1450 0.9546
10.7151 -3.1234 -2.0978 0.9556
11.2307 -2.2094 -2.1514 0.9545
11.6293 0.8613 -2.1918 0.9536
10.4744 1.7260 -1.9953 0.9577
6.9998 3.2229 -1.4485 0.9691
5.4017 3.7775 -1.2389 0.9735
3.8969 4.6991 -1.1474 0.9755
2.7984 4.9613 -1.0706 0.9771
2.3331 5.1664 -1.0655 0.9772
1.3868 5.5373 -1.0729 0.9770
0.4675 2.9721 -0.5655 0.9878
-1.1887 5.8179 -1.1161 0.9761
-4.6681 11.6761 -2.3635 0.9501
-5.5603 10.9537 -2.3089 0.9512
-8.2689 9.0943 -2.3103 0.9512
-9.6321 6.1025 -2.1432 0.9547
-10.0700 4.0917 -2.0431 0.9567
-10.1730 2.1382 -1.9539 0.9586
-9.9801 0.2834 -1.8766 0.9602
-9.5291 -1.4440 -1.8115 0.9615
-9.2176 -2.2536 -1.7836 0.9621
-8.8540 -3.0246 -1.7586 0.9626
-8.4421 -3.7555 -1.7367 0.9631
-7.9849 -4.4450 -1.7177 0.9635
-7.4858 -5.0922 -1.7017 0.9638
-6.9474 -5.6959 -1.6886 0.9641
-6.3724 -6.2553 -1.6784 0.9643
-4.4512 -7.6584 -1.6650 0.9646
-3.0279 -8.3541 -1.6702 0.9645
-2.2794 -8.6266 -1.6771 0.9643
-1.5089 -8.8468 -1.6869 0.9641
-0.7185 -9.0134 -1.6995 0.9639
0.0898 -9.1243 -1.7151 0.9635
0.9138 -9.1779 -1.7336 0.9632
1.7509 -9.1719 -1.7551 0.9627
2.5984 -9.1042 -1.7796 0.9622
3.4534 -8.9725 -1.8071 0.9616
4.3122 -8.7742 -1.8376 0.9610
5.1712 -8.5070 -1.8712 0.9603
6.0258 -8.1684 -1.9079 0.9595
6.8709 -7.7559 -1.9476 0.9587
7.7010 -7.2674 -1.9903 0.9578
8.5096 -6.7010 -2.0359 0.9569
10.0305 -5.3278 -2.1348 0.9548
10.5536 -3.3746 -2.0826 0.9559
11.0887 -2.4808 -2.1358 0.9548
11.8850 0.5718 -2.2365 0.9527
5.6025 3.7061 -1.2626 0.9730
4.9471 3.9501 -1.1899 0.9746
2.9328 4.8991 -1.0732 0.9770
0.0187 6.0644 -1.1399 0.9756
-1.0387 5.8509 -1.1169 0.9761
-4.3935 11.8706 -2.3791 0.9498
-8.6728 8.3990 -2.2693 0.9520
-9.1548 7.4027 -2.2129 0.9532
-9.5388 6.3948 -2.1585 0.9543
-9.8285 5.3845 -2.1064 0.9554
-10.0283 4.3801 -2.0569 0.9564
-10.1430 3.3884 -2.0100 0.9574
-10.0248 0.5442 -1.8871 0.9600
-9.8475 -0.3463 -1.8521 0.9607
-9.6089 -1.2029 -1.8202 0.9614
-8.9643 -2.8057 -1.7655 0.9625
-8.5660 -3.5483 -1.7427 0.9630
-8.1216 -4.2499 -1.7229 0.9634
-7.6343 -4.9095 -1.7060 0.9637
-5.9428 -6.6255 -1.6729 0.9644
-5.3107 -7.1070 -1.6676 0.9645
-3.9573 -7.9282 -1.6655 0.9646
-2.4982 -8.5531 -1.6748 0.9644
-1.7339 -8.7886 -1.6838 0.9642
1.5076 -9.1799 -1.7486 0.9628
2.3524 -9.1303 -1.7722 0.9624
4.0637 -8.8386 -1.8285 0.9612
4.9231 -8.5915 -1.8612 0.9605
6.6278 -7.8829 -1.9358 0.9589
9.7753 -4.4209 -2.0165 0.9573
11.4265 -1.8036 -2.1743 0.9540
11.4778 1.2865 -2.1709 0.9541
6.6155 3.3536 -1.3941 0.9703
5.8119 3.6322 -1.2882 0.9725
4.5423 4.1256 -1.1534 0.9753
4.2000 4.5625 -1.1656 0.9751
3.0673 4.8356 -1.0763 0.9770
2.6025 5.0496 -1.0678 0.9771
2.1360 5.2487 -1.0651 0.9772
1.6640 5.4349 -1.0684 0.9771
1.1822 5.6096 -1.0776 0.9769
0.3364 2.8301 -0.5357 0.9885
-0.3776 6.2375 -1.1745 0.9749
-0.9886 6.5480 -1.2447 0.9734
-4.1117 12.0579 -2.3946 0.9495
-5.0553 11.3805 -2.3406 0.9506
-5.9090 10.6282 -2.2857 0.9517
-6.6689 9.8150 -2.2304 0.9529
-9.7542 5.6764 -2.1213 0.9551
-10.1754 2.6945 -1.9785 0.9581
-9.6840 -0.9589 -1.8291 0.9612
-9.4043 -1.7900 -1.7994 0.9618
-9.0704 -2.5835 -1.7727 0.9623
-8.2546 -4.0513 -1.7283 0.9633
-7.7794 -4.7231 -1.7106 0.9636
-6.7093 -5.9373 -1.6840 0.9642
-6.1196 -6.4777 -1.6750 0.9644
-4.8428 -7.4208 -1.6656 0.9646
-4.1599 -7.8214 -1.6651 0.9646
-2.7151 -8.4753 -1.6728 0.9644
-1.9571 -8.7259 -1.6809 0.9643
-1.1780 -8.9237 -1.6919 0.9640
-0.3797 -9.0670 -1.7057 0.9637
0.4355 -9.1540 -1.7225 0.9634
1.2653 -9.1828 -1.7423 0.9630
2.9582 -9.0566 -1.7908 0.9620
3.8152 -8.8972 -1.8196 0.9614
4.6747 -8.6701 -1.8514 0.9607
6.3836 -8.0036 -1.9243 0.9592
7.2232 -7.5593 -1.9652 0.9583
8.0450 -7.0382 -2.0091 0.9574
8.8424 -6.4384 -2.0559 0.9565
9.6058 -4.6469 -2.0057 0.9575
11.2937 -2.0831 -2.1586 0.9543
11.6909 1.0052 -2.2055 0.9534
6.8757 3.2650 -1.4307 0.9695
6.0307 3.5556 -1.3159 0.9719
4.7040 4.0555 -1.1674 0.9750
4.1600 4.2910 -1.1233 0.9760
2.2713 5.1925 -1.0653 0.9772
1.8013 5.3823 -1.0668 0.9772
1.3228 5.5602 -1.0743 0.9770
0.4121 2.8386 -0.5391 0.9884
-0.2134 6.1628 -1.1591 0.9752
-0.8044 6.4536 -1.2224 0.9739
-7.1509 9.2073 -2.1913 0.9537
-8.3481 8.9657 -2.3026 0.9514
-8.8882 7.9810 -2.2453 0.9525
-2.5063 1.8749 -0.5883 0.9873
-9.6722 5.9686 -2.1363 0.9548
-9.9235 4.9599 -2.0852 0.9559
-10.0868 3.9600 -2.0368 0.9569
-10.1670 2.9756 -1.9912 0.9578
-10.1690 2.0119 -1.9484 0.9587
-9.7541 -0.7118 -1.8383 0.9610
-9.1723 -2.3580 -1.7801 0.9622
-8.8022 -3.1237 -1.7556 0.9627
-8.3840 -3.8492 -1.7340 0.9631
-6.8733 -5.7726 -1.6871 0.9641
-6.2936 -6.3261 -1.6773 0.9643
-5.6801 -6.8342 -1.6703 0.9645
-5.0349 -7.2960 -1.6662 0.9646
-4.3602 -7.7105 -1.6649 0.9646
-3.6579 -8.0766 -1.6665 0.9646
0.1981 -9.1348 -1.7174 0.9635
1.0240 -9.1806 -1.7363 0.9631
1.8626 -9.1666 -1.7582 0.9626
2.7113 -9.0905 -1.7830 0.9621
3.5670 -8.9501 -1.8109 0.9615
-7.1264 -4.2120 -1.7498 0.9667
-6.6678 -4.7924 -1.7357 0.9670
-5.0817 -6.2915 -1.7095 0.9675
-4.4908 -6.7066 -1.7061 0.9675
-3.8725 -7.0776 -1.7053 0.9676
-2.5618 -7.6823 -1.7118 0.9674
-1.8736 -7.9134 -1.7190 0.9673
-1.1663 -8.0953 -1.7289 0.9671
1.8076 -8.2983 -1.7952 0.9659
2.5742 -8.2093 -1.8186 0.9654
5.6349 -7.2392 -1.9392 0.9632
7.1003 -6.3617 -2.0152 0.9618
8.4631 -5.2099 -2.1007 0.9602
9.4569 -2.7566 -2.0822 0.9605
10.5203 -0.1627 -2.2241 0.9579
9.0506 2.3371 -1.9759 0.9625
7.0071 3.2263 -1.6306 0.9690
5.5067 3.8510 -1.4204 0.9729
4.2650 4.2963 -1.2797 0.9756
3.8922 4.6933 -1.2888 0.9754
3.2321 4.6944 -1.2048 0.9770
2.7574 4.8885 -1.1864 0.9773
1.8380 5.2834 -1.1825 0.9774
-0.1418 6.2287 -1.3170 0.9748
-0.7359 6.5337 -1.3898 0.9735
-3.1982 10.6806 -2.3567 0.9554
-4.0596 10.1541 -2.3115 0.9563
-4.8501 9.5546 -2.2650 0.9571
-5.5647 8.8933 -2.2175 0.9580
-6.2003 8.1814 -2.1699 0.9589
-6.7551 7.4294 -2.1225 0.9598
-8.8106 4.5349 -2.0946 0.9603
-8.9892 3.6525 -2.0510 0.9611
-9.0923 2.7783 -2.0097 0.9619
-9.1238 1.9177 -1.9707 0.9626
-9.0876 1.0753 -1.9343 0.9633
-8.9875 0.2552 -1.9005 0.9639
-8.3419 -2.0395 -1.8152 0.9655
-7.2518 -4.0369 -1.7544 0.9666
-6.3194 -5.1810 -1.7273 0.9671
-5.7996 -5.6930 -1.7178 0.9673
-4.6646 -6.5910 -1.7068 0.9675
-4.0540 -6.9749 -1.7053 0.9676
-3.4174 -7.3138 -1.7064 0.9675
-2.7569 -7.6064 -1.7102 0.9675
-1.3727 -8.0479 -1.7257 0.9672
0.8292 -8.3282 -1.7691 0.9664
1.5869 -8.3132 -1.7890 0.9660
3.8914 -7.9179 -1.8649 0.9646
4.6582 -7.6631 -1.8956 0.9640
5.4175 -7.3438 -1.9290 0.9634
6.1644 -6.9583 -1.9650 0.9627
6.8936 -6.5054 -2.0036 0.9620
8.9029 -4.7289 -2.1309 0.9596
9.3223 -2.9809 -2.0688 0.9608
9.7660 -2.1848 -2.1154 0.9599
9.4210 2.1747 -2.0438 0.9612
8.2347 2.6947 -1.8315 0.9652
7.2638 3.1195 -1.6710 0.9682
5.0317 4.0177 -1.3611 0.9740
4.4283 4.2359 -1.2953 0.9753
1.9708 5.2258 -1.1806 0.9774
1.5104 5.4312 -1.1916 0.9772
0.2720 2.9336 -0.6228 0.9880
0.0189 6.1477 -1.2995 0.9752
-1.0386 5.8499 -1.2559 0.9760
-1.9149 7.0535 -1.5449 0.9706
-3.8175 10.3143 -2.3248 0.9560
-5.3661 9.0902 -2.2313 0.9578
-7.6510 7.4094 -2.2513 0.9574
-8.7445 4.7906 -2.1076 0.9601
-9.0700 3.0300 -2.0214 0.9617
-9.0228 0.4898 -1.9100 0.9637
-8.8796 -0.3123 -1.8781 0.9643
-7.3739 -3.8587 -1.7592 0.9665
-6.4633 -5.0254 -1.7306 0.9671
-5.4101 -6.0317 -1.7127 0.9674
-4.8361 -6.4718 -1.7078 0.9675
-4.2333 -6.8685 -1.7055 0.9676
-3.6040 -7.2205 -1.7058 0.9675
-1.5775 -7.9962 -1.7228 0.9672
-0.1323 -8.2660 -1.7475 0.9668
1.3669 -8.3233 -1.7830 0.9661
4.4370 -7.7433 -1.8865 0.9642
5.9500 -7.0767 -1.9543 0.9629
8.0827 -5.5714 -2.0751 0.9607
9.1830 -3.2002 -2.0556 0.9610
9.6441 -2.4209 -2.1018 0.9602
10.0418 -1.5850 -2.1489 0.9593
7.5268 3.0045 -1.7131 0.9674
5.9207 3.7002 -1.4758 0.9719
5.2197 3.9513 -1.3838 0.9736
4.5961 4.1744 -1.3124 0.9749
4.1983 4.5607 -1.3103 0.9750
3.0295 4.7761 -1.1955 0.9771
2.5626 4.9722 -1.1824 0.9774
2.1036 5.1690 -1.1796 0.9774
0.3339 2.8090 -0.5979 0.9885
-1.0073 6.6712 -1.4261 0.9728
-3.5696 10.4682 -2.3379 0.9558
-4.4019 9.9095 -2.2920 0.9566
-5.1609 9.2826 -2.2450 0.9575
-5.8425 8.5987 -2.1975 0.9584
-6.4441 7.8686 -2.1499 0.9593
-7.9789 6.8003 -2.2160 0.9580
-8.9271 -0.0831 -1.8871 0.9642
-8.7428 -0.8657 -1.8571 0.9647
-8.5038 -1.6186 -1.8298 0.9652
-8.2135 -2.3394 -1.8052 0.9657
-7.4925 -3.6773 -1.7642 0.9665
-6.6043 -4.8664 -1.7341 0.9670
-5.5705 -5.8965 -1.7146 0.9674
-5.0051 -6.3490 -1.7089 0.9675
-3.7886 -7.1233 -1.7054 0.9676
-3.1417 -7.4429 -1.7077 0.9675
-1.7809 -7.9404 -1.7201 0.9673
-0.3451 -8.2398 -1.7433 0.9668
0.3954 -8.3114 -1.7589 0.9666
1.9088 -8.2899 -1.7982 0.9658
2.6761 -8.1931 -1.8219 0.9654
3.4462 -8.0365 -1.8484 0.9649
4.2153 -7.8182 -1.8775 0.9643
5.7342 -7.1894 -1.9439 0.9631
6.4743 -6.7756 -1.9810 0.9624
8.5485 -5.1238 -2.1067 0.9601
8.5085 -4.1161 -1.9979 0.9621
2.3787 -0.8985 -0.5375 0.9897
9.5169 -2.6522 -2.0883 0.9604
9.9338 -1.8323 -2.1352 0.9595
10.2814 -0.9590 -2.1827 0.9587
10.7353 0.9230 -2.2776 0.9569
5.4148 3.8829 -1.4084 0.9731
4.7692 4.1117 -1.3310 0.9746
3.8233 4.7230 -1.2845 0.9755
2.6960 4.9148 -1.1849 0.9773
2.2361 5.1122 -1.1795 0.9774
1.3136 5.5218 -1.1998 0.9771
-0.2170 6.2668 -1.3255 0.9747
-0.8198 6.5774 -1.4011 0.9733
-3.3162 10.6154 -2.3508 0.9555
-4.9492 9.4703 -2.2587 0.9573
-5.6535 8.8017 -2.2112 0.9581
-6.2784 8.0839 -2.1636 0.9590
-6.8225 7.3273 -2.1163 0.9599
-2.5060 1.8747 -0.6615 0.9873
-9.0071 3.5361 -2.0454 0.9612
-9.1228 1.8049 -1.9658 0.9627
-9.0779 0.9653 -1.9297 0.9634
-8.5783 -1.4040 -1.8374 0.9651
-8.3025 -2.1344 -1.8120 0.9656
-7.6076 -3.4928 -1.7695 0.9664
-7.1948 -4.1175 -1.7523 0.9667
-5.1717 -6.2225 -1.7103 0.9675
-4.5853 -6.6444 -1.7065 0.9675
-3.9711 -7.0224 -1.7053 0.9676
-3.3312 -7.3552 -1.7068 0.9675
-1.9827 -7.8804 -1.7177 0.9673
0.1800 -8.2962 -1.7541 0.9666
0.9290 -8.3294 -1.7716 0.9663
1.6880 -8.3070 -1.7918 0.9659
-6.5233 -3.8555 -1.7809 0.9693
-6.1077 -4.3899 -1.7678 0.9696
-5.6571 -4.8880 -1.7571 0.9697
-5.1741 -5.3485 -1.7490 0.9699
-4.6608 -5.7703 -1.7433 0.9700
-3.5524 -6.4926 -1.7394 0.9700
-2.3493 -7.0451 -1.7454 0.9699
-1.7176 -7.2546 -1.7521 0.9698
0.2714 -7.5997 -1.7872 0.9692
0.9576 -7.6156 -1.8039 0.9690
3.0471 -7.3449 -1.8689 0.9679
3.7431 -7.1436 -1.8954 0.9674
5.1113 -6.5664 -1.9557 0.9664
5.7745 -6.1883 -1.9892 0.9658
6.4171 -5.7495 -2.0250 0.9652
7.0334 -5.2498 -2.0627 0.9646
7.5755 -3.7761 -1.9893 0.9658
2.3397 -0.9157 -0.5905 0.9897
8.8140 -1.7339 -2.1112 0.9638
9.4890 0.7028 -2.2363 0.9617
9.5580 1.5750 -2.2766 0.9610
9.0332 2.3326 -2.1927 0.9624
7.9215 2.8209 -1.9763 0.9660
6.9960 3.2211 -1.8101 0.9688
4.3418 4.3737 -1.4484 0.9750
3.2868 4.7739 -1.3622 0.9765
2.8030 4.9694 -1.3409 0.9768
2.3335 5.1672 -1.3325 0.9770
1.3506 3.8822 -0.9660 0.9833
0.4514 2.8697 -0.6827 0.9881
0.2013 3.0164 -0.7105 0.9877
-0.7376 6.5489 -1.5489 0.9733
-1.1863 5.8058 -1.3927 0.9759
-2.8198 9.4171 -2.3103 0.9604
-4.2961 8.4632 -2.2306 0.9618
-5.5185 7.2818 -2.1473 0.9632
-6.0268 6.6284 -2.1055 0.9639
-6.4648 5.9448 -2.0641 0.9646
-7.9327 4.0830 -2.0968 0.9640
-8.2196 2.5117 -2.0200 0.9653
-8.2634 1.7368 -1.9845 0.9659
-8.1674 0.2319 -1.9203 0.9670
-7.8477 -1.1892 -1.8654 0.9679
-7.6119 -1.8610 -1.8417 0.9683
-7.3295 -2.5038 -1.8203 0.9687
-7.0035 -3.1155 -1.8015 0.9690
-5.7909 -4.7477 -1.7599 0.9697
-4.8122 -5.6524 -1.7447 0.9700
-4.2788 -6.0458 -1.7408 0.9700
-3.7189 -6.3984 -1.7393 0.9700
-1.9021 -7.1987 -1.7499 0.9699
-1.2580 -7.3754 -1.7584 0.9697
-0.5983 -7.5048 -1.7694 0.9695
0.0747 -7.5856 -1.7829 0.9693
1.4499 -7.5953 -1.8173 0.9687
3.5423 -7.2077 -1.8875 0.9675
6.2337 -5.8827 -2.0144 0.9654
6.8582 -5.4006 -2.0516 0.9648
7.4524 -4.8577 -2.0907 0.9641
2.3225 -0.9789 -0.5923 0.9897
9.4535 0.4549 -2.2244 0.9619
9.4023 2.1704 -2.2679 0.9611
5.7154 3.7808 -1.6106 0.9722
5.0811 4.0571 -1.5281 0.9736
4.5036 4.3080 -1.4647 0.9747
3.5235 4.8447 -1.4079 0.9757
2.9410 4.9128 -1.3457 0.9767
2.4684 5.1096 -1.3336 0.9770
2.0031 5.3113 -1.3341 0.9769
1.5357 5.5222 -1.3471 0.9767
-1.0387 5.8505 -1.3965 0.9759
-3.3713 9.1087 -2.2827 0.9609
-4.0975 8.6170 -2.2425 0.9616
-4.7612 8.0656 -2.2012 0.9622
-5.3585 7.4639 -2.1595 0.9629
-5.8870 6.8209 -2.1176 0.9637
-7.2558 5.8671 -2.1930 0.9624
-7.5989 5.0943 -2.1501 0.9631
-7.8683 4.3106 -2.1086 0.9638
-8.1957 0.4449 -1.9290 0.9668
-7.9068 -0.9899 -1.8728 0.9678
-7.4158 -2.3210 -1.8263 0.9686
-7.1021 -2.9419 -1.8067 0.9689
-6.3525 -4.0852 -1.7750 0.9694
-5.9218 -4.6044 -1.7630 0.9696
-5.4573 -5.0868 -1.7534 0.9698
-4.9612 -5.5312 -1.7463 0.9699
-4.4358 -5.9362 -1.7416 0.9700
-2.7059 -6.9033 -1.7426 0.9700
-2.0852 -7.1390 -1.7479 0.9699
-0.7905 -7.4723 -1.7660 0.9696
-0.1211 -7.5673 -1.7787 0.9694
1.9448 -7.5482 -1.8319 0.9685
3.3411 -7.2670 -1.8798 0.9677
4.0349 -7.0415 -1.9074 0.9672
5.3931 -6.4144 -1.9696 0.9662
6.0482 -6.0107 -2.0040 0.9656
6.6805 -5.5463 -2.0406 0.9650
7.8528 -4.4350 -2.1196 0.9636
7.7767 -3.5170 -2.0059 0.9655
8.6134 -2.1622 -2.0871 0.9642
8.9472 -1.4123 -2.1288 0.9635
9.4113 0.2092 -2.2124 0.9621
9.5611 1.9482 -2.2933 0.9607
8.5362 2.5510 -2.0939 0.9641
7.5143 2.9995 -1.9015 0.9673
5.2579 3.9802 -1.5499 0.9733
3.0804 4.8563 -1.3516 0.9766
2.6039 5.0523 -1.3358 0.9769
2.1374 5.2522 -1.3327 0.9770
0.1783 6.1620 -1.4488 0.9750
-3.1503 9.2385 -2.2940 0.9607
-3.8938 8.7657 -2.2542 0.9614
-4.5760 8.2306 -2.2133 0.9620
-5.1928 7.6426 -2.1716 0.9627
-6.2201 6.3434 -2.0880 0.9642
-6.6285 5.6494 -2.0469 0.9648
-8.0161 3.7508 -2.0800 0.9643
-8.2458 2.1836 -2.0048 0.9656
-8.2631 1.4140 -1.9702 0.9661
-7.9616 -0.7883 -1.8803 0.9677
-7.4983 -2.1357 -1.8324 0.9685
-6.0500 -4.4580 -1.7662 0.9696
-5.5950 -4.9512 -1.7559 0.9698
-2.2667 -7.0754 -1.7461 0.9699
-1.6326 -7.2789 -1.7532 0.9698
-0.9816 -7.4358 -1.7627 0.9697
-0.3160 -7.5449 -1.7748 0.9694
1.0491 -7.6138 -1.8063 0.9689
1.7432 -7.5706 -1.8258 0.9686
4.5232 -6.8458 -1.9284 0.9668
6.5004 -5.6868 -2.0299 0.9651
7.1128 -5.1791 -2.0679 0.9645
8.8571 -1.6337 -2.1167 0.9637
9.5030 0.8171 -2.2417 0.9616
9.5607 1.6920 -2.2819 0.9609
7.7902 2.8785 -1.9519 0.9665
6.8853 3.2696 -1.7914 0.9692
6.1161 3.6059 -1.6686 0.9712
4.8316 4.1656 -1.4993 0.9741
4.2667 4.4011 -1.4406 0.9751
3.8186 4.7172 -1.4264 0.9754
3.2215 4.7998 -1.3586 0.9765
2.2718 5.1938 -1.3323 0.9770
1.8068 5.3989 -1.3380 0.9769
-0.2192 6.3301 -1.4886 0.9743
-0.8206 6.5839 -1.5593 0.9731
-1.2611 5.8196 -1.3995 0.9758
-2.9247 9.3624 -2.3052 0.9605
-5.0213 7.8175 -2.1837 0.9625
-5.5899 7.1973 -2.1418 0.9632
-7.9603 3.9787 -2.0915 0.9641
-8.1286 3.1913 -2.0524 0.9648
-8.2291 2.4084 -2.0151 0.9654
-8.2645 1.6351 -1.9800 0.9660
-8.1528 0.1349 -1.9164 0.9671
-8.0122 -0.5847 -1.8881 0.9675
-7.5771 -1.9479 -1.8387 0.9684
-7.2888 -2.5867 -1.8177 0.9687
-6.5851 -3.7686 -1.7832 0.9693
-6.1752 -4.3085 -1.7696 0.9695
-5.7300 -4.8124 -1.7586 0.9697
-3.6429 -6.4420 -1.7393 0.9700
-3.0556 -6.7468 -1.7407 0.9700
-1.8178 -7.2248 -1.7509 0.9699
-1.1714 -7.3953 -1.7597 0.9697
1.5420 -7.5886 -1.8199 0.9687
-6.0094 -3.5518 -1.8074 0.9716
-5.6298 -4.0463 -1.7951 0.9718
-4.7732 -4.9341 -1.7775 0.9720
-4.3007 -5.3245 -1.7722 0.9721
-3.8018 -5.6776 -1.7692 0.9722
-3.2785 -5.9920 -1.7685 0.9722
-2.1676 -6.5002 -1.7741 0.9721
-1.5843 -6.6915 -1.7804 0.9720
-0.9853 -6.8392 -1.7891 0.9719
-0.3731 -6.9421 -1.8000 0.9717
1.5181 -6.9692 -1.8468 0.9710
2.1575 -6.8801 -1.8669 0.9706
3.4308 -6.5476 -1.9139 0.9699
4.0576 -6.3021 -1.9407 0.9695
6.9190 -4.2593 -2.1037 0.9670
8.1974 -0.8627 -2.1342 0.9665
8.3855 -0.1297 -2.1714 0.9659
8.5506 1.4090 -2.2438 0.9648
8.5186 2.1997 -2.2780 0.9643
6.2027 3.5587 -1.8515 0.9709
5.5173 3.8584 -1.7432 0.9726
4.9024 4.1264 -1.6591 0.9739
3.8825 4.6817 -1.5748 0.9752
3.3745 4.9012 -1.5407 0.9757
2.8329 5.0223 -1.4930 0.9765
2.3598 5.2254 -1.4845 0.9766
1.3302 3.8237 -1.0482 0.9834
1.4103 5.6312 -1.5030 0.9763
0.4510 2.8672 -0.7515 0.9881
-0.1433 6.2899 -1.6290 0.9743
-4.9666 6.5536 -2.1291 0.9666
-5.4346 5.9772 -2.0917 0.9672
-6.9688 4.4151 -2.1360 0.9665
-7.4927 2.2896 -2.0285 0.9681
-7.5444 1.5857 -1.9961 0.9686
-7.5385 0.8920 -1.9655 0.9691
-7.4778 0.2123 -1.9369 0.9696
-7.3648 -0.4498 -1.9104 0.9700
-7.2024 -1.0914 -1.8861 0.9703
-6.4458 -2.8674 -1.8266 0.9713
-6.1126 -3.4027 -1.8114 0.9715
-5.7430 -3.9067 -1.7984 0.9717
-5.3396 -4.3777 -1.7878 0.9719
-4.4402 -5.2154 -1.7735 0.9721
-3.9487 -5.5794 -1.7698 0.9722
-3.4322 -5.9051 -1.7684 0.9722
-2.3330 -6.4370 -1.7727 0.9721
-0.5514 -6.9171 -1.7966 0.9717
0.6980 -7.0106 -1.8242 0.9713
1.3335 -6.9856 -1.8414 0.9710
1.9725 -6.9111 -1.8609 0.9707
2.6117 -6.7858 -1.8826 0.9704
4.4961 -6.0948 -1.9610 0.9692
5.0998 -5.7567 -1.9913 0.9687
5.6838 -5.3638 -2.0235 0.9682
6.2431 -4.9162 -2.0575 0.9677
7.2487 -3.8503 -2.1252 0.9667
7.8621 -1.7589 -2.0860 0.9673
8.1309 -1.0688 -2.1234 0.9667
8.2052 2.6850 -2.2353 0.9650
7.2401 3.1093 -2.0401 0.9680
6.4176 3.4646 -1.8883 0.9703
5.0742 4.0516 -1.6812 0.9735
4.0340 4.6161 -1.5873 0.9750
1.5496 5.5719 -1.4974 0.9764
0.0192 6.2213 -1.6108 0.9746
-1.0389 5.8517 -1.5388 0.9757
-1.9091 7.0322 -1.8867 0.9703
-3.0151 8.1464 -2.2491 0.9647
-3.6715 7.7209 -2.2136 0.9653
-4.2743 7.2408 -2.1770 0.9659
-4.8199 6.7137 -2.1399 0.9664
-5.3056 6.1472 -2.1025 0.9670
-5.7299 5.5489 -2.0652 0.9676
-6.8877 4.6175 -2.1470 0.9663
-7.4667 2.4943 -2.0383 0.9680
-7.5460 1.0913 -1.9741 0.9690
-7.2543 -0.9082 -1.8929 0.9702
-6.5351 -2.7070 -1.8315 0.9712
-6.2128 -3.2511 -1.8155 0.9714
-5.8535 -3.7643 -1.8019 0.9717
-4.0934 -5.4780 -1.7706 0.9721
-3.5840 -5.8149 -1.7686 0.9722
-3.0511 -6.1128 -1.7689 0.9722
-2.4970 -6.3702 -1.7715 0.9721
-1.9237 -6.5861 -1.7765 0.9720
-1.3335 -6.7592 -1.7838 0.9719
2.4270 -6.8273 -1.8761 0.9705
3.6963 -6.4506 -1.9250 0.9697
4.3185 -6.1825 -1.9526 0.9693
4.9270 -5.8601 -1.9823 0.9689
5.5172 -5.4830 -2.0140 0.9684
6.0842 -5.0512 -2.0475 0.9679
7.7737 -1.9514 -2.0752 0.9674
8.2847 -0.5573 -2.1499 0.9663
8.4445 0.1877 -2.1870 0.9657
8.5333 0.9565 -2.2233 0.9651
7.5016 2.9944 -2.0913 0.9672
5.9036 3.6896 -1.8025 0.9716
5.2506 3.9747 -1.7051 0.9732
4.1879 4.5494 -1.6010 0.9748
3.6656 4.7755 -1.5587 0.9754
2.6327 5.1083 -1.4880 0.9765
2.1612 5.3105 -1.4845 0.9766
1.6878 5.5129 -1.4928 0.9765
0.3289 2.7672 -0.7215 0.9886
-0.3870 6.3927 -1.6582 0.9739
-3.4870 7.8499 -2.2240 0.9651
-5.1714 6.3146 -2.1133 0.9668
-5.6135 5.7248 -2.0759 0.9674
-2.5790 1.8273 -0.8184 0.9870
-7.0772 4.1185 -2.1201 0.9667
-7.5217 1.9918 -2.0146 0.9684
-7.3022 -0.7230 -1.8999 0.9701
-7.1198 -1.3552 -1.8765 0.9705
-6.8919 -1.9630 -1.8554 0.9708
-6.6210 -2.5442 -1.8365 0.9711
-6.3099 -3.0969 -1.8199 0.9714
-5.9611 -3.6192 -1.8056 0.9716
-5.5769 -4.1094 -1.7936 0.9718
-4.7122 -4.9879 -1.7766 0.9720
-3.2075 -6.0307 -1.7686 0.9722
-2.6593 -6.3000 -1.7705 0.9721
-2.0913 -6.5280 -1.7748 0.9721
-0.2912 -6.9523 -1.8017 0.9717
2.2422 -6.8645 -1.8698 0.9706
3.5144 -6.5182 -1.9173 0.9699
4.7528 -5.9589 -1.9735 0.9690
5.3487 -5.5977 -2.0046 0.9685
6.9852 -4.1868 -2.1086 0.9669
8.4053 -0.0304 -2.1763 0.9659
8.5509 1.5133 -2.2484 0.9648
8.5084 2.3049 -2.2824 0.9642
6.1070 3.6006 -1.8356 0.9711
4.2679 4.4022 -1.5875 0.9750
3.2502 4.8425 -1.5100 0.9762
2.2974 5.2522 -1.4843 0.9766
1.2928 3.8631 -1.0548 0.9833
1.3462 5.6585 -1.5060 0.9763
-0.8195 6.5748 -1.7155 0.9730
-2.6130 8.3645 -2.2689 0.9644
-4.5115 7.0238 -2.1614 0.9661
-5.8901 5.2889 -2.0496 0.9678
-7.0041 4.3221 -2.1310 0.9666
-7.3993 2.9050 -2.0582 0.9677
-7.5029 2.1959 -2.0241 0.9682
-7.5336 0.8011 -1.9616 0.9692
-7.4657 0.1235 -1.9333 0.9696
-7.1774 -1.1748 -1.8831 0.9704
-6.9623 -1.7898 -1.8613 0.9707
-6.4039 -2.9401 -1.8245 0.9713
-5.6915 -3.9710 -1.7969 0.9717
-5.2837 -4.4376 -1.7865 0.9719
-4.3766 -5.2658 -1.7728 0.9721
-3.8816 -5.6248 -1.7695 0.9722
-2.8199 -6.2263 -1.7697 0.9722
-2.2574 -6.4664 -1.7734 0.9721
-0.4698 -6.9290 -1.7982 0.9717
0.1517 -6.9932 -1.8111 0.9715
0.7819 -7.0101 -1.8263 0.9713
1.4180 -6.9786 -1.8438 0.9710
-5.2167 -3.7495 -1.8187 0.9736
-4.4262 -4.5754 -1.8022 0.9739
-3.9890 -4.9385 -1.7972 0.9740
-3.5266 -5.2666 -1.7943 0.9740
-2.5352 -5.8128 -1.7953 0.9740
-1.4689 -6.2043 -1.8049 0.9738
0.8155 -6.4853 -1.8504 0.9732
1.9933 -6.3567 -1.8859 0.9727
2.5811 -6.2216 -1.9068 0.9724
3.1638 -6.0379 -1.9297 0.9721
3.7377 -5.8052 -1.9546 0.9717
4.8436 -5.1907 -2.0098 0.9709
5.8647 -4.3775 -2.0717 0.9700
6.3316 -3.8977 -2.1048 0.9696
2.3425 -0.9167 -0.7121 0.9896
6.9558 -2.0276 -2.0511 0.9703
7.2258 -1.4215 -2.0848 0.9698
7.4425 -0.7832 -2.1186 0.9694
7.6971 0.5701 -2.1850 0.9684
7.5741 2.6971 -2.2761 0.9671
6.9735 3.2107 -2.1733 0.9686
6.1934 3.5533 -2.0214 0.9708
5.5095 3.8529 -1.9032 0.9724
4.8958 4.1209 -1.8116 0.9737
4.3337 4.3655 -1.7414 0.9748
3.8776 4.6758 -1.7196 0.9751
2.8294 5.0162 -1.6304 0.9763
2.3569 5.2191 -1.6212 0.9765
1.3246 3.8076 -1.1413 0.9834
0.4523 2.8756 -0.8241 0.9880
0.1976 2.9616 -0.8403 0.9877
-0.7356 6.5309 -1.8605 0.9730
-1.1838 5.7936 -1.6740 0.9757
-3.4864 6.8682 -2.1805 0.9685
-4.0238 6.4308 -2.1475 0.9690
-4.9433 5.4367 -2.0802 0.9699
-6.3638 4.0318 -2.1327 0.9692
-6.5964 3.3952 -2.1002 0.9696
-6.8892 0.1956 -1.9511 0.9718
-6.7925 -0.4149 -1.9265 0.9721
-6.6493 -1.0076 -1.9039 0.9724
-6.4621 -1.5799 -1.8833 0.9727
-6.2333 -2.1293 -1.8647 0.9730
-5.9653 -2.6537 -1.8483 0.9732
-4.9493 -4.0578 -1.8118 0.9737
-4.1181 -4.8371 -1.7984 0.9739
-3.6628 -5.1754 -1.7949 0.9740
-3.1839 -5.4779 -1.7937 0.9740
-2.6835 -5.7432 -1.7946 0.9740
-2.1639 -5.9702 -1.7977 0.9739
-1.0753 -6.3044 -1.8105 0.9738
0.0637 -6.4710 -1.8320 0.9735
0.6460 -6.4886 -1.8460 0.9733
1.2334 -6.4609 -1.8621 0.9730
2.9960 -6.0961 -1.9229 0.9722
4.1382 -5.6097 -1.9734 0.9714
4.6881 -5.2919 -2.0014 0.9710
5.2181 -4.9243 -2.0311 0.9706
5.7237 -4.5072 -2.0624 0.9702
6.6229 -3.5179 -2.1230 0.9693
7.1530 -1.6003 -2.0750 0.9700
7.3856 -0.9709 -2.1088 0.9695
7.5614 -0.3126 -2.1424 0.9690
7.6760 0.3693 -2.1755 0.9686
7.7251 1.0687 -2.2078 0.9681
7.7054 1.7787 -2.2387 0.9677
7.2281 3.1041 -2.2269 0.9678
4.4919 4.2968 -1.7597 0.9745
4.0289 4.6102 -1.7333 0.9749
1.4287 3.7882 -1.1461 0.9833
1.5477 5.5651 -1.6352 0.9763
1.0614 5.7719 -1.6614 0.9759
0.2679 2.8886 -0.8213 0.9880
-1.0391 5.8529 -1.6828 0.9756
-3.3220 6.9860 -2.1899 0.9684
-3.8735 6.5619 -2.1571 0.9688
-5.2177 5.0530 -2.0562 0.9703
-5.8389 3.9144 -1.9900 0.9712
-6.5367 3.5811 -2.1100 0.9695
-6.9232 1.6431 -2.0143 0.9709
-6.8253 -0.2400 -1.9334 0.9720
-6.6953 -0.8382 -1.9102 0.9723
-6.5206 -1.4167 -1.8890 0.9726
-6.3036 -1.9729 -1.8699 0.9729
-5.4226 -3.4871 -1.8251 0.9736
-4.2450 -4.7327 -1.7998 0.9739
-2.8303 -5.6704 -1.7941 0.9740
-1.2362 -6.2662 -1.8081 0.9738
2.2416 -6.3056 -1.8945 0.9726
2.8276 -6.1501 -1.9162 0.9723
3.9761 -5.6923 -1.9656 0.9715
4.5309 -5.3889 -1.9931 0.9712
5.5803 -4.6329 -2.0532 0.9703
6.5093 -3.6763 -2.1163 0.9694
6.4332 -2.9094 -1.9988 0.9711
6.7773 -2.3618 -2.0318 0.9706
7.3240 -1.1560 -2.0990 0.9696
7.7178 0.8651 -2.1986 0.9682
7.7184 1.5727 -2.2299 0.9678
7.6480 2.2856 -2.2597 0.9674
7.4889 2.9893 -2.2827 0.9670
5.8950 3.6841 -1.9679 0.9715
4.6534 4.2265 -1.7796 0.9742
4.1825 4.5435 -1.7483 0.9747
3.6610 4.7695 -1.7021 0.9753
3.1062 4.8970 -1.6417 0.9762
2.6296 5.1021 -1.6249 0.9764
1.6858 5.5062 -1.6302 0.9763
1.2037 5.7115 -1.6524 0.9760
0.1778 6.1461 -1.7407 0.9748
-0.3865 6.3840 -1.8106 0.9738
-3.1536 7.0995 -2.1992 0.9682
-3.7191 6.6893 -2.1667 0.9687
-4.2353 6.2334 -2.1334 0.9692
-4.6994 5.7383 -2.0997 0.9696
-5.4641 4.6570 -2.0324 0.9706
-6.8543 -0.0638 -1.9405 0.9719
-6.7376 -0.6671 -1.9167 0.9722
-6.5756 -1.2516 -1.8949 0.9726
-5.8411 -2.8668 -1.8420 0.9733
-4.7835 -4.2331 -1.8083 0.9738
-4.3698 -4.6255 -1.8014 0.9739
-3.9291 -4.9840 -1.7967 0.9740
-3.4636 -5.3074 -1.7941 0.9740
-2.9754 -5.5944 -1.7938 0.9740
-2.4666 -5.8437 -1.7956 0.9740
-0.2697 -6.4406 -1.8249 0.9736
0.3084 -6.4839 -1.8376 0.9734
0.8932 -6.4825 -1.8525 0.9732
1.4818 -6.4354 -1.8695 0.9729
3.2404 -6.0100 -1.9329 0.9720
3.8128 -5.7707 -1.9580 0.9717
4.3722 -5.4818 -1.9850 0.9713
4.9143 -5.1430 -2.0137 0.9709
5.4346 -4.7544 -2.0441 0.9704
5.9284 -4.3167 -2.0761 0.9700
6.3260 -3.0603 -1.9894 0.9712
6.9945 -1.9493 -2.0555 0.9703
7.2577 -1.3387 -2.0893 0.9698
7.7049 0.6625 -2.1893 0.9684
7.7254 1.3672 -2.2210 0.9679
7.6758 2.0794 -2.2513 0.9675
7.5537 2.7911 -2.2797 0.9671
5.4246 3.8900 -1.8897 0.9726
3.8091 4.7055 -1.7138 0.9751
3.2462 4.8366 -1.6490 0.9761
2.7665 5.0433 -1.6284 0.9764
1.3445 5.6516 -1.6446 0.9761
-0.2186 6.3134 -1.7883 0.9741
-0.8184 6.5656 -1.8731 0.9729
-2.3587 7.5503 -2.2393 0.9677
-4.0913 6.3695 -2.1431 0.9690
-5.3673 4.8194 -2.0421 0.9705
-2.5052 1.8741 -0.8857 0.9871
-6.6222 3.3098 -2.0958 0.9697
-6.6270 -1.0847 -1.9010 0.9725
-6.2000 -2.2003 -1.8624 0.9730
-5.6174 -3.2148 -1.8322 0.9735
-4.8978 -4.1135 -1.8107 0.9738
-4.4923 -4.5154 -1.8031 0.9739
-4.0592 -4.8839 -1.7978 0.9739
-3.1188 -5.5152 -1.7937 0.9740
-2.6158 -5.7755 -1.7949 0.9740
-1.5547 -6.1794 -1.8039 0.9739
-0.4353 -6.4199 -1.8216 0.9736
0.1405 -6.4759 -1.8337 0.9734
0.7236 -6.4876 -1.8480 0.9732
1.3114 -6.4538 -1.8644 0.9730
2.4893 -6.2459 -1.9034 0.9724
-5.1785 -3.0607 -1.8502 0.9751
-4.1226 -4.2616 -1.8237 0.9755
-3.2857 -4.9069 -1.8164 0.9756
-1.8727 -5.6158 -1.8208 0.9755
-0.8503 -5.9019 -1.8340 0.9754
-0.3217 -5.9856 -1.8437 0.9752
0.2153 -6.0285 -1.8554 0.9751
0.7581 -6.0295 -1.8691 0.9749
1.3042 -5.9876 -1.8848 0.9747
2.3945 -5.7719 -1.9220 0.9742
2.9325 -5.5967 -1.9434 0.9739
3.9771 -5.1093 -1.9915 0.9733
4.9541 -4.4388 -2.0460 0.9725
2.3439 -0.9173 -0.7742 0.9895
6.6184 -1.3020 -2.0747 0.9722
6.8076 -0.7164 -2.1054 0.9718
6.9432 -0.1074 -2.1358 0.9714
7.0217 0.5200 -2.1656 0.9710
6.1840 3.5479 -2.1929 0.9706
4.8891 4.1152 -1.9656 0.9736
4.3281 4.3598 -1.8895 0.9746
2.8259 5.0100 -1.7692 0.9762
1.3107 3.7676 -1.2269 0.9834
1.4069 5.6173 -1.7811 0.9761
0.4539 2.8858 -0.8985 0.9878
0.1970 2.9521 -0.9100 0.9877
-0.1429 6.2731 -1.9300 0.9741
-1.1825 5.7874 -1.8169 0.9756
-2.6439 6.6130 -2.1906 0.9706
-4.1262 5.4447 -2.1012 0.9718
-2.4949 1.9129 -0.9670 0.9869
-5.4363 3.4442 -1.9794 0.9734
-6.0751 3.1269 -2.1016 0.9718
-6.2386 2.5349 -2.0712 0.9722
-6.3493 1.9402 -2.0420 0.9726
-6.3806 0.1812 -1.9633 0.9736
-6.1694 -0.9349 -1.9192 0.9742
-6.0004 -1.4670 -1.9000 0.9745
-5.5464 -2.4673 -1.8671 0.9749
-4.9524 -3.3688 -1.8423 0.9752
-4.6082 -3.7781 -1.8329 0.9754
-3.8362 -4.5060 -1.8202 0.9755
-2.5002 -5.3509 -1.8166 0.9756
0.0593 -6.0204 -1.8518 0.9751
0.6007 -6.0336 -1.8650 0.9749
2.2377 -5.8141 -1.9162 0.9743
2.7778 -5.6520 -1.9370 0.9740
3.8294 -5.1911 -1.9841 0.9734
4.8183 -4.5470 -2.0377 0.9727
5.2789 -4.1569 -2.0667 0.9723
2.3148 -0.9756 -0.7726 0.9895
6.3021 -2.0152 -2.0351 0.9727
6.7582 -0.8884 -2.0966 0.9719
7.0050 0.3370 -2.1571 0.9711
7.0408 0.9740 -2.1862 0.9707
7.0141 1.6191 -2.2141 0.9703
6.9229 2.2654 -2.2404 0.9700
6.7658 2.9056 -2.2648 0.9697
4.4859 4.2911 -1.9094 0.9744
3.5104 4.8267 -1.8357 0.9753
2.9637 4.9507 -1.7747 0.9761
2.4901 5.1544 -1.7607 0.9763
1.4096 3.7377 -1.2287 0.9834
1.5458 5.5582 -1.7745 0.9761
1.0601 5.7647 -1.8028 0.9758
0.2675 2.8841 -0.8909 0.9880
0.0191 6.2049 -1.9085 0.9744
-2.4813 6.7040 -2.1987 0.9705
-3.0299 6.3717 -2.1701 0.9709
-4.0009 5.5729 -2.1101 0.9717
-4.7846 4.6335 -2.0486 0.9725
-5.1019 4.1255 -2.0181 0.9729
-6.1968 2.7066 -2.0799 0.9721
-6.3967 1.5181 -2.0221 0.9729
-6.4207 0.9286 -1.9954 0.9732
-6.2107 -0.7775 -1.9252 0.9741
-5.6212 -2.3285 -1.8714 0.9749
-4.3461 -4.0510 -1.8274 0.9754
-3.5374 -4.7339 -1.8177 0.9756
-1.1512 -5.8351 -1.8294 0.9754
-0.6286 -5.9421 -1.8379 0.9753
-0.0962 -6.0088 -1.8484 0.9752
0.4436 -6.0341 -1.8610 0.9750
0.9882 -6.0171 -1.8755 0.9748
1.5348 -5.9569 -1.8920 0.9746
2.0805 -5.8526 -1.9105 0.9743
2.6223 -5.7036 -1.9308 0.9741
3.6805 -5.2691 -1.9769 0.9735
4.1897 -4.9831 -2.0025 0.9731
5.9874 -3.3815 -2.1150 0.9716
5.9129 -2.6741 -1.9960 0.9732
6.2208 -2.1679 -2.0263 0.9728
6.4861 -1.6282 -2.0569 0.9724
6.8715 -0.4622 -2.1183 0.9716
6.9835 0.1553 -2.1485 0.9712
7.0284 1.4321 -2.2062 0.9704
6.9560 2.0788 -2.2330 0.9701
6.8181 2.7216 -2.2580 0.9697
6.6140 3.3529 -2.2808 0.9694
5.2360 3.9636 -2.0199 0.9729
4.6472 4.2208 -1.9309 0.9741
3.1024 4.8909 -1.7815 0.9761
2.6263 5.0959 -1.7633 0.9763
2.1559 5.2976 -1.7592 0.9763
1.6837 5.4994 -1.7690 0.9762
0.3260 2.7425 -0.8495 0.9885
0.1776 6.1381 -1.8887 0.9746
-0.3859 6.3753 -1.9645 0.9736
-1.0016 6.6336 -2.0635 0.9723
-3.8716 5.6982 -2.1189 0.9716
-4.3018 5.2527 -2.0883 0.9720
-2.5722 1.8225 -0.9696 0.9869
-5.9482 3.4616 -2.1168 0.9716
-6.1505 2.8779 -2.0886 0.9720
-6.2916 2.2842 -2.0587 0.9724
-6.4188 1.0984 -2.0030 0.9731
-6.3508 -0.0591 -1.9534 0.9738
-6.1031 -1.1616 -1.9109 0.9743
-5.9172 -1.6854 -1.8924 0.9746
-5.1376 -3.1192 -1.8486 0.9752
-4.8109 -3.5449 -1.8381 0.9753
-4.4544 -3.9419 -1.8295 0.9754
-4.0702 -4.3084 -1.8230 0.9755
-3.6604 -4.6432 -1.8186 0.9756
-3.2270 -4.9449 -1.8162 0.9756
-2.7722 -5.2124 -1.8159 0.9756
-2.2981 -5.4443 -1.8176 0.9756
-0.2510 -5.9937 -1.8451 0.9752
0.2869 -6.0311 -1.8571 0.9750
1.3767 -5.9788 -1.8871 0.9747
3.0032 -5.5701 -1.9464 0.9739
3.5304 -5.3432 -1.9698 0.9736
4.0442 -5.0705 -1.9949 0.9732
5.8166 -2.8138 -1.9874 0.9733
6.1360 -2.3179 -2.0175 0.9729
6.4140 -1.7875 -2.0480 0.9725
6.8287 -0.6370 -2.1095 0.9717
7.0373 1.2454 -2.1982 0.9705
6.8647 2.5365 -2.2510 0.9698
6.6798 3.1719 -2.2744 0.9695
6.0887 3.5898 -2.1740 0.9709
5.4169 3.8845 -2.0502 0.9725
4.8122 4.1488 -1.9543 0.9738
4.2568 4.3908 -1.8810 0.9747
3.8043 4.6995 -1.8597 0.9750
3.2422 4.8306 -1.7894 0.9759
1.3428 5.6446 -1.7846 0.9760
0.3330 6.0725 -1.8706 0.9749
-0.2183 6.3048 -1.9404 0.9739
-2.1470 6.8728 -2.2147 0.9703
-3.2492 6.2173 -2.1577 0.9711
-4.5782 4.9169 -2.0664 0.9723
-4.9245 4.4219 -2.0357 0.9727
-2.5049 1.8739 -0.9622 0.9870
-5.4659 3.3729 -1.9755 0.9735
-6.3601 1.8614 -2.0383 0.9726
-6.4129 1.2688 -2.0107 0.9730
-6.2824 -0.4585 -1.9375 0.9740
-6.1494 -1.0065 -1.9166 0.9743
-5.9750 -1.5360 -1.8975 0.9745
-5.7616 -2.0447 -1.8804 0.9747
-5.5112 -2.5303 -1.8653 0.9749
-4.1840 -4.2056 -1.8247 0.9755
-3.7814 -4.5497 -1.8196 0.9755
-3.3547 -4.8612 -1.8167 0.9756
-2.9058 -5.1386 -1.8157 0.9756
-1.9504 -5.5869 -1.8201 0.9755
-1.4480 -5.7553 -1.8254 0.9755
-0.4052 -5.9752 -1.8421 0.9752
2.3096 -5.7952 -1.9188 0.9742
-4.5377 -3.2614 -1.8575 0.9767
-3.8546 -3.9846 -1.8428 0.9769
-3.0729 -4.5891 -1.8358 0.9770
-2.6502 -4.8436 -1.8353 0.9770
-1.7511 -5.2512 -1.8400 0.9769
-1.2790 -5.4020 -1.8453 0.9769
-0.7947 -5.5161 -1.8525 0.9768
-0.3006 -5.5925 -1.8617 0.9767
0.7077 -5.6284 -1.8856 0.9764
1.7256 -5.5028 -1.9170 0.9760
2.2311 -5.3778 -1.9353 0.9758
3.6964 -4.7487 -2.0003 0.9750
4.1562 -4.4541 -2.0251 0.9746
5.3944 -3.3208 -2.1057 0.9737
2.3454 -0.9179 -0.8372 0.9894
5.8855 -1.7156 -2.0378 0.9745
6.3831 -0.0987 -2.1220 0.9734
6.4479 0.4775 -2.1492 0.9731
6.4574 1.0641 -2.1754 0.9728
6.3023 2.2442 -2.2238 0.9722
5.9092 3.3903 -2.2646 0.9717
5.4936 3.8418 -2.2283 0.9721
4.3223 4.3540 -2.0394 0.9745
3.7994 4.5814 -1.9784 0.9752
2.3511 5.2063 -1.8989 0.9762
1.2649 3.6360 -1.2797 0.9839
0.1984 2.9741 -0.9908 0.9875
-0.1427 6.2646 -2.0829 0.9739
-0.7335 6.5125 -2.1785 0.9728
-1.1812 5.7811 -1.9614 0.9754
-2.4256 6.0670 -2.1719 0.9728
-2.9216 5.7555 -2.1455 0.9732
-3.3802 5.4021 -2.1183 0.9735
-4.1735 4.5901 -2.0622 0.9742
-4.5041 4.1417 -2.0339 0.9745
-2.4973 1.9147 -1.0460 0.9868
-5.0274 3.1852 -1.9783 0.9752
-5.7819 2.3494 -2.0746 0.9740
-5.8907 1.8000 -2.0475 0.9744
-5.8631 -0.3581 -1.9526 0.9755
-5.5951 -1.3679 -1.9146 0.9760
-5.4041 -1.8461 -1.8983 0.9762
-5.1778 -2.3034 -1.8838 0.9764
-4.9182 -2.7379 -1.8711 0.9766
-3.9598 -3.8871 -1.8445 0.9769
-3.1914 -4.5094 -1.8364 0.9770
-2.7744 -4.7734 -1.8352 0.9770
-1.4168 -5.3621 -1.8436 0.9769
-0.4444 -5.5744 -1.8588 0.9767
0.0553 -5.6233 -1.8693 0.9766
0.5608 -5.6330 -1.8817 0.9764
1.0695 -5.6025 -1.8959 0.9762
2.5867 -5.2633 -1.9494 0.9756
3.0794 -5.0659 -1.9707 0.9753
3.5601 -4.8260 -1.9935 0.9750
4.0252 -4.5437 -2.0178 0.9747
4.8933 -3.8533 -2.0703 0.9741
5.2450 -2.7859 -1.9741 0.9753
2.3122 -0.9745 -0.8341 0.9895
5.8158 -1.8597 -2.0296 0.9746
6.0415 -1.3516 -2.0579 0.9742
6.2222 -0.8179 -2.0861 0.9739
6.3544 -0.2627 -2.1140 0.9735
6.4292 1.4841 -2.1933 0.9726
6.3393 2.0744 -2.2172 0.9723
3.9475 4.5171 -1.9941 0.9750
3.4441 4.7354 -1.9464 0.9756
2.9600 4.9445 -1.9156 0.9760
1.4111 3.7416 -1.3292 0.9833
-2.2757 6.1486 -2.1793 0.9727
-3.2516 5.5083 -2.1262 0.9734
-3.6817 5.1283 -2.0985 0.9737
-4.0695 4.7151 -2.0704 0.9741
-4.4131 4.2738 -2.0421 0.9744
-5.8642 1.9590 -2.0552 0.9743
-5.9389 1.4095 -2.0289 0.9746
-5.9668 0.8629 -2.0040 0.9749
-5.9495 0.3230 -1.9805 0.9752
-5.8886 -0.2071 -1.9586 0.9755
-5.7859 -0.7244 -1.9383 0.9757
-5.2468 -2.1734 -1.8878 0.9763
-4.7146 -3.0318 -1.8632 0.9766
-4.0630 -3.7872 -1.8463 0.9769
-3.6975 -4.1222 -1.8407 0.9769
-3.3081 -4.4271 -1.8371 0.9770
-2.8971 -4.7004 -1.8354 0.9770
-2.4662 -4.9410 -1.8356 0.9770
-2.0177 -5.1476 -1.8378 0.9770
0.4142 -5.6343 -1.8779 0.9765
0.9222 -5.6155 -1.8916 0.9763
1.4315 -5.5561 -1.9072 0.9761
2.4425 -5.3125 -1.9436 0.9757
3.4226 -4.8998 -1.9867 0.9751
3.8925 -4.6297 -2.0106 0.9748
4.7738 -3.9633 -2.0624 0.9742
5.1772 -3.5686 -2.0902 0.9738
5.5373 -3.1273 -2.1139 0.9736
5.4647 -2.4714 -1.9936 0.9750
5.7427 -2.0013 -2.0215 0.9747
6.1748 -0.9746 -2.0779 0.9740
6.3213 -0.4252 -2.1060 0.9736
6.4442 1.3131 -2.1861 0.9727
6.3714 1.9041 -2.2105 0.9724
6.0473 3.0656 -2.2537 0.9718
3.5872 4.6734 -1.9583 0.9755
2.1532 5.2911 -1.8988 0.9762
1.2007 5.6972 -1.9354 0.9758
-0.3854 6.3665 -2.1201 0.9735
-1.0001 6.6240 -2.2268 0.9722
-1.4306 5.8651 -2.0068 0.9749
-2.1231 6.2261 -2.1866 0.9727
-2.6391 5.9411 -2.1609 0.9730
-4.3184 4.4040 -2.0503 0.9743
-4.6298 3.9459 -2.0221 0.9747
-5.1141 2.9761 -1.9668 0.9754
-5.9221 1.5682 -2.0364 0.9745
-5.9634 1.0204 -2.0111 0.9748
-5.8198 -0.5763 -1.9440 0.9756
-5.6886 -1.0827 -1.9249 0.9759
-5.5190 -1.5719 -1.9075 0.9761
-5.3129 -2.0415 -1.8919 0.9763
-5.0723 -2.4895 -1.8782 0.9765
-4.4958 -3.3128 -1.8563 0.9767
-3.0180 -4.6247 -1.8357 0.9770
-2.1491 -5.0914 -1.8370 0.9770
-1.2155 -5.4193 -1.8461 0.9769
-0.7298 -5.5284 -1.8536 0.9768
0.2679 -5.6323 -1.8743 0.9765
1.2843 -5.5775 -1.9025 0.9762
1.7928 -5.4887 -1.9193 0.9760
2.7957 -5.1853 -1.9582 0.9755
3.7583 -4.7121 -2.0035 0.9749
4.2157 -4.4119 -2.0284 0.9746
5.4400 -3.2606 -2.1082 0.9736
5.3775 -2.6014 -1.9857 0.9751
5.6663 -2.1405 -2.0134 0.9748
5.9162 -1.6488 -2.0415 0.9744
6.1234 -1.1295 -2.0698 0.9741
6.4544 1.1423 -2.1788 0.9727
6.2836 2.3218 -2.2267 0.9722
5.8748 3.4637 -2.2670 0.9717
5.4090 3.8789 -2.2125 0.9723
4.2512 4.3850 -2.0301 0.9746
3.7323 4.6105 -1.9718 0.9753
2.7596 5.0308 -1.9073 0.9761
2.2890 5.2329 -1.8986 0.9762
1.2705 3.7963 -1.3307 0.9833
0.4192 2.8874 -0.9698 0.9878
-0.2180 6.2962 -2.0942 0.9738
-0.8160 6.5470 -2.1931 0.9726
-1.2546 5.7895 -1.9691 0.9753
-3.4380 5.3525 -2.1146 0.9735
-3.8505 4.9578 -2.0867 0.9739
-4.5444 4.0806 -2.0302 0.9746
-5.0555 3.1197 -1.9747 0.9753
-5.9015 1.7272 -2.0440 0.9744
-5.9562 1.1784 -2.0183 0.9747
-5.9649 0.6343 -1.9939 0.9750
-5.7306 -0.9380 -1.9302 0.9758
-5.5719 -1.4324 -1.9123 0.9760
-5.3761 -1.9079 -1.8962 0.9762
-5.1453 -2.3623 -1.8820 0.9764
-3.9119 -3.9321 -1.8437 0.9769
-3.5361 -4.2545 -1.8389 0.9770
-3.1373 -4.5463 -1.8361 0.9770
-2.7177 -4.8059 -1.8352 0.9770
-2.2792 -5.0323 -1.8363 0.9770
-1.3538 -5.3808 -1.8443 0.9769
-0.8713 -5.5007 -1.8513 0.9768
0.1221 -5.6269 -1.8709 0.9766
1.6460 -5.5186 -1.9143 0.9760
2.1522 -5.4002 -1.9323 0.9758
-4.5340 -2.6797 -1.8834 0.9779
-3.9480 -3.4112 -1.8658 0.9781
-3.6160 -3.7379 -1.8598 0.9781
-2.4867 -4.5449 -1.8527 0.9782
-2.0725 -4.7521 -1.8540 0.9782
-1.6428 -4.9266 -1.8571 0.9782
-1.1997 -5.0672 -1.8621 0.9781
-0.7453 -5.1729 -1.8690 0.9780
-0.2818 -5.2430 -1.8776 0.9779
0.1884 -5.2763 -1.8881 0.9778
1.1393 -5.2302 -1.9142 0.9775
2.0864 -5.0292 -1.9471 0.9771
3.0069 -4.6703 -1.9863 0.9767
3.8752 -4.1529 -2.0313 0.9762
4.6635 -3.4808 -2.0810 0.9756
4.9573 -2.4710 -1.9808 0.9767
2.3468 -0.9184 -0.9012 0.9894
5.7971 -0.6101 -2.0845 0.9755
5.8999 -0.0912 -2.1101 0.9752
5.9541 0.4410 -2.1351 0.9750
5.1694 3.6150 -2.2558 0.9736
4.8534 4.0852 -2.2686 0.9734
4.3165 4.3481 -2.1910 0.9743
2.8189 4.9975 -2.0518 0.9759
2.3482 5.1997 -2.0403 0.9761
1.4033 5.6032 -2.0656 0.9758
0.4552 2.8939 -1.0476 0.9876
-0.6949 6.1698 -2.2203 0.9740
-1.1799 5.7747 -2.1078 0.9753
-2.6982 5.3154 -2.1317 0.9750
-3.1248 4.9939 -2.1067 0.9753
-3.5148 4.6378 -2.0810 0.9756
-3.8658 4.2518 -2.0550 0.9759
-4.1763 3.8403 -2.0289 0.9762
-2.5004 1.9171 -1.1267 0.9867
-4.6708 2.9592 -1.9773 0.9768
-5.2177 2.6856 -2.0986 0.9754
-5.3821 2.1869 -2.0775 0.9756
-5.4882 1.6770 -2.0522 0.9759
-5.5443 0.1574 -1.9835 0.9767
-5.4799 -0.3347 -1.9633 0.9769
-5.3766 -0.8148 -1.9447 0.9772
-5.2361 -1.2801 -1.9276 0.9774
-5.0601 -1.7285 -1.9122 0.9775
-4.8506 -2.1578 -1.8985 0.9777
-4.6094 -2.5659 -1.8865 0.9778
-4.3383 -2.9511 -1.8763 0.9780
-3.7145 -3.6462 -1.8614 0.9781
-3.3655 -3.9531 -1.8566 0.9782
-2.9945 -4.2312 -1.8537 0.9782
-2.6033 -4.4790 -1.8526 0.9782
-2.1940 -4.6955 -1.8534 0.9782
-1.7686 -4.8795 -1.8560 0.9782
-0.8777 -5.1460 -1.8668 0.9781
0.0519 -5.2705 -1.8849 0.9779
0.5254 -5.2774 -1.8966 0.9777
1.4775 -5.1767 -1.9251 0.9774
2.4179 -4.9198 -1.9604 0.9770
2.8764 -4.7320 -1.9803 0.9768
3.3229 -4.5045 -2.0017 0.9765
3.7539 -4.2375 -2.0245 0.9762
4.1660 -3.9315 -2.0485 0.9760
4.5556 -3.5873 -2.0736 0.9757
4.8737 -2.5887 -1.9735 0.9768
2.3099 -0.9735 -0.8964 0.9894
5.7586 -0.7570 -2.0770 0.9756
5.9436 0.2860 -2.1279 0.9750
5.9617 0.8248 -2.1523 0.9748
5.6975 2.4468 -2.2174 0.9740
5.5011 2.9699 -2.2356 0.9738
4.9499 3.9524 -2.2652 0.9735
2.9563 4.9382 -2.0582 0.9758
1.5419 5.5442 -2.0579 0.9759
1.0574 5.7500 -2.0907 0.9755
0.2553 2.7530 -0.9887 0.9883
-1.0398 5.8567 -2.1271 0.9750
-1.6010 5.8974 -2.1853 0.9744
-2.0992 5.6716 -2.1627 0.9746
-2.5684 5.4013 -2.1388 0.9749
-3.4059 4.7441 -2.0885 0.9755
-3.7684 4.3662 -2.0625 0.9758
-4.0908 3.9616 -2.0364 0.9761
-4.6099 3.0904 -1.9847 0.9767
-4.8055 2.6327 -1.9595 0.9770
-5.3430 2.3337 -2.0850 0.9755
-5.5672 0.8051 -2.0116 0.9764
-5.5554 0.3016 -1.9896 0.9766
-4.4196 -2.8422 -1.8791 0.9779
-4.1286 -3.2101 -1.8702 0.9780
-3.4688 -3.8673 -1.8578 0.9782
-3.1040 -4.1538 -1.8543 0.9782
-1.8931 -4.8297 -1.8551 0.9782
-1.4575 -4.9900 -1.8590 0.9782
-1.0093 -5.1161 -1.8648 0.9781
0.8637 -5.2592 -1.9059 0.9776
1.3400 -5.2008 -1.9206 0.9774
1.8142 -5.1035 -1.9369 0.9773
2.7449 -4.7904 -1.9744 0.9768
3.6311 -4.3187 -2.0177 0.9763
4.0490 -4.0239 -2.0414 0.9760
4.8166 -3.3201 -2.0920 0.9755
5.3272 -1.8565 -2.0174 0.9763
5.5423 -1.3913 -2.0435 0.9760
5.7164 -0.9023 -2.0695 0.9757
5.9618 0.6682 -2.1453 0.9748
5.9429 1.2109 -2.1689 0.9746
5.7442 2.2929 -2.2118 0.9741
4.6345 4.2093 -2.2389 0.9738
3.8561 4.1889 -2.0360 0.9761
3.0946 4.8786 -2.0660 0.9758
2.6198 5.0831 -2.0450 0.9760
-0.3770 6.2271 -2.2309 0.9738
-1.4280 5.8546 -2.1550 0.9747
-4.2947 3.6603 -2.0179 0.9763
-2.5654 1.8176 -1.1243 0.9867
-4.7533 2.7662 -1.9667 0.9769
-5.2952 2.4777 -2.0906 0.9755
-5.4323 1.9722 -2.0667 0.9757
-5.5196 1.4616 -2.0419 0.9760
-5.5631 0.4465 -1.9958 0.9766
-5.5220 -0.0514 -1.9748 0.9768
-4.4986 -2.7312 -1.8820 0.9779
-4.2156 -3.1063 -1.8726 0.9780
-3.5702 -3.7791 -1.8591 0.9782
-3.2117 -4.0740 -1.8552 0.9782
-2.4328 -4.5742 -1.8527 0.9782
-2.0165 -4.7771 -1.8543 0.9782
-1.1401 -5.0832 -1.8629 0.9781
0.2511 -5.2780 -1.8896 0.9778
0.7260 -5.2689 -1.9020 0.9777
2.6125 -4.8455 -1.9686 0.9769
3.0664 -4.6409 -1.9892 0.9766
3.5067 -4.3967 -2.0111 0.9764
3.9302 -4.1131 -2.0344 0.9761
4.3333 -3.7910 -2.0589 0.9758
5.0553 -3.0300 -2.1077 0.9753
5.2578 -1.9861 -2.0099 0.9764
5.4842 -1.5284 -2.0359 0.9761
5.6705 -1.0459 -2.0620 0.9758
5.9538 1.0537 -2.1622 0.9746
5.8971 1.5975 -2.1849 0.9744
5.6213 2.6693 -2.2253 0.9739
5.1304 3.6790 -2.2576 0.9735
4.7989 4.1373 -2.2659 0.9734
3.2340 4.8183 -2.0752 0.9756
1.3394 5.6303 -2.0696 0.9757
-0.2164 6.2488 -2.2360 0.9738
-0.7671 6.1542 -2.2178 0.9740
-1.2530 5.7824 -2.1158 0.9752
-1.8143 5.8079 -2.1759 0.9745
-2.3008 5.5628 -2.1527 0.9748
-2.7567 5.2750 -2.1284 0.9750
-3.5636 4.5883 -2.0776 0.9756
-2.5055 1.8743 -1.1190 0.9868
-4.6976 2.8988 -1.9740 0.9768
-5.4989 1.6094 -2.0489 0.9760
-5.5547 1.0990 -2.0249 0.9762
-5.3601 -0.8773 -1.9423 0.9772
-5.2148 -1.3406 -1.9255 0.9774
-5.0343 -1.7866 -1.9103 0.9776
-4.8204 -2.2131 -1.8968 0.9777
-4.5751 -2.6183 -1.8851 0.9779
-3.6696 -3.6885 -1.8606 0.9781
-2.1385 -4.7218 -1.8537 0.9782
-1.7111 -4.9014 -1.8565 0.9782
-1.2699 -5.0474 -1.8612 0.9781
-0.8171 -5.1587 -1.8678 0.9781
-0.3549 -5.2344 -1.8762 0.9780
0.1144 -5.2736 -1.8863 0.9778
0.5884 -5.2755 -1.8982 0.9777
1.0646 -5.2393 -1.9119 0.9775
1.5404 -5.1646 -1.9273 0.9774
2.0129 -5.0506 -1.9443 0.9772
-4.2624 -2.5192 -1.8974 0.9790
-3.4019 -3.5166 -1.8750 0.9793
-2.7133 -4.0520 -1.8688 0.9793
-2.3401 -4.2768 -1.8683 0.9793
-1.5457 -4.6353 -1.8725 0.9793
