ply
format ascii 1.0
element vertex 1603
property float32 x
property float32 y
property float32 z
property float32 I
end_header
0.5698 6.0650 0.7933 0.9757
-0.5743 6.7344 0.8801 0.9731
-1.2264 6.9592 0.9202 0.9719
18.5356 -1.2898 2.4196 0.9278
13.1841 0.2623 1.7172 0.9482
11.7684 1.2910 1.5417 0.9534
10.2902 2.0713 1.3669 0.9585
8.6696 2.5683 1.1775 0.9642
7.7964 3.0903 1.0921 0.9667
6.8726 3.4629 1.0022 0.9694
5.4001 4.0668 0.8803 0.9731
4.7816 4.3211 0.8392 0.9743
3.7499 4.8597 0.7993 0.9755
3.1576 4.9499 0.7646 0.9766
2.6890 5.1844 0.7605 0.9767
2.2074 5.3839 0.7577 0.9768
1.2733 5.9636 0.7941 0.9757
0.1968 6.2206 0.8105 0.9752
-0.3734 6.4587 0.8425 0.9742
2.3543 -0.8994 0.3282 0.9899
14.3107 -0.1063 1.8636 0.9439
11.6590 0.9575 1.5234 0.9539
9.0482 2.4136 1.2195 0.9629
4.3547 4.4560 0.8114 0.9752
2.3543 5.3230 0.7579 0.9768
1.4291 5.8988 0.7904 0.9758
12.8429 -2.1549 1.3984 0.9490
18.8812 -1.4543 2.0335 0.9266
13.5504 0.1694 1.4552 0.9469
10.3995 2.0134 1.1375 0.9583
7.8666 3.0509 0.9060 0.9666
6.9321 3.4289 0.8305 0.9694
6.1990 3.7897 0.7802 0.9712
4.8244 4.2953 0.6936 0.9743
3.7889 4.8359 0.6597 0.9756
2.7259 5.1618 0.6268 0.9768
2.2446 5.3612 0.6241 0.9769
0.7711 5.9734 0.6468 0.9761
0.2418 6.1939 0.6656 0.9754
-0.3240 6.4300 0.6913 0.9744
-0.9691 6.8908 0.7472 0.9724
-1.6263 6.9742 0.7690 0.9716
-2.5372 1.8374 0.3364 0.9875
2.3491 -0.9174 0.2708 0.9899
14.6414 -0.2171 1.5724 0.9428
11.8078 0.8818 1.2715 0.9535
9.3843 2.4290 1.0409 0.9618
8.1858 2.9201 0.9333 0.9656
4.3455 4.3813 0.6626 0.9755
3.9514 4.7688 0.6650 0.9754
3.4289 4.9846 0.6497 0.9760
1.9111 5.4995 0.6252 0.9768
0.4070 6.1251 0.6592 0.9756
-2.4933 1.9115 0.3374 0.9874
15.4821 -0.6529 1.6640 0.9396
11.2288 1.5433 1.2171 0.9554
9.8093 2.2550 1.0808 0.9603
8.5252 2.7810 0.9629 0.9646
7.4866 3.2068 0.8746 0.9678
6.6108 3.5607 0.8063 0.9702
5.1977 4.1416 0.7137 0.9736
3.5861 4.9196 0.6537 0.9758
2.5035 5.1676 0.6166 0.9772
2.0581 5.4385 0.6244 0.9769
1.6232 5.8105 0.6478 0.9760
1.1147 6.0219 0.6576 0.9757
-1.2271 6.9629 0.7592 0.9720
13.3165 0.2650 1.4302 0.9478
8.8871 2.6327 0.9953 0.9634
7.7834 3.0851 0.8990 0.9669
6.8621 3.4576 0.8251 0.9696
6.1377 3.8149 0.7760 0.9713
5.3928 4.0613 0.7249 0.9732
4.7754 4.3155 0.6912 0.9744
4.1342 4.4684 0.6537 0.9758
1.7760 5.7470 0.6459 0.9761
0.1965 6.2128 0.6675 0.9753
-0.3729 6.4504 0.6938 0.9743
11.6476 0.9566 1.2550 0.9541
10.7674 1.8628 1.1734 0.9570
7.1255 3.3495 0.8455 0.9688
4.9580 4.2403 0.7006 0.9741
4.3493 4.4504 0.6682 0.9753
3.9071 4.7871 0.6635 0.9754
2.8341 5.1170 0.6281 0.9767
2.3516 5.3169 0.6243 0.9769
1.4274 5.8919 0.6510 0.9759
12.3544 -0.9516 1.0489 0.9515
8.9726 2.5860 0.7905 0.9632
5.4394 4.0337 0.5733 0.9732
4.8182 4.2898 0.5461 0.9744
3.1909 4.9213 0.4965 0.9767
0.7702 5.9662 0.5092 0.9761
-1.6239 6.9642 0.6054 0.9717
-2.5358 1.8363 0.2650 0.9875
2.3481 -0.9170 0.2134 0.9899
12.0972 -1.2651 1.0296 0.9523
11.7773 0.8796 0.9998 0.9537
10.8860 1.8005 0.9340 0.9567
7.1878 3.3141 0.6700 0.9687
6.4219 3.6888 0.6269 0.9707
5.6962 3.9876 0.5886 0.9725
5.0018 4.2141 0.5537 0.9741
3.9466 4.7630 0.5236 0.9755
2.3885 5.2942 0.4917 0.9770
1.4566 5.8240 0.5082 0.9762
0.4064 6.1176 0.5190 0.9757
-0.1462 6.3478 0.5375 0.9748
-1.4059 6.8732 0.5939 0.9722
11.8525 -1.5679 1.0121 0.9531
6.6009 3.5554 0.6347 0.9704
5.9086 3.9002 0.5993 0.9720
5.1908 4.1362 0.5619 0.9737
3.0202 5.0326 0.4969 0.9767
2.0557 5.4322 0.4917 0.9770
1.6094 5.7611 0.5064 0.9763
1.1051 5.9701 0.5140 0.9759
0.0270 6.2756 0.5313 0.9751
-0.5728 6.7168 0.5707 0.9733
-1.2274 6.9647 0.5987 0.9720
-4.9727 13.4894 1.2169 0.9439
11.6191 -1.8613 0.9961 0.9539
13.3872 0.2664 1.1335 0.9477
10.2473 2.0627 0.8849 0.9589
8.8707 2.6279 0.7832 0.9635
7.7704 3.0799 0.7076 0.9670
6.8516 3.4523 0.6495 0.9697
6.1290 3.8094 0.6109 0.9714
4.1291 4.4629 0.5147 0.9759
3.1502 4.9382 0.4958 0.9768
2.2023 5.3714 0.4914 0.9770
1.2609 5.9053 0.5112 0.9761
0.1963 6.2051 0.5255 0.9754
-1.6844 6.9895 0.6086 0.9716
-2.5579 1.8236 0.2659 0.9875
11.4555 -2.1576 0.9868 0.9543
12.1656 -1.1813 1.0347 0.9521
13.0738 -0.0971 1.1068 0.9489
10.7440 1.8588 0.9230 0.9572
8.1605 2.9793 0.7354 0.9657
7.1144 3.3442 0.6655 0.9689
6.3582 3.7150 0.6234 0.9709
4.3438 4.4449 0.5261 0.9754
3.9024 4.7813 0.5224 0.9755
3.3827 4.9961 0.5108 0.9761
2.8307 5.1110 0.4946 0.9768
1.8691 5.5097 0.4925 0.9769
11.2984 -1.8957 0.7104 0.9551
11.7109 -0.9020 0.7283 0.9540
12.1485 0.1518 0.7534 0.9525
8.9560 2.5812 0.5780 0.9633
6.9109 3.4183 0.4781 0.9696
6.1813 3.7788 0.4493 0.9714
5.4321 4.0283 0.4194 0.9733
3.1872 4.9156 0.3633 0.9768
2.2394 5.3488 0.3596 0.9770
1.8131 5.7166 0.3719 0.9763
0.2412 6.1787 0.3834 0.9755
-0.9665 6.8723 0.4303 0.9726
2.3470 -0.9165 0.1562 0.9900
12.0115 -0.1781 0.7449 0.9530
11.1094 1.8375 0.6983 0.9559
8.2352 2.9377 0.5422 0.9656
7.1765 3.3089 0.4900 0.9688
6.4126 3.6835 0.4586 0.9708
4.9953 4.2086 0.4050 0.9742
4.3347 4.3704 0.3817 0.9756
3.9418 4.7573 0.3831 0.9755
2.8676 5.0885 0.3622 0.9769
1.9067 5.4868 0.3602 0.9770
1.4550 5.8172 0.3718 0.9763
0.4060 6.1102 0.3797 0.9758
-1.4040 6.8636 0.4344 0.9723
11.8774 -0.5009 0.7372 0.9535
11.4153 1.5690 0.7145 0.9549
9.7702 2.2460 0.6217 0.9606
8.5757 2.7975 0.5594 0.9645
7.4624 3.1964 0.5034 0.9680
5.1839 4.1307 0.4110 0.9738
3.5776 4.9079 0.3766 0.9760
3.0167 5.0267 0.3635 0.9768
2.0534 5.4260 0.3598 0.9770
1.6194 5.7970 0.3732 0.9762
0.5677 6.0429 0.3764 0.9760
12.1861 0.2425 0.7558 0.9523
11.7540 1.2894 0.7332 0.9537
8.8544 2.6230 0.5727 0.9637
7.7575 3.0748 0.5175 0.9671
6.1203 3.8040 0.4469 0.9715
4.7632 4.3045 0.3981 0.9746
4.1241 4.4574 0.3766 0.9760
3.1465 4.9324 0.3628 0.9768
2.6796 5.1664 0.3609 0.9769
1.7719 5.7337 0.3721 0.9762
1.2688 5.9425 0.3768 0.9759
0.7267 5.9768 0.3734 0.9762
-0.3720 6.4338 0.3996 0.9745
-1.0218 6.8954 0.4323 0.9725
2.3533 -0.8990 0.1562 0.9900
11.2760 -2.1238 0.7115 0.9551
12.0482 -0.0895 0.7471 0.9529
11.0466 1.9111 0.6952 0.9561
9.2393 2.4646 0.5930 0.9624
4.9452 4.2293 0.4035 0.9743
4.3384 4.4394 0.3849 0.9754
3.8977 4.7755 0.3822 0.9756
1.8669 5.5033 0.3604 0.9770
1.4241 5.8781 0.3750 0.9761
11.7091 -0.9019 0.4631 0.9541
11.7224 1.1983 0.4646 0.9539
8.9395 2.5765 0.3668 0.9634
7.8273 3.0357 0.3310 0.9670
6.9003 3.4131 0.3035 0.9697
5.4248 4.0229 0.2663 0.9733
4.8059 4.2788 0.2537 0.9746
3.7754 4.8185 0.2414 0.9758
2.7164 5.1439 0.2294 0.9770
2.2368 5.3427 0.2284 0.9771
1.8110 5.7100 0.2362 0.9763
0.2409 6.1711 0.2435 0.9756
-0.3228 6.4054 0.2529 0.9747
-0.9652 6.8632 0.2733 0.9726
2.3459 -0.9161 0.0993 0.9900
11.5975 -1.2128 0.4598 0.9544
11.7171 0.8751 0.4633 0.9541
9.3304 2.4151 0.3800 0.9622
5.6807 3.9768 0.2734 0.9726
4.3293 4.3649 0.2424 0.9757
2.8643 5.0826 0.2300 0.9769
2.3831 5.2821 0.2285 0.9771
1.9045 5.4805 0.2288 0.9770
1.4533 5.8105 0.2362 0.9763
-0.1458 6.3318 0.2497 0.9750
-2.4993 1.9161 0.1242 0.9875
11.4906 -1.5200 0.4570 0.9547
9.7508 2.2416 0.3945 0.9607
7.4504 3.1913 0.3196 0.9681
5.1771 4.1253 0.2610 0.9738
3.0132 5.0209 0.2309 0.9768
2.0510 5.4197 0.2285 0.9771
0.5670 6.0357 0.2390 0.9760
0.0269 6.2600 0.2468 0.9753
-1.2281 6.9685 0.2790 0.9721
-1.9082 7.0647 0.2886 0.9711
-4.9605 13.4564 0.5655 0.9442
12.1842 0.2424 0.4805 0.9524
7.7447 3.0698 0.3285 0.9672
6.1116 3.7986 0.2837 0.9716
5.3712 4.0451 0.2651 0.9734
3.7320 4.8365 0.2409 0.9758
3.1428 4.9267 0.2304 0.9769
1.2674 5.9356 0.2393 0.9760
0.7258 5.9697 0.2371 0.9762
0.1958 6.1899 0.2442 0.9755
-0.3715 6.4256 0.2538 0.9746
-1.0204 6.8861 0.2745 0.9725
-2.5536 1.8205 0.1237 0.9875
2.3532 -0.8990 0.0993 0.9900
11.8897 -2.2394 0.4771 0.9527
11.6212 0.9544 0.4598 0.9544
9.2218 2.4599 0.3763 0.9625
8.1328 2.9691 0.3414 0.9659
7.0922 3.3338 0.3090 0.9691
6.3398 3.7043 0.2895 0.9710
3.8930 4.7698 0.2428 0.9757
2.8242 5.0992 0.2298 0.9769
1.4224 5.8713 0.2382 0.9761
11.4784 -1.9259 0.1966 0.9545
14.9987 0.1875 0.2534 0.9418
8.9231 2.5717 0.1569 0.9635
7.8143 3.0307 0.1416 0.9670
6.8898 3.4079 0.1298 0.9697
5.4176 4.0175 0.1139 0.9734
4.2059 4.4789 0.1038 0.9757
3.7709 4.8128 0.1033 0.9758
3.1797 4.9041 0.0987 0.9769
1.8089 5.7035 0.1011 0.9763
-0.3224 6.3972 0.1082 0.9747
-0.9639 6.8540 0.1169 0.9727
-2.5316 1.8333 0.0528 0.9876
15.0770 -0.2235 0.2547 0.9415
11.6874 0.8728 0.1980 0.9542
11.0874 1.8338 0.1898 0.9560
7.1541 3.2985 0.1331 0.9690
6.4779 3.7210 0.1262 0.9706
5.7904 4.0536 0.1194 0.9721
4.9824 4.1977 0.1101 0.9743
3.9324 4.7459 0.1041 0.9756
3.4128 4.9612 0.1017 0.9762
2.8610 5.0767 0.0984 0.9770
1.9023 5.4742 0.0979 0.9771
1.4516 5.8037 0.1011 0.9764
-0.1456 6.3239 0.1069 0.9750
-1.4001 6.8447 0.1180 0.9724
13.0465 0.6165 0.2206 0.9491
11.3635 1.5619 0.1938 0.9551
9.7316 2.2371 0.1687 0.9608
7.4385 3.1862 0.1367 0.9681
6.5716 3.5396 0.1261 0.9706
6.0058 3.9644 0.1216 0.9716
5.1704 4.1199 0.1117 0.9739
4.5744 4.3667 0.1068 0.9750
3.0097 5.0151 0.0988 0.9769
1.1094 5.9936 0.1030 0.9759
0.5663 6.0284 0.1023 0.9761
0.0269 6.2523 0.1056 0.9753
-0.5706 6.6908 0.1134 0.9735
-1.9055 7.0545 0.1234 0.9712
-4.9561 13.4443 0.2420 0.9443
14.8827 0.2961 0.2514 0.9422
10.1840 2.0499 0.1755 0.9593
8.8222 2.6135 0.1554 0.9639
7.7320 3.0647 0.1405 0.9673
6.2293 3.8718 0.1239 0.9711
4.1140 4.4465 0.1023 0.9761
3.1392 4.9209 0.0986 0.9769
2.6735 5.1545 0.0981 0.9770
2.1947 5.3530 0.0977 0.9771
1.7679 5.7205 0.1011 0.9763
1.2659 5.9287 0.1024 0.9760
0.7250 5.9626 0.1015 0.9763
0.1956 6.1823 0.1045 0.9756
-1.6773 6.9598 0.1209 0.9718
-2.5522 1.8195 0.0529 0.9875
11.6193 0.9542 0.1969 0.9544
8.1190 2.9641 0.1460 0.9660
5.5641 3.9568 0.1153 0.9731
3.8884 4.7641 0.1039 0.9757
3.3708 4.9786 0.1016 0.9762
1.8626 5.4907 0.0979 0.9771
14.9964 0.1874 -0.0844 0.9418
11.7186 1.1979 -0.0663 0.9540
10.6043 2.0530 -0.0608 0.9577
6.2825 3.8407 -0.0415 0.9710
5.4104 4.0122 -0.0379 0.9734
3.7664 4.8071 -0.0344 0.9759
1.8069 5.6969 -0.0336 0.9764
1.3065 5.9044 -0.0340 0.9761
0.2403 6.1561 -0.0347 0.9757
-0.3220 6.3892 -0.0360 0.9747
2.3438 -0.9153 -0.0142 0.9900
11.0855 1.8335 -0.0633 0.9560
9.2950 2.4059 -0.0541 0.9623
4.3186 4.3542 -0.0345 0.9758
2.3776 5.2700 -0.0326 0.9771
1.9001 5.4680 -0.0326 0.9771
1.4499 5.7970 -0.0336 0.9764
0.4045 6.0880 -0.0344 0.9759
-0.1455 6.3160 -0.0356 0.9750
-0.7633 6.7623 -0.0383 0.9731
-1.3981 6.8352 -0.0393 0.9725
-2.5050 1.9204 -0.0178 0.9875
15.5052 -0.6539 -0.0874 0.9398
12.7888 0.6043 -0.0721 0.9501
11.3378 1.5583 -0.0644 0.9553
9.7125 2.2327 -0.0561 0.9609
8.5304 2.7827 -0.0505 0.9647
7.4266 3.1811 -0.0455 0.9682
5.1636 4.1145 -0.0372 0.9739
4.5687 4.3613 -0.0356 0.9751
4.0917 4.6722 -0.0350 0.9755
3.0062 5.0093 -0.0329 0.9769
2.4891 5.1379 -0.0321 0.9774
2.0463 5.4074 -0.0326 0.9771
1.1082 5.9866 -0.0343 0.9759
0.0268 6.2446 -0.0352 0.9753
-0.5698 6.6822 -0.0378 0.9735
-1.2255 6.9539 -0.0398 0.9722
-4.9529 13.4356 -0.0806 0.9443
14.8404 0.2953 -0.0836 0.9424
11.6702 1.2803 -0.0661 0.9541
10.1631 2.0457 -0.0584 0.9594
7.7193 3.0597 -0.0468 0.9673
4.1090 4.4411 -0.0341 0.9761
3.1355 4.9152 -0.0328 0.9769
2.1922 5.3469 -0.0325 0.9771
1.7658 5.7140 -0.0337 0.9764
1.2644 5.9218 -0.0341 0.9761
0.7241 5.9555 -0.0338 0.9763
-0.3705 6.4093 -0.0361 0.9746
-1.6749 6.9499 -0.0403 0.9718
-2.5507 1.8185 -0.0176 0.9875
11.6174 0.9541 -0.0656 0.9544
10.9758 1.8989 -0.0627 0.9564
4.9261 4.2130 -0.0365 0.9744
4.3224 4.4230 -0.0348 0.9756
3.3669 4.9728 -0.0338 0.9763
2.3381 5.2864 -0.0325 0.9771
1.8605 5.4844 -0.0326 0.9771
1.4191 5.8577 -0.0339 0.9762
11.4716 -1.9248 -0.3275 0.9545
18.4656 -1.4223 -0.5215 0.9286
11.7167 1.1977 -0.3316 0.9540
8.8905 2.5623 -0.2605 0.9637
6.8690 3.3976 -0.2158 0.9698
6.2736 3.8353 -0.2070 0.9710
5.4032 4.0068 -0.1894 0.9734
4.1957 4.4680 -0.1726 0.9758
3.7619 4.8014 -0.1718 0.9759
2.2292 5.3244 -0.1625 0.9772
1.8048 5.6904 -0.1681 0.9764
1.3049 5.8976 -0.1701 0.9761
0.7657 5.9309 -0.1684 0.9764
0.2401 6.1486 -0.1733 0.9757
-1.6125 6.9153 -0.1999 0.9720
-2.5297 1.8319 -0.0880 0.9876
2.3428 -0.9149 -0.0708 0.9900
11.6283 0.8684 -0.3283 0.9544
7.1319 3.2883 -0.2211 0.9691
6.4593 3.7103 -0.2097 0.9706
4.9696 4.1870 -0.1830 0.9743
4.3135 4.3490 -0.1725 0.9758
2.3749 5.2640 -0.1626 0.9772
1.8980 5.4617 -0.1628 0.9771
-2.5078 1.9226 -0.0890 0.9874
15.5028 -0.6538 -0.4369 0.9398
12.7547 0.6027 -0.3595 0.9502
8.6916 2.8353 -0.2574 0.9641
6.5523 3.5292 -0.2096 0.9707
5.9893 3.9534 -0.2021 0.9717
3.0028 5.0035 -0.1643 0.9769
1.6120 5.7703 -0.1687 0.9763
1.1069 5.9796 -0.1712 0.9760
0.5650 6.0140 -0.1701 0.9761
0.0268 6.2369 -0.1756 0.9754
-0.5691 6.6736 -0.1886 0.9736
-1.2238 6.9445 -0.1986 0.9722
18.0694 -1.2574 -0.5100 0.9301
14.7983 0.2945 -0.4168 0.9425
11.6625 1.2794 -0.3304 0.9541
8.7902 2.6040 -0.2581 0.9640
6.2119 3.8609 -0.2059 0.9712
5.3499 4.0290 -0.1886 0.9736
4.1040 4.4357 -0.1702 0.9761
3.1319 4.9095 -0.1640 0.9770
2.1897 5.3408 -0.1625 0.9772
1.7638 5.7074 -0.1682 0.9764
1.2629 5.9149 -0.1703 0.9761
0.7233 5.9485 -0.1687 0.9763
-0.3701 6.4012 -0.1805 0.9747
-2.5493 1.8175 -0.0882 0.9875
14.8704 -0.1105 -0.4187 0.9422
9.1700 2.4461 -0.2672 0.9627
8.2590 3.0152 -0.2476 0.9654
7.0594 3.3184 -0.2196 0.9693
6.4433 3.7648 -0.2101 0.9706
5.5492 3.9462 -0.1917 0.9731
4.9198 4.2076 -0.1823 0.9744
2.3354 5.2803 -0.1626 0.9772
1.8584 5.4781 -0.1629 0.9771
1.4175 5.8509 -0.1695 0.9762
11.4683 -1.9243 -0.5897 0.9545
18.3983 -1.4171 -0.9358 0.9288
11.7148 1.1975 -0.5972 0.9539
10.5605 2.0446 -0.5455 0.9578
8.8743 2.5576 -0.4684 0.9637
6.2648 3.8299 -0.3724 0.9710
5.3960 4.0015 -0.3407 0.9735
4.7815 4.2572 -0.3247 0.9747
4.1905 4.4625 -0.3105 0.9758
3.7575 4.7957 -0.3090 0.9759
3.1687 4.8871 -0.2954 0.9769
2.7040 5.1203 -0.2937 0.9771
2.2266 5.3183 -0.2924 0.9772
1.8027 5.6839 -0.3024 0.9764
1.3034 5.8907 -0.3060 0.9761
0.7648 5.9239 -0.3029 0.9764
-0.9601 6.8268 -0.3496 0.9728
-1.6103 6.9056 -0.3596 0.9720
-9.2584 -9.5933 -0.6761 0.9480
11.6042 0.8666 -0.5901 0.9545
11.0718 1.8312 -0.5691 0.9560
8.3342 2.9730 -0.4487 0.9652
6.4500 3.7049 -0.3772 0.9706
4.9633 4.1816 -0.3291 0.9743
4.3119 4.3474 -0.3105 0.9758
3.9183 4.7289 -0.3115 0.9757
3.4009 4.9438 -0.3043 0.9763
2.3722 5.2580 -0.2925 0.9772
1.4466 5.7837 -0.3023 0.9764
0.9199 5.8597 -0.3008 0.9765
0.4035 6.0734 -0.3087 0.9759
-0.7613 6.7447 -0.3442 0.9732
-2.5106 1.9248 -0.1604 0.9874
15.5004 -0.6537 -0.7868 0.9398
7.4030 3.1710 -0.4084 0.9683
6.5427 3.5240 -0.3769 0.9707
5.1502 4.1038 -0.3340 0.9740
3.5566 4.8792 -0.3062 0.9761
2.9993 4.9978 -0.2956 0.9769
2.0416 5.3950 -0.2925 0.9772
1.6101 5.7637 -0.3035 0.9763
-1.2222 6.9351 -0.3571 0.9722
18.0049 -1.2529 -0.9153 0.9303
14.7564 0.2936 -0.7485 0.9426
10.1217 2.0374 -0.5236 0.9595
8.7744 2.5993 -0.4641 0.9640
4.7331 4.2773 -0.3235 0.9748
4.0990 4.4303 -0.3061 0.9761
2.1872 5.3347 -0.2924 0.9772
1.7618 5.7009 -0.3026 0.9764
0.7224 5.9414 -0.3035 0.9763
-1.0150 6.8495 -0.3512 0.9726
-1.6702 6.9303 -0.3615 0.9719
-2.5479 1.8165 -0.1587 0.9875
14.8681 -0.1104 -0.7540 0.9422
9.1528 2.4415 -0.4804 0.9628
8.2451 3.0102 -0.4451 0.9655
6.4341 3.7594 -0.3779 0.9706
4.9135 4.2023 -0.3279 0.9744
4.3118 4.4121 -0.3129 0.9756
2.3328 5.2743 -0.2925 0.9772
1.8562 5.4719 -0.2930 0.9771
1.4158 5.8442 -0.3050 0.9762
11.4728 -1.9250 -0.8530 0.9544
17.8408 -1.3742 -1.3120 0.9307
14.9672 0.1871 -1.0975 0.9417
11.7128 1.1973 -0.8633 0.9539
8.8580 2.5530 -0.6759 0.9637
6.8481 3.3873 -0.5602 0.9698
5.3888 3.9962 -0.4919 0.9735
4.7755 4.2518 -0.4688 0.9747
3.7530 4.7900 -0.4462 0.9759
2.7009 5.1144 -0.4241 0.9771
2.2241 5.3122 -0.4223 0.9772
1.3019 5.8839 -0.4419 0.9761
0.7639 5.9169 -0.4374 0.9764
0.2395 6.1336 -0.4501 0.9757
-0.3207 6.3650 -0.4673 0.9748
-0.9588 6.8178 -0.5048 0.9728
-1.6080 6.8959 -0.5192 0.9720
-13.1647 -11.4025 -1.2770 0.9325
-5.4071 -16.2736 -1.2574 0.9335
-3.9684 -16.8409 -1.2686 0.9330
0.6651 -18.1183 -1.3294 0.9299
4.0668 -18.5845 -1.3949 0.9265
5.8787 -18.6862 -1.4363 0.9244
2.3424 -0.9147 -0.1844 0.9900
11.5931 0.8658 -0.8524 0.9544
8.3200 2.9680 -0.6477 0.9652
7.1098 3.2781 -0.5740 0.9691
5.7591 4.0317 -0.5155 0.9722
4.3102 4.3457 -0.4488 0.9758
3.3969 4.9380 -0.4395 0.9762
2.8479 5.0534 -0.4253 0.9770
0.4030 6.0660 -0.4458 0.9759
-0.1449 6.2924 -0.4615 0.9751
-0.7603 6.7359 -0.4970 0.9732
-1.3924 6.8070 -0.5094 0.9725
-2.5135 1.9270 -0.2322 0.9874
-18.9568 -4.6314 -1.4308 0.9247
-17.9430 -6.1257 -1.3902 0.9268
-16.8911 -7.5099 -1.3554 0.9285
-15.8032 -8.7926 -1.3260 0.9300
-13.5249 -11.0825 -1.2821 0.9323
-9.4856 -9.3060 -0.9743 0.9481
-11.1106 -13.0424 -1.2562 0.9336
-7.2165 -15.4296 -1.2490 0.9340
-5.8376 -16.0864 -1.2548 0.9337
-4.4134 -16.6747 -1.2647 0.9332
0.1688 -18.0185 -1.3212 0.9303
1.8145 -18.3175 -1.3497 0.9288
3.5283 -18.5351 -1.3834 0.9271
15.4339 -3.4657 -1.1598 0.9385
15.4981 -0.6536 -1.1374 0.9397
12.2509 0.5789 -0.8992 0.9520
7.3912 3.1659 -0.5896 0.9683
5.9728 3.9426 -0.5247 0.9717
4.5516 4.3450 -0.4614 0.9751
3.5524 4.8734 -0.4422 0.9761
2.4806 5.1203 -0.4172 0.9774
1.1043 5.9657 -0.4448 0.9760
0.5636 5.9997 -0.4418 0.9761
-18.2572 -5.6810 -1.4020 0.9262
-16.1396 -8.4107 -1.3344 0.9296
-10.2397 -13.6518 -1.2513 0.9338
-7.6296 -15.2152 -1.2480 0.9340
-3.3961 -17.0427 -1.2742 0.9327
-1.8869 -17.5132 -1.2915 0.9318
-0.3216 -17.9116 -1.3135 0.9307
17.4191 -1.2121 -1.2803 0.9324
14.7146 0.2928 -1.0791 0.9427
8.7585 2.5946 -0.6698 0.9640
7.6814 3.0447 -0.6059 0.9674
6.7794 3.4160 -0.5566 0.9700
5.3357 4.0183 -0.4898 0.9736
4.7272 4.2719 -0.4672 0.9748
2.6612 5.1309 -0.4238 0.9771
2.1847 5.3286 -0.4223 0.9772
0.7215 5.9344 -0.4383 0.9763
0.1946 6.1522 -0.4513 0.9756
-0.3691 6.3849 -0.4689 0.9747
-1.0137 6.8404 -0.5070 0.9726
-1.6678 6.9205 -0.5220 0.9719
-2.5465 1.8155 -0.2293 0.9875
-19.5564 -3.6593 -1.4588 0.9233
-18.5677 -5.2257 -1.4143 0.9256
-15.3712 -9.2653 -1.3160 0.9305
-9.2869 -9.7664 -0.9882 0.9474
-9.3512 -14.2264 -1.2483 0.9340
-8.0388 -14.9942 -1.2474 0.9340
-6.6859 -15.6929 -1.2507 0.9339
-3.8471 -16.8848 -1.2698 0.9329
-2.3540 -17.3769 -1.2858 0.9321
-0.8064 -17.7977 -1.3063 0.9310
0.8005 -18.1440 -1.3317 0.9297
2.4719 -18.4121 -1.3621 0.9282
19.1515 -1.8596 -1.4108 0.9257
14.8658 -0.1104 -1.0900 0.9421
11.6118 0.9536 -0.8543 0.9543
10.9058 1.8868 -0.8115 0.9566
9.1356 2.4369 -0.6933 0.9628
7.0377 3.3082 -0.5702 0.9693
6.4248 3.7540 -0.5456 0.9706
5.5342 3.9356 -0.4979 0.9731
4.3065 4.4067 -0.4518 0.9756
2.8080 5.0700 -0.4249 0.9770
2.3301 5.2683 -0.4224 0.9772
1.4142 5.8374 -0.4404 0.9762
11.4834 -1.9268 -1.1179 0.9543
10.5169 2.0361 -1.0284 0.9579
6.8377 3.3822 -0.7324 0.9698
6.2007 3.7907 -0.6977 0.9712
5.3816 3.9908 -0.6432 0.9734
4.1803 4.4516 -0.5863 0.9758
3.1613 4.8757 -0.5579 0.9769
2.6978 5.1086 -0.5546 0.9771
1.7986 5.6709 -0.5712 0.9764
1.3004 5.8770 -0.5779 0.9761
0.3910 3.0288 -0.2932 0.9878
-0.3203 6.3569 -0.6111 0.9747
-0.9575 6.8087 -0.6601 0.9727
-18.7867 5.1847 -1.8710 0.9247
-18.4326 3.3523 -1.7987 0.9275
-16.8479 -1.4899 -1.6238 0.9343
-16.1783 -2.9034 -1.5780 0.9361
-15.4503 -4.2252 -1.5378 0.9377
-12.9664 -7.6855 -1.4471 0.9412
-12.0504 -8.6836 -1.4260 0.9421
-7.4518 -11.1561 -1.2880 0.9475
-6.4212 -11.7673 -1.2870 0.9476
-4.2555 -12.8076 -1.2957 0.9472
-1.9451 -13.6008 -1.3190 0.9463
-0.7330 -13.9011 -1.3364 0.9456
1.8117 -14.2955 -1.3834 0.9437
3.1472 -14.3821 -1.4134 0.9426
11.2775 -14.4627 -1.7607 0.9290
14.7858 -13.2263 -1.9046 0.9234
11.5819 0.8650 -1.1150 0.9544
10.9425 1.8099 -1.0648 0.9564
9.2248 2.3878 -0.9148 0.9624
8.3059 2.9629 -0.8466 0.9652
7.0987 3.2730 -0.7505 0.9691
6.4423 3.7005 -0.7133 0.9706
5.7086 3.9963 -0.6690 0.9724
4.9505 4.1708 -0.6215 0.9743
3.3929 4.9323 -0.5747 0.9762
2.3668 5.2459 -0.5525 0.9771
0.4025 6.0587 -0.5829 0.9759
-1.3904 6.7976 -0.6661 0.9725
-2.5203 1.9322 -0.3049 0.9873
-18.8740 5.7681 -1.8947 0.9238
-18.5515 3.9003 -1.8200 0.9267
-18.1305 2.1467 -1.7528 0.9293
-16.3895 -2.4813 -1.5914 0.9356
-15.6787 -3.8305 -1.5495 0.9372
-14.0987 -6.2684 -1.4813 0.9399
-12.3348 -8.3862 -1.4320 0.9418
-11.3909 -9.3339 -1.4138 0.9425
-9.4415 -9.2626 -1.2698 0.9482
-8.7454 -10.2660 -1.2947 0.9473
-7.7600 -10.9571 -1.2890 0.9475
-6.7400 -11.5869 -1.2869 0.9476
-5.6854 -12.1560 -1.2884 0.9475
-4.5957 -12.6643 -1.2934 0.9473
-3.4702 -13.1114 -1.3021 0.9470
-2.3079 -13.4960 -1.3145 0.9465
2.7343 -14.3639 -1.4038 0.9429
5.9155 -15.3953 -1.5834 0.9359
9.0935 -14.9799 -1.6824 0.9320
10.7584 -14.6029 -1.7413 0.9297
12.4734 -14.0983 -1.8072 0.9271
2.3697 -1.0008 -0.2470 0.9897
11.2359 1.5443 -1.0888 0.9554
9.6363 2.2152 -0.9493 0.9610
7.3794 3.1609 -0.7707 0.9683
6.5234 3.5136 -0.7113 0.9707
5.9202 3.9079 -0.6810 0.9719
4.5459 4.3396 -0.6034 0.9751
3.5482 4.8677 -0.5783 0.9761
2.9924 4.9862 -0.5583 0.9769
2.0370 5.3827 -0.5525 0.9771
0.2800 2.9800 -0.2874 0.9880
-1.8918 7.0038 -0.6965 0.9713
-18.2689 2.6711 -1.7725 0.9285
-17.2259 -0.5783 -1.6547 0.9331
-15.9020 -3.4276 -1.5617 0.9367
-12.6154 -8.0821 -1.4384 0.9416
-9.9800 -9.2697 -1.3077 0.9467
-8.0649 -10.7523 -1.2904 0.9474
-7.0555 -11.4008 -1.2872 0.9475
-6.0115 -11.9884 -1.2875 0.9475
-3.8182 -12.9813 -1.2991 0.9471
-2.6672 -13.3851 -1.3103 0.9466
-0.2514 -13.9997 -1.3443 0.9453
1.0162 -14.2052 -1.3673 0.9444
13.6929 -13.6664 -1.8573 0.9252
17.8768 -1.2439 -1.7204 0.9305
8.7426 2.5899 -0.8754 0.9640
6.1398 3.8161 -0.6940 0.9714
4.7212 4.2665 -0.6109 0.9748
3.7056 4.8022 -0.5823 0.9759
3.1210 4.8925 -0.5571 0.9770
2.6582 5.1250 -0.5543 0.9771
2.1822 5.3225 -0.5523 0.9771
-1.6654 6.9107 -0.6825 0.9718
-18.7613 5.0286 -1.8648 0.9249
-18.3989 3.2057 -1.7930 0.9277
-17.9430 1.4951 -1.7286 0.9302
-17.4052 -0.1085 -1.6710 0.9324
-16.1201 -3.0163 -1.5745 0.9362
-14.6026 -5.5585 -1.5001 0.9391
-13.7697 -6.7039 -1.4703 0.9403
-10.2604 -9.0207 -1.3116 0.9466
-8.3667 -10.5418 -1.2921 0.9474
-6.3344 -11.8152 -1.2871 0.9476
-5.2663 -12.3607 -1.2899 0.9474
-4.1628 -12.8454 -1.2964 0.9472
-3.0231 -13.2683 -1.3065 0.9468
-0.6308 -13.9229 -1.3380 0.9455
0.6243 -14.1499 -1.3598 0.9447
3.2597 -14.3858 -1.4161 0.9424
6.5171 -15.3473 -1.6008 0.9352
9.7343 -14.8478 -1.7045 0.9311
11.4188 -14.4227 -1.7661 0.9287
13.1530 -13.8653 -1.8348 0.9261
2.3540 -0.8993 -0.2419 0.9899
19.3997 -1.8837 -1.8712 0.9247
8.2173 3.0000 -0.8398 0.9655
6.4156 3.7486 -0.7134 0.9706
4.9010 4.1915 -0.6191 0.9744
4.3012 4.4012 -0.5908 0.9756
3.8652 4.7358 -0.5869 0.9757
2.8048 5.0641 -0.5558 0.9770
1.4125 5.8306 -0.5760 0.9762
18.0195 -4.7090 -2.2123 0.9277
19.1586 -3.2146 -2.3076 0.9247
14.8810 0.1860 -1.7678 0.9418
7.7372 3.0007 -0.9858 0.9671
4.1752 4.4462 -0.7245 0.9757
3.1576 4.8700 -0.6894 0.9769
2.6947 5.1027 -0.6855 0.9770
1.7965 5.6643 -0.7059 0.9763
0.2389 6.1186 -0.7274 0.9756
-0.9563 6.7997 -0.8157 0.9727
-1.6035 6.8764 -0.8387 0.9720
-15.5894 7.4923 -2.0546 0.9327
-15.6169 5.8540 -1.9811 0.9350
-14.6931 0.0171 -1.7453 0.9425
-14.2537 -1.2605 -1.6997 0.9440
-13.7468 -2.4671 -1.6590 0.9453
-13.1787 -3.6040 -1.6229 0.9465
-11.1568 -6.6129 -1.5406 0.9491
-10.3898 -7.4870 -1.5212 0.9497
-9.5812 -8.2987 -1.5057 0.9502
-8.2395 -8.5376 -1.4094 0.9533
-7.3108 -9.0729 -1.3841 0.9541
-6.4520 -9.6593 -1.3798 0.9543
-5.5603 -10.1896 -1.3789 0.9543
0.4460 -12.1491 -1.4441 0.9522
1.5947 -12.5828 -1.5066 0.9502
2.8655 -13.0951 -1.5923 0.9474
5.4184 -13.0270 -1.6759 0.9448
6.7269 -12.8104 -1.7187 0.9434
8.0613 -12.4967 -1.7665 0.9419
10.7949 -11.5493 -1.8779 0.9383
16.3582 -8.1388 -2.1703 0.9290
2.3422 -0.9147 -0.2987 0.9899
14.8325 -0.2199 -1.7621 0.9420
11.5710 0.8641 -1.3783 0.9543
8.2527 2.9439 -1.0408 0.9653
7.0876 3.2679 -0.9271 0.9691
4.9441 4.1654 -0.7679 0.9743
3.9042 4.7119 -0.7269 0.9757
3.3890 4.9265 -0.7103 0.9762
2.8413 5.0418 -0.6874 0.9770
2.3640 5.2399 -0.6828 0.9771
1.8893 5.4367 -0.6837 0.9771
0.4021 6.0514 -0.7204 0.9759
-0.7583 6.7183 -0.8031 0.9731
-1.3885 6.7882 -0.8230 0.9725
-14.5118 13.3424 -2.3417 0.9237
-15.5561 8.0067 -2.0782 0.9320
-15.6212 6.3476 -2.0029 0.9343
-15.1534 1.7942 -1.8126 0.9404
-14.8130 0.4221 -1.7603 0.9421
-13.9086 -2.1057 -1.6710 0.9449
-12.7512 -4.3532 -1.6005 0.9472
-11.3826 -6.3331 -1.5473 0.9489
-10.6288 -7.2264 -1.5267 0.9495
-9.8327 -8.0571 -1.5100 0.9501
-8.5772 -8.4148 -1.4273 0.9528
-5.8363 -10.0334 -1.3788 0.9543
-4.9224 -10.5246 -1.3802 0.9543
-3.9769 -10.9590 -1.3848 0.9541
-3.0002 -11.3356 -1.3929 0.9539
-1.9928 -11.6530 -1.4043 0.9535
0.1134 -12.1030 -1.4377 0.9524
1.2319 -12.4363 -1.4845 0.9509
2.4618 -12.9325 -1.5638 0.9484
3.7524 -13.1744 -1.6272 0.9463
5.0239 -13.0749 -1.6638 0.9451
6.3240 -12.8866 -1.7051 0.9438
7.6508 -12.6033 -1.7513 0.9423
9.0015 -12.2182 -1.8027 0.9407
10.3724 -11.7236 -1.8594 0.9389
11.7587 -11.1115 -1.9217 0.9369
13.1541 -10.3730 -1.9899 0.9347
14.1480 -3.1770 -1.7224 0.9433
19.5791 -2.5900 -2.3460 0.9235
15.4042 -0.6497 -1.8314 0.9398
12.1855 0.5758 -1.4491 0.9520
10.9758 1.5086 -1.3160 0.9564
9.3664 2.1532 -1.1416 0.9620
8.5668 2.7946 -1.0704 0.9644
6.5137 3.5084 -0.8788 0.9706
5.9563 3.9317 -0.8478 0.9717
5.1300 4.0877 -0.7792 0.9739
3.5440 4.8619 -0.7147 0.9761
2.9889 4.9804 -0.6900 0.9769
2.4749 5.1085 -0.6743 0.9774
0.2767 2.9458 -0.3515 0.9882
0.0267 6.2061 -0.7372 0.9753
-0.5662 6.6393 -0.7915 0.9735
-15.4677 3.6960 -1.8891 0.9379
-15.2409 2.2283 -1.8297 0.9398
-14.5308 -0.4878 -1.7270 0.9431
-14.0644 -1.7377 -1.6834 0.9445
-13.5331 -2.9170 -1.6445 0.9458
-12.9427 -4.0273 -1.6101 0.9469
-12.2983 -5.0702 -1.5801 0.9478
-10.8639 -6.9600 -1.5326 0.9494
-10.0804 -7.8097 -1.5147 0.9499
-7.8386 -8.7079 -1.3917 0.9539
-6.9811 -9.3073 -1.3820 0.9542
-6.1094 -9.8720 -1.3790 0.9543
-4.2693 -10.8322 -1.3831 0.9542
-3.3021 -11.2266 -1.3901 0.9540
-1.2754 -11.8378 -1.4143 0.9532
0.8794 -12.2937 -1.4641 0.9516
2.0720 -12.7754 -1.5374 0.9492
3.3696 -13.1879 -1.6169 0.9466
5.9236 -12.9539 -1.6920 0.9442
7.2425 -12.7004 -1.7367 0.9428
8.5862 -12.3472 -1.7864 0.9412
16.8406 -7.6614 -2.1977 0.9282
18.1166 -4.5914 -2.2200 0.9275
17.8130 -1.2395 -2.1210 0.9306
14.6313 0.2911 -1.7383 0.9428
11.6441 1.2774 -1.3915 0.9539
9.7672 1.9660 -1.1835 0.9607
8.7053 2.5789 -1.0785 0.9641
6.7590 3.4057 -0.8990 0.9700
5.3215 4.0076 -0.7913 0.9735
3.7012 4.7965 -0.7197 0.9759
3.1173 4.8867 -0.6885 0.9769
2.6551 5.1191 -0.6850 0.9770
2.1797 5.3163 -0.6825 0.9771
1.2571 5.8875 -0.7151 0.9760
-1.0110 6.8221 -0.8192 0.9726
-1.6631 6.9009 -0.8432 0.9718
-14.7280 12.6264 -2.3044 0.9248
-2.5436 1.8134 -0.3711 0.9875
-15.4523 9.0534 -2.1274 0.9304
-15.5963 7.3541 -2.0483 0.9329
-15.6139 5.7215 -1.9753 0.9352
-15.5179 4.1592 -1.9084 0.9373
-15.0308 1.2525 -1.7916 0.9411
-14.6595 -0.0914 -1.7414 0.9427
-14.2142 -1.3631 -1.6962 0.9441
-13.7020 -2.5638 -1.6559 0.9454
-13.1292 -3.6951 -1.6202 0.9465
-12.5008 -4.7584 -1.5889 0.9475
-11.8215 -5.7554 -1.5618 0.9484
-11.0950 -6.6877 -1.5388 0.9492
-9.4292 -8.2900 -1.4914 0.9507
-8.1528 -8.5737 -1.4054 0.9535
-7.2410 -9.1235 -1.3836 0.9542
-6.3794 -9.7053 -1.3796 0.9543
-5.4850 -10.2310 -1.3789 0.9543
-3.6011 -11.1122 -1.3876 0.9540
-2.6124 -11.4660 -1.3969 0.9537
-1.5931 -11.7601 -1.4097 0.9533
-0.5434 -11.9924 -1.4260 0.9528
0.5365 -12.1613 -1.4460 0.9521
1.6948 -12.6232 -1.5129 0.9500
2.9774 -13.1401 -1.6004 0.9472
4.2429 -13.1459 -1.6409 0.9459
6.8365 -12.7882 -1.7225 0.9433
10.9095 -11.5002 -1.8829 0.9381
13.6970 -10.0500 -2.0180 0.9339
16.4716 -8.0437 -2.1774 0.9288
17.7561 -5.0201 -2.1919 0.9284
18.9113 -3.5619 -2.2859 0.9254
19.3244 -1.8764 -2.3063 0.9248
14.8611 -0.1104 -1.7653 0.9419
10.2326 1.7703 -1.2335 0.9590
8.9886 2.3977 -1.1051 0.9632
7.0159 3.2980 -0.9209 0.9693
6.4064 3.7432 -0.8814 0.9706
4.8946 4.1861 -0.7650 0.9744
4.2958 4.3958 -0.7301 0.9755
3.8606 4.7301 -0.7253 0.9757
3.3473 4.9438 -0.7092 0.9762
2.3248 5.2562 -0.6827 0.9771
1.4109 5.8239 -0.7118 0.9762
14.8051 -3.8690 -2.1682 0.9401
16.3478 -1.2592 -2.3232 0.9359
10.1250 1.9602 -1.4612 0.9592
8.5926 2.4765 -1.2670 0.9645
7.4997 2.9086 -1.1397 0.9680
6.7810 3.3541 -1.0719 0.9699
6.1830 3.7799 -1.0268 0.9711
5.3672 3.9802 -0.9468 0.9734
4.7572 4.2355 -0.9025 0.9746
4.1700 4.4407 -0.8631 0.9757
3.7396 4.7729 -0.8591 0.9758
3.1539 4.8643 -0.8214 0.9769
2.2164 5.2940 -0.8132 0.9771
-0.3195 6.3407 -0.8996 0.9747
-1.6012 6.8667 -0.9990 0.9719
-8.7996 16.2153 -2.6140 0.9282
-10.7763 13.4374 -2.4406 0.9328
-2.5286 1.8311 -0.4424 0.9875
-13.1321 6.3113 -2.0644 0.9428
-13.1260 2.3872 -1.8903 0.9475
-12.6779 0.0147 -1.7963 0.9501
-12.3430 -1.0916 -1.7557 0.9512
-11.4817 -3.1399 -1.6866 0.9530
-10.3985 -4.9678 -1.6329 0.9545
-9.7840 -5.7992 -1.6115 0.9551
-9.1255 -6.5759 -1.5937 0.9556
-7.6873 -7.9654 -1.5685 0.9563
-6.1024 -9.1359 -1.5567 0.9566
-4.3849 -10.0845 -1.5581 0.9565
-1.5838 -11.0747 -1.5851 0.9558
-0.5949 -11.2833 -1.6009 0.9554
0.4195 -11.4275 -1.6202 0.9549
3.6008 -11.4457 -1.7001 0.9527
4.7009 -11.3019 -1.7344 0.9518
6.9442 -10.7648 -1.8151 0.9496
8.0798 -10.3619 -1.8618 0.9483
9.2183 -9.8626 -1.9128 0.9469
10.3535 -9.2615 -1.9683 0.9454
12.5832 -7.7329 -2.0927 0.9421
14.5405 -4.2274 -2.1455 0.9407
15.3802 -3.0148 -2.2207 0.9386
16.1361 -1.6874 -2.2988 0.9366
14.8177 -0.2197 -2.0997 0.9419
11.5691 0.8640 -1.6438 0.9542
9.0150 2.3334 -1.3194 0.9631
7.7998 2.7824 -1.1734 0.9671
6.9899 3.2228 -1.0906 0.9694
6.4127 3.6835 -1.0478 0.9706
4.9377 4.1600 -0.9148 0.9743
3.3849 4.9207 -0.8462 0.9762
2.8380 5.0359 -0.8190 0.9769
2.3613 5.2339 -0.8136 0.9771
1.8871 5.4304 -0.8146 0.9770
1.4398 5.7569 -0.8408 0.9763
0.9155 5.8321 -0.8365 0.9764
-0.7573 6.7094 -0.9567 0.9731
-8.4399 16.6202 -2.6411 0.9275
-10.5158 13.8727 -2.4665 0.9321
-2.5368 1.9449 -0.4529 0.9872
-13.0803 6.7324 -2.0844 0.9423
-13.1657 2.7680 -1.9062 0.9471
-12.4526 -0.7591 -1.7677 0.9508
-12.0715 -1.8275 -1.7299 0.9519
-11.1290 -3.7994 -1.6662 0.9536
-10.5771 -4.7026 -1.6401 0.9543
-9.3313 -6.3442 -1.5988 0.9554
-8.6439 -7.0830 -1.5834 0.9559
-7.9170 -7.7671 -1.5715 0.9562
-5.5206 -9.4906 -1.5557 0.9566
-4.6556 -9.9541 -1.5570 0.9566
-3.7598 -10.3607 -1.5617 0.9564
-2.8345 -10.7093 -1.5696 0.9562
0.1067 -11.3904 -1.6140 0.9550
2.1924 -11.5174 -1.6612 0.9537
3.2681 -11.4740 -1.6904 0.9529
4.3628 -11.3543 -1.7235 0.9520
5.4739 -11.1544 -1.7605 0.9510
7.7320 -10.4951 -1.8470 0.9487
8.8703 -10.0258 -1.8967 0.9474
10.0072 -9.4564 -1.9508 0.9459
11.1359 -8.7815 -2.0094 0.9443
13.3335 -7.0948 -2.1400 0.9408
14.2697 -4.5750 -2.1232 0.9413
14.1189 -3.1704 -2.0503 0.9432
15.9149 -2.1053 -2.2746 0.9372
15.3532 -0.6475 -2.1773 0.9398
12.1529 0.5743 -1.7238 0.9520
11.1851 1.5373 -1.5997 0.9554
7.2096 3.0881 -1.1113 0.9688
5.9480 3.9262 -1.0098 0.9716
5.1232 4.0823 -0.9282 0.9739
4.5345 4.3286 -0.8882 0.9750
3.5398 4.8562 -0.8515 0.9760
1.1004 5.9447 -0.8566 0.9759
0.0266 6.1984 -0.8783 0.9753
-0.5654 6.6306 -0.9429 0.9735
-1.8723 6.9316 -1.0173 0.9714
-4.9121 13.3250 -2.0122 0.9442
-8.0647 17.0178 -2.6683 0.9267
-9.2345 15.6915 -2.5797 0.9291
-12.3253 9.9956 -2.2485 0.9379
-12.7352 8.5644 -2.1745 0.9399
-13.2396 4.4451 -1.9788 0.9451
-13.0639 1.9101 -1.8707 0.9481
-12.1948 -1.5067 -1.7410 0.9516
-11.7702 -2.5370 -1.7060 0.9525
-10.7511 -4.4323 -1.6477 0.9541
-10.1652 -5.2973 -1.6241 0.9547
-8.1433 -7.5637 -1.5748 0.9561
-7.3904 -8.2099 -1.5651 0.9564
-6.6016 -8.8014 -1.5589 0.9565
-1.2027 -11.1632 -1.5909 0.9557
-0.2038 -11.3471 -1.6080 0.9552
1.8677 -11.5161 -1.6530 0.9540
6.2534 -10.9659 -1.7886 0.9503
7.3847 -10.6194 -1.8327 0.9491
8.5221 -10.1796 -1.8811 0.9478
10.7922 -8.9994 -1.9910 0.9448
13.0051 -7.3828 -2.1189 0.9414
13.9931 -4.9118 -2.1013 0.9418
11.6884 1.2822 -1.6661 0.9536
9.9798 2.0088 -1.4424 0.9597
8.4841 2.5133 -1.2537 0.9649
6.7253 3.3887 -1.0670 0.9700
5.3144 4.0023 -0.9426 0.9735
4.0790 4.4087 -0.8510 0.9760
3.1137 4.8810 -0.8203 0.9769
0.1939 6.1295 -0.8689 0.9755
-0.3677 6.3605 -0.9027 0.9746
-1.0096 6.8130 -0.9759 0.9726
-1.6589 6.8834 -1.0032 0.9718
-6.2905 18.6164 -2.7843 0.9237
-8.8943 16.1045 -2.6067 0.9284
-9.9500 14.7339 -2.5191 0.9307
-10.8444 13.3191 -2.4336 0.9330
-2.5422 1.8124 -0.4424 0.9875
-13.1443 6.1979 -2.0591 0.9430
-13.2332 4.8491 -1.9969 0.9447
-13.2201 3.5434 -1.9393 0.9462
-12.6528 -0.0789 -1.7928 0.9502
-11.9065 -2.2279 -1.7163 0.9522
-10.9205 -4.1569 -1.6556 0.9539
-10.3493 -5.0387 -1.6310 0.9546
-9.0691 -6.6377 -1.5924 0.9556
-8.3661 -7.3553 -1.5784 0.9560
-7.6245 -8.0182 -1.5677 0.9563
-5.1883 -9.6774 -1.5558 0.9566
-2.4673 -10.8288 -1.5737 0.9561
-0.5119 -11.2977 -1.6024 0.9553
1.5450 -11.5081 -1.6452 0.9542
3.6912 -11.4368 -1.7028 0.9526
5.9094 -11.0541 -1.7760 0.9506
8.1740 -10.3243 -1.8658 0.9482
9.3125 -9.8167 -1.9172 0.9468
10.4471 -9.2070 -1.9731 0.9453
14.8588 -0.1104 -2.1054 0.9417
7.7168 2.8173 -1.1640 0.9674
6.9328 3.2589 -1.0854 0.9695
6.3496 3.7100 -1.0420 0.9707
5.5118 3.9196 -0.9583 0.9730
4.2905 4.3903 -0.8698 0.9755
3.8560 4.7244 -0.8641 0.9757
2.3221 5.2501 -0.8134 0.9771
1.8477 5.4467 -0.8149 0.9770
12.5517 -3.2801 -2.1372 0.9488
6.6093 3.2692 -1.2147 0.9706
5.2838 3.9183 -1.0837 0.9737
4.7468 4.2263 -1.0470 0.9746
3.1502 4.8586 -0.9539 0.9768
2.2139 5.2878 -0.9444 0.9770
1.7923 5.6512 -0.9767 0.9763
0.2383 6.1036 -1.0063 0.9755
-0.9024 6.4168 -1.0675 0.9741
-8.2645 12.4353 -2.4597 0.9413
-10.3225 8.9829 -2.2543 0.9460
-11.1039 6.6165 -2.1294 0.9489
-11.4660 4.2981 -2.0172 0.9516
-11.3372 1.0292 -1.8754 0.9549
-11.1402 0.0130 -1.8352 0.9558
-10.8757 -0.9618 -1.7986 0.9567
-9.2392 -4.4140 -1.6868 0.9593
-8.7059 -5.1602 -1.6672 0.9598
-8.1299 -5.8584 -1.6508 0.9602
-7.5138 -6.5081 -1.6376 0.9605
-6.8604 -7.1086 -1.6275 0.9607
-5.4504 -8.1598 -1.6165 0.9610
-3.1067 -9.3500 -1.6231 0.9608
-2.2714 -9.6392 -1.6314 0.9606
6.0942 -9.4472 -1.8520 0.9554
8.0370 -8.5987 -1.9390 0.9534
8.9933 -8.0448 -1.9878 0.9523
10.8401 -6.6617 -2.0960 0.9497
11.7035 -5.8229 -2.1535 0.9484
2.3420 -0.9146 -0.4142 0.9899
12.3470 -3.5897 -2.1183 0.9492
14.0267 -0.2080 -2.3110 0.9447
10.6295 1.7581 -1.7749 0.9573
9.1721 2.3741 -1.5608 0.9623
6.8868 3.1753 -1.2493 0.9697
6.0786 3.4916 -1.1548 0.9720
4.2813 4.3165 -1.0016 0.9757
2.3586 5.2278 -0.9448 0.9770
1.8849 5.4241 -0.9460 0.9770
1.4382 5.7501 -0.9764 0.9763
0.9144 5.8251 -0.9714 0.9764
0.4011 6.0366 -0.9967 0.9758
-1.2191 5.9599 -1.0022 0.9756
-2.0641 6.8884 -1.1846 0.9713
-11.0129 6.9769 -2.1477 0.9485
-11.2745 5.8029 -2.0889 0.9499
-11.4357 4.6469 -2.0335 0.9512
-11.4836 2.4144 -1.9332 0.9535
-11.2078 0.3194 -1.8471 0.9556
-10.2878 -2.5135 -1.7446 0.9580
-9.8658 -3.3682 -1.7174 0.9586
-9.3932 -4.1763 -1.6935 0.9592
-8.8737 -4.9372 -1.6729 0.9597
-8.3104 -5.6501 -1.6555 0.9601
-7.7063 -6.3147 -1.6413 0.9604
-7.0640 -6.9302 -1.6302 0.9607
-6.3860 -7.4963 -1.6223 0.9609
-5.6744 -8.0122 -1.6174 0.9610
-4.1581 -8.8904 -1.6169 0.9610
-3.3569 -9.2506 -1.6212 0.9609
-2.5294 -9.5567 -1.6286 0.9607
1.0110 -10.2057 -1.6895 0.9593
1.9442 -10.2137 -1.7128 0.9587
2.8923 -10.1549 -1.7394 0.9581
6.7710 -9.1907 -1.8806 0.9548
8.7027 -8.2236 -1.9725 0.9526
9.6465 -7.6069 -2.0238 0.9514
2.3401 -0.9884 -0.4185 0.9898
12.1361 -3.8910 -2.0995 0.9496
13.3925 -1.7716 -2.2255 0.9467
13.8935 -0.5860 -2.2908 0.9452
12.1202 0.5727 -1.9989 0.9520
8.3052 2.7093 -1.4392 0.9652
6.3053 3.3962 -1.1798 0.9714
5.6255 3.7133 -1.1104 0.9730
5.0722 4.0417 -1.0684 0.9741
4.5288 4.3232 -1.0314 0.9749
4.0571 4.6327 -1.0145 0.9753
3.5356 4.8504 -0.9888 0.9760
1.6008 5.7304 -0.9802 0.9762
1.0954 5.9176 -0.9914 0.9759
0.2701 2.8755 -0.4758 0.9884
0.0265 6.1769 -1.0176 0.9753
-4.8966 13.2830 -2.3322 0.9442
-7.7067 13.0955 -2.5032 0.9403
-8.5942 12.0055 -2.4323 0.9419
-9.3553 10.8697 -2.3626 0.9435
-10.9119 7.3382 -2.1663 0.9481
-11.2055 6.1603 -2.1065 0.9495
-11.3967 4.9980 -2.0501 0.9508
-11.4985 2.7475 -1.9476 0.9532
-11.4220 1.6700 -1.9017 0.9543
-11.0451 -0.3708 -1.8206 0.9562
-10.0004 -3.1117 -1.7254 0.9584
-9.5429 -3.9342 -1.7004 0.9590
-9.0373 -4.7096 -1.6788 0.9595
-7.8951 -6.1167 -1.6453 0.9603
-7.2643 -6.7473 -1.6333 0.9606
-5.1616 -8.3405 -1.6158 0.9610
-4.3975 -8.7696 -1.6162 0.9610
-3.6048 -9.1462 -1.6195 0.9609
-2.7851 -9.4689 -1.6260 0.9608
-1.9402 -9.7365 -1.6355 0.9606
-0.1813 -10.0992 -1.6640 0.9599
0.7289 -10.1903 -1.6830 0.9594
4.5246 -9.8947 -1.7924 0.9569
5.4978 -9.6409 -1.8283 0.9560
7.4458 -8.8940 -1.9109 0.9541
8.4104 -8.3941 -1.9575 0.9530
9.3601 -7.8052 -2.0077 0.9518
11.1841 -6.3491 -2.1186 0.9492
11.9193 -4.1839 -2.0810 0.9501
12.6060 -3.1948 -2.1424 0.9486
13.2209 -2.1179 -2.2058 0.9472
13.7507 -0.9568 -2.2707 0.9457
14.1814 0.2822 -2.3367 0.9441
11.6864 1.2820 -1.9368 0.9535
10.0182 2.0166 -1.6835 0.9594
8.6948 2.5757 -1.4939 0.9639
6.5422 3.2965 -1.2068 0.9707
5.8036 3.6072 -1.1257 0.9727
4.7031 4.2502 -1.0443 0.9746
4.0740 4.4032 -0.9882 0.9760
3.6923 4.7850 -0.9957 0.9758
2.1747 5.3041 -0.9444 0.9770
1.7516 5.6680 -0.9773 0.9762
0.3455 2.8417 -0.4716 0.9885
0.1937 6.1219 -1.0090 0.9755
-0.3632 6.2823 -1.0367 0.9748
-0.9527 6.4287 -1.0706 0.9740
-1.4028 5.8207 -0.9863 0.9760
-5.8998 13.3824 -2.4093 0.9424
-7.4100 13.4170 -2.5250 0.9398
-8.3364 12.3444 -2.4539 0.9414
-9.8106 10.0628 -2.3152 0.9446
-10.3639 8.8850 -2.2489 0.9462
-2.5412 1.8117 -0.5141 0.9874
-11.1269 6.5192 -2.1245 0.9491
-11.3487 5.3512 -2.0670 0.9504
-11.4538 1.9957 -1.9153 0.9540
-11.3236 0.9436 -1.8719 0.9550
-10.8509 -1.0406 -1.7958 0.9568
-10.1301 -2.8510 -1.7337 0.9582
-9.1967 -4.4776 -1.6851 0.9594
-6.8047 -7.1561 -1.6268 0.9608
-6.1134 -7.7028 -1.6200 0.9609
-5.3893 -8.1990 -1.6164 0.9610
-4.6342 -8.6440 -1.6157 0.9610
-3.8501 -9.0367 -1.6182 0.9610
-0.4558 -10.0591 -1.6588 0.9600
0.4486 -10.1690 -1.6769 0.9596
3.2641 -10.1135 -1.7507 0.9578
4.2282 -9.9571 -1.7821 0.9571
8.1167 -8.5562 -1.9429 0.9533
10.0069 -7.3425 -2.0447 0.9509
10.9139 -6.5963 -2.1008 0.9496
11.7647 -5.7452 -2.1569 0.9483
2.3579 -0.9007 -0.4158 0.9898
10.4938 1.8155 -1.7544 0.9577
9.0669 2.4186 -1.5459 0.9627
5.4071 3.8451 -1.0930 0.9735
4.8644 4.1603 -1.0545 0.9744
4.2366 4.3352 -0.9986 0.9757
3.3394 4.9322 -0.9812 0.9761
2.3194 5.2440 -0.9446 0.9770
1.4076 5.8102 -0.9849 0.9761
11.3769 -1.9089 -2.1683 0.9541
11.7935 -0.9084 -2.2233 0.9530
11.6776 1.1937 -2.2064 0.9533
8.7767 2.5295 -1.7168 0.9635
3.7306 4.7614 -1.1369 0.9757
3.1131 4.8013 -1.0756 0.9770
2.1806 5.2084 -1.0613 0.9773
1.7098 5.3910 -1.0630 0.9772
1.2306 5.5616 -1.0706 0.9771
0.2311 5.9185 -1.1133 0.9762
-0.3094 6.1403 -1.1556 0.9753
-1.5769 6.7626 -1.3052 0.9721
-4.0016 12.1377 -2.4022 0.9493
-4.9552 11.4690 -2.3483 0.9504
-5.8195 10.7238 -2.2933 0.9516
-7.2654 9.0595 -2.1828 0.9538
-9.7251 5.7949 -2.1279 0.9550
-9.9602 4.7869 -2.0771 0.9560
-10.1083 3.7891 -2.0291 0.9570
-10.1626 1.8483 -1.9415 0.9588
-9.4392 -1.6940 -1.8025 0.9617
-8.3063 -3.9683 -1.7303 0.9632
-7.8361 -4.6446 -1.7122 0.9636
-7.3248 -5.2783 -1.6970 0.9639
-6.7751 -5.8682 -1.6847 0.9642
-0.4771 -9.0486 -1.7032 0.9638
0.3356 -9.1425 -1.7196 0.9634
1.1632 -9.1784 -1.7390 0.9630
2.0032 -9.1542 -1.7613 0.9626
4.5675 -8.6981 -1.8466 0.9608
5.4252 -8.4101 -1.8811 0.9601
7.1181 -7.6155 -1.9593 0.9585
8.7428 -6.5150 -2.0494 0.9566
9.5125 -5.8458 -2.0986 0.9556
10.7181 -3.1161 -2.0980 0.9556
11.6750 -1.2209 -2.2064 0.9533
12.0317 -0.1784 -2.2617 0.9522
10.6063 1.7542 -2.0206 0.9572
7.0408 3.2463 -1.4573 0.9689
5.4125 3.7890 -1.2418 0.9735
4.7814 4.0284 -1.1752 0.9749
2.7894 4.9496 -1.0679 0.9771
1.3783 5.5106 -1.0677 0.9771
0.4816 3.0679 -0.5837 0.9874
-0.1398 6.0708 -1.1414 0.9756
-1.1821 5.7790 -1.1087 0.9763
-2.1078 7.0343 -1.3803 0.9706
-5.5650 10.9589 -2.3102 0.9512
-7.0691 9.3258 -2.1996 0.9535
-9.2793 7.1140 -2.1977 0.9535
-9.6351 6.1040 -2.1439 0.9546
-9.8978 5.0944 -2.0924 0.9557
-10.1624 3.1057 -1.9973 0.9577
-10.1740 2.1390 -1.9541 0.9586
-10.1117 1.1973 -1.9139 0.9594
-9.9804 0.2844 -1.8767 0.9602
-9.7846 -0.5964 -1.8425 0.9609
-9.5288 -1.4426 -1.8114 0.9615
-8.4414 -3.7531 -1.7364 0.9631
-7.9843 -4.4423 -1.7174 0.9635
-6.9471 -5.6926 -1.6882 0.9641
-6.3723 -6.2516 -1.6779 0.9643
-5.1227 -7.2333 -1.6660 0.9646
-4.4522 -7.6539 -1.6643 0.9646
-3.7539 -8.0263 -1.6655 0.9646
-3.0299 -8.3494 -1.6695 0.9645
-1.5121 -8.8421 -1.6861 0.9641
-0.7223 -9.0087 -1.6987 0.9639
0.0854 -9.1199 -1.7143 0.9636
0.9087 -9.1737 -1.7327 0.9632
1.7452 -9.1681 -1.7542 0.9627
3.4465 -8.9697 -1.8061 0.9616
4.3049 -8.7721 -1.8367 0.9610
7.6924 -7.2689 -1.9893 0.9578
8.5009 -6.7036 -2.0349 0.9569
9.2809 -6.0589 -2.0833 0.9559
10.0244 -5.3340 -2.1343 0.9548
2.3354 -0.9864 -0.4765 0.9897
11.0833 -2.4888 -2.1351 0.9548
11.1341 1.5303 -2.1124 0.9553
9.5601 2.1977 -1.8438 0.9609
8.3317 2.7179 -1.6472 0.9650
4.9609 3.9530 -1.1923 0.9745
4.3913 4.1920 -1.1411 0.9756
4.0521 4.6270 -1.1561 0.9753
2.4661 5.0903 -1.0631 0.9772
1.9984 5.2808 -1.0613 0.9773
-0.5322 6.2409 -1.1773 0.9748
-1.1542 6.5492 -1.2500 0.9733
-1.8665 6.9103 -1.3454 0.9713
-4.3823 11.8879 -2.3815 0.9497
-6.1302 10.4167 -2.2718 0.9520
-6.8639 9.5884 -2.2164 0.9531
-8.0837 9.3922 -2.3292 0.9508
-9.5364 6.4132 -2.1601 0.9543
-9.8271 5.4025 -2.1078 0.9554
-10.0279 4.3977 -2.0581 0.9564
-9.8510 -0.3307 -1.8526 0.9607
-9.6131 -1.1877 -1.8206 0.9613
-9.3180 -2.0085 -1.7917 0.9619
-7.1156 -5.5127 -1.6919 0.9640
-6.5518 -6.0855 -1.6807 0.9643
-5.9531 -6.6133 -1.6725 0.9644
-5.3219 -7.0952 -1.6671 0.9645
-3.2539 -8.2559 -1.6680 0.9645
-2.5130 -8.5440 -1.6740 0.9644
-0.9657 -8.9635 -1.6945 0.9640
2.3323 -9.1281 -1.7708 0.9624
4.9011 -8.5946 -1.8597 0.9605
7.4406 -7.4262 -1.9759 0.9581
9.0459 -6.2645 -2.0682 0.9562
9.8014 -5.5642 -2.1184 0.9552
9.7575 -4.4390 -2.0149 0.9573
11.4144 -1.8285 -2.1728 0.9540
11.6845 1.2818 -2.2094 0.9533
9.9975 2.0124 -1.9168 0.9593
8.6788 2.5710 -1.7013 0.9638
7.6182 3.0196 -1.5403 0.9672
6.6779 3.3648 -1.4055 0.9700
4.5603 4.1211 -1.1553 0.9753
3.0744 4.8194 -1.0745 0.9770
-0.3561 6.1594 -1.1597 0.9752
-0.9558 6.4501 -1.2256 0.9738
-1.4738 6.1156 -1.1824 0.9747
-5.8869 10.6591 -2.2887 0.9516
-7.8845 9.6838 -2.3472 0.9504
-8.5002 8.7188 -2.2887 0.9516
-9.0141 7.7279 -2.2317 0.9528
-2.5410 1.8115 -0.5866 0.9874
-9.7480 5.7113 -2.1236 0.9551
-9.9757 4.7039 -2.0730 0.9561
-10.1168 3.7072 -2.0252 0.9571
-10.1583 1.7699 -1.9381 0.9589
-9.9117 -0.0618 -1.8631 0.9605
-9.4141 -1.7615 -1.8002 0.9618
-8.6989 -3.3112 -1.7495 0.9628
-8.2690 -4.0259 -1.7287 0.9633
-7.7953 -4.6987 -1.7108 0.9636
-6.1397 -6.4567 -1.6747 0.9644
-5.5182 -6.9528 -1.6684 0.9645
-3.4756 -8.1577 -1.6667 0.9646
-1.9853 -8.7136 -1.6798 0.9643
-1.2075 -8.9133 -1.6906 0.9641
0.4036 -9.1477 -1.7211 0.9634
1.2323 -9.1787 -1.7407 0.9630
2.0732 -9.1494 -1.7633 0.9625
2.9234 -9.0576 -1.7890 0.9620
4.6386 -8.6769 -1.8493 0.9607
5.4960 -8.3831 -1.8841 0.9600
6.3472 -8.0169 -1.9220 0.9592
7.1870 -7.5762 -1.9628 0.9584
8.8078 -6.4626 -2.0534 0.9565
10.2766 -5.0185 -2.1496 0.9545
2.3592 -0.9012 -0.4747 0.9898
10.7633 -3.0431 -2.1024 0.9555
12.0571 -0.0896 -2.2663 0.9521
11.6022 0.9528 -2.1881 0.9537
10.4711 1.8116 -1.9974 0.9577
7.9207 2.8917 -1.5849 0.9663
6.9612 3.2722 -1.4458 0.9692
4.7336 4.0484 -1.1708 0.9750
4.1823 4.2796 -1.1247 0.9759
3.8466 4.7129 -1.1434 0.9755
2.7508 4.9668 -1.0672 0.9772
2.2848 5.1660 -1.0617 0.9773
1.8154 5.3513 -1.0621 0.9773
10.0016 -1.6781 -2.1437 0.9594
10.3362 -0.7961 -2.1913 0.9585
10.5916 0.1324 -2.2390 0.9576
8.7603 2.5248 -1.9271 0.9634
7.6854 2.9806 -1.7424 0.9669
6.7853 3.3562 -1.6001 0.9695
6.0193 3.6798 -1.4913 0.9716
5.3056 3.9345 -1.3962 0.9734
4.6653 4.1537 -1.3204 0.9748
3.0729 4.7393 -1.1939 0.9772
2.6040 4.9310 -1.1787 0.9775
2.1444 5.1219 -1.1737 0.9776
1.6848 5.3122 -1.1780 0.9775
1.2207 5.5166 -1.1943 0.9772
-0.3146 6.2436 -1.3215 0.9748
-0.9208 6.5477 -1.3977 0.9733
-3.4725 10.5331 -2.3444 0.9557
-4.3129 9.9824 -2.2986 0.9565
-5.0806 9.3622 -2.2516 0.9574
-5.7711 8.6837 -2.2040 0.9583
-6.3819 7.9579 -2.1562 0.9592
-2.5279 1.8306 -0.6597 0.9873
-8.8753 4.2655 -2.0815 0.9605
-9.0300 3.3849 -2.0385 0.9613
-9.1205 1.6587 -1.9595 0.9628
-9.0640 0.8228 -1.9238 0.9635
-8.9449 0.0104 -1.8908 0.9641
-8.7669 -0.7753 -1.8604 0.9647
-6.1639 -5.3389 -1.7237 0.9672
-5.0726 -6.2952 -1.7089 0.9675
-4.4816 -6.7094 -1.7055 0.9676
-3.8631 -7.0795 -1.7048 0.9676
-3.2195 -7.4042 -1.7067 0.9675
-1.8646 -7.9128 -1.7184 0.9673
-1.1575 -8.0939 -1.7283 0.9671
-0.4336 -8.2243 -1.7409 0.9669
1.8150 -8.2944 -1.7948 0.9659
3.3507 -8.0559 -1.8443 0.9650
6.3821 -6.8281 -1.9756 0.9625
7.1047 -6.3553 -2.0150 0.9618
9.0698 -4.5125 -2.1413 0.9594
9.4595 -2.7502 -2.0823 0.9605
10.7182 0.8005 -2.2719 0.9570
7.9917 2.8508 -1.7935 0.9659
7.0429 3.2473 -1.6394 0.9688
6.2424 3.5857 -1.5217 0.9710
5.5185 3.8632 -1.4239 0.9728
3.3728 4.9031 -1.2580 0.9760
2.2846 5.0637 -1.1743 0.9775
1.8257 5.2539 -1.1757 0.9775
1.3637 5.4525 -1.1881 0.9773
0.4569 2.9104 -0.6227 0.9880
-1.1813 5.7751 -1.2460 0.9762
-3.2020 10.6858 -2.3580 0.9554
-4.0634 10.1586 -2.3127 0.9563
-5.5684 8.8967 -2.2186 0.9580
-7.7928 7.1649 -2.2377 0.9576
-8.8126 4.5358 -2.0951 0.9603
-8.9907 3.6534 -2.0514 0.9611
-9.0935 2.7791 -2.0099 0.9619
-9.1246 1.9184 -1.9709 0.9626
-9.0881 1.0761 -1.9345 0.9633
-8.9877 0.2561 -1.9006 0.9639
-8.8273 -0.5381 -1.8694 0.9645
-8.6108 -1.3036 -1.8409 0.9650
-8.3416 -2.0380 -1.8151 0.9655
-7.6587 -3.4051 -1.7717 0.9663
-6.8040 -4.6259 -1.7392 0.9669
-5.7996 -5.6898 -1.7174 0.9673
-3.4188 -7.3098 -1.7058 0.9675
-2.0770 -7.8475 -1.7159 0.9674
-0.6566 -8.1899 -1.7367 0.9670
0.0776 -8.2841 -1.7512 0.9667
1.5819 -8.3102 -1.7881 0.9660
2.3465 -8.2385 -1.8107 0.9656
3.1153 -8.1079 -1.8360 0.9651
3.8849 -7.9164 -1.8640 0.9646
4.6514 -7.6623 -1.8947 0.9640
5.4103 -7.3437 -1.9281 0.9634
6.1571 -6.9591 -1.9641 0.9627
6.8862 -6.5071 -2.0027 0.9620
2.3307 -0.9844 -0.5348 0.9897
10.1404 -1.3414 -2.1622 0.9590
10.4453 -0.4405 -2.2099 0.9582
10.6678 0.5041 -2.2575 0.9573
7.3199 3.1354 -1.6833 0.9680
5.7410 3.7895 -1.4541 0.9723
5.0474 4.0219 -1.3642 0.9740
4.0471 4.6213 -1.2985 0.9752
3.5271 4.8387 -1.2657 0.9758
2.8883 4.8127 -1.1864 0.9773
2.4250 5.0054 -1.1757 0.9775
1.5056 5.3896 -1.1829 0.9774
1.0366 5.6000 -1.2038 0.9770
0.2632 2.8014 -0.5948 0.9886
0.0261 6.0766 -1.2845 0.9755
-4.6201 9.7491 -2.2804 0.9569
-5.3582 9.1049 -2.2331 0.9577
-7.6448 7.4243 -2.2526 0.9574
-8.0960 6.5657 -2.2034 0.9583
-9.1062 1.3314 -1.9453 0.9631
-8.6827 -1.0728 -1.8493 0.9649
-8.4292 -1.8169 -1.8227 0.9654
-7.7748 -3.2053 -1.7776 0.9662
-7.3803 -3.8461 -1.7592 0.9665
-6.9449 -4.4493 -1.7434 0.9668
-6.4713 -5.0135 -1.7304 0.9671
-5.9620 -5.5377 -1.7200 0.9673
-5.4196 -6.0207 -1.7123 0.9674
-4.2444 -6.8585 -1.7049 0.9676
-3.6160 -7.2111 -1.7052 0.9676
-2.9630 -7.5179 -1.7081 0.9675
-2.2877 -7.7777 -1.7137 0.9674
-1.5920 -7.9891 -1.7219 0.9672
-0.1483 -8.2609 -1.7465 0.9668
2.1121 -8.2666 -1.8035 0.9657
5.9304 -7.0838 -1.9528 0.9629
6.6655 -6.6525 -1.9906 0.9622
8.0643 -5.5848 -2.0735 0.9607
8.7149 -4.9473 -2.1183 0.9599
9.1695 -3.2186 -2.0542 0.9610
10.0321 -1.6070 -2.1476 0.9593
10.7696 1.1815 -2.2901 0.9567
9.9766 2.0082 -2.1511 0.9592
8.6627 2.5662 -1.9098 0.9637
7.6054 3.0145 -1.7293 0.9671
5.9604 3.7047 -1.4835 0.9717
4.0525 4.3800 -1.2613 0.9759
3.6834 4.7734 -1.2745 0.9757
3.0332 4.7548 -1.1922 0.9772
2.5658 4.9469 -1.1780 0.9775
-0.3623 6.2672 -1.3270 0.9747
-1.4592 6.0550 -1.3166 0.9749
-4.3793 9.9335 -2.2947 0.9566
-5.1407 9.3081 -2.2477 0.9575
-5.8248 8.6252 -2.2000 0.9583
-6.4289 7.8960 -2.1523 0.9592
-2.5408 1.8114 -0.6596 0.9873
-8.6650 5.0768 -2.1228 0.9598
-9.1139 2.4428 -1.9945 0.9622
-9.1183 1.5887 -1.9565 0.9629
-8.9323 -0.0557 -1.8881 0.9641
-8.2235 -2.3144 -1.8058 0.9657
-7.8868 -3.0021 -1.7838 0.9661
-7.0822 -4.2689 -1.7480 0.9668
-6.6200 -4.8452 -1.7341 0.9670
-6.1214 -5.3818 -1.7229 0.9672
-5.5888 -5.8774 -1.7144 0.9674
-5.0248 -6.3311 -1.7085 0.9675
-4.4314 -6.7417 -1.7054 0.9676
-1.8067 -7.9297 -1.7191 0.9673
-1.0982 -8.1067 -1.7292 0.9671
-0.3730 -8.2327 -1.7420 0.9669
1.1178 -8.3257 -1.7757 0.9662
1.8783 -8.2892 -1.7966 0.9658
2.6449 -8.1948 -1.8202 0.9654
4.9474 -7.5463 -1.9074 0.9638
5.7022 -7.2022 -1.9418 0.9631
6.4427 -6.7916 -1.9788 0.9625
7.8582 -5.7658 -2.0602 0.9609
8.5202 -5.1495 -2.1044 0.9601
2.3605 -0.9017 -0.5341 0.9897
10.5420 -0.0783 -2.2284 0.9578
7.9070 2.8867 -1.7793 0.9662
6.9720 3.2773 -1.6284 0.9690
6.1811 3.6116 -1.5132 0.9712
5.4600 3.8828 -1.4162 0.9730
4.2148 4.3129 -1.2747 0.9756
3.1805 4.6975 -1.1991 0.9771
1.3251 5.4697 -1.1896 0.9773
8.5729 -2.2403 -2.0825 0.9642
8.9137 -1.4956 -2.1242 0.9635
9.1897 -0.7078 -2.1662 0.9628
9.3942 0.1174 -2.2080 0.9621
9.5632 1.8515 -2.2893 0.9608
7.6723 2.9756 -1.9340 0.9668
6.0105 3.6745 -1.6557 0.9715
4.7325 4.2135 -1.4892 0.9743
3.7215 4.7497 -1.4181 0.9755
0.2374 6.0807 -1.4302 0.9753
-0.9218 6.5544 -1.5556 0.9732
-1.3481 5.7812 -1.3952 0.9759
-3.8139 8.8272 -2.2600 0.9613
-4.5033 8.2984 -2.2190 0.9619
-5.1277 7.7156 -2.1773 0.9626
-6.1708 6.4239 -2.0935 0.9641
-7.7698 4.6298 -2.1257 0.9635
-7.9959 3.8429 -2.0850 0.9642
-8.1520 3.0558 -2.0461 0.9649
-8.2406 2.2742 -2.0091 0.9655
-8.2648 1.5031 -1.9743 0.9661
