ply
format ascii 1.0
element vertex 1590
property float32 x
property float32 y
property float32 z
property float32 I
end_header
3.1519 4.9319 0.6285 0.9767
2.2022 5.3558 0.6218 0.9770
1.7745 5.7196 0.6431 0.9762
1.2721 5.9232 0.6505 0.9759
-1.0040 6.8485 0.7433 0.9725
-2.5353 1.8166 0.3349 0.9875
12.5604 -2.4437 1.3740 0.9498
14.7128 -0.2001 1.5800 0.9425
11.9435 0.9056 1.2862 0.9530
10.8354 1.8038 1.1795 0.9568
9.4472 2.4549 1.0481 0.9615
5.7113 4.0032 0.7489 0.9723
4.4213 4.4614 0.6745 0.9750
3.9462 4.7656 0.6644 0.9754
3.4219 4.9768 0.6485 0.9760
2.3831 5.2827 0.6223 0.9770
1.9034 5.4767 0.6226 0.9769
1.4629 5.8458 0.6471 0.9760
0.9234 5.8738 0.6385 0.9764
0.4061 6.0839 0.6547 0.9758
-1.3898 6.8151 0.7469 0.9724
13.1024 -1.8003 1.4202 0.9482
15.9918 -0.7565 1.7192 0.9376
12.9381 0.5438 1.3905 0.9492
11.4755 1.5153 1.2430 0.9545
9.9874 2.2393 1.0991 0.9597
8.6555 2.7711 0.9759 0.9641
7.5849 3.1990 0.8840 0.9674
5.9775 3.8965 0.7662 0.9717
4.6374 4.3746 0.6846 0.9747
4.1271 4.6558 0.6681 0.9753
3.6166 4.8983 0.6538 0.9758
3.0312 4.9805 0.6261 0.9768
1.6520 5.7692 0.6444 0.9761
1.1465 5.9741 0.6532 0.9758
0.6043 6.0034 0.6479 0.9760
0.0687 6.2210 0.6681 0.9753
-0.5060 6.4549 0.6953 0.9743
-1.1694 6.9159 0.7532 0.9722
11.8731 -1.4897 1.0130 0.9531
12.7100 -0.4519 1.0766 0.9502
13.1396 0.7068 1.1139 0.9485
11.4363 1.6468 0.9781 0.9547
8.5680 2.8543 0.7645 0.9644
7.4468 3.2442 0.6876 0.9679
6.5700 3.5903 0.6338 0.9704
5.1559 4.1582 0.5607 0.9738
4.5557 4.3995 0.5361 0.9749
4.0744 4.7063 0.5270 0.9753
3.5442 4.9199 0.5133 0.9760
2.9733 5.0171 0.4937 0.9769
1.5818 5.7794 0.5072 0.9762
0.5351 6.0239 0.5120 0.9760
-5.0310 13.4559 1.2161 0.9440
11.5907 -1.8525 0.9936 0.9540
12.3777 -0.8580 1.0503 0.9514
13.3122 0.2672 1.1271 0.9480
11.7118 1.2858 0.9974 0.9538
8.9378 2.6468 0.7891 0.9633
7.8158 3.0962 0.7117 0.9668
6.8820 3.4652 0.6523 0.9695
4.7758 4.3110 0.5446 0.9745
3.1482 4.9261 0.4949 0.9768
2.1997 5.3497 0.4897 0.9770
1.7702 5.7058 0.5057 0.9763
0.7305 5.9447 0.5070 0.9762
-2.5351 1.8164 0.2640 0.9876
2.3509 -0.9138 0.2135 0.9899
12.0661 -1.2458 1.0269 0.9525
12.9391 -0.1760 1.0954 0.9494
10.9827 1.8283 0.9425 0.9563
9.4289 2.4502 0.8247 0.9616
8.2905 2.9655 0.7454 0.9653
7.2193 3.3354 0.6732 0.9686
6.4369 3.7033 0.6286 0.9706
4.4158 4.4558 0.5310 0.9751
1.4578 5.8254 0.5083 0.9762
0.9223 5.8668 0.5027 0.9764
0.4056 6.0765 0.5155 0.9758
-0.7573 6.7395 0.5741 0.9731
-1.3879 6.8056 0.5880 0.9725
11.7729 -1.6177 1.0060 0.9534
13.0778 0.5497 1.1080 0.9488
9.9670 2.2347 0.8647 0.9598
6.6767 3.5476 0.6400 0.9701
5.9691 3.8910 0.6032 0.9718
5.2390 4.1248 0.5645 0.9736
2.0820 5.3972 0.4897 0.9770
1.6477 5.7542 0.5067 0.9763
1.1390 5.9348 0.5116 0.9760
-0.5053 6.4466 0.5474 0.9744
2.3893 -0.8688 0.2152 0.9898
9.7543 2.3075 0.6216 0.9606
5.8670 3.9233 0.4377 0.9721
5.1491 4.1527 0.4102 0.9738
1.5826 5.7824 0.3718 0.9763
1.0764 5.9874 0.3772 0.9759
0.5345 6.0167 0.3746 0.9761
-0.6015 6.6679 0.4152 0.9735
-1.2563 6.9338 0.4370 0.9722
-1.9310 7.0178 0.4514 0.9713
-5.0381 13.4748 0.8921 0.9440
11.3126 -1.8081 0.7104 0.9551
11.7158 -0.8122 0.7282 0.9540
8.9213 2.6419 0.5770 0.9634
7.8028 3.0911 0.5204 0.9669
6.8714 3.4599 0.4771 0.9696
6.1404 3.8133 0.4482 0.9714
4.7697 4.3055 0.3984 0.9746
4.1737 4.5052 0.3808 0.9757
3.7364 4.8349 0.3789 0.9758
2.1971 5.3435 0.3583 0.9771
1.2691 5.9093 0.3748 0.9761
-0.3595 6.3793 0.3962 0.9747
-2.5350 1.8163 0.1934 0.9876
-9.2241 -9.6265 0.8268 0.9480
2.3499 -0.9134 0.1563 0.9899
11.5614 -1.1937 0.7207 0.9545
11.9326 0.9047 0.7421 0.9532
9.4107 2.4454 0.6029 0.9618
8.2762 2.9604 0.5451 0.9654
4.9967 4.2141 0.4053 0.9741
4.4103 4.4503 0.3885 0.9752
3.9367 4.7541 0.3828 0.9756
2.8596 5.0758 0.3613 0.9769
1.8991 5.4641 0.3587 0.9771
1.4595 5.8322 0.3728 0.9762
0.9213 5.8599 0.3678 0.9765
0.4052 6.0691 0.3772 0.9759
-0.1423 6.2912 0.3902 0.9751
-1.3871 6.8017 0.4305 0.9726
-2.1207 7.0949 0.4592 0.9708
11.4099 -1.5678 0.7142 0.9549
12.2638 0.5155 0.7612 0.9520
9.9469 2.2302 0.6321 0.9600
8.7067 2.7875 0.5669 0.9640
6.6666 3.5422 0.4681 0.9702
5.9608 3.8856 0.4412 0.9719
4.6257 4.3635 0.3943 0.9748
4.1233 4.6514 0.3854 0.9754
1.1438 5.9601 0.3763 0.9760
-0.5047 6.4383 0.4005 0.9745
2.3928 -0.8701 0.1579 0.9898
11.4935 -1.4421 0.4568 0.9547
11.8718 -0.4221 0.4684 0.9536
11.3842 1.6393 0.4535 0.9550
9.7350 2.3030 0.3945 0.9607
6.5506 3.5797 0.2943 0.9706
5.8589 3.9179 0.2779 0.9722
4.0645 4.6949 0.2449 0.9754
3.5358 4.9083 0.2385 0.9761
2.4582 5.1451 0.2248 0.9774
2.0144 5.4103 0.2276 0.9772
1.0751 5.9804 0.2396 0.9760
-0.6007 6.6593 0.2636 0.9736
-1.9283 7.0077 0.2866 0.9713
11.7076 1.2853 0.4644 0.9539
6.1317 3.8079 0.2846 0.9715
4.1686 4.4997 0.2419 0.9757
3.1408 4.9146 0.2300 0.9769
-0.3590 6.3713 0.2516 0.9748
-1.6496 6.8947 0.2795 0.9720
-2.5348 1.8162 0.1230 0.9876
12.0965 -2.3535 0.4859 0.9519
11.5771 -1.1953 0.4589 0.9545
11.9305 0.9046 0.4718 0.9532
11.0785 1.8442 0.4428 0.9560
9.3926 2.4407 0.3827 0.9619
8.2620 2.9553 0.3460 0.9655
6.4182 3.6925 0.2920 0.9708
5.6879 3.9868 0.2739 0.9726
4.4049 4.4448 0.2467 0.9753
3.4098 4.9592 0.2373 0.9762
2.3749 5.2645 0.2277 0.9771
1.8969 5.4578 0.2278 0.9771
1.4578 5.8255 0.2368 0.9762
0.4047 6.0618 0.2396 0.9760
-0.7553 6.7220 0.2667 0.9733
-1.3875 6.8036 0.2738 0.9726
-2.1176 7.0846 0.2916 0.9708
11.5020 -1.5804 0.4578 0.9546
11.6388 1.5369 0.4629 0.9541
9.9269 2.2257 0.4011 0.9601
8.6911 2.7825 0.3598 0.9641
5.2252 4.1139 0.2622 0.9737
4.1213 4.6493 0.2450 0.9754
3.6038 4.8809 0.2392 0.9760
2.5204 5.1200 0.2250 0.9774
1.1425 5.9531 0.2390 0.9760
0.6022 5.9818 0.2371 0.9762
0.0685 6.1980 0.2444 0.9755
-0.5041 6.4301 0.2543 0.9745
-1.1647 6.8880 0.2755 0.9724
-1.8296 6.9677 0.2841 0.9716
-2.5920 1.7724 0.1238 0.9875
2.3963 -0.8714 0.1005 0.9898
15.5017 -0.5512 0.2620 0.9398
13.0566 0.7023 0.2209 0.9490
11.3584 1.6356 0.1938 0.9551
9.7157 2.2984 0.1686 0.9608
6.5409 3.5744 0.1259 0.9706
4.0596 4.6893 0.1048 0.9755
3.5317 4.9026 0.1021 0.9761
2.9641 5.0015 0.0982 0.9770
2.4554 5.1392 0.0962 0.9775
0.5332 6.0024 0.1018 0.9762
-0.0042 6.2198 0.1051 0.9754
-0.5999 6.6508 0.1128 0.9736
11.4914 -1.8367 0.1966 0.9545
11.7056 1.2851 0.1989 0.9540
6.2502 3.8816 0.1243 0.9710
5.3760 4.0448 0.1136 0.9734
4.7576 4.2946 0.1083 0.9747
3.7276 4.8234 0.1030 0.9759
1.7663 5.6934 0.1007 0.9764
1.2662 5.8956 0.1019 0.9762
0.7279 5.9236 0.1008 0.9764
-0.9987 6.8122 0.1163 0.9728
-1.6473 6.8850 0.1196 0.9721
-2.5346 1.8160 0.0527 0.9876
11.9284 0.9044 0.2021 0.9533
8.2478 2.9502 0.1480 0.9656
5.7981 4.0641 0.1196 0.9721
4.3994 4.4393 0.1056 0.9753
0.4042 6.0546 0.1025 0.9760
-0.1420 6.2756 0.1060 0.9752
-0.7544 6.7133 0.1141 0.9733
-1.3879 6.8055 0.1173 0.9726
14.3839 0.6046 0.2432 0.9440
8.6756 2.7776 0.1539 0.9642
5.2183 4.1085 0.1122 0.9738
4.6141 4.3525 0.1071 0.9749
4.1194 4.6471 0.1049 0.9755
3.5995 4.8752 0.1024 0.9760
3.0171 4.9574 0.0980 0.9771
1.1412 5.9462 0.1023 0.9761
0.6014 5.9747 0.1014 0.9763
0.0684 6.1904 0.1046 0.9755
-0.5034 6.4219 0.1088 0.9746
-1.8270 6.9578 0.1215 0.9716
2.3999 -0.8727 0.0431 0.9898
9.6967 2.2939 -0.0561 0.9609
8.5078 2.8343 -0.0505 0.9648
7.3992 3.2234 -0.0454 0.9682
5.9642 3.9882 -0.0404 0.9717
4.0547 4.6836 -0.0349 0.9755
3.5276 4.8968 -0.0340 0.9761
2.9610 4.9963 -0.0327 0.9770
1.5772 5.7625 -0.0336 0.9764
1.0726 5.9665 -0.0341 0.9760
-0.0042 6.2122 -0.0350 0.9755
-1.2512 6.9058 -0.0395 0.9723
-2.6504 1.7671 -0.0179 0.9873
11.4880 -1.8361 -0.0655 0.9545
18.5419 -1.2853 -0.1046 0.9283
11.7035 1.2849 -0.0663 0.9540
10.5744 2.1284 -0.0607 0.9578
8.8724 2.6274 -0.0521 0.9637
7.7642 3.0758 -0.0470 0.9671
5.3689 4.0394 -0.0378 0.9735
4.1584 4.4887 -0.0345 0.9758
3.7232 4.8177 -0.0343 0.9759
3.1336 4.9032 -0.0328 0.9770
2.6677 5.1319 -0.0326 0.9771
2.1896 5.3253 -0.0324 0.9772
1.7643 5.6869 -0.0335 0.9765
1.2647 5.8888 -0.0339 0.9762
0.7270 5.9166 -0.0336 0.9764
0.2023 6.1287 -0.0345 0.9758
-0.3581 6.3553 -0.0358 0.9749
2.3466 -0.9121 -0.0142 0.9900
11.7900 0.8939 -0.0666 0.9538
11.0744 1.8436 -0.0632 0.9561
4.3940 4.4338 -0.0351 0.9753
3.4018 4.9477 -0.0338 0.9763
2.8497 5.0583 -0.0327 0.9770
2.3695 5.2526 -0.0324 0.9772
1.8926 5.4454 -0.0325 0.9772
1.4545 5.8121 -0.0337 0.9763
0.9188 5.8445 -0.0333 0.9766
-0.7534 6.7046 -0.0380 0.9734
15.8523 -0.7499 -0.0894 0.9385
14.3443 0.6029 -0.0808 0.9442
9.8871 2.2168 -0.0570 0.9603
8.6602 2.7726 -0.0512 0.9643
6.6369 3.5264 -0.0423 0.9704
3.5953 4.8694 -0.0341 0.9761
3.0136 4.9517 -0.0326 0.9771
2.0725 5.3726 -0.0324 0.9772
1.6425 5.7361 -0.0336 0.9764
0.6007 5.9677 -0.0338 0.9763
-0.5028 6.4137 -0.0362 0.9746
-1.1616 6.8696 -0.0392 0.9725
-1.8244 6.9479 -0.0404 0.9717
2.4070 -0.8753 -0.0144 0.9898
15.4966 -0.5510 -0.4366 0.9398
12.7637 0.6865 -0.3599 0.9501
9.6776 2.2894 -0.2800 0.9610
8.6692 2.8880 -0.2573 0.9641
7.3875 3.2183 -0.2269 0.9683
6.5217 3.5639 -0.2093 0.9707
4.5273 4.3722 -0.1772 0.9751
3.5234 4.8911 -0.1697 0.9762
2.4498 5.1275 -0.1600 0.9775
2.0076 5.3918 -0.1620 0.9772
1.5754 5.7559 -0.1680 0.9764
1.0714 5.9595 -0.1705 0.9761
-0.0042 6.2046 -0.1747 0.9755
-0.5984 6.6338 -0.1876 0.9737
-1.9200 6.9776 -0.2038 0.9715
-2.6430 1.7622 -0.0894 0.9874
18.4742 -1.2806 -0.5214 0.9286
11.7015 1.2846 -0.3315 0.9540
8.8562 2.6226 -0.2601 0.9637
7.7514 3.0707 -0.2348 0.9672
6.8299 3.4390 -0.2153 0.9699
6.2326 3.8706 -0.2066 0.9711
3.7188 4.8120 -0.1712 0.9760
3.1299 4.8976 -0.1637 0.9770
1.7623 5.6804 -0.1675 0.9765
1.2632 5.8820 -0.1694 0.9762
-0.9961 6.7942 -0.1934 0.9729
-2.5342 1.8158 -0.0878 0.9876
2.3463 -0.9120 -0.0709 0.9900
11.7598 0.8916 -0.3321 0.9539
11.0724 1.8432 -0.3161 0.9561
9.3389 2.4268 -0.2717 0.9621
8.3279 2.9789 -0.2490 0.9652
7.1630 3.3093 -0.2222 0.9689
6.4304 3.6995 -0.2089 0.9707
5.7824 4.0531 -0.1988 0.9721
3.3979 4.9419 -0.1689 0.9763
2.3668 5.2466 -0.1621 0.9772
1.8904 5.4392 -0.1621 0.9772
1.4528 5.8054 -0.1685 0.9763
0.9195 5.8485 -0.1667 0.9766
-0.1416 6.2601 -0.1763 0.9753
-0.7524 6.6959 -0.1897 0.9734
14.3050 0.6013 -0.4032 0.9443
11.5585 1.5263 -0.3283 0.9544
9.8674 2.2124 -0.2847 0.9603
8.7586 2.8041 -0.2590 0.9639
7.5115 3.1680 -0.2295 0.9679
6.6271 3.5212 -0.2113 0.9704
5.2047 4.0977 -0.1865 0.9738
4.6025 4.3417 -0.1782 0.9750
3.5911 4.8637 -0.1702 0.9761
3.0102 4.9460 -0.1630 0.9771
2.0701 5.3665 -0.1620 0.9772
1.6406 5.7295 -0.1678 0.9764
0.6000 5.9606 -0.1687 0.9763
0.0682 6.1753 -0.1739 0.9756
-0.5021 6.4056 -0.1809 0.9746
-1.1600 6.8604 -0.1959 0.9725
-2.5832 1.7664 -0.0881 0.9876
2.4208 -0.8803 -0.0725 0.9897
2.3509 -0.9737 -0.1290 0.9899
12.7296 0.6847 -0.6465 0.9502
6.5121 3.5587 -0.3764 0.9707
4.5216 4.3667 -0.3188 0.9751
4.0450 4.6724 -0.3134 0.9756
3.5193 4.8854 -0.3054 0.9762
2.9549 4.9860 -0.2939 0.9771
2.0053 5.3857 -0.2914 0.9772
-0.5976 6.6253 -0.3374 0.9737
11.4842 -1.8355 -0.5898 0.9545
7.7387 3.0657 -0.4221 0.9672
6.8196 3.4338 -0.3872 0.9699
5.3547 4.0287 -0.3398 0.9735
4.1483 4.4778 -0.3096 0.9758
3.7144 4.8064 -0.3081 0.9760
3.1263 4.8919 -0.2944 0.9770
2.6616 5.1202 -0.2927 0.9772
2.1847 5.3132 -0.2913 0.9773
1.7603 5.6739 -0.3013 0.9765
15.1404 -0.2059 -0.7679 0.9412
11.7298 0.8894 -0.5966 0.9540
11.0704 1.8429 -0.5692 0.9560
4.3052 4.3442 -0.3102 0.9758
3.9132 4.7258 -0.3112 0.9757
3.3939 4.9362 -0.3038 0.9763
2.8432 5.0468 -0.2938 0.9771
1.8883 5.4330 -0.2917 0.9772
0.4027 6.0329 -0.3066 0.9761
-0.1414 6.2523 -0.3172 0.9753
-1.3890 6.8112 -0.3525 0.9725
-2.1053 7.0434 -0.3728 0.9710
15.7915 -0.7470 -0.8017 0.9386
14.2658 0.5996 -0.7241 0.9444
9.8477 2.2080 -0.5118 0.9604
8.7431 2.7992 -0.4656 0.9639
7.4994 3.1629 -0.4128 0.9679
5.9980 3.9098 -0.3631 0.9717
5.1979 4.0924 -0.3355 0.9739
4.5968 4.3362 -0.3205 0.9750
3.5869 4.8580 -0.3062 0.9761
3.0067 4.9403 -0.2933 0.9771
1.1372 5.9256 -0.3060 0.9761
0.5993 5.9535 -0.3035 0.9763
0.0681 6.1678 -0.3128 0.9756
-0.5015 6.3975 -0.3254 0.9746
-18.8624 -4.7989 -1.4271 0.9249
-16.7924 -7.6544 -1.3531 0.9287
-15.7024 -8.9275 -1.3244 0.9301
-13.4192 -11.2006 -1.2816 0.9323
-10.9993 -13.1462 -1.2568 0.9336
-9.7360 -14.0064 -1.2507 0.9339
-8.4351 -14.7953 -1.2487 0.9340
-7.0943 -15.5147 -1.2509 0.9339
-2.8040 -17.2610 -1.2822 0.9323
0.3166 -18.0723 -1.3253 0.9301
1.9687 -18.3642 -1.3542 0.9286
3.6893 -18.5741 -1.3885 0.9269
15.4719 -3.3641 -1.1609 0.9385
11.2563 1.6209 -0.8338 0.9554
9.6397 2.2804 -0.7263 0.9610
8.6389 2.8779 -0.6676 0.9641
6.5025 3.5535 -0.5433 0.9707
5.9396 3.9718 -0.5239 0.9717
3.5152 4.8797 -0.4410 0.9762
1.5718 5.7427 -0.4366 0.9764
0.5307 5.9739 -0.4397 0.9762
-0.5969 6.6168 -0.4871 0.9737
-1.2462 6.8780 -0.5125 0.9724
-16.1176 -8.4587 -1.3346 0.9296
-15.0059 -9.6729 -1.3091 0.9309
-13.8601 -10.7982 -1.2883 0.9320
-11.4663 -12.8028 -1.2602 0.9334
-6.2379 -15.9280 -1.2542 0.9337
-3.3675 -17.0757 -1.2761 0.9326
-1.8567 -17.5450 -1.2936 0.9317
-0.2899 -17.9420 -1.3157 0.9306
3.0320 -18.5049 -1.3749 0.9276
4.7983 -18.6606 -1.4127 0.9256
14.9562 0.3002 -1.0968 0.9418
8.8240 2.6131 -0.6748 0.9638
6.8093 3.4286 -0.5590 0.9699
5.3476 4.0234 -0.4907 0.9735
4.7336 4.2729 -0.4676 0.9747
2.6586 5.1144 -0.4226 0.9771
1.7583 5.6674 -0.4351 0.9765
0.2015 6.1065 -0.4480 0.9758
-0.3568 6.3313 -0.4650 0.9749
-2.5351 1.8164 -0.2287 0.9876
-19.6014 -3.6031 -1.4613 0.9232
-18.6165 -5.1737 -1.4167 0.9254
-17.5909 -6.6283 -1.3783 0.9274
-16.5279 -7.9763 -1.3456 0.9290
-14.2962 -10.3839 -1.2956 0.9316
-13.1293 -11.4565 -1.2776 0.9325
-9.1282 -9.5264 -0.9674 0.9485
-9.4199 -14.2068 -1.2499 0.9339
-8.1094 -14.9785 -1.2489 0.9340
-5.3643 -16.3149 -1.2592 0.9334
-3.9236 -16.8804 -1.2707 0.9329
-2.4328 -17.3763 -1.2865 0.9320
0.7165 -18.1514 -1.3319 0.9297
2.3850 -18.4236 -1.3621 0.9282
5.9378 -18.7111 -1.4394 0.9243
2.3460 -0.9119 -0.1846 0.9900
15.1230 -0.2057 -1.1090 0.9411
11.6999 0.8871 -0.8603 0.9540
11.0630 1.8417 -0.8223 0.9560
7.1407 3.2990 -0.5767 0.9689
5.7668 4.0421 -0.5164 0.9722
4.2999 4.3389 -0.4479 0.9758
3.9085 4.7202 -0.4493 0.9757
3.3900 4.9304 -0.4387 0.9763
2.8399 5.0410 -0.4242 0.9771
2.3614 5.2346 -0.4211 0.9772
1.8861 5.4268 -0.4213 0.9772
0.9207 5.8565 -0.4347 0.9765
-0.1413 6.2446 -0.4580 0.9753
-1.3894 6.8132 -0.5098 0.9725
-2.1023 7.0331 -0.5382 0.9710
-18.9929 -4.5956 -1.4328 0.9246
-17.9823 -6.0927 -1.3921 0.9267
-14.7275 -9.9575 -1.3035 0.9312
-13.5734 -11.0617 -1.2839 0.9322
-12.3853 -12.0837 -1.2687 0.9330
-9.9041 -13.8975 -1.2513 0.9338
-8.6082 -14.6957 -1.2488 0.9340
-3.0012 -17.1976 -1.2800 0.9324
3.4591 -18.5514 -1.3837 0.9271
5.2441 -18.6849 -1.4230 0.9251
14.2268 0.5980 -1.0441 0.9445
11.5054 1.5192 -0.8509 0.9545
8.7276 2.7942 -0.6720 0.9639
7.4873 3.1578 -0.5958 0.9679
6.6074 3.5108 -0.5486 0.9704
5.9964 3.9088 -0.5248 0.9717
4.5910 4.3308 -0.4628 0.9750
4.1113 4.6379 -0.4544 0.9754
2.5061 5.0909 -0.4160 0.9775
2.0654 5.3543 -0.4208 0.9772
1.6369 5.7164 -0.4360 0.9764
0.5986 5.9465 -0.4382 0.9763
-0.5009 6.3893 -0.4699 0.9746
-1.8167 6.9184 -0.5245 0.9717
-19.3633 -4.0004 -1.4497 0.9238
-18.3681 -5.5415 -1.4067 0.9259
-10.3830 -13.5780 -1.2533 0.9337
-7.7812 -15.1575 -1.2493 0.9339
-5.0147 -16.4603 -1.2617 0.9333
-3.5620 -17.0088 -1.2742 0.9327
-2.0583 -17.4874 -1.2911 0.9318
1.1204 -18.2257 -1.3389 0.9294
-18.5089 3.6992 -1.8121 0.9270
-18.0804 1.9600 -1.7460 0.9295
-16.9780 -1.2002 -1.6340 0.9339
-16.3227 -2.6317 -1.5873 0.9357
-15.6076 -3.9708 -1.5461 0.9373
-14.8385 -5.2224 -1.5102 0.9387
-14.0202 -6.3908 -1.4792 0.9400
-13.1562 -7.4798 -1.4529 0.9410
-12.2496 -8.4932 -1.4310 0.9419
-9.3733 -9.3622 -1.2719 0.9482
-8.6571 -10.3469 -1.2952 0.9472
-7.6686 -11.0323 -1.2899 0.9474
-6.6456 -11.6565 -1.2882 0.9475
-4.4948 -12.7229 -1.2954 0.9472
-3.3659 -13.1643 -1.3045 0.9469
0.2471 -14.1049 -1.3543 0.9449
2.8573 -14.3851 -1.4080 0.9428
6.0558 -15.4014 -1.5888 0.9357
10.9101 -14.5783 -1.7481 0.9294
15.4031 -3.3491 -1.5133 0.9386
15.4890 -0.5507 -1.4880 0.9396
9.6207 2.2759 -0.9491 0.9611
5.8872 3.9368 -0.6799 0.9719
5.1023 4.1150 -0.6293 0.9740
4.5104 4.3558 -0.6020 0.9751
3.5111 4.8739 -0.5767 0.9762
1.5700 5.7361 -0.5710 0.9764
1.0677 5.9388 -0.5793 0.9760
-0.0042 6.1818 -0.5935 0.9755
-1.2445 6.8687 -0.6702 0.9723
-1.9117 6.9477 -0.6918 0.9715
-2.6235 1.7492 -0.3027 0.9874
-17.7698 0.9316 -1.7083 0.9310
-17.2083 -0.6353 -1.6532 0.9331
-16.5772 -2.1029 -1.6042 0.9351
-9.0210 -10.0724 -1.2981 0.9471
-8.0455 -10.7810 -1.2915 0.9474
-5.9908 -12.0146 -1.2889 0.9475
-3.7959 -13.0051 -1.3006 0.9470
-2.6441 -13.4077 -1.3120 0.9466
1.0420 -14.2237 -1.3692 0.9443
7.0265 -15.3113 -1.6174 0.9345
8.6256 -15.0818 -1.6680 0.9326
10.2750 -14.7391 -1.7249 0.9303
11.9746 -14.2724 -1.7886 0.9279
13.7230 -13.6694 -1.8596 0.9251
11.5049 -1.8388 -1.1185 0.9543
14.9132 0.2993 -1.4320 0.9418
10.4874 2.1109 -1.0270 0.9579
4.7276 4.2675 -0.6114 0.9747
4.1382 4.4669 -0.5846 0.9758
3.1191 4.8806 -0.5561 0.9770
2.6555 5.1085 -0.5527 0.9771
2.1797 5.3011 -0.5503 0.9772
1.7562 5.6609 -0.5690 0.9765
1.2589 5.8617 -0.5756 0.9762
0.7236 5.8888 -0.5696 0.9764
0.2013 6.0991 -0.5859 0.9758
-0.3563 6.3234 -0.6080 0.9749
-18.7686 5.0855 -1.8669 0.9248
-18.4121 3.2615 -1.7952 0.9276
-16.8229 -1.5608 -1.6220 0.9344
-15.4234 -4.2863 -1.5368 0.9377
-13.8120 -6.6656 -1.4724 0.9402
-12.0205 -8.7309 -1.4263 0.9420
-10.3071 -8.9939 -1.3133 0.9465
-8.4174 -10.5210 -1.2936 0.9473
-7.4204 -11.1913 -1.2891 0.9475
-6.3889 -11.8006 -1.2883 0.9475
-5.3225 -12.3492 -1.2910 0.9474
-1.9078 -13.6264 -1.3210 0.9462
0.5588 -14.1550 -1.3600 0.9447
1.8530 -14.3145 -1.3857 0.9436
3.1898 -14.3986 -1.4158 0.9425
4.5705 -14.4022 -1.4506 0.9411
6.4365 -15.3705 -1.5998 0.9352
9.6471 -14.8823 -1.7027 0.9312
11.3278 -14.4637 -1.7638 0.9288
13.0580 -13.9137 -1.8319 0.9262
14.8356 -13.2189 -1.9077 0.9233
9.2857 2.4129 -0.9211 0.9622
8.3128 2.9734 -0.8476 0.9651
7.1295 3.2939 -0.7540 0.9689
6.4255 3.6967 -0.7117 0.9707
4.9519 4.1762 -0.6219 0.9743
4.2946 4.3335 -0.5857 0.9758
3.9039 4.7145 -0.5876 0.9757
2.8367 5.0352 -0.5548 0.9770
1.8840 5.4206 -0.5509 0.9772
0.9214 5.8605 -0.5695 0.9764
-18.8760 5.8033 -1.8959 0.9237
-18.5582 3.9360 -1.8213 0.9266
-17.6387 0.5370 -1.6942 0.9315
-17.0594 -1.0050 -1.6406 0.9336
-15.7047 -3.8000 -1.5512 0.9371
-14.1304 -6.2419 -1.4830 0.9398
-8.7844 -10.2523 -1.2962 0.9472
-5.7288 -12.1495 -1.2896 0.9475
-4.6404 -12.6603 -1.2945 0.9473
-3.5163 -13.1098 -1.3031 0.9469
-2.3554 -13.4969 -1.3154 0.9464
-1.1565 -13.8199 -1.3314 0.9458
0.0815 -14.0763 -1.3514 0.9450
4.0445 -14.4107 -1.4370 0.9416
7.4149 -15.2649 -1.6292 0.9341
9.0263 -15.0084 -1.6814 0.9320
14.1599 -13.4988 -1.8782 0.9244
14.1878 0.5963 -1.3633 0.9445
7.4752 3.1527 -0.7789 0.9679
6.5976 3.5056 -0.7173 0.9704
5.9808 3.8986 -0.6854 0.9717
5.1843 4.0816 -0.6335 0.9738
4.5853 4.3254 -0.6052 0.9750
4.1063 4.6323 -0.5943 0.9754
3.5785 4.8466 -0.5784 0.9761
2.9998 4.9289 -0.5539 0.9771
1.6350 5.7099 -0.5702 0.9764
0.2990 2.9701 -0.2866 0.9881
0.0680 6.1527 -0.5907 0.9756
-1.1554 6.8329 -0.6653 0.9725
-2.5790 1.7635 -0.2999 0.9875
-18.3096 2.8306 -1.7787 0.9283
-17.8379 1.1451 -1.7161 0.9307
-16.6638 -1.9156 -1.6103 0.9348
-15.9783 -3.3011 -1.5664 0.9365
-15.2360 -4.5966 -1.5279 0.9381
-14.4422 -5.8068 -1.4944 0.9394
-13.6010 -6.9357 -1.4657 0.9405
-12.7158 -7.9872 -1.4416 0.9414
-11.7890 -8.9644 -1.4218 0.9422
-9.1465 -9.9747 -1.2993 0.9471
-8.1756 -10.6915 -1.2921 0.9474
-7.1701 -11.3467 -1.2886 0.9475
-6.1300 -11.9411 -1.2886 0.9475
-5.0551 -12.4748 -1.2922 0.9473
-3.9445 -12.9475 -1.2994 0.9471
2.1775 -14.3423 -1.3927 0.9434
3.5250 -14.4071 -1.4240 0.9421
4.9167 -14.3902 -1.4599 0.9407
8.4127 -15.1182 -1.6610 0.9328
10.0555 -14.7909 -1.7171 0.9307
11.7485 -14.3412 -1.7798 0.9282
13.4906 -13.7569 -1.8498 0.9255
-12.6903 -4.4663 -1.5981 0.9473
-12.0262 -5.4818 -1.5699 0.9482
-11.3137 -6.4323 -1.5459 0.9489
-10.5563 -7.3192 -1.5259 0.9496
-8.5169 -8.5067 -1.4299 0.9527
-7.4900 -8.9519 -1.3865 0.9541
-6.6384 -9.5501 -1.3816 0.9542
-5.7538 -10.0923 -1.3800 0.9543
-4.8370 -10.5782 -1.3817 0.9542
-3.8887 -11.0072 -1.3867 0.9541
-2.9093 -11.3784 -1.3951 0.9538
-1.8991 -11.6903 -1.4068 0.9534
1.3341 -12.4446 -1.4867 0.9508
3.8666 -13.1806 -1.6316 0.9462
5.1404 -13.0732 -1.6686 0.9450
6.4425 -12.8765 -1.7103 0.9437
7.7708 -12.5843 -1.7569 0.9422
11.8801 -11.0624 -1.9283 0.9367
14.6684 -9.4271 -2.0712 0.9322
17.3851 -5.4423 -2.1639 0.9292
15.4408 -0.5490 -1.8353 0.9397
9.3551 2.2131 -1.1419 0.9620
8.5446 2.8465 -1.0698 0.9644
6.4834 3.5430 -0.8776 0.9707
5.9232 3.9609 -0.8464 0.9717
4.5047 4.3504 -0.7439 0.9751
1.9984 5.3673 -0.6803 0.9772
-0.0042 6.1741 -0.7334 0.9754
-14.8910 11.9761 -2.2699 0.9259
-2.6203 1.7470 -0.3741 0.9874
-15.6116 6.7759 -2.0216 0.9337
-15.5901 5.1701 -1.9511 0.9360
-12.9275 -4.0662 -1.6098 0.9469
-11.5878 -6.0814 -1.5545 0.9487
-10.8470 -6.9921 -1.5330 0.9493
-10.0631 -7.8400 -1.5153 0.9499
-6.9635 -9.3311 -1.3830 0.9542
-5.1865 -10.4016 -1.3806 0.9543
-2.2836 -11.5798 -1.4020 0.9536
-1.2544 -11.8539 -1.4159 0.9531
-0.1949 -12.0655 -1.4334 0.9526
2.0876 -12.7412 -1.5337 0.9493
3.3939 -13.1990 -1.6189 0.9466
12.7480 -10.6109 -1.9702 0.9354
14.1433 -9.7776 -2.0424 0.9331
19.2516 -3.0770 -2.3158 0.9245
18.2064 -1.2621 -2.1679 0.9291
14.8702 0.2984 -1.7667 0.9418
9.8596 1.9845 -1.1947 0.9603
6.7886 3.4182 -0.9028 0.9698
6.1975 3.8489 -0.8666 0.9710
5.3333 4.0127 -0.7928 0.9735
4.1332 4.4615 -0.7224 0.9758
3.7012 4.7893 -0.7190 0.9759
2.1772 5.2950 -0.6801 0.9772
1.7542 5.6544 -0.7032 0.9764
1.2574 5.8549 -0.7113 0.9762
0.3642 2.9637 -0.3547 0.9880
-0.3559 6.3154 -0.7514 0.9748
-1.6336 6.8275 -0.8339 0.9721
-15.4393 9.0969 -2.1286 0.9304
-15.5888 7.3992 -2.0497 0.9329
-15.6117 5.7675 -1.9770 0.9352
-15.3278 2.7152 -1.8491 0.9392
-14.6762 -0.0475 -1.7433 0.9426
-14.2349 -1.3207 -1.6982 0.9440
-12.5318 -4.7220 -1.5908 0.9475
-4.6069 -10.6889 -1.3826 0.9542
-2.6639 -11.4606 -1.3977 0.9537
-1.6461 -11.7577 -1.4103 0.9533
-0.5980 -11.9932 -1.4264 0.9528
0.4802 -12.1646 -1.4461 0.9521
1.6258 -12.5595 -1.5043 0.9503
2.8926 -13.0574 -1.5886 0.9476
4.1769 -13.1622 -1.6403 0.9459
5.4578 -13.0334 -1.6784 0.9447
9.4580 -12.0762 -1.8221 0.9401
12.2222 -10.8902 -1.9445 0.9362
13.6172 -10.1080 -2.0145 0.9340
2.3458 -0.9118 -0.2990 0.9899
17.6789 -5.1112 -2.1860 0.9286
15.0287 -0.2044 -1.7854 0.9413
11.6402 0.8826 -1.3867 0.9541
9.1117 2.3677 -1.1183 0.9628
8.2711 2.9585 -1.0435 0.9652
6.4239 3.6958 -0.8803 0.9706
5.7511 4.0311 -0.8343 0.9721
3.8992 4.7089 -0.7262 0.9757
2.3560 5.2227 -0.6806 0.9772
1.8818 5.4144 -0.6809 0.9772
1.4461 5.7788 -0.7076 0.9763
0.9220 5.8646 -0.7052 0.9764
-0.1409 6.2291 -0.7401 0.9752
-0.7485 6.6613 -0.7962 0.9734
-1.3902 6.8170 -0.8264 0.9724
-2.0961 7.0126 -0.8694 0.9709
-14.4923 13.3573 -2.3411 0.9237
-15.0004 11.5314 -2.2475 0.9266
-15.3472 9.7531 -2.1600 0.9294
-15.6171 6.3748 -2.0037 0.9343
-15.5677 4.7862 -1.9346 0.9365
-15.1607 1.8237 -1.8139 0.9403
-14.4095 -0.8489 -1.7146 0.9435
-13.3785 -3.2371 -1.6350 0.9461
-12.1162 -5.3522 -1.5734 0.9480
-10.6583 -7.2062 -1.5283 0.9495
-9.8641 -8.0388 -1.5115 0.9500
-7.5993 -8.8692 -1.3874 0.9540
-4.0151 -10.9542 -1.3859 0.9541
-3.0397 -11.3330 -1.3938 0.9538
-2.0335 -11.6528 -1.4051 0.9535
3.7014 -13.1883 -1.6271 0.9463
7.5949 -12.6284 -1.7505 0.9424
8.9438 -12.2477 -1.8015 0.9407
13.0909 -10.4188 -1.9874 0.9348
15.8713 -8.5404 -2.1409 0.9300
15.9948 -6.8453 -2.0666 0.9323
17.2267 -5.6153 -2.1523 0.9296
18.4073 -4.2290 -2.2435 0.9267
15.5831 -0.7372 -1.8531 0.9391
9.5031 2.1307 -1.1569 0.9615
8.6400 2.7661 -1.0776 0.9641
5.9931 3.9066 -0.8498 0.9716
5.1774 4.0763 -0.7827 0.9738
4.5795 4.3199 -0.7478 0.9750
4.1013 4.6267 -0.7344 0.9754
2.0607 5.3421 -0.6801 0.9772
-0.4996 6.3730 -0.7593 0.9746
-15.4886 8.6738 -2.1087 0.9310
-15.6057 6.9919 -2.0313 0.9334
-15.5995 5.3770 -1.9600 0.9357
-15.2660 2.3601 -1.8349 0.9397
-14.9603 0.9603 -1.7807 0.9414
-14.5743 -0.3670 -1.7318 0.9430
-13.5919 -2.8081 -1.6486 0.9456
-9.1963 -8.3870 -1.4785 0.9511
-7.9827 -8.7055 -1.4030 0.9535
-7.0756 -9.2530 -1.3836 0.9542
-6.2077 -9.8236 -1.3804 0.9543
-5.3072 -10.3382 -1.3804 0.9543
-3.4112 -11.1970 -1.3904 0.9539
-2.4166 -11.5392 -1.4004 0.9536
-1.3914 -11.8214 -1.4139 0.9532
8.4325 -12.4037 -1.7816 0.9414
12.5648 -10.7103 -1.9612 0.9357
15.3505 -8.9392 -2.1101 0.9309
-13.1519 2.6286 -1.9003 0.9473
-12.9845 1.4076 -1.8505 0.9486
-12.7373 0.2383 -1.8051 0.9498
-11.5823 -2.9467 -1.6934 0.9529
-11.0779 -3.8989 -1.6640 0.9537
-9.9174 -5.6384 -1.6164 0.9550
-8.5774 -7.1593 -1.5830 0.9559
-7.8473 -7.8379 -1.5715 0.9562
-7.0801 -8.4620 -1.5633 0.9564
-3.6758 -10.4047 -1.5635 0.9564
-0.8089 -11.2531 -1.5986 0.9554
0.1999 -11.4113 -1.6171 0.9549
2.2893 -11.5255 -1.6649 0.9536
3.3664 -11.4753 -1.6944 0.9528
6.6989 -10.8485 -1.8066 0.9498
7.8325 -10.4658 -1.8522 0.9486
8.9699 -9.9880 -1.9021 0.9472
10.1054 -9.4098 -1.9565 0.9457
11.2317 -8.7259 -2.0152 0.9442
12.3405 -7.9310 -2.0785 0.9425
13.4216 -7.0205 -2.1461 0.9406
2.3356 -0.9673 -0.3582 0.9898
15.3896 -0.5472 -2.1819 0.9397
5.9150 3.9554 -1.0082 0.9717
4.0255 4.6499 -0.8714 0.9755
3.5028 4.8624 -0.8491 0.9761
1.9961 5.3611 -0.8106 0.9772
1.5664 5.7229 -0.8407 0.9763
-4.9891 13.3438 -2.0185 0.9441
-9.2786 15.6078 -2.5727 0.9293
-2.6171 1.7449 -0.4457 0.9874
-13.1841 5.7223 -2.0364 0.9436
-13.2378 4.3900 -1.9761 0.9452
-13.1928 3.1020 -1.9202 0.9467
-12.5461 -0.4632 -1.7789 0.9505
-12.1837 -1.5456 -1.7401 0.9516
-11.7581 -2.5734 -1.7054 0.9525
-10.1507 -5.3272 -1.6243 0.9547
-9.5181 -6.1355 -1.6045 0.9553
-8.8427 -6.8892 -1.5883 0.9557
-6.5844 -8.8231 -1.5599 0.9565
-5.7610 -9.3580 -1.5570 0.9566
-4.9051 -9.8373 -1.5575 0.9566
-4.0181 -10.2601 -1.5613 0.9565
-1.1828 -11.1768 -1.5925 0.9556
0.8407 -11.4764 -1.6304 0.9546
2.9578 -11.5030 -1.6829 0.9531
4.0469 -11.4055 -1.7148 0.9523
8.5408 -10.1797 -1.8828 0.9477
10.8085 -8.9965 -1.9925 0.9448
13.0178 -7.3777 -2.1201 0.9413
14.8801 -3.7641 -2.1748 0.9399
15.6864 -2.5072 -2.2508 0.9378
11.6911 1.2835 -1.6665 0.9536
10.0901 2.0309 -1.4583 0.9593
8.5551 2.5334 -1.2642 0.9646
7.4633 2.9566 -1.1374 0.9681
6.7470 3.3972 -1.0703 0.9699
6.1481 3.8182 -1.0254 0.9712
5.3262 4.0073 -0.9444 0.9734
4.7155 4.2566 -0.9001 0.9747
4.1281 4.4560 -0.8607 0.9758
3.1118 4.8692 -0.8188 0.9769
2.1747 5.2889 -0.8103 0.9772
1.2559 5.8480 -0.8475 0.9761
-0.3554 6.3073 -0.8951 0.9748
-9.9186 14.7510 -2.5186 0.9307
-13.2296 4.8875 -1.9983 0.9446
-13.2208 3.5823 -1.9408 0.9462
-13.1186 2.3238 -1.8877 0.9476
-12.3281 -1.1438 -1.7543 0.9512
-11.9257 -2.1922 -1.7181 0.9522
-10.9459 -4.1244 -1.6574 0.9538
-10.3775 -5.0081 -1.6327 0.9545
-9.7619 -5.8371 -1.6116 0.9551
-9.1023 -6.6113 -1.5940 0.9556
-8.4015 -7.3311 -1.5799 0.9560
-7.6621 -7.9964 -1.5692 0.9562
-6.8861 -8.6070 -1.5618 0.9564
-6.0754 -9.1628 -1.5577 0.9566
-4.3562 -10.1074 -1.5595 0.9565
-2.5157 -10.8230 -1.5744 0.9561
0.4516 -11.4401 -1.6222 0.9548
1.4906 -11.5152 -1.6452 0.9542
3.6340 -11.4514 -1.7023 0.9526
8.1118 -10.3574 -1.8641 0.9482
11.5061 -8.5410 -2.0304 0.9438
12.6091 -7.7181 -2.0947 0.9420
2.3456 -0.9117 -0.3566 0.9899
14.5561 -4.2083 -2.1469 0.9406
14.9816 -0.2038 -2.1229 0.9413
11.6103 0.8803 -1.6498 0.9540
10.7454 1.7888 -1.5435 0.9569
7.0067 3.2371 -1.0936 0.9693
6.4223 3.6948 -1.0498 0.9705
4.9391 4.1654 -0.9155 0.9742
3.3781 4.9131 -0.8448 0.9762
2.8301 5.0235 -0.8170 0.9770
1.8797 5.4082 -0.8112 0.9771
1.4445 5.7721 -0.8431 0.9762
0.1999 2.9941 -0.4252 0.9880
-0.7475 6.6526 -0.9485 0.9733
-2.0680 6.9185 -1.0231 0.9712
-5.2725 13.2108 -2.0154 0.9442
-8.4189 16.6142 -2.6390 0.9275
-10.4962 13.8769 -2.4653 0.9321
-11.2962 12.4499 -2.3819 0.9343
-11.9452 11.0097 -2.3018 0.9365
-12.4516 9.5720 -2.2253 0.9385
-12.8243 8.1498 -2.1529 0.9405
-13.2070 5.3910 -2.0212 0.9440
-13.2356 4.0692 -1.9620 0.9456
-13.1676 2.7927 -1.9072 0.9471
-13.0112 1.5651 -1.8568 0.9484
-12.7741 0.3889 -1.8108 0.9497
-12.4632 -0.7342 -1.7690 0.9508
-11.6445 -2.8175 -1.6975 0.9528
-11.1473 -3.7769 -1.6676 0.9536
-10.5976 -4.6813 -1.6415 0.9543
-9.3560 -6.3257 -1.6002 0.9554
-8.6705 -7.0661 -1.5848 0.9558
-7.9454 -7.7519 -1.5728 0.9561
-6.3851 -8.9597 -1.5589 0.9565
-4.6900 -9.9465 -1.5581 0.9565
-2.8716 -10.7060 -1.5705 0.9562
-0.9396 -11.2276 -1.5964 0.9555
1.0961 -11.4949 -1.6361 0.9544
2.1493 -11.5267 -1.6614 0.9537
4.3173 -11.3697 -1.7232 0.9521
6.5506 -10.8919 -1.8009 0.9499
7.6832 -10.5214 -1.8459 0.9487
11.0845 -8.8219 -2.0073 0.9444
13.2977 -5.6910 -2.0494 0.9432
14.2225 -4.6361 -2.1195 0.9414
15.5297 -0.7346 -2.2029 0.9391
7.2806 3.0707 -1.1196 0.9686
5.9914 3.9056 -1.0134 0.9715
5.1706 4.0709 -0.9324 0.9738
4.0963 4.6210 -0.8750 0.9754
2.4974 5.0734 -0.8012 0.9774
1.1319 5.8980 -0.8509 0.9760
0.2948 2.9284 -0.4170 0.9882
0.0678 6.1376 -0.8697 0.9755
-1.1437 6.7639 -0.9720 0.9727
-7.9540 17.1015 -2.6724 0.9266
-9.1355 15.7858 -2.5842 0.9290
-11.7177 11.5533 -2.3316 0.9357
-12.9932 7.2763 -2.1100 0.9416
-13.1693 5.9003 -2.0447 0.9434
-13.2366 4.5626 -1.9838 0.9450
-13.0801 2.0221 -1.8753 0.9479
-12.8725 0.8263 -1.8277 0.9492
-12.2351 -1.4065 -1.7450 0.9515
-11.8175 -2.4415 -1.7098 0.9524
-10.8108 -4.3467 -1.6509 0.9540
-10.2305 -5.2169 -1.6271 0.9547
-8.9338 -6.7933 -1.5902 0.9557
-7.4747 -8.1515 -1.5670 0.9563
-5.0194 -9.7775 -1.5573 0.9566
-4.1364 -10.2078 -1.5606 0.9565
-3.2234 -10.5806 -1.5672 0.9563
-2.2816 -10.8946 -1.5771 0.9560
-1.3121 -11.1481 -1.5905 0.9557
-0.3162 -11.3390 -1.6072 0.9552
0.7048 -11.4649 -1.6275 0.9547
3.9028 -11.4228 -1.7103 0.9524
5.0069 -11.2569 -1.7456 0.9514
6.1256 -11.0082 -1.7850 0.9504
7.2552 -10.6720 -1.8284 0.9492
8.3914 -10.2432 -1.8762 0.9479
9.5286 -9.7167 -1.9283 0.9465
11.7794 -8.3494 -2.0458 0.9433
13.9186 -6.5196 -2.1778 0.9398
13.8801 -5.0474 -2.0927 0.9421
-11.3679 1.2324 -1.8837 0.9547
-11.1858 0.2093 -1.8431 0.9557
-10.9351 -0.7730 -1.8059 0.9565
-10.6212 -1.7124 -1.7723 0.9573
-9.8220 -3.4568 -1.7154 0.9587
-7.6471 -6.3828 -1.6409 0.9604
-7.0017 -6.9934 -1.6303 0.9607
-6.3208 -7.5545 -1.6227 0.9609
-5.6064 -8.0654 -1.6182 0.9610
-4.8605 -8.5254 -1.6167 0.9610
-4.0850 -8.9335 -1.6183 0.9610
-2.4519 -9.5895 -1.6306 0.9607
-1.5976 -9.8345 -1.6414 0.9604
-0.7204 -10.0220 -1.6553 0.9601
0.1778 -10.1500 -1.6724 0.9597
1.0952 -10.2162 -1.6927 0.9592
2.9785 -10.1532 -1.7431 0.9580
3.9392 -10.0184 -1.7734 0.9573
4.9084 -9.8104 -1.8072 0.9565
5.8823 -9.5260 -1.8444 0.9556
6.8566 -9.1618 -1.8852 0.9547
7.8260 -8.7143 -1.9295 0.9536
8.7847 -8.1800 -1.9774 0.9525
9.7256 -7.5558 -2.0289 0.9513
12.8496 -2.7939 -2.1663 0.9481
13.9235 -0.4951 -2.2952 0.9451
11.1546 1.6063 -1.8566 0.9553
9.5638 2.2625 -1.6190 0.9609
8.2809 2.7587 -1.4379 0.9652
7.1602 3.1193 -1.2866 0.9688
5.5957 3.7419 -1.1089 0.9731
5.0402 4.0649 -1.0667 0.9741
4.4934 4.3394 -1.0291 0.9750
1.9939 5.3549 -0.9413 0.9771
0.2638 2.9695 -0.4911 0.9880
-0.0042 6.1488 -1.0129 0.9754
-0.5677 6.2938 -1.0410 0.9747
-1.8479 6.7156 -1.1474 0.9722
-6.2552 13.0466 -2.3835 0.9430
-10.0133 9.6438 -2.2902 0.9452
-10.5251 8.4649 -2.2251 0.9467
-11.4002 4.9480 -2.0473 0.9509
-11.4926 3.8112 -1.9947 0.9521
-11.2628 0.5904 -1.8580 0.9553
-10.7467 -1.3633 -1.7846 0.9570
-9.9890 -3.1419 -1.7251 0.9584
-9.5307 -3.9625 -1.7004 0.9590
-7.8808 -6.1398 -1.6458 0.9603
-7.2494 -6.7689 -1.6339 0.9606
-5.8796 -7.8787 -1.6195 0.9609
-4.3808 -8.7858 -1.6173 0.9610
-3.5877 -9.1610 -1.6208 0.9609
-1.9225 -9.7488 -1.6369 0.9605
-1.0538 -9.9582 -1.6497 0.9602
0.7471 -10.1986 -1.6846 0.9594
3.5757 -10.0776 -1.7616 0.9576
6.4894 -9.3088 -1.8694 0.9550
7.4613 -8.8930 -1.9124 0.9540
8.4248 -8.3919 -1.9589 0.9529
9.3733 -7.8019 -2.0091 0.9518
10.2993 -7.1202 -2.0627 0.9505
11.1941 -6.3442 -2.1197 0.9492
11.9248 -4.1787 -2.0816 0.9501
13.2220 -2.1133 -2.2058 0.9472
14.1780 0.2846 -2.3361 0.9441
11.6829 1.2826 -1.9362 0.9535
10.1138 2.0357 -1.6996 0.9590
8.7594 2.5939 -1.5050 0.9636
5.8216 3.6154 -1.1289 0.9726
5.2462 3.9471 -1.0816 0.9737
4.7077 4.2495 -1.0448 0.9746
4.0947 4.4199 -0.9926 0.9759
3.1082 4.8635 -0.9508 0.9769
1.7502 5.6414 -0.9731 0.9763
0.3501 2.8490 -0.4729 0.9884
0.2005 6.0767 -1.0016 0.9757
-0.3516 6.2399 -1.0296 0.9750
-0.9354 6.3807 -1.0624 0.9742
-1.3835 5.7822 -0.9794 0.9762
-5.8728 13.3874 -2.4083 0.9425
-7.3821 13.4272 -2.5243 0.9398
-8.3102 12.3590 -2.4535 0.9414
-2.5393 1.8194 -0.5146 0.9874
-11.1155 6.5493 -2.1254 0.9490
-11.3409 5.3829 -2.0681 0.9504
-11.4566 2.0294 -1.9167 0.9539
-11.3298 0.9773 -1.8734 0.9549
-11.1303 -0.0360 -1.8336 0.9559
-10.8636 -1.0079 -1.7974 0.9567
-10.5349 -1.9365 -1.7646 0.9575
-10.1487 -2.8204 -1.7352 0.9582
-9.7093 -3.6585 -1.7093 0.9588
-8.6862 -5.1939 -1.6673 0.9598
-6.8376 -7.1359 -1.6281 0.9607
-3.8901 -9.0258 -1.6191 0.9609
-3.0800 -9.3677 -1.6245 0.9608
-2.2442 -9.6549 -1.6329 0.9606
-0.5016 -10.0591 -1.6592 0.9600
2.2615 -10.2086 -1.7225 0.9585
3.2136 -10.1267 -1.7502 0.9578
4.1767 -9.9741 -1.7814 0.9571
5.1475 -9.7477 -1.8160 0.9563
9.0178 -8.0350 -1.9898 0.9522
9.9532 -7.3883 -2.0421 0.9510
10.8609 -6.6480 -2.0978 0.9497
12.3590 -3.5731 -2.1194 0.9492
13.5615 -1.4002 -2.2460 0.9462
14.0290 -0.1908 -2.3113 0.9447
10.7218 1.7849 -1.7906 0.9569
9.2323 2.3991 -1.5714 0.9621
7.9806 2.8546 -1.3963 0.9662
6.9138 3.1942 -1.2547 0.9696
4.9079 4.1391 -1.0577 0.9743
3.8897 4.6975 -1.0047 0.9756
2.8268 5.0177 -0.9488 0.9769
0.9233 5.8728 -0.9794 0.9762
-0.1399 6.1851 -1.0192 0.9752
-1.2247 6.0052 -1.0097 0.9755
-5.2495 13.1532 -2.3330 0.9442
-8.8245 11.6667 -2.4098 0.9424
-10.1500 9.3550 -2.2740 0.9456
-10.6333 8.1742 -2.2095 0.9471
-11.5015 3.5361 -1.9823 0.9524
-11.4844 2.4357 -1.9340 0.9535
-11.2137 0.3414 -1.8482 0.9555
-10.9718 -0.6464 -1.8106 0.9564
-10.3008 -2.4924 -1.7459 0.9579
-7.7292 -6.2990 -1.6426 0.9604
-7.0886 -6.9160 -1.6315 0.9606
-6.4122 -7.4836 -1.6235 0.9608
-5.7021 -8.0012 -1.6186 0.9610
-4.9602 -8.4679 -1.6167 0.9610
-2.5623 -9.5531 -1.6294 0.9607
-0.8369 -10.0007 -1.6533 0.9601
4.7807 -9.8420 -1.8025 0.9566
5.7543 -9.5679 -1.8393 0.9557
7.6991 -8.7779 -1.9235 0.9538
9.6033 -7.6430 -2.0219 0.9515
10.5224 -6.9383 -2.0764 0.9502
12.0990 -3.9439 -2.0964 0.9497
12.7671 -2.9332 -2.1580 0.9483
13.8646 -0.6559 -2.2866 0.9453
8.4492 2.7051 -1.4615 0.9647
6.3761 3.3879 -1.1895 0.9712
5.6710 3.6967 -1.1152 0.9729
4.0913 4.6154 -1.0161 0.9753
3.5657 4.8294 -0.9889 0.9760
2.5294 5.1382 -0.9435 0.9771
0.0677 6.1292 -1.0098 0.9755
-0.4919 6.2751 -1.0369 0.9748
-5.0599 14.0328 -2.4574 0.9413
-7.6219 13.1704 -2.5068 0.9402
-9.2900 10.9585 -2.3667 0.9434
-2.5747 1.7606 -0.5138 0.9874
-11.1804 6.2611 -2.1110 0.9494
-11.3811 5.0991 -2.0545 0.9507
-11.4857 3.9590 -2.0014 0.9519
-11.4325 1.7674 -1.9058 0.9542
-11.0708 -0.2788 -1.8244 0.9561
-10.4451 -2.1579 -1.7571 0.9577
-10.0455 -3.0307 -1.7286 0.9584
-8.5482 -5.3694 -1.6630 0.9599
-7.9610 -6.0535 -1.6476 0.9603
-6.6713 -7.2754 -1.6262 0.9608
-5.9737 -7.8119 -1.6201 0.9609
-5.2436 -8.2979 -1.6171 0.9610
-2.0350 -9.7170 -1.6355 0.9606
3.4494 -10.0959 -1.7576 0.9577
4.4147 -9.9255 -1.7896 0.9569
5.3868 -9.6804 -1.8250 0.9561
7.3340 -8.9525 -1.9065 0.9542
8.2989 -8.4627 -1.9526 0.9531
10.1792 -7.2151 -2.0554 0.9507
11.0787 -6.4516 -2.1120 0.9494
-10.1704 2.0327 -1.9495 0.9587
-10.1010 1.0950 -1.9097 0.9595
-9.9631 0.1864 -1.8730 0.9603
-9.7613 -0.6900 -1.8393 0.9610
-9.1834 -2.3364 -1.7811 0.9622
-8.8152 -3.1025 -1.7565 0.9627
-8.3989 -3.8285 -1.7349 0.9631
-6.8939 -5.7541 -1.6878 0.9641
-6.3161 -6.3086 -1.6779 0.9643
-5.0611 -7.2809 -1.6667 0.9646
-4.3881 -7.6969 -1.6653 0.9646
-1.4402 -8.8656 -1.6882 0.9641
-0.6489 -9.0271 -1.7011 0.9638
0.9843 -9.1814 -1.7356 0.9631
2.6688 -9.0974 -1.7820 0.9621
4.3812 -8.7567 -1.8404 0.9609
6.0919 -8.1400 -1.9110 0.9595
8.5681 -6.6565 -2.0394 0.9568
9.3444 -6.0055 -2.0878 0.9558
10.0833 -5.2743 -2.1389 0.9547
2.3305 -0.9652 -0.4741 0.9898
10.5914 -3.3155 -2.0860 0.9558
8.3094 2.7682 -1.6462 0.9650
7.3050 3.1824 -1.4977 0.9681
3.4944 4.8509 -1.1237 0.9760
2.8969 4.8881 -1.0680 0.9771
2.4311 5.0884 -1.0600 0.9773
1.9638 5.2742 -1.0578 0.9774
1.4909 5.4472 -1.0615 0.9773
1.0083 5.6086 -1.0711 0.9771
-0.0041 5.9714 -1.1224 0.9760
-1.1776 6.4997 -1.2416 0.9735
-1.6203 5.8887 -1.1480 0.9754
-9.1670 7.3726 -2.2111 0.9532
-10.1452 3.3644 -2.0090 0.9574
-10.0228 0.5254 -1.8865 0.9600
-9.6053 -1.2185 -1.8199 0.9614
-9.3091 -2.0374 -1.7912 0.9620
-8.5613 -3.5595 -1.7427 0.9630
-7.6297 -4.9181 -1.7062 0.9637
-5.9389 -6.6312 -1.6732 0.9644
-5.3073 -7.1118 -1.6679 0.9645
-4.6452 -7.5456 -1.6655 0.9646
-3.9549 -7.9316 -1.6659 0.9646
-1.7336 -8.7906 -1.6841 0.9642
-0.1470 -9.0997 -1.7106 0.9636
1.5044 -9.1816 -1.7488 0.9628
2.3482 -9.1323 -1.7723 0.9623
3.2004 -9.0197 -1.7989 0.9618
5.7711 -8.2783 -1.8968 0.9598
7.4527 -7.4236 -1.9772 0.9581
9.0556 -6.2604 -2.0692 0.9562
9.8096 -5.5595 -2.1193 0.9551
10.3752 -3.6357 -2.0664 0.9562
12.1427 0.2437 -2.2828 0.9518
11.6545 1.2795 -2.2038 0.9534
5.8756 3.6489 -1.3000 0.9722
5.1636 3.8850 -1.2146 0.9740
3.0730 4.8084 -1.0726 0.9770
2.1405 5.2057 -1.0580 0.9774
1.6701 5.3833 -1.0594 0.9773
1.1917 5.5490 -1.0668 0.9772
0.3450 2.8080 -0.5318 0.9886
0.1944 5.8919 -1.1081 0.9763
-0.3441 6.1074 -1.1498 0.9754
-1.3772 5.7560 -1.1124 0.9762
-5.0076 11.4149 -2.3429 0.9505
-5.8650 10.6676 -2.2882 0.9517
-7.2979 9.0018 -2.1782 0.9539
-8.9981 7.7498 -2.2321 0.9528
-2.5404 1.8202 -0.5874 0.9874
-9.7375 5.7373 -2.1243 0.9550
-9.9683 4.7314 -2.0740 0.9561
-10.0733 0.8689 -1.9004 0.9597
-9.9192 -0.0321 -1.8644 0.9604
-9.7025 -0.9002 -1.8315 0.9611
-9.4272 -1.7329 -1.8016 0.9617
-7.8182 -4.6749 -1.7122 0.9636
-7.3058 -5.3065 -1.6972 0.9639
-6.7552 -5.8945 -1.6851 0.9642
-6.1688 -6.4380 -1.6759 0.9644
-4.2185 -7.7917 -1.6654 0.9646
-2.0241 -8.7081 -1.6804 0.9643
0.3612 -9.1503 -1.7212 0.9634
1.1889 -9.1843 -1.7407 0.9630
2.0289 -9.1582 -1.7631 0.9625
2.8782 -9.0697 -1.7885 0.9620
4.5922 -8.6962 -1.8485 0.9608
6.3002 -8.0443 -1.9205 0.9593
7.1401 -7.6079 -1.9611 0.9584
7.9628 -7.0950 -2.0046 0.9575
8.7619 -6.5039 -2.0510 0.9566
9.5298 -5.8332 -2.1001 0.9555
10.2454 -5.0760 -2.1491 0.9545
2.3454 -0.9116 -0.4730 0.9898
10.7276 -3.1015 -2.0990 0.9556
11.2406 -2.1870 -2.1524 0.9545
11.6794 -1.2058 -2.2069 0.9533
12.0334 -0.1637 -2.2620 0.9522
10.6982 1.7809 -2.0385 0.9568
7.0698 3.2663 -1.4638 0.9688
6.1739 3.5519 -1.3388 0.9714
5.4201 3.7991 -1.2441 0.9734
4.7822 4.0332 -1.1759 0.9749
4.2234 4.2617 -1.1278 0.9759
3.8850 4.6918 -1.1450 0.9755
3.3701 4.9015 -1.1180 0.9761
2.7824 4.9388 -1.0655 0.9772
0.4846 3.0825 -0.5865 0.9874
0.3881 5.8143 -1.0953 0.9766
-0.1363 6.0243 -1.1326 0.9758
-0.7045 6.2697 -1.1859 0.9746
-1.1783 5.7777 -1.1083 0.9763
-2.0764 6.9466 -1.3628 0.9709
-7.0569 9.3298 -2.1988 0.9535
-9.6270 6.1179 -2.1440 0.9546
-10.0679 4.1097 -2.0440 0.9567
-10.1604 3.1238 -1.9980 0.9577
-10.1141 1.2166 -1.9148 0.9594
-9.7913 -0.5768 -1.8436 0.9609
-8.8664 -3.0041 -1.7596 0.9626
-8.0010 -4.4255 -1.7186 0.9635
-4.4781 -7.6450 -1.6653 0.9646
-3.7812 -8.0190 -1.6664 0.9646
-3.0583 -8.3439 -1.6703 0.9645
-2.3115 -8.6181 -1.6771 0.9643
-1.5427 -8.8403 -1.6868 0.9641
-0.7539 -9.0090 -1.6993 0.9639
1.7108 -9.1752 -1.7543 0.9627
3.4107 -8.9820 -1.8059 0.9617
7.6550 -7.2976 -1.9879 0.9579
8.4638 -6.7361 -2.0332 0.9569
9.2443 -6.0956 -2.0813 0.9559
9.9887 -5.3750 -2.1320 0.9549
9.9187 -4.2449 -2.0279 0.9570
10.5171 -3.4282 -2.0792 0.9560
11.0553 -2.5399 -2.1321 0.9549
11.3727 1.5017 -2.1562 0.9544
6.4922 3.4495 -1.3818 0.9705
4.4288 4.1778 -1.1444 0.9755
4.0863 4.6097 -1.1579 0.9752
3.5615 4.8236 -1.1270 0.9759
2.0254 5.2506 -1.0578 0.9774
1.0724 5.5880 -1.0695 0.9771
0.2825 2.8059 -0.5301 0.9886
-1.0920 6.4578 -1.2310 0.9737
-1.5642 5.9570 -1.1576 0.9752
-4.3015 11.9294 -2.3836 0.9497
-6.0615 10.4740 -2.2746 0.9519
-6.8023 9.6521 -2.2195 0.9531
-8.6180 8.4971 -2.2748 0.9519
-9.8025 5.4895 -2.1117 0.9553
-10.0115 4.4855 -2.0620 0.9563
-10.1351 3.4935 -2.0150 0.9573
-10.1452 1.5684 -1.9295 0.9591
-10.0415 0.6446 -1.8913 0.9599
-9.3511 -1.9319 -1.7948 0.9619
-7.1739 -5.4551 -1.6940 0.9640
-6.6143 -6.0322 -1.6826 0.9642
-3.3338 -8.2272 -1.6685 0.9645
-2.5959 -8.5207 -1.6742 0.9644
-1.0536 -8.9518 -1.6942 0.9640
-0.2534 -9.0862 -1.7085 0.9637
1.3943 -9.1835 -1.7459 0.9629
7.3441 -7.4890 -1.9715 0.9582
8.1617 -6.9571 -2.0158 0.9573
9.7128 -5.6561 -2.1126 0.9553
10.3964 -4.8698 -2.1579 0.9543
-9.1236 1.8235 -1.9667 0.9627
-8.5861 -1.3843 -1.8384 0.9651
-8.3121 -2.1147 -1.8130 0.9655
-7.9892 -2.8118 -1.7903 0.9660
-6.7589 -4.6862 -1.7385 0.9669
-5.7484 -5.7416 -1.7174 0.9673
-4.6090 -6.6305 -1.7069 0.9675
-3.9964 -7.0098 -1.7056 0.9675
-2.6963 -7.6322 -1.7110 0.9674
-2.0129 -7.8727 -1.7177 0.9673
0.8930 -8.3305 -1.7710 0.9663
1.6507 -8.3107 -1.7910 0.9660
2.4154 -8.2338 -1.8138 0.9655
4.7185 -7.6412 -1.8983 0.9639
6.9474 -6.4692 -2.0066 0.9619
8.9531 -4.6831 -2.1358 0.9595
2.3279 -0.9641 -0.5326 0.9898
9.3539 -2.9282 -2.0718 0.9607
10.1650 -1.2754 -2.1655 0.9590
10.6779 0.5743 -2.2604 0.9572
9.5255 2.2534 -2.0691 0.9608
7.2931 3.1772 -1.6816 0.9680
5.7070 3.8163 -1.4512 0.9723
5.0121 4.0423 -1.3611 0.9740
4.3996 4.2488 -1.2929 0.9753
2.8524 4.8131 -1.1826 0.9774
2.3893 5.0009 -1.1716 0.9776
1.9311 5.1863 -1.1698 0.9776
1.4707 5.3734 -1.1776 0.9775
1.0029 5.5784 -1.1981 0.9771
-1.1994 6.6199 -1.4221 0.9729
-1.6169 5.8763 -1.2883 0.9754
-3.8480 10.2919 -2.3226 0.9561
-4.6559 9.7109 -2.2764 0.9569
-7.1136 6.8512 -2.0877 0.9604
-2.6073 1.7384 -0.6624 0.9873
-8.9497 3.8844 -2.0623 0.9609
-9.0725 3.0086 -2.0204 0.9617
-8.1165 -2.5529 -1.7985 0.9658
-7.7649 -3.2283 -1.7776 0.9662
-6.9334 -4.4693 -1.7437 0.9668
-6.4592 -5.0322 -1.7308 0.9671
-5.9494 -5.5551 -1.7206 0.9673
-5.4065 -6.0367 -1.7130 0.9674
-4.2306 -6.8720 -1.7058 0.9675
-3.6018 -7.2234 -1.7062 0.9675
-2.9486 -7.5290 -1.7092 0.9675
-1.5773 -7.9979 -1.7232 0.9672
-0.8633 -8.1583 -1.7341 0.9670
0.6097 -8.3234 -1.7641 0.9665
2.8940 -8.1561 -1.8294 0.9652
4.4305 -7.7466 -1.8864 0.9642
7.3882 -6.1496 -2.0319 0.9615
8.0725 -5.5807 -2.0744 0.9607
8.7217 -4.9429 -2.1191 0.9598
9.1731 -3.2144 -2.0546 0.9610
10.0328 -1.6035 -2.1476 0.9593
10.6070 0.2129 -2.2426 0.9576
10.7664 1.1820 -2.2895 0.9567
5.2630 3.9598 -1.3922 0.9734
0.3424 2.7865 -0.5934 0.9886
-3.5250 10.4920 -2.3396 0.9558
-5.1217 9.3157 -2.2472 0.9575
-2.5415 1.8210 -0.6609 0.9873
-8.6553 5.0997 -2.1235 0.9598
-8.8839 4.2167 -2.0787 0.9606
-9.0349 3.3378 -2.0359 0.9614
-9.1120 2.4690 -1.9956 0.9621
-9.0599 0.7815 -1.9222 0.9635
-8.9384 -0.0289 -1.8894 0.9641
-8.5234 -1.5668 -1.8319 0.9652
-8.2371 -2.2892 -1.8072 0.9657
-6.6423 -4.8246 -1.7353 0.9670
-6.1457 -5.3627 -1.7241 0.9672
-4.4609 -6.7279 -1.7063 0.9675
-3.8419 -7.0962 -1.7057 0.9675
-3.1977 -7.4192 -1.7077 0.9675
-2.5303 -7.6957 -1.7124 0.9674
-1.8419 -7.9244 -1.7197 0.9673
-0.4105 -8.2324 -1.7423 0.9669
4.9055 -7.5676 -1.9063 0.9638
5.6604 -7.2273 -1.9405 0.9632
9.0864 -4.5018 -2.1435 0.9594
9.8905 -1.9243 -2.1299 0.9596
10.5237 -0.1431 -2.2247 0.9579
10.7171 0.8126 -2.2719 0.9570
9.1965 2.3898 -2.0085 0.9619
8.0304 2.8725 -1.8028 0.9657
6.2565 3.5994 -1.5257 0.9709
5.5270 3.8741 -1.4267 0.9728
4.8550 4.0945 -1.3425 0.9744
4.2588 4.2974 -1.2789 0.9756
3.8802 4.6860 -1.2860 0.9754
2.2766 5.0466 -1.1703 0.9776
1.8184 5.2319 -1.1708 0.9776
1.3570 5.4226 -1.1816 0.9774
0.4606 2.9296 -0.6269 0.9879
-0.7178 6.3875 -1.3587 0.9741
-2.0838 6.9712 -1.5380 0.9707
-4.0532 10.1557 -2.3114 0.9563
-5.5576 8.8983 -2.2176 0.9580
-6.1932 8.1880 -2.1701 0.9589
-6.7484 7.4376 -2.1229 0.9598
-8.2079 6.3098 -2.1884 0.9586
-8.8070 4.5496 -2.0953 0.9603
-8.9868 3.6684 -2.0518 0.9611
-9.1244 1.9352 -1.9716 0.9626
-8.9913 0.2738 -1.9015 0.9639
-8.6183 -1.2860 -1.8419 0.9650
-8.0343 -2.7222 -1.7931 0.9659
-7.6717 -3.3888 -1.7728 0.9663
-7.2660 -4.0190 -1.7552 0.9666
-6.8203 -4.6113 -1.7403 0.9669
-6.3371 -5.1645 -1.7280 0.9671
-5.8190 -5.6773 -1.7185 0.9673
-5.2683 -6.1486 -1.7115 0.9674
-4.6874 -6.5774 -1.7073 0.9675
-4.0784 -6.9625 -1.7056 0.9675
-3.4434 -7.3028 -1.7067 0.9675
-2.7846 -7.5970 -1.7103 0.9675
-1.4034 -8.0420 -1.7256 0.9672
0.0479 -8.2861 -1.7515 0.9667
1.5507 -8.3165 -1.7882 0.9660
3.8521 -7.9303 -1.8636 0.9646
4.6183 -7.6790 -1.8941 0.9640
6.1238 -6.9819 -1.9631 0.9627
6.8532 -6.5332 -2.0014 0.9620
7.5592 -6.0162 -2.0422 0.9613
8.2355 -5.4304 -2.0852 0.9605
8.8750 -4.7757 -2.1304 0.9596
10.1201 -1.3905 -2.1593 0.9591
10.4283 -0.4933 -2.2068 0.9582
10.6546 0.4478 -2.2542 0.9573
10.7913 1.4250 -2.3009 0.9565
9.7097 2.1771 -2.1034 0.9601
8.4412 2.7025 -1.8735 0.9644
6.5481 3.4793 -1.5674 0.9701
5.8060 3.7847 -1.4650 0.9721
5.0981 4.0139 -1.3716 0.9738
3.5571 4.8177 -1.2659 0.9758
1.9913 5.1620 -1.1695 0.9776
0.0664 6.0088 -1.2702 0.9757
-0.4920 6.2770 -1.3309 0.9746
-1.5335 5.8402 -1.2764 0.9756
-3.7366 10.3629 -2.3286 0.9560
-5.2973 9.1536 -2.2355 0.9577
-5.9629 8.4611 -2.1880 0.9586
-6.5485 7.7247 -2.1406 0.9594
-7.0533 6.9544 -2.0938 0.9603
-2.5718 1.7586 -0.6586 0.9873
-8.9280 4.0001 -2.0680 0.9608
-9.0606 3.1231 -2.0258 0.9616
-9.1105 1.4085 -1.9487 0.9630
-8.7056 -1.0007 -1.8523 0.9648
-8.1593 -2.4616 -1.8015 0.9658
-7.8137 -3.1416 -1.7802 0.9662
-7.4239 -3.7857 -1.7615 0.9665
-6.9929 -4.3925 -1.7456 0.9668
-6.5236 -4.9605 -1.7323 0.9670
-6.0183 -5.4887 -1.7218 0.9672
-5.4797 -5.9758 -1.7138 0.9674
-4.9099 -6.4208 -1.7086 0.9675
-2.3630 -7.7564 -1.7139 0.9674
-0.2303 -8.2560 -1.7458 0.9668
1.2644 -8.3278 -1.7805 0.9661
2.7930 -8.1744 -1.8260 0.9653
3.5622 -8.0087 -1.8528 0.9648
6.5805 -6.7104 -1.9867 0.9623
7.2961 -6.2193 -2.0265 0.9616
8.5854 -4.0215 -2.0040 0.9620
-8.2648 1.6518 -1.9808 0.9660
-8.2399 0.8933 -1.9479 0.9665
-8.1563 0.1526 -1.9172 0.9670
-7.8259 -1.2618 -1.8630 0.9680
-7.5855 -1.9299 -1.8396 0.9684
-7.2988 -2.5688 -1.8185 0.9687
-6.5985 -3.7515 -1.7839 0.9693
-6.1903 -4.2920 -1.7703 0.9695
-5.7467 -4.7966 -1.7593 0.9697
-5.2702 -5.2639 -1.7506 0.9699
-4.7631 -5.6928 -1.7445 0.9700
-3.0804 -6.7366 -1.7409 0.9700
-1.2005 -7.3900 -1.7596 0.9697
-0.5402 -7.5151 -1.7708 0.9695
0.1330 -7.5915 -1.7844 0.9693
0.8166 -7.6177 -1.8006 0.9690
2.2042 -7.5137 -1.8403 0.9683
2.9020 -7.3806 -1.8639 0.9679
4.2883 -6.9447 -1.9183 0.9670
4.9688 -6.6394 -1.9490 0.9665
5.6349 -6.2744 -1.9820 0.9659
6.9031 -5.3630 -2.0545 0.9647
8.0384 -4.2046 -2.1320 0.9634
2.3253 -0.9631 -0.5915 0.9897
8.3670 -2.6192 -2.0605 0.9646
9.4604 0.5089 -2.2266 0.9618
9.5481 1.3749 -2.2672 0.9611
9.5062 2.2489 -2.2958 0.9607
6.4349 3.5165 -1.7234 0.9703
5.0619 4.0824 -1.5283 0.9736
4.0057 4.6270 -1.4383 0.9752
3.4860 4.8391 -1.4017 0.9758
2.4254 5.0765 -1.3223 0.9771
1.9606 5.2657 -1.3206 0.9772
1.0199 5.6732 -1.3547 0.9766
0.2472 2.7829 -0.6566 0.9886
-0.0042 6.1355 -1.4420 0.9751
-1.6134 5.8633 -1.4292 0.9753
-4.1217 8.5967 -2.2407 0.9616
-4.7823 8.0444 -2.1995 0.9623
-5.3766 7.4422 -2.1578 0.9630
-5.9022 6.7990 -2.1160 0.9637
-6.7435 5.4235 -2.0339 0.9651
-2.6041 1.7362 -0.7356 0.9872
-7.8745 4.2893 -2.1074 0.9638
-8.0704 3.5028 -2.0677 0.9645
-8.2584 1.9418 -1.9938 0.9657
-8.2564 1.1774 -1.9601 0.9663
-8.0760 -0.2982 -1.8993 0.9673
-7.4122 -2.3314 -1.8262 0.9686
-7.0983 -2.9512 -1.8067 0.9689
-6.3485 -4.0923 -1.7752 0.9694
-5.9180 -4.6106 -1.7631 0.9696
-5.4536 -5.0921 -1.7536 0.9698
-4.4328 -5.9400 -1.7419 0.9700
-2.7044 -6.9055 -1.7430 0.9700
-1.4457 -7.3305 -1.7560 0.9698
-0.1223 -7.5685 -1.7790 0.9694
1.2465 -7.6080 -1.8119 0.9688
3.3360 -7.2694 -1.8798 0.9677
4.7136 -6.7615 -1.9371 0.9667
5.3857 -6.4191 -1.9693 0.9662
7.8435 -4.4452 -2.1189 0.9636
8.2124 -2.8778 -2.0452 0.9649
9.4061 0.1888 -2.2111 0.9621
9.5249 1.0457 -2.2520 0.9614
8.7104 2.5794 -2.1350 0.9634
7.6360 3.0250 -1.9303 0.9668
5.2973 3.9856 -1.5580 0.9731
4.6911 4.2346 -1.4853 0.9744
3.0819 4.8224 -1.3451 0.9768
1.6714 5.3875 -1.3257 0.9771
1.2010 5.5923 -1.3443 0.9768
0.1998 6.0539 -1.4236 0.9754
-0.3536 6.2749 -1.4771 0.9745
-0.9550 6.5143 -1.5474 0.9733
-1.3738 5.7418 -1.3875 0.9760
-3.8561 8.7902 -2.2559 0.9613
-5.1604 7.6746 -2.1736 0.9627
-5.7122 7.0458 -2.1318 0.9634
-6.1943 6.3814 -2.0902 0.9641
-2.5425 1.8218 -0.7351 0.9872
-7.7822 4.5853 -2.1229 0.9636
-8.0047 3.7994 -2.0825 0.9642
-8.1574 3.0136 -2.0438 0.9649
-8.2429 2.2335 -2.0071 0.9655
-7.9750 -0.7399 -1.8823 0.9676
-7.7713 -1.4285 -1.8570 0.9681
-7.2217 -2.7211 -1.8137 0.9688
-6.8816 -3.3210 -1.7958 0.9691
-6.5016 -3.8876 -1.7804 0.9694
-6.0845 -4.4194 -1.7674 0.9696
-5.6326 -4.9149 -1.7569 0.9698
-5.1483 -5.3730 -1.7489 0.9699
-4.6341 -5.7922 -1.7434 0.9700
-3.5243 -6.5095 -1.7397 0.9700
-2.9330 -6.8052 -1.7416 0.9700
-2.3204 -7.0572 -1.7460 0.9699
-1.6885 -7.2643 -1.7528 0.9698
-1.0396 -7.4252 -1.7621 0.9697
-0.3759 -7.5384 -1.7739 0.9695
0.3001 -7.6026 -1.7882 0.9692
0.9859 -7.6163 -1.8049 0.9689
3.7683 -7.1361 -1.8966 0.9674
4.4567 -6.8751 -1.9256 0.9669
5.1340 -6.5553 -1.9569 0.9664
6.4367 -5.7353 -2.0262 0.9652
7.0514 -5.2342 -2.0639 0.9646
