ply
format ascii 1.0
element vertex 1598
property float32 x
property float32 y
property float32 z
property float32 I
end_header
-6.7002 -0.8212 -1.9110 0.9723
-6.5266 -1.4001 -1.8897 0.9726
-6.3106 -1.9569 -1.8704 0.9729
-2.3320 -5.9000 -1.7960 0.9740
-1.8007 -6.1001 -1.8006 0.9739
-0.1221 -6.4538 -1.8273 0.9735
0.4576 -6.4857 -1.8406 0.9733
1.0433 -6.4727 -1.8560 0.9731
2.8069 -6.1540 -1.9148 0.9723
3.9555 -5.6999 -1.9641 0.9716
6.0474 -4.1966 -2.0838 0.9699
6.7644 -2.3817 -2.0302 0.9706
7.0648 -1.7977 -2.0637 0.9701
7.3150 -1.1790 -2.0975 0.9697
7.7164 0.8390 -2.1973 0.9682
7.7199 1.5462 -2.2288 0.9678
7.6525 2.2590 -2.2588 0.9674
7.5124 2.9694 -2.2868 0.9670
6.7388 3.3874 -2.1352 0.9691
5.9685 3.7018 -1.9882 0.9712
4.6833 4.2241 -1.7854 0.9741
3.6686 4.7449 -1.6979 0.9754
1.1741 3.7864 -1.1222 0.9837
1.2048 5.6166 -1.6262 0.9764
0.3488 2.8459 -0.8117 0.9882
-0.9513 6.4621 -1.8491 0.9732
-1.3687 5.7032 -1.6604 0.9759
-3.1305 7.1193 -2.2017 0.9682
-3.6980 6.7109 -2.1692 0.9686
-4.2164 6.2565 -2.1358 0.9691
-4.6828 5.7627 -2.1021 0.9696
-6.6691 3.1524 -2.0883 0.9698
-6.5842 -1.2255 -1.8960 0.9725
-6.3809 -1.7893 -1.8761 0.9728
-6.1369 -2.3294 -1.8583 0.9731
-5.8546 -2.8436 -1.8426 0.9733
-5.5365 -3.3301 -1.8290 0.9735
-5.1847 -3.7872 -1.8176 0.9737
-4.8015 -4.2133 -1.8084 0.9738
-3.9497 -4.9669 -1.7965 0.9740
-3.4854 -5.2917 -1.7938 0.9740
-2.9984 -5.5802 -1.7933 0.9740
-2.4908 -5.8311 -1.7950 0.9740
-0.2977 -6.4353 -1.8237 0.9736
0.2798 -6.4806 -1.8363 0.9734
2.0413 -6.3452 -1.8869 0.9727
3.2102 -6.0186 -1.9310 0.9720
3.7830 -5.7820 -1.9561 0.9717
4.3428 -5.4958 -1.9829 0.9713
5.9021 -4.3391 -2.0738 0.9700
6.3662 -3.8558 -2.1070 0.9695
6.3050 -3.0862 -1.9873 0.9712
2.3635 -0.9054 -0.7165 0.9895
7.7017 0.6253 -2.1875 0.9684
7.6807 2.0412 -2.2498 0.9675
6.9978 3.2815 -2.1880 0.9684
6.1924 3.6105 -2.0292 0.9706
5.4902 3.8966 -1.9059 0.9724
4.8631 4.1513 -1.8101 0.9738
4.2911 4.3828 -1.7364 0.9748
3.8277 4.6809 -1.7118 0.9752
3.3153 4.8869 -1.6718 0.9757
2.2981 5.1828 -1.6050 0.9767
1.2813 3.7657 -1.1261 0.9836
1.3520 5.5584 -1.6194 0.9765
0.4405 2.9297 -0.8387 0.9878
0.1717 2.8646 -0.8124 0.9881
-0.1818 6.1617 -1.7451 0.9747
-2.9480 7.2338 -2.2114 0.9680
-4.0635 6.3997 -2.1461 0.9690
-4.9751 5.4000 -2.0786 0.9699
-5.3490 4.8544 -2.0449 0.9704
-5.9296 3.7029 -1.9790 0.9714
-6.6126 3.3495 -2.0984 0.9697
-6.7773 2.7029 -2.0656 0.9701
-6.6378 -1.0490 -1.9024 0.9724
-6.4474 -1.6196 -1.8819 0.9727
-6.2156 -2.1671 -1.8635 0.9730
-5.6373 -3.1845 -1.8329 0.9734
-4.5180 -4.4903 -1.8033 0.9739
-4.0866 -4.8606 -1.7977 0.9739
-3.6297 -5.1963 -1.7944 0.9740
-2.6479 -5.7585 -1.7943 0.9740
-1.5895 -6.1671 -1.8029 0.9739
-1.0371 -6.3109 -1.8105 0.9738
0.1026 -6.4714 -1.8323 0.9735
0.6850 -6.4860 -1.8464 0.9733
1.2723 -6.4552 -1.8626 0.9730
1.8615 -6.3781 -1.8809 0.9728
2.4496 -6.2537 -1.9013 0.9725
3.0334 -6.0811 -1.9238 0.9721
3.6092 -5.8595 -1.9482 0.9718
6.2281 -4.0085 -2.0967 0.9697
2.3226 -0.9632 -0.7118 0.9896
6.8869 -2.1588 -2.0432 0.9704
7.1684 -1.5609 -2.0769 0.9700
7.5700 -0.2700 -2.1444 0.9690
7.7260 1.1131 -2.2098 0.9681
7.7022 1.8234 -2.2407 0.9676
7.6067 2.5362 -2.2700 0.9672
6.4259 3.5152 -2.0735 0.9700
4.4609 4.3142 -1.7568 0.9745
3.9895 4.6157 -1.7271 0.9750
3.4693 4.8251 -1.6824 0.9756
2.9182 4.9351 -1.6231 0.9764
1.4981 5.5006 -1.6139 0.9766
1.0153 5.6914 -1.6366 0.9763
0.2378 2.7208 -0.7732 0.9887
-0.5801 6.3174 -1.7959 0.9740
6.9424 -0.1100 -2.1356 0.9714
6.9952 1.8031 -2.2219 0.9702
6.7102 3.0856 -2.2717 0.9696
5.5377 3.8683 -2.0777 0.9721
4.3316 4.3584 -1.8900 0.9746
3.8668 4.6572 -1.8618 0.9750
2.8084 4.9716 -1.7563 0.9764
2.3347 5.1608 -1.7422 0.9766
0.9050 5.7273 -1.7834 0.9760
-0.1351 6.1353 -1.8876 0.9746
-0.7114 6.3602 -1.9685 0.9736
-2.0544 6.8813 -2.2089 0.9704
-3.1776 6.2731 -2.1629 0.9710
-4.1237 5.4515 -2.1024 0.9718
-4.5265 4.9875 -2.0716 0.9722
-4.8799 4.4958 -2.0408 0.9726
-5.1830 3.9819 -2.0103 0.9730
-6.2386 2.5423 -2.0721 0.9722
-6.3497 1.9475 -2.0428 0.9726
-6.0030 -1.4602 -1.9002 0.9745
-4.9565 -3.3626 -1.8422 0.9752
-3.4183 -4.8164 -1.8166 0.9756
-2.5069 -5.3461 -1.8162 0.9756
-1.5230 -5.7312 -1.8240 0.9755
0.0504 -6.0180 -1.8511 0.9751
0.5914 -6.0318 -1.8642 0.9750
2.2276 -5.8147 -1.9152 0.9743
2.7674 -5.6535 -1.9361 0.9740
4.8081 -4.5525 -2.0366 0.9727
5.2691 -4.1636 -2.0656 0.9723
5.7019 -3.7305 -2.0958 0.9719
2.3244 -0.9844 -0.7764 0.9895
6.5488 -1.4774 -2.0649 0.9723
6.9067 -0.2981 -2.1263 0.9715
7.0035 0.3240 -2.1564 0.9711
7.0157 1.6055 -2.2136 0.9703
6.9261 2.2518 -2.2401 0.9700
6.4814 3.4828 -2.2631 0.9697
5.7447 3.7839 -2.1158 0.9716
4.5021 4.2893 -1.9126 0.9743
4.0291 4.5917 -1.8789 0.9748
3.5075 4.8019 -1.8290 0.9754
2.0081 5.2908 -1.7406 0.9766
1.0550 5.6681 -1.7733 0.9762
0.2574 2.7110 -0.8376 0.9887
-2.4679 6.7151 -2.2005 0.9705
-3.5265 6.0058 -2.1422 0.9713
-3.9911 5.5868 -2.1118 0.9717
-4.4086 5.1324 -2.0810 0.9721
-4.7773 4.6486 -2.0502 0.9725
-6.3986 0.3637 -1.9712 0.9735
-6.3290 -0.2063 -1.9477 0.9738
-6.0588 -1.2998 -1.9060 0.9744
-5.6285 -2.3140 -1.8718 0.9749
-5.0555 -3.2319 -1.8455 0.9752
-4.3570 -4.0390 -1.8274 0.9754
-3.9661 -4.3973 -1.8214 0.9755
-2.1726 -5.4967 -1.8179 0.9756
-1.6773 -5.6821 -1.8222 0.9755
-0.6455 -5.9375 -1.8370 0.9753
-0.1137 -6.0054 -1.8475 0.9752
0.4256 -6.0321 -1.8599 0.9750
0.9698 -6.0164 -1.8744 0.9748
2.0616 -5.8550 -1.9092 0.9744
4.6624 -4.6624 -2.0281 0.9728
5.1311 -4.2871 -2.0566 0.9724
5.5730 -3.8674 -2.0864 0.9720
5.9000 -2.6910 -1.9946 0.9732
6.2094 -2.1863 -2.0248 0.9728
6.4764 -1.6480 -2.0555 0.9724
6.6966 -1.0794 -2.0863 0.9720
7.0358 0.7650 -2.1768 0.9708
6.9604 2.0547 -2.2322 0.9701
6.8252 2.6978 -2.2573 0.9698
6.6240 3.3297 -2.2803 0.9695
5.9595 3.6962 -2.1569 0.9711
3.6640 4.7389 -1.8424 0.9752
3.1028 4.8536 -1.7718 0.9762
2.6231 5.0457 -1.7491 0.9765
1.2034 5.6096 -1.7646 0.9763
0.3497 2.8533 -0.8842 0.9880
-0.3537 6.2207 -1.9165 0.9743
-1.3672 5.6971 -1.8021 0.9758
-2.2926 6.8060 -2.2090 0.9704
-2.8539 6.4902 -2.1807 0.9708
-3.3757 6.1259 -2.1513 0.9712
-3.8540 5.7188 -2.1211 0.9716
-4.6700 4.7991 -2.0596 0.9724
-5.0039 4.2981 -2.0289 0.9728
-2.5823 1.8447 -0.9761 0.9868
-5.5201 3.2412 -1.9689 0.9736
-6.1448 2.9046 -2.0905 0.9720
-6.2880 2.3109 -2.0605 0.9724
-6.3790 1.7162 -2.0318 0.9727
-6.4193 1.1248 -2.0045 0.9731
-6.3550 -0.0336 -1.9547 0.9738
-6.2544 -0.5938 -1.9324 0.9741
-6.1109 -1.1374 -1.9119 0.9743
-5.7039 -2.1650 -1.8765 0.9748
-5.1515 -3.0985 -1.8490 0.9752
-3.6796 -4.6273 -1.8184 0.9756
-2.3206 -5.4327 -1.8170 0.9756
-0.8061 -5.9087 -1.8342 0.9754
0.2603 -6.0284 -1.8559 0.9751
1.8952 -5.8910 -1.9034 0.9744
2.9755 -5.5785 -1.9447 0.9739
3.5030 -5.3542 -1.9680 0.9736
4.9906 -4.4065 -2.0477 0.9725
5.4411 -4.0002 -2.0772 0.9721
5.7977 -2.8380 -1.9854 0.9733
6.3996 -1.8158 -2.0461 0.9725
6.8198 -0.6686 -2.1077 0.9717
6.9512 -0.0581 -2.1381 0.9713
6.9886 1.8572 -2.2241 0.9702
6.6925 3.1383 -2.2735 0.9695
4.2854 4.3770 -1.8841 0.9747
2.7684 4.9876 -1.7545 0.9764
2.2952 5.1765 -1.7417 0.9766
1.2640 3.7147 -1.2069 0.9837
0.1715 2.8604 -0.8814 0.9881
-0.1816 6.1535 -1.8935 0.9746
-0.7620 6.3799 -1.9763 0.9735
-2.1139 6.8920 -2.2173 0.9703
-3.7127 5.8473 -2.1304 0.9714
-4.1593 5.4138 -2.0999 0.9718
-5.2061 3.9380 -2.0078 0.9731
-5.4544 3.4061 -1.9779 0.9734
-6.2499 2.4926 -2.0696 0.9722
-6.3567 1.8977 -2.0404 0.9726
-6.4123 1.3048 -2.0127 0.9730
-6.4184 0.7178 -1.9865 0.9733
-6.3769 0.1404 -1.9619 0.9737
-6.2898 -0.4243 -1.9390 0.9740
-6.1591 -0.9733 -1.9179 0.9742
-5.9871 -1.5039 -1.8987 0.9745
-5.5276 -2.5007 -1.8661 0.9749
-4.9289 -3.3980 -1.8414 0.9753
-3.8070 -4.5281 -1.8196 0.9755
-2.9345 -5.1208 -1.8153 0.9756
-1.9817 -5.5733 -1.8194 0.9755
-0.4396 -5.9688 -1.8408 0.9753
1.7286 -5.9230 -1.8978 0.9745
2.8123 -5.6380 -1.9379 0.9740
3.3431 -5.4275 -1.9607 0.9737
3.8619 -5.1713 -1.9852 0.9734
4.3648 -4.8693 -2.0113 0.9730
4.8477 -4.5217 -2.0390 0.9726
6.1174 -3.2043 -2.1241 0.9715
2.3214 -0.9627 -0.7730 0.9895
6.5679 -1.4301 -2.0675 0.9723
6.9170 -0.2467 -2.1289 0.9714
7.0089 0.3768 -2.1589 0.9711
7.0106 1.6597 -2.2159 0.9703
6.9157 2.3058 -2.2422 0.9700
6.7548 2.9454 -2.2666 0.9696
6.4158 3.5097 -2.2493 0.9699
5.6872 3.8074 -2.1051 0.9718
3.9843 4.6098 -1.8741 0.9748
2.9146 4.9290 -1.7613 0.9763
1.4963 5.4938 -1.7513 0.9765
1.0140 5.6843 -1.7760 0.9761
0.2371 2.7127 -0.8375 0.9887
-0.5793 6.3087 -1.9486 0.9738
6.2645 -0.6616 -2.0939 0.9738
6.4576 1.0613 -2.1753 0.9728
6.1374 2.8222 -2.2455 0.9719
5.9116 3.3877 -2.2649 0.9717
4.8996 4.1194 -2.1278 0.9734
2.8049 4.9654 -1.8957 0.9762
1.2965 3.7187 -1.3091 0.9835
0.9039 5.7200 -1.9250 0.9759
-0.1349 6.1271 -2.0372 0.9745
-0.7104 6.3513 -2.1244 0.9734
-1.8919 6.3368 -2.1983 0.9725
-3.3773 5.4080 -2.1194 0.9735
-3.7958 5.0180 -2.0915 0.9738
-4.1714 4.5963 -2.0632 0.9742
-4.5024 4.1480 -2.0349 0.9745
-4.7876 3.6781 -2.0069 0.9749
-2.6586 1.6880 -1.0468 0.9868
-5.2191 2.6929 -1.9522 0.9755
-5.8909 1.8068 -2.0482 0.9744
-5.9376 0.1752 -1.9745 0.9753
-5.8648 -0.3516 -1.9530 0.9755
-5.5975 -1.3616 -1.9149 0.9760
-4.9217 -2.7319 -1.8711 0.9766
-4.6312 -3.1419 -1.8603 0.9767
-3.9645 -3.8816 -1.8443 0.9769
-3.5923 -4.2083 -1.8392 0.9769
-3.1969 -4.5045 -1.8361 0.9770
-1.8918 -5.1969 -1.8384 0.9770
-1.4240 -5.3585 -1.8430 0.9769
-0.4523 -5.5717 -1.8582 0.9767
0.0470 -5.6213 -1.8686 0.9766
1.5694 -5.5311 -1.9112 0.9761
2.0760 -5.4190 -1.9290 0.9758
2.5772 -5.2649 -1.9485 0.9756
4.4617 -4.2245 -2.0424 0.9744
4.8845 -3.8596 -2.0693 0.9741
5.2800 -3.4544 -2.0973 0.9738
5.6287 -3.0022 -2.1205 0.9735
2.3217 -0.9833 -0.8381 0.9894
6.0367 -1.3618 -2.0571 0.9743
6.4335 0.2976 -2.1408 0.9732
6.4606 0.8815 -2.1674 0.9729
6.3424 2.0620 -2.2169 0.9723
6.1945 2.6461 -2.2391 0.9720
5.9869 3.2170 -2.2592 0.9718
5.7204 3.7679 -2.2769 0.9715
3.9520 4.5038 -1.9917 0.9751
1.5342 5.4712 -1.8888 0.9763
1.0537 5.6610 -1.9141 0.9760
-0.5294 6.2809 -2.0952 0.9738
-1.1423 6.5190 -2.2000 0.9725
-1.5435 5.7367 -1.9747 0.9753
-2.2633 6.1583 -2.1809 0.9727
-2.7704 5.8609 -2.1549 0.9730
-3.6724 5.1407 -2.1001 0.9737
-4.0614 4.7282 -2.0719 0.9741
-4.7054 3.8236 -2.0154 0.9748
-5.1652 2.8462 -1.9603 0.9754
-5.8627 1.9747 -2.0564 0.9743
-5.9513 0.3383 -1.9814 0.9752
-5.8915 -0.1920 -1.9594 0.9755
-5.7899 -0.7096 -1.9390 0.9757
-5.2536 -2.1599 -1.8881 0.9763
-5.0043 -2.6017 -1.8748 0.9765
-4.7231 -3.0194 -1.8634 0.9766
-4.4121 -3.4114 -1.8539 0.9768
-4.0732 -3.7760 -1.8462 0.9769
-3.7085 -4.1117 -1.8406 0.9769
-3.3200 -4.4173 -1.8368 0.9770
-2.9097 -4.6915 -1.8350 0.9770
-2.4796 -4.9329 -1.8352 0.9770
-2.0317 -5.1404 -1.8373 0.9770
-1.0914 -5.4495 -1.8474 0.9768
0.3974 -5.6326 -1.8770 0.9765
0.9051 -5.6152 -1.8906 0.9763
1.4141 -5.5571 -1.9061 0.9761
2.9205 -5.1329 -1.9631 0.9754
4.3278 -4.3277 -2.0344 0.9745
5.1623 -3.5824 -2.0887 0.9739
5.5290 -3.1458 -2.1145 0.9735
5.7325 -2.0184 -2.0202 0.9747
6.4142 0.1215 -2.1325 0.9733
6.3757 1.8821 -2.2097 0.9724
6.2460 2.4688 -2.2325 0.9721
6.0566 3.0445 -2.2533 0.9718
5.2766 3.9659 -2.1941 0.9726
4.6705 4.2126 -2.0907 0.9738
2.6199 5.0394 -1.8880 0.9763
1.2018 5.6026 -1.9047 0.9761
0.3519 2.8716 -0.9617 0.9879
-0.3532 6.2123 -2.0683 0.9741
-0.9486 6.4439 -2.1651 0.9729
-3.1015 5.6284 -2.1362 0.9733
-3.9472 4.8574 -2.0805 0.9740
-4.3056 4.4247 -2.0522 0.9743
-4.6189 3.9674 -2.0240 0.9747
-5.8300 2.1426 -2.0647 0.9742
-5.9204 1.5929 -2.0380 0.9745
-5.6957 -1.0602 -1.9258 0.9759
-5.5276 -1.5501 -1.9083 0.9761
-4.8123 -2.8945 -1.8667 0.9766
-4.1796 -3.6676 -1.8484 0.9768
-2.6129 -4.8627 -1.8350 0.9770
-2.1703 -5.0807 -1.8365 0.9770
2.2719 -5.3640 -1.9364 0.9757
2.7701 -5.1935 -1.9566 0.9755
3.2585 -4.9805 -1.9784 0.9752
5.0418 -3.7067 -2.0801 0.9740
5.3605 -2.6239 -1.9839 0.9752
5.9034 -1.6750 -2.0398 0.9745
6.2763 -0.6153 -2.0963 0.9738
6.3899 -0.0534 -2.1241 0.9734
6.2919 2.2905 -2.2257 0.9722
5.8901 3.4342 -2.2664 0.9717
5.4742 3.8852 -2.2314 0.9721
3.2480 4.7876 -1.9231 0.9759
1.3487 5.5446 -1.8968 0.9762
0.4808 3.1980 -1.0750 0.9865
0.1722 2.8734 -0.9568 0.9879
-0.1813 6.1452 -2.0436 0.9744
-1.2161 5.7554 -1.9554 0.9755
-1.9374 6.3166 -2.1962 0.9725
-2.4648 6.0480 -2.1709 0.9728
-3.4139 5.3767 -2.1171 0.9735
-3.8289 4.9839 -2.0891 0.9739
-5.9553 1.2118 -2.0201 0.9747
-5.9331 0.1306 -1.9727 0.9753
-5.7394 -0.9070 -1.9315 0.9758
-5.5829 -1.4024 -1.9135 0.9760
-5.3893 -1.8790 -1.8972 0.9762
-5.1605 -2.3346 -1.8827 0.9764
-4.2834 -3.5566 -1.8507 0.9768
-3.5600 -4.2343 -1.8389 0.9770
-2.3073 -5.0177 -1.8358 0.9770
-0.9026 -5.4926 -1.8503 0.9768
0.0892 -5.6237 -1.8696 0.9766
1.1032 -5.5974 -1.8964 0.9762
2.6188 -5.2500 -1.9502 0.9756
4.0539 -4.5225 -2.0189 0.9747
4.4981 -4.1955 -2.0446 0.9744
4.9187 -3.8272 -2.0716 0.9741
5.3117 -3.4187 -2.0997 0.9737
2.3202 -0.9622 -0.8349 0.9895
6.0537 -1.3181 -2.0594 0.9742
6.4379 0.3461 -2.1431 0.9732
6.4257 1.5212 -2.1950 0.9725
6.3323 2.1113 -2.2188 0.9723
6.1794 2.6945 -2.2408 0.9720
5.9668 3.2640 -2.2608 0.9717
5.0338 4.0648 -2.1507 0.9731
4.4489 4.3026 -2.0573 0.9742
2.4158 5.0702 -1.8669 0.9766
1.0127 5.6771 -1.9169 0.9760
0.2365 2.7069 -0.9032 0.9886
-0.5785 6.3000 -2.1030 0.9737
5.8994 -0.0935 -2.1099 0.9752
5.9539 0.4386 -2.1349 0.9750
5.9084 1.5229 -2.1819 0.9744
5.8054 2.0643 -2.2034 0.9742
5.6480 2.5972 -2.2231 0.9739
5.4365 3.1154 -2.2407 0.9737
5.1721 3.6129 -2.2561 0.9736
4.8566 4.0833 -2.2690 0.9734
4.3198 4.3466 -2.1915 0.9743
3.5784 4.3098 -2.0032 0.9765
2.8013 4.9591 -2.0368 0.9761
2.3288 5.1479 -2.0206 0.9763
1.3870 5.5218 -2.0360 0.9761
0.9027 5.7127 -2.0682 0.9757
0.1831 2.7143 -0.9729 0.9885
-0.1347 6.1188 -2.1887 0.9743
-1.7439 5.8413 -2.1800 0.9744
-2.6950 5.3204 -2.1328 0.9750
-3.1219 4.9992 -2.1077 0.9753
-3.5123 4.6433 -2.0820 0.9756
-2.6550 1.6858 -1.1247 0.9867
-4.8534 2.5042 -1.9530 0.9771
-5.3795 2.1923 -2.0774 0.9756
-5.5503 1.1728 -2.0287 0.9762
-5.5689 0.6651 -2.0056 0.9765
-5.3785 -0.8087 -1.9450 0.9772
-4.8535 -2.1521 -1.8986 0.9777
-4.3420 -2.9457 -1.8763 0.9780
-4.0434 -3.3065 -1.8679 0.9781
-3.7189 -3.6411 -1.8612 0.9781
-3.3703 -3.9483 -1.8564 0.9782
-2.9997 -4.2265 -1.8534 0.9782
-2.2000 -4.6915 -1.8530 0.9782
-0.4241 -5.2241 -1.8743 0.9780
0.5173 -5.2762 -1.8958 0.9777
0.9931 -5.2457 -1.9092 0.9776
1.4689 -5.1768 -1.9243 0.9774
1.9419 -5.0689 -1.9411 0.9772
3.3141 -4.5078 -2.0008 0.9765
3.7453 -4.2417 -2.0235 0.9762
4.5475 -3.5933 -2.0726 0.9757
4.9111 -3.2131 -2.0987 0.9754
5.2283 -2.7886 -2.1190 0.9751
2.3189 -0.9821 -0.9005 0.9894
5.8729 -0.2535 -2.1021 0.9753
5.9426 0.2749 -2.1274 0.9750
5.9291 1.3568 -2.1751 0.9745
5.8426 1.8995 -2.1970 0.9742
5.7018 2.4357 -2.2173 0.9740
5.5068 2.9591 -2.2356 0.9738
5.2583 3.4635 -2.2517 0.9736
3.2903 4.5046 -1.9948 0.9766
2.9475 4.9005 -2.0450 0.9760
2.4724 5.0906 -2.0238 0.9762
2.0031 5.2776 -2.0187 0.9763
0.2590 2.7278 -0.9799 0.9884
0.0320 6.0538 -2.1649 0.9746
-0.5231 6.2058 -2.2271 0.9739
-1.5411 5.7278 -2.1212 0.9751
-2.0876 5.6803 -2.1641 0.9746
-2.5577 5.4109 -2.1403 0.9749
-3.3971 4.7554 -2.0899 0.9755
-4.0841 3.9740 -2.0378 0.9761
-4.3659 3.5477 -2.0117 0.9764
-2.5778 1.7372 -1.1116 0.9869
-5.3322 2.3446 -2.0830 0.9756
-5.4606 1.8393 -2.0605 0.9758
-5.5678 0.8196 -2.0125 0.9764
-5.2849 -1.1338 -1.9329 0.9773
-5.1200 -1.5877 -1.9169 0.9775
-4.4277 -2.8305 -1.8793 0.9779
-3.8206 -3.5418 -1.8630 0.9781
-3.1151 -4.1447 -1.8541 0.9782
-2.7302 -4.4022 -1.8524 0.9782
-2.3266 -4.6287 -1.8526 0.9782
-1.9063 -4.8231 -1.8546 0.9782
-1.4713 -4.9843 -1.8585 0.9782
-1.0237 -5.1113 -1.8641 0.9781
-0.5657 -5.2032 -1.8717 0.9780
0.3724 -5.2779 -1.8921 0.9778
0.8477 -5.2591 -1.9050 0.9776
2.2672 -4.9707 -1.9537 0.9771
2.7287 -4.7958 -1.9732 0.9768
3.1792 -4.5812 -1.9941 0.9766
5.0638 -2.3096 -1.9903 0.9766
5.3180 -1.8724 -2.0162 0.9763
5.5346 -1.4083 -2.0423 0.9760
5.9265 0.1122 -2.1197 0.9751
5.9448 1.1907 -2.1681 0.9746
5.8748 1.7342 -2.1905 0.9743
5.7506 2.2730 -2.2113 0.9741
5.5721 2.8009 -2.2302 0.9739
5.3398 3.3119 -2.2470 0.9737
5.0552 3.7995 -2.2615 0.9735
4.6640 4.2067 -2.2461 0.9737
3.8687 4.1734 -2.0350 0.9761
3.4101 4.4105 -1.9937 0.9766
2.6166 5.0330 -2.0285 0.9762
2.1463 5.2207 -2.0186 0.9763
1.1636 3.7524 -1.4049 0.9834
0.3508 2.8628 -1.0314 0.9878
0.0961 2.9479 -1.0547 0.9875
-0.3527 6.2037 -2.2221 0.9739
-0.9017 6.1249 -2.2139 0.9740
-4.5367 3.2408 -1.9938 0.9766
-4.7464 2.7869 -1.9683 0.9769
-5.4286 1.9951 -2.0683 0.9757
-5.5253 -0.0292 -1.9759 0.9768
-5.4459 -0.5170 -1.9562 0.9770
-5.3282 -0.9918 -1.9381 0.9772
-4.7634 -2.3136 -1.8937 0.9778
-4.5107 -2.7131 -1.8824 0.9779
-4.2290 -3.0891 -1.8728 0.9780
-3.5860 -3.7640 -1.8591 0.9782
-2.8499 -4.3268 -1.8528 0.9782
-2.4518 -4.5628 -1.8524 0.9782
-1.6056 -4.9386 -1.8571 0.9782
0.2278 -5.2761 -1.8885 0.9778
0.7023 -5.2689 -1.9009 0.9777
1.6534 -5.1395 -1.9307 0.9773
3.0429 -4.6509 -1.9876 0.9767
3.4839 -4.4089 -2.0095 0.9764
3.9082 -4.1275 -2.0327 0.9761
4.3122 -3.8075 -2.0572 0.9759
2.3748 -0.9098 -0.9094 0.9893
5.4726 -1.5528 -2.0343 0.9761
5.6612 -1.0717 -2.0604 0.9758
5.9058 -0.0494 -2.1120 0.9752
5.9554 1.0246 -2.1610 0.9747
5.7943 2.1093 -2.2051 0.9741
5.6323 2.6412 -2.2246 0.9739
5.4164 3.1580 -2.2421 0.9737
4.2739 4.3652 -2.1847 0.9744
3.5399 4.3289 -1.9997 0.9765
2.7615 4.9751 -2.0348 0.9761
2.2895 5.1636 -2.0199 0.9763
1.2767 3.7521 -1.4173 0.9833
1.3470 5.5376 -2.0380 0.9761
0.8614 5.7289 -2.0717 0.9757
0.1637 2.7315 -0.9786 0.9884
-0.1811 6.1369 -2.1955 0.9743
-1.2165 5.7569 -2.1042 0.9753
-1.7860 5.8231 -2.1781 0.9745
-2.2742 5.5805 -2.1550 0.9747
-2.7321 5.2950 -2.1307 0.9750
-3.1561 4.9706 -2.1056 0.9753
-4.1987 3.8105 -2.0276 0.9762
-4.8669 2.4652 -1.9510 0.9771
-5.5535 1.1301 -2.0267 0.9762
-5.5685 0.6228 -2.0038 0.9765
-5.5416 0.1220 -1.9822 0.9767
-5.3681 -0.8483 -1.9435 0.9772
-5.2249 -1.3125 -1.9265 0.9774
-4.3180 -2.9769 -1.8755 0.9780
-3.6906 -3.6679 -1.8607 0.9781
-3.3401 -3.9727 -1.8561 0.9782
-2.1649 -4.7082 -1.8532 0.9782
-1.7387 -4.8898 -1.8559 0.9782
-1.2985 -5.0379 -1.8605 0.9781
-0.8466 -5.1513 -1.8669 0.9781
-0.3851 -5.2292 -1.8751 0.9780
0.0836 -5.2708 -1.8851 0.9779
1.9812 -5.0580 -1.9426 0.9772
2.9055 -4.7170 -1.9811 0.9767
3.3508 -4.4870 -2.0026 0.9765
4.1912 -3.9093 -2.0496 0.9759
4.9403 -3.1796 -2.1010 0.9754
5.2529 -2.7514 -2.1205 0.9751
2.3190 -0.9617 -0.8978 0.9894
5.6080 -1.2211 -2.0525 0.9759
5.7669 -0.7248 -2.0785 0.9756
5.6876 2.4801 -2.2189 0.9740
5.4880 3.0021 -2.2370 0.9738
3.6808 4.2585 -2.0129 0.9764
2.9073 4.9166 -2.0426 0.9760
2.4127 5.0638 -2.0059 0.9765
1.9639 5.2932 -2.0190 0.9763
1.4925 5.4801 -2.0311 0.9762
1.0114 5.6699 -2.0596 0.9758
-0.0134 6.0715 -2.1712 0.9745
5.4780 -0.0868 -2.0995 0.9768
5.5240 0.4069 -2.1226 0.9766
5.5229 0.9077 -2.1449 0.9763
5.2246 2.4025 -2.2037 0.9757
5.0260 2.8802 -2.2199 0.9755
4.4856 3.7714 -2.2458 0.9752
3.5619 4.2899 -2.1368 0.9764
3.0891 4.4808 -2.0856 0.9770
2.7977 4.9527 -2.1799 0.9759
1.2973 3.7210 -1.5101 0.9833
0.9015 5.7052 -2.2135 0.9756
0.1825 2.7048 -1.0389 0.9885
-0.6388 5.7110 -2.2022 0.9757
-1.1365 5.5846 -2.1840 0.9759
-2.0716 5.1942 -2.1430 0.9763
-2.8992 4.6425 -2.0975 0.9768
-3.2646 4.3157 -2.0737 0.9771
-3.5944 3.9605 -2.0496 0.9773
-5.0193 2.0455 -2.0771 0.9770
-5.1939 1.0974 -2.0343 0.9775
-5.2151 0.6228 -2.0127 0.9778
-5.1967 0.1533 -1.9923 0.9780
-5.0464 -0.7588 -1.9556 0.9784
-4.9176 -1.1962 -1.9395 0.9786
-4.7551 -1.6180 -1.9248 0.9787
-4.5606 -2.0222 -1.9118 0.9789
-4.3359 -2.4067 -1.9004 0.9790
-4.0828 -2.7699 -1.8907 0.9791
-3.4986 -3.4255 -1.8764 0.9792
-3.1712 -3.7150 -1.8718 0.9793
-2.4551 -4.2108 -1.8679 0.9793
-1.6701 -4.5879 -1.8710 0.9793
-1.2567 -4.7292 -1.8752 0.9793
-0.8323 -4.8377 -1.8811 0.9792
-0.3988 -4.9126 -1.8888 0.9791
0.4862 -4.9582 -1.9092 0.9789
1.3791 -4.8604 -1.9361 0.9786
3.5053 -3.9699 -2.0295 0.9776
4.2495 -3.3579 -2.0755 0.9771
5.0180 -1.6143 -2.0200 0.9777
5.4549 -0.2355 -2.0924 0.9769
5.5149 0.2551 -2.1157 0.9766
5.5283 0.7543 -2.1382 0.9764
5.4935 1.2572 -2.1596 0.9761
5.4094 1.7587 -2.1798 0.9759
5.2754 2.2535 -2.1984 0.9757
4.5800 3.6421 -2.2424 0.9752
2.0006 5.2709 -2.1605 0.9761
1.0510 5.6465 -2.2010 0.9757
0.2686 2.8299 -1.0893 0.9879
-1.4715 5.4690 -2.1704 0.9760
-1.9350 5.2649 -2.1496 0.9763
-2.3726 5.0193 -2.1276 0.9765
-3.8017 3.6993 -2.0328 0.9775
-4.0676 3.3053 -2.0085 0.9778
-2.5776 1.7371 -1.1911 0.9868
-4.4816 2.4695 -1.9609 0.9783
-5.1047 1.7194 -2.0642 0.9772
-5.1793 1.2429 -2.0412 0.9774
-5.2064 0.2960 -1.9984 0.9779
-5.1613 -0.1682 -1.9789 0.9781
-5.0788 -0.6225 -1.9609 0.9783
-4.9606 -1.0642 -1.9442 0.9785
-4.8082 -1.4910 -1.9291 0.9787
-4.4076 -2.2915 -1.9037 0.9789
-4.1630 -2.6613 -1.8935 0.9791
-3.8912 -3.0086 -1.8849 0.9792
-3.2735 -3.6294 -1.8730 0.9793
-2.5692 -4.1426 -1.8680 0.9793
-2.1894 -4.3557 -1.8682 0.9793
-1.7938 -4.5384 -1.8701 0.9793
-1.3843 -4.6895 -1.8738 0.9793
-0.5320 -4.8934 -1.8863 0.9791
1.6874 -4.7922 -1.9470 0.9785
2.1266 -4.6625 -1.9638 0.9783
2.5579 -4.4957 -1.9822 0.9781
2.9783 -4.2917 -2.0019 0.9779
3.3846 -4.0508 -2.0229 0.9776
4.1417 -3.4605 -2.0683 0.9771
4.4858 -3.1129 -2.0924 0.9769
4.9539 -1.7443 -2.0127 0.9778
5.3099 -0.8558 -2.0611 0.9772
5.4276 -0.3829 -2.0851 0.9770
5.5014 0.1042 -2.1086 0.9767
5.5093 1.1035 -2.1532 0.9762
5.1531 2.5904 -2.2102 0.9756
4.3594 3.9319 -2.2497 0.9752
3.3752 4.3654 -2.1146 0.9766
1.1988 5.5882 -2.1902 0.9758
0.3493 2.8502 -1.1004 0.9878
0.0972 2.9818 -1.1433 0.9873
-0.3277 5.7640 -2.2124 0.9756
-0.8344 5.6675 -2.1953 0.9758
-1.3254 5.5226 -2.1764 0.9760
-2.2419 5.0985 -2.1344 0.9764
-3.0455 4.5190 -2.0883 0.9769
-3.3973 4.1807 -2.0644 0.9772
-3.7128 3.8155 -2.0402 0.9775
-3.9905 3.4276 -2.0159 0.9777
-4.5883 2.1689 -1.9449 0.9785
-5.0712 1.8637 -2.0705 0.9771
-5.1609 1.3885 -2.0481 0.9774
-5.1079 -0.4849 -1.9662 0.9783
-4.4767 -2.1743 -1.9072 0.9789
-4.2407 -2.5507 -1.8964 0.9790
-3.9770 -2.9051 -1.8874 0.9791
-3.3738 -3.5413 -1.8744 0.9793
-3.0380 -3.8203 -1.8705 0.9793
-2.3072 -4.2938 -1.8680 0.9793
-1.9162 -4.4859 -1.8693 0.9793
-1.0928 -4.7754 -1.8773 0.9792
-0.2281 -4.9325 -1.8922 0.9791
0.2141 -4.9592 -1.9022 0.9790
0.6599 -4.9505 -1.9139 0.9788
1.5521 -4.8244 -1.9421 0.9785
1.9932 -4.7061 -1.9585 0.9783
2.4272 -4.5506 -1.9764 0.9781
3.2622 -4.1283 -2.0163 0.9777
3.6567 -3.8620 -2.0381 0.9775
4.6437 -2.2731 -1.9813 0.9781
5.0948 -1.4456 -2.0295 0.9776
5.2657 -0.9969 -2.0537 0.9773
5.4837 -0.0458 -2.1015 0.9768
5.5258 0.4486 -2.1245 0.9765
5.5206 0.9498 -2.1467 0.9763
5.3632 1.9524 -2.1872 0.9758
5.0071 2.9194 -2.2212 0.9755
4.7562 3.3756 -2.2351 0.9753
4.4590 3.8063 -2.2467 0.9752
4.0694 4.1564 -2.2291 0.9754
3.5214 4.3063 -2.1318 0.9765
3.0504 4.4964 -2.0822 0.9770
2.7579 4.9687 -2.1777 0.9760
2.2866 5.1570 -2.1618 0.9761
1.2663 3.7216 -1.5065 0.9833
1.3453 5.5305 -2.1812 0.9759
0.8602 5.7214 -2.2172 0.9755
0.1625 2.7117 -1.0410 0.9884
-0.1707 5.7834 -2.2173 0.9755
-0.6810 5.7023 -2.2007 0.9757
-1.1774 5.5718 -2.1824 0.9759
-2.9311 4.6163 -2.0955 0.9768
-3.6204 3.9296 -2.0476 0.9774
-2.6967 1.6841 -1.2184 0.9865
-4.5437 2.3016 -1.9519 0.9784
-5.0310 2.0064 -2.0756 0.9771
-5.1972 1.0576 -2.0325 0.9775
-5.2151 0.5833 -2.0110 0.9778
-5.1335 -0.3463 -1.9717 0.9782
-4.9052 -1.2322 -1.9382 0.9786
-4.7400 -1.6526 -1.9237 0.9787
-4.5429 -2.0552 -1.9108 0.9789
-4.0604 -2.7993 -1.8900 0.9791
-3.7785 -3.1374 -1.8821 0.9792
-3.4720 -3.4507 -1.8759 0.9792
-2.7926 -3.9979 -1.8688 0.9793
-1.2216 -4.7396 -1.8756 0.9793
-0.7963 -4.8453 -1.8817 0.9792
0.0786 -4.9548 -1.8990 0.9790
0.5235 -4.9570 -1.9102 0.9789
0.9703 -4.9233 -1.9230 0.9787
2.7230 -4.4207 -1.9897 0.9780
3.1382 -4.2023 -2.0099 0.9778
3.5382 -3.9471 -2.0314 0.9775
4.6124 -2.9686 -2.1020 0.9768
4.5632 -2.3902 -1.9741 0.9782
2.3178 -0.9612 -0.9616 0.9893
5.2177 -1.1361 -2.0463 0.9774
5.3608 -0.6737 -2.0705 0.9771
5.5178 0.2967 -2.1176 0.9766
5.4884 1.2993 -2.1614 0.9761
4.8379 3.2388 -2.2311 0.9754
4.5545 3.6778 -2.2434 0.9752
4.2267 4.0876 -2.2533 0.9751
3.6700 4.2461 -2.1508 0.9762
2.9036 4.9103 -2.1861 0.9759
1.3968 3.7649 -1.5389 0.9829
1.4906 5.4730 -2.1738 0.9760
0.2386 2.7303 -1.0503 0.9883
-0.0128 5.7980 -2.2219 0.9755
-0.5264 5.7324 -2.2060 0.9756
5.0258 -0.5307 -2.0684 0.9784
5.1070 -0.0809 -2.0904 0.9782
5.1460 0.3790 -2.1118 0.9779
5.1412 0.8450 -2.1324 0.9777
5.0914 1.3123 -2.1519 0.9775
4.9959 1.7764 -2.1701 0.9773
4.8544 2.2322 -2.1868 0.9772
4.6674 2.6747 -2.2017 0.9770
4.4360 3.0988 -2.2147 0.9769
4.1621 3.4994 -2.2255 0.9768
1.2954 3.7155 -1.6104 0.9831
1.3294 5.2927 -2.2335 0.9767
0.8484 5.3690 -2.2247 0.9768
0.1824 2.7037 -1.1091 0.9884
-0.5935 5.3065 -2.1854 0.9772
-1.5030 5.0343 -2.1503 0.9775
-1.9285 4.8355 -2.1307 0.9778
-3.3563 3.6982 -2.0440 0.9786
-3.6324 3.3465 -2.0214 0.9789
-4.2439 2.1897 -1.9545 0.9796
-4.3868 1.7877 -1.9388 0.9797
-4.8139 1.4765 -2.0608 0.9785
-1.9545 0.2334 -0.8056 0.9915
-1.9259 0.0568 -0.7886 0.9917
-1.9468 -0.1167 -0.7982 0.9916
-1.9618 -0.2950 -0.8119 0.9915
-4.4782 -1.5238 -1.9360 0.9798
-4.2968 -1.9052 -1.9237 0.9799
-4.0865 -2.2683 -1.9129 0.9800
-3.8491 -2.6113 -1.9037 0.9801
-2.9913 -3.5043 -1.8857 0.9803
-2.6628 -3.7520 -1.8830 0.9803
-2.3161 -3.9725 -1.8820 0.9803
-1.5754 -4.3278 -1.8850 0.9803
-1.1854 -4.4606 -1.8890 0.9802
-0.7849 -4.5621 -1.8946 0.9802
-0.3760 -4.6317 -1.9019 0.9801
0.0391 -4.6684 -1.9107 0.9800
2.1249 -4.3410 -1.9781 0.9793
2.9159 -3.9662 -2.0148 0.9789
3.6479 -3.4540 -2.0560 0.9785
3.9840 -3.1481 -2.0781 0.9783
4.2949 -2.8100 -2.1006 0.9781
4.2505 -2.2671 -1.9716 0.9794
2.3132 -0.9797 -1.0281 0.9892
4.8600 -1.0964 -2.0391 0.9787
5.0866 -0.2196 -2.0837 0.9782
5.0299 1.6353 -2.1647 0.9774
4.9025 2.0942 -2.1818 0.9772
4.2502 3.3798 -2.2224 0.9768
3.9480 3.7613 -2.2317 0.9767
2.8273 4.7007 -2.2451 0.9766
1.9433 5.1199 -2.2413 0.9766
0.9959 5.3509 -2.2276 0.9768
0.2689 2.8326 -1.1645 0.9878
0.0284 5.3867 -2.2047 0.9770
-0.4495 5.3324 -2.1902 0.9771
-1.8010 4.9004 -2.1368 0.9777
-2.2099 4.6751 -2.1164 0.9779
-2.5921 4.4144 -2.0952 0.9781
-2.9446 4.1219 -2.0732 0.9783
-3.2651 3.8012 -2.0509 0.9786
-3.5518 3.4561 -2.0283 0.9788
-3.8032 3.0905 -2.0057 0.9790
-4.7840 1.6114 -2.0661 0.9784
-1.9431 0.2860 -0.8038 0.9915
-4.6690 -1.0016 -1.9544 0.9796
-4.5276 -1.4040 -1.9401 0.9797
-4.3553 -1.7906 -1.9273 0.9799
-4.1537 -2.1595 -1.9160 0.9800
-3.0877 -3.4235 -1.8869 0.9803
-2.7652 -3.6792 -1.8837 0.9803
-1.6921 -4.2812 -1.8841 0.9803
0.7502 -4.6540 -1.9294 0.9798
2.0004 -4.3859 -1.9729 0.9794
2.4048 -4.2266 -1.9903 0.9792
4.6313 -1.6307 -2.0095 0.9790
4.8119 -1.2244 -2.0321 0.9788
5.1273 0.0971 -2.0988 0.9781
5.1494 0.5599 -2.1200 0.9779
5.1273 1.0269 -2.1401 0.9777
5.0597 1.4936 -2.1592 0.9775
4.7870 2.4063 -2.1928 0.9771
4.5826 2.8422 -2.2070 0.9770
4.3344 3.2577 -2.2191 0.9768
2.0835 5.0678 -2.2426 0.9766
1.1414 3.6809 -1.5773 0.9835
1.1430 5.3282 -2.2303 0.9767
0.3505 2.8603 -1.1794 0.9876
0.1758 5.3938 -2.2087 0.9769
-1.6713 4.9616 -2.1428 0.9776
-2.0877 4.7478 -2.1227 0.9778
-2.4784 4.4976 -2.1017 0.9780
-3.1707 3.9019 -2.0577 0.9785
-2.5292 1.8068 -1.2721 0.9867
-4.2990 2.0321 -1.9461 0.9797
-4.8424 1.3028 -2.0524 0.9786
-1.9579 -0.1859 -0.8049 0.9915
-2.1934 -0.4083 -0.9131 0.9904
-4.4111 -1.6743 -1.9310 0.9798
-3.7497 -2.7390 -1.9005 0.9801
-2.8658 -3.6038 -1.8845 0.9803
0.6217 -4.6639 -1.9257 0.9799
1.0423 -4.6198 -1.9383 0.9797
1.4610 -4.5411 -1.9524 0.9796
1.8752 -4.4276 -1.9679 0.9794
2.2823 -4.2790 -1.9848 0.9793
2.6795 -4.0954 -2.0030 0.9791
3.7813 -3.3388 -2.0645 0.9784
4.7604 -1.3507 -2.0252 0.9788
5.0342 -0.4936 -2.0702 0.9784
5.1119 -0.0427 -2.0922 0.9781
5.1473 0.4179 -2.1136 0.9779
5.1388 0.8841 -2.1341 0.9777
5.0852 1.3514 -2.1535 0.9775
4.8405 2.2699 -2.1881 0.9772
4.4147 3.1333 -2.2157 0.9769
4.1373 3.5317 -2.2263 0.9768
3.8199 3.9015 -2.2347 0.9767
3.4297 4.1942 -2.2174 0.9769
2.6623 4.7964 -2.2452 0.9766
2.2220 5.0112 -2.2435 0.9766
0.8079 5.3732 -2.2238 0.9768
-1.0947 5.1806 -2.1671 0.9774
-1.5395 5.0191 -2.1487 0.9776
-1.9631 4.8171 -2.1290 0.9778
-2.7329 4.3042 -2.0867 0.9782
-3.3808 3.6696 -2.0421 0.9787
-4.2562 2.1559 -1.9527 0.9796
-4.7109 1.8788 -2.0757 0.9783
-4.8787 0.9928 -2.0377 0.9787
-1.9194 0.0422 -0.7858 0.9917
-4.6178 -1.1600 -1.9487 0.9796
-4.4642 -1.5564 -1.9349 0.9798
-4.2802 -1.9364 -1.9227 0.9799
-4.0676 -2.2978 -1.9120 0.9800
-3.2747 -3.2547 -1.8896 0.9802
-2.6345 -3.7715 -1.8829 0.9803
-2.2863 -3.9897 -1.8820 0.9803
-1.9219 -4.1796 -1.8828 0.9803
-0.7509 -4.5692 -1.8951 0.9802
-0.3414 -4.6360 -1.9025 0.9801
0.4933 -4.6705 -1.9221 0.9799
0.9139 -4.6369 -1.9343 0.9798
1.3334 -4.5688 -1.9479 0.9796
2.1589 -4.3281 -1.9795 0.9793
2.5594 -4.1552 -1.9973 0.9791
3.3215 -3.7054 -2.0366 0.9787
4.0110 -3.1210 -2.0800 0.9783
4.3185 -2.7795 -2.1019 0.9780
4.7057 -1.4751 -2.0183 0.9789
5.0023 -0.6287 -2.0634 0.9784
5.1461 0.7414 -2.1279 0.9778
5.1064 1.2089 -2.1477 0.9776
4.8897 2.1322 -2.1832 0.9772
4.7127 2.5780 -2.1985 0.9771
4.4911 3.0066 -2.2120 0.9769
4.2264 3.4128 -2.2233 0.9768
3.9209 3.7919 -2.2324 0.9767
3.5745 4.1356 -2.2372 0.9767
2.7921 4.7219 -2.2451 0.9766
2.3587 4.9504 -2.2443 0.9766
1.4351 5.2691 -2.2351 0.9767
0.9555 5.3563 -2.2268 0.9768
0.2475 2.8326 -1.1637 0.9878
-0.4891 5.3258 -2.1889 0.9772
4.7046 -0.4968 -2.0618 0.9796
4.7773 -0.0757 -2.0823 0.9794
4.8032 0.7894 -2.1214 0.9790
4.7538 1.2253 -2.1395 0.9788
4.5276 2.0820 -2.1718 0.9785
3.5837 3.6059 -2.2156 0.9781
2.8974 4.2028 -2.2247 0.9780
2.1038 4.6506 -2.2245 0.9780
1.6776 4.8119 -2.2209 0.9780
-0.1103 5.0112 -2.1845 0.9784
-1.4034 4.7006 -2.1380 0.9788
-1.8018 4.5178 -2.1198 0.9790
-2.1779 4.2996 -2.1005 0.9792
-2.5287 4.0491 -2.0805 0.9794
-3.4052 3.1371 -2.0178 0.9800
-2.5491 1.6185 -1.3159 0.9869
-3.9867 2.0570 -1.9551 0.9806
-1.5164 0.3204 -0.6755 0.9933
-1.5405 -0.3747 -0.6909 0.9931
-1.5900 -0.5410 -0.7320 0.9927
-4.0577 -1.7992 -1.9344 0.9808
-3.3894 -2.7717 -1.9082 0.9811
-3.1192 -3.0540 -1.9025 0.9811
-2.1899 -3.7560 -1.8948 0.9812
-1.8465 -3.9377 -1.8954 0.9812
-1.4894 -4.0916 -1.8977 0.9812
-1.1205 -4.2166 -1.9014 0.9811
-0.7418 -4.3119 -1.9068 0.9811
-0.3553 -4.3767 -1.9137 0.9810
0.0369 -4.4103 -1.9221 0.9809
0.8295 -4.3816 -1.9435 0.9807
1.2253 -4.3184 -1.9563 0.9806
1.6175 -4.2222 -1.9705 0.9805
2.0035 -4.0930 -1.9860 0.9803
2.3808 -3.9307 -2.0028 0.9801
2.7464 -3.7357 -2.0207 0.9800
3.0977 -3.5083 -2.0397 0.9798
3.4318 -3.2493 -2.0597 0.9796
4.0332 -2.6387 -2.1005 0.9792
3.9908 -2.1286 -1.9712 0.9805
2.3113 -0.9789 -1.0939 0.9891
4.3974 -1.4147 -2.0132 0.9800
4.6748 -0.6231 -2.0554 0.9796
4.7733 1.0924 -2.1341 0.9789
4.4095 2.3694 -2.1816 0.9784
3.6771 3.5032 -2.2134 0.9781
1.8094 4.7672 -2.2223 0.9780
1.3735 4.8982 -2.2170 0.9780
0.9277 4.9844 -2.2096 0.9781
0.0265 5.0213 -2.1884 0.9783
-1.6823 4.5775 -2.1254 0.9789
-2.0656 4.3698 -2.1065 0.9791
-3.0581 3.5602 -2.0454 0.9797
-3.3289 3.2393 -2.0243 0.9799
-3.5671 2.8986 -2.0031 0.9801
-2.5176 1.6967 -1.3231 0.9868
-3.9416 2.1720 -1.9614 0.9806
-4.0772 1.7928 -1.9411 0.9808
-1.5382 0.3691 -0.6894 0.9931
-1.5296 0.0870 -0.6677 0.9933
-1.5215 -0.1865 -0.6680 0.9933
-3.7079 -2.3704 -1.9179 0.9810
-3.4675 -2.6810 -1.9102 0.9811
-2.2917 -3.6951 -1.8949 0.9812
-1.5998 -4.0476 -1.8968 0.9812
-1.2343 -4.1815 -1.9001 0.9812
-0.0833 -4.4034 -1.9194 0.9810
0.3115 -4.4149 -1.9289 0.9809
0.7083 -4.3943 -1.9398 0.9808
1.1047 -4.3412 -1.9522 0.9806
1.8865 -4.1359 -1.9812 0.9804
2.6362 -3.7987 -2.0151 0.9800
3.6520 -3.0513 -2.0740 0.9794
3.9500 -2.7411 -2.0954 0.9792
4.2097 -2.3952 -2.1108 0.9791
4.1454 -1.8907 -1.9857 0.9803
4.3432 -1.5292 -2.0067 0.9801
4.6416 -0.7481 -2.0490 0.9797
4.7375 -0.3342 -2.0698 0.9795
4.7951 0.0908 -2.0901 0.9793
4.6147 1.8240 -2.1626 0.9786
3.7673 3.3979 -2.2110 0.9781
1.9399 4.7185 -2.2234 0.9780
0.6149 5.0177 -2.2031 0.9782
-0.2839 4.9923 -2.1793 0.9784
-0.7234 4.9139 -2.1646 0.9786
-1.5609 4.6339 -2.1310 0.9789
-1.9510 4.4369 -2.1124 0.9791
-2.3176 4.2058 -2.0928 0.9793
-3.4979 3.0045 -2.0096 0.9801
-2.7370 1.6071 -1.3832 0.9862
-1.5570 0.4189 -0.7027 0.9930
-1.5284 0.1288 -0.6684 0.9933
-1.5636 -0.4385 -0.7077 0.9929
-4.1648 -1.5808 -1.9414 0.9808
-3.9840 -1.9350 -1.9303 0.9809
-3.0082 -3.1576 -1.9007 0.9812
-2.3920 -3.6317 -1.8952 0.9812
-1.3471 -4.1437 -1.8989 0.9812
-0.9742 -4.2572 -1.9033 0.9811
-0.5922 -4.3408 -1.9093 0.9811
0.1906 -4.4148 -1.9258 0.9809
0.5871 -4.4041 -1.9363 0.9808
0.9838 -4.3609 -1.9483 0.9807
2.1515 -4.0337 -1.9924 0.9802
2.5246 -3.8587 -2.0096 0.9801
2.8850 -3.6510 -2.0280 0.9799
3.5564 -3.1402 -2.0677 0.9795
3.8615 -2.8389 -2.0888 0.9793
4.1338 -2.5037 -2.1063 0.9791
4.0791 -1.9967 -1.9793 0.9804
4.2860 -1.6419 -2.0003 0.9802
4.4622 -1.2661 -2.0214 0.9800
4.6050 -0.8718 -2.0426 0.9798
4.7122 -0.4620 -2.0635 0.9796
4.7817 -0.0400 -2.0840 0.9794
4.8116 0.3906 -2.1039 0.9792
4.8006 0.8259 -2.1229 0.9790
4.7477 1.2617 -2.1410 0.9788
4.5144 2.1170 -2.1730 0.9785
4.3345 2.5272 -2.1867 0.9783
4.1139 2.9197 -2.1985 0.9782
3.8541 3.2900 -2.2084 0.9781
3.2270 3.9463 -2.2217 0.9780
2.8661 4.2247 -2.2249 0.9780
2.4786 4.4654 -2.2258 0.9780
1.2009 4.9371 -2.2144 0.9781
0.1621 2.7043 -1.1807 0.9882
-1.0216 4.8347 -2.1536 0.9787
-1.4375 4.6867 -2.1365 0.9788
-1.8342 4.5008 -2.1182 0.9790
-2.2083 4.2798 -2.0989 0.9792
-2.8772 3.7450 -2.0582 0.9796
-3.1673 3.4378 -2.0372 0.9798
-3.4255 3.1088 -2.0161 0.9800
-3.6507 2.7614 -1.9949 0.9802
-2.5589 1.5980 -1.3148 0.9869
-4.1206 1.6433 -1.9334 0.9808
-1.5731 0.4696 -0.7155 0.9929
-1.5099 0.3073 -0.6715 0.9933
-1.5240 0.1704 -0.6683 0.9933
-1.5099 -0.2386 -0.6662 0.9934
-1.5458 -0.3883 -0.6946 0.9931
-4.0422 -1.8287 -1.9335 0.9808
-3.8426 -2.1707 -1.9234 0.9809
-3.0956 -3.0766 -1.9021 0.9811
-2.1617 -3.7723 -1.8948 0.9812
-1.8171 -3.9517 -1.8956 0.9812
-1.0892 -4.2257 -1.9018 0.9811
-0.7097 -4.3185 -1.9073 0.9811
0.0700 -4.4117 -1.9229 0.9809
0.8628 -4.3775 -1.9445 0.9807
2.0355 -4.0806 -1.9874 0.9803
2.4119 -3.9156 -2.0042 0.9801
3.1264 -3.4878 -2.0413 0.9798
4.0552 -2.6100 -2.1017 0.9792
4.0102 -2.1005 -1.9729 0.9804
4.4118 -1.3829 -2.0150 0.9800
4.5650 -0.9940 -2.0361 0.9798
4.8067 0.2584 -2.0979 0.9792
4.8084 0.6927 -2.1172 0.9790
4.7684 1.1288 -2.1356 0.9788
4.6860 1.5624 -2.1527 0.9787
4.3939 2.4036 -2.1827 0.9784
3.9374 3.1795 -2.2056 0.9782
3.3314 3.8543 -2.2202 0.9780
2.9793 4.1436 -2.2242 0.9780
2.5995 4.3961 -2.2258 0.9780
1.7734 4.7799 -2.2219 0.9780
1.3365 4.9071 -2.2165 0.9781
0.2480 2.8380 -1.2416 0.9876
-0.0111 5.0190 -2.1874 0.9783
-0.4561 4.9669 -2.1738 0.9785
4.4168 -0.4664 -2.0558 0.9806
4.4823 -0.0710 -2.0750 0.9804
4.5013 0.7398 -2.1115 0.9801
4.4526 1.1477 -2.1284 0.9799
4.3644 1.5519 -2.1441 0.9798
4.2367 1.9482 -2.1585 0.9797
4.0700 2.3323 -2.1713 0.9795
3.8653 2.7001 -2.1825 0.9794
2.7070 3.9267 -2.2077 0.9792
2.3468 4.1545 -2.2087 0.9792
0.7388 4.6755 -2.1911 0.9794
-0.1032 4.6875 -2.1703 0.9795
-0.5180 4.6317 -2.1573 0.9797
-1.6887 4.2341 -2.1100 0.9801
-2.6771 3.5392 -2.0541 0.9806
-2.9538 3.2547 -2.0345 0.9808
-3.4174 2.6254 -1.9948 0.9812
-1.3276 0.5410 -0.6636 0.9937
-1.3273 0.4071 -0.6427 0.9939
-1.3040 0.2755 -0.6169 0.9941
-1.3329 0.1592 -0.6214 0.9941
-1.3385 -0.0802 -0.6207 0.9941
-1.3069 -0.3179 -0.6226 0.9941
-2.9543 -2.8925 -1.9138 0.9819
-2.6788 -3.1382 -1.9099 0.9820
-2.3850 -3.3605 -1.9074 0.9820
-2.0745 -3.5582 -1.9065 0.9820
-1.0613 -3.9938 -1.9128 0.9820
-0.3364 -4.1440 -1.9245 0.9818
0.0349 -4.1749 -1.9325 0.9818
0.4094 -4.1754 -1.9420 0.9817
0.7848 -4.1452 -1.9528 0.9816
1.1588 -4.0840 -1.9650 0.9815
1.5291 -3.9915 -1.9785 0.9813
1.8932 -3.8676 -1.9932 0.9812
2.2487 -3.7126 -2.0091 0.9811
2.5927 -3.5266 -2.0261 0.9809
3.5301 -2.7894 -2.0826 0.9804
3.7567 -2.0037 -1.9708 0.9814
4.2784 -0.9652 -2.0302 0.9809
4.3896 -0.5851 -2.0499 0.9807
4.4717 1.0233 -2.1234 0.9800
4.3956 1.4291 -2.1395 0.9798
4.2799 1.8283 -2.1543 0.9797
4.1250 2.2166 -2.1676 0.9796
3.9318 2.5898 -2.1793 0.9795
3.1392 3.5774 -2.2031 0.9792
2.4592 4.0887 -2.2086 0.9792
1.2835 4.5774 -2.2005 0.9793
0.2835 2.9860 -1.3884 0.9869
-1.5764 4.2893 -2.1153 0.9801
-3.7115 2.0452 -1.9616 0.9815
-1.3201 0.5805 -0.6675 0.9937
-1.3330 0.4490 -0.6511 0.9938
-1.3056 0.3133 -0.6215 0.9941
-1.3374 -0.0436 -0.6194 0.9941
-1.3323 -0.1633 -0.6213 0.9941
-1.3026 -0.2794 -0.6167 0.9941
-1.3269 -0.5455 -0.6641 0.9937
-3.7135 -1.9306 -1.9373 0.9817
-3.5103 -2.2441 -1.9285 0.9818
-3.0345 -2.8130 -1.9153 0.9819
-2.4766 -3.2951 -1.9080 0.9820
-1.5155 -3.8342 -1.9084 0.9820
-1.1691 -3.9607 -1.9116 0.9820
-0.8130 -4.0591 -1.9162 0.9819
-0.0789 -4.1686 -1.9299 0.9818
0.2948 -4.1785 -1.9390 0.9817
1.0449 -4.1060 -1.9612 0.9815
1.7828 -3.9088 -1.9886 0.9812
2.1412 -3.7632 -2.0042 0.9811
2.4890 -3.5866 -2.0208 0.9809
4.0841 -1.4380 -2.0042 0.9811
4.4979 0.0852 -2.0824 0.9804
4.4230 1.3057 -2.1347 0.9799
3.2333 3.4879 -2.2015 0.9793
2.9150 3.7702 -2.2060 0.9792
1.8125 4.4086 -2.2064 0.9792
0.9950 4.6385 -2.1959 0.9793
-0.6771 4.5992 -2.1518 0.9797
-1.4624 4.3414 -2.1205 0.9800
-2.1738 3.9448 -2.0849 0.9803
-2.4943 3.7011 -2.0659 0.9805
-2.7882 3.4312 -2.0465 0.9807
-2.4775 1.7699 -1.4094 0.9867
-2.6798 1.5735 -1.4385 0.9864
-3.8052 1.7987 -1.9482 0.9816
-1.3178 0.2309 -0.6193 0.9941
-1.3341 -0.0071 -0.6176 0.9941
-1.3369 -0.1269 -0.6216 0.9941
-1.3202 -0.3702 -0.6347 0.9940
-3.7705 -1.8313 -1.9403 0.9817
-3.5750 -2.1503 -1.9311 0.9818
-3.1128 -2.7315 -1.9170 0.9819
-2.8494 -2.9908 -1.9121 0.9820
-2.5666 -3.2275 -1.9088 0.9820
-2.2660 -3.4404 -1.9069 0.9820
-1.9496 -3.6283 -1.9066 0.9820
-1.2761 -3.9250 -1.9104 0.9820
-0.9227 -4.0321 -1.9146 0.9819
0.1804 -4.1787 -1.9361 0.9817
0.5555 -4.1673 -1.9461 0.9816
0.9306 -4.1251 -1.9574 0.9815
1.3035 -4.0517 -1.9701 0.9814
1.6717 -3.9470 -1.9841 0.9813
3.3530 -2.9606 -2.0705 0.9805
3.6385 -2.6750 -2.0904 0.9803
3.8913 -2.3569 -2.1059 0.9801
3.8389 -1.8791 -1.9784 0.9813
4.0311 -1.5443 -1.9982 0.9812
4.1942 -1.1900 -2.0180 0.9810
4.4861 -0.0375 -2.0766 0.9804
4.4987 0.7740 -2.1130 0.9801
3.8465 2.7300 -2.1834 0.9794
3.3246 3.3956 -2.1997 0.9793
2.3156 4.1719 -2.2086 0.9792
0.7036 4.6794 -2.1904 0.9794
0.1607 2.6811 -1.2432 0.9882
-0.5524 4.6252 -2.1562 0.9797
-1.7191 4.2184 -2.1085 0.9801
-2.0709 4.0135 -2.0905 0.9803
-2.7014 3.5162 -2.0525 0.9806
-3.2203 2.9226 -2.0130 0.9810
-2.5494 1.5921 -1.3913 0.9868
-1.3291 0.5301 -0.6624 0.9937
-1.3253 0.3957 -0.6402 0.9939
-1.3072 0.2660 -0.6175 0.9941
-1.3385 -0.0903 -0.6210 0.9941
-1.3336 -0.4650 -0.6538 0.9938
-3.6373 -2.0547 -1.9337 0.9818
-3.1891 -2.6480 -1.9187 0.9819
-2.9319 -2.9140 -1.9134 0.9819
-2.0478 -3.5736 -1.9065 0.9820
-1.7214 -3.7435 -1.9072 0.9820
-1.0316 -4.0024 -1.9132 0.9819
-0.3055 -4.1478 -1.9251 0.9818
0.8162 -4.1413 -1.9538 0.9816
1.5599 -3.9823 -1.9797 0.9813
2.2779 -3.6982 -2.0105 0.9810
2.6210 -3.5096 -2.0276 0.9809
2.9498 -3.2907 -2.0456 0.9807
3.7747 -1.9772 -1.9725 0.9814
2.3140 -0.9597 -1.1596 0.9890
4.1476 -1.3001 -2.0120 0.9810
4.3974 -0.5527 -2.0515 0.9807
4.5078 0.2424 -2.0896 0.9803
4.5068 0.6493 -2.1076 0.9801
4.4668 1.0575 -2.1248 0.9800
4.3874 1.4628 -2.1408 0.9798
4.2684 1.8612 -2.1554 0.9797
3.6808 2.9723 -2.1899 0.9794
2.7836 3.8714 -2.2071 0.9792
2.0517 4.3061 -2.2079 0.9792
1.4113 3.8039 -1.8780 0.9823
1.2490 4.5858 -2.2000 0.9793
-0.4268 4.6475 -2.1603 0.9796
4.2410 0.3124 -2.0860 0.9812
4.2299 0.6952 -2.1027 0.9811
4.1821 1.0780 -2.1185 0.9809
4.0974 1.4570 -2.1332 0.9808
3.9759 1.8283 -2.1466 0.9807
3.8180 2.1880 -2.1586 0.9806
1.3065 3.7473 -1.9466 0.9825
0.1915 2.8383 -1.3954 0.9874
-0.0968 4.3974 -2.1576 0.9806
-1.2347 4.1357 -2.1171 0.9810
-1.9202 3.7909 -2.0845 0.9812
-2.2320 3.5741 -2.0669 0.9814
-2.7818 3.0652 -2.0304 0.9817
-3.0163 2.7789 -2.0118 0.9819
-2.5325 1.6080 -1.4715 0.9867
-1.1244 0.5802 -0.6207 0.9944
-1.1589 0.3554 -0.5946 0.9946
-1.1712 0.2475 -0.5872 0.9947
-1.1905 0.1422 -0.5881 0.9947
-1.1964 0.0353 -0.5871 0.9947
-1.1855 -0.1782 -0.5880 0.9947
-1.1615 -0.2825 -0.5864 0.9947
-1.1574 -0.3938 -0.5997 0.9946
-1.1072 -0.6146 -0.6212 0.9944
-3.2661 -2.2158 -1.9360 0.9826
-1.9687 -3.3766 -1.9173 0.9827
-1.3388 -3.6778 -1.9198 0.9827
-1.0070 -3.7894 -1.9233 0.9827
1.7925 -3.6618 -1.9998 0.9820
3.5444 -1.8905 -1.9705 0.9823
2.3087 -0.9778 -1.2298 0.9889
3.8963 -1.2534 -2.0077 0.9819
4.0297 -0.9091 -2.0264 0.9818
4.2371 0.5781 -2.0977 0.9811
4.2006 0.9613 -2.1138 0.9810
4.1272 1.3418 -2.1288 0.9809
4.0169 1.7159 -2.1426 0.9807
3.6875 2.4289 -2.1660 0.9805
3.4708 2.7600 -2.1752 0.9804
3.2215 3.0692 -2.1826 0.9804
2.9422 3.3530 -2.1881 0.9803
2.6355 3.6080 -2.1917 0.9803
1.9530 4.0211 -2.1928 0.9803
1.5845 4.1745 -2.1902 0.9803
0.0233 4.4054 -2.1610 0.9806
-0.7516 4.2896 -2.1362 0.9808
-1.4812 4.0302 -2.1062 0.9811
-1.8206 3.8515 -2.0897 0.9812
-2.7046 3.1487 -2.0361 0.9817
-2.9477 2.8683 -2.0175 0.9818
-3.1623 2.5697 -1.9988 0.9820
-2.5011 1.6856 -1.4795 0.9867
-1.1437 0.5029 -0.6128 0.9944
-1.1576 0.3899 -0.5992 0.9946
-1.1860 0.1746 -0.5880 0.9947
-1.1961 0.0680 -0.5876 0.9947
-1.1964 -0.0390 -0.5872 0.9947
-1.1901 -0.1459 -0.5881 0.9947
-1.1703 -0.2511 -0.5871 0.9947
-1.1489 -0.4724 -0.6094 0.9945
-3.1147 -2.4083 -1.9313 0.9826
-2.8790 -2.6689 -1.9257 0.9827
-2.6235 -2.9088 -1.9215 0.9827
-1.7556 -3.4927 -1.9175 0.9827
-1.4381 -3.6384 -1.9191 0.9827
-0.7713 -3.8510 -1.9265 0.9827
-0.4258 -3.9163 -1.9324 0.9826
-0.0748 -3.9534 -1.9396 0.9825
0.2795 -3.9618 -1.9482 0.9825
0.6353 -3.9411 -1.9581 0.9824
2.3548 -3.3933 -2.0260 0.9818
2.9701 -2.9701 -2.0604 0.9815
3.2521 -2.7172 -2.0788 0.9813
3.5110 -2.4365 -2.0963 0.9811
3.8496 -1.3555 -2.0020 0.9820
3.9922 -1.0159 -2.0207 0.9818
4.1043 -0.6615 -2.0392 0.9816
4.1842 -0.2952 -2.0575 0.9815
4.2410 0.4611 -2.0926 0.9812
4.2157 0.8444 -2.1089 0.9810
4.1535 1.2261 -2.1243 0.9809
4.0545 1.6026 -2.1385 0.9808
3.9187 1.9698 -2.1514 0.9806
3.7470 2.3240 -2.1628 0.9805
3.5405 2.6610 -2.1725 0.9805
2.7319 3.5334 -2.1908 0.9803
2.4080 3.7668 -2.1930 0.9803
0.9328 4.3483 -2.1815 0.9804
-0.6355 4.3169 -2.1404 0.9807
-1.0116 4.2151 -2.1263 0.9809
-2.0443 3.7098 -2.0777 0.9813
-2.6250 3.2303 -2.0417 0.9816
-2.8764 2.9560 -2.0232 0.9818
-1.1944 0.1007 -0.5880 0.9947
-1.1957 -0.0063 -0.5865 0.9947
-1.1777 -0.2192 -0.5876 0.9947
-1.1588 -0.3250 -0.5904 0.9947
-1.1535 -0.4379 -0.6052 0.9945
-1.1331 -0.5503 -0.6179 0.9944
-2.7036 -2.8378 -1.9226 0.9827
-2.1504 -3.2648 -1.9176 0.9827
-1.5363 -3.5966 -1.9184 0.9827
-1.2108 -3.7244 -1.9210 0.9827
-0.8754 -3.8255 -1.9250 0.9827
-0.5320 -3.8993 -1.9304 0.9826
-0.1825 -3.9451 -1.9372 0.9826
0.8820 -3.9093 -1.9658 0.9823
1.2349 -3.8384 -1.9779 0.9822
1.9242 -3.6076 -2.0056 0.9819
2.2558 -3.4478 -2.0211 0.9818
3.6212 -1.7725 -1.9777 0.9822
3.9518 -1.1213 -2.0150 0.9819
4.0734 -0.7711 -2.0336 0.9817
4.1633 -0.4082 -2.0520 0.9815
4.2415 0.3444 -2.0874 0.9812
4.0886 1.4884 -2.1343 0.9808
3.8032 2.2174 -2.1595 0.9806
2.8259 3.4558 -2.1897 0.9803
2.5094 3.6989 -2.1925 0.9803
2.1700 3.9095 -2.1933 0.9803
1.2672 3.7241 -1.9296 0.9826
1.0521 4.3252 -2.1835 0.9804
0.6597 4.3873 -2.1763 0.9804
0.1702 2.8398 -1.3955 0.9874
-0.5184 4.3408 -2.1444 0.9807
-0.8980 4.2500 -2.1307 0.9808
-1.9472 3.7738 -2.0830 0.9813
-2.2570 3.5547 -2.0654 0.9814
-2.5428 3.3098 -2.0473 0.9816
-2.8025 3.0419 -2.0289 0.9817
-1.1733 0.2388 -0.5874 0.9947
-1.1915 0.1333 -0.5881 0.9947
-1.1963 0.0263 -0.5870 0.9947
-1.1956 -0.0807 -0.5878 0.9947
-1.1840 -0.1871 -0.5880 0.9947
-1.1589 -0.2911 -0.5861 0.9947
-1.1567 -0.4033 -0.6009 0.9946
-3.2484 -2.2395 -1.9354 0.9826
-2.7818 -2.7648 -1.9239 0.9827
-2.2392 -3.2055 -1.9180 0.9827
-1.9433 -3.3913 -1.9173 0.9827
-1.3114 -3.6881 -1.9201 0.9827
-0.2897 -3.9341 -1.9350 0.9826
0.7736 -3.9250 -1.9623 0.9823
1.1275 -3.8632 -1.9741 0.9822
1.8210 -3.6505 -2.0011 0.9820
2.7889 -3.1112 -2.0495 0.9816
3.0821 -2.8748 -2.0674 0.9814
3.3564 -2.6116 -2.0861 0.9812
3.6024 -2.3186 -2.1014 0.9811
4.0395 -0.8796 -2.0279 0.9817
4.2062 -0.1500 -2.0645 0.9814
4.2386 0.2279 -2.0821 0.9813
4.2355 0.6102 -2.0990 0.9811
3.8561 2.1094 -2.1560 0.9806
3.6707 2.4574 -2.1668 0.9805
3.4511 2.7868 -2.1759 0.9804
2.6086 3.6280 -2.1919 0.9803
1.5530 4.1857 -2.1899 0.9803
0.7800 4.3725 -2.1787 0.9804
-0.4005 4.3612 -2.1483 0.9807
3.9213 -0.4141 -2.0456 0.9824
3.9753 -0.0630 -2.0626 0.9822
3.9966 0.2944 -2.0790 0.9821
3.9842 0.6548 -2.0947 0.9820
3.9375 1.0149 -2.1095 0.9818
3.8562 1.3712 -2.1232 0.9817
3.7405 1.7200 -2.1358 0.9816
3.4082 2.3807 -2.1567 0.9814
3.1940 2.6855 -2.1649 0.9814
2.9503 2.9686 -2.1713 0.9813
2.0663 3.6579 -2.1795 0.9812
1.0194 4.0583 -2.1708 0.9813
0.1921 2.8479 -1.4808 0.9872
-0.0911 4.1358 -2.1461 0.9815
-0.4574 4.0895 -2.1348 0.9816
-0.8157 4.0084 -2.1221 0.9817
-1.1625 3.8940 -2.1082 0.9819
-2.6255 2.8929 -2.0267 0.9825
-2.8483 2.6241 -2.0091 0.9827
-1.0831 0.2289 -0.5743 0.9950
-1.1010 0.1315 -0.5752 0.9950
-1.1066 0.0326 -0.5743 0.9950
-1.1060 -0.0663 -0.5748 0.9950
-1.0741 -0.2613 -0.5735 0.9950
-1.0081 -0.5595 -0.5981 0.9948
-3.1026 -2.1049 -1.9450 0.9832
-2.8930 -2.3658 -1.9388 0.9833
-2.4157 -2.8299 -1.9302 0.9834
-2.1510 -3.0307 -1.9280 0.9834
-1.8711 -3.2092 -1.9272 0.9834
-1.2723 -3.4952 -1.9296 0.9834
-0.6332 -3.6808 -1.9376 0.9833
-0.3031 -3.7341 -1.9436 0.9833
0.3686 -3.7590 -1.9595 0.9831
0.7061 -3.7298 -1.9693 0.9830
1.0420 -3.6724 -1.9804 0.9829
1.3741 -3.5867 -1.9926 0.9828
1.7000 -3.4728 -2.0059 0.9827
2.0175 -3.3309 -2.0202 0.9826
2.6177 -2.9646 -2.0517 0.9823
2.8955 -2.7416 -2.0686 0.9822
3.3878 -2.2165 -2.1003 0.9819
3.3508 -1.7873 -1.9702 0.9830
2.2725 -0.9624 -1.2803 0.9889
3.8985 -0.5196 -2.0403 0.9824
3.9622 -0.1710 -2.0574 0.9823
3.9936 0.1848 -2.0740 0.9821
3.8848 1.2630 -2.1192 0.9818
3.7795 1.6145 -2.1321 0.9817
3.6400 1.9560 -2.1437 0.9816
3.4673 2.2839 -2.1539 0.9815
2.7648 3.1508 -2.1747 0.9813
2.4763 3.3902 -2.1780 0.9813
2.1653 3.6001 -2.1794 0.9812
1.8350 3.7782 -2.1790 0.9813
0.7641 4.1055 -2.1664 0.9814
-1.3950 3.7958 -2.0980 0.9819
-1.7155 3.6291 -2.0825 0.9821
-2.4927 1.6799 -1.5594 0.9865
-1.0614 0.3575 -0.5810 0.9950
-1.0750 0.2580 -0.5735 0.9950
-1.1066 -0.0361 -0.5744 0.9950
-1.0631 -0.3296 -0.5774 0.9950
-0.9711 -0.6208 -0.5979 0.9948
-2.9592 -2.2880 -1.9405 0.9833
-2.7356 -2.5360 -1.9352 0.9833
-2.4932 -2.7643 -1.9312 0.9834
-2.2335 -2.9717 -1.9286 0.9834
-1.6686 -3.3195 -1.9274 0.9834
-1.3667 -3.4579 -1.9289 0.9834
-0.7329 -3.6592 -1.9360 0.9833
-0.4045 -3.7207 -1.9416 0.9833
0.6031 -3.7417 -1.9662 0.9831
1.6012 -3.5106 -2.0017 0.9828
1.9215 -3.3772 -2.0157 0.9826
2.2318 -3.2160 -2.0308 0.9825
2.8125 -2.8124 -2.0634 0.9822
3.0780 -2.5717 -2.0808 0.9821
2.2361 -1.0199 -1.2750 0.9890
3.7689 -0.9590 -2.0175 0.9826
3.8728 -0.6242 -2.0350 0.9825
3.9461 -0.2784 -2.0522 0.9823
3.9875 0.0755 -2.0690 0.9822
3.9958 0.4345 -2.0852 0.9821
3.8153 1.5080 -2.1283 0.9817
3.5236 2.1854 -2.1510 0.9815
2.8479 3.0722 -2.1733 0.9813
1.5960 3.8822 -2.1775 0.9813
0.8767 4.0869 -2.1684 0.9813
0.5068 4.1350 -2.1612 0.9814
0.0950 2.9150 -1.5131 0.9869
-0.2344 4.1220 -2.1419 0.9816
-1.9269 3.4968 -2.0712 0.9822
-2.2133 3.2841 -2.0545 0.9823
-2.4767 3.0478 -2.0374 0.9825
-2.7153 2.7905 -2.0199 0.9826
-2.9278 2.5148 -2.0023 0.9828
-0.9944 0.5839 -0.5982 0.9948
-1.0659 0.2868 -0.5726 0.9950
-1.1037 -0.1048 -0.5752 0.9950
-1.0638 -0.2983 -0.5732 0.9950
-1.0353 -0.5028 -0.5971 0.9948
-3.0235 -2.2086 -1.9424 0.9833
-2.5692 -2.6967 -1.9323 0.9834
-1.4601 -3.4182 -1.9283 0.9834
-1.1507 -3.5394 -1.9308 0.9834
-0.8318 -3.6351 -1.9346 0.9833
0.1625 -3.7632 -1.9541 0.9832
0.5000 -3.7510 -1.9631 0.9831
0.8372 -3.7108 -1.9735 0.9830
1.5017 -3.5457 -1.9976 0.9828
2.1382 -3.2681 -2.0261 0.9826
2.4401 -3.0879 -2.0417 0.9824
2.9989 -2.6479 -2.0754 0.9821
3.2501 -2.3894 -2.0927 0.9820
3.4708 -2.1022 -2.1051 0.9819
3.4227 -1.6754 -1.9769 0.9830
2.2989 -0.8807 -1.2771 0.9890
3.7313 -1.0587 -2.0122 0.9827
3.8442 -0.7278 -2.0297 0.9825
3.9270 -0.3850 -2.0470 0.9824
3.9783 -0.0333 -2.0640 0.9822
3.9969 0.3245 -2.0803 0.9821
3.8479 1.4007 -2.1243 0.9817
3.5767 2.0854 -2.1479 0.9815
3.1748 2.7101 -2.1655 0.9814
2.9286 2.9912 -2.1717 0.9813
2.0389 3.6733 -2.1795 0.9812
1.7020 3.8385 -2.1783 0.9813
0.9888 4.0649 -2.1703 0.9813
-0.4878 4.0840 -2.1338 0.9816
-0.8452 4.0001 -2.1210 0.9817
-1.5219 3.7344 -2.0920 0.9820
-1.8351 3.5566 -2.0762 0.9821
-2.8657 2.6008 -2.0077 0.9827
-0.9778 0.6106 -0.5981 0.9948
-1.0275 0.5205 -0.5975 0.9948
-1.0540 0.4203 -0.5887 0.9949
-1.1019 0.1232 -0.5752 0.9950
-1.0716 -0.2692 -0.5732 0.9950
-1.0039 -0.5671 -0.5982 0.9948
-2.6434 -2.6272 -1.9335 0.9833
-1.5525 -3.3763 -1.9278 0.9834
-0.6058 -3.6863 -1.9380 0.9833
-0.2752 -3.7374 -1.9441 0.9833
1.0700 -3.6663 -1.9813 0.9829
2.0436 -3.3177 -2.0215 0.9826
2.9180 -2.7217 -2.0701 0.9822
2.2800 -0.9456 -1.2805 0.9889
3.6912 -1.1570 -2.0068 0.9827
3.8128 -0.8302 -2.0244 0.9826
3.9661 -0.1415 -2.0588 0.9823
3.9947 0.2148 -2.0754 0.9821
3.9899 0.5748 -2.0913 0.9820
