ply
format ascii 1.0
element vertex 1597
property float32 x
property float32 y
property float32 z
property float32 I
end_header
-4.3248 -6.8181 -1.7067 0.9675
-3.6991 -7.1768 -1.7067 0.9675
-3.0486 -7.4898 -1.7093 0.9675
-1.6815 -7.9737 -1.7225 0.9672
-0.9691 -8.1417 -1.7331 0.9670
-0.2405 -8.2585 -1.7464 0.9668
0.5020 -8.3223 -1.7624 0.9665
1.2559 -8.3316 -1.7810 0.9661
2.0183 -8.2845 -1.8024 0.9657
2.7863 -8.1791 -1.8265 0.9653
3.5565 -8.0136 -1.8532 0.9648
4.3252 -7.7862 -1.8827 0.9642
5.0882 -7.4950 -1.9149 0.9636
6.5783 -6.7148 -1.9870 0.9623
7.9836 -5.6628 -2.0690 0.9608
8.5855 -4.0233 -2.0042 0.9620
9.1084 -3.3131 -2.0488 0.9611
9.5775 -2.5427 -2.0946 0.9603
9.9845 -1.7154 -2.1414 0.9594
9.9169 1.8794 -2.1335 0.9596
8.6461 2.4550 -1.8999 0.9639
7.6180 2.9199 -1.7245 0.9672
6.0083 3.6403 -1.4850 0.9717
3.1152 4.7625 -1.2029 0.9770
2.0190 -7.5428 -1.8351 0.9684
2.7175 -7.4241 -1.8581 0.9680
3.4152 -7.2495 -1.8834 0.9676
4.1082 -7.0178 -1.9112 0.9671
4.7924 -6.7275 -1.9413 0.9666
7.8244 -3.4535 -2.0101 0.9655
8.2631 -2.7962 -2.0502 0.9648
8.6492 -2.0886 -2.0912 0.9641
9.2365 -0.5384 -2.1745 0.9627
9.4240 0.2936 -2.2159 0.9620
9.5323 1.1542 -2.2567 0.9613
8.3523 2.5765 -2.0543 0.9647
7.3749 3.0193 -1.8729 0.9678
6.5437 3.3896 -1.7320 0.9702
4.6096 4.2601 -1.4752 0.9745
3.0456 4.8936 -1.3547 0.9766
2.1063 5.3046 -1.3414 0.9768
0.5968 2.9556 -0.7086 0.9877
0.3248 2.9439 -0.6961 0.9879
-3.9570 8.7138 -2.2492 0.9614
-7.1769 6.0173 -2.2011 0.9622
-7.5351 5.2482 -2.1581 0.9630
-7.8194 4.4668 -2.1165 0.9637
-8.0317 3.6801 -2.0764 0.9643
-8.1745 2.8943 -2.0381 0.9650
-8.2504 2.1149 -2.0017 0.9656
-8.2625 1.3467 -1.9675 0.9662
-8.2140 0.5942 -1.9355 0.9667
-8.1080 -0.1390 -1.9058 0.9672
-6.8251 -3.4151 -1.7937 0.9691
-5.5576 -4.9940 -1.7560 0.9698
-4.5482 -5.8598 -1.7433 0.9700
-2.2160 -7.0983 -1.7477 0.9699
-0.9278 -7.4510 -1.7647 0.9696
-0.2610 -7.5560 -1.7769 0.9694
0.4178 -7.6117 -1.7916 0.9692
1.8006 -7.5688 -1.8285 0.9685
4.5794 -6.8248 -1.9316 0.9668
5.2550 -6.4937 -1.9633 0.9663
6.5512 -5.6506 -2.0333 0.9651
7.6774 -3.6486 -1.9978 0.9657
8.5344 -2.3154 -2.0783 0.9643
9.1625 -0.7918 -2.1614 0.9629
9.3736 0.0296 -2.2030 0.9622
9.5577 1.7578 -2.2840 0.9609
5.3821 3.9132 -1.5639 0.9730
4.7860 4.1810 -1.4936 0.9742
4.2291 4.4194 -1.4376 0.9752
3.1971 4.8303 -1.3614 0.9765
2.7189 5.0328 -1.3444 0.9768
1.3129 5.6777 -1.3696 0.9763
0.3915 2.8217 -0.6695 0.9884
0.2996 6.1697 -1.4517 0.9749
-0.2622 6.4152 -1.5090 0.9740
-2.9767 9.3274 -2.3011 0.9606
-4.4282 8.3494 -2.2212 0.9619
-5.0596 7.7733 -2.1798 0.9626
-6.1177 6.4920 -2.0965 0.9640
-2.5543 1.8873 -0.7464 0.9870
-7.9728 3.9267 -2.0887 0.9641
-8.1472 0.0883 -1.9149 0.9671
-8.0035 -0.6298 -1.8868 0.9676
-7.5629 -1.9896 -1.8379 0.9684
-7.2721 -2.6266 -1.8172 0.9687
-6.5638 -3.8048 -1.7831 0.9693
-6.1518 -4.3427 -1.7698 0.9695
-5.7046 -4.8445 -1.7589 0.9697
-5.2245 -5.3089 -1.7506 0.9699
-4.7140 -5.7346 -1.7447 0.9700
-3.0218 -6.7676 -1.7419 0.9700
-1.7813 -7.2403 -1.7524 0.9698
-1.1338 -7.4081 -1.7614 0.9697
-0.4712 -7.5284 -1.7728 0.9695
0.8896 -7.6205 -1.8032 0.9690
2.2799 -7.5049 -1.8434 0.9683
2.9786 -7.3655 -1.8672 0.9679
3.6750 -7.1697 -1.8935 0.9674
5.0450 -6.6038 -1.9531 0.9664
5.7098 -6.2315 -1.9864 0.9659
2.3240 -0.9343 -0.5887 0.9898
8.7787 -1.8119 -2.1067 0.9638
9.4741 0.6123 -2.2313 0.9617
9.5512 1.4816 -2.2716 0.9611
9.0700 2.2509 -2.1963 0.9623
7.9657 2.7518 -1.9807 0.9660
7.0453 3.1629 -1.8150 0.9688
6.2650 3.5154 -1.6884 0.9709
4.9669 4.0998 -1.5136 0.9739
4.4045 4.3521 -1.4552 0.9749
3.3507 4.7670 -1.3694 0.9763
2.3974 5.1736 -1.3401 0.9768
0.4673 6.0962 -1.4370 0.9752
-0.6766 6.5960 -1.5583 0.9731
-4.8690 7.9590 -2.1928 0.9624
-5.9704 6.7019 -2.1095 0.9638
-6.4166 6.0221 -2.0682 0.9645
-2.4717 1.9356 -0.7378 0.9872
-7.9070 4.1731 -2.1013 0.9639
-8.2105 2.6020 -2.0242 0.9652
-8.2514 1.0635 -1.9553 0.9664
-8.1809 0.3177 -1.9242 0.9669
-8.0542 -0.4075 -1.8954 0.9674
-7.8744 -1.1089 -1.8689 0.9679
-7.6447 -1.7840 -1.8449 0.9683
-7.3679 -2.4304 -1.8234 0.9686
-7.0472 -3.0461 -1.8043 0.9689
-6.2847 -4.1781 -1.7737 0.9695
-5.8482 -4.6913 -1.7620 0.9697
-4.3469 -6.0040 -1.7421 0.9700
-2.6047 -6.9501 -1.7444 0.9700
-0.6802 -7.4959 -1.7690 0.9695
-0.0086 -7.5827 -1.7821 0.9693
1.3649 -7.6048 -1.8159 0.9688
2.0613 -7.5372 -1.8365 0.9684
3.4574 -7.2371 -1.8850 0.9676
4.1500 -7.0018 -1.9129 0.9671
5.5035 -6.3546 -1.9757 0.9660
6.1550 -5.9407 -2.0105 0.9655
6.7826 -5.4661 -2.0473 0.9648
7.3805 -4.9306 -2.0861 0.9642
7.9294 -4.3278 -2.1231 0.9636
8.2880 -2.7547 -2.0527 0.9647
8.9937 -1.2873 -2.1353 0.9634
9.2500 -0.4889 -2.1770 0.9627
9.4329 0.3450 -2.2184 0.9620
9.5362 1.2071 -2.2591 0.9613
8.2876 2.6058 -2.0418 0.9649
5.1528 4.0163 -1.5354 0.9735
4.5760 4.2752 -1.4718 0.9746
3.5978 4.8257 -1.4147 0.9756
2.5435 5.1091 -1.3413 0.9768
2.0781 5.3174 -1.3418 0.9768
1.6108 5.5348 -1.3548 0.9766
0.0947 6.2593 -1.4713 0.9746
-0.9699 5.8756 -1.3996 0.9758
-1.8353 7.0998 -1.7235 0.9703
-3.2658 9.1647 -2.2866 0.9608
-3.9998 8.6828 -2.2468 0.9615
-4.6719 8.1400 -2.2058 0.9622
-5.2783 7.5457 -2.1642 0.9629
-5.8163 6.9087 -2.1225 0.9636
-6.2845 6.2379 -2.0811 0.9643
-7.2007 5.9711 -2.1985 0.9623
-7.5544 5.2011 -2.1556 0.9630
-8.0423 3.6324 -2.0740 0.9644
-8.2529 2.0680 -1.9996 0.9656
-8.0998 -0.1828 -1.9041 0.9673
-7.7218 -1.5756 -1.8522 0.9681
-7.4595 -2.2312 -1.8299 0.9685
-7.1522 -2.8567 -1.8101 0.9688
-6.8028 -3.4502 -1.7927 0.9691
-6.4141 -4.0099 -1.7778 0.9694
-5.9886 -4.5345 -1.7654 0.9696
-5.5288 -5.0225 -1.7555 0.9698
-2.7961 -6.8694 -1.7431 0.9700
-2.1780 -7.1117 -1.7480 0.9699
-0.8878 -7.4587 -1.7653 0.9696
-0.2202 -7.5608 -1.7777 0.9694
1.1479 -7.6150 -1.8099 0.9689
1.8428 -7.5642 -1.8297 0.9685
3.2393 -7.2990 -1.8768 0.9677
4.6207 -6.8064 -1.9335 0.9668
6.5890 -5.6213 -2.0355 0.9650
7.1969 -5.1048 -2.0737 0.9644
7.7707 -4.5278 -2.1137 0.9637
9.3839 0.0805 -2.2055 0.9622
9.5580 1.8114 -2.2863 0.9608
6.7404 3.3008 -1.7639 0.9696
5.3443 3.9302 -1.5591 0.9731
4.2310 4.4696 -1.4464 0.9750
3.1676 4.8426 -1.3600 0.9765
1.8554 -6.9319 -1.8580 0.9708
4.3837 -6.1538 -1.9563 0.9693
4.9904 -5.8255 -1.9861 0.9688
5.5782 -5.4426 -2.0179 0.9683
7.1640 -3.9606 -2.1195 0.9667
7.0872 -3.1281 -2.0058 0.9685
8.0838 -1.2017 -2.1160 0.9668
8.3023 -0.4839 -2.1533 0.9662
8.4545 0.2634 -2.1901 0.9657
8.5407 1.8191 -2.2609 0.9646
7.3628 3.0143 -2.0599 0.9677
6.5337 3.3844 -1.9052 0.9701
4.1397 4.5756 -1.5976 0.9748
3.6239 4.8062 -1.5585 0.9754
2.5986 5.1495 -1.4934 0.9764
2.1275 5.3581 -1.4927 0.9765
0.5998 2.9702 -0.7846 0.9876
0.3239 2.9351 -0.7646 0.9879
-0.4472 6.4875 -1.6837 0.9735
-0.9447 5.9223 -1.5528 0.9755
-1.7866 7.0692 -1.8879 0.9703
-3.5444 7.8053 -2.2195 0.9652
-4.7148 6.8185 -2.1464 0.9663
-6.0235 5.0502 -2.0352 0.9680
-6.8275 4.7553 -2.1543 0.9662
-7.0979 4.0547 -2.1165 0.9668
-7.3034 3.3464 -2.0800 0.9674
-7.4457 2.6363 -2.0451 0.9679
-7.5269 1.9294 -2.0118 0.9684
-7.5492 1.2305 -1.9804 0.9689
-7.5154 0.5436 -1.9510 0.9693
-7.2900 -0.7794 -1.8983 0.9702
-6.2838 -3.1443 -1.8193 0.9714
-5.5451 -4.1516 -1.7935 0.9718
-4.6752 -5.0245 -1.7770 0.9720
-2.0444 -6.5486 -1.7763 0.9721
-1.4574 -6.7306 -1.7831 0.9719
-0.8553 -6.8688 -1.7922 0.9718
-0.2405 -6.9619 -1.8036 0.9716
1.0175 -7.0077 -1.8334 0.9712
1.6552 -6.9578 -1.8518 0.9709
2.2948 -6.8577 -1.8724 0.9706
2.9329 -6.7063 -1.8952 0.9702
3.5662 -6.5025 -1.9202 0.9698
4.1906 -6.2454 -1.9473 0.9694
4.8022 -5.9342 -1.9765 0.9689
5.3964 -5.5684 -2.0077 0.9685
6.5130 -4.6730 -2.0755 0.9674
6.9580 -3.3067 -1.9947 0.9687
7.3555 -2.7207 -2.0306 0.9681
7.7056 -2.0905 -2.0672 0.9675
8.0026 -1.4196 -2.1044 0.9670
8.2407 -0.7121 -2.1416 0.9664
6.7781 3.2738 -1.9490 0.9694
6.0330 3.6108 -1.8205 0.9714
4.2312 4.4216 -1.5846 0.9750
3.7827 4.7352 -1.5692 0.9753
3.2243 4.8714 -1.5125 0.9762
2.7465 5.0839 -1.4961 0.9764
1.3212 5.7137 -1.5184 0.9761
0.2992 6.1618 -1.5973 0.9748
-0.2618 6.4067 -1.6602 0.9739
-0.8738 6.6731 -1.7425 0.9726
-1.3198 5.9143 -1.5690 0.9753
-2.6600 8.3349 -2.2653 0.9645
-3.3413 7.9410 -2.2307 0.9650
-4.5467 6.9853 -2.1580 0.9661
-7.2460 3.5687 -2.0913 0.9672
-7.4078 2.8585 -2.0559 0.9677
-7.5079 2.1501 -2.0221 0.9682
-7.5484 1.4482 -1.9901 0.9687
-7.5319 0.7572 -1.9600 0.9692
-7.4610 0.0808 -1.9319 0.9696
-7.3385 -0.5775 -1.9059 0.9700
-7.1671 -1.2147 -1.8822 0.9704
-6.6884 -2.4158 -1.8412 0.9710
-6.3864 -2.9752 -1.8242 0.9713
-5.6699 -4.0025 -1.7970 0.9717
-5.2602 -4.4671 -1.7868 0.9719
-4.8193 -4.8972 -1.7790 0.9720
-4.3496 -5.2913 -1.7735 0.9721
-3.8531 -5.6481 -1.7703 0.9721
-2.7885 -6.2451 -1.7708 0.9721
0.1880 -6.9991 -1.8128 0.9715
1.4552 -6.9787 -1.8458 0.9710
2.0945 -6.8945 -1.8657 0.9707
2.7335 -6.7593 -1.8878 0.9703
3.9963 -6.3317 -1.9386 0.9695
4.6124 -6.0375 -1.9672 0.9691
5.2125 -5.6888 -1.9978 0.9686
2.3240 -0.9343 -0.6485 0.9897
7.6014 -2.2924 -2.0557 0.9677
7.9157 -1.6338 -2.0927 0.9672
8.1728 -0.9373 -2.1300 0.9666
8.3672 -0.2077 -2.1671 0.9660
8.5465 1.3258 -2.2393 0.9649
8.5224 2.1150 -2.2735 0.9644
7.0340 3.1579 -1.9964 0.9686
4.9603 4.0944 -1.6653 0.9738
4.3988 4.3465 -1.6011 0.9748
3.3764 4.8036 -1.5202 0.9760
2.4224 5.2276 -1.4918 0.9765
1.3789 3.8420 -1.0569 0.9833
0.4723 2.8216 -0.7407 0.9882
-0.0814 6.3280 -1.6386 0.9742
-0.6757 6.5869 -1.7144 0.9730
-1.1335 5.8438 -1.5413 0.9757
-3.7801 7.6361 -2.2061 0.9654
-4.3728 7.1479 -2.1696 0.9660
-5.7962 5.4399 -2.0582 0.9677
-7.1823 3.7906 -2.1027 0.9670
-7.3639 3.0810 -2.0668 0.9676
-7.4831 2.3714 -2.0325 0.9681
-7.5420 1.6670 -1.9999 0.9686
-7.0225 -1.6388 -1.8671 0.9706
-6.7747 -2.2347 -1.8471 0.9710
-6.4852 -2.8032 -1.8293 0.9712
-6.1566 -3.3422 -1.8138 0.9715
-5.7914 -3.8501 -1.8006 0.9717
-5.3919 -4.3253 -1.7897 0.9718
-4.9606 -4.7663 -1.7812 0.9720
-4.0113 -5.5404 -1.7710 0.9721
-1.2341 -6.7875 -1.7862 0.9719
0.6205 -7.0139 -1.8231 0.9713
1.8942 -6.9263 -1.8592 0.9708
3.1704 -6.6364 -1.9043 0.9701
5.6131 -5.4177 -2.0199 0.9683
2.3470 -1.0207 -0.6627 0.9895
8.3134 -0.4394 -2.1555 0.9662
8.4615 0.3095 -2.1923 0.9656
8.5385 1.8670 -2.2630 0.9645
8.2728 2.6011 -2.2453 0.9648
7.3091 3.0386 -2.0495 0.9678
5.7783 3.7259 -1.7801 0.9720
5.1459 4.0109 -1.6893 0.9734
3.5933 4.8198 -1.5566 0.9755
2.5700 5.1622 -1.4931 0.9765
1.5015 3.8420 -1.0680 0.9831
0.3091 2.9480 -0.7675 0.9878
-0.4837 6.5034 -1.6885 0.9734
-0.9694 5.8727 -1.5411 0.9757
-3.5832 7.7784 -2.2174 0.9652
-5.2407 6.2250 -2.1069 0.9669
-5.6734 5.6314 -2.0697 0.9675
-6.0442 5.0121 -2.0330 0.9681
-6.8457 4.7132 -2.1520 0.9662
-7.1122 4.0119 -2.1143 0.9668
-7.5299 1.8868 -2.0099 0.9684
-7.5488 1.1885 -1.9786 0.9689
-7.5116 0.5025 -1.9492 0.9694
-7.4211 -0.1675 -1.9220 0.9698
-7.0910 -1.4469 -1.8738 0.9705
-6.2636 -3.1767 -1.8184 0.9714
-5.9096 -3.6945 -1.8045 0.9716
-5.5206 -4.1801 -1.7929 0.9718
-4.1670 -5.4291 -1.7720 0.9721
-3.6611 -5.7717 -1.7697 0.9722
-2.0093 -6.5609 -1.7766 0.9720
-0.8184 -6.8758 -1.7928 0.9718
1.0561 -7.0061 -1.8345 0.9711
1.6940 -6.9532 -1.8530 0.9709
2.3335 -6.8500 -1.8737 0.9705
3.6043 -6.4885 -1.9218 0.9698
4.8388 -5.9136 -1.9784 0.9689
6.5450 -4.6425 -2.0776 0.9674
7.0518 -4.1089 -2.1132 0.9668
6.9834 -3.2725 -1.9968 0.9686
7.3781 -2.6837 -2.0328 0.9681
8.0188 -1.3777 -2.1066 0.9669
8.4226 0.0722 -2.1808 0.9658
8.5468 1.6197 -2.2523 0.9647
8.4929 2.4114 -2.2859 0.9642
7.5925 2.9101 -2.1053 0.9670
5.9909 3.6298 -1.8137 0.9715
5.3370 3.9248 -1.7153 0.9730
4.7453 4.1910 -1.6392 0.9742
3.7518 4.7490 -1.5670 0.9753
3.1950 4.8845 -1.5112 0.9762
1.7149 -6.4069 -1.8776 0.9728
2.3040 -6.2942 -1.8975 0.9725
4.0356 -5.6650 -1.9690 0.9715
4.5884 -5.3563 -1.9966 0.9711
5.1223 -4.9978 -2.0260 0.9707
5.6325 -4.5898 -2.0569 0.9702
6.4704 -2.8559 -2.0022 0.9710
6.8096 -2.3044 -2.0351 0.9706
7.6575 0.2385 -2.1688 0.9687
7.6342 2.3550 -2.2617 0.9673
7.3505 3.0093 -2.2485 0.9675
6.5237 3.3792 -2.0799 0.9699
5.1753 3.9890 -1.8498 0.9732
3.0698 4.9325 -1.6447 0.9761
1.5109 3.8052 -1.1590 0.9831
1.1660 5.7741 -1.6676 0.9758
0.1279 6.2284 -1.7636 0.9744
-0.4466 6.4786 -1.8384 0.9734
-0.9449 5.9234 -1.6981 0.9754
-1.7838 7.0584 -2.0610 0.9702
-3.2062 7.0605 -2.1952 0.9683
-3.7670 6.6465 -2.1628 0.9687
-4.2784 6.1873 -2.1296 0.9692
-4.7376 5.6897 -2.0960 0.9697
-5.4923 4.6048 -2.0290 0.9706
-5.7862 4.0301 -1.9962 0.9711
-6.4919 3.7085 -2.1166 0.9694
-6.6897 3.0652 -2.0832 0.9699
-6.9134 1.7721 -2.0204 0.9708
-6.9428 1.1316 -1.9914 0.9712
-6.7268 -0.7192 -1.9152 0.9723
-6.3528 -1.8628 -1.8741 0.9729
-5.8171 -2.9107 -1.8414 0.9733
-4.7515 -4.2696 -1.8084 0.9738
-3.8926 -5.0151 -1.7972 0.9740
-1.3512 -6.2399 -1.8074 0.9738
-0.7927 -6.3657 -1.8160 0.9737
-0.2228 -6.4489 -1.8267 0.9735
0.9414 -6.4834 -1.8547 0.9731
2.7067 -6.1890 -1.9123 0.9723
3.2877 -5.9948 -1.9356 0.9720
3.8592 -5.7514 -1.9608 0.9716
5.9668 -4.2811 -2.0790 0.9699
7.4795 -0.6463 -2.1253 0.9693
7.6248 0.0241 -2.1585 0.9688
7.7068 0.7151 -2.1911 0.9683
7.7217 1.4201 -2.2226 0.9679
7.6663 2.1319 -2.2526 0.9675
7.5385 2.8427 -2.2808 0.9671
5.3672 3.9024 -1.8786 0.9728
4.7733 4.1700 -1.7943 0.9740
3.7780 4.7293 -1.7136 0.9752
3.2203 4.8655 -1.6518 0.9760
2.7432 5.0777 -1.6338 0.9763
0.3856 2.7791 -0.7943 0.9884
-0.8726 6.6637 -1.9025 0.9724
-1.3177 5.9048 -1.7127 0.9752
-2.4015 7.5248 -2.2361 0.9677
-3.5966 6.7813 -2.1730 0.9686
-4.1238 6.3355 -2.1400 0.9691
-4.5996 5.8492 -2.1065 0.9695
-5.0217 5.3289 -2.0729 0.9700
-5.3888 4.7811 -2.0394 0.9705
-6.6341 3.2673 -2.0935 0.9697
-6.7920 2.6209 -2.0610 0.9702
-6.9326 0.6969 -1.9725 0.9714
-6.7695 -0.5327 -1.9223 0.9722
-6.6178 -1.1216 -1.9002 0.9725
-6.1860 -2.2343 -1.8620 0.9730
-5.5993 -3.2456 -1.8322 0.9735
-5.2535 -3.7086 -1.8205 0.9736
-4.0340 -4.9074 -1.7984 0.9739
-3.5740 -5.2391 -1.7954 0.9740
-2.5865 -5.7927 -1.7959 0.9740
-2.0633 -6.0122 -1.7995 0.9739
-1.5233 -6.1920 -1.8052 0.9738
-0.9689 -6.3308 -1.8131 0.9737
0.1741 -6.4809 -1.8354 0.9734
0.7576 -6.4899 -1.8497 0.9732
1.9353 -6.3704 -1.8848 0.9727
2.5234 -6.2398 -1.9054 0.9724
3.6815 -5.8330 -1.9527 0.9717
4.2442 -5.5555 -1.9791 0.9714
6.2368 -3.1808 -1.9820 0.9713
2.3239 -0.9343 -0.7091 0.9896
6.9249 -2.0884 -2.0476 0.9704
7.6882 0.4969 -2.1810 0.9685
7.6914 1.9088 -2.2434 0.9676
6.2463 3.5049 -2.0276 0.9707
3.3723 4.7977 -1.6602 0.9759
2.8916 5.0118 -1.6380 0.9762
-0.6747 6.5778 -1.8719 0.9729
-1.1321 5.8369 -1.6832 0.9756
-2.1991 7.6208 -2.2454 0.9676
-2.8316 7.2939 -2.2150 0.9680
-3.9641 6.4798 -2.1504 0.9689
-5.2798 4.9552 -2.0498 0.9703
-2.4711 1.9351 -0.8885 0.9870
-6.3351 4.1052 -2.1370 0.9691
-6.5727 3.4689 -2.1039 0.9696
-6.8675 2.1764 -2.0394 0.9705
-6.9306 1.5319 -2.0094 0.9709
-6.9403 0.8945 -1.9810 0.9713
-6.8076 -0.3444 -1.9297 0.9721
-6.4882 -1.5141 -1.8861 0.9727
-6.2644 -2.0664 -1.8674 0.9730
-6.0011 -2.5939 -1.8508 0.9732
-5.7006 -3.0946 -1.8363 0.9734
-4.5993 -4.4192 -1.8056 0.9738
-4.1730 -4.7963 -1.7998 0.9739
-3.7206 -5.1390 -1.7961 0.9740
-3.2445 -5.4460 -1.7946 0.9740
-2.7465 -5.7160 -1.7953 0.9740
-1.1439 -6.2918 -1.8104 0.9738
1.1612 -6.4698 -1.8608 0.9730
2.9247 -6.1222 -1.9208 0.9722
3.5026 -5.9097 -1.9448 0.9718
4.0695 -5.6477 -1.9707 0.9715
4.6214 -5.3360 -1.9984 0.9711
5.1539 -4.9745 -2.0278 0.9707
5.6626 -4.5635 -2.0588 0.9702
6.1425 -4.1036 -2.0912 0.9698
2.3319 -1.0142 -0.7199 0.9895
6.8288 -2.2697 -2.0372 0.9705
7.1191 -1.6783 -2.0706 0.9701
7.3581 -1.0531 -2.1042 0.9696
7.5409 -0.3986 -2.1378 0.9691
5.7700 3.7205 -1.9436 0.9719
5.1388 4.0054 -1.8445 0.9733
3.5889 4.8138 -1.6998 0.9753
3.0408 4.9454 -1.6435 0.9762
1.4836 3.7963 -1.1539 0.9832
1.6220 5.5736 -1.6433 0.9762
0.5827 2.9685 -0.8564 0.9875
0.0944 6.2430 -1.7676 0.9744
-0.4830 6.4945 -1.8436 0.9733
-5.1654 5.1271 -2.0603 0.9702
-6.2409 4.2968 -2.1450 0.9690
-6.8364 2.3789 -2.0491 0.9704
-6.9170 0.4627 -1.9625 0.9716
-6.7180 -0.7551 -1.9138 0.9723
-5.7985 -2.9408 -1.8406 0.9733
-5.4739 -3.4221 -1.8275 0.9735
-5.1160 -3.8738 -1.8167 0.9737
-4.7271 -4.2942 -1.8079 0.9738
-4.3094 -4.6819 -1.8014 0.9739
-3.3960 -5.3538 -1.7948 0.9740
-2.9047 -5.6355 -1.7948 0.9740
-1.8633 -6.0842 -1.8013 0.9739
-0.7584 -6.3719 -1.8166 0.9737
3.8934 -5.7351 -1.9623 0.9716
4.4505 -5.4390 -1.9895 0.9712
4.9895 -5.0931 -2.0184 0.9708
5.5062 -4.6975 -2.0489 0.9704
6.3781 -2.9889 -1.9940 0.9711
7.0334 -1.8673 -2.0601 0.9702
7.4900 -0.6064 -2.1273 0.9692
7.6316 0.0654 -2.1605 0.9688
7.7204 1.4631 -2.2245 0.9679
7.6606 2.1751 -2.2544 0.9674
5.9822 3.6245 -1.9801 0.9713
5.3296 3.9194 -1.8728 0.9729
3.1911 4.8785 -1.6503 0.9761
1.5927 -5.9504 -1.8947 0.9746
2.1382 -5.8414 -1.9133 0.9743
3.2128 -5.4882 -1.9560 0.9737
5.1959 -4.2340 -2.0616 0.9723
5.6335 -3.8078 -2.0914 0.9719
6.8842 -0.4013 -2.1210 0.9716
6.9901 0.2177 -2.1510 0.9712
7.0220 1.4956 -2.2083 0.9704
6.5135 3.3740 -2.2562 0.9698
5.1681 3.9834 -2.0070 0.9731
4.5915 4.2434 -1.9230 0.9742
3.6148 4.7942 -1.8468 0.9752
0.3226 2.9235 -0.9047 0.9878
-0.4460 6.4697 -1.9947 0.9732
-2.3678 6.7603 -2.2032 0.9705
-3.9117 5.6570 -2.1154 0.9716
-4.3373 5.2090 -2.0849 0.9720
-5.9742 3.4127 -2.1162 0.9716
-6.3016 2.2312 -2.0562 0.9724
-6.3863 1.6370 -2.0278 0.9728
-6.3447 -0.1088 -1.9518 0.9738
-5.9009 -1.7303 -1.8914 0.9746
-5.6735 -2.2306 -1.8751 0.9748
-5.1127 -3.1579 -1.8483 0.9752
-4.7835 -3.5814 -1.8380 0.9753
-4.4246 -3.9759 -1.8296 0.9754
-2.7345 -5.2356 -1.8168 0.9756
-1.7660 -5.6566 -1.8227 0.9755
-1.2583 -5.8108 -1.8287 0.9754
0.3313 -6.0350 -1.8590 0.9750
0.8751 -6.0268 -1.8731 0.9748
2.5105 -5.7405 -1.9271 0.9741
5.0530 -4.3583 -2.0524 0.9725
5.4997 -3.9459 -2.0819 0.9721
5.8431 -2.7769 -1.9898 0.9733
6.1591 -2.2782 -2.0198 0.9729
6.4334 -1.7454 -2.0503 0.9725
6.8395 -0.5910 -2.1115 0.9717
6.9631 0.0220 -2.1417 0.9713
7.0288 0.6522 -2.1712 0.9709
6.9746 1.9396 -2.2267 0.9702
6.8506 2.5833 -2.2519 0.9698
6.6606 3.2171 -2.2751 0.9695
3.7733 4.7234 -1.8595 0.9750
3.2164 4.8594 -1.7924 0.9759
2.7398 5.0715 -1.7730 0.9762
1.7981 5.4883 -1.7764 0.9761
0.3850 2.7749 -0.8617 0.9883
-0.8713 6.6542 -2.0642 0.9723
-2.1862 6.8504 -2.2117 0.9704
-2.7537 6.5445 -2.1839 0.9707
-3.2825 6.1892 -2.1548 0.9711
-4.6017 4.8833 -2.0638 0.9723
-5.8961 3.5906 -2.1233 0.9715
-6.1114 3.0099 -2.0953 0.9719
-6.2645 2.4173 -2.0653 0.9723
-6.3653 1.8229 -2.0365 0.9727
-6.4151 1.2308 -2.0091 0.9730
-6.3688 0.0690 -1.9590 0.9737
-5.7487 -2.0764 -1.8800 0.9747
-4.5400 -3.8556 -1.8320 0.9754
-3.3298 -4.8810 -1.8174 0.9756
-2.4097 -5.3967 -1.8179 0.9756
-1.9220 -5.6005 -1.8212 0.9755
-0.9021 -5.8942 -1.8340 0.9754
-0.3744 -5.9819 -1.8435 0.9752
0.7044 -6.0339 -1.8685 0.9749
1.7969 -5.9149 -1.9014 0.9745
4.9075 -4.4783 -2.0435 0.9726
5.3629 -4.0798 -2.0726 0.9722
5.7890 -3.6374 -2.1029 0.9718
5.7363 -2.9256 -1.9806 0.9734
6.3523 -1.9157 -2.0407 0.9726
6.5954 -1.3613 -2.0714 0.9722
6.9305 -0.1721 -2.1323 0.9714
7.0147 0.4533 -2.1621 0.9710
7.0000 1.7372 -2.2184 0.9703
6.8965 2.3824 -2.2442 0.9699
6.2369 3.4996 -2.1997 0.9705
3.9339 4.6514 -1.8738 0.9748
3.3681 4.7918 -1.8015 0.9758
1.3594 3.7877 -1.2378 0.9833
1.4697 5.6329 -1.7906 0.9759
-1.1308 5.8300 -1.8266 0.9755
-2.0013 6.9352 -2.2202 0.9702
-2.5800 6.6459 -2.1928 0.9706
-4.0763 5.4935 -2.1040 0.9718
-4.4841 5.0334 -2.0734 0.9722
-4.8428 4.5450 -2.0428 0.9726
-6.0525 3.1943 -2.1050 0.9718
-6.2223 2.6033 -2.0746 0.9722
-6.3884 0.2481 -1.9664 0.9736
-6.3102 -0.3192 -1.9434 0.9739
-6.1880 -0.8714 -1.9221 0.9742
-6.0240 -1.4058 -1.9026 0.9744
-5.8203 -1.9199 -1.8851 0.9747
-5.5792 -2.4115 -1.8695 0.9749
-4.9932 -3.3195 -1.8442 0.9752
-4.6527 -3.7323 -1.8346 0.9753
-2.5589 -5.3254 -1.8173 0.9756
-2.0765 -5.5407 -1.8199 0.9755
-1.5778 -5.7188 -1.8247 0.9755
-1.0652 -5.8585 -1.8315 0.9754
1.0792 -6.0127 -1.8789 0.9748
1.6259 -5.9451 -1.8957 0.9745
2.1712 -5.8333 -1.9145 0.9743
3.7663 -5.2269 -1.9816 0.9734
4.2726 -4.9333 -2.0073 0.9731
4.7596 -4.5939 -2.0346 0.9727
5.6590 -3.7806 -2.0933 0.9719
6.5243 -1.5381 -2.0618 0.9723
6.7342 -0.9639 -2.0924 0.9719
6.8923 -0.3643 -2.1229 0.9715
6.9946 0.2558 -2.1528 0.9711
7.0378 0.8909 -2.1820 0.9707
7.0190 1.5348 -2.2099 0.9704
6.7873 2.8217 -2.2609 0.9697
6.4677 3.3948 -2.2467 0.9699
4.0972 4.5783 -1.8897 0.9746
3.5844 4.8078 -1.8445 0.9752
3.0370 4.9393 -1.7834 0.9760
1.1346 5.7800 -1.8117 0.9757
0.3076 2.9338 -0.9073 0.9877
-0.4824 6.4855 -2.0003 0.9732
-1.8132 7.0145 -2.2284 0.9701
-2.4026 6.7422 -2.2015 0.9705
-3.4694 6.0448 -2.1437 0.9713
-5.3339 3.6723 -1.9918 0.9733
-5.9883 3.3779 -2.1147 0.9716
-6.1748 2.7889 -2.0840 0.9720
-6.3898 1.6011 -2.0261 0.9728
-4.0140 -4.3609 -1.8230 0.9755
-2.7062 -5.2505 -1.8168 0.9756
-2.2294 -5.4772 -1.8189 0.9756
-1.7356 -5.6671 -1.8230 0.9755
-1.2271 -5.8189 -1.8291 0.9754
0.3641 -6.0357 -1.8598 0.9750
0.9082 -6.0249 -1.8741 0.9748
2.0007 -5.8731 -1.9084 0.9744
2.5433 -5.7306 -1.9284 0.9741
3.6045 -5.3094 -1.9738 0.9735
5.0808 -4.3346 -2.0542 0.9724
5.5258 -3.9195 -2.0838 0.9720
6.1770 -2.2468 -2.0217 0.9729
6.6739 -1.1466 -2.0828 0.9721
6.8486 -0.5545 -2.1134 0.9717
6.9690 1.9787 -2.2282 0.9701
6.8410 2.6220 -2.2534 0.9698
5.9733 3.6191 -2.1482 0.9712
4.7326 4.1798 -1.9421 0.9739
3.7424 4.7372 -1.8569 0.9751
2.9898 -5.1073 -1.9672 0.9754
4.3904 -4.2837 -2.0390 0.9745
5.7687 -1.9521 -2.0244 0.9747
5.1609 3.9778 -2.1659 0.9729
3.5468 4.7040 -1.9583 0.9755
2.5890 5.1307 -1.9103 0.9761
1.4931 3.7602 -1.3448 0.9831
1.1631 5.7596 -1.9532 0.9755
0.1276 6.2119 -2.0653 0.9742
-0.4454 6.4607 -2.1527 0.9731
-0.9452 5.9256 -1.9946 0.9750
-1.6274 6.4392 -2.2077 0.9724
-2.1713 6.1991 -2.1834 0.9727
-2.6838 5.9102 -2.1576 0.9730
-3.1609 5.5770 -2.1309 0.9733
-3.5989 5.2046 -2.1034 0.9737
-5.5177 3.1520 -2.1123 0.9736
-5.7109 2.6167 -2.0881 0.9739
-5.8435 2.0690 -2.0606 0.9742
-5.9654 0.9723 -2.0091 0.9748
-5.9572 0.4309 -1.9854 0.9751
-5.9052 -0.1013 -1.9632 0.9754
-5.6767 -1.1263 -1.9238 0.9759
-5.5040 -1.6139 -1.9066 0.9761
-4.4702 -3.3468 -1.8562 0.9767
-3.3911 -4.3690 -1.8384 0.9770
-2.9844 -4.6490 -1.8363 0.9770
-2.5574 -4.8964 -1.8362 0.9770
-1.6512 -5.2891 -1.8418 0.9769
-0.6896 -5.5382 -1.8551 0.9767
0.3093 -5.6355 -1.8761 0.9765
0.8168 -5.6250 -1.8894 0.9763
1.3260 -5.5740 -1.9045 0.9761
1.8343 -5.4817 -1.9215 0.9759
2.8361 -5.1713 -1.9605 0.9754
5.0952 -3.6557 -2.0845 0.9739
5.4650 -3.2241 -2.1092 0.9736
5.4015 -2.5670 -1.9879 0.9751
5.6871 -2.1036 -2.0156 0.9748
6.1369 -1.0886 -2.0718 0.9741
6.4000 0.0202 -2.1274 0.9734
6.3900 1.7770 -2.2047 0.9724
6.2705 2.3645 -2.2276 0.9721
5.3520 3.8914 -2.1996 0.9725
3.7022 4.6344 -1.9717 0.9753
2.7364 5.0652 -1.9137 0.9760
1.3163 5.6924 -1.9421 0.9757
0.2980 6.1377 -2.0426 0.9744
-0.2607 6.3806 -2.1227 0.9734
-2.5270 6.0056 -2.1658 0.9729
-3.4661 5.3251 -2.1120 0.9736
-2.5410 1.8775 -1.0502 0.9868
-5.0687 3.0867 -1.9727 0.9753
-5.6593 2.7872 -2.0969 0.9738
-5.9646 0.5996 -1.9927 0.9750
-5.9261 0.0642 -1.9700 0.9753
-5.7230 -0.9699 -1.9295 0.9758
-5.5621 -1.4632 -1.9118 0.9760
-4.8657 -2.8205 -1.8695 0.9766
-4.2436 -3.6038 -1.8506 0.9768
-3.1140 -4.5647 -1.8368 0.9770
-2.6931 -4.8225 -1.8361 0.9770
-2.2535 -5.0469 -1.8373 0.9770
-1.7972 -5.2369 -1.8404 0.9769
-1.3263 -5.3912 -1.8455 0.9769
-0.3498 -5.5891 -1.8615 0.9767
0.1512 -5.6306 -1.8723 0.9765
1.1665 -5.5944 -1.8996 0.9762
2.1814 -5.3941 -1.9341 0.9758
3.1719 -5.0255 -1.9754 0.9753
4.5528 -4.1546 -2.0488 0.9744
5.3154 -2.7109 -1.9834 0.9752
2.3239 -0.9343 -0.8326 0.9895
6.0781 -1.2545 -2.0630 0.9742
6.2497 -0.7167 -2.0911 0.9738
6.1538 2.7627 -2.2422 0.9720
5.5492 3.8021 -2.2360 0.9720
4.9400 4.0777 -2.1292 0.9734
4.3816 4.3294 -2.0475 0.9744
3.3638 4.7857 -1.9445 0.9756
2.8844 4.9994 -1.9186 0.9760
2.4136 5.2085 -1.9082 0.9761
1.3096 3.6488 -1.2886 0.9838
-3.3293 5.4422 -2.1207 0.9735
-4.1321 4.6383 -2.0649 0.9742
-2.4718 1.9356 -1.0436 0.9869
-5.5994 2.9552 -2.1046 0.9737
-5.7662 2.4125 -2.0777 0.9740
-5.8807 1.8636 -2.0506 0.9743
-5.9474 1.3146 -2.0247 0.9747
-5.9676 0.7691 -2.0001 0.9750
-5.8749 -0.2972 -1.9553 0.9755
-5.7655 -0.8119 -1.9354 0.9758
-5.6165 -1.3107 -1.9171 0.9760
-5.2080 -2.2511 -1.8860 0.9764
-4.9523 -2.6884 -1.8731 0.9765
-4.6652 -3.1014 -1.8621 0.9767
-4.3485 -3.4883 -1.8531 0.9768
-4.0044 -3.8475 -1.8459 0.9769
-2.8270 -4.7453 -1.8361 0.9770
-2.3931 -4.9803 -1.8367 0.9770
-1.4752 -5.3468 -1.8437 0.9769
-0.9956 -5.4761 -1.8501 0.9768
-0.5052 -5.5681 -1.8585 0.9767
1.0070 -5.6107 -1.8948 0.9763
1.5163 -5.5443 -1.9106 0.9761
2.0234 -5.4365 -1.9282 0.9758
3.5017 -4.8597 -1.9911 0.9751
4.4170 -4.2632 -2.0406 0.9745
4.8423 -3.9024 -2.0672 0.9741
5.2407 -3.5011 -2.0950 0.9738
6.2011 -0.8876 -2.0823 0.9739
6.3394 -0.3351 -2.1102 0.9736
6.4588 0.8176 -2.1641 0.9729
6.4348 1.4070 -2.1895 0.9726
6.3523 1.9973 -2.2135 0.9723
6.2104 2.5819 -2.2357 0.9720
6.0090 3.1540 -2.2558 0.9718
4.0200 4.4920 -2.0038 0.9749
3.0332 4.9332 -1.9250 0.9759
2.5606 5.1433 -1.9098 0.9761
0.3088 2.9450 -0.9843 0.9876
-0.4817 6.4765 -2.1588 0.9730
-0.9696 5.8739 -1.9789 0.9752
-3.1886 5.5555 -2.1292 0.9734
-3.6241 5.1809 -2.1017 0.9737
-4.3675 4.3351 -2.0455 0.9744
-4.6720 3.8742 -2.0175 0.9747
-4.9305 3.3946 -1.9898 0.9751
-5.5315 3.1202 -2.1110 0.9736
-5.7203 2.5837 -2.0864 0.9739
-5.8500 2.0357 -2.0589 0.9742
-5.9007 -0.1332 -1.9619 0.9754
-5.6673 -1.1564 -1.9227 0.9759
-5.4924 -1.6428 -1.9056 0.9761
-4.7584 -2.9748 -1.8654 0.9766
-4.4507 -3.3700 -1.8557 0.9767
-4.1150 -3.7381 -1.8480 0.9768
-3.7531 -4.0775 -1.8421 0.9769
-3.3671 -4.3869 -1.8382 0.9770
-1.6228 -5.2988 -1.8421 0.9769
0.8476 -5.6231 -1.8903 0.9763
1.3569 -5.5696 -1.9055 0.9761
1.8650 -5.4748 -1.9225 0.9759
2.8659 -5.1592 -1.9618 0.9754
3.8244 -4.6739 -2.0074 0.9749
5.4855 -3.1963 -2.1104 0.9736
5.4199 -2.5398 -1.9896 0.9751
5.7032 -2.0745 -2.0173 0.9747
6.1478 -1.0562 -2.0735 0.9740
6.3015 -0.5102 -2.1015 0.9737
6.4047 0.0549 -2.1290 0.9734
6.4546 0.6342 -2.1559 0.9730
6.3845 1.8128 -2.2061 0.9724
6.0784 2.9766 -2.2498 0.9719
5.3145 3.9083 -2.1929 0.9726
4.1578 4.3923 -2.0104 0.9748
1.8642 -5.0928 -1.9394 0.9772
2.3328 -4.9518 -1.9575 0.9770
2.7931 -4.7712 -1.9771 0.9768
4.8536 -3.2806 -2.0950 0.9754
5.1741 -2.8604 -2.1142 0.9752
2.3396 -1.0327 -0.9146 0.9892
5.8559 -0.3413 -2.0977 0.9754
5.9334 0.1848 -2.1229 0.9751
5.9610 0.7218 -2.1473 0.9748
5.9366 1.2645 -2.1706 0.9745
5.7269 2.3446 -2.2130 0.9741
5.5408 2.8701 -2.2315 0.9738
5.3011 3.3777 -2.2478 0.9737
5.0094 3.8611 -2.2618 0.9735
3.0583 4.9141 -2.0698 0.9757
2.5858 5.1242 -2.0526 0.9759
-0.4285 6.2161 -2.2282 0.9739
-0.9454 5.9268 -2.1462 0.9748
-2.4776 5.4559 -2.1428 0.9749
-2.9207 5.1533 -2.1182 0.9752
-3.3287 4.8139 -2.0929 0.9754
-4.5653 3.1797 -1.9895 0.9766
-4.7695 2.7246 -1.9643 0.9769
-5.3135 2.4347 -2.0901 0.9755
-5.4419 1.9268 -2.0645 0.9758
-5.5254 1.4164 -2.0398 0.9761
-5.5650 0.9071 -2.0163 0.9763
-5.3108 -1.0537 -1.9362 0.9773
-4.7334 -2.3685 -1.8928 0.9778
-4.1916 -3.1382 -1.8725 0.9780
-2.8002 -4.3621 -1.8537 0.9782
-2.3996 -4.5943 -1.8535 0.9782
-1.5491 -4.9618 -1.8588 0.9782
-1.1033 -5.0950 -1.8642 0.9781
0.7650 -5.2685 -1.9038 0.9776
1.2414 -5.2181 -1.9181 0.9775
2.1868 -5.0002 -1.9516 0.9771
3.1028 -4.6241 -1.9914 0.9766
3.5418 -4.3767 -2.0134 0.9764
3.9636 -4.0900 -2.0367 0.9761
4.7413 -3.4018 -2.0868 0.9755
5.2767 -1.9518 -2.0119 0.9764
5.4998 -1.4921 -2.0379 0.9761
5.6826 -1.0080 -2.0639 0.9758
5.8218 -0.5031 -2.0897 0.9755
5.9144 0.0187 -2.1150 0.9752
5.9499 1.0943 -2.1634 0.9746
5.7741 2.1773 -2.2068 0.9741
5.6049 2.7072 -2.2259 0.9739
5.1062 3.7127 -2.2577 0.9735
3.9672 4.1457 -2.0520 0.9759
3.4959 4.3762 -2.0030 0.9765
3.2082 4.8472 -2.0787 0.9756
2.7330 5.0589 -2.0562 0.9759
1.7936 5.4746 -2.0601 0.9758
1.3146 5.6851 -2.0867 0.9755
0.2976 6.1294 -2.1945 0.9743
-0.2550 6.2410 -2.2337 0.9738
-1.3113 5.8762 -2.1531 0.9747
-1.8479 5.7902 -2.1735 0.9745
-2.3321 5.5424 -2.1503 0.9748
-3.2049 4.9238 -2.1009 0.9754
-3.5872 4.5618 -2.0753 0.9756
-4.2324 3.7551 -2.0234 0.9763
-4.7101 2.8684 -1.9721 0.9768
-5.4066 2.0863 -2.0724 0.9757
-5.5041 1.5762 -2.0474 0.9760
-5.5673 0.5597 -2.0009 0.9765
-5.2057 -1.3695 -1.9249 0.9774
-4.8075 -2.2396 -1.8966 0.9777
-4.5604 -2.6435 -1.8850 0.9779
-4.2839 -3.0241 -1.8752 0.9780
-3.9799 -3.3798 -1.8672 0.9781
-3.2969 -4.0107 -1.8566 0.9782
-2.5270 -4.5250 -1.8534 0.9782
-2.1144 -4.7354 -1.8545 0.9782
-1.6861 -4.9130 -1.8575 0.9782
-0.7907 -5.1662 -1.8690 0.9780
0.1417 -5.2768 -1.8877 0.9778
0.6160 -5.2764 -1.8997 0.9777
1.0922 -5.2380 -1.9134 0.9775
1.5679 -5.1609 -1.9289 0.9773
2.0401 -5.0447 -1.9460 0.9771
2.5059 -4.8889 -1.9646 0.9769
2.9623 -4.6935 -1.9848 0.9767
4.6262 -3.5194 -2.0787 0.9756
4.9282 -2.5134 -1.9783 0.9768
2.3238 -0.9343 -0.8957 0.9894
5.4341 -1.6388 -2.0297 0.9762
5.6299 -1.1620 -2.0557 0.9759
5.7831 -0.6632 -2.0816 0.9756
5.9497 0.3845 -2.1321 0.9750
5.9580 0.9242 -2.1561 0.9747
5.9139 1.4677 -2.1790 0.9744
5.8159 2.0091 -2.2004 0.9742
5.4574 3.0622 -2.2378 0.9738
4.8875 4.0343 -2.2663 0.9734
4.3757 4.3236 -2.1998 0.9742
3.6374 4.3008 -2.0143 0.9764
2.8808 4.9931 -2.0614 0.9758
1.3596 3.7882 -1.4393 0.9830
0.4875 2.9122 -1.0559 0.9875
-0.6339 6.1794 -2.2214 0.9740
-1.6906 5.8584 -2.1805 0.9744
-2.1836 5.6248 -2.1577 0.9747
-2.6471 5.3474 -2.1337 0.9750
-3.0774 5.0305 -2.1089 0.9753
-3.8271 4.2960 -2.0575 0.9759
-4.1422 3.8876 -2.0315 0.9762
-2.4729 1.9364 -1.1232 0.9867
-4.6466 3.0110 -1.9800 0.9768
-5.1987 2.7437 -2.1021 0.9753
-5.4784 1.7361 -2.0551 0.9759
-5.5453 1.2257 -2.0309 0.9762
-5.4904 -0.2778 -1.9659 0.9769
-5.2557 -1.2265 -1.9300 0.9773
-5.0840 -1.6770 -1.9144 0.9775
-4.3735 -2.9075 -1.8781 0.9779
-4.0779 -3.2712 -1.8695 0.9780
-3.0415 -4.2009 -1.8547 0.9782
-2.6526 -4.4525 -1.8534 0.9782
-1.8218 -4.8610 -1.8564 0.9782
-0.9338 -5.1358 -1.8667 0.9781
0.4671 -5.2806 -1.8958 0.9777
1.8928 -5.0853 -1.9404 0.9772
2.3609 -4.9420 -1.9586 0.9770
2.8206 -4.7590 -1.9783 0.9768
3.2687 -4.5363 -1.9995 0.9765
4.1162 -3.9729 -2.0458 0.9760
4.8366 -2.6398 -1.9704 0.9769
2.3154 -1.0070 -0.9029 0.9893
5.7399 -0.8215 -2.0735 0.9757
5.8620 -0.3098 -2.0992 0.9754
5.9610 0.7546 -2.1487 0.9748
5.9334 1.2974 -2.1720 0.9745
5.5277 2.9014 -2.2325 0.9738
5.2848 3.4077 -2.2487 0.9736
4.9901 3.8895 -2.2625 0.9735
4.5457 4.2470 -2.2247 0.9739
3.7838 4.2281 -2.0291 0.9762
3.3309 4.4677 -1.9928 0.9766
3.0294 4.9269 -2.0683 0.9757
1.4774 3.7803 -1.4514 0.9829
1.6160 5.5527 -2.0681 0.9757
1.1318 5.7653 -2.1011 0.9754
0.0940 6.2180 -2.2238 0.9739
-0.4619 6.2106 -2.2271 0.9739
-0.9698 5.8750 -2.1294 0.9750
-1.5308 5.9219 -2.1873 0.9744
-2.5054 5.4387 -2.1414 0.9749
-2.9465 5.1337 -2.1167 0.9752
-3.7201 4.4188 -2.0656 0.9758
-4.0480 4.0180 -2.0396 0.9761
-4.7805 2.6966 -1.9628 0.9770
-5.3226 2.4040 -2.0885 0.9755
-5.5291 1.3854 -2.0384 0.9761
-5.5603 0.3720 -1.9928 0.9766
-5.1415 -1.5379 -1.9191 0.9775
-4.9463 -1.9757 -1.9047 0.9776
-4.4604 -2.7885 -1.8811 0.9779
-4.1734 -3.1600 -1.8720 0.9780
-3.1591 -4.1159 -1.8555 0.9782
-2.7764 -4.3771 -1.8536 0.9782
-2.3747 -4.6073 -1.8536 0.9782
-1.9560 -4.8056 -1.8554 0.9782
-1.0759 -5.1019 -1.8646 0.9781
-0.1531 -5.2579 -1.8811 0.9779
0.3186 -5.2811 -1.8920 0.9778
0.7939 -5.2666 -1.9046 0.9776
1.2702 -5.2138 -1.9190 0.9775
1.7449 -5.1221 -1.9351 0.9773
2.6778 -4.8205 -1.9720 0.9768
3.1298 -4.6103 -1.9927 0.9766
3.5679 -4.3604 -2.0148 0.9764
4.7633 -3.3786 -2.0884 0.9755
5.0972 -2.9700 -2.1097 0.9753
5.0334 -2.3587 -1.9878 0.9767
5.5121 -1.4634 -2.0394 0.9761
5.9478 1.1272 -2.1648 0.9746
5.8836 1.6706 -2.1872 0.9744
5.5929 2.7388 -2.2270 0.9739
5.3666 3.2515 -2.2439 0.9737
4.7197 4.1684 -2.2518 0.9736
3.9371 4.1592 -2.0481 0.9760
3.4686 4.3906 -2.0009 0.9765
3.1791 4.8602 -2.0768 0.9756
1.3054 -4.8771 -1.9348 0.9786
2.1879 -4.6443 -1.9674 0.9782
3.4407 -4.0166 -2.0268 0.9776
3.8270 -3.7340 -2.0490 0.9774
4.4958 -2.4855 -1.9686 0.9782
2.3237 -1.0256 -0.9734 0.9892
4.9837 -1.6865 -2.0162 0.9777
5.1755 -1.2498 -2.0404 0.9775
5.3285 -0.7921 -2.0644 0.9772
5.4400 -0.3171 -2.0882 0.9769
5.4252 1.6736 -2.1757 0.9760
5.2994 2.1696 -2.1944 0.9758
4.6278 3.5670 -2.2391 0.9753
3.3342 4.4220 -2.1223 0.9766
3.0544 4.9078 -2.2152 0.9755
2.5825 5.1177 -2.1968 0.9757
1.6428 5.5329 -2.2118 0.9756
0.3055 2.7683 -1.0673 0.9881
0.1192 5.8016 -2.2237 0.9754
-1.3888 5.4952 -2.1721 0.9760
-1.8560 5.2989 -2.1516 0.9762
-3.0927 4.4726 -2.0839 0.9770
-3.7502 3.7630 -2.0359 0.9775
-4.0229 3.3728 -2.0118 0.9778
-4.4508 2.5425 -1.9643 0.9783
-4.9564 2.2710 -2.0893 0.9769
-5.0867 1.8010 -2.0679 0.9772
-5.1687 1.3249 -2.0448 0.9774
-5.1721 -0.0887 -1.9823 0.9781
-4.8380 -1.4186 -1.9321 0.9786
-4.4485 -2.2259 -1.9063 0.9789
-4.2090 -2.5997 -1.8958 0.9790
-3.3324 -3.5813 -1.8747 0.9793
-2.9937 -3.8570 -1.8711 0.9793
-1.8648 -4.5114 -1.8707 0.9793
-1.4574 -4.6683 -1.8741 0.9793
-1.0378 -4.7927 -1.8792 0.9792
0.2724 -4.9632 -1.9048 0.9789
1.1657 -4.9001 -1.9302 0.9787
1.6108 -4.8138 -1.9453 0.9785
2.4844 -4.5300 -1.9799 0.9781
3.3160 -4.0976 -2.0200 0.9777
3.7082 -3.8263 -2.0419 0.9774
4.7378 -2.7951 -2.1080 0.9767
4.6780 -2.2231 -1.9848 0.9781
4.9162 -1.8184 -2.0087 0.9778
5.2850 -0.9375 -2.0569 0.9773
5.4097 -0.4675 -2.0808 0.9770
5.4911 0.0173 -2.1043 0.9768
5.5268 0.5128 -2.1271 0.9765
5.5150 1.0143 -2.1489 0.9763
5.4544 1.5168 -2.1695 0.9760
4.7179 3.4304 -2.2354 0.9753
3.9618 4.1401 -2.1959 0.9758
3.4802 4.3566 -2.1368 0.9764
3.2041 4.8409 -2.2247 0.9754
2.7295 5.0524 -2.2006 0.9757
1.7913 5.4676 -2.2048 0.9757
1.3129 5.6778 -2.2332 0.9753
0.4009 2.8892 -1.1178 0.9876
0.2820 5.8074 -2.2281 0.9754
-0.2358 5.7711 -2.2134 0.9756
-1.7122 5.3651 -2.1582 0.9762
-2.1626 5.1395 -2.1368 0.9764
-2.9769 4.5736 -2.0912 0.9769
-3.3349 4.2410 -2.0675 0.9772
-3.9416 3.4971 -2.0193 0.9777
-5.2012 0.9979 -2.0295 0.9776
-5.2143 0.5242 -2.0083 0.9778
-5.1239 -0.4032 -1.9697 0.9782
-5.0232 -0.8513 -1.9524 0.9784
-4.8874 -1.2858 -1.9367 0.9786
-4.7183 -1.7042 -1.9225 0.9787
-4.5176 -2.1046 -1.9099 0.9789
-4.2870 -2.4850 -1.8989 0.9790
-4.0283 -2.8437 -1.8896 0.9791
-3.7434 -3.1790 -1.8820 0.9792
-3.4340 -3.4895 -1.8762 0.9792
-3.1020 -3.7736 -1.8720 0.9793
-2.3779 -4.2580 -1.8689 0.9793
-1.9896 -4.4558 -1.8700 0.9793
-1.5864 -4.6226 -1.8729 0.9793
-1.1704 -4.7573 -1.8774 0.9792
-0.7437 -4.8590 -1.8837 0.9792
-0.3084 -4.9269 -1.8918 0.9791
0.5788 -4.9578 -1.9128 0.9788
1.4718 -4.8448 -1.9404 0.9785
3.5873 -3.9152 -2.0349 0.9775
3.9661 -3.6192 -2.0576 0.9773
4.3223 -3.2882 -2.0812 0.9770
2.3238 -0.9343 -0.9598 0.9893
5.0598 -1.5259 -2.0253 0.9776
5.5239 0.8569 -2.1422 0.9763
5.4787 1.3597 -2.1632 0.9761
5.3841 1.8599 -2.1829 0.9759
5.2396 2.3523 -2.2010 0.9757
4.8035 3.2911 -2.2314 0.9754
4.5146 3.7265 -2.2433 0.9752
3.6283 4.2901 -2.1532 0.9762
2.8771 4.9867 -2.2063 0.9756
2.4075 5.1953 -2.1943 0.9758
1.4641 5.6115 -2.2224 0.9755
0.4859 2.9027 -1.1279 0.9875
-1.0853 5.5953 -2.1842 0.9759
-1.5661 5.4270 -2.1646 0.9761
-2.0244 5.2146 -2.1436 0.9763
-3.2265 4.3483 -2.0750 0.9771
-3.8566 3.6195 -2.0269 0.9776
-2.4739 1.9373 -1.2041 0.9866
-5.0140 2.0978 -2.0828 0.9770
-5.1222 1.6233 -2.0591 0.9772
-5.2005 0.2020 -1.9944 0.9780
-5.1480 -0.2604 -1.9753 0.9782
-5.0585 -0.7124 -1.9577 0.9784
-4.9336 -1.1513 -1.9414 0.9785
-4.7748 -1.5750 -1.9268 0.9787
-4.5838 -1.9813 -1.9137 0.9788
-4.3623 -2.3682 -1.9022 0.9790
-4.1123 -2.7338 -1.8924 0.9791
-3.8353 -3.0766 -1.8842 0.9792
-3.5334 -3.3950 -1.8778 0.9792
-3.2083 -3.6876 -1.8731 0.9793
-2.4961 -4.1898 -1.8690 0.9793
-2.1128 -4.3972 -1.8695 0.9793
-0.0056 -4.9534 -1.8982 0.9790
1.7762 -4.7721 -1.9513 0.9784
2.2142 -4.6349 -1.9684 0.9782
2.6437 -4.4605 -1.9870 0.9780
3.4647 -4.0004 -2.0281 0.9776
3.8497 -3.7157 -2.0504 0.9773
4.2134 -3.3955 -2.0737 0.9771
4.5514 -3.0406 -2.0976 0.9768
4.5125 -2.4629 -1.9701 0.9782
2.3105 -1.0049 -0.9655 0.9893
4.9964 -1.6607 -2.0177 0.9777
5.1859 -1.2226 -2.0418 0.9774
5.3365 -0.7638 -2.0659 0.9772
5.5280 0.6998 -2.1353 0.9764
5.4981 1.2022 -2.1568 0.9762
5.4190 1.7039 -2.1769 0.9760
5.2902 2.1993 -2.1955 0.9758
5.1117 2.6831 -2.2124 0.9756
4.8845 3.1495 -2.2272 0.9754
2.5541 5.1303 -2.1962 0.9757
1.6139 5.5456 -2.2133 0.9756
1.1296 5.7542 -2.2472 0.9752
0.0877 5.7999 -2.2229 0.9755
-0.4272 5.7443 -2.2074 0.9756
-1.8835 5.2857 -2.1503 0.9762
-2.3240 5.0449 -2.1286 0.9765
-3.1148 4.4527 -2.0824 0.9770
-4.0381 3.3486 -2.0103 0.9778
-2.7287 1.8787 -1.2696 0.9859
-5.0928 1.7722 -2.0665 0.9772
-5.2108 0.8204 -2.0215 0.9777
-5.2091 0.3485 -2.0007 0.9779
-5.1685 -0.1166 -1.9812 0.9781
-5.0905 -0.5721 -1.9630 0.9783
-4.8280 -1.4441 -1.9312 0.9786
-4.6469 -1.8561 -1.9176 0.9788
-4.4348 -2.2492 -1.9056 0.9789
-3.9248 -2.9718 -1.8866 0.9791
-3.6305 -3.2980 -1.8796 0.9792
-3.3125 -3.5988 -1.8744 0.9793
-2.2346 -4.3355 -1.8691 0.9793
-1.4323 -4.6767 -1.8744 0.9793
-0.5819 -4.8884 -1.8865 0.9791
-0.1439 -4.9434 -1.8952 0.9790
0.2994 -4.9634 -1.9055 0.9789
1.6377 -4.8074 -1.9462 0.9785
2.0778 -4.6818 -1.9629 0.9783
2.5103 -4.5191 -1.9810 0.9781
3.3402 -4.0822 -2.0213 0.9777
3.7313 -3.8087 -2.0433 0.9774
4.1020 -3.4996 -2.0663 0.9772
4.4490 -3.1557 -2.0903 0.9769
4.7552 -2.7707 -2.1091 0.9767
4.9295 -1.7931 -2.0102 0.9778
5.4159 -0.4385 -2.0823 0.9770
5.4945 0.0471 -2.1057 0.9767
5.5274 0.5431 -2.1284 0.9765
5.5127 1.0447 -2.1502 0.9763
5.4491 1.5472 -2.1708 0.9760
5.3359 2.0452 -2.1899 0.9758
5.1729 2.5332 -2.2073 0.9756
4.7008 3.4570 -2.2361 0.9753
4.3951 3.8818 -2.2471 0.9752
3.1750 4.8539 -2.2227 0.9755
1.6463 -4.4975 -1.9601 0.9795
2.4610 -4.2040 -1.9937 0.9792
2.8529 -4.0048 -2.0124 0.9790
3.9304 -3.2028 -2.0751 0.9783
4.2446 -2.8690 -2.0968 0.9781
4.2090 -2.3269 -1.9684 0.9794
2.3172 -1.0228 -1.0366 0.9891
4.6586 -1.5765 -2.0129 0.9790
4.8342 -1.1673 -2.0354 0.9787
5.1194 1.0904 -2.1422 0.9776
4.9254 2.0164 -2.1782 0.9773
4.7597 2.4655 -2.1938 0.9771
4.5491 2.8985 -2.2076 0.9770
3.9996 3.6964 -2.2290 0.9767
3.2575 4.3203 -2.2145 0.9769
1.5042 3.7881 -1.6681 0.9825
1.5543 5.2351 -2.2350 0.9767
1.0772 5.3345 -2.2274 0.9768
0.1106 5.3870 -2.2052 0.9770
-0.3682 5.3409 -2.1911 0.9771
-0.8372 5.2483 -2.1751 0.9773
-2.1403 4.7132 -2.1186 0.9779
-2.5270 4.4587 -2.0975 0.9781
-2.8847 4.1718 -2.0758 0.9783
-3.2108 3.8560 -2.0536 0.9785
-2.5984 1.8098 -1.2960 0.9864
-4.6393 2.1258 -2.0886 0.9782
-4.7699 1.6889 -2.0710 0.9784
-4.8502 1.2433 -2.0493 0.9786
-2.0616 0.3360 -0.8549 0.9910
-1.9528 0.1413 -0.8013 0.9916
-1.9570 -0.2092 -0.8055 0.9915
-4.6909 -0.9307 -1.9573 0.9795
-4.1919 -2.0975 -1.9184 0.9799
-3.9674 -2.4505 -1.9085 0.9800
-3.4413 -3.0923 -1.8935 0.9802
-2.8240 -3.6384 -1.8850 0.9803
-2.4857 -3.8722 -1.8832 0.9803
-0.5734 -4.6050 -1.8993 0.9801
0.2567 -4.6770 -1.9171 0.9800
1.0977 -4.6141 -1.9411 0.9797
2.3358 -4.2592 -1.9881 0.9792
3.1139 -3.8479 -2.0259 0.9788
3.4799 -3.5908 -2.0465 0.9786
4.4352 -2.6166 -2.1076 0.9780
4.9338 -0.8752 -2.0508 0.9786
5.0463 -0.4361 -2.0730 0.9783
5.1183 0.0162 -2.0948 0.9781
5.0735 1.4109 -2.1552 0.9775
4.8164 2.3264 -2.1891 0.9771
4.3791 3.1840 -2.2159 0.9769
4.0964 3.5786 -2.2262 0.9768
2.6054 4.8227 -2.2434 0.9766
2.1627 5.0315 -2.2414 0.9766
1.7017 5.1940 -2.2369 0.9767
0.4020 2.8967 -1.1969 0.9874
-0.6917 5.2822 -2.1803 0.9772
-1.1512 5.1586 -2.1632 0.9774
-2.0136 4.7856 -2.1250 0.9778
-4.1135 2.5051 -1.9712 0.9794
-4.2731 2.1045 -1.9495 0.9796
-4.7360 1.8275 -2.0776 0.9783
-1.9553 -0.1539 -0.8027 0.9916
-4.2565 -1.9830 -1.9219 0.9799
-4.0406 -2.3422 -1.9115 0.9800
-3.7979 -2.6810 -1.9026 0.9801
-3.5300 -2.9978 -1.8954 0.9802
-3.2388 -3.2911 -1.8898 0.9802
-2.9261 -3.5596 -1.8859 0.9803
-2.5936 -3.8019 -1.8836 0.9803
-2.2432 -4.0169 -1.8830 0.9803
-1.4964 -4.3603 -1.8867 0.9803
-0.7012 -4.5818 -1.8971 0.9802
0.9661 -4.6330 -1.9370 0.9798
2.6089 -4.1336 -2.0006 0.9791
3.3673 -3.6750 -2.0400 0.9787
3.7202 -3.3949 -2.0613 0.9785
4.0515 -3.0822 -2.0835 0.9782
4.3501 -2.7332 -2.1026 0.9780
4.3023 -2.1942 -1.9766 0.9793
2.3240 -0.9344 -1.0252 0.9892
4.7283 -1.4260 -2.0213 0.9789
5.1002 -0.1266 -2.0880 0.9782
5.1426 0.7977 -2.1299 0.9778
5.0971 1.2650 -2.1494 0.9776
4.6862 2.6295 -2.1992 0.9770
4.1893 3.4580 -2.2232 0.9768
3.8791 3.8330 -2.2319 0.9767
3.1130 4.4289 -2.2156 0.9769
2.7394 4.7481 -2.2435 0.9766
0.4908 2.9318 -1.2166 0.9872
0.4133 5.3915 -2.2131 0.9769
-1.8845 4.8544 -2.1313 0.9777
-2.6643 4.3551 -2.0895 0.9782
-3.3241 3.7314 -2.0453 0.9786
-3.6038 3.3823 -2.0228 0.9789
-4.0560 2.6283 -1.9781 0.9793
-4.6942 1.9640 -2.0826 0.9782
-4.8045 1.5226 -2.0627 0.9785
-4.8702 1.0765 -2.0414 0.9787
-1.9515 0.2515 -0.8053 0.9915
-1.9413 -0.0982 -0.7955 0.9916
-1.9464 -0.2741 -0.8045 0.9915
-4.6440 -1.0838 -1.9517 0.9796
-4.3183 -1.8666 -1.9254 0.9799
-2.6997 -3.7289 -1.8842 0.9803
-1.2279 -4.4505 -1.8895 0.9802
-0.8282 -4.5555 -1.8950 0.9802
-0.0053 -4.6688 -1.9108 0.9800
0.4136 -4.6757 -1.9211 0.9799
1.6714 -4.4906 -1.9611 0.9795
2.4851 -4.1929 -1.9948 0.9792
2.8762 -3.9916 -2.0136 0.9790
3.2528 -3.7558 -2.0335 0.9788
3.9503 -3.1835 -2.0764 0.9783
4.2620 -2.8473 -2.0978 0.9781
4.2244 -2.3056 -1.9697 0.9794
4.6703 -1.5523 -2.0142 0.9790
4.8437 -1.1419 -2.0367 0.9787
4.9804 -0.7128 -2.0591 0.9785
5.1344 0.1878 -2.1028 0.9780
5.1162 1.1187 -2.1434 0.9776
4.7482 2.4922 -2.1947 0.9771
4.2783 3.3346 -2.2200 0.9768
3.2343 4.3383 -2.2147 0.9769
1.4744 3.7727 -1.6578 0.9826
1.5257 5.2425 -2.2346 0.9767
1.0481 5.3390 -2.2268 0.9768
0.2898 2.7634 -1.1372 0.9881
-0.3969 5.3366 -2.1902 0.9771
-2.9054 4.1534 -2.0745 0.9783
-3.2295 3.8360 -2.0523 0.9786
-4.1775 2.3565 -1.9630 0.9795
-4.6486 2.0996 -2.0876 0.9782
-4.7759 1.6619 -2.0696 0.9784
-4.8538 1.2162 -2.0480 0.9786
-2.0169 0.3175 -0.8356 0.9912
-1.9199 -0.0433 -0.7860 0.9917
-1.9561 -0.2199 -0.8056 0.9915
-4.3773 -1.7484 -1.9292 0.9798
-3.9529 -2.4713 -1.9080 0.9801
-3.7006 -2.8021 -1.8998 0.9801
-2.8041 -3.6533 -1.8849 0.9803
-2.4646 -3.8855 -1.8832 0.9803
-1.3510 -4.4112 -1.8882 0.9803
-0.5486 -4.6091 -1.8997 0.9801
0.2821 -4.6771 -1.9177 0.9800
1.5413 -4.5246 -1.9563 0.9796
1.9546 -4.4042 -1.9721 0.9794
2.3602 -4.2487 -1.9892 0.9792
2.7551 -4.0584 -2.0076 0.9790
3.1366 -3.8333 -2.0272 0.9788
3.5015 -3.5742 -2.0478 0.9786
3.8467 -3.2818 -2.0695 0.9784
4.1691 -2.9571 -2.0919 0.9782
4.4513 -2.5937 -2.1085 0.9780
4.3914 -2.0579 -1.9849 0.9793
4.6089 -1.6764 -2.0072 0.9790
4.9417 -0.8490 -2.0521 0.9786
5.0518 -0.4090 -2.0744 0.9783
5.1482 0.5058 -2.1172 0.9779
5.1309 0.9724 -2.1373 0.9777
4.9600 1.9011 -2.1740 0.9773
4.8058 2.3534 -2.1901 0.9771
4.6064 2.7910 -2.2043 0.9770
4.3632 3.2087 -2.2166 0.9769
4.0780 3.6017 -2.2268 0.9768
3.7534 3.9651 -2.2346 0.9767
3.3634 4.2574 -2.2206 0.9768
3.0000 4.5863 -2.2430 0.9766
1.1599 -4.3335 -1.9551 0.9806
1.5530 -4.2427 -1.9690 0.9805
1.9404 -4.1189 -1.9843 0.9803
2.6872 -3.7722 -2.0185 0.9800
3.3782 -3.2961 -2.0570 0.9796
3.6955 -3.0113 -2.0776 0.9794
3.9522 -2.1850 -1.9681 0.9805
2.3121 -1.0205 -1.1014 0.9890
4.6569 -0.6923 -2.0519 0.9797
4.7474 -0.2767 -2.0725 0.9795
4.8110 0.5826 -2.1120 0.9791
4.7813 1.0184 -2.1305 0.9789
4.7094 1.4528 -2.1479 0.9787
4.5950 1.8812 -2.1639 0.9786
4.4383 2.2990 -2.1784 0.9784
4.0018 3.0845 -2.2020 0.9782
3.7255 3.4431 -2.2108 0.9781
2.6965 4.3327 -2.2241 0.9780
2.2989 4.5556 -2.2239 0.9780
1.4475 4.8754 -2.2165 0.9781
-0.3433 4.9807 -2.1758 0.9785
-0.7811 4.8967 -2.1610 0.9786
-1.6134 4.6065 -2.1272 0.9789
-2.6997 3.9042 -2.0687 0.9795
-3.2832 3.2944 -2.0270 0.9799
-2.3712 1.9880 -1.3485 0.9866
-4.0554 1.8582 -1.9441 0.9807
-1.5492 0.3971 -0.6970 0.9930
-1.5079 0.2458 -0.6658 0.9934
-1.5258 -0.0262 -0.6651 0.9934
-1.5250 -0.1630 -0.6684 0.9933
-1.5056 -0.2987 -0.6690 0.9933
-1.5705 -0.4605 -0.7132 0.9929
-4.1435 -1.6290 -1.9403 0.9808
-3.9592 -1.9811 -1.9295 0.9809
-3.7483 -2.3152 -1.9200 0.9810
-2.9713 -3.1932 -1.9009 0.9811
-2.6699 -3.4397 -1.8977 0.9812
-2.3501 -3.6610 -1.8960 0.9812
-2.0139 -3.8559 -1.8959 0.9812
-1.6631 -4.0234 -1.8974 0.9812
-0.9251 -4.2722 -1.9051 0.9811
-0.5419 -4.3518 -1.9112 0.9810
-0.1520 -4.4005 -1.9189 0.9810
0.2425 -4.4176 -1.9282 0.9809
0.6393 -4.4026 -1.9389 0.9808
1.0361 -4.3551 -1.9510 0.9807
1.8199 -4.1612 -1.9794 0.9804
2.5734 -3.8352 -2.0128 0.9800
2.9320 -3.6231 -2.0313 0.9799
4.1642 -2.4567 -2.1071 0.9791
4.1083 -1.9524 -1.9824 0.9803
4.3111 -1.5946 -2.0033 0.9801
4.6209 -0.8197 -2.0453 0.9797
4.8117 0.4465 -2.1060 0.9791
4.0806 2.9670 -2.1988 0.9782
3.5150 3.6731 -2.2157 0.9781
2.4258 4.4902 -2.2242 0.9780
2.0137 4.6849 -2.2224 0.9780
1.5846 4.8368 -2.2182 0.9780
0.4044 2.9145 -1.2823 0.9872
0.2440 5.0252 -2.1926 0.9783
-0.2042 4.9982 -2.1801 0.9784
-1.0745 4.8148 -2.1500 0.9787
-1.4879 4.6621 -2.1328 0.9789
-1.8817 4.4719 -2.1145 0.9791
-2.9140 3.7057 -2.0545 0.9796
-3.2002 3.3960 -2.0336 0.9798
-3.4543 3.0648 -2.0126 0.9801
-3.8622 2.3520 -1.9708 0.9805
-4.4482 1.7165 -2.0779 0.9794
-1.5000 0.2878 -0.6656 0.9934
-1.5262 0.1534 -0.6685 0.9933
-1.5959 -0.5764 -0.7395 0.9926
-4.0199 -1.8727 -1.9327 0.9808
-3.8171 -2.2126 -1.9228 0.9809
-3.5887 -2.5333 -1.9145 0.9810
-2.7663 -3.3652 -1.8985 0.9812
-1.4146 -4.1221 -1.8993 0.9812
-1.0434 -4.2411 -1.9034 0.9811
-0.6627 -4.3302 -1.9091 0.9811
0.1186 -4.4157 -1.9251 0.9809
0.5149 -4.4108 -1.9354 0.9808
0.9120 -4.3735 -1.9470 0.9807
1.6986 -4.2003 -1.9746 0.9804
2.0831 -4.0641 -1.9903 0.9803
2.4583 -3.8949 -2.0073 0.9801
2.8213 -3.6930 -2.0254 0.9799
3.4993 -3.1932 -2.0646 0.9795
4.0387 -2.0598 -1.9759 0.9804
4.6951 -0.5384 -2.0596 0.9796
4.8084 0.3108 -2.1000 0.9792
4.8048 0.7453 -2.1191 0.9790
4.6716 1.6138 -2.1540 0.9787
4.5413 2.0388 -2.1695 0.9785
4.3690 2.4515 -2.1834 0.9784
3.6130 3.5700 -2.2136 0.9781
2.5505 4.4207 -2.2243 0.9780
2.1448 4.6284 -2.2232 0.9780
1.3569 3.7808 -1.7506 0.9826
0.8358 4.9927 -2.2062 0.9782
-0.5082 4.9543 -2.1705 0.9785
-1.3604 4.7141 -2.1383 0.9788
-1.7607 4.5354 -2.1203 0.9790
-2.4924 4.0741 -2.0814 0.9794
-3.1139 3.4954 -2.0402 0.9798
-3.3783 3.1706 -2.0192 0.9800
-2.4150 1.8911 -1.3368 0.9867
-3.8074 2.4672 -1.9773 0.9804
-3.9707 2.0956 -1.9567 0.9806
-4.4083 1.8444 -2.0826 0.9794
-1.5814 0.5012 -0.7230 0.9928
-1.5241 0.3369 -0.6803 0.9932
-1.5198 0.1959 -0.6678 0.9933
-1.5287 0.0594 -0.6667 0.9933
-1.5294 -0.0774 -0.6674 0.9933
-1.5161 -0.2135 -0.6673 0.9933
-1.5334 -0.3579 -0.6863 0.9932
-3.6629 -2.4351 -1.9169 0.9810
-3.1499 -3.0265 -1.9038 0.9811
-2.8609 -3.2882 -1.8995 0.9812
-1.8844 -3.9218 -1.8963 0.9812
-1.5286 -4.0788 -1.8983 0.9812
-0.0050 -4.4106 -1.9222 0.9809
0.7877 -4.3887 -1.9432 0.9807
1.1839 -4.3289 -1.9559 0.9806
2.3420 -3.9514 -2.0018 0.9802
2.7091 -3.7597 -2.0196 0.9800
3.3980 -3.2797 -2.0582 0.9796
3.9665 -2.1649 -1.9694 0.9805
2.3042 -1.0021 -1.0951 0.9891
4.5385 -1.0700 -2.0322 0.9799
4.8011 0.1756 -2.0938 0.9793
4.7037 1.4789 -2.1489 0.9787
4.2268 2.7255 -2.1918 0.9783
3.0476 4.0878 -2.2222 0.9780
2.2740 4.5678 -2.2238 0.9780
-1.6375 4.5953 -2.1261 0.9789
-2.0231 4.3918 -2.1073 0.9791
-2.3846 4.1547 -2.0877 0.9793
-2.7192 3.8872 -2.0675 0.9795
-3.0246 3.5927 -2.0467 0.9797
-2.5687 1.7685 -1.3592 0.9865
-4.0628 1.8350 -1.9429 0.9807
-1.5924 0.5541 -0.7348 0.9927
-1.5454 0.3872 -0.6943 0.9931
-1.5101 0.2377 -0.6662 0.9934
-1.5295 0.1023 -0.6681 0.9933
-1.5104 -0.3082 -0.6718 0.9933
-1.5734 -0.4706 -0.7157 0.9929
-4.1331 -1.6508 -1.9396 0.9808
-3.9472 -2.0019 -1.9288 0.9809
-3.2362 -2.9398 -1.9054 0.9811
-2.9535 -3.2089 -1.9007 0.9812
-2.3302 -3.6736 -1.8959 0.9812
-1.9931 -3.8669 -1.8959 0.9812
-1.6414 -4.0327 -1.8975 0.9812
-0.9021 -4.2779 -1.9054 0.9811
0.2665 -4.4176 -1.9288 0.9809
0.6634 -4.4007 -1.9396 0.9808
1.0601 -4.3512 -1.9518 0.9806
1.8433 -4.1533 -1.9803 0.9804
2.2246 -4.0047 -1.9965 0.9802
2.5955 -3.8232 -2.0139 0.9800
3.9178 -2.7789 -2.0934 0.9793
4.1792 -2.4351 -2.1080 0.9791
4.1214 -1.9314 -1.9836 0.9803
4.4922 -1.1926 -2.0256 0.9799
4.6282 -0.7952 -2.0466 0.9797
4.7281 -0.3828 -2.0673 0.9795
4.8119 0.4728 -2.1072 0.9791
4.6279 1.7738 -2.1600 0.9786
4.2940 2.6017 -2.1881 0.9783
4.0657 2.9899 -2.1994 0.9782
3.7987 3.3550 -2.2088 0.9781
3.1592 3.9990 -2.2211 0.9780
2.7932 4.2702 -2.2238 0.9780
1.0970 -4.0984 -1.9639 0.9815
1.8336 -3.8923 -1.9916 0.9812
2.8696 -3.3498 -2.0417 0.9807
3.4832 -2.8383 -2.0798 0.9804
3.7538 -2.5372 -2.0972 0.9802
4.2565 -1.0279 -2.0269 0.9809
4.4554 -0.2597 -2.0659 0.9805
4.5015 0.1402 -2.0847 0.9803
4.5099 0.5461 -2.1028 0.9802
4.3008 1.7607 -2.1511 0.9797
3.9654 2.5266 -2.1765 0.9795
3.7414 2.8837 -2.1866 0.9794
3.1900 3.5260 -2.2010 0.9793
2.8680 3.8037 -2.2051 0.9792
1.5028 3.7849 -1.8850 0.9822
1.3527 4.5562 -2.2000 0.9793
-0.3212 4.6601 -2.1622 0.9796
-1.5118 4.3162 -2.1169 0.9800
-1.8754 4.1298 -2.0995 0.9802
-2.2170 3.9117 -2.0812 0.9804
-2.8241 3.3916 -2.0429 0.9807
-3.0855 3.0960 -2.0233 0.9809
-2.4965 1.7388 -1.4082 0.9867
-3.6849 2.1050 -1.9644 0.9815
-1.3335 0.4721 -0.6548 0.9938
-1.3218 0.2154 -0.6199 0.9941
-1.3384 0.0968 -0.6211 0.9941
-1.3358 -0.0229 -0.6184 0.9941
-1.3352 -0.1427 -0.6215 0.9941
-1.3092 -0.2598 -0.6178 0.9941
-1.3300 -0.5229 -0.6615 0.9937
-3.7471 -1.8750 -1.9395 0.9817
