ply
format ascii 1.0
element vertex 1596
property float32 x
property float32 y
property float32 z
property float32 I
end_header
-4.6042 -5.0894 -1.7770 0.9720
-3.6130 -5.8050 -1.7704 0.9721
-3.0811 -6.1047 -1.7705 0.9721
-2.5277 -6.3642 -1.7730 0.9721
-1.9552 -6.5821 -1.7778 0.9720
-1.3657 -6.7572 -1.7849 0.9719
1.1152 -7.0046 -1.8365 0.9711
2.3925 -6.8387 -1.8759 0.9705
4.2841 -6.2016 -1.9516 0.9693
4.8929 -5.8820 -1.9810 0.9689
5.4835 -5.5079 -2.0123 0.9684
6.0512 -5.0792 -2.0455 0.9679
7.0963 -4.0597 -2.1168 0.9668
7.0180 -3.2213 -1.9994 0.9686
7.7503 -1.9927 -2.0720 0.9675
8.0384 -1.3164 -2.1090 0.9669
8.4300 0.1376 -2.1830 0.9658
8.5406 1.6867 -2.2540 0.9647
8.4798 2.4780 -2.2874 0.9642
7.7561 3.0408 -2.1570 0.9662
6.8192 3.4037 -1.9733 0.9690
5.3345 3.9851 -1.7240 0.9729
4.1474 4.4473 -1.5745 0.9752
3.6855 4.7369 -1.5540 0.9755
1.1835 3.7739 -1.0241 0.9838
1.2148 5.5744 -1.4772 0.9767
0.1022 2.8435 -0.7367 0.9883
-1.3413 5.6757 -1.5100 0.9762
-4.0554 7.4224 -2.1899 0.9657
-4.6225 6.9131 -2.1532 0.9662
-5.9640 5.1620 -2.0423 0.9679
-7.0576 4.1806 -2.1239 0.9667
-7.2747 3.4734 -2.0872 0.9672
-7.5292 0.6654 -1.9570 0.9693
-7.4513 -0.0088 -1.9293 0.9697
-7.3221 -0.6645 -1.9036 0.9701
-6.6541 -2.4932 -1.8398 0.9711
-6.3468 -3.0488 -1.8231 0.9713
-5.6206 -4.0678 -1.7964 0.9717
-5.2066 -4.5280 -1.7866 0.9719
-3.7882 -5.6944 -1.7708 0.9721
-3.2639 -6.0076 -1.7702 0.9721
-1.5673 -6.7027 -1.7823 0.9720
0.8998 -7.0130 -1.8307 0.9712
1.5366 -6.9720 -1.8485 0.9709
2.1758 -6.8811 -1.8686 0.9706
4.0744 -6.2977 -1.9421 0.9695
4.6882 -5.9965 -1.9708 0.9690
5.2856 -5.6409 -2.0015 0.9686
5.8616 -5.2307 -2.0341 0.9681
6.4112 -4.7660 -2.0684 0.9675
7.3920 -3.6679 -2.1366 0.9665
7.6401 -2.2130 -2.0595 0.9677
7.9471 -1.5499 -2.0964 0.9671
8.1964 -0.8496 -2.1336 0.9665
8.5094 2.2093 -2.2763 0.9643
8.1128 2.9004 -2.2308 0.9650
7.1229 3.2898 -2.0314 0.9681
6.2829 3.6141 -1.8767 0.9705
4.9178 4.1477 -1.6657 0.9738
3.8642 4.6678 -1.5690 0.9753
1.3774 5.5125 -1.4712 0.9768
0.8932 5.6966 -1.4930 0.9765
0.1785 2.6934 -0.6989 0.9889
-1.3373 6.5373 -1.7277 0.9728
-1.7302 5.7746 -1.5608 0.9754
-4.4367 7.0909 -2.1657 0.9660
-5.4335 5.9777 -2.0916 0.9672
-5.8402 5.3726 -2.0547 0.9677
-6.1848 4.7447 -2.0183 0.9683
-7.3832 3.0040 -2.0638 0.9676
-7.4958 2.2948 -2.0297 0.9681
-7.5484 1.5912 -1.9974 0.9686
-7.5435 0.8976 -1.9669 0.9691
-7.4836 0.2179 -1.9385 0.9695
-7.2100 -1.0864 -1.8879 0.9703
-6.1227 -3.3996 -1.8132 0.9715
-5.7536 -3.9041 -1.8003 0.9717
-5.3505 -4.3758 -1.7896 0.9718
-4.9158 -4.8131 -1.7813 0.9720
-2.9052 -6.1927 -1.7711 0.9721
-2.3454 -6.4389 -1.7743 0.9721
-1.7672 -6.6432 -1.7799 0.9720
-1.1727 -6.8042 -1.7877 0.9719
-0.5642 -6.9209 -1.7979 0.9717
0.0558 -6.9918 -1.8104 0.9715
0.6849 -7.0157 -1.8251 0.9713
1.3203 -6.9914 -1.8422 0.9710
2.5981 -6.7930 -1.8831 0.9704
5.0852 -5.7676 -1.9909 0.9687
5.6690 -5.3759 -2.0228 0.9682
6.2282 -4.9296 -2.0566 0.9677
2.3384 -0.9929 -0.6578 0.9896
7.5239 -2.4286 -2.0470 0.9679
7.8492 -1.7792 -2.0839 0.9673
8.5298 1.9409 -2.2650 0.9645
7.4383 3.1658 -2.0931 0.9671
6.5513 3.5089 -1.9242 0.9698
5.7948 3.8052 -1.7949 0.9718
5.1280 4.0657 -1.6944 0.9733
4.5268 4.2999 -1.6165 0.9745
3.9738 4.5146 -1.5572 0.9755
3.5188 4.8014 -1.5413 0.9757
2.9615 4.9058 -1.4837 0.9766
1.5388 5.4510 -1.4665 0.9769
0.0431 6.0183 -1.5583 0.9754
-0.5129 6.2278 -1.6179 0.9745
-2.9804 8.1610 -2.2495 0.9647
-3.6388 7.7398 -2.2144 0.9653
-4.7927 6.7398 -2.1413 0.9664
-5.7093 5.5806 -2.0671 0.9676
-6.0749 4.9597 -2.0305 0.9681
-2.5962 1.7585 -0.8119 0.9871
3.3332 4.8655 -1.6696 0.9758
1.3074 3.7843 -1.1335 0.9835
1.3676 5.5090 -1.6069 0.9767
0.4754 3.0624 -0.8773 0.9872
-0.7210 6.2979 -1.7945 0.9740
-2.9112 7.2473 -2.2110 0.9681
-4.5169 5.9424 -2.1131 0.9694
-5.6486 4.3196 -2.0131 0.9709
-6.6008 3.3880 -2.1004 0.9696
-6.7697 2.7423 -2.0677 0.9701
-6.9379 1.4514 -2.0066 0.9710
-6.8930 0.1901 -1.9521 0.9717
-6.7962 -0.4202 -1.9276 0.9721
-6.6530 -1.0129 -1.9051 0.9724
-5.9688 -2.6588 -1.8498 0.9732
-5.3243 -3.6247 -1.8234 0.9736
-4.9525 -4.0629 -1.8134 0.9737
-4.5506 -4.4692 -1.8056 0.9738
-4.1209 -4.8422 -1.8000 0.9739
-3.1865 -5.4830 -1.7953 0.9740
-2.6860 -5.7483 -1.7962 0.9740
-2.1662 -5.9752 -1.7993 0.9739
-1.6292 -6.1626 -1.8045 0.9738
-1.0774 -6.3092 -1.8119 0.9737
0.0616 -6.4755 -1.8333 0.9734
0.6439 -6.4930 -1.8471 0.9732
2.4089 -6.2697 -1.9014 0.9725
2.9931 -6.1001 -1.9236 0.9721
3.5696 -5.8817 -1.9477 0.9718
4.6840 -5.2962 -2.0016 0.9710
5.2136 -4.9289 -2.0311 0.9706
6.1945 -4.0467 -2.0947 0.9697
6.6281 -3.5298 -2.1259 0.9693
2.3310 -0.9856 -0.7164 0.9895
6.8621 -2.2034 -2.0403 0.9705
7.1464 -1.6084 -2.0737 0.9700
7.3789 -0.9800 -2.1072 0.9695
7.6695 0.3577 -2.1735 0.9686
7.7190 1.0558 -2.2056 0.9681
7.7000 1.7645 -2.2363 0.9677
6.5272 3.5088 -2.0979 0.9697
5.7742 3.8044 -1.9575 0.9717
4.5110 4.2980 -1.7639 0.9744
3.9596 4.5124 -1.6995 0.9754
3.5056 4.7988 -1.6824 0.9756
2.9496 4.9031 -1.6198 0.9765
2.0004 5.2676 -1.5951 0.9768
0.2657 2.7902 -0.7935 0.9884
0.0338 6.0141 -1.7026 0.9753
-0.5221 6.2233 -1.7680 0.9744
-2.7032 7.3670 -2.2215 0.9679
-3.3023 6.9961 -2.1901 0.9684
-3.8551 6.5746 -2.1576 0.9688
-4.3582 6.1090 -2.1244 0.9693
-4.8087 5.6060 -2.0909 0.9698
-5.2049 5.0721 -2.0574 0.9702
-6.7189 2.9616 -2.0787 0.9699
-6.8498 2.3144 -2.0468 0.9704
-6.9149 0.4005 -1.9608 0.9716
-6.8343 -0.2151 -1.9357 0.9720
-6.7066 -0.8141 -1.9125 0.9723
-6.3190 -1.9509 -1.8722 0.9729
-6.0639 -2.4839 -1.8551 0.9731
-5.7712 -2.9906 -1.8401 0.9733
-5.0820 -3.9179 -1.8166 0.9737
-4.6901 -4.3351 -1.8080 0.9738
-4.2696 -4.7196 -1.8017 0.9739
-3.3514 -5.3846 -1.7955 0.9740
-2.3444 -5.9026 -1.7980 0.9739
-1.2660 -6.2641 -1.8092 0.9738
-0.7056 -6.3831 -1.8180 0.9737
-0.1342 -6.4595 -1.8290 0.9735
0.4458 -6.4921 -1.8422 0.9733
1.0317 -6.4798 -1.8575 0.9731
1.6206 -6.4215 -1.8749 0.9728
2.2097 -6.3162 -1.8943 0.9726
3.9446 -5.7102 -1.9647 0.9716
4.4998 -5.4095 -1.9919 0.9712
5.0365 -5.0590 -2.0209 0.9708
6.0367 -4.2099 -2.0835 0.9699
6.4091 -2.9418 -1.9964 0.9711
6.7549 -2.3969 -2.0291 0.9706
7.0556 -1.8140 -2.0623 0.9702
7.3061 -1.1965 -2.0959 0.9697
7.5017 -0.5486 -2.1294 0.9692
7.6377 0.1247 -2.1625 0.9687
7.7098 0.8176 -2.1948 0.9683
7.6484 2.2350 -2.2558 0.9674
7.5099 2.9442 -2.2835 0.9670
6.0181 3.7087 -2.0012 0.9710
4.7080 4.2213 -1.7901 0.9741
3.6809 4.7310 -1.6969 0.9754
3.1716 4.9279 -1.6590 0.9759
2.6324 5.0252 -1.6060 0.9767
1.1792 3.7602 -1.1156 0.9838
0.0977 2.7203 -0.7706 0.9887
-5.0768 5.2562 -2.0687 0.9701
-5.7403 4.1338 -2.0026 0.9710
-6.8118 2.5339 -2.0575 0.9702
-6.9055 1.8874 -2.0266 0.9707
-6.9310 0.6125 -1.9698 0.9715
-6.8671 -0.0081 -1.9440 0.9719
-6.7551 -0.6131 -1.9202 0.9722
-6.5974 -1.1994 -1.8983 0.9725
-6.3965 -1.7645 -1.8784 0.9728
-5.2080 -3.7692 -1.8200 0.9736
-4.8263 -4.1973 -1.8107 0.9738
-4.4152 -4.5930 -1.8036 0.9739
-3.5137 -5.2819 -1.7959 0.9740
-2.5206 -5.8256 -1.7969 0.9740
-1.4531 -6.2143 -1.8067 0.9738
-0.3290 -6.4385 -1.8251 0.9736
0.2484 -6.4860 -1.8375 0.9734
2.0102 -6.3572 -1.8875 0.9727
2.5976 -6.2204 -1.9083 0.9724
4.8569 -5.1834 -2.0109 0.9709
6.9590 -2.0157 -2.0510 0.9703
7.2271 -1.4095 -2.0845 0.9699
7.4419 -0.7714 -2.1180 0.9694
7.5985 -0.1061 -2.1513 0.9689
7.6788 1.9936 -2.2459 0.9676
7.5650 2.7046 -2.2744 0.9672
6.2733 3.6085 -2.0488 0.9704
5.5520 3.8914 -1.9194 0.9722
3.8593 4.6619 -1.7133 0.9752
3.3418 4.8622 -1.6702 0.9758
2.7945 4.9628 -1.6124 0.9766
1.3174 3.7944 -1.1371 0.9834
1.3757 5.5059 -1.6066 0.9767
0.4816 3.0714 -0.8801 0.9872
0.1771 2.6722 -0.7581 0.9889
-0.1407 6.0798 -1.7216 0.9750
-0.7108 6.2941 -1.7931 0.9740
-1.3354 6.5281 -1.8863 0.9727
-3.4855 6.8656 -2.1797 0.9685
-4.9423 5.4372 -2.0801 0.9699
-5.6435 4.3295 -2.0136 0.9709
-6.7673 2.7534 -2.0683 0.9701
-6.9373 1.4624 -2.0071 0.9710
-6.9414 0.8259 -1.9789 0.9714
-6.6558 -1.0029 -1.9055 0.9724
-6.4693 -1.5755 -1.8849 0.9727
-6.2411 -2.1252 -1.8664 0.9730
-5.9737 -2.6500 -1.8500 0.9732
-5.6693 -3.1478 -1.8357 0.9734
-4.9591 -4.0557 -1.8136 0.9737
-4.5578 -4.4625 -1.8058 0.9738
-4.1285 -4.8361 -1.8001 0.9739
-3.6735 -5.1751 -1.7966 0.9740
-3.1948 -5.4781 -1.7953 0.9740
-2.1752 -5.9716 -1.7992 0.9739
-1.6386 -6.1597 -1.8044 0.9739
-1.0870 -6.3070 -1.8118 0.9737
-0.5227 -6.4124 -1.8213 0.9736
0.6339 -6.4931 -1.8469 0.9732
2.3989 -6.2722 -1.9010 0.9725
2.9832 -6.1034 -1.9232 0.9722
3.5598 -5.8858 -1.9473 0.9718
4.1250 -5.6188 -1.9733 0.9714
4.6748 -5.3021 -2.0011 0.9710
5.2047 -4.9356 -2.0306 0.9706
6.8568 -2.2133 -2.0397 0.9705
7.1419 -1.6188 -2.0731 0.9700
7.3753 -0.9910 -2.1067 0.9695
7.7009 1.7523 -2.2358 0.9677
7.6118 2.4640 -2.2649 0.9673
7.4256 3.1604 -2.2846 0.9670
6.5410 3.5033 -2.1006 0.9696
5.7863 3.7996 -1.9597 0.9716
5.1208 4.0601 -1.8500 0.9732
2.9579 4.8999 -1.6203 0.9765
2.4796 5.0839 -1.6013 0.9768
1.0795 3.8238 -1.1248 0.9836
-1.1165 6.4461 -1.8520 0.9732
-3.2924 7.0029 -2.1906 0.9683
-4.8015 5.6149 -2.0915 0.9698
-2.5994 1.7607 -0.8888 0.9870
-0.1499 6.0754 -1.8692 0.9749
-2.6530 6.6044 -2.1892 0.9707
-3.6834 5.8670 -2.1307 0.9714
-4.1325 5.4366 -2.1004 0.9718
-5.1887 3.9680 -2.0091 0.9730
-2.6213 1.6564 -0.9537 0.9871
-6.0702 3.1157 -2.0986 0.9718
-6.4122 1.3414 -2.0150 0.9730
-6.4219 0.7542 -1.9888 0.9733
-6.3839 0.1761 -1.9643 0.9736
-6.3001 -0.3895 -1.9415 0.9739
-6.1726 -0.9397 -1.9204 0.9742
-6.0035 -1.4718 -1.9012 0.9745
-5.5494 -2.4720 -1.8686 0.9749
-5.2687 -2.9360 -1.8552 0.9751
-3.4148 -4.8263 -1.8185 0.9756
-2.5023 -5.3553 -1.8181 0.9756
-2.0178 -5.5661 -1.8210 0.9755
-0.4774 -5.9696 -1.8420 0.9752
0.0573 -6.0244 -1.8530 0.9751
2.2353 -5.8178 -1.9170 0.9743
3.3065 -5.4481 -1.9602 0.9737
4.3300 -4.8959 -2.0103 0.9730
5.2743 -4.1615 -2.0664 0.9723
5.7062 -3.7277 -2.0964 0.9719
2.3282 -0.9844 -0.7775 0.9895
6.5486 -1.4738 -2.0646 0.9723
6.9041 -0.2951 -2.1255 0.9715
6.9997 0.3265 -2.1553 0.9711
6.9195 2.2516 -2.2381 0.9700
6.5168 3.5032 -2.2757 0.9695
5.1029 4.0586 -2.0055 0.9731
4.5050 4.2923 -1.9139 0.9743
3.9545 4.5066 -1.8441 0.9752
2.4685 5.0808 -1.7374 0.9766
1.9980 5.2612 -1.7310 0.9767
0.2662 2.7948 -0.8635 0.9883
-0.5214 6.2149 -1.9183 0.9742
-1.5194 5.6579 -1.8019 0.9758
-2.4624 6.7107 -2.1986 0.9705
-3.5207 6.0043 -2.1409 0.9713
-3.9855 5.5866 -2.1108 0.9717
-4.4034 5.1335 -2.0803 0.9721
-4.7727 4.6509 -2.0497 0.9725
-5.0919 4.1442 -2.0193 0.9729
-6.1930 2.7298 -2.0817 0.9721
-6.3212 2.1358 -2.0523 0.9725
-6.3335 -0.1994 -1.9490 0.9738
-5.8700 -1.8123 -1.8896 0.9746
-5.3677 -2.7815 -1.8595 0.9750
-4.7309 -3.6472 -1.8373 0.9753
-3.5612 -4.7230 -1.8194 0.9755
-1.6887 -5.6849 -1.8241 0.9755
-1.1789 -5.8330 -1.8304 0.9754
-0.6568 -5.9418 -1.8387 0.9753
1.5053 -5.9646 -1.8921 0.9746
4.1611 -5.0024 -2.0014 0.9731
5.1213 -4.2987 -2.0565 0.9724
5.5632 -3.8797 -2.0861 0.9720
5.9729 -3.4170 -2.1165 0.9716
5.8913 -2.7041 -1.9938 0.9732
6.4683 -1.6631 -2.0542 0.9724
6.6890 -1.0955 -2.0848 0.9720
6.8588 -0.5016 -2.1152 0.9716
6.9738 0.1139 -2.1453 0.9712
7.0305 0.7456 -2.1745 0.9708
7.0258 1.3875 -2.2027 0.9705
6.9575 2.0331 -2.2295 0.9701
6.6244 3.3065 -2.2772 0.9695
5.3193 3.9738 -2.0423 0.9726
4.1367 4.4358 -1.8656 0.9749
3.1677 4.9218 -1.8003 0.9758
2.1572 5.2002 -1.7316 0.9767
0.1016 2.8294 -0.8708 0.9882
-0.3284 6.1425 -1.8920 0.9746
-0.9144 6.3621 -1.9770 0.9735
-2.8299 6.4982 -2.1800 0.9708
-3.3530 6.1368 -2.1509 0.9712
-3.8330 5.7324 -2.1210 0.9716
-4.2671 5.2907 -2.0906 0.9720
-4.6530 4.8175 -2.0601 0.9724
-4.9893 4.3184 -2.0296 0.9728
-5.2753 3.7989 -1.9995 0.9732
-6.2836 2.3374 -2.0621 0.9723
-6.3775 1.7431 -2.0335 0.9727
-6.4207 1.1516 -2.0064 0.9731
-6.4148 0.5669 -1.9807 0.9734
-6.1226 -1.1131 -1.9140 0.9743
-5.9406 -1.6388 -1.8954 0.9745
-5.7199 -2.1431 -1.8788 0.9748
-4.4939 -3.9082 -1.8318 0.9754
-4.1123 -4.2778 -1.8251 0.9755
-3.2736 -4.9209 -1.8179 0.9756
-2.8207 -5.1917 -1.8173 0.9756
-0.3062 -5.9917 -1.8453 0.9752
1.3200 -5.9892 -1.8864 0.9747
1.8663 -5.9021 -1.9040 0.9744
2.4097 -5.7705 -1.9234 0.9742
2.9472 -5.5938 -1.9447 0.9739
5.4167 -4.0267 -2.0760 0.9721
2.3503 -0.9150 -0.7757 0.9895
6.3827 -1.8488 -2.0439 0.9726
6.6197 -1.2911 -2.0744 0.9722
7.0344 1.1691 -2.1933 0.9706
6.9879 1.8143 -2.2206 0.9702
6.2635 3.6029 -2.2225 0.9702
4.9043 4.1363 -1.9733 0.9735
3.8544 4.6559 -1.8591 0.9750
2.2972 5.0961 -1.7193 0.9769
0.1765 2.6632 -0.8209 0.9889
-0.7098 6.2855 -1.9456 0.9739
-1.7232 5.7511 -1.8466 0.9752
-2.6435 6.6100 -2.1896 0.9706
-3.1803 6.2645 -2.1609 0.9710
-5.1840 3.9770 -2.0096 0.9730
-2.6184 1.6602 -0.9536 0.9871
-6.0666 3.1255 -2.0990 0.9718
-6.3514 1.9445 -2.0431 0.9726
-6.4222 0.7642 -1.9893 0.9733
-6.1751 -0.9304 -1.9208 0.9742
-5.5539 -2.4638 -1.8688 0.9749
-4.9608 -3.3662 -1.8440 0.9752
-3.8457 -4.5048 -1.8218 0.9755
-3.4223 -4.8212 -1.8185 0.9756
-2.0263 -5.5628 -1.8210 0.9755
-1.5261 -5.7368 -1.8259 0.9755
0.0481 -6.0238 -1.8528 0.9751
0.5894 -6.0376 -1.8658 0.9749
2.2260 -5.8202 -1.9166 0.9743
3.2975 -5.4521 -1.9598 0.9737
3.8173 -5.1996 -1.9840 0.9734
4.8060 -4.5575 -2.0372 0.9727
5.6990 -3.7355 -2.0959 0.9719
6.0881 -3.2542 -2.1233 0.9715
6.2919 -2.0309 -2.0336 0.9727
6.7494 -0.9069 -2.0946 0.9719
6.9986 0.3157 -2.1548 0.9711
7.0109 1.5953 -2.2115 0.9704
6.7668 2.8800 -2.2620 0.9697
6.5306 3.4978 -2.2786 0.9695
5.7777 3.7940 -2.1260 0.9715
5.1137 4.0544 -2.0072 0.9731
4.5148 4.2885 -1.9153 0.9743
3.5100 4.7894 -1.8264 0.9755
2.9543 4.8939 -1.7583 0.9764
1.0564 5.6199 -1.7588 0.9764
0.2706 2.7960 -0.8640 0.9883
0.0430 6.0029 -1.8464 0.9752
-1.1149 6.4371 -2.0094 0.9730
-1.5096 5.6557 -1.8005 0.9758
-2.4527 6.7159 -2.1991 0.9705
-4.7667 4.6594 -2.0502 0.9725
2.2864 5.0929 -1.8557 0.9767
1.2856 3.7210 -1.3086 0.9835
0.1727 2.6669 -0.8883 0.9888
-0.1496 6.0674 -2.0174 0.9747
-0.7190 6.2807 -2.1014 0.9737
-3.3869 5.3947 -2.1174 0.9735
-3.8043 5.0048 -2.0897 0.9738
-4.1788 4.5832 -2.0617 0.9742
-4.7931 3.6654 -2.0057 0.9749
-2.6208 1.6560 -1.0305 0.9870
-5.8939 1.7945 -2.0480 0.9744
-5.9548 1.2457 -2.0222 0.9747
-5.9693 0.7010 -1.9979 0.9750
-5.7515 -0.8756 -1.9338 0.9758
-5.5977 -1.3723 -1.9158 0.9760
-4.3095 -3.5354 -1.8529 0.9768
-3.9620 -3.8912 -1.8459 0.9769
-3.1934 -4.5134 -1.8378 0.9770
-2.3401 -5.0082 -1.8375 0.9770
-1.4186 -5.3659 -1.8449 0.9769
-0.9376 -5.4906 -1.8515 0.9768
0.5590 -5.6364 -1.8828 0.9764
1.5765 -5.5345 -1.9129 0.9760
2.0830 -5.4215 -1.9306 0.9758
3.0766 -5.0693 -1.9711 0.9753
3.5570 -4.8295 -1.9938 0.9750
4.0217 -4.5473 -2.0179 0.9747
4.4671 -4.2231 -2.0434 0.9744
5.2839 -3.4519 -2.0980 0.9737
5.6340 -3.0004 -2.1218 0.9735
5.8110 -1.8659 -2.0287 0.9746
6.0366 -1.3586 -2.0568 0.9743
6.2173 -0.8258 -2.0848 0.9739
6.3497 -0.2714 -2.1126 0.9736
6.4303 0.2999 -2.1398 0.9732
6.4565 0.8831 -2.1662 0.9729
6.1884 2.6451 -2.2371 0.9720
5.9805 3.2149 -2.2570 0.9718
5.0957 4.0529 -2.1643 0.9729
4.4989 4.2865 -2.0656 0.9741
3.4340 4.7008 -1.9351 0.9758
0.2671 2.8043 -0.9364 0.9882
0.0337 5.9985 -1.9940 0.9750
-0.5207 6.2065 -2.0703 0.9741
-3.6675 5.1408 -2.0991 0.9737
-4.0567 4.7293 -2.0712 0.9741
-4.4020 4.2897 -2.0431 0.9744
-4.7019 3.8268 -2.0152 0.9748
-2.6043 1.7581 -1.0445 0.9868
-5.7331 2.5271 -2.0826 0.9739
-5.8625 1.9809 -2.0570 0.9743
-5.9695 0.8850 -2.0060 0.9749
-5.9543 0.3449 -1.9825 0.9752
-5.7947 -0.7034 -1.9403 0.9757
-5.6541 -1.2059 -1.9217 0.9759
-4.0828 -3.7738 -1.8481 0.9768
-3.7184 -4.1103 -1.8424 0.9769
-3.3302 -4.4166 -1.8387 0.9770
-2.9200 -4.6915 -1.8369 0.9770
-2.0423 -5.1420 -1.8391 0.9769
-1.5789 -5.3153 -1.8431 0.9769
-0.1166 -5.6146 -1.8667 0.9766
0.3871 -5.6376 -1.8784 0.9765
1.4040 -5.5633 -1.9073 0.9761
1.9118 -5.4645 -1.9244 0.9759
2.9108 -5.1410 -1.9638 0.9754
3.8661 -4.6477 -2.0096 0.9748
5.5232 -3.1598 -2.1152 0.9735
5.7250 -2.0315 -2.0193 0.9747
6.1613 -1.0090 -2.0753 0.9740
6.4539 0.6844 -2.1573 0.9730
6.4428 1.2724 -2.1830 0.9727
6.3737 1.8625 -2.2073 0.9724
5.3117 3.9681 -2.2039 0.9724
4.6951 4.2097 -2.0962 0.9738
4.1312 4.4299 -2.0135 0.9748
2.1545 5.1939 -1.8691 0.9766
0.0962 2.6772 -0.8905 0.9888
-1.3391 5.6663 -1.9354 0.9758
-3.9296 4.8723 -2.0807 0.9740
-5.9186 1.6177 -2.0395 0.9745
-5.9644 1.0698 -2.0142 0.9748
-5.9644 0.5271 -1.9903 0.9751
-5.9202 -0.0070 -1.9679 0.9754
-5.7062 -1.0374 -1.9279 0.9758
-5.3376 -1.9999 -1.8947 0.9763
-4.5297 -3.2783 -1.8587 0.9767
-3.8447 -3.9995 -1.8441 0.9769
-3.4643 -4.3162 -1.8397 0.9769
-2.6379 -4.8553 -1.8368 0.9770
-2.1960 -5.0752 -1.8382 0.9770
-1.7376 -5.2605 -1.8415 0.9769
-1.2651 -5.4101 -1.8468 0.9769
0.7224 -5.6310 -1.8871 0.9764
1.2314 -5.5874 -1.9018 0.9762
2.7438 -5.2077 -1.9566 0.9755
3.7085 -4.7433 -2.0014 0.9749
4.6057 -4.1099 -2.0519 0.9743
5.4044 -3.3129 -2.1071 0.9736
6.0998 -1.1897 -2.0658 0.9741
6.2654 -0.6494 -2.0938 0.9738
6.4448 0.4866 -2.1484 0.9731
6.4530 1.0725 -2.1744 0.9728
6.4037 1.6626 -2.1992 0.9725
5.5358 3.8800 -2.2471 0.9719
4.8974 4.1306 -2.1296 0.9734
3.2736 4.7630 -1.9211 0.9759
1.2941 3.7271 -1.3115 0.9835
1.3724 5.4924 -1.8818 0.9764
0.1770 2.6701 -0.8895 0.9888
-1.3316 6.5093 -2.2085 0.9724
-1.7197 5.7396 -1.9917 0.9751
-3.7975 5.0117 -2.0901 0.9738
-2.6183 1.6601 -1.0305 0.9870
-5.8925 1.8040 -2.0484 0.9744
-5.9541 1.2551 -2.0227 0.9747
-5.8675 -0.3538 -1.9539 0.9755
-5.7538 -0.8669 -1.9342 0.9758
-5.6007 -1.3639 -1.9161 0.9760
-5.4103 -1.8423 -1.8998 0.9762
-4.9254 -2.7348 -1.8727 0.9765
-4.3152 -3.5291 -1.8530 0.9768
-3.9682 -3.8853 -1.8460 0.9769
-3.5959 -4.2123 -1.8410 0.9769
-2.7837 -4.7731 -1.8367 0.9770
-1.8947 -5.2016 -1.8402 0.9769
-1.4267 -5.3634 -1.8448 0.9769
-0.4546 -5.5768 -1.8599 0.9767
0.5503 -5.6366 -1.8825 0.9764
1.5678 -5.5360 -1.9126 0.9760
2.5756 -5.2696 -1.9497 0.9756
3.0683 -5.0730 -1.9707 0.9753
4.0139 -4.5525 -2.0175 0.9747
5.2773 -3.4591 -2.0975 0.9738
5.6285 -3.0085 -2.1214 0.9735
2.3265 -0.9879 -0.8402 0.9894
6.0331 -1.3675 -2.0563 0.9743
6.3478 -0.2811 -2.1121 0.9736
6.1915 2.6352 -2.2367 0.9720
5.7189 3.7554 -2.2742 0.9716
3.4426 4.6975 -1.9359 0.9757
2.0035 5.2517 -1.8684 0.9766
1.0551 5.6129 -1.8984 0.9762
0.0429 5.9950 -1.9928 0.9750
-0.5108 6.2028 -2.0688 0.9741
-3.2284 5.5250 -2.1271 0.9734
-4.0504 4.7366 -2.0717 0.9741
-4.3964 4.2974 -2.0436 0.9744
-4.6971 3.8349 -2.0156 0.9748
-2.6117 1.7690 -1.0486 0.9868
2.2836 5.0865 -1.9939 0.9766
1.8342 5.3089 -2.0086 0.9764
1.3625 5.4886 -2.0223 0.9763
0.1812 2.7982 -1.0027 0.9882
-0.7057 6.1642 -2.2187 0.9740
-3.8708 4.2454 -2.0545 0.9759
-4.8573 2.4931 -1.9525 0.9771
-5.3792 2.1790 -2.0755 0.9756
-5.5468 0.1530 -1.9843 0.9767
-5.4824 -0.3390 -1.9643 0.9769
-5.3790 -0.8189 -1.9457 0.9772
-5.0623 -1.7325 -1.9134 0.9775
-4.8528 -2.1617 -1.8998 0.9777
-4.0414 -3.3154 -1.8693 0.9780
-3.7164 -3.6499 -1.8628 0.9781
-3.3674 -3.9568 -1.8580 0.9782
-2.9962 -4.2347 -1.8551 0.9782
-2.6050 -4.4825 -1.8540 0.9782
-1.7702 -4.8829 -1.8574 0.9782
-1.3307 -5.0333 -1.8618 0.9781
-0.8793 -5.1492 -1.8681 0.9781
0.5237 -5.2804 -1.8976 0.9777
1.4754 -5.1797 -1.9260 0.9774
2.4155 -4.9228 -1.9609 0.9770
2.8737 -4.7351 -1.9807 0.9767
3.3199 -4.5077 -2.0020 0.9765
3.7507 -4.2409 -2.0246 0.9762
4.5517 -3.5914 -2.0734 0.9757
5.2328 -2.7868 -2.1201 0.9751
2.3226 -0.9820 -0.9018 0.9893
5.7544 -0.7643 -2.0759 0.9756
5.8710 -0.2509 -2.1014 0.9753
5.9585 0.8150 -2.1506 0.9748
5.9249 1.3577 -2.1737 0.9745
5.8379 1.8996 -2.1954 0.9743
5.6967 2.4349 -2.2155 0.9740
5.5014 2.9574 -2.2336 0.9738
4.4927 4.2806 -2.2191 0.9740
3.7157 4.2345 -2.0146 0.9764
2.4624 5.0682 -2.0150 0.9763
1.0654 3.7964 -1.4101 0.9834
1.0455 5.6090 -2.0403 0.9761
0.2671 2.8045 -1.0075 0.9881
-0.5200 6.1980 -2.2242 0.9739
-2.0832 5.6773 -2.1626 0.9746
-2.9907 5.1003 -2.1144 0.9752
-3.7565 4.3793 -2.0633 0.9758
-4.3626 3.5507 -2.0115 0.9764
-2.6123 1.7635 -1.1271 0.9867
-5.5367 1.3345 -2.0367 0.9761
-5.5694 0.8257 -2.0134 0.9764
-5.5087 -0.1734 -1.9709 0.9769
-5.4183 -0.6577 -1.9518 0.9771
-5.1259 -1.5825 -1.9184 0.9775
-4.6967 -2.4339 -1.8917 0.9778
-4.4355 -2.8270 -1.8809 0.9779
-3.1244 -4.1438 -1.8559 0.9782
-1.9161 -4.8243 -1.8563 0.9782
-0.1093 -5.2628 -1.8824 0.9779
2.2579 -4.9775 -1.9546 0.9770
3.1702 -4.5892 -1.9946 0.9766
3.6066 -4.3357 -2.0168 0.9763
4.4225 -3.7121 -2.0648 0.9758
4.7948 -3.3438 -2.0904 0.9755
5.1312 -2.9354 -2.1140 0.9752
5.3112 -1.8846 -2.0153 0.9763
5.7045 -0.9342 -2.0671 0.9757
5.8367 -0.4269 -2.0928 0.9754
5.9579 0.6318 -2.1425 0.9749
5.8734 1.7163 -2.1882 0.9743
5.7506 2.2545 -2.2089 0.9741
5.5736 2.7820 -2.2277 0.9739
5.0602 3.7802 -2.2587 0.9735
4.6886 4.2039 -2.2519 0.9736
3.4194 4.3949 -1.9913 0.9766
3.0357 4.7166 -2.0058 0.9765
1.1249 3.5870 -1.3443 0.9842
0.3626 2.8798 -1.0380 0.9877
-0.8802 6.1243 -2.2126 0.9741
-2.3973 5.5048 -2.1471 0.9748
-2.8462 5.2093 -2.1228 0.9751
-3.9751 4.1156 -2.0462 0.9760
-4.2716 3.6972 -2.0203 0.9763
-4.7379 2.8065 -1.9693 0.9769
-5.5632 0.9978 -2.0212 0.9763
-5.5676 0.4920 -1.9988 0.9765
-5.5304 -0.0065 -1.9777 0.9768
-5.4532 -0.4949 -1.9581 0.9770
-4.5274 -2.6963 -1.8844 0.9779
-4.2471 -3.0737 -1.8748 0.9780
-3.9395 -3.4260 -1.8670 0.9781
-3.6066 -3.7518 -1.8610 0.9781
-3.2502 -4.0495 -1.8569 0.9782
-2.0604 -4.7618 -1.8554 0.9782
0.6767 -5.2746 -1.9017 0.9777
1.6281 -5.1490 -1.9312 0.9773
2.5641 -4.8667 -1.9672 0.9769
3.0189 -4.6662 -1.9874 0.9767
3.4604 -4.4261 -2.0091 0.9764
5.0252 -3.0805 -2.1078 0.9753
4.9625 -2.4624 -1.9811 0.9767
5.4590 -1.5812 -2.0324 0.9761
5.6495 -1.1018 -2.0584 0.9758
5.9534 0.9895 -2.1582 0.9747
5.7983 2.0729 -2.2021 0.9742
5.6397 2.6048 -2.2215 0.9740
5.1618 3.6179 -2.2541 0.9736
4.8456 4.0869 -2.2669 0.9734
4.3117 4.3514 -2.1906 0.9743
3.5661 4.3077 -1.9998 0.9765
2.7841 4.9444 -2.0292 0.9762
1.8422 5.3059 -2.0085 0.9764
1.3706 5.4855 -2.0220 0.9763
-0.6964 6.1661 -2.2191 0.9740
-1.2326 6.0255 -2.1994 0.9742
-1.7162 5.7280 -2.1383 0.9749
-2.2378 5.5957 -2.1551 0.9747
-3.8652 4.2523 -2.0550 0.9759
-2.6181 1.6600 -1.1086 0.9869
-5.3767 2.1876 -2.0758 0.9756
-5.4898 1.6807 -2.0531 0.9759
-5.5520 1.1704 -2.0291 0.9762
-5.5708 0.6629 -2.0062 0.9764
-5.5476 0.1615 -1.9847 0.9767
-5.2411 -1.2763 -1.9290 0.9773
-5.0657 -1.7250 -1.9137 0.9775
-4.8566 -2.1545 -1.9000 0.9777
-4.0467 -3.3095 -1.8695 0.9780
-3.3735 -3.9517 -1.8581 0.9782
-3.0028 -4.2302 -1.8551 0.9782
-2.2028 -4.6955 -1.8547 0.9782
-1.7776 -4.8801 -1.8573 0.9782
-0.4262 -5.2285 -1.8760 0.9780
1.9403 -5.0732 -1.9424 0.9772
2.8660 -4.7386 -1.9804 0.9767
3.3124 -4.5119 -2.0016 0.9765
3.7435 -4.2458 -2.0242 0.9762
4.1556 -3.9407 -2.0480 0.9760
4.9087 -3.2175 -2.0989 0.9754
5.2278 -2.7944 -2.1198 0.9751
5.5896 -1.2670 -2.0496 0.9759
5.7520 -0.7729 -2.0754 0.9756
5.9586 0.8057 -2.1502 0.9748
5.9260 1.3484 -2.1733 0.9745
5.6996 2.4258 -2.2151 0.9740
4.9584 3.9313 -2.2628 0.9735
4.5024 4.2768 -2.2207 0.9740
3.7237 4.2305 -2.0154 0.9763
3.2936 4.4941 -1.9925 0.9766
2.9469 4.8816 -2.0391 0.9761
-0.5101 6.1943 -2.2226 0.9739
-2.5454 5.4140 -2.1394 0.9749
-2.9835 5.1059 -2.1148 0.9752
-4.0751 3.9833 -2.0378 0.9761
2.2807 5.0801 -2.1340 0.9764
1.2843 3.7174 -1.5072 0.9833
0.8792 5.6642 -2.1966 0.9757
-0.1426 5.7809 -2.2160 0.9755
-0.6529 5.7029 -2.1997 0.9757
-1.1495 5.5757 -2.1816 0.9759
-1.6275 5.4017 -2.1619 0.9761
-3.8929 3.5702 -2.0242 0.9776
-4.1461 3.1707 -2.0002 0.9779
-2.6205 1.6558 -1.1879 0.9868
-5.0192 2.0332 -2.0753 0.9771
-5.1961 1.0870 -2.0343 0.9775
-5.2168 0.6126 -2.0129 0.9778
-5.1408 -0.3179 -1.9738 0.9782
-4.3346 -2.4155 -1.9016 0.9790
-4.0811 -2.7784 -1.8920 0.9791
-3.8010 -3.1183 -1.8841 0.9792
-3.4961 -3.4335 -1.8778 0.9792
-3.1682 -3.7228 -1.8733 0.9793
-2.8193 -3.9847 -1.8706 0.9793
-2.4513 -4.2180 -1.8695 0.9793
-1.6655 -4.5943 -1.8727 0.9793
-0.3933 -4.9175 -1.8905 0.9791
0.0472 -4.9573 -1.8998 0.9790
0.4921 -4.9619 -1.9108 0.9789
0.9389 -4.9306 -1.9234 0.9787
1.3852 -4.8628 -1.9377 0.9786
1.8282 -4.7583 -1.9534 0.9784
2.2652 -4.6166 -1.9707 0.9782
2.6933 -4.4377 -1.9893 0.9780
3.5103 -3.9691 -2.0305 0.9776
3.8928 -3.6802 -2.0529 0.9773
2.3197 -0.9808 -0.9652 0.9893
5.0188 -1.6115 -2.0200 0.9777
5.2039 -1.1712 -2.0441 0.9774
5.5126 0.2571 -2.1148 0.9766
5.0872 2.7347 -2.2133 0.9756
4.8548 3.1986 -2.2279 0.9754
4.2514 4.0507 -2.2503 0.9752
3.2240 4.4133 -2.0945 0.9769
2.9349 4.8785 -2.1818 0.9759
1.9905 5.2416 -2.1486 0.9763
1.0441 5.6018 -2.1837 0.9759
0.2661 2.7944 -1.0757 0.9880
-0.4811 5.7350 -2.2055 0.9756
-1.9310 5.2625 -2.1482 0.9763
-2.3685 5.0178 -2.1264 0.9765
-2.7767 4.7354 -2.1037 0.9768
-4.0646 3.3081 -2.0083 0.9778
-4.4799 2.4736 -1.9611 0.9783
-5.1032 1.7243 -2.0643 0.9772
-5.1799 1.2485 -2.0419 0.9774
-4.6293 -1.8963 -1.9171 0.9788
-4.4142 -2.2875 -1.9053 0.9789
-3.2819 -3.6277 -1.8747 0.9793
-2.1984 -4.3559 -1.8698 0.9793
-1.8029 -4.5392 -1.8717 0.9793
-0.1028 -4.9477 -1.8965 0.9790
0.7874 -4.9453 -1.9190 0.9788
1.2341 -4.8899 -1.9327 0.9786
3.3763 -4.0588 -2.0232 0.9776
3.7654 -3.7821 -2.0452 0.9774
4.1338 -3.4698 -2.0682 0.9771
4.4781 -3.1229 -2.0922 0.9769
4.7859 -2.7379 -2.1130 0.9767
4.7148 -2.1641 -1.9880 0.9780
4.9477 -1.7557 -2.0119 0.9778
5.1454 -1.3229 -2.0359 0.9775
5.3048 -0.8688 -2.0600 0.9772
5.4976 0.0898 -2.1071 0.9767
5.5074 1.0877 -2.1513 0.9762
5.3221 2.0865 -2.1907 0.9758
5.1550 2.5731 -2.2079 0.9756
4.9389 3.0437 -2.2232 0.9755
4.6752 3.4927 -2.2364 0.9753
3.9667 4.2535 -2.2288 0.9754
3.3850 4.3508 -2.1125 0.9767
3.0328 4.7121 -2.1474 0.9763
2.6194 5.0002 -2.1632 0.9761
2.1491 5.1809 -2.1494 0.9763
1.1469 3.6572 -1.4688 0.9837
1.2073 5.5399 -2.1728 0.9760
-0.3080 5.7613 -2.2110 0.9756
-1.3056 5.5246 -2.1755 0.9760
-1.7766 5.3362 -2.1553 0.9762
-2.6418 4.8351 -2.1114 0.9767
-3.3821 4.1934 -2.0645 0.9772
-3.6992 3.8299 -2.0405 0.9774
-4.2193 3.0385 -1.9925 0.9780
-2.7268 1.6153 -1.2145 0.9865
-4.5823 2.1879 -1.9459 0.9785
-5.1836 -0.0061 -1.9865 0.9780
-5.0090 -0.9106 -1.9510 0.9784
-4.8687 -1.3431 -1.9355 0.9786
-4.6953 -1.7592 -1.9215 0.9788
-3.9938 -2.8904 -1.8893 0.9791
-3.7055 -3.2225 -1.8819 0.9792
-3.3930 -3.5296 -1.8762 0.9792
-3.0581 -3.8101 -1.8723 0.9793
-2.3291 -4.2868 -1.8696 0.9793
-1.9387 -4.4806 -1.8709 0.9793
-1.1162 -4.7735 -1.8787 0.9792
0.1900 -4.9627 -1.9032 0.9790
1.0828 -4.9128 -1.9278 0.9787
1.5283 -4.8332 -1.9426 0.9785
2.4041 -4.5631 -1.9765 0.9781
2.8287 -4.3723 -1.9956 0.9779
3.2402 -4.1444 -2.0160 0.9777
3.6356 -3.8800 -2.0376 0.9775
4.0114 -3.5796 -2.0603 0.9772
4.3643 -3.2443 -2.0840 0.9770
4.6283 -2.2965 -1.9800 0.9781
5.0825 -1.4722 -2.0278 0.9776
5.2552 -1.0249 -2.0518 0.9773
5.3877 -0.5585 -2.0757 0.9771
5.5193 0.9173 -2.1441 0.9763
4.7699 3.3432 -2.2322 0.9754
2.7806 4.9381 -2.1718 0.9760
2.2886 5.0771 -2.1342 0.9764
1.2916 3.7199 -1.5090 0.9833
1.3689 5.4786 -2.1640 0.9761
0.8876 5.6610 -2.1959 0.9758
-0.1337 5.7818 -2.2163 0.9755
-0.6442 5.7047 -2.2000 0.9757
-2.0748 5.1881 -2.1413 0.9763
-3.2663 4.3107 -2.0726 0.9771
-2.6179 1.6599 -1.1879 0.9868
-4.5319 2.3349 -1.9537 0.9784
-5.1954 1.0952 -2.0347 0.9775
-5.0487 -0.7607 -1.9566 0.9784
-4.9200 -1.1982 -1.9405 0.9785
-4.7577 -1.6201 -1.9260 0.9787
-4.5633 -2.0244 -1.9131 0.9788
-4.3388 -2.4091 -1.9018 0.9790
-4.0857 -2.7724 -1.8921 0.9791
-3.8060 -3.1126 -1.8842 0.9792
-3.5015 -3.4283 -1.8779 0.9792
-3.1740 -3.7181 -1.8734 0.9793
-2.8255 -3.9804 -1.8706 0.9793
-2.0728 -4.4183 -1.8702 0.9793
-0.8344 -4.8416 -1.8827 0.9792
0.0396 -4.9569 -1.8997 0.9790
1.3775 -4.8643 -1.9374 0.9786
2.6861 -4.4411 -1.9890 0.9780
3.1024 -4.2258 -2.0090 0.9778
3.5036 -3.9737 -2.0302 0.9776
4.2474 -3.3619 -2.0758 0.9771
4.5833 -3.0042 -2.1001 0.9768
4.8751 -2.6059 -2.1184 0.9766
2.3208 -0.9855 -0.9662 0.9893
5.2010 -1.1789 -2.0437 0.9774
5.3474 -0.7186 -2.0677 0.9772
5.4519 -0.2414 -2.0913 0.9769
5.5120 0.2486 -2.1144 0.9766
5.5255 0.7472 -2.1367 0.9764
5.4072 1.7503 -2.1780 0.9759
4.8592 3.1908 -2.2277 0.9754
4.5805 3.6317 -2.2401 0.9753
4.2573 4.0439 -2.2502 0.9752
3.7161 4.2218 -2.1553 0.9762
2.4673 5.0587 -2.1569 0.9762
1.9985 5.2385 -2.1486 0.9763
1.0744 3.8059 -1.5155 0.9832
-0.4724 5.7365 -2.2058 0.9756
-0.9745 5.6265 -2.1883 0.9758
-1.4597 5.4688 -2.1691 0.9760
-1.9233 5.2663 -2.1485 0.9763
-3.4882 4.0792 -2.0568 0.9773
-3.7933 3.7079 -2.0328 0.9775
3.0591 4.4655 -2.2154 0.9769
2.6816 4.7794 -2.2429 0.9766
2.2430 4.9963 -2.2415 0.9766
1.2810 3.7077 -1.6055 0.9832
0.8328 5.3655 -2.2223 0.9768
-0.1324 5.3691 -2.1981 0.9771
-0.6067 5.2995 -2.1831 0.9772
-1.0688 5.1843 -2.1664 0.9774
-1.5142 5.0257 -2.1482 0.9776
-1.9388 4.8264 -2.1287 0.9778
-2.7113 4.3185 -2.0869 0.9782
-3.3628 3.6882 -2.0427 0.9787
-3.6380 3.3365 -2.0203 0.9789
-3.8777 2.9654 -1.9979 0.9791
-4.2475 2.1801 -1.9540 0.9796
-4.3770 1.7731 -1.9328 0.9798
-4.8147 1.4659 -2.0599 0.9785
-1.9550 0.2296 -0.8056 0.9915
-1.9243 0.0531 -0.7879 0.9917
-1.9762 -0.3009 -0.8181 0.9914
-4.6291 -1.1348 -1.9507 0.9796
-4.2958 -1.9136 -1.9247 0.9799
-3.8474 -2.6192 -1.9049 0.9801
-3.5841 -2.9404 -1.8974 0.9802
-3.2972 -3.2382 -1.8915 0.9802
-2.9884 -3.5115 -1.8872 0.9803
-2.6596 -3.7589 -1.8845 0.9803
-2.3124 -3.9791 -1.8836 0.9803
-0.3708 -4.6360 -1.9035 0.9801
0.0445 -4.6723 -1.9123 0.9800
0.4636 -4.6750 -1.9227 0.9799
1.3040 -4.5780 -1.9482 0.9796
1.7203 -4.4774 -1.9631 0.9795
2.1304 -4.3418 -1.9794 0.9793
3.6520 -3.4525 -2.0569 0.9785
3.9875 -3.1462 -2.0788 0.9783
4.2988 -2.8083 -2.1015 0.9781
4.6909 -1.5062 -2.0164 0.9789
5.1367 0.2396 -2.1046 0.9780
5.1084 1.1706 -2.1449 0.9776
5.0264 1.6356 -2.1634 0.9774
4.7253 2.5401 -2.1957 0.9771
3.9442 3.7580 -2.2297 0.9767
3.6043 4.1075 -2.2365 0.9767
3.1916 4.3690 -2.2144 0.9769
2.3941 4.9278 -2.2422 0.9766
1.4746 5.2542 -2.2335 0.9767
0.2660 2.7930 -1.1483 0.9879
-0.9138 5.2283 -2.1723 0.9773
-1.7974 4.8983 -2.1355 0.9777
-2.2061 4.6739 -2.1153 0.9779
-2.5883 4.4140 -2.0942 0.9781
-3.2616 3.8024 -2.0503 0.9786
-3.5486 3.4581 -2.0279 0.9788
-2.5599 1.7282 -1.2641 0.9867
-4.1952 2.3164 -1.9613 0.9795
-4.7801 1.6151 -2.0650 0.9784
-1.9457 0.1127 -0.7976 0.9916
-1.9275 -0.0607 -0.7893 0.9917
-1.9539 -0.2372 -0.8056 0.9915
-4.6732 -0.9967 -1.9556 0.9796
-4.3608 -1.7863 -1.9287 0.9798
-3.3971 -3.1399 -1.8933 0.9802
-2.7732 -3.6780 -1.8853 0.9803
-2.4321 -3.9075 -1.8837 0.9803
-2.0739 -4.1092 -1.8838 0.9803
-0.5103 -4.6163 -1.9008 0.9801
0.3212 -4.6779 -1.9190 0.9799
0.7416 -4.6582 -1.9305 0.9798
1.5797 -4.5154 -1.9579 0.9795
2.3967 -4.2330 -1.9909 0.9792
2.7904 -4.0394 -2.0093 0.9790
3.8763 -3.2537 -2.0713 0.9784
4.4793 -2.5625 -2.1120 0.9779
4.6256 -1.6414 -2.0088 0.9790
4.9518 -0.8110 -2.0536 0.9785
5.0583 -0.3699 -2.0757 0.9783
5.1240 0.0837 -2.0974 0.9781
5.0593 1.4784 -2.1573 0.9775
4.9471 1.9395 -2.1748 0.9773
4.5861 2.8262 -2.2048 0.9770
3.7236 3.9928 -2.2345 0.9767
2.5428 4.8541 -2.2427 0.9766
1.1628 3.7077 -1.5904 0.9833
0.3996 3.1744 -1.3094 0.9863
0.0958 2.6672 -1.0923 0.9885
-0.2861 5.3518 -2.1935 0.9771
-0.7570 5.2673 -2.1779 0.9773
-1.2142 5.1378 -2.1607 0.9774
-2.0704 4.7541 -2.1222 0.9778
-2.8248 4.2246 -2.0799 0.9783
-3.7191 3.2190 -2.0131 0.9790
-3.9471 2.8425 -1.9908 0.9792
-2.6182 1.5509 -1.2454 0.9869
-4.7411 1.7636 -2.0703 0.9784
-4.8403 1.3229 -2.0537 0.9785
-2.1661 0.3885 -0.9007 0.9905
-1.9579 -0.1777 -0.8046 0.9915
-2.1759 -0.3956 -0.9051 0.9905
-4.5837 -1.2645 -1.9461 0.9797
-4.4224 -1.6570 -1.9328 0.9798
-4.2311 -2.0325 -1.9211 0.9799
-3.7653 -2.7251 -1.9023 0.9801
-3.2001 -3.3290 -1.8899 0.9802
-0.2377 -4.6513 -1.9061 0.9801
0.5990 -4.6687 -1.9264 0.9799
1.0196 -4.6263 -1.9389 0.9797
2.2606 -4.2907 -1.9849 0.9793
3.0432 -3.8924 -2.0222 0.9789
3.4123 -3.6417 -2.0425 0.9787
4.0905 -3.0408 -2.0861 0.9782
4.3885 -2.6901 -2.1067 0.9780
4.3315 -2.1493 -1.9790 0.9793
2.3558 -0.9172 -1.0347 0.9891
4.7492 -1.3756 -2.0236 0.9789
4.9068 -0.9570 -2.0461 0.9786
5.0266 -0.5210 -2.0683 0.9784
5.1441 0.3884 -2.1113 0.9780
5.1380 0.8539 -2.1317 0.9777
4.9903 1.7841 -2.1690 0.9774
4.8477 2.2390 -2.1855 0.9772
4.4278 3.1034 -2.2130 0.9769
3.8388 3.8741 -2.2322 0.9767
3.4560 4.1748 -2.2181 0.9768
3.0659 4.4607 -2.2153 0.9769
2.6889 4.7753 -2.2429 0.9766
1.2887 3.7117 -1.6081 0.9832
-1.9317 4.8302 -2.1291 0.9778
-2.3322 4.5939 -2.1086 0.9780
-2.7051 4.3234 -2.0873 0.9782
-3.0477 4.0222 -2.0654 0.9784
-3.3578 3.6940 -2.0431 0.9787
-3.6336 3.3427 -2.0207 0.9789
-3.8739 2.9719 -1.9983 0.9791
-2.5830 1.6377 -1.2518 0.9869
-4.8767 1.0280 -2.0398 0.9787
-1.9255 0.0560 -0.7884 0.9917
-1.9470 -0.1174 -0.7983 0.9916
-1.9642 -0.2960 -0.8130 0.9915
-4.6314 -1.1279 -1.9509 0.9796
-4.4805 -1.5257 -1.9372 0.9798
-4.2992 -1.9072 -1.9249 0.9799
-3.8517 -2.6135 -1.9050 0.9801
-3.5889 -2.9350 -1.8975 0.9802
-2.9939 -3.5070 -1.8872 0.9803
-2.3185 -3.9755 -1.8836 0.9803
-1.9553 -4.1680 -1.8842 0.9803
-1.1875 -4.4639 -1.8905 0.9802
-0.3778 -4.6351 -1.9033 0.9801
0.0373 -4.6719 -1.9122 0.9800
0.4564 -4.6752 -1.9226 0.9799
2.5248 -4.1745 -1.9967 0.9791
2.9143 -3.9697 -2.0155 0.9789
4.5620 -2.4385 -2.1171 0.9779
2.3179 -0.9842 -1.0306 0.9892
4.6877 -1.5131 -2.0160 0.9789
4.8575 -1.1010 -2.0385 0.9787
5.1361 0.2317 -2.1042 0.9780
5.1451 0.6957 -2.1249 0.9778
5.1094 1.1626 -2.1446 0.9776
4.9012 2.0860 -2.1801 0.9772
4.7286 2.5326 -2.1954 0.9771
4.5114 2.9624 -2.2089 0.9769
4.2510 3.3704 -2.2203 0.9768
3.9497 3.7517 -2.2295 0.9767
3.6104 4.1018 -2.2364 0.9767
3.1983 4.3640 -2.2144 0.9769
1.9502 5.1117 -2.2392 0.9766
1.0046 5.3444 -2.2256 0.9768
0.0192 2.6788 -1.0964 0.9885
-0.4389 5.3296 -2.1887 0.9772
-0.9059 5.2304 -2.1725 0.9773
-1.7902 4.9019 -2.1358 0.9777
-3.7965 3.0996 -2.0059 0.9790
-2.5609 1.7346 -1.2659 0.9867
2.8825 4.2076 -2.2228 0.9780
2.4967 4.4499 -2.2238 0.9780
2.0885 4.6521 -2.2224 0.9780
-0.1235 5.0059 -2.1823 0.9784
-0.5659 4.9433 -2.1684 0.9785
-0.9975 4.8383 -2.1530 0.9787
-1.4139 4.6929 -2.1361 0.9788
-2.1867 4.2910 -2.0989 0.9792
-2.5365 4.0402 -2.0790 0.9794
-3.1504 3.4552 -2.0378 0.9798
-3.4106 3.1279 -2.0168 0.9800
-3.6378 2.7819 -1.9959 0.9802
-2.5562 1.6153 -1.3178 0.9869
-3.9901 2.0480 -1.9547 0.9806
-1.5759 0.4798 -0.7179 0.9928
-1.5147 0.3169 -0.6744 0.9933
-1.5296 -0.0946 -0.6679 0.9933
-1.5121 -0.2302 -0.6666 0.9933
-1.5906 -0.5444 -0.7327 0.9927
-4.0567 -1.8070 -1.9354 0.9808
-3.8589 -2.1504 -1.9253 0.9809
-3.6353 -2.4748 -1.9166 0.9810
-3.1167 -3.0609 -1.9038 0.9811
-2.8251 -3.3196 -1.8997 0.9812
-2.1863 -3.7620 -1.8963 0.9812
-1.8426 -3.9434 -1.8970 0.9812
-0.3503 -4.3806 -1.9152 0.9810
0.4378 -4.4150 -1.9336 0.9808
1.2306 -4.3202 -1.9577 0.9806
2.7510 -3.7352 -2.0217 0.9800
3.4355 -3.2479 -2.0604 0.9796
3.9928 -2.1264 -1.9715 0.9805
4.3982 -1.4122 -2.0132 0.9800
4.5536 -1.0248 -2.0342 0.9798
4.7581 -0.2034 -2.0755 0.9794
4.8030 0.2240 -2.0955 0.9792
4.6914 1.5266 -2.1501 0.9787
3.9562 3.1466 -2.2030 0.9782
3.3565 3.8251 -2.2179 0.9780
2.6303 4.3722 -2.2237 0.9780
1.8086 4.7626 -2.2202 0.9780
0.9282 4.9798 -2.2077 0.9781
-0.4169 4.9694 -2.1733 0.9785
-1.6790 4.5758 -2.1242 0.9790
-2.7526 3.8584 -2.0656 0.9795
-3.0549 3.5614 -2.0449 0.9797
-3.5645 2.9011 -2.0030 0.9801
-2.5223 1.7028 -1.3263 0.9868
-2.8179 1.5559 -1.4029 0.9861
-1.5892 0.5370 -0.7311 0.9927
-1.5389 0.3709 -0.6899 0.9931
-1.5136 0.2244 -0.6668 0.9933
-1.5296 0.0886 -0.6677 0.9933
-1.5279 -0.0481 -0.6662 0.9934
-1.5779 -0.4871 -0.7197 0.9928
-4.1175 -1.6866 -1.9392 0.9808
-3.9289 -2.0360 -1.9286 0.9809
-3.7139 -2.3671 -1.9194 0.9810
-2.9262 -3.2346 -1.9009 0.9811
-1.9608 -3.8850 -1.8966 0.9812
-1.6078 -4.0480 -1.8983 0.9812
-1.2424 -4.1825 -1.9015 0.9811
0.3034 -4.4182 -1.9300 0.9809
0.7002 -4.3981 -1.9409 0.9808
1.0967 -4.3455 -1.9532 0.9806
1.4903 -4.2599 -1.9669 0.9805
2.2590 -3.9897 -1.9981 0.9802
2.6286 -3.8052 -2.0156 0.9800
3.3246 -3.3394 -2.0536 0.9796
3.9433 -2.7500 -2.0952 0.9792
4.2048 -2.4055 -2.1112 0.9791
4.1398 -1.9002 -1.9852 0.9803
4.6374 -0.7595 -2.0480 0.9797
4.7339 -0.3462 -2.0686 0.9795
4.7922 0.0782 -2.0888 0.9793
4.7879 0.9455 -2.1269 0.9789
4.7230 1.3802 -2.1445 0.9788
4.6157 1.8096 -2.1607 0.9786
4.2750 2.6345 -2.1885 0.9783
3.4678 3.7185 -2.2160 0.9781
3.1291 4.0218 -2.2208 0.9780
1.9531 4.7082 -2.2215 0.9780
1.1623 3.7064 -1.6929 0.9832
0.6310 5.0121 -2.2016 0.9782
0.1005 2.7963 -1.2195 0.9879
-0.2668 4.9905 -2.1781 0.9784
-0.7063 4.9140 -2.1636 0.9786
-1.1334 4.7958 -2.1477 0.9787
-1.5442 4.6379 -2.1304 0.9789
-1.9348 4.4429 -2.1119 0.9791
-2.3022 4.2136 -2.0926 0.9793
-3.2377 3.3521 -2.0311 0.9799
-3.4874 3.0184 -2.0101 0.9801
-1.5982 0.5945 -0.7432 0.9926
-1.5596 0.4262 -0.7046 0.9930
-1.5007 0.2692 -0.6644 0.9934
-1.5279 0.1350 -0.6685 0.9933
-1.5224 -0.0018 -0.6635 0.9934
-1.5276 -0.1386 -0.6685 0.9933
-1.4995 -0.2726 -0.6642 0.9934
-1.5611 -0.4306 -0.7057 0.9930
-1.5987 -0.5990 -0.7441 0.9926
-3.9959 -1.9195 -1.9320 0.9808
-3.5580 -2.5750 -1.9141 0.9810
-3.3026 -2.8721 -1.9075 0.9811
-3.0250 -3.1468 -1.9023 0.9811
-2.7271 -3.3977 -1.8988 0.9812
-2.0773 -3.8234 -1.8964 0.9812
-0.6133 -4.3404 -1.9104 0.9811
0.1692 -4.4176 -1.9267 0.9809
0.5656 -4.4085 -1.9371 0.9808
1.3573 -4.2926 -1.9621 0.9805
1.7477 -4.1852 -1.9767 0.9804
2.1311 -4.0448 -1.9925 0.9802
2.5046 -3.8714 -2.0095 0.9801
2.8657 -3.6654 -2.0277 0.9799
3.2114 -3.4272 -2.0469 0.9797
4.1202 -2.5257 -2.1062 0.9791
4.0659 -2.0175 -1.9781 0.9804
4.4519 -1.2895 -2.0200 0.9800
4.7769 -0.0667 -2.0820 0.9794
4.8089 0.3631 -2.1018 0.9792
4.5216 2.0883 -2.1706 0.9785
4.3444 2.4990 -2.1843 0.9784
4.1264 2.8922 -2.1961 0.9783
3.8693 3.2634 -2.2060 0.9782
3.5754 3.6083 -2.2138 0.9781
2.8889 4.2031 -2.2228 0.9780
2.5035 4.4461 -2.2238 0.9780
2.0957 4.6490 -2.2224 0.9780
1.2309 4.9261 -2.2129 0.9781
0.7836 4.9980 -2.2048 0.9782
-0.5584 4.9447 -2.1687 0.9785
-3.6342 2.7880 -1.9962 0.9802
-3.9877 2.0545 -1.9550 0.9806
-1.5767 0.4827 -0.7186 0.9928
-1.5224 0.1811 -0.6682 0.9933
-1.5276 0.0445 -0.6661 0.9934
-1.5127 -0.2279 -0.6667 0.9933
-1.5901 -0.5415 -0.7321 0.9927
-4.0598 -1.8010 -1.9356 0.9808
-3.8625 -2.1446 -1.9254 0.9809
-3.6393 -2.4695 -1.9167 0.9810
-2.8303 -3.3154 -1.8998 0.9812
-2.1921 -3.7587 -1.8963 0.9812
-1.8486 -3.9405 -1.8969 0.9812
-1.4914 -4.0945 -1.8991 0.9812
-1.1225 -4.2196 -1.9029 0.9811
-0.7436 -4.3149 -1.9082 0.9811
-0.3570 -4.3798 -1.9151 0.9810
2.3792 -3.9339 -2.0036 0.9801
4.6725 -0.6279 -2.0547 0.9796
4.7570 -0.2106 -2.0752 0.9794
4.8026 0.2166 -2.0952 0.9792
4.8078 0.6501 -2.1144 0.9791
4.2048 2.7611 -2.1923 0.9783
3.9607 3.1403 -2.2029 0.9782
3.6790 3.4946 -2.2114 0.9781
2.2362 4.5848 -2.2232 0.9780
1.3809 4.8916 -2.2152 0.9781
0.9359 4.9787 -2.2078 0.9781
-0.4094 4.9706 -2.1736 0.9785
-1.2676 4.7492 -2.1422 0.9788
-2.7471 3.8632 -2.0659 0.9795
-3.3216 3.2468 -2.0243 0.9799
-3.5607 2.9071 -2.0033 0.9801
-2.5205 1.7072 -1.3268 0.9868
1.9514 4.3467 -2.2055 0.9792
1.3007 3.7649 -1.8438 0.9826
1.1433 4.6056 -2.1966 0.9793
0.7254 4.6731 -2.1890 0.9794
0.1811 2.7960 -1.2969 0.9877
-0.5296 4.6262 -2.1554 0.9797
-0.9339 4.5300 -2.1410 0.9798
-1.3245 4.3961 -2.1252 0.9800
-2.3801 3.7911 -2.0720 0.9805
-2.9597 3.2461 -2.0334 0.9808
-3.2062 2.9404 -2.0137 0.9810
-2.5480 1.6101 -1.3952 0.9868
-3.7579 1.9288 -1.9552 0.9816
-1.3268 0.4040 -0.6420 0.9939
-1.3369 0.0369 -0.6191 0.9941
-1.3385 -0.0828 -0.6208 0.9941
-1.3077 -0.3206 -0.6232 0.9941
-1.3336 -0.4564 -0.6525 0.9938
-3.2076 -2.6315 -1.9205 0.9819
-2.9518 -2.8990 -1.9151 0.9819
-2.6760 -3.1444 -1.9112 0.9820
-2.3819 -3.3664 -1.9088 0.9820
-2.0711 -3.5638 -1.9080 0.9820
-1.0570 -3.9983 -1.9143 0.9819
0.0398 -4.1779 -1.9340 0.9818
0.7898 -4.1473 -1.9542 0.9816
1.1638 -4.0855 -1.9664 0.9814
1.8980 -3.8681 -1.9944 0.9812
2.9267 -3.3093 -2.0449 0.9807
3.2397 -3.0628 -2.0637 0.9805
3.7586 -2.0016 -1.9711 0.9814
2.3133 -0.9781 -1.1626 0.9890
4.2785 -0.9629 -2.0300 0.9809
4.3892 -0.5830 -2.0495 0.9807
4.4651 -0.1908 -2.0687 0.9805
4.5063 0.6164 -2.1053 0.9802
4.4693 1.0242 -2.1224 0.9800
4.3928 1.4294 -2.1383 0.9798
4.2769 1.8280 -2.1530 0.9797
3.9287 2.5884 -2.1777 0.9795
3.6986 2.9417 -2.1875 0.9794
2.4575 4.0850 -2.2067 0.9792
1.6900 4.4502 -2.2035 0.9792
0.8677 4.6549 -2.1918 0.9793
0.2820 2.9613 -1.3770 0.9870
0.0148 2.6346 -1.2195 0.9885
-0.3901 4.6499 -2.1599 0.9796
-1.5734 4.2879 -2.1142 0.9801
-2.8694 3.3452 -2.0400 0.9808
-3.3523 2.7283 -2.0007 0.9811
-2.7558 1.5216 -1.4571 0.9862
-1.3198 0.5818 -0.6676 0.9937
-1.3060 0.3148 -0.6218 0.9941
-1.3261 0.1966 -0.6205 0.9941
-1.3373 -0.0421 -0.6193 0.9941
-1.3031 -0.2779 -0.6168 0.9941
-1.3278 -0.4099 -0.6432 0.9939
-3.7186 -1.9270 -1.9387 0.9817
-3.5159 -2.2409 -1.9299 0.9818
-3.0409 -2.8107 -1.9167 0.9819
-2.7716 -3.0637 -1.9124 0.9820
-1.1768 -3.9615 -1.9129 0.9819
0.2871 -4.1814 -1.9401 0.9817
1.0373 -4.1100 -1.9621 0.9815
1.4090 -4.0275 -1.9751 0.9814
2.1339 -3.7688 -2.0047 0.9811
2.8167 -3.3861 -2.0388 0.9808
3.1356 -3.1496 -2.0572 0.9806
3.8954 -1.7880 -1.9840 0.9813
4.0793 -1.4475 -2.0036 0.9811
4.3554 -0.7133 -2.0429 0.9807
4.4434 -0.3250 -2.0623 0.9806
4.4232 1.2925 -2.1331 0.9799
4.3206 1.6939 -2.1482 0.9798
3.7806 2.8243 -2.1844 0.9794
2.9238 3.7580 -2.2040 0.9792
2.2121 4.2227 -2.2066 0.9792
1.1896 3.7934 -1.8402 0.9826
0.1006 2.8014 -1.2975 0.9877
-0.2496 4.6690 -2.1643 0.9796
-1.0613 4.4909 -2.1360 0.9799
-1.4467 4.3453 -2.1199 0.9800
-2.1594 3.9522 -2.0847 0.9803
-2.4808 3.7101 -2.0659 0.9805
-3.0423 3.1499 -2.0271 0.9809
-2.4916 1.7943 -1.4212 0.9866
-2.5797 1.5281 -1.3879 0.9869
-1.3325 0.4957 -0.6581 0.9938
-1.3180 0.3602 -0.6325 0.9940
-1.3376 0.1182 -0.6216 0.9941
-1.3335 -0.0016 -0.6173 0.9941
-1.3322 -0.4992 -0.6585 0.9937
-3.5874 -2.1365 -1.9327 0.9818
-3.3688 -2.4381 -1.9249 0.9818
-3.1275 -2.7199 -1.9186 0.9819
-2.8651 -2.9805 -1.9137 0.9819
-2.2835 -3.4326 -1.9084 0.9820
-1.9678 -3.6219 -1.9080 0.9820
-1.6378 -3.7852 -1.9091 0.9820
-0.5808 -4.1100 -1.9214 0.9819
0.1601 -4.1813 -1.9369 0.9817
0.9104 -4.1308 -1.9580 0.9815
1.6520 -3.9559 -1.9844 0.9813
2.0134 -3.8214 -1.9994 0.9811
2.3652 -3.6559 -2.0155 0.9810
2.7048 -3.4596 -2.0327 0.9808
3.0295 -3.2331 -2.0509 0.9807
3.3364 -2.9773 -2.0699 0.9805
3.6229 -2.6932 -2.0896 0.9803
3.8785 -2.3775 -2.1058 0.9801
2.3636 -0.9202 -1.1741 0.9889
4.3178 -0.8421 -2.0363 0.9808
4.4175 -0.4579 -2.0557 0.9806
4.4987 0.7477 -2.1109 0.9801
4.4490 1.1551 -2.1276 0.9799
4.3598 1.5587 -2.1432 0.9798
4.0638 2.3376 -2.1701 0.9795
3.3415 3.3723 -2.1975 0.9793
3.0345 3.6656 -2.2027 0.9792
2.6992 3.9272 -2.2058 0.9792
2.3391 4.1541 -2.2068 0.9792
1.1504 4.6041 -2.1967 0.9793
0.7326 4.6723 -2.1892 0.9794
0.1855 2.7984 -1.2982 0.9877
-0.1083 4.6835 -2.1685 0.9796
-1.3179 4.3987 -2.1255 0.9800
-2.3747 3.7953 -2.0723 0.9805
-2.9552 3.2512 -2.0337 0.9808
-3.2022 2.9458 -2.0141 0.9810
-3.4185 2.6225 -1.9944 0.9812
-3.7556 1.9349 -1.9556 0.9816
-1.3272 0.4063 -0.6425 0.9939
-1.3042 0.2749 -0.6169 0.9941
-1.3385 -0.0807 -0.6207 0.9941
-1.3254 -0.1997 -0.6204 0.9941
-1.3070 -0.3183 -0.6227 0.9941
-1.3190 -0.5851 -0.6679 0.9937
-3.6560 -2.0300 -1.9357 0.9817
-3.4456 -2.3380 -1.9274 0.9818
-2.9564 -2.8946 -1.9152 0.9819
-2.6809 -3.1404 -1.9113 0.9820
-2.3870 -3.3628 -1.9089 0.9820
-1.7512 -3.7328 -1.9086 0.9820
-1.4127 -3.8784 -1.9107 0.9820
-0.3380 -4.1468 -1.9259 0.9818
0.0334 -4.1777 -1.9338 0.9818
0.7833 -4.1481 -1.9540 0.9816
1.1574 -4.0868 -1.9661 0.9815
2.9212 -3.3132 -2.0446 0.9807
3.2345 -3.0673 -2.0633 0.9805
3.5283 -2.7926 -2.0828 0.9804
3.7962 -2.4883 -2.1011 0.9802
3.7549 -2.0071 -1.9708 0.9814
4.1323 -1.3339 -2.0100 0.9810
4.2763 -0.9693 -2.0296 0.9809
4.3876 -0.5896 -2.0492 0.9807
4.4641 -0.1977 -2.0684 0.9805
4.5066 0.6094 -2.1050 0.9802
4.4702 1.0172 -2.1221 0.9800
4.2792 1.8213 -2.1527 0.9797
3.1420 3.5695 -2.2012 0.9793
2.8159 3.8423 -2.2050 0.9792
1.6969 4.4478 -2.2035 0.9792
1.2905 4.5715 -2.1988 0.9793
-1.5670 4.2909 -2.1145 0.9801
-2.8647 3.3501 -2.0404 0.9808
-3.1219 3.0515 -2.0207 0.9809
-2.5124 1.7017 -1.4046 0.9867
2.5240 3.6844 -2.1907 0.9803
0.6801 4.3817 -2.1750 0.9804
-0.1084 4.3934 -2.1557 0.9806
-0.4971 4.3418 -2.1437 0.9807
-2.5262 3.3234 -2.0477 0.9816
-3.0213 2.7709 -2.0109 0.9819
-3.2264 2.4673 -1.9924 0.9821
-2.5397 1.6048 -1.4736 0.9867
-1.1499 0.4658 -0.6086 0.9945
-1.1589 0.3529 -0.5942 0.9946
-1.1908 0.1398 -0.5881 0.9947
-1.1964 0.0330 -0.5871 0.9947
-1.1958 -0.0739 -0.5877 0.9947
-1.1851 -0.1804 -0.5880 0.9947
-1.1609 -0.2846 -0.5863 0.9947
-3.2643 -2.2223 -1.9371 0.9826
-2.8006 -2.7504 -1.9255 0.9827
-2.2602 -3.1944 -1.9195 0.9827
-1.9653 -3.3818 -1.9186 0.9827
-1.3349 -3.6823 -1.9213 0.9827
-0.3146 -3.9339 -1.9358 0.9826
0.0377 -3.9619 -1.9435 0.9825
0.7485 -3.9307 -1.9627 0.9823
2.1323 -3.5134 -2.0159 0.9819
2.7672 -3.1288 -2.0489 0.9816
3.0615 -2.8943 -2.0666 0.9814
3.3371 -2.6330 -2.0851 0.9812
3.8970 -1.2513 -2.0077 0.9819
4.0299 -0.9070 -2.0262 0.9818
4.2359 0.1976 -2.0801 0.9813
4.2354 0.5793 -2.0969 0.9811
4.1985 0.9621 -2.1128 0.9810
4.1248 1.3422 -2.1277 0.9809
3.4681 2.7583 -2.1736 0.9805
3.2190 3.0671 -2.1810 0.9804
1.5839 4.1709 -2.1885 0.9803
0.8135 4.3642 -2.1776 0.9804
0.2817 2.9578 -1.4574 0.9868
0.0248 4.4023 -2.1595 0.9806
-1.1212 4.1752 -2.1206 0.9809
-1.4784 4.0290 -2.1052 0.9811
-2.7019 3.1499 -2.0356 0.9817
-2.9452 2.8700 -2.0172 0.9818
-3.1601 2.5720 -1.9986 0.9820
-1.1434 0.5040 -0.6130 0.9944
-1.1623 0.2801 -0.5864 0.9947
-1.1960 0.0693 -0.5877 0.9947
-1.1965 -0.0377 -0.5872 0.9947
-1.1902 -0.1445 -0.5881 0.9947
-1.1707 -0.2497 -0.5872 0.9947
-1.1588 -0.3578 -0.5949 0.9946
-1.1492 -0.4707 -0.6092 0.9945
-1.1235 -0.5822 -0.6207 0.9944
-3.3344 -2.1252 -1.9396 0.9825
-2.8849 -2.6666 -1.9270 0.9826
-2.6298 -2.9070 -1.9228 0.9827
-2.3566 -3.1255 -1.9201 0.9827
-1.1165 -3.7587 -1.9234 0.9827
-0.7785 -3.8521 -1.9278 0.9826
-0.4331 -3.9180 -1.9336 0.9826
0.2722 -3.9645 -1.9493 0.9825
0.6280 -3.9442 -1.9591 0.9824
0.9829 -3.8945 -1.9702 0.9823
1.6811 -3.7059 -1.9961 0.9820
2.3480 -3.3990 -2.0264 0.9818
3.5061 -2.4451 -2.0967 0.9811
3.7334 -2.1358 -2.1098 0.9810
2.3637 -1.0849 -1.2758 0.9885
3.8452 -1.3644 -2.0014 0.9820
4.1008 -0.6716 -2.0384 0.9817
4.1813 -0.3058 -2.0565 0.9815
4.2280 0.0690 -2.0742 0.9813
4.2396 0.4496 -2.0913 0.9812
4.2151 0.8324 -2.1075 0.9810
4.1539 1.2139 -2.1228 0.9809
3.9212 1.9572 -2.1497 0.9807
3.5453 2.6485 -2.1707 0.9805
3.3070 2.9651 -2.1787 0.9804
3.0377 3.2574 -2.1848 0.9804
2.4176 3.7563 -2.1912 0.9803
0.9463 4.3423 -2.1800 0.9804
0.5532 4.3940 -2.1724 0.9805
-2.0307 3.7167 -2.0775 0.9813
-2.6132 3.2401 -2.0418 0.9816
-3.0905 2.6749 -2.0049 0.9820
-2.5713 1.5231 -1.4660 0.9868
-1.1351 0.5420 -0.6170 0.9944
-1.1545 0.4294 -0.6042 0.9945
-1.1794 0.2115 -0.5877 0.9947
-1.1941 0.1055 -0.5880 0.9947
-1.1955 -0.0014 -0.5864 0.9947
-1.1939 -0.1084 -0.5880 0.9947
-3.4019 -2.0260 -1.9423 0.9825
-2.4512 -3.0539 -1.9209 0.9827
-1.8673 -3.4370 -1.9187 0.9827
-0.5509 -3.8988 -1.9314 0.9826
-0.2016 -3.9460 -1.9381 0.9826
0.5073 -3.9544 -1.9556 0.9824
0.8628 -3.9147 -1.9663 0.9823
1.2159 -3.8453 -1.9783 0.9822
1.5644 -3.7462 -1.9914 0.9821
1.9059 -3.6175 -2.0057 0.9819
2.2380 -3.4592 -2.0210 0.9818
2.8638 -3.0563 -2.0545 0.9815
3.6593 -2.2431 -2.1054 0.9811
3.9430 -1.1421 -2.0136 0.9819
4.0662 -0.7930 -2.0321 0.9817
4.2397 0.3201 -2.0856 0.9812
4.1788 1.0849 -2.1178 0.9809
3.9709 1.8340 -2.1455 0.9807
3.8124 2.1930 -2.1574 0.9806
3.6187 2.5363 -2.1676 0.9805
3.3913 2.8603 -2.1762 0.9804
3.1323 3.1612 -2.1829 0.9804
2.8441 3.4356 -2.1878 0.9803
2.5296 3.6805 -2.1907 0.9803
1.8351 4.0709 -2.1904 0.9803
1.0784 4.3160 -2.1822 0.9804
0.6869 4.3809 -2.1752 0.9804
-0.4905 4.3430 -2.1439 0.9807
-0.8705 4.2551 -2.1304 0.9808
-1.2380 4.1318 -2.1158 0.9810
-1.5897 3.9750 -2.1000 0.9811
-1.9226 3.7871 -2.0833 0.9813
-2.2340 3.5704 -2.0660 0.9814
-2.7832 3.0619 -2.0297 0.9817
-3.0175 2.7759 -2.0112 0.9819
-1.1248 0.5795 -0.6206 0.9944
-1.1496 0.4677 -0.6088 0.9945
-1.1589 0.3548 -0.5945 0.9946
-1.1964 0.0348 -0.5871 0.9947
-1.1854 -0.1786 -0.5880 0.9947
-1.1614 -0.2828 -0.5864 0.9947
-2.8049 -2.7463 -1.9255 0.9827
-2.5438 -2.9798 -1.9218 0.9827
-2.2651 -3.1910 -1.9195 0.9827
-1.3405 -3.6801 -1.9212 0.9827
-0.6681 -3.8764 -1.9295 0.9826
0.0316 -3.9616 -1.9433 0.9825
0.3867 -3.9612 -1.9523 0.9824
2.1266 -3.5162 -2.0157 0.9819
2.4511 -3.3387 -2.0317 0.9817
2.7620 -3.1326 -2.0486 0.9816
3.0566 -2.8986 -2.0663 0.9814
3.3325 -2.6377 -2.0847 0.9812
3.5821 -2.3480 -2.1009 0.9811
2.3112 -0.9814 -1.2317 0.9889
3.8944 -1.2571 -2.0074 0.9819
4.1303 -0.5550 -2.0442 0.9816
4.2001 -0.1860 -2.0623 0.9814
4.2356 0.1911 -2.0798 0.9813
4.2357 0.5728 -2.0966 0.9811
4.1264 1.3357 -2.1275 0.9809
3.8701 2.0728 -2.1535 0.9806
3.4721 2.7529 -2.1735 0.9805
2.3089 3.8247 -2.1915 0.9803
1.5904 4.1686 -2.1886 0.9803
1.2097 4.2851 -2.1841 0.9804
0.2866 2.9615 -1.4595 0.9868
0.0315 4.4026 -2.1596 0.9806
-0.7428 4.2889 -2.1351 0.9808
-1.1150 4.1774 -2.1209 0.9809
-1.8120 3.8542 -2.0891 0.9812
-2.9412 2.8750 -2.0175 0.9818
-3.1567 2.5772 -1.9990 0.9820
2.3717 3.4620 -2.1771 0.9813
2.0542 3.6611 -2.1779 0.9813
1.0073 4.0578 -2.1690 0.9813
0.1829 2.8240 -1.4681 0.9873
-0.1019 4.1322 -2.1444 0.9815
-0.4677 4.0850 -2.1331 0.9816
