ply
format ascii 1.0
element vertex 1592
property float32 x
property float32 y
property float32 z
property float32 I
end_header
-0.4093 6.8880 0.5841 0.9727
-1.0471 6.9901 0.5983 0.9720
-2.4038 2.0555 0.2677 0.9874
2.3472 -0.8971 0.2127 0.9900
11.5292 -2.1744 0.9932 0.9540
12.3820 -1.2058 1.0531 0.9513
13.3148 -0.1031 1.1272 0.9480
11.7680 0.9622 0.9995 0.9537
10.2774 1.7739 0.8829 0.9590
7.8804 2.8729 0.7100 0.9669
6.2782 3.6638 0.6153 0.9712
4.9391 4.2188 0.5499 0.9743
3.9245 4.8017 0.5250 0.9754
1.4529 5.9745 0.5205 0.9756
0.9139 6.0788 0.5204 0.9756
0.3794 6.3269 0.5366 0.9749
-0.2000 6.7907 0.5751 0.9731
11.3132 -2.4862 0.9805 0.9546
13.0360 -0.4911 1.1043 0.9490
10.8024 1.5334 0.9236 0.9571
8.2919 2.7448 0.7394 0.9655
7.2659 3.1494 0.6704 0.9687
4.1000 4.7208 0.5293 0.9752
2.1185 5.6662 0.5121 0.9760
1.6221 5.8961 0.5177 0.9758
0.5620 6.2421 0.5305 0.9752
-1.2783 7.0978 0.6105 0.9715
-9.6242 -8.9907 1.1149 0.9485
12.8989 -3.2419 1.1259 0.9480
12.6968 -0.8592 1.0773 0.9502
12.3308 0.2684 1.0441 0.9517
11.3787 1.2694 0.9692 0.9551
9.8027 1.9915 0.8468 0.9606
7.5696 3.0155 0.6898 0.9678
5.3394 4.0346 0.5665 0.9735
4.2785 4.6385 0.5342 0.9750
3.1941 5.0233 0.5039 0.9764
1.7895 5.8185 0.5153 0.9759
-0.4065 6.8867 0.5840 0.9727
-1.0440 6.9887 0.5982 0.9720
11.9137 -0.8014 0.7404 0.9533
8.6320 2.5774 0.5586 0.9645
6.7064 3.3967 0.4662 0.9703
4.7413 4.3017 0.3970 0.9747
3.7474 4.8756 0.3813 0.9757
2.2282 5.4623 0.3658 0.9766
1.7984 5.8556 0.3798 0.9757
-1.0456 6.9805 0.4377 0.9721
2.3472 -0.8971 0.1558 0.9900
12.2408 -0.0948 0.7591 0.9521
6.9736 3.2738 0.4777 0.9696
4.9328 4.2135 0.4023 0.9743
4.3102 4.4047 0.3821 0.9756
2.8281 5.0972 0.3615 0.9769
2.3883 5.3882 0.3655 0.9767
1.4619 6.0114 0.3836 0.9755
0.9128 6.0715 0.3807 0.9757
0.3789 6.3191 0.3926 0.9749
-0.8451 7.0816 0.4423 0.9718
-1.5206 7.2012 0.4564 0.9709
11.1763 -2.4561 0.7096 0.9552
8.2779 2.7402 0.5407 0.9657
5.7557 3.8344 0.4289 0.9727
4.5281 4.3587 0.3897 0.9751
3.4557 4.7817 0.3658 0.9766
2.1161 5.6597 0.3747 0.9761
1.6321 5.9326 0.3815 0.9756
-0.6217 6.9779 0.4344 0.9723
-2.4943 2.0085 0.1986 0.9872
-9.6325 -8.9985 0.8174 0.9485
12.8179 -3.2215 0.8196 0.9484
11.4465 -1.8108 0.7186 0.9546
12.2983 0.2677 0.7628 0.9519
11.3533 1.2666 0.7084 0.9552
7.5576 3.0107 0.5045 0.9679
6.7099 3.3951 0.4663 0.9703
6.0366 3.7658 0.4412 0.9719
4.7438 4.3006 0.3971 0.9747
3.7497 4.8745 0.3814 0.9757
3.1904 5.0174 0.3687 0.9765
2.7084 5.2402 0.3658 0.9766
2.2303 5.4613 0.3658 0.9766
1.8006 5.8546 0.3798 0.9758
0.1946 6.4046 0.3973 0.9746
-1.0426 6.9790 0.4376 0.9721
-2.4027 2.0562 0.1961 0.9874
12.7847 -3.2077 0.5197 0.9486
14.7032 -2.3200 0.5869 0.9422
12.2560 0.2717 0.4834 0.9521
11.3201 1.2674 0.4492 0.9554
8.6171 2.5730 0.3546 0.9646
5.3227 4.0254 0.2631 0.9736
4.7354 4.2964 0.2521 0.9747
4.2657 4.6284 0.2482 0.9751
3.1845 5.0126 0.2342 0.9765
2.7032 5.2352 0.2323 0.9767
0.7367 6.1453 0.2441 0.9755
0.1919 6.3978 0.2524 0.9747
-1.0442 6.9709 0.2779 0.9722
-2.4031 2.0549 0.1247 0.9874
2.3472 -0.8971 0.0991 0.9900
14.5210 -2.7387 0.5827 0.9426
11.7565 -1.1449 0.4658 0.9538
12.2394 -0.0948 0.4826 0.9522
10.2358 1.7667 0.4096 0.9593
8.9164 2.3744 0.3638 0.9637
7.8547 2.8635 0.3297 0.9671
6.9631 3.2689 0.3033 0.9697
6.2606 3.6535 0.2858 0.9714
5.5317 3.9290 0.2675 0.9732
4.3089 4.4034 0.2429 0.9756
2.8249 5.0913 0.2296 0.9770
1.9633 5.7716 0.2404 0.9759
1.4602 6.0044 0.2437 0.9756
-0.1937 6.5765 0.2594 0.9740
-0.8440 7.0721 0.2808 0.9719
11.6238 -1.4841 0.4621 0.9542
11.0783 1.5726 0.4412 0.9562
8.2640 2.7356 0.3432 0.9658
7.2435 3.1397 0.3113 0.9689
6.5061 3.5403 0.2921 0.9708
5.7480 3.8292 0.2723 0.9727
5.1230 4.1175 0.2592 0.9740
4.0902 4.7095 0.2460 0.9753
3.4517 4.7761 0.2324 0.9767
2.1137 5.6531 0.2380 0.9761
0.5607 6.2269 0.2465 0.9753
-0.6209 6.9687 0.2759 0.9724
-9.6408 -9.0062 0.5202 0.9486
12.8057 -3.2185 0.5206 0.9485
11.9103 -0.8060 0.4707 0.9533
12.2661 0.2670 0.4838 0.9521
9.7646 1.9837 0.3929 0.9609
7.5457 3.0059 0.3203 0.9680
6.7001 3.3901 0.2961 0.9704
6.0283 3.7606 0.2802 0.9720
4.7379 4.2952 0.2522 0.9747
2.7053 5.2342 0.2323 0.9767
2.2277 5.4551 0.2323 0.9767
1.7985 5.8478 0.2412 0.9758
0.1944 6.3966 0.2523 0.9747
-0.4054 6.8688 0.2713 0.9728
-2.4024 2.0560 0.1247 0.9874
-9.6481 -9.0203 0.2231 0.9485
15.5210 -1.0441 0.2628 0.9397
9.7396 1.9827 0.1679 0.9610
8.6022 2.5685 0.1516 0.9647
7.5297 3.0031 0.1369 0.9681
5.3158 4.0201 0.1126 0.9737
4.7295 4.2910 0.1079 0.9748
4.2606 4.6229 0.1062 0.9752
2.2230 5.4498 0.0994 0.9767
1.2588 5.9453 0.1027 0.9760
0.7358 6.1379 0.1044 0.9756
-0.4077 6.8612 0.1161 0.9729
-1.0428 6.9613 0.1189 0.9722
-2.4028 2.0547 0.0534 0.9874
2.3472 -0.8971 0.0424 0.9900
10.2152 1.7632 0.1751 0.9594
7.8420 2.8589 0.1410 0.9672
6.9527 3.2640 0.1297 0.9697
6.3792 3.7227 0.1248 0.9709
5.5244 3.9238 0.1145 0.9733
4.3076 4.4021 0.1040 0.9757
2.8217 5.0855 0.0982 0.9770
2.3828 5.3759 0.0993 0.9767
1.9610 5.7649 0.1029 0.9759
1.4585 5.9974 0.1043 0.9756
0.9106 6.0570 0.1035 0.9758
0.3780 6.3036 0.1067 0.9751
-0.1934 6.5681 0.1110 0.9741
-0.8428 7.0626 0.1201 0.9719
2.3480 -0.9789 0.0430 0.9899
14.9114 -0.5618 0.2521 0.9421
11.6882 0.6045 0.1977 0.9543
11.0549 1.5693 0.1886 0.9563
9.3069 2.1825 0.1615 0.9625
7.2324 3.1349 0.1331 0.9690
6.6292 3.6073 0.1275 0.9703
5.7402 3.8241 0.1165 0.9728
4.0853 4.7039 0.1052 0.9754
3.0212 5.0807 0.0998 0.9766
2.5425 5.3021 0.0993 0.9768
2.1112 5.6467 0.1018 0.9762
-0.6201 6.9595 0.1180 0.9724
14.0708 -3.5364 0.2451 0.9436
12.2342 0.2663 0.2067 0.9522
11.3031 1.2610 0.1921 0.9555
8.6071 2.5662 0.1517 0.9647
6.6903 3.3852 0.1267 0.9704
6.1427 3.8320 0.1223 0.9715
5.3186 4.0189 0.1126 0.9737
3.7409 4.8631 0.1036 0.9758
2.2252 5.4488 0.0994 0.9767
1.7965 5.8410 0.1032 0.9758
1.2634 5.9553 0.1028 0.9759
0.1942 6.3887 0.1080 0.9748
-2.4021 2.0557 0.0534 0.9874
14.0634 -3.5286 -0.0816 0.9437
15.4716 -1.0407 -0.0873 0.9399
12.1923 0.2703 -0.0687 0.9524
9.7208 1.9789 -0.0559 0.9611
8.5873 2.5641 -0.0505 0.9648
7.5179 2.9983 -0.0456 0.9681
6.6771 3.3819 -0.0421 0.9705
6.1311 3.8282 -0.0407 0.9715
5.3090 4.0149 -0.0375 0.9737
4.7237 4.2857 -0.0359 0.9748
3.7343 4.8585 -0.0345 0.9758
3.1772 5.0011 -0.0334 0.9766
2.2205 5.4436 -0.0331 0.9768
1.2594 5.9480 -0.0342 0.9760
0.7349 6.1306 -0.0348 0.9756
0.1914 6.3819 -0.0359 0.9748
-0.4072 6.8523 -0.0386 0.9729
-1.0413 6.9518 -0.0396 0.9723
-2.4028 2.0547 -0.0178 0.9874
17.9820 -1.7512 -0.1017 0.9303
6.9424 3.2591 -0.0432 0.9698
6.3703 3.7175 -0.0415 0.9709
5.5171 3.9186 -0.0381 0.9733
4.9142 4.1976 -0.0364 0.9745
3.9060 4.7790 -0.0348 0.9756
2.3801 5.3698 -0.0331 0.9768
1.4568 5.9904 -0.0347 0.9756
2.3422 -0.9764 -0.0143 0.9899
9.2897 2.1784 -0.0537 0.9626
7.2213 3.1301 -0.0443 0.9690
6.6198 3.6021 -0.0424 0.9703
5.7326 3.8189 -0.0388 0.9728
4.5115 4.3427 -0.0353 0.9753
3.4437 4.7650 -0.0331 0.9768
3.0177 5.0749 -0.0332 0.9767
2.5395 5.2960 -0.0331 0.9768
2.1088 5.6402 -0.0339 0.9762
1.6264 5.9120 -0.0345 0.9758
0.5593 6.2118 -0.0351 0.9754
0.0030 6.4690 -0.0364 0.9745
-0.6193 6.9503 -0.0393 0.9725
-9.6574 -9.0217 -0.0744 0.9485
14.0631 -3.5345 -0.0816 0.9436
11.2782 1.2582 -0.0639 0.9556
8.5923 2.5618 -0.0505 0.9648
7.5219 2.9965 -0.0456 0.9681
6.6805 3.3803 -0.0422 0.9705
6.1343 3.8268 -0.0407 0.9715
4.7262 4.2846 -0.0359 0.9748
4.2579 4.6162 -0.0354 0.9752
3.7365 4.8574 -0.0345 0.9758
2.2227 5.4426 -0.0331 0.9768
1.7944 5.8343 -0.0344 0.9759
0.7373 6.1295 -0.0348 0.9756
-0.4044 6.8510 -0.0386 0.9729
-1.0383 6.9504 -0.0396 0.9723
15.4224 -1.0374 -0.4352 0.9400
11.2455 1.2591 -0.3186 0.9557
9.7021 1.9751 -0.2788 0.9612
8.7470 2.6118 -0.2570 0.9641
4.2504 4.6118 -0.1766 0.9752
3.1736 4.9953 -0.1666 0.9766
2.2180 5.4374 -0.1654 0.9768
1.7901 5.8286 -0.1717 0.9759
1.2599 5.9507 -0.1713 0.9760
0.7340 6.1232 -0.1737 0.9756
-1.0399 6.9423 -0.1977 0.9723
16.1253 -1.5703 -0.4562 0.9372
14.6203 -0.1132 -0.4117 0.9432
10.1742 1.7561 -0.2907 0.9595
8.8714 2.3624 -0.2585 0.9639
7.8167 2.8496 -0.2343 0.9673
6.9320 3.2543 -0.2156 0.9698
5.5099 3.9135 -0.1903 0.9733
3.3151 4.8887 -0.1663 0.9766
2.3774 5.3636 -0.1652 0.9768
1.9565 5.7517 -0.1711 0.9760
1.4551 5.9835 -0.1734 0.9757
0.9085 6.0427 -0.1721 0.9758
-0.1929 6.5514 -0.1846 0.9741
-1.5120 7.1602 -0.2061 0.9711
2.3379 -0.9747 -0.0713 0.9899
19.2560 -2.4585 -0.5466 0.9253
14.9082 -0.5617 -0.4201 0.9420
11.6855 0.6044 -0.3295 0.9543
9.2725 2.1744 -0.2682 0.9626
8.3901 2.7773 -0.2489 0.9653
7.2103 3.1253 -0.2213 0.9690
5.1035 4.1018 -0.1844 0.9741
4.5060 4.3374 -0.1761 0.9753
4.0756 4.6927 -0.1750 0.9754
0.0030 6.4609 -0.1819 0.9745
-0.6184 6.9412 -0.1962 0.9725
-1.2694 7.0483 -0.2017 0.9717
-2.4800 1.9971 -0.0897 0.9873
15.4381 -1.0447 -0.4357 0.9400
9.7082 1.9723 -0.2789 0.9611
8.7520 2.6095 -0.2572 0.9641
6.6708 3.3754 -0.2105 0.9705
5.3048 4.0085 -0.1872 0.9737
4.2528 4.6107 -0.1766 0.9752
3.7322 4.8517 -0.1724 0.9758
2.2201 5.4364 -0.1654 0.9768
0.1937 6.3728 -0.1795 0.9748
-0.4038 6.8421 -0.1930 0.9729
-1.0369 6.9409 -0.1976 0.9723
-9.5889 -8.9650 -0.6657 0.9488
12.1451 0.2692 -0.6161 0.9525
11.2208 1.2563 -0.5726 0.9558
9.6835 1.9713 -0.5012 0.9612
8.7320 2.6073 -0.4622 0.9642
7.4943 2.9889 -0.4092 0.9682
6.6577 3.3721 -0.3785 0.9706
6.1144 3.8178 -0.3656 0.9715
5.2952 4.0046 -0.3367 0.9738
3.7255 4.8471 -0.3100 0.9758
2.6908 5.2113 -0.2974 0.9768
1.2605 5.9534 -0.3086 0.9759
0.7332 6.1159 -0.3124 0.9756
0.1909 6.3661 -0.3230 0.9748
-0.4061 6.8346 -0.3472 0.9730
-1.0391 6.9369 -0.3557 0.9723
16.0698 -1.5649 -0.8188 0.9374
14.5800 -0.1129 -0.7394 0.9433
11.7598 0.9616 -0.5984 0.9538
8.8702 2.3621 -0.4655 0.9639
7.8040 2.8450 -0.4213 0.9673
6.9217 3.2495 -0.3878 0.9698
6.3526 3.7072 -0.3730 0.9710
5.5026 3.9083 -0.3423 0.9733
4.9019 4.1871 -0.3269 0.9745
4.3037 4.3981 -0.3121 0.9757
3.8968 4.7678 -0.3123 0.9756
3.3113 4.8831 -0.2992 0.9766
2.8120 5.0681 -0.2939 0.9771
2.3747 5.3575 -0.2972 0.9768
0.9074 6.0355 -0.3095 0.9759
-1.5098 7.1500 -0.3706 0.9712
2.3336 -0.9729 -0.1282 0.9899
11.6841 0.6043 -0.5933 0.9542
10.9855 1.5594 -0.5627 0.9565
9.2554 2.1704 -0.4821 0.9626
6.6010 3.5919 -0.3811 0.9704
5.7172 3.8087 -0.3484 0.9729
4.0708 4.6872 -0.3148 0.9754
3.4357 4.7539 -0.2975 0.9768
3.0108 5.0633 -0.2987 0.9767
2.5338 5.2840 -0.2972 0.9768
2.1040 5.6273 -0.3047 0.9762
1.0786 5.9564 -0.3070 0.9760
0.5580 6.1967 -0.3155 0.9754
0.0030 6.4527 -0.3272 0.9745
-0.6176 6.9320 -0.3529 0.9725
-1.2677 7.0385 -0.3627 0.9718
12.1428 0.2643 -0.6160 0.9525
9.6896 1.9685 -0.5014 0.9612
7.4983 2.9871 -0.4093 0.9682
6.6611 3.3705 -0.3786 0.9705
6.1176 3.8163 -0.3657 0.9715
5.2980 4.0033 -0.3368 0.9738
4.2477 4.6052 -0.3177 0.9752
3.7278 4.8460 -0.3101 0.9758
1.2651 5.9634 -0.3092 0.9759
0.7355 6.1148 -0.3123 0.9756
-0.4033 6.8333 -0.3471 0.9730
-2.4042 2.0575 -0.1605 0.9874
-19.2285 -4.2149 -1.4434 0.9241
-18.2294 -5.7414 -1.4013 0.9262
-16.1145 -8.4670 -1.3347 0.9296
-15.0032 -9.6827 -1.3093 0.9309
-9.5700 -8.9473 -0.9606 0.9488
-11.4627 -12.8169 -1.2608 0.9334
-10.2123 -13.7061 -1.2532 0.9337
-8.9246 -14.5231 -1.2499 0.9339
-4.8153 -16.5573 -1.2643 0.9332
-3.3537 -17.0978 -1.2775 0.9325
3.0595 -18.5293 -1.3770 0.9274
6.6802 -18.7468 -1.4592 0.9233
15.3248 -1.0309 -1.1262 0.9403
11.1962 1.2536 -0.8261 0.9558
8.7109 2.6010 -0.6666 0.9642
6.6480 3.3672 -0.5464 0.9706
5.2884 3.9994 -0.4862 0.9738
3.7212 4.8414 -0.4477 0.9758
2.6878 5.2053 -0.4295 0.9768
0.7323 6.1085 -0.4511 0.9756
0.1907 6.3582 -0.4664 0.9748
-2.4054 2.0569 -0.2321 0.9874
-19.5536 -3.6770 -1.4588 0.9233
-18.5685 -5.2432 -1.4147 0.9255
-16.4787 -8.0390 -1.3444 0.9291
-15.3791 -9.2859 -1.3172 0.9305
-14.2449 -10.4416 -1.2950 0.9316
-13.0764 -11.5122 -1.2774 0.9325
-10.6350 -13.4165 -1.2553 0.9336
-9.3600 -14.2575 -1.2505 0.9339
-8.0464 -15.0276 -1.2499 0.9339
-5.2938 -16.3609 -1.2608 0.9334
-3.8487 -16.9245 -1.2726 0.9328
0.8081 -18.1886 -1.3349 0.9296
10.1335 1.7491 -0.7540 0.9596
8.8691 2.3618 -0.6730 0.9639
7.7914 2.8404 -0.6081 0.9673
6.9114 3.2446 -0.5598 0.9698
5.4954 3.9032 -0.4942 0.9733
4.8957 4.1818 -0.4721 0.9745
3.8922 4.7621 -0.4510 0.9756
3.3074 4.8774 -0.4321 0.9766
2.8088 5.0623 -0.4245 0.9770
2.3720 5.3514 -0.4292 0.9768
1.4517 5.9696 -0.4505 0.9757
0.3761 6.2727 -0.4608 0.9751
-1.5077 7.1398 -0.5351 0.9712
-17.8904 -6.2206 -1.3888 0.9268
-14.6285 -10.0644 -1.3019 0.9313
-13.4714 -11.1629 -1.2828 0.9322
-4.3380 -16.7435 -1.2682 0.9330
-1.3278 -17.7076 -1.3020 0.9313
1.9148 -18.3767 -1.3547 0.9286
5.4323 -18.7160 -1.4289 0.9248
2.3294 -0.9711 -0.1850 0.9899
18.8262 -2.4036 -1.3916 0.9267
14.9049 -0.5615 -1.0936 0.9419
11.6828 0.6043 -0.8578 0.9542
10.9625 1.5561 -0.8119 0.9566
9.2382 2.1664 -0.6957 0.9627
8.3621 2.7681 -0.6458 0.9653
6.5916 3.5868 -0.5502 0.9704
4.4949 4.3267 -0.4575 0.9753
3.4317 4.7484 -0.4296 0.9768
3.0073 5.0574 -0.4314 0.9767
2.1016 5.6209 -0.4400 0.9762
1.0773 5.9494 -0.4433 0.9760
0.0030 6.4446 -0.4725 0.9745
-0.6168 6.9229 -0.5096 0.9725
-19.2329 -4.2078 -1.4436 0.9241
-17.1952 -7.1497 -1.3654 0.9280
-16.1194 -8.4614 -1.3348 0.9296
-13.8627 -10.8045 -1.2887 0.9319
-9.5752 -8.9449 -0.9608 0.9488
-11.4682 -12.8127 -1.2608 0.9334
-10.2179 -13.7023 -1.2533 0.9337
-8.9304 -14.5196 -1.2499 0.9339
-7.6036 -15.2668 -1.2505 0.9339
-4.8217 -16.5547 -1.2643 0.9332
-3.3604 -17.0955 -1.2775 0.9325
-1.8469 -17.5661 -1.2951 0.9316
-0.2771 -17.9642 -1.3173 0.9305
1.3540 -18.2864 -1.3445 0.9291
6.6717 -18.7468 -1.4590 0.9233
14.0627 -3.5344 -1.0632 0.9435
12.1414 0.2643 -0.8904 0.9525
9.6709 1.9647 -0.7236 0.9612
7.4866 2.9824 -0.5909 0.9682
6.6515 3.3656 -0.5466 0.9705
6.1092 3.8111 -0.5280 0.9715
5.2911 3.9981 -0.4863 0.9738
4.7086 4.2686 -0.4660 0.9748
4.2426 4.5997 -0.4588 0.9752
3.7235 4.8404 -0.4478 0.9758
3.1684 4.9828 -0.4330 0.9766
2.6899 5.2044 -0.4296 0.9768
2.2151 5.4240 -0.4296 0.9768
0.7347 6.1075 -0.4510 0.9756
0.1932 6.3570 -0.4663 0.9748
-0.4028 6.8244 -0.5013 0.9730
-1.0371 6.9428 -0.5147 0.9722
-17.7610 0.9282 -1.7075 0.9310
-16.5714 -2.1068 -1.6037 0.9351
-15.8792 -3.4807 -1.5607 0.9368
-13.4843 -7.0851 -1.4624 0.9406
-12.5936 -8.1276 -1.4390 0.9415
-11.6614 -9.0963 -1.4199 0.9423
-7.0302 -11.4404 -1.2891 0.9475
-4.9033 -12.5542 -1.2939 0.9473
-3.7864 -13.0195 -1.3017 0.9470
-1.4414 -13.7619 -1.3284 0.9459
-0.2109 -14.0351 -1.3476 0.9452
1.0601 -14.2392 -1.3708 0.9442
7.0586 -15.3246 -1.6198 0.9344
10.3144 -14.7481 -1.7278 0.9302
12.0177 -14.2784 -1.7917 0.9277
13.7698 -13.6718 -1.8629 0.9250
15.1166 -1.0169 -1.4545 0.9409
12.1423 0.2692 -1.1660 0.9524
11.1578 1.2493 -1.0779 0.9559
8.7019 2.5983 -0.8719 0.9642
7.4708 2.9796 -0.7722 0.9682
5.2815 3.9942 -0.6357 0.9737
3.1626 4.9781 -0.5662 0.9766
2.6847 5.1994 -0.5618 0.9768
2.2104 5.4187 -0.5618 0.9768
0.1904 6.3503 -0.6099 0.9748
-0.4021 6.7671 -0.6508 0.9731
-1.7579 7.2455 -0.7158 0.9705
-18.7421 5.0016 -1.8623 0.9250
-17.9313 1.4759 -1.7273 0.9303
-17.3968 -0.1254 -1.6702 0.9325
-16.7896 -1.6260 -1.6194 0.9345
-16.1175 -3.0308 -1.5745 0.9362
-12.8966 -7.7869 -1.4463 0.9413
-11.9781 -8.7800 -1.4258 0.9421
-9.3365 -9.8312 -1.3016 0.9470
-8.3719 -10.5616 -1.2939 0.9473
-6.3384 -11.8378 -1.2891 0.9475
-4.1644 -12.8706 -1.2987 0.9471
-3.0232 -13.2946 -1.3089 0.9467
-1.8446 -13.6555 -1.3229 0.9461
-0.6273 -13.9511 -1.3407 0.9454
1.9285 -14.3348 -1.3886 0.9435
11.4418 -14.4503 -1.7695 0.9286
13.1779 -13.8910 -1.8382 0.9259
2.3517 -0.8988 -0.2417 0.9899
14.4999 -0.1123 -1.3921 0.9434
8.8679 2.3614 -0.8810 0.9638
6.9011 3.2398 -0.7319 0.9698
4.3011 4.3954 -0.5904 0.9756
3.8876 4.7565 -0.5898 0.9756
3.3036 4.8718 -0.5651 0.9766
1.4500 5.9626 -0.5891 0.9756
0.3757 6.2650 -0.6026 0.9751
-0.1922 6.5263 -0.6268 0.9741
-1.5055 7.1297 -0.6996 0.9711
-18.8390 5.6361 -1.8878 0.9240
-18.5147 3.7794 -1.8142 0.9269
-18.0924 2.0355 -1.7479 0.9295
-17.0004 -1.1345 -1.6358 0.9338
-16.3493 -2.5708 -1.5889 0.9357
-15.6379 -3.9148 -1.5476 0.9373
-14.8720 -5.1711 -1.5116 0.9387
-14.0564 -6.3441 -1.4806 0.9399
-8.6988 -10.3239 -1.2961 0.9472
-7.7111 -11.0131 -1.2907 0.9474
-6.6886 -11.6411 -1.2889 0.9475
-5.6312 -12.2083 -1.2907 0.9474
-4.5384 -12.7147 -1.2961 0.9472
-3.4094 -13.1596 -1.3051 0.9468
-1.0393 -13.8596 -1.3343 0.9457
0.2044 -14.1103 -1.3548 0.9449
2.8159 -14.3970 -1.4084 0.9428
4.1945 -14.4514 -1.4447 0.9413
6.0134 -15.4208 -1.5891 0.9357
7.5825 -15.2601 -1.6359 0.9338
9.2018 -14.9923 -1.6888 0.9318
12.5912 -14.0938 -1.8144 0.9269
14.3589 -13.4390 -1.8881 0.9240
2.3258 -0.9696 -0.2419 0.9899
19.0398 -2.4309 -1.8428 0.9258
14.9032 -0.5615 -1.4318 0.9418
9.2211 2.1624 -0.9093 0.9627
7.1773 3.1110 -0.7510 0.9691
5.7019 3.7985 -0.6578 0.9728
5.0840 4.0861 -0.6262 0.9741
4.4894 4.3214 -0.5982 0.9753
2.5280 5.2719 -0.5613 0.9768
0.5566 6.1817 -0.5959 0.9754
-0.6160 6.9138 -0.6664 0.9725
-1.2642 7.0189 -0.6847 0.9717
-2.4710 1.9898 -0.3046 0.9873
-17.2038 -0.6320 -1.6528 0.9332
-15.8824 -3.4747 -1.5609 0.9368
-15.1342 -4.7599 -1.5231 0.9382
-14.3348 -5.9604 -1.4904 0.9395
-13.4882 -7.0802 -1.4625 0.9406
-9.5273 -8.9002 -1.2517 0.9490
-8.0456 -10.7892 -1.2921 0.9474
-5.9891 -12.0252 -1.2897 0.9474
-1.4468 -13.7605 -1.3284 0.9459
-0.2165 -14.0340 -1.3475 0.9452
1.0543 -14.2384 -1.3707 0.9442
3.7227 -14.4242 -1.4302 0.9419
12.0099 -14.2808 -1.7914 0.9278
13.7618 -13.6749 -1.8626 0.9250
18.1098 -8.1940 -1.9083 0.9232
14.0872 -3.5406 -1.3945 0.9433
9.6523 1.9609 -0.9456 0.9612
8.7069 2.5960 -0.8723 0.9641
6.6418 3.3607 -0.7146 0.9705
4.2375 4.5941 -0.6000 0.9752
3.7191 4.8347 -0.5856 0.9758
2.6868 5.1984 -0.5618 0.9768
2.2125 5.4178 -0.5618 0.9768
1.7861 5.8075 -0.5833 0.9759
1.2662 5.9688 -0.5858 0.9758
-1.7544 7.2439 -0.7156 0.9705
-15.2608 10.1784 -2.1790 0.9288
-14.9077 0.7791 -1.7732 0.9416
-14.5128 -0.5390 -1.7251 0.9432
-12.2798 -5.1117 -1.5800 0.9478
-10.0603 -7.8474 -1.5156 0.9499
-8.6367 -8.0747 -1.4045 0.9535
-6.0862 -9.9041 -1.3808 0.9543
-4.2428 -10.8630 -1.3853 0.9541
-3.2737 -11.2565 -1.3925 0.9539
-2.2736 -11.5912 -1.4031 0.9535
3.4149 -13.2097 -1.6207 0.9465
4.6799 -13.1334 -1.6562 0.9454
7.2951 -12.7125 -1.7410 0.9427
8.6409 -12.3552 -1.7909 0.9411
10.0078 -11.8904 -1.8461 0.9393
12.7851 -10.6057 -1.9732 0.9353
12.1410 0.2692 -1.4425 0.9523
9.3631 1.9061 -1.1350 0.9622
8.6193 2.5736 -1.0685 0.9644
6.0894 3.8022 -0.8528 0.9715
4.6944 4.2592 -0.7529 0.9748
3.7124 4.8301 -0.7236 0.9758
3.1589 4.9723 -0.6998 0.9765
2.2078 5.4125 -0.6944 0.9767
1.2622 5.9616 -0.7239 0.9758
-0.4046 6.8080 -0.8101 0.9729
-1.7553 7.2349 -0.8843 0.9705
-2.4071 2.0583 -0.3762 0.9873
-15.1487 10.7718 -2.2080 0.9279
-15.5798 7.3243 -2.0450 0.9330
-15.3097 2.6509 -1.8456 0.9393
-15.0226 1.2365 -1.7905 0.9411
-14.2101 -1.3762 -1.6959 0.9441
-13.1284 -3.7071 -1.6204 0.9465
-12.5014 -4.7705 -1.5894 0.9475
-11.0974 -6.7006 -1.5399 0.9491
-10.3275 -7.5702 -1.5210 0.9497
-9.0107 -7.9328 -1.4260 0.9528
-8.0757 -8.5036 -1.3930 0.9539
-7.2442 -9.1388 -1.3852 0.9541
-5.4873 -10.2482 -1.3809 0.9543
-3.6016 -11.1312 -1.3897 0.9540
-2.6119 -11.4857 -1.3992 0.9537
-0.5401 -12.0132 -1.4284 0.9527
1.7247 -12.8199 -1.5365 0.9492
5.5375 -13.0346 -1.6823 0.9445
6.8499 -12.8094 -1.7255 0.9432
9.5480 -12.0585 -1.8270 0.9399
10.9264 -11.5177 -1.8858 0.9381
13.7145 -10.0641 -2.0207 0.9338
15.1082 -9.1333 -2.0971 0.9314
18.9182 -3.5680 -2.2868 0.9254
8.7579 2.3322 -1.0766 0.9642
7.7662 2.8312 -0.9819 0.9673
6.8908 3.2349 -0.9042 0.9698
4.8834 4.1713 -0.7629 0.9745
3.8830 4.7509 -0.7289 0.9756
3.2998 4.8661 -0.6984 0.9766
1.9475 5.7253 -0.7184 0.9759
0.4589 3.0524 -0.3667 0.9876
-0.1920 6.5179 -0.7746 0.9741
-0.8361 7.0060 -0.8381 0.9720
-15.0193 11.3711 -2.2377 0.9269
-15.5458 7.8843 -2.0705 0.9322
-15.6060 6.2338 -1.9962 0.9345
-15.5487 4.6518 -1.9279 0.9367
-14.3663 -0.9587 -1.7103 0.9437
-13.8777 -2.1821 -1.6687 0.9450
-13.3261 -3.3360 -1.6318 0.9462
-12.7172 -4.4218 -1.5993 0.9472
-12.0557 -5.4411 -1.5711 0.9481
-11.3455 -6.3954 -1.5471 0.9489
-9.4555 -7.8352 -1.4587 0.9517
-8.3417 -8.2735 -1.3956 0.9538
-5.7905 -10.0781 -1.3807 0.9543
-2.9467 -11.3736 -1.3956 0.9538
-1.9364 -11.6885 -1.4074 0.9534
1.3166 -12.6361 -1.5091 0.9501
2.5829 -13.2057 -1.5984 0.9472
3.8295 -13.1938 -1.6319 0.9462
7.7371 -12.6059 -1.7570 0.9422
10.4632 -11.7119 -1.8655 0.9387
13.2466 -10.3443 -1.9964 0.9345
14.6425 -9.4610 -2.0708 0.9322
16.0280 -8.4325 -2.1513 0.9296
2.3235 -0.9687 -0.2990 0.9899
17.3663 -5.4798 -2.1631 0.9293
18.9683 -2.4218 -2.2715 0.9259
11.6801 0.6041 -1.3893 0.9540
9.0559 2.1236 -1.1049 0.9632
8.2734 2.7387 -1.0352 0.9655
7.1663 3.1062 -0.9278 0.9690
5.6943 3.7934 -0.8127 0.9728
5.0775 4.0809 -0.7738 0.9741
4.4839 4.3161 -0.7393 0.9752
4.0562 4.6704 -0.7348 0.9754
3.0004 5.0458 -0.6973 0.9766
2.5251 5.2658 -0.6937 0.9768
0.5532 3.0550 -0.3688 0.9876
0.5559 6.1742 -0.7364 0.9753
0.0030 6.4284 -0.7636 0.9744
-0.6152 6.9046 -0.8234 0.9725
-1.2624 7.0090 -0.8460 0.9717
-2.4680 1.9874 -0.3764 0.9873
-15.2594 10.1863 -2.1794 0.9288
-15.4971 8.4515 -2.0968 0.9314
-14.9093 0.7851 -1.7735 0.9416
-14.5148 -0.5332 -1.7253 0.9432
-13.5174 -2.9573 -1.6437 0.9458
-12.2828 -5.1071 -1.5801 0.9478
-10.8479 -6.9948 -1.5332 0.9493
-7.8025 -8.7172 -1.3897 0.9540
-6.9631 -9.3375 -1.3836 0.9542
-6.0902 -9.9017 -1.3809 0.9543
-0.1863 -12.0761 -1.4346 0.9525
0.9225 -12.4585 -1.4839 0.9509
3.4093 -13.2099 -1.6206 0.9465
4.6742 -13.1340 -1.6560 0.9454
5.9681 -12.9707 -1.6960 0.9441
7.2891 -12.7139 -1.7408 0.9427
10.0016 -11.8927 -1.8458 0.9393
11.3849 -11.3129 -1.9065 0.9374
12.7788 -10.6092 -1.9729 0.9353
14.1758 -9.7725 -2.0452 0.9330
15.5660 -8.7937 -2.1237 0.9305
15.7183 -7.1119 -2.0493 0.9329
16.9602 -5.9149 -2.1336 0.9302
12.1387 0.2642 -1.4422 0.9523
9.3674 1.9030 -1.1354 0.9622
7.4630 2.9730 -0.9543 0.9682
6.0925 3.8007 -0.8530 0.9715
4.2324 4.5886 -0.7415 0.9752
2.2100 5.4115 -0.6944 0.9767
0.7329 6.0928 -0.7290 0.9756
0.1927 6.3412 -0.7536 0.9748
-0.4017 6.8067 -0.8099 0.9729
-1.7518 7.2333 -0.8841 0.9705
-2.4068 2.0597 -0.3763 0.9873
-15.1471 10.7798 -2.2084 0.9278
-15.5795 7.3317 -2.0453 0.9330
-12.7337 8.4928 -2.1687 0.9400
-13.0131 7.0901 -2.0997 0.9419
-13.0519 1.8598 -1.8680 0.9481
-12.8348 0.6707 -1.8210 0.9494
-12.5421 -0.4658 -1.7783 0.9506
-12.1804 -1.5485 -1.7397 0.9516
-11.2719 -3.5501 -1.6744 0.9534
-10.1483 -5.3322 -1.6243 0.9547
-8.1240 -7.5954 -1.5758 0.9561
-5.7559 -9.3667 -1.5577 0.9566
-3.0837 -10.6032 -1.5646 0.9564
-2.1460 -10.9411 -1.5798 0.9560
-1.1716 -11.1865 -1.5937 0.9556
0.8551 -11.4855 -1.6319 0.9545
2.9756 -11.5106 -1.6845 0.9531
5.1745 -11.2341 -1.7525 0.9513
7.4291 -10.6225 -1.8366 0.9490
8.5672 -10.1788 -1.8851 0.9477
9.7056 -9.6365 -1.9379 0.9462
10.8374 -8.9900 -1.9951 0.9447
11.9547 -8.2343 -2.0568 0.9430
13.0479 -7.3642 -2.1229 0.9413
14.9061 -3.7400 -2.1775 0.9398
15.0637 -1.0133 -2.1392 0.9408
9.4948 1.9329 -1.3729 0.9616
6.6189 3.3524 -1.0513 0.9705
4.6886 4.2539 -0.8970 0.9747
4.2249 4.5841 -0.8833 0.9751
2.6785 5.1874 -0.8272 0.9767
2.2053 5.4063 -0.8273 0.9767
1.2628 5.9644 -0.8638 0.9757
0.1900 6.3344 -0.8979 0.9747
-0.4040 6.7991 -0.9651 0.9729
-1.7319 7.1383 -1.0408 0.9708
-7.6766 17.3443 -2.6875 0.9262
-8.8921 16.0466 -2.5994 0.9286
-9.9442 14.6815 -2.5125 0.9309
-10.8359 13.2722 -2.4277 0.9331
-2.4080 2.0591 -0.4489 0.9873
-12.6123 8.9683 -2.1928 0.9394
-13.2115 3.5257 -1.9374 0.9463
-12.9162 1.0631 -1.8363 0.9490
-12.3088 -1.1920 -1.7522 0.9513
-11.9043 -2.2386 -1.7163 0.9522
-9.7324 -5.8764 -1.6109 0.9551
-8.3681 -7.3671 -1.5797 0.9560
-7.6265 -8.0307 -1.5692 0.9562
-6.8484 -8.6396 -1.5621 0.9564
-5.1655 -9.6472 -1.5505 0.9568
-3.3861 -10.4649 -1.5585 0.9565
-2.4662 -10.8453 -1.5759 0.9561
-1.5009 -11.1112 -1.5886 0.9557
-0.5088 -11.3149 -1.6048 0.9553
0.5089 -11.4538 -1.6245 0.9547
1.5506 -11.5254 -1.6477 0.9541
5.9196 -11.0697 -1.7786 0.9506
7.0490 -10.7498 -1.8214 0.9494
9.3248 -9.8294 -1.9197 0.9467
12.7661 -6.2363 -2.0131 0.9442
2.3546 -0.8999 -0.3572 0.9899
15.4504 -2.9139 -2.2278 0.9385
15.8500 -1.5435 -2.2564 0.9377
14.4199 -0.1117 -2.0432 0.9434
10.0267 1.7306 -1.4417 0.9597
8.5773 2.2841 -1.2577 0.9648
7.5317 2.7457 -1.1359 0.9681
6.8349 3.2087 -1.0698 0.9700
5.4737 3.8877 -0.9513 0.9732
4.8772 4.1660 -0.9088 0.9744
3.2959 4.8604 -0.8321 0.9766
2.3638 5.3330 -0.8265 0.9767
1.4466 5.9486 -0.8674 0.9756
-0.1917 6.5096 -0.9227 0.9740
-0.8288 6.9454 -0.9911 0.9721
-1.4938 7.0742 -1.0244 0.9712
-8.5033 16.4899 -2.6288 0.9278
-11.9806 10.8815 -2.2932 0.9367
-12.4764 9.4459 -2.2173 0.9387
-13.0792 6.6333 -2.0779 0.9425
-13.2051 5.2748 -2.0148 0.9442
-13.2263 3.9569 -1.9561 0.9458
-13.1515 2.6846 -1.9019 0.9472
-12.9889 1.4613 -1.8520 0.9486
-12.4300 -0.8295 -1.7651 0.9509
-10.5464 -4.7600 -1.6395 0.9543
-9.2971 -6.3964 -1.5990 0.9554
-8.6078 -7.1327 -1.5839 0.9558
-7.8790 -7.8146 -1.5723 0.9562
-7.1129 -8.4418 -1.5641 0.9564
-6.3115 -9.0142 -1.5592 0.9565
-5.4638 -9.5095 -1.5540 0.9567
-4.5753 -9.9192 -1.5478 0.9568
-3.6863 -10.3275 -1.5537 0.9567
-2.7827 -10.7406 -1.5721 0.9562
-1.8271 -11.0290 -1.5840 0.9558
-0.8439 -11.2537 -1.5990 0.9554
1.1992 -11.5092 -1.6396 0.9543
2.2560 -11.5342 -1.6652 0.9536
6.6698 -10.8669 -1.8066 0.9498
10.0805 -9.4347 -1.9563 0.9457
12.3190 -7.9597 -2.0781 0.9425
14.3250 -4.5201 -2.1283 0.9411
15.1808 -3.3361 -2.2023 0.9391
14.8999 -0.5614 -2.1127 0.9415
4.0513 4.6648 -0.8754 0.9753
3.4196 4.7318 -0.8272 0.9767
2.5222 5.2598 -0.8265 0.9767
0.5514 3.0453 -0.4385 0.9876
-0.6144 6.8955 -0.9809 0.9724
-8.0962 16.9247 -2.6583 0.9270
-2.4660 1.9858 -0.4486 0.9873
-12.7321 8.4992 -2.1690 0.9400
-13.2303 4.3933 -1.9752 0.9452
-12.8359 0.6759 -1.8212 0.9494
-12.5436 -0.4608 -1.7785 0.9506
-10.7375 -4.4646 -1.6477 0.9541
-10.1511 -5.3285 -1.6244 0.9547
-8.8431 -6.8923 -1.5886 0.9557
-8.1273 -7.5923 -1.5759 0.9561
-6.5836 -8.8287 -1.5604 0.9565
-3.9849 -10.1906 -1.5504 0.9568
-3.0877 -10.6013 -1.5645 0.9564
-0.1753 -11.3680 -1.6109 0.9551
1.8997 -11.5338 -1.6562 0.9539
2.9708 -11.5108 -1.6844 0.9531
4.0616 -11.4126 -1.7164 0.9522
6.2916 -10.9739 -1.7923 0.9502
8.5621 -10.1810 -1.8849 0.9477
10.8323 -8.9932 -1.9948 0.9447
11.9497 -8.2379 -2.0565 0.9430
13.0862 -5.9210 -2.0351 0.9436
14.0235 -4.8908 -2.1044 0.9418
14.9024 -3.7454 -2.1772 0.9398
12.1373 0.2642 -1.7201 0.9521
11.1301 1.2417 -1.5868 0.9558
9.5016 1.9303 -1.3738 0.9616
6.6223 3.3508 -1.0516 0.9705
5.2705 3.9825 -0.9360 0.9737
4.6911 4.2527 -0.8971 0.9747
0.7320 6.0854 -0.8684 0.9755
0.1925 6.3333 -0.8978 0.9747
-7.6708 17.3500 -2.6879 0.9262
-12.6106 8.9746 -2.1931 0.9394
-13.1329 6.1804 -2.0566 0.9430
-13.2232 4.8347 -1.9949 0.9447
-13.2118 3.5314 -1.9377 0.9462
-11.4869 3.8093 -1.9937 0.9521
-11.4914 2.7012 -1.9447 0.9533
-11.4135 1.6264 -1.8992 0.9543
-10.7440 -1.3659 -1.7842 0.9570
-9.9868 -3.1454 -1.7249 0.9584
-9.5285 -3.9664 -1.7003 0.9590
-7.8783 -6.1453 -1.6460 0.9603
-5.8755 -7.8856 -1.6200 0.9609
-3.5811 -9.1688 -1.6216 0.9609
-2.7601 -9.4904 -1.6282 0.9607
-1.0438 -9.9659 -1.6508 0.9602
0.7598 -10.2056 -1.6859 0.9594
1.6894 -10.2315 -1.7084 0.9588
4.5604 -9.9007 -1.7957 0.9568
5.5343 -9.6441 -1.8318 0.9559
6.5102 -9.3086 -1.8713 0.9550
11.9457 -4.1607 -2.0839 0.9500
13.2397 -2.0891 -2.2081 0.9471
13.7647 -0.9259 -2.2727 0.9456
11.9729 0.2654 -1.9729 0.9526
11.0976 1.2425 -1.8396 0.9557
9.5903 1.9524 -1.6123 0.9611
8.3727 2.5000 -1.4395 0.9652
7.2900 2.9074 -1.2929 0.9687
5.7392 3.5835 -1.1146 0.9729
5.2002 3.9327 -1.0741 0.9739
4.2198 4.5786 -1.0258 0.9751
3.7037 4.8186 -1.0012 0.9757
3.1516 4.9607 -0.9682 0.9765
2.2027 5.4000 -0.9608 0.9766
-0.3841 6.4637 -1.0667 0.9741
-0.9176 6.1256 -1.0204 0.9752
-1.7048 7.0266 -1.1911 0.9711
-4.5898 13.5166 -2.3516 0.9438
-6.3626 14.3755 -2.5898 0.9383
-7.4116 13.3749 -2.5190 0.9399
-9.1322 11.1855 -2.3788 0.9431
-9.8052 10.0310 -2.3108 0.9447
-2.4089 2.0598 -0.5221 0.9872
-11.4659 4.1869 -2.0109 0.9517
-11.4994 3.0688 -1.9607 0.9529
-11.4484 1.9823 -1.9141 0.9540
-11.1171 -0.0802 -1.8315 0.9559
-10.8481 -1.0506 -1.7955 0.9568
-9.1968 -4.4866 -1.6858 0.9594
-8.6604 -5.2291 -1.6666 0.9598
-6.1144 -7.7136 -1.6215 0.9609
-3.8500 -9.0490 -1.6200 0.9609
-1.3376 -9.9023 -1.6461 0.9603
2.3165 -10.2123 -1.7251 0.9584
5.2078 -9.7386 -1.8193 0.9562
8.1260 -8.5657 -1.9451 0.9533
9.0810 -8.0034 -1.9941 0.9521
10.0160 -7.3500 -2.0466 0.9509
10.9224 -6.6029 -2.1026 0.9496
10.9420 -5.3452 -2.0062 0.9518
12.4076 -3.5107 -2.1243 0.9491
13.0441 -2.4601 -2.1868 0.9476
13.5993 -1.3244 -2.2509 0.9461
11.7036 0.9570 -1.9345 0.9535
10.0520 1.7350 -1.6804 0.9595
7.6260 2.7801 -1.3372 0.9676
6.6789 3.1355 -1.2155 0.9705
4.2971 4.3914 -1.0122 0.9754
3.8738 4.7395 -1.0084 0.9755
2.3611 5.3268 -0.9599 0.9767
1.9430 5.7120 -0.9939 0.9758
1.4344 5.8982 -1.0000 0.9757
-0.1886 6.4050 -1.0556 0.9744
-0.7864 6.5897 -1.0933 0.9735
-1.4561 6.8956 -1.1610 0.9718
-5.5530 13.6341 -2.4252 0.9421
-8.0398 12.6701 -2.4720 0.9410
-8.8792 11.5651 -2.4020 0.9426
-10.1856 9.2512 -2.2668 0.9457
-10.6600 8.0707 -2.2027 0.9472
-11.2783 5.7200 -2.0833 0.9500
-11.4347 4.5676 -2.0285 0.9513
-11.4979 3.4399 -1.9771 0.9525
-11.3707 1.2793 -1.8850 0.9547
-11.1924 0.2541 -1.8443 0.9556
-10.2650 -2.5697 -1.7432 0.9580
-9.3664 -4.2274 -1.6929 0.9592
-8.8449 -4.9858 -1.6727 0.9597
-8.2797 -5.6964 -1.6556 0.9601
-4.1159 -8.9233 -1.6189 0.9609
-3.3128 -9.2811 -1.6234 0.9608
-2.4832 -9.5845 -1.6311 0.9607
-0.7515 -10.0222 -1.6557 0.9601
0.1471 -10.1527 -1.6727 0.9597
2.0000 -10.2257 -1.7165 0.9586
3.9114 -10.0303 -1.7736 0.9573
4.8816 -9.8245 -1.8073 0.9565
5.8567 -9.5421 -1.8444 0.9556
6.8322 -9.1799 -1.8852 0.9547
7.8030 -8.7342 -1.9294 0.9536
10.6226 -6.8636 -2.0835 0.9500
2.3189 -0.9667 -0.4139 0.9899
12.8394 -2.8216 -2.1656 0.9481
13.9170 -0.5243 -2.2943 0.9451
11.6774 0.6040 -1.9263 0.9537
10.5548 1.4983 -1.7562 0.9577
7.9876 2.6441 -1.3861 0.9665
5.5582 3.7028 -1.1002 0.9733
4.4230 4.2575 -1.0113 0.9754
3.4156 4.7262 -0.9606 0.9766
2.5192 5.2537 -0.9598 0.9767
0.0030 6.3458 -1.0454 0.9746
-0.5810 6.5211 -1.0785 0.9738
-1.0700 5.9412 -0.9945 0.9758
-6.7229 14.0537 -2.5665 0.9388
-7.7306 13.0283 -2.4957 0.9404
-2.4646 1.9846 -0.5213 0.9873
-11.4140 1.6311 -1.8994 0.9543
-9.5307 -3.9628 -1.7004 0.9590
-6.5812 -7.3527 -1.6256 0.9608
-5.8787 -7.8833 -1.6200 0.9609
-4.3786 -8.7916 -1.6180 0.9610
-3.5847 -9.1673 -1.6216 0.9609
-2.7638 -9.4891 -1.6282 0.9607
-1.9176 -9.7556 -1.6379 0.9605
-1.0477 -9.9651 -1.6507 0.9602
1.6852 -10.2315 -1.7082 0.9588
3.5883 -10.0827 -1.7631 0.9575
7.4788 -8.8929 -1.9142 0.9540
10.3190 -7.1137 -2.0647 0.9505
11.2139 -6.3351 -2.1218 0.9491
11.1988 -5.0670 -2.0249 0.9514
11.9425 -4.1650 -2.0836 0.9500
12.6260 -3.1733 -2.1447 0.9486
13.2371 -2.0941 -2.2078 0.9471
13.7626 -0.9313 -2.2724 0.9456
11.9827 0.2608 -1.9745 0.9526
6.4232 3.2501 -1.1859 0.9712
5.7417 3.5818 -1.1148 0.9729
4.6852 4.2474 -1.0418 0.9747
3.7059 4.8176 -1.0013 0.9757
3.1537 4.9597 -0.9683 0.9765
2.2049 5.3990 -0.9607 0.9766
1.2676 5.9750 -1.0062 0.9755
0.7311 6.0780 -1.0085 0.9755
0.1910 6.2859 -1.0360 0.9748
-0.3815 6.4630 -1.0666 0.9741
-0.9155 6.1284 -1.0208 0.9752
-9.8024 10.0362 -2.3111 0.9447
-2.4085 2.0612 -0.5222 0.9872
-10.7918 7.6803 -2.1821 0.9477
-11.3407 5.3369 -2.0648 0.9505
-9.5415 6.3638 -2.1557 0.9544
-10.1407 3.3629 -2.0081 0.9574
-10.1740 2.3916 -1.9644 0.9584
-10.0199 0.5236 -1.8859 0.9600
-9.8421 -0.3655 -1.8512 0.9607
-9.6031 -1.2209 -1.8195 0.9614
-8.9579 -2.8213 -1.7653 0.9625
-8.5594 -3.5630 -1.7427 0.9630
-8.1149 -4.2638 -1.7230 0.9634
-7.6275 -4.9226 -1.7063 0.9637
-7.1001 -5.5383 -1.6925 0.9640
-6.5353 -6.1100 -1.6816 0.9642
-5.9356 -6.6368 -1.6736 0.9644
-4.6407 -7.5519 -1.6660 0.9646
-3.9496 -7.9381 -1.6665 0.9646
-2.4901 -8.5621 -1.6760 0.9644
-0.1368 -9.1057 -1.7117 0.9636
0.6831 -9.1756 -1.7294 0.9632
1.5169 -9.1865 -1.7501 0.9628
2.3619 -9.1363 -1.7737 0.9623
3.2151 -9.0227 -1.8004 0.9618
4.0733 -8.8433 -1.8300 0.9611
7.4718 -7.4187 -1.9791 0.9581
8.2869 -6.8743 -2.0238 0.9571
9.8290 -5.5475 -2.1214 0.9551
10.9445 -2.7460 -2.1209 0.9551
11.8348 -0.7961 -2.2295 0.9529
9.5716 1.9485 -1.8360 0.9610
8.3906 2.5054 -1.6459 0.9650
7.4235 2.9607 -1.5022 0.9680
5.7681 3.6015 -1.2782 0.9727
4.5428 4.1216 -1.1529 0.9753
3.0881 4.8607 -1.0824 0.9768
2.6261 5.0858 -1.0758 0.9770
2.1606 5.2968 -1.0752 0.9770
0.6568 3.1021 -0.5960 0.9872
0.7070 5.8977 -1.1165 0.9761
0.1840 6.1375 -1.1541 0.9753
-5.0361 11.3784 -2.3388 0.9506
-6.6506 9.8188 -2.2291 0.9529
-7.8835 9.6560 -2.3430 0.9505
-2.4097 2.0606 -0.5960 0.9872
-9.4243 6.7014 -2.1736 0.9540
-9.7431 5.6927 -2.1210 0.9551
-9.9707 4.6874 -2.0709 0.9561
-10.1119 3.6925 -2.0234 0.9571
-10.1714 2.7144 -1.9787 0.9581
-10.1542 1.7582 -1.9370 0.9589
-10.0650 0.8284 -1.8982 0.9597
-9.9087 -0.0715 -1.8625 0.9605
-9.6896 -0.9384 -1.8298 0.9612
-9.4123 -1.7699 -1.8001 0.9618
-9.0805 -2.5641 -1.7735 0.9623
-8.6982 -3.3192 -1.7499 0.9628
-4.8658 -7.4118 -1.6665 0.9646
-4.1840 -7.8142 -1.6661 0.9646
-2.7411 -8.4718 -1.6736 0.9644
1.2363 -9.1895 -1.7428 0.9630
2.0779 -9.1601 -1.7655 0.9625
2.9287 -9.0680 -1.7911 0.9620
8.0166 -7.0653 -2.0085 0.9574
8.8147 -6.4685 -2.0551 0.9565
9.5651 -4.6726 -2.0009 0.9576
2.3587 -0.9015 -0.4746 0.9898
11.7083 -1.1402 -2.2111 0.9532
12.0560 -0.0934 -2.2661 0.9521
8.7580 2.3322 -1.7035 0.9638
7.7281 2.8173 -1.5461 0.9671
6.8214 3.2024 -1.4164 0.9698
5.3176 3.7769 -1.2259 0.9738
2.7809 5.0121 -1.0774 0.9769
1.8472 5.4302 -1.0781 0.9769
0.3631 6.0554 -1.1402 0.9756
-0.1860 6.3165 -1.1878 0.9746
-1.2784 6.0542 -1.1630 0.9751
-4.7299 11.6132 -2.3569 0.9502
-5.6144 10.8875 -2.3025 0.9514
-6.4065 10.0961 -2.2475 0.9525
-7.6549 9.9704 -2.3627 0.9501
-8.3034 9.0191 -2.3043 0.9513
-8.8498 8.0380 -2.2471 0.9525
-9.6467 6.0305 -2.1383 0.9548
-9.9044 5.0232 -2.0874 0.9558
-10.0740 4.0240 -2.0390 0.9568
-10.1603 3.0397 -1.9934 0.9578
-10.1682 2.0756 -1.9506 0.9586
-9.9682 0.2263 -1.8741 0.9602
-9.5114 -1.4956 -1.8097 0.9616
-9.1974 -2.3025 -1.7821 0.9621
-8.8316 -3.0708 -1.7575 0.9627
-8.4175 -3.7991 -1.7358 0.9631
-7.9585 -4.4861 -1.7172 0.9635
-7.4575 -5.1308 -1.7014 0.9638
-6.9175 -5.7321 -1.6886 0.9641
-5.7303 -6.8008 -1.6716 0.9645
-5.0877 -7.2664 -1.6673 0.9645
-2.9896 -8.3757 -1.6716 0.9645
-2.2399 -8.6456 -1.6787 0.9643
-0.6769 -9.0270 -1.7015 0.9638
2.6430 -9.1059 -1.7822 0.9621
4.3573 -8.7692 -1.8405 0.9609
5.2161 -8.4984 -1.8742 0.9602
8.5506 -6.6771 -2.0392 0.9568
9.3284 -6.0274 -2.0875 0.9558
10.0427 -5.2836 -2.1329 0.9549
2.3165 -0.9657 -0.4717 0.9898
10.5813 -3.3388 -2.0855 0.9558
11.1126 -2.4421 -2.1386 0.9547
11.5722 -1.4775 -2.1928 0.9536
11.6760 0.6039 -2.1976 0.9535
9.1524 2.1463 -1.7670 0.9625
8.0513 2.6652 -1.5941 0.9661
6.2676 3.4105 -1.3412 0.9714
4.9130 3.9486 -1.1847 0.9747
4.3670 4.2036 -1.1393 0.9756
3.3974 4.7010 -1.0902 0.9767
2.9356 4.9368 -1.0796 0.9769
0.5247 2.8976 -0.5535 0.9881
0.5380 5.9752 -1.1277 0.9759
0.0029 6.2204 -1.1692 0.9750
-1.0687 5.9335 -1.1332 0.9758
-3.4140 12.4552 -2.4275 0.9488
-4.4139 11.8391 -2.3749 0.9499
-5.3283 11.1385 -2.3208 0.9510
-6.1517 10.3675 -2.2659 0.9521
-7.4148 10.2801 -2.3824 0.9497
-8.6781 8.3691 -2.2661 0.9521
-2.4631 1.9834 -0.5944 0.9872
-9.5400 6.3683 -2.1560 0.9544
-10.0267 4.3572 -2.0549 0.9565
-10.1404 3.3673 -2.0083 0.9574
-9.8430 -0.3616 -1.8514 0.9607
-9.3085 -2.0365 -1.7910 0.9620
-7.1025 -5.5356 -1.6926 0.9640
-6.5379 -6.1076 -1.6817 0.9642
-5.9384 -6.6346 -1.6736 0.9644
-5.3063 -7.1157 -1.6684 0.9645
-4.6437 -7.5501 -1.6661 0.9646
-3.9528 -7.9365 -1.6665 0.9646
-2.4935 -8.5609 -1.6760 0.9644
-1.7290 -8.7962 -1.6850 0.9642
-0.1404 -9.1053 -1.7116 0.9636
3.2113 -9.0234 -1.8002 0.9618
4.0694 -8.8443 -1.8299 0.9612
6.6333 -7.8876 -1.9371 0.9589
9.8257 -5.5508 -2.1212 0.9551
9.7781 -4.4242 -2.0173 0.9573
10.9421 -2.7501 -2.1207 0.9551
11.4270 -1.8078 -2.1745 0.9540
5.1078 3.8596 -1.2033 0.9743
4.2170 4.5718 -1.1691 0.9750
2.1627 5.2959 -1.0752 0.9770
0.6679 3.1483 -0.6049 0.9870
-1.7369 7.1714 -1.3869 0.9704
-8.4951 8.6977 -2.2852 0.9517
-9.4227 6.7059 -2.1738 0.9540
-9.7418 5.6973 -2.1212 0.9551
-9.9699 4.6918 -2.0711 0.9561
-10.1713 2.7187 -1.9789 0.9581
-8.4672 5.6473 -2.1513 0.9592
-8.9456 3.8831 -2.0614 0.9609
-9.1016 1.2969 -1.9433 0.9631
-9.0188 0.4713 -1.9090 0.9638
-8.6741 -1.1028 -1.8483 0.9649
-8.4196 -1.8456 -1.8220 0.9654
-7.3677 -3.8712 -1.7593 0.9665
-6.9314 -4.4733 -1.7438 0.9668
-6.4568 -5.0366 -1.7310 0.9671
-4.8292 -6.4813 -1.7085 0.9675
-4.2263 -6.8775 -1.7063 0.9675
-3.5968 -7.2290 -1.7068 0.9675
-1.5698 -8.0034 -1.7240 0.9672
2.1386 -8.2727 -1.8062 0.9657
2.9071 -8.1582 -1.8307 0.9652
4.4453 -7.7464 -1.8879 0.9641
5.2070 -7.4453 -1.9205 0.9635
6.6923 -6.6447 -1.9935 0.9622
7.4049 -6.1426 -2.0337 0.9614
8.0891 -5.5717 -2.0762 0.9606
8.6714 -3.9193 -2.0115 0.9618
9.1867 -3.1998 -2.0563 0.9610
10.3686 -0.6975 -2.1967 0.9584
10.6135 0.2353 -2.2440 0.9575
10.7702 1.2059 -2.2908 0.9567
8.3758 2.5009 -1.8477 0.9649
5.2001 3.9326 -1.3781 0.9737
4.5962 4.1701 -1.3118 0.9749
3.0596 4.8160 -1.2061 0.9769
2.1372 5.2393 -1.1961 0.9771
1.6773 5.4613 -1.2076 0.9769
0.6328 2.9889 -0.6458 0.9876
0.3653 3.0475 -0.6488 0.9875
-0.3887 6.5421 -1.3853 0.9736
-0.8864 5.9173 -1.2647 0.9758
-4.3856 9.9086 -2.2905 0.9567
-5.1447 9.2842 -2.2437 0.9575
-6.4293 7.8749 -2.1489 0.9593
-8.3554 5.9413 -2.1672 0.9590
-8.8875 4.1781 -2.0759 0.9606
-9.1104 2.4312 -1.9931 0.9622
-9.1150 1.5783 -1.9554 0.9629
-9.0535 0.7452 -1.9202 0.9635
-8.9298 -0.0644 -1.8876 0.9641
-8.7476 -0.8471 -1.8577 0.9647
-8.5106 -1.6004 -1.8305 0.9652
-7.5048 -3.6612 -1.7651 0.9664
-7.0819 -4.2760 -1.7487 0.9667
-6.6198 -4.8524 -1.7350 0.9670
-6.1213 -5.3891 -1.7239 0.9672
-5.0247 -6.3389 -1.7098 0.9675
-3.1644 -7.4376 -1.7085 0.9675
-1.8052 -7.9386 -1.7209 0.9673
-1.0962 -8.1156 -1.7311 0.9671
-0.3706 -8.2417 -1.7439 0.9668
0.3694 -8.3153 -1.7594 0.9665
1.1213 -8.3346 -1.7776 0.9662
1.8823 -8.2978 -1.7986 0.9658
4.1886 -7.8328 -1.8776 0.9643
7.1691 -6.3184 -2.0199 0.9617
7.8635 -5.7705 -2.0617 0.9609
8.5251 -5.1536 -2.1057 0.9601
8.4880 -4.1464 -1.9968 0.9621
2.3628 -0.9031 -0.5347 0.9897
9.4994 -2.6879 -2.0868 0.9604
9.9183 -1.8706 -2.1335 0.9596
10.2683 -1.0000 -2.1808 0.9587
10.5410 -0.0816 -2.2282 0.9578
8.7420 2.3279 -1.9123 0.9637
6.8491 3.2154 -1.5994 0.9695
4.7912 4.0925 -1.3319 0.9746
3.8644 4.7281 -1.2908 0.9753
3.2184 4.7460 -1.2121 0.9768
2.2902 5.1670 -1.1947 0.9772
1.8320 5.3858 -1.2025 0.9770
-3.2596 10.6338 -2.3510 0.9555
-4.8990 9.5002 -2.2594 0.9572
-5.6072 8.8365 -2.2122 0.9581
-6.2365 8.1230 -2.1647 0.9590
-6.7853 7.3702 -2.1176 0.9599
-9.0934 2.7205 -2.0063 0.9619
-9.0812 1.0217 -1.9317 0.9633
-8.8149 -0.5882 -1.8674 0.9645
-8.5958 -1.3516 -1.8393 0.9651
-8.3243 -2.0839 -1.8139 0.9655
-5.7708 -5.7236 -1.7181 0.9673
-5.2170 -6.1917 -1.7114 0.9674
-4.6331 -6.6171 -1.7075 0.9675
-0.6153 -8.2053 -1.7393 0.9669
1.6266 -8.3165 -1.7912 0.9659
2.3921 -8.2414 -1.8140 0.9655
3.1615 -8.1073 -1.8394 0.9650
3.9314 -7.9121 -1.8675 0.9645
6.2025 -6.9427 -1.9679 0.9627
6.9304 -6.4864 -2.0065 0.9619
7.6343 -5.9616 -2.0475 0.9612
8.0375 2.6606 -1.7896 0.9660
7.1218 3.0869 -1.6407 0.9688
4.9932 4.0131 -1.3541 0.9741
4.0366 4.6479 -1.3013 0.9751
2.9048 4.8850 -1.2014 0.9770
2.4434 5.0955 -1.1945 0.9772
1.9859 5.3115 -1.1987 0.9771
0.5211 2.8780 -0.6182 0.9881
0.5437 6.0387 -1.2816 0.9755
0.0030 6.3278 -1.3376 0.9745
-0.5930 6.6552 -1.4123 0.9731
-2.9585 10.7935 -2.3657 0.9553
-4.6447 9.7093 -2.2751 0.9570
-5.3788 9.0648 -2.2280 0.9578
-6.0348 8.3668 -2.1806 0.9587
-6.6106 7.6261 -2.1333 0.9596
-9.1195 2.1476 -1.9804 0.9624
-9.1018 1.3007 -1.9435 0.9631
-9.0193 0.4750 -1.9092 0.9637
-8.6752 -1.0994 -1.8484 0.9649
-8.4208 -1.8423 -1.8221 0.9654
-8.1163 -2.5527 -1.7985 0.9658
-7.7649 -3.2286 -1.7776 0.9662
-6.4591 -5.0341 -1.7310 0.9671
-5.9491 -5.5575 -1.7209 0.9673
-5.4059 -6.0396 -1.7134 0.9674
-4.8318 -6.4795 -1.7085 0.9675
-4.2290 -6.8758 -1.7063 0.9675
-2.2696 -7.7923 -1.7156 0.9674
-1.5730 -8.0026 -1.7240 0.9672
-0.8583 -8.1630 -1.7350 0.9670
-0.1276 -8.2719 -1.7487 0.9667
0.6166 -8.3277 -1.7651 0.9664
2.1352 -8.2731 -1.8061 0.9657
4.4418 -7.7476 -1.8877 0.9641
5.2036 -7.4468 -1.9203 0.9635
6.6890 -6.6468 -1.9933 0.9622
8.0861 -5.5744 -2.0760 0.9606
8.6690 -3.9224 -2.0113 0.9618
9.1845 -3.2031 -2.0561 0.9610
10.0420 -1.5886 -2.1491 0.9593
10.7697 1.2015 -2.2906 0.9567
9.5586 1.9419 -2.0618 0.9609
7.4154 2.9540 -1.6873 0.9679
4.5988 4.1690 -1.3121 0.9749
4.2118 4.5662 -1.3131 0.9749
0.6343 2.9900 -0.6461 0.9876
0.1892 6.2273 -1.3169 0.9749
-0.3860 6.5406 -1.3849 0.9736
-0.8841 5.9185 -1.2649 0.9758
-3.5496 10.4671 -2.3363 0.9558
-4.3820 9.9113 -2.2907 0.9567
-5.1415 9.2871 -2.2439 0.9575
-5.8240 8.6058 -2.1965 0.9584
-6.4268 7.8782 -2.1491 0.9593
-2.4109 2.0632 -0.6708 0.9871
-8.3539 5.9452 -2.1674 0.9589
-8.6606 5.0649 -2.1208 0.9598
-8.8866 4.1821 -2.0761 0.9606
-9.0353 3.3035 -2.0335 0.9614
-7.6029 5.0708 -2.1478 0.9631
-8.1944 2.7174 -2.0290 0.9651
-8.2541 1.1762 -1.9595 0.9663
-8.1925 0.4281 -1.9281 0.9669
-8.0742 -0.2999 -1.8989 0.9673
-7.6802 -1.6835 -1.8479 0.9682
-7.0967 -2.9541 -1.8066 0.9689
-6.7411 -3.5420 -1.7897 0.9692
-6.3466 -4.0959 -1.7753 0.9694
-5.9158 -4.6145 -1.7633 0.9696
-4.4293 -5.9447 -1.7423 0.9700
-3.8768 -6.3087 -1.7403 0.9700
-2.6990 -6.9104 -1.7436 0.9700
-2.0781 -7.1456 -1.7490 0.9699
-1.4388 -7.3353 -1.7568 0.9698
-0.7832 -7.4781 -1.7671 0.9696
-0.1138 -7.5726 -1.7799 0.9694
0.5671 -7.6174 -1.7952 0.9691
3.3485 -7.2698 -1.8811 0.9676
6.0546 -6.0115 -2.0052 0.9655
7.8458 -4.4281 -2.1173 0.9637
8.6156 -2.1617 -2.0876 0.9642
9.2160 -0.6199 -2.1709 0.9628
9.5275 1.0667 -2.2532 0.9614
9.5338 1.9408 -2.2866 0.9608
6.5796 3.3325 -1.7334 0.9701
5.8714 3.6660 -1.6268 0.9720
5.2399 3.9627 -1.5440 0.9734
4.2042 4.5616 -1.4580 0.9748
3.1108 4.8966 -1.3634 0.9764
2.6380 5.1089 -1.3513 0.9767
1.5779 3.8684 -0.9819 0.9830
1.7054 5.5527 -1.3652 0.9764
0.3618 3.0179 -0.7143 0.9876
0.1890 6.3023 -1.4818 0.9744
-0.3902 6.5666 -1.5460 0.9733
-0.8859 5.9139 -1.4054 0.9757
-1.7423 7.1812 -1.7367 0.9701
-3.8796 8.7655 -2.2529 0.9614
-5.1792 7.6465 -2.1705 0.9628
-2.4134 2.0637 -0.7463 0.9870
-8.1592 2.9795 -2.0415 0.9649
-8.2424 2.1996 -2.0049 0.9656
-8.2615 1.4305 -1.9705 0.9661
-7.9657 -0.7714 -1.8809 0.9677
-7.7600 -1.4592 -1.8557 0.9681
-7.2066 -2.7500 -1.8128 0.9688
-6.8646 -3.3489 -1.7951 0.9691
-6.0639 -4.4449 -1.7670 0.9696
-5.6103 -4.9392 -1.7567 0.9698
-5.1244 -5.3959 -1.7489 0.9699
-4.6084 -5.8137 -1.7436 0.9700
-3.4953 -6.5278 -1.7403 0.9700
-2.9024 -6.8217 -1.7423 0.9700
-1.6548 -7.2769 -1.7539 0.9698
-1.0044 -7.4356 -1.7634 0.9696
-0.3393 -7.5464 -1.7754 0.9694
0.3380 -7.6080 -1.7898 0.9692
3.1151 -7.3326 -1.8724 0.9678
3.8106 -7.1259 -1.8992 0.9673
4.4991 -6.8612 -1.9283 0.9668
5.1763 -6.5374 -1.9598 0.9663
5.8376 -6.1535 -1.9935 0.9657
6.4777 -5.7090 -2.0293 0.9651
7.6716 -4.6377 -2.1068 0.9638
2.3669 -0.9046 -0.5955 0.9896
9.1342 -0.8895 -2.1569 0.9630
9.5585 1.6498 -2.2797 0.9609
6.0988 3.5590 -1.6596 0.9714
5.4442 3.8668 -1.5694 0.9729
4.8521 4.1446 -1.4997 0.9741
3.2725 4.8258 -1.3704 0.9763
1.8626 5.4756 -1.3593 0.9765
1.3888 5.7110 -1.3813 0.9761
0.4320 2.8732 -0.6829 0.9881
0.3729 6.2182 -1.4640 0.9747
-0.1907 6.4756 -1.5226 0.9737
-0.8062 6.7560 -1.5991 0.9724
-2.8748 9.3784 -2.3054 0.9605
-3.6373 8.9305 -2.2663 0.9612
-4.9800 7.8481 -2.1845 0.9625
-5.5522 7.2317 -2.1428 0.9632
-6.0553 6.5772 -2.1011 0.9639
-6.9861 6.3452 -2.2181 0.9620
-7.3827 5.5894 -2.1763 0.9627
-7.6994 4.8131 -2.1340 0.9634
-8.1165 3.2421 -2.0541 0.9647
-8.2620 1.6865 -1.9818 0.9659
-8.2402 0.9271 -1.9489 0.9665
-8.1595 0.1853 -1.9182 0.9670
-7.5963 -1.9016 -1.8404 0.9683
-7.3117 -2.5423 -1.8193 0.9687
-6.6150 -3.7288 -1.7847 0.9693
-5.7659 -4.7778 -1.7599 0.9697
-5.2905 -5.2472 -1.7512 0.9698
-3.1034 -6.7281 -1.7414 0.9700
-0.5635 -7.5147 -1.7711 0.9695
0.1100 -7.5930 -1.7847 0.9693
0.7941 -7.6210 -1.8008 0.9690
1.4860 -7.5974 -1.8194 0.9687
2.1828 -7.5206 -1.8405 0.9683
4.2696 -6.9563 -1.9183 0.9670
5.6183 -6.2888 -1.9819 0.9659
6.2661 -5.8647 -2.0171 0.9653
6.8890 -5.3797 -2.0543 0.9647
8.3593 -2.6377 -2.0601 0.9646
9.2888 -0.3500 -2.1846 0.9625
9.4586 0.4892 -2.2260 0.9618
9.5477 1.3553 -2.2664 0.9612
9.1176 2.1381 -2.2010 0.9623
8.0237 2.6560 -1.9864 0.9659
7.1106 3.0821 -1.8214 0.9687
6.3356 3.4475 -1.6952 0.9708
5.6555 3.7676 -1.5971 0.9725
4.4845 4.3167 -1.4629 0.9747
3.4364 4.7550 -1.3788 0.9762
2.9532 4.9664 -1.3580 0.9765
2.4839 5.1799 -1.3501 0.9767
2.0189 5.3998 -1.3549 0.9766
0.5176 2.8587 -0.6828 0.9881
0.5525 6.1360 -1.4479 0.9750
-1.0651 5.9135 -1.4122 0.9756
-2.6073 9.5123 -2.3181 0.9603
-3.3883 9.0882 -2.2796 0.9609
-4.1120 8.5959 -2.2395 0.9616
-5.3683 7.4428 -2.1567 0.9630
-7.6016 5.0744 -2.1480 0.9631
-8.0662 3.5053 -2.0670 0.9645
-8.1940 2.7209 -2.0292 0.9651
-8.2542 1.1796 -1.9596 0.9663
-8.1929 0.4314 -1.9282 0.9669
-7.9033 -1.0015 -1.8723 0.9678
-7.4120 -2.3312 -1.8261 0.9686
-7.0982 -2.9514 -1.8067 0.9689
-5.9178 -4.6123 -1.7634 0.9696
-5.4532 -5.0943 -1.7539 0.9698
-4.9571 -5.5383 -1.7469 0.9699
-4.4317 -5.9430 -1.7423 0.9700
-3.8793 -6.3072 -1.7403 0.9700
-3.3019 -6.6297 -1.7407 0.9700
-2.7018 -6.9093 -1.7436 0.9700
-2.0809 -7.1446 -1.7489 0.9699
-1.4417 -7.3345 -1.7568 0.9698
-0.7862 -7.4775 -1.7671 0.9696
0.5640 -7.6173 -1.7951 0.9691
3.3454 -7.2706 -1.8810 0.9676
4.0390 -7.0449 -1.9085 0.9672
4.7243 -6.7608 -1.9384 0.9667
6.6836 -5.5488 -2.0416 0.9649
7.2868 -5.0233 -2.0801 0.9643
7.7783 -3.5194 -2.0065 0.9655
8.2220 -2.8675 -2.0465 0.9649
8.6139 -2.1650 -2.0874 0.9642
9.2150 -0.6236 -2.1707 0.9628
9.4104 0.2049 -2.2122 0.9621
9.5272 1.0628 -2.2530 0.9614
9.5397 1.9380 -2.2878 0.9608
8.3656 2.4942 -2.0516 0.9648
7.4034 2.9492 -1.8729 0.9678
3.6925 4.8002 -1.4233 0.9754
1.5805 3.8702 -0.9825 0.9830
1.7075 5.5517 -1.3651 0.9764
0.6286 2.9629 -0.7119 0.9876
0.3628 3.0163 -0.7140 0.9876
-0.8836 5.9151 -1.4056 0.9757
-1.7389 7.1797 -1.7362 0.9701
-5.1766 7.6492 -2.1707 0.9628
-6.2061 6.3541 -2.0875 0.9642
-2.4137 2.0656 -0.7466 0.9870
-7.4955 5.3344 -2.1622 0.9629
-8.2421 2.2031 -2.0051 0.9656
-6.8920 4.5967 -2.1449 0.9663
-7.1475 3.8943 -2.1075 0.9669
-7.4668 2.4761 -2.0368 0.9680
-7.4982 0.3918 -1.9441 0.9695
-7.3994 -0.2748 -1.9172 0.9699
-7.0542 -1.5463 -1.8698 0.9706
-6.8131 -2.1458 -1.8495 0.9709
-6.5301 -2.7183 -1.8314 0.9712
-6.2075 -3.2616 -1.8156 0.9714
-5.0276 -4.7004 -1.7820 0.9720
-4.5713 -5.1114 -1.7755 0.9721
-4.0873 -5.4857 -1.7712 0.9721
-3.0447 -6.1195 -1.7697 0.9722
-0.7219 -6.8930 -1.7945 0.9718
0.5221 -7.0128 -1.8208 0.9714
1.7943 -6.9409 -1.8562 0.9708
3.0710 -6.6674 -1.9006 0.9701
3.7027 -6.4523 -1.9261 0.9697
4.3247 -6.1837 -1.9538 0.9693
4.9329 -5.8608 -1.9834 0.9688
7.4362 -2.5901 -2.0388 0.9680
7.7755 -1.9509 -2.0756 0.9674
8.0604 -1.2718 -2.1128 0.9668
8.2852 -0.5573 -2.1500 0.9663
8.5326 0.9553 -2.2230 0.9651
8.3459 2.4920 -2.2552 0.9647
6.5696 3.3275 -1.9067 0.9700
5.2328 3.9574 -1.6987 0.9733
3.6858 4.7954 -1.5660 0.9753
2.6628 5.1570 -1.5027 0.9763
1.7178 5.5933 -1.5150 0.9761
-0.8854 5.9105 -1.5474 0.9756
-1.7396 7.1703 -1.9104 0.9700
-2.8037 8.2567 -2.2577 0.9646
-3.4745 7.8502 -2.2227 0.9652
-4.0934 7.3869 -2.1866 0.9657
-4.6562 6.8743 -2.1497 0.9663
-5.1599 6.3201 -2.1125 0.9668
-5.6028 5.7319 -2.0753 0.9674
-6.7918 4.8294 -2.1578 0.9662
-7.2816 3.4232 -2.0833 0.9673
-7.5184 2.0064 -2.0148 0.9684
-7.3057 -0.7075 -1.9004 0.9701
-6.8986 -1.9480 -1.8560 0.9708
-6.3198 -3.0831 -1.8206 0.9714
-5.9724 -3.6061 -1.8064 0.9716
-5.1738 -4.5549 -1.7848 0.9719
-4.7273 -4.9778 -1.7774 0.9720
-3.7511 -5.7137 -1.7697 0.9722
-2.6783 -6.2950 -1.7713 0.9721
-1.5262 -6.7115 -1.7821 0.9720
-0.3127 -6.9535 -1.8022 0.9716
0.3113 -7.0058 -1.8157 0.9714
0.9432 -7.0106 -1.8315 0.9712
3.4920 -6.5302 -1.9174 0.9699
4.1177 -6.2796 -1.9443 0.9694
4.7311 -5.9750 -1.9733 0.9690
5.3276 -5.6159 -2.0042 0.9685
5.9025 -5.2020 -2.0371 0.9680
6.4507 -4.7337 -2.0716 0.9675
6.9657 -4.2110 -2.1075 0.9669
6.9087 -3.3749 -1.9908 0.9687
7.9714 -1.5034 -2.1003 0.9670
8.3986 -0.0650 -2.1746 0.9659
8.5112 0.6959 -2.2110 0.9653
6.0899 3.5539 -1.8256 0.9713
4.3003 4.3946 -1.5920 0.9749
3.8549 4.7165 -1.5772 0.9751
3.2973 4.8625 -1.5211 0.9760
1.3962 5.7413 -1.5298 0.9759
0.4283 2.8488 -0.7459 0.9882
0.3724 6.2102 -1.6108 0.9746
-0.1905 6.4670 -1.6751 0.9736
-0.8051 6.7465 -1.7592 0.9723
-1.2706 6.0170 -1.5923 0.9749
-3.2555 7.9930 -2.2346 0.9650
-4.4742 7.0509 -2.1621 0.9661
-4.9980 6.5098 -2.1250 0.9667
-5.8632 5.3253 -2.0508 0.9678
-6.6841 5.0605 -2.1707 0.9660
-6.9836 4.3657 -2.1324 0.9665
-7.2177 3.6606 -2.0954 0.9671
-7.3877 2.9510 -2.0598 0.9677
-7.4712 0.1696 -1.9349 0.9696
-7.3556 -0.4908 -1.9087 0.9700
-6.9793 -1.7472 -1.8628 0.9707
-6.0928 -3.4344 -1.8109 0.9715
-5.7215 -3.9364 -1.7982 0.9717
-5.3165 -4.4055 -1.7877 0.9719
