ply
format ascii 1.0
element vertex 1600
property float32 x
property float32 y
property float32 z
property float32 I
end_header
3.9268 -7.0814 -1.9030 0.9673
4.6125 -6.8073 -1.9325 0.9668
5.2863 -6.4741 -1.9644 0.9662
7.1861 -5.1128 -2.0727 0.9644
8.1478 -2.9810 -2.0391 0.9650
9.5607 1.7851 -2.2858 0.9608
5.3862 3.9328 -1.5674 0.9730
4.7798 4.1914 -1.4941 0.9742
4.2141 4.4189 -1.4351 0.9752
3.7687 4.7330 -1.4219 0.9754
2.6924 4.9992 -1.3345 0.9769
2.2251 5.1933 -1.3279 0.9771
1.7611 5.3940 -1.3336 0.9770
1.2910 5.6056 -1.3519 0.9766
0.3852 2.7909 -0.6622 0.9885
0.2915 6.0791 -1.4304 0.9753
-0.2607 6.3079 -1.4838 0.9744
-0.8606 6.5559 -1.5540 0.9732
-1.2931 5.7898 -1.3943 0.9759
-3.7332 8.8750 -2.2629 0.9612
-5.0587 7.7786 -2.1808 0.9626
-5.6219 7.1572 -2.1390 0.9633
-6.1158 6.4987 -2.0973 0.9640
-2.5138 1.8611 -0.7351 0.9872
-7.7357 4.7224 -2.1301 0.9634
-7.9705 3.9377 -2.0894 0.9641
-8.1351 3.1520 -2.0504 0.9648
-8.2647 1.5998 -1.9785 0.9660
-8.1483 0.1041 -1.9152 0.9671
-8.0058 -0.6132 -1.8871 0.9675
-7.8113 -1.3061 -1.8613 0.9680
-6.9463 -3.2137 -1.7988 0.9690
-6.1635 -4.3240 -1.7695 0.9695
-5.7181 -4.8260 -1.7585 0.9697
-4.1949 -6.1034 -1.7406 0.9700
-2.4373 -7.0127 -1.7449 0.9700
0.1700 -7.5939 -1.7852 0.9693
1.5449 -7.5892 -1.8202 0.9687
3.6335 -7.1800 -1.8912 0.9675
4.3230 -6.9306 -1.9197 0.9670
6.3123 -5.8270 -2.0190 0.9653
6.9322 -5.3383 -2.0563 0.9647
7.5211 -4.7890 -2.0956 0.9640
2.3230 -0.9510 -0.5899 0.9897
8.3854 -2.5878 -2.0625 0.9646
9.0619 -1.1010 -2.1454 0.9632
9.5507 1.4118 -2.2690 0.9611
9.3320 2.2440 -2.2558 0.9613
7.1932 3.1643 -1.8469 0.9682
6.3719 3.5111 -1.7099 0.9705
4.4539 4.3301 -1.4599 0.9748
1.9580 5.3078 -1.3296 0.9770
0.2473 2.8777 -0.6788 0.9882
-0.0216 6.2089 -1.4592 0.9748
-1.0761 5.8499 -1.3979 0.9759
-3.4203 9.0770 -2.2797 0.9609
-4.7995 8.0288 -2.1984 0.9623
-5.3915 7.4257 -2.1567 0.9630
-6.3685 6.1059 -2.0735 0.9644
-7.8797 4.2709 -2.1064 0.9638
-8.1991 2.7012 -2.0289 0.9652
-8.1923 0.4148 -1.9278 0.9669
-8.0727 -0.3120 -1.8987 0.9673
-7.0923 -2.9610 -1.8063 0.9689
-6.7364 -3.5476 -1.7893 0.9692
-5.4466 -5.0983 -1.7534 0.9698
-4.9507 -5.5410 -1.7463 0.9699
-4.4257 -5.9445 -1.7418 0.9700
-3.2971 -6.6291 -1.7401 0.9700
-1.4396 -7.3317 -1.7560 0.9698
-0.7851 -7.4743 -1.7663 0.9696
-0.1169 -7.5687 -1.7790 0.9694
0.5627 -7.6136 -1.7943 0.9691
1.2511 -7.6076 -1.8120 0.9688
1.9454 -7.5490 -1.8322 0.9685
2.6426 -7.4364 -1.8548 0.9681
3.3392 -7.2684 -1.8799 0.9677
4.7159 -6.7604 -1.9372 0.9667
5.3875 -6.4182 -1.9694 0.9662
6.0416 -6.0158 -2.0038 0.9656
6.6729 -5.5529 -2.0403 0.9650
7.8438 -4.4454 -2.1189 0.9636
7.7680 -3.5286 -2.0052 0.9655
8.6050 -2.1784 -2.0862 0.9642
8.9394 -1.4309 -2.1277 0.9635
9.4061 0.1855 -2.2111 0.9621
9.5253 1.0417 -2.2520 0.9614
7.5806 2.9979 -1.9159 0.9671
6.7025 3.3694 -1.7631 0.9696
5.9524 3.6908 -1.6460 0.9716
5.2901 3.9738 -1.5550 0.9732
4.1293 4.4494 -1.4267 0.9754
3.0982 4.8371 -1.3500 0.9767
1.2184 5.6390 -1.3559 0.9766
0.3435 2.7660 -0.6551 0.9886
0.2101 6.1129 -1.4375 0.9752
-1.3827 5.8188 -1.4056 0.9757
-3.0969 9.2668 -2.2963 0.9606
-3.8429 8.7997 -2.2567 0.9613
-5.1488 7.6868 -2.1744 0.9627
-6.1848 6.3958 -2.0910 0.9641
-7.7760 4.6034 -2.1238 0.9636
-8.1542 3.0328 -2.0447 0.9649
-8.2261 0.7292 -1.9409 0.9666
-8.1301 -0.0065 -1.9108 0.9671
-7.9795 -0.7203 -1.8830 0.9676
-7.5268 -2.0706 -1.8347 0.9684
-6.5137 -3.8702 -1.7807 0.9693
-6.0979 -4.4027 -1.7677 0.9696
-5.6475 -4.8991 -1.7571 0.9697
-3.5445 -6.4980 -1.7396 0.9700
-2.3430 -7.0484 -1.7457 0.9699
-1.7123 -7.2571 -1.7524 0.9698
0.2734 -7.6007 -1.7875 0.9692
0.9584 -7.6165 -1.8042 0.9689
2.3469 -7.4908 -1.8449 0.9683
3.0441 -7.3465 -1.8689 0.9679
4.4271 -6.8876 -1.9243 0.9669
7.6076 -4.7002 -2.1017 0.9639
8.8052 -1.7533 -2.1101 0.9638
9.1030 -0.9808 -2.1518 0.9631
9.4847 0.6756 -2.2348 0.9617
9.1360 2.3284 -2.2158 0.9620
7.9984 2.8182 -1.9931 0.9658
6.2580 3.5599 -1.6921 0.9708
5.5619 3.8578 -1.5908 0.9726
3.9100 4.6732 -1.4320 0.9753
2.8212 4.9471 -1.3385 0.9769
2.3514 5.1400 -1.3284 0.9770
0.4684 2.8771 -0.6851 0.9881
0.2105 2.9116 -0.6861 0.9881
-0.1064 6.2441 -1.4677 0.9747
-0.6919 6.4863 -1.5331 0.9736
-1.1460 5.7876 -1.3866 0.9760
-3.5338 9.0059 -2.2737 0.9610
-5.4756 7.3301 -2.1503 0.9631
-5.9885 6.6809 -2.1086 0.9638
7.2364 -3.8724 -2.1250 0.9667
2.3247 -0.9887 -0.6541 0.9896
8.3297 -0.3772 -2.1589 0.9661
7.3168 3.1008 -2.0576 0.9677
6.4783 3.4560 -1.9011 0.9701
5.1151 4.0400 -1.6877 0.9734
4.0654 4.5993 -1.5894 0.9750
3.5478 4.8188 -1.5494 0.9756
2.0516 5.3374 -1.4805 0.9767
1.0947 5.7374 -1.5123 0.9762
0.2750 2.7595 -0.7180 0.9886
0.0623 6.1662 -1.5966 0.9748
-0.5076 6.4018 -1.6627 0.9738
-5.2622 6.2013 -2.1058 0.9670
-6.0589 4.9874 -2.0319 0.9681
-2.6239 1.7931 -0.8228 0.9870
-7.1214 3.9859 -2.1130 0.9668
-7.4559 2.5690 -2.0418 0.9679
-7.5477 1.1669 -1.9775 0.9689
-7.5087 0.4825 -1.9481 0.9694
-7.2742 -0.8349 -1.8958 0.9702
-6.8491 -2.0641 -1.8521 0.9709
-6.2549 -3.1863 -1.8175 0.9714
-5.9007 -3.7025 -1.8036 0.9716
-5.0904 -4.6369 -1.7828 0.9720
-4.1594 -5.4312 -1.7712 0.9721
-3.6541 -5.7727 -1.7689 0.9722
-3.1252 -6.0753 -1.7689 0.9722
-2.0051 -6.5592 -1.7759 0.9721
-0.8164 -6.8732 -1.7921 0.9718
-0.2021 -6.9633 -1.8037 0.9716
0.4224 -7.0071 -1.8176 0.9714
1.0543 -7.0034 -1.8337 0.9712
2.3294 -6.8482 -1.8729 0.9706
3.5979 -6.4884 -1.9210 0.9698
4.2208 -6.2291 -1.9482 0.9694
4.8306 -5.9160 -1.9775 0.9689
5.4229 -5.5484 -2.0088 0.9685
7.0450 -4.1200 -2.1131 0.9668
6.9748 -3.2832 -1.9960 0.9686
7.3701 -2.6964 -2.0320 0.9681
7.7181 -2.0657 -2.0687 0.9675
8.0129 -1.3944 -2.1059 0.9670
8.5220 0.8152 -2.2166 0.9652
8.5493 1.5962 -2.2518 0.9647
6.8155 3.3111 -1.9619 0.9692
6.0512 3.6393 -1.8283 0.9712
5.3787 3.9273 -1.7244 0.9729
4.2176 4.4226 -1.5823 0.9751
3.7641 4.7272 -1.5646 0.9753
3.2021 4.8531 -1.5054 0.9763
2.7226 5.0554 -1.4867 0.9766
2.2510 5.2537 -1.4799 0.9767
1.2585 3.8546 -1.0499 0.9834
0.3824 2.7709 -0.7242 0.9885
0.2912 6.0713 -1.5738 0.9752
-1.2915 5.7825 -1.5341 0.9758
-3.3419 7.9447 -2.2316 0.9650
-5.0616 6.4439 -2.1216 0.9667
-5.9107 5.2527 -2.0474 0.9679
-7.0178 4.2842 -2.1289 0.9666
-7.2436 3.5786 -2.0919 0.9672
-7.3405 -0.5623 -1.9062 0.9700
-6.6944 -2.3990 -1.8412 0.9710
-6.0552 -3.4875 -1.8092 0.9715
-5.2728 -4.4501 -1.7865 0.9719
-4.3659 -5.2751 -1.7729 0.9721
-3.8713 -5.6326 -1.7696 0.9722
-0.4639 -6.9307 -1.7985 0.9717
0.1566 -6.9942 -1.8114 0.9715
1.4207 -6.9791 -1.8441 0.9710
2.0587 -6.8979 -1.8638 0.9707
2.6966 -6.7660 -1.8858 0.9704
3.3310 -6.5822 -1.9100 0.9700
3.9581 -6.3456 -1.9364 0.9696
5.1743 -5.7109 -1.9953 0.9687
5.7543 -5.3119 -2.0277 0.9682
6.8334 -4.3511 -2.0975 0.9671
7.3015 -3.7806 -2.1289 0.9666
2.3219 -0.9505 -0.6496 0.9897
7.5767 -2.3383 -2.0530 0.9678
8.4877 0.4889 -2.2013 0.9655
8.5471 1.2634 -2.2370 0.9649
8.5298 2.0510 -2.2715 0.9644
7.1815 3.1591 -2.0314 0.9681
6.3622 3.5058 -1.8808 0.9704
5.0231 4.0793 -1.6754 0.9736
4.4482 4.3244 -1.6063 0.9747
3.4711 4.8513 -1.5445 0.9757
1.5056 5.5660 -1.4929 0.9765
0.2466 2.8695 -0.7457 0.9882
-0.0216 6.2009 -1.6055 0.9747
-1.9439 6.9928 -1.8792 0.9705
-3.0593 8.1191 -2.2465 0.9648
-4.3092 7.2086 -2.1745 0.9659
-5.3314 6.1128 -2.1001 0.9670
-5.7514 5.5142 -2.0630 0.9676
-6.1093 4.8914 -2.0263 0.9682
-7.4712 2.4614 -2.0367 0.9680
-7.5372 1.7571 -2.0038 0.9685
-7.2483 -0.9317 -1.8921 0.9703
-7.0512 -1.5551 -1.8696 0.9706
-6.8096 -2.1534 -1.8492 0.9709
-5.4497 -4.2572 -1.7905 0.9718
-5.0236 -4.7023 -1.7816 0.9720
-4.5676 -5.1122 -1.7750 0.9721
-3.0428 -6.1179 -1.7691 0.9722
-2.4894 -6.3743 -1.7718 0.9721
-1.9169 -6.5892 -1.7768 0.9720
-0.7237 -6.8898 -1.7937 0.9718
0.5181 -7.0096 -1.8199 0.9714
1.1510 -6.9985 -1.8364 0.9711
1.7881 -6.9385 -1.8552 0.9708
2.4264 -6.8282 -1.8762 0.9705
3.6933 -6.4524 -1.9250 0.9697
4.3145 -6.1850 -1.9525 0.9693
4.9219 -5.8636 -1.9822 0.9689
5.5112 -5.4877 -2.0137 0.9684
6.0774 -5.0573 -2.0471 0.9679
6.6152 -4.5727 -2.0822 0.9673
7.1174 -4.0337 -2.1182 0.9668
7.0377 -3.1969 -2.0014 0.9686
7.4262 -2.6033 -2.0375 0.9680
8.0527 -1.2890 -2.1115 0.9669
8.2792 -0.5764 -2.1488 0.9663
8.4403 0.1664 -2.1858 0.9657
7.5677 2.9928 -2.1071 0.9669
5.9437 3.6854 -1.8108 0.9715
4.6861 4.2231 -1.6333 0.9743
4.1364 4.4571 -1.5744 0.9752
3.6860 4.7603 -1.5588 0.9754
2.6506 5.0857 -1.4849 0.9766
0.3409 2.7449 -0.7162 0.9886
0.2098 6.1051 -1.5816 0.9751
-0.3480 6.3359 -1.6429 0.9741
-0.9557 6.5866 -1.7232 0.9729
-1.3808 5.8107 -1.5464 0.9756
-3.4411 7.8795 -2.2262 0.9651
-4.0624 7.4192 -2.1901 0.9657
-4.6280 6.9093 -2.1532 0.9662
-5.5809 5.7713 -2.0787 0.9674
-5.9651 5.1579 -2.0418 0.9679
-7.0563 4.1773 -2.1231 0.9667
-7.4251 2.7616 -2.0511 0.9678
-7.5164 2.0548 -2.0175 0.9683
-7.5488 1.3552 -1.9858 0.9688
-7.5247 0.6670 -1.9559 0.9693
-7.4468 -0.0060 -1.9281 0.9697
-7.3177 -0.6605 -1.9024 0.9701
-7.1403 -1.2937 -1.8789 0.9705
-6.9173 -1.9029 -1.8575 0.9708
-6.6513 -2.4859 -1.8385 0.9711
-6.3448 -3.0407 -1.8217 0.9713
-6.0005 -3.5653 -1.8072 0.9716
-5.6208 -4.0582 -1.7950 0.9718
-4.7644 -4.9428 -1.7775 0.9720
-4.2923 -5.3319 -1.7723 0.9721
-3.2712 -5.9970 -1.7687 0.9722
-2.1618 -6.5032 -1.7744 0.9721
-1.5793 -6.6937 -1.7807 0.9720
0.2518 -6.9998 -1.8136 0.9715
0.8820 -7.0092 -1.8291 0.9712
1.5176 -6.9700 -1.8469 0.9710
2.1558 -6.8811 -1.8670 0.9706
2.7934 -6.7414 -1.8894 0.9703
4.0525 -6.3049 -1.9406 0.9695
4.6664 -6.0065 -1.9694 0.9691
6.3910 -4.7848 -2.0671 0.9676
7.9383 -1.5807 -2.0957 0.9671
8.1908 -0.8825 -2.1330 0.9665
8.5015 0.6056 -2.2068 0.9654
8.5202 2.1715 -2.2766 0.9643
7.0434 3.2131 -2.0045 0.9685
6.2486 3.5546 -1.8613 0.9707
5.5540 3.8523 -1.7501 0.9725
4.9325 4.1180 -1.6637 0.9738
3.9051 4.6674 -1.5757 0.9752
2.8519 5.0009 -1.4906 0.9765
2.3789 5.2000 -1.4806 0.9766
0.4683 2.8763 -0.7545 0.9880
0.2097 2.9000 -0.7528 0.9881
-0.1063 6.2359 -1.6148 0.9746
-1.1452 5.7834 -1.5265 0.9759
-2.0605 7.0407 -1.8994 0.9701
-4.3953 7.1310 -2.1689 0.9660
-5.3993 6.0236 -2.0944 0.9671
-5.8098 5.4208 -2.0574 0.9677
6.6116 -3.5380 -2.1229 0.9693
6.8565 -2.2184 -2.0401 0.9705
7.3766 -0.9980 -2.1073 0.9695
7.5546 -0.3421 -2.1408 0.9691
7.6716 0.3375 -2.1739 0.9686
7.7237 1.0348 -2.2061 0.9681
7.3046 3.0956 -2.2459 0.9676
6.4683 3.4506 -2.0754 0.9700
5.7481 3.7601 -1.9445 0.9718
5.1080 4.0345 -1.8427 0.9733
4.5267 4.2828 -1.7641 0.9744
4.0602 4.5935 -1.7356 0.9748
2.4983 5.0911 -1.6054 0.9767
1.0933 5.7303 -1.6515 0.9760
0.2727 2.7366 -0.7785 0.9886
0.0622 6.1582 -1.7434 0.9747
-1.1301 6.6496 -1.9094 0.9723
-2.6701 7.3884 -2.2240 0.9679
-3.2707 7.0202 -2.1925 0.9683
-5.1820 5.1051 -2.0593 0.9702
-5.5253 4.5482 -2.0259 0.9707
-6.5143 3.6461 -2.1134 0.9694
-6.8399 2.3568 -2.0480 0.9704
-6.3319 -1.9082 -1.8721 0.9729
-5.7907 -2.9499 -1.8397 0.9733
-5.4659 -3.4297 -1.8267 0.9735
-5.1080 -3.8798 -1.8159 0.9737
-4.7193 -4.2988 -1.8072 0.9738
-4.3019 -4.6852 -1.8006 0.9739
-3.8580 -5.0377 -1.7963 0.9740
-3.3896 -5.3549 -1.7941 0.9740
-2.8990 -5.6356 -1.7941 0.9740
-1.8595 -6.0828 -1.8007 0.9739
-0.7566 -6.3697 -1.8159 0.9737
-0.1872 -6.4502 -1.8268 0.9735
0.3910 -6.4871 -1.8398 0.9733
0.9754 -6.4793 -1.8549 0.9731
3.3169 -5.9816 -1.9363 0.9720
3.8868 -5.7362 -1.9616 0.9716
4.4431 -5.4414 -1.9887 0.9712
6.4434 -3.7682 -2.1131 0.9694
6.3705 -2.9987 -1.9933 0.9712
6.7210 -2.4590 -2.0260 0.9707
7.0272 -1.8808 -2.0594 0.9702
7.2839 -1.2675 -2.0930 0.9697
7.6297 0.0469 -2.1600 0.9688
7.5363 2.8627 -2.2822 0.9670
6.8046 3.3058 -2.1416 0.9690
6.0422 3.6339 -1.9960 0.9711
5.3712 3.9218 -1.8827 0.9727
4.2121 4.4169 -1.7278 0.9749
3.7594 4.7213 -1.7085 0.9752
2.2483 5.2474 -1.6161 0.9765
1.2999 5.6443 -1.6397 0.9762
0.3797 2.7512 -0.7862 0.9885
0.1441 3.0058 -0.8519 0.9876
-0.8582 6.5378 -1.8667 0.9730
-3.0214 7.1829 -2.2060 0.9681
-3.5962 6.7846 -2.1738 0.9686
-5.3866 4.7869 -2.0400 0.9705
-2.5159 1.8626 -0.8862 0.9871
-6.4124 3.9146 -2.1268 0.9693
-6.6318 3.2763 -2.0940 0.9697
-6.8916 1.9849 -2.0303 0.9706
-6.4267 -1.6745 -1.8801 0.9728
-6.1916 -2.2189 -1.8619 0.9730
-4.8877 -4.1251 -1.8106 0.9738
-3.5910 -5.2248 -1.7948 0.9740
-2.0857 -6.0011 -1.7985 0.9739
-0.9948 -6.3228 -1.8119 0.9737
-0.4298 -6.4213 -1.8219 0.9736
0.1450 -6.4768 -1.8340 0.9734
2.4895 -6.2464 -1.9036 0.9724
3.0721 -6.0708 -1.9261 0.9721
4.7557 -5.2490 -2.0051 0.9710
6.2548 -3.9827 -2.0992 0.9696
6.6700 -3.4537 -2.1264 0.9693
2.3208 -0.9501 -0.7099 0.9896
6.9031 -2.1304 -2.0452 0.9704
7.5764 -0.2401 -2.1459 0.9690
7.7257 1.1420 -2.2109 0.9681
7.6001 2.5625 -2.2706 0.9672
7.1696 3.1539 -2.2174 0.9680
6.3525 3.5005 -2.0533 0.9703
5.6462 3.8039 -1.9273 0.9721
3.9798 4.6276 -1.7279 0.9749
2.9209 4.9642 -1.6306 0.9763
2.4475 5.1637 -1.6177 0.9765
0.2462 2.8643 -0.8139 0.9881
-0.0215 6.1928 -1.7531 0.9746
-0.5978 6.4306 -1.8283 0.9735
-1.0766 5.8525 -1.6846 0.9756
-1.9409 6.9821 -2.0515 0.9703
-3.3582 6.9596 -2.1876 0.9684
-3.9056 6.5334 -2.1548 0.9689
-4.8476 5.5580 -2.0878 0.9698
-5.2378 5.0218 -2.0542 0.9703
-5.5727 4.4617 -2.0209 0.9708
-6.7299 2.9048 -2.0751 0.9700
-6.8554 2.2585 -2.0433 0.9704
-6.9060 0.3497 -1.9575 0.9717
-6.8214 -0.2636 -1.9325 0.9720
-6.5141 -1.4366 -1.8884 0.9726
-6.2961 -1.9910 -1.8694 0.9729
-6.0385 -2.5211 -1.8524 0.9732
-5.0508 -3.9456 -1.8144 0.9737
-2.8226 -5.6751 -1.7943 0.9740
-2.3089 -5.9123 -1.7968 0.9740
-1.2307 -6.2683 -1.8084 0.9738
-0.6707 -6.3847 -1.8174 0.9737
-0.0997 -6.4586 -1.8286 0.9735
0.4796 -6.4888 -1.8419 0.9733
2.2410 -6.3063 -1.8946 0.9726
2.8259 -6.1512 -1.9163 0.9723
4.5262 -5.3922 -1.9930 0.9712
6.5047 -3.6865 -2.1166 0.9694
6.4265 -2.9192 -1.9982 0.9711
7.7187 1.5498 -2.2287 0.9678
7.6508 2.2612 -2.2585 0.9674
7.5102 2.9701 -2.2863 0.9670
5.9349 3.6799 -1.9769 0.9714
5.2754 3.9628 -1.8679 0.9729
4.1311 4.4513 -1.7192 0.9751
3.1245 4.8783 -1.6400 0.9762
2.6474 5.0796 -1.6216 0.9765
0.2095 6.0972 -1.7271 0.9750
-0.3475 6.3274 -1.7939 0.9740
-0.9543 6.5773 -1.8815 0.9727
-1.3789 5.8026 -1.6884 0.9755
-4.6656 5.7766 -2.1021 0.9696
-5.0791 5.2524 -2.0684 0.9701
-5.4375 4.7017 -2.0350 0.9706
-2.5344 1.8237 -0.8839 0.9871
-6.9023 1.8869 -2.0257 0.9707
-6.9409 1.2461 -1.9963 0.9711
-6.5939 -1.1947 -1.8971 0.9725
-5.2084 -3.7605 -1.8186 0.9736
-4.8279 -4.1881 -1.8093 0.9738
-4.4181 -4.5835 -1.8022 0.9739
-3.5192 -5.2722 -1.7945 0.9740
-3.0345 -5.5630 -1.7939 0.9740
-0.9096 -6.3405 -1.8133 0.9737
0.2331 -6.4814 -1.8360 0.9734
3.7331 -5.8078 -1.9545 0.9717
4.2935 -5.5264 -1.9812 0.9713
5.3599 -4.8148 -2.0397 0.9705
5.8570 -4.3850 -2.0713 0.9700
6.3235 -3.9069 -2.1043 0.9696
6.9486 -2.0416 -2.0503 0.9703
7.2193 -1.4375 -2.0839 0.9699
7.6883 1.9595 -2.2461 0.9676
7.0319 3.2079 -2.1880 0.9684
5.5461 3.8468 -1.9108 0.9723
3.9002 4.6615 -1.7206 0.9750
3.3908 4.8775 -1.6817 0.9756
2.3760 5.1938 -1.6169 0.9765
1.3377 3.7836 -1.1361 0.9835
0.2090 2.8907 -0.8205 0.9880
-0.1062 6.2277 -1.7633 0.9744
-0.6900 6.4685 -1.8416 0.9733
-1.1442 5.7786 -1.6676 0.9758
-3.4446 6.8978 -2.1827 0.9685
-3.9846 6.4647 -2.1498 0.9689
-4.4740 5.9893 -2.1164 0.9694
-5.2923 4.9380 -2.0491 0.9704
2.3190 -0.9863 -0.7751 0.9895
6.2915 -2.0355 -2.0339 0.9727
6.5448 -1.4889 -2.0645 0.9723
6.7503 -0.9132 -2.0952 0.9719
6.9038 -0.3126 -2.1257 0.9715
7.0015 0.3080 -2.1556 0.9711
7.0163 1.5867 -2.2126 0.9703
6.9285 2.2318 -2.2389 0.9700
5.7397 3.7546 -2.1096 0.9717
5.1009 4.0288 -1.9993 0.9732
4.5206 4.2771 -1.9142 0.9743
3.5389 4.8068 -1.8359 0.9753
2.9900 4.9274 -1.7728 0.9762
1.4639 3.8085 -1.2550 0.9831
1.0920 5.7232 -1.7921 0.9759
0.0621 6.1501 -1.8917 0.9746
-1.1285 6.6400 -2.0716 0.9722
-1.5592 5.9193 -1.8828 0.9747
-2.9828 6.4022 -2.1724 0.9709
-3.4933 6.0280 -2.1429 0.9713
-4.3799 5.1615 -2.0821 0.9721
-4.7513 4.6807 -2.0514 0.9725
-5.0729 4.1757 -2.0209 0.9729
-2.6096 1.7833 -0.9722 0.9869
-5.9903 3.3528 -2.1115 0.9717
-6.1806 2.7678 -2.0829 0.9721
-6.3118 2.1748 -2.0534 0.9724
-6.4206 0.9926 -1.9983 0.9732
-6.2263 -0.7146 -1.9276 0.9741
-5.6518 -2.2701 -1.8734 0.9748
-5.0863 -3.1915 -1.8469 0.9752
-4.7552 -3.6119 -1.8367 0.9753
-4.0071 -4.3642 -1.8223 0.9755
-3.5942 -4.6933 -1.8182 0.9756
-2.2250 -5.4767 -1.8182 0.9756
-1.7321 -5.6660 -1.8223 0.9755
-0.7044 -5.9298 -1.8367 0.9753
-0.1742 -6.0022 -1.8469 0.9752
0.3637 -6.0335 -1.8592 0.9750
1.4522 -5.9693 -1.8896 0.9746
2.5389 -5.7300 -1.9277 0.9741
3.5984 -5.3106 -1.9731 0.9735
4.6022 -4.7087 -2.0252 0.9728
5.0733 -4.3396 -2.0534 0.9724
5.5181 -3.9261 -2.0830 0.9721
5.9275 -3.4664 -2.1120 0.9717
5.8565 -2.7568 -1.9909 0.9733
6.1706 -2.2576 -2.0210 0.9729
6.4430 -1.7244 -2.0515 0.9725
6.6694 -1.1606 -2.0822 0.9721
6.9671 0.0428 -2.1430 0.9713
7.0311 0.6725 -2.1725 0.9709
6.9737 1.9586 -2.2280 0.9701
6.8483 2.6013 -2.2532 0.9698
6.6569 3.2341 -2.2764 0.9695
6.0331 3.6284 -2.1654 0.9710
4.2066 4.4111 -1.8748 0.9748
3.7546 4.7153 -1.8539 0.9751
3.1942 4.8411 -1.7839 0.9760
2.2456 5.2410 -1.7538 0.9764
1.2457 3.8156 -1.2346 0.9833
1.2983 5.6373 -1.7793 0.9761
0.3935 2.8518 -0.8855 0.9880
0.1436 2.9954 -0.9224 0.9875
-0.2596 6.2828 -1.9341 0.9740
-0.8570 6.5285 -2.0253 0.9728
-1.2884 5.7687 -1.8180 0.9756
-2.1872 6.8527 -2.2125 0.9703
-2.7540 6.5470 -2.1846 0.9707
-3.2821 6.1920 -2.1555 0.9711
-3.7677 5.7933 -2.1256 0.9715
-4.2077 5.3567 -2.0951 0.9719
-6.4154 0.6566 -1.9835 0.9734
-6.3694 0.0813 -1.9593 0.9737
-6.2782 -0.4809 -1.9367 0.9740
-6.1437 -1.0272 -1.9159 0.9743
-5.9682 -1.5551 -1.8970 0.9745
-5.7539 -2.0620 -1.8800 0.9747
-4.1747 -4.2150 -1.8247 0.9755
-3.3457 -4.8679 -1.8168 0.9756
-2.4290 -5.3853 -1.8171 0.9756
-0.9262 -5.8869 -1.8330 0.9754
3.8946 -5.1560 -1.9874 0.9733
4.3956 -4.8515 -2.0136 0.9730
5.3330 -4.1068 -2.0703 0.9722
5.7607 -3.6681 -2.1006 0.9718
5.7249 -2.9643 -1.9829 0.9734
6.3329 -1.9544 -2.0385 0.9726
6.7772 -0.8234 -2.0998 0.9718
7.0113 0.4039 -2.1601 0.9710
7.0404 1.0407 -2.1890 0.9707
6.9095 2.3296 -2.2427 0.9699
6.7461 2.9676 -2.2668 0.9696
5.6380 3.7983 -2.0910 0.9720
5.0093 4.0681 -1.9848 0.9734
4.4365 4.3131 -1.9031 0.9744
3.9747 4.6217 -1.8749 0.9748
2.9173 4.9581 -1.7694 0.9762
2.4445 5.1574 -1.7555 0.9764
1.3863 3.7580 -1.2320 0.9834
1.0172 5.7543 -1.7973 0.9758
-0.5970 6.4217 -1.9837 0.9734
-2.5182 6.6830 -2.1966 0.9706
-3.0631 6.3482 -2.1680 0.9709
-3.5672 5.9673 -2.1384 0.9713
-4.0268 5.5461 -2.1081 0.9717
-4.8034 4.6053 -2.0468 0.9725
-5.3809 3.5710 -1.9864 0.9733
-6.0255 3.2659 -2.1080 0.9717
-6.3272 2.0845 -2.0490 0.9725
-6.3989 1.4917 -2.0209 0.9729
-6.4208 0.9036 -1.9943 0.9732
-6.3946 0.3238 -1.9693 0.9736
-6.3222 -0.2443 -1.9460 0.9739
-6.2058 -0.7977 -1.9245 0.9742
-6.0475 -1.3337 -1.9048 0.9744
-5.6136 -2.3437 -1.8711 0.9749
-5.0379 -3.2572 -1.8452 0.9752
-4.7022 -3.6733 -1.8353 0.9753
-4.3375 -4.0602 -1.8274 0.9754
-3.9459 -4.4163 -1.8216 0.9755
-3.5293 -4.7404 -1.8178 0.9756
-2.6298 -5.2874 -1.8164 0.9756
-2.1510 -5.5079 -1.8187 0.9756
-0.6243 -5.9434 -1.8381 0.9753
-0.0928 -6.0096 -1.8487 0.9752
0.4460 -6.0347 -1.8612 0.9750
1.5352 -5.9573 -1.8922 0.9746
2.0800 -5.8532 -1.9106 0.9743
2.6207 -5.7045 -1.9309 0.9741
4.6754 -4.6555 -2.0294 0.9728
5.1428 -4.2796 -2.0579 0.9724
5.5832 -3.8593 -2.0876 0.9720
5.9830 -3.3908 -2.1152 0.9716
5.9068 -2.6832 -1.9955 0.9732
6.9807 0.1376 -2.1475 0.9712
7.0355 0.7695 -2.1769 0.9708
6.9588 2.0567 -2.2319 0.9701
6.6221 3.3290 -2.2797 0.9695
5.9261 3.6745 -2.1447 0.9712
5.2680 3.9572 -2.0266 0.9728
4.6736 4.2118 -1.9351 0.9740
3.6767 4.7483 -1.8471 0.9752
3.1206 4.8722 -1.7796 0.9761
1.7035 5.4681 -1.7616 0.9763
0.3377 2.7192 -0.8428 0.9886
-0.3471 6.3188 -1.9465 0.9739
-0.9530 6.5680 -2.0413 0.9726
-1.3770 5.7944 -1.8319 0.9754
-2.2758 6.8096 -2.2084 0.9704
-2.8369 6.4961 -2.1803 0.9708
-3.3587 6.1341 -2.1510 0.9712
-3.8376 5.7292 -2.1210 0.9716
-4.2704 5.2873 -2.0905 0.9720
-4.6552 4.8140 -2.0598 0.9724
-4.9904 4.3151 -2.0292 0.9728
-2.5342 1.8235 -0.9603 0.9870
-5.9244 3.5073 -2.1176 0.9716
-6.3584 -0.0051 -1.9557 0.9737
-6.1196 -1.1088 -1.9129 0.9743
-5.9381 -1.6336 -1.8943 0.9746
-5.1709 -3.0724 -1.8500 0.9751
-4.4956 -3.8998 -1.8305 0.9754
-4.1151 -4.2692 -1.8238 0.9755
-3.7088 -4.6070 -1.8191 0.9756
-2.8273 -5.1831 -1.8160 0.9756
-2.3561 -5.4189 -1.8175 0.9756
-1.8676 -5.6182 -1.8210 0.9755
-1.3638 -5.7800 -1.8266 0.9755
-0.3192 -5.9865 -1.8439 0.9752
0.2169 -6.0291 -1.8556 0.9751
1.3038 -5.9882 -1.8850 0.9747
1.8493 -5.9028 -1.9026 0.9744
2.3922 -5.7731 -1.9221 0.9742
2.9292 -5.5984 -1.9434 0.9739
3.9719 -5.1126 -1.9913 0.9733
4.4702 -4.8012 -2.0177 0.9729
5.4001 -4.0428 -2.0749 0.9722
5.8229 -3.5976 -2.1053 0.9718
5.7645 -2.8863 -1.9829 0.9734
2.3391 -0.9207 -0.7732 0.9895
6.8027 -0.7329 -2.1045 0.9718
7.0394 1.1384 -2.1933 0.9706
6.9965 1.7831 -2.2208 0.9702
6.8889 2.4273 -2.2465 0.9699
6.7155 3.0635 -2.2703 0.9696
4.3532 4.3486 -1.8926 0.9746
3.3865 4.8714 -1.8248 0.9755
2.8449 4.9887 -1.7664 0.9763
1.4291 5.5827 -1.7725 0.9762
0.4738 2.9104 -0.9070 0.9877
-1.1434 5.7743 -1.8105 0.9757
-2.6036 6.6352 -2.1923 0.9706
-3.6400 5.9057 -2.1338 0.9714
-4.0927 5.4788 -2.1034 0.9718
6.0331 -1.3725 -2.0567 0.9743
6.2153 -0.8409 -2.0848 0.9739
6.3493 -0.2875 -2.1127 0.9736
6.4319 0.2830 -2.1401 0.9732
5.7290 3.7476 -2.2756 0.9716
5.0937 4.0232 -2.1576 0.9730
4.5145 4.2713 -2.0659 0.9741
3.9779 4.5004 -1.9966 0.9750
1.4592 3.7961 -1.3519 0.9830
1.0906 5.7159 -1.9343 0.9758
0.2705 2.7149 -0.9069 0.9886
-1.5552 5.9042 -2.0295 0.9746
-3.2106 5.5402 -2.1285 0.9734
-3.6436 5.1643 -2.1009 0.9737
-4.0347 4.7548 -2.0729 0.9741
-4.6840 3.8556 -2.0166 0.9748
-5.9331 1.4683 -2.0317 0.9746
-5.9537 0.3825 -1.9831 0.9752
-5.6623 -1.1684 -1.9218 0.9759
-5.4867 -1.6535 -1.9048 0.9761
-5.0293 -2.5620 -1.8762 0.9765
-4.7517 -2.9815 -1.8647 0.9766
-4.1084 -3.7424 -1.8473 0.9768
-3.7468 -4.0806 -1.8415 0.9769
-2.5261 -4.9107 -1.8357 0.9770
-2.0807 -5.1217 -1.8376 0.9770
1.3546 -5.5681 -1.9049 0.9761
1.8619 -5.4738 -1.9219 0.9759
4.2723 -4.3712 -2.0318 0.9746
4.7049 -4.0245 -2.0581 0.9742
5.1121 -3.6372 -2.0855 0.9739
5.4137 -2.5484 -1.9889 0.9751
5.9422 -1.5904 -2.0447 0.9744
6.2986 -0.5245 -2.1009 0.9737
6.4549 0.6174 -2.1554 0.9730
6.4507 1.2044 -2.1813 0.9727
6.3889 1.7944 -2.2059 0.9724
6.2680 2.3809 -2.2288 0.9721
6.0876 2.9575 -2.2497 0.9719
5.8481 3.5171 -2.2684 0.9716
4.7541 4.1688 -2.1018 0.9737
4.2011 4.4053 -2.0235 0.9747
3.1902 4.8350 -1.9255 0.9759
2.7126 5.0368 -1.9016 0.9762
2.2428 5.2345 -1.8930 0.9763
1.2967 5.6302 -1.9205 0.9759
-0.8557 6.5192 -2.1856 0.9727
-1.2869 5.7617 -1.9624 0.9754
-3.0150 5.6883 -2.1400 0.9732
-3.4650 5.3280 -2.1127 0.9736
-3.8742 4.9321 -2.0848 0.9739
-4.2402 4.5057 -2.0566 0.9743
-4.5615 4.0537 -2.0285 0.9746
-5.8053 2.2493 -2.0695 0.9741
-5.9052 1.7008 -2.0427 0.9744
-5.9643 0.6104 -1.9929 0.9750
-5.8464 -0.4478 -1.9491 0.9756
-5.7255 -0.9573 -1.9296 0.9758
-5.5657 -1.4502 -1.9118 0.9760
-5.3690 -1.9241 -1.8958 0.9762
-5.1375 -2.3769 -1.8817 0.9764
-4.8732 -2.8067 -1.8693 0.9766
-3.9031 -3.9408 -1.8437 0.9769
-3.5274 -4.2620 -1.8390 0.9769
-3.1290 -4.5525 -1.8362 0.9770
-2.7097 -4.8110 -1.8354 0.9770
-2.2716 -5.0364 -1.8365 0.9770
-1.8168 -5.2275 -1.8396 0.9769
-1.3475 -5.3832 -1.8446 0.9769
0.1260 -5.6276 -1.8711 0.9766
0.6311 -5.6317 -1.8837 0.9764
3.1423 -5.0377 -1.9736 0.9753
3.6203 -4.7928 -1.9966 0.9750
4.0822 -4.5056 -2.0210 0.9747
5.3335 -3.3961 -2.1018 0.9737
2.3186 -0.9492 -0.8328 0.9895
5.8435 -1.8034 -2.0328 0.9746
6.0638 -1.2932 -2.0610 0.9742
6.2389 -0.7580 -2.0891 0.9739
6.3653 -0.2017 -2.1169 0.9735
6.4397 0.3709 -2.1442 0.9732
6.4595 0.9549 -2.1705 0.9729
6.3265 2.1331 -2.2193 0.9722
6.1713 2.7147 -2.2411 0.9720
5.0023 4.0624 -2.1421 0.9732
4.4305 4.3073 -2.0540 0.9743
3.3969 4.7474 -1.9404 0.9757
2.9137 4.9520 -1.9099 0.9761
1.0159 5.7470 -1.9400 0.9757
-0.0215 6.1763 -2.0530 0.9743
-0.5961 6.4127 -2.1408 0.9732
-1.0770 5.8552 -1.9789 0.9752
-1.7743 6.3830 -2.2022 0.9725
-2.3097 6.1297 -2.1774 0.9728
-3.2791 5.4854 -2.1243 0.9734
-3.7058 5.1040 -2.0966 0.9738
-4.0904 4.6899 -2.0686 0.9741
-4.4308 4.2481 -2.0404 0.9745
-4.7259 3.7837 -2.0124 0.9748
-4.9749 3.3016 -1.9847 0.9751
-5.5667 3.0172 -2.1047 0.9737
-5.7484 2.4812 -2.0812 0.9740
-5.9670 0.8398 -2.0030 0.9749
-5.9480 0.3012 -1.9797 0.9752
-5.8856 -0.2274 -1.9578 0.9755
-5.7816 -0.7432 -1.9376 0.9757
-5.6380 -1.2434 -1.9191 0.9760
-4.9891 -2.6274 -1.8743 0.9765
-4.7068 -3.0431 -1.8631 0.9767
-4.3947 -3.4331 -1.8537 0.9768
-3.3005 -4.4332 -1.8372 0.9770
-2.8898 -4.7054 -1.8355 0.9770
-2.0115 -5.1507 -1.8381 0.9770
-1.5481 -5.3215 -1.8422 0.9769
-0.0867 -5.6139 -1.8663 0.9766
0.9236 -5.6159 -1.8918 0.9763
1.9387 -5.4558 -1.9246 0.9759
3.4194 -4.9018 -1.9867 0.9751
3.8886 -4.6325 -2.0105 0.9748
4.7686 -3.9682 -2.0622 0.9742
6.4451 1.2941 -2.1852 0.9727
6.3743 1.8840 -2.2095 0.9724
5.2605 3.9515 -2.1870 0.9726
4.1203 4.4397 -2.0134 0.9748
3.6070 4.6582 -1.9584 0.9755
2.1715 5.2644 -1.8930 0.9763
1.7014 5.4613 -1.9014 0.9762
0.3388 2.7279 -0.9137 0.9885
-0.9516 6.5585 -2.2029 0.9725
-2.0865 6.2432 -2.1881 0.9726
-3.0860 5.6360 -2.1359 0.9733
-2.5339 1.8233 -1.0377 0.9869
-5.0974 3.0176 -1.9690 0.9753
-5.6823 2.7120 -2.0929 0.9738
-5.9162 1.6173 -2.0387 0.9745
-5.9616 1.0703 -2.0134 0.9748
-5.9172 -0.0047 -1.9669 0.9754
-5.0994 -2.4438 -1.8797 0.9764
-4.8302 -2.8699 -1.8676 0.9766
-4.5305 -3.2710 -1.8575 0.9767
-4.2023 -3.6454 -1.8492 0.9768
-3.0665 -4.5939 -1.8360 0.9770
-1.7463 -5.2535 -1.8402 0.9769
-0.7915 -5.5173 -1.8527 0.9768
1.2164 -5.5866 -1.9005 0.9762
1.7242 -5.5035 -1.9171 0.9760
2.2288 -5.3789 -1.9354 0.9758
3.2159 -5.0032 -1.9770 0.9752
3.6917 -4.7518 -2.0002 0.9750
5.3895 -3.3298 -2.1058 0.9736
2.3405 -0.9212 -0.8361 0.9895
5.8798 -1.7275 -2.0371 0.9745
6.0934 -1.2133 -2.0653 0.9742
6.3800 -0.1156 -2.1211 0.9735
6.4463 0.4592 -2.1482 0.9731
6.4575 1.0443 -2.1744 0.9728
6.4115 1.6340 -2.1993 0.9725
6.3067 2.2222 -2.2227 0.9722
5.9190 3.3671 -2.2636 0.9717
4.9122 4.1011 -2.1271 0.9734
1.2809 3.6231 -1.2774 0.9839
1.4274 5.5757 -1.9132 0.9760
0.5220 3.2061 -1.0798 0.9864
0.2098 2.9016 -0.9670 0.9878
-0.1059 6.2111 -2.0649 0.9742
-1.1427 5.7710 -1.9556 0.9755
-1.8577 6.3477 -2.1985 0.9725
-2.3884 6.0869 -2.1735 0.9728
-2.8860 5.7794 -2.1473 0.9731
-3.3467 5.4297 -2.1202 0.9735
4.8709 -2.6065 -1.9756 0.9768
2.3137 -0.9840 -0.8991 0.9894
5.7525 -0.7782 -2.0759 0.9756
5.9412 0.2614 -2.1267 0.9751
5.9616 0.7987 -2.1510 0.9748
5.8451 1.8828 -2.1960 0.9743
5.5128 2.9410 -2.2344 0.9738
5.2665 3.4451 -2.2505 0.9736
4.9686 3.9243 -2.2642 0.9735
4.5084 4.2655 -2.2195 0.9740
3.7426 4.2342 -2.0209 0.9763
3.3056 4.4898 -1.9938 0.9766
2.9825 4.9150 -2.0559 0.9759
1.5705 5.5082 -2.0483 0.9760
1.0892 5.7086 -2.0783 0.9756
-2.0571 5.6923 -2.1644 0.9746
-3.3704 4.7770 -2.0907 0.9755
-3.7359 4.4026 -2.0648 0.9758
-4.3457 3.5772 -2.0129 0.9764
-2.6026 1.7786 -1.1273 0.9867
-4.7874 2.6795 -1.9619 0.9770
-5.3244 2.3844 -2.0862 0.9755
-5.4517 1.8784 -2.0620 0.9758
-5.5307 1.3687 -2.0375 0.9761
-5.5660 0.8605 -2.0141 0.9764
-5.5107 -0.1381 -1.9713 0.9769
-5.4231 -0.6224 -1.9521 0.9771
-5.2977 -1.0932 -1.9344 0.9773
-4.9407 -1.9844 -1.9040 0.9776
-4.1672 -3.1652 -1.8713 0.9780
-3.5150 -3.8282 -1.8585 0.9782
-2.3703 -4.6078 -1.8530 0.9782
-1.0736 -5.1008 -1.8640 0.9781
-0.6173 -5.1965 -1.8714 0.9780
0.3182 -5.2794 -1.8914 0.9778
0.7927 -5.2651 -1.9040 0.9776
1.7420 -5.1213 -1.9345 0.9773
2.2113 -4.9909 -1.9521 0.9771
3.5623 -4.3627 -2.0141 0.9764
4.3819 -3.7483 -2.0621 0.9758
5.6887 -0.9900 -2.0649 0.9758
5.9173 0.0363 -2.1161 0.9752
5.9592 0.5700 -2.1408 0.9749
5.7716 2.1924 -2.2078 0.9741
5.3773 3.2340 -2.2440 0.9737
4.7475 4.1630 -2.2580 0.9735
3.9523 4.1444 -2.0480 0.9760
3.1861 4.8289 -2.0689 0.9757
2.7092 5.0305 -2.0432 0.9760
2.2400 5.2280 -2.0339 0.9761
1.2380 3.7920 -1.4265 0.9832
1.2950 5.6230 -2.0635 0.9758
-0.2580 6.2428 -2.2344 0.9738
-1.2853 5.7547 -2.1086 0.9753
-2.3322 5.5442 -2.1509 0.9748
-2.7850 5.2543 -2.1266 0.9751
-3.5857 4.5649 -2.0758 0.9756
-4.2303 3.7594 -2.0238 0.9762
-5.5026 1.5848 -2.0478 0.9760
-5.5670 0.5698 -2.0012 0.9765
-5.5361 0.0707 -1.9799 0.9768
-5.4650 -0.4186 -1.9600 0.9770
-5.2090 -1.3572 -1.9250 0.9774
-4.8132 -2.2268 -1.8965 0.9777
-4.5674 -2.6306 -1.8849 0.9779
-3.6614 -3.6967 -1.8606 0.9781
-2.5425 -4.5143 -1.8528 0.9782
-2.1314 -4.7256 -1.8538 0.9782
-1.7045 -4.9044 -1.8567 0.9782
-1.2640 -5.0496 -1.8615 0.9781
-0.8119 -5.1602 -1.8680 0.9781
-0.3504 -5.2354 -1.8764 0.9780
1.5414 -5.1647 -1.9274 0.9774
2.4786 -4.8978 -1.9630 0.9770
2.9348 -4.7052 -1.9831 0.9767
3.8067 -4.2015 -2.0275 0.9762
4.9597 -3.1581 -2.1027 0.9753
4.9080 -2.5413 -1.9764 0.9768
2.3178 -0.9488 -0.8956 0.9894
5.4184 -1.6722 -2.0278 0.9762
5.6171 -1.1979 -2.0539 0.9759
5.7734 -0.7014 -2.0798 0.9756
5.9206 1.4236 -2.1776 0.9745
5.8274 1.9648 -2.1992 0.9742
5.6801 2.4986 -2.2191 0.9740
5.4788 3.0190 -2.2370 0.9738
4.4245 4.3014 -2.2067 0.9741
3.6729 4.2707 -2.0144 0.9764
3.2451 4.5354 -1.9943 0.9766
2.9100 4.9457 -2.0521 0.9759
2.4385 5.1445 -2.0359 0.9761
1.4982 5.5384 -2.0518 0.9759
1.0146 5.7396 -2.0844 0.9755
0.2338 2.7204 -0.9764 0.9885
-0.5757 6.1928 -2.2241 0.9739
-1.0773 5.8565 -2.1295 0.9750
-2.1307 5.6546 -2.1609 0.9747
-3.7880 4.3432 -2.0609 0.9758
-4.3853 3.5110 -2.0089 0.9764
-4.6210 3.0667 -1.9833 0.9767
-4.8140 2.6093 -1.9581 0.9770
-5.5676 0.7835 -2.0106 0.9764
-5.4064 -0.6950 -1.9493 0.9771
-5.2754 -1.1634 -1.9319 0.9773
-5.1087 -1.6156 -1.9161 0.9775
-4.9080 -2.0491 -1.9020 0.9777
-4.4124 -2.8528 -1.8790 0.9779
-4.1211 -3.2193 -1.8701 0.9780
-3.8035 -3.5603 -1.8631 0.9781
-3.4614 -3.8741 -1.8578 0.9782
-2.7116 -4.4152 -1.8529 0.9782
-0.5471 -5.2079 -1.8726 0.9780
0.3902 -5.2797 -1.8932 0.9778
1.8137 -5.1040 -1.9370 0.9773
2.2822 -4.9676 -1.9549 0.9770
3.1922 -4.5762 -1.9953 0.9766
4.0447 -4.0275 -2.0412 0.9760
5.0693 -2.3027 -1.9911 0.9766
5.3223 -1.8657 -2.0168 0.9763
5.9269 0.1169 -2.1199 0.9751
5.9612 0.6520 -2.1445 0.9748
5.8735 1.7359 -2.1902 0.9743
5.7492 2.2736 -2.2109 0.9741
5.0545 3.7968 -2.2607 0.9735
3.4117 4.4061 -1.9928 0.9766
3.1128 4.8599 -2.0639 0.9758
2.1688 5.2578 -2.0339 0.9761
1.1976 3.8441 -1.4398 0.9830
1.2215 5.6536 -2.0684 0.9757
0.3535 2.8466 -1.0258 0.9879
0.2087 6.0731 -2.1731 0.9745
-0.3423 6.2314 -2.2317 0.9738
-2.4031 5.5028 -2.1473 0.9748
-2.8510 5.2068 -2.1228 0.9751
-3.2644 4.8735 -2.0976 0.9754
-3.9770 4.1127 -2.0459 0.9760
-4.2726 3.6944 -2.0199 0.9763
-2.5337 1.8231 -1.1163 0.9868
-4.7374 2.8045 -1.9687 0.9769
-5.4225 2.0168 -2.0689 0.9757
-5.5136 1.5073 -2.0440 0.9760
-5.5650 0.4933 -1.9979 0.9765
-5.4507 -0.4920 -1.9571 0.9770
-5.3355 -0.9667 -1.9391 0.9772
-4.7778 -2.2897 -1.8946 0.9777
-3.9413 -3.4190 -1.8658 0.9781
-3.6093 -3.7445 -1.8598 0.9781
-3.2540 -4.0421 -1.8557 0.9782
-1.6384 -4.9287 -1.8573 0.9782
-0.2796 -5.2436 -1.8778 0.9779
1.6135 -5.1499 -1.9299 0.9773
2.5487 -4.8711 -1.9660 0.9769
4.2756 -3.8408 -2.0553 0.9759
4.9702 -2.4886 -1.9877 0.9767
2.3419 -0.9218 -0.9000 0.9894
5.4512 -1.6016 -2.0318 0.9762
5.6436 -1.1238 -2.0578 0.9759
5.7933 -0.6242 -2.0837 0.9756
5.9576 0.9635 -2.1582 0.9747
5.9099 1.5062 -2.1810 0.9744
5.8085 2.0466 -2.2023 0.9742
5.4435 3.0966 -2.2396 0.9737
5.1812 3.5938 -2.2549 0.9736
4.3415 4.3369 -2.1945 0.9743
2.3672 5.1745 -2.0349 0.9761
1.3307 3.7639 -1.4277 0.9832
0.4795 2.9452 -1.0671 0.9874
0.2083 2.8809 -1.0329 0.9878
-0.6588 6.1765 -2.2213 0.9740
-2.2036 5.6159 -2.1574 0.9747
-3.0936 5.0190 -2.1084 0.9753
-3.8392 4.2831 -2.0569 0.9759
2.3109 -0.9829 -0.9624 0.9893
5.2008 -1.1832 -2.0440 0.9774
5.5137 0.2426 -2.1150 0.9766
5.5282 0.7407 -2.1374 0.9764
5.4946 1.2426 -2.1588 0.9762
5.0976 2.7195 -2.2141 0.9756
4.8672 3.1839 -2.2288 0.9754
4.5897 3.6251 -2.2413 0.9753
4.2676 4.0378 -2.2514 0.9751
3.2621 4.4308 -2.1085 0.9767
2.9787 4.9087 -2.2004 0.9757
1.4411 3.7492 -1.5393 0.9829
1.5685 5.5012 -2.1922 0.9758
0.2699 2.7084 -1.0430 0.9884
-1.4427 5.4770 -2.1705 0.9760
-2.7545 4.7530 -2.1052 0.9767
-3.1317 4.4387 -2.0817 0.9770
-3.7805 3.7243 -2.0337 0.9775
-4.0487 3.3327 -2.0096 0.9778
-4.4679 2.5007 -1.9621 0.9783
-4.9664 2.2241 -2.0853 0.9770
-5.1741 1.2805 -2.0426 0.9774
-5.0872 -0.5839 -1.9623 0.9783
-4.8233 -1.4536 -1.9305 0.9787
-4.1878 -2.6277 -1.8946 0.9790
-3.9191 -2.9768 -1.8860 0.9791
-2.9674 -3.8748 -1.8703 0.9793
-2.2305 -4.3360 -1.8686 0.9793
-1.8370 -4.5217 -1.8703 0.9793
-1.4294 -4.6761 -1.8738 0.9793
-1.0099 -4.7982 -1.8790 0.9792
-0.5805 -4.8871 -1.8860 0.9791
-0.1434 -4.9419 -1.8946 0.9790
0.7447 -4.9464 -1.9169 0.9788
1.6350 -4.8067 -1.9457 0.9785
2.5062 -4.5196 -1.9804 0.9781
2.9274 -4.3204 -1.9999 0.9779
3.7257 -3.8119 -2.0427 0.9774
4.0962 -3.5038 -2.0657 0.9772
5.1266 -1.3721 -2.0337 0.9775
5.4136 -0.4508 -2.0818 0.9770
5.4935 0.0337 -2.1053 0.9767
5.5147 1.0297 -2.1499 0.9763
5.4529 1.5315 -2.1705 0.9760
5.3417 2.0291 -2.1897 0.9758
4.9707 2.9895 -2.2228 0.9755
4.7130 3.4412 -2.2363 0.9753
3.9469 4.1388 -2.1917 0.9758
3.4608 4.3463 -2.1291 0.9765
2.7058 5.0240 -2.1868 0.9759
1.2934 5.6158 -2.2084 0.9756
0.2786 5.8093 -2.2288 0.9754
-0.2385 5.7726 -2.2141 0.9756
-1.2393 5.5489 -2.1788 0.9759
-1.7129 5.3665 -2.1587 0.9762
-2.5847 4.8763 -2.1150 0.9766
-2.9759 4.5758 -2.0918 0.9769
-3.3335 4.2437 -2.0680 0.9771
-3.9397 3.5011 -2.0198 0.9777
-4.5593 2.2525 -1.9488 0.9785
-5.1885 0.0663 -1.9885 0.9780
-5.1251 -0.3926 -1.9698 0.9782
-4.8905 -1.2743 -1.9367 0.9786
-4.5230 -2.0926 -1.9098 0.9789
-3.1139 -3.7624 -1.8716 0.9793
-1.6038 -4.6145 -1.8721 0.9793
-1.1891 -4.7504 -1.8766 0.9792
-0.3295 -4.9229 -1.8908 0.9791
0.1110 -4.9577 -1.9004 0.9790
0.5556 -4.9574 -1.9117 0.9789
1.0018 -4.9212 -1.9246 0.9787
1.8888 -4.7392 -1.9551 0.9784
3.5624 -3.9318 -2.0332 0.9775
3.9418 -3.6387 -2.0558 0.9773
4.2991 -3.3106 -2.0794 0.9770
4.6278 -2.9467 -2.1025 0.9768
4.5781 -2.3705 -1.9757 0.9782
2.3177 -0.9488 -0.9597 0.9893
5.2258 -1.1145 -2.0477 0.9774
5.5190 0.3179 -2.1185 0.9766
5.3949 1.8190 -2.1818 0.9759
5.2550 2.3116 -2.2000 0.9757
4.8280 3.2526 -2.2309 0.9754
4.5436 3.6898 -2.2430 0.9752
3.6635 4.2599 -2.1531 0.9762
3.1917 4.4607 -2.1020 0.9768
1.3785 3.7369 -1.5264 0.9831
1.4962 5.5313 -2.1959 0.9758
1.0133 5.7321 -2.2307 0.9754
0.2327 2.7068 -1.0411 0.9884
-0.5325 5.7283 -2.2047 0.9757
-1.0324 5.6124 -2.1869 0.9759
-1.5148 5.4492 -2.1674 0.9761
-1.9751 5.2417 -2.1466 0.9763
-2.4093 4.9932 -2.1246 0.9765
-2.8140 4.7073 -2.1017 0.9768
-3.5233 4.0397 -2.0542 0.9773
-3.8238 3.6661 -2.0300 0.9776
-5.1823 1.2081 -2.0392 0.9775
-5.1566 -0.1993 -1.9776 0.9781
-5.0720 -0.6520 -1.9597 0.9783
-4.9518 -1.0921 -1.9432 0.9785
-4.7977 -1.5172 -1.9283 0.9787
-4.3944 -2.3142 -1.9033 0.9789
-4.1487 -2.6823 -1.8932 0.9791
-3.8759 -3.0278 -1.8848 0.9792
-3.5780 -3.3492 -1.8781 0.9792
-3.2567 -3.6450 -1.8732 0.9793
-2.9140 -3.9140 -1.8699 0.9793
-2.1716 -4.3662 -1.8687 0.9793
-1.7759 -4.5472 -1.8707 0.9793
-1.3664 -4.6968 -1.8745 0.9793
-0.5145 -4.8976 -1.8872 0.9791
0.3667 -4.9619 -1.9067 0.9789
1.2586 -4.8838 -1.9327 0.9786
1.7022 -4.7901 -1.9481 0.9785
2.5710 -4.4917 -1.9833 0.9781
3.7835 -3.7673 -2.0461 0.9774
4.1506 -3.4539 -2.0693 0.9771
4.4935 -3.1061 -2.0933 0.9769
4.7951 -2.7176 -2.1122 0.9767
4.7263 -2.1469 -1.9893 0.9780
5.1540 -1.3048 -2.0374 0.9775
5.3119 -0.8503 -2.0615 0.9772
5.4286 -0.3779 -2.0854 0.9770
5.5085 1.1060 -2.1531 0.9762
5.3204 2.1040 -2.1925 0.9758
5.1519 2.5899 -2.2097 0.9756
4.6697 3.5078 -2.2382 0.9753
4.3595 3.9287 -2.2489 0.9752
2.6342 5.0542 -2.1842 0.9759
1.2199 5.6463 -2.2137 0.9756
-0.3165 5.7626 -2.2116 0.9756
-1.3127 5.5240 -2.1759 0.9760
-1.7829 5.3349 -2.1556 0.9762
-3.0325 4.5273 -2.0882 0.9769
-3.3847 4.1907 -2.0644 0.9772
-3.7010 3.8273 -2.0403 0.9775
-3.9796 3.4410 -2.0161 0.9777
-2.5334 1.8230 -1.1961 0.9867
-4.5813 2.1865 -1.9453 0.9785
-5.2049 0.9344 -2.0265 0.9776
-5.2127 0.4621 -2.0054 0.9778
-5.1123 -0.4615 -1.9671 0.9783
-4.8671 -1.3389 -1.9344 0.9786
-3.9947 -2.8842 -1.8881 0.9791
-2.7075 -4.0562 -1.8689 0.9793
-1.5415 -4.6373 -1.8727 0.9793
-0.2629 -4.9304 -1.8921 0.9791
0.1784 -4.9600 -1.9020 0.9790
1.0696 -4.9125 -1.9267 0.9787
1.5146 -4.8343 -1.9414 0.9785
2.3897 -4.5673 -1.9754 0.9782
2.8141 -4.3782 -1.9945 0.9780
3.2258 -4.1521 -2.0149 0.9777
3.6214 -3.8895 -2.0366 0.9775
3.9977 -3.5911 -2.0593 0.9772
4.6730 -2.8872 -2.1050 0.9767
4.6182 -2.3124 -1.9792 0.9781
5.0753 -1.4912 -2.0272 0.9776
5.2498 -1.0454 -2.0513 0.9773
5.4762 -0.0992 -2.0989 0.9768
5.5231 0.3934 -2.1219 0.9766
5.0326 2.8629 -2.2188 0.9755
2.8341 4.9698 -2.1925 0.9758
1.4237 5.5615 -2.2000 0.9757
0.4759 2.9232 -1.1350 0.9874
0.1974 2.7300 -1.0489 0.9883
-0.0987 5.7877 -2.2183 0.9755
-0.6095 5.7138 -2.2021 0.9757
-1.1070 5.5906 -2.1840 0.9759
-1.5863 5.4204 -2.1643 0.9761
-2.0429 5.2064 -2.1433 0.9763
-2.4729 4.9520 -2.1211 0.9766
-3.2397 4.3369 -2.0745 0.9771
-3.5714 3.9844 -2.0505 0.9773
-3.8661 3.6073 -2.0263 0.9776
4.2474 -2.2729 -1.9716 0.9794
2.3082 -0.9817 -1.0266 0.9892
4.6871 -1.5165 -2.0162 0.9789
5.0848 -0.2302 -2.0832 0.9782
5.1126 1.1562 -2.1453 0.9776
5.0323 1.6210 -2.1638 0.9774
4.9063 2.0793 -2.1809 0.9772
4.7348 2.5259 -2.1963 0.9771
3.9591 3.7459 -2.2307 0.9767
2.8445 4.6877 -2.2441 0.9766
1.4973 5.2515 -2.2350 0.9767
0.2724 2.7337 -1.1244 0.9882
-0.4229 5.3342 -2.1900 0.9771
-3.5319 3.4794 -2.0291 0.9788
-3.7854 3.1160 -2.0066 0.9790
-2.5480 1.7412 -1.2631 0.9868
-4.7791 1.6467 -2.0688 0.9784
-1.9945 0.3083 -0.8260 0.9913
-1.9491 0.1252 -0.7993 0.9916
-1.9221 -0.0482 -0.7869 0.9917
-1.9556 -0.2245 -0.8056 0.9915
-4.6799 -0.9657 -1.9557 0.9796
-3.9476 -2.4770 -1.9074 0.9801
-3.6952 -2.8067 -1.8992 0.9801
-2.7993 -3.6553 -1.8843 0.9803
-2.1042 -4.0905 -1.8826 0.9803
-1.7329 -4.2655 -1.8843 0.9803
-1.3483 -4.4106 -1.8876 0.9803
0.2819 -4.6758 -1.9172 0.9800
0.7015 -4.6596 -1.9285 0.9798
1.1213 -4.6091 -1.9414 0.9797
1.5388 -4.5240 -1.9557 0.9796
1.9514 -4.4041 -1.9715 0.9794
3.4963 -3.5772 -2.0472 0.9786
3.8413 -3.2858 -2.0689 0.9784
4.1636 -2.9623 -2.0914 0.9782
4.3867 -2.0649 -1.9843 0.9793
4.7894 -1.2819 -2.0292 0.9788
5.0498 -0.4205 -2.0739 0.9783
5.1486 0.4925 -2.1168 0.9779
5.0719 1.4245 -2.1561 0.9775
4.9653 1.8861 -2.1739 0.9773
4.8130 2.3383 -2.1900 0.9771
4.6156 2.7759 -2.2044 0.9770
4.3744 3.1940 -2.2168 0.9769
4.0912 3.5876 -2.2270 0.9768
3.7687 3.9519 -2.2350 0.9767
2.1575 5.0356 -2.2421 0.9766
1.2131 3.7157 -1.5997 0.9832
0.3945 2.8584 -1.1810 0.9876
0.2586 5.3933 -2.2099 0.9769
-1.1524 5.1598 -2.1638 0.9774
-2.0136 4.7870 -2.1255 0.9778
-3.1108 3.9603 -2.0611 0.9785
-3.4138 3.6275 -2.0387 0.9787
-4.2712 2.1101 -1.9498 0.9796
-4.8820 0.9450 -2.0352 0.9787
-1.9576 0.2003 -0.8054 0.9915
-1.9546 -0.1497 -0.8023 0.9916
-2.0964 -0.3505 -0.8699 0.9909
-4.6041 -1.1996 -1.9473 0.9796
-4.2616 -1.9716 -1.9218 0.9799
-3.5387 -2.9866 -1.8952 0.9802
-3.2488 -3.2802 -1.8895 0.9802
-2.9374 -3.5491 -1.8855 0.9803
-2.6062 -3.7919 -1.8831 0.9803
-2.2571 -4.0075 -1.8824 0.9803
-0.7201 -4.5767 -1.8962 0.9802
0.1046 -4.6725 -1.9128 0.9800
0.9435 -4.6347 -1.9358 0.9798
1.3622 -4.5643 -1.9495 0.9796
1.7772 -4.4592 -1.9647 0.9795
2.1857 -4.3192 -1.9812 0.9793
2.9720 -3.9347 -2.0181 0.9789
3.6977 -3.4134 -2.0596 0.9785
4.0300 -3.1033 -2.0817 0.9783
4.3328 -2.7589 -2.1023 0.9780
4.2851 -2.2188 -1.9749 0.9794
2.3176 -0.9488 -1.0249 0.9892
4.7152 -1.4552 -2.0196 0.9789
4.8799 -1.0407 -2.0422 0.9787
5.0075 -0.6084 -2.0645 0.9784
5.0956 -0.1615 -2.0865 0.9782
5.1450 0.7605 -2.1286 0.9778
5.1033 1.2271 -2.1482 0.9776
5.0161 1.6913 -2.1665 0.9774
4.4819 3.0195 -2.2118 0.9769
3.1508 4.4035 -2.2161 0.9769
2.7808 4.7260 -2.2442 0.9766
2.3476 4.9529 -2.2433 0.9766
1.3812 3.7443 -1.6334 0.9829
1.4253 5.2689 -2.2339 0.9767
-1.4091 5.0690 -2.1533 0.9775
-2.2443 4.6511 -2.1136 0.9779
-2.9723 4.0937 -2.0705 0.9784
-3.5727 3.4254 -2.0257 0.9788
-3.8208 3.0591 -2.0032 0.9791
-4.2081 2.2808 -1.9590 0.9795
-4.7933 1.5791 -2.0655 0.9784
-4.8637 1.1338 -2.0440 0.9786
-1.9465 0.2739 -0.8045 0.9915
-1.9331 -0.0747 -0.7917 0.9917
-4.6609 -1.0279 -1.9534 0.9796
-4.5179 -1.4287 -1.9393 0.9797
-3.6547 -2.8550 -1.8981 0.9802
-3.0719 -3.4382 -1.8870 0.9803
-2.4072 -3.9195 -1.8825 0.9803
-2.0486 -4.1190 -1.8828 0.9803
-1.2888 -4.4300 -1.8883 0.9803
-0.8914 -4.5398 -1.8935 0.9802
0.7654 -4.6541 -1.9304 0.9798
1.6019 -4.5080 -1.9580 0.9795
2.4170 -4.2227 -1.9913 0.9792
2.8096 -4.0277 -2.0099 0.9790
3.1883 -3.7983 -2.0296 0.9788
3.8919 -3.2387 -2.0722 0.9784
4.2104 -2.9104 -2.0948 0.9781
4.4881 -2.5436 -2.1114 0.9780
4.4218 -2.0086 -1.9877 0.9792
4.6348 -1.6247 -2.0101 0.9790
5.0632 -0.3525 -2.0773 0.9783
5.1491 0.5631 -2.1200 0.9779
5.0587 1.4951 -2.1589 0.9775
4.7859 2.4059 -2.1923 0.9771
4.5817 2.8409 -2.2064 0.9770
4.3340 3.2556 -2.2185 0.9768
4.0446 3.6450 -2.2284 0.9767
3.7164 4.0045 -2.2360 0.9767
2.9570 4.6167 -2.2439 0.9766
2.5340 4.8621 -2.2440 0.9766
2.0885 5.0632 -2.2416 0.9766
1.6255 5.2178 -2.2367 0.9767
1.1504 5.3244 -2.2294 0.9767
0.3530 2.8427 -1.1724 0.9877
-0.2940 5.3528 -2.1941 0.9771
-0.7643 5.2674 -2.1784 0.9773
-1.2208 5.1372 -2.1611 0.9774
-1.6591 4.9645 -2.1423 0.9776
-2.8281 4.2221 -2.0798 0.9783
-3.7200 3.2166 -2.0127 0.9790
-4.1382 2.4498 -1.9682 0.9794
-4.8386 1.3228 -2.0530 0.9786
-1.8986 -0.0015 -0.7771 0.9918
-4.2307 -2.0275 -1.9201 0.9799
-3.7663 -2.7193 -1.9012 0.9801
-3.4961 -3.0328 -1.8942 0.9802
-3.2028 -3.3227 -1.8888 0.9803
-2.5542 -3.8265 -1.8829 0.9803
-1.8352 -4.2208 -1.8837 0.9803
-1.4540 -4.3742 -1.8866 0.9803
-1.0611 -4.4971 -1.8911 0.9802
0.5873 -4.6673 -1.9253 0.9799
1.0073 -4.6262 -1.9378 0.9797
1.4257 -4.5506 -1.9517 0.9796
1.8398 -4.4402 -1.9671 0.9794
3.0297 -3.8998 -2.0211 0.9789
3.7497 -3.3683 -2.0629 0.9785
4.0784 -3.0534 -2.0852 0.9782
4.3748 -2.7029 -2.1047 0.9780
2.3448 -0.9229 -1.0313 0.9892
4.7426 -1.3934 -2.0231 0.9789
4.9018 -0.9760 -2.0456 0.9786
5.0235 -0.5413 -2.0679 0.9784
5.1415 0.8315 -2.1317 0.9777
5.0930 1.2980 -2.1511 0.9775
4.9988 1.7614 -2.1692 0.9774
4.8589 2.2166 -2.1858 0.9772
4.4442 3.0826 -2.2136 0.9769
3.8601 3.8560 -2.2331 0.9767
3.4976 4.1803 -2.2307 0.9767
3.0913 4.4467 -2.2165 0.9769
1.3530 5.2851 -2.2328 0.9767
0.8733 5.3637 -2.2241 0.9768
0.1958 2.7091 -1.1116 0.9883
-0.0916 5.3750 -2.2002 0.9770
-1.0292 5.1977 -2.1686 0.9774
-2.3038 4.6133 -2.1104 0.9780
-2.6783 4.3453 -2.0891 0.9782
-3.3348 3.7203 -2.0448 0.9786
3.9878 -2.1340 -1.9712 0.9805
2.3061 -0.9808 -1.0922 0.9891
4.3946 -1.4218 -2.0130 0.9800
4.5510 -1.0353 -2.0341 0.9798
4.6727 -0.6322 -2.0550 0.9796
4.8039 0.2114 -2.0957 0.9792
4.8099 0.6444 -2.1150 0.9790
4.6968 1.5130 -2.1506 0.9787
4.5768 1.9396 -2.1664 0.9785
4.4147 2.3551 -2.1807 0.9784
4.2114 2.7549 -2.1932 0.9783
3.9684 3.1343 -2.2039 0.9782
3.0242 4.1076 -2.2230 0.9780
1.8289 4.7580 -2.2215 0.9780
0.2825 2.8355 -1.2419 0.9876
0.0507 5.0204 -2.1881 0.9783
-0.8303 4.8857 -2.1598 0.9786
-1.2527 4.7558 -2.1434 0.9788
-2.4013 4.1436 -2.0872 0.9793
-3.0376 3.5797 -2.0461 0.9797
-3.5502 2.9224 -2.0040 0.9801
-2.5031 1.7106 -1.3213 0.9869
-4.0672 1.8214 -1.9422 0.9807
-1.5914 0.5483 -0.7336 0.9927
-1.5745 -0.4745 -0.7167 0.9929
-3.9424 -2.0083 -1.9282 0.9809
-3.7297 -2.3402 -1.9189 0.9810
-3.4921 -2.6524 -1.9111 0.9810
-3.2312 -2.9433 -1.9049 0.9811
-2.6465 -3.4558 -1.8970 0.9812
-2.3261 -3.6748 -1.8954 0.9812
-1.9895 -3.8674 -1.8954 0.9812
-1.6383 -4.0327 -1.8970 0.9812
-1.2746 -4.1695 -1.9002 0.9812
-0.9003 -4.2771 -1.9049 0.9811
0.2662 -4.4165 -1.9283 0.9809
0.6623 -4.3996 -1.9390 0.9808
1.4518 -4.2683 -1.9649 0.9805
1.8402 -4.1533 -1.9798 0.9804
2.5914 -3.8245 -2.0134 0.9800
2.9487 -3.6112 -2.0319 0.9799
3.2900 -3.3661 -2.0514 0.9797
4.6255 -0.8049 -2.0461 0.9797
4.7262 -0.3935 -2.0669 0.9795
4.8124 0.4603 -2.1069 0.9791
4.7946 0.8952 -2.1257 0.9789
4.4885 2.1806 -2.1748 0.9785
4.3026 2.5876 -2.1881 0.9783
3.8111 3.3419 -2.2091 0.9781
3.1752 3.9877 -2.2215 0.9780
2.8109 4.2602 -2.2244 0.9780
2.4206 4.4947 -2.2249 0.9780
1.1393 4.9470 -2.2124 0.9781
0.4209 3.0500 -1.3418 0.9867
0.2411 5.0266 -2.1932 0.9783
-0.6469 4.9285 -2.1664 0.9785
-1.0756 4.8158 -2.1505 0.9787
-1.4884 4.6632 -2.1333 0.9789
-2.9126 3.7080 -2.0549 0.9796
-3.8604 2.3566 -1.9711 0.9805
-1.5678 0.4515 -0.7110 0.9929
-1.5015 0.2906 -0.6665 0.9933
-1.5259 0.1562 -0.6685 0.9933
-1.5061 -0.2518 -0.6655 0.9934
-1.5952 -0.5717 -0.7385 0.9926
-4.0247 -1.8620 -1.9326 0.9808
-3.8230 -2.2018 -1.9227 0.9809
-3.0711 -3.1007 -1.9020 0.9811
-2.4641 -3.5851 -1.8959 0.9812
-1.7888 -3.9660 -1.8961 0.9812
-1.0601 -4.2351 -1.9027 0.9811
-0.2935 -4.3853 -1.9155 0.9810
0.8906 -4.3752 -1.9459 0.9807
1.6764 -4.2061 -1.9733 0.9804
2.7990 -3.7056 -2.0239 0.9799
2.3175 -0.9487 -1.0914 0.9891
4.4205 -1.3642 -2.0162 0.9800
4.6880 -0.5696 -2.0582 0.9796
4.8074 0.2769 -2.0986 0.9792
4.8072 0.7106 -2.1178 0.9790
4.7654 1.1459 -2.1360 0.9788
4.6813 1.5784 -2.1531 0.9787
3.6418 3.5405 -2.2136 0.9781
3.3209 3.8614 -2.2196 0.9780
2.9687 4.1491 -2.2235 0.9780
2.1858 4.6115 -2.2241 0.9780
1.3274 4.9070 -2.2154 0.9781
0.2331 2.7116 -1.1861 0.9882
-0.0174 5.0163 -2.1862 0.9783
-1.7175 4.5581 -2.1228 0.9790
-2.7822 3.8318 -2.0637 0.9796
-2.5240 1.6750 -1.3202 0.9869
-3.9525 2.1423 -1.9593 0.9806
-4.0852 1.7633 -1.9392 0.9808
-1.5199 -0.1954 -0.6678 0.9933
-3.9117 -2.0600 -1.9267 0.9809
-3.4539 -2.6981 -1.9101 0.9811
-3.1896 -2.9856 -1.9041 0.9811
-2.5989 -3.4908 -1.8967 0.9812
-1.9369 -3.8944 -1.8956 0.9812
-0.8425 -4.2909 -1.9057 0.9811
0.3264 -4.4160 -1.9298 0.9809
0.7227 -4.3942 -1.9408 0.9808
1.1184 -4.3400 -1.9532 0.9806
1.5113 -4.2529 -1.9670 0.9805
1.8987 -4.1329 -1.9822 0.9804
2.2781 -3.9799 -1.9986 0.9802
2.6467 -3.7941 -2.0161 0.9800
3.3403 -3.3261 -2.0544 0.9796
3.9560 -2.7346 -2.0959 0.9792
4.1496 -1.8849 -1.9863 0.9803
4.3464 -1.5236 -2.0073 0.9801
4.5118 -1.1422 -2.0283 0.9799
4.6431 -0.7432 -2.0493 0.9797
4.7883 0.9614 -2.1285 0.9789
4.4629 2.2435 -2.1770 0.9784
4.2707 2.6480 -2.1900 0.9783
3.7675 3.3952 -2.2103 0.9781
1.0715 4.9594 -2.2113 0.9781
0.1727 5.0253 -2.1914 0.9783
-1.1395 4.7951 -2.1480 0.9787
-1.9395 4.4411 -2.1120 0.9791
-2.6464 3.9509 -2.0724 0.9795
-3.2392 3.3498 -2.0308 0.9799
-2.4736 1.7799 -1.3281 0.9868
-3.8858 2.3004 -1.9680 0.9805
-4.0332 1.9249 -1.9476 0.9807
-1.5982 0.5944 -0.7431 0.9926
-1.5006 0.2694 -0.6644 0.9934
-1.5279 0.1354 -0.6685 0.9933
-1.5277 -0.1379 -0.6685 0.9933
-1.4998 -0.2717 -0.6643 0.9934
-1.5986 -0.5975 -0.7437 0.9926
-3.7900 -2.2519 -1.9213 0.9809
-2.4149 -3.6178 -1.8957 0.9812
-1.7351 -3.9905 -1.8964 0.9812
-1.0030 -4.2508 -1.9034 0.9811
-0.2341 -4.3917 -1.9167 0.9810
0.1588 -4.4155 -1.9256 0.9809
0.9509 -4.3670 -1.9478 0.9807
1.3452 -4.2939 -1.9610 0.9806
2.4919 -3.8769 -2.0085 0.9801
3.8335 -2.8701 -2.0871 0.9793
4.1078 -2.5379 -2.1044 0.9792
4.0572 -2.0314 -1.9775 0.9804
2.3463 -0.9235 -1.0989 0.9891
4.4457 -1.3062 -2.0194 0.9800
4.5917 -0.9143 -2.0405 0.9798
4.7025 -0.5067 -2.0613 0.9796
4.7759 -0.0865 -2.0818 0.9794
4.8100 0.3426 -2.1016 0.9792
4.7553 1.2120 -2.1387 0.9788
4.1416 2.8727 -2.1967 0.9782
3.8868 3.2450 -2.2067 0.9781
3.2693 3.9074 -2.2204 0.9780
2.5290 4.4348 -2.2250 0.9780
2.1227 4.6400 -2.2238 0.9780
1.2601 4.9223 -2.2144 0.9781
0.1952 2.7005 -1.1800 0.9883
-0.0854 5.0111 -2.1842 0.9784
-2.5055 4.0650 -2.0811 0.9794
-3.1239 3.4851 -2.0397 0.9798
3.7539 -2.0088 -1.9708 0.9814
4.1317 -1.3368 -2.0101 0.9810
4.3876 -0.5936 -2.0495 0.9807
4.5085 0.6040 -2.1055 0.9801
4.4728 1.0115 -2.1227 0.9800
4.3979 1.4167 -2.1387 0.9798
4.2835 1.8153 -2.1535 0.9797
3.9383 2.5763 -2.1784 0.9795
3.4466 3.2609 -2.1962 0.9793
3.1508 3.5646 -2.2022 0.9792
2.8256 3.8379 -2.2061 0.9792
2.4743 4.0776 -2.2078 0.9792
2.1007 4.2809 -2.2073 0.9792
1.4546 3.7843 -1.8766 0.9823
1.3031 4.5705 -2.1999 0.9793
0.2839 2.8489 -1.3252 0.9875
-0.3691 4.6545 -2.1613 0.9796
-1.5533 4.2982 -2.1155 0.9801
-2.2526 3.8871 -2.0796 0.9804
-3.3387 2.7483 -2.0017 0.9811
-2.4950 1.7050 -1.3988 0.9868
-3.6997 2.0707 -1.9625 0.9815
-1.3243 0.2047 -0.6203 0.9941
-1.3061 -0.2695 -0.6173 0.9941
-1.3261 -0.3996 -0.6411 0.9939
-3.5309 -2.2155 -1.9295 0.9818
-1.8847 -3.6637 -1.9071 0.9820
-1.5519 -3.8201 -1.9086 0.9820
-1.2073 -3.9494 -1.9116 0.9820
-0.8526 -4.0507 -1.9161 0.9819
-0.4898 -4.1234 -1.9221 0.9819
-0.1209 -4.1667 -1.9295 0.9818
0.6267 -4.1628 -1.9486 0.9816
1.0010 -4.1148 -1.9602 0.9815
1.3727 -4.0357 -1.9731 0.9814
3.1032 -3.1750 -2.0551 0.9806
3.4054 -2.9129 -2.0743 0.9804
3.8741 -1.8236 -1.9820 0.9813
4.0612 -1.4858 -2.0017 0.9811
4.2187 -1.1291 -2.0215 0.9809
4.4364 -0.3694 -2.0606 0.9806
4.4927 0.0276 -2.0796 0.9804
4.5118 0.4316 -2.0980 0.9802
4.0242 2.4202 -2.1737 0.9795
3.5623 3.1237 -2.1931 0.9793
3.2800 3.4394 -2.1999 0.9793
2.6262 3.9803 -2.2073 0.9792
2.2616 4.1993 -2.2078 0.9792
1.4766 4.5226 -2.2022 0.9792
0.4226 3.0624 -1.4310 0.9865
0.2254 4.7007 -2.1784 0.9795
-0.1933 4.6769 -2.1667 0.9796
-0.6055 4.6126 -2.1534 0.9797
-1.7637 4.1928 -2.1055 0.9802
-3.2459 2.8846 -2.0101 0.9810
-2.4488 1.8130 -1.4104 0.9867
