ply
format ascii 1.0
element vertex 1593
property float32 x
property float32 y
property float32 z
property float32 I
end_header
-11.3701 1.2724 -1.8848 0.9547
-11.1902 0.2469 -1.8439 0.9556
-10.9416 -0.7378 -1.8066 0.9565
-10.2584 -2.5769 -1.7425 0.9580
-9.8331 -3.4286 -1.7155 0.9587
-8.8346 -4.9914 -1.6716 0.9597
-8.2684 -5.7013 -1.6546 0.9601
-7.6615 -6.3627 -1.6407 0.9604
-7.0166 -6.9752 -1.6299 0.9607
-6.3359 -7.5381 -1.6222 0.9609
-5.6218 -8.0507 -1.6176 0.9610
-4.8760 -8.5124 -1.6161 0.9610
-0.7350 -10.0164 -1.6545 0.9601
0.1638 -10.1456 -1.6716 0.9597
3.9284 -10.0183 -1.7727 0.9573
5.8738 -9.5274 -1.8438 0.9556
7.8202 -8.7164 -1.9291 0.9536
8.7803 -8.1822 -1.9772 0.9525
12.8541 -2.7912 -2.1669 0.9481
13.4374 -1.6807 -2.2309 0.9466
13.9300 -0.4884 -2.2962 0.9451
14.3179 0.7788 -2.3622 0.9435
8.5247 2.8487 -1.4807 0.9642
7.3095 3.1934 -1.3141 0.9682
6.3537 3.4817 -1.1936 0.9711
5.0531 4.0867 -1.0706 0.9740
4.4911 4.3501 -1.0300 0.9750
3.8610 4.4742 -0.9736 0.9763
3.4715 4.8364 -0.9807 0.9762
2.8917 4.8996 -0.9372 0.9772
2.4288 5.1088 -0.9319 0.9773
1.9545 5.2822 -0.9279 0.9774
1.0301 5.8048 -0.9712 0.9764
0.5023 5.8110 -0.9609 0.9766
-2.5568 6.7782 -1.1934 0.9711
-7.7804 12.9948 -2.4951 0.9404
-8.6570 11.9014 -2.4245 0.9421
-9.4075 10.7637 -2.3550 0.9437
-10.5419 8.4165 -2.2223 0.9468
-11.2203 6.0566 -2.1005 0.9496
-11.4918 3.7598 -1.9919 0.9522
-11.4086 1.5777 -1.8973 0.9544
-11.2498 0.5408 -1.8554 0.9554
-11.0207 -0.4560 -1.8171 0.9563
-10.7264 -1.4105 -1.7823 0.9571
-10.3720 -2.3208 -1.7509 0.9578
-9.9620 -3.1859 -1.7230 0.9585
-9.5005 -4.0046 -1.6985 0.9591
-8.9911 -4.7761 -1.6772 0.9596
-7.8419 -6.1756 -1.6444 0.9603
-7.2078 -6.8023 -1.6327 0.9606
-6.5373 -7.3797 -1.6241 0.9608
-5.8326 -7.9070 -1.6186 0.9610
-5.0958 -8.3836 -1.6162 0.9610
-0.9922 -9.9675 -1.6502 0.9602
0.8132 -10.2000 -1.6857 0.9594
1.7436 -10.2220 -1.7083 0.9588
2.6894 -10.1779 -1.7342 0.9582
3.6479 -10.0646 -1.7636 0.9575
4.6161 -9.8790 -1.7964 0.9568
5.5902 -9.6179 -1.8326 0.9559
6.5661 -9.2778 -1.8725 0.9550
8.5028 -8.3466 -1.9628 0.9528
12.6696 -3.0977 -2.1487 0.9485
13.2766 -2.0121 -2.2122 0.9470
14.2168 0.4034 -2.3430 0.9440
6.5955 3.3945 -1.2220 0.9704
5.8128 3.6825 -1.1336 0.9725
5.1215 -8.5244 -1.8692 0.9603
5.9765 -8.1900 -1.9057 0.9596
6.8224 -7.7820 -1.9452 0.9588
7.6536 -7.2980 -1.9878 0.9579
8.4637 -6.7362 -2.0332 0.9569
9.9910 -5.3735 -2.1323 0.9549
9.9218 -4.2425 -2.0282 0.9570
10.5212 -3.4246 -2.0797 0.9560
11.5074 -1.5735 -2.1831 0.9538
11.9162 -0.5546 -2.2422 0.9526
12.2120 0.5239 -2.2975 0.9515
10.0686 2.2690 -1.9400 0.9589
7.5682 3.2037 -1.5447 0.9671
5.7416 3.7553 -1.2895 0.9725
4.4251 4.1889 -1.1453 0.9755
3.8874 4.4018 -1.1038 0.9764
2.9288 4.8350 -1.0625 0.9773
1.0421 5.5051 -1.0531 0.9775
0.2891 2.9495 -0.5571 0.9880
-1.4945 5.6212 -1.0933 0.9766
-6.8294 9.6187 -2.2173 0.9531
-7.4714 8.7489 -2.1625 0.9543
-9.5172 6.4530 -2.1613 0.9543
-9.8122 5.4428 -2.1090 0.9554
-10.0171 4.4380 -2.0593 0.9564
-10.1366 3.4456 -2.0123 0.9574
-10.1755 2.4715 -1.9682 0.9583
-10.1389 1.5208 -1.9270 0.9591
-9.3305 -1.9757 -1.7926 0.9619
-8.5893 -3.5051 -1.7437 0.9629
-8.1477 -4.2090 -1.7237 0.9634
-7.1381 -5.4899 -1.6926 0.9640
-6.5757 -6.0648 -1.6814 0.9642
-5.9783 -6.5948 -1.6731 0.9644
-5.3482 -7.0789 -1.6676 0.9645
-4.6876 -7.5163 -1.6650 0.9646
-3.9984 -7.9058 -1.6652 0.9646
-3.2827 -8.2464 -1.6683 0.9645
-2.5425 -8.5367 -1.6742 0.9644
-1.7795 -8.7754 -1.6830 0.9642
-0.9959 -8.9609 -1.6947 0.9640
-0.1937 -9.0915 -1.7092 0.9637
0.6250 -9.1653 -1.7267 0.9633
2.3020 -9.1346 -1.7706 0.9624
3.1547 -9.0255 -1.7971 0.9618
4.0126 -8.8509 -1.8266 0.9612
4.8721 -8.6081 -1.8592 0.9605
6.5778 -7.9083 -1.9334 0.9590
7.4139 -7.4466 -1.9751 0.9581
8.2309 -6.9076 -2.0197 0.9572
9.0217 -6.2896 -2.0671 0.9562
10.4778 -4.8058 -2.1667 0.9542
10.3528 -3.6697 -2.0646 0.9563
11.4004 -1.8617 -2.1712 0.9541
11.8126 -0.8577 -2.2262 0.9529
12.1361 0.2052 -2.2814 0.9518
6.8676 3.4355 -1.4434 0.9692
5.9728 3.6886 -1.3195 0.9718
5.2203 3.9081 -1.2257 0.9738
2.5956 4.9707 -1.0540 0.9774
2.1275 5.1486 -1.0471 0.9776
-0.3269 5.9265 -1.1156 0.9761
-5.0004 11.4218 -2.3436 0.9505
-5.8594 10.6736 -2.2886 0.9517
-6.6248 9.8637 -2.2333 0.9528
-7.2947 9.0055 -2.1783 0.9539
-8.9962 7.7512 -2.2320 0.9528
-9.4139 6.7463 -2.1769 0.9540
-10.1104 3.7323 -2.0257 0.9571
-10.1722 2.7524 -1.9807 0.9580
-10.0696 0.8628 -1.8996 0.9597
-9.6973 -0.9074 -1.8307 0.9611
-9.4211 -1.7406 -1.8008 0.9618
-8.2806 -4.0088 -1.7292 0.9632
-7.8081 -4.6830 -1.7113 0.9636
-7.2946 -5.3145 -1.6964 0.9639
-4.8826 -7.3941 -1.6655 0.9646
-2.7600 -8.4576 -1.6722 0.9644
-2.0035 -8.7114 -1.6802 0.9643
0.3856 -9.1498 -1.7213 0.9634
3.7630 -8.9085 -1.8177 0.9614
4.6224 -8.6858 -1.8494 0.9607
5.4803 -8.3932 -1.8841 0.9600
6.3322 -8.0282 -1.9219 0.9592
10.2904 -5.0474 -2.1543 0.9544
12.0519 -0.1093 -2.2654 0.9521
12.0756 0.9720 -2.2771 0.9519
11.0647 1.8960 -2.1101 0.9553
8.1846 2.9736 -1.6368 0.9652
6.2158 3.6191 -1.3519 0.9712
4.7651 4.0630 -1.1770 0.9748
2.7319 4.9161 -1.0571 0.9774
2.2635 5.0985 -1.0485 0.9776
1.7945 5.2662 -1.0457 0.9776
1.3210 5.4208 -1.0487 0.9775
0.8388 5.5636 -1.0576 0.9774
-0.1710 5.8702 -1.1038 0.9764
-1.3376 6.3408 -1.2181 0.9740
-1.7854 5.8275 -1.1456 0.9755
-4.7338 11.6256 -2.3594 0.9502
-6.4122 10.1046 -2.2494 0.9525
-7.1099 9.2591 -2.1943 0.9536
-8.3101 9.0239 -2.3058 0.9513
-9.3025 7.0393 -2.1927 0.9536
-10.0773 4.0205 -2.0393 0.9568
-10.1624 3.0351 -1.9935 0.9578
-9.7667 -0.6586 -1.8399 0.9609
-9.5071 -1.5023 -1.8091 0.9616
-9.1919 -2.3090 -1.7814 0.9622
-8.4098 -3.8050 -1.7350 0.9631
-7.9497 -4.4915 -1.7162 0.9635
-6.3296 -6.2923 -1.6776 0.9643
-4.4023 -7.6853 -1.6647 0.9646
-2.9756 -8.3742 -1.6704 0.9645
-2.2256 -8.6430 -1.6775 0.9643
-1.4537 -8.8596 -1.6875 0.9641
-0.6620 -9.0224 -1.7004 0.9638
0.1474 -9.1294 -1.7162 0.9635
0.9723 -9.1789 -1.7349 0.9631
3.5136 -8.9605 -1.8091 0.9616
4.3726 -8.7576 -1.8399 0.9609
6.9300 -7.7242 -1.9505 0.9586
7.7588 -7.2303 -1.9934 0.9578
8.5657 -6.6584 -2.0392 0.9568
9.3433 -6.0069 -2.0878 0.9558
10.0836 -5.2751 -2.1390 0.9547
10.5939 -3.3144 -2.0864 0.9558
11.5863 1.6769 -2.2005 0.9535
8.5215 2.8477 -1.6888 0.9641
7.4413 3.2510 -1.5263 0.9675
5.6431 3.7839 -1.2771 0.9727
3.8293 4.4375 -1.1017 0.9764
3.4673 4.8306 -1.1176 0.9761
2.3995 5.0471 -1.0504 0.9775
1.9311 5.2188 -1.0459 0.9776
1.4593 5.3771 -1.0472 0.9776
0.2504 2.8969 -0.5465 0.9882
-0.5578 6.0099 -1.1345 0.9757
-1.1511 6.2572 -1.1958 0.9744
-1.5646 5.6245 -1.0973 0.9765
-4.4597 11.8227 -2.3751 0.9499
-6.1916 10.3411 -2.2655 0.9521
-6.9171 9.5094 -2.2102 0.9533
-9.1830 7.3316 -2.2087 0.9533
-9.5602 6.3234 -2.1544 0.9544
-10.1460 3.3195 -2.0065 0.9575
-10.1749 2.3482 -1.9628 0.9584
-9.8311 -0.4068 -1.8494 0.9607
-9.5885 -1.2608 -1.8178 0.9614
-8.0878 -4.2963 -1.7214 0.9634
-6.5010 -6.1353 -1.6802 0.9643
-5.8993 -6.6595 -1.6722 0.9644
-3.9081 -7.9523 -1.6655 0.9646
-3.1891 -8.2865 -1.6689 0.9645
-2.4458 -8.5702 -1.6752 0.9644
-0.8940 -8.9807 -1.6964 0.9639
1.5655 -9.1780 -1.7500 0.9628
2.4110 -9.1242 -1.7739 0.9623
3.2646 -9.0069 -1.8007 0.9618
4.1229 -8.8236 -1.8306 0.9611
5.8381 -8.2492 -1.8996 0.9597
6.6859 -7.8533 -1.9386 0.9589
7.5199 -7.3818 -1.9806 0.9580
8.3339 -6.8327 -2.0256 0.9571
9.1208 -6.2045 -2.0734 0.9561
9.8728 -5.4961 -2.1239 0.9551
11.4579 -1.7365 -2.1782 0.9539
12.1707 0.3454 -2.2885 0.9517
11.5251 1.3635 -2.1814 0.9539
8.8807 2.7134 -1.7454 0.9629
7.7333 3.1420 -1.5690 0.9666
5.8693 3.7183 -1.3060 0.9721
6.8519 -6.5336 -2.0013 0.9620
8.7909 -3.7590 -2.0210 0.9617
9.2951 -3.0255 -2.0663 0.9608
9.7423 -2.2327 -2.1127 0.9600
10.1243 -1.3844 -2.1600 0.9591
10.4326 -0.4856 -2.2076 0.9582
10.7950 1.4362 -2.3020 0.9565
8.6608 2.7843 -1.9230 0.9635
6.6343 3.5371 -1.5892 0.9697
5.1193 4.0441 -1.3790 0.9737
3.8965 4.4121 -1.2443 0.9762
3.5296 4.8002 -1.2595 0.9759
2.8787 4.7523 -1.1745 0.9775
2.4106 4.9241 -1.1589 0.9778
1.9510 5.0924 -1.1527 0.9780
1.0278 5.4295 -1.1681 0.9777
0.2782 2.8385 -0.6029 0.9884
-0.4934 6.0717 -1.2877 0.9754
-1.0914 6.3404 -1.3599 0.9740
-5.3242 9.1283 -2.2338 0.9577
-5.9874 8.4328 -2.1861 0.9586
-7.0721 6.9211 -2.0916 0.9604
-8.4431 5.7247 -2.1563 0.9592
-8.9342 3.9582 -2.0656 0.9608
-9.0278 0.5378 -1.9117 0.9637
-8.8881 -0.2657 -1.8796 0.9643
-8.4399 -1.7872 -1.8236 0.9653
-8.1385 -2.5002 -1.7997 0.9658
-7.7898 -3.1788 -1.7784 0.9662
-5.9835 -5.5186 -1.7206 0.9673
-4.8702 -6.4462 -1.7078 0.9675
-4.2692 -6.8455 -1.7053 0.9676
-2.3144 -7.7709 -1.7139 0.9674
1.3219 -8.3244 -1.7817 0.9661
2.0847 -8.2725 -1.8033 0.9657
4.3915 -7.7590 -1.8846 0.9642
5.9058 -7.1003 -1.9522 0.9629
6.6418 -6.6711 -1.9899 0.9622
9.2831 -4.2579 -2.1588 0.9591
9.1541 -3.2449 -2.0530 0.9611
9.6187 -2.4690 -2.0991 0.9602
10.3511 -0.7516 -2.1938 0.9585
10.5223 2.0857 -2.2675 0.9571
9.0294 2.6461 -1.9889 0.9623
6.0690 3.7480 -1.5078 0.9713
5.3235 3.9853 -1.4057 0.9732
4.6530 4.1810 -1.3223 0.9747
4.0583 4.3616 -1.2593 0.9759
3.1668 4.9339 -1.2393 0.9763
1.6260 5.2110 -1.1539 0.9779
1.1638 5.3794 -1.1634 0.9777
0.0940 2.7417 -0.5799 0.9888
-0.9106 6.2583 -1.3368 0.9745
-1.3645 5.7273 -1.2445 0.9762
-2.2771 6.7967 -1.5152 0.9711
-4.3533 9.9438 -2.2945 0.9566
-5.1167 9.3207 -2.2476 0.9575
-5.8029 8.6399 -2.2000 0.9583
-6.9346 7.1484 -2.1052 0.9601
-7.9500 6.8497 -2.2182 0.9580
-2.6752 1.5761 -0.6563 0.9874
-8.8825 4.2146 -2.0782 0.9606
-9.1102 2.4650 -1.9949 0.9621
-9.0570 0.7760 -1.9215 0.9635
-8.9348 -0.0350 -1.8887 0.9641
-8.5182 -1.5738 -1.8311 0.9652
-8.2310 -2.2965 -1.8063 0.9657
-7.8958 -2.9853 -1.7843 0.9661
-7.5157 -3.6385 -1.7650 0.9664
-6.6324 -4.8321 -1.7346 0.9670
-5.0395 -6.3220 -1.7090 0.9675
-3.1812 -7.4241 -1.7073 0.9675
-2.5127 -7.6998 -1.7120 0.9674
-1.8232 -7.9275 -1.7195 0.9673
-1.1147 -8.1058 -1.7295 0.9671
-0.3895 -8.2332 -1.7423 0.9669
0.3501 -8.3081 -1.7577 0.9666
2.6294 -8.2004 -1.8203 0.9654
4.1686 -7.8331 -1.8756 0.9644
4.9333 -7.5553 -1.9073 0.9638
6.4299 -6.8028 -1.9786 0.9625
7.1513 -6.3253 -2.0181 0.9617
9.1301 -4.4783 -2.1496 0.9593
2.3583 -0.9056 -0.5340 0.9897
9.4898 -2.7005 -2.0856 0.9605
9.9107 -1.8839 -2.1324 0.9596
10.5378 -0.0956 -2.2276 0.9578
10.7273 0.8634 -2.2749 0.9570
10.8235 1.8547 -2.3212 0.9561
9.4243 2.4979 -2.0609 0.9609
8.1698 2.9682 -1.8374 0.9651
5.5365 3.9246 -1.4345 0.9726
3.3140 4.8797 -1.2469 0.9762
1.2989 5.3302 -1.1597 0.9778
-0.1728 5.9311 -1.2542 0.9760
-0.7359 6.1797 -1.3155 0.9749
-4.1176 10.1124 -2.3080 0.9563
-6.7903 7.3736 -2.1188 0.9598
-8.2392 6.2347 -2.1840 0.9586
-8.9973 3.5896 -2.0476 0.9612
-9.0810 1.0163 -1.9315 0.9633
-8.9765 0.1980 -1.8979 0.9640
-8.5922 -1.3577 -1.8388 0.9651
-7.9980 -2.7887 -1.7904 0.9660
-7.6306 -3.4524 -1.7704 0.9663
-6.7702 -4.6683 -1.7383 0.9669
-6.2829 -5.2178 -1.7263 0.9672
-5.2064 -6.1942 -1.7104 0.9675
-4.6218 -6.6188 -1.7064 0.9675
-2.0256 -7.8663 -1.7170 0.9673
-1.3224 -8.0592 -1.7263 0.9672
0.1339 -8.2919 -1.7530 0.9667
0.8822 -8.3285 -1.7703 0.9663
4.7118 -7.6427 -1.8979 0.9640
5.4704 -7.3188 -1.9314 0.9633
6.2163 -6.9287 -1.9676 0.9627
6.9441 -6.4711 -2.0064 0.9619
7.6477 -5.9449 -2.0475 0.9612
8.3208 -5.3496 -2.0910 0.9604
8.9560 -4.6853 -2.1365 0.9595
2.3389 -0.9685 -0.5351 0.9897
9.3558 -2.9270 -2.0722 0.9607
9.7952 -2.1269 -2.1187 0.9598
10.1682 -1.2718 -2.1661 0.9590
10.8056 1.5639 -2.3079 0.9563
9.8490 2.3385 -2.1398 0.9595
8.5057 2.8424 -1.8957 0.9640
6.5276 3.5770 -1.5734 0.9700
5.7594 3.8619 -1.4658 0.9720
4.3961 4.2581 -1.2937 0.9753
3.8264 4.4341 -1.2380 0.9763
2.3513 4.9458 -1.1576 0.9779
1.4333 5.2813 -1.1567 0.9779
0.9677 5.4535 -1.1708 0.9776
0.2438 2.8204 -0.5984 0.9885
-3.8759 10.2750 -2.3213 0.9561
-4.6822 9.6905 -2.2750 0.9570
-9.0996 1.2584 -1.9418 0.9631
-8.0963 -2.5892 -1.7968 0.9658
-7.7419 -3.2633 -1.7759 0.9662
-7.3438 -3.9011 -1.7578 0.9666
-6.4282 -5.0623 -1.7295 0.9671
-5.3707 -6.0627 -1.7121 0.9674
-4.7947 -6.4999 -1.7073 0.9675
-2.2263 -7.8011 -1.7148 0.9674
-0.8128 -8.1654 -1.7345 0.9670
1.4193 -8.3209 -1.7843 0.9661
2.9517 -8.1437 -1.8310 0.9652
6.0012 -7.0490 -1.9569 0.9629
6.7348 -6.6111 -1.9949 0.9622
7.4461 -6.1049 -2.0353 0.9614
9.3490 -4.1590 -2.1629 0.9590
9.6739 -2.3653 -2.1051 0.9601
10.0671 -1.5257 -2.1523 0.9592
10.3879 -0.6347 -2.1999 0.9583
10.7793 1.2753 -2.2944 0.9566
10.3078 2.1663 -2.2265 0.9579
8.8636 2.7082 -1.9591 0.9628
6.7725 3.4856 -1.6100 0.9693
5.9728 3.7839 -1.4946 0.9715
4.8771 -6.6835 -1.9445 0.9666
5.5463 -6.3264 -1.9773 0.9660
6.8229 -5.4303 -2.0494 0.9648
7.4190 -4.8909 -2.0884 0.9641
7.8838 -3.3711 -2.0151 0.9654
8.3167 -2.7070 -2.0555 0.9647
8.6962 -1.9930 -2.0968 0.9640
9.0155 -1.2328 -2.1386 0.9633
9.4460 0.4053 -2.2221 0.9619
9.5441 1.2698 -2.2628 0.9612
9.5565 2.1536 -2.3023 0.9605
6.6239 3.5316 -1.7642 0.9696
5.8448 3.8228 -1.6414 0.9717
5.1616 4.0775 -1.5459 0.9733
2.9236 4.8263 -1.3262 0.9771
2.4438 4.9919 -1.3062 0.9774
1.9771 5.1606 -1.2988 0.9775
1.5140 5.3357 -1.3035 0.9775
1.0451 5.5210 -1.3206 0.9772
-1.0956 6.3650 -1.5179 0.9738
-1.4919 5.6113 -1.3646 0.9764
-3.3265 9.1344 -2.2847 0.9608
-4.0561 8.6464 -2.2446 0.9615
-4.7235 8.0983 -2.2034 0.9622
-5.3246 7.4994 -2.1616 0.9629
-5.8571 6.8585 -2.1197 0.9636
-6.7115 5.4856 -2.0372 0.9650
-7.8532 4.3561 -2.1106 0.9638
-8.2569 1.2385 -1.9623 0.9663
-7.4318 -2.2831 -1.8272 0.9686
-6.7678 -3.4962 -1.7903 0.9692
-6.3759 -4.0529 -1.7756 0.9694
-5.9474 -4.5741 -1.7634 0.9696
-5.4849 -5.0587 -1.7536 0.9698
-4.9907 -5.5053 -1.7464 0.9699
-3.9163 -6.2796 -1.7393 0.9700
-3.3405 -6.6049 -1.7395 0.9700
-2.7417 -6.8873 -1.7422 0.9700
-2.1222 -7.1256 -1.7474 0.9699
-1.4841 -7.3185 -1.7550 0.9698
-0.8296 -7.4646 -1.7652 0.9696
0.5190 -7.6109 -1.7929 0.9691
1.2081 -7.6082 -1.8105 0.9688
1.9034 -7.5528 -1.8306 0.9685
2.6017 -7.4434 -1.8532 0.9681
3.9938 -7.0564 -1.9056 0.9672
4.6799 -6.7761 -1.9354 0.9667
6.0099 -6.0364 -2.0019 0.9656
7.2492 -5.0539 -2.0769 0.9643
7.8202 -4.4716 -2.1172 0.9637
8.3248 -3.8184 -2.1525 0.9631
8.5919 -2.2054 -2.0847 0.9642
8.9294 -1.4582 -2.1264 0.9635
9.2017 -0.6682 -2.1683 0.9628
9.4022 0.1590 -2.2100 0.9621
9.5242 1.0162 -2.2511 0.9614
9.5620 1.8954 -2.2910 0.9607
6.0599 3.7424 -1.6739 0.9712
4.7205 4.2416 -1.4915 0.9743
4.1322 4.4410 -1.4257 0.9754
3.6774 4.7382 -1.4096 0.9757
3.1630 4.9279 -1.3762 0.9762
2.1119 5.1110 -1.2997 0.9775
1.1825 5.4659 -1.3143 0.9773
0.0932 2.7180 -0.6392 0.9889
-1.3649 5.7292 -1.3842 0.9761
-4.5362 8.2632 -2.2154 0.9620
-5.7095 7.0485 -2.1319 0.9634
-6.6049 5.6908 -2.0490 0.9648
-7.4813 5.3614 -2.1632 0.9629
-2.6738 1.5753 -0.7293 0.9873
-8.0037 3.7976 -2.0821 0.9643
-8.1562 3.0109 -2.0433 0.9649
-8.2414 2.2299 -2.0066 0.9655
-8.2624 1.4597 -1.9719 0.9661
-7.9712 -0.7459 -1.8816 0.9676
-7.7668 -1.4350 -1.8563 0.9681
-7.5139 -2.0964 -1.8334 0.9685
-7.2155 -2.7281 -1.8130 0.9688
-6.4936 -3.8947 -1.7796 0.9694
-6.0755 -4.4264 -1.7667 0.9696
-5.6227 -4.9218 -1.7562 0.9698
-5.1374 -5.3795 -1.7482 0.9699
-2.3043 -7.0610 -1.7456 0.9699
-1.0214 -7.4271 -1.7620 0.9697
-0.3567 -7.5392 -1.7739 0.9695
0.3204 -7.6021 -1.7882 0.9692
1.7009 -7.5744 -1.8245 0.9686
3.0971 -7.3321 -1.8706 0.9678
4.4816 -6.8636 -1.9265 0.9669
5.8213 -6.1589 -1.9917 0.9658
6.4622 -5.7158 -2.0276 0.9652
7.6582 -4.6470 -2.1053 0.9639
8.1913 -4.0178 -2.1442 0.9632
2.3595 -0.9060 -0.5940 0.9897
8.4825 -2.4138 -2.0727 0.9644
8.8377 -1.6800 -2.1143 0.9637
9.4051 2.4929 -2.2867 0.9608
7.1409 3.3433 -1.8531 0.9681
5.5487 3.9333 -1.5985 0.9724
3.8319 4.6811 -1.4218 0.9754
3.3100 4.8738 -1.3846 0.9761
2.2473 5.0619 -1.3016 0.9775
1.7832 5.2329 -1.2993 0.9775
1.3189 5.4119 -1.3091 0.9774
-0.1758 6.0342 -1.4188 0.9755
-1.3629 6.4608 -1.5519 0.9732
-1.7350 5.6630 -1.3920 0.9760
-3.6394 8.9379 -2.2681 0.9611
-4.3435 8.4236 -2.2274 0.9618
-6.0593 6.5798 -2.1022 0.9639
-6.4922 5.8944 -2.0609 0.9646
-7.9464 4.0265 -2.0936 0.9641
-8.2234 2.4560 -2.0170 0.9653
-8.0211 -0.5409 -1.8894 0.9675
-7.5922 -1.9072 -1.8398 0.9683
-7.3068 -2.5477 -1.8186 0.9687
-6.9778 -3.1571 -1.8000 0.9690
-5.7577 -4.7816 -1.7590 0.9697
-5.2816 -5.2505 -1.7503 0.9699
-4.7748 -5.6808 -1.7441 0.9700
-4.2396 -6.0714 -1.7404 0.9700
-3.6780 -6.4210 -1.7391 0.9701
-2.4846 -6.9926 -1.7441 0.9700
-1.8571 -7.2120 -1.7503 0.9699
0.1225 -7.5889 -1.7838 0.9693
0.8067 -7.6161 -1.8000 0.9690
2.8943 -7.3811 -1.8633 0.9679
4.2824 -6.9461 -1.9178 0.9670
4.9638 -6.6411 -1.9486 0.9665
5.6309 -6.2762 -1.9817 0.9659
7.4929 -4.8173 -2.0936 0.9641
8.0475 -4.2100 -2.1345 0.9634
8.7407 -1.8980 -2.1021 0.9639
9.0518 -1.1322 -2.1440 0.9632
9.2948 -0.3259 -2.1858 0.9625
9.4631 0.5148 -2.2273 0.9618
9.5506 1.3823 -2.2680 0.9611
8.4897 2.8371 -2.1037 0.9639
5.0794 4.1081 -1.5353 0.9735
3.8948 4.5134 -1.4011 0.9758
2.8610 4.8475 -1.3229 0.9771
2.3834 5.0132 -1.3046 0.9774
1.9177 5.1826 -1.2987 0.9775
-0.5733 6.1773 -1.4581 0.9748
-1.1763 6.3939 -1.5279 0.9736
-1.5611 5.6119 -1.3690 0.9763
-3.4234 9.0755 -2.2796 0.9609
-4.1452 8.5793 -2.2394 0.9616
-4.8043 8.0241 -2.1980 0.9623
-5.3968 7.4193 -2.1562 0.9630
-5.9203 6.7738 -2.1143 0.9637
-6.3737 6.0961 -2.0728 0.9644
-7.6187 5.0392 -2.1468 0.9632
-7.8830 4.2552 -2.1054 0.9639
-8.0759 3.4678 -2.0656 0.9645
-8.1999 2.6828 -2.0277 0.9652
-8.0665 -0.3338 -1.8974 0.9674
-7.8917 -1.0377 -1.8707 0.9678
-7.6666 -1.7155 -1.8464 0.9682
-7.3943 -2.3647 -1.8245 0.9686
-7.0777 -2.9833 -1.8052 0.9689
-6.7197 -3.5696 -1.7883 0.9692
-5.4232 -5.1182 -1.7526 0.9698
-4.9251 -5.5598 -1.7456 0.9699
-1.4010 -7.3399 -1.7562 0.9698
-0.7446 -7.4799 -1.7666 0.9696
-0.0745 -7.5716 -1.7796 0.9694
0.6070 -7.6135 -1.7950 0.9691
1.2971 -7.6040 -1.8129 0.9688
2.6913 -7.4254 -1.8562 0.9681
3.3891 -7.2531 -1.8816 0.9676
4.0823 -7.0237 -1.9093 0.9672
4.7671 -6.7358 -1.9394 0.9667
5.4388 -6.3885 -1.9719 0.9661
6.0926 -5.9807 -2.0065 0.9655
7.8906 -4.3926 -2.1225 0.9636
9.2316 -0.5640 -2.1737 0.9627
9.4223 0.2674 -2.2154 0.9620
9.5605 2.0093 -2.2960 0.9607
8.8464 2.7030 -2.1740 0.9627
5.9640 3.7783 -1.6593 0.9714
4.4605 -6.1127 -1.9593 0.9692
5.0652 -5.7777 -1.9894 0.9688
6.2115 -4.9437 -2.0555 0.9677
6.7427 -4.4450 -2.0910 0.9672
7.2385 -3.8931 -2.1280 0.9666
8.1171 -1.1100 -2.1212 0.9667
8.3279 -0.3876 -2.1586 0.9661
8.4717 0.3635 -2.1955 0.9656
8.5390 1.9243 -2.2663 0.9645
8.4545 2.7179 -2.2994 0.9640
7.5294 3.1872 -2.1170 0.9668
6.6134 3.5260 -1.9405 0.9695
4.5423 4.2998 -1.6194 0.9745
3.9813 4.5081 -1.5572 0.9755
2.9595 4.8856 -1.4790 0.9767
1.0740 3.7852 -1.0187 0.9839
1.0565 5.5812 -1.4707 0.9768
0.2740 2.7955 -0.7273 0.9885
-0.4991 6.1429 -1.5957 0.9749
-4.2399 7.2694 -2.1789 0.9658
-4.7889 6.7448 -2.1418 0.9664
-5.7058 5.5840 -2.0671 0.9676
-6.0714 4.9624 -2.0303 0.9681
-6.3749 4.3224 -1.9942 0.9687
-7.1304 3.9552 -2.1112 0.9669
-7.4596 2.5356 -2.0400 0.9680
-7.4087 -0.2215 -1.9191 0.9698
-6.5519 -2.6737 -1.8322 0.9712
-5.0588 -4.6658 -1.7819 0.9720
-4.6045 -5.0793 -1.7751 0.9721
-4.1223 -5.4563 -1.7706 0.9721
-3.6144 -5.7955 -1.7685 0.9722
-1.3687 -6.7496 -1.7832 0.9719
-0.1484 -6.9676 -1.8045 0.9716
0.4779 -7.0075 -1.8186 0.9714
1.7496 -6.9424 -1.8537 0.9709
2.3891 -6.8350 -1.8747 0.9705
3.0267 -6.6761 -1.8979 0.9702
4.2819 -6.1998 -1.9509 0.9693
4.8913 -5.8807 -1.9805 0.9689
6.5917 -4.5955 -2.0805 0.9673
7.4121 -2.6274 -2.0361 0.9680
8.0441 -1.3136 -2.1104 0.9669
8.2733 -0.6007 -2.1477 0.9663
8.5304 0.9101 -2.2212 0.9652
8.5484 1.6944 -2.2564 0.9646
5.3444 4.0009 -1.7286 0.9728
4.7141 4.2359 -1.6409 0.9742
3.6728 4.7323 -1.5510 0.9756
3.1591 4.9219 -1.5143 0.9761
2.6169 5.0116 -1.4638 0.9769
2.1427 5.1854 -1.4527 0.9771
1.1733 3.7604 -1.0199 0.9839
1.1965 5.5304 -1.4650 0.9769
-0.3356 6.0841 -1.5777 0.9751
-0.9156 6.2923 -1.6463 0.9741
-2.2702 6.7763 -1.8503 0.9709
-3.4477 7.8751 -2.2259 0.9651
-4.0696 7.4132 -2.1896 0.9657
-4.6354 6.9017 -2.1526 0.9662
-5.5879 5.7602 -2.0779 0.9674
-6.2931 4.5099 -2.0046 0.9685
-2.6723 1.5744 -0.8031 0.9873
-7.2761 3.4524 -2.0852 0.9673
-7.4273 2.7418 -2.0499 0.9678
-7.5216 0.6445 -1.9546 0.9693
-7.1310 -1.3175 -1.8776 0.9705
-6.6376 -2.5096 -1.8373 0.9711
-6.3289 -3.0639 -1.8206 0.9714
-5.6003 -4.0802 -1.7941 0.9718
-5.1853 -4.5389 -1.7843 0.9719
-4.2651 -5.3506 -1.7717 0.9721
-2.1260 -6.5148 -1.7743 0.9721
-1.5416 -6.7030 -1.7808 0.9720
-0.9417 -6.8476 -1.7897 0.9718
-0.3287 -6.9473 -1.8008 0.9717
2.8418 -6.7277 -1.8909 0.9703
4.1021 -6.2823 -1.9426 0.9695
7.4201 -3.6395 -2.1399 0.9664
7.6608 -2.1800 -2.0623 0.9676
8.3966 -0.0762 -2.1741 0.9659
8.5108 0.6850 -2.2107 0.9653
8.5511 1.4653 -2.2463 0.9648
8.5135 2.2565 -2.2804 0.9643
8.1401 2.9574 -2.2424 0.9648
4.3020 4.3891 -1.5913 0.9749
3.3060 4.8678 -1.5235 0.9760
2.7564 4.9603 -1.4693 0.9768
2.2606 5.0919 -1.4425 0.9772
1.8086 5.3075 -1.4518 0.9771
1.3354 5.4799 -1.4604 0.9770
0.8527 5.6552 -1.4808 0.9766
0.1624 2.6917 -0.6982 0.9889
-0.7418 6.2300 -1.6245 0.9744
-1.7322 5.6538 -1.5310 0.9759
-3.2571 7.9989 -2.2362 0.9649
-3.8945 7.5529 -2.2002 0.9655
-5.0011 6.5129 -2.1261 0.9666
-5.8665 5.3263 -2.0516 0.9678
-6.2061 4.6962 -2.0151 0.9684
-2.6288 1.6423 -0.8026 0.9873
-7.3898 2.9483 -2.0600 0.9677
-7.4971 2.2391 -2.0259 0.9682
-7.5446 1.5359 -1.9935 0.9687
-5.7149 -3.9405 -1.7973 0.9717
-5.3092 -4.4091 -1.7869 0.9719
-4.8721 -4.8433 -1.7787 0.9720
-4.4058 -5.2417 -1.7729 0.9721
-3.9125 -5.6030 -1.7694 0.9722
-1.7131 -6.6528 -1.7787 0.9720
-1.1174 -6.8102 -1.7868 0.9719
2.0174 -6.9036 -1.8622 0.9707
2.6566 -6.7748 -1.8842 0.9704
3.2924 -6.5940 -1.9083 0.9700
5.7240 -5.3341 -2.0258 0.9682
6.2814 -4.8827 -2.0599 0.9677
7.2976 -3.8177 -2.1324 0.9665
8.1477 -1.0191 -2.1260 0.9666
8.5327 2.0260 -2.2707 0.9644
8.4377 2.8197 -2.3034 0.9639
6.5072 3.5658 -1.9212 0.9698
5.0724 4.1024 -1.6891 0.9734
3.9123 4.5337 -1.5505 0.9756
3.4547 4.8129 -1.5339 0.9758
2.8970 4.9086 -1.4758 0.9767
2.4174 5.0848 -1.4577 0.9770
1.9454 5.2575 -1.4515 0.9771
1.4736 5.4296 -1.4567 0.9770
0.9944 5.6038 -1.4736 0.9768
-0.5726 6.1692 -1.6042 0.9747
-1.1746 6.3851 -1.6810 0.9735
-1.5593 5.6055 -1.5065 0.9762
-3.0621 8.1177 -2.2464 0.9648
-4.3136 7.2046 -2.1742 0.9659
-5.3364 6.1056 -2.0996 0.9670
-5.7562 5.5055 -2.0623 0.9676
-7.3470 3.1548 -2.0702 0.9675
-7.4722 2.4447 -2.0356 0.9680
-7.5434 1.0432 -1.9717 0.9690
-7.3928 -0.3059 -1.9158 0.9699
-7.2411 -0.9522 -1.8910 0.9703
-6.5130 -2.7453 -1.8300 0.9712
-6.1882 -3.2872 -1.8143 0.9715
-5.0022 -4.7208 -1.7809 0.9720
-4.5441 -5.1297 -1.7744 0.9721
-3.5475 -5.8362 -1.7683 0.9722
-1.2921 -6.7690 -1.7842 0.9719
-0.6864 -6.8949 -1.7940 0.9718
0.5588 -7.0092 -1.8206 0.9714
1.8316 -6.9315 -1.8563 0.9708
3.1082 -6.6520 -1.9011 0.9701
3.7395 -6.4337 -1.9267 0.9697
5.5571 -5.4550 -2.0162 0.9683
6.1223 -5.0195 -2.0498 0.9678
7.1607 -3.9863 -2.1219 0.9667
7.0736 -3.1468 -2.0045 0.9685
8.0770 -1.2241 -2.1152 0.9668
8.2981 -0.5070 -2.1525 0.9662
8.5370 1.0100 -2.2258 0.9651
5.9551 3.7726 -1.8252 0.9713
4.1057 -5.6264 -1.9718 0.9715
6.1733 -4.0697 -2.0932 0.9697
6.6153 -3.5579 -2.1264 0.9693
2.3472 -1.0036 -0.7227 0.9894
7.3737 -1.0083 -2.1069 0.9695
7.6712 0.3291 -2.1737 0.9686
7.7243 1.0277 -2.2060 0.9681
7.7086 1.7372 -2.2370 0.9677
7.6216 2.4502 -2.2664 0.9673
7.4612 3.1584 -2.2937 0.9669
6.6028 3.5203 -2.1183 0.9694
5.1471 4.0661 -1.8569 0.9731
4.5362 4.2941 -1.7683 0.9744
3.5166 4.7824 -1.6805 0.9756
2.4753 5.0563 -1.5937 0.9769
2.0034 5.2292 -1.5853 0.9770
1.0552 5.5745 -1.6061 0.9767
-2.6873 7.3791 -2.2232 0.9679
-3.2878 7.0085 -2.1915 0.9683
-4.7981 5.6186 -2.0916 0.9698
-5.1954 5.0844 -2.0579 0.9702
-5.8230 3.9482 -1.9916 0.9712
-6.5119 3.6121 -2.1081 0.9695
-6.7122 2.9738 -2.0783 0.9699
-6.9409 1.0411 -1.9869 0.9712
-6.9105 0.4117 -1.9598 0.9716
-6.8305 -0.2042 -1.9345 0.9720
-6.7033 -0.8034 -1.9112 0.9723
-6.5312 -1.3830 -1.8899 0.9726
-6.3166 -1.9405 -1.8707 0.9729
-5.7698 -2.9806 -1.8385 0.9734
-5.4422 -3.4594 -1.8256 0.9735
-5.0816 -3.9083 -1.8148 0.9737
-4.6902 -4.3258 -1.8063 0.9738
-4.2702 -4.7105 -1.7999 0.9739
-3.8237 -5.0610 -1.7957 0.9740
-2.3467 -5.8950 -1.7962 0.9740
-1.8157 -6.0964 -1.8008 0.9739
-1.2689 -6.2574 -1.8075 0.9738
2.2066 -6.3130 -1.8932 0.9726
5.0359 -5.0580 -2.0206 0.9708
6.0376 -4.2092 -2.0836 0.9699
7.0596 -1.8121 -2.0633 0.9702
7.3108 -1.1939 -2.0971 0.9697
7.7204 1.5303 -2.2281 0.9678
7.6544 2.2431 -2.2580 0.9674
6.8507 3.4271 -2.1685 0.9687
4.7077 4.2301 -1.7917 0.9740
4.1345 4.4435 -1.7182 0.9751
1.1682 3.7440 -1.1103 0.9838
1.1950 5.5237 -1.5999 0.9768
0.3836 3.0860 -0.8803 0.9872
0.0917 2.6746 -0.7576 0.9889
-0.3351 6.0762 -1.7227 0.9750
-0.9143 6.2837 -1.7976 0.9739
-1.3658 5.7328 -1.6683 0.9758
-2.2667 6.7659 -2.0200 0.9708
-3.1179 7.1217 -2.2009 0.9682
-3.6860 6.7145 -2.1684 0.9687
-4.2052 6.2611 -2.1351 0.9691
-5.4435 4.6902 -2.0341 0.9706
-5.7457 4.1176 -2.0011 0.9710
-6.6632 3.1616 -2.0879 0.9698
-6.8588 -0.0269 -1.9417 0.9719
-6.5856 -1.2167 -1.8959 0.9725
-5.8584 -2.8362 -1.8426 0.9733
-5.1897 -3.7810 -1.8177 0.9737
-4.8070 -4.2078 -1.8085 0.9738
-3.4920 -5.2883 -1.7940 0.9740
-1.9717 -6.0420 -1.7992 0.9739
-1.4293 -6.2149 -1.8053 0.9738
-0.3045 -6.4361 -1.8240 0.9736
0.2732 -6.4821 -1.8367 0.9734
1.4460 -6.4393 -1.8683 0.9729
2.6231 -6.2098 -1.9083 0.9724
3.7783 -5.7865 -1.9564 0.9717
4.8818 -5.1649 -2.0119 0.9709
5.4036 -4.7795 -2.0422 0.9705
6.3637 -3.8615 -2.1073 0.9695
6.7749 -3.3230 -2.1362 0.9691
6.9769 -1.9854 -2.0535 0.9703
7.2433 -1.3769 -2.0872 0.9698
7.7016 0.6199 -2.1873 0.9684
6.2645 3.6475 -2.0521 0.9703
4.2963 4.3834 -1.7376 0.9748
3.3019 4.8618 -1.6637 0.9759
2.7531 4.9543 -1.6045 0.9767
1.8064 5.3011 -1.5855 0.9770
1.3338 5.4733 -1.5948 0.9769
-0.1754 6.0188 -1.7046 0.9753
-3.5258 6.8378 -2.1779 0.9685
-4.0596 6.3972 -2.1449 0.9690
-6.6093 3.3490 -2.0976 0.9697
-6.7743 2.7027 -2.0647 0.9701
-6.8822 2.0554 -2.0333 0.9706
-6.9349 1.4118 -2.0035 0.9710
-6.9344 0.7760 -1.9753 0.9714
-6.8829 0.1519 -1.9490 0.9718
-6.7828 -0.4574 -1.9245 0.9721
-6.6365 -1.0487 -1.9021 0.9725
-5.9441 -2.6894 -1.8469 0.9732
-5.2951 -3.6511 -1.8208 0.9736
-4.9213 -4.0870 -1.8110 0.9738
-4.5176 -4.4910 -1.8033 0.9739
-4.0862 -4.8615 -1.7979 0.9739
-2.6472 -5.7599 -1.7946 0.9740
-1.5885 -6.1688 -1.8033 0.9739
-0.4707 -6.4145 -1.8208 0.9736
0.1045 -6.4733 -1.8328 0.9734
1.2748 -6.4569 -1.8632 0.9730
1.8643 -6.3796 -1.8816 0.9727
2.4527 -6.2550 -1.9020 0.9725
3.0368 -6.0821 -1.9245 0.9721
4.1773 -5.5888 -1.9753 0.9714
4.7260 -5.2676 -2.0034 0.9710
5.7582 -4.4760 -2.0647 0.9701
6.2323 -4.0068 -2.0975 0.9697
6.6650 -3.4867 -2.1294 0.9692
2.3305 -0.9651 -0.7141 0.9896
6.8901 -2.1556 -2.0438 0.9704
7.5716 -0.2655 -2.1448 0.9690
7.6818 0.4179 -2.1779 0.9685
7.7015 1.8286 -2.2409 0.9676
7.3908 3.2289 -2.2832 0.9670
6.4969 3.5601 -2.0973 0.9697
5.0653 4.0967 -1.8442 0.9733
3.9072 4.5279 -1.6931 0.9754
3.4504 4.8069 -1.6751 0.9757
1.9431 5.2512 -1.5851 0.9770
-0.0091 2.8823 -0.8160 0.9881
-0.5718 6.1611 -1.7516 0.9746
-2.7667 7.3346 -2.2192 0.9679
-3.3615 6.9572 -2.1874 0.9684
-4.4073 6.0591 -2.1211 0.9693
-4.8522 5.5516 -2.0873 0.9698
-5.8556 3.8731 -1.9875 0.9712
-6.5430 3.5319 -2.1049 0.9696
-6.8566 2.2433 -2.0423 0.9705
-6.9251 1.5982 -2.0120 0.9709
-6.9030 0.3318 -1.9564 0.9717
-6.5060 -1.4558 -1.8873 0.9727
-6.2861 -2.0103 -1.8683 0.9729
-5.7297 -3.0437 -1.8367 0.9734
-5.0331 -3.9636 -1.8136 0.9737
-4.6379 -4.3770 -1.8053 0.9738
-3.7646 -5.1035 -1.7953 0.9740
-3.2908 -5.4139 -1.7936 0.9740
-2.2796 -5.9230 -1.7967 0.9740
-1.7464 -6.1193 -1.8015 0.9739
-1.1978 -6.2751 -1.8085 0.9738
-0.6360 -6.3893 -1.8177 0.9737
0.5173 -6.4882 -1.8426 0.9733
1.1037 -6.4706 -1.8582 0.9731
1.6930 -6.4069 -1.8760 0.9728
2.2820 -6.2961 -1.8959 0.9725
2.8677 -6.1374 -1.9178 0.9722
3.4465 -5.9298 -1.9416 0.9719
5.6147 -4.6033 -2.0554 0.9703
6.4664 -2.8767 -2.0036 0.9710
6.7994 -2.3228 -2.0341 0.9706
7.0947 -1.7347 -2.0676 0.9701
7.3392 -1.1123 -2.1014 0.9696
6.7398 3.4688 -2.1459 0.9690
3.2789 -5.4576 -1.9583 0.9737
3.7996 -5.2069 -1.9826 0.9734
4.3049 -4.9104 -2.0086 0.9730
4.7907 -4.5682 -2.0360 0.9727
5.6869 -3.7491 -2.0951 0.9719
6.0820 -3.2711 -2.1241 0.9715
2.3418 -1.0013 -0.7834 0.9894
6.5409 -1.4990 -2.0640 0.9723
6.7478 -0.9227 -2.0948 0.9719
6.9025 -0.3213 -2.1254 0.9715
7.0012 0.3004 -2.1554 0.9711
4.5300 4.2883 -1.9186 0.9742
1.0540 5.5676 -1.7429 0.9766
0.0235 2.8290 -0.8702 0.9882
-1.4878 5.5958 -1.7809 0.9761
-2.4477 6.7212 -2.2001 0.9705
-3.5086 6.0154 -2.1419 0.9713
-4.7637 4.6620 -2.0501 0.9725
-5.0840 4.1553 -2.0196 0.9729
-5.3536 3.6299 -1.9895 0.9733
-5.5726 3.0911 -1.9600 0.9737
-6.1868 2.7410 -2.0813 0.9721
-6.3929 1.5528 -2.0235 0.9728
-6.3982 0.3811 -1.9714 0.9735
-6.2177 -0.7452 -1.9261 0.9741
-5.6352 -2.2996 -1.8720 0.9749
-5.0645 -3.2192 -1.8458 0.9752
-4.3679 -4.0285 -1.8276 0.9754
-2.6645 -5.2684 -1.8159 0.9756
-2.1862 -5.4919 -1.8181 0.9756
-1.6912 -5.6786 -1.8224 0.9755
-1.1817 -5.8271 -1.8288 0.9754
-0.6598 -5.9364 -1.8372 0.9753
-0.1279 -6.0055 -1.8476 0.9752
0.9558 -6.0189 -1.8745 0.9748
1.5023 -5.9613 -1.8909 0.9746
2.0482 -5.8598 -1.9093 0.9744
2.5903 -5.7134 -1.9295 0.9741
3.1253 -5.5218 -1.9516 0.9738
3.6497 -5.2845 -1.9754 0.9735
5.1213 -4.2979 -2.0564 0.9724
5.9753 -3.4167 -2.1171 0.9716
6.2037 -2.1990 -2.0244 0.9728
6.8631 -0.4984 -2.1165 0.9716
6.9785 0.1180 -2.1467 0.9712
7.0354 0.7506 -2.1762 0.9708
6.9622 2.0403 -2.2315 0.9701
6.6280 3.3157 -2.2795 0.9695
5.3290 3.9895 -2.0475 0.9725
4.7013 4.2243 -1.9440 0.9739
3.1513 4.9098 -1.7944 0.9759
2.6105 4.9994 -1.7347 0.9767
1.1585 3.7130 -1.1963 0.9839
1.1936 5.5170 -1.7362 0.9767
-0.9131 6.2751 -1.9504 0.9738
-2.2632 6.7554 -2.1913 0.9706
-2.8424 6.4926 -2.1800 0.9708
-5.2804 3.7841 -1.9981 0.9732
-2.6694 1.5727 -0.9529 0.9871
-6.1329 2.9100 -2.0879 0.9720
-6.2837 2.3197 -2.0602 0.9724
-6.3757 1.7251 -2.0315 0.9727
-6.4170 1.1337 -2.0043 0.9731
-6.3546 -0.0249 -1.9546 0.9738
-6.2549 -0.5853 -1.9323 0.9741
-6.1122 -1.1293 -1.9118 0.9743
-5.4483 -2.6376 -1.8618 0.9750
-5.1556 -3.0922 -1.8491 0.9752
-4.8309 -3.5196 -1.8384 0.9753
-4.4762 -3.9182 -1.8297 0.9754
-4.0937 -4.2866 -1.8231 0.9755
-3.6855 -4.6234 -1.8186 0.9756
-3.2535 -4.9271 -1.8161 0.9756
-2.8000 -5.1967 -1.8156 0.9756
-1.8367 -5.6282 -1.8210 0.9755
-0.2834 -5.9897 -1.8444 0.9752
0.2541 -6.0296 -1.8562 0.9751
1.3434 -5.9826 -1.8859 0.9747
1.8898 -5.8939 -1.9037 0.9744
2.4333 -5.7606 -1.9234 0.9742
3.4986 -5.3582 -1.9683 0.9736
4.5110 -4.7726 -2.0199 0.9729
2.3630 -0.9074 -0.7786 0.9895
6.6337 -1.2610 -2.0769 0.9721
6.8191 -0.6736 -2.1076 0.9717
6.9508 -0.0631 -2.1380 0.9713
7.0251 0.5655 -2.1677 0.9709
7.0386 1.2061 -2.1965 0.9706
6.9888 1.8524 -2.2238 0.9702
6.6930 3.1336 -2.2731 0.9695
6.2547 3.6417 -2.2261 0.9702
4.2906 4.3775 -1.8853 0.9747
3.8174 4.6633 -1.8536 0.9751
3.2977 4.8557 -1.8054 0.9757
2.7497 4.9482 -1.7412 0.9766
1.8042 5.2947 -1.7205 0.9769
1.3322 5.4666 -1.7306 0.9767
0.1610 2.6682 -0.8222 0.9889
-0.1751 6.0109 -1.8496 0.9751
-0.7398 6.2132 -1.9245 0.9742
-1.3572 6.4335 -2.0224 0.9729
-2.6830 6.5893 -2.1883 0.9707
-3.2173 6.2395 -2.1593 0.9710
-4.1558 5.4120 -2.0988 0.9718
-4.9040 4.4524 -2.0373 0.9727
-5.2030 3.9372 -2.0069 0.9731
-2.6314 1.6438 -0.9543 0.9871
-6.0740 3.0778 -2.0944 0.9719
-6.2472 2.4924 -2.0688 0.9722
-6.4165 0.7181 -1.9859 0.9733
-6.3753 0.1407 -1.9614 0.9737
-6.1579 -0.9730 -1.9175 0.9742
-5.9861 -1.5037 -1.8984 0.9745
-5.5270 -2.5007 -1.8659 0.9749
-5.2441 -2.9628 -1.8526 0.9751
-4.9284 -3.3983 -1.8413 0.9753
-4.2076 -4.1828 -1.8248 0.9755
-3.8066 -4.5289 -1.8197 0.9755
-3.3814 -4.8423 -1.8166 0.9756
-2.4664 -5.3665 -1.8166 0.9756
-1.9808 -5.5747 -1.8197 0.9755
-1.4795 -5.7455 -1.8248 0.9755
-0.9644 -5.8777 -1.8320 0.9754
-0.4381 -5.9703 -1.8413 0.9753
0.6390 -6.0325 -1.8659 0.9749
2.2759 -5.8039 -1.9175 0.9742
2.8154 -5.6387 -1.9385 0.9740
3.3464 -5.4280 -1.9613 0.9737
5.3102 -4.1278 -2.0687 0.9722
2.3283 -0.9642 -0.7751 0.9895
6.3213 -1.9777 -2.0372 0.9727
6.5702 -1.4267 -2.0680 0.9723
6.7706 -0.8469 -2.0987 0.9718
6.9183 -0.2425 -2.1292 0.9714
7.0096 0.3813 -2.1592 0.9710
7.0410 1.0190 -2.1882 0.9707
7.0099 1.6644 -2.2160 0.9703
2.4115 5.0725 -1.7275 0.9768
1.9407 5.2449 -1.7201 0.9769
1.0289 3.7912 -1.2083 0.9837
0.2416 2.7945 -0.8627 0.9883
-0.5710 6.1528 -1.9006 0.9745
-1.1714 6.3673 -1.9913 0.9733
-1.5558 5.5929 -1.7856 0.9760
-2.5205 6.6818 -2.1965 0.9706
-3.0662 6.3460 -2.1678 0.9709
-4.0309 5.5416 -2.1077 0.9717
-5.1214 4.0888 -2.0157 0.9729
-5.3845 3.5614 -1.9856 0.9733
-5.5993 3.0225 -1.9571 0.9737
-6.2063 2.6650 -2.0775 0.9721
-6.3285 2.0705 -2.0480 0.9725
-6.3921 0.3073 -1.9683 0.9736
-6.3182 -0.2614 -1.9450 0.9739
-5.8403 -1.8677 -1.8860 0.9747
-5.3297 -2.8312 -1.8562 0.9751
-5.0234 -3.2746 -1.8444 0.9752
-4.3193 -4.0763 -1.8267 0.9755
-3.9257 -4.4316 -1.8210 0.9755
-3.5073 -4.7547 -1.8173 0.9756
-3.0661 -5.0443 -1.8156 0.9756
-2.6042 -5.2991 -1.8161 0.9756
-2.1236 -5.5180 -1.8186 0.9756
0.4810 -6.0339 -1.8618 0.9750
1.0258 -6.0140 -1.8765 0.9748
2.1180 -5.8435 -1.9117 0.9743
3.1932 -5.4939 -1.9545 0.9738
4.2241 -4.9616 -2.0042 0.9731
4.7134 -4.6268 -2.0315 0.9727
5.6186 -3.8221 -2.0901 0.9720
6.0241 -3.3535 -2.1206 0.9716
5.9353 -2.6404 -1.9981 0.9732
6.2405 -2.1318 -2.0284 0.9728
6.5027 -1.5899 -2.0590 0.9724
6.7176 -1.0181 -2.0898 0.9720
6.8811 -0.4204 -2.1204 0.9716
7.0383 0.8327 -2.1799 0.9708
6.5976 3.3956 -2.2823 0.9694
5.9370 3.7612 -2.1617 0.9710
3.0511 -5.0784 -1.9693 0.9753
4.4456 -4.2391 -2.0419 0.9744
5.2662 -3.4717 -2.0967 0.9738
5.6225 -3.0240 -2.1221 0.9734
5.8014 -1.8883 -2.0280 0.9746
6.3462 2.0402 -2.2158 0.9723
6.2002 2.6246 -2.2380 0.9720
5.9945 3.1960 -2.2581 0.9718
5.1324 4.0545 -2.1742 0.9728
3.9657 4.4905 -1.9914 0.9751
3.4443 4.6842 -1.9327 0.9758
2.9485 4.8675 -1.8917 0.9763
1.9985 5.2164 -1.8569 0.9767
1.0526 5.5607 -1.8812 0.9764
0.2782 2.8382 -0.9479 0.9881
0.0236 2.8420 -0.9447 0.9881
-0.4972 6.1183 -2.0405 0.9745
-1.0896 6.3297 -2.1350 0.9733
-2.7528 5.8682 -2.1546 0.9730
-4.0475 4.7395 -2.0717 0.9741
-4.9490 3.3556 -1.9876 0.9751
-5.1572 2.8607 -1.9604 0.9754
-5.8575 1.9911 -2.0565 0.9743
-5.9509 0.3545 -1.9816 0.9752
-5.8925 -0.1762 -1.9596 0.9755
-5.7923 -0.6942 -1.9392 0.9757
-5.2598 -2.1464 -1.8884 0.9763
-5.0116 -2.5890 -1.8750 0.9765
-4.7315 -3.0076 -1.8636 0.9766
-4.4213 -3.4004 -1.8541 0.9768
-3.7193 -4.1028 -1.8408 0.9769
-3.3314 -4.4095 -1.8370 0.9770
-2.4920 -4.9272 -1.8354 0.9770
-2.0445 -5.1359 -1.8375 0.9770
-1.5814 -5.3096 -1.8416 0.9769
-1.1046 -5.4472 -1.8475 0.9768
-0.6166 -5.5478 -1.8555 0.9767
-0.1195 -5.6103 -1.8653 0.9766
1.4013 -5.5604 -1.9061 0.9761
1.9092 -5.4621 -1.9233 0.9759
3.3941 -4.9143 -1.9853 0.9751
3.8650 -4.6468 -2.0091 0.9748
4.3179 -4.3369 -2.0343 0.9745
4.7489 -3.9854 -2.0608 0.9742
5.7273 -2.0301 -2.0198 0.9747
5.9677 -1.5318 -2.0480 0.9744
6.4128 0.1084 -2.1320 0.9733
6.4579 0.6890 -2.1588 0.9730
6.4468 1.2779 -2.1846 0.9727
6.3775 1.8689 -2.2091 0.9724
6.2488 2.4558 -2.2318 0.9721
5.8128 3.5898 -2.2710 0.9716
4.6948 4.2185 -2.0980 0.9737
4.1236 4.4317 -2.0122 0.9748
2.6073 4.9932 -1.8724 0.9765
2.1348 5.1665 -1.8582 0.9767
0.7068 5.6858 -1.9045 0.9761
-0.3343 6.0600 -2.0175 0.9747
-1.3667 5.7366 -1.9603 0.9754
-3.5358 5.2644 -2.1080 0.9736
-3.9385 4.8622 -2.0799 0.9740
-4.6117 3.9735 -2.0235 0.9747
-2.6679 1.5718 -1.0293 0.9870
-5.9173 1.6011 -2.0377 0.9745
-5.9614 1.0532 -2.0123 0.9748
-5.9139 -0.0232 -1.9658 0.9754
-5.8256 -0.5451 -1.9449 0.9756
-5.5296 -1.5428 -1.9083 0.9761
-4.8160 -2.8885 -1.8667 0.9766
-4.5144 -3.2890 -1.8566 0.9767
-3.8276 -4.0080 -1.8422 0.9769
-3.4465 -4.3236 -1.8379 0.9770
-3.0428 -4.6080 -1.8356 0.9770
0.2373 -5.6310 -1.8735 0.9765
0.7442 -5.6263 -1.8865 0.9764
1.2533 -5.5812 -1.9014 0.9762
2.7656 -5.1968 -1.9568 0.9755
3.2544 -4.9841 -1.9786 0.9752
3.7299 -4.7289 -2.0020 0.9749
5.9022 -1.6796 -2.0398 0.9745
6.2757 -0.6199 -2.0962 0.9738
6.3895 -0.0580 -2.1240 0.9734
6.4505 0.5192 -2.1511 0.9731
6.4559 1.1062 -2.1773 0.9728
5.8908 3.4299 -2.2659 0.9717
4.2848 4.3716 -2.0348 0.9745
3.7436 4.5731 -1.9645 0.9754
3.2341 4.7620 -1.9135 0.9760
2.2523 5.0734 -1.8451 0.9769
1.3305 5.4599 -1.8680 0.9766
0.8495 5.6342 -1.8940 0.9763
0.1678 2.7817 -0.9263 0.9883
-0.1749 6.0030 -1.9963 0.9750
-0.7388 6.2047 -2.0770 0.9740
-1.7240 5.6270 -1.9563 0.9755
-2.4617 6.0457 -2.1698 0.9729
-2.9551 5.7311 -2.1434 0.9732
-3.8259 4.9824 -2.0881 0.9739
-4.1979 4.5585 -2.0599 0.9742
-4.5252 4.1085 -2.0317 0.9746
-2.6327 1.6446 -1.0318 0.9870
-5.2307 2.6504 -1.9492 0.9756
-5.7890 2.3096 -2.0718 0.9741
-5.9534 1.2120 -2.0195 0.9747
-5.9648 0.6675 -1.9951 0.9750
-5.9316 0.1309 -1.9722 0.9753
-5.7383 -0.9068 -1.9311 0.9758
-5.5820 -1.4022 -1.9131 0.9760
-5.1599 -2.3346 -1.8826 0.9764
-4.8981 -2.7673 -1.8700 0.9766
-4.6051 -3.1753 -1.8594 0.9767
-4.2830 -3.5570 -1.8506 0.9768
-3.9339 -3.9107 -1.8438 0.9769
-3.5596 -4.2350 -1.8390 0.9770
-2.3066 -5.0188 -1.8360 0.9770
-1.8523 -5.2130 -1.8390 0.9770
-0.4093 -5.5787 -1.8594 0.9767
2.1208 -5.4085 -1.9311 0.9758
3.1136 -5.0503 -1.9721 0.9753
4.0571 -4.5221 -2.0195 0.9747
4.5013 -4.1947 -2.0452 0.9744
5.3149 -3.4171 -2.1003 0.9737
2.3270 -0.9636 -0.8372 0.9894
5.8330 -1.8249 -2.0316 0.9746
6.4384 0.3502 -2.1433 0.9732
5.9638 3.2680 -2.2605 0.9717
5.6918 3.8165 -2.2779 0.9715
5.0510 4.0851 -2.1594 0.9730
4.4497 4.3101 -2.0592 0.9742
3.8971 4.5161 -1.9828 0.9752
3.3795 4.7082 -1.9265 0.9759
2.4086 5.0662 -1.8647 0.9766
0.9907 5.5831 -1.8848 0.9764
-0.5703 6.1445 -2.0512 0.9743
-1.5542 5.5870 -1.9276 0.9759
-2.3118 6.1286 -2.1773 0.9728
-2.8155 5.8270 -2.1512 0.9731
-3.2825 5.4824 -2.1241 0.9734
-4.4348 4.2416 -2.0399 0.9745
-4.9783 3.2928 -1.9840 0.9752
-5.1806 2.7965 -1.9569 0.9755
-5.7431 2.4661 -2.0776 0.9740
-5.8701 1.9205 -2.0530 0.9743
-5.6314 -1.2601 -1.9182 0.9760
-5.2298 -2.2044 -1.8865 0.9764
-4.9774 -2.6440 -1.8735 0.9765
-3.6709 -4.1439 -1.8402 0.9769
-3.2800 -4.4466 -1.8367 0.9770
0.4492 -5.6339 -1.8787 0.9765
0.9573 -5.6124 -1.8925 0.9763
1.4666 -5.5501 -1.9082 0.9761
1.9741 -5.4465 -1.9257 0.9759
2.4769 -5.3008 -1.9449 0.9756
2.9717 -5.1129 -1.9658 0.9754
4.8024 -3.9374 -2.0643 0.9742
5.5696 -3.1005 -2.1189 0.9735
5.4850 -2.4401 -1.9955 0.9750
6.1864 -0.9376 -2.0799 0.9740
6.3296 -0.3867 -2.1079 0.9736
6.4217 0.1822 -2.1355 0.9733
6.4411 1.3537 -2.1878 0.9726
6.2280 2.5304 -2.2346 0.9721
5.7768 3.6597 -2.2731 0.9716
2.8501 -4.7438 -1.9790 0.9768
3.7294 -4.2539 -2.0230 0.9763
4.1426 -3.9502 -2.0470 0.9760
5.3803 -1.7512 -2.0234 0.9763
5.7504 -0.7863 -2.0755 0.9756
5.9310 1.3366 -2.1741 0.9745
5.8463 1.8794 -2.1960 0.9743
5.7073 2.4159 -2.2163 0.9740
5.5140 2.9398 -2.2346 0.9738
4.5175 4.2764 -2.2245 0.9739
3.7302 4.2238 -2.0152 0.9763
3.3032 4.4923 -1.9940 0.9766
0.2775 2.8311 -1.0173 0.9880
0.0223 2.6855 -0.9604 0.9887
-0.4965 6.1100 -2.1922 0.9743
-1.0471 6.0832 -2.2074 0.9741
-1.4853 5.5866 -2.0672 0.9757
-2.5415 5.4177 -2.1400 0.9749
-2.9801 5.1093 -2.1152 0.9752
-3.3830 4.7648 -2.0897 0.9755
-3.7478 4.3886 -2.0638 0.9758
-4.7945 2.6595 -1.9607 0.9770
-5.5327 1.3438 -2.0360 0.9761
-5.5061 -0.1646 -1.9699 0.9769
-5.4162 -0.6491 -1.9507 0.9771
-5.1246 -1.5743 -1.9171 0.9775
-4.4354 -2.8194 -1.8795 0.9779
-3.8300 -3.5324 -1.8632 0.9781
-3.1257 -4.1373 -1.8543 0.9782
-1.9183 -4.8188 -1.8547 0.9782
-1.4835 -4.9811 -1.8586 0.9782
-1.0361 -5.1092 -1.8643 0.9781
-0.5782 -5.2021 -1.8718 0.9780
0.3600 -5.2789 -1.8922 0.9778
0.8354 -5.2612 -1.9050 0.9776
1.3117 -5.2051 -1.9196 0.9775
2.2558 -4.9757 -1.9537 0.9771
4.4225 -3.7115 -2.0647 0.9758
5.1344 -2.9358 -2.1151 0.9752
5.3131 -1.8833 -2.0158 0.9763
5.8765 1.7221 -2.1898 0.9743
5.7533 2.2610 -2.2106 0.9741
5.5757 2.7892 -2.2295 0.9739
5.3444 3.3005 -2.2463 0.9737
4.1180 4.4258 -2.1618 0.9746
3.4169 4.4026 -1.9929 0.9766
2.1322 5.1601 -1.9966 0.9766
1.1591 3.7148 -1.3916 0.9836
1.1906 5.5032 -2.0135 0.9764
0.7059 5.6785 -2.0463 0.9760
0.0912 2.6599 -0.9518 0.9888
-0.3338 6.0519 -2.1675 0.9746
-0.8911 6.1243 -2.2132 0.9741
-1.3672 5.7386 -2.1096 0.9753
-2.8562 5.2028 -2.1225 0.9751
-3.9823 4.1052 -2.0453 0.9760
-4.2777 3.6857 -2.0192 0.9763
-4.5308 3.2470 -1.9934 0.9766
-2.6663 1.5709 -1.1067 0.9869
-5.4206 2.0011 -2.0663 0.9758
-5.5148 1.4922 -2.0431 0.9760
-5.5635 0.4767 -1.9968 0.9766
-5.5249 -0.0216 -1.9758 0.9768
-5.4463 -0.5096 -1.9561 0.9770
-5.3293 -0.9846 -1.9381 0.9772
-4.5142 -2.7075 -1.8824 0.9779
-4.2330 -3.0840 -1.8729 0.9780
-2.8551 -4.3238 -1.8529 0.9782
-2.4572 -4.5604 -1.8525 0.9782
-2.0419 -4.7653 -1.8540 0.9782
-1.6112 -4.9374 -1.8573 0.9782
-1.1673 -5.0755 -1.8624 0.9781
-0.2482 -5.2462 -1.8782 0.9779
1.1734 -5.2254 -1.9152 0.9775
1.6486 -5.1417 -1.9309 0.9773
2.5845 -4.8564 -1.9673 0.9769
3.0390 -4.6543 -1.9878 0.9767
3.9049 -4.1314 -2.0329 0.9761
4.3093 -3.8116 -2.0574 0.9759
2.3684 -0.9094 -0.9073 0.9893
5.8060 -0.5735 -2.0864 0.9755
5.9560 0.4794 -2.1368 0.9749
5.7947 2.1053 -2.2047 0.9741
5.6329 2.6372 -2.2242 0.9739
5.1484 3.6495 -2.2567 0.9735
4.2790 4.3657 -2.1860 0.9744
3.5339 4.3170 -1.9951 0.9766
3.1346 4.6155 -1.9952 0.9766
2.2495 5.0670 -1.9825 0.9767
1.7998 5.2816 -1.9954 0.9766
1.3289 5.4530 -2.0071 0.9764
-0.1747 5.9949 -2.1447 0.9748
-0.7336 6.1610 -2.2188 0.9740
-1.2692 6.0162 -2.1988 0.9742
-1.7213 5.6183 -2.1013 0.9753
-2.7293 5.2932 -2.1297 0.9750
-3.5406 4.6108 -2.0789 0.9756
-4.1962 3.8098 -2.0268 0.9762
-4.8647 2.4650 -1.9503 0.9771
-5.3805 2.1466 -2.0716 0.9757
-5.4933 1.6406 -2.0502 0.9759
-5.5670 0.6230 -2.0032 0.9765
-5.5403 0.1222 -1.9817 0.9767
-5.2241 -1.3123 -1.9262 0.9774
-5.0457 -1.7593 -1.9109 0.9776
-4.8339 -2.1871 -1.8974 0.9777
-2.5747 -4.4949 -1.8524 0.9782
-0.8454 -5.1524 -1.8672 0.9781
-0.3838 -5.2304 -1.8754 0.9780
0.0851 -5.2719 -1.8855 0.9779
1.0350 -5.2424 -1.9109 0.9776
1.5108 -5.1701 -1.9262 0.9774
2.9082 -4.7171 -1.9817 0.9767
3.3537 -4.4868 -2.0032 0.9765
3.7835 -4.2171 -2.0260 0.9762
4.5819 -3.5617 -2.0753 0.9756
4.9431 -3.1780 -2.1015 0.9753
5.2597 -2.7516 -2.1227 0.9751
2.3257 -0.9631 -0.9002 0.9894
5.4090 -1.6922 -2.0267 0.9762
5.8815 -0.2062 -2.1045 0.9753
5.9465 0.3235 -2.1297 0.9750
5.6855 2.4839 -2.2187 0.9740
5.2318 3.5081 -2.2526 0.9736
4.4436 4.3041 -2.2123 0.9741
2.8827 4.8842 -2.0282 0.9762
1.9359 5.2319 -1.9949 0.9766
1.0160 3.7435 -1.3871 0.9837
0.2424 2.8044 -1.0066 0.9881
-0.0091 2.8885 -1.0329 0.9878
-1.1155 6.0636 -2.2048 0.9741
-1.5525 5.5810 -2.0716 0.9757
-2.5996 5.3803 -2.1369 0.9749
-3.4320 4.7182 -2.0864 0.9755
-3.7917 4.3383 -2.0605 0.9758
-4.1111 3.9321 -2.0344 0.9761
-4.3889 3.5040 -2.0084 0.9764
-4.8168 2.6001 -1.9575 0.9770
-4.9667 2.1327 -1.9329 0.9773
-5.4680 1.7890 -2.0574 0.9759
-5.5393 1.2784 -2.0330 0.9761
-5.5670 0.7699 -2.0097 0.9764
-5.5523 0.2669 -1.9878 0.9767
-5.4967 -0.2274 -1.9673 0.9769
-5.4018 -0.7103 -1.9484 0.9771
-5.1011 -1.6313 -1.9152 0.9775
-4.6644 -2.4778 -1.8888 0.9778
-3.7876 -3.5746 -1.8624 0.9781
-3.4439 -3.8877 -1.8573 0.9782
-3.0776 -4.1721 -1.8540 0.9782
-2.2853 -4.6502 -1.8529 0.9782
-0.9779 -5.1231 -1.8651 0.9781
-0.5188 -5.2114 -1.8729 0.9780
0.4208 -5.2788 -1.8937 0.9778
0.8965 -5.2561 -1.9068 0.9776
1.3727 -5.1951 -1.9216 0.9774
3.2257 -4.5578 -1.9968 0.9766
3.6604 -4.2995 -2.0193 0.9763
4.0770 -4.0021 -2.0430 0.9760
4.4718 -3.6663 -2.0679 0.9757
4.8411 -3.2932 -2.0938 0.9754
5.0928 -2.2656 -1.9933 0.9766
5.3431 -1.8253 -2.0192 0.9763
5.5556 -1.3583 -2.0452 0.9760
5.8534 -0.3576 -2.0971 0.9754
5.9327 0.1683 -2.1224 0.9751
5.9621 0.7054 -2.1470 0.9748
5.8637 1.7916 -2.1926 0.9743
5.5490 2.8559 -2.2318 0.9738
3.4905 -3.9814 -2.0291 0.9776
3.8743 -3.6943 -2.0515 0.9773
4.2366 -3.3719 -2.0750 0.9771
4.8695 -2.6190 -2.1188 0.9766
5.0107 -1.6309 -2.0193 0.9777
5.3459 -0.7310 -2.0677 0.9772
5.4519 -0.2538 -2.0915 0.9769
5.5135 0.2365 -2.1148 0.9766
5.5285 0.7355 -2.1373 0.9764
5.4954 1.2384 -2.1587 0.9762
5.4129 1.7401 -2.1789 0.9759
5.2806 2.2353 -2.1975 0.9757
5.0986 2.7184 -2.2142 0.9756
4.5898 3.6259 -2.2415 0.9753
4.2670 4.0393 -2.2517 0.9751
3.7214 4.2138 -2.1544 0.9762
2.4630 5.0312 -2.1467 0.9763
1.9935 5.2033 -2.1353 0.9764
1.0415 3.6707 -1.4622 0.9838
0.2757 2.8129 -1.0831 0.9880
0.0222 2.6664 -1.0218 0.9886
-0.4664 5.7400 -2.2069 0.9756
-0.9692 5.6301 -2.1893 0.9758
-2.3576 5.0256 -2.1273 0.9765
-2.7667 4.7435 -2.1044 0.9768
-3.1435 4.4275 -2.0809 0.9770
-3.4856 4.0815 -2.0569 0.9773
-3.7908 3.7099 -2.0326 0.9775
-4.0580 3.3167 -2.0084 0.9778
-2.7599 1.5309 -1.2094 0.9866
-4.6235 2.0484 -1.9379 0.9786
-5.0941 1.7316 -2.0618 0.9772
-5.2059 0.3101 -1.9985 0.9779
-4.9638 -1.0511 -1.9444 0.9785
-4.8125 -1.4784 -1.9293 0.9787
-4.6286 -1.8888 -1.9158 0.9788
-4.4140 -2.2802 -1.9039 0.9789
-4.1702 -2.6508 -1.8937 0.9791
-3.2829 -3.6214 -1.8732 0.9793
-2.9412 -3.8930 -1.8698 0.9793
-2.5797 -4.1365 -1.8682 0.9793
-2.2003 -4.3506 -1.8683 0.9793
-0.1053 -4.9443 -1.8952 0.9790
0.7849 -4.9426 -1.9178 0.9788
1.2317 -4.8877 -1.9316 0.9786
1.6764 -4.7960 -1.9469 0.9785
2.1160 -4.6673 -1.9638 0.9783
2.5477 -4.5013 -1.9821 0.9781
3.3753 -4.0580 -2.0227 0.9776
4.1337 -3.4692 -2.0681 0.9771
4.4786 -3.1223 -2.0922 0.9769
4.7886 -2.7381 -2.1139 0.9766
4.7160 -2.1631 -1.9883 0.9780
4.9494 -1.7544 -2.0123 0.9778
5.1474 -1.3213 -2.0365 0.9775
5.3071 -0.8667 -2.0607 0.9772
5.5003 0.0930 -2.1081 0.9767
5.5291 0.5899 -2.1309 0.9765
5.1566 2.5796 -2.2096 0.9756
4.9398 3.0507 -2.2249 0.9754
3.3715 4.3441 -2.1073 0.9767
2.1295 5.1536 -2.1369 0.9764
0.7050 5.6711 -2.1900 0.9758
-0.8246 5.6671 -2.1946 0.9758
-1.3158 5.5230 -2.1757 0.9760
-1.7867 5.3331 -2.1554 0.9762
-2.2330 5.1006 -2.1338 0.9764
-2.6510 4.8292 -2.1111 0.9767
-3.3899 4.1849 -2.0639 0.9772
-3.9844 3.4330 -2.0155 0.9777
-4.2239 3.0270 -1.9914 0.9780
-4.5843 2.1752 -1.9445 0.9785
-5.0592 1.8677 -2.0667 0.9772
-5.1583 1.3957 -2.0478 0.9774
-5.2051 0.9196 -2.0256 0.9776
-5.1082 -0.4780 -1.9661 0.9783
-5.0014 -0.9240 -1.9491 0.9784
-4.6853 -1.7714 -1.9195 0.9788
-3.9807 -2.9002 -1.8874 0.9791
-3.6915 -3.2314 -1.8801 0.9792
-2.6867 -4.0687 -1.8685 0.9793
-2.3123 -4.2915 -1.8681 0.9793
-1.5160 -4.6455 -1.8726 0.9793
-1.0981 -4.7747 -1.8775 0.9792
-0.2333 -4.9328 -1.8924 0.9791
0.2090 -4.9600 -1.9025 0.9790
1.1020 -4.9074 -1.9274 0.9787
1.5475 -4.8264 -1.9423 0.9785
1.9889 -4.7085 -1.9588 0.9783
4.3810 -3.2266 -2.0851 0.9770
2.3720 -0.9108 -0.9737 0.9892
5.0937 -1.4495 -2.0295 0.9776
5.2648 -1.0008 -2.0537 0.9773
5.5256 0.4448 -2.1244 0.9765
5.5206 0.9460 -2.1464 0.9763
5.4669 1.4490 -2.1674 0.9761
5.0078 2.9158 -2.2207 0.9755
4.4599 3.8028 -2.2461 0.9752
4.1192 4.2027 -2.2551 0.9751
2.7393 4.9295 -2.1611 0.9761
1.2783 3.7512 -1.5187 0.9832
-0.1684 5.7809 -2.2163 0.9755
-1.6522 5.3928 -2.1614 0.9761
-2.5327 4.9118 -2.1178 0.9766
-2.9286 4.6150 -2.0946 0.9769
-3.6180 3.9288 -2.0467 0.9774
-3.9075 3.5476 -2.0225 0.9776
-4.1583 3.1466 -1.9984 0.9779
-2.6374 1.6476 -1.1917 0.9868
-5.1922 0.1146 -1.9902 0.9780
-5.1325 -0.3461 -1.9713 0.9782
-4.9045 -1.2320 -1.9379 0.9786
-4.3153 -2.4381 -1.8994 0.9790
-4.0600 -2.7995 -1.8899 0.9791
-3.7781 -3.1377 -1.8820 0.9792
-0.7952 -4.8463 -1.8820 0.9792
0.0800 -4.9557 -1.8994 0.9790
3.1408 -4.2021 -2.0104 0.9778
3.5408 -3.9466 -2.0319 0.9775
4.2813 -3.3280 -2.0781 0.9770
2.3244 -0.9625 -0.9641 0.9893
5.0368 -1.5758 -2.0224 0.9776
5.3619 -0.6707 -2.0708 0.9771
5.5181 0.3002 -2.1178 0.9766
5.5270 0.7999 -2.1401 0.9764
5.3987 1.8041 -2.1814 0.9759
4.5509 3.6806 -2.2430 0.9752
3.6570 4.2378 -2.1451 0.9763
3.1715 4.4184 -2.0843 0.9770
1.9335 5.2253 -2.1351 0.9764
1.0185 3.7527 -1.4901 0.9835
0.9882 5.5689 -2.1674 0.9761
-0.5317 5.7286 -2.2048 0.9757
-1.5158 5.4489 -2.1674 0.9761
-2.4118 4.9915 -2.1244 0.9765
-3.1894 4.3847 -2.0778 0.9770
-4.0895 3.2650 -2.0054 0.9778
-4.3125 2.8524 -1.9814 0.9781
-2.8729 1.5508 -1.2511 0.9861
-5.1083 1.6713 -2.0597 0.9772
-5.1829 1.1961 -2.0384 0.9775
-5.1537 -0.2133 -1.9767 0.9781
-4.9462 -1.1068 -1.9424 0.9785
-4.7907 -1.5321 -1.9275 0.9787
-4.6028 -1.9401 -1.9142 0.9788
-4.1370 -2.6968 -1.8925 0.9791
-3.8627 -3.0419 -1.8841 0.9792
-2.5320 -4.1656 -1.8681 0.9793
-1.7533 -4.5555 -1.8706 0.9793
-1.3423 -4.7036 -1.8745 0.9793
-0.9198 -4.8190 -1.8801 0.9792
-0.0487 -4.9485 -1.8964 0.9790
1.7331 -4.7816 -1.9490 0.9784
2.6023 -4.4773 -1.9846 0.9781
3.0216 -4.2694 -2.0044 0.9778
3.8134 -3.7434 -2.0478 0.9774
4.1794 -3.4266 -2.0711 0.9771
4.8246 -2.6858 -2.1161 0.9766
4.7478 -2.1121 -1.9914 0.9780
4.9768 -1.7001 -2.0154 0.9777
5.1701 -1.2641 -2.0396 0.9775
5.4377 -0.3322 -2.0877 0.9769
5.5294 0.6542 -2.1337 0.9764
5.5041 1.1568 -2.1553 0.9762
5.3055 2.1556 -2.1946 0.9758
5.1315 2.6410 -2.2116 0.9756
2.9012 -3.9758 -2.0144 0.9790
3.6348 -3.4659 -2.0556 0.9785
3.9719 -3.1612 -2.0776 0.9783
4.2848 -2.8247 -2.1004 0.9781
2.3246 -0.9940 -1.0347 0.9891
4.6833 -1.5244 -2.0158 0.9789
4.8545 -1.1126 -2.0383 0.9787
5.0839 -0.2366 -2.0830 0.9782
5.1375 0.2204 -2.1046 0.9780
5.1477 0.6849 -2.1254 0.9778
5.1133 1.1523 -2.1452 0.9776
