ply
format ascii 1.0
element vertex 1586
property float32 x
property float32 y
property float32 z
property float32 I
end_header
1.2197 5.9683 0.3777 0.9759
0.1438 6.2263 0.3862 0.9753
-1.0859 6.9314 0.4351 0.9723
-1.7523 7.0192 0.4486 0.9714
2.3568 -0.8935 0.1563 0.9899
11.2310 -2.0886 0.7084 0.9553
12.0653 -0.0649 0.7482 0.9528
10.9919 1.9222 0.6920 0.9563
9.2022 2.4713 0.5909 0.9625
8.1195 2.9787 0.5363 0.9659
7.0836 3.3423 0.4857 0.9691
4.9370 4.2315 0.4032 0.9743
4.3324 4.4417 0.3848 0.9754
3.8932 4.7781 0.3822 0.9756
3.2569 4.8177 0.3606 0.9770
2.8254 5.1084 0.3620 0.9769
1.8663 5.5077 0.3606 0.9770
-0.1928 6.3669 0.3950 0.9748
-0.8148 6.7843 0.4237 0.9730
11.4651 -1.5047 0.7170 0.9547
11.8878 -0.4906 0.7378 0.9534
12.3606 0.5938 0.7674 0.9516
9.7468 2.2462 0.6202 0.9607
8.5603 2.7964 0.5584 0.9646
5.8973 3.8932 0.4382 0.9721
4.5867 4.3768 0.3931 0.9749
2.5025 5.1566 0.3554 0.9773
2.0589 5.4275 0.3600 0.9770
1.1191 6.0103 0.3791 0.9758
0.0351 6.2717 0.3889 0.9752
-1.2173 6.9699 0.4388 0.9720
-4.9421 13.4804 0.8903 0.9441
2.3439 -0.9358 0.0995 0.9899
12.1414 -2.4786 0.4886 0.9516
11.5707 -1.3029 0.4591 0.9545
11.9762 -0.2741 0.4724 0.9532
11.9408 0.7936 0.4719 0.9532
11.0981 1.7411 0.4430 0.9560
8.3158 2.8866 0.3471 0.9654
6.4727 3.6427 0.2929 0.9707
5.7465 3.9470 0.2749 0.9725
5.0494 4.1768 0.2584 0.9741
3.9929 4.7290 0.2440 0.9755
3.4712 4.9459 0.2383 0.9761
2.9171 5.0630 0.2304 0.9769
1.5209 5.8352 0.2378 0.9761
0.4662 6.0841 0.2406 0.9759
-0.0806 6.3122 0.2489 0.9750
-1.3227 6.8307 0.2743 0.9725
-2.5180 1.9767 0.1262 0.9873
14.6176 -2.1793 0.5828 0.9426
8.7733 2.6970 0.3619 0.9639
7.6268 3.1126 0.3248 0.9676
6.7336 3.4777 0.2988 0.9701
5.2998 4.0728 0.2636 0.9736
4.1524 4.5745 0.2436 0.9756
3.0931 4.9492 0.2301 0.9769
1.7216 5.7516 0.2367 0.9763
1.2183 5.9613 0.2399 0.9759
0.1437 6.2186 0.2453 0.9754
-0.4277 6.4571 0.2552 0.9744
-1.0844 6.9220 0.2763 0.9723
-2.5892 1.8180 0.1247 0.9874
2.3567 -0.8934 0.0994 0.9900
10.9684 1.9181 0.4391 0.9564
9.1849 2.4667 0.3750 0.9626
8.1058 2.9737 0.3404 0.9660
7.0726 3.3371 0.3084 0.9692
3.2531 4.8121 0.2290 0.9770
2.8221 5.1026 0.2299 0.9769
1.8642 5.5014 0.2290 0.9770
1.4222 5.8763 0.2384 0.9761
0.8825 5.9105 0.2356 0.9764
0.3618 6.1276 0.2420 0.9757
-0.1926 6.3589 0.2509 0.9749
-1.4593 6.8878 0.2776 0.9722
-2.4984 1.8916 0.1236 0.9875
13.1955 -2.9472 0.5331 0.9473
11.4986 -1.5090 0.4573 0.9546
11.8860 -0.4905 0.4691 0.9535
11.3533 1.5681 0.4519 0.9552
9.7276 2.2417 0.3936 0.9608
7.4408 3.1898 0.3192 0.9681
5.1763 4.1240 0.2610 0.9739
4.1037 4.6829 0.2455 0.9754
3.5766 4.9021 0.2393 0.9760
2.4997 5.1507 0.2257 0.9773
1.1177 6.0032 0.2408 0.9759
0.5744 6.0389 0.2392 0.9760
0.0350 6.2639 0.2470 0.9752
-1.2176 6.9718 0.2791 0.9721
-1.8973 7.0708 0.2887 0.9711
-4.9373 13.4673 0.5656 0.9442
2.3415 -0.9349 0.0426 0.9900
15.1501 -0.3467 0.2560 0.9412
11.0963 1.7408 0.1897 0.9561
9.4251 2.3551 0.1641 0.9619
8.3016 2.8817 0.1484 0.9655
5.8574 4.0232 0.1200 0.9720
4.4591 4.4142 0.1060 0.9752
2.9138 5.0572 0.0986 0.9769
2.4332 5.2573 0.0979 0.9771
1.9559 5.4560 0.0979 0.9771
1.5192 5.8285 0.1017 0.9762
0.9805 5.8622 0.1004 0.9765
0.4656 6.0767 0.1029 0.9759
-0.0805 6.3043 0.1065 0.9751
-0.6910 6.7494 0.1146 0.9732
-1.3208 6.8214 0.1174 0.9726
11.7039 1.4082 0.1991 0.9539
7.6145 3.1076 0.1389 0.9676
6.1446 3.9037 0.1230 0.9713
5.2928 4.0674 0.1128 0.9736
4.6878 4.3190 0.1077 0.9748
4.1507 4.5725 0.1043 0.9756
3.0896 4.9435 0.0985 0.9769
2.5895 5.1062 0.0967 0.9774
1.7196 5.7450 0.1013 0.9763
1.2169 5.9544 0.1027 0.9760
0.6757 5.9892 0.1018 0.9762
0.1435 6.2110 0.1049 0.9755
-0.4272 6.4488 0.1092 0.9745
19.7487 -1.8743 0.3351 0.9237
14.8962 -0.0801 0.2516 0.9421
11.6374 0.9783 0.1973 0.9544
10.9451 1.9140 0.1877 0.9565
8.0922 2.9687 0.1456 0.9661
6.4467 3.7782 0.1262 0.9705
4.9243 4.2207 0.1096 0.9744
4.3217 4.4308 0.1045 0.9755
3.2493 4.8065 0.0980 0.9771
2.8189 5.0967 0.0984 0.9770
0.8815 5.9035 0.1008 0.9764
-0.1924 6.3509 0.1073 0.9749
-0.8153 6.7882 0.1155 0.9730
15.5213 -0.6406 0.2624 0.9397
12.7693 0.6134 0.2159 0.9501
9.7085 2.2373 0.1683 0.9609
7.4289 3.1847 0.1365 0.9682
6.5659 3.5380 0.1260 0.9706
3.5724 4.8963 0.1024 0.9760
2.4968 5.1448 0.0966 0.9774
1.6220 5.7857 0.1015 0.9762
1.1165 5.9962 0.1030 0.9759
0.0350 6.2562 0.1057 0.9753
-1.2171 6.9687 0.1195 0.9721
-1.8945 7.0606 0.1235 0.9712
11.9370 0.7934 -0.0674 0.9533
9.4071 2.3506 -0.0546 0.9620
8.2874 2.8767 -0.0494 0.9655
7.2297 3.2577 -0.0446 0.9688
5.8494 4.0177 -0.0400 0.9720
4.4535 4.4087 -0.0353 0.9752
3.4631 4.9343 -0.0339 0.9762
2.9104 5.0514 -0.0328 0.9770
2.4304 5.2513 -0.0326 0.9771
1.9537 5.4497 -0.0326 0.9771
0.9793 5.8554 -0.0334 0.9765
-1.3209 6.8217 -0.0391 0.9726
-2.0503 7.1163 -0.0417 0.9708
15.9994 -0.9411 -0.0902 0.9379
14.4481 0.4407 -0.0814 0.9438
8.7420 2.6873 -0.0515 0.9641
6.7136 3.4673 -0.0425 0.9702
4.6819 4.3136 -0.0358 0.9749
4.1489 4.5706 -0.0348 0.9756
2.1454 5.3699 -0.0326 0.9771
1.7177 5.7384 -0.0337 0.9763
0.1433 6.2034 -0.0349 0.9755
-0.4267 6.4406 -0.0363 0.9745
-1.0815 6.9035 -0.0393 0.9724
-2.5829 1.8136 -0.0178 0.9875
19.6725 -1.8670 -0.1113 0.9240
10.9219 1.9099 -0.0624 0.9566
8.0786 2.9637 -0.0484 0.9662
3.2455 4.8009 -0.0326 0.9771
2.3368 5.2902 -0.0326 0.9771
1.8599 5.4888 -0.0326 0.9771
0.3609 6.1128 -0.0345 0.9758
-2.5003 1.8931 -0.0177 0.9875
6.5563 3.5328 -0.0419 0.9706
5.9945 3.9573 -0.0404 0.9717
4.5696 4.3604 -0.0356 0.9751
4.0938 4.6717 -0.0350 0.9755
3.5682 4.8905 -0.0341 0.9761
3.0103 5.0098 -0.0329 0.9769
1.6201 5.7790 -0.0338 0.9763
-0.5607 6.6868 -0.0378 0.9735
-1.8918 7.0504 -0.0411 0.9712
2.3382 -0.9336 -0.0709 0.9900
11.7988 0.7842 -0.3330 0.9538
11.0926 1.7402 -0.3162 0.9561
6.4682 3.6402 -0.2090 0.9707
5.8415 4.0123 -0.1995 0.9720
3.9786 4.7120 -0.1736 0.9756
3.4590 4.9286 -0.1695 0.9762
2.9071 5.0456 -0.1640 0.9770
1.9514 5.4435 -0.1628 0.9771
1.5156 5.8151 -0.1692 0.9762
0.9782 5.8485 -0.1670 0.9766
-0.0803 6.2887 -0.1771 0.9751
14.4082 0.4395 -0.4059 0.9439
8.7850 2.7005 -0.2588 0.9639
6.0821 3.8640 -0.2029 0.9716
5.2789 4.0567 -0.1875 0.9737
4.1471 4.5686 -0.1737 0.9756
2.1429 5.3638 -0.1626 0.9772
1.7157 5.7318 -0.1685 0.9763
1.2141 5.9406 -0.1707 0.9760
0.1431 6.1958 -0.1745 0.9755
-0.4261 6.4324 -0.1815 0.9745
-1.0801 6.8943 -0.1965 0.9725
-1.7423 6.9793 -0.2026 0.9716
-2.5798 1.8114 -0.0888 0.9875
19.4124 -1.8423 -0.5491 0.9249
14.8916 -0.0800 -0.4193 0.9421
10.8988 1.9059 -0.3115 0.9567
7.0400 3.3217 -0.2192 0.9693
4.3112 4.4199 -0.1739 0.9756
3.8746 4.7553 -0.1727 0.9758
2.8124 5.0850 -0.1636 0.9770
2.3342 5.2842 -0.1627 0.9771
1.4173 5.8560 -0.1697 0.9762
0.8794 5.8896 -0.1677 0.9765
-0.1919 6.3351 -0.1785 0.9750
-0.8148 6.7841 -0.1924 0.9730
-2.5013 1.8938 -0.0883 0.9875
15.5166 -0.6404 -0.4373 0.9397
7.4054 3.1746 -0.2269 0.9683
6.5467 3.5276 -0.2094 0.9707
5.1561 4.1080 -0.1856 0.9740
4.5639 4.3550 -0.1776 0.9751
4.0889 4.6660 -0.1747 0.9755
3.5640 4.8848 -0.1703 0.9761
3.0069 5.0040 -0.1644 0.9769
0.0349 6.2408 -0.1757 0.9753
-0.5600 6.6782 -0.1887 0.9735
-4.9282 13.4423 -0.4031 0.9443
-9.2320 -9.4730 -0.6708 0.9484
15.1412 -0.3465 -0.7681 0.9411
11.7687 0.7822 -0.5982 0.9539
9.3713 2.3416 -0.4899 0.9621
8.3673 2.9045 -0.4492 0.9651
6.4667 3.6393 -0.3763 0.9707
5.8336 4.0068 -0.3589 0.9721
5.0234 4.1553 -0.3306 0.9742
4.4425 4.3979 -0.3170 0.9753
3.9738 4.7064 -0.3124 0.9756
3.4550 4.9228 -0.3050 0.9762
2.4248 5.2393 -0.2928 0.9771
1.9492 5.4373 -0.2929 0.9771
1.5139 5.8084 -0.3044 0.9762
0.9771 5.8417 -0.3004 0.9766
0.4639 6.0549 -0.3080 0.9760
-0.0802 6.2809 -0.3186 0.9752
-0.6883 6.7232 -0.3427 0.9733
-2.0443 7.0956 -0.3745 0.9709
15.8606 -0.9329 -0.8057 0.9383
11.6229 1.3984 -0.5937 0.9542
8.7833 2.7000 -0.4660 0.9639
7.5776 3.0926 -0.4151 0.9678
6.6936 3.4570 -0.3821 0.9703
5.2720 4.0514 -0.3372 0.9737
1.7137 5.7253 -0.3031 0.9763
1.2126 5.9337 -0.3071 0.9760
0.6733 5.9679 -0.3046 0.9762
0.1430 6.1882 -0.3139 0.9755
19.3380 -1.8353 -0.9851 0.9252
14.8893 -0.0800 -0.7551 0.9421
10.8758 1.9018 -0.5599 0.9567
6.4191 3.7620 -0.3773 0.9706
5.5309 3.9432 -0.3445 0.9732
4.3059 4.4145 -0.3127 0.9756
3.8700 4.7497 -0.3107 0.9758
2.8092 5.0792 -0.2944 0.9770
2.3315 5.2781 -0.2926 0.9772
0.8784 5.8827 -0.3016 0.9765
-1.4512 6.8497 -0.3551 0.9723
-2.5023 1.8946 -0.1592 0.9875
-9.4413 -9.3384 -0.6735 0.9482
15.5142 -0.6403 -0.7875 0.9397
12.2329 0.5876 -0.6211 0.9521
9.6516 2.2242 -0.5023 0.9611
8.6611 2.8293 -0.4621 0.9642
7.3936 3.1696 -0.4080 0.9683
5.9780 3.9464 -0.3633 0.9717
4.5582 4.3496 -0.3195 0.9751
2.0472 5.3965 -0.2927 0.9771
1.6164 5.7658 -0.3037 0.9763
0.0348 6.2331 -0.3161 0.9753
-0.5593 6.6696 -0.3394 0.9735
-1.2121 6.9405 -0.3573 0.9722
-1.8864 7.0301 -0.3691 0.9713
-4.9274 13.4402 -0.7260 0.9443
-9.1965 -9.4365 -0.9661 0.9485
-9.5386 -14.1229 -1.2496 0.9339
-8.2328 -14.9005 -1.2482 0.9340
-6.8869 -15.6089 -1.2509 0.9339
-5.4982 -16.2489 -1.2578 0.9335
-2.5789 -17.3228 -1.2841 0.9322
-1.0405 -17.7542 -1.3040 0.9312
2.2169 -18.3919 -1.3583 0.9284
3.9467 -18.5892 -1.3934 0.9266
5.7520 -18.6973 -1.4343 0.9245
15.1389 -0.3465 -1.1103 0.9411
11.7387 0.7802 -0.8626 0.9539
11.0889 1.7396 -0.8230 0.9560
9.3534 2.3372 -0.7069 0.9621
6.4652 3.6385 -0.5440 0.9707
5.8257 4.0014 -0.5182 0.9721
2.4221 5.2333 -0.4228 0.9771
1.9470 5.4311 -0.4230 0.9771
1.5122 5.8017 -0.4396 0.9762
0.4634 6.0476 -0.4447 0.9760
-0.0801 6.2731 -0.4600 0.9752
-1.3220 6.8270 -0.5099 0.9725
-2.0413 7.0852 -0.5406 0.9709
-19.1032 -4.4110 -1.4375 0.9244
-17.0528 -7.3190 -1.3606 0.9283
-15.9719 -8.6152 -1.3306 0.9298
-14.8564 -9.8167 -1.3056 0.9311
-13.7069 -10.9300 -1.2854 0.9321
-12.5235 -11.9606 -1.2698 0.9329
-11.3058 -12.9128 -1.2584 0.9335
-10.0526 -13.7905 -1.2513 0.9338
-7.4329 -15.3324 -1.2493 0.9339
-4.6458 -16.5990 -1.2638 0.9332
-3.1817 -17.1293 -1.2774 0.9325
3.2427 -18.5202 -1.3786 0.9274
5.0169 -18.6651 -1.4171 0.9254
6.8707 -18.7160 -1.4618 0.9232
14.3290 0.4371 -1.0511 0.9441
8.7817 2.6995 -0.6736 0.9638
6.6836 3.4519 -0.5516 0.9703
5.2650 4.0461 -0.4869 0.9737
2.5777 5.0829 -0.4179 0.9774
1.7118 5.7187 -0.4377 0.9763
1.2112 5.9268 -0.4435 0.9760
0.1428 6.1806 -0.4533 0.9755
-1.0772 6.8759 -0.5103 0.9725
-19.4957 -3.7707 -1.4560 0.9234
-18.5065 -5.3277 -1.4120 0.9257
-17.4771 -6.7696 -1.3742 0.9276
-16.4106 -8.1060 -1.3420 0.9292
-14.1729 -10.4928 -1.2930 0.9317
-13.0032 -11.5560 -1.2755 0.9326
-7.9721 -15.0449 -1.2484 0.9340
-6.6180 -15.7398 -1.2519 0.9338
-2.2815 -17.4131 -1.2877 0.9320
-0.7320 -17.8303 -1.3085 0.9309
0.8769 -18.1731 -1.3340 0.9296
4.2947 -18.6177 -1.4009 0.9262
6.1156 -18.7074 -1.4431 0.9241
2.3596 -0.8945 -0.1850 0.9899
14.8870 -0.0800 -1.0916 0.9420
11.6299 0.9777 -0.8557 0.9543
6.4100 3.7566 -0.5448 0.9706
4.8992 4.1991 -0.4731 0.9745
4.3006 4.4090 -0.4516 0.9756
3.8654 4.7440 -0.4487 0.9758
2.8060 5.0733 -0.4251 0.9770
2.3289 5.2721 -0.4226 0.9771
1.8535 5.4700 -0.4235 0.9771
0.8773 5.8758 -0.4356 0.9765
-0.1914 6.3192 -0.4636 0.9750
-2.5033 1.8953 -0.2302 0.9875
-18.9091 -4.7163 -1.4289 0.9248
-17.8954 -6.2033 -1.3887 0.9268
-16.8436 -7.5810 -1.3543 0.9286
-9.4229 -9.3202 -0.9718 0.9482
-1.3617 -17.6714 -1.2995 0.9314
0.2227 -18.0444 -1.3232 0.9302
5.3741 -18.6827 -1.4254 0.9250
2.3671 -0.9959 -0.1883 0.9898
14.1580 -3.1621 -1.0637 0.9435
15.5118 -0.6402 -1.1383 0.9396
9.6327 2.2199 -0.7248 0.9611
8.6459 2.8244 -0.6669 0.9642
7.3819 3.1645 -0.5889 0.9683
6.5275 3.5173 -0.5437 0.9707
5.9698 3.9410 -0.5245 0.9717
4.5525 4.3441 -0.4614 0.9751
4.0791 4.6548 -0.4538 0.9755
3.5556 4.8734 -0.4423 0.9761
2.9999 4.9925 -0.4271 0.9769
2.4854 5.1213 -0.4174 0.9774
0.0348 6.2254 -0.4565 0.9753
-1.2105 6.9311 -0.5159 0.9722
-4.9300 13.4472 -1.0502 0.9442
-18.3076 -5.6193 -1.4042 0.9261
-17.2708 -7.0398 -1.3675 0.9279
-16.1972 -8.3565 -1.3364 0.9295
-15.0887 -9.5769 -1.3104 0.9308
-12.7698 -11.7551 -1.2726 0.9328
-11.5592 -12.7231 -1.2604 0.9334
-7.7097 -15.1866 -1.2488 0.9340
-4.9410 -16.4813 -1.2616 0.9333
-1.9820 -17.5007 -1.2914 0.9318
-0.4213 -17.9035 -1.3131 0.9307
1.1999 -18.2312 -1.3396 0.9293
2.8869 -18.4795 -1.3714 0.9277
6.4824 -18.7136 -1.4521 0.9236
-9.1392 -9.3778 -1.2571 0.9487
-8.5073 -10.4501 -1.2937 0.9473
-4.3269 -12.7874 -1.2960 0.9472
-3.1934 -13.2193 -1.3056 0.9468
-0.8142 -13.8928 -1.3361 0.9456
0.4341 -14.1300 -1.3572 0.9448
1.7232 -14.2965 -1.3825 0.9438
3.0548 -14.3883 -1.4121 0.9426
9.4788 -14.9129 -1.6964 0.9315
14.6508 -13.2934 -1.8992 0.9236
2.3350 -0.9323 -0.2414 0.9899
15.1004 -0.3456 -1.4501 0.9411
11.7087 0.7782 -1.1266 0.9539
11.0841 1.7389 -1.0771 0.9559
8.3440 2.8964 -0.8480 0.9651
5.7745 3.9663 -0.6726 0.9722
3.4469 4.9113 -0.5760 0.9762
1.9448 5.4249 -0.5533 0.9771
0.4628 6.0404 -0.5816 0.9760
-1.3223 6.8288 -0.6678 0.9724
-18.5992 4.1457 -1.8294 0.9263
-17.1275 -0.8301 -1.6463 0.9334
-16.4878 -2.2844 -1.5980 0.9353
-15.7869 -3.6452 -1.5555 0.9370
-13.3719 -7.2128 -1.4586 0.9408
-11.5393 -9.2016 -1.4169 0.9424
-7.9175 -10.8615 -1.2904 0.9474
-5.8556 -12.0788 -1.2887 0.9475
-4.7723 -12.5965 -1.2932 0.9473
-3.6534 -13.0532 -1.3013 0.9470
-2.4979 -13.4477 -1.3131 0.9465
-1.3047 -13.7784 -1.3287 0.9459
-0.0725 -14.0429 -1.3482 0.9451
1.2001 -14.2383 -1.3718 0.9442
13.9328 -13.5842 -1.8682 0.9248
15.7680 -0.9275 -1.5164 0.9385
14.2896 0.4359 -1.3725 0.9442
11.4793 1.3812 -1.1100 0.9546
8.7800 2.6990 -0.8819 0.9638
7.5531 3.0826 -0.7832 0.9677
6.6737 3.4467 -0.7211 0.9703
6.0567 3.8479 -0.6889 0.9716
5.2581 4.0408 -0.6366 0.9737
4.1418 4.5628 -0.5916 0.9755
3.6520 4.8257 -0.5810 0.9760
3.0717 4.9150 -0.5564 0.9770
2.5747 5.0770 -0.5465 0.9774
2.1356 5.3455 -0.5526 0.9771
1.2098 5.9199 -0.5801 0.9760
-0.4245 6.4079 -0.6165 0.9745
-1.0757 6.8667 -0.6673 0.9725
-2.5704 1.8049 -0.3015 0.9875
-17.9072 1.3760 -1.7242 0.9304
-17.3658 -0.2181 -1.6673 0.9326
-16.0755 -3.1092 -1.5719 0.9363
-13.7200 -6.7770 -1.4691 0.9404
-12.8411 -7.8384 -1.4443 0.9413
-10.2108 -9.0744 -1.3115 0.9466
-7.3154 -11.2509 -1.2884 0.9475
-5.2119 -12.3957 -1.2910 0.9474
-4.1075 -12.8770 -1.2976 0.9471
-2.9668 -13.2967 -1.3079 0.9467
-0.5725 -13.9447 -1.3399 0.9455
0.6837 -14.1683 -1.3618 0.9446
3.3211 -14.3972 -1.4185 0.9424
4.7052 -14.3929 -1.4538 0.9410
19.1903 -1.8213 -1.8506 0.9255
14.8847 -0.0800 -1.4290 0.9419
11.6280 0.9776 -1.1203 0.9542
10.8298 1.8938 -1.0555 0.9568
9.0826 2.4392 -0.9029 0.9629
8.1904 3.0047 -0.8376 0.9656
6.4008 3.7513 -0.7123 0.9706
5.5161 3.9326 -0.6504 0.9731
4.8929 4.1938 -0.6187 0.9744
4.2953 4.4036 -0.5906 0.9756
3.8608 4.7384 -0.5868 0.9757
2.3262 5.2661 -0.5527 0.9771
1.8514 5.4637 -0.5538 0.9771
0.8763 5.8689 -0.5697 0.9764
0.3591 6.0833 -0.5850 0.9758
-0.8056 6.7074 -0.6486 0.9732
-1.4472 6.8307 -0.6703 0.9723
-18.1025 2.0462 -1.7490 0.9294
-17.5925 0.4102 -1.6894 0.9317
-17.0072 -1.1230 -1.6363 0.9338
-15.6428 -3.9016 -1.5478 0.9373
-14.0608 -6.3286 -1.4803 0.9399
-13.1995 -7.4210 -1.4538 0.9410
-9.3788 -9.2766 -1.2665 0.9484
-8.7073 -10.3035 -1.2951 0.9472
-6.7009 -11.6187 -1.2877 0.9475
-4.5557 -12.6909 -1.2945 0.9473
-3.4297 -13.1355 -1.3033 0.9469
-2.2668 -13.5176 -1.3159 0.9464
0.1739 -14.0868 -1.3525 0.9450
2.7773 -14.3758 -1.4057 0.9429
5.9623 -15.4025 -1.5856 0.9358
9.1404 -14.9812 -1.6848 0.9319
2.3512 -0.9892 -0.2449 0.9898
14.1321 -3.1564 -1.3902 0.9435
12.1681 0.5845 -1.1695 0.9522
11.2011 1.5471 -1.0856 0.9556
9.6139 2.2155 -0.9472 0.9611
7.3701 3.1595 -0.7698 0.9683
5.9173 3.9064 -0.6807 0.9719
3.5515 4.8676 -0.5785 0.9761
2.9965 4.9867 -0.5585 0.9769
2.0425 5.3842 -0.5529 0.9771
1.6127 5.7525 -0.5736 0.9763
1.1100 5.9613 -0.5822 0.9759
0.2839 2.9846 -0.2878 0.9880
0.0348 6.2177 -0.5969 0.9753
-0.5537 6.6031 -0.6362 0.9737
-18.6708 4.5231 -1.8443 0.9257
-18.2840 2.7340 -1.7749 0.9284
-17.8071 1.0551 -1.7126 0.9308
-15.9358 -3.3726 -1.5638 0.9366
-15.1907 -4.6625 -1.5255 0.9381
-14.3944 -5.8674 -1.4923 0.9394
-13.5510 -6.9912 -1.4639 0.9406
-11.7354 -9.0104 -1.4204 0.9423
-10.0311 -9.2340 -1.3089 0.9467
-9.0939 -10.0095 -1.2983 0.9471
-7.1152 -11.3739 -1.2880 0.9475
-3.8866 -12.9643 -1.2994 0.9471
-1.5534 -13.7156 -1.3252 0.9460
-0.3293 -13.9940 -1.3439 0.9453
2.2405 -14.3417 -1.3936 0.9433
3.5891 -14.4029 -1.4250 0.9421
5.3477 -15.4378 -1.5685 0.9365
10.1299 -14.7686 -1.7193 0.9306
-7.3615 -9.0426 -1.3851 0.9541
-6.5054 -9.6319 -1.3806 0.9543
-5.6165 -10.1652 -1.3795 0.9543
-4.6956 -10.6423 -1.3817 0.9542
-1.7459 -11.7274 -1.4084 0.9534
0.3731 -12.1466 -1.4435 0.9522
1.5135 -12.5562 -1.5023 0.9503
2.7742 -13.0666 -1.5867 0.9476
4.0504 -13.1661 -1.6363 0.9460
5.3277 -13.0464 -1.6740 0.9448
6.6331 -12.8365 -1.7163 0.9435
7.9644 -12.5302 -1.7636 0.9419
10.6921 -11.6001 -1.8740 0.9384
16.2482 -8.2355 -2.1638 0.9293
2.3340 -0.9319 -0.2985 0.9899
17.5570 -5.2512 -2.1768 0.9288
18.7208 -3.8217 -2.2696 0.9259
15.0532 -0.3445 -1.7886 0.9412
8.3244 2.8896 -1.0467 0.9651
5.0040 4.1392 -0.7714 0.9742
2.4165 5.2213 -0.6834 0.9771
1.9425 5.4187 -0.6838 0.9771
-0.6856 6.6970 -0.7997 0.9732
-14.4271 13.5701 -2.3527 0.9233
-15.3173 9.9547 -2.1700 0.9291
-15.6160 6.5620 -2.0121 0.9340
-15.5789 4.9656 -1.9423 0.9363
-15.4343 3.4403 -1.8784 0.9383
-14.4594 -0.7008 -1.7196 0.9434
-13.9831 -1.9374 -1.6769 0.9447
-13.4430 -3.1040 -1.6389 0.9459
-12.8449 -4.2022 -1.6054 0.9470
-12.1934 -5.2334 -1.5762 0.9480
-11.4929 -6.1992 -1.5511 0.9488
-9.9578 -7.9405 -1.5129 0.9500
-8.7462 -8.3531 -1.4366 0.9525
-7.6961 -8.7900 -1.3878 0.9540
-6.8534 -9.4018 -1.3820 0.9542
-0.0624 -12.0830 -1.4353 0.9525
2.2508 -12.8549 -1.5502 0.9488
3.5454 -13.1902 -1.6224 0.9465
8.7718 -12.2982 -1.7944 0.9410
10.1381 -11.8232 -1.8500 0.9392
11.5204 -11.2322 -1.9113 0.9372
12.9129 -10.5168 -1.9782 0.9351
14.3078 -9.6679 -2.0512 0.9328
15.8349 -6.9907 -2.0561 0.9327
17.0723 -5.7809 -2.1411 0.9300
18.2611 -4.4155 -2.2317 0.9271
14.2502 0.4347 -1.6935 0.9442
11.3538 1.3661 -1.3584 0.9550
9.5860 2.0331 -1.1640 0.9613
7.5409 3.0776 -0.9675 0.9677
6.0483 3.8425 -0.8512 0.9715
5.2511 4.0354 -0.7867 0.9737
4.6526 4.2866 -0.7515 0.9748
3.0682 4.9093 -0.6877 0.9770
2.1331 5.3393 -0.6830 0.9771
1.2084 5.9129 -0.7169 0.9760
-0.4240 6.3997 -0.7619 0.9745
-1.0743 6.8574 -0.8245 0.9724
-14.7625 12.4701 -2.2955 0.9251
-15.5979 7.2231 -2.0418 0.9331
-15.5046 4.0447 -1.9034 0.9375
-15.0069 1.1531 -1.7879 0.9412
-13.0920 -3.7689 -1.6183 0.9466
-11.7801 -5.8188 -1.5607 0.9485
-11.0519 -6.7463 -1.5381 0.9492
-9.3061 -8.2704 -1.4789 0.9511
-7.1962 -9.1626 -1.3839 0.9542
-6.3336 -9.7410 -1.3802 0.9543
-5.4384 -10.2633 -1.3797 0.9543
-4.5112 -10.7292 -1.3826 0.9542
-2.5634 -11.4888 -1.3983 0.9537
-1.5434 -11.7797 -1.4112 0.9533
-0.4930 -12.0088 -1.4277 0.9527
0.5880 -12.1853 -1.4491 0.9520
4.2987 -13.1495 -1.6433 0.9458
5.5816 -13.0125 -1.6819 0.9446
6.8922 -12.7842 -1.7252 0.9432
9.5867 -12.0276 -1.8270 0.9399
10.9633 -11.4842 -1.8860 0.9380
13.7474 -10.0257 -2.0211 0.9338
15.1392 -9.0926 -2.0977 0.9313
16.5166 -8.0113 -2.1806 0.9287
14.8824 -0.0800 -1.7678 0.9418
10.1834 1.7808 -1.2280 0.9592
8.9607 2.4065 -1.1021 0.9633
6.3916 3.7459 -0.8800 0.9706
5.5086 3.9273 -0.8036 0.9731
4.8867 4.1884 -0.7645 0.9744
3.8562 4.7327 -0.7252 0.9757
2.7995 5.0617 -0.6871 0.9770
2.3235 5.2601 -0.6831 0.9771
1.8493 5.4574 -0.6845 0.9771
1.4108 5.8289 -0.7124 0.9761
0.8752 5.8619 -0.7040 0.9764
-0.1909 6.3034 -0.7491 0.9749
-1.4452 6.8212 -0.8283 0.9723
-15.5596 7.8949 -2.0726 0.9321
-15.3943 3.1495 -1.8665 0.9387
-14.3713 -0.9489 -1.7108 0.9436
-13.8820 -2.1717 -1.6690 0.9450
-10.5953 -7.2707 -1.5264 0.9496
-8.5155 -8.4226 -1.4227 0.9529
-7.5335 -8.9144 -1.3864 0.9541
-4.8876 -10.5488 -1.3810 0.9542
-3.9418 -10.9807 -1.3858 0.9541
-2.9648 -11.3549 -1.3940 0.9538
-1.9570 -11.6700 -1.4056 0.9535
0.1496 -12.1153 -1.4392 0.9524
1.2699 -12.4574 -1.4874 0.9508
2.5032 -12.9570 -1.5676 0.9482
3.7913 -13.1802 -1.6291 0.9463
5.0625 -13.0782 -1.6658 0.9451
6.3623 -12.8873 -1.7072 0.9438
7.6884 -12.6015 -1.7535 0.9423
10.4082 -11.7167 -1.8616 0.9388
11.7930 -11.1020 -1.9239 0.9368
13.1866 -10.3611 -1.9921 0.9347
14.1238 -3.1545 -1.7190 0.9434
19.5910 -2.5711 -2.3471 0.9235
9.3491 2.1545 -1.1396 0.9621
8.5519 2.7937 -1.0687 0.9644
7.3584 3.1544 -0.9510 0.9683
5.1293 4.0866 -0.7790 0.9739
4.5412 4.3333 -0.7456 0.9750
4.0692 4.6436 -0.7334 0.9754
3.5473 4.8619 -0.7149 0.9760
2.9930 4.9809 -0.6903 0.9769
1.6109 5.7458 -0.7088 0.9762
0.2808 2.9515 -0.3522 0.9881
0.0347 6.2100 -0.7377 0.9753
-0.5571 6.6439 -0.7920 0.9735
-1.2072 6.9123 -0.8335 0.9721
-1.8782 6.9998 -0.8609 0.9712
-14.8592 12.1125 -2.2772 0.9257
-15.2551 10.3175 -2.1876 0.9285
-15.5002 8.5772 -2.1043 0.9311
-15.4723 3.7482 -1.8911 0.9379
-15.2501 2.2803 -1.8316 0.9398
-14.9394 0.8852 -1.7777 0.9415
-13.5591 -2.8696 -1.6463 0.9457
-11.6409 -6.0058 -1.5560 0.9486
-10.9038 -6.9208 -1.5341 0.9493
-10.1235 -7.7729 -1.5161 0.9499
-9.0132 -8.2970 -1.4552 0.9519
-7.8848 -8.6788 -1.3928 0.9539
-7.0296 -9.2805 -1.3829 0.9542
-6.1605 -9.8478 -1.3798 0.9543
-5.2590 -10.3591 -1.3800 0.9543
-2.3657 -11.5506 -1.4005 0.9536
-0.2834 -12.0463 -1.4313 0.9526
1.9919 -12.7501 -1.5329 0.9493
7.1524 -12.7282 -1.7343 0.9429
8.4931 -12.3823 -1.7836 0.9413
12.6259 -10.6746 -1.9640 0.9356
16.7505 -7.7655 -2.1931 0.9283
-7.7316 -7.9334 -1.5696 0.9562
-6.9594 -8.5488 -1.5619 0.9564
-5.3123 -9.6147 -1.5564 0.9566
-2.6067 -10.7905 -1.5729 0.9561
-1.6472 -11.0647 -1.5850 0.9558
-0.6609 -11.2772 -1.6006 0.9554
0.3510 -11.4257 -1.6197 0.9549
4.6229 -11.3204 -1.7326 0.9518
9.1332 -9.9089 -1.9094 0.9470
10.2675 -9.3162 -1.9644 0.9455
13.5732 -6.8797 -2.1561 0.9404
2.3329 -0.9314 -0.3559 0.9899
14.4665 -4.3268 -2.1395 0.9408
11.6487 0.7742 -1.6541 0.9539
10.7903 1.6928 -1.5476 0.9568
9.1389 2.2836 -1.3347 0.9627
7.8892 2.7385 -1.1832 0.9668
7.0522 3.1777 -1.0960 0.9692
5.8018 3.9850 -0.9973 0.9720
4.3422 4.2986 -0.8657 0.9756
3.9548 4.6838 -0.8686 0.9755
2.8903 5.0165 -0.8203 0.9769
2.4137 5.2153 -0.8143 0.9771
1.9403 5.4124 -0.8147 0.9770
0.9796 5.8566 -0.8413 0.9763
-0.0798 6.2496 -0.8856 0.9751
-2.0079 6.9692 -1.0276 0.9711
-9.4241 15.4313 -2.5619 0.9296
-11.2161 12.6153 -2.3918 0.9341
-11.8813 11.1755 -2.3111 0.9362
-13.0514 6.9121 -2.0926 0.9421
-13.2373 4.2192 -1.9686 0.9454
-13.1796 2.9377 -1.9132 0.9469
-13.0327 1.7047 -1.8623 0.9483
-12.8043 0.5229 -1.8157 0.9495
-12.5015 -0.6059 -1.7734 0.9507
-12.1305 -1.6807 -1.7352 0.9517
-11.6971 -2.7009 -1.7010 0.9527
-8.0317 -7.6707 -1.5736 0.9561
-7.2741 -8.3080 -1.5646 0.9564
-3.9032 -10.3025 -1.5610 0.9565
-2.0362 -10.9618 -1.5797 0.9560
-1.0605 -11.1994 -1.5939 0.9556
-0.0587 -11.3739 -1.6116 0.9551
0.9678 -11.4828 -1.6328 0.9545
2.0176 -11.5233 -1.6576 0.9538
4.1796 -11.3855 -1.7185 0.9522
5.2871 -11.1993 -1.7548 0.9512
6.4084 -10.9293 -1.7951 0.9501
8.6762 -10.1183 -1.8885 0.9476
10.9416 -8.9113 -1.9994 0.9446
13.1449 -7.2665 -2.1281 0.9411
13.1761 -5.8169 -2.0407 0.9435
14.1079 -4.7771 -2.1104 0.9416
15.7771 -2.3522 -2.2602 0.9376
15.7632 -0.9272 -2.2373 0.9382
14.2108 0.4335 -2.0145 0.9442
11.5156 1.3855 -1.6434 0.9542
7.3423 2.9965 -1.1236 0.9685
6.6466 3.4327 -1.0599 0.9702
6.0398 3.8371 -1.0139 0.9715
5.2442 4.0301 -0.9371 0.9736
4.6467 4.2811 -0.8952 0.9748
4.1383 4.5588 -0.8724 0.9754
3.0646 4.9035 -0.8193 0.9769
2.1307 5.3332 -0.8137 0.9771
1.2070 5.9060 -0.8541 0.9759
0.1423 6.1579 -0.8727 0.9754
-0.4234 6.3915 -0.9076 0.9745
-1.0651 6.7991 -0.9751 0.9726
-6.4161 18.4967 -2.7740 0.9240
-10.0266 14.6046 -2.5100 0.9309
-11.6317 11.7549 -2.3431 0.9354
-12.2098 10.3139 -2.2646 0.9375
-13.2139 3.4471 -1.9349 0.9463
-13.1019 2.1942 -1.8823 0.9477
-12.6317 -0.1587 -1.7899 0.9502
-12.2874 -1.2553 -1.7501 0.9513
-11.8785 -2.2975 -1.7142 0.9523
-10.8873 -4.2171 -1.6543 0.9539
-9.0303 -6.6855 -1.5920 0.9556
-7.5830 -8.0584 -1.5678 0.9563
-6.8038 -8.6631 -1.5608 0.9565
-5.1437 -9.7073 -1.5566 0.9566
-3.3577 -10.5265 -1.5655 0.9563
-2.4207 -10.8490 -1.5750 0.9561
-1.4558 -11.1113 -1.5878 0.9557
0.5524 -11.4471 -1.6238 0.9548
2.6559 -11.5135 -1.6742 0.9534
5.9563 -11.0482 -1.7784 0.9506
7.0841 -10.7258 -1.8213 0.9494
8.2191 -10.3117 -1.8684 0.9481
9.3562 -9.8008 -1.9198 0.9467
10.4891 -9.1877 -1.9757 0.9452
11.6103 -8.4671 -2.0360 0.9436
12.7107 -7.6341 -2.1008 0.9419
15.4670 -2.8764 -2.2291 0.9384
16.2107 -1.5385 -2.3072 0.9363
11.6242 0.9772 -1.6528 0.9540
8.8582 2.3789 -1.2996 0.9636
6.9168 3.2636 -1.0837 0.9696
4.8804 4.1830 -0.9107 0.9744
3.2229 4.7674 -0.8154 0.9770
2.3209 5.2540 -0.8138 0.9771
1.4091 5.8222 -0.8488 0.9761
-0.1907 6.2954 -0.8924 0.9749
-0.8094 6.7396 -0.9618 0.9729
-1.4431 6.8117 -0.9866 0.9723
-2.1502 7.0002 -1.0376 0.9708
-8.5224 16.5102 -2.6326 0.9277
-10.5718 13.7628 -2.4589 0.9323
-11.3583 12.3335 -2.3757 0.9345
-2.5105 1.9007 -0.4462 0.9874
-13.0889 6.6412 -2.0796 0.9424
-13.2334 3.9642 -1.9574 0.9457
-12.7506 0.2973 -1.8071 0.9498
-12.0503 -1.8851 -1.7282 0.9519
-11.6052 -2.8946 -1.6947 0.9528
-10.5503 -4.7485 -1.6393 0.9543
-9.9486 -5.5933 -1.6171 0.9549
-8.6137 -7.1189 -1.5833 0.9559
-6.3213 -8.9985 -1.5581 0.9565
-3.7248 -10.3763 -1.5621 0.9564
-1.8469 -11.0133 -1.5823 0.9559
-0.8660 -11.2387 -1.5971 0.9555
1.1720 -11.4963 -1.6373 0.9544
3.3014 -11.4772 -1.6921 0.9529
4.3956 -11.3553 -1.7253 0.9520
6.6297 -10.8661 -1.8035 0.9499
7.7623 -10.4895 -1.8489 0.9486
8.8993 -10.0181 -1.8986 0.9473
10.0347 -9.4467 -1.9527 0.9458
12.2716 -7.9827 -2.0743 0.9426
13.3547 -7.0801 -2.1417 0.9408
2.3407 -0.9848 -0.3598 0.9898
14.2841 -4.5597 -2.1245 0.9412
14.1155 -3.1526 -2.0493 0.9432
15.9232 -2.0897 -2.2755 0.9372
15.2668 -0.6301 -2.1650 0.9401
9.4508 2.1779 -1.3742 0.9616
8.1044 2.6475 -1.2080 0.9661
5.9451 3.9247 -1.0094 0.9716
4.5354 4.3278 -0.8883 0.9750
3.5431 4.8561 -0.8517 0.9760
2.9895 4.9751 -0.8224 0.9768
2.4769 5.1037 -0.8038 0.9773
2.0378 5.3718 -0.8141 0.9771
1.6090 5.7392 -0.8445 0.9762
1.1074 5.9473 -0.8572 0.9759
0.2804 2.9475 -0.4195 0.9881
0.0347 6.2023 -0.8788 0.9753
-0.5564 6.6353 -0.9435 0.9735
-1.1966 6.8517 -0.9855 0.9723
-1.8613 6.9366 -1.0176 0.9714
-9.2033 15.7114 -2.5799 0.9291
-10.2117 14.3299 -2.4932 0.9314
-11.0607 12.9103 -2.4088 0.9336
-11.7564 11.4721 -2.3274 0.9358
-12.7206 8.6034 -2.1759 0.9398
-13.1764 5.8238 -2.0412 0.9435
-13.1990 3.1975 -1.9243 0.9466
-13.0698 1.9543 -1.8724 0.9480
-12.5696 -0.3780 -1.7818 0.9505
-10.7787 -4.3936 -1.6492 0.9541
-10.1960 -5.2603 -1.6256 0.9547
-9.5671 -6.0723 -1.6056 0.9553
-8.8953 -6.8298 -1.5890 0.9557
-8.1831 -7.5328 -1.5759 0.9561
-7.4329 -8.1814 -1.5662 0.9563
-4.0900 -10.2248 -1.5603 0.9565
-3.1761 -10.5944 -1.5671 0.9563
-2.2336 -10.9053 -1.5772 0.9560
-1.2634 -11.1556 -1.5907 0.9557
-0.2669 -11.3433 -1.6077 0.9552
5.0580 -11.2443 -1.7470 0.9514
7.3063 -10.6520 -1.8302 0.9492
8.4421 -10.2193 -1.8781 0.9479
10.7102 -9.0550 -1.9872 0.9449
11.8281 -8.3127 -2.0484 0.9433
12.9233 -7.4571 -2.1141 0.9415
13.9425 -6.4637 -2.1775 0.9398
-6.8995 -7.0795 -1.6285 0.9607
-6.2137 -7.6327 -1.6214 0.9609
-5.4948 -8.1357 -1.6173 0.9610
-3.9655 -8.9876 -1.6183 0.9610
-2.3256 -9.6269 -1.6315 0.9606
-1.4684 -9.8634 -1.6428 0.9604
0.3121 -10.1611 -1.6747 0.9596
1.2316 -10.2180 -1.6955 0.9591
2.1678 -10.2104 -1.7195 0.9586
3.1181 -10.1355 -1.7469 0.9579
4.0797 -9.9903 -1.7777 0.9572
10.7692 -6.7273 -2.0918 0.9498
11.6421 -5.9009 -2.1502 0.9485
12.2893 -3.6756 -2.1131 0.9493
13.5089 -1.5211 -2.2395 0.9464
13.9872 -0.3201 -2.3048 0.9449
11.6187 0.7722 -1.9183 0.9539
10.7666 1.6891 -1.7954 0.9568
4.9609 4.1035 -1.0606 0.9742
2.8870 5.0107 -0.9527 0.9768
2.4110 5.2093 -0.9456 0.9770
-0.0793 6.2110 -1.0233 0.9751
-0.6512 6.3612 -1.0534 0.9744
-1.9753 6.8559 -1.1754 0.9715
-6.8844 13.9300 -2.5598 0.9390
-8.7371 11.7962 -2.4183 0.9422
-10.5854 8.3099 -2.2170 0.9469
-10.9681 7.1281 -2.1549 0.9484
-11.4980 3.6649 -1.9881 0.9523
-11.4903 2.5611 -1.9394 0.9534
-10.7033 -1.4830 -1.7801 0.9571
-10.3449 -2.3887 -1.7491 0.9579
-9.4668 -4.0631 -1.6971 0.9591
-8.9547 -4.8301 -1.6761 0.9596
-8.3985 -5.5495 -1.6583 0.9600
-7.8011 -6.2207 -1.6437 0.9604
-6.4934 -7.4164 -1.6239 0.9608
-5.7876 -7.9396 -1.6186 0.9610
-4.2821 -8.8332 -1.6171 0.9610
-2.6634 -9.5160 -1.6279 0.9607
-1.8157 -9.7752 -1.6379 0.9605
-0.9448 -9.9773 -1.6510 0.9602
-0.0522 -10.1206 -1.6673 0.9598
0.8599 -10.2027 -1.6867 0.9593
1.7897 -10.2214 -1.7095 0.9588
2.7346 -10.1739 -1.7355 0.9582
7.5766 -8.8360 -1.9175 0.9539
8.5384 -8.3248 -1.9645 0.9528
9.4844 -7.7245 -2.0151 0.9516
10.4070 -7.0321 -2.0691 0.9504
11.2974 -6.2452 -2.1266 0.9490
11.2714 -4.9760 -2.0297 0.9513
12.0092 -4.0665 -2.0887 0.9499
13.2899 -1.9814 -2.2136 0.9470
14.1713 0.4323 -2.3357 0.9441
8.5401 2.6253 -1.4719 0.9644
7.3779 3.0110 -1.3127 0.9682
6.4503 3.3314 -1.1960 0.9710
5.7346 3.6432 -1.1192 0.9728
5.1771 3.9785 -1.0756 0.9739
4.1365 4.5569 -1.0139 0.9754
3.6390 4.8085 -0.9934 0.9759
2.1282 5.3270 -0.9450 0.9770
1.7039 5.6923 -0.9789 0.9762
1.2056 5.8990 -0.9919 0.9759
0.3202 2.8381 -0.4705 0.9885
-1.0102 6.4481 -1.0752 0.9739
-5.9871 13.2944 -2.4020 0.9426
-9.8569 9.9613 -2.3086 0.9448
-10.4000 8.7851 -2.2427 0.9463
-2.5640 1.8003 -0.5161 0.9874
-11.3595 5.2603 -2.0623 0.9505
-11.4767 4.1170 -2.0086 0.9518
-11.4463 1.9170 -1.9119 0.9540
-11.3113 0.8691 -1.8689 0.9551
-10.8309 -1.1065 -1.7936 0.9568
-10.4959 -2.0300 -1.7611 0.9576
-10.1040 -2.9087 -1.7321 0.9583
-9.6594 -3.7415 -1.7065 0.9589
-8.6272 -5.2662 -1.6651 0.9599
-8.0460 -5.9568 -1.6492 0.9602
-6.7676 -7.1920 -1.6269 0.9608
-6.0752 -7.7354 -1.6203 0.9609
-4.5942 -8.6702 -1.6165 0.9610
-3.8093 -9.0599 -1.6191 0.9609
-1.2975 -9.9030 -1.6454 0.9603
-0.4134 -10.0702 -1.6604 0.9600
2.3532 -10.2011 -1.7247 0.9584
3.3059 -10.1127 -1.7527 0.9578
4.2694 -9.9534 -1.7842 0.9570
6.2143 -9.4090 -1.8576 0.9553
8.1533 -8.5408 -1.9452 0.9533
9.1065 -7.9767 -1.9943 0.9521
10.0395 -7.3216 -2.0470 0.9509
10.9440 -6.5729 -2.1031 0.9496
12.4222 -3.4797 -2.1252 0.9490
13.0569 -2.4282 -2.1879 0.9476
11.6223 0.9771 -1.9214 0.9538
10.4435 1.8263 -1.7466 0.9579
4.2309 4.3376 -0.9982 0.9757
3.8469 4.7213 -1.0033 0.9756
2.7930 5.0499 -0.9507 0.9769
2.3182 5.2479 -0.9451 0.9770
1.8450 5.4448 -0.9471 0.9770
0.3578 6.0611 -1.0002 0.9757
-0.1890 6.2410 -1.0286 0.9750
-5.5668 13.6486 -2.4283 0.9420
-7.0885 13.7322 -2.5458 0.9393
-8.8917 11.5755 -2.4046 0.9425
-10.1959 9.2593 -2.2689 0.9457
-2.5134 1.9029 -0.5193 0.9873
-11.4408 4.5736 -2.0298 0.9513
-10.2680 -2.5610 -1.7434 0.9580
-9.8442 -3.4124 -1.7164 0.9586
-9.3700 -4.2173 -1.6927 0.9592
-8.8490 -4.9750 -1.6724 0.9597
-6.3575 -7.5230 -1.6226 0.9609
-3.3268 -9.2675 -1.6221 0.9609
-2.4990 -9.5712 -1.6296 0.9607
-1.6467 -9.8194 -1.6402 0.9604
1.0410 -10.2115 -1.6909 0.9592
1.9739 -10.2174 -1.7143 0.9587
3.8811 -10.0261 -1.7711 0.9574
6.7967 -9.1845 -1.8823 0.9547
11.4675 -6.0796 -2.1382 0.9487
2.3360 -0.9828 -0.4175 0.9898
12.1472 -3.8775 -2.1006 0.9496
13.3986 -1.7584 -2.2262 0.9467
13.8970 -0.5735 -2.2913 0.9452
8.2893 2.7079 -1.4366 0.9653
7.1794 3.0777 -1.2868 0.9688
5.6228 3.7119 -1.1099 0.9731
5.0711 4.0402 -1.0681 0.9741
4.0593 4.6323 -1.0147 0.9753
3.5389 4.8504 -0.9891 0.9760
0.2734 2.8739 -0.4756 0.9884
0.0346 6.1792 -1.0180 0.9753
-4.8747 13.2965 -2.3330 0.9442
-8.5698 12.0259 -2.4327 0.9419
-9.9728 9.7316 -2.2955 0.9451
-10.8983 7.3709 -2.1675 0.9481
-11.3899 5.0342 -2.0515 0.9508
-11.4889 3.8958 -1.9985 0.9520
-11.4987 2.7856 -1.9491 0.9532
-10.7699 -1.2911 -1.7869 0.9570
-10.0208 -3.0757 -1.7268 0.9584
-9.5663 -3.8994 -1.7019 0.9590
-9.0638 -4.6762 -1.6802 0.9595
-8.5164 -5.4054 -1.6617 0.9599
-7.9273 -6.0866 -1.6465 0.9603
-5.2042 -8.3191 -1.6166 0.9610
-4.4425 -8.7508 -1.6167 0.9610
-3.6521 -9.1301 -1.6199 0.9609
-2.8348 -9.4558 -1.6262 0.9608
-0.2376 -10.0960 -1.6637 0.9599
7.3774 -8.9304 -1.9083 0.9541
8.3416 -8.4371 -1.9545 0.9530
11.8620 -4.2610 -2.0764 0.9502
-6.2245 -6.3870 -1.6763 0.9644
-5.6082 -6.8890 -1.6697 0.9645
-4.9606 -7.3447 -1.6659 0.9646
-3.5798 -8.1133 -1.6668 0.9646
-2.8504 -8.4239 -1.6716 0.9645
1.1067 -9.1815 -1.7383 0.9631
5.3627 -8.4371 -1.8791 0.9601
7.0552 -7.6543 -1.9566 0.9585
8.6813 -6.5670 -2.0460 0.9567
9.4526 -5.9049 -2.0949 0.9557
10.1735 -5.1565 -2.1438 0.9546
10.6714 -3.1917 -2.0936 0.9557
11.1916 -2.2847 -2.1470 0.9546
11.5886 0.7702 -2.1830 0.9538
10.7428 1.6853 -2.0439 0.9567
8.0971 2.8107 -1.6110 0.9657
7.1300 3.2128 -1.4699 0.9687
6.2340 3.5083 -1.3446 0.9713
5.4800 3.7640 -1.2496 0.9733
4.8393 4.0030 -1.1805 0.9748
4.2811 4.2381 -1.1323 0.9758
2.8394 4.9281 -1.0690 0.9771
0.2308 3.0125 -0.5679 0.9878
-0.0773 6.0525 -1.1377 0.9757
-0.6456 6.3064 -1.1915 0.9745
-2.0168 6.9999 -1.3692 0.9708
-5.4585 11.0447 -2.3157 0.9511
-6.9837 9.4288 -2.2054 0.9534
-8.1932 9.2153 -2.3177 0.9511
-8.7587 8.2384 -2.2601 0.9522
-9.2238 7.2410 -2.2041 0.9534
-10.0523 4.2241 -2.0495 0.9566
-10.1539 3.2364 -2.0031 0.9576
-10.1762 2.2682 -1.9597 0.9585
-10.0026 0.4085 -1.8817 0.9601
-8.9101 -2.9149 -1.7621 0.9626
-8.5056 -3.6506 -1.7398 0.9630
-8.0557 -4.3452 -1.7204 0.9634
-7.0316 -5.6071 -1.6904 0.9641
-6.4629 -6.1724 -1.6798 0.9643
-5.8598 -6.6927 -1.6720 0.9644
-5.2245 -7.1672 -1.6671 0.9645
-4.5592 -7.5948 -1.6650 0.9646
-3.8659 -7.9745 -1.6657 0.9646
-3.1465 -8.3051 -1.6693 0.9645
-2.4029 -8.5854 -1.6757 0.9644
-1.6372 -8.8139 -1.6850 0.9642
-0.8512 -8.9891 -1.6972 0.9639
-0.0470 -9.1093 -1.7122 0.9636
2.4513 -9.1200 -1.7750 0.9623
3.3038 -8.9997 -1.8020 0.9617
4.1608 -8.8136 -1.8319 0.9611
5.0187 -8.5591 -1.8649 0.9604
5.8729 -8.2339 -1.9010 0.9597
6.7188 -7.8356 -1.9401 0.9589
8.3624 -6.8106 -2.0271 0.9571
9.1468 -6.1806 -2.0749 0.9561
9.8386 -4.3435 -2.0215 0.9572
11.4685 -1.7098 -2.1794 0.9539
11.8669 -0.6980 -2.2344 0.9528
11.4618 1.3791 -2.1699 0.9541
9.8129 2.0812 -1.8855 0.9600
8.5363 2.6241 -1.6786 0.9643
7.5039 3.0625 -1.5234 0.9676
5.7690 3.6651 -1.2847 0.9726
5.0790 3.9031 -1.2040 0.9743
4.5000 4.1460 -1.1501 0.9754
4.1347 4.5549 -1.1563 0.9753
3.6346 4.8027 -1.1321 0.9758
3.0264 4.8425 -1.0733 0.9770
2.5614 5.0509 -1.0645 0.9772
2.0952 5.2445 -1.0615 0.9773
1.1433 5.5941 -1.0732 0.9770
0.1378 5.9638 -1.1213 0.9760
-0.4101 6.1906 -1.1661 0.9751
-5.1069 11.3401 -2.3377 0.9506
-5.9541 10.5851 -2.2827 0.9518
-8.5436 8.6341 -2.2831 0.9518
-9.7670 5.6302 -2.1190 0.9552
-9.8986 -0.1243 -1.8607 0.9605
-9.0592 -2.6080 -1.7719 0.9624
-7.2499 -5.3674 -1.6955 0.9640
-6.6957 -5.9505 -1.6837 0.9642
-4.8301 -7.4286 -1.6655 0.9646
-4.1478 -7.8277 -1.6651 0.9646
-3.4386 -8.1782 -1.6675 0.9645
-1.9475 -8.7284 -1.6809 0.9643
2.9604 -9.0558 -1.7908 0.9620
4.6741 -8.6698 -1.8513 0.9607
6.3802 -8.0046 -1.9240 0.9592
8.8353 -6.4434 -2.0554 0.9565
9.5997 -5.7656 -2.1048 0.9554
2.3677 -0.8976 -0.4759 0.9897
11.7170 -1.1120 -2.2122 0.9532
11.6204 0.9769 -2.1919 0.9536
6.0764 3.5612 -1.3238 0.9717
5.3449 3.8106 -1.2338 0.9736
4.7261 4.0507 -1.1700 0.9750
3.8422 4.7156 -1.1433 0.9755
3.2138 4.7540 -1.0786 0.9769
1.8142 5.3540 -1.0625 0.9773
1.3378 5.5275 -1.0689 0.9771
0.4449 2.9794 -0.5662 0.9878
0.3470 5.8775 -1.1067 0.9763
-1.2247 5.7808 -1.1107 0.9762
-3.7692 12.2709 -2.4128 0.9491
-4.7408 11.6235 -2.3595 0.9502
-6.4162 10.1041 -2.2497 0.9525
-2.5163 1.9052 -0.5932 0.9872
-9.6529 6.0357 -2.1399 0.9547
-9.9098 5.0282 -2.0887 0.9558
-10.0787 4.0291 -2.0402 0.9568
-10.1644 3.0448 -1.9944 0.9577
-9.9710 0.2325 -1.8747 0.9602
-9.2001 -2.2947 -1.7822 0.9621
-8.8345 -3.0624 -1.7575 0.9627
-7.9623 -4.4766 -1.7169 0.9635
-7.4621 -5.1207 -1.7011 0.9638
-6.9228 -5.7215 -1.6881 0.9641
-5.0963 -7.2548 -1.6664 0.9646
-2.2544 -8.6344 -1.6773 0.9643
0.1127 -9.1263 -1.7155 0.9635
1.7717 -9.1706 -1.7556 0.9627
3.4717 -8.9685 -1.8076 0.9616
6.8833 -7.7486 -1.9481 0.9587
7.7117 -7.2598 -1.9908 0.9578
8.5186 -6.6933 -2.0363 0.9569
10.0383 -5.3219 -2.1356 0.9548
2.3313 -0.9808 -0.4754 0.9898
11.0902 -2.4769 -2.1359 0.9548
11.5532 -1.5162 -2.1902 0.9537
11.9349 -0.4926 -2.2452 0.9525
12.0387 0.5783 -2.2654 0.9521
11.1002 1.5331 -2.1062 0.9554
8.3174 2.7171 -1.6447 0.9650
6.4050 3.4513 -1.3675 0.9708
4.9604 3.9520 -1.1921 0.9745
4.3923 4.1913 -1.1411 0.9756
4.0543 4.6266 -1.1563 0.9753
3.5346 4.8446 -1.1272 0.9759
1.0475 5.6260 -1.0756 0.9770
0.2690 2.8275 -0.5339 0.9885
0.0336 6.0068 -1.1291 0.9758
-1.8561 6.9172 -1.3461 0.9713
-4.3605 11.8940 -2.3811 0.9497
-6.1094 10.4296 -2.2719 0.9520
-8.6506 8.4414 -2.2718 0.9520
-9.1362 7.4474 -2.2155 0.9532
-9.8174 5.4325 -2.1090 0.9554
-10.1396 3.4382 -2.0124 0.9574
-10.1779 2.4656 -1.9684 0.9583
-10.1407 1.5163 -1.9273 0.9591
-10.0331 0.5945 -1.8891 0.9599
-9.6247 -1.1538 -1.8220 0.9613
-6.5828 -6.0597 -1.6817 0.9642
-5.9866 -6.5894 -1.6734 0.9644
-4.6985 -7.5107 -1.6652 0.9646
-4.0107 -7.9003 -1.6653 0.9646
-1.7965 -8.7712 -1.6829 0.9642
0.6032 -9.1643 -1.7263 0.9633
2.2768 -9.1368 -1.7699 0.9624
5.6977 -8.3068 -1.8933 0.9598
7.3810 -7.4655 -1.9733 0.9582
8.1974 -6.9305 -2.0177 0.9573
9.7076 -4.5004 -2.0112 0.9574
10.3239 -3.7085 -2.0619 0.9563
-5.6656 -5.8134 -1.7159 0.9674
-5.1064 -6.2726 -1.7097 0.9675
-4.5177 -6.6889 -1.7062 0.9675
-3.9015 -7.0613 -1.7053 0.9676
-3.2600 -7.3885 -1.7070 0.9675
-2.5951 -7.6694 -1.7115 0.9674
-1.9091 -7.9026 -1.7185 0.9673
-0.4818 -8.2203 -1.7406 0.9669
0.2550 -8.3017 -1.7556 0.9666
2.5276 -8.2160 -1.8170 0.9655
4.0645 -7.8656 -1.8715 0.9644
4.8287 -7.5969 -1.9028 0.9639
5.5844 -7.2635 -1.9367 0.9632
6.3266 -6.8639 -1.9732 0.9626
7.7483 -5.8612 -2.0536 0.9611
9.0253 -4.5745 -2.1388 0.9595
2.3310 -0.9307 -0.5306 0.9898
9.4205 -2.8176 -2.0785 0.9606
10.2129 -1.1500 -2.1724 0.9589
10.7027 0.7113 -2.2673 0.9571
8.0829 2.8057 -1.8086 0.9656
7.1218 3.2091 -1.6512 0.9686
6.3126 3.5526 -1.5312 0.9708
5.5880 3.8382 -1.4330 0.9727
4.9158 4.0662 -1.3485 0.9743
3.4265 4.8822 -1.2608 0.9759
2.7964 4.8534 -1.1840 0.9774
2.3353 5.0459 -1.1753 0.9775
1.8773 5.2366 -1.1759 0.9775
-0.0784 6.1364 -1.2972 0.9752
-0.6577 6.4248 -1.3652 0.9739
-2.0233 7.0227 -1.5448 0.9706
-3.9615 10.2209 -2.3171 0.9562
-4.7595 9.6304 -2.2707 0.9570
-5.4824 8.9771 -2.2235 0.9579
-6.1267 8.2718 -2.1759 0.9588
-6.6907 7.5254 -2.1285 0.9597
-9.1239 2.0337 -1.9759 0.9625
-9.0053 0.3678 -1.9051 0.9638
-8.8536 -0.4291 -1.8737 0.9644
-8.6452 -1.1978 -1.8449 0.9649
-7.3150 -3.9457 -1.7568 0.9666
-6.8740 -4.5422 -1.7416 0.9669
-5.8814 -5.6171 -1.7191 0.9673
-5.3348 -6.0931 -1.7119 0.9674
-4.1523 -6.9170 -1.7053 0.9676
-2.1872 -7.8147 -1.7153 0.9674
-0.7739 -8.1728 -1.7353 0.9670
-0.0427 -8.2754 -1.7493 0.9667
1.4567 -8.3194 -1.7853 0.9661
2.2195 -8.2574 -1.8074 0.9656
2.9870 -8.1368 -1.8322 0.9652
6.7619 -6.5927 -1.9962 0.9621
7.4710 -6.0847 -2.0367 0.9614
8.1514 -5.5079 -2.0795 0.9606
8.7959 -4.8623 -2.1244 0.9597
8.7206 -3.8499 -2.0150 0.9618
9.2307 -3.1256 -2.0600 0.9609
10.0758 -1.5022 -2.1534 0.9592
10.7807 1.2971 -2.2952 0.9566
9.7928 2.0769 -2.1160 0.9599
7.4914 3.0574 -1.7103 0.9675
5.8803 3.7358 -1.4726 0.9719
5.1754 3.9772 -1.3797 0.9737
4.1328 4.5529 -1.2997 0.9752
3.6302 4.7969 -1.2716 0.9757
2.5199 4.9689 -1.1777 0.9775
2.0615 5.1599 -1.1745 0.9775
1.6022 5.3527 -1.1811 0.9774
0.3140 2.7828 -0.5920 0.9886
-0.4176 6.3043 -1.3355 0.9745
-3.6208 10.4380 -2.3354 0.9558
-4.4476 9.8759 -2.2895 0.9567
-5.2011 9.2465 -2.2425 0.9576
-2.5611 1.7983 -0.6615 0.9873
-8.6840 5.0059 -2.1188 0.9598
-8.9038 4.1232 -2.0741 0.9607
-9.1159 2.3781 -1.9914 0.9622
-9.0495 0.6953 -1.9185 0.9636
-8.7355 -0.8924 -1.8561 0.9647
-8.4951 -1.6431 -1.8290 0.9652
-7.8646 -3.0463 -1.7828 0.9661
-7.4810 -3.6953 -1.7637 0.9665
-6.0921 -5.4140 -1.7228 0.9672
-3.7776 -7.1291 -1.7054 0.9676
-3.1313 -7.4473 -1.7077 0.9675
-2.4621 -7.7189 -1.7126 0.9674
-1.7722 -7.9426 -1.7202 0.9673
-1.0635 -8.1170 -1.7304 0.9671
-0.3383 -8.2404 -1.7433 0.9668
5.7312 -7.1904 -1.9436 0.9631
6.4702 -6.7776 -1.9807 0.9624
7.1891 -6.2971 -2.0202 0.9617
7.8818 -5.7480 -2.0620 0.9609
9.1302 -4.4286 -2.1450 0.9594
9.5098 -2.6638 -2.0875 0.9604
9.9270 -1.8461 -2.1344 0.9596
10.2754 -0.9752 -2.1818 0.9587
10.5464 -0.0567 -2.2293 0.9578
10.7319 0.9022 -2.2765 0.9569
10.3985 1.8184 -2.2314 0.9578
8.9972 2.4162 -1.9692 0.9626
6.9532 3.2807 -1.6252 0.9691
6.1671 3.6143 -1.5110 0.9712
4.7935 4.1086 -1.3345 0.9745
4.2092 4.3154 -1.2743 0.9757
3.1779 4.7009 -1.1994 0.9771
2.7054 4.8915 -1.1816 0.9774
2.2455 5.0833 -1.1747 0.9775
1.7871 5.2740 -1.1771 0.9775
1.3253 5.4757 -1.1909 0.9772
-0.1875 6.1901 -1.3091 0.9750
-0.7790 6.4861 -1.3809 0.9736
-1.2236 5.7755 -1.2479 0.9762
-3.2690 10.6424 -2.3533 0.9555
-4.1238 10.1106 -2.3081 0.9563
-4.9074 9.5069 -2.2615 0.9572
-5.6150 8.8425 -2.2141 0.9581
-6.7919 7.3750 -2.1193 0.9598
-7.8224 7.1037 -2.2336 0.9577
-2.5193 1.9074 -0.6679 0.9872
-8.8249 4.4777 -2.0918 0.9603
-8.9982 3.5972 -2.0484 0.9612
-9.0837 1.0268 -1.9323 0.9633
-8.9802 0.2094 -1.8988 0.9639
-8.8171 -0.5822 -1.8678 0.9645
-8.0064 -2.7753 -1.7912 0.9659
-6.7830 -4.6547 -1.7389 0.9669
-5.7767 -5.7137 -1.7175 0.9673
-4.0304 -6.9883 -1.7053 0.9676
-3.3939 -7.3249 -1.7065 0.9675
-2.0519 -7.8586 -1.7168 0.9673
-1.3504 -8.0529 -1.7260 0.9672
0.1023 -8.2893 -1.7523 0.9667
1.6058 -8.3118 -1.7894 0.9660
2.3698 -8.2384 -1.8120 0.9656
3.1379 -8.1061 -1.8374 0.9651
3.9065 -7.9131 -1.8654 0.9646
4.6720 -7.6574 -1.8961 0.9640
6.1753 -6.9516 -1.9655 0.9627
8.2808 -5.3867 -2.0882 0.9604
8.9129 -4.7253 -2.1324 0.9596
2.3281 -0.9794 -0.5339 0.9897
9.7671 -2.1815 -2.1154 0.9599
10.1442 -1.3313 -2.1627 0.9590
10.4473 -0.4312 -2.2102 0.9582
10.6682 0.5125 -2.2576 0.9573
10.7988 1.4915 -2.3043 0.9564
8.3025 2.7122 -1.8463 0.9649
4.4370 4.2339 -1.2964 0.9752
4.0493 4.6209 -1.2987 0.9752
2.8923 4.8133 -1.1870 0.9773
1.9716 5.1973 -1.1750 0.9775
1.5118 5.3926 -1.1838 0.9774
0.0340 6.0814 -1.2855 0.9754
-0.5335 6.3623 -1.3496 0.9742
-1.1652 6.6716 -1.4316 0.9727
-3.7884 10.3336 -2.3265 0.9560
-6.5813 7.6819 -2.1382 0.9595
-7.6289 7.4444 -2.2531 0.9574
-9.1212 2.2097 -1.9838 0.9624
-8.4418 -1.7866 -1.8240 0.9653
-8.1408 -2.4987 -1.8000 0.9658
-7.7928 -3.1765 -1.7788 0.9662
-7.4008 -3.8182 -1.7603 0.9665
-6.9679 -4.4226 -1.7445 0.9668
-5.4498 -5.9986 -1.7131 0.9674
-4.8788 -6.4411 -1.7080 0.9675
-4.2791 -6.8403 -1.7055 0.9676
-3.6527 -7.1951 -1.7057 0.9675
-2.3284 -7.7666 -1.7139 0.9674
-1.6346 -7.9808 -1.7220 0.9672
-0.9225 -8.1452 -1.7327 0.9670
1.3006 -8.3251 -1.7811 0.9661
3.5978 -7.9981 -1.8538 0.9648
4.3650 -7.7678 -1.8834 0.9642
5.8775 -7.1147 -1.9507 0.9630
6.6130 -6.6887 -1.9882 0.9623
8.0140 -5.6323 -2.0705 0.9607
8.6665 -5.0008 -2.1150 0.9599
8.6094 -3.9913 -2.0059 0.9619
-5.1946 -5.3302 -1.7492 0.9699
-4.6834 -5.7529 -1.7435 0.9700
-3.5790 -6.4777 -1.7393 0.9700
-2.9903 -6.7773 -1.7410 0.9700
-2.3799 -7.0334 -1.7451 0.9700
-1.7502 -7.2448 -1.7517 0.9698
-1.1031 -7.4101 -1.7607 0.9697
-0.4412 -7.5280 -1.7723 0.9695
0.2334 -7.5970 -1.7863 0.9693
2.3062 -7.4964 -1.8433 0.9683
3.0036 -7.3552 -1.8672 0.9679
4.3876 -6.9030 -1.9223 0.9669
5.0660 -6.5893 -1.9534 0.9664
8.1021 -4.1066 -2.1348 0.9634
8.4237 -2.5195 -2.0664 0.9645
9.0888 -1.0234 -2.1496 0.9631
9.3216 -0.2133 -2.1914 0.9624
9.2276 2.3057 -2.2354 0.9617
8.0686 2.8008 -2.0073 0.9655
7.1103 3.2039 -1.8329 0.9685
5.5994 3.8460 -1.5965 0.9725
3.4224 4.8763 -1.4001 0.9758
2.3714 5.1239 -1.3270 0.9771
0.2210 2.8843 -0.6799 0.9882
-0.6610 6.4565 -1.5254 0.9737
-1.1228 5.7985 -1.3881 0.9760
-2.0203 7.0120 -1.7150 0.9705
-3.4998 9.0297 -2.2760 0.9610
-4.2147 8.5279 -2.2357 0.9617
-4.8664 7.9684 -2.1944 0.9624
-5.4514 7.3601 -2.1526 0.9631
-6.4137 6.0327 -2.0694 0.9645
-7.6471 4.9698 -2.1435 0.9632
-7.9046 4.1863 -2.1022 0.9639
-8.0910 3.3999 -2.0626 0.9646
-8.2090 2.6165 -2.0249 0.9652
-8.2614 1.8415 -1.9893 0.9658
-8.2513 1.0793 -1.9558 0.9664
-8.1818 0.3341 -1.9245 0.9669
-8.0561 -0.3905 -1.8956 0.9674
-7.3735 -2.4122 -1.8233 0.9686
-7.0541 -3.0276 -1.8041 0.9690
-6.6937 -3.6106 -1.7874 0.9692
-6.2948 -4.1595 -1.7732 0.9695
-5.3917 -5.1494 -1.7522 0.9698
-4.8923 -5.5877 -1.7455 0.9699
-2.6277 -6.9358 -1.7431 0.9700
-2.0055 -7.1653 -1.7487 0.9699
-0.7089 -7.4864 -1.7674 0.9696
2.7234 -7.4186 -1.8573 0.9680
4.7949 -6.7225 -1.9407 0.9666
5.4649 -6.3732 -1.9731 0.9661
6.1167 -5.9637 -2.0078 0.9655
6.7452 -5.4935 -2.0445 0.9649
7.3444 -4.9627 -2.0832 0.9642
7.8231 -3.4537 -2.0098 0.9655
8.6482 -2.0911 -2.0911 0.9641
8.9754 -1.3381 -2.1327 0.9634
9.4252 0.2875 -2.2162 0.9620
5.8718 3.7304 -1.6350 0.9718
5.2160 4.0084 -1.5460 0.9733
4.6228 4.2591 -1.4773 0.9745
4.1310 4.5508 -1.4445 0.9751
3.6257 4.7910 -1.4121 0.9756
1.1558 5.6553 -1.3566 0.9766
0.1415 6.1270 -1.4404 0.9751
-1.4570 5.8364 -1.4138 0.9756
-3.9347 8.7371 -2.2520 0.9614
-4.6123 8.1996 -2.2111 0.9621
-6.2428 6.3090 -2.0860 0.9642
-6.6470 5.6149 -2.0450 0.9649
-2.5596 1.7972 -0.7350 0.9872
-7.8098 4.5020 -2.1186 0.9636
-8.0245 3.7160 -2.0783 0.9643
-8.1696 2.9307 -2.0399 0.9650
-8.2481 2.1517 -2.0034 0.9656
-8.2627 1.3838 -1.9690 0.9662
-8.2167 0.6314 -1.9368 0.9667
-8.1131 -0.1019 -1.9069 0.9672
-7.7465 -1.4983 -1.8543 0.9681
-7.1876 -2.7841 -1.8115 0.9688
-6.0389 -4.4708 -1.7659 0.9696
-5.5838 -4.9623 -1.7557 0.9698
-4.0352 -6.2061 -1.7398 0.9700
-2.8722 -6.8310 -1.7416 0.9700
-2.2578 -7.0784 -1.7462 0.9699
-0.9744 -7.4370 -1.7628 0.9697
-0.3098 -7.5455 -1.7748 0.9694
0.3670 -7.6047 -1.7894 0.9692
1.0532 -7.6134 -1.8064 0.9689
2.4430 -7.4730 -1.8478 0.9682
6.4958 -5.6898 -2.0295 0.9651
7.1075 -5.1833 -2.0674 0.9645
8.4996 -2.3809 -2.0745 0.9644
9.5006 0.7987 -2.2407 0.9616
9.5600 1.6718 -2.2809 0.9609
8.9799 2.4116 -2.1853 0.9625
7.8679 2.8864 -1.9696 0.9662
6.9421 3.2755 -1.8041 0.9690
6.1580 3.6090 -1.6775 0.9711
5.4710 3.9004 -1.5791 0.9728
4.2850 4.3931 -1.4423 0.9751
2.7488 4.9701 -1.3348 0.9769
1.3476 5.5678 -1.3463 0.9767
0.1738 2.9433 -0.6930 0.9880
-2.8828 9.3850 -2.3074 0.9605
-3.6448 8.9363 -2.2682 0.9611
-4.9865 7.8526 -2.1862 0.9625
-5.5581 7.2358 -2.1444 0.9632
-6.0606 6.5810 -2.1026 0.9639
-6.4930 5.8965 -2.0614 0.9646
-2.5223 1.9097 -0.7435 0.9871
-7.7033 4.8167 -2.1352 0.9634
-7.9467 4.0321 -2.0943 0.9640
-8.1195 3.2459 -2.0551 0.9647
-8.0251 -0.5299 -1.8902 0.9675
-7.3142 -2.5354 -1.8194 0.9687
-6.9866 -3.1446 -1.8007 0.9690
-6.2123 -4.2630 -1.7707 0.9695
-5.2961 -5.2384 -1.7507 0.9699
-4.2572 -6.0603 -1.7406 0.9700
-3.1132 -6.7191 -1.7404 0.9700
-2.5072 -6.9843 -1.7440 0.9700
-1.8812 -7.2050 -1.7501 0.9699
-1.2376 -7.3799 -1.7587 0.9697
-0.5785 -7.5077 -1.7697 0.9695
0.0937 -7.5869 -1.7832 0.9693
3.5561 -7.2031 -1.8880 0.9675
4.9275 -6.6587 -1.9468 0.9665
7.4580 -4.8515 -2.0910 0.9641
8.3419 -2.6628 -2.0580 0.9647
9.0321 -1.1854 -2.1410 0.9633
7.2989 3.1290 -1.8664 0.9679
6.4597 3.4808 -1.7245 0.9703
5.7373 3.7875 -1.6157 0.9721
4.5123 4.3058 -1.4659 0.9747
3.5261 4.8328 -1.4060 0.9757
2.4675 5.0843 -1.3282 0.9770
2.0027 5.2793 -1.3270 0.9771
1.5371 5.4827 -1.3382 0.9769
1.0611 5.6990 -1.3624 0.9765
0.2645 2.7804 -0.6564 0.9886
0.0345 6.1710 -1.4504 0.9750
-0.5371 6.4057 -1.5108 0.9739
-1.8645 6.9485 -1.6908 0.9709
-3.3453 9.1250 -2.2842 0.9609
-4.0726 8.6362 -2.2441 0.9615
-4.7376 8.0878 -2.2029 0.9622
-6.3276 6.1746 -2.0779 0.9643
-2.6375 1.7838 -0.7483 0.9870
-7.8575 4.3480 -2.1106 0.9638
-8.2559 2.0000 -1.9964 0.9657
-8.0864 -0.2432 -1.9013 0.9673
-7.9183 -0.9493 -1.8743 0.9678
-7.6998 -1.6296 -1.8497 0.9682
-7.1233 -2.9036 -1.8079 0.9689
-6.3799 -4.0494 -1.7759 0.9694
-5.9523 -4.5702 -1.7637 0.9696
-5.4907 -5.0544 -1.7539 0.9698
-4.9975 -5.5007 -1.7467 0.9699
-0.8451 -7.4621 -1.7650 0.9696
-0.1779 -7.5610 -1.7775 0.9694
1.1887 -7.6091 -1.8100 0.9689
1.8827 -7.5553 -1.8300 0.9685
2.5798 -7.4476 -1.8524 0.9681
3.9700 -7.0648 -1.9046 0.9672
7.7954 -4.4982 -2.1152 0.9637
7.7270 -3.5822 -2.0017 0.9656
-4.7921 -4.9171 -1.7777 0.9720
-1.6143 -6.6826 -1.7800 0.9720
-1.0171 -6.8324 -1.7885 0.9719
0.2149 -6.9968 -1.8125 0.9715
1.4804 -6.9727 -1.8456 0.9710
2.7565 -6.7499 -1.8878 0.9703
3.3904 -6.5612 -1.9122 0.9699
4.0168 -6.3195 -1.9388 0.9695
5.8083 -5.2702 -2.0307 0.9681
6.3607 -4.8115 -2.0650 0.9676
7.3431 -3.7219 -2.1315 0.9666
2.3308 -0.9306 -0.6498 0.9897
7.6099 -2.2761 -2.0566 0.9677
7.9230 -1.6174 -2.0937 0.9671
8.1789 -0.9210 -2.1310 0.9666
8.5244 2.1300 -2.2750 0.9643
8.0542 2.7958 -2.2074 0.9654
7.0987 3.1987 -2.0160 0.9683
3.4182 4.8704 -1.5406 0.9757
2.3996 5.1847 -1.4792 0.9767
1.3624 3.8004 -1.0453 0.9835
-0.0793 6.2098 -1.6080 0.9747
-0.6601 6.4477 -1.6782 0.9736
-1.1220 5.7946 -1.5282 0.9759
-3.1310 8.0782 -2.2432 0.9648
-4.9050 6.6224 -2.1338 0.9665
-5.3799 6.0510 -2.0964 0.9671
-6.1447 4.8238 -2.0227 0.9682
-6.9334 4.5060 -2.1410 0.9664
-7.4815 2.3846 -2.0331 0.9681
-7.5410 1.6809 -2.0004 0.9686
-7.5428 0.9866 -1.9696 0.9691
-7.4896 0.3059 -1.9408 0.9695
-7.3839 -0.3579 -1.9141 0.9699
-7.2285 -1.0015 -1.8895 0.9703
-7.0263 -1.6224 -1.8671 0.9706
-6.7798 -2.2180 -1.8470 0.9710
-6.4917 -2.7862 -1.8291 0.9712
-6.1645 -3.3251 -1.8135 0.9715
-2.9805 -6.1482 -1.7691 0.9722
