ply
format ascii 1.0
element vertex 1588
property float32 x
property float32 y
property float32 z
property float32 I
end_header
-2.4865 1.9101 0.1944 0.9875
2.3451 -0.9138 0.0992 0.9900
11.9426 -2.3327 0.4798 0.9525
11.6178 -1.2075 0.4606 0.9543
11.6325 0.8752 0.4600 0.9544
11.0587 1.8349 0.4420 0.9561
7.1390 3.2951 0.3100 0.9690
6.3859 3.6712 0.2904 0.9709
5.6166 3.9347 0.2704 0.9729
4.3769 4.4153 0.2452 0.9754
3.4192 4.9725 0.2380 0.9761
2.8681 5.0911 0.2304 0.9769
1.9092 5.4952 0.2294 0.9770
-0.7686 6.8170 0.2705 0.9729
-1.4096 6.8968 0.2776 0.9722
-2.4878 1.9091 0.1237 0.9875
11.4985 -1.5444 0.4575 0.9546
12.3468 0.5579 0.4873 0.9517
7.4480 3.1708 0.3192 0.9681
6.5851 3.5277 0.2946 0.9705
5.1885 4.1146 0.2611 0.9738
2.0698 5.4275 0.2290 0.9770
0.0440 6.2825 0.2477 0.9752
-0.5551 6.7268 0.2661 0.9733
-1.2056 6.9537 0.2783 0.9721
11.7433 -0.8721 0.4643 0.9540
10.2212 2.0068 0.4107 0.9592
6.8573 3.4134 0.3020 0.9698
6.1399 3.7746 0.2842 0.9716
4.7875 4.2832 0.2533 0.9746
3.1748 4.9212 0.2309 0.9768
2.2301 5.3599 0.2289 0.9770
0.2293 6.2042 0.2448 0.9755
-0.3379 6.4438 0.2544 0.9745
-1.6460 6.9968 0.2834 0.9716
-2.5548 1.8436 0.1242 0.9875
11.9467 -2.3398 0.4800 0.9524
11.6158 -1.2133 0.4605 0.9543
11.6349 0.8695 0.4601 0.9544
6.3902 3.6694 0.2906 0.9709
4.9867 4.1995 0.2571 0.9742
4.3767 4.4106 0.2450 0.9754
3.9406 4.7530 0.2435 0.9756
2.8709 5.0899 0.2304 0.9769
2.3903 5.2924 0.2290 0.9770
1.9119 5.4941 0.2294 0.9770
1.4714 5.8711 0.2387 0.9761
0.4105 6.1277 0.2422 0.9757
-0.1428 6.3614 0.2509 0.9749
-0.7650 6.8155 0.2704 0.9729
-2.4875 1.9108 0.1237 0.9875
14.8890 -0.2119 0.2515 0.9422
11.6215 0.8744 0.1969 0.9544
11.0544 1.8343 0.1893 0.9562
9.2552 2.4004 0.1615 0.9625
8.1676 2.9177 0.1465 0.9659
7.1280 3.2900 0.1326 0.9691
6.4990 3.7363 0.1266 0.9705
4.3716 4.4098 0.1049 0.9755
3.9329 4.7486 0.1042 0.9756
2.3848 5.2875 0.0980 0.9771
1.9070 5.4889 0.0982 0.9770
1.4668 5.8655 0.1021 0.9761
-0.1459 6.3548 0.1074 0.9749
-0.7676 6.8081 0.1157 0.9730
-1.4077 6.8873 0.1187 0.9723
-2.4888 1.9099 0.0530 0.9875
15.5264 -0.6864 0.2625 0.9397
12.7528 0.5762 0.2156 0.9502
11.3202 1.5316 0.1930 0.9553
9.7080 2.2098 0.1682 0.9610
8.5343 2.7634 0.1515 0.9647
7.4362 3.1657 0.1365 0.9682
5.1817 4.1093 0.1117 0.9739
4.5882 4.3592 0.1069 0.9750
4.1123 4.6730 0.1051 0.9754
3.5862 4.8947 0.1025 0.9760
2.5103 5.1485 0.0968 0.9773
2.0674 5.4213 0.0980 0.9771
1.1285 6.0082 0.1033 0.9758
0.5843 6.0467 0.1026 0.9760
0.0439 6.2747 0.1060 0.9752
-0.5544 6.7181 0.1139 0.9734
-1.8944 7.0927 0.1240 0.9711
-4.9298 13.4915 0.2426 0.9442
14.8773 0.2262 0.2513 0.9422
11.7072 1.2283 0.1988 0.9540
5.3935 4.0201 0.1136 0.9734
4.1447 4.4347 0.1025 0.9760
3.7597 4.8216 0.1033 0.9758
3.1711 4.9155 0.0988 0.9769
2.7060 5.1522 0.0983 0.9770
2.2275 5.3538 0.0980 0.9771
1.8018 5.7243 0.1014 0.9763
1.3000 5.9358 0.1026 0.9760
-1.6437 6.9869 0.1212 0.9717
14.8921 -0.2196 0.2516 0.9422
11.6238 0.8686 0.1969 0.9544
11.0643 1.8301 0.1894 0.9561
7.1330 3.2879 0.1327 0.9691
6.4965 3.7304 0.1265 0.9705
5.6128 3.9278 0.1157 0.9730
4.9803 4.1941 0.1100 0.9743
3.9359 4.7474 0.1042 0.9756
3.4181 4.9655 0.1018 0.9762
2.8676 5.0840 0.0986 0.9769
2.3876 5.2864 0.0980 0.9771
1.9097 5.4878 0.0982 0.9770
1.4697 5.8643 0.1021 0.9761
-1.4037 6.8856 0.1187 0.9723
-2.4884 1.9116 0.0530 0.9875
14.8745 -0.2117 -0.0838 0.9422
11.0309 1.8303 -0.0630 0.9563
9.2378 2.3959 -0.0537 0.9625
4.9705 4.1902 -0.0366 0.9743
4.3662 4.4044 -0.0349 0.9755
3.9282 4.7430 -0.0347 0.9757
1.9048 5.4827 -0.0327 0.9771
8.5194 2.7586 -0.0504 0.9648
7.4244 3.1607 -0.0454 0.9682
6.0055 3.9445 -0.0405 0.9717
4.5825 4.3538 -0.0356 0.9750
4.1074 4.6674 -0.0350 0.9754
2.5074 5.1426 -0.0322 0.9774
2.0651 5.4151 -0.0326 0.9771
1.6330 5.7880 -0.0339 0.9762
1.1272 6.0012 -0.0344 0.9759
0.5836 6.0395 -0.0342 0.9760
0.0439 6.2670 -0.0353 0.9752
-0.5537 6.7095 -0.0379 0.9734
-4.9209 13.4673 -0.0807 0.9443
18.1049 -1.3445 -0.1022 0.9300
14.8352 0.2256 -0.0835 0.9424
11.6796 1.2254 -0.0661 0.9541
6.8367 3.4031 -0.0430 0.9699
6.2492 3.8417 -0.0413 0.9711
4.1397 4.4294 -0.0342 0.9760
3.7552 4.8159 -0.0344 0.9759
1.2985 5.9290 -0.0342 0.9760
-0.3370 6.4275 -0.0362 0.9746
-2.5487 1.8392 -0.0177 0.9875
11.6135 0.8679 -0.0656 0.9545
11.0407 1.8262 -0.0630 0.9562
8.1599 2.9102 -0.0488 0.9659
7.1220 3.2828 -0.0442 0.9691
6.4950 3.7296 -0.0422 0.9705
4.3693 4.4031 -0.0349 0.9755
3.4142 4.9597 -0.0339 0.9762
2.8643 5.0782 -0.0328 0.9769
1.9076 5.4815 -0.0327 0.9771
1.4680 5.8576 -0.0340 0.9761
0.9284 5.8942 -0.0336 0.9764
0.4095 6.1129 -0.0345 0.9758
-0.1424 6.3455 -0.0357 0.9749
-0.7630 6.7977 -0.0385 0.9730
-1.4018 6.8761 -0.0395 0.9723
-2.4894 1.9123 -0.0177 0.9875
2.3428 -0.9129 -0.0708 0.9900
11.0074 1.8265 -0.3142 0.9563
4.3608 4.3990 -0.1744 0.9755
3.9235 4.7374 -0.1732 0.9757
3.4073 4.9552 -0.1693 0.9762
2.8583 5.0736 -0.1640 0.9770
2.3794 5.2755 -0.1630 0.9771
1.9027 5.4764 -0.1632 0.9771
0.9244 5.8885 -0.1678 0.9764
0.4060 6.1068 -0.1723 0.9758
-0.1455 6.3389 -0.1785 0.9749
-0.7656 6.7904 -0.1924 0.9730
-2.4907 1.9114 -0.0884 0.9875
8.6801 2.8106 -0.2569 0.9641
7.4127 3.1557 -0.2269 0.9683
6.5562 3.5123 -0.2094 0.9707
4.1024 4.6618 -0.1749 0.9755
3.0206 5.0051 -0.1646 0.9769
2.0627 5.4090 -0.1630 0.9771
1.6312 5.7814 -0.1691 0.9762
1.1259 5.9942 -0.1717 0.9759
0.5829 6.0323 -0.1706 0.9760
0.0438 6.2593 -0.1763 0.9753
-0.5530 6.7009 -0.1893 0.9735
-1.8889 7.0723 -0.2061 0.9711
14.7934 0.2249 -0.4166 0.9425
11.6739 1.2248 -0.3305 0.9541
7.7310 3.0211 -0.2337 0.9673
4.7694 4.2671 -0.1802 0.9747
3.1638 4.9042 -0.1643 0.9769
2.6998 5.1404 -0.1635 0.9770
2.2224 5.3416 -0.1629 0.9771
-2.5464 1.8376 -0.0884 0.9875
2.3421 -0.9140 -0.0708 0.9900
14.8630 -0.2191 -0.4186 0.9423
11.0172 1.8223 -0.3144 0.9563
4.9676 4.1834 -0.1829 0.9743
4.3640 4.3977 -0.1745 0.9755
2.8610 5.0724 -0.1640 0.9770
2.3821 5.2743 -0.1630 0.9771
1.4663 5.8508 -0.1698 0.9762
-0.1422 6.3376 -0.1785 0.9750
-0.7620 6.7888 -0.1924 0.9730
-2.4904 1.9131 -0.0884 0.9875
2.3427 -0.9129 -0.1275 0.9900
14.8598 -0.2115 -0.7537 0.9422
10.9840 1.8226 -0.5647 0.9564
6.4805 3.7257 -0.3791 0.9705
5.5865 3.9136 -0.3459 0.9731
4.9578 4.1795 -0.3289 0.9744
3.9189 4.7317 -0.3116 0.9757
3.4034 4.9494 -0.3046 0.9762
2.3767 5.2695 -0.2932 0.9771
1.9005 5.4702 -0.2937 0.9771
0.9233 5.8816 -0.3019 0.9764
0.4055 6.0995 -0.3100 0.9758
-0.1453 6.3310 -0.3212 0.9750
-2.4917 1.9121 -0.1593 0.9875
-9.4845 -9.2852 -0.6731 0.9482
11.2445 1.5214 -0.5755 0.9556
9.6514 2.1969 -0.5020 0.9611
8.6650 2.8057 -0.4619 0.9642
7.4009 3.1507 -0.4079 0.9683
5.1616 4.0933 -0.3341 0.9740
4.0975 4.6563 -0.3146 0.9755
2.0604 5.4028 -0.2932 0.9771
0.5822 6.0252 -0.3070 0.9760
0.0438 6.2516 -0.3171 0.9753
-0.5523 6.6923 -0.3405 0.9735
-1.2047 6.9484 -0.3577 0.9722
-4.9091 13.4350 -0.7254 0.9443
17.9766 -1.3350 -0.9142 0.9303
10.1383 1.9905 -0.5240 0.9595
8.7956 2.5597 -0.4646 0.9640
6.8163 3.3930 -0.3861 0.9700
6.2317 3.8310 -0.3710 0.9711
4.7634 4.2617 -0.3241 0.9747
4.1296 4.4186 -0.3067 0.9761
2.6967 5.1345 -0.2941 0.9770
1.7956 5.7047 -0.3033 0.9763
1.2956 5.9153 -0.3071 0.9760
0.7556 5.9522 -0.3043 0.9763
-0.9805 6.8722 -0.3520 0.9726
-1.6367 6.9575 -0.3625 0.9718
-2.5450 1.8365 -0.1592 0.9875
2.3420 -0.9140 -0.1275 0.9900
10.9938 1.8184 -0.5651 0.9564
9.2106 2.3838 -0.4825 0.9626
4.3586 4.3923 -0.3138 0.9755
3.9219 4.7305 -0.3116 0.9757
2.8577 5.0666 -0.2950 0.9770
2.3794 5.2683 -0.2932 0.9771
-0.7610 6.7800 -0.3460 0.9730
-9.4912 -9.2824 -0.6733 0.9482
-5.3950 -16.3121 -1.2598 0.9334
-2.4621 -17.3780 -1.2869 0.9320
-0.9162 -17.8046 -1.3072 0.9310
0.6888 -18.1569 -1.3323 0.9297
2.3581 -18.4310 -1.3624 0.9282
4.0973 -18.6214 -1.3980 0.9264
19.2711 -2.0030 -1.4206 0.9252
14.8576 -0.2115 -1.0895 0.9421
11.6106 0.8736 -0.8537 0.9544
10.9607 1.8187 -0.8146 0.9564
9.1861 2.3824 -0.6958 0.9627
8.2803 2.9579 -0.6447 0.9653
6.4713 3.7203 -0.5473 0.9705
4.3502 4.3882 -0.4531 0.9755
3.9142 4.7261 -0.4499 0.9757
3.3994 4.9437 -0.4399 0.9762
0.4050 6.0921 -0.4477 0.9758
-0.1451 6.3231 -0.4637 0.9750
-0.7636 6.7727 -0.4997 0.9730
-18.9809 -4.6206 -1.4324 0.9246
-14.7123 -9.9816 -1.3036 0.9312
-9.8829 -13.9211 -1.2518 0.9338
-4.4423 -16.6972 -1.2669 0.9330
-2.9680 -17.2188 -1.2811 0.9323
-1.4408 -17.6697 -1.2999 0.9314
1.7910 -18.3481 -1.3517 0.9287
14.1360 -3.2033 -1.0628 0.9435
15.5172 -0.6860 -1.1389 0.9396
9.6326 2.1927 -0.7244 0.9612
8.6499 2.8009 -0.6667 0.9642
5.9809 3.9283 -0.5247 0.9717
4.5655 4.3376 -0.4617 0.9751
4.0926 4.6507 -0.4542 0.9755
3.0137 4.9936 -0.4277 0.9769
2.0580 5.3967 -0.4235 0.9771
1.6274 5.7681 -0.4394 0.9762
1.1232 5.9803 -0.4462 0.9759
0.5815 6.0180 -0.4433 0.9760
-0.5515 6.6837 -0.4917 0.9735
-1.2050 6.9502 -0.5172 0.9721
-19.3106 -4.0925 -1.4473 0.9239
-18.3132 -5.6283 -1.4047 0.9260
-17.2759 -7.0510 -1.3682 0.9279
-13.9480 -10.7250 -1.2901 0.9319
-12.7700 -11.7739 -1.2736 0.9327
-10.3094 -13.6377 -1.2535 0.9337
-7.7004 -15.2107 -1.2501 0.9339
-1.9589 -17.5266 -1.2931 0.9317
-0.3941 -17.9291 -1.3149 0.9306
1.2315 -18.2561 -1.3416 0.9292
6.5290 -18.7337 -1.4546 0.9235
17.3934 -1.2917 -1.2788 0.9324
14.7102 0.2237 -1.0787 0.9427
11.6702 1.2244 -0.8604 0.9540
10.1177 1.9865 -0.7560 0.9595
8.7798 2.5551 -0.6705 0.9640
7.7059 3.0113 -0.6066 0.9674
6.8060 3.3879 -0.5574 0.9700
6.2230 3.8256 -0.5356 0.9711
4.1246 4.4133 -0.4429 0.9761
3.7420 4.7989 -0.4462 0.9759
3.1565 4.8929 -0.4269 0.9769
2.6936 5.1287 -0.4248 0.9770
1.2940 5.9084 -0.4435 0.9760
0.2280 6.1665 -0.4525 0.9756
-2.5436 1.8355 -0.2300 0.9875
-17.6279 -6.5861 -1.3798 0.9273
-16.5658 -7.9387 -1.3469 0.9290
-15.4678 -9.1926 -1.3193 0.9304
-14.3353 -10.3548 -1.2966 0.9315
-9.4594 -14.1918 -1.2505 0.9339
-8.1488 -14.9666 -1.2495 0.9339
-6.7975 -15.6719 -1.2525 0.9338
-5.4031 -16.3087 -1.2597 0.9334
-3.9620 -16.8768 -1.2711 0.9328
-2.4708 -17.3753 -1.2868 0.9320
-0.9252 -17.8024 -1.3071 0.9310
0.6795 -18.1551 -1.3321 0.9297
2.3419 -0.9139 -0.1843 0.9900
11.6080 0.8675 -0.8535 0.9544
10.9704 1.8146 -0.8153 0.9564
6.4757 3.7185 -0.5475 0.9705
5.5827 3.9067 -0.4996 0.9730
4.9549 4.1727 -0.4750 0.9744
4.3533 4.3869 -0.4532 0.9755
3.4023 4.9424 -0.4400 0.9762
2.3767 5.2623 -0.4234 0.9771
1.9011 5.4628 -0.4241 0.9771
0.9251 5.8735 -0.4360 0.9764
0.4080 6.0909 -0.4476 0.9758
-1.3960 6.8477 -0.5124 0.9724
-2.4924 1.9146 -0.2304 0.9875
-18.9865 -4.6117 -1.4326 0.9246
-17.9756 -6.1092 -1.3920 0.9267
-9.4727 -9.2642 -0.9715 0.9482
-11.1502 -13.0463 -1.2584 0.9335
-7.2552 -15.4432 -1.2511 0.9339
-5.8755 -16.1028 -1.2568 0.9336
-4.4505 -16.6941 -1.2668 0.9331
3.4961 -18.5663 -1.3852 0.9270
5.2849 -18.6982 -1.4247 0.9250
-3.1063 -13.2620 -1.3077 0.9467
-1.9307 -13.6269 -1.3213 0.9462
-0.7167 -13.9267 -1.3388 0.9455
0.5371 -14.1588 -1.3603 0.9447
4.5511 -14.4101 -1.4508 0.9411
9.6291 -14.8942 -1.7027 0.9312
11.3108 -14.4767 -1.7637 0.9288
13.0419 -13.9275 -1.8318 0.9262
11.6088 0.8734 -1.1177 0.9543
10.8565 1.8014 -1.0565 0.9567
7.0733 3.2648 -0.7479 0.9692
6.4620 3.7150 -0.7156 0.9705
5.5715 3.9031 -0.6531 0.9730
4.3448 4.3828 -0.5925 0.9755
2.3713 5.2575 -0.5537 0.9771
1.4584 5.8318 -0.5771 0.9761
0.9212 5.8678 -0.5702 0.9764
0.4045 6.0848 -0.5855 0.9758
-0.1449 6.3152 -0.6065 0.9749
-0.7570 6.7138 -0.6486 0.9732
-1.3980 6.8399 -0.6702 0.9723
-2.4937 1.9136 -0.3018 0.9874
-17.0515 -1.0264 -1.6400 0.9337
-16.4039 -2.4701 -1.5926 0.9355
-12.3582 -8.3844 -1.4337 0.9418
-11.4150 -9.3342 -1.4156 0.9425
-8.7687 -10.2705 -1.2965 0.9472
-6.7632 -11.5954 -1.2887 0.9475
-5.7083 -12.1665 -1.2902 0.9474
-1.1280 -13.8336 -1.3325 0.9458
1.3933 -14.2739 -1.3769 0.9440
2.7164 -14.3852 -1.4055 0.9429
4.0830 -14.4178 -1.4386 0.9416
5.8978 -15.4204 -1.5850 0.9358
7.4621 -15.2669 -1.6314 0.9340
9.0766 -15.0069 -1.6838 0.9320
14.2191 -13.4832 -1.8813 0.9243
14.1213 -3.2000 -1.3901 0.9435
12.1540 0.5491 -1.1680 0.9523
8.6349 2.7960 -0.8714 0.9642
5.1482 4.0827 -0.6308 0.9739
4.5598 4.3322 -0.6038 0.9750
3.5653 4.8661 -0.5791 0.9761
1.6256 5.7615 -0.5747 0.9762
1.1219 5.9733 -0.5835 0.9759
-1.8808 7.0418 -0.6997 0.9711
-4.9014 13.4139 -1.3710 0.9442
-18.6699 4.5257 -1.8443 0.9257
-17.8091 1.0547 -1.7128 0.9308
-15.9394 -3.3781 -1.5643 0.9366
-15.1942 -4.6697 -1.5261 0.9381
-14.3974 -5.8762 -1.4929 0.9394
-12.6653 -8.0498 -1.4407 0.9415
-10.0301 -9.2477 -1.3098 0.9467
-7.1090 -11.3904 -1.2890 0.9475
-6.0658 -11.9818 -1.2893 0.9475
-2.7231 -13.3893 -1.3118 0.9466
-0.3079 -14.0109 -1.3454 0.9452
2.2681 -14.3564 -1.3954 0.9433
5.3844 -15.4496 -1.5707 0.9364
6.9321 -15.3298 -1.6152 0.9346
8.5298 -15.1065 -1.6655 0.9327
10.1777 -14.7704 -1.7221 0.9305
13.6229 -13.7155 -1.8559 0.9253
14.6688 0.2230 -1.4084 0.9428
10.0971 1.9824 -0.9879 0.9595
6.1683 3.7920 -0.6951 0.9713
4.1196 4.4079 -0.5792 0.9760
2.2149 5.3234 -0.5535 0.9771
1.7915 5.6916 -0.5729 0.9763
1.2925 5.9016 -0.5800 0.9760
0.2277 6.1590 -0.5917 0.9755
-0.9779 6.8539 -0.6647 0.9726
-2.5422 1.8345 -0.3010 0.9875
-18.7766 5.1514 -1.8693 0.9247
-18.4245 3.3229 -1.7974 0.9275
-15.4499 -4.2464 -1.5383 0.9376
-13.8414 -6.6332 -1.4736 0.9402
-12.0518 -8.7053 -1.4273 0.9420
-8.4478 -10.5057 -1.2942 0.9473
-7.4509 -11.1785 -1.2897 0.9474
-5.3529 -12.3414 -1.2915 0.9474
-4.2510 -12.8314 -1.2977 0.9471
-3.1129 -13.2598 -1.3076 0.9467
-1.9375 -13.6250 -1.3212 0.9462
0.5299 -14.1577 -1.3602 0.9447
3.1619 -14.4049 -1.4159 0.9425
4.5431 -14.4103 -1.4506 0.9411
7.9886 -15.1934 -1.6480 0.9333
9.6197 -14.8963 -1.7024 0.9312
13.0319 -13.9310 -1.8314 0.9262
14.8102 -13.2379 -1.9071 0.9233
14.8522 -0.2190 -1.4260 0.9421
11.6062 0.8673 -1.1174 0.9543
10.8661 1.7973 -1.0574 0.9567
8.2724 2.9503 -0.8432 0.9653
7.0782 3.2627 -0.7483 0.9692
6.4664 3.7132 -0.7159 0.9705
4.9485 4.1674 -0.6211 0.9743
4.3479 4.3815 -0.5926 0.9755
3.9126 4.7192 -0.5885 0.9757
3.3983 4.9367 -0.5754 0.9762
2.8512 5.0550 -0.5572 0.9769
2.3740 5.2563 -0.5537 0.9771
1.8989 5.4566 -0.5547 0.9771
0.9240 5.8666 -0.5702 0.9764
0.4075 6.0835 -0.5854 0.9758
-0.1417 6.3139 -0.6063 0.9749
-0.7534 6.7123 -0.6485 0.9732
-2.4933 1.9154 -0.3018 0.9874
-18.8711 5.7902 -1.8951 0.9237
-18.1374 2.1695 -1.7537 0.9292
-17.6344 0.5242 -1.6937 0.9316
-17.0550 -1.0180 -1.6403 0.9336
-16.4077 -2.4621 -1.5929 0.9355
-15.6998 -3.8134 -1.5511 0.9371
-14.1244 -6.2558 -1.4831 0.9398
-9.4280 -9.2205 -1.2661 0.9484
-8.7742 -10.2663 -1.2965 0.9472
-4.6244 -12.6740 -1.2952 0.9472
-3.4985 -13.1231 -1.3039 0.9469
-1.1349 -13.8320 -1.3324 0.9458
1.3859 -14.2731 -1.3767 0.9440
2.7087 -14.3848 -1.4053 0.9429
5.8890 -15.4210 -1.5848 0.9358
-2.6840 -11.4591 -1.3980 0.9537
-1.6659 -11.7577 -1.4106 0.9533
1.6141 -12.6158 -1.5108 0.9501
2.8910 -13.1390 -1.5981 0.9473
5.4409 -13.0415 -1.6786 0.9447
8.0859 -12.5072 -1.7691 0.9418
9.4438 -12.0871 -1.8220 0.9401
12.2099 -10.9024 -1.9444 0.9362
13.6058 -10.1208 -2.0143 0.9340
19.4138 -2.0178 -2.3185 0.9244
11.6070 0.8733 -1.3826 0.9542
9.0227 2.3401 -1.1072 0.9631
8.2409 2.9439 -1.0395 0.9654
7.0624 3.2597 -0.9240 0.9692
6.4527 3.7097 -0.8841 0.9705
4.3394 4.3774 -0.7322 0.9755
3.3915 4.9321 -0.7110 0.9762
1.8940 5.4514 -0.6855 0.9770
1.4567 5.8251 -0.7132 0.9761
0.9201 5.8609 -0.7047 0.9764
0.4040 6.0774 -0.7235 0.9758
-15.6142 6.3551 -2.0025 0.9343
-15.5643 4.7669 -1.9336 0.9365
-15.4080 3.2498 -1.8705 0.9385
-13.9191 -2.0959 -1.6720 0.9449
-13.3712 -3.2550 -1.6347 0.9461
-5.8553 -10.0388 -1.3805 0.9543
-3.9954 -10.9675 -1.3865 0.9541
-3.0185 -11.3455 -1.3946 0.9538
-2.0106 -11.6644 -1.4060 0.9534
0.0966 -12.1168 -1.4394 0.9524
1.2155 -12.4521 -1.4862 0.9509
3.7360 -13.1926 -1.6287 0.9463
5.0080 -13.0941 -1.6653 0.9451
8.9863 -12.2400 -1.8037 0.9407
11.7429 -11.1351 -1.9223 0.9369
13.1376 -10.3977 -1.9902 0.9347
15.9189 -8.5081 -2.1441 0.9299
17.2692 -5.5733 -2.1555 0.9295
14.1131 -3.1981 -1.7189 0.9434
19.5535 -2.6263 -2.3435 0.9236
12.1219 0.5477 -1.4414 0.9523
10.9330 1.4792 -1.3105 0.9565
8.5561 2.7705 -1.0683 0.9644
7.3658 3.1358 -0.9509 0.9683
6.5179 3.4917 -0.8783 0.9707
5.1415 4.0774 -0.7795 0.9739
4.5541 4.3268 -0.7462 0.9750
4.0827 4.6395 -0.7341 0.9754
3.5611 4.8604 -0.7157 0.9760
3.0067 4.9821 -0.6912 0.9768
2.0533 5.3843 -0.6845 0.9771
1.1206 5.9663 -0.7211 0.9758
0.2869 2.9686 -0.3543 0.9881
-0.5501 6.6665 -0.7946 0.9734
-4.8985 13.4058 -1.6954 0.9441
-15.2462 10.3222 -2.1871 0.9285
-15.4939 8.5817 -2.1039 0.9311
-15.6050 6.9030 -2.0269 0.9336
-15.4715 3.7504 -1.8910 0.9379
-14.9408 0.8848 -1.7779 0.9415
-14.5509 -0.4392 -1.7292 0.9430
-14.0889 -1.6918 -1.6856 0.9444
-13.5616 -2.8741 -1.6467 0.9457
-12.3335 -5.0338 -1.5824 0.9478
-10.1230 -7.7838 -1.5168 0.9499
-7.8623 -8.6691 -1.3902 0.9540
-7.0251 -9.2931 -1.3838 0.9542
-6.1545 -9.8610 -1.3808 0.9543
-5.2512 -10.3727 -1.3810 0.9542
-2.3519 -11.5642 -1.4018 0.9536
-1.3236 -11.8427 -1.4155 0.9531
2.0193 -12.7820 -1.5372 0.9492
3.3163 -13.2067 -1.6175 0.9466
9.8956 -11.9245 -1.8407 0.9395
11.2770 -11.3536 -1.9009 0.9376
14.0657 -9.8333 -2.0386 0.9332
15.4561 -8.8657 -2.1166 0.9307
16.7791 -7.7248 -2.1942 0.9283
16.8615 -6.0049 -2.1261 0.9304
18.0596 -4.6651 -2.2157 0.9276
19.1923 -3.1654 -2.3106 0.9246
14.6275 0.2224 -1.7377 0.9428
11.6593 1.2233 -1.3926 0.9539
6.7856 3.3777 -0.9004 0.9699
4.1146 4.4025 -0.7158 0.9760
3.1492 4.8815 -0.6900 0.9769
2.2123 5.3173 -0.6841 0.9771
1.2910 5.8947 -0.7168 0.9760
0.2274 6.1515 -0.7312 0.9755
-0.3349 6.3869 -0.7597 0.9746
-2.5407 1.8335 -0.3722 0.9875
-15.6102 5.8241 -1.9791 0.9351
-15.0540 1.3449 -1.7953 0.9409
-14.2514 -1.2798 -1.6997 0.9440
-13.7453 -2.4855 -1.6592 0.9453
-13.1778 -3.6219 -1.6234 0.9464
-11.8793 -5.6929 -1.5648 0.9483
-11.1567 -6.6305 -1.5416 0.9491
-7.3096 -9.0902 -1.3856 0.9541
-5.5576 -10.2075 -1.3806 0.9543
-3.6769 -11.0985 -1.3888 0.9540
-0.6233 -11.9935 -1.4266 0.9528
0.4553 -12.1666 -1.4462 0.9521
1.6072 -12.6130 -1.5104 0.9501
6.7431 -12.8244 -1.7211 0.9433
8.0782 -12.5093 -1.7688 0.9418
9.4360 -12.0898 -1.8217 0.9401
13.5978 -10.1256 -2.0139 0.9340
14.9913 -9.2064 -2.0897 0.9316
2.3417 -0.9139 -0.2986 0.9899
17.6643 -5.1318 -2.1850 0.9286
19.4445 -2.0310 -2.3223 0.9243
8.2407 2.9390 -1.0393 0.9654
6.4571 3.7078 -0.8845 0.9705
5.5677 3.8962 -0.8072 0.9730
4.9422 4.1620 -0.7675 0.9743
2.8479 5.0492 -0.6886 0.9769
1.8967 5.4503 -0.6855 0.9770
0.9230 5.8597 -0.7046 0.9764
0.4071 6.0761 -0.7234 0.9758
-0.1415 6.3060 -0.7492 0.9749
-0.7580 6.7534 -0.8072 0.9730
-2.4959 1.9173 -0.3739 0.9874
-15.3438 9.7422 -2.1590 0.9294
-15.5449 8.0214 -2.0779 0.9320
-15.5649 4.7758 -1.9340 0.9365
-14.8207 0.4406 -1.7613 0.9420
-13.9221 -2.0891 -1.6723 0.9449
-12.7693 -4.3397 -1.6020 0.9471
-12.1111 -5.3642 -1.5734 0.9480
-11.4040 -6.3233 -1.5489 0.9488
-10.6515 -7.2186 -1.5284 0.9495
-7.5902 -8.8809 -1.3877 0.9540
-4.0009 -10.9652 -1.3865 0.9541
-3.0241 -11.3435 -1.3945 0.9538
-0.9781 -11.9209 -1.4208 0.9530
0.0904 -12.1159 -1.4392 0.9524
5.0007 -13.0949 -1.6651 0.9451
6.3010 -12.9080 -1.7062 0.9438
8.9785 -12.2425 -1.8034 0.9407
10.3492 -11.7495 -1.8599 0.9389
11.7350 -11.1390 -1.9219 0.9369
13.1296 -10.4023 -1.9898 0.9348
-1.5714 -11.0912 -1.5872 0.9558
-0.5815 -11.2991 -1.6031 0.9553
1.4737 -11.5188 -1.6454 0.9542
3.6185 -11.4573 -1.7024 0.9526
4.7194 -11.3121 -1.7367 0.9517
5.8356 -11.0850 -1.7750 0.9506
6.9638 -10.7716 -1.8174 0.9495
8.0997 -10.3667 -1.8640 0.9482
9.2381 -9.8654 -1.9150 0.9469
10.3729 -9.2622 -1.9704 0.9454
11.4966 -8.5519 -2.0302 0.9438
12.6004 -7.7293 -2.0945 0.9420
13.6704 -6.7882 -2.1626 0.9402
14.5501 -4.2191 -2.1465 0.9406
15.3866 -3.0054 -2.2213 0.9386
16.1389 -1.6774 -2.2990 0.9366
10.5702 1.7539 -1.5182 0.9576
6.9685 3.2164 -1.0875 0.9695
4.3341 4.3720 -0.8723 0.9754
3.9002 4.7092 -0.8664 0.9756
2.3659 5.2454 -0.8153 0.9770
0.9190 5.8540 -0.8396 0.9763
-1.3941 6.8210 -0.9864 0.9723
-7.1394 17.8604 -2.7253 0.9252
-8.4222 16.5964 -2.6370 0.9276
-9.5413 15.2547 -2.5494 0.9299
-11.9462 10.9928 -2.3002 0.9365
-2.4983 1.9171 -0.4462 0.9874
-13.2057 5.3748 -2.0201 0.9440
-13.1651 2.7768 -1.9064 0.9471
-13.0081 1.5492 -1.8561 0.9485
-11.6384 -2.8332 -1.6972 0.9528
-11.1404 -3.7925 -1.6674 0.9536
-9.9906 -5.5462 -1.6191 0.9549
-9.3462 -6.3409 -1.6003 0.9554
-8.6595 -7.0810 -1.5849 0.9558
-7.9333 -7.7665 -1.5730 0.9561
-7.1696 -8.3975 -1.5645 0.9564
-6.3705 -8.9735 -1.5593 0.9565
-5.5377 -9.4944 -1.5573 0.9566
-1.8974 -11.0075 -1.5827 0.9559
5.4599 -11.1705 -1.7617 0.9510
8.8565 -10.0445 -1.8974 0.9473
11.1217 -8.8022 -2.0096 0.9443
2.3500 -0.9978 -0.3617 0.9897
14.2538 -4.6001 -2.1222 0.9413
14.1048 -3.1963 -2.0492 0.9432
15.8971 -2.1352 -2.2727 0.9373
15.2348 -0.6735 -2.1607 0.9403
9.4523 2.1516 -1.3735 0.9616
8.1092 2.6258 -1.2077 0.9662
7.2069 3.0681 -1.1098 0.9689
6.5082 3.4866 -1.0461 0.9706
5.9562 3.9121 -1.0097 0.9716
5.1348 4.0720 -0.9285 0.9739
4.5484 4.3214 -0.8889 0.9750
4.0778 4.6339 -0.8746 0.9754
3.5569 4.8546 -0.8527 0.9760
3.0032 4.9763 -0.8235 0.9768
2.4903 5.1074 -0.8051 0.9773
2.0510 5.3781 -0.8156 0.9770
1.1193 5.9593 -0.8591 0.9758
0.0435 6.2207 -0.8814 0.9752
-1.1926 6.8787 -0.9892 0.9722
-1.8591 6.9607 -1.0208 0.9713
-8.0103 17.0301 -2.6666 0.9268
-11.7451 11.4760 -2.3267 0.9358
-12.2978 10.0361 -2.2491 0.9379
-13.1732 5.8273 -2.0410 0.9435
-13.2355 4.4914 -1.9804 0.9451
-12.8586 0.7615 -1.8251 0.9493
-11.7929 -2.4993 -1.7080 0.9525
-10.7799 -4.3997 -1.6497 0.9541
-10.1966 -5.2676 -1.6261 0.9547
-9.5670 -6.0806 -1.6062 0.9552
-7.4296 -8.1921 -1.5670 0.9563
-6.6422 -8.7866 -1.5607 0.9565
-4.9661 -9.8097 -1.5579 0.9566
-3.1637 -10.6027 -1.5677 0.9563
0.7741 -11.4752 -1.6296 0.9546
2.8905 -11.5109 -1.6816 0.9532
5.0857 -11.2465 -1.7489 0.9514
6.2063 -10.9915 -1.7885 0.9503
9.6128 -9.6781 -1.9328 0.9464
11.8631 -8.2934 -2.0509 0.9432
12.9581 -7.4329 -2.1166 0.9414
13.0097 -5.9895 -2.0293 0.9438
13.9505 -4.9682 -2.0982 0.9419
14.8340 -3.8319 -2.1708 0.9400
14.5861 0.2218 -2.0669 0.9428
10.0015 1.9637 -1.4442 0.9597
4.7394 4.2402 -0.9011 0.9746
4.1096 4.3972 -0.8528 0.9760
3.1455 4.8758 -0.8221 0.9768
2.6843 5.1110 -0.8180 0.9769
1.7874 5.6785 -0.8435 0.9762
0.3742 2.9475 -0.4210 0.9881
0.2271 6.1439 -0.8711 0.9755
-0.3344 6.3787 -0.9050 0.9745
-0.9750 6.8335 -0.9780 0.9725
-1.6247 6.9062 -1.0052 0.9717
-6.1886 18.6509 -2.7843 0.9237
-8.8091 16.1616 -2.6080 0.9283
-11.5277 11.9589 -2.3535 0.9351
-13.1228 2.3667 -1.8893 0.9476
-12.9383 1.1559 -1.8405 0.9489
-12.6755 -0.0029 -1.7960 0.9501
-11.9408 -2.1592 -1.7193 0.9522
-10.3975 -4.9828 -1.6336 0.9545
-9.1244 -6.5908 -1.5948 0.9555
-7.6856 -7.9805 -1.5699 0.9562
-6.0997 -9.1513 -1.5583 0.9565
-5.2561 -9.6538 -1.5574 0.9566
-2.5400 -10.8195 -1.5747 0.9561
-1.5770 -11.0899 -1.5871 0.9558
-0.5871 -11.2981 -1.6030 0.9553
6.9573 -10.7736 -1.8171 0.9495
8.0932 -10.3693 -1.8638 0.9482
9.2316 -9.8685 -1.9147 0.9469
2.3417 -0.9138 -0.3562 0.9899
14.8477 -0.2189 -2.1040 0.9418
11.6026 0.8670 -1.6485 0.9541
10.5795 1.7499 -1.5194 0.9576
7.7696 2.7710 -1.1688 0.9672
6.4000 3.6751 -1.0457 0.9706
5.5601 3.8909 -0.9616 0.9730
3.9032 4.7079 -0.8665 0.9756
2.8446 5.0433 -0.8204 0.9769
1.8945 5.4440 -0.8167 0.9770
0.9219 5.8528 -0.8395 0.9763
0.4066 6.0688 -0.8618 0.9757
-0.1413 6.2980 -0.8926 0.9749
-0.7570 6.7445 -0.9616 0.9730
-1.3902 6.8193 -0.9861 0.9723
-2.0964 7.0141 -1.0373 0.9709
-7.1316 17.8673 -2.7258 0.9252
-8.4154 16.6039 -2.6375 0.9276
-10.4933 13.8677 -2.4640 0.9322
-11.9429 11.0011 -2.3007 0.9365
-13.0712 6.7449 -2.0841 0.9423
-13.0093 1.5561 -1.8564 0.9484
-12.0819 -1.8130 -1.7310 0.9518
-11.6411 -2.8276 -1.6974 0.9528
-10.5931 -4.6918 -1.6415 0.9543
-9.9941 -5.5415 -1.6192 0.9549
-8.6636 -7.0769 -1.5850 0.9558
-7.9375 -7.7628 -1.5731 0.9561
-7.1741 -8.3940 -1.5645 0.9564
-5.5425 -9.4915 -1.5574 0.9566
-3.7754 -10.3471 -1.5606 0.9565
-0.9219 -11.2354 -1.5973 0.9555
0.0851 -11.4010 -1.6154 0.9550
1.1167 -11.5006 -1.6372 0.9544
2.1713 -11.5309 -1.6625 0.9537
3.2473 -11.4888 -1.6916 0.9529
5.4536 -11.1719 -1.7615 0.9510
8.8500 -10.0475 -1.8971 0.9473
9.9869 -9.4796 -1.9510 0.9459
11.1153 -8.8064 -2.0093 0.9443
12.2270 -8.0227 -2.0721 0.9426
-3.0971 -9.3644 -1.6249 0.9608
0.3860 -10.1741 -1.6773 0.9596
7.0848 -9.0678 -1.8957 0.9544
8.0530 -8.5998 -1.9409 0.9534
9.0088 -8.0442 -1.9897 0.9522
9.9451 -7.3977 -2.0419 0.9510
10.8536 -6.6578 -2.0976 0.9497
12.3542 -3.5823 -2.1191 0.9492
12.9961 -2.5385 -2.1814 0.9477
11.6033 0.8730 -1.9169 0.9539
7.8951 2.8203 -1.3811 0.9666
6.8609 3.1667 -1.2449 0.9698
6.0632 3.4858 -1.1522 0.9720
5.4440 3.8137 -1.0950 0.9734
4.9026 4.1329 -1.0563 0.9743
4.2798 4.3173 -1.0015 0.9757
-0.1433 6.2451 -1.0291 0.9750
-0.7213 6.3974 -1.0606 0.9742
-1.2118 5.9291 -0.9970 0.9758
-5.4781 13.7046 -2.4314 0.9419
-7.9783 12.7557 -2.4786 0.9408
-9.5508 10.5103 -2.3396 0.9441
-10.1517 9.3416 -2.2727 0.9456
-11.5006 3.5223 -1.9815 0.9524
-10.9682 -0.6602 -1.8102 0.9564
-10.6615 -1.6054 -1.7762 0.9572
-9.8750 -3.3617 -1.7185 0.9586
-8.8851 -4.9325 -1.6741 0.9596
-5.6889 -8.0134 -1.6190 0.9609
-4.1728 -8.8939 -1.6184 0.9610
-3.3717 -9.2553 -1.6227 0.9609
-2.5441 -9.5625 -1.6301 0.9607
-1.6916 -9.8140 -1.6406 0.9604
0.0809 -10.1426 -1.6709 0.9597
0.9972 -10.2156 -1.6909 0.9592
1.9307 -10.2245 -1.7141 0.9587
3.8396 -10.0391 -1.7707 0.9574
5.7834 -9.5620 -1.8409 0.9557
6.7586 -9.2057 -1.8814 0.9548
7.7295 -8.7663 -1.9254 0.9537
8.6902 -8.2404 -1.9729 0.9526
9.6339 -7.6247 -2.0240 0.9514
11.4375 -6.1130 -2.1364 0.9488
12.0715 0.5454 -1.9907 0.9522
9.5574 2.1755 -1.6148 0.9610
7.1881 3.0601 -1.2870 0.9688
6.3098 3.3803 -1.1792 0.9714
5.6317 3.6989 -1.1100 0.9731
4.5427 4.3159 -1.0323 0.9749
2.5011 5.1296 -0.9401 0.9771
2.0486 5.3719 -0.9471 0.9770
1.6199 5.7415 -0.9828 0.9761
0.0433 6.1926 -1.0202 0.9752
-1.1307 6.5216 -1.0904 0.9735
-1.8195 6.8125 -1.1616 0.9718
-6.1695 13.1164 -2.3879 0.9429
-7.6654 13.1131 -2.5023 0.9403
-9.9637 9.7354 -2.2949 0.9451
-10.4856 8.5572 -2.2296 0.9466
-10.8928 7.3748 -2.1671 0.9481
-11.1912 6.1985 -2.1075 0.9495
-11.4874 3.8982 -1.9984 0.9520
-11.4260 1.7092 -1.9033 0.9542
-11.0570 -0.3338 -1.8223 0.9561
-10.4246 -2.2093 -1.7555 0.9577
-10.0219 -3.0801 -1.7272 0.9584
-9.5671 -3.9047 -1.7023 0.9590
-9.0640 -4.6824 -1.6807 0.9595
-8.5159 -5.4125 -1.6623 0.9599
-7.2969 -6.7277 -1.6350 0.9606
-5.9309 -7.8456 -1.6202 0.9609
-5.1983 -8.3290 -1.6174 0.9610
-3.6433 -9.1402 -1.6210 0.9609
-1.9801 -9.7360 -1.6367 0.9605
0.6879 -10.1982 -1.6839 0.9594
1.6160 -10.2288 -1.7060 0.9589
2.5597 -10.1937 -1.7314 0.9583
5.4564 -9.6634 -1.8282 0.9560
11.1381 -5.1278 -2.0200 0.9515
11.8854 -4.2327 -2.0785 0.9501
14.1569 0.2153 -2.3325 0.9442
10.0352 1.9703 -1.6848 0.9594
8.7163 2.5366 -1.4955 0.9639
7.5316 2.9432 -1.3321 0.9678
6.5685 3.2697 -1.2087 0.9707
5.8314 3.5849 -1.1277 0.9726
5.2626 3.9226 -1.0813 0.9737
4.1045 4.3917 -0.9903 0.9759
3.7242 4.7761 -0.9977 0.9757
3.1418 4.8701 -0.9548 0.9768
2.6812 5.1051 -0.9499 0.9769
1.7853 5.6719 -0.9796 0.9762
1.2880 5.8809 -0.9918 0.9759
0.2268 6.1363 -1.0116 0.9754
-0.3301 6.2960 -1.0386 0.9748
-5.8271 13.4176 -2.4099 0.9424
-9.0794 11.2805 -2.3855 0.9430
-9.7622 10.1273 -2.3173 0.9446
-10.3236 8.9532 -2.2512 0.9461
-11.1029 6.5916 -2.1271 0.9490
-11.3325 5.4244 -2.0698 0.9503
-11.4641 4.2772 -2.0157 0.9516
-11.4591 2.0666 -1.9182 0.9539
-10.8740 -0.9765 -1.7986 0.9567
-10.1629 -2.7933 -1.7363 0.9582
-9.7251 -3.6335 -1.7103 0.9588
-7.5120 -6.5209 -1.6387 0.9605
-6.8583 -7.1214 -1.6288 0.9607
-6.1694 -7.6722 -1.6219 0.9609
-5.4474 -8.1727 -1.6180 0.9610
-3.1018 -9.3626 -1.6248 0.9608
-2.2658 -9.6516 -1.6332 0.9606
0.3808 -10.1736 -1.6772 0.9596
1.3030 -10.2258 -1.6982 0.9591
2.2417 -10.2130 -1.7225 0.9585
4.1582 -9.9812 -1.7813 0.9571
5.1297 -9.7560 -1.8158 0.9563
6.1049 -9.4535 -1.8539 0.9554
9.0034 -8.0476 -1.9894 0.9522
9.9398 -7.4017 -2.0416 0.9510
10.8485 -6.6622 -2.0973 0.9497
11.7044 -5.8194 -2.1534 0.9484
2.3416 -0.9138 -0.4141 0.9899
12.9926 -2.5447 -2.1811 0.9477
13.5549 -1.4158 -2.2452 0.9462
10.5568 1.7461 -1.7627 0.9575
6.0673 3.4840 -1.1526 0.9720
5.4471 3.8118 -1.0952 0.9734
4.2829 4.3160 -1.0017 0.9757
3.8985 4.7022 -1.0062 0.9755
3.3864 4.9193 -0.9839 0.9761
2.8413 5.0375 -0.9528 0.9768
1.8923 5.4377 -0.9485 0.9769
1.4453 5.7672 -0.9795 0.9762
0.9208 5.8458 -0.9749 0.9763
-0.1401 6.2442 -1.0289 0.9750
-0.7180 6.3966 -1.0604 0.9742
-5.4720 13.7094 -2.4317 0.9419
-7.9731 12.7619 -2.4790 0.9408
-10.1487 9.3483 -2.2731 0.9456
-2.5016 1.9217 -0.5197 0.9873
-11.0028 6.9860 -2.1471 0.9485
-11.2668 5.8138 -2.0886 0.9499
-11.3851 1.3618 -1.8889 0.9546
-11.2121 0.3333 -1.8479 0.9555
-10.6634 -1.6001 -1.7764 0.9572
-9.8776 -3.3570 -1.7186 0.9586
-9.4065 -4.1662 -1.6948 0.9592
-8.3260 -5.6426 -1.6569 0.9600
-7.7229 -6.3086 -1.6428 0.9604
-4.9501 -8.4771 -1.6172 0.9610
-4.1773 -8.8917 -1.6184 0.9610
-2.5489 -9.5609 -1.6301 0.9607
-1.6966 -9.8127 -1.6405 0.9604
0.9919 -10.2154 -1.6908 0.9592
1.9254 -10.2247 -1.7140 0.9587
2.8737 -10.1672 -1.7406 0.9581
4.8034 -9.8400 -1.8039 0.9566
5.7778 -9.5638 -1.8407 0.9557
6.7530 -9.2080 -1.8811 0.9548
7.7240 -8.7691 -1.9251 0.9537
8.6848 -8.2437 -1.9726 0.9526
9.6286 -7.6285 -2.0237 0.9514
-0.4662 -9.0589 -1.7050 0.9638
0.3472 -9.1520 -1.7214 0.9634
1.1754 -9.1870 -1.7409 0.9630
2.0159 -9.1618 -1.7633 0.9625
3.7222 -8.9219 -1.8170 0.9614
5.4390 -8.4130 -1.8830 0.9600
6.2908 -8.0515 -1.9205 0.9593
7.1314 -7.6156 -1.9611 0.9584
7.9550 -7.1031 -2.0045 0.9575
10.2297 -5.0797 -2.1468 0.9546
10.7237 -3.1096 -2.0987 0.9556
11.6765 -1.2136 -2.2066 0.9533
7.9686 2.8466 -1.5905 0.9661
7.0135 3.2371 -1.4519 0.9690
6.1407 3.5303 -1.3314 0.9716
4.7768 4.0269 -1.1743 0.9749
3.3795 4.9147 -1.1211 0.9760
2.7913 4.9546 -1.0689 0.9771
1.8573 5.3459 -1.0637 0.9772
0.4691 2.9881 -0.5685 0.9878
0.3909 5.8793 -1.1075 0.9763
-0.7184 6.3716 -1.2052 0.9742
-1.1845 5.7953 -1.1118 0.9762
-3.6858 12.3089 -2.4151 0.9490
-4.6644 11.6689 -2.3620 0.9501
-7.0597 9.3200 -2.1976 0.9535
-8.2635 9.0937 -2.3096 0.9512
-2.5041 1.9216 -0.5933 0.9872
-9.6283 6.1064 -2.1430 0.9547
-9.8925 5.0983 -2.0918 0.9557
-10.0681 4.0978 -2.0432 0.9567
-10.1126 1.2044 -1.9142 0.9594
-9.9827 0.2917 -1.8772 0.9602
-9.7884 -0.5892 -1.8432 0.9609
-9.5340 -1.4356 -1.8122 0.9615
-8.8611 -3.0165 -1.7594 0.9626
-8.4501 -3.7478 -1.7375 0.9631
-7.4958 -5.0855 -1.7026 0.9638
-6.9583 -5.6899 -1.6895 0.9641
-5.7757 -6.7648 -1.6719 0.9644
-5.1353 -7.2336 -1.6674 0.9645
-4.4650 -7.6553 -1.6658 0.9646
-3.7669 -8.0287 -1.6669 0.9645
-3.0429 -8.3528 -1.6709 0.9645
-2.2950 -8.6262 -1.6778 0.9643
-1.5250 -8.8475 -1.6875 0.9641
-0.7351 -9.0150 -1.7001 0.9639
0.0728 -9.1271 -1.7156 0.9635
0.8962 -9.1818 -1.7340 0.9631
1.7329 -9.1771 -1.7554 0.9627
3.4346 -8.9803 -1.8072 0.9616
5.1519 -8.5179 -1.8711 0.9603
6.0062 -8.1809 -1.9076 0.9595
6.8512 -7.7702 -1.9471 0.9587
8.4897 -6.7192 -2.0350 0.9569
2.3366 -0.9921 -0.4771 0.9897
10.5368 -3.4005 -2.0811 0.9559
11.5382 -1.5497 -2.1882 0.9537
11.9222 -0.5271 -2.2431 0.9526
12.0254 0.5433 -2.2626 0.9522
11.0939 1.5010 -2.1042 0.9555
8.3220 2.6947 -1.6442 0.9650
4.9725 3.9433 -1.1929 0.9745
4.0678 4.6225 -1.1574 0.9753
3.5484 4.8431 -1.1285 0.9759
2.4822 5.0909 -1.0646 0.9772
1.5418 5.4645 -1.0672 0.9772
0.2754 2.8499 -0.5382 0.9884
0.0422 6.0249 -1.1325 0.9758
-1.0289 5.9346 -1.1321 0.9758
-1.8572 6.9536 -1.3528 0.9711
-4.3457 11.8931 -2.3800 0.9498
-5.2671 11.1979 -2.3260 0.9509
-6.8342 9.6069 -2.2160 0.9531
-8.0550 9.4160 -2.3291 0.9508
-8.6430 8.4450 -2.2713 0.9520
-9.1301 7.4510 -2.2150 0.9532
-10.1383 3.4404 -2.0123 0.9574
-10.1774 2.4670 -1.9683 0.9583
-9.8605 -0.2977 -1.8542 0.9606
-9.6257 -1.1559 -1.8223 0.9613
-8.5931 -3.5072 -1.7445 0.9629
-8.1517 -4.2112 -1.7246 0.9633
-6.5805 -6.0672 -1.6824 0.9642
-5.9833 -6.5973 -1.6741 0.9644
-5.3534 -7.0817 -1.6686 0.9645
-4.6929 -7.5192 -1.6660 0.9646
-4.0039 -7.9090 -1.6662 0.9646
-2.5483 -8.5403 -1.6752 0.9644
-1.0020 -8.9650 -1.6956 0.9640
-0.1999 -9.0959 -1.7101 0.9636
3.1475 -9.0313 -1.7977 0.9618
9.7685 -5.6033 -2.1167 0.9552
10.3430 -3.6834 -2.0637 0.9563
10.9005 -2.8158 -2.1161 0.9552
11.3907 -1.8787 -2.1699 0.9541
11.6965 1.2272 -2.2106 0.9533
6.7078 3.3390 -1.4084 0.9700
5.8850 3.6178 -1.2984 0.9723
5.1823 3.8627 -1.2149 0.9740
3.1032 4.8102 -1.0759 0.9770
2.6381 5.0230 -1.0664 0.9772
-0.3239 6.1776 -1.1627 0.9751
-0.9238 6.4750 -1.2294 0.9737
-5.8296 10.6953 -2.2895 0.9516
-9.9599 4.7674 -2.0755 0.9561
-9.9256 -0.0023 -1.8656 0.9604
-9.7110 -0.8721 -1.8326 0.9611
-9.4377 -1.7066 -1.8027 0.9617
-7.3228 -5.2895 -1.6979 0.9639
-5.5681 -6.9244 -1.6701 0.9645
-4.9176 -7.3778 -1.6666 0.9646
-4.2379 -7.7837 -1.6658 0.9646
-3.5311 -8.1410 -1.6679 0.9645
-2.7990 -8.4486 -1.6729 0.9644
-2.0436 -8.7050 -1.6807 0.9643
-1.2668 -8.9087 -1.6913 0.9640
0.3425 -9.1516 -1.7213 0.9634
1.1706 -9.1869 -1.7407 0.9630
2.0111 -9.1621 -1.7631 0.9625
3.7173 -8.9229 -1.8169 0.9614
4.5764 -8.7037 -1.8483 0.9608
6.2860 -8.0538 -1.9203 0.9593
8.7503 -6.5159 -2.0506 0.9566
10.2261 -5.0844 -2.1466 0.9546
11.2345 -2.2003 -2.1518 0.9545
11.6742 -1.2194 -2.2062 0.9534
12.0292 -0.1774 -2.2613 0.9522
10.5340 1.7424 -2.0069 0.9575
9.1070 2.3570 -1.7682 0.9624
7.9744 2.8441 -1.5914 0.9661
7.0189 3.2353 -1.4527 0.9690
6.1453 3.5288 -1.3320 0.9716
5.4069 3.7837 -1.2404 0.9735
3.8937 4.6965 -1.1467 0.9755
3.3824 4.9135 -1.1212 0.9760
2.7939 4.9534 -1.0689 0.9771
1.8600 5.3449 -1.0637 0.9772
1.3838 5.5215 -1.0699 0.9771
0.4712 2.9912 -0.5692 0.9878
0.3938 5.8781 -1.1073 0.9763
-0.1369 6.0996 -1.1468 0.9755
-0.7149 6.3699 -1.2048 0.9742
-3.6800 12.3122 -2.4154 0.9490
-5.5510 10.9524 -2.3079 0.9513
-8.8145 8.1194 -2.2526 0.9524
-2.5045 1.9240 -0.5936 0.9872
-10.1598 3.1173 -1.9975 0.9577
-10.1734 2.1512 -1.9545 0.9586
-10.1131 1.2097 -1.9144 0.9594
-9.7897 -0.5843 -1.8434 0.9609
-9.5356 -1.4309 -1.8124 0.9615
-9.2255 -2.2408 -1.7845 0.9621
-8.8633 -3.0123 -1.7595 0.9626
-7.9967 -4.4340 -1.7187 0.9635
-6.9614 -5.6865 -1.6895 0.9641
-6.3874 -6.2469 -1.6793 0.9643
-5.7792 -6.7620 -1.6719 0.9644
-4.4689 -7.6530 -1.6658 0.9646
-3.0471 -8.3511 -1.6709 0.9645
-1.5295 -8.8464 -1.6874 0.9641
-0.7396 -9.0142 -1.7000 0.9639
0.8915 -9.1817 -1.7339 0.9632
2.5752 -9.1112 -1.7796 0.9622
6.0013 -8.1830 -1.9074 0.9595
9.2654 -6.0794 -2.0829 0.9559
-0.4236 -8.2328 -1.7425 0.9669
0.3152 -8.3100 -1.7578 0.9666
2.5929 -8.2100 -1.8199 0.9654
4.1317 -7.8484 -1.8748 0.9644
6.3935 -6.8276 -1.9772 0.9625
8.4759 -5.1992 -2.1018 0.9602
2.3428 -0.9129 -0.5315 0.9898
9.4641 -2.7443 -2.0829 0.9605
10.2431 -1.0646 -2.1768 0.9588
10.5218 -0.1498 -2.2243 0.9579
10.7156 0.8062 -2.2715 0.9570
10.5018 1.7426 -2.2502 0.9574
7.9549 2.8417 -1.7856 0.9661
7.0183 3.2394 -1.6339 0.9689
6.2263 3.5795 -1.5181 0.9711
4.8483 4.0872 -1.3404 0.9744
2.2891 5.0753 -1.1769 0.9775
1.8304 5.2686 -1.1790 0.9775
0.1990 2.9937 -0.6342 0.9878
-1.1834 5.7900 -1.2492 0.9761
-4.0567 10.1486 -2.3103 0.9563
-5.5608 8.8905 -2.2166 0.9580
-6.1961 8.1799 -2.1691 0.9589
-6.7510 7.4292 -2.1219 0.9598
-7.7854 7.1641 -2.2364 0.9577
-2.5070 1.9238 -0.6680 0.9872
-8.9874 3.6580 -2.0511 0.9611
-9.1239 1.9244 -1.9710 0.9626
-9.0887 1.0824 -1.9347 0.9633
-8.9896 0.2626 -1.9010 0.9639
-8.8305 -0.5316 -1.8700 0.9645
-8.6151 -1.2973 -1.8416 0.9650
-8.3470 -2.0319 -1.8159 0.9655
-7.6662 -3.4001 -1.7727 0.9663
-7.2597 -4.0302 -1.7552 0.9666
-6.3289 -5.1753 -1.7281 0.9671
-5.8099 -5.6878 -1.7186 0.9673
-4.6764 -6.5872 -1.7076 0.9675
-2.0887 -7.8510 -1.7173 0.9673
-1.3873 -8.0482 -1.7263 0.9672
-0.6682 -8.1951 -1.7380 0.9669
2.3354 -8.2468 -1.8118 0.9656
5.3999 -7.3551 -1.9287 0.9634
7.5817 -6.0005 -2.0438 0.9612
8.8912 -4.7521 -2.1310 0.9596
2.3320 -0.9901 -0.5355 0.9897
9.3082 -3.0040 -2.0675 0.9608
10.4374 -0.4614 -2.2084 0.9582
6.4792 3.4710 -1.5537 0.9704
5.0603 4.0130 -1.3652 0.9739
4.4508 4.2287 -1.2977 0.9752
3.5441 4.8372 -1.2676 0.9758
2.9064 4.8159 -1.1890 0.9773
2.4430 5.0104 -1.1783 0.9775
1.9844 5.2037 -1.1772 0.9775
1.5246 5.4035 -1.1868 0.9773
1.0551 5.6176 -1.2082 0.9769
0.2730 2.8250 -0.5999 0.9885
0.0427 6.1026 -1.2900 0.9754
-5.3300 9.1179 -2.2325 0.9577
-5.9920 8.4231 -2.1850 0.9586
-7.6239 7.4492 -2.2531 0.9574
-8.0771 6.5917 -2.2037 0.9583
-8.4452 5.7177 -2.1558 0.9592
-8.7305 4.8356 -2.1096 0.9600
-9.0297 0.5348 -1.9120 0.9637
-8.8903 -0.2684 -1.8801 0.9643
-8.4425 -1.7892 -1.8242 0.9653
-7.7930 -3.1806 -1.7792 0.9662
-7.4006 -3.8231 -1.7607 0.9665
-6.9671 -4.4281 -1.7450 0.9668
-5.9876 -5.5205 -1.7215 0.9673
-5.4467 -6.0056 -1.7138 0.9674
-4.2738 -6.8478 -1.7063 0.9675
-3.6463 -7.2026 -1.7065 0.9675
-2.3196 -7.7738 -1.7148 0.9674
-1.6245 -7.9876 -1.7230 0.9672
-0.9111 -8.1515 -1.7338 0.9670
-0.1816 -8.2641 -1.7473 0.9668
0.5615 -8.3237 -1.7635 0.9665
2.0784 -8.2771 -1.8039 0.9657
3.6163 -7.9971 -1.8552 0.9648
5.8981 -7.1074 -1.9523 0.9629
7.3481 -6.1823 -2.0299 0.9615
8.0346 -5.6170 -2.0722 0.9607
8.6864 -4.9826 -2.1167 0.9599
9.1460 -3.2571 -2.0522 0.9611
10.3438 -0.7682 -2.1925 0.9585
10.5954 0.1611 -2.2399 0.9576
10.7595 1.1289 -2.2868 0.9567
9.9937 1.9621 -2.1528 0.9592
8.6842 2.5273 -1.9118 0.9637
6.7443 3.3571 -1.5925 0.9697
3.7152 4.7646 -1.2771 0.9756
3.0657 4.7522 -1.1954 0.9771
2.5972 4.9452 -1.1807 0.9774
1.6791 5.3346 -1.1822 0.9774
1.2143 5.5442 -1.1997 0.9771
0.3542 2.7904 -0.5946 0.9886
0.2223 6.0144 -1.2722 0.9757
-1.4275 6.0679 -1.3176 0.9748
-4.3251 9.9590 -2.2951 0.9566
-5.7789 8.6614 -2.2010 0.9583
-6.3879 7.9365 -2.1535 0.9592
-6.9161 7.1748 -2.1065 0.9601
-7.9348 6.8814 -2.2201 0.9580
-2.5349 1.8293 -0.6608 0.9873
-9.1098 2.4993 -1.9968 0.9621
-9.1196 1.6447 -1.9588 0.9628
-8.9436 -0.0021 -1.8905 0.9641
-8.7655 -0.7872 -1.8603 0.9647
-8.2477 -2.2669 -1.8081 0.9656
-7.9148 -2.9571 -1.7860 0.9660
-6.6575 -4.8089 -1.7360 0.9670
-5.6316 -5.8476 -1.7161 0.9674
-4.4783 -6.7188 -1.7068 0.9675
0.3110 -8.3097 -1.7577 0.9666
1.0619 -8.3332 -1.7757 0.9662
1.8220 -8.3008 -1.7964 0.9659
2.5886 -8.2106 -1.8198 0.9654
3.3582 -8.0609 -1.8459 0.9649
5.6477 -7.2360 -1.9403 0.9632
7.1114 -6.3565 -2.0162 0.9618
7.8079 -5.8142 -2.0578 0.9610
9.4615 -2.7488 -2.0827 0.9605
9.8855 -1.9361 -2.1293 0.9597
10.2413 -1.0697 -2.1766 0.9588
10.7147 0.8007 -2.2712 0.9570
9.0895 2.3525 -1.9846 0.9623
7.9607 2.8392 -1.7865 0.9660
7.0231 3.2373 -1.6347 0.9689
4.8518 4.0859 -1.3408 0.9744
2.7523 4.8797 -1.1842 0.9774
2.2917 5.0742 -1.1769 0.9775
1.3715 5.4725 -1.1925 0.9772
0.2003 2.9900 -0.6334 0.9878
-0.1390 6.1927 -1.3093 0.9750
-1.1804 5.7902 -1.2491 0.9761
-4.0520 10.1518 -2.3105 0.9563
-4.8423 9.5540 -2.2641 0.9572
-5.5569 8.8944 -2.2169 0.9580
-6.1927 8.1841 -2.1694 0.9589
-7.7827 7.1690 -2.2367 0.9577
-8.5482 5.4275 -2.1404 0.9594
-8.8068 4.5444 -2.0948 0.9603
-8.9866 3.6630 -2.0513 0.9611
-9.1239 1.9293 -1.9713 0.9626
-9.0890 1.0872 -1.9349 0.9633
-8.9903 0.2672 -1.9012 0.9639
-8.0316 -2.7296 -1.7931 0.9659
-7.6684 -3.3964 -1.7728 0.9663
-7.2621 -4.0267 -1.7553 0.9666
-6.8157 -4.6191 -1.7404 0.9669
-6.3318 -5.1722 -1.7282 0.9671
-5.2615 -6.1562 -1.7118 0.9674
-4.0699 -6.9697 -1.7060 0.9675
-3.4341 -7.3096 -1.7071 0.9675
-1.3913 -8.0472 -1.7262 0.9672
-0.6724 -8.1944 -1.7379 0.9669
0.0618 -8.2897 -1.7523 0.9667
0.8090 -8.3315 -1.7694 0.9664
1.5663 -8.3180 -1.7892 0.9660
4.6364 -7.6745 -1.8953 0.9640
5.3956 -7.3571 -1.9285 0.9634
6.1425 -6.9737 -1.9644 0.9627
6.8719 -6.5228 -2.0028 0.9620
7.5777 -6.0037 -2.0436 0.9612
-2.3331 -7.0544 -1.7463 0.9699
-1.7011 -7.2626 -1.7531 0.9698
-1.0519 -7.4245 -1.7623 0.9697
-0.3879 -7.5387 -1.7741 0.9695
5.1263 -6.5612 -1.9569 0.9664
6.4304 -5.7418 -2.0261 0.9652
7.0457 -5.2410 -2.0638 0.9646
8.1447 -4.0444 -2.1372 0.9633
9.1136 -0.9472 -2.1534 0.9631
9.3391 -0.1329 -2.1951 0.9623
9.4885 0.7139 -2.2363 0.9617
9.5558 1.5856 -2.2765 0.9610
9.0648 2.3510 -2.2009 0.9623
4.9067 4.1364 -1.5083 0.9740
2.3252 5.1553 -1.3292 0.9770
0.4498 2.8652 -0.6816 0.9882
0.1959 2.9461 -0.6939 0.9879
-0.1438 6.2672 -1.4733 0.9746
-4.2932 8.4600 -2.2297 0.9618
-5.5150 7.2808 -2.1466 0.9632
-6.0233 6.6285 -2.1050 0.9639
-6.4615 5.9458 -2.0637 0.9646
-7.6814 4.8717 -2.1378 0.9633
-8.2187 2.5172 -2.0201 0.9653
-8.2634 1.7429 -1.9848 0.9659
-8.2458 0.9820 -1.9516 0.9665
-8.1691 0.2387 -1.9207 0.9670
-7.8512 -1.1822 -1.8660 0.9679
-7.3348 -2.4970 -1.8210 0.9687
-6.6436 -3.6882 -1.7859 0.9693
-6.2394 -4.2331 -1.7720 0.9695
-5.7994 -4.7422 -1.7607 0.9697
-4.8221 -5.6480 -1.7454 0.9699
-4.2894 -6.0420 -1.7415 0.9700
-2.5408 -6.9745 -1.7445 0.9700
-1.9150 -7.1979 -1.7505 0.9699
-0.6120 -7.5058 -1.7699 0.9695
0.0605 -7.5875 -1.7833 0.9693
2.8298 -7.3988 -1.8617 0.9680
3.5267 -7.2153 -1.8875 0.9675
5.5687 -6.3157 -1.9789 0.9660
6.8427 -5.4157 -2.0509 0.9648
7.4372 -4.8745 -2.0899 0.9641
7.9848 -4.2676 -2.1278 0.9635
2.3273 -0.9881 -0.5942 0.9897
8.7052 -1.9727 -2.0978 0.9640
9.0221 -1.2118 -2.1394 0.9633
9.4473 0.4268 -2.2226 0.9619
9.5427 1.2911 -2.2632 0.9612
9.5003 2.1626 -2.2899 0.9608
6.4693 3.4657 -1.7249 0.9703
5.7484 3.7756 -1.6164 0.9721
4.0578 4.6111 -1.4436 0.9751
2.9551 4.8966 -1.3441 0.9768
2.0164 5.2875 -1.3300 0.9770
1.0731 5.7133 -1.3662 0.9764
0.2706 2.8004 -0.6612 0.9885
0.0433 6.1894 -1.4547 0.9749
-1.0293 5.9372 -1.4162 0.9755
-1.8643 6.9801 -1.6980 0.9707
-3.3344 9.1252 -2.2833 0.9609
-4.0627 8.6374 -2.2433 0.9615
-5.3291 7.4912 -2.1606 0.9629
-5.8607 6.8509 -2.1189 0.9636
-6.3224 6.1775 -2.0775 0.9643
-7.2317 5.9018 -2.1938 0.9624
-8.0567 3.5639 -2.0705 0.9644
-8.1892 2.7790 -2.0325 0.9651
-8.2584 1.2353 -1.9625 0.9663
-8.2012 0.4857 -1.9308 0.9668
-8.0869 -0.2441 -1.9015 0.9673
-7.7004 -1.6320 -1.8500 0.9682
-7.4342 -2.2848 -1.8279 0.9685
-7.1233 -2.9073 -1.8082 0.9689
-6.3790 -4.0543 -1.7764 0.9694
-4.9944 -5.5069 -1.7473 0.9699
-2.7462 -6.8895 -1.7431 0.9700
-2.1269 -7.1280 -1.7482 0.9699
-0.8346 -7.4674 -1.7660 0.9696
-0.1663 -7.5656 -1.7785 0.9694
1.2025 -7.6118 -1.8111 0.9688
2.5957 -7.4478 -1.8537 0.9681
3.9873 -7.0616 -1.9059 0.9672
4.6731 -6.7819 -1.9357 0.9667
5.3466 -6.4428 -1.9677 0.9662
6.6364 -5.5835 -2.0383 0.9650
8.1891 -2.9164 -2.0430 0.9649
8.5851 -2.2177 -2.0839 0.9642
8.9230 -1.4717 -2.1254 0.9635
9.1959 -0.6829 -2.1672 0.9628
9.5200 0.9988 -2.2497 0.9614
8.6681 2.5226 -2.1217 0.9636
7.6171 2.9766 -1.9220 0.9670
6.7338 3.3519 -1.7678 0.9696
5.3149 3.9616 -1.5579 0.9731
3.1174 4.8322 -1.3515 0.9766
2.6390 5.0246 -1.3339 0.9769
1.7071 5.4234 -1.3363 0.9769
1.2348 5.6380 -1.3565 0.9766
0.3516 2.7691 -0.6560 0.9886
0.2260 6.1133 -1.4377 0.9752
-0.9414 6.5983 -1.5665 0.9730
-7.9969 3.8278 -2.0837 0.9642
-8.1523 3.0416 -2.0450 0.9649
-8.2643 1.4905 -1.9736 0.9661
-8.2269 0.7350 -1.9412 0.9666
-7.9811 -0.7167 -1.8833 0.9676
-7.2323 -2.7021 -1.8145 0.9688
-6.8934 -3.3035 -1.7965 0.9691
-6.5145 -3.8716 -1.7810 0.9693
-6.0982 -4.4049 -1.7680 0.9696
-5.6470 -4.9020 -1.7575 0.9697
-4.1079 -6.1630 -1.7407 0.9700
0.2846 -7.6036 -1.7883 0.9692
0.9708 -7.6184 -1.8050 0.9689
3.0598 -7.3446 -1.8700 0.9678
3.7554 -7.1423 -1.8965 0.9674
4.4444 -6.8822 -1.9254 0.9669
5.1225 -6.5632 -1.9567 0.9664
5.7850 -6.1841 -1.9902 0.9658
6.4268 -5.7445 -2.0259 0.9652
7.0423 -5.2440 -2.0636 0.9646
9.0720 2.3479 -2.2024 0.9622
4.3406 4.3741 -1.4483 0.9750
3.3742 4.9017 -1.3986 0.9758
2.3279 5.1542 -1.3292 0.9770
1.3420 3.8563 -0.9596 0.9834
1.3945 5.5645 -1.3482 0.9767
0.1972 2.9436 -0.6934 0.9880
-0.1406 6.2659 -1.4730 0.9746
-0.7308 6.5110 -1.5398 0.9734
-1.1793 5.7848 -1.3875 0.9760
-2.8138 9.4142 -2.3093 0.9604
-3.5809 8.9716 -2.2703 0.9611
-4.2894 8.4631 -2.2299 0.9618
-5.5119 7.2844 -2.1469 0.9632
-6.0206 6.6323 -2.1052 0.9639
-8.2182 2.5216 -2.0203 0.9653
-8.2633 1.7473 -1.9850 0.9659
-8.1697 0.2428 -1.9209 0.9670
-7.8524 -1.1783 -1.8662 0.9679
-7.3365 -2.4934 -1.8211 0.9687
-7.0116 -3.1055 -1.8023 0.9690
-6.2418 -4.2301 -1.7721 0.9695
-5.3290 -5.2117 -1.7518 0.9698
-3.7334 -6.3934 -1.7400 0.9700
-3.1499 -6.7049 -1.7410 0.9700
-2.5443 -6.9731 -1.7445 0.9700
0.0566 -7.5872 -1.7832 0.9693
1.4310 -7.5996 -1.8175 0.9687
2.1274 -7.5269 -1.8383 0.9684
2.8258 -7.3997 -1.8616 0.9680
3.5227 -7.2165 -1.8873 0.9675
4.2144 -6.9759 -1.9155 0.9671
4.8967 -6.6768 -1.9460 0.9666
5.5650 -6.3179 -1.9787 0.9660
6.2143 -5.8987 -2.0137 0.9654
7.4340 -4.8777 -2.0897 0.9641
-2.1526 -6.5085 -1.7750 0.9721
0.2656 -7.0024 -1.8143 0.9715
0.8969 -7.0106 -1.8300 0.9712
2.1728 -6.8798 -1.8680 0.9706
3.4455 -6.5449 -1.9151 0.9699
5.2837 -5.6424 -2.0015 0.9686
6.4103 -4.7684 -2.0686 0.9675
6.8762 -3.4145 -1.9878 0.9688
8.1998 -0.8523 -2.1345 0.9665
8.3864 -0.1194 -2.1716 0.9659
7.9271 2.8318 -2.1795 0.9658
5.5181 3.8657 -1.7444 0.9725
4.9001 4.1309 -1.6594 0.9739
3.8764 4.6804 -1.5735 0.9752
2.8251 5.0148 -1.4903 0.9765
2.3520 5.2147 -1.4812 0.9766
1.3232 3.8086 -1.0439 0.9835
-0.7333 6.5036 -1.6946 0.9733
-2.5175 8.4073 -2.2723 0.9644
-3.2083 8.0260 -2.2380 0.9649
-5.4316 5.9773 -2.0912 0.9672
-5.8380 5.3721 -2.0541 0.9678
-2.5130 1.9284 -0.8202 0.9870
-7.2049 3.7132 -2.0986 0.9671
-7.3795 3.0035 -2.0629 0.9676
-7.5391 0.8979 -1.9658 0.9691
-7.4791 0.2185 -1.9373 0.9696
-7.2055 -1.0850 -1.8866 0.9703
-3.9583 -5.5757 -1.7705 0.9721
-2.3444 -6.4353 -1.7733 0.9721
-1.1723 -6.8009 -1.7868 0.9719
-0.5641 -6.9178 -1.7971 0.9717
0.0557 -6.9890 -1.8096 0.9715
1.3198 -6.9892 -1.8416 0.9710
2.5976 -6.7916 -1.8827 0.9704
3.2336 -6.6156 -1.9066 0.9700
5.0854 -5.7676 -1.9909 0.9687
5.6696 -5.3761 -2.0230 0.9682
6.2292 -4.9301 -2.0569 0.9677
6.7589 -4.4299 -2.0924 0.9672
7.2390 -3.8690 -2.1252 0.9667
2.3233 -0.9864 -0.6535 0.9896
7.5268 -2.4291 -2.0478 0.9678
8.1227 -1.0910 -2.1220 0.9667
8.4727 0.3828 -2.1960 0.9656
8.5354 1.9429 -2.2665 0.9645
8.2772 2.6802 -2.2527 0.9647
5.7402 3.7702 -1.7782 0.9720
5.1006 4.0449 -1.6855 0.9735
2.9855 4.9469 -1.4960 0.9764
2.0390 5.3467 -1.4816 0.9766
1.0798 5.7492 -1.5146 0.9761
0.0433 6.1814 -1.6005 0.9748
-0.5297 6.4192 -1.6677 0.9737
-6.0738 4.9567 -2.0298 0.9681
-6.8715 4.6523 -2.1486 0.9663
-7.3280 3.2416 -2.0747 0.9674
-7.4610 2.5318 -2.0400 0.9680
-7.5052 0.4445 -1.9466 0.9694
-6.8342 -2.1004 -1.8512 0.9709
-6.5542 -2.6750 -1.8329 0.9712
-6.2344 -3.2207 -1.8169 0.9714
-5.8775 -3.7356 -1.8032 0.9716
-5.4859 -4.2182 -1.7918 0.9718
-5.0619 -4.6670 -1.7827 0.9720
-4.6078 -5.0806 -1.7759 0.9721
-4.1258 -5.4577 -1.7714 0.9721
-3.0868 -6.0973 -1.7695 0.9722
-2.5341 -6.3573 -1.7720 0.9721
-0.7694 -6.8836 -1.7934 0.9718
-0.1532 -6.9703 -1.8052 0.9716
0.4729 -7.0104 -1.8192 0.9714
1.1063 -7.0027 -1.8356 0.9711
1.7442 -6.9460 -1.8543 0.9708
3.6529 -6.4695 -1.9236 0.9698
4.2757 -6.2051 -1.9511 0.9693
4.8850 -5.8865 -1.9806 0.9689
7.0148 -3.2295 -1.9995 0.9686
8.2685 -0.6140 -2.1468 0.9663
8.5272 0.8947 -2.2200 0.9652
6.7233 3.3467 -1.9445 0.9694
4.1575 4.4484 -1.5765 0.9752
3.7061 4.7529 -1.5605 0.9754
2.6686 5.0810 -1.4860 0.9766
1.7245 5.4789 -1.4872 0.9765
1.2441 5.6804 -1.5056 0.9763
0.2257 6.1055 -1.5819 0.9751
-0.3323 6.3374 -1.6431 0.9741
-0.9401 6.5892 -1.7233 0.9729
-1.3679 5.8147 -1.5466 0.9756
-2.7503 8.2887 -2.2612 0.9646
-3.4252 7.8869 -2.2263 0.9651
-4.0485 7.4275 -2.1902 0.9657
-5.5724 5.7808 -2.0789 0.9674
-2.5330 1.8279 -0.8088 0.9872
-7.2694 3.4796 -2.0867 0.9672
-7.4233 2.7696 -2.0514 0.9678
-7.5488 1.3614 -1.9860 0.9688
-7.1418 -1.2915 -1.8791 0.9705
-6.9188 -1.9016 -1.8578 0.9708
-6.6526 -2.4855 -1.8388 0.9711
-6.0012 -3.5665 -1.8075 0.9716
-5.6209 -4.0602 -1.7953 0.9718
-5.2075 -4.5204 -1.7855 0.9719
-4.2903 -5.3354 -1.7727 0.9721
-3.7910 -5.6875 -1.7697 0.9722
-2.7216 -6.2747 -1.7709 0.9721
-2.1559 -6.5073 -1.7749 0.9721
-0.9733 -6.8444 -1.7900 0.9718
0.2621 -7.0022 -1.8143 0.9715
0.8933 -7.0107 -1.8299 0.9712
2.1692 -6.8805 -1.8679 0.9706
2.8076 -6.7394 -1.8903 0.9703
3.4419 -6.5461 -1.9149 0.9699
4.0682 -6.2997 -1.9417 0.9695
4.6825 -5.9994 -1.9705 0.9690
5.2803 -5.6446 -2.0013 0.9686
6.4073 -4.7712 -2.0684 0.9675
6.9259 -4.2533 -2.1044 0.9670
7.6400 -2.2196 -2.0599 0.9677
7.9481 -1.5567 -2.0970 0.9671
8.1985 -0.8563 -2.1343 0.9665
8.3855 -0.1236 -2.1714 0.9659
8.5038 0.6355 -2.2079 0.9654
8.5157 2.2040 -2.2775 0.9643
7.9329 2.8293 -2.1807 0.9658
4.9035 4.1294 -1.6598 0.9739
3.8794 4.6792 -1.5737 0.9752
1.3251 3.8078 -1.0439 0.9835
1.4065 5.6123 -1.4981 0.9764
0.4511 2.8637 -0.7506 0.9881
0.1961 2.9276 -0.7597 0.9879
-0.1404 6.2577 -1.6206 0.9745
-0.7298 6.5021 -1.6941 0.9733
-2.5134 8.4092 -2.2725 0.9644
-3.8456 7.5875 -2.2024 0.9655
-2.5142 1.9314 -0.8209 0.9870
-7.2037 3.7172 -2.0989 0.9671
-7.3787 3.0076 -2.0631 0.9676
-7.5441 1.5952 -1.9965 0.9686
-7.4796 0.2223 -1.9375 0.9696
-6.4531 -2.8581 -1.8274 0.9713
-3.9612 -5.5737 -1.7705 0.9721
-2.9069 -6.1875 -1.7700 0.9721
-1.7698 -6.6386 -1.7789 0.9720
0.0521 -6.9887 -1.8095 0.9715
2.5939 -6.7924 -1.8826 0.9704
3.8594 -6.3883 -1.9325 0.9696
4.4782 -6.1061 -1.9606 0.9692
5.0820 -5.7696 -1.9907 0.9687
5.6663 -5.3785 -2.0228 0.9682
6.2261 -4.9328 -2.0567 0.9677
-1.9963 -6.0360 -1.7998 0.9739
