ply
format ascii 1.0
element vertex 1599
property float32 x
property float32 y
property float32 z
property float32 I
end_header
0.9931 5.9929 0.6523 0.9759
0.4549 6.0708 0.6537 0.9758
-0.7032 6.7348 0.7271 0.9731
-1.3466 6.8737 0.7521 0.9722
-2.0642 7.1014 0.7941 0.9707
15.9689 -0.7676 1.7167 0.9377
12.9393 0.5358 1.3906 0.9492
11.4630 1.5080 1.2415 0.9546
9.9777 2.2335 1.0979 0.9597
6.6818 3.5509 0.8125 0.9700
5.9732 3.8955 0.7658 0.9717
4.1477 4.6850 0.6719 0.9751
3.6129 4.9012 0.6538 0.9758
2.9929 4.9278 0.6191 0.9771
2.5248 5.1426 0.6152 0.9772
0.5956 6.0134 0.6489 0.9760
0.0580 6.2328 0.6693 0.9752
-2.6364 1.7901 0.3422 0.9873
18.9727 -1.3676 2.0426 0.9263
10.3935 2.0668 1.1379 0.9583
7.8448 3.0891 0.9053 0.9667
5.4153 4.0605 0.7268 0.9731
4.1925 4.5132 0.6615 0.9755
3.7532 4.8444 0.6581 0.9756
3.1589 4.9311 0.6288 0.9767
2.6894 5.1619 0.6250 0.9769
2.2078 5.3573 0.6222 0.9770
-0.3602 6.4037 0.6887 0.9745
-2.5382 1.8137 0.3350 0.9875
2.3559 -0.8979 0.2707 0.9899
14.6393 -0.0947 1.5720 0.9428
8.1246 2.9768 0.9291 0.9658
6.3732 3.7346 0.7932 0.9707
4.9524 4.2471 0.7006 0.9741
4.3046 4.4171 0.6623 0.9755
3.8954 4.7869 0.6627 0.9755
2.3363 5.3051 0.6225 0.9769
-2.5121 1.8875 0.3374 0.9874
2.3645 -0.8842 0.2137 0.9899
11.6202 1.0397 0.9876 0.9542
9.2094 2.5297 0.8085 0.9624
8.1125 3.0304 0.7331 0.9658
4.9033 4.2588 0.5498 0.9743
4.2957 4.4638 0.5244 0.9754
3.8532 4.7963 0.5208 0.9756
2.7819 5.1171 0.4931 0.9769
0.3117 6.1216 0.5189 0.9757
-9.3167 -9.4522 1.1235 0.9481
12.1495 0.7947 1.0307 0.9523
11.1689 1.7421 0.9569 0.9556
8.4053 2.9126 0.7530 0.9649
6.4569 3.6321 0.6271 0.9707
5.0671 4.1926 0.5567 0.9739
3.9968 4.7382 0.5247 0.9754
3.4702 4.9514 0.5118 0.9760
2.4283 5.2606 0.4905 0.9770
-0.0919 6.2862 0.5322 0.9751
-0.7023 6.7260 0.5725 0.9732
9.9574 2.2290 0.8638 0.9599
8.7147 2.7881 0.7746 0.9639
4.6280 4.3700 0.5388 0.9748
4.1426 4.6792 0.5290 0.9752
2.9894 4.9220 0.4875 0.9771
1.1305 5.9380 0.5117 0.9760
-0.5187 6.4604 0.5487 0.9743
-2.6289 1.7851 0.2690 0.9873
12.3610 -0.8910 1.0491 0.9515
8.9571 2.6312 0.7903 0.9632
5.4080 4.0551 0.5722 0.9732
2.2052 5.3511 0.4899 0.9770
1.7739 5.7046 0.5057 0.9763
1.2686 5.8922 0.5102 0.9761
-0.3597 6.3955 0.5423 0.9746
-1.0044 6.8494 0.5860 0.9726
-1.6585 6.9262 0.6029 0.9718
-2.5380 1.8136 0.2641 0.9876
2.3558 -0.8979 0.2134 0.9899
11.6221 -2.1786 1.0010 0.9536
10.8175 1.8833 0.9295 0.9569
7.1287 3.3615 0.6672 0.9689
6.3640 3.7291 0.6244 0.9708
5.6393 4.0213 0.5863 0.9726
3.8908 4.7811 0.5218 0.9756
3.3692 4.9923 0.5098 0.9761
2.8161 5.1033 0.4934 0.9769
2.3336 5.2990 0.4901 0.9770
1.8537 5.4939 0.4908 0.9770
1.3998 5.8211 0.5068 0.9763
0.8701 5.8940 0.5044 0.9764
0.3494 6.1062 0.5178 0.9757
-0.8288 6.7777 0.5780 0.9730
-1.4675 6.8481 0.5929 0.9723
2.3645 -0.8842 0.1565 0.9899
11.6268 -1.0445 0.7239 0.9543
9.1920 2.5249 0.5911 0.9625
8.0988 3.0252 0.5361 0.9659
6.3008 3.7455 0.4545 0.9711
4.8970 4.2533 0.4022 0.9743
3.2120 4.8246 0.3594 0.9770
2.7787 5.1112 0.3608 0.9770
2.2972 5.3066 0.3586 0.9771
1.8177 5.5013 0.3593 0.9770
1.3732 5.8724 0.3740 0.9761
0.8334 5.9016 0.3696 0.9764
0.3113 6.1142 0.3796 0.9758
-0.8719 6.7763 0.4237 0.9730
-9.3310 -9.4668 0.8243 0.9481
2.3505 -0.9437 0.1571 0.9899
12.6305 -2.5990 0.7996 0.9496
11.5176 -1.3131 0.7188 0.9546
12.1217 0.7928 0.7533 0.9525
11.1439 1.7382 0.6994 0.9558
9.5523 2.3797 0.6104 0.9613
8.3907 2.9075 0.5507 0.9650
7.3022 3.2871 0.4966 0.9684
5.0605 4.1872 0.4073 0.9740
3.9920 4.7325 0.3839 0.9755
2.9089 5.0584 0.3618 0.9769
2.4255 5.2545 0.3589 0.9771
1.9463 5.4491 0.3588 0.9771
1.5080 5.8176 0.3727 0.9762
0.4538 6.0561 0.3766 0.9760
-0.0918 6.2784 0.3894 0.9751
-1.3474 6.8776 0.4346 0.9723
-2.0581 7.0805 0.4572 0.9709
11.4098 -1.5782 0.7143 0.9549
12.2688 0.5080 0.7614 0.9520
11.6531 1.5330 0.7288 0.9540
8.6991 2.7831 0.5664 0.9641
7.5542 3.1855 0.5084 0.9677
4.1376 4.6736 0.3871 0.9753
3.6043 4.8895 0.3767 0.9759
2.5190 5.1307 0.3544 0.9774
2.0745 5.3970 0.3585 0.9771
1.1364 5.9687 0.3768 0.9759
0.5942 5.9990 0.3738 0.9761
-1.1835 6.9139 0.4350 0.9723
-1.8535 6.9970 0.4489 0.9714
11.7084 -0.8439 0.7279 0.9540
10.6655 2.1209 0.6743 0.9574
7.8186 3.0788 0.5211 0.9669
6.1521 3.8056 0.4486 0.9714
5.4008 4.0496 0.4186 0.9733
3.7443 4.8328 0.3791 0.9758
3.1515 4.9196 0.3623 0.9769
2.6832 5.1500 0.3601 0.9770
2.2027 5.3450 0.3585 0.9771
0.7325 5.9427 0.3713 0.9763
-1.6561 6.9164 0.4410 0.9719
-2.5378 1.8134 0.1934 0.9876
2.3557 -0.8978 0.1563 0.9899
11.5542 -2.1658 0.7290 0.9540
11.5980 -1.1154 0.7225 0.9544
12.0199 -0.0777 0.7454 0.9530
11.6751 0.9707 0.7265 0.9541
11.0857 1.9300 0.6978 0.9559
8.1739 2.9949 0.5398 0.9657
7.1176 3.3563 0.4880 0.9690
4.9396 4.2361 0.4035 0.9743
3.8861 4.7754 0.3818 0.9756
2.8129 5.0974 0.3610 0.9769
1.3982 5.8143 0.3708 0.9763
0.8691 5.8871 0.3690 0.9764
-2.5179 1.8918 0.1953 0.9875
11.6162 1.0394 0.4599 0.9544
10.9409 1.9757 0.4384 0.9565
7.0445 3.3761 0.3080 0.9692
4.8907 4.2478 0.2554 0.9744
4.2851 4.4528 0.2437 0.9756
3.2083 4.8190 0.2283 0.9771
2.2946 5.3005 0.2277 0.9771
0.8324 5.8947 0.2347 0.9765
-0.2442 6.3327 0.2499 0.9749
-0.8722 6.7785 0.2695 0.9730
-1.5128 6.8493 0.2766 0.9723
-2.5173 1.8667 0.1236 0.9875
-9.3454 -9.4813 0.5249 0.9481
2.3480 -0.9427 0.0998 0.9899
11.5404 -1.3158 0.4580 0.9546
11.1191 1.7343 0.4437 0.9560
9.5338 2.3750 0.3874 0.9614
7.2907 3.2819 0.3153 0.9685
5.0539 4.1817 0.2587 0.9741
3.9872 4.7268 0.2438 0.9755
3.4621 4.9397 0.2379 0.9761
2.9055 5.0526 0.2298 0.9769
2.4228 5.2485 0.2279 0.9771
1.9440 5.4429 0.2279 0.9771
0.9898 5.9730 0.2387 0.9761
0.4533 6.0489 0.2392 0.9760
-0.0917 6.2706 0.2473 0.9752
-1.3478 6.8795 0.2764 0.9723
12.2559 0.5075 0.4837 0.9521
9.9173 2.2200 0.4007 0.9601
8.6835 2.7782 0.3595 0.9642
7.5420 3.1803 0.3227 0.9678
5.9482 3.8792 0.2800 0.9720
5.2214 4.1139 0.2621 0.9737
3.6001 4.8838 0.2392 0.9760
2.9825 4.9106 0.2265 0.9773
2.0722 5.3909 0.2277 0.9771
1.1351 5.9618 0.2393 0.9760
0.5934 5.9918 0.2374 0.9762
0.0578 6.2098 0.2449 0.9754
-0.5174 6.4439 0.2549 0.9745
-1.1819 6.9046 0.2762 0.9723
-2.6143 1.7752 0.1246 0.9874
11.5075 -1.8733 0.4597 0.9544
12.1357 0.2119 0.4786 0.9526
7.8056 3.0737 0.3308 0.9670
6.1434 3.8002 0.2848 0.9715
4.1770 4.4966 0.2420 0.9757
3.1478 4.9138 0.2301 0.9769
2.6801 5.1440 0.2287 0.9770
1.7732 5.7025 0.2355 0.9764
-0.3588 6.3793 0.2519 0.9747
-1.0018 6.8312 0.2722 0.9727
-1.6538 6.9067 0.2800 0.9720
-2.5376 1.8133 0.1230 0.9876
2.3555 -0.8978 0.0994 0.9900
11.6081 -1.1164 0.4598 0.9544
12.0179 -0.0777 0.4739 0.9530
11.6455 0.9682 0.4608 0.9543
11.0165 1.9180 0.4409 0.9562
9.2668 2.4829 0.3783 0.9623
8.1600 2.9898 0.3427 0.9658
5.6240 4.0104 0.2724 0.9727
4.9332 4.2306 0.2563 0.9743
3.8814 4.7697 0.2425 0.9757
2.3282 5.2869 0.2278 0.9771
0.8681 5.8802 0.2344 0.9765
0.3485 6.0915 0.2406 0.9759
-0.2039 6.3162 0.2492 0.9750
-0.8266 6.7599 0.2685 0.9731
2.3670 -0.8851 0.0427 0.9899
14.8772 -0.0027 0.2513 0.9422
11.6141 1.0392 0.1970 0.9544
9.1575 2.5154 0.1604 0.9627
3.2046 4.8133 0.0977 0.9771
2.7723 5.0995 0.0980 0.9770
1.8136 5.4888 0.0976 0.9771
1.3700 5.8589 0.1016 0.9762
0.3105 6.0994 0.1032 0.9759
-1.5107 6.8398 0.1183 0.9724
2.3455 -0.9417 0.0427 0.9899
14.2066 -2.9233 0.2450 0.9436
11.0945 1.7305 0.1897 0.9561
7.2792 3.2768 0.1348 0.9686
6.4286 3.6162 0.1246 0.9709
3.9824 4.7212 0.1043 0.9756
2.9022 5.0467 0.0983 0.9770
2.4200 5.2425 0.0975 0.9772
-2.0521 7.0600 0.1242 0.9710
15.8844 -0.7635 0.2686 0.9384
11.5993 1.5260 0.1976 0.9543
9.8974 2.2156 0.1713 0.9602
7.5298 3.1752 0.1380 0.9678
6.6419 3.5297 0.1271 0.9704
5.2146 4.1085 0.1121 0.9738
4.6106 4.3535 0.1071 0.9750
4.1276 4.6622 0.1052 0.9754
3.5958 4.8780 0.1024 0.9760
2.9790 4.9049 0.0969 0.9773
2.0698 5.3847 0.0974 0.9772
1.6382 5.7499 0.1010 0.9764
-1.1803 6.8953 0.1182 0.9724
11.4926 -1.8709 0.1967 0.9545
14.9847 0.2617 0.2532 0.9418
11.7021 1.2555 0.1988 0.9540
6.8639 3.4397 0.1297 0.9698
6.2621 3.8736 0.1244 0.9710
5.3864 4.0388 0.1137 0.9734
4.1719 4.4911 0.1035 0.9758
3.7354 4.8214 0.1030 0.9759
3.1442 4.9082 0.0985 0.9770
2.1977 5.3328 0.0974 0.9772
1.2702 5.8994 0.1019 0.9761
0.7308 5.9286 0.1009 0.9764
0.2042 6.1426 0.1038 0.9757
-0.3584 6.3713 0.1078 0.9748
-1.6515 6.8970 0.1198 0.9720
-2.5374 1.8131 0.0527 0.9876
2.3554 -0.8977 0.0426 0.9900
14.9920 -0.0969 0.2532 0.9418
11.6161 0.9658 0.1969 0.9544
8.1462 2.9847 0.1466 0.9659
7.0955 3.3458 0.1325 0.9691
4.9269 4.2252 0.1096 0.9744
3.8768 4.7640 0.1038 0.9757
2.3256 5.2808 0.0975 0.9772
1.8473 5.4751 0.0976 0.9771
1.3950 5.8009 0.1008 0.9764
0.3481 6.0841 0.1029 0.9759
-0.8256 6.7511 0.1149 0.9732
2.3683 -0.8856 -0.0142 0.9899
19.8543 -1.7836 -0.1122 0.9234
11.6121 1.0390 -0.0656 0.9544
9.1404 2.5107 -0.0534 0.9628
7.0229 3.3657 -0.0438 0.9693
6.4040 3.8069 -0.0419 0.9706
5.5089 3.9808 -0.0383 0.9732
4.8782 4.2370 -0.0364 0.9745
4.2746 4.4418 -0.0347 0.9756
3.8349 4.7735 -0.0345 0.9758
3.2008 4.8078 -0.0325 0.9772
2.2894 5.2885 -0.0324 0.9772
0.3102 6.0921 -0.0343 0.9759
-1.5087 6.8303 -0.0394 0.9724
-2.5205 1.8691 -0.0177 0.9875
14.2116 -2.9244 -0.0817 0.9436
15.3673 -0.3705 -0.0865 0.9404
12.1155 0.7924 -0.0684 0.9526
7.2677 3.2716 -0.0449 0.9686
5.0409 4.1709 -0.0368 0.9742
4.4521 4.4101 -0.0353 0.9752
2.8989 5.0410 -0.0327 0.9770
1.5028 5.7976 -0.0337 0.9763
0.9875 5.9591 -0.0340 0.9761
-1.3485 6.8834 -0.0395 0.9723
15.8299 -0.7609 -0.0892 0.9386
14.3261 0.5932 -0.0807 0.9443
9.8776 2.2112 -0.0570 0.9603
6.0145 3.9224 -0.0404 0.9717
5.2078 4.1031 -0.0373 0.9738
4.6048 4.3481 -0.0357 0.9750
4.1226 4.6566 -0.0350 0.9754
3.5916 4.8723 -0.0341 0.9761
2.9756 4.8993 -0.0323 0.9773
1.1324 5.9479 -0.0341 0.9761
-1.1787 6.8861 -0.0393 0.9724
11.4812 -1.8690 -0.0655 0.9545
14.9822 0.2616 -0.0844 0.9418
11.7000 1.2553 -0.0663 0.9540
10.5992 2.1077 -0.0608 0.9577
8.8915 2.6119 -0.0522 0.9636
5.3792 4.0335 -0.0379 0.9735
3.7310 4.8157 -0.0343 0.9759
3.1405 4.9025 -0.0328 0.9770
2.6740 5.1323 -0.0326 0.9771
1.7692 5.6894 -0.0335 0.9764
-0.9991 6.8132 -0.0388 0.9728
14.9460 -0.0966 -0.0842 0.9420
11.6031 0.9647 -0.0656 0.9545
9.2319 2.4736 -0.0538 0.9625
8.1324 2.9797 -0.0488 0.9659
3.8722 4.7583 -0.0345 0.9758
3.3535 4.9690 -0.0338 0.9763
2.8032 5.0798 -0.0327 0.9771
2.3229 5.2748 -0.0325 0.9772
1.8452 5.4688 -0.0325 0.9772
1.3934 5.7943 -0.0336 0.9764
0.3477 6.0768 -0.0343 0.9759
-0.8245 6.7423 -0.0382 0.9732
-2.5265 1.8983 -0.0178 0.9874
11.6101 1.0388 -0.3282 0.9544
9.1233 2.5061 -0.2664 0.9628
8.2112 3.0673 -0.2468 0.9655
7.0121 3.3605 -0.2190 0.9694
4.8720 4.2316 -0.1817 0.9745
2.7660 5.0878 -0.1631 0.9771
1.8094 5.4763 -0.1624 0.9772
0.3098 6.0847 -0.1716 0.9759
-0.2433 6.3090 -0.1778 0.9751
-0.8688 6.7519 -0.1917 0.9731
-2.5234 1.8712 -0.0885 0.9875
15.3181 -0.3693 -0.4314 0.9405
12.1134 0.7923 -0.3418 0.9526
9.4786 2.3613 -0.2751 0.9617
8.5057 2.9473 -0.2535 0.9646
7.2563 3.2665 -0.2241 0.9687
6.4099 3.6057 -0.2071 0.9710
5.8549 4.0212 -0.2000 0.9720
5.0344 4.1655 -0.1840 0.9742
3.9729 4.7099 -0.1735 0.9756
3.4499 4.9224 -0.1693 0.9762
2.8956 5.0352 -0.1636 0.9770
2.4145 5.2306 -0.1622 0.9772
0.9863 5.9521 -0.1699 0.9761
-0.6978 6.6826 -0.1892 0.9735
-1.3489 6.8853 -0.1976 0.9723
14.2869 0.5916 -0.4026 0.9444
11.5459 1.5189 -0.3279 0.9545
9.8579 2.2068 -0.2844 0.9604
8.7510 2.7997 -0.2587 0.9639
6.6222 3.5193 -0.2112 0.9704
4.5990 4.3426 -0.1781 0.9750
4.1176 4.6510 -0.1749 0.9754
3.5874 4.8666 -0.1702 0.9761
2.0651 5.3725 -0.1621 0.9772
1.6345 5.7368 -0.1680 0.9764
1.1311 5.9410 -0.1703 0.9761
0.5913 5.9705 -0.1689 0.9763
-1.1772 6.8769 -0.1965 0.9725
-1.8429 6.9572 -0.2027 0.9716
-2.6039 1.7681 -0.0886 0.9875
11.6980 1.2550 -0.3313 0.9540
8.8752 2.6071 -0.2605 0.9637
6.8432 3.4293 -0.2155 0.9698
5.3721 4.0281 -0.1891 0.9735
3.7266 4.8100 -0.1713 0.9759
2.6709 5.1264 -0.1628 0.9771
2.1927 5.3207 -0.1620 0.9772
1.7672 5.6829 -0.1676 0.9765
0.7291 5.9147 -0.1678 0.9764
0.2037 6.1277 -0.1726 0.9758
-0.9978 6.8042 -0.1936 0.9729
-2.5370 1.8129 -0.0878 0.9876
14.9002 -0.0963 -0.4196 0.9421
11.5920 0.9638 -0.3275 0.9545
9.2145 2.4689 -0.2686 0.9625
8.2871 3.0364 -0.2485 0.9653
4.9143 4.2144 -0.1823 0.9744
4.2940 4.4063 -0.1732 0.9757
3.8676 4.7527 -0.1725 0.9758
3.3496 4.9632 -0.1686 0.9763
2.8000 5.0740 -0.1632 0.9771
2.3203 5.2688 -0.1621 0.9772
0.3473 6.0695 -0.1712 0.9760
-0.8234 6.7336 -0.1910 0.9732
-2.5303 1.9011 -0.0891 0.9874
14.8698 -0.0027 -0.7541 0.9422
10.8829 1.9653 -0.5608 0.9567
8.1974 3.0621 -0.4438 0.9656
7.0013 3.3554 -0.3937 0.9694
5.4941 3.9702 -0.3438 0.9732
4.8658 4.2262 -0.3268 0.9745
4.2641 4.4310 -0.3119 0.9757
2.2842 5.2765 -0.2916 0.9772
1.8074 5.4700 -0.2922 0.9772
1.3653 5.8387 -0.3041 0.9763
0.8285 5.8671 -0.3005 0.9765
0.3094 6.0774 -0.3086 0.9759
-0.8676 6.7431 -0.3448 0.9731
-9.3223 -9.4580 -0.6735 0.9482
15.2691 -0.3681 -0.7746 0.9407
11.9600 0.7823 -0.6078 0.9531
8.4910 2.9423 -0.4557 0.9646
5.0279 4.1602 -0.3310 0.9742
4.4411 4.3992 -0.3170 0.9753
2.8922 5.0294 -0.2942 0.9770
2.4117 5.2246 -0.2918 0.9772
0.9852 5.9452 -0.3056 0.9762
-0.0912 6.2397 -0.3165 0.9753
-1.3493 6.8873 -0.3559 0.9723
-2.0432 7.0293 -0.3712 0.9711
15.7946 -0.7592 -0.8019 0.9386
14.2479 0.5900 -0.7232 0.9445
6.6124 3.5141 -0.3798 0.9705
5.1941 4.0924 -0.3354 0.9739
4.5933 4.3372 -0.3204 0.9750
4.1127 4.6454 -0.3146 0.9755
3.5832 4.8609 -0.3063 0.9761
2.9687 4.8880 -0.2900 0.9774
2.5046 5.1015 -0.2882 0.9775
0.0575 6.1794 -0.3134 0.9756
-1.8403 6.9473 -0.3645 0.9716
11.4743 -1.8679 -0.5896 0.9545
18.4857 -1.3325 -0.9399 0.9285
11.6959 1.2548 -0.5966 0.9540
5.3650 4.0228 -0.3401 0.9735
4.7488 4.2739 -0.3240 0.9747
3.7222 4.8043 -0.3082 0.9760
2.1902 5.3146 -0.2915 0.9772
1.7651 5.6765 -0.3015 0.9765
1.2658 5.8790 -0.3050 0.9762
-0.3570 6.3473 -0.3224 0.9749
2.3550 -0.8976 -0.1278 0.9900
11.0040 1.9158 -0.5665 0.9563
9.1971 2.4643 -0.4829 0.9626
8.2731 3.0312 -0.4468 0.9653
7.0627 3.3304 -0.3960 0.9692
6.4266 3.7659 -0.3778 0.9706
4.2923 4.4045 -0.3119 0.9757
3.3457 4.9575 -0.3033 0.9763
2.7968 5.0682 -0.2936 0.9771
1.3901 5.7809 -0.3015 0.9765
0.8640 5.8527 -0.3000 0.9766
-2.5384 1.9072 -0.1610 0.9874
-3.7485 -16.9425 -1.2723 0.9328
-2.2492 -17.4311 -1.2887 0.9319
0.9196 -18.1898 -1.3354 0.9296
2.5991 -18.4527 -1.3664 0.9280
4.3496 -18.6312 -1.4028 0.9261
19.0916 -1.7151 -1.4055 0.9260
11.6061 1.0385 -0.8544 0.9543
10.8598 1.9611 -0.8091 0.9567
8.1837 3.0570 -0.6405 0.9656
6.9906 3.3502 -0.5684 0.9694
4.8596 4.2208 -0.4720 0.9745
4.2589 4.4255 -0.4503 0.9757
3.8212 4.7565 -0.4474 0.9758
2.7597 5.0762 -0.4236 0.9771
2.2816 5.2704 -0.4211 0.9772
1.8053 5.4638 -0.4219 0.9772
-0.2427 6.2933 -0.4618 0.9751
-2.5291 1.8754 -0.2309 0.9875
-18.7799 -4.9178 -1.4234 0.9251
-17.7598 -6.3930 -1.3840 0.9271
-15.6075 -9.0270 -1.3220 0.9302
-13.3158 -11.2889 -1.2800 0.9324
-10.8868 -13.2241 -1.2559 0.9336
-6.9659 -15.5774 -1.2512 0.9339
-5.5765 -16.2230 -1.2578 0.9335
3.8739 -18.5921 -1.3925 0.9267
5.6804 -18.7045 -1.4333 0.9246
9.4421 2.3522 -0.7135 0.9617
8.4763 2.9372 -0.6578 0.9647
6.3955 3.5976 -0.5380 0.9710
3.4419 4.9110 -0.4397 0.9762
2.8889 5.0236 -0.4249 0.9770
1.4976 5.7776 -0.4376 0.9763
0.4506 6.0128 -0.4421 0.9761
-0.0911 6.2320 -0.4570 0.9753
-0.6960 6.6654 -0.4914 0.9735
-1.3481 6.8813 -0.5141 0.9723
-18.0366 -6.0093 -1.3940 0.9266
-16.9884 -7.4043 -1.3588 0.9284
-15.9037 -8.6973 -1.3291 0.9299
-13.6303 -11.0060 -1.2845 0.9321
-9.9615 -13.8575 -1.2513 0.9338
-8.6657 -14.6603 -1.2487 0.9340
-4.5298 -16.6523 -1.2653 0.9331
-3.0581 -17.1784 -1.2794 0.9324
1.6918 -18.3222 -1.3491 0.9289
8.7277 2.7923 -0.6719 0.9639
7.4814 3.1548 -0.5953 0.9680
5.1873 4.0871 -0.4842 0.9739
4.5875 4.3318 -0.4626 0.9750
2.9653 4.8824 -0.4188 0.9773
1.6307 5.7237 -0.4364 0.9764
1.1285 5.9273 -0.4424 0.9761
-0.5141 6.4029 -0.4710 0.9746
-2.5976 1.7638 -0.2302 0.9875
-18.3107 -5.6176 -1.4043 0.9261
-16.1974 -8.3609 -1.3365 0.9295
-12.7637 -11.7665 -1.2729 0.9327
-11.5505 -12.7363 -1.2607 0.9334
-10.3018 -13.6307 -1.2528 0.9338
-4.9151 -16.4997 -1.2623 0.9333
-3.4569 -17.0445 -1.2752 0.9326
-1.9471 -17.5191 -1.2924 0.9317
-0.3812 -17.9214 -1.3143 0.9306
4.7038 -18.6559 -1.4107 0.9257
6.5478 -18.7241 -1.4544 0.9235
11.4708 -1.8673 -0.8521 0.9545
17.9237 -1.2920 -1.3176 0.9305
11.6939 1.2546 -0.8623 0.9539
10.5337 2.0947 -0.7875 0.9578
6.8225 3.4190 -0.5595 0.9699
5.3579 4.0174 -0.4910 0.9735
3.7178 4.7986 -0.4451 0.9759
3.1296 4.8855 -0.4254 0.9770
2.6648 5.1147 -0.4229 0.9771
2.1877 5.3086 -0.4210 0.9772
1.2643 5.8722 -0.4404 0.9762
-0.3566 6.3393 -0.4655 0.9749
-0.9952 6.7863 -0.5029 0.9729
-1.6423 6.8586 -0.5171 0.9721
-2.5367 1.8126 -0.2286 0.9876
-19.5690 -3.6486 -1.4596 0.9233
-14.2520 -10.4225 -1.2946 0.9316
-9.1157 -9.5807 -0.9696 0.9483
-9.3639 -14.2395 -1.2496 0.9339
-8.0500 -15.0095 -1.2488 0.9340
-6.6953 -15.7102 -1.2522 0.9338
-2.3564 -17.3991 -1.2874 0.9320
-0.8059 -17.8210 -1.3080 0.9310
0.8040 -18.1683 -1.3334 0.9297
4.2241 -18.6216 -1.4001 0.9263
6.0463 -18.7154 -1.4421 0.9241
2.3554 -0.8977 -0.1848 0.9899
14.8448 -0.0960 -1.0885 0.9422
11.5752 0.9624 -0.8516 0.9545
10.9804 1.9117 -0.8172 0.9563
6.4250 3.7649 -0.5460 0.9706
3.8584 4.7414 -0.4482 0.9758
3.3418 4.9517 -0.4380 0.9763
2.3150 5.2569 -0.4212 0.9772
1.8389 5.4502 -0.4218 0.9772
1.3886 5.7743 -0.4355 0.9765
0.3465 6.0549 -0.4447 0.9760
-0.2026 6.2770 -0.4605 0.9751
-0.8213 6.7160 -0.4961 0.9732
-1.4534 6.7823 -0.5086 0.9726
-2.9447 -13.3093 -1.3087 0.9467
-1.7633 -13.6656 -1.3228 0.9461
-0.5433 -13.9563 -1.3409 0.9454
0.7168 -14.1789 -1.3630 0.9445
2.0183 -14.3296 -1.3893 0.9435
3.3628 -14.4043 -1.4201 0.9423
9.8692 -14.8354 -1.7106 0.9309
11.5597 -14.3995 -1.7728 0.9285
13.2997 -13.8300 -1.8421 0.9258
2.3740 -0.8878 -0.2433 0.9899
14.8649 -0.0027 -1.4271 0.9420
11.6041 1.0383 -1.1185 0.9543
10.8367 1.9569 -1.0572 0.9567
6.9798 3.3451 -0.7431 0.9694
6.3675 3.7852 -0.7112 0.9707
5.4794 3.9595 -0.6490 0.9732
4.8534 4.2154 -0.6172 0.9745
4.2537 4.4201 -0.5889 0.9757
3.1860 4.7855 -0.5519 0.9772
2.2790 5.2644 -0.5507 0.9772
1.8033 5.4575 -0.5518 0.9772
1.3621 5.8252 -0.5743 0.9762
0.8266 5.8533 -0.5675 0.9765
-0.8590 6.6755 -0.6462 0.9733
-1.5003 6.7927 -0.6679 0.9724
-2.5320 1.8776 -0.3026 0.9874
-18.8160 5.4187 -1.8798 0.9243
-18.4770 3.5722 -1.8067 0.9272
-18.0417 1.8386 -1.7411 0.9297
-17.5218 0.2128 -1.6823 0.9320
-16.2664 -2.7369 -1.5836 0.9359
-14.7722 -5.3176 -1.5073 0.9389
-11.2176 -9.5100 -1.4119 0.9426
-9.2609 -9.3956 -1.2665 0.9484
-7.5765 -11.0903 -1.2895 0.9475
-6.5489 -11.7100 -1.2881 0.9475
-5.4864 -12.2689 -1.2903 0.9474
-4.3885 -12.7669 -1.2961 0.9472
-2.0831 -13.5766 -1.3187 0.9463
-0.8736 -13.8851 -1.3357 0.9456
1.6659 -14.2965 -1.3818 0.9438
2.9987 -14.3920 -1.4114 0.9426
7.7990 -15.2146 -1.6414 0.9336
11.1025 -14.5287 -1.7555 0.9292
12.8294 -13.9962 -1.8228 0.9265
2.3360 -0.9378 -0.2417 0.9899
11.8979 0.7782 -1.1447 0.9532
9.4239 2.3477 -0.9324 0.9617
7.2222 3.2511 -0.7604 0.9687
5.0149 4.1494 -0.6249 0.9742
4.4301 4.3883 -0.5987 0.9753
3.9586 4.6930 -0.5894 0.9756
2.4062 5.2127 -0.5512 0.9772
1.9308 5.4058 -0.5511 0.9772
0.2255 3.0089 -0.2897 0.9879
-18.1669 2.2917 -1.7579 0.9291
-17.6686 0.6375 -1.6974 0.9314
-15.7444 -3.7228 -1.5532 0.9371
-13.3172 -7.2828 -1.4572 0.9408
-11.4761 -9.2666 -1.4161 0.9425
-6.8273 -11.5501 -1.2881 0.9475
-3.5614 -13.0926 -1.3026 0.9469
-1.2011 -13.8090 -1.3307 0.9458
0.0374 -14.0685 -1.3506 0.9450
2.6379 -14.3741 -1.4030 0.9430
4.0027 -14.4116 -1.4360 0.9417
5.8098 -15.4194 -1.5819 0.9359
8.9853 -15.0181 -1.6802 0.9321
14.1249 -13.5160 -1.8769 0.9244
15.6148 -0.7506 -1.5008 0.9391
14.1700 0.5868 -1.3616 0.9446
11.4123 1.5014 -1.1051 0.9548
7.4694 3.1497 -0.7782 0.9680
5.1805 4.0817 -0.6332 0.9738
2.9619 4.8767 -0.5478 0.9773
2.0581 5.3541 -0.5507 0.9772
1.1272 5.9204 -0.5786 0.9761
0.2940 2.9684 -0.2864 0.9881
0.0573 6.1643 -0.5918 0.9755
-0.5134 6.3948 -0.6159 0.9746
-1.1724 6.8493 -0.6671 0.9725
-1.8351 6.9275 -0.6880 0.9716
-2.5945 1.7617 -0.3011 0.9875
-18.6713 4.5460 -1.8449 0.9257
-18.2859 2.7526 -1.7753 0.9284
-17.8099 1.0698 -1.7129 0.9308
-15.9386 -3.3682 -1.5640 0.9366
-14.3955 -5.8685 -1.4925 0.9394
-11.7318 -9.0180 -1.4206 0.9423
-8.1122 -10.7335 -1.2917 0.9474
-7.1032 -11.3859 -1.2884 0.9475
-6.0594 -11.9774 -1.2887 0.9475
-3.8659 -12.9774 -1.3000 0.9470
-2.7146 -13.3847 -1.3112 0.9466
-1.5257 -13.7282 -1.3261 0.9460
3.6332 -14.4095 -1.4267 0.9420
6.9493 -15.3213 -1.6152 0.9346
8.5488 -15.0969 -1.6656 0.9327
10.5119 2.0904 -1.0290 0.9578
8.8267 2.5929 -0.8832 0.9637
7.7287 3.0434 -0.7974 0.9672
6.8122 3.4138 -0.7315 0.9698
5.3507 4.0121 -0.6421 0.9735
4.7368 4.2630 -0.6118 0.9747
4.1466 4.4638 -0.5849 0.9758
3.7134 4.7930 -0.5821 0.9759
3.1260 4.8798 -0.5564 0.9770
2.6618 5.1089 -0.5531 0.9771
2.1852 5.3025 -0.5506 0.9772
1.7611 5.6635 -0.5694 0.9764
1.2628 5.8654 -0.5760 0.9762
0.2030 6.1055 -0.5865 0.9758
-1.6400 6.8489 -0.6761 0.9721
-18.7574 5.0453 -1.8648 0.9249
-18.3984 3.2215 -1.7932 0.9277
-16.8019 -1.5996 -1.6204 0.9344
-15.3976 -4.3237 -1.5354 0.9378
-13.7812 -6.7011 -1.4712 0.9403
-12.9040 -7.7703 -1.4461 0.9413
-6.3421 -11.8251 -1.2882 0.9475
-4.1676 -12.8579 -1.2976 0.9471
3.2668 -14.4016 -1.4178 0.9424
4.6524 -14.4008 -1.4529 0.9410
6.5299 -15.3634 -1.6027 0.9351
11.4392 -14.4344 -1.7682 0.9287
2.3566 -0.8982 -0.2421 0.9899
14.8300 -0.0959 -1.4238 0.9421
8.2451 3.0210 -0.8430 0.9653
6.4218 3.7630 -0.7146 0.9705
5.5259 3.9405 -0.6516 0.9731
4.8954 4.1982 -0.6191 0.9744
4.2888 4.4009 -0.5900 0.9756
2.7903 5.0566 -0.5545 0.9771
1.8368 5.4439 -0.5516 0.9772
1.3870 5.7676 -0.5695 0.9764
0.3460 6.0477 -0.5816 0.9760
-0.2023 6.2692 -0.6022 0.9751
-0.8141 6.6574 -0.6439 0.9734
-1.4514 6.7730 -0.6650 0.9725
-2.5547 1.9195 -0.3068 0.9872
-18.8359 5.5529 -1.8853 0.9241
-2.5441 -11.4988 -1.3989 0.9537
-0.4678 -12.0175 -1.4286 0.9527
3.0662 -13.1339 -1.6021 0.9471
5.6269 -13.0109 -1.6839 0.9445
12.4161 -10.7918 -1.9541 0.9359
13.8139 -9.9898 -2.0250 0.9336
16.5869 -7.9566 -2.1853 0.9286
2.3775 -0.8891 -0.3015 0.9898
17.8552 -4.9115 -2.1997 0.9281
19.0033 -3.4387 -2.2940 0.9252
11.6021 1.0381 -1.3837 0.9542
10.1877 1.8397 -1.2297 0.9592
6.9690 3.3399 -0.9180 0.9694
6.3584 3.7798 -0.8787 0.9706
5.4720 3.9542 -0.8019 0.9732
3.1823 4.7799 -0.6821 0.9771
2.7533 5.0645 -0.6847 0.9770
1.3605 5.8185 -0.7098 0.9762
0.8256 5.8464 -0.7014 0.9765
0.3083 6.0554 -0.7202 0.9759
-0.8642 6.7167 -0.8044 0.9731
-1.4983 6.7833 -0.8252 0.9724
-2.5349 1.8798 -0.3749 0.9874
-15.5681 7.6983 -2.0630 0.9324
-15.5412 4.4756 -1.9211 0.9369
-15.3653 2.9706 -1.8590 0.9389
-14.7419 0.1790 -1.7513 0.9423
-13.8142 -2.3243 -1.6640 0.9451
-12.6371 -4.5490 -1.5954 0.9473
-10.4890 -7.3902 -1.5241 0.9496
-9.6849 -8.2106 -1.5082 0.9501
-7.4147 -9.0066 -1.3858 0.9541
-6.5589 -9.6007 -1.3812 0.9542
-4.7491 -10.6202 -1.3819 0.9542
-0.7526 -11.9626 -1.4238 0.9529
1.4564 -12.4985 -1.4947 0.9506
2.7071 -12.9924 -1.5765 0.9479
4.0008 -13.1739 -1.6354 0.9461
7.9205 -12.5469 -1.7625 0.9420
9.2770 -12.1399 -1.8149 0.9403
10.6528 -11.6217 -1.8727 0.9385
12.0427 -10.9839 -1.9361 0.9365
13.4399 -10.2177 -2.0055 0.9343
14.8359 -9.3141 -2.0808 0.9319
16.2202 -8.2637 -2.1624 0.9293
2.3349 -0.9374 -0.2989 0.9899
18.7034 -3.8487 -2.2682 0.9260
3.9539 4.6873 -0.7284 0.9756
3.4338 4.8995 -0.7107 0.9762
2.8822 5.0120 -0.6868 0.9770
2.4035 5.2067 -0.6812 0.9772
1.9286 5.3996 -0.6811 0.9772
0.9817 5.9244 -0.7133 0.9761
-0.0909 6.2165 -0.7385 0.9753
-14.4436 13.4938 -2.3479 0.9235
-15.5348 8.1501 -2.0839 0.9318
-15.5711 4.8905 -1.9387 0.9364
-15.4220 3.3662 -1.8750 0.9384
-13.9539 -2.0058 -1.6746 0.9448
-13.4097 -3.1707 -1.6368 0.9460
-12.8075 -4.2671 -1.6036 0.9471
-11.4474 -6.2603 -1.5498 0.9488
-10.6971 -7.1601 -1.5290 0.9495
-9.9040 -7.9971 -1.5121 0.9500
-5.9111 -10.0003 -1.3799 0.9543
-4.9987 -10.4969 -1.3810 0.9542
-3.0789 -11.3186 -1.3933 0.9538
0.0322 -12.1018 -1.4375 0.9524
1.1426 -12.3743 -1.4761 0.9512
2.3591 -12.8551 -1.5525 0.9487
4.9347 -13.0970 -1.6625 0.9452
6.2346 -12.9149 -1.7035 0.9439
7.5613 -12.6379 -1.7494 0.9424
8.9120 -12.2594 -1.8004 0.9408
13.0657 -10.4358 -1.9863 0.9349
14.4631 -9.5699 -2.0600 0.9325
15.8516 -8.5596 -2.1399 0.9300
15.9793 -6.8636 -2.0658 0.9323
18.3979 -4.2470 -2.2429 0.9268
6.0064 3.9172 -0.8518 0.9715
5.1737 4.0763 -0.7824 0.9738
0.2907 2.9348 -0.3503 0.9882
0.0573 6.1567 -0.7314 0.9755
-1.1709 6.8401 -0.8243 0.9724
-15.4920 8.6063 -2.1051 0.9311
-15.5933 5.3106 -1.9567 0.9358
-15.4718 3.7670 -1.8915 0.9379
-14.0889 -1.6823 -1.6855 0.9444
-13.5612 -2.8658 -1.6465 0.9457
-12.9740 -3.9803 -1.6120 0.9468
-11.6405 -6.0087 -1.5561 0.9486
-10.1203 -7.7793 -1.5163 0.9499
-9.0884 -8.3784 -1.4683 0.9514
-6.1498 -9.8578 -1.3802 0.9543
-5.2460 -10.3696 -1.3804 0.9543
-4.3102 -10.8246 -1.3840 0.9542
-3.3430 -11.2221 -1.3909 0.9539
-1.3158 -11.8392 -1.4150 0.9531
-0.2564 -12.0550 -1.4323 0.9526
0.8363 -12.2529 -1.4589 0.9517
3.3285 -13.2012 -1.6172 0.9466
5.8840 -12.9726 -1.6921 0.9442
8.5484 -12.3711 -1.7862 0.9412
11.2975 -11.3406 -1.9015 0.9376
12.6917 -10.6442 -1.9676 0.9355
14.0896 -9.8153 -2.0397 0.9332
16.8306 -7.7113 -2.1991 0.9281
16.8880 -5.9779 -2.1280 0.9304
18.0873 -4.6337 -2.2179 0.9275
18.2837 -1.3179 -2.1775 0.9288
11.6898 1.2542 -1.3966 0.9537
9.8829 1.9653 -1.1969 0.9602
8.7689 2.5759 -1.0856 0.9639
7.7159 3.0384 -0.9850 0.9671
6.8018 3.4086 -0.9037 0.9698
5.3436 4.0068 -0.7934 0.9735
4.1415 4.4584 -0.7228 0.9758
3.1224 4.8741 -0.6876 0.9770
2.6587 5.1030 -0.6835 0.9771
2.1827 5.2964 -0.6805 0.9772
0.3648 2.9592 -0.3542 0.9881
0.2027 6.0980 -0.7248 0.9757
-0.3557 6.3233 -0.7523 0.9748
-0.9925 6.7683 -0.8126 0.9728
-14.7073 12.6374 -2.3034 0.9249
-2.5363 1.8123 -0.3703 0.9875
-15.6075 5.7357 -1.9752 0.9352
-15.5144 4.1730 -1.9084 0.9373
-15.3192 2.6823 -1.8474 0.9393
-14.2193 -1.3537 -1.6967 0.9441
-13.7085 -2.5559 -1.6564 0.9454
-13.1367 -3.6888 -1.6208 0.9465
-11.1041 -6.6864 -1.5397 0.9491
-10.3336 -7.5569 -1.5207 0.9497
-9.5215 -8.3652 -1.5055 0.9502
-7.2485 -9.1282 -1.3846 0.9541
-5.4910 -10.2382 -1.3800 0.9543
-4.5637 -10.7084 -1.3827 0.9542
-2.6149 -11.4761 -1.3981 0.9537
-1.5941 -11.7708 -1.4110 0.9533
0.5386 -12.1719 -1.4473 0.9521
2.9707 -13.0963 -1.5952 0.9473
5.5355 -13.0237 -1.6810 0.9446
6.8481 -12.7983 -1.7242 0.9432
15.1103 -9.1188 -2.0964 0.9314
16.4907 -8.0384 -2.1792 0.9288
19.6753 -1.8923 -2.3479 0.9235
9.0210 2.4171 -1.1094 0.9631
7.0299 3.3149 -0.9232 0.9692
5.5184 3.9351 -0.8051 0.9731
4.2869 4.3989 -0.7296 0.9756
3.8492 4.7301 -0.7244 0.9757
3.3340 4.9402 -0.7080 0.9763
2.7871 5.0507 -0.6852 0.9770
1.8347 5.4377 -0.6817 0.9771
1.3854 5.7610 -0.7038 0.9764
0.3456 6.0403 -0.7187 0.9759
-0.2021 6.2614 -0.7441 0.9751
-14.5602 13.1293 -2.3289 0.9241
-15.6136 6.1658 -1.9941 0.9346
-15.5498 4.5841 -1.9257 0.9368
-2.4023 -10.8578 -1.5756 0.9561
-1.4348 -11.1196 -1.5886 0.9557
0.5790 -11.4531 -1.6249 0.9547
1.6226 -11.5199 -1.6484 0.9541
3.7746 -11.4375 -1.7065 0.9525
7.1282 -10.7152 -1.8235 0.9493
9.4053 -9.7803 -1.9226 0.9467
2.3811 -0.8904 -0.3602 0.9898
14.6849 -4.0394 -2.1580 0.9403
15.5111 -2.8067 -2.2334 0.9383
16.2504 -1.4599 -2.3118 0.9362
11.6000 1.0379 -1.6502 0.9540
10.4714 1.8910 -1.5077 0.9579
6.8930 3.3035 -1.0830 0.9696
4.8409 4.2046 -0.9085 0.9744
4.2432 4.4092 -0.8670 0.9756
3.8076 4.7395 -0.8614 0.9757
3.1785 4.7743 -0.8127 0.9771
2.7502 5.0586 -0.8158 0.9770
1.3590 5.8117 -0.8457 0.9762
-9.7290 15.0110 -2.5346 0.9303
-12.8799 7.8728 -2.1389 0.9408
-13.1404 2.5405 -1.8963 0.9474
-12.9669 1.3215 -1.8468 0.9487
-12.7140 0.1544 -1.8016 0.9499
-12.3883 -0.9592 -1.7605 0.9510
-11.9962 -2.0184 -1.7236 0.9520
-11.5430 -3.0227 -1.6907 0.9529
-9.8639 -5.7050 -1.6145 0.9550
-7.7807 -7.8939 -1.5705 0.9562
-5.3629 -9.5893 -1.5567 0.9566
-3.5884 -10.4394 -1.5641 0.9564
-2.6565 -10.7775 -1.5728 0.9561
-0.7092 -11.2717 -1.6002 0.9554
1.3411 -11.5088 -1.6417 0.9543
3.4821 -11.4659 -1.6979 0.9527
5.6970 -11.1140 -1.7696 0.9508
6.8249 -10.8114 -1.8115 0.9497
7.9610 -10.4178 -1.8577 0.9484
10.2374 -9.3373 -1.9632 0.9456
12.4722 -7.8301 -2.0866 0.9422
13.5512 -6.9039 -2.1549 0.9404
2.3338 -0.9370 -0.3563 0.9899
14.4512 -4.3496 -2.1383 0.9409
16.0621 -1.8313 -2.2906 0.9368
11.8706 0.7764 -1.6855 0.9531
10.9241 1.7039 -1.5665 0.9563
6.3907 3.5949 -1.0389 0.9708
5.8150 3.9938 -0.9995 0.9719
3.9491 4.6817 -0.8678 0.9756
3.4298 4.8937 -0.8467 0.9761
1.9264 5.3934 -0.8115 0.9771
1.4925 5.7577 -0.8428 0.9763
-0.0908 6.2088 -0.8798 0.9752
-0.6933 6.6396 -0.9459 0.9734
-2.0100 6.9150 -1.0203 0.9713
-9.4532 15.3795 -2.5578 0.9297
-11.2379 12.5583 -2.3878 0.9342
-11.8990 11.1165 -2.3072 0.9363
-12.7991 8.2504 -2.1576 0.9403
-13.2342 4.1566 -1.9655 0.9455
-13.1724 2.8752 -1.9103 0.9470
-13.0214 1.6426 -1.8596 0.9484
-12.1073 -1.7404 -1.7331 0.9518
-9.3895 -6.2848 -1.6009 0.9554
-7.9810 -7.7187 -1.5732 0.9561
-7.2193 -8.3536 -1.5644 0.9564
-5.5908 -9.4583 -1.5568 0.9566
-4.7273 -9.9271 -1.5579 0.9566
-3.8329 -10.3390 -1.5623 0.9564
-2.9087 -10.6928 -1.5701 0.9562
-1.9560 -10.9871 -1.5812 0.9559
0.0303 -11.3895 -1.6138 0.9550
1.0612 -11.4927 -1.6353 0.9544
3.1909 -11.4889 -1.6895 0.9530
4.2858 -11.3746 -1.7223 0.9521
6.5221 -10.9010 -1.7999 0.9500
7.6565 -10.5323 -1.8450 0.9488
9.9338 -9.5056 -1.9481 0.9460
12.1781 -8.0580 -2.0690 0.9427
13.2660 -7.1634 -2.1362 0.9409
13.2857 -5.7066 -2.0487 0.9433
14.2129 -4.6515 -2.1189 0.9414
15.0786 -3.4808 -2.1927 0.9394
15.8666 -2.1947 -2.2695 0.9373
15.5083 -0.7454 -2.1999 0.9392
4.0928 4.6229 -0.8748 0.9754
3.5663 4.8380 -0.8516 0.9760
2.4932 5.0781 -0.8016 0.9774
0.2901 2.9291 -0.4171 0.9882
0.0572 6.1491 -0.8713 0.9755
-1.1606 6.7801 -0.9746 0.9726
-1.8210 6.8745 -1.0076 0.9717
-9.1657 15.7441 -2.5813 0.9290
-10.1806 14.3627 -2.4944 0.9313
-12.2915 10.0606 -2.2506 0.9378
-13.2346 4.5073 -1.9810 0.9451
-13.0701 1.9675 -1.8728 0.9480
-12.8588 0.7724 -1.8252 0.9493
-11.7928 -2.4921 -1.7078 0.9525
-11.3130 -3.4707 -1.6767 0.9533
-10.7792 -4.3943 -1.6493 0.9541
-8.8922 -6.8353 -1.5892 0.9557
-8.1785 -7.5395 -1.5761 0.9561
-7.4266 -8.1891 -1.5664 0.9563
-6.6387 -8.7838 -1.5600 0.9565
-5.8164 -9.3234 -1.5570 0.9566
-4.9615 -9.8072 -1.5573 0.9566
-3.1588 -10.6039 -1.5677 0.9563
-2.2136 -10.9143 -1.5779 0.9560
-1.2407 -11.1639 -1.5915 0.9556
-0.2414 -11.3505 -1.6086 0.9552
2.9012 -11.5064 -1.6814 0.9532
7.3522 -10.6400 -1.8325 0.9491
8.4907 -10.2025 -1.8807 0.9478
9.6298 -9.6665 -1.9333 0.9464
11.8821 -8.2775 -2.0518 0.9432
14.0023 -6.4155 -2.1823 0.9397
13.9702 -4.9451 -2.0998 0.9419
14.8539 -3.8054 -2.1726 0.9399
15.6644 -2.5500 -2.2487 0.9379
8.5758 2.5191 -1.2664 0.9645
6.7580 3.3867 -1.0710 0.9699
4.7248 4.2522 -0.9006 0.9746
4.1364 4.4529 -0.8611 0.9757
3.7045 4.7816 -0.8570 0.9759
3.1187 4.8684 -0.8192 0.9769
2.1802 5.2904 -0.8107 0.9771
1.7571 5.6505 -0.8384 0.9764
0.3632 2.9465 -0.4206 0.9881
0.2025 6.0906 -0.8634 0.9757
-1.6354 6.8297 -0.9950 0.9720
-7.6440 17.4033 -2.6932 0.9261
-8.8665 16.1043 -2.6048 0.9284
-2.5370 1.8128 -0.4418 0.9875
-12.9338 7.5957 -2.1252 0.9412
-13.2171 3.5551 -1.9393 0.9462
-13.1128 2.2960 -1.8862 0.9476
-12.6553 -0.0696 -1.7931 0.9502
-11.9114 -2.2209 -1.7168 0.9522
-11.4469 -3.2143 -1.6846 0.9531
-10.9271 -4.1526 -1.6563 0.9539
-9.7384 -5.8641 -1.6107 0.9551
-8.3733 -7.3564 -1.5792 0.9560
-6.8530 -8.6301 -1.5614 0.9565
-6.0397 -9.1844 -1.5575 0.9566
-3.4069 -10.5108 -1.5655 0.9563
-0.5113 -11.3069 -1.6037 0.9553
2.6128 -11.5185 -1.6735 0.9534
5.9186 -11.0613 -1.7775 0.9506
11.5845 -8.4889 -2.0349 0.9436
2.3591 -0.8991 -0.3577 0.9899
15.4556 -2.8972 -2.2280 0.9384
16.2016 -1.5582 -2.3062 0.9364
7.7414 2.8364 -1.1682 0.9672
6.9417 3.2733 -1.0874 0.9695
6.3555 3.7242 -1.0437 0.9707
5.5109 3.9298 -0.9590 0.9730
4.8828 4.1874 -0.9114 0.9743
3.3301 4.9344 -0.8435 0.9762
2.7839 5.0449 -0.8164 0.9770
2.3071 5.2388 -0.8111 0.9771
1.8326 5.4314 -0.8122 0.9771
1.3837 5.7543 -0.8386 0.9764
0.3452 6.0330 -0.8562 0.9759
-1.4474 6.7542 -0.9787 0.9725
-2.1522 6.9448 -1.0302 0.9711
-7.2891 17.7360 -2.7170 0.9255
-10.5976 13.7060 -2.4548 0.9324
-12.0122 10.8318 -2.2918 0.9367
-12.8595 7.9719 -2.1438 0.9407
-13.2138 5.2181 -2.0129 0.9442
-13.2295 3.9001 -1.9542 0.9458
-2.1428 -9.6851 -1.6341 0.9606
0.5147 -10.1818 -1.6795 0.9595
1.4401 -10.2247 -1.7010 0.9590
2.3818 -10.2022 -1.7259 0.9584
6.2521 -9.3982 -1.8596 0.9553
7.2269 -9.0022 -1.9018 0.9543
8.1946 -8.5213 -1.9476 0.9532
9.1490 -7.9521 -1.9970 0.9520
10.0827 -7.2915 -2.0498 0.9508
10.9874 -6.5368 -2.1062 0.9495
2.3847 -0.8918 -0.4194 0.9897
12.4585 -3.4270 -2.1286 0.9490
13.0901 -2.3687 -2.1915 0.9475
14.0924 -0.0025 -2.3216 0.9445
10.4489 1.8869 -1.7492 0.9579
5.9727 3.5505 -1.1447 0.9722
4.1897 4.3537 -0.9954 0.9758
3.8030 4.7338 -1.0003 0.9757
3.1748 4.7686 -0.9438 0.9770
2.7470 5.0528 -0.9474 0.9770
1.7970 5.4387 -0.9436 0.9770
1.3574 5.8049 -0.9821 0.9761
-0.2398 6.2171 -1.0250 0.9751
-0.8184 6.3603 -1.0564 0.9743
-5.6707 13.5551 -2.4206 0.9422
-7.1896 13.6219 -2.5374 0.9395
-8.1430 12.5639 -2.4665 0.9411
-8.9697 11.4512 -2.3963 0.9427
-9.6711 10.3005 -2.3276 0.9443
-2.5445 1.8868 -0.5218 0.9872
-10.9120 -0.8449 -1.8030 0.9566
-9.3031 -4.3224 -1.6899 0.9593
-8.7752 -5.0753 -1.6700 0.9597
-8.2040 -5.7802 -1.6533 0.9601
-7.5923 -6.4366 -1.6397 0.9605
-6.9428 -7.0439 -1.6293 0.9607
-6.2579 -7.6014 -1.6220 0.9609
-5.5396 -8.1086 -1.6178 0.9610
-4.7899 -8.5647 -1.6166 0.9610
-4.0106 -8.9686 -1.6185 0.9610
-2.3700 -9.6154 -1.6314 0.9606
-0.6315 -10.0374 -1.6568 0.9600
1.1908 -10.2195 -1.6949 0.9591
3.0802 -10.1426 -1.7462 0.9579
4.0435 -9.9999 -1.7770 0.9572
5.0151 -9.7836 -1.8112 0.9564
6.9665 -9.1164 -1.8901 0.9546
7.9367 -8.6585 -1.9350 0.9535
8.8953 -8.1133 -1.9834 0.9524
9.8354 -7.4774 -2.0354 0.9511
2.3327 -0.9365 -0.4141 0.9899
12.2773 -3.6953 -2.1122 0.9494
12.9286 -2.6604 -2.1745 0.9479
13.9814 -0.3371 -2.3040 0.9449
11.8685 0.7763 -1.9594 0.9529
10.8997 1.7001 -1.8173 0.9563
9.3691 2.3340 -1.5906 0.9616
7.0130 3.1569 -1.2670 0.9693
6.1684 3.4699 -1.1659 0.9717
5.5153 3.7880 -1.1022 0.9732
3.9443 4.6760 -1.0078 0.9755
3.4257 4.8879 -0.9833 0.9761
2.8756 5.0004 -0.9503 0.9769
1.9241 5.3872 -0.9424 0.9771
0.4484 5.9839 -0.9885 0.9760
-0.0903 6.1776 -1.0178 0.9753
-0.6602 6.3227 -1.0473 0.9746
-1.1867 6.0572 -1.0168 0.9753
-1.9723 6.7852 -1.1641 0.9718
-5.1140 13.0960 -2.3161 0.9446
-8.7609 11.7533 -2.4149 0.9423
-10.5996 8.2604 -2.2138 0.9470
-10.9788 7.0770 -2.1518 0.9484
-11.4213 4.7448 -2.0374 0.9511
-11.2249 0.4050 -1.8504 0.9555
-10.3222 -2.4407 -1.7474 0.9579
-9.4366 -4.1129 -1.6958 0.9591
-7.7598 -6.2657 -1.6431 0.9604
-7.1202 -6.8862 -1.6318 0.9606
-6.4445 -7.4571 -1.6237 0.9608
-5.7349 -7.9779 -1.6186 0.9610
-3.4220 -9.2307 -1.6218 0.9609
-0.8693 -9.9945 -1.6527 0.9601
1.8760 -10.2225 -1.7122 0.9587
2.8243 -10.1687 -1.7386 0.9581
4.7545 -9.8489 -1.8017 0.9566
5.7296 -9.5765 -1.8384 0.9558
8.6403 -8.2679 -1.9701 0.9527
11.3954 -6.1533 -2.1335 0.9489
11.3586 -4.8789 -2.0365 0.9511
12.0914 -3.9571 -2.0959 0.9497
12.7615 -2.9459 -2.1576 0.9483
13.3565 -1.8475 -2.2213 0.9468
14.0536 0.5820 -2.3172 0.9446
8.4408 2.7005 -1.4600 0.9647
5.6680 3.6965 -1.1148 0.9729
5.1085 4.0250 -1.0714 0.9740
4.5645 4.3100 -1.0342 0.9749
2.9516 4.8597 -0.9367 0.9772
2.5041 5.1003 -0.9360 0.9772
1.6232 5.6973 -0.9759 0.9763
1.1232 5.8996 -0.9893 0.9759
0.0571 6.1376 -1.0112 0.9754
-1.5496 5.8500 -0.9970 0.9758
-5.0881 14.0099 -2.4555 0.9414
-6.1505 13.1399 -2.3901 0.9429
-7.6486 13.1380 -2.5044 0.9402
-8.5430 12.0524 -2.4337 0.9419
-9.9552 9.7569 -2.2963 0.9451
-11.3851 5.0524 -2.0520 0.9508
-11.4861 3.9118 -1.9989 0.9520
-11.2770 0.6774 -1.8611 0.9552
-11.0571 -0.3254 -1.8223 0.9561
-10.0217 -3.0746 -1.7269 0.9584
-7.9245 -6.0914 -1.6466 0.9603
-6.6287 -7.3093 -1.6255 0.9608
-1.1055 -9.9473 -1.6488 0.9602
0.6959 -10.1953 -1.6835 0.9594
1.6247 -10.2255 -1.7057 0.9589
3.5268 -10.0852 -1.7601 0.9576
4.4943 -9.9087 -1.7924 0.9569
5.4684 -9.6570 -1.8282 0.9560
7.4185 -8.9142 -1.9105 0.9541
8.3841 -8.4161 -1.9570 0.9530
9.3351 -7.8291 -2.0071 0.9518
10.2638 -7.1501 -2.0607 0.9506
11.1616 -6.3766 -2.1177 0.9492
13.2054 -2.1497 -2.2041 0.9472
13.7368 -0.9902 -2.2689 0.9457
14.1692 0.2474 -2.3346 0.9442
11.6856 1.2537 -1.9361 0.9535
8.7781 2.5786 -1.5072 0.9636
6.5830 3.2989 -1.2130 0.9706
5.2553 3.9405 -1.0821 0.9737
4.1002 4.4139 -0.9925 0.9759
3.7001 4.7758 -0.9953 0.9758
3.1150 4.8627 -0.9514 0.9769
1.2584 5.8449 -0.9850 0.9761
0.3514 2.8504 -0.4731 0.9884
-0.9367 6.3878 -1.0636 0.9742
-1.3837 5.7787 -0.9789 0.9762
-4.7850 14.2271 -2.4728 0.9410
-5.8773 13.3811 -2.4077 0.9425
-7.3877 13.4184 -2.5234 0.9398
-8.3161 12.3482 -2.4525 0.9414
-9.1179 11.2267 -2.3826 0.9431
-9.7949 10.0703 -2.3143 0.9446
-10.3505 8.8938 -2.2481 0.9462
-11.1181 6.5294 -2.1241 0.9491
-11.5029 3.0940 -1.9623 0.9529
-11.4528 2.0053 -1.9154 0.9540
-10.5231 -1.9620 -1.7634 0.9575
-8.6658 -5.2182 -1.6664 0.9598
-7.4671 -6.5603 -1.6374 0.9605
-6.1187 -7.7055 -1.6209 0.9609
-4.6384 -8.6485 -1.6167 0.9610
-2.2027 -9.6672 -1.6334 0.9606
-1.3402 -9.8959 -1.6451 0.9603
-0.4552 -10.0663 -1.6600 0.9600
1.3745 -10.2238 -1.6994 0.9590
2.3151 -10.2060 -1.7240 0.9585
3.2694 -10.1201 -1.7520 0.9578
4.2347 -9.9632 -1.7834 0.9571
6.1835 -9.4230 -1.8567 0.9553
7.1585 -9.0328 -1.8987 0.9544
8.1269 -8.5580 -1.9442 0.9533
10.0179 -7.3410 -2.0460 0.9509
11.7821 -5.7432 -2.1593 0.9483
2.3604 -0.8996 -0.4161 0.9898
12.4114 -3.4981 -2.1243 0.9491
13.0482 -2.4459 -2.1870 0.9476
13.6037 -1.3084 -2.2514 0.9461
11.5671 0.9617 -1.9121 0.9540
10.5641 1.8392 -1.7665 0.9575
9.1105 2.4410 -1.5538 0.9625
7.8703 2.8837 -1.3808 0.9666
6.8255 3.2185 -1.2432 0.9699
5.4042 3.8537 -1.0934 0.9735
3.3261 4.9285 -0.9795 0.9762
0.3448 6.0257 -0.9943 0.9758
-0.2003 6.2068 -1.0230 0.9751
-0.7766 6.3505 -1.0540 0.9744
-5.5960 13.6163 -2.4252 0.9421
-8.0801 12.6403 -2.4714 0.9410
-10.6832 8.0267 -2.2013 0.9473
-11.0407 6.8443 -2.1400 0.9487
-1.9325 -8.7347 -1.6815 0.9642
-1.1524 -8.9309 -1.6926 0.9640
-0.3532 -9.0725 -1.7066 0.9637
1.2936 -9.1844 -1.7434 0.9630
2.1363 -9.1506 -1.7662 0.9625
2.9880 -9.0539 -1.7921 0.9619
3.8456 -8.8920 -1.8210 0.9613
7.2539 -7.5431 -1.9670 0.9583
8.0752 -7.0188 -2.0110 0.9574
8.8718 -6.4158 -2.0579 0.9564
9.6360 -5.7328 -2.1075 0.9554
10.3335 -4.9569 -2.1542 0.9544
10.8078 -2.9729 -2.1069 0.9554
11.7391 -1.0546 -2.2154 0.9532
9.0040 2.4733 -1.7551 0.9627
7.8745 2.9415 -1.5800 0.9664
5.3070 3.8349 -1.2307 0.9737
4.6874 4.0712 -1.1670 0.9750
4.1359 4.2977 -1.1211 0.9760
3.7984 4.7280 -1.1399 0.9756
3.1718 4.7642 -1.0758 0.9770
1.7680 5.3508 -1.0592 0.9773
0.4194 2.9700 -0.5638 0.9879
0.2982 5.8571 -1.1023 0.9764
-0.8148 6.3327 -1.2001 0.9743
-1.2700 5.7498 -1.1068 0.9763
-5.7077 10.8141 -2.2984 0.9514
-8.3733 8.9182 -2.2993 0.9514
-8.9090 7.9326 -2.2421 0.9526
-9.9317 4.9112 -2.0825 0.9559
-10.0912 3.9119 -2.0343 0.9569
-10.1678 2.9281 -1.9888 0.9578
-10.1664 1.9655 -1.9463 0.9587
-9.9489 0.1208 -1.8702 0.9603
-9.7424 -0.7544 -1.8367 0.9610
-9.1552 -2.3974 -1.7788 0.9622
-8.3621 -3.8852 -1.7331 0.9632
-6.2633 -6.3544 -1.6771 0.9643
-5.6479 -6.8605 -1.6703 0.9645
-5.0009 -7.3201 -1.6663 0.9646
-4.3244 -7.7323 -1.6652 0.9646
-2.8909 -8.4101 -1.6716 0.9645
-0.5688 -9.0401 -1.7025 0.9638
0.2431 -9.1405 -1.7187 0.9635
1.9098 -9.1657 -1.7598 0.9626
6.1877 -8.0973 -1.9155 0.9594
7.0308 -7.6703 -1.9557 0.9585
7.8576 -7.1667 -1.9990 0.9576
2.3316 -0.9361 -0.4723 0.9898
11.1837 -2.3013 -2.1461 0.9546
11.9980 -0.2893 -2.2558 0.9523
10.8753 1.6963 -2.0688 0.9562
9.3507 2.3294 -1.8113 0.9615
7.1764 3.2305 -1.4792 0.9685
6.2591 3.5208 -1.3498 0.9712
4.2792 4.2389 -1.1321 0.9758
3.9395 4.6703 -1.1484 0.9754
3.4216 4.8821 -1.1206 0.9760
2.8294 4.9201 -1.0668 0.9772
2.3630 5.1190 -1.0597 0.9773
-0.0879 6.0123 -1.1302 0.9758
-0.6531 6.2543 -1.1820 0.9747
-1.1423 5.8307 -1.1168 0.9761
-4.5819 11.7332 -2.3676 0.9500
-5.4822 11.0177 -2.3131 0.9511
-6.2905 10.2341 -2.2579 0.9523
-8.2127 9.1777 -2.3149 0.9511
-9.6029 6.1901 -2.1475 0.9546
-9.8744 5.1804 -2.0959 0.9556
-10.0569 4.1780 -2.0469 0.9566
-10.1741 2.2208 -1.9574 0.9585
-10.1187 1.2765 -1.9170 0.9593
-9.9936 0.3606 -1.8796 0.9601
-9.5531 -1.3732 -1.8141 0.9615
-9.2464 -2.1863 -1.7859 0.9621
-8.8871 -2.9609 -1.7607 0.9626
-8.4791 -3.6956 -1.7385 0.9631
-6.9945 -5.6478 -1.6898 0.9641
-5.8157 -6.7296 -1.6718 0.9644
-3.8113 -8.0036 -1.6662 0.9646
-3.0885 -8.3311 -1.6701 0.9645
-2.3415 -8.6079 -1.6767 0.9643
0.0243 -9.1192 -1.7141 0.9636
0.8474 -9.1775 -1.7323 0.9632
4.2452 -8.7939 -1.8354 0.9610
5.1047 -8.5320 -1.8688 0.9603
5.9601 -8.1988 -1.9052 0.9596
6.8066 -7.7919 -1.9447 0.9588
7.6383 -7.3091 -1.9871 0.9579
8.4490 -6.7484 -2.0325 0.9569
9.2316 -6.1083 -2.0806 0.9559
9.9779 -5.3879 -2.1314 0.9549
9.9105 -4.2569 -2.0274 0.9571
10.5107 -3.4398 -2.0787 0.9560
11.0507 -2.5510 -2.1317 0.9549
11.5203 -1.5935 -2.1860 0.9538
12.2061 0.5055 -2.2962 0.9515
11.3607 1.4946 -2.1538 0.9544
9.7205 2.1760 -1.8723 0.9603
7.4209 3.1293 -1.5138 0.9678
5.6863 3.7084 -1.2760 0.9727
4.4255 4.1788 -1.1441 0.9755
4.0827 4.6116 -1.1577 0.9752
3.5578 4.8264 -1.1270 0.9759
2.9543 4.8642 -1.0697 0.9771
2.4878 5.0672 -1.0610 0.9773
2.0202 5.2555 -1.0583 0.9773
-4.3260 11.9113 -2.3819 0.9497
-5.2502 11.2164 -2.3278 0.9508
-6.0835 10.4497 -2.2727 0.9520
-6.8224 9.6250 -2.2175 0.9531
-10.0165 4.4451 -2.0598 0.9564
-10.1368 3.4523 -2.0128 0.9574
-10.1765 2.4778 -1.9687 0.9583
-10.1405 1.5265 -1.9275 0.9591
-9.6259 -1.1494 -1.8221 0.9613
-9.3337 -1.9724 -1.7931 0.9619
-8.9882 -2.7575 -1.7671 0.9625
-8.1513 -4.2076 -1.7242 0.9634
-7.1415 -5.4895 -1.6931 0.9640
-5.3509 -7.0800 -1.6681 0.9645
-4.6899 -7.5177 -1.6655 0.9646
-3.2843 -8.2483 -1.6688 0.9645
-0.9962 -8.9632 -1.6951 0.9640
-0.1934 -9.0938 -1.7097 0.9637
3.1568 -9.0272 -1.7975 0.9618
4.0151 -8.8522 -1.8270 0.9612
4.8749 -8.6090 -1.8596 0.9605
9.7409 -4.4630 -2.0139 0.9573
10.3556 -3.6656 -2.0648 0.9563
10.9127 -2.7957 -2.1174 0.9552
11.8136 -0.8515 -2.2263 0.9529
6.7260 3.3706 -1.4141 0.9698
5.8877 3.6420 -1.3013 0.9722
4.0319 4.3403 -1.1135 0.9762
3.0794 4.8071 -1.0730 0.9770
2.6126 5.0144 -1.0628 0.9772
2.1456 5.2065 -1.0585 0.9773
1.1953 5.5517 -1.0674 0.9772
-0.3440 6.1152 -1.1512 0.9754
-0.9374 6.3924 -1.2144 0.9740
-4.0639 12.0832 -2.3962 0.9494
-5.8696 10.6611 -2.2875 0.9517
-6.6340 9.8506 -2.2323 0.9528
-7.3029 8.9919 -2.1773 0.9539
-8.4870 8.7257 -2.2879 0.9517
-9.0028 7.7357 -2.2311 0.9528
-9.7404 5.7203 -2.1232 0.9551
-9.9700 4.7131 -2.0728 0.9561
-10.1127 3.7164 -2.0251 0.9571
-10.1735 2.7364 -1.9802 0.9580
-10.0689 0.8470 -1.8992 0.9597
-9.6945 -0.9229 -1.8304 0.9611
-9.0857 -2.5513 -1.7738 0.9623
-8.7033 -3.3075 -1.7500 0.9628
-6.1445 -6.4579 -1.6755 0.9644
-5.5227 -6.9548 -1.6693 0.9645
-4.8697 -7.4052 -1.6659 0.9646
-4.1876 -7.8080 -1.6653 0.9646
-3.4784 -8.1620 -1.6677 0.9645
-2.7441 -8.4661 -1.6728 0.9644
-1.2079 -8.9189 -1.6917 0.9640
-0.4099 -9.0644 -1.7055 0.9637
0.4051 -9.1536 -1.7222 0.9634
1.2348 -9.1845 -1.7419 0.9630
2.0767 -9.1550 -1.7645 0.9625
3.7852 -8.9056 -1.8188 0.9614
4.6450 -8.6809 -1.8506 0.9607
6.3550 -8.0190 -1.9232 0.9592
7.1954 -7.5770 -1.9640 0.9584
8.0182 -7.0582 -2.0078 0.9575
8.8168 -6.4608 -2.0545 0.9565
9.5835 -5.7834 -2.1039 0.9555
2.3617 -0.9001 -0.4750 0.9898
11.7118 -1.1264 -2.2115 0.9532
11.5651 0.9616 -2.1813 0.9539
9.0930 2.4364 -1.7694 0.9624
7.9466 2.9116 -1.5908 0.9661
6.9780 3.2904 -1.4501 0.9691
5.3552 3.8188 -1.2363 0.9736
4.7279 4.0546 -1.1707 0.9750
4.1733 4.2823 -1.1239 0.9760
3.8352 4.7129 -1.1421 0.9756
1.8012 5.3385 -1.0590 0.9773
1.3246 5.5082 -1.0648 0.9772
0.3343 5.8425 -1.1000 0.9765
-1.2327 5.7526 -1.1058 0.9763
-2.1714 7.0068 -1.3788 0.9706
-4.7666 11.5981 -2.3569 0.9502
-5.6491 10.8680 -2.3022 0.9514
-6.4388 10.0727 -2.2470 0.9525
-9.3175 7.0005 -2.1906 0.9537
-9.6637 5.9907 -2.1371 0.9548
-9.9173 4.9818 -2.0860 0.9558
-10.1650 2.9967 -1.9919 0.9578
1.1732 -8.3297 -1.7781 0.9662
2.7029 -8.1901 -1.8231 0.9654
4.2427 -7.8107 -1.8789 0.9643
5.0070 -7.5264 -1.9108 0.9637
6.5012 -6.7604 -1.9826 0.9624
7.9133 -5.7226 -2.0643 0.9609
8.5726 -5.1002 -2.1085 0.9600
2.4000 -0.8975 -0.5416 0.9896
10.5595 -0.0019 -2.2321 0.9577
10.7397 0.9610 -2.2792 0.9569
10.4038 1.8787 -2.2347 0.9577
8.9868 2.4686 -1.9700 0.9626
7.8610 2.9364 -1.7738 0.9663
6.9256 3.3191 -1.6234 0.9691
6.1344 3.6466 -1.5085 0.9712
4.7527 4.1279 -1.3306 0.9746
4.1666 4.3296 -1.2701 0.9757
3.7937 4.7222 -1.2804 0.9755
3.1330 4.7058 -1.1950 0.9772
2.6605 4.8937 -1.1774 0.9775
2.1997 5.0812 -1.1704 0.9776
1.7405 5.2676 -1.1727 0.9776
1.2774 5.4630 -1.1859 0.9773
-0.8303 6.4530 -1.3753 0.9738
-1.2688 5.7446 -1.2436 0.9762
-3.3548 10.5896 -2.3481 0.9556
-4.2041 10.0494 -2.3026 0.9564
-5.6824 8.7674 -2.2085 0.9582
-8.6041 5.2592 -2.1316 0.9596
-9.0122 3.4936 -2.0431 0.9613
-9.1023 2.6213 -2.0022 0.9620
-8.9624 0.1088 -1.8946 0.9640
-8.7920 -0.6808 -1.8640 0.9646
-8.5658 -1.4412 -1.8361 0.9651
-7.9606 -2.8656 -1.7884 0.9660
-7.5881 -3.5256 -1.7686 0.9664
-7.1731 -4.1487 -1.7516 0.9667
-5.1424 -6.2464 -1.7102 0.9675
-4.5542 -6.6663 -1.7066 0.9675
-3.9384 -7.0421 -1.7055 0.9676
-3.2969 -7.3727 -1.7072 0.9675
-1.9456 -7.8932 -1.7184 0.9673
-1.2398 -8.0803 -1.7280 0.9671
-0.5170 -8.2167 -1.7403 0.9669
1.7305 -8.3055 -1.7933 0.9659
2.4970 -8.2223 -1.8164 0.9655
3.2671 -8.0798 -1.8422 0.9650
4.8032 -7.6088 -1.9020 0.9639
7.0304 -6.4123 -2.0114 0.9618
7.7309 -5.8775 -2.0528 0.9611
9.0188 -4.5948 -2.1395 0.9595
2.3305 -0.9356 -0.5308 0.9898
9.4123 -2.8329 -2.0777 0.9606
9.8438 -2.0256 -2.1244 0.9597
10.4963 -0.2531 -2.2193 0.9580
10.7004 0.6999 -2.2667 0.9571
9.3323 2.3248 -2.0330 0.9614
8.1399 2.8206 -1.8210 0.9654
5.6020 3.8475 -1.4365 0.9726
3.4175 4.8762 -1.2587 0.9759
2.3225 5.0313 -1.1714 0.9776
1.4020 5.4086 -1.1811 0.9774
0.9308 5.6170 -1.2035 0.9770
0.2177 2.9053 -0.6158 0.9882
-1.1426 5.8321 -1.2562 0.9760
-2.0224 6.9576 -1.5316 0.9708
-3.9837 10.2014 -2.3150 0.9562
-4.7808 9.6082 -2.2685 0.9571
-6.7076 7.4957 -2.1262 0.9597
-8.1783 6.3734 -2.1917 0.9585
-8.7900 4.6115 -2.0982 0.9602
-8.9756 3.7287 -2.0545 0.9610
-9.0853 2.8535 -2.0129 0.9618
-9.1231 1.9913 -1.9738 0.9625
-9.0927 1.1470 -1.9373 0.9632
-8.9982 0.3247 -1.9033 0.9639
-5.2948 -6.1267 -1.7117 0.9674
-4.7144 -6.5582 -1.7073 0.9675
-4.1057 -6.9460 -1.7056 0.9676
-2.1312 -7.8347 -1.7163 0.9673
-1.4304 -8.0351 -1.7252 0.9672
-0.7119 -8.1853 -1.7367 0.9670
0.7690 -8.3283 -1.7679 0.9664
2.2915 -8.2503 -1.8100 0.9656
3.0609 -8.1238 -1.8351 0.9651
3.8313 -7.9365 -1.8629 0.9646
6.1075 -6.9917 -1.9624 0.9628
6.8385 -6.5438 -2.0007 0.9620
8.2244 -5.4419 -2.0846 0.9605
8.7814 -3.7719 -2.0202 0.9617
9.2864 -3.0392 -2.0654 0.9608
10.1176 -1.3995 -2.1590 0.9591
10.4271 -0.5012 -2.2066 0.9582
10.6545 0.4412 -2.2541 0.9573
6.5434 3.4774 -1.5663 0.9702
5.8013 3.7834 -1.4640 0.9721
4.4727 4.2233 -1.3003 0.9752
4.0777 4.6059 -1.3003 0.9752
3.5535 4.8206 -1.2659 0.9758
1.0585 5.5598 -1.1963 0.9771
0.2761 2.7877 -0.5921 0.9886
0.0560 6.0219 -1.2730 0.9757
-1.1300 6.6015 -1.4157 0.9730
-4.5748 9.7735 -2.2810 0.9568
-5.3171 9.1332 -2.2339 0.9577
-6.5651 7.6995 -2.1388 0.9595
-2.5843 1.7548 -0.6603 0.9873
-8.7271 4.8482 -2.1103 0.9600
-8.9335 3.9645 -2.0660 0.9608
-9.0632 3.0866 -2.0238 0.9616
-9.1198 2.2205 -1.9841 0.9624
-9.1073 1.3710 -1.9468 0.9630
-9.0295 0.5424 -1.9121 0.9637
-8.8904 -0.2617 -1.8801 0.9643
-8.6935 -1.0380 -1.8507 0.9648
-8.1414 -2.4977 -1.8001 0.9658
-6.9665 -4.4254 -1.7446 0.9668
-6.4943 -4.9921 -1.7315 0.9671
-5.9863 -5.5187 -1.7211 0.9673
-3.6432 -7.2015 -1.7060 0.9675
-2.9906 -7.5107 -1.7088 0.9675
-2.3154 -7.7727 -1.7143 0.9674
-1.6198 -7.9864 -1.7225 0.9672
-0.9058 -8.1501 -1.7334 0.9670
0.5680 -8.3217 -1.7631 0.9665
2.0862 -8.2741 -1.8037 0.9657
3.6253 -7.9927 -1.8552 0.9648
4.3940 -7.7597 -1.8850 0.9642
5.1567 -7.4627 -1.9174 0.9636
5.9087 -7.1000 -1.9525 0.9629
9.1565 -3.2412 -2.0532 0.9611
10.0220 -1.6315 -2.1463 0.9593
10.3519 -0.7462 -2.1939 0.9585
10.0948 2.0074 -2.1756 0.9588
8.7454 2.5690 -1.9267 0.9634
5.2738 3.9544 -1.3933 0.9734
3.6911 4.7643 -1.2739 0.9757
3.0377 4.7420 -1.1904 0.9772
2.5691 4.9309 -1.1753 0.9775
0.1979 5.9547 -1.2594 0.9759
-0.3497 6.2169 -1.3162 0.9749
-0.9554 6.5153 -1.3919 0.9734
-1.4523 6.0652 -1.3183 0.9748
-4.3633 9.9341 -2.2935 0.9566
-5.1260 9.3103 -2.2466 0.9575
-6.9413 7.1365 -2.1044 0.9601
-8.8859 4.2006 -2.0776 0.9606
-9.1172 1.5964 -1.9565 0.9629
-9.0565 0.7618 -1.9211 0.9635
-8.9334 -0.0491 -1.8884 0.9641
-8.2268 -2.3101 -1.8062 0.9657
-7.8906 -2.9986 -1.7843 0.9661
-6.1256 -5.3817 -1.7236 0.9672
-5.5930 -5.8782 -1.7151 0.9674
-5.0286 -6.3327 -1.7093 0.9675
-4.4349 -6.7440 -1.7062 0.9675
-3.8138 -7.1110 -1.7057 0.9675
-3.1675 -7.4325 -1.7078 0.9675
-2.4982 -7.7073 -1.7126 0.9674
