ply
format ascii 1.0
element vertex 1593
property float32 x
property float32 y
property float32 z
property float32 I
end_header
-8.2782 6.1438 -2.1791 0.9587
-8.6029 5.2645 -2.1320 0.9596
-8.8463 4.3811 -2.0867 0.9604
-9.0114 3.5007 -2.0435 0.9612
-9.1020 2.6293 -2.0026 0.9620
-9.1217 1.7723 -1.9642 0.9627
-9.0745 0.9342 -1.9283 0.9634
-8.9642 0.1190 -1.8950 0.9640
-8.7946 -0.6701 -1.8644 0.9646
-8.2922 -2.1587 -1.8112 0.9656
-7.9664 -2.8538 -1.7887 0.9660
-7.1814 -4.1367 -1.7518 0.9667
-6.7280 -4.7217 -1.7374 0.9670
-6.2377 -5.2672 -1.7257 0.9672
-5.1561 -6.2354 -1.7103 0.9675
-3.3149 -7.3639 -1.7070 0.9675
-1.9664 -7.8865 -1.7181 0.9673
-1.2621 -8.0749 -1.7276 0.9671
0.1957 -8.2987 -1.7547 0.9666
4.0069 -7.8851 -1.8696 0.9645
6.2736 -6.8972 -1.9708 0.9626
8.3702 -5.3034 -2.0945 0.9603
8.3538 -4.3009 -1.9861 0.9623
9.3901 -2.8720 -2.0756 0.9606
10.4844 -0.3029 -2.2171 0.9580
10.6932 0.6470 -2.2645 0.9571
4.9256 4.0292 -1.3452 0.9743
1.9675 5.4021 -1.2153 0.9768
1.5015 5.6451 -1.2348 0.9764
-0.0519 6.5060 -1.3753 0.9738
-0.6686 6.8509 -1.4550 0.9722
-4.7203 9.6595 -2.2726 0.9570
-5.4474 9.0087 -2.2253 0.9579
-7.7064 7.3099 -2.2452 0.9575
-8.1450 6.4488 -2.1960 0.9584
-9.0786 2.9325 -2.0167 0.9617
-9.0984 1.2247 -1.9406 0.9632
-9.0097 0.4011 -1.9064 0.9638
-8.8604 -0.3974 -1.8748 0.9644
-7.7299 -3.2871 -1.7755 0.9662
-7.3306 -3.9232 -1.7575 0.9666
-6.8908 -4.5216 -1.7422 0.9669
-6.4131 -5.0811 -1.7295 0.9671
-5.3542 -6.0783 -1.7122 0.9674
-4.1727 -6.9059 -1.7055 0.9676
-3.5414 -7.2532 -1.7062 0.9675
-2.2082 -7.8090 -1.7154 0.9674
-1.5104 -8.0147 -1.7240 0.9672
-0.0632 -8.2747 -1.7492 0.9667
0.6815 -8.3258 -1.7658 0.9664
2.2004 -8.2613 -1.8072 0.9657
2.9686 -8.1421 -1.8319 0.9652
4.5054 -7.7206 -1.8895 0.9641
6.0154 -7.0429 -1.9578 0.9628
6.7481 -6.6040 -1.9958 0.9621
8.1400 -5.5210 -2.0791 0.9606
8.7612 -4.8624 -2.1180 0.9599
8.7125 -3.8632 -2.0146 0.9618
9.6798 -2.3557 -2.1058 0.9601
10.0717 -1.5161 -2.1529 0.9592
10.3913 -0.6252 -2.2005 0.9583
10.6302 0.3107 -2.2480 0.9575
9.2582 1.9525 -2.0000 0.9621
7.2522 2.9512 -1.6550 0.9685
-4.7033 -5.7384 -1.7438 0.9700
-4.1646 -6.1232 -1.7404 0.9700
-2.4014 -7.0263 -1.7451 0.9700
-1.7718 -7.2395 -1.7517 0.9698
-0.4626 -7.5262 -1.7722 0.9695
0.8972 -7.6173 -1.8026 0.9690
3.6804 -7.1654 -1.8932 0.9674
4.3701 -6.9119 -1.9219 0.9670
6.9769 -5.3009 -2.0593 0.9646
7.5290 -3.8350 -1.9858 0.9659
8.4169 -2.5344 -2.0659 0.9645
8.7818 -1.8091 -2.1073 0.9638
9.0848 -1.0388 -2.1490 0.9631
9.4779 0.6148 -2.2322 0.9617
9.5554 1.4842 -2.2727 0.9610
7.7722 2.6858 -1.9326 0.9668
6.9199 3.1071 -1.7827 0.9693
5.5405 3.7958 -1.5784 0.9728
4.4281 4.3743 -1.4629 0.9747
3.3858 4.8148 -1.3834 0.9761
-2.7240 9.4639 -2.3145 0.9603
-4.2129 8.5271 -2.2353 0.9617
-4.8650 7.9673 -2.1940 0.9624
-5.4505 7.3587 -2.1522 0.9631
-7.9044 4.1828 -2.1018 0.9639
-8.0908 3.3960 -2.0622 0.9646
-8.2086 2.6122 -2.0245 0.9652
-8.2504 1.0741 -1.9554 0.9664
-8.1805 0.3286 -1.9242 0.9669
-8.0545 -0.3963 -1.8953 0.9674
-7.3703 -2.4188 -1.8231 0.9686
-7.0504 -3.0344 -1.8040 0.9690
-6.2898 -4.1664 -1.7731 0.9695
-5.8542 -4.6798 -1.7615 0.9697
-5.3852 -5.1562 -1.7523 0.9698
-4.8850 -5.5945 -1.7455 0.9699
-4.3560 -5.9933 -1.7413 0.9700
-1.3527 -7.3535 -1.7572 0.9697
-0.6956 -7.4899 -1.7679 0.9696
-0.0250 -7.5778 -1.7810 0.9693
1.3469 -7.6028 -1.8147 0.9688
3.4376 -7.2404 -1.8837 0.9676
4.1300 -7.0071 -1.9116 0.9671
6.7639 -5.4804 -2.0460 0.9649
7.8977 -4.3384 -2.1178 0.9637
8.6609 -2.0680 -2.0927 0.9641
9.5379 1.1779 -2.2587 0.9613
5.7592 3.6869 -1.6071 0.9723
4.5963 4.2653 -1.4737 0.9746
4.1476 4.6029 -1.4562 0.9749
2.6054 5.1871 -1.3642 0.9764
1.6708 5.6643 -1.3879 0.9760
0.5808 2.9019 -0.6955 0.9879
0.1221 6.4592 -1.5183 0.9738
-0.9681 6.0097 -1.4306 0.9753
-2.4410 9.5984 -2.3277 0.9601
-3.2335 9.1890 -2.2894 0.9608
-3.9698 8.7095 -2.2495 0.9614
-4.6445 8.1689 -2.2085 0.9621
-5.2536 7.5764 -2.1668 0.9628
-6.2653 6.2713 -2.0834 0.9642
-7.1831 6.0081 -2.2009 0.9623
-7.8226 4.4575 -2.1160 0.9637
-8.1751 2.8854 -2.0375 0.9650
-8.2610 1.3389 -1.9669 0.9662
-8.2115 0.5870 -1.9348 0.9667
-8.1047 -0.1455 -1.9051 0.9672
-7.7318 -1.5398 -1.8528 0.9681
-7.4719 -2.1963 -1.8304 0.9685
-6.4336 -3.9785 -1.7778 0.9694
-5.5528 -4.9939 -1.7552 0.9698
-4.5440 -5.8584 -1.7425 0.9700
-3.9973 -6.2310 -1.7399 0.9700
-3.4253 -6.5621 -1.7397 0.9700
-2.8302 -6.8506 -1.7420 0.9700
-2.2139 -7.0952 -1.7468 0.9699
-0.9270 -7.4476 -1.7639 0.9696
-0.2608 -7.5527 -1.7761 0.9694
0.4174 -7.6084 -1.7908 0.9692
1.7989 -7.5660 -1.8278 0.9685
2.4965 -7.4648 -1.8499 0.9682
3.1943 -7.3084 -1.8745 0.9678
3.8888 -7.0952 -1.9016 0.9673
4.5759 -6.8241 -1.9310 0.9668
5.9101 -6.1034 -1.9967 0.9657
7.7232 -4.5620 -2.1082 0.9638
7.6745 -3.6528 -1.9976 0.9657
8.1288 -3.0126 -2.0374 0.9650
8.5328 -2.3212 -2.0783 0.9643
9.5618 1.7496 -2.2846 0.9608
8.4559 2.3428 -2.0622 0.9646
5.9860 3.5737 -1.6385 0.9718
4.7861 4.1711 -1.4921 0.9743
3.8175 4.7662 -1.4352 0.9752
1.6731 3.8773 -0.9925 0.9828
1.8363 5.5773 -1.3800 0.9762
0.4283 3.0517 -0.7242 0.9874
0.3192 6.3636 -1.4975 0.9742
-0.2605 6.6445 -1.5628 0.9730
-2.1521 9.7234 -2.3405 0.9599
-2.9625 9.3406 -2.3030 0.9605
-3.7192 8.8846 -2.2636 0.9612
-5.6132 7.1674 -2.1396 0.9633
-7.7320 4.7316 -2.1304 0.9634
-8.1333 3.1596 -2.0507 0.9648
-8.2641 1.6056 -1.9786 0.9660
-8.2355 0.8478 -1.9458 0.9666
-8.1484 0.1082 -1.9152 0.9671
-8.0060 -0.6100 -1.8870 0.9675
-7.2785 -2.6074 -1.8171 0.9687
-6.1624 -4.3247 -1.7694 0.9695
-5.7165 -4.8271 -1.7584 0.9697
-5.2379 -5.2922 -1.7500 0.9699
-4.1914 -6.1054 -1.7405 0.9700
-2.4316 -7.0148 -1.7449 0.9700
-1.1565 -7.3995 -1.7602 0.9697
-0.4951 -7.5215 -1.7716 0.9695
2.2524 -7.5064 -1.8419 0.9683
2.9506 -7.3694 -1.8657 0.9679
3.6467 -7.1763 -1.8919 0.9675
5.0168 -6.6160 -1.9514 0.9665
5.6820 -6.2467 -1.9846 0.9659
6.3274 -5.8169 -2.0200 0.9653
7.5052 -3.8640 -1.9839 0.9659
9.3093 -0.2689 -2.1888 0.9625
9.4721 0.5731 -2.2302 0.9618
8.8339 2.1530 -2.1369 0.9633
6.9580 3.0880 -1.7891 0.9692
6.2220 3.4559 -1.6727 0.9712
5.5705 3.7809 -1.5823 0.9727
4.4364 4.3446 -1.4594 0.9748
3.9937 4.6790 -1.4458 0.9750
3.4094 4.8039 -1.3845 0.9761
2.9321 5.0284 -1.3680 0.9764
2.0003 5.4921 -1.3737 0.9763
1.5270 5.7408 -1.3961 0.9759
0.4991 2.8961 -0.6907 0.9880
-0.0522 6.5436 -1.5380 0.9735
-2.6850 9.4831 -2.3164 0.9603
-4.1795 8.5529 -2.2373 0.9616
-4.8348 7.9957 -2.1960 0.9623
-5.4236 7.3893 -2.1542 0.9630
-7.2983 5.7783 -2.1878 0.9625
-7.6326 5.0047 -2.1451 0.9632
-7.8935 4.2211 -2.1038 0.9639
-8.0833 3.4342 -2.0641 0.9646
-8.2598 1.8741 -1.9906 0.9658
-8.1853 0.3644 -1.9256 0.9669
-7.8852 -1.0641 -1.8700 0.9678
-7.6585 -1.7404 -1.8458 0.9682
-7.3848 -2.3881 -1.8241 0.9686
-6.7078 -3.5899 -1.7881 0.9692
-5.4088 -5.1339 -1.7526 0.9698
-4.9100 -5.5741 -1.7458 0.9699
-4.3823 -5.9748 -1.7414 0.9700
-3.8278 -6.3350 -1.7396 0.9700
-2.6468 -6.9289 -1.7432 0.9700
-2.0247 -7.1601 -1.7488 0.9699
-0.7279 -7.4843 -1.7673 0.9696
2.7066 -7.4236 -1.8571 0.9681
4.0965 -7.0198 -1.9102 0.9672
6.1044 -5.9741 -2.0074 0.9655
7.3344 -4.9746 -2.0828 0.9642
7.8161 -3.4657 -2.0094 0.9655
8.2559 -2.8098 -2.0496 0.9648
8.6435 -2.1035 -2.0907 0.9641
9.5347 1.1355 -2.2567 0.9613
9.2405 1.9487 -2.2195 0.9619
-3.8434 -5.6509 -1.7695 0.9722
-3.3225 -5.9683 -1.7686 0.9722
-1.6343 -6.6778 -1.7800 0.9720
-1.0370 -6.8291 -1.7885 0.9719
-0.4263 -6.9359 -1.7992 0.9717
0.1954 -6.9967 -1.8123 0.9715
1.4617 -6.9756 -1.8453 0.9710
4.0009 -6.3278 -1.9384 0.9695
5.7955 -5.2817 -2.0302 0.9681
6.3490 -4.8238 -2.0645 0.9676
7.6040 -2.2897 -2.0561 0.9677
8.5260 2.1172 -2.2746 0.9644
7.7591 2.6813 -2.1255 0.9666
6.9091 3.1023 -1.9610 0.9692
6.1796 3.4676 -1.8347 0.9711
5.5329 3.7906 -1.7365 0.9727
4.9469 4.0826 -1.6607 0.9738
4.4271 4.3733 -1.6112 0.9746
1.9910 5.5414 -1.5246 0.9760
1.5096 5.7765 -1.5459 0.9756
0.4834 2.8799 -0.7561 0.9880
-0.0807 6.5487 -1.6957 0.9733
-1.3877 7.1791 -1.8932 0.9702
-2.4326 8.4516 -2.2771 0.9643
-5.7931 5.4474 -2.0589 0.9677
-6.6212 5.1957 -2.1792 0.9658
-7.1797 3.7993 -2.1032 0.9670
-7.5406 1.6765 -2.0001 0.9686
-7.4886 0.3008 -1.9405 0.9695
-7.3825 -0.3633 -1.9138 0.9699
-7.2268 -1.0072 -1.8892 0.9703
-7.0240 -1.6283 -1.8669 0.9706
-6.4883 -2.7925 -1.8289 0.9712
-5.7962 -3.8394 -1.8001 0.9717
-5.3976 -4.3148 -1.7892 0.9719
-4.5072 -5.1618 -1.7743 0.9721
-3.5072 -5.8618 -1.7686 0.9722
-2.9715 -6.1536 -1.7693 0.9722
-1.8394 -6.6145 -1.7776 0.9720
-1.2475 -6.7812 -1.7852 0.9719
-0.6412 -6.9037 -1.7952 0.9718
-0.0230 -6.9808 -1.8075 0.9716
0.6046 -7.0111 -1.8220 0.9713
3.1525 -6.6398 -1.9031 0.9701
2.3320 -1.0219 -0.6592 0.9895
7.8146 -1.8659 -2.0802 0.9673
8.0925 -1.1823 -2.1175 0.9668
8.5434 1.8405 -2.2628 0.9645
5.7511 3.6817 -1.7681 0.9722
4.5904 4.2598 -1.6215 0.9745
3.5761 4.7622 -1.5420 0.9757
1.6795 5.6936 -1.5370 0.9758
0.5762 2.8789 -0.7602 0.9879
0.6718 6.1841 -1.6106 0.9746
0.1220 6.4506 -1.6705 0.9737
-5.2203 6.2533 -2.1091 0.9669
-5.6555 5.6609 -2.0718 0.9675
-2.4876 2.0807 -0.8397 0.9867
-7.3053 3.3382 -2.0796 0.9674
-7.4464 2.6283 -2.0446 0.9679
-7.5266 1.9218 -2.0113 0.9684
-7.5480 1.2234 -1.9798 0.9689
-7.5134 0.5371 -1.9503 0.9694
-7.1000 -1.4140 -1.8744 0.9705
-6.8682 -2.0189 -1.8535 0.9709
-5.5407 -4.1524 -1.7927 0.9718
-5.1211 -4.6057 -1.7833 0.9719
-4.6712 -5.0240 -1.7762 0.9721
-4.1932 -5.4060 -1.7714 0.9721
-3.1612 -6.0561 -1.7688 0.9722
-2.6117 -6.3217 -1.7710 0.9721
-2.0425 -6.5461 -1.7755 0.9721
-1.4561 -6.7279 -1.7823 0.9720
-0.2403 -6.9591 -1.8029 0.9716
0.3843 -7.0059 -1.8167 0.9714
1.0166 -7.0051 -1.8327 0.9712
2.2928 -6.8558 -1.8717 0.9706
3.5634 -6.5015 -1.9196 0.9698
4.1875 -6.2450 -1.9468 0.9694
4.7989 -5.9344 -1.9760 0.9690
5.3930 -5.5694 -2.0073 0.9685
6.5097 -4.6755 -2.0752 0.9674
7.0086 -4.1399 -2.1076 0.9669
6.9555 -3.3105 -1.9945 0.9687
7.3534 -2.7253 -2.0305 0.9681
7.7042 -2.0958 -2.0672 0.9675
8.0020 -1.4254 -2.1045 0.9670
8.2409 -0.7186 -2.1418 0.9664
8.4155 0.0197 -2.1789 0.9658
8.5204 0.7831 -2.2154 0.9653
8.5510 1.5646 -2.2508 0.9647
5.3510 3.8813 -1.7116 0.9731
4.7798 4.1657 -1.6416 0.9741
3.8128 4.7603 -1.5791 0.9751
2.7909 5.1492 -1.5165 0.9761
1.6710 3.8724 -1.0920 0.9827
0.7015 3.0132 -0.8010 0.9873
-0.7711 5.9673 -1.5579 0.9754
-1.6129 7.2874 -1.9325 0.9696
-3.3292 7.9529 -2.2323 0.9650
-5.0537 6.4529 -2.1222 0.9667
-5.5104 5.8713 -2.0848 0.9673
-6.7221 4.9890 -2.1675 0.9660
-7.2412 3.5862 -2.0922 0.9672
-7.5053 2.1680 -2.0227 0.9682
-7.5317 0.7754 -1.9604 0.9692
-7.3408 -0.5593 -1.9062 0.9700
-7.1706 -1.1966 -1.8823 0.9704
-6.3937 -2.9578 -1.8240 0.9713
-5.6797 -3.9860 -1.7966 0.9717
-5.2714 -4.4512 -1.7864 0.9719
-3.8681 -5.6344 -1.7696 0.9722
-2.8061 -6.2335 -1.7700 0.9721
-2.2436 -6.4724 -1.7737 0.9721
-1.6629 -6.6693 -1.7797 0.9720
-0.4563 -6.9318 -1.7986 0.9717
0.1650 -6.9949 -1.8116 0.9715
0.7949 -7.0109 -1.8269 0.9713
1.4307 -6.9784 -1.8444 0.9710
2.0694 -6.8964 -1.8643 0.9707
2.7080 -6.7635 -1.8863 0.9703
5.1876 -5.7032 -1.9961 0.9686
5.7679 -5.3025 -2.0286 0.9681
6.3227 -4.8474 -2.0628 0.9676
2.3120 -0.9399 -0.6462 0.9897
8.5490 1.2899 -2.2385 0.9649
6.9472 3.0832 -1.9679 0.9691
4.9742 4.0690 -1.6639 0.9738
3.9887 4.6733 -1.5908 0.9749
3.4308 4.8340 -1.5348 0.9758
2.9554 5.0683 -1.5191 0.9760
1.5334 5.7649 -1.5445 0.9757
0.5105 6.2624 -1.6268 0.9744
-0.6667 6.8318 -1.7773 0.9720
-4.3415 7.1798 -2.1724 0.9659
-5.7744 5.4773 -2.0607 0.9676
-7.3543 3.1245 -2.0689 0.9675
-7.4769 2.4151 -2.0344 0.9681
-7.5391 1.7106 -2.0016 0.9686
-7.5434 1.0154 -1.9707 0.9690
-7.4924 0.3336 -1.9418 0.9695
-7.3888 -0.3314 -1.9150 0.9699
-7.2354 -0.9764 -1.8904 0.9703
-7.0349 -1.5987 -1.8679 0.9706
-6.7900 -2.1957 -1.8477 0.9709
-6.1773 -3.3060 -1.8141 0.9715
-5.8147 -3.8155 -1.8007 0.9717
-5.4178 -4.2924 -1.7897 0.9718
-4.5302 -5.1429 -1.7745 0.9721
-2.4424 -6.3936 -1.7721 0.9721
-1.2766 -6.7741 -1.7848 0.9719
-0.6710 -6.8988 -1.7947 0.9718
-0.0533 -6.9781 -1.8068 0.9716
0.5739 -7.0107 -1.8213 0.9714
1.2079 -6.9954 -1.8380 0.9711
1.8460 -6.9308 -1.8571 0.9708
3.1216 -6.6492 -1.9019 0.9701
4.3731 -6.1572 -1.9554 0.9693
4.9797 -5.8303 -1.9852 0.9688
5.5677 -5.4488 -2.0170 0.9683
7.1427 -3.9641 -2.1151 0.9668
7.4642 -2.5403 -2.0415 0.9679
8.0803 -1.2164 -2.1157 0.9668
8.3005 -0.4994 -2.1530 0.9662
8.4546 0.2471 -2.1900 0.9657
8.5376 1.0167 -2.2262 0.9651
8.5450 1.8020 -2.2611 0.9646
7.2291 2.9418 -2.0208 0.9683
-4.0252 -4.9110 -1.7976 0.9739
-2.0550 -6.0126 -1.7988 0.9739
-1.5153 -6.1917 -1.8045 0.9738
0.7641 -6.4875 -1.8493 0.9732
2.5285 -6.2365 -1.9051 0.9724
3.6858 -5.8295 -1.9525 0.9717
4.2480 -5.5519 -1.9790 0.9714
4.7939 -5.2246 -2.0073 0.9710
5.3192 -4.8476 -2.0374 0.9705
5.8191 -4.4213 -2.0689 0.9701
6.2392 -3.1780 -1.9822 0.9713
2.3188 -0.9310 -0.7074 0.9897
6.9271 -2.0858 -2.0480 0.9704
7.2019 -1.4836 -2.0816 0.9699
7.6907 0.4989 -2.1818 0.9685
7.6943 1.9107 -2.2444 0.9676
6.1706 3.4625 -2.0031 0.9710
3.4033 4.8396 -1.6749 0.9757
2.9289 5.0734 -1.6584 0.9759
2.4598 5.3038 -1.6551 0.9760
1.9886 5.5346 -1.6649 0.9758
1.5078 5.7693 -1.6881 0.9755
0.4835 6.2670 -1.7794 0.9742
-0.0805 6.5398 -1.8515 0.9732
-2.8276 7.2996 -2.2161 0.9680
-3.9604 6.4859 -2.1513 0.9689
-4.4528 6.0117 -2.1179 0.9694
-4.8921 5.5016 -2.0842 0.9699
-5.2767 4.9619 -2.0505 0.9703
-5.6058 4.3989 -2.0172 0.9708
-6.7466 2.8318 -2.0713 0.9700
-6.9293 1.5406 -2.0095 0.9709
-6.9395 0.9034 -1.9811 0.9713
-6.8982 0.2771 -1.9544 0.9717
-6.2666 -2.0566 -1.8671 0.9730
-6.0040 -2.5840 -1.8504 0.9732
-5.7043 -3.0848 -1.8359 0.9734
-5.3699 -3.5570 -1.8234 0.9736
-5.0029 -3.9992 -1.8132 0.9737
-4.6056 -4.4097 -1.8051 0.9738
-2.2398 -5.9406 -1.7973 0.9740
-1.7057 -6.1337 -1.8023 0.9739
-1.1564 -6.2863 -1.8095 0.9738
-0.5941 -6.3972 -1.8188 0.9736
1.1459 -6.4687 -1.8598 0.9731
3.4862 -5.9148 -1.9436 0.9719
4.0531 -5.6546 -1.9695 0.9715
4.6052 -5.3447 -1.9972 0.9711
5.6475 -4.5759 -2.0577 0.9702
6.1284 -4.1179 -2.0902 0.9698
2.3192 -1.0163 -0.7168 0.9895
7.1116 -1.6980 -2.0698 0.9701
7.3526 -1.0742 -2.1036 0.9696
7.7221 0.9536 -2.2027 0.9682
5.7429 3.6765 -1.9304 0.9721
5.1390 3.9781 -1.8398 0.9733
3.5717 4.7564 -1.6839 0.9756
1.5316 3.8777 -1.1803 0.9828
0.5717 2.8565 -0.8247 0.9880
0.1218 6.4420 -1.8240 0.9736
-0.4746 6.7299 -1.9099 0.9723
-0.9655 5.9931 -1.7185 0.9751
-1.9649 7.7262 -2.2569 0.9674
-2.6111 7.4204 -2.2269 0.9678
-3.2165 7.0569 -2.1955 0.9683
-3.7763 6.6419 -2.1629 0.9687
-4.2866 6.1819 -2.1296 0.9692
-4.7447 5.6836 -2.0959 0.9697
-5.1486 5.1535 -2.0622 0.9702
-2.4808 2.0750 -0.9156 0.9866
-6.4948 3.7009 -2.1162 0.9694
-6.6916 3.0577 -2.0827 0.9699
-6.9183 0.4946 -1.9635 0.9716
-6.7240 -0.7240 -1.9145 0.9723
-6.5579 -1.3060 -1.8930 0.9726
-6.3492 -1.8663 -1.8734 0.9729
-5.8131 -2.9129 -1.8407 0.9733
-4.7477 -4.2699 -1.8077 0.9738
-2.9325 -5.6179 -1.7940 0.9740
-1.8942 -6.0707 -1.8003 0.9739
-0.7920 -6.3633 -1.8153 0.9737
0.3558 -6.4862 -1.8390 0.9734
0.9405 -6.4812 -1.8540 0.9731
3.8564 -5.7512 -1.9603 0.9716
4.4142 -5.4587 -1.9874 0.9712
4.9544 -5.1164 -2.0162 0.9708
5.4725 -4.7245 -2.0467 0.9704
6.4087 -3.7855 -2.1071 0.9695
6.7063 -2.4854 -2.0247 0.9707
7.0150 -1.9083 -2.0581 0.9702
7.2744 -1.2958 -2.0918 0.9697
7.4796 -0.6522 -2.1255 0.9693
5.9688 3.5635 -1.9680 0.9715
5.3437 3.8760 -1.8688 0.9729
4.7736 4.1602 -1.7925 0.9740
4.3183 4.5015 -1.7659 0.9744
2.7875 5.1429 -1.6560 0.9760
0.7065 3.0346 -0.8821 0.9871
0.4261 3.0362 -0.8680 0.9873
0.3184 6.3469 -1.7990 0.9739
-0.2598 6.6263 -1.8773 0.9728
-1.6104 7.2762 -2.1097 0.9695
-3.5861 6.7924 -2.1744 0.9686
-4.5907 5.8617 -2.1077 0.9695
-6.6294 3.2832 -2.0943 0.9697
-6.7884 2.6371 -2.0617 0.9702
-6.9379 1.3480 -2.0008 0.9710
-6.8761 0.0913 -1.9467 0.9718
-6.7715 -0.5159 -1.9225 0.9722
-6.4268 -1.6731 -1.8800 0.9728
-6.1916 -2.2180 -1.8619 0.9730
-4.4804 -4.5268 -1.8031 0.9739
-4.0469 -4.8941 -1.7978 0.9739
-3.5881 -5.2266 -1.7947 0.9740
-3.1060 -5.5230 -1.7938 0.9740
-2.6029 -5.7822 -1.7951 0.9740
-0.9885 -6.3241 -1.8120 0.9737
0.7356 -6.4881 -1.8485 0.9732
1.3230 -6.4535 -1.8649 0.9730
3.0831 -6.0673 -1.9267 0.9721
3.6581 -5.8417 -1.9512 0.9718
4.7678 -5.2417 -2.0059 0.9710
5.2942 -4.8671 -2.0359 0.9705
2.3121 -0.9400 -0.7065 0.9897
6.9125 -2.1142 -2.0464 0.9704
7.1897 -1.5137 -2.0800 0.9699
7.4143 -0.8804 -2.1137 0.9694
7.5817 -0.2190 -2.1472 0.9690
7.6872 0.4651 -2.1802 0.9685
4.9676 4.0636 -1.8169 0.9737
4.4251 4.3335 -1.7534 0.9746
3.9838 4.6674 -1.7372 0.9748
2.4826 5.2927 -1.6550 0.9760
2.0117 5.5233 -1.6641 0.9759
1.5315 5.7578 -1.6867 0.9755
0.5099 6.2542 -1.7764 0.9743
-0.6658 6.8220 -1.9404 0.9719
-1.1587 6.1373 -1.7681 0.9744
-2.7978 7.3168 -2.2176 0.9680
-3.3899 6.9371 -2.1858 0.9684
-4.4301 6.0357 -2.1195 0.9694
-4.8720 5.5271 -2.0858 0.9698
-5.5911 4.4267 -2.0188 0.9708
-6.3223 4.1455 -2.1403 0.9691
-6.5602 3.5080 -2.1060 0.9695
-6.7394 2.8632 -2.0729 0.9700
-6.8612 2.2163 -2.0412 0.9705
-6.9275 1.5718 -2.0110 0.9709
-6.9014 0.3072 -1.9557 0.9717
-6.8134 -0.3056 -1.9308 0.9720
-6.4995 -1.4770 -1.8869 0.9727
-6.2784 -2.0303 -1.8680 0.9729
-6.0177 -2.5590 -1.8512 0.9732
-5.7197 -3.0611 -1.8365 0.9734
-5.3869 -3.5348 -1.8240 0.9736
-5.0214 -3.9784 -1.8136 0.9737
-3.7512 -5.1144 -1.7955 0.9740
-3.2770 -5.4235 -1.7939 0.9740
-2.2653 -5.9302 -1.7971 0.9740
-1.7320 -6.1252 -1.8020 0.9739
-1.1834 -6.2798 -1.8091 0.9738
2.8800 -6.1346 -1.9185 0.9722
4.0259 -5.6684 -1.9682 0.9715
4.5788 -5.3609 -1.9959 0.9711
6.8041 -2.3157 -2.0347 0.9706
7.3421 -1.1052 -2.1019 0.9696
7.6576 0.2238 -2.1687 0.9687
7.7158 1.6272 -2.2323 0.9677
7.2175 2.9370 -2.2059 0.9681
-3.7498 -4.5751 -1.8195 0.9755
-2.4018 -5.3979 -1.8172 0.9756
-1.9143 -5.6010 -1.8206 0.9755
0.1683 -6.0271 -1.8545 0.9751
0.7104 -6.0318 -1.8681 0.9749
1.2559 -5.9937 -1.8836 0.9747
1.8021 -5.9121 -1.9010 0.9745
3.9302 -5.1366 -1.9893 0.9733
4.9105 -4.4751 -2.0435 0.9726
5.3656 -4.0767 -2.0727 0.9722
5.7844 -3.6299 -2.1005 0.9718
5.7384 -2.9229 -1.9808 0.9734
2.3188 -0.9310 -0.7686 0.9896
6.5973 -1.3591 -2.0718 0.9722
7.0167 0.4552 -2.1627 0.9710
7.0024 1.7389 -2.2192 0.9703
6.7300 3.0218 -2.2691 0.9696
6.1614 3.4573 -2.1731 0.9709
4.9337 4.0717 -1.9675 0.9736
3.9541 4.6737 -1.8830 0.9747
2.9253 5.0671 -1.7996 0.9758
2.4568 5.2973 -1.7960 0.9759
1.9862 5.5278 -1.8066 0.9757
1.5059 5.7621 -1.8318 0.9754
-0.0804 6.5308 -2.0089 0.9730
-0.6962 6.8273 -2.1108 0.9717
-1.3835 7.1572 -2.2422 0.9700
-1.9975 6.9399 -2.2212 0.9702
-2.5763 6.6508 -2.1937 0.9706
-3.1178 6.3105 -2.1650 0.9710
-4.4810 5.0392 -2.0741 0.9722
-5.8249 3.7833 -2.1363 0.9714
-6.0501 3.2016 -2.1054 0.9718
-6.2202 2.6108 -2.0749 0.9722
-6.4036 1.4237 -2.0177 0.9729
-6.1888 -0.8625 -1.9219 0.9742
-6.0254 -1.3968 -1.9024 0.9744
-5.8224 -1.9108 -1.8848 0.9747
-5.5820 -2.4024 -1.8692 0.9749
-5.3063 -2.8696 -1.8555 0.9751
-4.9976 -3.3104 -1.8438 0.9752
-4.6578 -3.7234 -1.8341 0.9754
-4.2892 -4.1068 -1.8265 0.9755
-3.8939 -4.4594 -1.8209 0.9755
-3.0313 -5.0664 -1.8159 0.9756
-0.5530 -5.9548 -1.8394 0.9753
-0.0198 -6.0156 -1.8503 0.9751
1.0650 -6.0119 -1.8779 0.9748
1.6113 -5.9457 -1.8947 0.9745
2.1563 -5.8353 -1.9134 0.9743
2.6969 -5.6801 -1.9340 0.9740
3.2297 -5.4796 -1.9564 0.9737
3.7513 -5.2335 -1.9805 0.9734
4.7453 -4.6038 -2.0336 0.9727
5.2096 -4.2210 -2.0623 0.9723
5.6462 -3.7939 -2.0923 0.9719
5.6151 -3.0845 -1.9705 0.9735
2.3130 -1.0136 -0.7767 0.9895
6.5176 -1.5562 -2.0610 0.9723
6.8894 -0.3845 -2.1223 0.9715
7.0395 0.8693 -2.1817 0.9708
6.7966 2.8002 -2.2610 0.9697
5.7347 3.6713 -2.0944 0.9719
4.5784 4.2487 -1.9212 0.9742
3.5673 4.7504 -1.8272 0.9754
1.6753 5.6795 -1.8213 0.9755
0.5968 2.9818 -0.9353 0.9874
0.6701 6.1680 -1.9083 0.9744
-0.4740 6.7204 -2.0722 0.9722
-2.9330 6.4349 -2.1751 0.9708
-4.7200 4.7246 -2.0541 0.9724
-2.4739 2.0692 -0.9920 0.9866
-5.7254 3.9782 -2.1444 0.9712
-5.9780 3.4064 -2.1163 0.9716
-6.1668 2.8179 -2.0854 0.9720
-6.3863 1.6306 -2.0273 0.9728
-6.4045 0.4578 -1.9749 0.9735
-6.3427 -0.1139 -1.9512 0.9738
-6.2362 -0.6715 -1.9292 0.9741
-5.8978 -1.7336 -1.8908 0.9746
-5.6702 -2.2333 -1.8744 0.9748
-5.4066 -2.7092 -1.8600 0.9750
-4.7800 -3.5823 -1.8373 0.9753
-4.4212 -3.9762 -1.8289 0.9754
-2.7322 -5.2342 -1.8161 0.9756
-2.2568 -5.4629 -1.8180 0.9756
0.3309 -6.0329 -1.8584 0.9750
1.9661 -5.8789 -1.9067 0.9744
3.5705 -5.3247 -1.9719 0.9735
4.0827 -5.0488 -1.9971 0.9732
5.4970 -3.9482 -2.0817 0.9721
5.8974 -3.4835 -2.1067 0.9717
5.8411 -2.7801 -1.9897 0.9733
6.1575 -2.2820 -2.0198 0.9729
6.4322 -1.7498 -2.0503 0.9725
6.9640 0.0163 -2.1420 0.9713
7.0305 0.6462 -2.1715 0.9709
7.0361 1.2874 -2.2001 0.9705
6.9782 1.9334 -2.2272 0.9702
6.8552 2.5771 -2.2526 0.9698
6.6586 3.2075 -2.2733 0.9695
5.9601 3.5583 -2.1351 0.9714
4.7672 4.1547 -1.9450 0.9739
4.3128 4.4957 -1.9162 0.9743
3.8032 4.7484 -1.8712 0.9749
1.6117 3.7349 -1.2512 0.9831
0.7179 3.0833 -0.9737 0.9868
0.3180 6.3384 -1.9520 0.9738
-0.2595 6.6171 -2.0368 0.9727
-0.7698 5.9575 -1.8476 0.9752
-2.7434 6.5535 -2.1852 0.9707
-3.7596 5.8005 -2.1261 0.9715
-4.2009 5.3640 -2.0956 0.9719
-2.3693 2.1108 -0.9760 0.9868
-6.1069 3.0245 -2.0961 0.9719
-6.4137 1.2461 -2.0096 0.9730
-6.3695 0.0845 -1.9593 0.9737
-6.2784 -0.4783 -1.9367 0.9740
-6.1439 -1.0253 -1.9159 0.9743
-5.9684 -1.5537 -1.8969 0.9745
-5.5027 -2.5456 -1.8648 0.9749
-5.2168 -3.0051 -1.8517 0.9751
-4.5498 -3.8419 -1.8316 0.9754
-4.1730 -4.2162 -1.8246 0.9755
-3.3430 -4.8695 -1.8167 0.9756
-2.8939 -5.1459 -1.8159 0.9756
-1.9384 -5.5920 -1.8204 0.9755
-0.9203 -5.8882 -1.8331 0.9754
-0.3935 -5.9773 -1.8425 0.9752
0.1421 -6.0258 -1.8539 0.9751
1.2294 -5.9966 -1.8828 0.9747
3.3880 -5.4104 -1.9635 0.9736
3.9055 -5.1504 -1.9881 0.9733
4.4067 -4.8447 -2.0143 0.9730
4.8877 -4.4934 -2.0421 0.9726
6.3412 -1.9395 -2.0396 0.9726
6.7831 -0.8055 -2.1010 0.9718
6.1946 3.4407 -2.1795 0.9708
5.5472 3.7651 -2.0621 0.9723
4.9609 4.0581 -1.9714 0.9735
4.4193 4.3279 -1.9025 0.9744
3.9787 4.6615 -1.8850 0.9747
3.4223 4.8220 -1.8187 0.9756
2.9481 5.0559 -1.8002 0.9758
2.4796 5.2862 -1.7959 0.9759
0.4902 2.8448 -0.8879 0.9880
0.5092 6.2460 -1.9275 0.9741
-0.0520 6.5171 -2.0046 0.9731
-1.9685 6.9525 -2.2225 0.9702
-2.5490 6.6660 -2.1951 0.9706
-3.5945 5.9444 -2.1367 0.9713
-4.0520 5.5205 -2.1063 0.9717
-4.8235 4.5754 -2.0449 0.9726
-5.8114 3.8106 -2.1375 0.9713
-6.0405 3.2301 -2.1069 0.9717
-6.4202 0.8642 -1.9925 0.9733
-6.3907 0.2845 -1.9676 0.9736
-6.3152 -0.2833 -1.9444 0.9739
-6.1957 -0.8361 -1.9229 0.9742
-6.0343 -1.3713 -1.9033 0.9744
-5.8332 -1.8863 -1.8856 0.9747
-5.5945 -2.3791 -1.8699 0.9749
-5.3205 -2.8474 -1.8561 0.9751
-5.0133 -3.2896 -1.8443 0.9752
-4.6750 -3.7040 -1.8345 0.9753
-3.9137 -4.4430 -1.8211 0.9755
-3.4948 -4.7648 -1.8175 0.9756
-2.1104 -5.5246 -1.8190 0.9756
-1.6133 -5.7052 -1.8236 0.9755
-0.5787 -5.9508 -1.8390 0.9753
0.4940 -6.0350 -1.8624 0.9750
1.0385 -6.0141 -1.8772 0.9748
1.5847 -5.9499 -1.8939 0.9746
2.1299 -5.8417 -1.9125 0.9743
2.6707 -5.6887 -1.9330 0.9740
3.7262 -5.2465 -1.9793 0.9734
4.7221 -4.6213 -2.0322 0.9727
5.1876 -4.2407 -2.0609 0.9723
5.6257 -3.8157 -2.0908 0.9720
5.5976 -3.1066 -1.9691 0.9736
6.2447 -2.1253 -2.0289 0.9728
6.7203 -1.0116 -2.0903 0.9720
6.8829 -0.4141 -2.1209 0.9716
6.9902 0.2043 -2.1510 0.9712
7.0387 0.8382 -2.1803 0.9708
6.8052 2.7693 -2.2598 0.9697
-3.5065 -4.2783 -1.8388 0.9770
-3.1065 -4.5674 -1.8361 0.9770
-2.6857 -4.8244 -1.8354 0.9770
-2.2462 -5.0481 -1.8366 0.9770
-1.7900 -5.2374 -1.8398 0.9769
-1.3194 -5.3912 -1.8450 0.9769
-0.8365 -5.5084 -1.8520 0.9768
-0.3435 -5.5880 -1.8610 0.9767
0.1572 -5.6291 -1.8719 0.9765
1.1718 -5.5921 -1.8992 0.9762
1.6803 -5.5126 -1.9156 0.9760
3.1756 -5.0226 -1.9753 0.9753
3.6532 -4.7745 -1.9983 0.9750
4.5555 -4.1517 -2.0488 0.9744
4.9726 -3.7781 -2.0759 0.9740
2.3189 -0.9310 -0.8306 0.9895
6.0798 -1.2525 -2.0634 0.9742
6.2514 -0.7148 -2.0915 0.9738
6.3739 -0.1564 -2.1194 0.9735
6.4173 1.5936 -2.1979 0.9725
6.3165 2.1827 -2.2215 0.9722
5.5096 3.7747 -2.2200 0.9722
2.9217 5.0608 -1.9425 0.9757
2.4537 5.2907 -1.9386 0.9757
0.4822 6.2503 -2.0838 0.9739
-0.6851 6.7180 -2.2447 0.9719
-1.2693 6.5665 -2.2232 0.9722
-2.3633 6.1009 -2.1748 0.9728
-2.8631 5.7951 -2.1486 0.9731
-3.7488 5.0613 -2.0937 0.9738
-4.1291 4.6435 -2.0655 0.9741
-4.4650 4.1986 -2.0373 0.9745
-4.7553 3.7315 -2.0093 0.9748
-5.3761 3.4918 -2.1309 0.9733
-5.6005 2.9637 -2.1062 0.9736
-5.8791 1.8708 -2.0508 0.9743
-5.9462 1.3220 -2.0248 0.9747
-5.9426 0.2387 -1.9769 0.9752
-5.8751 -0.2891 -1.9553 0.9755
-5.6179 -1.3023 -1.9170 0.9760
-5.4321 -1.7827 -1.9004 0.9762
-4.6693 -3.0930 -1.8617 0.9767
-4.0100 -3.8395 -1.8454 0.9769
-3.6411 -4.1699 -1.8401 0.9769
-3.2488 -4.4699 -1.8368 0.9770
-2.8350 -4.7383 -1.8354 0.9770
-0.0185 -5.6192 -1.8678 0.9766
0.9939 -5.6102 -1.8939 0.9763
1.5027 -5.5451 -1.9097 0.9761
2.5116 -5.2900 -1.9466 0.9756
3.9553 -4.5904 -2.0142 0.9748
4.8298 -3.9133 -2.0663 0.9741
5.1945 -2.8535 -1.9701 0.9753
6.1968 -0.9053 -2.0817 0.9739
6.4604 0.7978 -2.1638 0.9729
6.2189 2.5622 -2.2358 0.9720
6.0198 3.1349 -2.2561 0.9718
5.1249 3.9672 -2.1543 0.9731
4.5723 4.2431 -2.0735 0.9740
4.0547 4.4998 -2.0134 0.9748
3.0861 4.9798 -1.9474 0.9756
0.5992 2.9938 -1.0149 0.9872
-0.4733 6.7108 -2.2362 0.9720
-1.6373 6.4380 -2.2081 0.9724
-3.6058 5.2000 -2.1034 0.9737
-5.8444 2.0628 -2.0602 0.9742
-5.9561 0.4258 -1.9849 0.9751
-5.5012 -1.6170 -1.9060 0.9761
-5.2920 -2.0843 -1.8906 0.9763
-4.4670 -3.3478 -1.8556 0.9767
-4.1330 -3.7170 -1.8477 0.9768
-3.7728 -4.0578 -1.8418 0.9769
-2.5553 -4.8953 -1.8356 0.9770
-2.1105 -5.1088 -1.8374 0.9770
-1.1753 -5.4304 -1.8469 0.9769
0.8161 -5.6234 -1.8888 0.9763
1.8329 -5.4805 -1.9209 0.9759
2.3369 -5.3467 -1.9396 0.9757
3.3208 -4.9524 -1.9820 0.9752
5.0928 -3.6578 -2.0843 0.9739
5.4560 -3.2228 -2.1064 0.9736
5.6857 -2.1072 -2.0156 0.9748
5.9325 -1.6138 -2.0437 0.9744
6.1364 -1.0931 -2.0719 0.9741
6.2936 -0.5488 -2.1000 0.9737
6.4546 0.5933 -2.1546 0.9730
6.4528 1.1807 -2.1806 0.9727
6.3932 1.7713 -2.2052 0.9724
6.2745 2.3588 -2.2282 0.9721
5.8585 3.4976 -2.2680 0.9716
4.7608 4.1491 -2.0992 0.9737
4.1878 4.3654 -2.0108 0.9748
3.7326 4.6603 -1.9847 0.9751
3.2514 4.8983 -1.9543 0.9755
2.7806 5.1302 -1.9397 0.9757
1.6346 3.7880 -1.3714 0.9828
0.3175 6.3299 -2.1067 0.9736
-0.2591 6.6078 -2.1981 0.9725
-1.4408 6.5099 -2.2163 0.9723
-3.4576 5.3346 -2.1131 0.9736
-3.8679 4.9388 -2.0852 0.9739
-2.3688 2.1105 -1.0546 0.9867
-4.8337 3.5874 -2.0009 0.9749
-5.6550 2.8006 -2.0976 0.9738
-5.9042 1.7055 -2.0428 0.9744
-5.9572 1.1574 -2.0172 0.9747
-5.9642 0.6140 -1.9930 0.9750
-5.9267 0.0787 -1.9703 0.9753
-5.8466 -0.4455 -1.9491 0.9756
-5.7257 -0.9555 -1.9296 0.9758
-3.9016 -3.9420 -1.8436 0.9769
-3.1264 -4.5541 -1.8362 0.9770
-2.2679 -5.0380 -1.8365 0.9770
-1.8126 -5.2290 -1.8396 0.9769
-1.3426 -5.3846 -1.8447 0.9769
-0.8602 -5.5035 -1.8516 0.9768
0.1327 -5.6280 -1.8713 0.9765
0.6385 -5.6316 -1.8840 0.9764
1.1470 -5.5950 -1.8985 0.9762
1.6556 -5.5174 -1.9148 0.9760
2.1614 -5.3983 -1.9329 0.9758
2.6613 -5.2371 -1.9527 0.9755
3.6303 -4.7875 -1.9972 0.9750
5.3357 -3.3807 -2.0996 0.9737
5.2912 -2.7241 -1.9782 0.9752
6.2442 -0.7415 -2.0902 0.9738
6.3692 -0.1840 -2.1180 0.9735
6.4420 0.3898 -2.1453 0.9732
5.5393 3.7598 -2.2254 0.9722
4.3158 4.2265 -2.0079 0.9749
3.9048 4.5749 -1.9994 0.9750
3.4180 4.8160 -1.9631 0.9754
2.4765 5.2796 -1.9384 0.9757
2.0067 5.5096 -1.9491 0.9756
1.5276 5.7433 -1.9755 0.9753
-0.0519 6.5080 -2.1634 0.9729
-1.8038 6.3708 -2.2009 0.9725
-3.3044 5.4647 -2.1228 0.9734
-3.7293 5.0809 -2.0950 0.9738
-4.1116 4.6645 -2.0669 0.9741
-4.4497 4.2208 -2.0387 0.9745
-4.7423 3.7547 -2.0106 0.9748
-5.5913 2.9899 -2.1076 0.9736
-5.9440 1.3487 -2.0260 0.9746
-5.9669 0.8032 -2.0013 0.9749
-5.7725 -0.7790 -1.9362 0.9757
-5.4419 -1.7598 -1.9012 0.9762
-5.2222 -2.2207 -1.8863 0.9764
-4.6839 -3.0735 -1.8622 0.9767
-3.2683 -4.4560 -1.8369 0.9770
-2.8556 -4.7260 -1.8354 0.9770
-1.5084 -5.3343 -1.8427 0.9769
-1.0301 -5.4662 -1.8490 0.9768
-0.5408 -5.5609 -1.8572 0.9767
-0.0429 -5.6174 -1.8673 0.9766
1.9851 -5.4447 -1.9264 0.9759
2.4874 -5.2982 -1.9456 0.9756
2.9817 -5.1095 -1.9665 0.9754
3.4648 -4.8784 -1.9890 0.9751
4.3825 -4.2890 -2.0383 0.9745
4.8097 -3.9317 -2.0650 0.9742
5.2104 -3.5339 -2.0927 0.9738
2.3290 -1.0327 -0.8469 0.9893
6.1887 -0.9316 -2.0804 0.9740
6.3312 -0.3809 -2.1083 0.9736
6.3637 1.9487 -2.2123 0.9723
-3.2899 -4.0139 -1.8560 0.9782
-1.6794 -4.9137 -1.8570 0.9782
-1.2376 -5.0571 -1.8618 0.9781
-0.3220 -5.2389 -1.8770 0.9779
0.6212 -5.2747 -1.8993 0.9777
2.0443 -5.0422 -1.9457 0.9772
2.5098 -4.8863 -1.9644 0.9769
2.9658 -4.6908 -1.9846 0.9767
3.8365 -4.1811 -2.0293 0.9762
4.6285 -3.5167 -2.0788 0.9756
4.9757 -3.1224 -2.1007 0.9754
4.9300 -2.5111 -1.9785 0.9768
5.6314 -1.1601 -2.0561 0.9759
5.6656 2.5439 -2.2209 0.9740
5.2003 3.5628 -2.2542 0.9736
4.8900 4.0356 -2.2673 0.9734
2.4507 5.2841 -2.0830 0.9756
-1.1690 6.0477 -2.2027 0.9742
-2.1803 5.6285 -2.1585 0.9747
-2.6439 5.3514 -2.1345 0.9750
-3.8243 4.3007 -2.0581 0.9758
-4.1395 3.8926 -2.0320 0.9762
-4.4131 3.4630 -2.0061 0.9765
-4.6443 3.0165 -1.9804 0.9767
-5.2077 2.7558 -2.1070 0.9753
-5.5442 1.2326 -2.0310 0.9762
-5.5680 0.7249 -2.0080 0.9764
-5.5497 0.2229 -1.9862 0.9767
-5.4906 -0.2702 -1.9659 0.9769
-5.3925 -0.7516 -1.9470 0.9771
-5.2570 -1.2187 -1.9298 0.9773
-5.0859 -1.6691 -1.9142 0.9775
-4.8811 -2.1007 -1.9003 0.9777
-4.0825 -3.2635 -1.8691 0.9780
-3.7614 -3.6014 -1.8623 0.9781
-3.4160 -3.9121 -1.8573 0.9782
-3.0482 -4.1940 -1.8541 0.9782
-2.6601 -4.4460 -1.8528 0.9782
-1.8307 -4.8556 -1.8557 0.9782
-1.3935 -5.0108 -1.8599 0.9781
0.9307 -5.2539 -1.9081 0.9776
1.8799 -5.0874 -1.9395 0.9772
2.8077 -4.7636 -1.9774 0.9768
3.2558 -4.5423 -1.9985 0.9765
3.6892 -4.2815 -2.0211 0.9763
4.8275 -2.6519 -1.9697 0.9769
2.3040 -1.0096 -0.8996 0.9894
5.7360 -0.8380 -2.0730 0.9757
5.9362 0.1993 -2.1240 0.9751
5.9626 0.7363 -2.1485 0.9748
5.8581 1.8217 -2.1939 0.9743
5.2968 3.3909 -2.2491 0.9736
4.5661 4.2374 -2.2277 0.9739
3.5582 4.7383 -2.1190 0.9751
3.0821 4.9735 -2.0924 0.9755
1.6711 5.6651 -2.1122 0.9752
0.6683 6.1516 -2.2128 0.9741
0.1187 6.2784 -2.2456 0.9737
-0.4384 6.2170 -2.2288 0.9739
-0.9613 5.9675 -2.1616 0.9746
-1.5087 5.9324 -2.1890 0.9743
-2.9279 5.1496 -2.1184 0.9751
-3.3351 4.8096 -2.0930 0.9754
-3.7045 4.4375 -2.0672 0.9757
-5.1362 2.9267 -2.1140 0.9752
-5.3152 2.4288 -2.0898 0.9755
-5.4429 1.9211 -2.0641 0.9758
-5.5158 -0.0990 -1.9728 0.9768
-4.7305 -2.3704 -1.8922 0.9778
-4.4740 -2.7667 -1.8811 0.9779
-3.8765 -3.4863 -1.8644 0.9781
-3.1792 -4.0988 -1.8550 0.9782
-2.7980 -4.3614 -1.8530 0.9782
-2.3977 -4.5933 -1.8529 0.9782
0.7644 -5.2671 -1.9033 0.9776
1.7149 -5.1278 -1.9336 0.9773
3.5396 -4.3771 -2.0131 0.9764
4.3624 -3.7661 -2.0610 0.9758
4.7391 -3.4038 -2.0866 0.9755
5.0150 -2.3869 -1.9862 0.9767
5.2753 -1.9551 -2.0119 0.9764
5.4988 -1.4958 -2.0379 0.9761
5.8218 -0.5076 -2.0898 0.9755
5.9150 0.0138 -2.1153 0.9752
5.9520 1.0890 -2.1638 0.9746
5.6093 2.7020 -2.2265 0.9739
5.1122 3.7081 -2.2584 0.9735
3.9878 4.1569 -2.0600 0.9758
3.5220 4.3973 -2.0147 0.9764
3.2473 4.8921 -2.0998 0.9754
2.7771 5.1237 -2.0841 0.9755
1.6375 3.7947 -1.4780 0.9826
0.3154 6.2866 -2.2509 0.9736
-0.7684 5.9467 -2.1443 0.9748
-1.3273 5.9970 -2.1965 0.9742
-1.8385 5.7965 -2.1746 0.9745
-2.3684 2.1101 -1.1343 0.9866
-4.4872 3.3302 -1.9983 0.9765
-5.2599 2.6050 -2.0990 0.9754
-5.4034 2.0990 -2.0730 0.9757
-5.5017 1.5893 -2.0479 0.9760
-5.5559 1.0794 -2.0240 0.9762
-5.5669 0.5731 -2.0013 0.9765
-5.4652 -0.4164 -1.9600 0.9770
-5.3556 -0.8937 -1.9417 0.9772
-5.2092 -1.3561 -1.9249 0.9774
-5.0277 -1.8011 -1.9098 0.9776
-4.8131 -2.2266 -1.8964 0.9777
-4.5670 -2.6308 -1.8848 0.9779
-2.9335 -4.2731 -1.8535 0.9782
-2.1280 -4.7271 -1.8538 0.9782
-1.7005 -4.9058 -1.8568 0.9782
-1.2594 -5.0509 -1.8615 0.9781
-0.3447 -5.2361 -1.8765 0.9780
0.1244 -5.2745 -1.8867 0.9778
0.5982 -5.2756 -1.8987 0.9777
1.5494 -5.1633 -1.9278 0.9774
2.0215 -5.0488 -1.9448 0.9772
2.4873 -4.8948 -1.9635 0.9769
2.9439 -4.7012 -1.9836 0.9767
3.3880 -4.4680 -2.0052 0.9765
4.6104 -3.5346 -2.0775 0.9756
4.9601 -3.1427 -2.0998 0.9754
4.9159 -2.5309 -1.9773 0.9768
2.3123 -0.9400 -0.8926 0.9895
5.4251 -1.6593 -2.0288 0.9762
5.9495 0.3600 -2.1315 0.9750
5.9604 0.8993 -2.1556 0.9747
5.9189 1.4426 -2.1786 0.9745
5.4707 3.0386 -2.2379 0.9738
2.4734 5.2729 -2.0828 0.9756
2.0041 5.5026 -2.0942 0.9754
1.5257 5.7359 -2.1225 0.9751
0.4891 2.8382 -1.0299 0.9878
-1.1432 6.0555 -2.2037 0.9742
-2.6221 5.3658 -2.1357 0.9749
-3.0542 5.0510 -2.1108 0.9752
-3.4503 4.7008 -2.0853 0.9755
-3.8079 4.3199 -2.0593 0.9758
-4.6341 3.0386 -1.9817 0.9767
-5.3584 2.2765 -2.0820 0.9756
-5.5419 1.2574 -2.0322 0.9761
-5.5515 0.2472 -1.9872 0.9767
-5.4944 -0.2464 -1.9668 0.9769
-4.8918 -2.0802 -1.9009 0.9777
-4.6565 -2.4921 -1.8887 0.9778
-4.3911 -2.8813 -1.8782 0.9779
-4.0975 -3.2464 -1.8694 0.9780
-2.2738 -4.6569 -1.8533 0.9782
-1.4150 -5.0041 -1.8597 0.9782
-0.0402 -5.2653 -1.8830 0.9779
0.4322 -5.2795 -1.8943 0.9777
1.8570 -5.0933 -1.9387 0.9772
2.3254 -4.9531 -1.9568 0.9770
2.7856 -4.7734 -1.9764 0.9768
4.0844 -3.9972 -2.0437 0.9760
4.8451 -3.2862 -2.0936 0.9754
4.8130 -2.6712 -1.9685 0.9769
5.3466 -1.8196 -2.0197 0.9763
5.8549 -0.3523 -2.0975 0.9754
5.9336 0.1734 -2.1228 0.9751
5.9625 0.7101 -2.1473 0.9748
5.8632 1.7954 -2.1928 0.9743
5.7327 2.3328 -2.2133 0.9741
-2.7428 -4.0327 -1.8690 0.9793
-2.3714 -4.2599 -1.8684 0.9793
-1.5801 -4.6232 -1.8723 0.9793
-1.1643 -4.7574 -1.8769 0.9792
-0.7378 -4.8587 -1.8833 0.9792
0.1385 -4.9588 -1.9011 0.9790
0.5838 -4.9563 -1.9125 0.9788
1.0305 -4.9177 -1.9255 0.9787
2.7792 -4.3957 -1.9930 0.9780
3.1925 -4.1724 -2.0133 0.9777
3.5900 -3.9126 -2.0349 0.9775
4.3244 -3.2856 -2.0813 0.9770
4.6434 -2.9139 -2.1008 0.9768
4.5983 -2.3422 -1.9776 0.9781
2.3213 -0.9320 -0.9586 0.9893
5.0611 -1.5240 -2.0255 0.9776
5.3765 -0.6148 -2.0738 0.9771
5.4716 -0.1343 -2.0975 0.9768
5.5219 0.3582 -2.1205 0.9766
5.2413 2.3534 -2.2017 0.9757
5.0476 2.8323 -2.2180 0.9755
4.1286 4.0785 -2.2240 0.9754
3.6515 4.3160 -2.1665 0.9761
3.3595 4.7773 -2.2381 0.9753
2.9142 5.0479 -2.2337 0.9753
1.4874 5.6915 -2.2543 0.9751
0.4483 5.8103 -2.2332 0.9753
-0.0713 5.7905 -2.2192 0.9755
-0.5832 5.7191 -2.2030 0.9757
-2.0213 5.2179 -2.1444 0.9763
-2.4530 4.9650 -2.1222 0.9766
-2.8548 4.6752 -2.0992 0.9768
-3.5574 4.0006 -2.0516 0.9773
-4.1124 3.2270 -2.0032 0.9779
-4.3316 2.8134 -1.9794 0.9781
-5.1877 1.1534 -2.0366 0.9775
-5.2138 0.6788 -2.0149 0.9777
-5.2003 0.2089 -1.9944 0.9780
-5.1483 -0.2533 -1.9753 0.9782
-5.0593 -0.7051 -1.9576 0.9784
-4.9349 -1.1440 -1.9413 0.9785
-4.5862 -1.9739 -1.9134 0.9788
-4.3654 -2.3607 -1.9019 0.9790
-4.1160 -2.7265 -1.8920 0.9791
-3.5385 -3.3880 -1.8774 0.9792
-2.8683 -3.9465 -1.8696 0.9793
-2.5032 -4.1838 -1.8684 0.9793
-0.8880 -4.8271 -1.8809 0.9792
-0.0163 -4.9514 -1.8975 0.9790
0.8743 -4.9353 -1.9208 0.9788
1.3206 -4.8731 -1.9348 0.9786
2.2021 -4.6381 -1.9676 0.9782
2.6316 -4.4650 -1.9861 0.9780
3.0497 -4.2547 -2.0061 0.9778
3.4531 -4.0075 -2.0272 0.9776
3.8386 -3.7241 -2.0495 0.9774
4.2028 -3.4053 -2.0729 0.9771
4.5376 -3.0489 -2.0950 0.9769
2.2994 -1.0077 -0.9621 0.9893
4.9902 -1.6742 -2.0171 0.9777
5.1810 -1.2371 -2.0413 0.9774
5.4434 -0.3038 -2.0892 0.9769
5.5096 0.1850 -2.1126 0.9767
5.4243 1.6868 -2.1769 0.9760
5.2974 2.1826 -2.1956 0.9758
5.1209 2.6668 -2.2126 0.9756
3.8156 4.2344 -2.1843 0.9759
3.5051 4.6677 -2.2369 0.9753
3.0782 4.9671 -2.2394 0.9753
2.6105 5.1973 -2.2288 0.9754
0.1097 5.8033 -2.2243 0.9754
-0.9095 5.6460 -2.1915 0.9758
-1.8639 5.2969 -2.1519 0.9762
-3.4449 4.1266 -2.0600 0.9772
-4.2595 2.9596 -1.9877 0.9780
-4.7869 2.7277 -2.1113 0.9767
-4.9642 2.2684 -2.0916 0.9769
-5.0876 1.7957 -2.0675 0.9772
-4.9823 -0.9922 -1.9468 0.9785
-4.6563 -1.8339 -1.9178 0.9788
-4.4460 -2.2278 -1.9057 0.9789
-3.9392 -2.9522 -1.8865 0.9791
-3.6465 -3.2795 -1.8794 0.9792
-3.3300 -3.5815 -1.8741 0.9793
-2.2562 -4.3224 -1.8685 0.9793
-1.8633 -4.5104 -1.8701 0.9793
-1.4563 -4.6670 -1.8735 0.9793
0.2722 -4.9618 -1.9043 0.9789
0.7181 -4.9485 -1.9162 0.9788
1.6096 -4.8129 -1.9448 0.9785
2.0499 -4.6899 -1.9614 0.9783
2.9050 -4.3324 -1.9989 0.9779
3.3139 -4.0981 -2.0197 0.9777
3.7060 -3.8273 -2.0416 0.9774
4.7313 -2.7947 -2.1058 0.9767
4.6764 -2.2258 -1.9847 0.9781
4.9149 -1.8215 -2.0087 0.9778
5.1186 -1.3924 -2.0328 0.9775
5.4916 0.0128 -2.1045 0.9768
5.5168 1.0094 -2.1492 0.9763
5.3474 2.0103 -2.1893 0.9758
4.9797 2.9730 -2.2225 0.9755
3.5122 4.3851 -2.1530 0.9762
2.7736 5.1172 -2.2305 0.9754
1.6275 3.7716 -1.5742 0.9826
1.8360 5.5764 -2.2498 0.9752
1.3324 5.7229 -2.2518 0.9751
-0.2264 5.7744 -2.2145 0.9755
-0.7350 5.6879 -2.1978 0.9757
-1.2289 5.5524 -2.1793 0.9759
-2.1541 5.1459 -2.1378 0.9764
-2.9694 4.5813 -2.0922 0.9769
-3.3279 4.2493 -2.0684 0.9771
-3.6506 3.8897 -2.0443 0.9774
-4.1825 3.1041 -1.9960 0.9779
-4.3899 2.6863 -1.9723 0.9782
-4.9104 2.4319 -2.0999 0.9768
-5.1998 1.0103 -2.0299 0.9776
-5.1886 0.0689 -1.9885 0.9780
-5.1253 -0.3905 -1.9698 0.9782
-5.0255 -0.8387 -1.9525 0.9784
-4.5229 -2.0924 -1.9097 0.9789
-4.2933 -2.4731 -1.8987 0.9790
-3.4432 -3.4789 -1.8757 0.9793
-2.7604 -4.0209 -1.8691 0.9793
-2.3898 -4.2495 -1.8683 0.9793
-2.0024 -4.4482 -1.8694 0.9793
-1.6000 -4.6159 -1.8722 0.9793
0.1170 -4.9581 -1.9005 0.9790
0.5620 -4.9572 -1.9119 0.9789
1.4545 -4.8472 -1.9394 0.9786
1.8967 -4.7371 -1.9555 0.9784
2.3324 -4.5899 -1.9730 0.9782
3.1728 -4.1841 -2.0123 0.9778
4.6289 -2.9329 -2.1000 0.9768
4.5854 -2.3608 -1.9764 0.9781
2.3124 -0.9401 -0.9566 0.9894
5.0515 -1.5450 -2.0244 0.9776
5.2310 -1.1013 -2.0486 0.9774
5.4680 -0.1580 -2.0963 0.9768
5.5205 0.3340 -2.1194 0.9766
5.3913 1.8369 -2.1827 0.9759
3.6742 4.3047 -2.1688 0.9760
3.3800 4.7623 -2.2379 0.9753
2.9370 5.0367 -2.2343 0.9753
2.4702 5.2662 -2.2291 0.9754
1.5124 5.6859 -2.2547 0.9751
0.4917 2.8533 -1.1095 0.9877
0.4736 5.8100 -2.2339 0.9753
-0.5586 5.7238 -2.2039 0.9757
-1.0582 5.6052 -2.1860 0.9759
-1.5401 5.4393 -2.1664 0.9761
-2.4327 4.9782 -2.1233 0.9765
-3.5420 4.0183 -2.0527 0.9773
-2.6195 2.0740 -1.2804 0.9858
-4.3219 2.8339 -1.9805 0.9781
-4.8462 2.5915 -2.1060 0.9767
-5.0058 2.1267 -2.0843 0.9770
-5.1165 1.6527 -2.0605 0.9772
-5.2135 0.7018 -2.0159 0.9777
-5.2018 0.2316 -1.9954 0.9779
-5.1517 -0.2311 -1.9762 0.9782
-4.9417 -1.1230 -1.9420 0.9785
-4.3769 -2.3424 -1.9024 0.9790
-4.1288 -2.7092 -1.8924 0.9791
-2.5214 -4.1730 -1.8684 0.9793
-2.1396 -4.3822 -1.8688 0.9793
-0.9088 -4.8224 -1.8805 0.9792
-0.0378 -4.9500 -1.8970 0.9790
0.8526 -4.9374 -1.9201 0.9788
1.2990 -4.8770 -1.9341 0.9786
2.1810 -4.6456 -1.9667 0.9783
2.6110 -4.4742 -1.9852 0.9781
3.0297 -4.2657 -2.0051 0.9778
3.8203 -3.7387 -2.0484 0.9774
4.5226 -3.0674 -2.0942 0.9769
4.4907 -2.4923 -1.9682 0.9782
2.3078 -1.0233 -0.9674 0.9892
4.9800 -1.6949 -2.0159 0.9777
5.4390 -0.3273 -2.0881 0.9769
5.5074 0.1610 -2.1114 0.9767
5.5040 1.1607 -2.1556 0.9762
5.4292 1.6626 -2.1759 0.9760
5.3047 2.1587 -2.1947 0.9758
-2.9200 -3.5627 -1.8853 0.9803
-2.5875 -3.8044 -1.8830 0.9803
-1.4905 -4.3610 -1.8862 0.9803
-1.0981 -4.4869 -1.8906 0.9802
-0.2854 -4.6440 -1.9042 0.9801
0.1305 -4.6735 -1.9135 0.9800
1.3895 -4.5587 -1.9505 0.9796
2.2131 -4.3087 -1.9824 0.9793
2.6120 -4.1312 -2.0004 0.9791
3.3698 -3.6725 -2.0399 0.9787
3.7225 -3.3925 -2.0613 0.9785
4.0535 -3.0798 -2.0835 0.9782
4.3038 -2.1922 -1.9768 0.9793
2.3230 -0.9327 -1.0245 0.9892
4.7296 -1.4241 -2.0216 0.9789
5.0164 -0.5736 -2.0665 0.9784
5.1444 0.3337 -2.1099 0.9780
5.0983 1.2661 -2.1500 0.9776
5.0072 1.7303 -2.1682 0.9774
4.8702 2.1868 -2.1850 0.9772
4.6877 2.6304 -2.2000 0.9770
4.1911 3.4589 -2.2241 0.9768
3.8811 3.8340 -2.2328 0.9767
3.1526 4.4831 -2.2431 0.9766
2.7418 4.7493 -2.2444 0.9766
1.3798 5.2796 -2.2334 0.9767
0.4161 5.3935 -2.2140 0.9769
-0.0662 5.3775 -2.2010 0.9770
-1.4540 5.0516 -2.1514 0.9775
-1.8816 4.8574 -2.1320 0.9777
-2.6614 4.3585 -2.0901 0.9782
-3.0077 4.0607 -2.0681 0.9784
-3.3216 3.7354 -2.0458 0.9786
-2.3143 2.1762 -1.3002 0.9864
-4.5428 2.4039 -2.1035 0.9780
-1.9342 0.0777 -0.7922 0.9917
-1.9404 -0.0955 -0.7951 0.9916
-4.6452 -1.0769 -1.9516 0.9796
-4.1141 -2.2248 -1.9142 0.9800
-3.8802 -2.5703 -1.9049 0.9801
-3.6207 -2.8943 -1.8971 0.9802
-3.3373 -3.1953 -1.8910 0.9802
-2.0006 -4.1429 -1.8829 0.9803
-1.6249 -4.3097 -1.8851 0.9803
-0.8374 -4.5521 -1.8943 0.9802
-0.0154 -4.6670 -1.9101 0.9800
0.4031 -4.6747 -1.9203 0.9799
1.2434 -4.5880 -1.9455 0.9797
2.8651 -3.9971 -2.0128 0.9790
3.2420 -3.7625 -2.0327 0.9788
4.2496 -2.8554 -2.0954 0.9781
2.2956 -1.0060 -1.0258 0.9892
4.6646 -1.5650 -2.0137 0.9790
4.9772 -0.7271 -2.0587 0.9785
5.0443 1.5687 -2.1620 0.9774
4.9233 2.0284 -2.1793 0.9772
4.7566 2.4771 -2.1949 0.9771
4.5451 2.9097 -2.2087 0.9769
3.2680 4.3519 -2.2274 0.9768
2.8885 4.6610 -2.2442 0.9766
2.4609 4.8994 -2.2439 0.9766
1.4846 3.7589 -1.6541 0.9827
1.5456 5.2396 -2.2358 0.9767
0.6307 3.1511 -1.3152 0.9862
0.5853 5.3876 -2.2180 0.9768
-0.3767 5.3415 -2.1916 0.9771
-0.8454 5.2479 -2.1755 0.9773
-1.7347 4.9298 -2.1389 0.9777
-2.5332 4.4555 -2.0977 0.9781
-3.5075 3.5109 -2.0311 0.9788
-2.3889 1.9981 -1.2746 0.9866
-1.9158 -0.0344 -0.7842 0.9918
-4.5532 -1.3384 -1.9424 0.9797
-4.3862 -1.7275 -1.9294 0.9798
-4.1895 -2.0993 -1.9179 0.9800
-3.1409 -3.3781 -1.8879 0.9803
-2.8220 -3.6382 -1.8844 0.9803
-2.4839 -3.8718 -1.8827 0.9803
-2.1285 -4.0777 -1.8826 0.9803
-1.7578 -4.2548 -1.8841 0.9803
-1.3736 -4.4021 -1.8874 0.9803
-0.9780 -4.5187 -1.8922 0.9802
-0.5730 -4.6037 -1.8987 0.9801
0.2565 -4.6758 -1.9166 0.9800
0.6765 -4.6616 -1.9279 0.9798
1.0968 -4.6131 -1.9407 0.9797
3.1121 -3.8484 -2.0256 0.9788
3.4780 -3.5917 -2.0463 0.9786
4.1477 -2.9790 -2.0900 0.9782
4.3758 -2.0827 -1.9834 0.9793
4.7822 -1.3009 -2.0283 0.9788
5.0463 -0.4400 -2.0731 0.9783
5.1188 0.0120 -2.0950 0.9781
5.1349 0.9395 -2.1365 0.9777
4.8200 2.3219 -2.1897 0.9771
4.1020 3.5749 -2.2269 0.9768
3.7804 3.9407 -2.2350 0.9767
3.4224 4.2729 -2.2406 0.9766
1.6356 3.7903 -1.6895 0.9823
1.7100 5.1938 -2.2379 0.9766
1.2361 5.3092 -2.2310 0.9767
0.2706 5.3937 -2.2103 0.9769
-0.6830 5.2858 -2.1813 0.9772
-1.5850 4.9973 -2.1457 0.9776
-2.0057 4.7914 -2.1259 0.9778
-2.4014 4.5485 -2.1051 0.9780
-2.7689 4.2720 -2.0836 0.9782
-3.1056 3.9655 -2.0615 0.9785
-4.7337 1.8389 -2.0784 0.9783
-1.9544 -0.1489 -0.8022 0.9916
-2.0938 -0.3494 -0.8688 0.9909
-4.6043 -1.1986 -1.9472 0.9796
-4.4480 -1.5934 -1.9337 0.9798
-4.2615 -1.9715 -1.9217 0.9799
-3.2475 -3.2812 -1.8895 0.9802
-2.9357 -3.5503 -1.8855 0.9803
-2.6041 -3.7932 -1.8831 0.9803
-2.2546 -4.0089 -1.8824 0.9803
-0.7155 -4.5777 -1.8963 0.9802
-0.3056 -4.6417 -1.9038 0.9801
0.1102 -4.6728 -1.9130 0.9800
0.5295 -4.6704 -1.9237 0.9799
1.3692 -4.5630 -1.9498 0.9796
1.7846 -4.4572 -1.9650 0.9795
2.1934 -4.3164 -1.9816 0.9793
2.9801 -3.9301 -2.0187 0.9789
3.3521 -3.6853 -2.0389 0.9787
3.7058 -3.4068 -2.0602 0.9785
4.3345 -2.7463 -2.1001 0.9781
4.2919 -2.2096 -1.9757 0.9794
2.3125 -0.9401 -1.0217 0.9893
4.7208 -1.4439 -2.0205 0.9789
4.8847 -1.0284 -2.0430 0.9787
5.0113 -0.5951 -2.0654 0.9784
5.1016 1.2434 -2.1491 0.9776
4.8779 2.1648 -2.1842 0.9772
4.6976 2.6092 -2.1993 0.9770
4.4728 3.0359 -2.2125 0.9769
4.2052 3.4399 -2.2236 0.9768
3.5514 4.1609 -2.2389 0.9766
3.1718 4.4691 -2.2429 0.9766
2.7624 4.7373 -2.2444 0.9766
2.3277 4.9625 -2.2434 0.9766
1.4029 5.2744 -2.2337 0.9767
0.4396 5.3930 -2.2145 0.9769
-0.5190 5.3181 -2.1869 0.9772
-1.4327 5.0600 -2.1523 0.9775
-1.8614 4.8678 -2.1329 0.9777
-2.2662 4.6374 -2.1125 0.9779
-2.9916 4.0758 -2.0692 0.9784
-2.3004 2.1820 -1.2976 0.9864
-2.5253 1.9994 -1.3183 0.9862
-4.5340 2.4246 -2.1043 0.9780
-4.7989 1.5501 -2.0640 0.9784
-1.9492 0.2624 -0.8050 0.9915
-1.9375 -0.0869 -0.7938 0.9917
-4.3300 -1.8413 -1.9258 0.9799
-3.6339 -2.8791 -1.8975 0.9802
-3.0471 -3.4591 -1.8867 0.9803
-2.7221 -3.7114 -1.8837 0.9803
-2.0185 -4.1341 -1.8829 0.9803
-1.6435 -4.3023 -1.8849 0.9803
-0.8570 -4.5477 -1.8940 0.9802
-0.4496 -4.6230 -1.9010 0.9801
0.8030 -4.6506 -1.9316 0.9798
1.6400 -4.4981 -1.9595 0.9795
2.0514 -4.3696 -1.9756 0.9794
3.5845 -3.5079 -2.0527 0.9786
3.9245 -3.2081 -2.0746 0.9783
4.9714 -0.7484 -2.0576 0.9785
5.1324 0.1500 -2.1014 0.9781
5.1493 0.6132 -2.1224 0.9778
5.1219 1.0801 -2.1424 0.9776
4.9302 2.0063 -2.1785 0.9773
-2.7606 -3.3682 -1.8980 0.9812
-2.4464 -3.5969 -1.8958 0.9812
-1.4091 -4.1228 -1.8988 0.9812
-1.0380 -4.2413 -1.9030 0.9811
-0.6575 -4.3300 -1.9087 0.9811
0.1233 -4.4147 -1.9248 0.9809
0.5193 -4.4095 -1.9350 0.9808
0.9161 -4.3720 -1.9468 0.9807
1.3112 -4.3017 -1.9599 0.9806
1.7021 -4.1983 -1.9744 0.9804
2.0864 -4.0620 -1.9902 0.9803
2.4612 -3.8927 -2.0072 0.9801
2.8239 -3.6907 -2.0253 0.9799
3.1716 -3.4565 -2.0445 0.9797
3.5014 -3.1910 -2.0646 0.9795
4.0401 -2.0579 -1.9760 0.9804
2.3247 -0.9334 -1.0918 0.9891
4.5825 -0.9440 -2.0391 0.9798
4.7723 -0.1171 -2.0805 0.9794
4.7605 1.1822 -2.1377 0.9788
4.5426 2.0397 -2.1701 0.9785
4.3703 2.4523 -2.1840 0.9784
3.9045 3.2224 -2.2063 0.9782
3.2905 3.8893 -2.2203 0.9780
2.1471 4.6295 -2.2240 0.9780
1.7229 4.7952 -2.2206 0.9780
0.3878 5.0262 -2.1970 0.9782
-0.0617 5.0132 -2.1850 0.9784
-1.3576 4.7166 -2.1390 0.9788
-2.1363 4.3240 -2.1019 0.9792
-2.4897 4.0772 -2.0820 0.9794
-2.8155 3.8012 -2.0615 0.9796
-2.2745 2.1387 -1.3607 0.9865
-2.5196 1.9772 -1.3958 0.9861
-1.5194 0.1978 -0.6678 0.9933
-1.5294 -0.0753 -0.6673 0.9933
-1.5166 -0.2114 -0.6673 0.9933
-1.5323 -0.3552 -0.6855 0.9932
-3.8863 -2.1016 -1.9255 0.9809
-3.6663 -2.4286 -1.9166 0.9810
-3.1545 -3.0204 -1.9034 0.9811
-2.8661 -3.2823 -1.8991 0.9812
-2.5582 -3.5198 -1.8964 0.9812
-1.8915 -3.9170 -1.8957 0.9812
-1.5362 -4.0745 -1.8977 0.9812
-0.7915 -4.3024 -1.9065 0.9811
-0.4060 -4.3713 -1.9133 0.9810
1.1734 -4.3300 -1.9551 0.9806
1.5661 -4.2382 -1.9692 0.9805
2.3314 -3.9556 -2.0011 0.9802
3.0520 -3.5420 -2.0377 0.9798
3.3883 -3.2873 -2.0575 0.9796
3.7049 -3.0018 -2.0781 0.9794
2.2931 -1.0049 -1.0911 0.9891
4.5344 -1.0827 -2.0317 0.9799
4.6605 -0.6809 -2.0527 0.9797
4.8010 0.1612 -2.0935 0.9793
4.8118 0.5942 -2.1130 0.9791
4.2362 2.7120 -2.1921 0.9783
3.9972 3.0942 -2.2030 0.9782
3.7201 3.4522 -2.2118 0.9781
3.0627 4.0785 -2.2229 0.9780
2.6893 4.3395 -2.2250 0.9780
2.2912 4.5616 -2.2247 0.9780
1.8730 4.7422 -2.2221 0.9780
0.5454 5.0201 -2.2007 0.9782
0.0950 5.0228 -2.1894 0.9783
-0.7888 4.8963 -2.1614 0.9786
-1.2131 4.7701 -2.1451 0.9788
-2.3692 4.1670 -2.0890 0.9793
-2.3579 1.9722 -1.3397 0.9867
-1.5938 0.5625 -0.7366 0.9927
-1.5083 0.2445 -0.6659 0.9934
-1.5293 0.1093 -0.6682 0.9933
-1.5248 -0.1642 -0.6684 0.9933
-1.5063 -0.3000 -0.6693 0.9933
-1.5708 -0.4617 -0.7136 0.9929
-3.9571 -1.9828 -1.9289 0.9809
-3.5100 -2.6305 -1.9116 0.9810
-2.6679 -3.4397 -1.8971 0.9812
-2.0125 -3.8554 -1.8954 0.9812
-1.6619 -4.0226 -1.8968 0.9812
-0.9244 -4.2712 -1.9045 0.9811
-0.5415 -4.3507 -1.9107 0.9811
0.2423 -4.4165 -1.9277 0.9809
1.0353 -4.3543 -1.9506 0.9807
1.4294 -4.2740 -1.9641 0.9805
1.8186 -4.1608 -1.9790 0.9804
2.2003 -4.0145 -1.9951 0.9802
2.5718 -3.8353 -2.0125 0.9801
2.9302 -3.6236 -2.0310 0.9799
3.8964 -2.7986 -2.0907 0.9793
3.8754 -2.2891 -1.9616 0.9806
4.1070 -1.9547 -1.9823 0.9803
4.4821 -1.2192 -2.0243 0.9799
4.6205 -0.8231 -2.0454 0.9797
4.7231 -0.4118 -2.0662 0.9795
4.7877 0.0112 -2.0866 0.9793
4.8127 0.4423 -2.1063 0.9791
4.7966 0.8776 -2.1251 0.9789
4.7385 1.3129 -2.1429 0.9788
4.4951 2.1653 -2.1745 0.9785
4.3104 2.5734 -2.1879 0.9783
4.0852 2.9632 -2.1994 0.9782
3.1867 3.9787 -2.2216 0.9780
2.8228 4.2526 -2.2245 0.9780
1.6656 3.8599 -1.8322 0.9818
1.1513 4.9450 -2.2128 0.9781
0.3957 2.8195 -1.2408 0.9877
-0.1961 5.0007 -2.1811 0.9784
-0.6371 4.9308 -2.1668 0.9785
-1.0665 4.8188 -2.1509 0.9787
-1.4802 4.6668 -2.1337 0.9789
-1.8742 4.4773 -2.1153 0.9790
-2.9077 3.7128 -2.0553 0.9796
-3.1944 3.4036 -2.0343 0.9798
-3.8582 2.3610 -1.9713 0.9805
-4.3131 2.1361 -2.0976 0.9792
-4.4503 1.7288 -2.0807 0.9794
-1.5257 0.1571 -0.6685 0.9933
-1.5251 0.0202 -0.6647 0.9934
-1.5063 -0.2514 -0.6655 0.9934
-3.8227 -2.2020 -1.9226 0.9809
-3.5952 -2.5231 -1.9142 0.9810
-3.3437 -2.8235 -1.9073 0.9811
-2.4621 -3.5864 -1.8959 0.9812
-1.4269 -4.1163 -1.8987 0.9812
-0.2887 -4.3859 -1.9156 0.9810
0.1041 -4.4142 -1.9243 0.9809
0.8968 -4.3745 -1.9462 0.9807
1.6833 -4.2041 -1.9736 0.9804
2.4432 -3.9017 -2.0063 0.9801
2.8066 -3.7013 -2.0244 0.9799
3.1551 -3.4687 -2.0435 0.9797
3.4858 -3.2046 -2.0636 0.9796
4.0291 -2.0743 -1.9750 0.9804
4.4256 -1.3536 -2.0170 0.9800
4.5761 -0.9634 -2.0381 0.9798
4.6914 -0.5571 -2.0590 0.9796
4.7695 -0.1378 -2.0795 0.9794
4.7637 1.1610 -2.1369 0.9788
4.6780 1.5939 -2.1538 0.9787
4.3797 2.4326 -2.1834 0.9784
4.1684 2.8293 -2.1956 0.9783
2.9532 4.1610 -2.2237 0.9780
2.1673 4.6204 -2.2241 0.9780
1.3066 4.9122 -2.2152 0.9781
0.5152 2.9894 -1.3220 0.9869
0.4097 5.0256 -2.1975 0.9782
-0.0400 5.0149 -2.1856 0.9784
