ply
format ascii 1.0
element vertex 1584
property float32 x
property float32 y
property float32 z
property float32 I
end_header
-14.5358 -5.6581 -1.4975 0.9392
-12.8178 -7.8572 -1.4434 0.9414
-10.9326 -9.7569 -1.4068 0.9428
-9.2527 -9.8763 -1.2993 0.9471
-5.1767 -12.4033 -1.2903 0.9474
-2.9278 -13.3004 -1.3075 0.9467
2.0282 -14.3146 -1.3880 0.9436
3.3705 -14.3882 -1.4187 0.9423
8.2303 -15.1311 -1.6536 0.9331
11.5558 -14.3815 -1.7712 0.9285
13.2934 -13.8128 -1.8405 0.9259
2.3759 -0.8883 -0.2435 0.9899
9.5554 2.6210 -0.9513 0.9610
8.5059 3.1732 -0.8716 0.9642
6.3120 3.7475 -0.7047 0.9709
5.6867 4.1041 -0.6733 0.9722
4.2897 4.4510 -0.5935 0.9755
3.2766 4.9124 -0.5669 0.9766
2.2086 5.0882 -0.5325 0.9780
1.7655 5.3246 -0.5386 0.9777
0.8305 5.8317 -0.5655 0.9766
-0.7895 6.2026 -0.6003 0.9752
-0.9762 6.4437 -0.7742 0.9741
-14.7475 12.5634 -2.3013 0.9249
-15.1817 10.7524 -2.2099 0.9278
-2.6635 1.5495 -0.3660 0.9877
-15.6004 7.2974 -2.0458 0.9330
-15.6139 5.6672 -1.9731 0.9353
-15.5142 4.1075 -1.9064 0.9374
-13.6850 -2.6030 -1.6547 0.9454
-13.1101 -3.7318 -1.6192 0.9466
-10.2991 -7.5843 -1.5193 0.9498
-8.4904 -8.9807 -1.4681 0.9514
-7.3363 -9.2984 -1.4069 0.9534
-6.3514 -9.7233 -1.3796 0.9543
-5.4561 -10.2471 -1.3790 0.9543
-4.5289 -10.7143 -1.3817 0.9542
-3.5704 -11.1244 -1.3878 0.9540
-1.5607 -11.7682 -1.4101 0.9533
0.5710 -12.1758 -1.4479 0.9521
1.6987 -12.3933 -1.4859 0.9509
2.9394 -12.8092 -1.5611 0.9484
6.8761 -12.7792 -1.7238 0.9432
12.3403 -10.8175 -1.9493 0.9360
13.7367 -10.0236 -2.0200 0.9338
16.5095 -8.0090 -2.1797 0.9288
2.3658 -0.8967 -0.3005 0.9899
18.9405 -3.5170 -2.2883 0.9253
15.7544 -0.0770 -1.8714 0.9385
11.0796 1.9455 -1.3362 0.9557
9.3723 2.5252 -1.1530 0.9617
6.3438 3.7276 -0.8740 0.9708
5.7563 4.1147 -0.8405 0.9719
4.9164 4.2255 -0.7701 0.9742
3.8243 4.7086 -0.7206 0.9759
2.7246 4.9472 -0.6709 0.9775
2.2299 5.0741 -0.6584 0.9779
1.7875 5.3102 -0.6656 0.9777
1.3535 5.6447 -0.6895 0.9769
0.8552 5.8161 -0.6983 0.9766
0.1629 2.8734 -0.3419 0.9885
-1.4153 6.5937 -0.8011 0.9732
-14.5753 13.1457 -2.3315 0.9240
-15.0618 11.3202 -2.2381 0.9269
-15.3885 9.5444 -2.1510 0.9297
-15.5572 4.5933 -1.9268 0.9367
-15.3870 3.0829 -1.8641 0.9387
-14.3485 -1.0108 -1.7086 0.9437
-13.8545 -2.2314 -1.6669 0.9450
-11.3063 -6.4302 -1.5450 0.9490
-10.5479 -7.3168 -1.5249 0.9496
-9.7475 -8.1408 -1.5086 0.9501
-8.9073 -8.9034 -1.4960 0.9505
-7.6740 -9.1803 -1.4213 0.9529
-6.6310 -9.5503 -1.3811 0.9542
-4.8257 -10.5726 -1.3805 0.9543
-2.8973 -11.3713 -1.3939 0.9538
0.2252 -12.1190 -1.4398 0.9523
1.3297 -12.2714 -1.4662 0.9515
2.5334 -12.6733 -1.5352 0.9493
3.8671 -13.1191 -1.6247 0.9464
5.1556 -13.0591 -1.6678 0.9450
9.1399 -12.1719 -1.8081 0.9405
13.2947 -10.2894 -1.9970 0.9345
17.4097 -5.4089 -2.1655 0.9292
18.5836 -3.9973 -2.2580 0.9263
11.5496 1.6930 -1.3866 0.9541
9.8005 2.3455 -1.1970 0.9602
7.5465 3.3125 -0.9790 0.9673
5.1199 4.1546 -0.7832 0.9738
4.4983 4.3710 -0.7451 0.9751
1.9373 5.2586 -0.6657 0.9777
1.0143 5.7614 -0.6949 0.9767
0.4900 5.7567 -0.6863 0.9770
-0.5759 6.1220 -0.7304 0.9755
-14.9259 11.8930 -2.2670 0.9260
-15.6193 6.6908 -2.0184 0.9338
-15.5898 5.0863 -1.9479 0.9361
-15.4516 3.5529 -1.8833 0.9381
-14.4907 -0.6098 -1.7228 0.9433
-13.4806 -3.0254 -1.6411 0.9459
-12.2357 -5.1657 -1.5776 0.9479
-10.7926 -7.0431 -1.5308 0.9494
-9.1773 -8.6687 -1.4996 0.9504
-8.0274 -9.0693 -1.4387 0.9524
-6.9525 -9.4325 -1.3919 0.9539
-6.0265 -9.9221 -1.3790 0.9543
-5.1194 -10.4252 -1.3796 0.9543
-4.1806 -10.8716 -1.3836 0.9542
-3.2107 -11.2604 -1.3909 0.9539
0.9747 -12.2086 -1.4548 0.9519
4.7493 -13.1028 -1.6555 0.9454
7.3641 -12.6715 -1.7409 0.9427
11.4592 -11.2521 -1.9077 0.9374
12.8528 -10.5416 -1.9746 0.9352
14.2492 -9.6977 -2.0474 0.9329
17.0097 -7.5728 -2.2117 0.9277
17.0262 -5.8224 -2.1375 0.9301
18.2192 -4.4614 -2.2281 0.9272
15.0736 0.4210 -1.7912 0.9411
11.5652 1.3626 -1.3833 0.9542
10.3201 2.1633 -1.2525 0.9584
8.1154 3.2918 -1.0403 0.9653
6.8854 3.5384 -0.9196 0.9693
6.1943 3.9186 -0.8707 0.9709
4.6885 4.3048 -0.7561 0.9747
3.6305 4.7825 -0.7132 0.9761
3.1110 4.9626 -0.6957 0.9767
2.5649 5.0418 -0.6719 0.9775
2.0872 5.2068 -0.6663 0.9777
1.6136 5.3702 -0.6661 0.9777
1.1720 5.7071 -0.6921 0.9768
0.6684 5.8802 -0.7030 0.9764
0.0683 2.8682 -0.3408 0.9885
-0.3977 6.0610 -0.7215 0.9758
-1.0078 6.4545 -0.7760 0.9740
-2.3290 6.7206 -0.8449 0.9718
-5.8124 12.9131 -1.6821 0.9446
-2.6706 1.5374 -0.3660 0.9877
-15.6041 7.2130 -2.0420 0.9331
-15.5064 4.0303 -1.9031 0.9375
-15.3004 2.5466 -1.8425 0.9394
-14.6260 -0.2016 -1.7375 0.9428
-14.1747 -1.4672 -1.6928 0.9442
-12.4467 -4.8449 -1.5865 0.9476
-11.7632 -5.8363 -1.5598 0.9485
-10.2588 -7.6266 -1.5185 0.9498
-9.4436 -8.4279 -1.5035 0.9503
-8.4204 -8.9879 -1.4630 0.9516
-7.2828 -9.3171 -1.4047 0.9535
-6.3068 -9.7513 -1.3795 0.9543
-5.4098 -10.2721 -1.3791 0.9543
-4.4810 -10.7365 -1.3820 0.9542
1.7588 -12.4135 -1.4893 0.9508
4.3458 -13.1378 -1.6437 0.9458
6.9433 -12.7651 -1.7261 0.9431
8.2814 -12.4348 -1.7747 0.9416
9.6417 -11.9993 -1.8285 0.9399
11.0201 -11.4506 -1.8878 0.9380
13.8076 -9.9797 -2.0237 0.9337
2.3770 -0.8887 -0.3014 0.9898
17.8480 -4.9092 -2.1988 0.9281
18.9971 -3.4386 -2.2933 0.9252
12.6150 1.1257 -1.5044 0.9503
10.9673 1.9771 -1.3238 0.9561
8.4263 3.1435 -1.0683 0.9644
7.1847 3.4390 -0.9462 0.9684
5.7224 4.1298 -0.8383 0.9720
4.2843 4.4454 -0.7334 0.9754
-0.3691 6.0439 -0.8579 0.9758
-8.9351 16.0576 -2.6037 0.9284
-9.9851 14.6853 -2.5162 0.9308
-10.8737 13.2696 -2.4308 0.9330
-11.6069 11.8309 -2.3483 0.9352
-12.6381 8.9509 -2.1943 0.9394
-13.1502 6.1512 -2.0570 0.9430
-12.9154 1.0368 -1.8359 0.9490
-12.3005 -1.2168 -1.7514 0.9513
-10.9031 -4.1872 -1.6549 0.9539
-10.3303 -5.0671 -1.6303 0.9546
-9.7106 -5.8921 -1.6094 0.9551
-8.3429 -7.3780 -1.5780 0.9560
-6.0074 -9.1967 -1.5564 0.9566
-5.1609 -9.6925 -1.5559 0.9566
-4.2828 -10.1321 -1.5586 0.9565
-2.4374 -10.8381 -1.5740 0.9561
-1.4723 -11.1016 -1.5868 0.9558
1.5775 -11.5089 -1.6459 0.9542
2.6408 -11.5079 -1.6729 0.9534
3.7245 -11.4329 -1.7037 0.9526
4.8262 -11.2801 -1.7384 0.9516
7.0716 -10.7234 -1.8200 0.9494
9.3457 -9.7993 -1.9187 0.9468
10.4798 -9.1865 -1.9746 0.9453
11.6023 -8.4661 -2.0350 0.9436
2.3669 -0.8971 -0.3586 0.9898
14.6362 -4.0973 -2.1535 0.9404
8.0315 2.9548 -1.2125 0.9660
5.7513 4.1112 -1.0017 0.9718
4.9099 4.2199 -0.9173 0.9742
3.8219 4.7057 -0.8590 0.9758
3.2949 4.8917 -0.8357 0.9765
1.7855 5.3042 -0.7930 0.9776
1.3520 5.6382 -0.8215 0.9768
0.8542 5.8093 -0.8320 0.9766
0.1620 2.8577 -0.4056 0.9885
-0.1959 5.9846 -0.8484 0.9761
-0.7578 6.1767 -0.8817 0.9752
-1.4134 6.5849 -0.9543 0.9732
-2.0509 6.6115 -0.9808 0.9724
-7.3026 17.7582 -2.7206 0.9254
-8.5688 16.4791 -2.6317 0.9277
-9.6705 15.1253 -2.5437 0.9300
-12.0224 10.8432 -2.2939 0.9367
-12.5115 9.4034 -2.2176 0.9387
-13.2199 5.2258 -2.0142 0.9442
-12.9856 1.4129 -1.8508 0.9486
-12.0284 -1.9373 -1.7263 0.9520
-11.5793 -2.9449 -1.6929 0.9529
-11.0740 -3.8973 -1.6634 0.9537
-9.9116 -5.6370 -1.6156 0.9550
-9.2617 -6.4246 -1.5971 0.9555
-7.8392 -7.8358 -1.5705 0.9562
-7.0714 -8.4594 -1.5622 0.9564
-4.5640 -9.9992 -1.5574 0.9566
-0.7972 -11.2461 -1.5974 0.9555
0.2119 -11.4034 -1.6160 0.9550
1.2456 -11.4944 -1.6382 0.9544
2.3020 -11.5160 -1.6640 0.9537
3.3795 -11.4649 -1.6936 0.9529
5.5882 -11.1286 -1.7644 0.9509
7.8476 -10.4509 -1.8518 0.9486
10.1218 -9.3918 -1.9564 0.9457
11.2488 -8.7060 -2.0154 0.9442
12.3584 -7.9091 -2.0789 0.9424
13.4402 -6.9961 -2.1469 0.9406
15.2125 -3.2722 -2.2048 0.9391
16.6630 -0.5528 -2.3623 0.9349
14.8592 0.8359 -2.1087 0.9416
10.0183 2.3976 -1.4596 0.9592
8.4227 2.8311 -1.2590 0.9647
6.5936 3.6276 -1.0663 0.9701
5.9869 4.0288 -1.0225 0.9713
3.8991 4.5327 -0.8472 0.9761
3.4592 4.8347 -0.8423 0.9763
1.9351 5.2526 -0.7931 0.9776
1.4617 5.4157 -0.7948 0.9776
1.0131 5.7547 -0.8279 0.9767
0.4894 5.7499 -0.8176 0.9770
-0.5752 6.1143 -0.8702 0.9755
-1.2067 6.5145 -0.9387 0.9736
-2.5304 6.6847 -1.0127 0.9715
-9.3396 15.5602 -2.5714 0.9293
-11.1606 12.7431 -2.4001 0.9339
-11.8385 11.3004 -2.3189 0.9360
-12.3716 9.8577 -2.2413 0.9381
-2.7569 1.4850 -0.4437 0.9874
-13.1939 5.6519 -2.0337 0.9437
-13.2408 4.3199 -1.9734 0.9453
-12.5254 -0.5271 -1.7763 0.9506
-12.1580 -1.6070 -1.7376 0.9517
-11.7277 -2.6320 -1.7030 0.9526
-10.6985 -4.5167 -1.6454 0.9542
-10.1080 -5.3764 -1.6222 0.9548
-9.4720 -6.1813 -1.6026 0.9553
-8.0746 -7.6270 -1.5738 0.9561
-7.3182 -8.2680 -1.5645 0.9564
-5.7004 -9.3852 -1.5559 0.9566
-3.0338 -10.6402 -1.5677 0.9563
-1.1112 -11.1829 -1.5923 0.9556
1.9654 -11.5169 -1.6554 0.9539
4.1270 -11.3861 -1.7160 0.9523
5.2347 -11.2036 -1.7522 0.9513
7.4880 -10.5825 -1.8368 0.9490
8.6255 -10.1340 -1.8856 0.9477
14.9501 -3.6609 -2.1808 0.9397
16.4608 -1.0125 -2.3367 0.9355
6.8196 3.5046 -1.0864 0.9695
3.1074 4.9568 -0.8289 0.9766
1.6118 5.3641 -0.7936 0.9776
-1.0065 6.4462 -0.9244 0.9740
-11.6401 11.7576 -2.3442 0.9353
-12.2180 10.3133 -2.2655 0.9374
-13.2370 4.7367 -1.9920 0.9448
-13.2157 3.4349 -1.9347 0.9463
-12.6277 -0.1740 -1.7894 0.9503
-12.2813 -1.2712 -1.7494 0.9513
-11.4001 -3.3010 -1.6816 0.9532
-10.3000 -5.1103 -1.6291 0.9546
-9.6780 -5.9325 -1.6084 0.9552
-9.0124 -6.7000 -1.5912 0.9556
-8.3061 -7.4128 -1.5774 0.9560
-6.7806 -8.6746 -1.5600 0.9565
-5.9653 -9.2232 -1.5563 0.9566
-5.1171 -9.7162 -1.5559 0.9566
-4.2375 -10.1529 -1.5588 0.9565
-3.3277 -10.5323 -1.5650 0.9564
-0.4296 -11.3114 -1.6039 0.9553
2.6953 -11.5059 -1.6744 0.9534
4.8825 -11.2702 -1.7403 0.9516
6.0001 -11.0309 -1.7792 0.9505
7.1291 -10.7046 -1.8223 0.9494
10.5371 -9.1526 -1.9776 0.9452
11.6587 -8.4266 -2.0382 0.9435
13.8282 -6.6310 -2.1729 0.9399
2.3780 -0.8891 -0.3597 0.9898
14.6801 -4.0379 -2.1573 0.9403
16.2474 -1.4615 -2.3114 0.9362
12.5697 1.1217 -1.7881 0.9503
11.1992 2.0189 -1.6124 0.9551
7.9743 2.9749 -1.2059 0.9662
7.0577 3.3782 -1.1086 0.9689
6.2932 3.7364 -1.0370 0.9709
3.7962 4.7176 -0.8580 0.9758
2.6970 4.9499 -0.7987 0.9775
1.7615 5.3125 -0.7930 0.9776
1.3270 5.6468 -0.8219 0.9768
0.1487 2.8523 -0.4047 0.9885
-0.2234 5.9941 -0.8499 0.9761
-0.9309 6.1445 -1.0238 0.9751
-1.5288 6.2551 -1.0608 0.9742
-2.2156 6.4884 -1.1295 0.9726
-9.8326 10.0223 -2.3130 0.9447
-10.3817 8.8442 -2.2467 0.9462
-2.6648 1.5502 -0.5079 0.9876
-11.4761 4.1654 -2.0112 0.9517
-11.4514 1.9594 -1.9139 0.9540
-10.8415 -1.0725 -1.7947 0.9568
-10.1168 -2.8798 -1.7328 0.9583
-9.1802 -4.5030 -1.6845 0.9594
-7.4407 -6.5801 -1.6363 0.9605
-6.7831 -7.1748 -1.6266 0.9608
-5.3657 -8.2143 -1.6163 0.9610
-4.6098 -8.6575 -1.6158 0.9610
-1.3123 -9.8951 -1.6444 0.9603
1.4003 -10.2167 -1.6988 0.9591
4.2575 -9.9508 -1.7830 0.9571
6.2039 -9.4076 -1.8565 0.9553
7.1777 -9.0162 -1.8985 0.9544
9.0991 -7.9763 -1.9934 0.9521
2.3679 -0.8975 -0.4172 0.9898
14.0368 1.1885 -2.3207 0.9445
8.2126 3.0215 -1.4416 0.9651
6.1359 3.6054 -1.1724 0.9716
5.4526 3.8976 -1.1042 0.9732
4.8788 4.1932 -1.0598 0.9743
3.2910 4.8859 -0.9705 0.9764
2.7183 4.9357 -0.9283 0.9774
0.8532 5.8025 -0.9662 0.9765
-0.7497 6.1106 -1.0142 0.9754
-1.3340 6.2148 -1.0471 0.9746
-1.7295 5.5754 -0.9617 0.9766
-8.0893 12.6522 -2.4739 0.9409
-8.9244 11.5414 -2.4034 0.9426
-9.6338 10.3917 -2.3344 0.9442
-11.4774 2.2996 -1.9284 0.9537
-9.8189 -3.4556 -1.7148 0.9587
-9.3412 -4.2587 -1.6913 0.9592
-8.8170 -5.0145 -1.6710 0.9597
-8.2493 -5.7223 -1.6539 0.9601
-5.5985 -8.0633 -1.6171 0.9610
-4.8522 -8.5228 -1.6156 0.9610
-4.0762 -8.9304 -1.6172 0.9610
-3.2723 -9.2850 -1.6218 0.9609
-2.4422 -9.5853 -1.6295 0.9607
-1.5876 -9.8297 -1.6403 0.9604
-0.7101 -10.0165 -1.6543 0.9601
0.1885 -10.1438 -1.6714 0.9597
1.1063 -10.2093 -1.6917 0.9592
2.0410 -10.2105 -1.7153 0.9587
3.9514 -10.0088 -1.7727 0.9573
5.8953 -9.5145 -1.8439 0.9556
8.7989 -8.1644 -1.9774 0.9525
9.7404 -7.5385 -2.0291 0.9513
11.5369 -6.0054 -2.1427 0.9486
14.3231 0.8057 -2.3633 0.9435
11.5440 1.6922 -1.9221 0.9538
10.0589 2.4074 -1.7039 0.9589
7.3835 3.2409 -1.3284 0.9678
6.3907 3.5160 -1.2016 0.9709
5.0568 4.1034 -1.0728 0.9739
4.4868 4.3598 -1.0306 0.9750
3.8943 4.5271 -0.9838 0.9761
1.4600 5.4095 -0.9230 0.9775
1.0119 5.7480 -0.9615 0.9766
0.4888 5.7431 -0.9495 0.9769
-0.5716 6.0759 -1.0054 0.9756
-1.1453 6.1828 -1.0359 0.9748
-1.6079 5.7534 -0.9841 0.9761
-2.5017 6.6089 -1.1641 0.9718
-8.6738 11.8979 -2.4256 0.9421
-9.4227 10.7588 -2.3561 0.9437
-10.0481 9.5913 -2.2884 0.9452
-2.7498 1.4811 -0.5145 0.9874
-11.4106 4.8880 -2.0450 0.9509
-11.4973 3.7511 -1.9923 0.9522
-11.4954 2.6432 -1.9432 0.9533
-11.4114 1.5692 -1.8976 0.9544
-11.2514 0.5326 -1.8556 0.9554
-11.0211 -0.4638 -1.8172 0.9563
-9.9598 -3.1918 -1.7230 0.9585
-8.9877 -4.7805 -1.6770 0.9596
-7.2034 -6.8042 -1.6324 0.9606
-6.5329 -7.3807 -1.6238 0.9608
-5.0916 -8.3830 -1.6158 0.9610
-2.7076 -9.4962 -1.6267 0.9608
-0.9901 -9.9637 -1.6495 0.9602
-0.0980 -10.1101 -1.6656 0.9598
3.6462 -10.0596 -1.7627 0.9576
4.6135 -9.8741 -1.7955 0.9568
5.5868 -9.6133 -1.8317 0.9559
7.5339 -8.8514 -1.9149 0.9540
11.2626 -6.2734 -2.1238 0.9491
13.2708 -2.0164 -2.2113 0.9470
13.7921 -0.8484 -2.2764 0.9455
11.5049 1.3555 -1.9084 0.9541
9.0550 2.7613 -1.5595 0.9623
7.7499 3.1435 -1.3777 0.9667
6.6698 3.4275 -1.2354 0.9701
5.8550 3.7040 -1.1414 0.9723
5.2380 4.0102 -1.0868 0.9736
4.0204 4.4148 -0.9837 0.9761
3.1037 4.9509 -0.9626 0.9766
2.5590 5.0301 -0.9297 0.9774
1.6099 5.3579 -0.9216 0.9776
1.1693 5.6940 -0.9576 0.9767
0.0662 2.7781 -0.4578 0.9888
-0.3964 6.0403 -0.9972 0.9758
-0.9602 6.1499 -1.0254 0.9751
-2.2533 6.5020 -1.1336 0.9725
-10.8335 7.5993 -2.1800 0.9478
-11.4798 4.1079 -2.0086 0.9518
-11.5052 2.9903 -1.9583 0.9530
-11.1012 -0.1530 -1.8290 0.9560
-10.4892 -2.0444 -1.7605 0.9576
-10.0955 -2.9233 -1.7314 0.9583
-9.1540 -4.5417 -1.6834 0.9594
-8.6134 -5.2800 -1.6643 0.9599
-6.7488 -7.2037 -1.6262 0.9608
-6.0548 -7.7461 -1.6197 0.9609
-5.3281 -8.2380 -1.6162 0.9610
-4.5706 -8.6786 -1.6159 0.9610
-2.9705 -9.4016 -1.6243 0.9608
-2.1312 -9.6816 -1.6331 0.9606
-0.3825 -10.0703 -1.6602 0.9600
0.5234 -10.1751 -1.6785 0.9595
1.4476 -10.2173 -1.7000 0.9590
2.3880 -10.1942 -1.7249 0.9584
3.3420 -10.1031 -1.7531 0.9578
4.3066 -9.9408 -1.7847 0.9570
7.2270 -8.9941 -1.9007 0.9543
9.1470 -7.9452 -1.9960 0.9521
10.0800 -7.2855 -2.0489 0.9508
11.8496 -5.6822 -2.1649 0.9481
13.0873 -2.3689 -2.1910 0.9475
13.6374 -1.2267 -2.2557 0.9460
12.5348 1.1186 -2.0732 0.9503
8.1460 3.0390 -1.4323 0.9654
6.0962 3.6194 -1.1679 0.9717
5.4227 3.9135 -1.1017 0.9733
4.8506 4.2072 -1.0578 0.9743
4.2735 4.4342 -1.0145 0.9753
3.7916 4.7119 -0.9963 0.9758
3.2650 4.8950 -0.9693 0.9764
2.2324 5.1431 -0.9236 0.9775
1.7595 5.3064 -0.9210 0.9776
1.3255 5.6403 -0.9545 0.9768
-0.3572 5.8488 -1.1014 0.9764
-0.9151 6.0406 -1.1484 0.9754
-1.5415 6.3069 -1.2204 0.9739
-6.6753 9.8176 -2.2315 0.9528
-8.5204 8.6848 -2.2868 0.9517
-9.0307 7.6933 -2.2299 0.9529
-10.1208 3.6734 -2.0237 0.9571
-10.1571 1.7379 -1.9369 0.9589
-9.6842 -0.9580 -1.8291 0.9612
-8.6858 -3.3357 -1.7488 0.9628
-7.7793 -4.7203 -1.7103 0.9636
-7.2635 -5.3488 -1.6955 0.9640
-5.4978 -6.9682 -1.6683 0.9645
-4.1620 -7.8165 -1.6645 0.9646
-3.4527 -8.1683 -1.6668 0.9646
-1.1828 -8.9186 -1.6910 0.9640
-0.3853 -9.0621 -1.7049 0.9638
2.9494 -9.0535 -1.7897 0.9620
3.8056 -8.8948 -1.8185 0.9614
5.5214 -8.3727 -1.8851 0.9600
7.2113 -7.5614 -1.9640 0.9584
8.0329 -7.0417 -2.0079 0.9575
9.5958 -5.7653 -2.1041 0.9555
2.3690 -0.8980 -0.4762 0.9897
10.7780 -3.0172 -2.1037 0.9555
11.7180 -1.1076 -2.2123 0.9532
12.0645 -0.0590 -2.2677 0.9521
12.3146 1.0427 -2.3229 0.9509
11.2453 1.9746 -2.1460 0.9546
7.1978 3.4052 -1.4967 0.9681
4.7507 4.0830 -1.1774 0.9748
3.8144 4.6965 -1.1372 0.9757
3.2871 4.8801 -1.1059 0.9763
1.7644 5.2416 -1.0395 0.9777
1.2920 5.3881 -1.0415 0.9777
-1.3347 6.2183 -1.1954 0.9744
-1.7256 5.5628 -1.0947 0.9766
-4.7736 11.6082 -2.3592 0.9502
-6.4453 10.0809 -2.2490 0.9525
-7.1394 9.2330 -2.1938 0.9536
-7.7376 8.3464 -2.1392 0.9547
-8.8801 8.0091 -2.2477 0.9525
-9.6681 5.9964 -2.1384 0.9548
-9.9211 4.9873 -2.0871 0.9558
-10.0861 3.9870 -2.0385 0.9568
-10.1679 3.0021 -1.9927 0.9578
-10.1714 2.0379 -1.9498 0.9587
-9.7608 -0.6876 -1.8392 0.9610
-9.1816 -2.3351 -1.7807 0.9622
-8.3958 -3.8277 -1.7343 0.9631
-7.9342 -4.5124 -1.7156 0.9635
-7.4309 -5.1546 -1.6999 0.9639
-6.8888 -5.7534 -1.6870 0.9641
-6.3104 -6.3077 -1.6771 0.9643
-3.6799 -8.0623 -1.6658 0.9646
-2.2032 -8.6470 -1.6772 0.9643
-1.4313 -8.8618 -1.6873 0.9641
-0.6396 -9.0227 -1.7002 0.9639
0.1697 -9.1280 -1.7160 0.9635
0.9943 -9.1757 -1.7348 0.9631
1.8318 -9.1638 -1.7565 0.9627
2.6795 -9.0901 -1.7813 0.9622
4.3926 -8.7477 -1.8399 0.9609
5.2507 -8.4741 -1.8738 0.9602
6.9474 -7.7098 -1.9507 0.9586
7.7752 -7.2145 -1.9937 0.9577
8.5810 -6.6413 -2.0395 0.9568
10.0965 -5.2556 -2.1395 0.9547
11.9648 -0.3969 -2.2501 0.9524
10.0375 2.4022 -1.9399 0.9589
8.6286 2.9003 -1.7110 0.9636
7.5084 3.2957 -1.5413 0.9672
6.5166 3.5852 -1.3980 0.9702
4.9469 4.0142 -1.1975 0.9744
4.3473 4.2242 -1.1393 0.9756
1.9130 5.1926 -1.0401 0.9777
1.4421 5.3431 -1.0402 0.9777
-0.0255 5.7357 -1.0781 0.9769
-0.5566 5.9168 -1.1170 0.9761
-1.1362 6.1338 -1.1725 0.9749
-1.5550 5.5643 -1.0859 0.9768
-2.5554 6.7507 -1.3567 0.9710
-5.3865 11.1162 -2.3218 0.9510
-6.2057 10.3391 -2.2665 0.9521
-7.5587 8.6304 -2.1564 0.9544
-9.1931 7.3251 -2.2094 0.9533
-9.5689 6.3163 -2.1551 0.9544
-10.0431 4.3022 -2.0536 0.9565
-10.1507 3.3117 -2.0069 0.9575
-10.1785 2.3404 -1.9631 0.9584
-10.1313 1.3932 -1.9222 0.9592
-8.5327 -3.6023 -1.7409 0.9630
-8.0849 -4.3003 -1.7212 0.9634
-5.8954 -6.6606 -1.6719 0.9644
-5.2614 -7.1381 -1.6668 0.9646
-4.5970 -7.5687 -1.6645 0.9646
-3.9046 -7.9514 -1.6650 0.9646
-3.1859 -8.2849 -1.6684 0.9645
-1.6777 -8.7996 -1.6838 0.9642
-0.8921 -8.9777 -1.6958 0.9639
4.1209 -8.8198 -1.8298 0.9612
5.8348 -8.2460 -1.8987 0.9597
7.5154 -7.3796 -1.9797 0.9580
9.1154 -6.2038 -2.0725 0.9561
11.4536 -1.7403 -2.1775 0.9539
11.8557 -0.7293 -2.2326 0.9528
12.1681 0.3398 -2.2880 0.9517
11.4747 1.3519 -2.1717 0.9541
10.5665 2.2150 -2.0293 0.9570
9.0373 2.7559 -1.7759 0.9623
5.9178 3.7437 -1.3162 0.9719
5.1594 3.9500 -1.2213 0.9739
4.5307 4.1600 -1.1561 0.9753
3.6174 4.7652 -1.1245 0.9759
3.1000 4.9451 -1.0970 0.9765
1.5916 5.2969 -1.0396 0.9777
0.6330 5.5689 -1.0535 0.9774
0.0648 2.7208 -0.5115 0.9890
-0.9451 6.0532 -1.1516 0.9754
-5.9567 10.5916 -2.2841 0.9517
-6.7113 9.7749 -2.2287 0.9529
-8.5487 8.6350 -2.2839 0.9517
-9.0540 7.6425 -2.2270 0.9529
-2.6704 1.5373 -0.5792 0.9875
-10.1256 3.6233 -2.0214 0.9572
-10.1781 2.6454 -1.9766 0.9581
-10.1541 1.6900 -1.9348 0.9590
-9.6714 -1.0010 -1.8276 0.9612
-8.6650 -3.3729 -1.7477 0.9629
-8.2313 -4.0840 -1.7271 0.9633
-7.7541 -4.7532 -1.7095 0.9637
-6.6806 -5.9621 -1.6830 0.9642
-6.0895 -6.4999 -1.6741 0.9644
-5.4654 -6.9920 -1.6681 0.9645
-4.8104 -7.4376 -1.6649 0.9646
-2.6806 -8.4841 -1.6724 0.9644
-1.9222 -8.7321 -1.6806 0.9643
-1.1428 -8.9272 -1.6917 0.9640
0.4708 -9.1523 -1.7225 0.9634
1.3004 -9.1784 -1.7424 0.9630
3.8492 -8.8850 -1.8200 0.9614
5.5648 -8.3558 -1.8870 0.9600
6.4151 -7.9837 -1.9250 0.9592
8.0740 -7.0132 -2.0102 0.9574
8.8699 -6.4109 -2.0571 0.9564
9.6336 -5.7288 -2.1067 0.9554
2.3821 -0.8906 -0.4780 0.9897
11.7377 -1.0558 -2.2151 0.9532
12.0796 -0.0043 -2.2705 0.9520
12.3245 1.0998 -2.3257 0.9509
11.1469 2.0095 -2.1290 0.9549
9.4785 2.5999 -1.8474 0.9608
8.1898 3.0553 -1.6430 0.9650
7.1496 3.4222 -1.4899 0.9683
6.1855 3.6724 -1.3521 0.9711
5.3866 3.8875 -1.2486 0.9733
3.7869 4.7061 -1.1354 0.9757
3.2610 4.8891 -1.1046 0.9764
1.2679 5.3952 -1.0417 0.9777
0.7874 5.5290 -1.0497 0.9775
0.1413 2.7103 -0.5101 0.9890
-0.7621 5.9867 -1.1344 0.9757
-0.3610 5.9118 -1.2520 0.9761
-0.9322 6.1533 -1.3155 0.9749
-1.5715 6.4299 -1.3991 0.9733
-4.4079 9.9125 -2.2931 0.9566
-6.9691 7.1036 -2.1035 0.9601
-7.4084 6.3112 -2.0572 0.9610
-8.8978 4.1621 -2.0764 0.9606
-9.0436 3.2825 -2.0337 0.9614
-9.1156 2.4134 -1.9933 0.9622
-9.1177 1.5601 -1.9553 0.9629
-9.0537 0.7268 -1.9199 0.9635
-8.9275 -0.0826 -1.8872 0.9642
-8.7430 -0.8649 -1.8571 0.9647
-7.8752 -3.0244 -1.7832 0.9661
-5.0062 -6.3452 -1.7084 0.9675
-4.4120 -6.7543 -1.7053 0.9676
-3.7906 -7.1191 -1.7049 0.9676
-1.0757 -8.1114 -1.7296 0.9671
0.3896 -8.3076 -1.7580 0.9666
1.1411 -8.3253 -1.7763 0.9662
2.6683 -8.1908 -1.8209 0.9654
4.9700 -7.5365 -1.9083 0.9638
5.7243 -7.1906 -1.9428 0.9631
6.4642 -6.7779 -1.9798 0.9624
7.1840 -6.2975 -2.0194 0.9617
7.8777 -5.7483 -2.0614 0.9609
10.7333 0.9088 -2.2769 0.9569
10.8256 1.9009 -2.3233 0.9561
8.2333 3.0291 -1.8544 0.9648
5.5346 3.9563 -1.4381 0.9726
4.2018 4.3205 -1.2739 0.9757
3.2831 4.8742 -1.2422 0.9763
2.6485 4.8090 -1.1605 0.9778
0.1531 2.7010 -0.5718 0.9890
-0.1912 5.8415 -1.2354 0.9764
-0.7451 6.0734 -1.2934 0.9753
-1.8161 5.8546 -1.2957 0.9753
-4.1523 10.0974 -2.3078 0.9563
-4.9347 9.4902 -2.2610 0.9572
-7.2781 6.5642 -2.0717 0.9607
-8.8358 4.4417 -2.0904 0.9604
-9.1244 1.8281 -1.9670 0.9627
-8.5852 -1.3827 -1.8381 0.9651
-8.3106 -2.1136 -1.8126 0.9655
-7.9872 -2.8110 -1.7898 0.9660
-6.2666 -5.2337 -1.7259 0.9672
-5.7435 -5.7410 -1.7166 0.9673
-5.1883 -6.2067 -1.7100 0.9675
-3.9901 -7.0085 -1.7047 0.9676
-3.3514 -7.3424 -1.7061 0.9675
-1.3020 -8.0613 -1.7261 0.9672
-0.5814 -8.2020 -1.7381 0.9669
0.9022 -8.3257 -1.7702 0.9663
3.1942 -8.0908 -1.8387 0.9651
3.9635 -7.8930 -1.8670 0.9645
4.7292 -7.6324 -1.8979 0.9640
8.3333 -5.3331 -2.0913 0.9604
8.9674 -4.6678 -2.1370 0.9595
9.3640 -2.9092 -2.0727 0.9607
10.4706 -0.3473 -2.2145 0.9581
10.6843 0.6010 -2.2620 0.9572
10.8070 1.5841 -2.3088 0.9563
8.6123 2.8948 -1.9206 0.9635
7.4956 3.2901 -1.7303 0.9671
5.0384 4.0884 -1.3715 0.9738
4.3911 4.2668 -1.2942 0.9753
2.7980 4.7571 -1.1666 0.9777
2.3300 4.9194 -1.1506 0.9780
1.8708 5.0781 -1.1439 0.9781
0.9498 5.3950 -1.1579 0.9779
0.2391 2.8090 -0.5959 0.9885
-0.5642 5.9968 -1.2732 0.9757
-2.5605 6.7641 -1.5288 0.9709
-4.6952 9.6895 -2.2759 0.9569
-6.0779 8.3370 -2.1809 0.9587
-2.7429 1.4775 -0.6586 0.9873
-9.0144 0.4267 -1.9076 0.9638
-8.4029 -1.8859 -1.8204 0.9654
-7.3412 -3.9048 -1.7576 0.9666
-6.9021 -4.5042 -1.7422 0.9669
-5.3673 -6.0639 -1.7118 0.9674
-4.7913 -6.5004 -1.7070 0.9675
-3.5561 -7.2417 -1.7054 0.9676
-2.2238 -7.7994 -1.7144 0.9674
-0.8112 -8.1630 -1.7340 0.9670
2.1826 -8.2585 -1.8056 0.9657
5.2483 -7.4172 -1.9206 0.9635
5.9979 -7.0469 -1.9561 0.9629
8.7713 -4.8858 -2.1223 0.9598
10.0638 -1.5291 -2.1517 0.9592
10.3853 -0.6388 -2.1994 0.9584
10.7785 1.2699 -2.2941 0.9566
9.0196 2.7505 -1.9932 0.9622
6.0173 3.8066 -1.5051 0.9713
5.2618 4.0285 -1.4008 0.9733
3.9900 4.3814 -1.2526 0.9761
2.4768 4.8685 -1.1546 0.9779
1.5582 5.1859 -1.1446 0.9781
1.0975 5.3443 -1.1533 0.9779
0.6268 5.5139 -1.1730 0.9776
-0.3887 5.9233 -1.2548 0.9760
-0.9628 6.1665 -1.3193 0.9748
-1.6053 6.4413 -1.4032 0.9732
-1.9685 5.6802 -1.2707 0.9757
-4.4481 9.8822 -2.2908 0.9567
-5.2030 9.2515 -2.2436 0.9575
-5.8802 8.5644 -2.1960 0.9584
-6.4773 7.8318 -2.1483 0.9593
-6.9933 7.0639 -2.1011 0.9602
-9.0490 3.2381 -2.0316 0.9615
-9.1160 1.5173 -1.9534 0.9629
-9.0488 0.6851 -1.9182 0.9636
-8.9195 -0.1229 -1.8856 0.9642
-8.7321 -0.9038 -1.8557 0.9647
-8.1974 -2.3736 -1.8039 0.9657
-7.8569 -3.0583 -1.7822 0.9661
-7.4718 -3.7072 -1.7631 0.9665
-6.5800 -4.8916 -1.7331 0.9670
-5.5433 -5.9169 -1.7138 0.9674
-4.9768 -6.3670 -1.7082 0.9675
-3.7584 -7.1364 -1.7049 0.9676
-2.4404 -7.7238 -1.7122 0.9674
-1.7492 -7.9461 -1.7199 0.9673
0.4274 -8.3098 -1.7589 0.9666
3.4768 -8.0253 -1.8487 0.9649
5.7622 -7.1712 -1.9446 0.9631
6.5012 -6.7552 -1.9818 0.9624
8.5709 -5.0968 -2.1079 0.9601
9.1891 -4.4064 -2.1542 0.9592
9.5320 -2.6219 -2.0897 0.9604
10.2919 -0.9258 -2.1843 0.9586
10.7403 0.9585 -2.2793 0.9569
10.8277 1.9519 -2.3256 0.9560
8.1749 3.0497 -1.8443 0.9650
7.1379 3.4166 -1.6727 0.9682
6.2647 3.7194 -1.5400 0.9707
4.7911 4.1557 -1.3406 0.9744
4.1721 4.3290 -1.2709 0.9757
2.1608 4.9779 -1.1471 0.9781
0.1404 2.6931 -0.5700 0.9890
-0.7747 6.0860 -1.2968 0.9752
-1.5693 6.4209 -1.5535 0.9732
-1.9237 5.6335 -1.3991 0.9758
-3.8989 8.7679 -2.2552 0.9613
-4.5808 8.2323 -2.2141 0.9620
-5.1973 7.6438 -2.1724 0.9627
-5.7454 7.0114 -2.1304 0.9634
-6.6317 5.6495 -2.0475 0.9648
-6.9697 4.9363 -2.0073 0.9655
-2.6686 1.5525 -0.7256 0.9874
-8.0182 3.7506 -2.0804 0.9643
-8.1662 2.9640 -2.0418 0.9649
-8.2471 2.1835 -2.0050 0.9656
-8.2199 0.6599 -1.9381 0.9667
-8.1181 -0.0751 -1.9080 0.9672
-7.9618 -0.7876 -1.8803 0.9677
-7.4983 -2.1344 -1.8323 0.9685
-7.1972 -2.7640 -1.8120 0.9688
-6.8537 -3.3618 -1.7941 0.9691
-4.0473 -6.1960 -1.7394 0.9700
-2.8841 -6.8231 -1.7410 0.9700
-2.2696 -7.0717 -1.7455 0.9699
-1.6361 -7.2751 -1.7525 0.9698
0.3565 -7.6016 -1.7885 0.9692
1.0432 -7.6110 -1.8055 0.9689
1.7368 -7.5683 -1.8250 0.9686
3.8269 -7.1123 -1.8982 0.9674
6.4914 -5.6904 -2.0288 0.9652
8.2199 -3.9876 -2.1472 0.9632
2.3712 -0.8988 -0.5960 0.9896
9.1407 -0.8640 -2.1579 0.9630
9.3595 -0.0457 -2.1997 0.9623
8.2181 3.0235 -2.0580 0.9647
7.1738 3.3939 -1.8652 0.9679
6.2958 3.6994 -1.7162 0.9704
5.5457 3.9642 -1.6021 0.9724
4.8836 4.1973 -1.5134 0.9739
3.2791 4.8683 -1.3795 0.9762
1.2854 5.3603 -1.2955 0.9776
-0.1947 5.9467 -1.3984 0.9758
-1.7212 5.5486 -1.3654 0.9764
-5.0095 7.8352 -2.1856 0.9625
-6.0800 6.5583 -2.1018 0.9639
-6.5102 5.8716 -2.0604 0.9646
-6.8702 5.1636 -2.0199 0.9653
-7.9570 4.0000 -2.0931 0.9641
-8.1268 3.2125 -2.0538 0.9647
-8.2286 2.4295 -2.0164 0.9654
-8.2654 1.6560 -1.9812 0.9660
-8.2402 0.8966 -1.9481 0.9665
-7.8252 -1.2603 -1.8628 0.9680
-7.2972 -2.5681 -1.8181 0.9687
-6.9668 -3.1762 -1.7995 0.9690
-6.5958 -3.7513 -1.7833 0.9693
-6.1871 -4.2918 -1.7697 0.9695
-5.7430 -4.7964 -1.7585 0.9697
-5.2660 -5.2637 -1.7499 0.9699
-4.2225 -6.0814 -1.7400 0.9700
-2.4663 -6.9978 -1.7438 0.9700
-1.1932 -7.3876 -1.7588 0.9697
-0.5325 -7.5121 -1.7700 0.9695
0.1410 -7.5880 -1.7837 0.9693
0.8250 -7.6136 -1.7998 0.9690
1.5167 -7.5876 -1.8185 0.9687
2.2132 -7.5083 -1.8397 0.9683
2.9114 -7.3744 -1.8633 0.9679
4.2982 -6.9368 -1.9179 0.9670
4.9788 -6.6305 -1.9487 0.9665
5.6450 -6.2645 -1.9819 0.9659
8.0576 -4.1943 -2.1349 0.9634
8.7467 -1.8814 -2.1027 0.9639
9.0565 -1.1152 -2.1446 0.9632
9.2983 -0.3085 -2.1865 0.9625
9.4654 0.5325 -2.2281 0.9618
8.5958 2.8893 -2.1313 0.9634
7.4827 3.2844 -1.9206 0.9670
5.0852 4.1264 -1.5391 0.9735
1.8940 5.1412 -1.2877 0.9777
1.4322 5.3063 -1.2917 0.9777
0.9649 5.4810 -1.3080 0.9774
0.2358 2.7704 -0.6535 0.9886
-0.5723 6.0833 -1.4360 0.9752
-1.5530 5.5571 -1.3561 0.9766
-4.8149 8.0219 -2.1989 0.9623
-5.4066 7.4162 -2.1570 0.9630
-5.9292 6.7699 -2.1150 0.9637
-7.6253 5.0334 -2.1474 0.9632
-2.7395 1.4756 -0.7313 0.9873
-8.2035 2.6765 -2.0280 0.9652
-8.2547 1.1351 -1.9583 0.9663
-8.1891 0.3876 -1.9268 0.9669
-8.0669 -0.3395 -1.8976 0.9674
-7.8914 -1.0430 -1.8708 0.9678
-7.3929 -2.3691 -1.8245 0.9686
-7.0758 -2.9873 -1.8051 0.9689
-6.7174 -3.5730 -1.7882 0.9692
-5.8872 -4.6407 -1.7618 0.9697
-5.4203 -5.1199 -1.7524 0.9698
-4.9222 -5.5610 -1.7454 0.9699
-3.8409 -6.3238 -1.7389 0.9701
-3.2622 -6.6432 -1.7394 0.9700
-2.6609 -6.9195 -1.7424 0.9700
-2.0391 -7.1517 -1.7478 0.9699
-1.3991 -7.3382 -1.7557 0.9698
0.6076 -7.6110 -1.7945 0.9691
1.9925 -7.5392 -1.8327 0.9685
5.4361 -6.3868 -1.9712 0.9661
6.7197 -5.5114 -2.0425 0.9649
7.8869 -4.3932 -2.1218 0.9636
8.9655 -1.3623 -2.1313 0.9634
9.2296 -0.5677 -2.1733 0.9627
9.4210 0.2631 -2.2150 0.9620
9.5333 1.1232 -2.2560 0.9613
9.0017 2.7450 -2.2118 0.9621
6.8307 3.5102 -1.8049 0.9689
5.2938 4.0529 -1.5669 0.9730
4.6577 4.2766 -1.4861 0.9744
4.0628 4.4614 -1.4182 0.9755
3.6085 4.7535 -1.4026 0.9758
3.0926 4.9332 -1.3684 0.9764
2.0406 5.0904 -1.2889 0.9777
0.6375 5.6081 -1.3265 0.9771
0.0638 2.6749 -0.6288 0.9891
-0.3953 6.0231 -1.4186 0.9755
-0.9709 6.2184 -1.4792 0.9745
-1.6030 6.4323 -1.5580 0.9731
-1.9638 5.6668 -1.4095 0.9757
-5.2267 7.6127 -2.1703 0.9628
-6.2461 6.3092 -2.0866 0.9642
-6.6505 5.6137 -2.0454 0.9649
-6.9850 4.8997 -2.0052 0.9655
-8.0274 3.7107 -2.0784 0.9643
-8.2495 2.1441 -2.0032 0.9656
-8.2161 0.6221 -1.9365 0.9667
-8.1115 -0.1118 -1.9066 0.9672
-7.7423 -1.5090 -1.8539 0.9681
-7.4841 -2.1671 -1.8312 0.9685
-7.1807 -2.7951 -1.8110 0.9688
-6.4500 -3.9538 -1.7780 0.9694
-6.0280 -4.4813 -1.7653 0.9696
-5.5715 -4.9723 -1.7551 0.9698
-4.5648 -5.8399 -1.7421 0.9700
-4.0190 -6.2140 -1.7393 0.9700
-3.4479 -6.5467 -1.7390 0.9701
-2.2379 -7.0831 -1.7458 0.9699
-0.2866 -7.5457 -1.7747 0.9694
0.3911 -7.6033 -1.7893 0.9692
1.7721 -7.5647 -1.8260 0.9686
2.4695 -7.4656 -1.8481 0.9682
3.1674 -7.3112 -1.8726 0.9678
3.8620 -7.1002 -1.8996 0.9673
4.5495 -6.8312 -1.9290 0.9668
7.1342 -5.1564 -2.0688 0.9645
8.8679 -1.6051 -2.1180 0.9636
9.1536 -0.8234 -2.1600 0.9629
9.5067 0.8484 -2.2432 0.9615
9.5617 1.7237 -2.2834 0.9609
7.1260 3.4109 -1.8567 0.9681
6.2551 3.7137 -1.7097 0.9706
3.2532 4.8773 -1.3779 0.9762
2.6609 4.8838 -1.3071 0.9774
2.1878 5.0402 -1.2913 0.9777
1.7245 5.2009 -1.2878 0.9777
1.2617 5.3691 -1.2962 0.9776
-0.2221 5.9582 -1.4013 0.9758
-0.7835 6.1549 -1.4582 0.9748
-0.3668 6.0059 -1.5579 0.9754
-0.9392 6.1999 -1.6236 0.9744
-3.4914 7.8515 -2.2248 0.9651
-4.1099 7.3860 -2.1885 0.9657
-4.6720 6.8713 -2.1514 0.9663
-5.6167 5.7250 -2.0766 0.9674
-6.3138 4.4718 -2.0032 0.9685
-2.6700 1.5532 -0.7998 0.9873
-7.2899 3.4099 -2.0838 0.9673
-7.4370 2.6993 -2.0485 0.9678
-7.5227 1.9917 -2.0149 0.9684
-7.1199 -1.3542 -1.8765 0.9705
-6.6210 -2.5427 -1.8364 0.9711
-5.9612 -3.6171 -1.8054 0.9716
-5.1604 -4.5636 -1.7836 0.9719
-3.2094 -6.0275 -1.7681 0.9722
-0.9088 -6.8523 -1.7897 0.9718
-0.2955 -6.9494 -1.8010 0.9717
2.2358 -6.8632 -1.8689 0.9706
3.5072 -6.5181 -1.9165 0.9699
4.1323 -6.2662 -1.9435 0.9695
5.3409 -5.6001 -2.0037 0.9685
6.9777 -4.1923 -2.1077 0.9669
2.3723 -0.8992 -0.6569 0.9896
7.6753 -2.1486 -2.0637 0.9676
8.5142 0.7209 -2.2124 0.9653
8.2028 3.0179 -2.2630 0.9645
7.1618 3.3882 -2.0513 0.9678
6.2860 3.6936 -1.8877 0.9703
4.2804 4.4013 -1.5896 0.9750
3.8001 4.6789 -1.5607 0.9754
3.2751 4.8623 -1.5179 0.9761
2.7235 4.9451 -1.4617 0.9769
2.2460 5.1107 -1.4454 0.9772
1.7751 5.2733 -1.4406 0.9773
0.8234 5.6003 -1.4656 0.9769
0.1515 2.6714 -0.6928 0.9890
-0.7529 6.1368 -1.6008 0.9748
-1.3614 6.3425 -1.6796 0.9736
-1.7190 5.5416 -1.5023 0.9763
-3.2846 7.9874 -2.2361 0.9649
-3.9201 7.5390 -2.2001 0.9655
-5.0223 6.4951 -2.1258 0.9666
-6.2201 4.6749 -2.0146 0.9684
-7.2302 3.6346 -2.0953 0.9671
-7.5021 2.2150 -2.0253 0.9682
-7.5473 1.5121 -1.9930 0.9687
-7.4687 0.1421 -1.9341 0.9696
-6.9688 -1.7723 -1.8618 0.9707
-5.2957 -4.4228 -1.7865 0.9719
-4.3907 -5.2525 -1.7725 0.9721
-3.3783 -5.9339 -1.7679 0.9722
-2.8372 -6.2159 -1.7691 0.9722
-2.2757 -6.4571 -1.7726 0.9721
-0.4908 -6.9236 -1.7971 0.9717
0.1299 -6.9893 -1.8100 0.9715
2.0336 -6.8988 -1.8622 0.9707
2.6722 -6.7687 -1.8842 0.9704
3.3075 -6.5867 -1.9083 0.9700
4.5527 -6.0631 -1.9631 0.9692
5.1544 -5.7201 -1.9936 0.9687
6.2925 -4.8701 -2.0602 0.9677
7.3083 -3.8042 -2.1333 0.9665
2.3382 -0.9627 -0.6547 0.9896
7.5683 -2.3514 -2.0520 0.9678
7.8883 -1.6968 -2.0891 0.9672
8.4868 0.4774 -2.2009 0.9655
8.5479 1.2530 -2.2368 0.9649
5.7636 3.8786 -1.7987 0.9717
4.4634 4.3370 -1.6114 0.9746
2.8772 4.8917 -1.4694 0.9768
2.3960 5.0587 -1.4493 0.9771
1.9238 5.2220 -1.4409 0.9773
0.9767 5.5478 -1.4585 0.9770
-0.0125 2.8017 -0.7254 0.9885
-0.5716 6.0753 -1.5800 0.9751
-2.5527 6.7434 -1.8669 0.9706
-4.3230 7.2023 -2.1749 0.9659
-4.8637 6.6715 -2.1377 0.9665
-5.7633 5.5013 -2.0629 0.9676
-6.1201 4.8765 -2.0261 0.9682
-6.4149 4.2344 -1.9901 0.9687
-2.7360 1.4737 -0.8046 0.9872
-7.5451 1.0375 -1.9719 0.9690
-7.4955 0.3548 -1.9429 0.9695
-7.2408 -0.9570 -1.8911 0.9703
-6.1862 -3.2904 -1.8142 0.9715
-5.8242 -3.8008 -1.8007 0.9717
-5.4279 -4.2787 -1.7895 0.9718
-3.0107 -6.1310 -1.7685 0.9722
-1.2903 -6.7676 -1.7838 0.9719
0.5594 -7.0071 -1.8200 0.9714
1.1933 -6.9928 -1.8367 0.9711
1.8313 -6.9293 -1.8557 0.9708
3.7379 -6.4319 -1.9261 0.9697
4.9660 -5.8345 -1.9838 0.9688
6.1195 -5.0191 -2.0492 0.9678
6.6557 -4.5297 -2.0845 0.9673
7.1576 -3.9869 -2.1213 0.9667
7.4562 -2.5498 -2.0403 0.9680
8.0749 -1.2269 -2.1147 0.9668
8.2965 -0.5103 -2.1522 0.9662
8.5367 1.0058 -2.2256 0.9651
8.4751 2.5845 -2.2941 0.9641
7.7966 3.1625 -2.1784 0.9658
6.8195 3.5045 -1.9852 0.9688
4.6515 4.2709 -1.6350 0.9742
4.0740 4.4737 -1.5666 0.9753
3.6040 4.7475 -1.5433 0.9757
2.5469 5.0064 -1.4543 0.9771
2.0727 5.1706 -1.4423 0.9772
-0.3948 6.0154 -1.5608 0.9754
-1.9593 5.6537 -1.5492 0.9756
-4.1398 7.3610 -2.1866 0.9657
-7.5255 1.9560 -2.0132 0.9684
-7.5494 1.2565 -1.9816 0.9689
-7.5170 0.5692 -1.9519 0.9693
-7.2942 -0.7550 -1.8987 0.9702
-6.8791 -1.9919 -1.8543 0.9708
-6.6062 -2.5715 -1.8355 0.9711
-6.2932 -3.1223 -1.8189 0.9714
-5.1384 -4.5858 -1.7832 0.9719
-4.6895 -5.0056 -1.7759 0.9721
-4.2124 -5.3890 -1.7710 0.9721
-2.0648 -6.5352 -1.7745 0.9721
-0.2641 -6.9531 -1.8016 0.9717
0.3601 -7.0016 -1.8152 0.9714
2.9061 -6.7079 -1.8928 0.9702
3.5392 -6.5066 -1.9178 0.9699
4.1637 -6.2520 -1.9449 0.9694
4.7757 -5.9435 -1.9741 0.9690
5.3706 -5.5804 -2.0053 0.9685
6.4895 -4.6904 -2.0732 0.9675
7.0029 -4.1644 -2.1095 0.9669
7.4658 -3.5800 -2.1438 0.9664
7.6920 -2.1158 -2.0656 0.9676
8.5179 0.7601 -2.2142 0.9653
8.5512 1.5416 -2.2497 0.9647
8.5062 2.3332 -2.2838 0.9642
7.1140 3.4051 -2.0421 0.9679
6.2455 3.7080 -1.8806 0.9704
5.5023 3.9709 -1.7569 0.9724
4.8453 4.2027 -1.6607 0.9738
4.2516 4.4114 -1.5863 0.9750
3.7728 4.6885 -1.5582 0.9754
3.2492 4.8713 -1.5161 0.9761
2.6990 4.9536 -1.4606 0.9770
2.2220 5.1190 -1.4449 0.9772
1.7512 5.2816 -1.4407 0.9773
1.2793 5.4440 -1.4479 0.9772
0.7987 5.6087 -1.4668 0.9769
0.1387 2.6603 -0.6897 0.9891
-0.7824 6.1468 -1.6044 0.9747
-0.9380 6.1915 -1.7728 0.9743
-1.9162 5.6115 -1.6786 0.9757
-3.1575 7.1007 -2.2000 0.9682
-4.2386 6.2339 -2.1341 0.9691
-4.7025 5.7386 -2.1003 0.9696
-5.1121 5.2108 -2.0665 0.9701
-5.7650 4.0830 -1.9999 0.9711
-6.8207 2.4757 -2.0542 0.9703
-6.9088 1.8292 -2.0232 0.9707
-6.1250 -2.3522 -1.8574 0.9731
-5.1685 -3.8061 -1.8171 0.9737
-4.7841 -4.2308 -1.8080 0.9738
-3.9302 -4.9814 -1.7963 0.9740
-2.9772 -5.5915 -1.7933 0.9740
-2.4689 -5.8407 -1.7951 0.9740
-1.9421 -6.0512 -1.7991 0.9739
-1.3992 -6.2217 -1.8053 0.9738
-0.8423 -6.3510 -1.8137 0.9737
0.3039 -6.4816 -1.8369 0.9734
1.4764 -6.4339 -1.8687 0.9729
2.0656 -6.3405 -1.8878 0.9727
3.8061 -5.7715 -1.9572 0.9717
4.3653 -5.4834 -1.9841 0.9713
4.9072 -5.1454 -2.0129 0.9709
5.4276 -4.7578 -2.0433 0.9704
6.7966 -3.2971 -2.1385 0.9691
7.2538 -1.3470 -2.0886 0.9698
7.4640 -0.7055 -2.1224 0.9693
7.6155 -0.0372 -2.1559 0.9688
7.7259 1.3567 -2.2206 0.9679
7.6777 2.0686 -2.2510 0.9675
7.5571 2.7803 -2.2796 0.9671
2.2433 5.1045 -1.5784 0.9771
1.7730 5.2670 -1.5733 0.9772
-2.9691 7.2201 -2.2100 0.9681
-4.0809 6.3828 -2.1447 0.9690
-4.5615 5.8991 -2.1110 0.9695
-6.6122 3.3239 -2.0951 0.9697
-6.9350 0.7546 -1.9748 0.9714
-6.6317 -1.0681 -1.9016 0.9725
-6.4400 -1.6378 -1.8811 0.9728
-6.2069 -2.1844 -1.8628 0.9730
-5.9350 -2.7058 -1.8465 0.9732
-5.6264 -3.1999 -1.8324 0.9735
-4.9089 -4.0998 -1.8106 0.9738
-4.5044 -4.5025 -1.8030 0.9739
-2.6318 -5.7660 -1.7943 0.9740
-2.1107 -5.9889 -1.7976 0.9739
-0.4548 -6.4152 -1.8206 0.9736
0.1203 -6.4726 -1.8327 0.9734
0.7028 -6.4858 -1.8468 0.9732
1.2901 -6.4537 -1.8631 0.9730
1.8792 -6.3752 -1.8815 0.9727
3.0507 -6.0753 -1.9245 0.9721
3.6262 -5.8524 -1.9490 0.9718
4.7379 -5.2578 -2.0036 0.9710
5.7684 -4.4644 -2.0649 0.9701
6.6774 -3.4758 -2.1311 0.9692
2.3353 -0.9615 -0.7150 0.9896
6.8959 -2.1424 -2.0442 0.9704
7.5742 -0.2513 -2.1454 0.9690
7.6832 0.4322 -2.1785 0.9685
7.6032 2.5556 -2.2708 0.9672
5.0710 4.1148 -1.8487 0.9732
4.4574 4.3312 -1.7595 0.9745
2.8737 4.8857 -1.6046 0.9767
2.3931 5.0526 -1.5827 0.9770
1.9215 5.2158 -1.5736 0.9772
1.0108 3.7453 -1.0982 0.9840
0.2357 2.7699 -0.7870 0.9885
-0.0124 2.7936 -0.7909 0.9885
-0.5708 6.0674 -1.7252 0.9750
-1.1608 6.2667 -1.8042 0.9739
-2.5487 6.7330 -2.0380 0.9705
-3.9180 6.5276 -2.1552 0.9688
-4.8593 5.5482 -2.0879 0.9698
-5.5825 4.4482 -2.0207 0.9708
-5.8606 3.8685 -1.9879 0.9712
-2.7325 1.4718 -0.8786 0.9872
-6.8595 2.2380 -2.0426 0.9704
-6.9274 1.5929 -2.0123 0.9709
-6.9414 0.9545 -1.9836 0.9713
-6.9039 0.3268 -1.9566 0.9717
-6.8171 -0.2869 -1.9316 0.9720
-6.5052 -1.4599 -1.8874 0.9727
-6.0251 -2.5437 -1.8514 0.9732
-5.3957 -3.5212 -1.8240 0.9736
-4.6355 -4.3786 -1.8052 0.9738
-4.2119 -4.7586 -1.7990 0.9739
-2.7929 -5.6874 -1.7937 0.9740
-2.2775 -5.9226 -1.7963 0.9740
-1.7446 -6.1185 -1.8011 0.9739
-0.0626 -6.4591 -1.8286 0.9735
0.5179 -6.4865 -1.8421 0.9733
1.1039 -6.4688 -1.8577 0.9731
2.2815 -6.2944 -1.8953 0.9726
3.4452 -5.9283 -1.9411 0.9719
6.0953 -4.1483 -2.0873 0.9698
6.5452 -3.6458 -2.1210 0.9693
6.4559 -2.8742 -2.0006 0.9710
7.3375 -1.1149 -2.1010 0.9696
7.5267 -0.4630 -2.1348 0.9691
7.6556 0.2138 -2.1681 0.9687
7.7165 1.6176 -2.2320 0.9678
5.2787 4.0414 -1.8820 0.9727
4.6452 4.2651 -1.7852 0.9741
4.0687 4.4679 -1.7107 0.9752
3.0850 4.9212 -1.6443 0.9761
1.1221 3.7345 -1.1039 0.9839
1.1272 5.4891 -1.5863 0.9770
0.3440 3.0260 -0.8622 0.9874
0.0627 2.6317 -0.7452 0.9891
-0.3942 6.0076 -1.7044 0.9753
-0.9683 6.2017 -1.7769 0.9742
-4.2634 6.2096 -2.1324 0.9692
-4.7246 5.7125 -2.0986 0.9697
-5.1315 5.1833 -2.0648 0.9701
-5.4830 4.6282 -2.0312 0.9706
-2.6733 1.5390 -0.8732 0.9873
-6.6850 3.0902 -2.0849 0.9698
-6.8265 2.4428 -2.0526 0.9703
-6.9212 0.5240 -1.9650 0.9716
-6.8498 -0.0944 -1.9393 0.9719
-6.7306 -0.6967 -1.9156 0.9723
-6.5662 -1.2798 -1.8938 0.9726
-6.1115 -2.3789 -1.8566 0.9731
-5.8258 -2.8905 -1.8411 0.9733
-5.1497 -3.8284 -1.8166 0.9737
-4.7638 -4.2514 -1.8076 0.9738
-4.3489 -4.6420 -1.8007 0.9739
-1.9150 -6.0608 -1.7994 0.9739
-1.3712 -6.2292 -1.8057 0.9738
0.3335 -6.4826 -1.8376 0.9734
0.9180 -6.4793 -1.8526 0.9732
2.6821 -6.1911 -1.9101 0.9723
3.8348 -5.7581 -1.9585 0.9716
4.3932 -5.4674 -1.9856 0.9713
4.9342 -5.1270 -2.0144 0.9709
6.4068 -3.8099 -2.1102 0.9695
6.8153 -3.2681 -2.1397 0.9691
7.6216 -0.0027 -2.1576 0.9688
7.1019 3.3994 -2.2290 0.9678
6.2357 3.7022 -2.0530 0.9703
4.2460 4.4056 -1.7321 0.9749
0.1379 2.6448 -0.7497 0.9891
-0.3658 5.9902 -1.8459 0.9752
-0.9367 6.1830 -1.9235 0.9742
-1.5626 6.3936 -2.0244 0.9728
-3.3984 6.1074 -2.1497 0.9712
-3.8746 5.6985 -2.1195 0.9716
-4.3044 5.2529 -2.0888 0.9720
-5.0174 4.2743 -2.0273 0.9728
-5.2985 3.7526 -1.9970 0.9732
-6.1397 2.8719 -2.0848 0.9720
-6.2926 2.2840 -2.0590 0.9724
-6.4194 1.0984 -2.0032 0.9731
-6.4087 0.5145 -1.9775 0.9735
-6.3510 -0.0587 -1.9535 0.9738
-6.2485 -0.6181 -1.9313 0.9741
-5.4324 -2.6647 -1.8611 0.9750
-5.1378 -3.1175 -1.8484 0.9752
-4.8113 -3.5430 -1.8378 0.9753
-4.4550 -3.9397 -1.8292 0.9754
-4.0710 -4.3061 -1.8227 0.9755
-3.6615 -4.6408 -1.8182 0.9756
-2.3002 -5.4416 -1.8171 0.9756
-1.8092 -5.6369 -1.8209 0.9755
-1.3031 -5.7943 -1.8267 0.9755
-0.7842 -5.9129 -1.8346 0.9753
-0.2548 -5.9915 -1.8445 0.9752
0.8258 -6.0248 -1.8704 0.9749
1.3717 -5.9775 -1.8864 0.9747
2.4606 -5.7510 -1.9240 0.9742
4.0379 -5.0722 -1.9941 0.9732
4.5343 -4.7544 -2.0208 0.9729
5.0094 -4.3912 -2.0490 0.9725
5.4587 -3.9832 -2.0785 0.9721
5.8779 -3.5316 -2.1091 0.9717
6.2458 -3.0299 -2.1352 0.9714
2.3786 -0.9016 -0.7824 0.9894
6.4099 -1.7944 -2.0474 0.9725
6.6430 -1.2335 -2.0782 0.9721
6.9554 -0.0340 -2.1393 0.9713
6.9855 1.8821 -2.2252 0.9702
6.8679 2.5267 -2.2508 0.9698
6.6843 3.1623 -2.2744 0.9695
6.2662 3.6820 -2.2355 0.9700
5.5214 3.9468 -2.0875 0.9720
4.2691 4.3896 -1.8834 0.9747
3.7904 4.6670 -1.8493 0.9752
3.2670 4.8502 -1.7987 0.9758
2.2405 5.0983 -1.7129 0.9770
1.3003 5.4225 -1.7151 0.9769
0.1503 2.6512 -0.8168 0.9889
-0.7509 6.1204 -1.8966 0.9745
-1.3575 6.3247 -1.9896 0.9733
-1.7146 5.5273 -1.7800 0.9761
-3.7288 5.8321 -2.1291 0.9714
-4.1736 5.3975 -2.0986 0.9719
-4.5705 4.9301 -2.0678 0.9723
-6.3588 1.8774 -2.0393 0.9726
-6.4172 0.6982 -1.9855 0.9733
-6.3742 0.1213 -1.9609 0.9737
-6.1536 -0.9911 -1.9171 0.9743
-5.9803 -1.5209 -1.8980 0.9745
-5.2346 -2.9771 -1.8522 0.9751
-4.5708 -3.8174 -1.8317 0.9754
-3.3679 -4.8506 -1.8163 0.9756
-2.4521 -5.3722 -1.8164 0.9756
-1.4647 -5.7487 -1.8247 0.9755
-0.9496 -5.8796 -1.8319 0.9754
0.1119 -6.0217 -1.8525 0.9751
0.6535 -6.0308 -1.8658 0.9749
1.7451 -5.9201 -1.8984 0.9745
2.2893 -5.7988 -1.9175 0.9742
2.8283 -5.6325 -1.9386 0.9740
4.8616 -4.5110 -2.0399 0.9726
5.3196 -4.1171 -2.0690 0.9722
6.1379 -3.1950 -2.1284 0.9715
2.3339 -0.9609 -0.7763 0.9895
6.3265 -1.9655 -2.0376 0.9727
6.5744 -1.4142 -2.0684 0.9722
6.7738 -0.8341 -2.0992 0.9718
7.0108 0.3944 -2.1598 0.9710
7.0412 1.0321 -2.1889 0.9707
6.7495 2.9627 -2.2672 0.9696
6.5208 3.5875 -2.2892 0.9693
5.7463 3.8669 -2.1304 0.9714
5.0637 4.1090 -2.0058 0.9731
3.4296 4.7934 -1.8128 0.9756
1.9192 5.2095 -1.7076 0.9770
0.9743 5.5343 -1.7284 0.9768
-0.0124 2.7869 -0.8572 0.9884
-0.5700 6.0593 -1.8719 0.9749
-2.5290 6.6810 -2.1972 0.9705
-3.5785 5.9619 -2.1387 0.9713
-4.4502 5.0812 -2.0775 0.9721
-5.3889 3.5572 -1.9861 0.9733
-6.4210 0.8830 -1.9936 0.9732
-6.3928 0.3026 -1.9685 0.9736
-6.3185 -0.2659 -1.9451 0.9739
-6.0395 -1.3554 -1.9038 0.9744
-5.8392 -1.8713 -1.8860 0.9747
-5.3281 -2.8340 -1.8562 0.9751
-5.0215 -3.2770 -1.8443 0.9752
-4.6838 -3.6921 -1.8344 0.9753
-4.3171 -4.0779 -1.8266 0.9755
-3.9235 -4.4328 -1.8208 0.9755
-3.0640 -5.0446 -1.8154 0.9756
-2.1218 -5.5176 -1.8183 0.9756
-1.1139 -5.8424 -1.8294 0.9754
-0.5909 -5.9464 -1.8380 0.9753
1.5723 -5.9493 -1.8927 0.9746
2.1175 -5.8420 -1.9113 0.9743
3.1921 -5.4927 -1.9540 0.9738
5.6164 -3.8224 -2.0896 0.9720
5.9333 -2.6416 -1.9977 0.9732
6.2386 -2.1334 -2.0280 0.9728
6.5010 -1.5919 -2.0587 0.9724
6.9885 0.1952 -2.1504 0.9712
6.9499 2.1194 -2.2348 0.9701
6.8082 2.7615 -2.2598 0.9697
5.2711 4.0355 -2.0419 0.9726
4.6388 4.2592 -1.9370 0.9740
3.5948 4.7355 -1.8287 0.9754
1.1120 3.7009 -1.1886 0.9840
1.1258 5.4824 -1.7214 0.9769
0.0623 2.6147 -0.8044 0.9891
-0.3937 5.9997 -1.8493 0.9752
-1.5962 6.4048 -2.0302 0.9728
-3.8976 5.6767 -2.1180 0.9716
-4.7039 4.7513 -2.0564 0.9724
-5.0329 4.2483 -2.0258 0.9728
-5.3114 3.7257 -1.9955 0.9732
-6.1493 2.8425 -2.0837 0.9720
-6.3845 1.6594 -2.0290 0.9728
-6.4200 1.0686 -2.0018 0.9731
-6.4069 0.4851 -1.9763 0.9735
-6.0947 -1.1879 -1.9099 0.9743
-5.9068 -1.7104 -1.8914 0.9746
-5.6806 -2.2112 -1.8749 0.9748
-5.1220 -3.1397 -1.8478 0.9752
-4.7939 -3.5639 -1.8373 0.9753
-4.4362 -3.9591 -1.8288 0.9754
-4.0509 -4.3239 -1.8224 0.9755
-3.6401 -4.6569 -1.8180 0.9756
-2.7504 -5.2224 -1.8154 0.9756
-0.7575 -5.9179 -1.8351 0.9753
-0.2277 -5.9944 -1.8451 0.9752
1.3994 -5.9740 -1.8872 0.9746
1.9453 -5.8807 -1.9052 0.9744
3.0243 -5.5600 -1.9468 0.9739
3.5507 -5.3315 -1.9702 0.9735
5.4808 -3.9613 -2.0800 0.9721
6.2626 -3.0031 -2.1363 0.9714
2.4073 -0.9000 -0.7905 0.9893
6.4229 -1.7667 -2.0489 0.9725
6.9604 -0.0025 -2.1409 0.9713
7.0291 0.6273 -2.1706 0.9709
7.0368 1.2685 -2.1993 0.9705
6.9811 1.9149 -2.2265 0.9702
6.2259 3.6964 -2.2270 0.9702
5.4861 3.9593 -2.0810 0.9721
4.2403 4.3997 -1.8794 0.9748
3.2411 4.8592 -1.7966 0.9759
2.6924 4.9415 -1.7309 0.9767
2.2166 5.1066 -1.7123 0.9770
1.7470 5.2688 -1.7073 0.9770
1.2762 5.4308 -1.7159 0.9769
0.7968 5.5950 -1.7383 0.9766
0.1373 2.6329 -0.8109 0.9890
-0.2215 5.9414 -1.8287 0.9754
-0.9354 6.1745 -2.0759 0.9740
-1.5604 6.3843 -2.1846 0.9727
-1.9086 5.5893 -1.9632 0.9754
-2.6422 5.9417 -2.1615 0.9730
-3.1226 5.6118 -2.1347 0.9733
-3.5643 5.2420 -2.1071 0.9736
-3.9642 4.8377 -2.0790 0.9740
-4.3205 4.4039 -2.0507 0.9743
-4.6316 3.9457 -2.0225 0.9747
-2.6740 1.5556 -1.0283 0.9870
-5.9594 0.4784 -1.9873 0.9751
-5.9108 -0.0547 -1.9649 0.9754
-5.6887 -1.0820 -1.9249 0.9759
-5.5191 -1.5710 -1.9074 0.9761
-5.3130 -2.0404 -1.8918 0.9763
-4.7995 -2.9122 -1.8661 0.9766
-4.4962 -3.3110 -1.8561 0.9767
-4.1645 -3.6829 -1.8480 0.9768
-3.8065 -4.0263 -1.8418 0.9769
-2.5944 -4.8725 -1.8349 0.9770
-2.1511 -5.0891 -1.8365 0.9770
-0.2380 -5.5978 -1.8624 0.9767
0.2640 -5.6306 -1.8737 0.9765
0.7708 -5.6237 -1.8868 0.9764
1.2797 -5.5765 -1.9018 0.9762
1.7879 -5.4881 -1.9186 0.9760
2.7903 -5.1857 -1.9575 0.9755
3.2782 -4.9710 -1.9793 0.9752
4.2100 -4.4143 -2.0277 0.9746
5.7714 -2.7998 -2.1323 0.9733
6.4550 1.1335 -2.1785 0.9728
6.2865 2.3129 -2.2266 0.9722
5.8801 3.4551 -2.2670 0.9717
4.8565 4.1739 -2.1286 0.9734
3.7166 4.5761 -1.9596 0.9755
3.2085 4.7635 -1.9091 0.9761
2.7134 4.9269 -1.8697 0.9766
2.2378 5.0921 -1.8489 0.9768
-0.1939 5.9243 -1.9703 0.9753
-0.7499 6.1120 -2.0469 0.9744
-1.3556 6.3156 -2.1472 0.9731
-1.7126 5.5208 -1.9214 0.9759
-2.4826 6.0371 -2.1698 0.9729
-2.9746 5.7207 -2.1433 0.9732
-3.4289 5.3630 -2.1159 0.9735
-3.8423 4.9691 -2.0879 0.9739
-4.5381 4.0930 -2.0314 0.9746
-5.0512 3.1329 -1.9758 0.9753
-5.2382 2.6333 -1.9489 0.9756
-5.9000 1.7420 -2.0449 0.9744
-5.9559 1.1933 -2.0191 0.9747
-5.9656 0.6491 -1.9947 0.9750
-5.8531 -0.4123 -1.9504 0.9756
-5.7345 -0.9236 -1.9307 0.9758
-5.5768 -1.4183 -1.9128 0.9760
-5.3820 -1.8941 -1.8966 0.9762
-5.1522 -2.3489 -1.8822 0.9764
-3.9225 -3.9208 -1.8435 0.9769
-1.8387 -5.2172 -1.8388 0.9770
-1.3694 -5.3747 -1.8437 0.9769
-0.8876 -5.4958 -1.8505 0.9768
0.1045 -5.6245 -1.8699 0.9766
0.6101 -5.6302 -1.8825 0.9764
1.6273 -5.5205 -1.9131 0.9760
2.1333 -5.4037 -1.9311 0.9758
2.6337 -5.2448 -1.9509 0.9756
3.1251 -5.0436 -1.9722 0.9753
4.9306 -3.8161 -2.0725 0.9741
5.6732 -2.9531 -2.1260 0.9734
2.3325 -0.9604 -0.8385 0.9894
6.0595 -1.3034 -2.0603 0.9742
6.2360 -0.7679 -2.0885 0.9739
6.3637 -0.2111 -2.1165 0.9735
6.4394 0.3622 -2.1439 0.9732
6.4602 0.9470 -2.1704 0.9729
6.4240 1.5374 -2.1957 0.9725
6.1744 2.7102 -2.2414 0.9720
5.6873 3.8272 -2.2787 0.9715
5.0564 4.1031 -2.1645 0.9729
4.4453 4.3194 -2.0603 0.9742
3.3629 4.7001 -1.9211 0.9759
2.8666 4.8735 -1.8794 0.9764
2.3872 5.0402 -1.8538 0.9768
1.9168 5.2031 -1.8432 0.9769
0.9613 3.5615 -1.2262 0.9846
0.9731 5.5274 -1.8656 0.9766
-0.0124 2.7931 -0.9285 0.9883
-0.5693 6.0512 -2.0203 0.9747
-1.1576 6.2492 -2.1126 0.9736
-1.5495 5.5444 -1.9136 0.9760
-2.8229 5.8255 -2.1518 0.9731
-3.7161 5.0973 -2.0968 0.9738
-4.4401 4.2382 -2.0403 0.9745
-4.7343 3.7723 -2.0122 0.9748
-4.9824 3.2888 -1.9844 0.9751
-2.7262 1.4685 -1.0293 0.9870
-5.7400 2.4589 -2.0757 0.9740
-5.9675 0.8206 -2.0023 0.9749
-5.9465 0.2815 -1.9789 0.9752
-5.8822 -0.2475 -1.9570 0.9755
-5.4475 -1.7457 -1.9015 0.9762
-5.2286 -2.2074 -1.8865 0.9764
-4.6916 -3.0617 -1.8622 0.9767
-4.3776 -3.4508 -1.8529 0.9768
-3.2780 -4.4473 -1.8365 0.9770
-2.8656 -4.7180 -1.8349 0.9770
-1.9842 -5.1599 -1.8376 0.9770
-1.5194 -5.3288 -1.8419 0.9769
-1.0413 -5.4615 -1.8481 0.9768
0.4497 -5.6327 -1.8783 0.9765
1.4665 -5.5488 -1.9078 0.9761
2.4762 -5.2997 -1.9444 0.9756
2.9707 -5.1118 -1.9653 0.9754
3.9227 -4.6088 -2.0118 0.9748
4.3728 -4.2938 -2.0372 0.9745
4.8006 -3.9374 -2.0638 0.9742
5.5710 -3.1031 -2.1197 0.9735
6.3288 -0.3893 -2.1077 0.9736
6.4212 0.1793 -2.1353 0.9733
6.4597 0.7611 -2.1621 0.9730
6.4417 1.3503 -2.1878 0.9726
6.3654 1.9411 -2.2121 0.9723
6.2298 2.5269 -2.2347 0.9721
5.7799 3.6565 -2.2734 0.9716
4.6323 4.2533 -2.0904 0.9738
3.0516 4.8679 -1.9098 0.9761
2.0652 5.1518 -1.8450 0.9769
-0.3932 5.9917 -1.9960 0.9750
-2.6674 5.9261 -2.1602 0.9730
-3.1460 5.5939 -2.1333 0.9733
-4.9089 3.4434 -1.9932 0.9750
-2.6760 1.5405 -1.0264 0.9871
-5.9648 0.9928 -2.0100 0.9748
-5.9579 0.4511 -1.9861 0.9751
-5.9072 -0.0814 -1.9638 0.9754
-5.6810 -1.1073 -1.9239 0.9759
-5.5095 -1.5953 -1.9066 0.9761
-5.3016 -2.0636 -1.8911 0.9763
-5.0594 -2.5102 -1.8774 0.9765
-4.4801 -3.3305 -1.8556 0.9767
-3.4041 -4.3550 -1.8374 0.9770
-2.9983 -4.6359 -1.8352 0.9770
-2.5723 -4.8843 -1.8350 0.9770
-1.6680 -5.2792 -1.8403 0.9769
-0.7080 -5.5309 -1.8535 0.9768
-0.2127 -5.6004 -1.8630 0.9767
0.2897 -5.6312 -1.8743 0.9765
2.8153 -5.1758 -1.9585 0.9755
3.3026 -4.9590 -1.9805 0.9752
5.0781 -3.6703 -2.0827 0.9739
5.6758 -2.1220 -2.0142 0.9748
5.9242 -1.6295 -2.0424 0.9744
6.1297 -1.1095 -2.0707 0.9741
6.3977 -0.0023 -2.1266 0.9734
6.3960 1.7544 -2.2046 0.9724
6.1027 2.9211 -2.2490 0.9719
5.4779 3.9534 -2.2456 0.9719
3.6899 4.5855 -1.9564 0.9755
0.7958 5.5880 -1.8762 0.9765
0.1431 2.7445 -0.9135 0.9885
-0.7793 6.1219 -2.0514 0.9743
-1.4554 5.9549 -2.1922 0.9743
-1.9051 5.5790 -2.1082 0.9753
-2.4387 5.4843 -2.1464 0.9748
-3.6698 4.4784 -2.0705 0.9757
-4.0037 4.0809 -2.0444 0.9760
-2.6754 1.5564 -1.1068 0.9869
-4.9194 2.3012 -1.9422 0.9772
-5.4242 1.9688 -2.0636 0.9758
-5.5202 1.4615 -2.0421 0.9760
-5.5632 0.9519 -2.0184 0.9763
-5.5634 0.4466 -1.9959 0.9766
-5.5222 -0.0511 -1.9749 0.9768
-5.4411 -0.5383 -1.9553 0.9770
-5.3218 -1.0123 -1.9373 0.9772
-4.9759 -1.9109 -1.9061 0.9776
-4.4989 -2.7298 -1.8818 0.9779
-4.2160 -3.1047 -1.8724 0.9780
-3.9060 -3.4543 -1.8647 0.9781
-2.4344 -4.5721 -1.8523 0.9782
-0.6873 -5.1824 -1.8695 0.9780
0.7220 -5.2678 -1.9014 0.9777
1.1981 -5.2209 -1.9156 0.9775
2.1437 -5.0104 -1.9489 0.9771
