ply
format ascii 1.0
element vertex 1595
property float32 x
property float32 y
property float32 z
property float32 I
end_header
-9.1183 2.3009 -1.9878 0.9623
-9.1125 1.4501 -1.9504 0.9630
-9.0410 0.6199 -1.9156 0.9636
-8.4713 -1.7139 -1.8269 0.9653
-8.1751 -2.4305 -1.8028 0.9657
-5.5033 -5.9591 -1.7146 0.9674
-4.9341 -6.4064 -1.7093 0.9675
0.4880 -8.3211 -1.7619 0.9665
1.2417 -8.3315 -1.7806 0.9661
2.0039 -8.2855 -1.8019 0.9657
2.7718 -8.1812 -1.8259 0.9653
4.3108 -7.7908 -1.8821 0.9643
6.5647 -6.7233 -1.9863 0.9623
7.2815 -6.2330 -2.0261 0.9616
7.9711 -5.6739 -2.0682 0.9608
8.6266 -5.0458 -2.1125 0.9600
8.5755 -4.0360 -2.0034 0.9620
9.0995 -3.3270 -2.0480 0.9612
9.5697 -2.5577 -2.0938 0.9603
10.3160 -0.8525 -2.1880 0.9586
9.9867 1.8754 -2.1479 0.9593
8.6961 2.4535 -1.9099 0.9637
7.6546 2.9193 -1.7317 0.9671
6.7779 3.3052 -1.5940 0.9696
6.0287 3.6390 -1.4885 0.9716
4.1736 4.3943 -1.2811 0.9755
3.7684 4.7538 -1.2823 0.9755
2.6508 4.9511 -1.1871 0.9773
2.1915 5.1517 -1.1834 0.9774
0.3817 2.8288 -0.6034 0.9884
0.2718 6.0661 -1.2835 0.9755
-1.3472 5.9324 -1.2859 0.9754
-5.0274 9.3939 -2.2522 0.9574
-6.3388 7.9992 -2.1574 0.9591
-2.5539 1.8723 -0.6694 0.9871
-8.6207 5.2056 -2.1287 0.9597
-8.8593 4.3221 -2.0836 0.9605
-9.0199 3.4418 -2.0407 0.9613
-9.1060 2.5709 -2.0001 0.9621
-9.1215 1.7146 -1.9619 0.9628
-9.0702 0.8775 -1.9262 0.9634
-8.9560 0.0635 -1.8932 0.9640
-8.7826 -0.7242 -1.8628 0.9646
-7.9439 -2.9029 -1.7878 0.9660
-7.1525 -4.1819 -1.7513 0.9667
-5.6752 -5.8102 -1.7168 0.9673
-4.5262 -6.6886 -1.7071 0.9675
-3.2668 -7.3905 -1.7080 0.9675
-1.9137 -7.9062 -1.7195 0.9673
-1.2073 -8.0909 -1.7292 0.9671
-0.4839 -8.2249 -1.7416 0.9669
1.0046 -8.3342 -1.7744 0.9663
3.3007 -8.0750 -1.8440 0.9650
4.8357 -7.5986 -1.9039 0.9638
5.5925 -7.2639 -1.9378 0.9632
6.3356 -6.8628 -1.9743 0.9625
9.0243 -4.5601 -2.1373 0.9595
9.4287 -2.8050 -2.0794 0.9606
9.8573 -1.9961 -2.1259 0.9597
10.2182 -1.1331 -2.1732 0.9588
10.5030 -0.2215 -2.2206 0.9580
10.7035 0.7319 -2.2678 0.9571
9.0688 2.2867 -1.9770 0.9625
6.2526 3.5393 -1.5187 0.9711
3.2713 4.6912 -1.2089 0.9769
2.7964 4.8890 -1.1906 0.9772
1.8773 5.2930 -1.1871 0.9773
1.4149 5.5071 -1.2019 0.9770
0.4670 2.8555 -0.6116 0.9882
-0.1039 6.2581 -1.3230 0.9747
-0.6987 6.5693 -1.3964 0.9734
-1.2210 6.1719 -1.3299 0.9746
-3.1330 10.7066 -2.3581 0.9554
-4.7936 9.5932 -2.2669 0.9571
-5.5134 8.9372 -2.2197 0.9580
-6.1545 8.2297 -2.1722 0.9589
-7.7529 7.2220 -2.2397 0.9576
-2.4769 1.9247 -0.6631 0.9873
-9.0868 2.8423 -2.0125 0.9618
-9.1241 1.9810 -1.9736 0.9625
-9.0932 1.1374 -1.9371 0.9632
-8.6312 -1.2484 -1.8435 0.9650
-8.3664 -1.9854 -1.8176 0.9655
-8.0521 -2.6895 -1.7945 0.9659
-7.6914 -3.3587 -1.7741 0.9663
-7.2875 -3.9914 -1.7563 0.9666
-5.8441 -5.6573 -1.7193 0.9673
-4.7139 -6.5624 -1.7079 0.9675
-0.7122 -8.1885 -1.7374 0.9670
0.0216 -8.2867 -1.7517 0.9667
1.5255 -8.3210 -1.7882 0.9660
3.0594 -8.1270 -1.8356 0.9651
3.8295 -7.9398 -1.8633 0.9646
6.8352 -6.5482 -2.0008 0.9620
8.2203 -5.4474 -2.0845 0.9605
2.3441 -1.0091 -0.5395 0.9896
9.2818 -3.0466 -2.0650 0.9608
9.7299 -2.2556 -2.1112 0.9600
10.4225 -0.5119 -2.2058 0.9582
10.6503 0.4293 -2.2531 0.9574
9.4688 2.1075 -2.0505 0.9611
7.3125 3.0721 -1.6766 0.9681
5.0844 3.9935 -1.3666 0.9739
2.9433 4.8271 -1.1951 0.9772
2.4788 5.0260 -1.1846 0.9773
2.0208 5.2281 -1.1848 0.9773
1.5608 5.4388 -1.1961 0.9771
0.5716 2.9701 -0.6393 0.9877
-0.5053 6.4672 -1.3712 0.9738
-0.9915 5.8701 -1.2584 0.9760
-7.6004 7.4880 -2.2553 0.9573
-8.0578 6.6313 -2.2059 0.9582
-8.9282 3.9926 -2.0673 0.9608
-9.0606 3.1151 -2.0253 0.9616
-9.1199 2.2491 -1.9855 0.9623
-9.1100 1.3995 -1.9483 0.9630
-8.7034 -1.0111 -1.8521 0.9648
-8.1557 -2.4726 -1.8014 0.9658
-7.8092 -3.1529 -1.7802 0.9662
-5.4698 -5.9872 -1.7142 0.9674
-4.8988 -6.4320 -1.7090 0.9675
-0.9390 -8.1470 -1.7335 0.9670
-0.2098 -8.2616 -1.7469 0.9668
1.2874 -8.3303 -1.7818 0.9661
2.0501 -8.2808 -1.8032 0.9657
2.8182 -8.1731 -1.8274 0.9653
3.5884 -8.0051 -1.8544 0.9648
5.1196 -7.4813 -1.9162 0.9636
6.6085 -6.6957 -1.9886 0.9623
8.6649 -5.0058 -2.1153 0.9599
8.6084 -3.9951 -2.0061 0.9619
9.5961 -2.5095 -2.0966 0.9603
10.0004 -1.6799 -2.1435 0.9594
10.3339 -0.7980 -2.1909 0.9585
10.5882 0.1302 -2.2383 0.9576
9.8999 1.9143 -2.1314 0.9596
7.5979 2.9446 -1.7224 0.9672
4.6625 4.1489 -1.3193 0.9748
4.2125 4.4834 -1.3004 0.9752
3.0917 4.7652 -1.2007 0.9770
2.6230 4.9631 -1.1866 0.9773
1.7057 5.3717 -1.1913 0.9772
0.2397 6.0823 -1.2867 0.9754
-3.4641 10.5217 -2.3415 0.9557
-4.3040 9.9731 -2.2960 0.9566
-5.0715 9.3549 -2.2493 0.9574
-5.7622 8.6784 -2.2020 0.9583
-7.9238 6.9019 -2.2212 0.9579
-2.5863 1.8747 -0.6752 0.9870
-8.6373 5.1524 -2.1259 0.9597
-8.8711 4.2689 -2.0810 0.9605
-9.0271 3.3890 -2.0382 0.9613
-6.2762 6.2504 -2.0818 0.9643
-7.1932 5.9850 -2.1992 0.9623
-7.5482 5.2153 -2.1563 0.9630
-7.8294 4.4336 -2.1146 0.9637
-8.2611 1.3147 -1.9660 0.9662
-8.1017 -0.1694 -1.9045 0.9673
-7.9391 -0.8790 -1.8773 0.9677
-7.7256 -1.5630 -1.8525 0.9681
-7.4641 -2.2191 -1.8301 0.9685
-7.1577 -2.8451 -1.8102 0.9688
-5.9963 -4.5247 -1.7655 0.9696
-5.5372 -5.0133 -1.7555 0.9698
-5.0461 -5.4641 -1.7480 0.9699
-3.9772 -6.2471 -1.7405 0.9700
-3.4038 -6.5769 -1.7405 0.9700
-0.9000 -7.4558 -1.7650 0.9696
1.1349 -7.6151 -1.8095 0.9689
1.8297 -7.5652 -1.8293 0.9685
2.5280 -7.4614 -1.8515 0.9681
3.9209 -7.0861 -1.9033 0.9673
4.6079 -6.8119 -1.9328 0.9668
5.2830 -6.4784 -1.9646 0.9662
7.1858 -5.1150 -2.0730 0.9644
8.1493 -2.9796 -2.0393 0.9650
8.5504 -2.2853 -2.0801 0.9643
9.1733 -0.7581 -2.1633 0.9629
9.5117 0.9185 -2.2459 0.9615
8.6800 2.4490 -2.1197 0.9636
7.6418 2.9144 -1.9222 0.9670
4.7632 4.1928 -1.4914 0.9743
3.7638 4.7480 -1.4240 0.9754
2.2278 5.2370 -1.3376 0.9769
1.2890 5.6713 -1.3669 0.9764
0.3789 2.8081 -0.6660 0.9884
0.2759 6.1594 -1.4491 0.9750
-0.2857 6.4021 -1.5061 0.9740
-0.8983 6.6662 -1.5809 0.9727
-3.0096 9.3098 -2.2995 0.9606
-3.7629 8.8499 -2.2601 0.9613
-4.4560 8.3263 -2.2195 0.9619
-6.1368 6.4635 -2.0947 0.9640
-6.5579 5.7746 -2.0536 0.9647
-7.9807 3.8934 -2.0869 0.9642
-8.1420 3.1068 -2.0481 0.9648
-8.2648 1.5536 -1.9764 0.9660
-7.9957 -0.6593 -1.8855 0.9676
-7.5510 -2.0167 -1.8369 0.9684
-6.1332 -4.3640 -1.7691 0.9695
-5.2033 -5.3270 -1.7501 0.9699
-4.6916 -5.7511 -1.7443 0.9700
-3.5860 -6.4781 -1.7402 0.9700
-1.7543 -7.2478 -1.7526 0.9698
-1.1062 -7.4136 -1.7617 0.9697
1.6116 -7.5866 -1.8228 0.9686
2.3091 -7.4998 -1.8443 0.9683
3.0077 -7.3581 -1.8682 0.9679
3.7039 -7.1600 -1.8946 0.9674
4.3938 -6.9041 -1.9233 0.9669
5.0731 -6.5893 -1.9544 0.9664
6.3808 -5.7792 -2.0233 0.9652
7.5466 -3.8133 -1.9872 0.9659
2.3301 -0.9267 -0.5893 0.9897
8.4306 -2.5081 -2.0672 0.9645
9.5532 1.5185 -2.2734 0.9610
9.0514 2.2823 -2.1939 0.9624
7.9458 2.7782 -1.9783 0.9660
5.5587 3.8392 -1.5877 0.9726
3.9254 4.6767 -1.4350 0.9752
2.3735 5.1726 -1.3376 0.9769
1.3825 3.8979 -0.9720 0.9831
0.4437 6.0868 -1.4343 0.9752
-0.1050 6.3241 -1.4865 0.9743
-4.8948 7.9345 -2.1911 0.9624
-5.4771 7.3239 -2.1494 0.9631
-2.4766 1.9245 -0.7371 0.9872
-7.6618 4.9243 -2.1405 0.9633
-8.0989 3.3530 -2.0601 0.9646
-8.2135 2.5692 -2.0226 0.9653
-8.2490 1.0318 -1.9538 0.9664
-8.1761 0.2869 -1.9228 0.9669
-8.0471 -0.4372 -1.8940 0.9674
-7.3548 -2.4566 -1.8224 0.9686
-6.6687 -3.6525 -1.7870 0.9692
-6.2666 -4.1998 -1.7730 0.9695
-5.8287 -4.7115 -1.7615 0.9697
-4.8550 -5.6225 -1.7459 0.9699
-4.3237 -6.0192 -1.7418 0.9700
-3.7659 -6.3752 -1.7402 0.9700
-1.9539 -7.1862 -1.7502 0.9699
-1.3110 -7.3667 -1.7586 0.9697
-0.6523 -7.5000 -1.7693 0.9695
4.8617 -6.6943 -1.9445 0.9666
6.1817 -5.9221 -2.0120 0.9654
7.4048 -4.9070 -2.0877 0.9642
7.9518 -4.3016 -2.1248 0.9635
8.6858 -2.0135 -2.0955 0.9640
9.4394 0.3805 -2.2203 0.9619
9.5393 1.2437 -2.2609 0.9612
9.4500 2.1033 -2.2753 0.9610
7.3006 3.0671 -1.8611 0.9680
6.4762 3.4301 -1.7224 0.9703
4.5532 4.2859 -1.4696 0.9746
4.0895 4.6041 -1.4473 0.9750
3.5742 4.8316 -1.4125 0.9756
2.9925 4.9079 -1.3510 0.9767
1.5870 5.5299 -1.3521 0.9766
0.2970 2.9378 -0.6940 0.9879
0.0712 6.2480 -1.4685 0.9747
-0.5076 6.4979 -1.5318 0.9736
-0.9912 5.8685 -1.3988 0.9758
-3.2977 9.1461 -2.2850 0.9608
-5.3021 7.5198 -2.1625 0.9629
-5.8371 6.8812 -2.1207 0.9636
-7.8440 4.3863 -2.1122 0.9637
-8.1848 2.8140 -2.0341 0.9651
-8.2597 1.2689 -1.9640 0.9662
-7.7112 -1.6034 -1.8511 0.9682
-7.1378 -2.8819 -1.8091 0.9689
-6.7868 -3.4739 -1.7919 0.9692
-5.9696 -4.5552 -1.7648 0.9696
-1.5142 -7.3152 -1.7557 0.9698
0.4877 -7.6141 -1.7931 0.9691
2.5701 -7.4534 -1.8529 0.9681
3.2682 -7.2908 -1.8778 0.9677
3.9625 -7.0713 -1.9051 0.9672
4.6490 -6.7935 -1.9347 0.9667
5.3231 -6.4564 -1.9666 0.9662
5.9802 -6.0591 -2.0008 0.9656
6.6149 -5.6010 -2.0371 0.9650
8.1749 -2.9392 -2.0417 0.9649
9.1879 -0.7095 -2.1658 0.9628
9.3914 0.1155 -2.2074 0.9621
9.5170 0.9708 -2.2483 0.9615
9.5586 1.8484 -2.2881 0.9608
7.5852 2.9397 -1.9119 0.9671
6.7194 3.3215 -1.7616 0.9697
5.3222 3.9445 -1.5569 0.9731
4.7289 4.2080 -1.4877 0.9743
3.7330 4.7616 -1.4220 0.9754
2.6665 5.0455 -1.3412 0.9768
2.1998 5.2495 -1.3377 0.9769
1.7341 5.4612 -1.3467 0.9767
1.2600 5.6852 -1.3686 0.9764
0.2433 6.1736 -1.4521 0.9749
-0.9372 6.6829 -1.5860 0.9727
-1.3804 5.9302 -1.4310 0.9753
-3.8064 8.8201 -2.2577 0.9613
-4.4958 8.2929 -2.2170 0.9620
-5.6770 7.0853 -2.1338 0.9634
-6.1641 6.4227 -2.0922 0.9641
-6.5810 5.7323 -2.0512 0.9648
-2.5791 1.8695 -0.7486 0.9870
-7.9924 3.8460 -2.0846 0.9642
-5.2320 6.2356 -2.1075 0.9669
-6.8399 4.7259 -2.1526 0.9662
-7.1076 4.0248 -2.1148 0.9668
-7.3103 3.3164 -2.0784 0.9674
-7.4499 2.6063 -2.0435 0.9679
-7.5285 1.8997 -2.0104 0.9684
-7.5484 1.2012 -1.9790 0.9689
-7.5123 0.5151 -1.9496 0.9694
-7.4228 -0.1552 -1.9223 0.9698
-6.8611 -2.0398 -1.8533 0.9709
-6.5852 -2.6176 -1.8348 0.9711
-6.2693 -3.1665 -1.8185 0.9714
-5.5277 -4.1710 -1.7929 0.9718
-4.1759 -5.4219 -1.7719 0.9721
-3.6704 -5.7652 -1.7696 0.9722
-0.8297 -6.8732 -1.7925 0.9718
0.4111 -7.0092 -1.8179 0.9714
1.6820 -6.9543 -1.8525 0.9709
2.3215 -6.8521 -1.8732 0.9705
2.9595 -6.6986 -1.8961 0.9702
3.5925 -6.4926 -1.9212 0.9698
4.2165 -6.2333 -1.9485 0.9694
4.8275 -5.9198 -1.9778 0.9689
5.9918 -5.1291 -2.0422 0.9679
6.5352 -4.6519 -2.0770 0.9674
6.9757 -3.2831 -1.9962 0.9686
7.7194 -2.0632 -2.0689 0.9675
8.0142 -1.3906 -2.1060 0.9669
8.2497 -0.6817 -2.1433 0.9664
8.4205 0.0582 -2.1803 0.9658
8.5213 0.8229 -2.2166 0.9652
8.4952 2.3968 -2.2854 0.9642
7.6288 2.9094 -2.1140 0.9668
6.7569 3.2949 -1.9464 0.9694
6.0112 3.6284 -1.8180 0.9714
5.3523 3.9224 -1.7181 0.9730
3.2009 4.8757 -1.5101 0.9762
2.2514 5.2925 -1.4891 0.9765
1.2975 5.7086 -1.5157 0.9761
0.3762 2.7877 -0.7283 0.9884
0.2756 6.1516 -1.5943 0.9749
-0.2853 6.3936 -1.6571 0.9739
-0.8971 6.6569 -1.7392 0.9726
-3.3689 7.9232 -2.2292 0.9651
-3.9969 7.4684 -2.1932 0.9656
-5.5366 5.8314 -2.0820 0.9673
-5.9279 5.2198 -2.0451 0.9679
-2.5474 1.8675 -0.8178 0.9870
-7.0308 4.2455 -2.1265 0.9666
-7.4129 2.8286 -2.0543 0.9677
-7.5103 2.1204 -2.0206 0.9683
-7.5295 0.7285 -1.9586 0.9692
-6.6760 -2.4396 -1.8403 0.9711
-6.3724 -2.9978 -1.8234 0.9713
-6.0305 -3.5259 -1.8087 0.9715
-5.6529 -4.0223 -1.7963 0.9717
-4.7998 -4.9140 -1.7786 0.9720
-3.8314 -5.6618 -1.7700 0.9721
-2.7651 -6.2554 -1.7708 0.9721
-2.2006 -6.4914 -1.7747 0.9721
-1.0200 -6.8353 -1.7894 0.9718
-0.4084 -6.9408 -1.8002 0.9717
0.2142 -7.0002 -1.8133 0.9715
2.1212 -6.8896 -1.8665 0.9707
2.7601 -6.7523 -1.8887 0.9703
3.3950 -6.5629 -1.9131 0.9699
4.0222 -6.3203 -1.9397 0.9695
4.6378 -6.0239 -1.9684 0.9691
5.8157 -5.2674 -2.0316 0.9681
6.8429 -3.4578 -1.9851 0.9688
2.3300 -0.9267 -0.6492 0.9897
7.9279 -1.6054 -2.0943 0.9671
8.1826 -0.9074 -2.1316 0.9666
8.4976 0.5811 -2.2053 0.9654
8.5476 1.3587 -2.2409 0.9649
8.5202 2.1483 -2.2751 0.9643
7.9319 2.7733 -2.1756 0.9659
7.0132 3.1801 -1.9938 0.9687
5.5509 3.8339 -1.7467 0.9725
4.3760 4.3564 -1.5987 0.9748
3.9205 4.6709 -1.5789 0.9751
3.3531 4.8086 -1.5178 0.9761
2.8716 5.0205 -1.4975 0.9764
2.3989 5.2279 -1.4893 0.9765
1.3608 3.8367 -1.0540 0.9833
1.4496 5.6424 -1.5084 0.9762
0.4633 2.8328 -0.7432 0.9882
0.4431 6.0791 -1.5782 0.9751
-0.6990 6.5717 -1.7111 0.9731
-1.1531 5.8284 -1.5383 0.9757
-3.1614 8.0540 -2.2402 0.9649
-3.8060 7.6167 -2.2046 0.9654
-4.9289 6.5908 -2.1309 0.9666
-5.8120 5.4140 -2.0566 0.9677
-7.3697 3.0511 -2.0652 0.9676
-7.4863 2.3417 -2.0309 0.9681
-7.5414 0.9433 -1.9678 0.9691
-7.4850 0.2627 -1.9392 0.9695
-7.3762 -0.4008 -1.9126 0.9699
-7.2178 -1.0440 -1.8882 0.9703
-7.0124 -1.6641 -1.8661 0.9707
-4.9415 -4.7836 -1.7807 0.9720
-4.4794 -5.1875 -1.7746 0.9721
-3.9900 -5.5546 -1.7708 0.9721
-3.4754 -5.8835 -1.7693 0.9722
-2.3795 -6.4220 -1.7732 0.9721
1.2820 -6.9926 -1.8407 0.9711
1.9208 -6.9221 -1.8600 0.9708
2.5602 -6.8009 -1.8815 0.9704
4.4465 -6.1226 -1.9592 0.9692
5.0514 -5.7888 -1.9892 0.9688
7.8361 -1.8166 -2.0827 0.9673
8.1094 -1.1298 -2.1199 0.9667
8.3214 -0.4087 -2.1571 0.9662
8.5401 1.1134 -2.2299 0.9650
8.5373 1.9002 -2.2646 0.9645
8.2534 2.6289 -2.2427 0.9648
7.2886 3.0621 -2.0469 0.9679
6.4664 3.4249 -1.8946 0.9702
5.7564 3.7422 -1.7777 0.9720
5.1235 4.0243 -1.6869 0.9734
4.5473 4.2804 -1.6169 0.9745
4.0844 4.5984 -1.5924 0.9749
3.0211 4.9548 -1.5025 0.9763
2.5465 5.1632 -1.4906 0.9765
0.5660 2.9412 -0.7755 0.9877
0.2960 2.9284 -0.7621 0.9879
-0.5070 6.4891 -1.6853 0.9735
-2.9490 8.1789 -2.2511 0.9647
-4.2175 7.2852 -2.1795 0.9658
-4.7684 6.7630 -2.1425 0.9664
-5.2598 6.2007 -2.1053 0.9670
-5.6900 5.6059 -2.0681 0.9675
-7.1216 3.9823 -2.1126 0.9668
-7.3205 3.2736 -2.0763 0.9674
-7.4564 2.5636 -2.0415 0.9679
-7.2725 -0.8448 -1.8957 0.9702
-6.5672 -2.6515 -1.8337 0.9712
-6.2490 -3.1986 -1.8176 0.9714
-5.5032 -4.1993 -1.7923 0.9718
-4.6272 -5.0649 -1.7763 0.9721
-4.1461 -5.4437 -1.7717 0.9721
-3.1086 -6.0867 -1.7696 0.9722
-2.5565 -6.3484 -1.7720 0.9721
-0.7930 -6.8800 -1.7932 0.9718
1.0825 -7.0045 -1.8351 0.9711
2.9979 -6.6877 -1.8976 0.9702
3.6304 -6.4785 -1.9228 0.9698
4.2537 -6.2159 -1.9502 0.9694
5.4560 -5.5279 -2.0110 0.9684
6.5670 -4.6214 -2.0791 0.9674
7.0008 -3.2490 -1.9983 0.9686
7.3937 -2.6583 -2.0343 0.9681
8.2619 -0.6380 -2.1455 0.9663
8.4286 0.1036 -2.1825 0.9658
8.4894 2.4446 -2.2874 0.9642
7.5724 2.9347 -2.1027 0.9670
4.7227 4.2025 -1.6368 0.9742
4.2093 4.4799 -1.5916 0.9749
3.7284 4.7557 -1.5646 0.9753
3.1717 4.8885 -1.5088 0.9762
2.6944 5.0983 -1.4931 0.9765
2.2230 5.3049 -1.4893 0.9765
1.2680 5.7214 -1.5173 0.9761
0.2430 6.1657 -1.5976 0.9748
-1.3779 5.9197 -1.5737 0.9752
-4.0330 7.4393 -2.1910 0.9656
-4.6021 6.9312 -2.1542 0.9662
-5.1124 6.3807 -2.1170 0.9668
-5.5619 5.7953 -2.0797 0.9674
-5.9495 5.1822 -2.0429 0.9679
-7.2651 3.4960 -2.0875 0.9672
-4.7556 5.6679 -2.0945 0.9697
-6.5012 3.6815 -2.1150 0.9694
-6.9153 1.7450 -2.0190 0.9708
-6.9425 1.1048 -1.9901 0.9712
-6.8426 -0.1431 -1.9375 0.9719
-6.7203 -0.7440 -1.9141 0.9723
-6.5528 -1.3258 -1.8926 0.9726
-6.3426 -1.8857 -1.8732 0.9729
-5.4798 -3.4132 -1.8276 0.9735
-5.1226 -3.8654 -1.8167 0.9737
-4.3171 -4.6746 -1.8013 0.9739
-3.4047 -5.3478 -1.7947 0.9740
-1.8732 -6.0803 -1.8011 0.9739
-1.3279 -6.2457 -1.8076 0.9738
-0.7689 -6.3697 -1.8163 0.9737
-0.1986 -6.4511 -1.8271 0.9735
0.3806 -6.4889 -1.8401 0.9733
0.9660 -6.4819 -1.8552 0.9731
1.5549 -6.4290 -1.8725 0.9729
2.1444 -6.3292 -1.8918 0.9726
3.3119 -5.9855 -1.9365 0.9720
3.8828 -5.7400 -1.9618 0.9716
4.9796 -5.0999 -2.0178 0.9708
5.4968 -4.7053 -2.0483 0.9704
6.4399 -3.7667 -2.1120 0.9695
6.3713 -2.9986 -1.9934 0.9712
7.4871 -0.6187 -2.1268 0.9693
7.6299 0.0527 -2.1600 0.9688
7.7092 0.7445 -2.1926 0.9683
7.7212 1.4500 -2.2240 0.9679
7.6628 2.1620 -2.2540 0.9674
7.5320 2.8725 -2.2820 0.9670
6.7462 3.2897 -2.1248 0.9693
2.7197 5.0796 -1.6311 0.9763
1.2959 5.7016 -1.6552 0.9760
0.2752 6.1436 -1.7410 0.9748
-0.2849 6.3850 -1.8094 0.9738
-1.3365 5.8850 -1.7084 0.9752
-3.0461 7.1642 -2.2038 0.9682
-4.1447 6.3158 -2.1386 0.9691
-5.4028 4.7574 -2.0379 0.9705
-2.5441 1.8651 -0.8930 0.9870
-6.4279 3.8815 -2.1257 0.9693
-6.7970 2.5936 -2.0595 0.9702
-6.9397 1.3045 -1.9990 0.9711
-6.9308 0.6705 -1.9712 0.9715
-5.5850 -3.2654 -1.8315 0.9735
-5.2379 -3.7270 -1.8199 0.9736
-4.8591 -4.1579 -1.8104 0.9738
-4.4507 -4.5566 -1.8032 0.9739
-3.0699 -5.5457 -1.7944 0.9740
-2.5648 -5.8023 -1.7959 0.9740
-2.0409 -6.0202 -1.7995 0.9739
-0.9454 -6.3353 -1.8133 0.9737
-0.3783 -6.4302 -1.8235 0.9736
0.1984 -6.4818 -1.8358 0.9734
0.7821 -6.4890 -1.8503 0.9732
1.9599 -6.3656 -1.8855 0.9727
3.7052 -5.8222 -1.9537 0.9717
5.8365 -4.4057 -2.0702 0.9701
6.2530 -3.1597 -1.9833 0.9713
2.3300 -0.9266 -0.7098 0.9896
7.6914 0.5260 -2.1825 0.9685
7.7249 1.2279 -2.2143 0.9680
7.5809 2.6506 -2.2735 0.9672
4.3703 4.3507 -1.7458 0.9747
2.3960 5.2216 -1.6264 0.9764
1.3545 3.8190 -1.1471 0.9833
1.4479 5.6355 -1.6472 0.9761
0.2205 3.0245 -0.8585 0.9875
-0.1047 6.3075 -1.7858 0.9741
-0.6980 6.5626 -1.8683 0.9729
-2.8571 7.2790 -2.2137 0.9680
-3.9857 6.4607 -2.1490 0.9689
-5.2945 4.9319 -2.0484 0.9704
-2.4783 1.9258 -0.8885 0.9870
-6.7545 2.7964 -2.0695 0.9701
-6.9317 1.5050 -2.0080 0.9709
-6.6629 -0.9637 -1.9058 0.9724
-5.6868 -3.1147 -1.8356 0.9734
-5.3502 -3.5856 -1.8233 0.9736
-4.1543 -4.8110 -1.7994 0.9739
-3.7009 -5.1522 -1.7958 0.9740
-3.2238 -5.4576 -1.7944 0.9740
-2.7251 -5.7260 -1.7952 0.9740
-2.2069 -5.9561 -1.7982 0.9739
-1.1206 -6.2969 -1.8106 0.9738
-0.5571 -6.4051 -1.8201 0.9736
0.0168 -6.4704 -1.8317 0.9735
2.3640 -6.2798 -1.8995 0.9725
2.9489 -6.1141 -1.9217 0.9722
3.5265 -5.8996 -1.9458 0.9718
5.6832 -4.5452 -2.0601 0.9702
6.5885 -3.5641 -2.1206 0.9693
6.8420 -2.2458 -2.0386 0.9705
7.1303 -1.6529 -2.0721 0.9700
7.5476 -0.3707 -2.1392 0.9691
7.6672 0.3090 -2.1723 0.9686
7.7217 1.0067 -2.2045 0.9681
7.6225 2.4280 -2.2647 0.9673
7.2766 3.0570 -2.2343 0.9677
6.4565 3.4197 -2.0683 0.9701
5.7481 3.7368 -1.9409 0.9719
4.0792 4.5925 -1.7389 0.9748
3.5654 4.8197 -1.6972 0.9754
3.0174 4.9487 -1.6408 0.9762
2.5434 5.1570 -1.6278 0.9764
1.5985 5.5699 -1.6405 0.9762
0.5721 2.9729 -0.8571 0.9875
0.2953 2.9208 -0.8311 0.9879
-0.5063 6.4802 -1.8401 0.9733
-0.9915 5.8698 -1.6852 0.9756
-2.6639 7.3884 -2.2234 0.9679
-3.8216 6.6014 -2.1594 0.9688
-4.7814 5.6367 -2.0925 0.9697
-5.1808 5.1042 -2.0589 0.9702
-6.5146 3.6429 -2.1130 0.9694
-6.7063 2.9990 -2.0797 0.9699
-6.8404 2.3518 -2.0477 0.9704
-6.9185 1.7062 -2.0173 0.9708
-6.8366 -0.1798 -1.9361 0.9720
-6.0758 -2.4531 -1.8549 0.9731
-5.4592 -3.4413 -1.8269 0.9735
-4.7099 -4.3107 -1.8075 0.9738
-4.2910 -4.6969 -1.8010 0.9739
-3.8456 -5.0491 -1.7967 0.9740
-2.3712 -5.8882 -1.7970 0.9740
-1.2946 -6.2543 -1.8081 0.9738
-0.7348 -6.3758 -1.8169 0.9737
0.4157 -6.4898 -1.8410 0.9733
1.5905 -6.4243 -1.8736 0.9729
3.9168 -5.7236 -1.9634 0.9716
4.4732 -5.4255 -1.9906 0.9712
5.5271 -4.6799 -2.0502 0.9703
6.4642 -3.7345 -2.1134 0.9694
7.2988 -1.2260 -2.0952 0.9697
7.4974 -0.5790 -2.1288 0.9692
7.7118 0.7867 -2.1945 0.9683
7.7197 1.4928 -2.2259 0.9678
7.6570 2.2049 -2.2557 0.9674
6.6984 3.3112 -2.1153 0.9694
3.7238 4.7498 -1.7086 0.9752
3.1679 4.8825 -1.6477 0.9761
2.6912 5.0921 -1.6305 0.9763
2.2204 5.2985 -1.6263 0.9764
1.7480 5.5048 -1.6350 0.9763
1.2665 5.7143 -1.6569 0.9760
0.2427 6.1577 -1.7445 0.9747
-2.4667 7.4923 -2.2330 0.9677
-3.0820 7.1415 -2.2019 0.9682
-4.1747 6.2875 -2.1366 0.9691
-4.7292 4.7097 -2.0529 0.9725
-6.1716 2.7998 -2.0844 0.9720
-6.4204 1.0217 -1.9996 0.9732
-6.4039 0.4391 -1.9743 0.9735
-6.0825 -1.2306 -1.9087 0.9744
-5.8917 -1.7517 -1.8906 0.9746
-3.6082 -4.6849 -1.8188 0.9756
-3.1721 -4.9825 -1.8167 0.9756
-2.2383 -5.4730 -1.8187 0.9756
-1.7448 -5.6635 -1.8228 0.9755
-1.2366 -5.8161 -1.8289 0.9754
-0.7158 -5.9296 -1.8371 0.9753
0.8980 -6.0252 -1.8737 0.9748
3.0690 -5.5466 -1.9498 0.9738
3.5947 -5.3141 -1.9733 0.9735
4.6004 -4.7115 -2.0254 0.9728
5.0723 -4.3419 -2.0536 0.9724
5.5178 -3.9277 -2.0832 0.9721
5.8572 -2.7567 -1.9911 0.9733
6.1716 -2.2565 -2.0212 0.9729
6.4441 -1.7223 -2.0516 0.9725
6.6703 -1.1574 -2.0823 0.9721
6.8460 -0.5657 -2.1129 0.9717
6.9673 0.0481 -2.1431 0.9713
7.0305 0.6789 -2.1725 0.9709
7.0326 1.3207 -2.2009 0.9705
6.6515 3.2435 -2.2762 0.9695
5.9934 3.6177 -2.1533 0.9711
4.7443 4.1761 -1.9440 0.9739
3.7498 4.7303 -1.8566 0.9751
3.1930 4.8637 -1.7895 0.9759
2.2460 5.2796 -1.7647 0.9763
1.7744 5.4856 -1.7733 0.9762
1.2943 5.6945 -1.7962 0.9759
0.2749 6.1356 -1.8891 0.9746
-2.2108 6.8387 -2.2106 0.9704
-2.7767 6.5306 -2.1827 0.9707
-3.7881 5.7724 -2.1236 0.9715
-4.9580 4.3657 -2.0319 0.9727
-2.5408 1.8627 -0.9690 0.9869
-5.9050 3.5657 -2.1217 0.9715
-6.1186 2.9850 -2.0940 0.9719
-6.2695 2.3923 -2.0640 0.9723
-6.4142 0.6206 -1.9821 0.9734
-6.3654 0.0451 -1.9579 0.9737
-6.2713 -0.5171 -1.9355 0.9740
-6.1340 -1.0633 -1.9148 0.9743
-5.4846 -2.5801 -1.8643 0.9750
-4.8754 -3.4691 -1.8404 0.9753
-4.5244 -3.8715 -1.8316 0.9754
-4.1453 -4.2439 -1.8247 0.9755
-3.7402 -4.5848 -1.8199 0.9755
-1.3972 -5.7725 -1.8268 0.9755
-0.3521 -5.9844 -1.8439 0.9752
0.1845 -6.0296 -1.8554 0.9751
1.2732 -5.9934 -1.8846 0.9747
1.8197 -5.9103 -1.9021 0.9745
3.4313 -5.3918 -1.9658 0.9736
4.4478 -4.8180 -2.0168 0.9729
4.9271 -4.4625 -2.0446 0.9726
5.8062 -3.6179 -2.1042 0.9718
5.7508 -2.9059 -1.9818 0.9734
6.3635 -1.8931 -2.0421 0.9726
6.6047 -1.3375 -2.0727 0.9722
6.7967 -0.7537 -2.1033 0.9718
6.9354 -0.1462 -2.1337 0.9714
7.0172 0.4799 -2.1634 0.9710
7.0387 1.1188 -2.1921 0.9706
6.7190 3.0467 -2.2692 0.9696
6.2153 3.5182 -2.1967 0.9706
5.5352 3.8230 -2.0691 0.9722
4.9244 4.0958 -1.9701 0.9736
4.3646 4.3450 -1.8943 0.9746
3.9106 4.6591 -1.8709 0.9749
3.3448 4.7967 -1.7986 0.9758
2.8646 5.0083 -1.7746 0.9761
1.4461 5.6285 -1.7874 0.9760
-0.1046 6.2990 -1.9377 0.9740
-2.0262 6.9243 -2.2191 0.9703
-2.6034 6.6326 -2.1916 0.9706
-3.6412 5.9023 -2.1331 0.9714
-4.0943 5.4748 -2.1027 0.9718
-4.8565 4.5240 -2.0415 0.9726
-5.4188 3.4827 -1.9813 0.9734
-6.2279 2.5784 -2.0732 0.9722
-6.3427 1.9840 -2.0441 0.9726
-6.3857 0.2241 -1.9653 0.9736
-6.1815 -0.8941 -1.9211 0.9742
-6.0158 -1.4276 -1.9017 0.9745
-5.5679 -2.4314 -1.8687 0.9749
-4.9793 -3.3371 -1.8436 0.9752
-4.6375 -3.7486 -1.8341 0.9754
-4.2670 -4.1306 -1.8266 0.9755
-3.8698 -4.4815 -1.8212 0.9755
-3.4480 -4.8000 -1.8178 0.9756
-3.0036 -5.0848 -1.8165 0.9756
-2.0558 -5.5485 -1.8200 0.9755
-1.0434 -5.8631 -1.8317 0.9754
0.0157 -6.0199 -1.8516 0.9751
2.1938 -5.8275 -1.9152 0.9743
2.7343 -5.6690 -1.9359 0.9740
4.2932 -4.9199 -2.0084 0.9730
4.7794 -4.5787 -2.0358 0.9727
5.2420 -4.1924 -2.0645 0.9723
6.0594 -3.2779 -2.1190 0.9716
6.5342 -1.5148 -2.0631 0.9723
6.7421 -0.9394 -2.0937 0.9719
7.0172 1.5619 -2.2111 0.9704
6.9314 2.2078 -2.2375 0.9700
6.7800 2.8484 -2.2620 0.9697
5.7397 3.7314 -2.1057 0.9718
5.1095 4.0132 -1.9984 0.9732
4.5354 4.2691 -1.9158 0.9743
4.0740 4.5867 -1.8869 0.9747
3.5610 4.8137 -1.8417 0.9753
3.0137 4.9427 -1.7806 0.9761
1.5965 5.5631 -1.7801 0.9761
0.2948 2.9156 -0.9014 0.9878
-0.9917 5.8709 -1.8314 0.9754
-2.4264 6.7297 -2.2003 0.9705
-2.9784 6.4026 -2.1719 0.9709
-4.3781 5.1613 -2.0817 0.9721
-5.3441 3.6500 -1.9905 0.9733
-6.3123 2.1702 -2.0531 0.9725
-6.0721 -1.2626 -1.9076 0.9744
-5.8790 -1.7824 -1.8895 0.9746
-5.6478 -2.2803 -1.8734 0.9748
-5.3808 -2.7542 -1.8592 0.9750
-4.7477 -3.6228 -1.8369 0.9753
-4.3860 -4.0142 -1.8288 0.9754
-3.9969 -4.3750 -1.8227 0.9755
-3.1451 -4.9993 -1.8167 0.9756
-2.6865 -5.2603 -1.8167 0.9756
-1.2055 -5.8241 -1.8293 0.9754
-0.1525 -6.0061 -1.8479 0.9752
0.9309 -6.0232 -1.8746 0.9748
3.1010 -5.5339 -1.9511 0.9738
3.6260 -5.2986 -1.9748 0.9735
5.0999 -4.3182 -2.0554 0.9724
5.5437 -3.9013 -2.0850 0.9720
5.9467 -3.4355 -2.1124 0.9717
5.8773 -2.7276 -1.9929 0.9732
6.4591 -1.6891 -2.0535 0.9724
6.8549 -0.5293 -2.1147 0.9716
6.9728 0.0857 -2.1448 0.9712
7.0324 0.7173 -2.1742 0.9709
5.9517 3.6364 -2.1453 0.9712
4.2060 4.4763 -1.8892 0.9746
3.1639 4.8765 -1.7879 0.9760
2.6879 5.0859 -1.7693 0.9762
2.2176 5.2920 -1.7648 0.9763
1.2649 5.7072 -1.7980 0.9758
-0.3197 6.3915 -1.9683 0.9736
-2.2459 6.8216 -2.2090 0.9704
-2.8096 6.5104 -2.1810 0.9708
-3.3342 6.1503 -2.1518 0.9711
-3.8158 5.7469 -2.1218 0.9715
-4.2515 5.3061 -2.0913 0.9719
-4.6390 4.8336 -2.0606 0.9724
-4.9769 4.3351 -2.0301 0.9728
-2.5638 1.8584 -0.9739 0.9868
-5.9203 3.5316 -2.1203 0.9716
-6.1292 2.9494 -2.0921 0.9719
-6.2769 2.3565 -2.0622 0.9723
-4.0108 4.7801 -2.0742 0.9740
-4.6667 3.8828 -2.0180 0.9747
-4.9259 3.4035 -1.9902 0.9751
-5.7172 2.5937 -2.0868 0.9739
-5.9302 1.4964 -2.0330 0.9745
-5.9656 0.9494 -2.0079 0.9749
-5.9556 0.4083 -1.9843 0.9752
-5.9017 -0.1234 -1.9622 0.9754
-5.8059 -0.6428 -1.9417 0.9757
-5.6698 -1.1471 -1.9229 0.9759
-5.4956 -1.6339 -1.9058 0.9761
-5.2851 -2.1008 -1.8905 0.9763
-4.7635 -2.9670 -1.8654 0.9766
-4.4564 -3.3627 -1.8557 0.9767
-4.1212 -3.7313 -1.8480 0.9768
-3.7598 -4.0712 -1.8421 0.9769
-3.3742 -4.3811 -1.8382 0.9770
-2.5389 -4.9058 -1.8361 0.9770
-1.6315 -5.2955 -1.8419 0.9769
-1.1560 -5.4370 -1.8477 0.9768
-0.1726 -5.6080 -1.8650 0.9766
1.3473 -5.5707 -1.9051 0.9761
1.8555 -5.4767 -1.9221 0.9759
2.8567 -5.1628 -1.9613 0.9754
3.3432 -4.9422 -1.9834 0.9752
3.8157 -4.6791 -2.0070 0.9749
4.2706 -4.3737 -2.0320 0.9746
4.7039 -4.0266 -2.0583 0.9742
5.6984 -2.0835 -2.0168 0.9747
5.9431 -1.5884 -2.0449 0.9744
6.3865 1.8019 -2.2058 0.9724
6.0827 2.9661 -2.2495 0.9719
4.1919 4.4135 -2.0233 0.9747
3.1890 4.8576 -1.9316 0.9758
2.7130 5.0671 -1.9106 0.9761
2.2432 5.2731 -1.9048 0.9761
-0.2841 6.3676 -2.1187 0.9735
-1.3322 5.8663 -1.9996 0.9750
-2.0267 6.2693 -2.1901 0.9726
-3.0352 5.6714 -2.1382 0.9732
-4.5759 4.0294 -2.0267 0.9746
-5.6662 2.7643 -2.0957 0.9738
-5.9095 1.6684 -2.0411 0.9744
-5.9232 0.0420 -1.9690 0.9753
-5.7166 -0.9909 -1.9286 0.9758
-4.8536 -2.8377 -1.8689 0.9766
-4.5557 -3.2416 -1.8586 0.9767
-4.2291 -3.6188 -1.8502 0.9768
-3.0966 -4.5759 -1.8366 0.9770
-1.7776 -5.2437 -1.8405 0.9769
-1.3063 -5.3966 -1.8457 0.9769
-0.8226 -5.5128 -1.8528 0.9768
0.6788 -5.6316 -1.8855 0.9764
1.1878 -5.5916 -1.9002 0.9762
2.2024 -5.3880 -1.9348 0.9758
2.7019 -5.2232 -1.9548 0.9755
3.1921 -5.0159 -1.9763 0.9753
3.6694 -4.7661 -1.9994 0.9750
4.5707 -4.1398 -2.0499 0.9743
4.9870 -3.7645 -2.0770 0.9740
5.3726 -3.3478 -2.1042 0.9737
5.3297 -2.6931 -1.9849 0.9751
2.3299 -0.9266 -0.8335 0.9895
5.8709 -1.7466 -2.0361 0.9745
6.2560 -0.6938 -2.0923 0.9738
6.3091 2.2059 -2.2217 0.9722
6.1460 2.7869 -2.2432 0.9720
5.9235 3.3530 -2.2626 0.9717
4.9176 4.0902 -2.1262 0.9734
4.3588 4.3393 -2.0445 0.9744
2.8610 5.0020 -1.9155 0.9760
2.3901 5.2088 -1.9050 0.9761
0.4781 2.9229 -0.9845 0.9876
0.2218 3.0426 -1.0140 0.9872
-0.1044 6.2905 -2.0913 0.9738
-0.6960 6.5441 -2.1876 0.9726
-1.1493 5.8092 -1.9684 0.9753
-2.3884 6.0847 -2.1728 0.9728
-2.8866 5.7768 -2.1466 0.9731
-3.3478 5.4267 -2.1195 0.9735
-3.7687 5.0394 -2.0917 0.9738
-4.1469 4.6201 -2.0637 0.9742
-2.4803 1.9274 -1.0441 0.9868
-5.6065 2.9322 -2.1031 0.9737
-5.7717 2.3895 -2.0764 0.9740
-5.8707 -0.3190 -1.9543 0.9755
-5.7596 -0.8331 -1.9345 0.9758
-5.6091 -1.3311 -1.9163 0.9760
-5.1976 -2.2697 -1.8853 0.9764
-4.9406 -2.7060 -1.8725 0.9765
-4.6522 -3.1179 -1.8616 0.9767
-3.2245 -4.4889 -1.8372 0.9770
-2.8091 -4.7555 -1.8359 0.9770
-1.9224 -5.1885 -1.8393 0.9769
-0.4845 -5.5708 -1.8588 0.9767
0.5197 -5.6358 -1.8813 0.9764
2.0445 -5.4309 -1.9289 0.9758
3.5215 -4.8489 -1.9920 0.9751
4.4352 -4.2489 -2.0416 0.9744
5.6031 -3.0310 -2.1176 0.9735
2.3143 -0.9963 -0.8375 0.9894
5.7946 -1.9020 -2.0273 0.9746
6.0236 -1.3964 -2.0554 0.9743
6.2080 -0.8649 -2.0835 0.9739
6.3479 2.0220 -2.2145 0.9723
6.2035 2.6062 -2.2367 0.9720
5.9996 3.1777 -2.2567 0.9718
5.7313 3.7259 -2.2723 0.9716
5.1023 4.0076 -2.1567 0.9730
4.5293 4.2634 -2.0676 0.9741
1.4487 3.7480 -1.3357 0.9832
0.2961 2.9292 -0.9786 0.9877
0.0708 6.2151 -2.0661 0.9741
-0.5049 6.4622 -2.1546 0.9730
-0.9918 5.8721 -1.9796 0.9752
-1.6843 6.4171 -2.2053 0.9724
-3.2075 5.5406 -2.1281 0.9734
-4.0332 4.7546 -2.0725 0.9741
-4.3810 4.3162 -2.0443 0.9744
-4.9401 3.3741 -1.9886 0.9751
-5.8541 2.0127 -2.0577 0.9742
-5.9336 1.4633 -2.0315 0.9746
-5.9663 0.9166 -2.0065 0.9749
-5.9536 0.3760 -1.9829 0.9752
-5.6604 -1.1770 -1.9218 0.9759
-4.4370 -3.3857 -1.8552 0.9767
-3.7372 -4.0907 -1.8418 0.9769
-3.3503 -4.3988 -1.8380 0.9770
-2.5125 -4.9195 -1.8362 0.9770
-2.0657 -5.1298 -1.8382 0.9770
-1.6032 -5.3051 -1.8422 0.9769
-1.1269 -5.4443 -1.8481 0.9768
-0.1425 -5.6108 -1.8657 0.9766
0.8687 -5.6214 -1.8908 0.9763
1.8860 -5.4697 -1.9232 0.9759
2.3899 -5.3314 -1.9421 0.9757
3.3721 -4.9276 -1.9848 0.9751
3.8436 -4.6619 -2.0084 0.9749
5.1355 -3.6140 -2.0874 0.9739
5.4324 -2.5211 -1.9908 0.9751
6.1553 -1.0340 -2.0747 0.9740
6.4081 0.0788 -2.1303 0.9733
6.4557 0.6585 -2.1571 0.9730
6.3808 1.8374 -2.2072 0.9724
6.0698 3.0004 -2.2507 0.9719
5.8253 3.5591 -2.2692 0.9716
5.2925 3.9225 -2.1898 0.9726
3.6490 4.6543 -1.9659 0.9754
3.1600 4.8704 -1.9298 0.9758
2.6846 5.0796 -1.9098 0.9761
2.2149 5.2855 -1.9049 0.9761
0.3571 2.7585 -0.9246 0.9883
-1.3707 5.8887 -2.0098 0.9748
-2.5786 5.9750 -2.1632 0.9729
-3.0634 5.6507 -2.1366 0.9733
-3.5098 5.2861 -2.1092 0.9736
-4.5937 4.0013 -2.0250 0.9746
-5.0894 3.0359 -1.9699 0.9753
-4.5746 3.1607 -1.9884 0.9767
-5.3196 2.4133 -2.0889 0.9755
-5.5277 1.3948 -2.0387 0.9761
-5.5654 0.8857 -2.0153 0.9763
-5.5604 0.3812 -1.9931 0.9766
-5.4284 -0.6010 -1.9531 0.9771
-5.3045 -1.0732 -1.9354 0.9773
-5.1445 -1.5295 -1.9193 0.9775
-4.9500 -1.9676 -1.9049 0.9776
-4.4652 -2.7812 -1.8812 0.9779
-3.8654 -3.4996 -1.8647 0.9781
-3.5271 -3.8192 -1.8591 0.9782
-2.7836 -4.3722 -1.8535 0.9782
-1.9639 -4.8020 -1.8553 0.9782
-1.5305 -4.9678 -1.8589 0.9782
-1.0842 -5.0995 -1.8644 0.9781
-0.6273 -5.1962 -1.8717 0.9780
-0.1618 -5.2569 -1.8808 0.9779
0.3097 -5.2807 -1.8917 0.9778
1.2613 -5.2149 -1.9187 0.9775
1.7360 -5.1240 -1.9347 0.9773
2.2063 -4.9938 -1.9523 0.9771
2.6692 -4.8240 -1.9715 0.9769
4.3810 -3.7502 -2.0623 0.9758
4.7565 -3.3858 -2.0879 0.9755
5.0921 -2.9784 -2.1096 0.9753
5.5084 -1.4723 -2.0390 0.9761
5.8268 -0.4815 -2.0908 0.9755
5.9174 0.0409 -2.1162 0.9752
5.9487 1.1171 -2.1645 0.9746
5.8855 1.6605 -2.1869 0.9744
5.0937 3.7329 -2.2583 0.9735
4.7313 4.1647 -2.2540 0.9736
3.9452 4.1538 -2.0486 0.9760
3.1850 4.8514 -2.0754 0.9756
2.7095 5.0608 -2.0528 0.9759
1.2664 3.9149 -1.4714 0.9827
0.3748 2.7774 -1.0022 0.9882
-0.2783 6.2381 -2.2330 0.9738
-0.8271 6.1376 -2.2147 0.9740
-1.3301 5.8569 -2.1478 0.9748
-2.3517 5.5310 -2.1493 0.9748
-4.2440 3.7371 -2.0222 0.9763
-2.5357 1.8590 -1.1244 0.9867
-4.7182 2.8491 -1.9710 0.9769
-5.2649 2.5685 -2.0949 0.9754
-5.5069 1.5548 -2.0463 0.9760
-5.5665 0.5385 -1.9999 0.9765
-5.5331 0.0392 -1.9787 0.9768
-5.4595 -0.4502 -1.9590 0.9770
-5.3473 -0.9269 -1.9408 0.9772
-4.7974 -2.2568 -1.8959 0.9777
-4.2714 -3.0393 -1.8747 0.9780
-3.9663 -3.3939 -1.8668 0.9781
-2.9055 -4.2935 -1.8539 0.9782
-2.0966 -4.7432 -1.8545 0.9782
-1.6677 -4.9195 -1.8576 0.9782
-0.7714 -5.1698 -1.8692 0.9780
-0.3084 -5.2418 -1.8777 0.9779
0.1615 -5.2773 -1.8881 0.9778
0.6359 -5.2754 -1.9002 0.9777
2.0597 -5.0388 -1.9466 0.9771
2.5252 -4.8814 -1.9654 0.9769
3.8511 -4.1715 -2.0303 0.9762
4.9933 -3.1114 -2.1040 0.9753
2.3314 -0.9272 -0.8972 0.9894
5.8942 -0.1243 -2.1083 0.9753
5.6564 2.5649 -2.2210 0.9740
5.4478 3.0837 -2.2386 0.9738
5.1863 3.5820 -2.2540 0.9736
4.8736 4.0537 -2.2669 0.9734
2.3871 5.2022 -2.0469 0.9760
1.3421 3.7840 -1.4358 0.9831
1.4424 5.6143 -2.0729 0.9757
0.2213 3.0362 -1.0886 0.9872
-0.1039 6.2583 -2.2383 0.9738
-0.6567 6.1749 -2.2206 0.9740
-1.7117 5.8496 -2.1796 0.9744
-2.2036 5.6140 -2.1567 0.9747
-2.6658 5.3349 -2.1327 0.9750
-3.0946 5.0164 -2.1078 0.9753
-3.4872 4.6630 -2.0822 0.9756
-3.8411 4.2793 -2.0564 0.9759
-5.2054 2.7224 -2.1007 0.9754
-5.3722 2.2241 -2.0793 0.9756
-5.5469 1.2043 -2.0298 0.9762
-5.5685 0.6965 -2.0068 0.9764
-5.4867 -0.2981 -1.9650 0.9769
-3.7418 -3.6222 -1.8624 0.9781
-3.3948 -3.9314 -1.8575 0.9782
-2.6358 -4.4621 -1.8533 0.9782
-1.3652 -5.0210 -1.8608 0.9781
-0.4543 -5.2231 -1.8749 0.9780
0.4869 -5.2800 -1.8962 0.9777
1.4390 -5.1855 -1.9245 0.9774
2.8395 -4.7503 -1.9791 0.9768
3.2870 -4.5260 -2.0003 0.9765
3.7193 -4.2622 -2.0229 0.9763
4.1330 -3.9594 -2.0468 0.9760
4.8490 -2.6231 -1.9715 0.9769
2.3117 -0.9951 -0.9000 0.9894
5.5810 -1.2938 -2.0487 0.9760
5.7460 -0.8006 -2.0747 0.9757
5.9611 0.7772 -2.1498 0.9748
5.8481 1.8628 -2.1949 0.9743
5.5189 2.9231 -2.2333 0.9738
5.2738 3.4285 -2.2495 0.9736
4.5231 4.2576 -2.2214 0.9740
3.0062 4.9302 -2.0650 0.9758
2.5340 5.1379 -2.0486 0.9760
1.4604 3.7783 -1.4486 0.9829
1.5925 5.5491 -2.0645 0.9758
1.1083 5.7593 -2.0973 0.9754
0.2811 2.7808 -0.9995 0.9882
0.0707 6.2067 -2.2197 0.9740
-0.4849 6.2069 -2.2264 0.9739
-1.5522 5.9138 -2.1864 0.9744
-2.5244 5.4267 -2.1403 0.9749
-3.7345 4.4025 -2.0645 0.9758
-4.0607 4.0006 -2.0385 0.9761
-4.5880 3.1336 -1.9869 0.9767
-5.3285 2.3828 -2.0874 0.9755
-5.4523 1.8746 -2.0618 0.9758
-5.5663 0.8551 -2.0139 0.9764
-5.5102 -0.1449 -1.9712 0.9769
-5.4220 -0.6299 -1.9520 0.9771
-5.2959 -1.1012 -1.9344 0.9773
-5.1337 -1.5564 -1.9184 0.9775
-4.4487 -2.8043 -1.8806 0.9779
-4.1606 -3.1748 -1.8715 0.9780
-3.8457 -3.5197 -1.8643 0.9781
-3.1434 -4.1271 -1.8552 0.9782
-2.7599 -4.3870 -1.8535 0.9782
-1.5039 -4.9767 -1.8592 0.9782
-0.5994 -5.2009 -1.8722 0.9780
-0.1336 -5.2594 -1.8814 0.9779
0.3383 -5.2810 -1.8924 0.9778
0.8136 -5.2649 -1.9051 0.9776
1.2900 -5.2105 -1.9196 0.9775
1.7645 -5.1173 -1.9357 0.9773
2.2344 -4.9847 -1.9535 0.9771
3.1483 -4.6006 -1.9935 0.9766
4.4044 -3.7293 -2.0638 0.9758
5.1107 -2.9525 -2.1107 0.9752
5.5205 -1.4437 -2.0406 0.9761
5.8336 -0.4505 -2.0923 0.9755
5.9596 0.6079 -2.1423 0.9749
5.9464 1.1499 -2.1659 0.9746
5.3562 3.2726 -2.2447 0.9737
5.0754 3.7616 -2.2591 0.9735
3.9153 4.1671 -2.0448 0.9760
3.1560 4.8642 -2.0735 0.9757
2.6812 5.0732 -2.0520 0.9759
2.2121 5.2789 -2.0468 0.9760
1.7415 5.4843 -2.0577 0.9759
0.3576 2.7627 -0.9962 0.9882
0.2417 6.1332 -2.1950 0.9743
-0.3118 6.2336 -2.2320 0.9738
-0.8597 6.1298 -2.2135 0.9740
-1.3683 5.8783 -2.1583 0.9747
-1.8987 5.7669 -2.1712 0.9745
-3.9629 4.1292 -2.0466 0.9760
-2.5569 1.8534 -1.1293 0.9867
-4.7298 2.8215 -1.9695 0.9769
-3.4534 4.1159 -2.0589 0.9772
-5.0908 1.7810 -2.0668 0.9772
-5.2092 0.3572 -2.0009 0.9779
-5.1693 -0.1081 -1.9814 0.9781
-4.9786 -1.0073 -1.9465 0.9785
-3.9298 -2.9654 -1.8866 0.9791
-2.9789 -3.8677 -1.8708 0.9793
-2.2417 -4.3315 -1.8690 0.9793
-1.8479 -4.5184 -1.8707 0.9793
-0.5899 -4.8868 -1.8863 0.9791
0.2911 -4.9631 -1.9052 0.9789
0.7375 -4.9482 -1.9172 0.9788
2.0696 -4.6844 -1.9625 0.9783
4.4427 -3.1624 -2.0898 0.9769
4.9254 -1.8009 -2.0097 0.9778
5.1273 -1.3704 -2.0339 0.9775
5.2912 -0.9181 -2.0580 0.9773
5.4141 -0.4474 -2.0819 0.9770
5.5274 0.5338 -2.1281 0.9765
5.4510 1.5379 -2.1705 0.9760
5.1766 2.5243 -2.2071 0.9756
4.9654 2.9971 -2.2226 0.9755
4.7063 3.4490 -2.2360 0.9753
3.1808 4.8452 -2.2211 0.9755
2.7061 5.0543 -2.1970 0.9757
2.2375 5.2598 -2.1905 0.9758
1.7677 5.4649 -2.2011 0.9757
1.2893 5.6727 -2.2293 0.9754
0.2602 5.8070 -2.2276 0.9754
-0.2574 5.7685 -2.2128 0.9756
-0.7653 5.6791 -2.1960 0.9758
-1.2583 5.5408 -2.1774 0.9760
-1.7316 5.3565 -2.1573 0.9762
-3.9526 3.4805 -2.0183 0.9777
-4.4019 2.6581 -1.9706 0.9782
-4.9095 2.3951 -2.0934 0.9769
-5.0570 1.9297 -2.0742 0.9771
-5.1504 1.4541 -2.0509 0.9773
-5.2137 0.5044 -2.0073 0.9778
-5.1859 0.0368 -1.9874 0.9780
-5.1201 -0.4222 -1.9688 0.9782
-4.8807 -1.3036 -1.9359 0.9786
-4.5083 -2.1208 -1.9093 0.9789
-4.0167 -2.8580 -1.8892 0.9791
-3.4203 -3.5017 -1.8758 0.9793
-3.0875 -3.7847 -1.8718 0.9793
-2.3618 -4.2666 -1.8688 0.9793
-1.5691 -4.6286 -1.8729 0.9793
-0.7255 -4.8623 -1.8839 0.9792
1.0445 -4.9170 -1.9263 0.9787
1.4904 -4.8407 -1.9410 0.9785
1.9324 -4.7275 -1.9572 0.9784
3.2065 -4.1648 -2.0143 0.9777
4.3366 -3.2736 -2.0822 0.9770
4.6591 -2.9032 -2.1037 0.9768
4.6078 -2.3283 -1.9784 0.9781
2.3328 -0.9278 -0.9621 0.9893
5.2441 -1.0620 -2.0504 0.9773
5.4735 -0.1154 -2.0980 0.9768
5.5219 0.3776 -2.1210 0.9766
5.2327 2.3727 -2.2018 0.9757
4.7925 3.3100 -2.2320 0.9754
3.6063 4.2965 -2.1496 0.9763
1.3179 3.7157 -1.5108 0.9833
-0.6076 5.7124 -2.2015 0.9757
-1.1058 5.5892 -2.1834 0.9759
-1.5858 5.4190 -2.1637 0.9761
-2.0430 5.2048 -2.1427 0.9763
-2.4735 4.9500 -2.1206 0.9766
-3.2412 4.3340 -2.0739 0.9771
-3.5732 3.9809 -2.0500 0.9773
-3.8681 3.6032 -2.0258 0.9776
-4.3419 2.7906 -1.9779 0.9781
-4.5197 2.3638 -1.9546 0.9784
-5.0188 2.0778 -2.0816 0.9770
-5.1256 1.6033 -2.0581 0.9773
-5.1904 1.1269 -2.0354 0.9775
-5.1447 -0.2795 -1.9745 0.9782
-5.0537 -0.7310 -1.9568 0.9784
-4.7671 -1.5923 -1.9261 0.9787
-4.1010 -2.7484 -1.8919 0.9791
-3.8230 -3.0902 -1.8838 0.9792
-3.1941 -3.6990 -1.8728 0.9793
-2.8468 -3.9631 -1.8700 0.9793
-2.4803 -4.1989 -1.8688 0.9793
-2.0964 -4.4049 -1.8695 0.9793
-0.8604 -4.8345 -1.8818 0.9792
0.0129 -4.9543 -1.8986 0.9790
0.4576 -4.9617 -1.9095 0.9789
1.3510 -4.8686 -1.9362 0.9786
1.7945 -4.7669 -1.9519 0.9784
3.4811 -3.9892 -2.0290 0.9776
3.8653 -3.7030 -2.0513 0.9773
4.5646 -3.0249 -2.0985 0.9768
4.5239 -2.4472 -1.9710 0.9782
5.3420 -0.7443 -2.0669 0.9772
5.4490 -0.2676 -2.0907 0.9769
5.5117 0.2221 -2.1139 0.9766
5.5279 0.7207 -2.1363 0.9764
4.8741 3.1687 -2.2279 0.9754
3.7569 4.2296 -2.1679 0.9761
3.2841 4.4394 -2.1162 0.9766
3.0023 4.9239 -2.2100 0.9756
1.1068 5.7518 -2.2446 0.9752
0.2791 2.7605 -1.0633 0.9882
0.0661 5.7987 -2.2223 0.9755
-0.9515 5.6330 -2.1892 0.9758
-1.4376 5.4772 -2.1701 0.9760
-1.9024 5.2764 -2.1494 0.9763
-2.3417 5.0340 -2.1276 0.9765
-3.1298 4.4389 -2.0814 0.9770
-3.4731 4.0944 -2.0575 0.9773
-3.7798 3.7239 -2.0334 0.9775
-4.4683 2.4986 -1.9619 0.9783
-5.0968 1.7523 -2.0654 0.9772
-5.2112 0.8006 -2.0205 0.9777
-5.2079 0.3289 -1.9997 0.9779
-5.1657 -0.1358 -1.9803 0.9781
-4.8208 -1.4616 -1.9305 0.9787
-4.6384 -1.8727 -1.9169 0.9788
-4.1826 -2.6366 -1.8947 0.9790
-3.6175 -3.3109 -1.8793 0.9792
-3.2985 -3.6106 -1.8741 0.9793
-2.9578 -3.8834 -1.8707 0.9793
-2.5971 -4.1282 -1.8690 0.9793
-1.8237 -4.5286 -1.8709 0.9793
-1.4149 -4.6822 -1.8745 0.9793
-0.9943 -4.8033 -1.8798 0.9792
-0.5637 -4.8911 -1.8868 0.9791
0.3179 -4.9632 -1.9059 0.9789
1.6561 -4.8028 -1.9468 0.9785
2.0959 -4.6757 -1.9636 0.9783
2.5280 -4.5114 -1.9818 0.9781
3.3568 -4.0714 -2.0222 0.9776
3.7471 -3.7965 -2.0442 0.9774
4.1169 -3.4859 -2.0673 0.9772
4.7038 -2.1830 -1.9873 0.9780
4.9386 -1.7756 -2.0112 0.9778
5.1383 -1.3437 -2.0353 0.9775
5.5279 0.5639 -2.1294 0.9765
5.4456 1.5681 -2.1717 0.9760
5.3303 2.0658 -2.1907 0.9758
5.1653 2.5533 -2.2081 0.9756
4.3816 3.8989 -2.2476 0.9752
3.9101 4.1614 -2.1882 0.9758
3.1519 4.8579 -2.2192 0.9755
2.6778 5.0668 -2.1962 0.9757
1.2601 5.6854 -2.2316 0.9754
0.3725 2.8776 -1.1119 0.9876
-0.2883 5.7645 -2.2118 0.9756
-0.7955 5.6721 -2.1949 0.9758
-1.2874 5.5310 -2.1762 0.9760
-1.7594 5.3440 -2.1560 0.9762
-2.6267 4.8452 -2.1121 0.9767
-3.6878 3.8425 -2.0409 0.9774
-3.9685 3.4567 -2.0168 0.9777
-2.5534 1.8509 -1.2085 0.9866
-4.4130 2.6325 -1.9692 0.9782
-3.5148 3.5004 -2.0302 0.9788
-2.4033 1.9996 -1.2795 0.9866
-2.5923 1.7911 -1.2896 0.9865
-4.6446 2.1071 -2.0874 0.9782
-4.7739 1.6701 -2.0699 0.9784
-4.8525 1.2245 -2.0483 0.9786
-1.9511 0.1338 -0.8004 0.9916
-1.9184 -0.0401 -0.7853 0.9917
-4.6856 -0.9480 -1.9566 0.9796
-4.5486 -1.3523 -1.9422 0.9797
-4.1828 -2.1126 -1.9179 0.9800
-3.4290 -3.1046 -1.8931 0.9802
-3.1300 -3.3892 -1.8881 0.9803
-2.8100 -3.6485 -1.8848 0.9803
-2.1147 -4.0862 -1.8831 0.9803
-1.3582 -4.4085 -1.8880 0.9803
-0.9619 -4.5239 -1.8929 0.9802
0.2743 -4.6769 -1.9174 0.9800
1.1153 -4.6111 -1.9416 0.9797
2.3526 -4.2519 -1.9888 0.9792
3.8405 -3.2875 -2.0690 0.9784
4.1633 -2.9635 -2.0915 0.9782
4.4468 -2.6010 -2.1084 0.9780
4.3871 -2.0648 -1.9845 0.9793
4.6051 -1.6838 -2.0068 0.9790
4.9393 -0.8571 -2.0518 0.9786
5.1482 0.4971 -2.1168 0.9779
5.1318 0.9637 -2.1370 0.9777
5.0701 1.4305 -2.1561 0.9775
4.9626 1.8926 -2.1738 0.9773
4.6107 2.7831 -2.2042 0.9770
4.0838 3.5947 -2.2267 0.9768
3.0077 4.5814 -2.2430 0.9766
2.5873 4.8325 -2.2435 0.9766
1.6820 5.1999 -2.2368 0.9767
1.2075 5.3125 -2.2297 0.9767
-0.7112 5.2779 -2.1797 0.9772
-1.1701 5.1525 -2.1625 0.9774
-1.6113 4.9843 -2.1439 0.9776
-2.0308 4.7761 -2.1241 0.9778
-2.7907 4.2525 -2.0817 0.9783
-3.1255 3.9442 -2.0597 0.9785
-3.4274 3.6099 -2.0373 0.9787
-3.6946 3.2532 -2.0148 0.9789
-2.4958 1.8297 -1.2665 0.9867
-4.2788 2.0874 -1.9485 0.9796
-2.2009 0.4137 -0.9165 0.9904
-1.9579 0.1894 -0.8051 0.9915
-1.9052 0.0135 -0.7798 0.9918
-4.5950 -1.2272 -1.9465 0.9797
-4.4364 -1.6212 -1.9331 0.9798
-3.7869 -2.6946 -1.9022 0.9801
-3.2260 -3.3027 -1.8895 0.9802
-2.5791 -3.8113 -1.8834 0.9803
-2.2281 -4.0250 -1.8829 0.9803
-1.8611 -4.2103 -1.8840 0.9803
-1.4801 -4.3660 -1.8868 0.9803
-0.6841 -4.5849 -1.8972 0.9802
0.9836 -4.6305 -1.9374 0.9797
1.4029 -4.5566 -1.9513 0.9796
2.2265 -4.3041 -1.9833 0.9793
3.3824 -3.6639 -2.0408 0.9787
4.0648 -3.0683 -2.0844 0.9782
4.3620 -2.7181 -2.1035 0.9780
2.3344 -0.9284 -1.0282 0.9892
4.7359 -1.4089 -2.0222 0.9789
4.8966 -0.9916 -2.0447 0.9786
5.0198 -0.5567 -2.0671 0.9784
5.1030 -0.1076 -2.0890 0.9782
5.1418 0.8173 -2.1308 0.9777
4.6777 2.6478 -2.1999 0.9770
4.4488 3.0727 -2.2129 0.9769
4.1773 3.4744 -2.2237 0.9768
3.8655 3.8482 -2.2323 0.9767
3.0967 4.4409 -2.2158 0.9769
1.3572 5.2825 -2.2322 0.9767
0.4774 2.9188 -1.2105 0.9873
-0.0892 5.3737 -2.1996 0.9770
-1.0281 5.1965 -2.1680 0.9774
-2.3044 4.6116 -2.1099 0.9780
-3.0241 4.0438 -2.0666 0.9784
-3.3365 3.7172 -2.0443 0.9786
-3.6147 3.3671 -2.0218 0.9789
-4.0638 2.6118 -1.9771 0.9793
-4.6988 1.9453 -2.0814 0.9783
-4.8078 1.5039 -2.0617 0.9785
-4.8719 1.0578 -2.0404 0.9787
-1.9528 0.2443 -0.8055 0.9915
-1.9303 0.0677 -0.7905 0.9917
-1.9436 -0.1056 -0.7966 0.9916
-4.4894 -1.4995 -1.9372 0.9798
-4.3100 -1.8821 -1.9248 0.9799
-4.1017 -2.2465 -1.9140 0.9800
-3.8661 -2.5910 -1.9048 0.9801
-3.3199 -3.2138 -1.8911 0.9802
-2.6855 -3.7386 -1.8840 0.9803
-2.3398 -3.9611 -1.8829 0.9803
-1.9776 -4.1554 -1.8835 0.9803
-1.6008 -4.3204 -1.8857 0.9803
-0.8113 -4.5589 -1.8952 0.9802
1.6887 -4.4857 -1.9617 0.9795
2.0995 -4.3529 -1.9779 0.9793
2.5016 -4.1851 -1.9955 0.9791
2.8922 -3.9824 -2.0144 0.9790
3.6264 -3.4741 -2.0554 0.9785
3.9639 -3.1702 -2.0773 0.9783
4.2350 -2.2909 -1.9706 0.9794
4.6782 -1.5356 -2.0152 0.9789
4.8502 -1.1244 -2.0377 0.9787
4.9854 -0.6946 -2.0601 0.9785
5.0813 -0.2496 -2.0822 0.9783
5.1359 0.2070 -2.1037 0.9780
5.1473 0.6711 -2.1245 0.9778
5.1141 1.1383 -2.1443 0.9776
5.0353 1.6039 -2.1629 0.9774
4.9107 2.0630 -2.1800 0.9772
3.9673 3.7344 -2.2299 0.9767
3.2185 4.3507 -2.2149 0.9769
2.8537 4.6802 -2.2435 0.9766
1.4551 3.7646 -1.6518 0.9827
0.2783 2.7531 -1.1325 0.9881
0.0614 5.3846 -2.2039 0.9770
-0.4167 5.3336 -2.1896 0.9771
-0.8844 5.2363 -2.1734 0.9773
-2.4137 1.9864 -1.2794 0.9866
-4.1842 2.3397 -1.9620 0.9795
-4.8560 1.1976 -2.0470 0.9786
-1.9869 0.3052 -0.8227 0.9913
-1.9232 -0.0506 -0.7874 0.9917
-4.6783 -0.9728 -1.9557 0.9796
-4.5394 -1.3762 -1.9414 0.9797
-4.3694 -1.7641 -1.9285 0.9798
-4.1699 -2.1344 -1.9172 0.9800
-3.9427 -2.4853 -1.9075 0.9801
-3.6893 -2.8152 -1.8993 0.9801
-3.4116 -3.1224 -1.8928 0.9802
-3.1113 -3.4056 -1.8879 0.9803
-2.7901 -3.6633 -1.8846 0.9803
-2.4500 -3.8944 -1.8830 0.9803
-2.0928 -4.0976 -1.8831 0.9803
-1.7203 -4.2719 -1.8848 0.9803
-1.3346 -4.4163 -1.8882 0.9803
-0.5315 -4.6116 -1.8999 0.9801
0.2996 -4.6769 -1.9181 0.9799
0.7200 -4.6591 -1.9295 0.9798
1.5586 -4.5201 -1.9569 0.9795
2.3768 -4.2414 -1.9899 0.9792
3.1521 -3.8231 -2.0280 0.9788
3.5163 -3.5626 -2.0487 0.9786
3.8606 -3.2689 -2.0704 0.9784
4.1819 -2.9429 -2.0929 0.9781
4.4627 -2.5781 -2.1094 0.9780
4.4011 -2.0425 -1.9858 0.9792
4.6173 -1.6601 -2.0082 0.9790
4.8002 -1.2553 -2.0307 0.9788
4.9471 -0.8310 -2.0531 0.9786
5.0556 -0.3904 -2.0753 0.9783
5.1485 0.5252 -2.1181 0.9779
4.7986 2.3720 -2.1908 0.9771
3.3419 4.2626 -2.2168 0.9769
1.6537 5.2081 -2.2364 0.9767
-1.1973 5.1436 -2.1614 0.9774
-1.6372 4.9729 -2.1427 0.9776
-2.0553 4.7624 -2.1229 0.9778
-2.8118 4.2348 -2.0804 0.9783
-3.4445 3.5890 -2.0359 0.9787
-4.7475 1.7823 -2.0755 0.9783
-3.2941 3.2805 -2.0261 0.9799
-2.5102 1.7344 -1.3297 0.9868
-4.0604 1.8421 -1.9432 0.9807
-1.5929 0.5573 -0.7355 0.9927
-1.5094 0.2402 -0.6661 0.9934
-1.5294 0.1049 -0.6681 0.9933
-1.5265 -0.0319 -0.6654 0.9934
-1.5242 -0.1688 -0.6683 0.9933
-1.5090 -0.3053 -0.6709 0.9933
-1.5725 -0.4675 -0.7150 0.9929
-4.1360 -1.6441 -1.9397 0.9808
-3.9507 -1.9954 -1.9289 0.9809
-3.2410 -2.9344 -1.9054 0.9811
-2.6566 -3.4494 -1.8975 0.9812
-0.9091 -4.2760 -1.9052 0.9811
-0.5256 -4.3543 -1.9114 0.9810
-0.1355 -4.4017 -1.9192 0.9810
0.6559 -4.4011 -1.9393 0.9808
1.0526 -4.3522 -1.9515 0.9807
1.4468 -4.2705 -1.9651 0.9805
2.9466 -3.6134 -2.0320 0.9799
3.2886 -3.3680 -2.0515 0.9797
3.9126 -2.7850 -2.0930 0.9793
4.1750 -2.4420 -2.1079 0.9791
4.1174 -1.9378 -1.9832 0.9803
4.6260 -0.8027 -2.0462 0.9797
4.7892 0.0331 -2.0873 0.9793
4.2980 2.5943 -2.1879 0.9783
3.8042 3.3486 -2.2087 0.9781
3.5017 3.6868 -2.2160 0.9781
3.1659 3.9937 -2.2211 0.9780
2.4089 4.4993 -2.2242 0.9780
1.9961 4.6922 -2.2223 0.9780
1.5664 4.8424 -2.2181 0.9780
0.3926 2.9095 -1.2795 0.9873
-0.2229 4.9961 -2.1796 0.9784
-1.0922 4.8092 -2.1493 0.9787
-1.5048 4.6549 -2.1321 0.9789
-2.2675 4.2369 -2.0943 0.9793
-2.6112 3.9791 -2.0742 0.9794
-3.8692 2.3364 -1.9699 0.9805
-4.4522 1.6989 -2.0768 0.9794
-1.5647 0.4418 -0.7086 0.9929
-1.4967 0.2813 -0.6637 0.9934
-1.5268 0.1477 -0.6685 0.9933
-1.5238 0.0108 -0.6641 0.9934
-1.5285 -0.1260 -0.6684 0.9933
-1.5034 -0.2606 -0.6650 0.9934
-1.5969 -0.5835 -0.7409 0.9926
-3.8078 -2.2263 -1.9223 0.9809
-3.0495 -3.1220 -1.9020 0.9811
-2.7533 -3.3751 -1.8983 0.9812
-1.7595 -3.9806 -1.8967 0.9812
-1.3992 -4.1274 -1.8993 0.9812
-1.0276 -4.2452 -1.9036 0.9811
-0.6466 -4.3330 -1.9093 0.9811
2.0990 -4.0576 -1.9910 0.9803
2.4737 -3.8870 -2.0080 0.9801
3.5126 -3.1814 -2.0654 0.9795
3.8208 -2.8842 -2.0863 0.9793
4.5870 -0.9289 -2.0397 0.9798
4.6991 -0.5211 -2.0605 0.9796
4.7738 -0.1007 -2.0810 0.9794
4.8092 0.3289 -2.1008 0.9792
4.8039 0.7636 -2.1199 0.9790
4.7567 1.1994 -2.1379 0.9788
4.3610 2.4685 -2.1840 0.9784
3.6002 3.5841 -2.2140 0.9781
3.2745 3.9012 -2.2197 0.9780
2.9178 4.1844 -2.2232 0.9780
1.2640 4.9199 -2.2138 0.9781
0.8169 4.9950 -2.2058 0.9782
-0.0832 5.0099 -2.1837 0.9784
-0.5266 4.9510 -2.1699 0.9785
-0.9594 4.8495 -2.1545 0.9787
-1.3775 4.7074 -2.1376 0.9788
-2.1543 4.3113 -2.1004 0.9792
-2.4214 1.8816 -1.3364 0.9867
-3.8148 2.4518 -1.9763 0.9804
-3.9767 2.0798 -1.9558 0.9806
-4.4126 1.8269 -2.0814 0.9794
-1.5211 0.3302 -0.6784 0.9932
-1.5283 0.0536 -0.6665 0.9933
-1.5363 -0.3646 -0.6881 0.9931
-1.5879 -0.5304 -0.7296 0.9927
-4.0700 -1.7773 -1.9355 0.9808
-3.8745 -2.1221 -1.9253 0.9809
-3.6529 -2.4481 -1.9165 0.9810
-3.1381 -3.0378 -1.9035 0.9811
-1.8697 -3.9287 -1.8962 0.9812
-0.3806 -4.3756 -1.9142 0.9810
0.0115 -4.4113 -1.9225 0.9809
0.4072 -4.4151 -1.9324 0.9808
1.5929 -4.2314 -1.9705 0.9805
1.9795 -4.1042 -1.9859 0.9803
2.3575 -3.9440 -2.0025 0.9802
2.7240 -3.7509 -2.0203 0.9800
3.4116 -3.2683 -2.0590 0.9796
4.0142 -2.6601 -2.0987 0.9792
3.9763 -2.1510 -1.9703 0.9805
4.3864 -1.4398 -2.0120 0.9801
4.5445 -1.0535 -2.0331 0.9799
4.8024 0.1936 -2.0947 0.9792
4.8100 0.6271 -2.1140 0.9791
4.6998 1.4970 -2.1496 0.9787
4.2177 2.7419 -2.1924 0.9783
3.9754 3.1225 -2.2031 0.9782
3.6953 3.4783 -2.2117 0.9781
3.0326 4.0995 -2.2224 0.9780
2.6569 4.3575 -2.2242 0.9780
1.4980 3.8757 -1.8109 0.9820
1.4025 4.8872 -2.2159 0.9781
0.9576 4.9763 -2.2086 0.9781
0.0572 5.0194 -2.1877 0.9783
-0.3886 4.9741 -2.1744 0.9785
-0.8252 4.8857 -2.1594 0.9786
-1.2484 4.7561 -2.1430 0.9788
-1.6541 4.5875 -2.1253 0.9789
-2.0387 4.3825 -2.1065 0.9791
-2.3991 4.1441 -2.0869 0.9793
-3.0366 3.5798 -2.0458 0.9797
-3.3096 3.2607 -2.0248 0.9799
-2.5402 1.7350 -1.3406 0.9867
-4.0678 1.8190 -1.9420 0.9807
-1.5428 0.3805 -0.6925 0.9931
-1.5273 -0.0402 -0.6658 0.9934
-1.5230 -0.1769 -0.6682 0.9933
-1.5753 -0.4776 -0.7174 0.9928
-3.9386 -2.0160 -1.9283 0.9809
-2.9412 -3.2194 -1.9004 0.9812
-2.3164 -3.6820 -1.8958 0.9812
-0.8862 -4.2815 -1.9055 0.9811
-0.1118 -4.4035 -1.9197 0.9810
0.2830 -4.4174 -1.9291 0.9809
0.6798 -4.3991 -1.9400 0.9808
1.0765 -4.3482 -1.9522 0.9806
1.4705 -4.2645 -1.9659 0.9805
1.8592 -4.1476 -1.9809 0.9804
2.2402 -3.9977 -1.9972 0.9802
2.6106 -3.8149 -2.0146 0.9800
2.9677 -3.5995 -2.0332 0.9798
3.6304 -3.0739 -2.0731 0.9795
4.3302 -1.5569 -2.0054 0.9801
4.6331 -0.7783 -2.0475 0.9797
4.7917 0.0589 -2.0885 0.9793
4.8121 0.4909 -2.1081 0.9791
4.4749 2.2121 -2.1755 0.9785
4.2854 2.6183 -2.1887 0.9783
3.7869 3.3698 -2.2092 0.9781
3.4824 3.7062 -2.2164 0.9781
3.1447 4.0111 -2.2213 0.9780
2.3846 4.5121 -2.2242 0.9780
0.1980 5.0245 -2.1915 0.9783
-0.2497 4.9930 -2.1787 0.9784
-1.1175 4.8010 -2.1483 0.9787
-1.5291 4.6444 -2.1310 0.9789
