ply
format ascii 1.0
element vertex 1589
property float32 x
property float32 y
property float32 z
property float32 I
end_header
1.8138 -11.5339 -1.6543 0.9539
2.8833 -11.5166 -1.6821 0.9532
3.9726 -11.4243 -1.7138 0.9523
5.0792 -11.2530 -1.7493 0.9513
6.2001 -10.9984 -1.7889 0.9503
8.4693 -10.2199 -1.8807 0.9478
14.8293 -3.8410 -2.1705 0.9400
15.6398 -2.5899 -2.2462 0.9380
14.8951 -1.1158 -2.1164 0.9414
11.7091 0.1706 -1.6592 0.9538
10.9199 1.1387 -1.5556 0.9566
9.3638 1.8323 -1.3519 0.9622
8.1181 2.3571 -1.1978 0.9664
6.0991 3.7443 -1.0140 0.9715
5.3019 3.9469 -0.9365 0.9737
4.2785 4.5724 -0.8873 0.9750
3.7678 4.8261 -0.8675 0.9756
3.2186 4.9827 -0.8405 0.9763
1.8468 5.8557 -0.8700 0.9755
1.3022 5.9295 -0.8602 0.9758
0.2421 6.4507 -0.9146 0.9743
-1.0035 7.0614 -1.0106 0.9716
-7.5680 17.4517 -2.6952 0.9260
-9.8642 14.8012 -2.5202 0.9307
-12.5839 9.0906 -2.1996 0.9392
-13.2215 3.6343 -1.9428 0.9461
-12.9406 1.1623 -1.8409 0.9489
-12.6786 0.0031 -1.7964 0.9501
-12.3449 -1.1028 -1.7561 0.9512
-11.9454 -2.1543 -1.7198 0.9521
-10.9702 -4.0930 -1.6590 0.9538
-10.4035 -4.9799 -1.6342 0.9545
-8.4311 -7.3122 -1.5813 0.9559
-6.0806 -9.1142 -1.5524 0.9567
-4.3319 -9.9761 -1.5410 0.9570
-0.5919 -11.3026 -1.6037 0.9553
2.5263 -11.5305 -1.6725 0.9534
3.6093 -11.4635 -1.7029 0.9526
8.0917 -10.3751 -1.8643 0.9482
12.6830 -6.3112 -2.0072 0.9444
2.3325 -0.9111 -0.3548 0.9899
15.4261 -1.6162 -2.1977 0.9393
12.6956 -0.1912 -1.7990 0.9500
8.4880 2.1941 -1.2422 0.9652
7.4935 2.6700 -1.1271 0.9684
6.8278 3.1448 -1.0651 0.9701
6.2811 3.6043 -1.0261 0.9712
3.9346 4.7432 -0.8732 0.9754
1.5106 6.0214 -0.8796 0.9752
0.4922 3.1200 -0.4475 0.9873
0.4276 6.3597 -0.9031 0.9746
-0.1519 6.8386 -0.9692 0.9727
-1.4717 7.2278 -1.0451 0.9706
-4.0810 13.6650 -2.0207 0.9440
-7.1242 17.8597 -2.7244 0.9253
-2.3410 2.1572 -0.4510 0.9872
-12.4456 9.5642 -2.2240 0.9386
-13.2041 5.3846 -2.0205 0.9440
-13.2335 4.0628 -1.9614 0.9456
-13.1662 2.7862 -1.9068 0.9471
-12.4631 -0.7421 -1.7690 0.9508
-12.0848 -1.8117 -1.7314 0.9518
-9.9981 -5.5421 -1.6197 0.9549
-9.3540 -6.3377 -1.6009 0.9554
-8.6676 -7.0786 -1.5856 0.9558
-7.1778 -8.3967 -1.5652 0.9564
-6.3750 -8.9684 -1.5591 0.9565
-5.4930 -9.4046 -1.5432 0.9570
-3.7458 -10.2633 -1.5480 0.9568
-2.8533 -10.6993 -1.5689 0.9563
-0.9231 -11.2405 -1.5980 0.9555
0.0844 -11.4063 -1.6162 0.9550
1.1165 -11.5059 -1.6379 0.9544
2.1717 -11.5363 -1.6633 0.9537
3.2481 -11.4941 -1.6924 0.9529
5.4554 -11.1768 -1.7622 0.9510
7.7144 -10.5196 -1.8483 0.9487
9.9899 -9.4829 -1.9516 0.9459
2.3199 -0.9864 -0.3572 0.9899
11.3399 -2.5757 -1.6477 0.9541
15.8934 -2.1428 -2.2723 0.9373
14.9019 -0.6662 -2.1135 0.9415
11.7943 0.5271 -1.6728 0.9534
10.3965 1.4015 -1.4864 0.9585
8.9033 2.0221 -1.2936 0.9638
7.7939 2.5196 -1.1606 0.9675
4.5231 4.2934 -0.8836 0.9751
3.5157 4.7940 -0.8423 0.9763
2.5852 5.2963 -0.8351 0.9765
2.1743 5.6941 -0.8636 0.9757
1.6784 5.9388 -0.8744 0.9754
0.5794 3.0775 -0.4437 0.9874
0.0485 6.5457 -0.9275 0.9739
-0.5747 6.9991 -0.9950 0.9720
-1.2378 7.1569 -1.0291 0.9711
-9.1751 15.7097 -2.5777 0.9291
-10.1870 14.3316 -2.4913 0.9314
-11.7388 11.4784 -2.3263 0.9358
-12.7097 8.6116 -2.1753 0.9399
-13.1987 3.2042 -1.9244 0.9466
-12.8607 0.7660 -1.8255 0.9493
-12.2174 -1.4631 -1.7434 0.9515
-10.7848 -4.3978 -1.6503 0.9540
-10.2018 -5.2663 -1.6267 0.9547
-9.5724 -6.0799 -1.6068 0.9552
-8.1864 -7.5434 -1.5773 0.9560
-7.4350 -8.1933 -1.5676 0.9563
0.7716 -11.4804 -1.6303 0.9546
1.8194 -11.5340 -1.6545 0.9539
7.3376 -10.6537 -1.8329 0.9491
9.6134 -9.6828 -1.9333 0.9464
10.7457 -9.0446 -1.9901 0.9448
11.8639 -8.2975 -2.0513 0.9432
12.9588 -7.4367 -2.1170 0.9414
14.8337 -3.8347 -2.1709 0.9400
15.6438 -2.5830 -2.2466 0.9380
14.8786 -1.1075 -2.1140 0.9415
11.6985 0.1759 -1.6577 0.9538
10.9113 1.1430 -1.5545 0.9566
9.3562 1.8354 -1.3509 0.9622
5.2988 3.9484 -0.9363 0.9737
2.2693 5.4525 -0.8368 0.9764
1.2996 5.9308 -0.8603 0.9758
0.7856 6.1837 -0.8832 0.9751
-0.3618 6.9111 -0.9806 0.9724
-1.0071 7.0632 -1.0109 0.9716
-6.1836 18.6402 -2.7826 0.9237
-7.5749 17.4451 -2.6947 0.9260
-8.8038 16.1543 -2.6067 0.9284
-9.8694 14.7939 -2.5198 0.9307
-10.7741 13.3875 -2.4349 0.9329
-2.4252 2.1034 -0.4549 0.9871
-13.1269 6.2838 -2.0621 0.9429
-13.2253 4.9346 -2.0001 0.9446
-13.1232 2.3670 -1.8894 0.9476
-7.3049 -6.7248 -1.6357 0.9605
-6.6393 -7.3095 -1.6267 0.9608
-5.2066 -8.3284 -1.6181 0.9610
-2.8324 -9.4671 -1.6279 0.9607
-0.2294 -10.1075 -1.6655 0.9598
0.6809 -10.2019 -1.6844 0.9594
2.5532 -10.1984 -1.7319 0.9583
3.5103 -10.0949 -1.7607 0.9576
4.4774 -9.9196 -1.7929 0.9568
5.4508 -9.6692 -1.8286 0.9560
6.4266 -9.3404 -1.8678 0.9551
7.3999 -8.9295 -1.9105 0.9541
8.3650 -8.4332 -1.9568 0.9530
9.3154 -7.8483 -2.0067 0.9518
10.2437 -7.1715 -2.0600 0.9506
13.1871 -2.1837 -2.2020 0.9473
11.6796 0.1701 -1.9243 0.9538
9.4712 1.8533 -1.5899 0.9616
7.2537 2.8294 -1.2827 0.9689
5.2318 3.8947 -1.0745 0.9739
4.2733 4.5669 -1.0303 0.9750
3.2149 4.9769 -0.9761 0.9763
2.2691 5.4449 -0.9718 0.9764
0.7110 3.2372 -0.5460 0.9867
-6.2695 14.4575 -2.5960 0.9381
-7.3294 13.4639 -2.5254 0.9397
-9.7558 10.1313 -2.3170 0.9446
-11.3305 5.4304 -2.0699 0.9503
-11.3369 1.0183 -1.8751 0.9549
-11.1408 0.0027 -1.8353 0.9558
-10.8771 -0.9716 -1.7990 0.9567
-10.5510 -1.9028 -1.7662 0.9575
-10.1672 -2.7894 -1.7368 0.9582
-9.7298 -3.6302 -1.7108 0.9588
-8.1338 -5.8698 -1.6524 0.9602
-7.5176 -6.5200 -1.6393 0.9605
-6.8639 -7.1211 -1.6294 0.9607
-4.6998 -8.6233 -1.6179 0.9610
-3.9171 -9.0209 -1.6201 0.9609
-3.1069 -9.3650 -1.6255 0.9608
-0.5269 -10.0626 -1.6600 0.9600
0.3769 -10.1775 -1.6778 0.9596
1.2995 -10.2299 -1.6988 0.9591
3.1917 -10.1370 -1.7508 0.9578
5.1276 -9.7608 -1.8164 0.9563
9.0023 -8.0523 -1.9897 0.9522
10.8475 -6.6667 -2.0975 0.9497
2.3337 -0.9116 -0.4127 0.9899
12.9913 -2.5487 -2.1810 0.9477
13.5532 -1.4200 -2.2450 0.9463
9.9048 1.6352 -1.6538 0.9601
7.5808 2.7012 -1.3258 0.9679
6.6681 3.0713 -1.2094 0.9707
4.8913 4.1168 -1.0532 0.9744
3.9299 4.7376 -1.0140 0.9754
3.3403 4.8496 -0.9701 0.9764
2.8742 5.0927 -0.9634 0.9766
2.0086 5.7673 -1.0061 0.9755
1.4979 5.9708 -1.0141 0.9754
0.4245 6.3141 -1.0425 0.9747
-0.7001 6.2507 -1.0362 0.9748
-4.0598 13.5939 -2.3372 0.9441
-5.8909 14.7680 -2.6193 0.9376
-6.9917 13.8021 -2.5488 0.9392
-11.0005 6.9873 -2.1469 0.9485
-11.2652 5.8155 -2.0885 0.9499
-11.4295 4.6610 -2.0334 0.9512
-11.5002 3.5307 -1.9818 0.9524
-11.4836 2.4301 -1.9337 0.9535
-11.2135 0.3350 -1.8481 0.9555
-8.8914 -4.9287 -1.6748 0.9596
-8.3293 -5.6434 -1.6575 0.9600
-5.6959 -8.0131 -1.6196 0.9609
-3.3785 -9.2569 -1.6234 0.9608
-1.6980 -9.8166 -1.6412 0.9604
-0.8221 -10.0112 -1.6548 0.9601
2.8743 -10.1714 -1.7412 0.9581
4.8048 -9.8438 -1.8045 0.9566
5.7795 -9.5674 -1.8414 0.9557
7.7262 -8.7721 -1.9257 0.9537
8.6871 -8.2463 -1.9732 0.9526
10.5498 -6.9224 -2.0787 0.9501
2.3158 -0.9846 -0.4145 0.9899
11.3477 -2.5775 -1.9170 0.9539
13.3766 -1.8034 -2.2236 0.9468
13.8773 -0.6204 -2.2884 0.9452
10.3751 1.3986 -1.7246 0.9584
9.0632 2.0584 -1.5311 0.9630
7.9239 2.5616 -1.3719 0.9668
5.5786 3.6604 -1.0992 0.9733
5.0592 4.0083 -1.0633 0.9742
3.5116 4.7883 -0.9782 0.9762
3.0546 5.0564 -0.9732 0.9763
2.5822 5.2902 -0.9698 0.9764
-0.5454 6.6421 -1.0979 0.9733
-3.9348 14.7562 -2.5159 0.9400
-7.6582 13.1124 -2.5016 0.9403
-8.5501 12.0288 -2.4312 0.9419
-9.3162 10.8986 -2.3620 0.9435
-9.9586 9.7377 -2.2945 0.9451
-11.1888 6.2025 -2.1075 0.9495
-11.3858 5.0414 -2.0513 0.9508
-11.4270 1.7133 -1.9035 0.9542
-10.7740 -1.2902 -1.7876 0.9570
-10.0256 -3.0778 -1.7277 0.9584
-9.5711 -3.9029 -1.7028 0.9590
-7.9305 -6.0942 -1.6477 0.9603
-7.3015 -6.7280 -1.6356 0.9605
-5.2026 -8.3308 -1.6181 0.9610
-4.4393 -8.7631 -1.6183 0.9610
-3.6472 -9.1428 -1.6216 0.9609
-2.8280 -9.4687 -1.6280 0.9607
-1.1150 -9.9532 -1.6499 0.9602
1.6142 -10.2331 -1.7066 0.9589
2.5583 -10.1980 -1.7321 0.9583
3.5154 -10.0942 -1.7609 0.9576
5.4560 -9.6677 -1.8288 0.9560
6.4318 -9.3384 -1.8680 0.9551
8.3700 -8.4304 -1.9571 0.9530
11.1414 -6.3937 -2.1162 0.9493
11.8856 -4.2353 -2.0786 0.9501
12.5736 -3.2504 -2.1395 0.9487
13.7221 -1.0214 -2.2668 0.9457
10.8878 1.1406 -1.8035 0.9566
7.2488 2.8314 -1.2820 0.9689
5.2291 3.8965 -1.0743 0.9739
4.6434 4.1532 -1.0263 0.9751
4.2705 4.5682 -1.0302 0.9750
3.7607 4.8217 -1.0074 0.9755
2.2666 5.4462 -0.9718 0.9764
0.7097 3.2388 -0.5462 0.9866
0.2364 6.3805 -1.0518 0.9744
-4.7276 14.2512 -2.4735 0.9409
-6.2754 14.4524 -2.5956 0.9381
-8.2684 12.3941 -2.4544 0.9414
-2.4222 2.1008 -0.5282 0.9871
-11.1013 6.5911 -2.1269 0.9490
-11.3314 5.4243 -2.0696 0.9503
-11.4635 4.2772 -2.0157 0.9516
-11.3360 1.0128 -1.8749 0.9549
-11.1395 -0.0025 -1.8351 0.9558
-8.5987 -3.5017 -1.7451 0.9629
-8.1578 -4.2063 -1.7252 0.9633
-7.6737 -4.8689 -1.7082 0.9637
-7.1494 -5.4886 -1.6941 0.9640
-6.5875 -6.0643 -1.6830 0.9642
-5.3606 -7.0802 -1.6692 0.9645
-3.2956 -8.2502 -1.6699 0.9645
-2.5554 -8.5413 -1.6757 0.9644
-1.7925 -8.7808 -1.6845 0.9642
2.2892 -9.1440 -1.7717 0.9624
3.1420 -9.0356 -1.7981 0.9618
3.9999 -8.8617 -1.8275 0.9612
5.7158 -8.3073 -1.8953 0.9598
6.5648 -7.9218 -1.9338 0.9590
9.0081 -6.3065 -2.0669 0.9562
9.7535 -5.6033 -2.1143 0.9553
10.3400 -3.6900 -2.0636 0.9563
10.8976 -2.8226 -2.1159 0.9552
11.3880 -1.8858 -2.1696 0.9541
11.8006 -0.8840 -2.2243 0.9530
11.6501 0.1697 -2.1900 0.9537
10.8727 1.1338 -2.0547 0.9565
9.4531 1.8498 -1.8105 0.9616
8.3261 2.4174 -1.6296 0.9653
7.3964 2.8851 -1.4922 0.9682
6.5332 3.2471 -1.3713 0.9707
5.7887 3.5537 -1.2767 0.9727
3.7588 4.8146 -1.1481 0.9754
3.1447 4.8683 -1.0894 0.9767
2.2206 5.3285 -1.0850 0.9768
1.7473 5.5400 -1.0919 0.9766
-0.3411 6.5747 -1.2375 0.9736
-0.8528 6.0008 -1.1393 0.9756
-4.0098 12.1065 -2.3971 0.9494
-4.9607 11.4394 -2.3436 0.9505
-7.1029 10.6578 -2.4074 0.9492
-7.8288 9.7371 -2.3484 0.9504
-8.4519 8.7772 -2.2903 0.9516
-2.4171 2.0984 -0.6017 0.9871
-9.3959 6.7876 -2.1787 0.9539
-9.7227 5.7788 -2.1259 0.9550
-10.1065 3.7763 -2.0279 0.9570
-10.1618 1.8378 -1.9410 0.9588
-10.0785 0.9053 -1.9020 0.9597
-9.9276 0.0024 -1.8660 0.9604
-9.7136 -0.8677 -1.8330 0.9611
-9.1133 -2.5003 -1.7762 0.9623
-8.7348 -3.2589 -1.7524 0.9628
-8.3089 -3.9772 -1.7315 0.9632
-7.8388 -4.6539 -1.7135 0.9636
-7.3276 -5.2880 -1.6985 0.9639
-6.1922 -6.4242 -1.6771 0.9643
-2.0478 -8.7072 -1.6813 0.9642
-1.2708 -8.9114 -1.6919 0.9640
-0.4745 -9.0611 -1.7055 0.9637
1.1675 -9.1904 -1.7413 0.9630
2.8585 -9.0787 -1.7890 0.9620
3.7151 -8.9268 -1.8174 0.9614
4.5744 -8.7077 -1.8488 0.9608
7.1254 -7.6224 -1.9612 0.9584
8.7493 -6.5198 -2.0509 0.9566
9.5182 -5.8498 -2.0999 0.9555
9.5100 -4.7323 -1.9966 0.9577
2.3352 -0.9122 -0.4712 0.9898
10.7197 -3.1181 -2.0984 0.9556
11.2335 -2.2039 -2.1517 0.9545
12.0278 -0.1811 -2.2610 0.9522
11.4333 0.8509 -2.1550 0.9544
6.8080 3.1357 -1.4088 0.9700
6.0232 3.4563 -1.3053 0.9721
4.4425 4.4744 -1.1851 0.9747
3.9252 4.7319 -1.1556 0.9753
3.2967 4.7864 -1.0924 0.9766
1.9055 5.4711 -1.0889 0.9767
0.4746 3.0088 -0.5725 0.9877
0.4144 6.1638 -1.1612 0.9752
-0.6746 6.0226 -1.1391 0.9756
-1.4742 7.2396 -1.3887 0.9704
-4.6550 11.6698 -2.3615 0.9501
-7.5995 10.0474 -2.3679 0.9500
-8.2567 9.0990 -2.3094 0.9512
-2.3425 2.1586 -0.5987 0.9871
-9.2666 7.1212 -2.1967 0.9535
-9.6247 6.1134 -2.1432 0.9547
-9.8899 5.1055 -2.0920 0.9557
-10.0666 4.1052 -2.0434 0.9567
-10.1737 2.1529 -1.9546 0.9586
-9.9849 0.2983 -1.8776 0.9602
-9.7913 -0.5830 -1.8436 0.9609
-8.4552 -3.7436 -1.7381 0.9631
-7.5015 -5.0825 -1.7031 0.9638
-6.9642 -5.6875 -1.6901 0.9641
-5.7819 -6.7637 -1.6725 0.9644
-3.0489 -8.3539 -1.6715 0.9645
-2.3008 -8.6279 -1.6784 0.9643
-1.5307 -8.8496 -1.6881 0.9641
0.0675 -9.1301 -1.7161 0.9635
1.7283 -9.1808 -1.7559 0.9627
2.5757 -9.1146 -1.7803 0.9622
3.4305 -8.9845 -1.8077 0.9616
4.2894 -8.7880 -1.8381 0.9610
5.1483 -8.5225 -1.8715 0.9603
6.0029 -8.1857 -1.9080 0.9595
7.6783 -7.2887 -1.9899 0.9578
2.3117 -0.9829 -0.4721 0.9898
10.5347 -3.4058 -2.0810 0.9559
11.5361 -1.5553 -2.1880 0.9537
11.9202 -0.5329 -2.2428 0.9526
11.7924 0.5270 -2.2187 0.9531
7.9944 2.5844 -1.5792 0.9664
7.0995 3.0184 -1.4500 0.9691
6.2695 3.3549 -1.3365 0.9715
4.9479 3.9201 -1.1865 0.9746
4.0939 4.6480 -1.1642 0.9751
3.4487 4.7026 -1.0961 0.9765
2.5294 5.1818 -1.0838 0.9768
2.0623 5.4010 -1.0867 0.9767
0.5525 2.9349 -0.5613 0.9879
0.5899 6.0778 -1.1478 0.9755
0.0471 6.3526 -1.1941 0.9745
-1.0718 6.1972 -1.1821 0.9747
-4.3397 11.8912 -2.3793 0.9498
-6.0922 10.4311 -2.2705 0.9520
-7.3589 10.3529 -2.3874 0.9496
-8.0502 9.4175 -2.3287 0.9508
-8.6388 8.4472 -2.2710 0.9520
-9.1266 7.4538 -2.2149 0.9532
-9.5165 6.4480 -2.1607 0.9543
-9.8120 5.4392 -2.1087 0.9554
-10.1416 1.5206 -1.9275 0.9591
-9.6280 -1.1530 -1.8226 0.9613
-9.3364 -1.9755 -1.7937 0.9619
-8.9913 -2.7603 -1.7679 0.9624
-8.5965 -3.5055 -1.7450 0.9629
-6.5844 -6.0672 -1.6829 0.9642
-5.9872 -6.5978 -1.6746 0.9644
-4.6967 -7.5206 -1.6666 0.9646
-3.2918 -8.2519 -1.6699 0.9645
-2.5515 -8.5427 -1.6758 0.9644
-1.7884 -8.7820 -1.6845 0.9642
-1.0046 -8.9680 -1.6962 0.9639
0.6166 -9.1734 -1.7281 0.9633
4.8637 -8.6183 -1.8601 0.9605
5.7203 -8.3054 -1.8955 0.9598
7.4051 -7.4585 -1.9755 0.9581
9.0122 -6.3031 -2.0671 0.9562
9.7570 -5.5992 -2.1145 0.9552
9.7283 -4.4810 -2.0132 0.9573
10.3431 -3.6856 -2.0638 0.9563
10.9004 -2.8179 -2.1162 0.9552
10.8642 1.1381 -2.0532 0.9565
9.4465 1.8531 -1.8094 0.9616
6.5290 3.2488 -1.3707 0.9708
5.1380 3.8286 -1.2044 0.9743
4.2653 4.5627 -1.1740 0.9749
3.7562 4.8159 -1.1480 0.9754
3.1423 4.8696 -1.0893 0.9767
2.6827 5.1064 -1.0842 0.9768
2.2181 5.3296 -1.0851 0.9768
1.7448 5.5411 -1.0919 0.9766
0.6699 3.0571 -0.5883 0.9873
-0.8558 6.0015 -1.1395 0.9756
-4.0150 12.1032 -2.3968 0.9494
-5.8270 10.6921 -2.2888 0.9516
-7.1070 10.6531 -2.4071 0.9492
-8.4549 8.7720 -2.2900 0.9516
-9.3979 6.7823 -2.1784 0.9539
-10.1729 2.7912 -1.9828 0.9580
-10.0779 0.9004 -1.9018 0.9597
-9.9266 -0.0023 -1.8658 0.9604
-8.1457 -2.4965 -1.8009 0.9658
-6.9727 -4.4242 -1.7456 0.9668
-5.4530 -6.0035 -1.7144 0.9674
-4.2804 -6.8468 -1.7068 0.9675
-3.6529 -7.2023 -1.7070 0.9675
-3.0007 -7.5119 -1.7099 0.9675
-1.6308 -7.9888 -1.7235 0.9672
0.5557 -8.3264 -1.7639 0.9665
1.3102 -8.3317 -1.7828 0.9661
2.0731 -8.2805 -1.8044 0.9657
2.8413 -8.1710 -1.8286 0.9652
3.6115 -8.0012 -1.8556 0.9647
6.6300 -6.6841 -1.9900 0.9622
8.0312 -5.6226 -2.0723 0.9607
8.6674 -4.9794 -2.1129 0.9600
8.6240 -3.9773 -2.0075 0.9619
9.1434 -3.2630 -2.0521 0.9611
9.6083 -2.4887 -2.0980 0.9602
10.3418 -0.7747 -2.1922 0.9585
10.7579 1.1218 -2.2863 0.9567
9.4349 1.8462 -2.0322 0.9615
8.3117 2.4133 -1.8295 0.9652
7.3784 2.8781 -1.6741 0.9681
6.5894 3.2750 -1.5554 0.9704
5.8993 3.6216 -1.4632 0.9721
4.6437 4.1496 -1.3164 0.9749
3.7543 4.8089 -1.2896 0.9754
3.1252 4.8381 -1.2175 0.9767
2.6626 5.0624 -1.2091 0.9769
2.2052 5.2916 -1.2118 0.9768
0.2386 6.3588 -1.3451 0.9743
-0.3475 6.6992 -1.4180 0.9729
-2.5763 10.9783 -2.3836 0.9549
-4.3188 9.9592 -2.2946 0.9566
-5.0846 9.3403 -2.2479 0.9575
-5.7736 8.6632 -2.2006 0.9583
-7.4480 7.7346 -2.2697 0.9570
-2.4141 2.0958 -0.6758 0.9870
-8.8741 4.2531 -2.0801 0.9606
-9.0289 3.3737 -2.0374 0.9614
-9.1096 2.5040 -1.9970 0.9621
-9.1200 1.6494 -1.9591 0.9628
-8.9452 0.0022 -1.8908 0.9641
-8.7677 -0.7832 -1.8607 0.9647
-8.5351 -1.5393 -1.8332 0.9652
-8.2508 -2.2636 -1.8085 0.9656
-7.5405 -3.6094 -1.7671 0.9664
-7.1208 -4.2276 -1.7505 0.9667
-6.6616 -4.8074 -1.7365 0.9670
-6.1659 -5.3476 -1.7252 0.9672
-5.6359 -5.8471 -1.7166 0.9673
-5.0741 -6.3046 -1.7107 0.9675
-4.4826 -6.7191 -1.7073 0.9675
-3.2196 -7.4144 -1.7086 0.9675
-2.5521 -7.6928 -1.7133 0.9674
-1.1558 -8.1044 -1.7304 0.9671
-0.4312 -8.2346 -1.7430 0.9668
2.5862 -8.2139 -1.8203 0.9654
4.1255 -7.8532 -1.8751 0.9644
4.8904 -7.5789 -1.9066 0.9638
7.8070 -5.8176 -2.0580 0.9610
8.4713 -5.2063 -2.1018 0.9602
8.4412 -4.2005 -1.9930 0.9622
2.3368 -0.9128 -0.5303 0.9898
10.5194 -0.1584 -2.2238 0.9579
10.7136 0.7973 -2.2709 0.9570
8.6586 2.2382 -1.8904 0.9641
7.6744 2.7345 -1.7221 0.9672
6.8385 3.1498 -1.5915 0.9697
2.8150 4.9877 -1.2106 0.9769
2.3568 5.2148 -1.2097 0.9769
1.4294 5.6974 -1.2416 0.9763
0.4700 2.9794 -0.6376 0.9877
-0.1462 6.5813 -1.3915 0.9734
-1.4794 7.2653 -1.5672 0.9701
-4.0487 10.1497 -2.3098 0.9563
-4.8390 9.5525 -2.2635 0.9572
-5.5538 8.8935 -2.2164 0.9580
-2.3433 2.1593 -0.6736 0.9871
-8.9860 3.6645 -2.0513 0.9611
-9.0908 2.7910 -2.0101 0.9619
-8.9913 0.2686 -1.9014 0.9639
-8.8329 -0.5259 -1.8704 0.9645
-8.3506 -2.0271 -1.8164 0.9655
-8.0336 -2.7291 -1.7935 0.9659
-7.6706 -3.3962 -1.7732 0.9663
-6.8181 -4.6195 -1.7409 0.9669
-6.3342 -5.1730 -1.7287 0.9671
-5.2637 -6.1576 -1.7123 0.9674
-4.0719 -6.9716 -1.7066 0.9675
-1.3924 -8.0499 -1.7268 0.9672
0.0613 -8.2925 -1.7529 0.9667
0.8087 -8.3344 -1.7700 0.9663
2.3314 -8.2502 -1.8122 0.9656
3.8707 -7.9301 -1.8653 0.9646
4.6375 -7.6769 -1.8959 0.9640
5.3969 -7.3593 -1.9291 0.9634
6.1440 -6.9756 -1.9649 0.9627
8.2550 -5.4167 -2.0871 0.9604
8.2535 -4.4167 -1.9787 0.9625
9.3065 -3.0087 -2.0675 0.9608
10.6591 0.4764 -2.2554 0.9573
9.0298 2.0508 -1.9573 0.9629
7.9810 2.5800 -1.7730 0.9663
7.0996 3.0184 -1.6307 0.9690
6.3475 3.3966 -1.5217 0.9710
5.6677 3.7188 -1.4329 0.9727
5.0294 3.9847 -1.3563 0.9741
4.0890 4.6423 -1.3077 0.9750
3.4394 4.6899 -1.2294 0.9765
1.5864 5.6135 -1.2331 0.9764
0.5974 6.1550 -1.3072 0.9750
-8.0742 6.5942 -2.2036 0.9583
-8.4429 5.7206 -2.1557 0.9592
-8.7288 4.8387 -2.1096 0.9600
-9.0642 3.0794 -2.0235 0.9616
-9.1208 2.2142 -1.9840 0.9624
-8.8918 -0.2655 -1.8804 0.9643
-8.1440 -2.5001 -1.8008 0.9658
-7.7959 -3.1790 -1.7796 0.9662
-6.9704 -4.4273 -1.7455 0.9668
-6.4986 -4.9939 -1.7324 0.9670
-5.9910 -5.5205 -1.7220 0.9672
-4.2771 -6.8488 -1.7068 0.9675
-2.9972 -7.5135 -1.7099 0.9675
-2.3224 -7.7758 -1.7154 0.9674
-1.6271 -7.9898 -1.7236 0.9672
0.5597 -8.3265 -1.7640 0.9665
2.8454 -8.1702 -1.8288 0.9652
3.6155 -8.0001 -1.8557 0.9647
6.6338 -6.6817 -1.9903 0.9622
7.3482 -6.1850 -2.0302 0.9615
8.6704 -4.9757 -2.1131 0.9600
9.6106 -2.4844 -2.0983 0.9602
10.0125 -1.6532 -2.1451 0.9594
10.3433 -0.7699 -2.1924 0.9585
10.5947 0.1593 -2.2398 0.9576
9.4283 1.8496 -2.0309 0.9615
8.3063 2.4159 -1.8286 0.9653
7.3740 2.8803 -1.6734 0.9682
6.5856 3.2769 -1.5549 0.9704
4.6408 4.1509 -1.3161 0.9749
4.2601 4.5571 -1.3186 0.9748
2.2028 5.2928 -1.2118 0.9768
1.7417 5.5315 -1.2258 0.9766
-0.9018 6.3247 -1.3504 0.9742
-5.7770 8.6595 -2.2004 0.9583
-6.3861 7.9350 -2.1530 0.9592
-2.4161 2.0955 -0.6760 0.9870
-8.6430 5.1315 -2.1247 0.9597
-8.8751 4.2484 -2.0799 0.9606
-9.0295 3.3691 -2.0372 0.9614
-9.1099 2.4995 -1.9968 0.9621
-9.1199 1.6449 -1.9589 0.9628
-7.4380 -2.2796 -1.8284 0.9685
-7.1276 -2.9026 -1.8087 0.9689
-6.7754 -3.4935 -1.7916 0.9692
-5.9560 -4.5725 -1.7647 0.9696
-5.4940 -5.0576 -1.7550 0.9698
-1.4947 -7.3221 -1.7564 0.9698
-0.1718 -7.5675 -1.7790 0.9694
0.5083 -7.6165 -1.7940 0.9691
1.1974 -7.6145 -1.8116 0.9688
1.8926 -7.5598 -1.8316 0.9685
3.2890 -7.2868 -1.8789 0.9677
3.9831 -7.0656 -1.9063 0.9672
4.6692 -6.7861 -1.9359 0.9667
6.6331 -5.5884 -2.0384 0.9650
7.7915 -4.4762 -2.1119 0.9638
7.7395 -3.5694 -2.0031 0.9656
8.1869 -2.9217 -2.0430 0.9649
9.3957 0.1369 -2.2084 0.9621
9.4166 1.8427 -2.2551 0.9613
8.2972 2.4090 -2.0306 0.9651
3.7498 4.8030 -1.4321 0.9753
1.6207 3.8889 -0.9902 0.9828
0.6538 2.9769 -0.7163 0.9876
0.4019 3.1512 -0.7466 0.9870
-0.8508 5.9870 -1.4212 0.9755
-5.1307 7.6987 -2.1744 0.9627
-6.1717 6.4093 -2.0912 0.9641
-7.4709 5.3970 -2.1661 0.9628
-7.9954 3.8320 -2.0838 0.9642
-8.1515 3.0458 -2.0452 0.9649
-8.2646 1.4947 -1.9739 0.9661
-8.1328 0.0020 -1.9114 0.9671
-7.7814 -1.4034 -1.8583 0.9680
-7.5312 -2.0662 -1.8354 0.9684
-7.2353 -2.6995 -1.8150 0.9688
-6.8967 -3.3012 -1.7970 0.9691
-6.5179 -3.8697 -1.7815 0.9693
-5.6508 -4.9009 -1.7580 0.9697
-5.1672 -5.3609 -1.7499 0.9699
-4.1118 -6.1631 -1.7412 0.9700
-3.5442 -6.5031 -1.7406 0.9700
-2.9530 -6.8005 -1.7425 0.9700
-1.7082 -7.2630 -1.7536 0.9698
-0.3948 -7.5402 -1.7746 0.9695
0.2817 -7.6059 -1.7888 0.9692
0.9681 -7.6209 -1.8055 0.9689
1.6616 -7.5839 -1.8247 0.9686
2.3593 -7.4932 -1.8463 0.9682
5.1211 -6.5662 -1.9571 0.9664
5.7838 -6.1872 -1.9906 0.9658
7.0414 -5.2471 -2.0638 0.9646
2.3384 -0.9134 -0.5900 0.9897
8.8160 -1.7296 -2.1115 0.9638
9.3373 -0.1406 -2.1947 0.9624
9.4871 0.7060 -2.2358 0.9617
9.5548 1.5774 -2.2760 0.9610
8.6431 2.2341 -2.0981 0.9640
6.8281 3.1450 -1.7668 0.9696
4.8921 4.1175 -1.5028 0.9741
4.4315 4.4633 -1.4782 0.9745
3.9157 4.7204 -1.4414 0.9751
3.3363 4.8438 -1.3823 0.9761
2.8616 5.0704 -1.3684 0.9764
0.8152 3.2493 -0.7873 0.9863
0.4254 6.3275 -1.4905 0.9743
-2.8109 9.4122 -2.3086 0.9604
-3.5781 8.9701 -2.2697 0.9611
-4.2866 8.4620 -2.2294 0.9618
-5.5096 7.2842 -2.1465 0.9632
-2.3441 2.1601 -0.7492 0.9870
-7.3556 5.6526 -2.1802 0.9626
-7.6785 4.8772 -2.1379 0.9633
-8.2181 2.5230 -2.0204 0.9653
-8.2635 1.7487 -1.9851 0.9659
-8.0385 -0.4786 -1.8926 0.9675
-7.8537 -1.1774 -1.8664 0.9679
-6.6478 -3.6850 -1.7864 0.9693
-6.2438 -4.2304 -1.7725 0.9695
-4.8270 -5.6467 -1.7459 0.9699
-4.2943 -6.0413 -1.7420 0.9700
-3.1515 -6.7067 -1.7416 0.9700
-1.9198 -7.1989 -1.7510 0.9699
-1.2760 -7.3769 -1.7595 0.9697
-0.6165 -7.5076 -1.7704 0.9695
0.7396 -7.6216 -1.7997 0.9690
1.4311 -7.6020 -1.8180 0.9687
2.8263 -7.4021 -1.8622 0.9680
3.5234 -7.2187 -1.8879 0.9675
4.2153 -6.9780 -1.9160 0.9671
4.8977 -6.6786 -1.9465 0.9665
6.2155 -5.9001 -2.0141 0.9654
2.3070 -0.9809 -0.5892 0.9898
8.3265 -2.6919 -2.0566 0.9647
9.2705 -0.4145 -2.1809 0.9626
9.4462 0.4221 -2.2223 0.9619
9.0129 2.0470 -2.1722 0.9627
7.0885 3.0137 -1.8103 0.9688
6.3382 3.3917 -1.6895 0.9709
4.5291 4.2991 -1.4676 0.9747
4.0840 4.6366 -1.4521 0.9749
3.4973 4.7689 -1.3899 0.9760
3.0176 4.9951 -1.3715 0.9763
2.5499 5.2240 -1.3662 0.9764
2.0849 5.4601 -1.3736 0.9763
1.6133 5.7084 -1.3941 0.9759
0.0483 6.5117 -1.5305 0.9736
-0.5590 6.8078 -1.6054 0.9723
-1.0515 6.0798 -1.4501 0.9750
-2.5446 9.5427 -2.3211 0.9602
-4.7250 8.0901 -2.2019 0.9622
-6.8042 6.6532 -2.2366 0.9617
-7.2322 5.9066 -2.1946 0.9624
-7.8534 4.3535 -2.1104 0.9638
-8.1887 2.7820 -2.0326 0.9651
-8.2555 2.0042 -1.9966 0.9657
-8.2589 1.2383 -1.9627 0.9663
-8.2021 0.4885 -1.9311 0.9668
-8.0883 -0.2415 -1.9018 0.9673
-7.9207 -0.9485 -1.8748 0.9678
-7.7024 -1.6298 -1.8503 0.9682
-7.4365 -2.2829 -1.8282 0.9685
-7.1259 -2.9058 -1.8086 0.9689
-6.7734 -3.4965 -1.7915 0.9692
-5.9537 -4.5751 -1.7647 0.9696
-4.9974 -5.5071 -1.7478 0.9699
-3.3476 -6.6081 -1.7410 0.9700
-2.7489 -6.8909 -1.7436 0.9700
-2.1294 -7.1297 -1.7488 0.9699
-1.4913 -7.3230 -1.7564 0.9698
-0.8368 -7.4695 -1.7665 0.9696
4.6728 -6.7845 -1.9361 0.9667
5.3464 -6.4453 -1.9681 0.9662
8.1892 -2.9181 -2.0432 0.9649
9.1956 -0.6845 -2.1671 0.9628
9.4100 1.8460 -2.2537 0.9614
8.2919 2.4117 -2.0295 0.9651
7.3622 2.8757 -1.8576 0.9680
6.5758 3.2721 -1.7262 0.9703
4.7070 4.2101 -1.4842 0.9744
0.2379 6.4192 -1.5097 0.9740
-0.3511 6.7065 -1.5784 0.9728
-0.8538 5.9877 -1.4215 0.9755
-3.0756 9.2712 -2.2957 0.9607
-5.1338 7.6955 -2.1742 0.9627
-5.6888 7.0686 -2.1325 0.9634
-7.4726 5.3929 -2.1658 0.9628
-7.7707 4.6136 -2.1239 0.9635
-8.1521 3.0417 -2.0450 0.9649
-8.2405 2.2610 -2.0083 0.9655
-8.2646 1.4906 -1.9737 0.9661
-8.2274 0.7351 -1.9413 0.9666
-8.1321 -0.0019 -1.9112 0.9671
-6.8376 -2.0956 -1.8517 0.9709
-6.5580 -2.6706 -1.8334 0.9712
-6.2386 -3.2167 -1.8174 0.9714
-5.4907 -4.2152 -1.7923 0.9718
-4.6129 -5.0786 -1.7764 0.9720
-3.6234 -5.7960 -1.7698 0.9722
-1.9675 -6.5763 -1.7773 0.9720
-1.3784 -6.7526 -1.7844 0.9719
-0.1583 -6.9719 -1.8056 0.9716
1.7396 -6.9486 -1.8547 0.9708
2.3791 -6.8419 -1.8755 0.9705
3.6490 -6.4730 -1.9239 0.9698
4.8815 -5.8905 -1.9808 0.9689
7.0695 -4.0613 -2.1110 0.9669
8.5264 0.8891 -2.2196 0.9652
7.3548 2.8688 -2.0440 0.9679
6.5698 3.2652 -1.8995 0.9701
5.2671 3.9209 -1.7001 0.9732
4.2522 4.5444 -1.6114 0.9746
3.1996 4.9533 -1.5268 0.9759
1.6119 3.8679 -1.0850 0.9828
1.7831 5.6535 -1.5349 0.9758
0.6550 2.9827 -0.7907 0.9875
0.2405 6.4093 -1.6606 0.9738
-0.8498 5.9800 -1.5639 0.9754
-3.4204 7.8875 -2.2260 0.9651
-4.6118 6.9200 -2.1532 0.9662
-5.1208 6.3691 -2.1160 0.9668
-5.5691 5.7834 -2.0788 0.9674
-6.7670 4.8884 -2.1614 0.9661
-7.4225 2.7734 -2.0516 0.9678
-7.5260 0.6760 -1.9565 0.9693
-7.4490 0.0018 -1.9287 0.9697
-7.3207 -0.6540 -1.9030 0.9701
-6.9211 -1.8988 -1.8582 0.9708
-6.6552 -2.4831 -1.8392 0.9711
-5.6242 -4.0587 -1.7958 0.9717
-5.2109 -4.5194 -1.7859 0.9719
-4.2938 -5.3351 -1.7732 0.9721
-3.7944 -5.6875 -1.7703 0.9721
-3.2708 -6.0014 -1.7697 0.9722
-2.7249 -6.2754 -1.7714 0.9721
-1.5755 -6.6989 -1.7818 0.9720
-0.3638 -6.9481 -1.8015 0.9717
0.8909 -7.0129 -1.8303 0.9712
1.5278 -6.9729 -1.8482 0.9709
2.1671 -6.8830 -1.8684 0.9706
2.8058 -6.7420 -1.8907 0.9703
3.4402 -6.5488 -1.9153 0.9699
4.6812 -6.0021 -1.9708 0.9690
6.4064 -4.7740 -2.0686 0.9675
6.9191 -4.2524 -2.1028 0.9670
6.8732 -3.4202 -1.9877 0.9688
8.1980 -0.8589 -2.1342 0.9665
8.3850 -0.1263 -2.1713 0.9659
8.5032 0.6328 -2.2077 0.9654
7.6491 2.7255 -2.1025 0.9670
6.1015 3.5013 -1.8214 0.9714
5.4645 3.8217 -1.7266 0.9728
4.4259 4.4576 -1.6264 0.9744
3.9109 4.7146 -1.5860 0.9750
1.9418 5.5753 -1.5286 0.9759
0.8173 3.2580 -0.8697 0.9862
0.4617 2.9265 -0.7671 0.9878
-0.6746 6.0227 -1.5692 0.9753
-1.4749 7.2434 -1.9139 0.9699
-3.2020 8.0273 -2.2377 0.9649
-3.8432 7.5868 -2.2020 0.9655
-5.4273 5.9810 -2.0911 0.9672
-2.3449 2.1608 -0.8256 0.9869
-6.6585 5.1169 -2.1743 0.9659
-6.9635 4.4231 -2.1359 0.9665
-7.4912 2.2999 -2.0290 0.9681
-7.5442 1.5965 -1.9966 0.9686
-7.5398 0.9030 -1.9661 0.9691
-7.4804 0.2235 -1.9377 0.9696
-7.3688 -0.4387 -1.9113 0.9700
-7.2077 -1.0806 -1.8871 0.9703
-6.9999 -1.6992 -1.8650 0.9707
-6.1225 -3.3939 -1.8125 0.9715
-5.7540 -3.8985 -1.7996 0.9717
-5.3514 -4.3704 -1.7889 0.9719
-4.4536 -5.2099 -1.7746 0.9721
-2.9083 -6.1890 -1.7706 0.9721
-1.7709 -6.6405 -1.7794 0.9720
-1.1766 -6.8021 -1.7873 0.9719
-0.5682 -6.9193 -1.7976 0.9717
2.5943 -6.7944 -1.8831 0.9704
3.8601 -6.3900 -1.9329 0.9696
5.0830 -5.7711 -1.9912 0.9687
5.6674 -5.3798 -2.0232 0.9682
6.7293 -3.6011 -1.9761 0.9690
2.3047 -0.9799 -0.6484 0.9897
7.5255 -2.4329 -2.0478 0.9678
7.8515 -1.7834 -2.0847 0.9673
8.5416 1.1514 -2.2316 0.9650
8.5348 1.9384 -2.2661 0.9645
7.9539 2.5713 -2.1643 0.9661
5.0722 4.0186 -1.6755 0.9736
4.5233 4.2936 -1.6148 0.9746
3.5169 4.7956 -1.5398 0.9757
3.0401 5.0324 -1.5223 0.9760
1.6203 5.7335 -1.5426 0.9757
0.5405 2.8708 -0.7564 0.9880
0.6048 6.2314 -1.6210 0.9745
0.0482 6.5031 -1.6838 0.9735
-0.5582 6.7984 -1.7661 0.9722
-4.7900 6.7388 -2.1407 0.9664
-5.2787 6.1753 -2.1034 0.9670
-6.5425 5.3433 -2.1871 0.9657
-7.4605 2.5346 -2.0401 0.9680
-7.5060 0.4471 -1.9469 0.9694
-7.4114 -0.2213 -1.9198 0.9698
-7.2664 -0.8702 -1.8949 0.9702
-5.8801 -3.7348 -1.8036 0.9716
-5.4885 -4.2177 -1.7922 0.9718
-5.0646 -4.6668 -1.7831 0.9719
-4.6105 -5.0807 -1.7764 0.9721
-3.0893 -6.0982 -1.7700 0.9721
-2.5365 -6.3585 -1.7725 0.9721
-1.3753 -6.7534 -1.7845 0.9719
1.1049 -7.0049 -1.8361 0.9711
3.0202 -6.6827 -1.8988 0.9702
4.8847 -5.8887 -1.9810 0.9689
6.0446 -5.0877 -2.0456 0.9679
7.7493 -2.0033 -2.0724 0.9675
8.0386 -1.3273 -2.1095 0.9669
8.2683 -0.6155 -2.1467 0.9663
8.5458 1.6764 -2.2548 0.9647
5.2639 3.9225 -1.6997 0.9732
4.7010 4.2047 -1.6330 0.9743
4.2495 4.5457 -1.6112 0.9746
3.7426 4.7985 -1.5756 0.9752
1.7805 5.6547 -1.5350 0.9758
0.6534 2.9820 -0.7904 0.9875
-0.3506 6.6974 -1.7364 0.9727
-5.1234 6.3661 -2.1158 0.9668
-5.5713 5.7802 -2.0786 0.9674
-7.0514 4.1866 -2.1233 0.9667
-7.2690 3.4796 -2.0866 0.9672
-7.5157 2.0621 -2.0179 0.9683
-7.5490 1.3616 -1.9861 0.9688
-7.5258 0.6724 -1.9563 0.9693
-6.3214 -1.9374 -1.8717 0.9729
-6.0674 -2.4708 -1.8546 0.9731
-5.7757 -2.9780 -1.8396 0.9733
-3.8316 -5.0607 -1.7970 0.9740
-2.8683 -5.6553 -1.7951 0.9740
-2.3553 -5.8963 -1.7975 0.9739
-1.2779 -6.2599 -1.8087 0.9738
-0.7178 -6.3801 -1.8176 0.9737
-0.1466 -6.4576 -1.8286 0.9735
0.4332 -6.4914 -1.8418 0.9733
1.0191 -6.4803 -1.8571 0.9731
1.6081 -6.4232 -1.8745 0.9728
2.1974 -6.3192 -1.8940 0.9726
2.7837 -6.1673 -1.9155 0.9723
3.9335 -5.7169 -1.9645 0.9716
5.0269 -5.0679 -2.0208 0.9708
5.5417 -4.6689 -2.0514 0.9703
6.0290 -4.2209 -2.0835 0.9699
6.4635 -3.7132 -2.1102 0.9695
6.4041 -2.9535 -1.9965 0.9711
6.7511 -2.4092 -2.0292 0.9706
7.0531 -1.8268 -2.0626 0.9702
7.3050 -1.2097 -2.0962 0.9697
7.6393 0.1113 -2.1629 0.9687
7.7188 1.5104 -2.2266 0.9678
7.6542 2.2224 -2.2563 0.9674
7.3428 2.8642 -2.2312 0.9678
6.5599 3.2603 -2.0738 0.9700
4.6977 4.1978 -1.7835 0.9741
3.1957 4.9473 -1.6673 0.9758
2.7248 5.1807 -1.6571 0.9760
1.5979 3.8343 -1.1760 0.9829
0.6575 2.9938 -0.8677 0.9873
0.3951 3.0983 -0.8842 0.9871
0.2402 6.4008 -1.8133 0.9737
-0.3469 6.6865 -1.8955 0.9725
-0.8488 5.9729 -1.7079 0.9752
-1.8251 7.7771 -2.2615 0.9673
-4.1837 6.2777 -2.1357 0.9691
-4.6529 5.7871 -2.1022 0.9696
-5.0684 5.2634 -2.0686 0.9701
-6.1777 4.4628 -2.1575 0.9688
-6.4464 3.8315 -2.1229 0.9693
-6.6555 3.1898 -2.0893 0.9698
-6.8651 0.0017 -1.9435 0.9719
-6.5970 -1.1897 -1.8977 0.9725
-6.3969 -1.7550 -1.8778 0.9728
-6.1559 -2.2968 -1.8600 0.9731
-5.8764 -2.8129 -1.8443 0.9733
-5.5609 -3.3015 -1.8308 0.9735
-5.2114 -3.7609 -1.8194 0.9736
-3.0340 -5.5669 -1.7948 0.9740
-2.5275 -5.8207 -1.7964 0.9740
-2.0023 -6.0357 -1.8002 0.9739
-1.4607 -6.2108 -1.8062 0.9738
-0.9048 -6.3449 -1.8144 0.9737
0.2402 -6.4851 -1.8372 0.9734
0.8243 -6.4890 -1.8518 0.9732
2.0021 -6.3590 -1.8873 0.9727
2.5898 -6.2230 -1.9082 0.9724
3.7459 -5.8052 -1.9558 0.9717
4.3068 -5.5221 -1.9825 0.9713
5.8708 -4.3748 -2.0727 0.9700
7.4430 -0.7798 -2.1186 0.9694
7.7245 1.2753 -2.2164 0.9680
7.5706 2.6975 -2.2752 0.9671
6.0927 3.4962 -1.9886 0.9712
5.4570 3.8165 -1.8852 0.9727
4.8793 4.1067 -1.8054 0.9738
3.9060 4.7088 -1.7320 0.9749
3.3535 4.8688 -1.6736 0.9757
1.7422 3.8549 -1.1976 0.9826
1.9394 5.5685 -1.6693 0.9758
0.8291 3.3050 -0.9646 0.9859
0.4578 2.9021 -0.8317 0.9879
0.4243 6.3110 -1.7906 0.9740
-0.1463 6.5890 -1.8658 0.9730
-0.6747 6.0233 -1.7158 0.9751
-2.2663 7.5884 -2.2420 0.9676
-2.8942 7.2557 -2.2114 0.9680
-4.0166 6.4319 -2.1467 0.9690
-4.5032 5.9538 -2.1133 0.9694
-6.0667 4.6621 -2.1660 0.9687
-6.3640 4.0423 -2.1343 0.9691
-6.5927 3.4034 -2.1004 0.9696
-6.8759 2.1110 -2.0362 0.9705
-6.8914 0.2059 -1.9518 0.9717
-6.7959 -0.4046 -1.9273 0.9721
-5.9732 -2.6447 -1.8493 0.9732
-4.9601 -4.0508 -1.8129 0.9737
-4.1304 -4.8317 -1.7995 0.9739
-2.6976 -5.7408 -1.7957 0.9740
-1.6420 -6.1573 -1.8040 0.9739
1.8067 -6.3935 -1.8808 0.9728
2.3954 -6.2734 -1.9010 0.9725
2.9799 -6.1052 -1.9232 0.9722
6.1861 -4.0591 -2.0946 0.9697
6.1657 -3.2995 -1.9797 0.9713
2.3024 -0.9789 -0.7082 0.9897
7.1438 -1.6226 -2.0739 0.9700
7.6714 0.3428 -2.1739 0.9686
7.6162 2.4621 -2.2659 0.9673
6.3196 3.3817 -2.0291 0.9706
4.5175 4.2881 -1.7633 0.9744
3.0364 5.0263 -1.6624 0.9759
2.5670 5.2589 -1.6566 0.9760
0.5366 2.8501 -0.8210 0.9880
0.0482 6.4944 -1.8386 0.9734
-0.5574 6.7888 -1.9283 0.9721
-1.0480 6.0593 -1.7408 0.9748
-3.8438 6.5815 -2.1577 0.9688
-4.3477 6.1165 -2.1244 0.9693
-4.7990 5.6141 -2.0908 0.9698
-5.1959 5.0807 -2.0573 0.9702
-6.5234 3.6162 -2.1115 0.9695
-6.8446 2.3254 -2.0464 0.9704
-6.9205 1.6801 -2.0161 0.9708
-6.9124 0.4117 -1.9603 0.9716
-6.7060 -0.8031 -1.9120 0.9723
-6.5343 -1.3826 -1.8908 0.9726
-6.3201 -1.9402 -1.8716 0.9729
-6.0659 -2.4736 -1.8545 0.9731
-5.0865 -3.9087 -1.8160 0.9737
-4.6953 -4.3265 -1.8075 0.9738
-4.2755 -4.7116 -1.8011 0.9739
-2.8656 -5.6566 -1.7951 0.9740
-2.3526 -5.8975 -1.7975 0.9739
-1.2749 -6.2606 -1.8087 0.9738
-0.7148 -6.3806 -1.8176 0.9737
0.4363 -6.4915 -1.8418 0.9733
1.6112 -6.4228 -1.8746 0.9728
2.2005 -6.3185 -1.8941 0.9726
2.7868 -6.1664 -1.9156 0.9723
3.3667 -5.9655 -1.9392 0.9719
3.9365 -5.7154 -1.9646 0.9716
4.4922 -5.4156 -1.9919 0.9712
5.0297 -5.0659 -2.0209 0.9708
6.4656 -3.7104 -2.1103 0.9695
6.4060 -2.9507 -1.9966 0.9711
6.7528 -2.4063 -2.0294 0.9706
7.7131 0.8080 -2.1955 0.9683
6.5560 3.2622 -2.0730 0.9700
5.8709 3.6080 -1.9508 0.9718
5.2568 3.9171 -1.8559 0.9731
4.2441 4.5400 -1.7594 0.9745
3.1932 4.9485 -1.6672 0.9758
2.7223 5.1820 -1.6571 0.9760
1.5962 3.8352 -1.1760 0.9829
0.3940 3.1010 -0.8849 0.9871
0.2372 6.4023 -1.8137 0.9737
-0.3501 6.6881 -1.8959 0.9725
-0.8518 5.9735 -1.7082 0.9752
-2.4823 7.4829 -2.2319 0.9678
-3.0963 7.1309 -2.2008 0.9682
-3.6657 6.7262 -2.1686 0.9687
-4.1863 6.2752 -2.1355 0.9691
-2.4073 2.0879 -0.9021 0.9868
-6.1795 4.4596 -2.1573 0.9688
-6.4476 3.8281 -2.1228 0.9693
-6.6565 3.1864 -2.0892 0.9698
-6.9015 1.8936 -2.0260 0.9707
-6.9410 1.2519 -1.9967 0.9711
-6.8646 -0.0016 -1.9433 0.9719
-5.6400 -2.2968 -1.8731 0.9748
-5.3719 -2.7699 -1.8590 0.9750
-5.0702 -3.2170 -1.8469 0.9752
-4.3744 -4.0270 -1.8288 0.9754
-3.5696 -4.7146 -1.8188 0.9756
-3.1314 -5.0090 -1.8169 0.9756
-2.6723 -5.2689 -1.8171 0.9756
-2.1942 -5.4929 -1.8193 0.9756
-1.6994 -5.6801 -1.8236 0.9755
-1.1899 -5.8292 -1.8299 0.9754
-0.6681 -5.9391 -1.8383 0.9753
0.4029 -6.0372 -1.8610 0.9750
0.9472 -6.0233 -1.8754 0.9748
2.0396 -5.8654 -1.9100 0.9743
3.1167 -5.5287 -1.9521 0.9738
4.1515 -5.0096 -2.0012 0.9731
4.6435 -4.6814 -2.0281 0.9728
5.1132 -4.3079 -2.0565 0.9724
5.5561 -3.8898 -2.0861 0.9720
6.8589 -0.5138 -2.1156 0.9716
7.0331 0.7334 -2.1750 0.9708
7.0297 1.3756 -2.2032 0.9705
5.2527 3.9102 -2.0141 0.9730
4.2414 4.5328 -1.9094 0.9744
3.7359 4.7853 -1.8673 0.9749
0.3979 3.1198 -0.9674 0.9869
-0.3464 6.6772 -2.0565 0.9724
-1.6598 7.0730 -2.2346 0.9701
-2.2572 6.8149 -2.2081 0.9704
-2.8199 6.5028 -2.1801 0.9708
-3.8242 5.7382 -2.1210 0.9716
-4.2588 5.2969 -2.0905 0.9720
-4.6453 4.8241 -2.0599 0.9724
-5.9319 3.5257 -2.1225 0.9715
-6.1321 2.9389 -2.0915 0.9719
-6.2789 2.3462 -2.0617 0.9723
-6.3735 1.7520 -2.0331 0.9727
-6.4123 0.5760 -1.9802 0.9734
-6.3601 0.0016 -1.9562 0.9737
-6.2627 -0.5594 -1.9339 0.9740
-6.1223 -1.1041 -1.9135 0.9743
-5.9411 -1.6300 -1.8949 0.9745
-5.1739 -3.0717 -1.8507 0.9751
-4.8509 -3.5007 -1.8400 0.9753
-3.7098 -4.6095 -1.8199 0.9755
-3.2791 -4.9151 -1.8174 0.9756
-2.8267 -5.1866 -1.8168 0.9756
-2.3547 -5.4227 -1.8184 0.9756
-1.8652 -5.6222 -1.8219 0.9755
-1.3603 -5.7840 -1.8276 0.9754
-0.3137 -5.9902 -1.8450 0.9752
1.3124 -5.9901 -1.8861 0.9747
3.4687 -5.3756 -1.9678 0.9736
3.9841 -5.1084 -1.9926 0.9733
5.4125 -4.0333 -2.0761 0.9721
5.8243 -3.5795 -2.1027 0.9718
5.7751 -2.8738 -1.9841 0.9734
2.3441 -0.9157 -0.7740 0.9895
6.9429 -0.1045 -2.1357 0.9714
6.8814 2.4520 -2.2469 0.9699
6.7049 3.0882 -2.2705 0.9696
6.0837 3.4911 -2.1574 0.9711
5.4494 3.8112 -2.0454 0.9726
4.8728 4.1013 -1.9590 0.9737
2.8537 5.0563 -1.7858 0.9760
1.4547 5.7986 -1.8388 0.9753
0.4745 3.0080 -0.9367 0.9873
-0.1461 6.5799 -2.0243 0.9728
-2.0627 6.9067 -2.2171 0.9703
-3.6698 5.8765 -2.1310 0.9714
-2.3466 2.1623 -0.9815 0.9867
-6.0717 3.1344 -2.1017 0.9718
-6.2361 2.5431 -2.0714 0.9722
-6.3479 1.9489 -2.0424 0.9726
-6.4193 0.7689 -1.9886 0.9733
-6.2999 -0.3751 -1.9411 0.9739
-6.0056 -1.4579 -1.9008 0.9745
-5.7982 -1.9697 -1.8835 0.9747
-5.5536 -2.4589 -1.8681 0.9749
-5.2740 -2.9235 -1.8547 0.9751
-4.6181 -3.7715 -1.8339 0.9754
-4.2460 -4.1517 -1.8266 0.9755
-3.8475 -4.5009 -1.8212 0.9755
-2.9790 -5.1004 -1.8168 0.9756
-2.5132 -5.3484 -1.8176 0.9756
-0.4900 -5.9671 -1.8415 0.9753
0.5858 -6.0373 -1.8657 0.9749
1.1312 -6.0090 -1.8807 0.9747
1.6778 -5.9373 -1.8977 0.9745
2.7628 -5.6604 -1.9374 0.9740
4.3195 -4.9042 -2.0101 0.9730
2.3000 -0.9779 -0.7687 0.9896
6.2928 -2.0344 -2.0342 0.9727
6.7513 -0.9102 -2.0953 0.9719
6.9044 -0.3087 -2.1257 0.9715
7.0014 0.3129 -2.1556 0.9711
6.9253 2.2388 -2.2386 0.9700
6.3101 3.3766 -2.2013 0.9705
4.5116 4.2825 -1.9133 0.9743
3.5083 4.7838 -1.8246 0.9755
3.0327 5.0201 -1.8040 0.9758
2.5638 5.2524 -1.7977 0.9758
0.5366 2.8504 -0.8921 0.9879
0.6032 6.2152 -1.9206 0.9742
-1.0462 6.0489 -1.8881 0.9746
-1.8646 6.9924 -2.2259 0.9702
-2.4509 6.7156 -2.1988 0.9705
-3.5104 6.0105 -2.1409 0.9713
-3.9758 5.5934 -2.1108 0.9717
-4.7644 4.6587 -2.0496 0.9725
-5.0845 4.1525 -2.0192 0.9729
-6.1874 2.7397 -2.0813 0.9721
-6.3165 2.1459 -2.0519 0.9725
-6.3939 1.5522 -2.0238 0.9728
-6.3999 0.3812 -1.9720 0.9735
-6.2201 -0.7449 -1.9268 0.9741
-6.0657 -1.2835 -1.9070 0.9744
-5.6387 -2.2994 -1.8730 0.9748
-4.7352 -3.6388 -1.8368 0.9753
-4.3724 -4.0290 -1.8288 0.9754
-3.1291 -5.0105 -1.8169 0.9756
-2.6698 -5.2701 -1.8171 0.9756
-1.1872 -5.8298 -1.8299 0.9754
0.9501 -6.0231 -1.8755 0.9748
4.1541 -5.0080 -2.0013 0.9731
6.1990 -2.2089 -2.0241 0.9728
6.6889 -1.1044 -2.0852 0.9720
6.8597 -0.5106 -2.1157 0.9716
6.9756 0.1049 -2.1458 0.9712
7.0333 0.7368 -2.1751 0.9708
6.8293 2.6676 -2.2551 0.9698
6.5460 3.2573 -2.2489 0.9699
5.8625 3.6028 -2.1165 0.9716
5.2496 3.9118 -2.0136 0.9730
4.6887 4.1937 -1.9348 0.9740
3.7333 4.7866 -1.8671 0.9749
3.1893 4.9424 -1.8092 0.9757
2.7190 5.1756 -1.7982 0.9758
1.5463 3.7155 -1.2378 0.9833
1.7761 5.6408 -1.8190 0.9756
0.6589 3.0070 -0.9468 0.9872
-0.3496 6.6787 -2.0570 0.9724
-0.8507 5.9663 -1.8537 0.9751
-1.6630 7.0718 -2.2345 0.9701
-2.8228 6.5010 -2.1799 0.9708
-3.3462 6.1400 -2.1508 0.9712
-5.2702 3.8034 -1.9991 0.9732
-6.3739 1.7488 -2.0329 0.9727
-6.4122 0.5729 -1.9801 0.9734
-6.3597 -0.0015 -1.9561 0.9737
-5.4778 -1.6788 -1.9044 0.9761
-5.2641 -2.1437 -1.8893 0.9763
-5.0164 -2.5865 -1.8761 0.9765
-4.4270 -3.3986 -1.8552 0.9767
-4.0893 -3.7645 -1.8476 0.9768
-3.3381 -4.4088 -1.8382 0.9770
-2.9285 -4.6845 -1.8364 0.9770
-2.4991 -4.9275 -1.8365 0.9770
-1.5889 -5.3108 -1.8427 0.9769
-1.1123 -5.4490 -1.8486 0.9768
-0.1274 -5.6131 -1.8663 0.9766
0.8840 -5.6214 -1.8915 0.9763
1.9011 -5.4672 -1.9241 0.9759
2.9008 -5.1458 -1.9635 0.9754
4.7414 -3.9947 -2.0609 0.9742
5.4410 -2.5093 -1.9917 0.9751
5.7217 -2.0419 -2.0194 0.9747
5.9627 -1.5444 -2.0474 0.9744
6.1601 -1.0201 -2.0755 0.9740
6.4562 0.6732 -2.1577 0.9730
6.3783 1.8519 -2.2077 0.9724
6.0642 3.0140 -2.2510 0.9719
5.8182 3.5719 -2.2694 0.9716
4.1331 4.4170 -2.0108 0.9748
3.6667 4.6966 -1.9806 0.9752
3.1878 4.9350 -1.9529 0.9755
1.5278 3.6662 -1.3202 0.9834
1.7764 5.6325 -1.9632 0.9754
0.6641 3.0238 -1.0291 0.9870
0.3953 3.0999 -1.0388 0.9869
-0.8469 5.9593 -2.0008 0.9749
-1.5202 6.4782 -2.2119 0.9723
-2.0694 6.2481 -2.1879 0.9726
-2.5881 5.9683 -2.1624 0.9730
-3.9220 4.8780 -2.0806 0.9740
-4.2829 4.4477 -2.0525 0.9743
-2.4027 2.0859 -1.0577 0.9867
-4.8689 3.5173 -1.9966 0.9750
-5.6792 2.7219 -2.0934 0.9738
-5.9186 0.0014 -1.9674 0.9754
-5.7060 -1.0291 -1.9273 0.9759
-5.3388 -1.9919 -1.8942 0.9763
-4.5329 -3.2712 -1.8581 0.9767
-4.2042 -3.6463 -1.8499 0.9768
-3.8490 -3.9932 -1.8436 0.9769
-2.6436 -4.8506 -1.8363 0.9770
-2.2020 -5.0711 -1.8377 0.9770
-1.2717 -5.4072 -1.8464 0.9769
-0.2931 -5.5965 -1.8629 0.9767
0.2087 -5.6336 -1.8739 0.9765
1.2244 -5.5882 -1.9016 0.9762
1.7330 -5.5042 -1.9182 0.9760
2.2384 -5.3786 -1.9365 0.9757
5.0154 -3.7374 -2.0791 0.9740
5.3891 -3.3121 -2.1027 0.9737
5.3398 -2.6572 -1.9826 0.9752
2.3487 -0.9175 -0.8382 0.9894
5.8874 -1.7125 -2.0381 0.9745
6.0997 -1.1967 -2.0662 0.9741
6.4470 0.4798 -2.1489 0.9731
6.4073 1.6562 -2.1998 0.9725
6.2998 2.2447 -2.2231 0.9722
5.4418 3.8058 -2.2073 0.9724
4.8662 4.0957 -2.1142 0.9735
0.4533 2.8733 -0.9669 0.9878
0.4232 6.2942 -2.0970 0.9738
-0.6748 6.0244 -2.0151 0.9748
-1.3323 6.5428 -2.2195 0.9722
-2.9157 5.7558 -2.1447 0.9732
-3.7926 5.0143 -2.0898 0.9738
-5.4055 3.4335 -2.1287 0.9734
-5.6212 2.9019 -2.1028 0.9737
-5.7796 2.3569 -2.0748 0.9740
-5.9379 0.1774 -1.9747 0.9753
-5.8658 -0.3492 -1.9533 0.9755
-5.1844 -2.2954 -1.8847 0.9764
-4.9256 -2.7304 -1.8720 0.9765
-4.3162 -3.5250 -1.8524 0.9768
-3.9696 -3.8814 -1.8455 0.9769
-2.7860 -4.7700 -1.8362 0.9770
-1.4298 -5.3615 -1.8445 0.9769
-0.4579 -5.5756 -1.8596 0.9767
0.5469 -5.6363 -1.8823 0.9764
1.5646 -5.5367 -1.9125 0.9760
2.0714 -5.4249 -1.9302 0.9758
2.5728 -5.2711 -1.9497 0.9756
5.2728 -3.4598 -2.0963 0.9738
5.2349 -2.8014 -1.9736 0.9753
2.2976 -0.9769 -0.8299 0.9895
5.8075 -1.8775 -2.0288 0.9746
6.0343 -1.3706 -2.0569 0.9743
6.2162 -0.8381 -2.0850 0.9739
6.4318 0.2874 -2.1401 0.9732
6.4592 0.8707 -2.1665 0.9729
6.4299 1.4604 -2.1918 0.9726
6.3421 2.0502 -2.2155 0.9723
5.9879 3.2042 -2.2575 0.9718
5.0517 4.0024 -2.1424 0.9732
4.5057 4.2768 -2.0650 0.9742
3.5039 4.7777 -1.9694 0.9753
3.0290 5.0139 -1.9472 0.9756
1.4986 3.9246 -1.3964 0.9824
0.6024 6.2070 -2.0729 0.9741
0.0480 6.4766 -2.1529 0.9731
-1.7083 6.4065 -2.2040 0.9724
-2.7552 5.8636 -2.1535 0.9731
-3.2266 5.5246 -2.1267 0.9734
-4.0485 4.7361 -2.0711 0.9741
-4.6950 3.8344 -2.0150 0.9748
-5.7325 2.5383 -2.0840 0.9739
-5.8582 1.9902 -2.0566 0.9743
-5.9359 1.4411 -2.0304 0.9746
-5.9668 0.8946 -2.0056 0.9749
-5.8943 -0.1760 -1.9602 0.9754
-5.0150 -2.5888 -1.8760 0.9765
-4.7351 -3.0075 -1.8646 0.9766
-4.4253 -3.4006 -1.8551 0.9767
-3.3359 -4.4103 -1.8382 0.9770
-2.9263 -4.6858 -1.8364 0.9770
-2.4968 -4.9287 -1.8365 0.9770
-2.0495 -5.1376 -1.8386 0.9770
-1.1098 -5.4496 -1.8487 0.9768
-0.1248 -5.6133 -1.8664 0.9766
1.3959 -5.5645 -1.9070 0.9761
2.9034 -5.1447 -1.9637 0.9754
3.3887 -4.9201 -1.9858 0.9751
4.7436 -3.9927 -2.0610 0.9742
5.1488 -3.6010 -2.0885 0.9739
5.1263 -2.9418 -1.9646 0.9754
5.4426 -2.5069 -1.9918 0.9751
6.1611 -1.0173 -2.0757 0.9740
6.4105 0.0964 -2.1311 0.9733
5.8169 3.5748 -2.2695 0.9716
5.2423 3.9064 -2.1732 0.9728
4.6824 4.1881 -2.0882 0.9739
4.1311 4.4191 -2.0108 0.9748
3.6641 4.6979 -1.9804 0.9752
2.7156 5.1692 -1.9410 0.9757
1.5259 3.6665 -1.3201 0.9834
0.6623 3.0225 -1.0285 0.9870
0.2366 6.3850 -2.1239 0.9734
-0.8498 5.9596 -2.0011 0.9749
-2.5908 5.9667 -2.1623 0.9730
-4.2847 4.4454 -2.0523 0.9743
-2.4040 2.0851 -1.0578 0.9867
-4.8702 3.5148 -1.9965 0.9750
-5.6801 2.7190 -2.0933 0.9738
-5.8219 2.1723 -2.0656 0.9741
-5.9183 -0.0013 -1.9673 0.9754
-5.1280 -1.5716 -1.9180 0.9775
-4.4402 -2.8173 -1.8805 0.9779
-4.1512 -3.1869 -1.8715 0.9780
-2.7478 -4.3954 -1.8537 0.9782
-1.0433 -5.1107 -1.8653 0.9781
-0.5855 -5.2041 -1.8728 0.9780
1.3042 -5.2092 -1.9203 0.9774
2.2483 -4.9810 -1.9543 0.9771
2.7102 -4.8077 -1.9736 0.9768
3.5983 -4.3421 -2.0166 0.9763
4.4155 -3.7201 -2.0647 0.9758
4.7886 -3.3525 -2.0904 0.9755
5.3080 -1.8943 -2.0154 0.9763
5.5261 -1.4313 -2.0414 0.9760
5.9230 0.0863 -2.1183 0.9751
5.9600 0.6215 -2.1429 0.9749
5.7557 2.2451 -2.2093 0.9741
5.3498 3.2843 -2.2449 0.9737
5.0677 3.7725 -2.2593 0.9735
3.9222 4.1917 -2.0529 0.9759
3.4615 4.4338 -2.0115 0.9764
3.1838 4.9288 -2.0983 0.9754
1.5691 3.7652 -1.4587 0.9828
0.3963 3.1071 -1.1201 0.9868
0.2357 6.2807 -2.2476 0.9737
-0.8459 5.9526 -2.1501 0.9748
-1.4007 5.9688 -2.1925 0.9743
-2.3888 5.5086 -2.1472 0.9748
-4.5206 3.2657 -1.9943 0.9766
-5.2831 2.5321 -2.0951 0.9754
-5.5125 1.5153 -2.0444 0.9760
-5.5656 0.4999 -1.9983 0.9765
-5.5291 0.0013 -1.9772 0.9768
-5.4525 -0.4871 -1.9576 0.9770
-5.1861 -1.4228 -1.9231 0.9774
-4.9997 -1.8654 -1.9083 0.9776
-4.2501 -3.0671 -1.8743 0.9780
-3.6106 -3.7459 -1.8605 0.9781
-3.2547 -4.0441 -1.8564 0.9782
-2.8774 -4.3129 -1.8541 0.9782
-2.0661 -4.7580 -1.8550 0.9782
-1.6361 -4.9318 -1.8582 0.9782
-1.1928 -5.0719 -1.8632 0.9781
-0.7383 -5.1771 -1.8701 0.9780
0.1955 -5.2793 -1.8892 0.9778
0.6701 -5.2747 -1.9014 0.9777
1.1463 -5.2319 -1.9153 0.9775
2.0932 -5.0298 -1.9482 0.9771
2.5581 -4.8696 -1.9670 0.9769
3.0132 -4.6697 -1.9874 0.9767
3.4552 -4.4302 -2.0091 0.9764
3.8807 -4.1514 -2.0322 0.9761
4.2861 -3.8338 -2.0564 0.9759
4.6679 -3.4784 -2.0818 0.9756
2.3533 -0.9193 -0.9035 0.9893
5.7975 -0.6074 -2.0846 0.9755
5.9533 0.4430 -2.1348 0.9750
5.9560 0.9833 -2.1587 0.9747
5.9060 1.5266 -2.1814 0.9744
5.6440 2.5996 -2.2221 0.9739
5.4319 3.1170 -2.2396 0.9737
4.8511 4.0830 -2.2675 0.9734
4.0822 4.1115 -2.0719 0.9757
3.3409 4.8506 -2.1062 0.9753
1.9321 5.5477 -2.1008 0.9754
0.4225 6.2847 -2.2525 0.9736
-0.1389 6.2538 -2.2370 0.9738
-0.6749 6.0250 -2.1681 0.9746
-2.2327 5.5973 -2.1550 0.9747
-2.6928 5.3158 -2.1310 0.9750
-2.3491 2.1647 -1.1424 0.9865
-4.4408 3.4126 -2.0028 0.9765
-5.2276 2.6986 -2.1038 0.9753
-5.5686 0.6669 -2.0056 0.9765
-5.5457 0.1657 -1.9841 0.9767
-5.4823 -0.3264 -1.9640 0.9769
-5.3799 -0.8065 -1.9454 0.9772
-5.2403 -1.2721 -1.9284 0.9774
-5.0652 -1.7207 -1.9130 0.9775
-4.8566 -2.1503 -1.8994 0.9777
-4.0477 -3.3057 -1.8689 0.9780
-3.7235 -3.6408 -1.8623 0.9781
-3.0048 -4.2271 -1.8546 0.9782
-2.2053 -4.6930 -1.8543 0.9782
-1.7803 -4.8779 -1.8569 0.9782
-1.3412 -5.0293 -1.8614 0.9781
-0.8901 -5.1461 -1.8676 0.9781
-0.4293 -5.2275 -1.8757 0.9780
0.0390 -5.2725 -1.8855 0.9779
0.9884 -5.2503 -1.9105 0.9776
1.9375 -5.0741 -1.9423 0.9772
2.4049 -4.9271 -1.9606 0.9770
2.8636 -4.7403 -1.9805 0.9767
3.3103 -4.5140 -2.0018 0.9765
4.1542 -3.9433 -2.0483 0.9760
4.5442 -3.6004 -2.0733 0.9757
4.9022 -3.2166 -2.0967 0.9754
4.8644 -2.6031 -1.9730 0.9768
2.2954 -0.9760 -0.8920 0.9895
5.3858 -1.7412 -2.0242 0.9762
5.9411 0.2655 -2.1267 0.9751
5.9609 0.8035 -2.1509 0.9748
5.9285 1.3465 -2.1740 0.9745
4.9613 3.9307 -2.2635 0.9735
4.2452 4.0297 -2.0931 0.9754
3.7625 4.2717 -2.0356 0.9761
3.4994 4.7717 -2.1161 0.9752
1.4907 3.9038 -1.4944 0.9824
1.6122 5.7048 -2.1200 0.9751
0.5611 2.9802 -1.0845 0.9872
0.6016 6.1986 -2.2271 0.9739
0.0465 6.2703 -2.2424 0.9737
-3.7489 4.3856 -2.0632 0.9758
-4.5969 3.1147 -1.9857 0.9767
-5.1646 2.8630 -2.1117 0.9752
-5.3344 2.3620 -2.0863 0.9755
-5.4564 1.8537 -2.0608 0.9758
-5.5335 1.3434 -2.0363 0.9761
-5.5669 0.8347 -2.0130 0.9764
-5.5578 0.3310 -1.9911 0.9766
-5.4180 -0.6488 -1.9514 0.9771
-4.9294 -2.0101 -1.9037 0.9776
-4.6993 -2.4258 -1.8912 0.9778
-4.4387 -2.8193 -1.8804 0.9779
-3.4933 -3.8495 -1.8589 0.9782
-3.1299 -4.1380 -1.8554 0.9782
-2.7458 -4.3967 -1.8537 0.9782
-2.3427 -4.6245 -1.8539 0.9782
-1.9229 -4.8203 -1.8559 0.9782
-0.5830 -5.2045 -1.8728 0.9780
0.8304 -5.2646 -1.9059 0.9776
1.7811 -5.1142 -1.9366 0.9773
2.2507 -4.9802 -1.9544 0.9771
4.4176 -3.7183 -2.0649 0.9758
4.7905 -3.3504 -2.0905 0.9755
5.0541 -2.3280 -1.9899 0.9766
5.3093 -1.8919 -2.0156 0.9763
5.7042 -0.9418 -2.0675 0.9757
5.8372 -0.4345 -2.0932 0.9754
5.9233 0.0891 -2.1185 0.9751
5.9600 0.6243 -2.1430 0.9749
5.9451 1.1663 -2.1665 0.9746
5.8770 1.7094 -2.1888 0.9743
5.5785 2.7758 -2.2282 0.9739
5.0661 3.7750 -2.2593 0.9735
4.6761 4.1824 -2.2435 0.9737
3.4591 4.4351 -2.0114 0.9764
3.1813 4.9300 -2.0982 0.9754
2.7122 5.1627 -2.0855 0.9755
1.5665 3.7638 -1.4579 0.9828
0.6592 3.0083 -1.1013 0.9870
0.2327 6.2806 -2.2475 0.9737
-0.8488 5.9530 -2.1503 0.9748
-1.9109 5.7604 -2.1704 0.9745
-3.6324 4.5134 -2.0718 0.9757
-3.9702 4.1191 -2.0459 0.9760
-5.4209 2.0226 -2.0691 0.9757
-5.5128 1.5126 -2.0443 0.9760
-5.5288 -0.0013 -1.9771 0.9768
-4.8156 -1.4759 -1.9301 0.9787
-4.4179 -2.2780 -1.9048 0.9789
-3.9040 -2.9971 -1.8861 0.9791
-3.6080 -3.3214 -1.8793 0.9792
-3.2883 -3.6203 -1.8742 0.9793
-1.8114 -4.5346 -1.8713 0.9793
-1.4023 -4.6872 -1.8749 0.9793
-0.9813 -4.8073 -1.8802 0.9792
-0.1123 -4.9465 -1.8961 0.9790
0.3313 -4.9640 -1.9065 0.9789
2.1088 -4.6721 -1.9644 0.9783
3.7582 -3.7888 -2.0451 0.9774
4.4451 -2.5537 -1.9645 0.9783
4.7110 -2.1726 -1.9881 0.9780
4.9448 -1.7646 -2.0120 0.9778
5.1433 -1.3322 -2.0361 0.9775
5.3036 -0.8783 -2.0601 0.9772
5.5102 1.0782 -2.1516 0.9762
5.4432 1.5804 -2.1721 0.9760
5.1604 2.5648 -2.2083 0.9756
4.9451 3.0359 -2.2237 0.9754
4.3218 3.8619 -2.2211 0.9755
3.1797 4.9224 -2.2457 0.9752
2.7112 5.1549 -2.2320 0.9754
0.2179 5.8051 -2.2262 0.9754
-0.2989 5.7624 -2.2112 0.9756
-0.8056 5.6690 -2.1943 0.9758
-1.2970 5.5270 -2.1756 0.9760
-3.0219 4.5344 -2.0882 0.9769
-3.3755 4.1983 -2.0644 0.9772
-4.9335 2.3645 -2.0965 0.9768
-5.0657 1.8928 -2.0724 0.9771
-5.1559 1.4173 -2.0491 0.9774
-5.2047 0.9413 -2.0269 0.9776
-5.2132 0.4683 -2.0058 0.9778
-5.1824 0.0013 -1.9860 0.9780
-5.1139 -0.4568 -1.9675 0.9782
-4.8693 -1.3359 -1.9350 0.9786
-4.2584 -2.5282 -1.8978 0.9790
-3.9966 -2.8842 -1.8888 0.9791
-3.3968 -3.5241 -1.8757 0.9793
-2.3341 -4.2827 -1.8691 0.9793
-1.9441 -4.4770 -1.8705 0.9793
-1.1221 -4.7711 -1.8783 0.9792
-0.2583 -4.9330 -1.8930 0.9791
0.6296 -4.9559 -1.9144 0.9788
1.5222 -4.8346 -1.9424 0.9785
1.9638 -4.7188 -1.9587 0.9783
2.3985 -4.5657 -1.9764 0.9781
4.3608 -3.2496 -2.0841 0.9770
5.0816 -1.4781 -2.0281 0.9776
5.3881 -0.5645 -2.0761 0.9771
5.4784 -0.0825 -2.0996 0.9768
5.4709 1.4142 -2.1655 0.9761
5.3709 1.9137 -2.1850 0.9759
4.7745 3.3391 -2.2327 0.9754
4.4808 3.7713 -2.2444 0.9752
4.0767 4.1060 -2.2173 0.9755
3.6030 4.3434 -2.1626 0.9761
1.7078 3.7787 -1.5891 0.9824
1.4301 5.7005 -2.2523 0.9751
0.4502 2.8536 -1.1071 0.9877
0.3905 5.8078 -2.2307 0.9754
-0.6391 5.7055 -2.2001 0.9757
-1.1361 5.5793 -2.1820 0.9759
-1.6146 5.4064 -2.1622 0.9761
-2.0701 5.1897 -2.1412 0.9764
-2.8970 4.6391 -2.0960 0.9768
-3.5919 3.9584 -2.0484 0.9774
-2.3521 2.1674 -1.2257 0.9864
-4.1386 3.1804 -2.0002 0.9779
-5.1306 1.5752 -2.0567 0.9773
-5.1930 1.0989 -2.0341 0.9775
