ply
format ascii 1.0
element vertex 1582
property float32 x
property float32 y
property float32 z
property float32 I
end_header
11.5264 -1.5894 -0.3276 0.9545
18.4974 -0.8846 -0.5214 0.9286
14.9608 0.6205 -0.4216 0.9418
10.4559 2.3374 -0.3017 0.9580
7.6347 3.2136 -0.2332 0.9674
6.7078 3.5577 -0.2138 0.9701
5.2333 4.1133 -0.1874 0.9737
3.5847 4.8455 -0.1697 0.9762
2.9978 4.9149 -0.1621 0.9772
2.0546 5.3095 -0.1603 0.9775
1.6268 5.6578 -0.1658 0.9767
0.0742 6.0533 -0.1705 0.9761
-1.1139 6.6394 -0.1896 0.9734
-1.7607 6.7415 -0.1962 0.9725
-2.6059 1.7882 -0.0890 0.9874
-9.0594 -9.8351 -0.3765 0.9479
11.8755 1.1235 -0.3359 0.9534
11.0011 2.0424 -0.3151 0.9562
9.2752 2.5950 -0.2712 0.9622
8.2468 3.1234 -0.2483 0.9653
6.3178 3.7916 -0.2075 0.9709
5.6740 4.1349 -0.1977 0.9723
4.8599 4.2539 -0.1819 0.9745
3.2789 4.9605 -0.1674 0.9765
2.7283 5.0562 -0.1618 0.9773
2.2486 5.2366 -0.1605 0.9775
0.2907 5.9720 -0.1684 0.9764
19.4005 -1.2490 -0.9859 0.9251
14.8640 0.3709 -0.7541 0.9422
10.7425 2.2160 -0.5563 0.9570
8.0515 3.2337 -0.4400 0.9658
5.3476 4.0621 -0.3406 0.9735
4.1182 4.4859 -0.3088 0.9759
2.1401 5.2705 -0.2885 0.9775
1.6646 5.4492 -0.2890 0.9774
0.6894 5.8153 -0.2970 0.9768
-1.6282 6.6836 -0.3489 0.9728
2.3531 -0.9083 -0.1279 0.9899
14.2571 -2.7404 -0.7363 0.9435
9.5136 2.4932 -0.4988 0.9614
8.5058 3.0620 -0.4585 0.9644
4.9677 4.2055 -0.3301 0.9743
3.8951 4.7212 -0.3104 0.9758
0.9206 5.9159 -0.3036 0.9763
0.3867 5.9288 -0.3013 0.9765
-0.7222 6.3444 -0.3238 0.9747
-2.6189 1.6604 -0.1573 0.9877
18.4296 -0.8814 -0.9357 0.9288
14.9579 0.6204 -0.7592 0.9418
11.6536 1.5318 -0.5961 0.9540
10.4344 2.3326 -0.5422 0.9581
7.6221 3.2083 -0.4194 0.9674
6.6977 3.5523 -0.3845 0.9701
6.0962 3.9671 -0.3689 0.9713
5.2264 4.1079 -0.3371 0.9737
3.5805 4.8398 -0.3053 0.9762
2.9944 4.9093 -0.2916 0.9772
1.6250 5.6514 -0.2982 0.9767
0.5959 5.8504 -0.2982 0.9767
0.0741 6.0460 -0.3066 0.9761
-1.1124 6.6308 -0.3410 0.9734
-1.7582 6.7322 -0.3529 0.9725
-2.6139 1.7937 -0.1608 0.9874
15.1113 0.0768 -0.7664 0.9413
10.9988 2.0420 -0.5673 0.9562
8.2327 3.1181 -0.4465 0.9654
5.6663 4.1294 -0.3556 0.9723
4.8537 4.2485 -0.3271 0.9745
3.2751 4.9548 -0.3012 0.9765
2.7253 5.0504 -0.2910 0.9773
2.2460 5.2307 -0.2887 0.9775
1.7707 5.4093 -0.2887 0.9775
1.3315 5.7616 -0.2999 0.9766
0.2903 5.9650 -0.3029 0.9764
-0.2506 6.1677 -0.3130 0.9756
-2.1963 6.8961 -0.3670 0.9714
-2.6750 1.6347 -0.1590 0.9875
18.9028 -1.2169 -1.3889 0.9268
11.5745 1.3275 -0.8542 0.9543
10.7199 2.2113 -0.8026 0.9570
8.9473 2.6960 -0.6852 0.9632
6.2284 3.9083 -0.5391 0.9709
5.3404 4.0567 -0.4917 0.9735
4.1132 4.4805 -0.4460 0.9759
1.6628 5.4430 -0.4173 0.9774
1.2097 5.7531 -0.4311 0.9767
0.1727 6.0018 -0.4402 0.9762
-0.9997 6.6275 -0.4914 0.9735
-19.5792 -3.6690 -1.4606 0.9232
-17.5670 -6.6871 -1.3782 0.9274
-14.2685 -10.4350 -1.2961 0.9316
-9.2267 -9.6908 -0.9811 0.9477
-8.0724 -15.0201 -1.2503 0.9339
-6.7191 -15.7206 -1.2535 0.9337
-3.8793 -16.9160 -1.2725 0.9328
-2.3857 -17.4097 -1.2884 0.9319
-0.8378 -17.8319 -1.3089 0.9309
0.7693 -18.1796 -1.3342 0.9296
2.4407 -18.4488 -1.3645 0.9281
4.1821 -18.6342 -1.4003 0.9263
2.3529 -0.9082 -0.1849 0.9899
14.2274 -2.7347 -1.0623 0.9435
15.5013 -0.1770 -1.1367 0.9397
11.1138 1.8742 -0.8264 0.9558
9.4950 2.4883 -0.7197 0.9614
7.2171 3.3518 -0.5835 0.9686
6.3552 3.6728 -0.5382 0.9710
5.7892 4.0744 -0.5191 0.9720
4.9612 4.2001 -0.4766 0.9743
4.3682 4.4241 -0.4559 0.9754
3.8905 4.7156 -0.4482 0.9758
2.2990 5.1194 -0.4115 0.9777
0.3862 5.9218 -0.4351 0.9765
-0.1476 6.1217 -0.4490 0.9757
-1.3914 6.7739 -0.5070 0.9726
-2.6175 1.6595 -0.2272 0.9876
-16.9409 -7.4963 -1.3583 0.9284
-15.8553 -8.7824 -1.3290 0.9299
-12.3916 -12.1016 -1.2700 0.9329
-11.1682 -13.0462 -1.2592 0.9334
-8.6121 -14.7148 -1.2501 0.9339
-7.2757 -15.4435 -1.2517 0.9338
-5.8971 -16.1034 -1.2574 0.9335
-3.0007 -17.2170 -1.2814 0.9323
1.7515 -18.3489 -1.3515 0.9287
3.4636 -18.5692 -1.3850 0.9270
17.8209 -0.8523 -1.3082 0.9309
10.4129 2.3278 -0.7823 0.9581
7.6096 3.2031 -0.6054 0.9674
6.0877 3.9615 -0.5326 0.9713
4.0127 4.5184 -0.4431 0.9761
2.5261 5.1184 -0.4185 0.9774
2.0500 5.2975 -0.4165 0.9775
0.5952 5.8435 -0.4307 0.9767
0.0740 6.0387 -0.4428 0.9761
-0.4818 6.2468 -0.4594 0.9752
-19.4002 -3.9679 -1.4519 0.9237
-18.4066 -5.5126 -1.4088 0.9258
-16.3020 -8.2700 -1.3403 0.9293
-14.0550 -10.6393 -1.2925 0.9317
-10.4265 -13.5705 -1.2548 0.9337
-7.8253 -15.1548 -1.2506 0.9339
-6.4642 -15.8427 -1.2546 0.9337
-5.0593 -16.4620 -1.2627 0.9333
-3.6070 -17.0126 -1.2751 0.9326
-0.5452 -17.9019 -1.3132 0.9307
1.0734 -18.2354 -1.3394 0.9294
6.3447 -18.7362 -1.4504 0.9237
2.3953 -0.8795 -0.1871 0.9898
15.1083 0.0768 -1.1078 0.9412
10.9964 2.0415 -0.8201 0.9561
9.2398 2.5851 -0.7035 0.9622
7.0481 3.4158 -0.5743 0.9691
4.8475 4.2430 -0.4724 0.9745
4.2640 4.4634 -0.4526 0.9755
3.2713 4.9490 -0.4350 0.9765
2.7221 5.0447 -0.4203 0.9773
2.2435 5.2247 -0.4169 0.9775
1.7687 5.4032 -0.4169 0.9775
0.8186 5.8998 -0.4367 0.9764
0.2900 5.9579 -0.4374 0.9764
-0.2503 6.1602 -0.4520 0.9756
-0.8586 6.5748 -0.4862 0.9738
-2.1932 6.8862 -0.5299 0.9714
-5.5151 13.1332 -1.0444 0.9445
-18.8166 -4.8974 -1.4256 0.9250
-15.6508 -9.0097 -1.3241 0.9301
-13.3631 -11.2744 -1.2820 0.9323
-12.1680 -12.2821 -1.2677 0.9330
-10.9381 -13.2126 -1.2577 0.9335
-7.0240 -15.5706 -1.2525 0.9338
-5.6373 -16.2179 -1.2589 0.9335
0.4062 -18.1088 -1.3281 0.9299
8.7282 -15.0736 -1.6722 0.9324
12.0819 -14.2472 -1.7934 0.9277
14.8582 0.3708 -1.4269 0.9420
8.0246 3.2229 -0.8302 0.9658
4.1081 4.4750 -0.5832 0.9759
3.6689 4.7918 -0.5794 0.9760
1.2083 5.7465 -0.5638 0.9767
0.6878 5.8017 -0.5609 0.9768
0.1725 5.9946 -0.5758 0.9762
-0.3754 6.1994 -0.5963 0.9754
-0.9909 6.5692 -0.6378 0.9737
-1.6238 6.6653 -0.6586 0.9728
-18.7608 5.0100 -1.8642 0.9249
-17.9496 1.4837 -1.7291 0.9302
-16.8075 -1.6186 -1.6211 0.9344
-15.4051 -4.3380 -1.5365 0.9377
-12.9146 -7.7802 -1.4475 0.9412
-11.9963 -8.7733 -1.4268 0.9420
-9.1771 -9.6388 -1.2777 0.9479
-5.2905 -12.3782 -1.2924 0.9473
-0.6552 -13.9452 -1.3403 0.9454
0.5998 -14.1732 -1.3619 0.9446
1.8958 -14.3299 -1.3877 0.9436
4.6167 -14.4116 -1.4528 0.9410
8.0693 -15.1834 -1.6508 0.9332
9.7009 -14.8801 -1.7053 0.9311
11.3825 -14.4568 -1.7665 0.9287
2.3527 -0.9081 -0.2421 0.9899
14.2101 -2.7314 -1.3892 0.9435
12.0872 0.9425 -1.1640 0.9524
11.0889 1.8700 -1.0796 0.9558
9.4764 2.4835 -0.9405 0.9614
8.4762 3.0513 -0.8649 0.9644
4.9548 4.1946 -0.6233 0.9743
2.2964 5.1136 -0.5382 0.9777
1.8545 5.3641 -0.5449 0.9775
1.4202 5.7141 -0.5653 0.9766
-0.1474 6.1142 -0.5872 0.9757
-0.7204 6.3283 -0.6115 0.9747
-1.3896 6.7648 -0.6630 0.9726
-2.6167 1.6590 -0.2975 0.9876
-17.0633 -1.0188 -1.6411 0.9336
-16.4166 -2.4623 -1.5937 0.9355
-15.7093 -3.8130 -1.5520 0.9371
-14.1352 -6.2548 -1.4840 0.9398
-13.2769 -7.3542 -1.4571 0.9408
-12.3755 -8.3774 -1.4347 0.9417
-11.4333 -9.3276 -1.4166 0.9424
-9.7372 -9.5093 -1.3067 0.9468
-4.6411 -12.6735 -1.2957 0.9472
-3.5162 -13.1229 -1.3043 0.9469
-1.1551 -13.8326 -1.3326 0.9457
0.0835 -14.0886 -1.3526 0.9450
2.6836 -14.3874 -1.4051 0.9429
7.4187 -15.2749 -1.6303 0.9340
9.0299 -15.0176 -1.6823 0.9320
12.4020 -14.1447 -1.8060 0.9272
14.8728 0.6169 -1.4291 0.9419
10.0808 2.2536 -0.9917 0.9593
8.6997 2.7788 -0.8768 0.9640
6.6775 3.5416 -0.7257 0.9701
6.0334 3.9261 -0.6911 0.9715
4.0078 4.5129 -0.5795 0.9760
2.9875 4.8980 -0.5508 0.9772
2.5232 5.1126 -0.5474 0.9774
2.0476 5.2915 -0.5447 0.9775
1.6213 5.6386 -0.5633 0.9767
1.1247 5.8249 -0.5695 0.9764
0.0740 6.0315 -0.5791 0.9761
-0.4812 6.2390 -0.6008 0.9752
-1.1095 6.6134 -0.6438 0.9734
-1.7534 6.7136 -0.6662 0.9725
-18.3251 2.8674 -1.7807 0.9282
-17.3078 -0.4028 -1.6621 0.9328
-15.2641 -4.5714 -1.5297 0.9380
-13.6320 -6.9155 -1.4675 0.9404
-7.2034 -11.3407 -1.2898 0.9474
-6.1637 -11.9370 -1.2898 0.9474
-5.0891 -12.4726 -1.2933 0.9473
-3.9790 -12.9472 -1.3004 0.9470
-2.8325 -13.3598 -1.3111 0.9466
-1.6486 -13.7090 -1.3256 0.9460
-0.4261 -13.9925 -1.3440 0.9453
0.8363 -14.2077 -1.3664 0.9444
2.1401 -14.3507 -1.3930 0.9434
3.4866 -14.4174 -1.4240 0.9421
4.8772 -14.4024 -1.4598 0.9407
6.7765 -15.3489 -1.6108 0.9348
8.3672 -15.1359 -1.6604 0.9329
15.1054 0.0768 -1.4502 0.9411
11.6646 1.1035 -1.1249 0.9540
10.9941 2.0411 -1.0735 0.9561
5.6085 4.0872 -0.6662 0.9725
4.8413 4.2376 -0.6177 0.9745
4.2587 4.4579 -0.5919 0.9755
3.7868 4.7473 -0.5830 0.9759
2.7190 5.0389 -0.5497 0.9773
2.2409 5.2188 -0.5453 0.9774
1.3285 5.7485 -0.5664 0.9766
0.8176 5.8929 -0.5712 0.9764
0.1435 2.9493 -0.2835 0.9882
-0.2500 6.1526 -0.5912 0.9756
-2.1900 6.8763 -0.6928 0.9714
-5.5053 13.1100 -1.3651 0.9445
-18.8267 5.4304 -1.8811 0.9243
-15.5724 -4.0530 -1.5448 0.9374
-13.9798 -6.4640 -1.4787 0.9400
-13.1134 -7.5490 -1.4527 0.9410
-11.2548 -9.4955 -1.4137 0.9425
-9.5642 -9.6538 -1.3046 0.9469
-8.6081 -10.3980 -1.2960 0.9472
-7.6171 -11.0802 -1.2909 0.9474
-4.4358 -12.7612 -1.2970 0.9472
-0.9291 -13.8851 -1.3360 0.9456
2.9326 -14.3998 -1.4108 0.9427
6.1424 -15.4059 -1.5923 0.9355
7.7129 -15.2356 -1.6394 0.9337
9.3334 -14.9577 -1.6926 0.9316
11.0038 -14.5620 -1.7523 0.9293
14.4910 -13.3706 -1.8929 0.9238
7.3504 -12.6942 -1.7424 0.9426
10.0597 -11.8626 -1.8476 0.9393
15.6120 -8.7428 -2.1255 0.9305
19.1772 -1.2346 -2.2827 0.9255
14.8552 0.3707 -1.7651 0.9419
11.5697 1.3269 -1.3833 0.9542
6.8245 3.4765 -0.9098 0.9696
6.2106 3.8971 -0.8709 0.9709
4.7012 4.2829 -0.7554 0.9747
2.6089 5.0734 -0.6777 0.9773
1.6590 5.4306 -0.6745 0.9774
0.1723 5.9874 -0.7115 0.9762
-15.4473 9.0234 -2.1250 0.9305
-15.6121 5.7023 -1.9743 0.9352
-15.5181 4.1440 -1.9079 0.9373
-14.6663 -0.0992 -1.7422 0.9426
-13.1418 -3.7006 -1.6218 0.9465
-11.1118 -6.6941 -1.5409 0.9491
-10.3423 -7.5637 -1.5220 0.9497
-9.5312 -8.3711 -1.5069 0.9502
-8.3424 -8.7620 -1.4371 0.9524
-7.2737 -9.1504 -1.3885 0.9540
-6.3985 -9.7156 -1.3819 0.9542
-5.5046 -10.2423 -1.3812 0.9542
-3.6212 -11.1255 -1.3898 0.9540
-2.6327 -11.4804 -1.3991 0.9537
-1.6136 -11.7754 -1.4118 0.9533
-0.5642 -12.0087 -1.4280 0.9527
0.5153 -12.1777 -1.4478 0.9521
1.6502 -12.4731 -1.4945 0.9506
6.8094 -12.8127 -1.7235 0.9432
9.5012 -12.0674 -1.8244 0.9400
10.8764 -11.5305 -1.8828 0.9381
12.2643 -10.8730 -1.9469 0.9361
15.0485 -9.1615 -2.0928 0.9315
17.7052 -5.0747 -2.1878 0.9285
15.3083 -0.1748 -1.8185 0.9402
12.0551 0.9400 -1.4363 0.9525
7.1942 3.3412 -0.9422 0.9686
5.7734 4.0632 -0.8386 0.9720
4.9483 4.1892 -0.7701 0.9742
4.3574 4.4131 -0.7367 0.9753
3.8811 4.7043 -0.7244 0.9757
2.8052 4.9994 -0.6810 0.9772
1.4186 5.7075 -0.6986 0.9766
0.9174 5.8953 -0.7087 0.9763
-0.7195 6.3202 -0.7556 0.9747
-2.0471 6.8144 -0.8452 0.9717
-15.0022 11.5065 -2.2459 0.9267
-15.5494 8.0125 -2.0779 0.9320
-15.5693 4.7705 -1.9343 0.9365
-15.4138 3.2545 -1.8713 0.9385
-15.1628 1.8105 -1.8139 0.9403
-14.8261 0.4390 -1.7619 0.9420
-14.4122 -0.8605 -1.7150 0.9435
-7.6937 -8.9874 -1.4053 0.9535
-6.7535 -9.4848 -1.3831 0.9542
-4.9598 -10.5277 -1.3824 0.9542
1.1739 -12.2986 -1.4675 0.9515
3.7041 -13.1968 -1.6282 0.9463
6.2725 -12.9149 -1.7055 0.9438
7.5973 -12.6350 -1.7513 0.9423
13.0898 -10.4232 -1.9876 0.9348
15.8666 -8.5446 -2.1406 0.9300
18.3958 -4.2349 -2.2423 0.9268
19.5018 -2.6891 -2.3385 0.9238
14.8299 0.6151 -1.7631 0.9420
11.6463 1.5308 -1.3953 0.9538
7.5846 3.1925 -0.9775 0.9674
6.6674 3.5362 -0.8965 0.9701
5.2057 4.0916 -0.7865 0.9737
4.5920 4.3242 -0.7492 0.9749
4.0029 4.5075 -0.7161 0.9760
2.9840 4.8923 -0.6807 0.9772
1.6194 5.6322 -0.6961 0.9767
-1.7509 6.7043 -0.8231 0.9725
-15.6054 7.0239 -2.0328 0.9334
-15.6029 5.4088 -1.9616 0.9356
-15.4893 3.8637 -1.8963 0.9377
-14.9731 0.9892 -1.7825 0.9413
-13.0299 -3.9023 -1.6157 0.9467
-11.7064 -5.9387 -1.5593 0.9485
-10.9727 -6.8596 -1.5371 0.9492
-7.1030 -9.2448 -1.3849 0.9541
-6.2357 -9.8172 -1.3815 0.9542
-3.4407 -11.1956 -1.3913 0.9539
-2.4466 -11.5395 -1.4012 0.9536
-1.4219 -11.8232 -1.4146 0.9532
-0.3668 -12.0448 -1.4314 0.9526
1.8722 -12.5543 -1.5078 0.9502
4.4530 -13.1499 -1.6492 0.9456
5.7401 -13.0015 -1.6882 0.9444
8.3935 -12.4218 -1.7808 0.9414
9.7543 -11.9768 -1.8348 0.9397
11.1322 -11.4182 -1.8943 0.9378
12.5218 -10.7376 -1.9594 0.9357
15.3046 -8.9746 -2.1075 0.9310
16.6771 -7.8740 -2.1907 0.9284
2.4066 -0.8836 -0.3045 0.9897
19.0611 -3.3387 -2.2987 0.9250
15.1024 0.0768 -1.7940 0.9410
11.6346 1.1007 -1.3882 0.9540
8.2146 3.1112 -1.0434 0.9652
6.3104 3.7871 -0.8742 0.9708
4.8350 4.2321 -0.7633 0.9744
3.2637 4.9375 -0.7031 0.9764
2.7159 5.0331 -0.6794 0.9772
0.8167 5.8861 -0.7059 0.9763
0.1418 2.9143 -0.3466 0.9883
-0.2497 6.1450 -0.7305 0.9755
-1.5119 6.7902 -0.8263 0.9724
-2.1869 6.8664 -0.8560 0.9714
-5.4974 13.0911 -1.6866 0.9444
-15.6180 6.0588 -1.9899 0.9347
-15.5482 4.4848 -1.9222 0.9369
-15.3743 2.9820 -1.8603 0.9389
-14.3278 -1.0930 -1.7069 0.9438
-13.8319 -2.3086 -1.6658 0.9451
-13.2739 -3.4548 -1.6293 0.9462
-11.2772 -6.4920 -1.5457 0.9489
-10.5173 -7.3755 -1.5259 0.9496
-9.7153 -8.1967 -1.5099 0.9501
-6.5931 -9.5907 -1.3825 0.9542
-5.7064 -10.1299 -1.3811 0.9542
-3.8370 -11.0386 -1.3882 0.9540
-2.8554 -11.4065 -1.3967 0.9537
-0.8004 -11.9622 -1.4241 0.9529
0.2724 -12.1458 -1.4431 0.9522
2.6118 -12.8245 -1.5546 0.9486
3.9368 -13.1853 -1.6346 0.9461
5.2121 -13.0727 -1.6717 0.9449
6.5156 -12.8705 -1.7136 0.9435
11.9545 -11.0303 -1.9322 0.9366
13.3476 -10.2732 -2.0007 0.9344
14.7398 -9.3798 -2.0753 0.9320
6.3437 -10.9556 -1.7937 0.9501
8.6108 -10.1540 -1.8864 0.9476
9.7468 -9.6077 -1.9392 0.9462
13.0799 -7.3248 -2.1241 0.9412
14.0496 -4.8439 -2.1057 0.9417
14.9237 -3.6959 -2.1784 0.9398
15.7232 -2.4331 -2.2543 0.9377
16.4308 -1.0578 -2.3329 0.9356
7.5298 3.0242 -1.1497 0.9677
5.3190 4.0404 -0.9464 0.9734
4.6951 4.2774 -0.8999 0.9747
4.0981 4.4640 -0.8586 0.9758
3.6602 4.7804 -0.8531 0.9760
3.0355 4.7968 -0.8043 0.9773
2.6059 5.0676 -0.8074 0.9772
2.1304 5.2466 -0.8023 0.9774
1.6571 5.4244 -0.8036 0.9773
1.2055 5.7333 -0.8301 0.9766
0.6862 5.7881 -0.8259 0.9767
0.1720 5.9802 -0.8477 0.9761
-10.8470 13.2729 -2.4288 0.9331
-12.1719 10.4020 -2.2686 0.9374
-13.1428 6.1783 -2.0577 0.9430
-13.2326 4.8332 -1.9961 0.9447
-11.9145 -2.2327 -1.7175 0.9522
-10.3613 -5.0431 -1.6328 0.9545
-9.7442 -5.8703 -1.6118 0.9551
-8.3810 -7.3609 -1.5805 0.9559
-7.6402 -8.0245 -1.5699 0.9562
-6.8628 -8.6335 -1.5627 0.9564
-6.0508 -9.1875 -1.5587 0.9565
-5.2057 -9.6861 -1.5581 0.9565
-4.3290 -10.1285 -1.5607 0.9565
0.4846 -11.4508 -1.6239 0.9548
1.5245 -11.5234 -1.6470 0.9541
3.6693 -11.4543 -1.7042 0.9526
4.7698 -11.3052 -1.7386 0.9516
5.8855 -11.0742 -1.7769 0.9506
9.2843 -9.8426 -1.9171 0.9468
2.3523 -0.9080 -0.3573 0.9899
14.5755 -4.1777 -2.1484 0.9406
15.2578 -0.1742 -2.1620 0.9402
12.0229 0.9375 -1.7087 0.9524
9.2926 2.4353 -1.3611 0.9619
5.7654 4.0576 -0.9989 0.9719
4.3520 4.4076 -0.8776 0.9753
3.3538 4.8962 -0.8409 0.9763
2.2912 5.1019 -0.7924 0.9777
1.8502 5.3519 -0.8023 0.9774
1.4170 5.7010 -0.8323 0.9765
-9.5476 15.2438 -2.5486 0.9299
-2.6165 1.6588 -0.4390 0.9876
-13.0750 6.7374 -2.0841 0.9423
-13.2088 5.3766 -2.0206 0.9440
-13.2373 4.0560 -1.9617 0.9456
-12.7760 0.3783 -1.8110 0.9497
-12.4651 -0.7443 -1.7693 0.9508
-12.0868 -1.8129 -1.7317 0.9518
-11.1493 -3.7860 -1.6683 0.9535
-10.5995 -4.6903 -1.6423 0.9543
-9.3577 -6.3346 -1.6011 0.9554
-8.6720 -7.0748 -1.5858 0.9558
-7.9466 -7.7606 -1.5738 0.9561
-7.1839 -8.3919 -1.5652 0.9564
-6.3858 -8.9684 -1.5599 0.9565
-4.6900 -9.9551 -1.5592 0.9565
-3.7952 -10.3637 -1.5638 0.9564
-2.8709 -10.7144 -1.5717 0.9562
0.0675 -11.4018 -1.6155 0.9550
1.0979 -11.5021 -1.6371 0.9544
3.2258 -11.4925 -1.6913 0.9529
4.3193 -11.3756 -1.7241 0.9520
7.6844 -10.5259 -1.8466 0.9487
8.8210 -10.0605 -1.8958 0.9474
11.0834 -8.8255 -2.0074 0.9444
14.2818 -6.1184 -2.2015 0.9392
14.2161 -4.6403 -2.1189 0.9414
16.5501 -0.7915 -2.3477 0.9353
14.7870 0.6133 -2.0970 0.9420
8.4348 2.6942 -1.2546 0.9649
6.0620 3.9448 -1.0248 0.9712
5.1987 4.0861 -0.9369 0.9736
2.9806 4.8866 -0.8110 0.9771
2.5175 5.1009 -0.8060 0.9773
2.0430 5.2794 -0.8021 0.9774
1.6176 5.6257 -0.8294 0.9766
-1.1085 6.6072 -0.9493 0.9733
-1.7485 6.6949 -0.9804 0.9724
-7.9282 17.1087 -2.6717 0.9267
-9.1119 15.7975 -2.5840 0.9290
-10.9946 13.0093 -2.4134 0.9335
-12.2653 10.1365 -2.2545 0.9377
-13.1675 5.9266 -2.0460 0.9433
-13.2378 4.5890 -1.9852 0.9450
-13.0868 2.0477 -1.8768 0.9479
-12.2487 -1.3839 -1.7466 0.9514
-11.8331 -2.4202 -1.7113 0.9524
-11.3585 -3.4017 -1.6800 0.9532
-10.8296 -4.3284 -1.6525 0.9540
-8.9564 -6.7797 -1.5916 0.9556
-8.2469 -7.4877 -1.5783 0.9560
-6.7152 -8.7401 -1.5617 0.9564
-5.8970 -9.2839 -1.5584 0.9565
-5.0459 -9.7722 -1.5583 0.9565
-1.3408 -11.1493 -1.5911 0.9556
-0.3454 -11.3418 -1.6078 0.9552
1.7193 -11.5292 -1.6516 0.9540
2.7855 -11.5182 -1.6790 0.9533
8.3576 -10.2619 -1.8752 0.9479
9.4942 -9.7381 -1.9270 0.9465
13.9030 -6.5643 -2.1784 0.9398
2.4188 -0.8881 -0.3651 0.9896
14.7350 -3.9615 -2.1619 0.9402
16.2822 -1.3735 -2.3152 0.9361
15.0564 0.0765 -2.1334 0.9410
11.6045 1.0978 -1.6516 0.9540
10.7085 1.9881 -1.5432 0.9570
7.7564 2.9377 -1.1752 0.9670
6.9284 3.3578 -1.0909 0.9694
4.2482 4.4469 -0.8714 0.9755
3.2599 4.9317 -0.8376 0.9764
2.7128 5.0273 -0.8094 0.9772
0.8157 5.8792 -0.8410 0.9763
-5.4384 12.9507 -1.9902 0.9448
-11.4323 12.1607 -2.3649 0.9348
-12.0531 10.7221 -2.2857 0.9369
-13.1081 6.4830 -2.0720 0.9426
-13.2317 3.8166 -1.9512 0.9459
-13.1468 2.5500 -1.8975 0.9473
-12.9750 1.3325 -1.8481 0.9487
-12.4001 -0.9460 -1.7621 0.9510
-11.5587 -3.0084 -1.6923 0.9529
-11.0514 -3.9574 -1.6632 0.9537
-10.4924 -4.8515 -1.6379 0.9544
-9.8855 -5.6908 -1.6162 0.9550
-9.2340 -6.4755 -1.5980 0.9555
-8.5408 -7.2058 -1.5833 0.9559
-6.2345 -9.0689 -1.5593 0.9565
-5.3966 -9.5800 -1.5579 0.9566
-4.5268 -10.0349 -1.5598 0.9565
-3.6265 -10.4329 -1.5650 0.9564
-1.7389 -11.0527 -1.5853 0.9558
-0.7542 -11.2710 -1.6006 0.9554
2.3484 -11.5315 -1.6674 0.9536
4.5234 -11.3453 -1.7306 0.9519
6.7610 -10.8352 -1.8096 0.9497
9.0313 -9.9637 -1.9054 0.9471
10.1656 -9.3797 -1.9598 0.9457
11.2903 -8.6897 -2.0187 0.9441
12.3966 -7.8887 -2.0820 0.9424
13.4745 -6.9720 -2.1496 0.9405
8.4828 -8.3617 -1.9622 0.9529
10.3529 -7.0787 -2.0661 0.9504
11.2445 -6.2970 -2.1231 0.9491
12.0693 -5.4079 -2.1788 0.9478
13.7707 -0.8865 -2.2733 0.9456
14.1916 0.3542 -2.3386 0.9441
11.5648 1.3264 -1.9177 0.9539
8.8806 2.6759 -1.5279 0.9631
7.6322 3.0653 -1.3549 0.9672
6.6070 3.3657 -1.2215 0.9704
5.8302 3.6584 -1.1339 0.9725
4.6870 4.2699 -1.0445 0.9746
4.0718 4.4354 -0.9919 0.9759
3.0320 4.7912 -0.9341 0.9773
2.6029 5.0617 -0.9377 0.9772
2.1280 5.2405 -0.9318 0.9773
1.6552 5.4182 -0.9333 0.9773
0.6854 5.7813 -0.9591 0.9767
0.1718 5.9729 -0.9844 0.9761
-1.4268 5.8567 -0.9930 0.9759
-2.2924 6.7321 -1.1716 0.9716
-5.9157 13.3386 -2.4038 0.9426
-8.3446 12.3047 -2.4492 0.9415
-9.1410 11.1853 -2.3797 0.9431
-10.8008 7.6769 -2.1830 0.9477
-11.3484 5.3348 -2.0658 0.9504
-11.5064 3.0727 -1.9620 0.9529
-11.4555 1.9866 -1.9153 0.9540
-10.8559 -1.0454 -1.7967 0.9568
-10.5253 -1.9724 -1.7641 0.9575
-10.1374 -2.8546 -1.7350 0.9582
-9.6964 -3.6911 -1.7092 0.9588
-8.6703 -5.2233 -1.6675 0.9598
-8.0917 -5.9178 -1.6515 0.9602
-3.0543 -9.3840 -1.6257 0.9608
-1.3564 -9.8985 -1.6459 0.9603
-0.4731 -10.0695 -1.6607 0.9600
1.3532 -10.2288 -1.6998 0.9590
3.2444 -10.1279 -1.7520 0.9578
7.1256 -9.0502 -1.8976 0.9544
8.0921 -8.5787 -1.9428 0.9533
9.0459 -8.0198 -1.9915 0.9522
11.7538 -5.7886 -2.1584 0.9483
2.3521 -0.9079 -0.4154 0.9898
13.0122 -2.5011 -2.1829 0.9477
14.0330 -0.1602 -2.3119 0.9447
12.0152 0.9369 -1.9854 0.9523
11.0140 1.8573 -1.8401 0.9557
9.4206 2.4688 -1.6044 0.9613
6.1314 3.5435 -1.1666 0.9717
5.4679 3.8482 -1.1015 0.9733
4.9073 4.1544 -1.0592 0.9743
3.8718 4.6929 -1.0023 0.9756
3.3498 4.8905 -0.9765 0.9763
1.8481 5.3457 -0.9318 0.9773
1.4153 5.6944 -0.9666 0.9765
0.1816 2.7835 -0.4595 0.9888
-0.1468 6.0877 -1.0032 0.9756
-1.7289 5.7552 -0.9900 0.9759
-6.5057 12.7975 -2.3650 0.9435
-7.9840 12.7473 -2.4779 0.9408
-9.5541 10.5049 -2.3393 0.9441
-10.6368 8.1583 -2.2084 0.9471
-2.6164 1.6588 -0.5103 0.9875
-11.2701 5.8074 -2.0886 0.9499
-11.5032 3.5247 -1.9820 0.9524
-11.4860 2.4252 -1.9339 0.9535
-10.3022 -2.5006 -1.7464 0.9579
-8.8940 -4.9265 -1.6750 0.9596
-8.3325 -5.6406 -1.6576 0.9600
-6.4126 -7.4909 -1.6245 0.9608
-4.9602 -8.4750 -1.6177 0.9610
-3.3881 -9.2519 -1.6231 0.9608
-1.7101 -9.8120 -1.6408 0.9604
-0.8357 -10.0070 -1.6543 0.9601
0.9752 -10.2168 -1.6908 0.9592
3.8140 -10.0448 -1.7700 0.9574
9.6021 -7.6460 -2.0221 0.9515
10.5204 -6.9413 -2.0764 0.9502
11.4051 -6.1419 -2.1340 0.9488
12.7611 -2.9377 -2.1572 0.9483
13.3530 -1.8413 -2.2206 0.9468
7.4268 3.1261 -1.3274 0.9679
5.1321 4.0337 -1.0754 0.9739
4.5803 4.3132 -1.0365 0.9748
3.9931 4.4964 -0.9907 0.9759
3.5593 4.8112 -0.9859 0.9760
2.9771 4.8809 -0.9418 0.9771
2.5146 5.0950 -0.9360 0.9772
2.0406 5.2734 -0.9315 0.9773
1.6036 5.5769 -0.9560 0.9768
1.1208 5.8047 -0.9739 0.9763
0.5924 5.8160 -0.9631 0.9766
-0.4755 6.1649 -1.0186 0.9752
-1.0551 6.2891 -1.0505 0.9745
-1.5008 5.7463 -0.9784 0.9762
-6.1042 13.1726 -2.3917 0.9428
-7.6023 13.1804 -2.5066 0.9402
-8.5013 12.1010 -2.4363 0.9418
-9.2746 10.9741 -2.3670 0.9434
-10.4541 8.6396 -2.2342 0.9465
-11.1752 6.2829 -2.1120 0.9494
-11.3786 5.1214 -2.0556 0.9507
-11.5031 2.8694 -1.9531 0.9531
-11.2943 0.7462 -1.8647 0.9552
-10.0598 -3.0128 -1.7300 0.9583
-9.1105 -4.6217 -1.6829 0.9594
-8.5664 -5.3553 -1.6643 0.9599
-7.3548 -6.6778 -1.6365 0.9605
-6.6925 -7.2656 -1.6273 0.9607
-5.9957 -7.8036 -1.6212 0.9609
-5.2663 -8.2910 -1.6181 0.9610
-0.3074 -10.0946 -1.6638 0.9599
2.4671 -10.2019 -1.7291 0.9583
3.4218 -10.1047 -1.7575 0.9577
10.1497 -7.2398 -2.0538 0.9507
11.0493 -6.4793 -2.1101 0.9494
11.9092 -5.6229 -2.1696 0.9480
13.1217 -2.2983 -2.1946 0.9474
14.1073 0.0717 -2.3240 0.9444
11.5745 1.0950 -1.9153 0.9540
10.6849 1.9837 -1.7903 0.9569
9.1691 2.5653 -1.5685 0.9621
7.8918 2.9889 -1.3902 0.9664
6.8153 3.3030 -1.2477 0.9698
5.9926 3.5964 -1.1514 0.9721
3.2560 4.9259 -0.9727 0.9763
1.7606 5.3786 -0.9323 0.9773
1.3239 5.7286 -0.9686 0.9764
-0.2484 6.1121 -1.0077 0.9755
-1.4223 6.3873 -1.0780 0.9738
-2.1185 6.6519 -1.1501 0.9721
-9.6742 10.2906 -2.3268 0.9444
-10.7135 7.9398 -2.1968 0.9474
-2.6589 1.6248 -0.5133 0.9874
-11.3077 5.5925 -2.0782 0.9501
-11.4532 4.4431 -2.0238 0.9514
-11.5064 3.3190 -1.9728 0.9526
-11.4738 2.2255 -1.9254 0.9537
-10.9213 -0.8331 -1.8044 0.9566
-10.6040 -1.7699 -1.7711 0.9574
-9.7990 -3.5089 -1.7147 0.9587
-9.3194 -4.3091 -1.6915 0.9592
-8.7934 -5.0621 -1.6715 0.9597
-8.2241 -5.7673 -1.6548 0.9601
-3.2372 -9.3130 -1.6243 0.9608
-2.4059 -9.6107 -1.6321 0.9606
-0.6716 -10.0366 -1.6571 0.9600
3.9925 -10.0137 -1.7759 0.9572
7.8778 -8.6912 -1.9324 0.9536
10.6868 -6.8007 -2.0868 0.9499
11.5643 -5.9836 -2.1450 0.9486
5.8235 -8.2597 -1.8996 0.9597
6.6699 -7.8652 -1.9384 0.9589
7.5025 -7.3954 -1.9801 0.9580
8.3152 -6.8484 -2.0248 0.9571
10.5283 -4.7174 -2.1685 0.9541
11.8395 -0.7622 -2.2300 0.9529
12.1525 0.3033 -2.2849 0.9517
11.5624 1.3261 -2.1875 0.9537
8.8638 2.6709 -1.7400 0.9630
7.7322 3.1055 -1.5662 0.9667
6.7539 3.4405 -1.4247 0.9696
4.5448 4.1404 -1.1556 0.9753
3.6514 4.7690 -1.1289 0.9759
2.5676 4.9932 -1.0554 0.9774
1.6313 5.3399 -1.0495 0.9775
0.1666 5.7896 -1.0887 0.9767
-0.3625 5.9864 -1.1273 0.9759
-0.9386 6.2223 -1.1828 0.9747
-2.3412 6.8756 -1.3652 0.9709
-7.3227 8.9603 -2.1751 0.9540
-9.0165 7.7054 -2.2293 0.9529
-9.4301 6.7026 -2.1746 0.9540
-10.1769 2.7177 -1.9799 0.9580
-9.9147 -0.0671 -1.8636 0.9604
-9.6960 -0.9337 -1.8309 0.9611
-9.0876 -2.5590 -1.7745 0.9623
-8.7057 -3.3139 -1.7509 0.9628
-8.2767 -4.0284 -1.7302 0.9632
-7.8038 -4.7013 -1.7124 0.9636
-4.8779 -7.4066 -1.6669 0.9645
-4.1970 -7.8092 -1.6664 0.9646
-3.4890 -8.1632 -1.6686 0.9645
-2.7560 -8.4674 -1.6737 0.9644
-1.2225 -8.9208 -1.6924 0.9640
-0.4260 -9.0669 -1.7061 0.9637
1.2157 -9.1888 -1.7422 0.9630
2.0559 -9.1606 -1.7647 0.9625
3.7611 -8.9144 -1.8186 0.9614
9.5505 -5.8143 -2.1016 0.9555
10.2768 -5.0612 -2.1532 0.9544
10.7401 -3.0784 -2.1000 0.9555
11.2502 -2.1624 -2.1533 0.9544
11.6858 -1.1803 -2.2076 0.9533
8.1651 2.9393 -1.6311 0.9653
7.1596 3.3251 -1.4838 0.9684
5.4414 3.8296 -1.2507 0.9733
2.7581 4.9154 -1.0594 0.9773
2.2911 5.1018 -1.0512 0.9775
1.8232 5.2737 -1.0488 0.9775
0.8683 5.5799 -1.0614 0.9773
-0.1424 5.9046 -1.1101 0.9762
-1.3134 6.3939 -1.2269 0.9738
-4.6720 11.6610 -2.3612 0.9502
-5.5619 10.9409 -2.3069 0.9513
-6.3599 10.1543 -2.2521 0.9524
-7.0633 9.3147 -2.1973 0.9535
-8.8198 8.1104 -2.2521 0.9524
-9.2732 7.1124 -2.1966 0.9535
-2.6162 1.6587 -0.5823 0.9875
-9.8941 5.0983 -2.0921 0.9557
-10.0699 4.0989 -2.0435 0.9567
-10.1757 2.1485 -1.9548 0.9586
-8.4570 -3.7422 -1.7383 0.9631
-8.0016 -4.4322 -1.7193 0.9635
-7.5042 -5.0799 -1.7033 0.9638
-6.9675 -5.6843 -1.6902 0.9641
-6.3942 -6.2446 -1.6799 0.9643
-5.7867 -6.7597 -1.6725 0.9644
-3.7807 -8.0249 -1.6674 0.9645
-3.0576 -8.3495 -1.6713 0.9645
-1.5417 -8.8456 -1.6877 0.9641
0.0541 -9.1271 -1.7156 0.9635
2.5583 -9.1145 -1.7794 0.9622
3.4119 -8.9858 -1.8066 0.9616
4.2695 -8.7908 -1.8369 0.9610
7.6545 -7.3002 -1.9882 0.9579
10.5132 -3.4316 -2.0787 0.9560
11.5179 -1.5882 -2.1854 0.9538
5.0322 3.9552 -1.2030 0.9743
4.4394 4.1805 -1.1462 0.9755
2.0143 5.2053 -1.0491 0.9775
0.2963 2.9097 -0.5497 0.9882
-0.4647 6.0243 -1.1357 0.9757
-1.0526 6.2743 -1.1958 0.9744
-1.4772 5.6562 -1.0988 0.9765
-5.2101 11.2432 -2.3292 0.9508
-8.6065 8.5122 -2.2753 0.9519
-9.1003 7.5208 -2.2190 0.9531
-9.4960 6.5163 -2.1647 0.9542
-9.7974 5.5083 -2.1126 0.9553
-10.1794 2.5392 -1.9719 0.9582
-10.1486 1.5880 -1.9307 0.9591
-10.0469 0.6638 -1.8925 0.9598
-9.8788 -0.2299 -1.8573 0.9606
-9.6490 -1.0902 -1.8252 0.9612
-9.3616 -1.9147 -1.7961 0.9619
-7.7118 -4.8211 -1.7095 0.9637
-7.1908 -5.4433 -1.6952 0.9640
-6.6321 -6.0216 -1.6838 0.9642
-4.7541 -7.4846 -1.6666 0.9646
-3.3553 -8.2232 -1.6694 0.9645
-2.6178 -8.5181 -1.6750 0.9644
-1.8576 -8.7615 -1.6834 0.9642
0.5396 -9.1673 -1.7261 0.9633
1.3702 -9.1882 -1.7461 0.9629
2.2124 -9.1486 -1.7691 0.9624
5.6337 -8.3375 -1.8913 0.9599
6.4824 -7.9595 -1.9295 0.9591
8.1363 -6.9770 -2.0146 0.9573
10.3942 -4.9076 -2.1605 0.9543
12.0911 0.0615 -2.2727 0.9520
11.5444 1.0921 -2.1796 0.9539
9.1513 2.5603 -1.7861 0.9621
6.0678 3.6416 -1.3301 0.9716
4.1125 4.3049 -1.1190 0.9761
3.7686 4.7245 -1.1359 0.9757
3.2522 4.9201 -1.1086 0.9763
2.6716 4.9511 -1.0574 0.9774
1.7362 5.3040 -1.0490 0.9775
1.2620 5.4607 -1.0535 0.9774
0.1349 2.7710 -0.5215 0.9888
-0.2414 5.9414 -1.1177 0.9761
-0.8046 6.1616 -1.1680 0.9750
-1.2902 5.7943 -1.1158 0.9761
-2.1628 6.7909 -1.3396 0.9714
-5.7165 10.8001 -2.2968 0.9515
-7.1830 9.1547 -2.1872 0.9537
-8.3764 8.9102 -2.2986 0.9514
-8.9111 7.9270 -2.2417 0.9526
-9.3464 6.9266 -2.1866 0.9538
-2.6556 1.6229 -0.5850 0.9874
-10.1704 2.9336 -1.9896 0.9578
-10.1700 1.9726 -1.9472 0.9587
-10.0966 1.0369 -1.9077 0.9595
-9.7499 -0.7438 -1.8379 0.9610
-8.7949 -3.1493 -1.7559 0.9627
-7.9127 -4.5552 -1.7161 0.9635
-7.4079 -5.1949 -1.7006 0.9638
-6.8642 -5.7913 -1.6881 0.9641
-6.2844 -6.3433 -1.6783 0.9643
-4.3510 -7.7237 -1.6663 0.9646
-3.6489 -8.0886 -1.6679 0.9645
-2.9212 -8.4040 -1.6723 0.9644
0.2050 -9.1418 -1.7187 0.9635
1.8680 -9.1722 -1.7594 0.9626
2.7157 -9.0956 -1.7842 0.9621
4.4282 -8.7472 -1.8428 0.9609
5.2855 -8.4706 -1.8767 0.9602
6.1377 -8.1224 -1.9136 0.9594
9.3831 -5.9710 -2.0905 0.9557
6.7194 -6.6235 -1.9944 0.9622
8.7578 -4.9044 -2.1217 0.9598
10.0507 -1.5553 -2.1498 0.9593
10.6143 0.2649 -2.2444 0.9575
10.7679 1.2350 -2.2910 0.9567
10.2670 2.1179 -2.2159 0.9580
7.7189 3.1002 -1.7583 0.9666
6.7822 3.4549 -1.6089 0.9694
5.9901 3.7587 -1.4948 0.9715
5.2570 3.9934 -1.3955 0.9734
4.0178 4.3766 -1.2558 0.9760
3.6469 4.7632 -1.2681 0.9758
2.9892 4.7237 -1.1816 0.9774
2.5202 4.9009 -1.1649 0.9777
2.0604 5.0741 -1.1576 0.9779
-1.3796 5.6631 -1.2321 0.9765
-4.3937 9.9068 -2.2908 0.9567
-5.1519 9.2826 -2.2441 0.9575
-6.4350 7.8741 -2.1495 0.9593
-8.3601 5.9421 -2.1681 0.9589
-8.6662 5.0623 -2.1215 0.9598
-9.0582 0.7488 -1.9213 0.9635
-8.7528 -0.8429 -1.8587 0.9647
-8.5161 -1.5959 -1.8315 0.9652
-8.2282 -2.3170 -1.8069 0.9657
-7.8924 -3.0043 -1.7851 0.9661
-7.0893 -4.2709 -1.7495 0.9667
-6.1300 -5.3839 -1.7246 0.9672
-3.8221 -7.1117 -1.7066 0.9675
-2.5088 -7.7081 -1.7135 0.9674
-1.1117 -8.1127 -1.7309 0.9671
-0.3871 -8.2396 -1.7436 0.9668
1.8625 -8.2987 -1.7978 0.9658
6.4232 -6.8095 -1.9787 0.9625
8.4992 -5.1743 -2.1033 0.9601
9.1146 -4.4888 -2.1476 0.9593
2.3531 -0.9083 -0.5332 0.9897
9.8984 -1.9026 -2.1306 0.9596
10.7165 0.8357 -2.2721 0.9570
10.8143 1.8236 -2.3182 0.9562
8.1505 2.9341 -1.8311 0.9652
6.2990 3.6403 -1.5378 0.9707
5.5507 3.9065 -1.4348 0.9726
4.2486 4.3029 -1.2782 0.9756
3.8623 4.6814 -1.2829 0.9755
3.3419 4.8788 -1.2500 0.9761
1.3294 5.3485 -1.1650 0.9777
-1.7229 5.7354 -1.2659 0.9758
-4.0635 10.1422 -2.3095 0.9563
-4.8520 9.5445 -2.2632 0.9572
-5.5650 8.8852 -2.2161 0.9580
-6.7535 7.4256 -2.1217 0.9598
-7.2269 6.6457 -2.0753 0.9607
-8.2116 6.2982 -2.1875 0.9586
-2.6161 1.6586 -0.6548 0.9874
-8.9888 3.6588 -2.0514 0.9611
-8.8337 -0.5274 -1.8706 0.9645
-8.0348 -2.7284 -1.7937 0.9659
-7.2664 -4.0249 -1.7558 0.9666
-6.8205 -4.6170 -1.7410 0.9669
-6.3371 -5.1700 -1.7288 0.9671
-5.8189 -5.6827 -1.7192 0.9673
-4.0779 -6.9676 -1.7065 0.9675
-3.4428 -7.3077 -1.7075 0.9675
-2.7838 -7.6018 -1.7112 0.9674
-2.1030 -7.8484 -1.7175 0.9673
-0.6843 -8.1941 -1.7381 0.9669
0.0491 -8.2901 -1.7524 0.9667
2.3158 -8.2505 -1.8114 0.9656
8.2340 -5.4327 -2.0852 0.9605
8.7858 -3.7639 -2.0204 0.9617
9.2887 -3.0319 -2.0654 0.9608
10.4236 -0.4985 -2.2059 0.9582
10.6496 0.4417 -2.2531 0.9574
9.9762 2.2302 -2.1608 0.9591
8.6198 2.7533 -1.9127 0.9637
6.6266 3.5146 -1.5856 0.9698
5.1293 4.0315 -1.3791 0.9737
4.4891 4.2273 -1.3034 0.9751
3.5508 4.7996 -1.2620 0.9759
1.5176 5.2779 -1.1609 0.9778
1.0535 5.4563 -1.1747 0.9775
0.2883 2.8302 -0.6014 0.9884
0.0720 5.8744 -1.2418 0.9763
-4.5395 9.7961 -2.2822 0.9568
-5.2839 9.1606 -2.2354 0.9577
-7.0437 6.9666 -2.0941 0.9603
-8.0491 6.6520 -2.2072 0.9582
-8.9250 4.0171 -2.0688 0.9608
-9.0594 3.1405 -2.0268 0.9616
-9.1208 2.2751 -1.9870 0.9623
-9.1131 1.4259 -1.9498 0.9630
-9.0400 0.5972 -1.9150 0.9636
-7.4367 -3.7726 -1.7627 0.9665
-7.0069 -4.3804 -1.7467 0.9668
-6.5385 -4.9495 -1.7334 0.9670
-6.0342 -5.4787 -1.7228 0.9672
-4.3294 -6.8161 -1.7069 0.9675
-3.7047 -7.1746 -1.7068 0.9675
-3.0551 -7.4876 -1.7094 0.9675
-2.3829 -7.7537 -1.7146 0.9674
1.2425 -8.3320 -1.7807 0.9661
2.0038 -8.2858 -1.8019 0.9657
5.0694 -7.5024 -1.9139 0.9637
5.8214 -7.1478 -1.9486 0.9630
7.2739 -6.2374 -2.0254 0.9616
7.9626 -5.6797 -2.0674 0.9608
9.2123 -4.3496 -2.1534 0.9592
10.5679 0.0537 -2.2339 0.9577
10.7418 1.0162 -2.2807 0.9568
10.6374 1.9749 -2.2870 0.9567
9.1334 2.5553 -2.0048 0.9620
4.7406 4.1495 -1.3317 0.9746
4.1428 4.3365 -1.2677 0.9758
3.7640 4.7188 -1.2759 0.9756
3.2483 4.9142 -1.2452 0.9762
2.1623 5.0357 -1.1584 0.9778
1.7047 5.2077 -1.1583 0.9778
0.7732 5.5728 -1.1893 0.9773
0.1335 2.7434 -0.5806 0.9888
-0.2444 6.0151 -1.2725 0.9757
-1.2906 5.7961 -1.2552 0.9760
-2.1741 6.8263 -1.5143 0.9711
-4.2148 10.0368 -2.3011 0.9565
-4.9897 9.4269 -2.2546 0.9573
-5.6884 8.7575 -2.2074 0.9582
-6.8471 7.2834 -2.1131 0.9600
-8.2807 6.1369 -2.1787 0.9587
-9.0136 3.4967 -2.0436 0.9612
-9.0774 0.9323 -1.9289 0.9634
-8.9674 0.1175 -1.8957 0.9640
-7.9711 -2.8544 -1.7897 0.9660
-7.1869 -4.1373 -1.7529 0.9667
-6.7339 -4.7223 -1.7385 0.9669
-6.2439 -5.2679 -1.7268 0.9672
-5.1629 -6.2365 -1.7114 0.9674
-4.5765 -6.6571 -1.7076 0.9675
-1.9748 -7.8888 -1.7190 0.9673
-1.2708 -8.0775 -1.7284 0.9671
0.1862 -8.3020 -1.7553 0.9666
4.7598 -7.6281 -1.9006 0.9639
5.5164 -7.3003 -1.9342 0.9633
6.2600 -6.9063 -1.9703 0.9626
6.9850 -6.4450 -2.0090 0.9619
8.3551 -5.3169 -2.0934 0.9603
4.0713 -7.0312 -1.9095 0.9672
4.7551 -6.7444 -1.9395 0.9667
6.0789 -5.9921 -2.0061 0.9655
6.7086 -5.5253 -2.0426 0.9649
7.8750 -4.4100 -2.1213 0.9636
8.2353 -2.8393 -2.0473 0.9648
8.9546 -1.3857 -2.1296 0.9635
9.4117 0.2349 -2.2127 0.9621
9.5548 1.9710 -2.2929 0.9607
8.8299 2.6607 -2.1674 0.9628
5.9813 3.7532 -1.6596 0.9714
5.2899 4.0184 -1.5613 0.9731
3.6425 4.7573 -1.4082 0.9757
3.0387 4.8019 -1.3355 0.9769
2.5568 4.9721 -1.3140 0.9773
2.0891 5.1449 -1.3050 0.9774
0.0817 2.8403 -0.6678 0.9884
-4.5683 8.2310 -2.2124 0.9621
-5.1847 7.6452 -2.1710 0.9628
-5.7333 7.0155 -2.1294 0.9635
-6.2125 6.3506 -2.0879 0.9642
-7.5009 5.3314 -2.1628 0.9629
-7.7927 4.5520 -2.1211 0.9636
-8.0126 3.7666 -2.0808 0.9643
-8.2652 1.4334 -1.9715 0.9661
-8.1240 -0.0550 -1.9094 0.9672
-6.8707 -3.3441 -1.7959 0.9691
-5.1328 -5.3910 -1.7494 0.9699
-3.5060 -6.5235 -1.7406 0.9700
-2.9139 -6.8177 -1.7425 0.9700
-2.3006 -7.0682 -1.7470 0.9699
-1.6681 -7.2737 -1.7539 0.9698
1.0080 -7.6189 -1.8062 0.9689
1.7009 -7.5788 -1.8255 0.9686
2.3978 -7.4851 -1.8472 0.9682
5.8153 -6.1650 -1.9918 0.9658
6.4551 -5.7229 -2.0275 0.9652
8.1783 -4.0277 -2.1425 0.9632
2.3542 -0.9087 -0.5931 0.9897
8.8276 -1.6968 -2.1127 0.9637
9.1198 -0.9211 -2.1543 0.9630
9.4890 0.7399 -2.2369 0.9616
9.5534 1.6110 -2.2770 0.9610
9.3643 2.4541 -2.2751 0.9610
8.1358 2.9288 -2.0322 0.9651
5.5617 3.9142 -1.5984 0.9724
4.3268 4.3820 -1.4473 0.9750
2.7509 4.9026 -1.3212 0.9772
2.2786 5.0739 -1.3072 0.9774
1.3506 5.4339 -1.3160 0.9773
0.8761 5.6301 -1.3391 0.9769
-0.7148 6.2793 -1.4853 0.9744
-1.7196 5.7243 -1.4047 0.9757
-4.2982 8.4550 -2.2292 0.9618
-5.5181 7.2769 -2.1464 0.9632
-6.0256 6.6253 -2.1048 0.9639
-6.4633 5.9434 -2.0636 0.9646
-6.8310 5.2393 -2.0233 0.9652
-2.6160 1.6585 -0.7280 0.9874
-8.1098 3.3010 -2.0578 0.9647
-8.2200 2.5186 -2.0205 0.9653
-8.2648 1.7450 -1.9853 0.9659
-8.1713 0.2420 -1.9213 0.9670
-7.6201 -1.8496 -1.8429 0.9683
-6.2460 -4.2281 -1.7727 0.9695
-5.3343 -5.2095 -1.7524 0.9698
-4.8310 -5.6434 -1.7459 0.9699
-4.2991 -6.0377 -1.7420 0.9700
-3.1579 -6.7030 -1.7414 0.9700
-1.2852 -7.3738 -1.7591 0.9697
-0.6267 -7.5049 -1.7700 0.9695
0.7274 -7.6203 -1.7991 0.9690
1.4179 -7.6015 -1.8173 0.9687
4.8803 -6.6849 -1.9452 0.9666
5.5482 -6.3278 -1.9779 0.9660
7.4168 -4.8936 -2.0884 0.9641
8.3113 -2.7129 -2.0548 0.9647
9.5374 1.2536 -2.2608 0.9612
9.5506 2.1350 -2.3000 0.9606
8.6036 2.7481 -2.1227 0.9636
7.5213 3.1659 -1.9179 0.9670
6.6163 3.5091 -1.7602 0.9697
4.5625 4.2965 -1.4729 0.9746
2.9481 4.8333 -1.3306 0.9770
2.4695 5.0037 -1.3114 0.9773
1.5405 5.3577 -1.3102 0.9774
0.0357 2.9152 -0.6852 0.9881
-0.4776 6.1916 -1.4595 0.9748
-1.0759 6.4127 -1.5282 0.9736
-3.2861 9.1525 -2.2855 0.9608
-4.6873 8.1264 -2.2048 0.9622
-5.2913 7.5319 -2.1633 0.9629
-5.8272 6.8950 -2.1217 0.9636
-6.2934 6.2245 -2.0803 0.9643
-6.6895 5.5284 -2.0396 0.9650
-7.5604 5.1880 -2.1550 0.9630
-7.8388 4.4071 -2.1135 0.9637
-8.0996 -0.1885 -1.9041 0.9673
-7.9359 -0.8966 -1.8770 0.9677
-7.4592 -2.2339 -1.8300 0.9685
-6.8031 -3.4512 -1.7929 0.9691
-6.4148 -4.0103 -1.7780 0.9694
-5.0397 -5.4713 -1.7483 0.9699
-1.5492 -7.3067 -1.7554 0.9698
-0.2302 -7.5598 -1.7776 0.9694
0.4481 -7.6131 -1.7923 0.9691
1.1357 -7.6155 -1.8096 0.9689
1.8296 -7.5655 -1.8293 0.9685
2.5268 -7.4618 -1.8515 0.9681
3.9178 -7.0871 -1.9032 0.9673
5.2780 -6.4806 -1.9643 0.9662
9.3755 0.0477 -2.2035 0.9622
9.5072 0.8994 -2.2444 0.9615
9.5559 1.7741 -2.2842 0.9609
9.1154 2.5503 -2.2246 0.9619
7.9363 3.0058 -1.9945 0.9657
6.9644 3.3752 -1.8189 0.9687
6.1475 3.6894 -1.6850 0.9710
5.4368 3.9621 -1.5811 0.9727
3.7593 4.7129 -1.4169 0.9755
3.2444 4.9083 -1.3828 0.9761
2.6625 4.9341 -1.3177 0.9772
2.1925 5.1060 -1.3060 0.9774
1.7294 5.2832 -1.3065 0.9774
-0.2481 6.1066 -1.4364 0.9752
-1.2910 5.7978 -1.3960 0.9759
-2.1708 6.8161 -1.6812 0.9710
-3.7266 8.8742 -2.2621 0.9612
-2.6527 1.6211 -0.7306 0.9873
-7.9698 3.9417 -2.0896 0.9641
-8.2331 2.3748 -2.0138 0.9654
-8.2663 1.6033 -1.9790 0.9660
-8.2378 0.8460 -1.9463 0.9665
-8.0089 -0.6110 -1.8878 0.9675
-7.5716 -1.9707 -1.8388 0.9684
-6.9503 -3.2137 -1.7996 0.9690
-6.5777 -3.7866 -1.7838 0.9693
-6.1673 -4.3250 -1.7704 0.9695
-5.2435 -5.2927 -1.7510 0.9699
-3.6346 -6.4522 -1.7405 0.9700
-3.0477 -6.7559 -1.7419 0.9700
-1.1645 -7.4016 -1.7609 0.9697
-0.5035 -7.5239 -1.7722 0.9695
0.1704 -7.5974 -1.7860 0.9693
2.2425 -7.5107 -1.8422 0.9683
2.9402 -7.3743 -1.8658 0.9679
3.6358 -7.1819 -1.8919 0.9675
4.3254 -6.9320 -1.9203 0.9670
5.0050 -6.6234 -1.9511 0.9665
5.6698 -6.2552 -1.9841 0.9659
6.9345 -5.3372 -2.0566 0.9647
8.0730 -4.1772 -2.1363 0.9633
3.7293 -6.4405 -1.9270 0.9697
4.9566 -5.8449 -1.9842 0.9688
5.5447 -5.4655 -2.0158 0.9683
6.1093 -5.0317 -2.0492 0.9678
6.6452 -4.5436 -2.0843 0.9673
7.0608 -3.1638 -2.0033 0.9685
7.4463 -2.5673 -2.0394 0.9680
7.7832 -1.9276 -2.0761 0.9674
8.4447 0.2107 -2.1872 0.9657
8.5306 0.9784 -2.2232 0.9651
8.5413 1.7619 -2.2581 0.9646
8.4730 2.5531 -2.2913 0.9641
6.7606 3.4440 -1.9645 0.9691
5.9724 3.7477 -1.8256 0.9713
4.6645 4.2495 -1.6338 0.9743
4.0993 4.4654 -1.5695 0.9753
3.1290 4.9446 -1.5151 0.9761
2.5906 5.0380 -1.4668 0.9769
2.1181 5.2161 -1.4576 0.9770
1.1714 5.5710 -1.4740 0.9768
0.3343 2.8202 -0.7353 0.9883
0.0814 2.8298 -0.7330 0.9884
-0.9596 6.3617 -1.6658 0.9738
-1.3777 5.6554 -1.5071 0.9762
-2.3389 6.8686 -1.8787 0.9705
-3.4809 7.8486 -2.2230 0.9651
-4.0989 7.3854 -2.1870 0.9657
-4.6611 6.8730 -2.1502 0.9663
-5.6066 5.7313 -2.0759 0.9674
-6.3059 4.4820 -2.0031 0.9685
-7.0723 4.1312 -2.1207 0.9667
-7.2846 3.4244 -2.0841 0.9673
-7.4416 -0.0504 -1.9268 0.9697
-7.1291 -1.3360 -1.8780 0.9705
-6.9031 -1.9439 -1.8569 0.9708
-6.3252 -3.0786 -1.8214 0.9714
-5.5960 -4.0926 -1.7950 0.9718
-5.1809 -4.5503 -1.7853 0.9719
-3.2355 -6.0202 -1.7696 0.9722
-2.6889 -6.2912 -1.7714 0.9721
-2.1225 -6.5211 -1.7756 0.9721
-1.5385 -6.7087 -1.7821 0.9720
-0.9391 -6.8527 -1.7909 0.9718
-0.3266 -6.9519 -1.8020 0.9717
0.2965 -7.0050 -1.8153 0.9714
2.2024 -6.8752 -1.8692 0.9706
4.0985 -6.2866 -1.9431 0.9695
5.3076 -5.6267 -2.0027 0.9685
5.8823 -5.2151 -2.0354 0.9680
8.2051 -0.8287 -2.1352 0.9665
8.5463 1.4412 -2.2440 0.9648
8.5106 2.2303 -2.2780 0.9643
7.1245 3.3088 -2.0339 0.9681
4.3243 4.3796 -1.5936 0.9749
3.8527 4.6698 -1.5675 0.9753
1.8395 5.3208 -1.4577 0.9770
0.8836 5.6784 -1.4879 0.9765
-0.1462 6.0611 -1.5698 0.9753
-1.7166 5.7144 -1.5449 0.9756
-3.8536 7.5805 -2.2018 0.9655
-4.4389 7.0873 -2.1652 0.9660
-4.9664 6.5494 -2.1282 0.9666
-5.4338 5.9745 -2.0910 0.9672
-2.6158 1.6584 -0.8019 0.9873
-7.4929 2.2959 -2.0291 0.9681
-7.4810 0.2215 -1.9378 0.9695
-7.2083 -1.0811 -1.8872 0.9703
-7.0006 -1.6992 -1.8652 0.9707
-6.7489 -2.2917 -1.8454 0.9710
-6.4558 -2.8567 -1.8279 0.9713
-5.3539 -4.3679 -1.7890 0.9719
-4.4573 -5.2068 -1.7746 0.9721
-3.9672 -5.5716 -1.7709 0.9721
-3.4521 -5.8983 -1.7695 0.9722
-2.9142 -6.1857 -1.7704 0.9721
-1.7785 -6.6374 -1.7792 0.9720
-1.1851 -6.7993 -1.7870 0.9719
-0.5776 -6.9169 -1.7972 0.9717
0.6695 -7.0142 -1.8244 0.9713
2.5806 -6.7962 -1.8822 0.9704
3.2160 -6.6217 -1.9060 0.9700
3.8449 -6.3945 -1.9319 0.9696
4.4633 -6.1138 -1.9599 0.9692
5.6510 -5.3894 -2.0219 0.9682
6.2107 -4.9455 -2.0556 0.9677
6.7408 -4.4475 -2.0910 0.9672
8.3221 -0.3980 -2.1572 0.9662
8.4661 0.3511 -2.1939 0.9656
8.5347 1.9079 -2.2643 0.9645
8.4515 2.6996 -2.2972 0.9640
7.5084 3.1605 -2.1093 0.9669
5.1635 4.0584 -1.7005 0.9732
3.9994 4.5035 -1.5595 0.9754
2.9825 4.8898 -1.4830 0.9766
1.0821 5.6043 -1.4779 0.9767
0.2842 2.7901 -0.7261 0.9885
-1.4728 5.6393 -1.5091 0.9762
-2.9385 8.1845 -2.2516 0.9647
-5.2507 6.2128 -2.1061 0.9669
-6.3581 4.3630 -1.9965 0.9686
-7.1164 4.0010 -2.1138 0.9668
-7.3169 3.2933 -2.0775 0.9674
-7.4544 2.5841 -2.0428 0.9679
-7.5494 1.1813 -1.9784 0.9689
-7.2797 -0.8225 -1.8968 0.9702
-7.0907 -1.4503 -1.8739 0.9705
-5.1007 -4.6311 -1.7838 0.9719
-4.6494 -5.0475 -1.7768 0.9720
-4.1700 -5.4275 -1.7722 0.9721
-2.5856 -6.3368 -1.7720 0.9721
-1.4287 -6.7386 -1.7835 0.9719
1.0449 -7.0066 -1.8342 0.9712
2.3205 -6.8525 -1.8732 0.9705
2.9576 -6.6992 -1.8961 0.9702
4.2128 -6.2347 -1.9483 0.9694
5.4156 -5.5547 -2.0086 0.9685
7.4847 -3.5339 -2.1431 0.9664
7.3645 -2.7039 -2.0313 0.9681
7.7127 -2.0735 -2.0679 0.9675
8.0079 -1.4026 -2.1049 0.9670
8.4158 0.0428 -2.1790 0.9658
8.5457 1.5865 -2.2504 0.9647
8.4952 2.3768 -2.2840 0.9642
6.9530 3.3697 -2.0005 0.9686
6.1382 3.6838 -1.8535 0.9709
5.4291 3.9565 -1.7394 0.9726
4.7970 4.1988 -1.6506 0.9740
4.2214 4.4188 -1.5823 0.9751
2.6969 4.9978 -1.4704 0.9768
1.2380 3.7820 -1.0304 0.9837
0.1311 2.6942 -0.6984 0.9889
-0.2478 6.0987 -1.5804 0.9751
-0.8242 6.3117 -1.6481 0.9740
-2.1676 6.8058 -1.8494 0.9709
-3.3361 7.9442 -2.2309 0.9650
-4.5409 6.9910 -2.1584 0.9661
-5.9079 5.2555 -2.0473 0.9679
-2.6512 1.6202 -0.8045 0.9872
-7.2429 3.5822 -2.0921 0.9672
-7.3432 -0.5602 -1.9068 0.9700
-7.1733 -1.1973 -1.8830 0.9704
-6.0586 -3.4878 -1.8101 0.9715
-5.6841 -3.9861 -1.7975 0.9717
-4.8368 -4.8821 -1.7794 0.9720
-2.8124 -6.2344 -1.7708 0.9721
-2.2502 -6.4735 -1.7745 0.9721
-1.0737 -6.8245 -1.7887 0.9719
-0.4640 -6.9337 -1.7993 0.9717
0.1569 -6.9972 -1.8122 0.9715
1.4219 -6.9817 -1.8448 0.9710
2.0602 -6.9002 -1.8645 0.9707
2.6984 -6.7679 -1.8865 0.9703
3.3329 -6.5837 -1.9106 0.9700
5.1765 -5.7110 -1.9957 0.9687
6.3111 -4.8575 -2.0620 0.9676
6.8351 -4.3496 -2.0977 0.9671
3.4372 -5.9361 -1.9418 0.9719
4.0047 -5.6801 -1.9675 0.9715
5.0920 -5.0193 -2.0241 0.9707
5.6029 -4.6146 -2.0549 0.9703
6.0858 -4.1611 -2.0871 0.9698
6.5356 -3.6600 -2.1205 0.9693
6.7884 -2.3404 -2.0328 0.9706
7.0842 -1.7544 -2.0661 0.9701
7.3296 -1.1342 -2.0997 0.9696
7.5196 -0.4841 -2.1331 0.9692
7.7154 0.8849 -2.1985 0.9682
7.6410 2.3024 -2.2592 0.9674
7.4958 3.0105 -2.2868 0.9670
5.2751 4.0071 -1.8753 0.9728
4.6583 4.2438 -1.7839 0.9741
4.0941 4.4597 -1.7138 0.9751
3.6334 4.7455 -1.6920 0.9755
3.1252 4.9385 -1.6545 0.9760
2.5875 5.0319 -1.6018 0.9768
2.1155 5.2098 -1.5918 0.9769
1.1475 3.7564 -1.1119 0.9838
1.1700 5.5643 -1.6097 0.9766
0.3361 2.8350 -0.8082 0.9882
0.0782 2.7164 -0.7693 0.9888
-0.3716 6.1367 -1.7404 0.9748
-0.9583 6.3530 -1.8188 0.9736
-1.3770 5.6526 -1.6470 0.9761
-2.3353 6.8581 -2.0509 0.9703
-3.7130 6.6900 -2.1660 0.9687
-4.2289 6.2358 -2.1330 0.9692
-5.1032 5.2166 -2.0659 0.9701
-5.4583 4.6646 -2.0326 0.9706
-5.7578 4.0924 -1.9998 0.9711
-6.8175 2.4901 -2.0547 0.9703
-6.9073 1.8446 -2.0239 0.9707
-6.9427 1.2040 -1.9948 0.9711
-6.9258 0.5725 -1.9673 0.9715
-6.7440 -0.6495 -1.9180 0.9722
-5.5370 -3.3357 -1.8299 0.9735
-5.1855 -3.7923 -1.8187 0.9736
-4.8027 -4.2181 -1.8095 0.9738
-4.3907 -4.6116 -1.8026 0.9739
-3.0013 -5.5844 -1.7947 0.9740
-2.4940 -5.8353 -1.7965 0.9740
-0.8703 -6.3510 -1.8147 0.9737
-0.3026 -6.4401 -1.8251 0.9736
0.2745 -6.4857 -1.8377 0.9734
1.4459 -6.4425 -1.8692 0.9729
2.6214 -6.2131 -1.9090 0.9724
3.7750 -5.7904 -1.9568 0.9717
4.3344 -5.5051 -1.9835 0.9713
4.8768 -5.1701 -2.0120 0.9709
6.3566 -3.8699 -2.1068 0.9695
6.7653 -3.3318 -2.1349 0.9691
2.3566 -0.9097 -0.7151 0.9896
6.9695 -1.9976 -2.0525 0.9703
7.2360 -1.3909 -2.0860 0.9698
7.6792 2.0125 -2.2473 0.9675
7.5638 2.7229 -2.2758 0.9671
7.1126 3.3033 -2.2201 0.9679
6.2702 3.6237 -2.0502 0.9703
5.5457 3.9030 -1.9198 0.9722
2.2879 5.0945 -1.5810 0.9771
1.8373 5.3144 -1.5918 0.9769
0.1744 2.6733 -0.7584 0.9889
-0.1460 6.0533 -1.7141 0.9751
-1.7136 5.7043 -1.6862 0.9755
-2.9050 7.2505 -2.2112 0.9681
-4.5102 5.9478 -2.1132 0.9694
-5.3202 4.8923 -2.0461 0.9704
-2.6157 1.6584 -0.8768 0.9872
-6.5953 3.3985 -2.1004 0.9696
-6.8774 2.1073 -2.0363 0.9705
-6.9347 1.4642 -2.0065 0.9710
-6.9389 0.8285 -1.9783 0.9714
-6.8920 0.2041 -1.9519 0.9717
-6.6544 -0.9981 -1.9049 0.9724
-5.9742 -2.6436 -1.8494 0.9732
-5.6707 -3.1410 -1.8352 0.9734
-4.9623 -4.0484 -1.8130 0.9737
-4.1337 -4.8288 -1.7995 0.9739
-3.2022 -5.4713 -1.7947 0.9740
-2.7031 -5.7376 -1.7955 0.9740
-2.1847 -5.9658 -1.7985 0.9739
-1.0985 -6.3026 -1.8111 0.9738
0.6197 -6.4919 -1.8462 0.9733
2.3827 -6.2753 -1.9002 0.9725
3.5430 -5.8924 -1.9464 0.9718
4.1082 -5.6273 -1.9724 0.9715
4.6581 -5.3126 -2.0002 0.9711
5.1883 -4.9482 -2.0297 0.9706
6.1716 -4.0720 -2.0932 0.9697
6.6104 -3.5598 -2.1255 0.9693
7.1336 -1.6422 -2.0723 0.9700
7.3690 -1.0161 -2.1059 0.9695
7.5483 -0.3610 -2.1393 0.9691
7.6667 0.3180 -2.1723 0.9686
7.7203 1.0148 -2.2044 0.9681
7.7055 1.7226 -2.2352 0.9677
7.6196 2.4338 -2.2644 0.9673
4.5505 4.2851 -1.7695 0.9744
3.9943 4.4977 -1.7029 0.9753
3.5377 4.7819 -1.6839 0.9756
2.4998 5.0650 -1.5990 0.9768
-0.4763 6.1753 -1.7534 0.9746
-1.0729 6.3951 -1.8357 0.9734
-2.6545 7.3933 -2.2238 0.9679
-3.2562 7.0268 -2.1924 0.9683
-4.7729 5.6475 -2.0933 0.9697
-5.1730 5.1163 -2.0597 0.9702
-5.8071 3.9849 -1.9938 0.9711
-6.7027 3.0169 -2.0808 0.9699
-6.8383 2.3705 -2.0489 0.9704
-6.9435 1.0865 -1.9896 0.9712
-6.9171 0.4570 -1.9625 0.9716
-6.7177 -0.7590 -1.9138 0.9723
-6.3385 -1.8983 -1.8731 0.9729
-5.7987 -2.9417 -1.8407 0.9733
-5.4744 -3.4224 -1.8277 0.9735
-5.1170 -3.8734 -1.8168 0.9737
-4.3115 -4.6807 -1.8015 0.9739
-3.3995 -5.3521 -1.7949 0.9740
-2.9090 -5.6336 -1.7949 0.9740
-0.7661 -6.3707 -1.8165 0.9737
-0.1965 -6.4518 -1.8273 0.9735
0.3820 -6.4893 -1.8403 0.9733
2.1434 -6.3295 -1.8918 0.9726
2.7294 -6.1822 -1.9131 0.9723
3.3093 -5.9863 -1.9364 0.9720
4.4361 -5.4469 -1.9887 0.9712
5.9810 -4.2662 -2.0798 0.9699
6.4386 -3.7756 -2.1130 0.9694
6.3653 -3.0054 -1.9927 0.9712
6.7162 -2.4659 -2.0254 0.9707
7.7200 1.4332 -2.2228 0.9679
5.4214 3.9508 -1.8991 0.9725
2.2202 5.1704 -1.5930 0.9769
0.1300 2.6718 -0.7573 0.9889
-0.2475 6.0908 -1.7257 0.9750
-0.8231 6.3032 -1.7995 0.9739
-1.2930 5.8070 -1.6842 0.9756
-3.5914 6.7852 -2.1733 0.9686
-4.1184 6.3405 -2.1404 0.9691
-5.0166 5.3362 -2.0734 0.9700
-5.6959 4.2213 -2.0070 0.9710
-2.6497 1.6193 -0.8791 0.9872
-6.8779 0.0901 -1.9473 0.9718
-6.6232 -1.1054 -1.9009 0.9725
-6.4294 -1.6734 -1.8808 0.9728
-6.1945 -2.2182 -1.8627 0.9730
-5.9208 -2.7376 -1.8466 0.9732
-4.4848 -4.5269 -1.8039 0.9739
-4.0517 -4.8942 -1.7987 0.9739
-3.1114 -5.5234 -1.7947 0.9740
-2.6086 -5.7827 -1.7959 0.9740
-1.5483 -6.1849 -1.8049 0.9738
-0.9952 -6.3254 -1.8127 0.9737
0.7278 -6.4905 -1.8489 0.9732
1.9037 -6.3759 -1.8837 0.9727
3.0739 -6.0720 -1.9267 0.9721
4.2111 -5.5729 -1.9774 0.9714
4.7577 -5.2489 -2.0055 0.9710
3.7068 -5.2575 -1.9786 0.9734
4.7030 -4.6359 -2.0312 0.9727
5.6076 -3.8342 -2.0894 0.9720
6.0119 -3.3667 -2.1193 0.9716
6.4936 -1.6082 -2.0576 0.9724
6.7094 -1.0383 -2.0882 0.9720
6.9835 0.1743 -2.1487 0.9712
7.0345 0.8068 -2.1779 0.9708
7.0240 1.4490 -2.2059 0.9704
6.9497 2.0941 -2.2325 0.9701
5.9544 3.7364 -2.1622 0.9710
3.1213 4.9324 -1.7954 0.9759
2.5844 5.0258 -1.7382 0.9766
2.1130 5.2035 -1.7274 0.9768
1.1380 3.7253 -1.1981 0.9838
1.1685 5.5575 -1.7467 0.9765
0.3383 2.8536 -0.8839 0.9880
0.0780 2.7106 -0.8341 0.9887
-0.9570 6.3442 -1.9734 0.9735
-1.3763 5.6497 -1.7886 0.9760
-2.3116 6.7887 -2.2058 0.9704
-2.8705 6.4722 -2.1777 0.9708
-3.3898 6.1076 -2.1485 0.9712
-3.8659 5.7005 -2.1185 0.9716
-4.6777 4.7817 -2.0575 0.9724
-5.0099 4.2815 -2.0270 0.9728
-5.5233 3.2264 -1.9675 0.9736
-6.1104 -1.1451 -1.9121 0.9743
-5.9262 -1.6688 -1.8937 0.9746
-5.7036 -2.1712 -1.8771 0.9748
-5.4448 -2.6501 -1.8625 0.9750
-4.4720 -3.9277 -1.8307 0.9754
-2.7962 -5.2029 -1.8168 0.9756
-1.8335 -5.6331 -1.8221 0.9755
-0.2816 -5.9932 -1.8454 0.9752
1.8890 -5.8967 -1.9045 0.9744
2.4317 -5.7635 -1.9241 0.9742
4.9821 -4.4169 -2.0479 0.9725
5.4324 -4.0118 -2.0771 0.9721
5.8528 -3.5632 -2.1076 0.9717
6.2181 -3.0623 -2.1319 0.9714
2.3579 -0.9101 -0.7774 0.9895
6.3919 -1.8321 -2.0452 0.9726
6.8133 -0.6881 -2.1063 0.9717
6.9458 -0.0793 -2.1365 0.9713
7.0210 0.5475 -2.1661 0.9710
7.0359 1.1865 -2.1946 0.9706
6.8750 2.4749 -2.2474 0.9699
6.6964 3.1100 -2.2710 0.9696
6.2605 3.6180 -2.2240 0.9702
4.8956 4.1445 -1.9729 0.9735
4.3129 4.3680 -1.8881 0.9746
3.8429 4.6579 -1.8573 0.9750
3.3255 4.8549 -1.8100 0.9757
0.8815 5.6645 -1.7632 0.9763
0.1738 2.6644 -0.8213 0.9889
-0.1458 6.0454 -1.8600 0.9750
-0.7119 6.2541 -1.9360 0.9740
-1.3314 6.4816 -2.0352 0.9727
-2.6473 6.6073 -2.1893 0.9707
-3.1832 6.2616 -2.1605 0.9710
-3.6773 5.8712 -2.1308 0.9714
-4.1264 5.4416 -2.1005 0.9718
-4.8806 4.4880 -2.0394 0.9726
-2.6156 1.6583 -0.9526 0.9871
-6.0623 3.1238 -2.0976 0.9719
-6.2379 2.5391 -2.0715 0.9722
-6.3492 1.9454 -2.0425 0.9726
-6.4093 1.3533 -2.0148 0.9730
-6.3830 0.1890 -1.9641 0.9736
-6.3002 -0.3762 -1.9413 0.9739
-6.1739 -0.9260 -1.9202 0.9742
-6.0060 -1.4578 -1.9010 0.9745
-5.7989 -1.9691 -1.8836 0.9747
-5.5545 -2.4579 -1.8682 0.9749
-5.2752 -2.9220 -1.8548 0.9751
-4.9630 -3.3596 -1.8434 0.9752
-4.2486 -4.1492 -1.8266 0.9755
-3.8506 -4.4981 -1.8212 0.9755
-2.9834 -5.0975 -1.8167 0.9756
-2.0351 -5.5574 -1.8203 0.9755
-1.5359 -5.7320 -1.8252 0.9755
-1.0228 -5.8683 -1.8322 0.9754
0.0357 -6.0216 -1.8522 0.9751
0.5762 -6.0365 -1.8651 0.9749
1.1208 -6.0090 -1.8801 0.9747
