ply
format ascii 1.0
element vertex 1593
property float32 x
property float32 y
property float32 z
property float32 I
end_header
7.6961 1.8254 -2.2392 0.9677
7.4307 3.2415 -2.2950 0.9669
6.6524 3.6392 -2.1466 0.9690
5.8330 3.9038 -1.9870 0.9712
3.9115 4.5204 -1.6923 0.9755
3.4409 4.7785 -1.6670 0.9758
2.9274 4.9413 -1.6259 0.9764
2.3897 5.0030 -1.5696 0.9772
1.9178 5.1514 -1.5561 0.9774
0.4975 5.5941 -1.5899 0.9769
-0.0014 2.5953 -0.7347 0.9893
-1.7251 6.2763 -1.8427 0.9733
-3.8893 6.5487 -2.1562 0.9688
-4.3887 6.0809 -2.1230 0.9693
-5.5650 4.4815 -2.0227 0.9707
-6.0727 3.3135 -1.9584 0.9717
-6.8562 2.2800 -2.0454 0.9704
-6.9460 0.9971 -1.9865 0.9712
-6.8294 -0.2452 -1.9346 0.9720
-6.0512 -2.5073 -1.8543 0.9731
-5.0658 -3.9356 -1.8160 0.9737
-4.2519 -4.7336 -1.8013 0.9739
-3.8044 -5.0820 -1.7971 0.9740
-3.3328 -5.3949 -1.7952 0.9740
-2.8391 -5.6711 -1.7954 0.9740
-2.3256 -5.9095 -1.7978 0.9739
-1.7943 -6.1087 -1.8024 0.9739
-1.2474 -6.2676 -1.8091 0.9738
1.0484 -6.4776 -1.8576 0.9731
2.2250 -6.3116 -1.8946 0.9726
2.8102 -6.1574 -1.9161 0.9723
3.3888 -5.9547 -1.9396 0.9719
5.5599 -4.6498 -2.0519 0.9703
6.0451 -4.2005 -2.0839 0.9699
6.8973 -3.1533 -2.1470 0.9690
7.0596 -1.8052 -2.0628 0.9702
7.5041 -0.5403 -2.1299 0.9692
7.6394 0.1325 -2.1630 0.9687
7.7149 1.5303 -2.2266 0.9678
7.6486 2.2412 -2.2563 0.9674
7.0402 3.5188 -2.2281 0.9678
5.4059 4.0415 -1.9108 0.9723
3.6317 4.6683 -1.6744 0.9757
3.1377 4.8747 -1.6411 0.9762
2.5888 4.9402 -1.5789 0.9771
2.1129 5.0901 -1.5602 0.9773
0.6993 5.5315 -1.5784 0.9771
-0.8590 6.0118 -1.7192 0.9751
-1.4581 6.1949 -1.8017 0.9739
-3.6669 6.7307 -2.1698 0.9686
-4.1875 6.2801 -2.1368 0.9691
-4.6564 5.7899 -2.1034 0.9696
-6.8100 2.5486 -2.0585 0.9702
-6.9048 1.9026 -2.0275 0.9707
-6.9449 1.2612 -1.9982 0.9711
-6.9325 0.6285 -1.9706 0.9715
-6.6026 -1.1829 -1.8989 0.9725
-6.1625 -2.2897 -1.8611 0.9730
-5.8837 -2.8057 -1.8453 0.9733
-5.5688 -3.2943 -1.8317 0.9735
-4.8398 -4.1823 -1.8108 0.9738
-1.4763 -6.2065 -1.8061 0.9738
0.2216 -6.4836 -1.8365 0.9734
2.5677 -6.2274 -1.9069 0.9724
3.1494 -6.0449 -1.9296 0.9721
4.2831 -5.5327 -1.9807 0.9713
5.8472 -4.3930 -2.0704 0.9701
2.3500 -0.9295 -0.7154 0.9895
6.9408 -2.0517 -2.0489 0.9704
7.2119 -1.4483 -2.0824 0.9699
7.4301 -0.8127 -2.1160 0.9694
7.7216 1.2361 -2.2138 0.9680
7.6849 1.9457 -2.2442 0.9676
7.5764 2.6562 -2.2728 0.9672
7.3947 3.3595 -2.2993 0.9668
6.5046 3.6869 -2.1167 0.9694
3.8186 4.5501 -1.6816 0.9756
3.3522 4.8066 -1.6590 0.9759
2.8429 4.9680 -1.6204 0.9765
2.3093 5.0283 -1.5664 0.9773
1.8386 5.1762 -1.5550 0.9774
0.8986 5.4696 -1.5692 0.9772
0.2223 3.0149 -0.8558 0.9875
-0.6252 5.9401 -1.6909 0.9755
-1.2023 6.1168 -1.7648 0.9744
-1.8373 6.3105 -1.8606 0.9730
-3.9773 6.4725 -2.1506 0.9689
-4.9057 5.4876 -2.0838 0.9699
-5.2889 4.9478 -2.0503 0.9703
-5.8886 3.8047 -1.9847 0.9713
-2.7380 1.4408 -0.8759 0.9872
-6.7542 2.8173 -2.0717 0.9700
-6.8722 2.1707 -2.0402 0.9705
-6.9348 1.5268 -2.0102 0.9709
-6.9439 0.8901 -1.9819 0.9713
-6.8107 -0.3475 -1.9306 0.9720
-6.4910 -1.5160 -1.8870 0.9727
-5.7038 -3.0948 -1.8371 0.9734
-5.3689 -3.5665 -1.8247 0.9736
-5.0015 -4.0081 -1.8144 0.9737
-3.2508 -5.4442 -1.7951 0.9740
-2.2369 -5.9459 -1.7984 0.9739
-4.7357 4.7062 -2.0535 0.9724
-5.0602 4.2023 -2.0231 0.9728
-5.3342 3.6793 -1.9931 0.9732
-5.5579 3.1424 -1.9638 0.9736
-6.4241 1.0213 -2.0007 0.9731
-6.0864 -1.2291 -1.9098 0.9743
-5.6674 -2.2486 -1.8754 0.9748
-5.1046 -3.1732 -1.8487 0.9752
-4.7747 -3.5952 -1.8384 0.9753
-4.0284 -4.3509 -1.8238 0.9755
-3.6162 -4.6817 -1.8195 0.9755
-3.1808 -4.9793 -1.8174 0.9756
-1.7560 -5.6612 -1.8231 0.9755
-0.1987 -6.0024 -1.8472 0.9752
0.3392 -6.0354 -1.8593 0.9750
0.8823 -6.0264 -1.8734 0.9748
1.4279 -5.9745 -1.8894 0.9746
2.5151 -5.7386 -1.9272 0.9741
3.0504 -5.5533 -1.9488 0.9738
4.0869 -5.0462 -1.9973 0.9732
5.0526 -4.3567 -2.0520 0.9725
5.4984 -3.9449 -2.0814 0.9721
5.9136 -3.4897 -2.1120 0.9717
6.2810 -2.9869 -2.1392 0.9713
6.1560 -2.2797 -2.0191 0.9729
6.4300 -1.7480 -2.0495 0.9725
6.6580 -1.1854 -2.0801 0.9721
6.8360 -0.5960 -2.1106 0.9717
7.0261 0.6446 -2.1702 0.9709
6.9738 1.9297 -2.2256 0.9702
6.6626 3.2053 -2.2741 0.9695
6.2865 3.7482 -2.2512 0.9698
3.6806 4.5866 -1.8088 0.9757
1.7213 5.2061 -1.6865 0.9773
0.7798 5.4995 -1.7085 0.9770
0.1426 2.7597 -0.8500 0.9885
-0.1030 2.7382 -0.8428 0.9886
-0.7619 5.9744 -1.8525 0.9751
-1.3508 6.1543 -1.9380 0.9740
-2.7316 6.5607 -2.1859 0.9707
-3.2617 6.2080 -2.1569 0.9711
-3.7494 5.8113 -2.1272 0.9715
-4.1917 5.3762 -2.0968 0.9719
-4.5862 4.9087 -2.0662 0.9723
-5.2265 3.8986 -2.0055 0.9731
-2.7458 1.3687 -0.9436 0.9872
-6.4168 1.2656 -2.0117 0.9730
-6.4202 0.6799 -1.9857 0.9733
-6.2867 -0.4595 -1.9388 0.9740
-5.7669 -2.0441 -1.8819 0.9747
-5.5170 -2.5294 -1.8668 0.9749
-4.5680 -3.8286 -1.8333 0.9754
-4.1923 -4.2041 -1.8261 0.9755
-3.3644 -4.8598 -1.8180 0.9756
-2.9164 -5.1375 -1.8170 0.9756
-1.9626 -5.5864 -1.8212 0.9755
0.6562 -6.0353 -1.8673 0.9749
1.7469 -5.9239 -1.8996 0.9745
2.8290 -5.6358 -1.9396 0.9740
3.3588 -5.4240 -1.9623 0.9737
3.8764 -5.1665 -1.9867 0.9733
4.3779 -4.8634 -2.0127 0.9730
2.3426 -0.9677 -0.7796 0.9894
6.5691 -1.4226 -2.0674 0.9723
6.7684 -0.8439 -2.0979 0.9719
6.9152 -0.2408 -2.1283 0.9715
7.0058 0.3816 -2.1580 0.9711
7.0056 1.6616 -2.2145 0.9703
6.9100 2.3061 -2.2406 0.9700
6.5220 3.5678 -2.2866 0.9694
5.1138 4.1271 -2.0212 0.9729
4.4814 4.3304 -1.9168 0.9743
3.9064 4.5146 -1.8363 0.9753
3.4365 4.7724 -1.8089 0.9757
2.9238 4.9352 -1.7643 0.9763
2.3868 4.9970 -1.7033 0.9771
0.9953 3.6364 -1.1596 0.9843
-0.5314 5.9039 -1.8232 0.9755
-1.0997 6.0777 -1.8997 0.9745
-1.7226 6.2674 -1.9992 0.9732
-3.0464 6.3602 -2.1691 0.9709
-4.0136 5.5612 -2.1095 0.9717
-4.7941 4.6226 -2.0484 0.9725
-5.5907 3.0506 -1.9589 0.9737
-6.4010 1.5110 -2.0229 0.9729
-6.0570 -1.3186 -1.9066 0.9744
-4.3517 -4.0518 -1.8289 0.9754
-3.5442 -4.7344 -1.8190 0.9756
-3.1051 -5.0263 -1.8172 0.9756
-2.6451 -5.2836 -1.8174 0.9756
-1.6712 -5.6897 -1.8240 0.9755
-1.1616 -5.8363 -1.8303 0.9754
-0.1082 -6.0109 -1.8491 0.9752
0.9745 -6.0207 -1.8759 0.9748
2.0652 -5.8582 -1.9106 0.9743
3.1400 -5.5175 -1.9526 0.9738
4.6621 -4.6651 -2.0286 0.9728
5.1299 -4.2902 -2.0569 0.9724
6.4719 -1.6549 -2.0547 0.9724
6.8609 -0.4940 -2.1157 0.9716
6.9752 0.1210 -2.1457 0.9712
7.0314 0.7523 -2.1750 0.9708
6.6242 3.3109 -2.2778 0.9695
6.1486 3.7929 -2.2220 0.9702
5.3980 4.0355 -2.0730 0.9722
4.7362 4.2486 -1.9570 0.9737
4.1394 4.4400 -1.8671 0.9749
2.5857 4.9342 -1.7134 0.9770
2.1104 5.0840 -1.6931 0.9772
1.6423 5.2308 -1.6863 0.9773
0.8111 3.7143 -1.1694 0.9842
0.0996 2.7265 -0.8392 0.9886
-0.1465 2.7775 -0.8555 0.9884
-0.8579 6.0038 -1.8654 0.9749
-1.4561 6.1863 -1.9548 0.9738
-2.8241 6.5044 -2.1811 0.9708
-3.8274 5.7402 -2.1221 0.9715
-4.6481 4.8268 -2.0611 0.9723
-4.9849 4.3284 -2.0306 0.9727
-2.7771 1.3324 -0.9474 0.9872
-6.3766 1.7571 -2.0344 0.9727
-6.4208 1.1660 -2.0072 0.9731
-6.3641 0.0075 -1.9575 0.9737
-4.8588 -3.4939 -1.8407 0.9753
-4.5064 -3.8943 -1.8319 0.9754
-4.1261 -4.2645 -1.8251 0.9755
-2.8386 -5.1810 -1.8171 0.9756
0.2061 -6.0312 -1.8561 0.9751
0.7482 -6.0326 -1.8697 0.9749
1.2934 -5.9913 -1.8853 0.9747
2.3821 -5.7773 -1.9221 0.9742
2.9193 -5.6032 -1.9433 0.9739
3.4473 -5.3837 -1.9663 0.9736
3.9624 -5.1185 -1.9910 0.9733
4.4609 -4.8076 -2.0172 0.9729
4.9386 -4.4514 -2.0450 0.9726
5.3912 -4.0504 -2.0741 0.9722
5.8144 -3.6058 -2.1044 0.9718
6.3666 -1.8819 -2.0420 0.9726
6.6064 -1.3267 -2.0725 0.9722
6.9940 1.7707 -2.2191 0.9703
6.7151 3.0507 -2.2686 0.9696
5.6974 3.9388 -2.1304 0.9714
5.0020 4.1631 -2.0017 0.9731
4.3807 4.3628 -1.9016 0.9745
3.3480 4.8006 -1.8002 0.9758
2.3065 5.0223 -1.6999 0.9771
1.8364 5.1700 -1.6875 0.9773
-0.6243 5.9323 -1.8347 0.9753
-1.8347 6.3015 -2.0187 0.9729
-3.6334 5.9128 -2.1346 0.9714
-4.8511 4.5382 -2.0432 0.9726
-5.1585 4.0273 -2.0129 0.9730
-5.4155 3.4990 -1.9831 0.9734
-2.7415 1.4426 -0.9528 0.9871
-6.3435 2.0037 -2.0461 0.9725
-6.4085 1.4110 -2.0183 0.9729
-6.4238 0.8234 -1.9920 0.9733
-6.3128 -0.3221 -1.9442 0.9739
-6.1905 -0.8737 -1.9229 0.9742
-6.0264 -1.4075 -1.9035 0.9744
-5.5819 -2.4121 -1.8703 0.9749
-5.3057 -2.8787 -1.8566 0.9751
-4.6563 -3.7315 -1.8353 0.9753
-3.4715 -4.7861 -1.8186 0.9756
-3.0287 -5.0723 -1.8171 0.9756
-2.0838 -5.5390 -1.8202 0.9755
-1.0741 -5.8572 -1.8316 0.9754
-4.6719 3.8799 -2.0187 0.9747
-5.1429 2.9078 -1.9639 0.9754
-5.8436 2.0417 -2.0576 0.9742
-5.9588 0.4084 -1.9854 0.9751
-5.8092 -0.6418 -1.9428 0.9757
-5.4994 -1.6320 -1.9068 0.9761
-4.4620 -3.3598 -1.8566 0.9767
-3.7665 -4.0681 -1.8429 0.9769
-2.1028 -5.1155 -1.8385 0.9770
-1.1673 -5.4352 -1.8479 0.9768
-0.1856 -5.6075 -1.8650 0.9766
1.3320 -5.5731 -1.9047 0.9761
2.3430 -5.3459 -1.9402 0.9757
5.8030 -2.7596 -2.1359 0.9733
5.6845 -2.1051 -2.0150 0.9748
5.9307 -1.6122 -2.0429 0.9744
6.2906 -0.5485 -2.0990 0.9737
6.3973 0.0145 -2.1265 0.9734
6.4491 1.1783 -2.1792 0.9727
6.2712 2.3546 -2.2267 0.9722
5.5096 3.9908 -2.2614 0.9717
4.8361 4.2083 -2.1310 0.9733
4.2308 4.4030 -2.0297 0.9746
3.6758 4.5807 -1.9523 0.9755
3.1784 4.7779 -1.9075 0.9761
2.6640 4.9023 -1.8546 0.9768
1.7192 5.1998 -1.8205 0.9772
0.8279 3.5347 -1.2067 0.9848
0.1434 2.7764 -0.9241 0.9883
-0.1030 2.7386 -0.9110 0.9885
-0.7608 5.9665 -1.9994 0.9750
-1.3489 6.1457 -2.0915 0.9738
-2.5065 6.0202 -2.1677 0.9729
-2.9962 5.7027 -2.1413 0.9732
-3.4481 5.3442 -2.1141 0.9735
-4.2274 4.5246 -2.0583 0.9742
-4.8287 3.6018 -2.0024 0.9749
-5.0603 3.1140 -1.9751 0.9753
-5.9598 1.1755 -2.0192 0.9747
-5.9683 0.6320 -1.9950 0.9750
-5.9325 0.0966 -1.9723 0.9753
-5.8540 -0.4278 -1.9511 0.9756
-5.7345 -0.9383 -1.9315 0.9758
-5.5762 -1.4322 -1.9137 0.9760
-5.3808 -1.9073 -1.8977 0.9762
-5.1505 -2.3613 -1.8834 0.9764
-4.5929 -3.1987 -1.8605 0.9767
-4.2696 -3.5785 -1.8518 0.9768
-1.8352 -5.2237 -1.8404 0.9769
-0.3924 -5.5842 -1.8608 0.9767
1.6289 -5.5239 -1.9143 0.9760
2.6342 -5.2478 -1.9518 0.9756
3.6035 -4.8028 -1.9959 0.9750
4.5087 -4.1890 -2.0458 0.9744
4.9279 -3.8200 -2.0726 0.9741
5.3194 -3.4110 -2.1005 0.9737
5.6748 -2.9613 -2.1277 0.9734
2.3395 -0.9664 -0.8414 0.9894
5.8334 -1.8205 -2.0313 0.9746
6.0549 -1.3113 -2.0593 0.9742
6.3592 -0.2215 -2.1151 0.9735
6.4353 0.3506 -2.1423 0.9732
6.4568 0.9340 -2.1686 0.9729
6.4214 1.5230 -2.1937 0.9726
6.3276 2.1117 -2.2174 0.9723
5.9619 3.2614 -2.2589 0.9718
5.6910 3.8088 -2.2763 0.9715
5.1064 4.1211 -2.1812 0.9727
4.4753 4.3245 -2.0686 0.9741
2.9202 4.9290 -1.9044 0.9761
2.3839 4.9908 -1.8385 0.9770
1.9131 5.1390 -1.8228 0.9772
0.9894 3.6150 -1.2459 0.9843
0.4962 5.5803 -1.8622 0.9767
-0.0014 2.5736 -0.8555 0.9892
-2.0319 5.4400 -1.9303 0.9758
-2.7972 5.8398 -2.1524 0.9731
-3.2651 5.4978 -2.1255 0.9734
-4.7189 3.8000 -2.0139 0.9748
-5.1743 2.8233 -1.9594 0.9755
-5.3329 2.3195 -1.9331 0.9758
-5.8644 1.9502 -2.0543 0.9743
-5.9527 0.3179 -1.9815 0.9752
-5.8917 -0.2115 -1.9597 0.9755
-5.2503 -2.1754 -1.8891 0.9763
-5.0004 -2.6162 -1.8759 0.9765
-4.4073 -3.4240 -1.8552 0.9767
-4.0681 -3.7877 -1.8476 0.9768
-3.3144 -4.4274 -1.8384 0.9770
-1.5626 -5.3198 -1.8430 0.9769
-1.0858 -5.4556 -1.8490 0.9768
-0.5979 -5.5543 -1.8570 0.9767
-0.1011 -5.6151 -1.8668 0.9766
0.4022 -5.6368 -1.8785 0.9765
0.9094 -5.6188 -1.8920 0.9763
1.9250 -5.4605 -1.9246 0.9759
3.4064 -4.9092 -1.9862 0.9751
3.8760 -4.6407 -2.0099 0.9748
4.7569 -3.9782 -2.0613 0.9742
5.1604 -3.5857 -2.0888 0.9739
5.8531 -2.6759 -2.1393 0.9732
5.7290 -2.0238 -2.0197 0.9747
6.1638 -1.0017 -2.0757 0.9740
6.4102 0.1112 -2.1311 0.9733
6.4546 0.6905 -2.1578 0.9730
6.4431 1.2780 -2.1835 0.9727
5.3899 4.0295 -2.2370 0.9720
4.7295 4.2427 -2.1120 0.9736
4.1339 4.4341 -2.0151 0.9748
3.5858 4.6094 -1.9412 0.9757
0.0999 2.7344 -0.9095 0.9885
-0.1470 2.7862 -0.9274 0.9883
-0.8567 5.9958 -2.0133 0.9748
-1.7940 5.4066 -1.8935 0.9763
-2.5918 5.9696 -2.1633 0.9729
-3.9246 4.8800 -2.0816 0.9739
-4.6011 3.9951 -2.0255 0.9746
-5.0949 3.0303 -1.9705 0.9753
-5.9177 1.6306 -2.0404 0.9745
-5.9644 1.0831 -2.0150 0.9748
-5.9654 0.5408 -1.9911 0.9751
-5.7104 -1.0231 -1.9284 0.9758
-5.3443 -1.9856 -1.8951 0.9763
-5.1082 -2.4359 -1.8812 0.9764
-4.8395 -2.8629 -1.8691 0.9766
-4.5402 -3.2648 -1.8589 0.9767
-3.8577 -3.9871 -1.8441 0.9769
-3.4786 -4.3045 -1.8397 0.9769
-3.0769 -4.5910 -1.8371 0.9770
-1.2853 -5.4036 -1.8463 0.9769
-0.8018 -5.5179 -1.8534 0.9768
-0.3084 -5.5945 -1.8625 0.9767
0.1925 -5.6326 -1.8734 0.9765
0.6984 -5.6312 -1.8862 0.9764
1.2067 -5.5896 -1.9008 0.9762
1.7147 -5.5070 -1.9172 0.9760
3.2069 -5.0083 -1.9768 0.9752
3.6829 -4.7574 -1.9999 0.9750
4.1423 -4.4643 -2.0244 0.9747
2.3492 -0.9292 -0.8398 0.9894
5.8739 -1.7363 -2.0360 0.9745
6.3758 -0.1257 -2.1198 0.9735
6.4428 0.4486 -2.1468 0.9731
6.4097 1.6228 -2.1978 0.9725
4.9948 4.1571 -2.1601 0.9730
4.3746 4.3568 -2.0523 0.9743
3.8086 4.5382 -1.9694 0.9753
3.2821 4.7062 -1.9072 0.9761
2.8359 4.9557 -1.8980 0.9762
1.8341 5.1638 -1.8215 0.9772
0.9109 3.5370 -1.2141 0.9847
-0.0405 2.5888 -0.8607 0.9891
-2.1548 5.5139 -1.9678 0.9754
-3.3404 5.4361 -2.1209 0.9735
-3.7619 5.0501 -2.0932 0.9738
-4.7645 3.7197 -2.0093 0.9748
-5.0075 3.2354 -1.9818 0.9752
-2.7450 1.4445 -1.0311 0.9870
-5.9506 1.3102 -2.0254 0.9746
-5.9454 0.2275 -1.9777 0.9752
-5.8772 -0.2999 -1.9561 0.9755
-5.7676 -0.8140 -1.9362 0.9757
-5.2103 -2.2516 -1.8867 0.9764
-4.0081 -3.8464 -1.8466 0.9769
-3.6389 -4.1763 -1.8413 0.9769
-3.2464 -4.4758 -1.8379 0.9770
-1.4828 -5.3453 -1.8439 0.9769
-1.0040 -5.4749 -1.8502 0.9768
-0.5144 -5.5673 -1.8585 0.9767
-4.5788 3.1582 -1.9891 0.9766
-5.0571 1.7669 -1.9157 0.9775
-5.5683 0.8853 -2.0163 0.9763
-5.5633 0.3813 -1.9941 0.9766
-5.5171 -0.1147 -1.9734 0.9768
-5.1479 -1.5277 -1.9203 0.9774
-4.4698 -2.7786 -1.8821 0.9779
-4.1838 -3.1503 -1.8729 0.9780
-3.8710 -3.4967 -1.8655 0.9781
-3.1728 -4.1075 -1.8561 0.9782
-2.7912 -4.3693 -1.8541 0.9782
-1.9729 -4.7995 -1.8557 0.9782
-1.5403 -4.9657 -1.8592 0.9782
-1.0948 -5.0979 -1.8646 0.9781
-0.1740 -5.2565 -1.8808 0.9779
0.7713 -5.2682 -1.9040 0.9776
2.1908 -4.9986 -1.9517 0.9771
2.6532 -4.8302 -1.9707 0.9769
5.0881 -3.0026 -2.1127 0.9752
5.2744 -1.9532 -2.0114 0.9764
5.4973 -1.4944 -2.0372 0.9761
5.9122 0.0134 -2.1142 0.9752
5.9561 0.5464 -2.1389 0.9749
5.8888 1.6295 -2.1850 0.9744
5.7750 2.1683 -2.2060 0.9741
5.6070 2.6975 -2.2251 0.9739
3.0890 4.6435 -1.9944 0.9766
2.1846 5.0465 -1.9665 0.9769
0.8113 3.4638 -1.2722 0.9850
0.1447 2.8012 -1.0031 0.9882
-1.3169 5.9999 -2.1967 0.9742
-1.7137 5.4376 -2.0388 0.9761
-2.3131 5.5555 -2.1520 0.9748
-2.7675 5.2675 -2.1279 0.9750
-3.1880 4.9412 -2.1029 0.9753
-3.5717 4.5811 -2.0773 0.9756
-3.9163 4.1917 -2.0514 0.9759
-4.4823 3.3435 -1.9997 0.9765
-2.7459 1.3688 -1.0972 0.9871
-5.0135 1.9630 -1.9254 0.9774
-5.4976 1.6045 -2.0480 0.9760
-5.5579 1.0962 -2.0258 0.9762
-5.5704 0.5899 -2.0032 0.9765
-5.5412 0.0902 -1.9818 0.9767
-5.2186 -1.3404 -1.9268 0.9774
-5.0384 -1.7860 -1.9116 0.9775
-4.8251 -2.2122 -1.8982 0.9777
-4.3060 -2.9989 -1.8765 0.9780
-3.3252 -3.9900 -1.8574 0.9782
-2.9521 -4.2642 -1.8547 0.9782
-2.5592 -4.5082 -1.8538 0.9782
-2.1483 -4.7207 -1.8548 0.9782
-1.2813 -5.0472 -1.8622 0.9781
0.1006 -5.2754 -1.8869 0.9778
1.5244 -5.1695 -1.9274 0.9774
1.9964 -5.0569 -1.9442 0.9772
2.4621 -4.9050 -1.9626 0.9770
2.9188 -4.7135 -1.9826 0.9767
5.2693 -2.7497 -2.1255 0.9751
2.3379 -0.9657 -0.9046 0.9893
5.4094 -1.6882 -2.0265 0.9762
5.6092 -1.2147 -2.0524 0.9759
5.9440 0.3238 -2.1288 0.9750
5.9582 0.8618 -2.1529 0.9747
5.9203 1.4042 -2.1759 0.9745
5.4839 3.0000 -2.2354 0.9738
4.9277 3.9770 -2.2645 0.9735
3.8960 4.5026 -2.1293 0.9750
0.9755 5.4247 -1.9710 0.9769
0.4956 5.5732 -2.0009 0.9765
-0.0014 2.5731 -0.9202 0.9891
-1.6187 5.8895 -2.1842 0.9744
-2.0286 5.4312 -2.0733 0.9757
-2.5826 5.3920 -2.1380 0.9749
-4.8106 2.6249 -1.9597 0.9770
-4.9628 2.1585 -1.9353 0.9773
-5.4537 1.8136 -2.0553 0.9759
-5.5704 0.7996 -2.0124 0.9764
-5.5583 0.2968 -1.9905 0.9766
-5.5053 -0.1976 -1.9700 0.9769
-4.9176 -2.0376 -1.9036 0.9776
-4.6856 -2.4516 -1.8911 0.9778
-4.1328 -3.2107 -1.8715 0.9780
-3.4739 -3.8675 -1.8591 0.9782
-3.1097 -4.1539 -1.8556 0.9782
-2.7247 -4.4106 -1.8539 0.9782
-1.9007 -4.8300 -1.8562 0.9782
-1.4658 -4.9905 -1.8600 0.9781
-1.0184 -5.1168 -1.8657 0.9781
0.3769 -5.2816 -1.8935 0.9778
0.8517 -5.2623 -1.9063 0.9776
1.3273 -5.2048 -1.9208 0.9774
1.8009 -5.1085 -1.9370 0.9773
2.2696 -4.9729 -1.9548 0.9770
4.4299 -3.7048 -2.0652 0.9758
5.1438 -2.9317 -2.1173 0.9752
5.5311 -1.4143 -2.0416 0.9760
5.7067 -0.9274 -2.0675 0.9757
5.9585 0.6375 -2.1430 0.9749
5.8734 1.7210 -2.1887 0.9743
5.7504 2.2587 -2.2093 0.9741
5.3427 3.2958 -2.2449 0.9737
4.7227 4.2366 -2.2689 0.9734
4.1282 4.4280 -2.1649 0.9746
3.0190 4.6903 -1.9947 0.9766
2.5793 4.9220 -1.9872 0.9767
2.1052 5.0715 -1.9637 0.9769
1.6383 5.2180 -1.9558 0.9770
-0.8556 5.9876 -2.1630 0.9746
-1.4051 5.9697 -2.1931 0.9743
-1.7924 5.4016 -2.0352 0.9761
-3.6328 4.5171 -2.0729 0.9757
-3.9706 4.1233 -2.0471 0.9760
-4.2675 3.7055 -2.0211 0.9763
-2.7742 1.3310 -1.1003 0.9870
-5.0321 1.8832 -1.9214 0.9774
-5.5133 1.5192 -2.0451 0.9760
-5.5684 0.5048 -1.9995 0.9765
-5.5322 0.0065 -1.9784 0.9768
-5.4561 -0.4816 -1.9587 0.9770
-5.3416 -0.9570 -1.9406 0.9772
-5.1905 -1.4170 -1.9241 0.9774
-4.5359 -2.6833 -1.8846 0.9779
-4.2568 -3.0611 -1.8750 0.9780
-3.6188 -3.7401 -1.8611 0.9781
-3.2636 -4.0385 -1.8568 0.9782
-2.8870 -4.3076 -1.8544 0.9782
-2.0772 -4.7535 -1.8551 0.9782
-1.2056 -5.0685 -1.8631 0.9781
-0.7519 -5.1745 -1.8699 0.9780
-0.2891 -5.2447 -1.8784 0.9779
0.1804 -5.2785 -1.8887 0.9778
1.1298 -5.2334 -1.9146 0.9775
3.4368 -4.4395 -2.0077 0.9764
4.2681 -3.8470 -2.0548 0.9759
4.6503 -3.4938 -2.0800 0.9756
5.0052 -3.1040 -2.1062 0.9753
2.3488 -0.9290 -0.9033 0.9893
5.4460 -1.6098 -2.0308 0.9762
5.6389 -1.1324 -2.0568 0.9759
5.7892 -0.6332 -2.0826 0.9756
5.9500 0.4143 -2.1329 0.9750
5.8081 2.0363 -2.2010 0.9742
5.6534 2.5684 -2.2206 0.9740
5.4449 3.0863 -2.2382 0.9738
4.3686 4.3508 -2.2048 0.9741
2.7711 4.8425 -1.9952 0.9766
2.3008 5.0099 -1.9715 0.9769
0.9262 3.5963 -1.3280 0.9843
-0.0402 2.5724 -0.9200 0.9891
-1.1875 6.0414 -2.2018 0.9742
-2.6586 5.3421 -2.1339 0.9750
-3.0878 5.0249 -2.1091 0.9753
-4.9843 2.0790 -1.9313 0.9773
-5.4725 1.7286 -2.0523 0.9759
-5.5522 0.2125 -1.9870 0.9767
-5.4924 -0.2802 -1.9667 0.9769
-5.3937 -0.7612 -1.9479 0.9771
-5.2576 -1.2279 -1.9308 0.9773
-5.0860 -1.6779 -1.9152 0.9775
-4.8806 -2.1091 -1.9013 0.9777
-4.6434 -2.5194 -1.8892 0.9778
-4.3762 -2.9071 -1.8788 0.9779
-4.0809 -3.2704 -1.8702 0.9780
-3.7595 -3.6079 -1.8634 0.9781
-3.4139 -3.9180 -1.8584 0.9782
-3.0459 -4.1994 -1.8552 0.9782
-1.3910 -5.0143 -1.8609 0.9781
-0.9416 -5.1347 -1.8668 0.9781
-3.7674 3.7440 -2.0354 0.9775
-4.0378 3.3532 -2.0114 0.9778
-4.2692 2.9447 -1.9875 0.9780
-4.4613 2.5224 -1.9640 0.9783
-2.8461 1.2893 -1.1974 0.9867
-4.7270 1.6516 -1.9189 0.9788
-5.1693 1.3029 -2.0429 0.9774
-5.2127 0.8287 -2.0227 0.9776
-5.2117 0.3572 -2.0019 0.9779
-4.9814 -1.0059 -1.9475 0.9785
-4.8339 -1.4345 -1.9323 0.9786
-4.4426 -2.2396 -1.9066 0.9789
-4.2023 -2.6123 -1.8962 0.9790
-3.9346 -2.9627 -1.8874 0.9791
-3.6413 -3.2892 -1.8804 0.9792
-3.3242 -3.5904 -1.8751 0.9793
-2.9853 -3.8649 -1.8715 0.9793
-2.6264 -4.1115 -1.8696 0.9793
-2.2495 -4.3289 -1.8695 0.9793
1.6153 -4.8126 -1.9454 0.9785
2.0551 -4.6890 -1.9619 0.9783
2.9091 -4.3306 -1.9992 0.9779
3.3174 -4.0960 -2.0199 0.9777
4.0801 -3.5182 -2.0646 0.9772
4.4279 -3.1769 -2.0884 0.9769
5.4076 -0.4715 -2.0801 0.9770
5.4892 0.0124 -2.1036 0.9768
5.5142 1.0075 -2.1481 0.9763
4.9785 2.9683 -2.2212 0.9755
4.7229 3.4209 -2.2348 0.9753
2.1819 5.0402 -2.1047 0.9767
1.7149 5.1869 -2.0935 0.9769
0.8491 3.6250 -1.4268 0.9842
0.7769 5.4790 -2.1207 0.9766
0.1437 2.7806 -1.0670 0.9881
-0.0975 2.5906 -0.9935 0.9890
-2.1448 5.1514 -2.1384 0.9764
-2.5683 4.8883 -2.1161 0.9766
-3.3203 4.2586 -2.0694 0.9771
-4.3863 2.6993 -1.9737 0.9782
-5.2015 1.0259 -2.0317 0.9775
-5.1931 0.0845 -1.9903 0.9780
-5.1312 -0.3750 -1.9716 0.9782
-4.8993 -1.2584 -1.9384 0.9786
-4.5339 -2.0787 -1.9114 0.9789
-4.0490 -2.8199 -1.8909 0.9791
-3.4587 -3.4684 -1.8771 0.9792
-3.1287 -3.7542 -1.8728 0.9793
-2.7778 -4.0125 -1.8702 0.9793
-2.4081 -4.2422 -1.8694 0.9793
-0.7800 -4.8523 -1.8834 0.9792
0.0946 -4.9589 -1.9007 0.9790
0.5393 -4.9597 -1.9118 0.9789
1.4311 -4.8531 -1.9390 0.9786
1.8732 -4.7449 -1.9549 0.9784
2.7354 -4.4172 -1.9910 0.9780
4.2865 -3.3228 -2.0784 0.9770
2.3364 -0.9651 -0.9687 0.9892
5.0373 -1.5720 -2.0222 0.9776
5.3608 -0.6684 -2.0703 0.9771
5.5247 0.7991 -2.1392 0.9764
5.4853 1.3010 -2.1604 0.9761
5.3966 1.8010 -2.1802 0.9759
5.2584 2.2939 -2.1985 0.9757
4.5520 3.6738 -2.2417 0.9753
2.3779 4.9784 -2.1143 0.9766
0.9947 3.6345 -1.4440 0.9840
0.4950 5.5661 -2.1415 0.9763
-0.0014 2.5870 -0.9914 0.9890
-2.8018 4.7177 -2.1027 0.9768
-3.8158 3.6793 -2.0313 0.9775
-4.4899 2.4499 -1.9601 0.9783
-5.2153 0.7487 -2.0191 0.9777
-5.2077 0.2781 -1.9985 0.9779
-4.1589 -2.6731 -1.8946 0.9790
-3.8867 -3.0196 -1.8861 0.9791
-3.5893 -3.3419 -1.8794 0.9792
-3.2684 -3.6387 -1.8744 0.9793
-2.9260 -3.9086 -1.8711 0.9793
-2.5639 -4.1503 -1.8695 0.9793
-0.9579 -4.8131 -1.8806 0.9792
-0.5272 -4.8977 -1.8877 0.9791
-0.0891 -4.9482 -1.8965 0.9790
1.2463 -4.8873 -1.9328 0.9786
2.5595 -4.4975 -1.9831 0.9781
2.9792 -4.2935 -2.0026 0.9779
3.3848 -4.0527 -2.0235 0.9776
4.1407 -3.4629 -2.0686 0.9771
4.7981 -2.7347 -2.1164 0.9766
4.9511 -1.7490 -2.0122 0.9778
5.1480 -1.3164 -2.0363 0.9775
5.3068 -0.8624 -2.0603 0.9772
5.4245 -0.3906 -2.0841 0.9770
5.4986 0.0954 -2.1075 0.9767
5.5076 1.0924 -2.1517 0.9762
5.3218 2.0903 -2.1911 0.9758
4.9386 3.0465 -2.2237 0.9754
4.3660 3.9166 -2.2477 0.9752
3.3608 4.3201 -2.0975 0.9768
2.8796 4.4737 -2.0389 0.9775
2.5760 4.9157 -2.1268 0.9765
0.7985 3.6567 -1.4343 0.9841
-0.1466 2.7794 -1.0666 0.9881
-0.8102 5.6699 -2.1949 0.9758
-2.2185 5.1096 -2.1347 0.9764
-2.6370 4.8402 -2.1123 0.9767
-3.0242 4.5356 -2.0891 0.9769
-3.3776 4.1998 -2.0654 0.9772
-3.9747 3.4513 -2.0173 0.9777
-4.2159 3.0468 -1.9933 0.9780
-2.7727 1.3303 -1.1785 0.9869
-5.1493 1.4189 -2.0468 0.9774
-5.2069 0.9456 -2.0280 0.9776
-5.2156 0.4729 -2.0069 0.9778
-5.1852 0.0061 -1.9871 0.9780
-5.0126 -0.8980 -1.9515 0.9784
-4.8734 -1.3304 -1.9359 0.9786
-4.7010 -1.7466 -1.9219 0.9787
-4.4974 -2.1446 -1.9094 0.9789
-4.2641 -2.5225 -1.8986 0.9790
-3.7158 -3.2110 -1.8820 0.9792
-3.4044 -3.5186 -1.8762 0.9792
-2.7166 -4.0534 -1.8699 0.9793
-2.3439 -4.2781 -1.8694 0.9793
-1.1342 -4.7681 -1.8782 0.9792
-0.7071 -4.8667 -1.8846 0.9792
-0.2718 -4.9314 -1.8927 0.9791
2.3817 -4.5714 -1.9753 0.9782
2.8064 -4.3827 -1.9944 0.9780
3.2182 -4.1572 -2.0147 0.9777
3.6141 -3.8950 -2.0362 0.9775
2.3485 -0.9289 -0.9678 0.9892
5.0707 -1.4989 -2.0263 0.9776
5.5208 0.3844 -2.1208 0.9766
5.5214 0.8839 -2.1429 0.9763
5.4737 1.3858 -2.1638 0.9761
5.3767 1.8850 -2.1834 0.9759
5.2301 2.3761 -2.2014 0.9757
4.4997 3.7451 -2.2435 0.9752
4.1655 4.1485 -2.2529 0.9751
3.0763 4.4110 -2.0609 0.9772
2.6653 4.6577 -2.0565 0.9773
1.8296 5.1510 -2.0948 0.9769
0.8942 5.4427 -2.1137 0.9766
0.4123 5.5916 -2.1486 0.9763
-0.0401 2.5660 -0.9835 0.9891
-1.0993 5.5926 -2.1842 0.9759
-1.5790 5.4234 -2.1646 0.9761
-2.0362 5.2103 -2.1437 0.9763
-2.4667 4.9566 -2.1217 0.9766
-2.8673 4.6662 -2.0988 0.9768
-3.5676 3.9908 -2.0513 0.9773
-3.8632 3.6140 -2.0273 0.9776
-4.3386 2.8032 -1.9795 0.9781
-4.6565 1.9423 -1.9335 0.9786
-4.7565 1.5024 -1.9115 0.9789
-5.2168 0.6687 -2.0155 0.9777
-5.2025 0.1991 -1.9952 0.9779
-5.1499 -0.2627 -1.9761 0.9782
-5.0603 -0.7142 -1.9584 0.9783
-4.5857 -1.9816 -1.9144 0.9788
-4.3645 -2.3681 -1.9029 0.9790
-3.8381 -3.0758 -1.8849 0.9792
-3.5366 -3.3939 -1.8784 0.9792
-3.2119 -3.6863 -1.8737 0.9793
-2.8661 -3.9515 -1.8707 0.9793
-2.5009 -4.1883 -1.8694 0.9793
-2.1182 -4.3956 -1.8699 0.9793
-1.7201 -4.5723 -1.8721 0.9793
-1.3086 -4.7173 -1.8760 0.9792
-0.4535 -4.9087 -1.8891 0.9791
-3.5195 3.4976 -2.0308 0.9788
-3.7750 3.1350 -2.0083 0.9790
-4.8449 1.2211 -2.0449 0.9786
-2.0292 0.3226 -0.8409 0.9912
-1.9183 -0.0399 -0.7853 0.9917
-4.6882 -0.9467 -1.9575 0.9795
-4.5515 -1.3507 -1.9431 0.9797
-3.9610 -2.4623 -1.9089 0.9800
-3.1354 -3.3865 -1.8888 0.9803
-2.8161 -3.6458 -1.8854 0.9803
-1.7512 -4.2601 -1.8851 0.9803
-1.3669 -4.4066 -1.8883 0.9803
-0.9712 -4.5225 -1.8931 0.9802
-0.5663 -4.6067 -1.8996 0.9801
0.6826 -4.6624 -1.9286 0.9798
1.1026 -4.6133 -1.9413 0.9797
1.9333 -4.4111 -1.9711 0.9794
2.3387 -4.2576 -1.9881 0.9792
2.7336 -4.0693 -2.0064 0.9790
3.1153 -3.8465 -2.0258 0.9788
3.4806 -3.5896 -2.0464 0.9786
4.4451 -2.6231 -2.1124 0.9779
4.7811 -1.2997 -2.0278 0.9788
4.9318 -0.8781 -2.0502 0.9786
5.0444 -0.4398 -2.0724 0.9784
5.1467 0.4722 -2.1152 0.9779
5.1327 0.9378 -2.1355 0.9777
4.3838 3.1754 -2.2154 0.9769
4.1025 3.5700 -2.2258 0.9768
2.9553 4.4425 -2.1837 0.9772
2.5863 4.7593 -2.2169 0.9769
2.1759 5.0262 -2.2416 0.9766
0.7620 5.3738 -2.2214 0.9768
0.1434 2.7759 -1.1376 0.9881
-1.9971 4.7965 -2.1264 0.9778
-2.3931 4.5548 -2.1058 0.9780
-2.7611 4.2795 -2.0844 0.9782
-3.0984 3.9740 -2.0624 0.9785
-3.6732 3.2880 -2.0176 0.9789
-3.9077 2.9149 -1.9953 0.9791
-2.7083 1.3500 -1.2385 0.9870
-4.4796 1.3074 -1.9099 0.9800
-4.8816 0.9628 -2.0364 0.9787
-1.9531 -0.1427 -0.8015 0.9916
-4.6121 -1.1846 -1.9489 0.9796
-4.4570 -1.5799 -1.9354 0.9798
-4.2717 -1.9585 -1.9233 0.9799
-4.0579 -2.3186 -1.9128 0.9800
-2.2718 -4.0019 -1.8834 0.9803
-0.7355 -4.5756 -1.8967 0.9802
-0.3261 -4.6410 -1.9041 0.9801
0.5081 -4.6728 -1.9237 0.9799
0.9282 -4.6379 -1.9358 0.9798
1.3472 -4.5686 -1.9494 0.9796
1.7625 -4.4646 -1.9645 0.9795
2.1713 -4.3256 -1.9809 0.9793
3.3310 -3.7004 -2.0377 0.9787
4.0183 -3.1149 -2.0808 0.9783
4.3268 -2.7745 -2.1036 0.9780
4.5960 -2.3983 -2.1217 0.9778
2.3349 -0.9645 -1.0339 0.9891
4.7079 -1.4692 -2.0185 0.9789
5.0024 -0.6237 -2.0632 0.9784
5.0917 -0.1773 -2.0852 0.9782
5.1439 0.7441 -2.1272 0.9778
5.1037 1.2105 -2.1468 0.9776
4.8866 2.1317 -2.1820 0.9772
4.4885 3.0040 -2.2105 0.9769
3.1534 4.3792 -2.2086 0.9769
2.6833 4.5291 -2.1545 0.9775
2.3618 4.9445 -2.2427 0.9766
1.9060 5.1197 -2.2359 0.9767
0.9838 3.5945 -1.5252 0.9840
-0.0014 2.6990 -1.1046 0.9884
-0.4792 5.3244 -2.1879 0.9772
-0.9447 5.2214 -2.1717 0.9773
-2.2318 4.6595 -2.1145 0.9779
-2.6118 4.3977 -2.0934 0.9781
-2.9621 4.1043 -2.0716 0.9784
-3.2806 3.7831 -2.0494 0.9786
-2.6793 1.4620 -1.2492 0.9869
-2.8347 1.2329 -1.2652 0.9867
-4.8569 1.1465 -2.0424 0.9787
-1.9430 0.1037 -0.7964 0.9916
-4.6673 -1.0160 -1.9550 0.9796
-4.5252 -1.4176 -1.9408 0.9797
-4.3523 -1.8033 -1.9281 0.9798
-4.1501 -2.1713 -1.9170 0.9800
-3.9203 -2.5198 -1.9074 0.9801
-3.0828 -3.4321 -1.8881 0.9803
-2.4187 -3.9152 -1.8835 0.9803
-2.0604 -4.1156 -1.8837 0.9803
-0.4971 -4.6178 -1.9009 0.9801
0.7537 -4.6566 -1.9306 0.9798
1.5906 -4.5121 -1.9581 0.9795
2.4063 -4.2282 -1.9911 0.9792
2.7992 -4.0340 -2.0096 0.9790
3.1783 -3.8054 -2.0292 0.9788
3.5405 -3.5428 -2.0499 0.9786
4.4151 -2.0184 -1.9868 0.9792
4.6287 -1.6351 -2.0092 0.9790
4.8092 -1.2297 -2.0316 0.9788
4.9536 -0.8051 -2.0540 0.9785
5.0596 -0.3643 -2.0761 0.9783
5.1248 0.0889 -2.0978 0.9781
5.1474 0.5507 -2.1187 0.9779
5.0592 1.4824 -2.1577 0.9775
4.9468 1.9430 -2.1752 0.9773
4.0509 3.6340 -2.2273 0.9768
3.3212 4.2692 -2.2137 0.9769
2.8758 4.4678 -2.1746 0.9773
0.0998 2.7291 -1.1177 0.9883
-2.0659 4.7581 -2.1230 0.9778
-3.1523 3.9197 -2.0587 0.9785
-3.7154 3.2261 -2.0139 0.9790
-3.9438 2.8502 -1.9915 0.9792
-4.1358 2.4598 -1.9694 0.9794
-2.7293 1.3095 -1.2389 0.9870
-4.4092 1.6501 -1.9268 0.9799
-4.5003 1.2401 -1.9105 0.9800
-1.9579 0.1775 -0.8046 0.9915
-1.8990 0.0022 -0.7772 0.9918
-2.1652 -0.3879 -0.9003 0.9905
-4.5881 -1.2526 -1.9465 0.9797
-4.4278 -1.6451 -1.9332 0.9798
-4.0190 -2.3775 -1.9112 0.9800
-3.5040 -3.0280 -1.8954 0.9802
-3.2110 -3.3186 -1.8899 0.9802
-2.5627 -3.8238 -1.8839 0.9803
-1.8438 -4.2193 -1.8846 0.9803
-0.2563 -4.6488 -1.9055 0.9801
0.1598 -4.6758 -1.9148 0.9800
0.5791 -4.6693 -1.9257 0.9799
2.2397 -4.2987 -1.9838 0.9793
3.0227 -3.9045 -2.0209 0.9789
3.3923 -3.6560 -2.0412 0.9787
4.6376 -2.3317 -2.1244 0.9778
4.7384 -1.4006 -2.0223 0.9789
5.0204 -0.5491 -2.0670 0.9784
5.1028 -0.1006 -2.0888 0.9782
5.0924 1.2893 -2.1500 0.9776
4.9990 1.7526 -2.1681 0.9774
4.4468 3.0742 -2.2125 0.9769
2.6619 4.6517 -2.1935 0.9771
1.8273 5.1444 -2.2344 0.9767
0.8809 5.3617 -2.2238 0.9768
-0.5588 5.3101 -2.1853 0.9772
-1.0220 5.1996 -2.1688 0.9774
-1.8955 4.8505 -2.1314 0.9777
-2.6732 4.3502 -2.0897 0.9782
-3.8533 3.0083 -2.0008 0.9791
-4.0605 2.6235 -1.9786 0.9793
-4.3645 1.8205 -1.9354 0.9798
-4.4614 1.4092 -1.9148 0.9800
-1.9517 0.2502 -0.8053 0.9915
-1.9328 0.0740 -0.7916 0.9917
-1.9463 -0.2747 -0.8044 0.9915
-3.8789 -2.5767 -1.9059 0.9801
-3.6191 -2.9003 -1.8981 0.9802
-3.3354 -3.2009 -1.8920 0.9802
-2.7037 -3.7275 -1.8846 0.9803
-2.3592 -3.9511 -1.8834 0.9803
-1.6226 -4.3130 -1.8860 0.9803
-1.2342 -4.4493 -1.8897 0.9802
-3.2984 3.2779 -2.0266 0.9799
-3.5403 2.9401 -2.0056 0.9801
-2.7168 1.2307 -1.2998 0.9871
-1.5464 0.3898 -0.6950 0.9931
-1.5294 0.1048 -0.6681 0.9933
-1.5243 -0.1684 -0.6684 0.9933
-1.5722 -0.4666 -0.7147 0.9929
-3.5056 -2.6397 -1.9125 0.9810
-3.2456 -2.9318 -1.9061 0.9811
-2.9640 -3.2012 -1.9013 0.9811
-2.6623 -3.4467 -1.8981 0.9812
-2.3425 -3.6670 -1.8964 0.9812
-2.0063 -3.8610 -1.8963 0.9812
-1.6556 -4.0275 -1.8978 0.9812
-0.5352 -4.3534 -1.9116 0.9810
-0.1457 -4.4014 -1.9193 0.9810
0.2483 -4.4179 -1.9284 0.9809
1.0407 -4.3544 -1.9512 0.9807
2.5754 -3.8337 -2.0128 0.9800
2.9333 -3.6217 -2.0312 0.9799
3.8999 -2.7981 -2.0919 0.9793
4.1070 -1.9531 -1.9820 0.9804
4.4812 -1.2182 -2.0239 0.9799
4.6192 -0.8224 -2.0448 0.9797
4.7215 -0.4117 -2.0655 0.9795
4.7859 0.0108 -2.0858 0.9793
4.6366 1.7409 -2.1584 0.9786
4.4940 2.1621 -2.1734 0.9785
4.0851 2.9590 -2.1983 0.9782
3.5221 3.6653 -2.2154 0.9781
3.1890 3.9740 -2.2206 0.9780
2.8259 4.2480 -2.2236 0.9780
2.4368 4.4842 -2.2242 0.9780
2.0260 4.6800 -2.2225 0.9780
1.5980 4.8332 -2.2185 0.9780
0.8309 3.5472 -1.5878 0.9842
0.7099 5.0067 -2.2038 0.9782
-0.0962 2.5580 -1.1156 0.9889
-0.6289 4.9320 -2.1669 0.9785
-1.4719 4.6703 -2.1341 0.9789
-2.5833 4.0040 -2.0767 0.9794
-3.1883 3.4125 -2.0353 0.9798
-3.4438 3.0827 -2.0144 0.9800
-3.6663 2.7348 -1.9934 0.9802
-2.6825 1.3372 -1.3063 0.9870
-1.5698 0.4581 -0.7127 0.9929
-1.5256 0.0248 -0.6650 0.9934
-4.0341 -1.8495 -1.9341 0.9808
-3.8333 -2.1903 -1.9241 0.9809
-3.3564 -2.8131 -1.9086 0.9811
-3.0835 -3.0921 -1.9031 0.9811
-2.7900 -3.3477 -1.8992 0.9812
-1.8029 -3.9617 -1.8970 0.9812
-1.4445 -4.1118 -1.8994 0.9812
-0.6951 -4.3244 -1.9088 0.9811
0.4798 -4.4128 -1.9345 0.9808
0.8763 -4.3783 -1.9460 0.9807
1.6625 -4.2112 -1.9731 0.9804
2.7863 -3.7137 -2.0234 0.9799
3.1353 -3.4830 -2.0424 0.9798
3.4667 -3.2208 -2.0623 0.9796
2.3334 -0.9639 -1.1003 0.9890
4.4138 -1.3775 -2.0151 0.9800
4.8054 0.2618 -2.0974 0.9792
4.8064 0.6952 -2.1165 0.9790
4.7660 1.1304 -2.1347 0.9789
4.6834 1.5630 -2.1518 0.9787
4.3913 2.4023 -2.1815 0.9784
4.1833 2.7997 -2.1938 0.9783
3.9357 3.1764 -2.2042 0.9782
3.3312 3.8498 -2.2187 0.9780
2.9801 4.1386 -2.2226 0.9780
2.6014 4.3909 -2.2242 0.9780
-0.8815 4.8722 -2.1579 0.9786
-1.7049 4.5646 -2.1236 0.9790
-2.4430 4.1135 -2.0851 0.9793
-2.7726 3.8417 -2.0648 0.9795
-3.5780 2.8813 -2.0021 0.9802
-2.7529 1.1973 -1.3083 0.9870
-1.5874 0.5279 -0.7291 0.9927
-1.5354 0.3624 -0.6875 0.9931
-1.5215 -0.3312 -0.6786 0.9932
-1.5799 -0.4949 -0.7215 0.9928
-3.7040 -2.3807 -1.9189 0.9810
-2.9143 -3.2445 -1.9007 0.9812
-2.6095 -3.4858 -1.8977 0.9812
-0.8538 -4.2901 -1.9063 0.9811
-0.4697 -4.3637 -1.9128 0.9810
0.3152 -4.4175 -1.9301 0.9809
0.7116 -4.3966 -1.9410 0.9808
1.1075 -4.3431 -1.9534 0.9806
1.5006 -4.2568 -1.9671 0.9805
1.8883 -4.1375 -1.9821 0.9804
2.6369 -3.8001 -2.0158 0.9800
2.9923 -3.5827 -2.0344 0.9798
3.6511 -3.0534 -2.0743 0.9794
3.9485 -2.7436 -2.0955 0.9792
4.2141 -2.4019 -2.1139 0.9791
4.1433 -1.8942 -1.9855 0.9803
4.6391 -0.7539 -2.0483 0.9797
4.7351 -0.3409 -2.0690 0.9795
4.7930 0.0832 -2.0892 0.9793
4.7228 1.3839 -2.1448 0.9788
4.4658 2.2321 -2.1758 0.9785
3.1295 4.0229 -2.2213 0.9780
1.9547 4.7089 -2.2220 0.9780
1.5243 4.8548 -2.2176 0.9780
1.0823 4.9564 -2.2110 0.9781
0.6338 5.0132 -2.2022 0.9782
0.1012 2.7683 -1.2073 0.9880
-1.1294 4.7984 -2.1484 0.9787
-1.9306 4.4466 -2.1127 0.9791
-3.2338 3.3582 -2.0318 0.9799
-3.4838 3.0250 -2.0108 0.9801
-3.7006 2.6744 -1.9899 0.9803
-2.6962 1.2936 -1.3033 0.9870
-1.5609 0.4301 -0.7056 0.9930
-1.4996 0.2723 -0.6642 0.9934
-1.5276 0.1385 -0.6685 0.9933
-1.5594 -0.4257 -0.7045 0.9930
-3.7968 -2.2461 -1.9226 0.9809
-3.0352 -3.1370 -1.9024 0.9811
-2.0906 -3.8157 -1.8962 0.9812
-1.7432 -3.9891 -1.8973 0.9812
-1.3827 -4.1343 -1.8999 0.9812
-1.0111 -4.2505 -1.9041 0.9811
0.5469 -4.4092 -1.9363 0.9808
2.1114 -4.0524 -1.9915 0.9803
2.4851 -3.8810 -2.0084 0.9801
3.1927 -3.4408 -2.0457 0.9797
3.5208 -3.1735 -2.0657 0.9795
3.8279 -2.8759 -2.0866 0.9793
4.1101 -2.5489 -2.1077 0.9791
4.0526 -2.0376 -1.9769 0.9804
2.3483 -0.9288 -1.1006 0.9890
4.4419 -1.3130 -2.0187 0.9800
4.5885 -0.9214 -2.0397 0.9798
4.6997 -0.5141 -2.0604 0.9796
4.7737 -0.0942 -2.0808 0.9794
4.8084 0.3348 -2.1007 0.9792
4.8026 0.7688 -2.1197 0.9790
4.7550 1.2039 -2.1377 0.9788
4.5330 2.0594 -2.1699 0.9785
3.8901 3.2377 -2.2057 0.9782
3.5991 3.5844 -2.2137 0.9781
3.2739 3.9011 -2.2195 0.9780
2.9179 4.1839 -2.2231 0.9780
2.5348 4.4297 -2.2243 0.9780
2.1289 4.6356 -2.2232 0.9780
1.7047 4.7995 -2.2197 0.9780
0.8206 4.9951 -2.2061 0.9782
0.3705 5.0255 -2.1961 0.9783
-0.0419 2.6793 -1.1678 0.9884
-0.5213 4.9529 -2.1705 0.9785
-1.3716 4.7110 -2.1384 0.9788
-1.7710 4.5317 -2.1204 0.9790
-2.1483 4.3168 -2.1015 0.9792
-2.5007 4.0695 -2.0817 0.9794
-3.3839 3.1657 -2.0195 0.9800
-1.5235 0.3354 -0.6799 0.9932
-1.5200 0.1948 -0.6678 0.9933
-1.5294 -0.0780 -0.6674 0.9933
-1.5336 -0.3582 -0.6863 0.9932
-1.5865 -0.5234 -0.7281 0.9927
-3.6649 -2.4346 -1.9175 0.9810
-3.4202 -2.7409 -1.9102 0.9811
-2.5561 -3.5241 -1.8973 0.9812
-1.8892 -3.9204 -1.8966 0.9812
-1.5340 -4.0775 -1.8986 0.9812
-1.1667 -4.2058 -1.9022 0.9811
-0.7894 -4.3047 -1.9073 0.9811
-0.4041 -4.3731 -1.9140 0.9810
-3.0998 3.0806 -2.0229 0.9809
-3.3293 2.7649 -2.0032 0.9811
-3.5275 2.4331 -1.9836 0.9813
-2.6356 1.4902 -1.4015 0.9867
-1.3162 0.5963 -0.6689 0.9937
-1.3336 0.4659 -0.6539 0.9938
-1.3104 0.3303 -0.6255 0.9941
-1.3362 -0.0278 -0.6186 0.9941
-1.3346 -0.1474 -0.6215 0.9941
-1.3078 -0.2641 -0.6176 0.9941
-3.7421 -1.8865 -1.9398 0.9817
-3.5427 -2.2023 -1.9309 0.9818
-3.3194 -2.4994 -1.9234 0.9819
-3.0738 -2.7765 -1.9173 0.9819
-2.8074 -3.0321 -1.9127 0.9820
-2.5219 -3.2649 -1.9096 0.9820
-2.2191 -3.4738 -1.9080 0.9820
-1.9006 -3.6575 -1.9079 0.9820
-1.5683 -3.8151 -1.9093 0.9820
-1.2239 -3.9457 -1.9122 0.9820
-0.5068 -4.1223 -1.9225 0.9819
-0.1379 -4.1668 -1.9298 0.9818
0.2350 -4.1814 -1.9385 0.9817
0.6099 -4.1655 -1.9487 0.9816
1.7232 -3.9317 -1.9870 0.9813
2.0825 -3.7913 -2.0023 0.9811
3.6744 -2.6363 -2.0933 0.9803
4.2118 -1.1449 -2.0203 0.9809
4.3388 -0.7725 -2.0399 0.9808
4.4321 -0.3864 -2.0593 0.9806
4.4899 0.0101 -2.0783 0.9804
4.4931 0.8209 -2.1142 0.9801
4.4364 1.2276 -2.1307 0.9799
4.3404 1.6297 -2.1461 0.9798
4.0312 2.4035 -2.1725 0.9795
3.8197 2.7667 -2.1832 0.9794
3.2916 3.4255 -2.1990 0.9793
2.9798 3.7133 -2.2038 0.9792
2.2767 4.1897 -2.2072 0.9792
1.4933 4.5165 -2.2019 0.9793
0.6637 4.6807 -2.1883 0.9794
0.2429 4.7002 -2.1786 0.9795
-0.9908 4.5142 -2.1393 0.9798
-1.3788 4.3752 -2.1234 0.9800
-2.4242 3.7574 -2.0698 0.9805
-1.3302 0.5209 -0.6613 0.9937
-1.3097 0.2583 -0.6179 0.9941
-1.3353 0.1414 -0.6216 0.9941
-1.3357 0.0217 -0.6183 0.9941
-1.3216 -0.2162 -0.6199 0.9941
-1.3145 -0.6027 -0.6694 0.9936
-3.6285 -2.0732 -1.9344 0.9817
-3.1784 -2.6640 -1.9197 0.9819
-2.6427 -3.1711 -1.9107 0.9820
-2.0347 -3.5843 -1.9078 0.9820
-1.3683 -3.8948 -1.9109 0.9820
-0.6583 -4.0951 -1.9199 0.9819
-0.2918 -4.1519 -1.9266 0.9818
0.4540 -4.1758 -1.9443 0.9817
0.8290 -4.1419 -1.9552 0.9816
1.5715 -3.9808 -1.9810 0.9813
2.6302 -3.5056 -2.0287 0.9809
3.5600 -2.7596 -2.0850 0.9803
3.8276 -2.4544 -2.1047 0.9802
2.3318 -0.9632 -1.1678 0.9889
4.1495 -1.2950 -2.0121 0.9810
4.2900 -0.9291 -2.0318 0.9808
4.3976 -0.5483 -2.0513 0.9807
4.4703 -0.1557 -2.0705 0.9805
4.3851 1.4635 -2.1399 0.9798
3.9120 2.6182 -2.1789 0.9795
3.4122 3.2972 -2.1963 0.9793
3.1129 3.5975 -2.2021 0.9792
1.6610 4.4617 -2.2037 0.9792
-0.0015 2.7062 -1.2527 0.9881
-0.8252 4.5611 -2.1455 0.9798
-1.2196 4.4373 -2.1301 0.9799
-1.9561 4.0838 -2.0960 0.9802
-2.6027 3.6063 -2.0586 0.9806
-2.8862 3.3283 -2.0392 0.9808
-3.1408 3.0284 -2.0196 0.9810
-3.5579 2.3756 -1.9803 0.9813
-1.3324 0.4431 -0.6499 0.9938
-1.3039 0.3078 -0.6201 0.9941
-1.3274 0.1905 -0.6207 0.9941
-1.3384 0.0715 -0.6204 0.9941
-1.3376 -0.0480 -0.6196 0.9941
-1.3012 -0.2833 -0.6164 0.9941
-1.3288 -0.4163 -0.6445 0.9939
-2.7604 -3.0731 -1.9121 0.9820
-1.8453 -3.6860 -1.9081 0.9820
-0.8086 -4.0629 -1.9175 0.9819
-0.0751 -4.1714 -1.9312 0.9818
0.2983 -4.1808 -1.9402 0.9817
3.4417 -2.8783 -2.0768 0.9804
3.7199 -2.5848 -2.0967 0.9802
3.9657 -2.2603 -2.1129 0.9801
4.2355 -1.0830 -2.0236 0.9809
4.4960 0.0780 -2.0815 0.9804
4.4862 0.8899 -2.1171 0.9800
4.3203 1.6969 -2.1485 0.9797
3.9980 2.4662 -2.1744 0.9795
3.5272 3.1641 -2.1934 0.9793
2.9242 3.7589 -2.2045 0.9792
2.5804 4.0089 -2.2068 0.9792
2.2131 4.2233 -2.2071 0.9792
0.1718 4.6994 -2.1767 0.9795
-0.6575 4.6014 -2.1515 0.9797
-1.0576 4.4932 -2.1367 0.9799
-1.4428 4.3481 -2.1206 0.9800
-1.8097 4.1682 -2.1034 0.9802
-2.1553 3.9561 -2.0853 0.9803
-2.7719 3.4467 -2.0473 0.9807
-3.0387 3.1555 -2.0278 0.9809
-2.6878 1.2895 -1.3799 0.9869
-1.3323 0.4986 -0.6585 0.9937
-1.3156 0.2389 -0.6189 0.9941
-1.3335 0.0016 -0.6173 0.9941
-1.3164 -0.2358 -0.6191 0.9941
-3.7873 -1.8060 -1.9422 0.9817
-3.5941 -2.1261 -1.9330 0.9818
-2.8748 -2.9712 -1.9137 0.9819
-2.5939 -3.2098 -1.9103 0.9820
-1.6513 -3.7788 -1.9089 0.9820
-1.3097 -3.9161 -1.9114 0.9820
-0.2292 -4.1586 -1.9279 0.9818
0.1429 -4.1806 -1.9363 0.9817
0.5175 -4.1722 -1.9461 0.9816
0.8923 -4.1331 -1.9572 0.9815
1.2651 -4.0629 -1.9697 0.9814
2.3468 -3.6650 -2.0145 0.9810
3.3196 -2.9922 -2.0687 0.9805
3.6071 -2.7100 -2.0884 0.9803
3.8143 -1.9178 -1.9762 0.9814
4.3106 -0.8656 -2.0351 0.9808
4.4791 -0.0883 -2.0737 0.9804
4.5010 0.7206 -2.1100 0.9801
4.4540 1.1277 -2.1268 0.9800
4.2421 1.9272 -2.1567 0.9797
4.0776 2.3112 -2.1696 0.9796
3.6366 3.0267 -2.1900 0.9794
3.3637 3.3500 -2.1975 0.9793
2.7263 3.9092 -2.2061 0.9792
2.3683 4.1387 -2.2072 0.9792
0.7671 4.6694 -2.1904 0.9794
-0.0420 2.6844 -1.2427 0.9882
-0.4878 4.6349 -2.1573 0.9797
-1.2848 4.4128 -2.1274 0.9799
-2.0145 4.0479 -2.0929 0.9803
-3.5873 2.3178 -1.9770 0.9814
-1.3257 0.5530 -0.6649 0.9937
-1.3293 0.4199 -0.6453 0.9939
-1.3001 0.2862 -0.6162 0.9941
-1.3280 -0.1874 -0.6208 0.9941
-1.3028 -0.3043 -0.6193 0.9941
-1.3319 -0.4394 -0.6492 0.9938
-3.2387 -2.5955 -1.9212 0.9819
-2.7129 -3.1135 -1.9115 0.9820
-1.7896 -3.7138 -1.9082 0.9820
-1.4530 -3.8624 -1.9102 0.9820
-1.1050 -3.9836 -1.9136 0.9819
-0.3826 -4.1406 -1.9248 0.9818
-2.9203 2.9022 -2.0196 0.9818
-3.3269 2.2948 -1.9825 0.9822
-2.6231 1.4831 -1.4781 0.9867
-1.1586 0.2920 -0.5861 0.9947
-1.1737 -0.2370 -0.5874 0.9947
-1.1282 -0.5687 -0.6197 0.9944
-3.1486 -2.3708 -1.9334 0.9826
-1.8036 -3.4708 -1.9186 0.9827
-1.4881 -3.6202 -1.9200 0.9827
-1.1613 -3.7438 -1.9227 0.9827
-0.8248 -3.8407 -1.9269 0.9827
-0.1308 -3.9517 -1.9395 0.9825
0.5781 -3.9485 -1.9575 0.9824
1.6317 -3.7230 -1.9939 0.9821
2.9203 -3.0117 -2.0578 0.9815
3.6454 -1.7336 -1.9801 0.9822
3.9681 -1.0787 -2.0171 0.9818
4.0855 -0.7274 -2.0356 0.9817
4.2232 0.0095 -2.0716 0.9814
4.2218 0.7714 -2.1052 0.9811
4.0747 1.5299 -2.1350 0.9808
3.9461 1.8985 -2.1480 0.9807
3.7815 2.2546 -2.1596 0.9806
3.0854 3.2109 -2.1843 0.9804
2.7928 3.4803 -2.1888 0.9803
2.1336 3.9263 -2.1920 0.9803
1.7741 4.0981 -2.1905 0.9803
1.3996 4.2332 -2.1870 0.9803
0.6223 4.3888 -2.1744 0.9804
-0.0951 2.5276 -1.2407 0.9888
-0.5525 4.3323 -2.1423 0.9807
-1.2953 4.1100 -2.1138 0.9810
-1.9733 3.7557 -2.0811 0.9813
-2.2808 3.5350 -2.0636 0.9814
-1.1520 0.4510 -0.6068 0.9945
-1.1750 0.2317 -0.5875 0.9947
-1.1923 0.1263 -0.5881 0.9947
-1.1952 -0.0874 -0.5879 0.9947
-1.1828 -0.1935 -0.5879 0.9947
-1.1579 -0.2974 -0.5864 0.9947
-1.1562 -0.4098 -0.6017 0.9945
-1.1396 -0.5225 -0.6150 0.9944
-3.2390 -2.2558 -1.9362 0.9826
-3.0152 -2.5271 -1.9298 0.9826
-2.7709 -2.7786 -1.9249 0.9827
-2.5076 -3.0089 -1.9213 0.9827
-1.9308 -3.4013 -1.9185 0.9827
0.0756 -3.9628 -1.9442 0.9825
0.4304 -3.9587 -1.9533 0.9824
0.7856 -3.9254 -1.9637 0.9823
1.4884 -3.7702 -1.9882 0.9821
2.4879 -3.3159 -2.0335 0.9817
3.6111 -2.3156 -2.1042 0.9811
3.5649 -1.8603 -1.9724 0.9822
2.3303 -0.9626 -1.2367 0.9888
4.0405 -0.8750 -2.0279 0.9817
4.1395 -0.5161 -2.0463 0.9816
4.2057 -0.1465 -2.0642 0.9814
4.2376 0.2308 -2.0817 0.9813
4.0040 1.7466 -2.1428 0.9807
3.8542 2.1084 -2.1550 0.9806
3.1987 3.0909 -2.1819 0.9804
2.9176 3.3718 -2.1872 0.9803
2.2777 3.8446 -2.1920 0.9803
1.9255 4.0311 -2.1913 0.9803
0.7857 4.3693 -2.1776 0.9804
-1.5012 4.0193 -2.1046 0.9811
-2.9592 2.8533 -2.0164 0.9819
-3.1722 2.5546 -1.9979 0.9820
-1.1446 0.4978 -0.6123 0.9945
-1.1867 0.1703 -0.5881 0.9947
-1.1962 0.0639 -0.5876 0.9947
-1.1964 -0.0430 -0.5873 0.9947
-1.1694 -0.2546 -0.5871 0.9947
-1.1587 -0.3630 -0.5956 0.9946
-1.1484 -0.4758 -0.6098 0.9945
-1.1213 -0.5867 -0.6208 0.9944
-3.3256 -2.1376 -1.9392 0.9825
-3.1108 -2.4167 -1.9323 0.9826
-2.8747 -2.6766 -1.9267 0.9827
-2.0557 -3.3276 -1.9186 0.9827
-1.7511 -3.4978 -1.9188 0.9827
-0.4219 -3.9193 -1.9336 0.9826
-0.0712 -3.9559 -1.9408 0.9825
0.2829 -3.9639 -1.9494 0.9825
0.6382 -3.9428 -1.9592 0.9824
0.9926 -3.8923 -1.9704 0.9823
1.6897 -3.7024 -1.9963 0.9820
2.3554 -3.3945 -2.0267 0.9818
2.6702 -3.1971 -2.0433 0.9816
3.2512 -2.7190 -2.0790 0.9813
3.5122 -2.4405 -2.0979 0.9811
3.7406 -2.1320 -2.1120 0.9810
2.4035 -1.0988 -1.2963 0.9883
3.9902 -1.0203 -2.0202 0.9818
4.2151 0.8361 -2.1079 0.9810
4.0555 1.5929 -2.1373 0.9808
3.9208 1.9597 -2.1501 0.9807
3.5450 2.6502 -2.1711 0.9805
3.3068 2.9664 -2.1791 0.9804
1.7117 4.1236 -2.1900 0.9803
1.3351 4.2523 -2.1863 0.9803
-0.1333 2.5268 -1.2412 0.9888
-0.6171 4.3190 -2.1401 0.9807
-0.9931 4.2193 -2.1262 0.9809
-1.3554 4.0849 -2.1112 0.9810
-2.0269 3.7203 -2.0782 0.9813
-2.6095 3.2448 -2.0425 0.9816
-2.8623 2.9723 -2.0241 0.9818
-3.0872 2.6807 -2.0056 0.9819
-3.4494 2.0516 -1.9687 0.9823
-1.1346 0.5443 -0.6173 0.9944
-1.1542 0.4319 -0.6045 0.9945
-1.1788 0.2141 -0.5877 0.9947
-1.1587 -0.3163 -0.5891 0.9947
-1.1545 -0.4290 -0.6041 0.9945
-3.2027 -2.3030 -1.9350 0.9826
-2.7276 -2.8191 -1.9242 0.9827
-2.4613 -3.0457 -1.9208 0.9827
-1.8793 -3.4301 -1.9185 0.9827
-1.5670 -3.5858 -1.9195 0.9827
-1.2427 -3.7158 -1.9219 0.9827
-0.9085 -3.8194 -1.9258 0.9827
-0.5661 -3.8957 -1.9310 0.9826
0.1355 -3.9641 -1.9456 0.9825
0.4905 -3.9552 -1.9550 0.9824
0.8456 -3.9169 -1.9656 0.9823
1.1985 -3.8491 -1.9775 0.9822
1.5469 -3.7516 -1.9905 0.9821
1.8884 -3.6245 -2.0047 0.9820
2.8473 -3.0687 -2.0534 0.9815
3.1366 -2.8272 -2.0714 0.9814
3.6495 -2.2632 -2.1065 0.9810
4.0595 -0.8152 -2.0310 0.9817
4.1531 -0.4543 -2.0493 0.9816
4.2135 -0.0831 -2.0672 0.9814
4.2395 0.2952 -2.0846 0.9812
4.1008 1.4377 -2.1316 0.9808
3.9812 1.8087 -2.1449 0.9807
3.8254 2.1683 -2.1569 0.9806
3.6344 2.5126 -2.1673 0.9805
3.4096 2.8378 -2.1760 0.9804
2.8673 3.4166 -2.1879 0.9803
2.2195 3.8786 -2.1920 0.9803
0.9364 3.6358 -1.8416 0.9834
0.7192 4.3780 -2.1763 0.9804
0.3250 4.4071 -2.1677 0.9805
-0.4578 4.3498 -2.1454 0.9807
-1.5597 3.9910 -2.1019 0.9811
-2.9972 2.8040 -2.0133 0.9819
-1.1200 0.5894 -0.6208 0.9944
-1.1687 0.2573 -0.5870 0.9947
-1.1871 -0.1675 -0.5881 0.9947
-1.1647 -0.2720 -0.5867 0.9947
-1.1580 -0.3820 -0.5981 0.9946
-1.1452 -0.4949 -0.6119 0.9945
-1.1128 -0.6038 -0.6210 0.9944
-3.0723 -2.4621 -1.9312 0.9826
-2.2977 -3.1678 -1.9196 0.9827
-2.0051 -3.3581 -1.9185 0.9827
-1.6983 -3.5241 -1.9189 0.9827
-1.0485 -3.7796 -1.9240 0.9827
-2.7571 2.7399 -2.0165 0.9826
-1.0438 0.4729 -0.5945 0.9948
-1.0948 0.1741 -0.5751 0.9950
-1.1065 -0.0230 -0.5741 0.9950
-1.1021 -0.1218 -0.5752 0.9950
-1.0855 -0.2192 -0.5745 0.9950
-1.0635 -0.3156 -0.5755 0.9950
-1.0284 -0.5185 -0.5975 0.9948
-2.5312 -2.7339 -1.9329 0.9834
-2.2742 -2.9443 -1.9300 0.9834
-2.0013 -3.1329 -1.9286 0.9834
-1.4143 -3.4405 -1.9298 0.9834
-0.7837 -3.6494 -1.9364 0.9833
-0.1242 -3.7537 -1.9484 0.9832
0.2116 -3.7651 -1.9563 0.9832
0.8854 -3.7045 -1.9760 0.9830
1.5478 -3.5315 -2.0003 0.9828
2.1807 -3.2463 -2.0288 0.9825
2.4803 -3.0625 -2.0445 0.9824
3.0337 -2.6159 -2.0781 0.9821
3.5011 -2.0661 -2.1090 0.9818
2.2697 -1.0793 -1.3038 0.9887
2.3195 -0.8590 -1.2832 0.9889
3.7466 -1.0185 -2.0142 0.9827
3.5564 2.1204 -2.1480 0.9815
3.3679 2.4394 -2.1574 0.9814
3.1483 2.7396 -2.1651 0.9814
2.0048 3.6893 -2.1782 0.9813
1.6670 3.8508 -2.1769 0.9813
1.3153 3.9781 -2.1737 0.9813
0.5850 4.1258 -2.1618 0.9814
0.2142 4.1452 -2.1533 0.9815
-0.5198 4.0763 -2.1318 0.9817
-0.8757 3.9897 -2.1190 0.9818
-1.5486 3.7195 -2.0902 0.9820
-2.1507 3.3333 -2.0580 0.9823
-2.4191 3.1027 -2.0410 0.9824
-2.6632 2.8504 -2.0237 0.9826
-2.8815 2.5793 -2.0063 0.9827
-3.0729 2.2921 -1.9888 0.9829
-1.0551 0.4131 -0.5878 0.9949
-1.0637 0.3104 -0.5748 0.9950
-1.1026 0.1168 -0.5752 0.9950
-1.1064 0.0180 -0.5740 0.9950
-1.0699 -0.2748 -0.5730 0.9950
-1.0426 -0.4780 -0.5950 0.9948
-2.1165 -3.0572 -1.9290 0.9834
-1.5402 -3.3845 -1.9291 0.9834
-0.9176 -3.6144 -1.9346 0.9833
1.4120 -3.5767 -1.9949 0.9828
2.0526 -3.3146 -2.0226 0.9826
2.6489 -2.9426 -2.0540 0.9823
2.9244 -2.7171 -2.0709 0.9822
3.4137 -2.1890 -2.1038 0.9819
3.8138 -0.8259 -2.0244 0.9826
3.9657 -0.1381 -2.0586 0.9823
3.9886 0.5769 -2.0907 0.9820
3.9492 0.9367 -2.1056 0.9819
3.7673 1.6434 -2.1323 0.9816
3.4500 2.3090 -2.1537 0.9815
2.7418 3.1687 -2.1738 0.9813
2.4521 3.4053 -2.1770 0.9813
2.1402 3.6124 -2.1783 0.9813
0.7386 4.1071 -2.1648 0.9814
0.3683 4.1416 -2.1570 0.9814
-0.3692 4.1022 -2.1367 0.9816
-2.5648 2.9577 -2.0310 0.9825
-2.7940 2.6941 -2.0135 0.9827
-2.9967 2.4132 -1.9960 0.9828
-1.0476 0.4556 -0.5926 0.9949
-1.0762 0.2540 -0.5737 0.9950
-1.1066 -0.0397 -0.5745 0.9950
-1.1001 -0.1384 -0.5752 0.9950
-1.0514 -0.4356 -0.5904 0.9949
-1.0210 -0.5342 -0.5978 0.9948
-3.1589 -2.0304 -1.9481 0.9832
-2.9554 -2.2960 -1.9415 0.9833
-2.4890 -2.7710 -1.9323 0.9834
-2.2292 -2.9777 -1.9297 0.9834
-1.9537 -3.1625 -1.9285 0.9834
-1.6642 -3.3243 -1.9286 0.9834
-0.7289 -3.6623 -1.9372 0.9833
-0.4008 -3.7234 -1.9428 0.9833
-0.0676 -3.7575 -1.9496 0.9832
0.6059 -3.7433 -1.9672 0.9831
0.9421 -3.6943 -1.9778 0.9830
1.9225 -3.3782 -2.0165 0.9826
2.2323 -3.2171 -2.0314 0.9825
3.0772 -2.5735 -2.0811 0.9821
3.3220 -2.3083 -2.0986 0.9819
2.2514 -1.0293 -1.2843 0.9889
3.8709 -0.6291 -2.0345 0.9825
3.9445 -0.2840 -2.0516 0.9823
3.9949 0.4274 -2.0843 0.9821
3.9103 1.1458 -2.1139 0.9818
3.6883 1.8435 -2.1391 0.9816
3.1083 2.7883 -2.1662 0.9814
2.8549 3.0623 -2.1720 0.9813
2.5753 3.3105 -2.1759 0.9813
0.8308 3.8044 -2.0201 0.9826
0.5224 4.1317 -2.1605 0.9814
-0.1437 2.7245 -1.4154 0.9878
-0.9348 3.9717 -2.1167 0.9818
-1.2765 3.8468 -2.1026 0.9819
-1.9105 3.5067 -2.0717 0.9822
-2.1977 3.2960 -2.0551 0.9823
-0.9911 0.5895 -0.5982 0.9948
-1.0374 0.4977 -0.5969 0.9948
-1.0575 0.3957 -0.5858 0.9949
-1.0902 0.1980 -0.5748 0.9950
-1.1041 0.1001 -0.5751 0.9950
-1.1043 -0.0975 -0.5751 0.9950
-1.0908 -0.1954 -0.5749 0.9950
-1.0578 -0.3930 -0.5854 0.9949
-3.0425 -2.1879 -1.9441 0.9833
-2.5919 -2.6789 -1.9338 0.9833
-2.3391 -2.8944 -1.9306 0.9834
-1.7861 -3.2599 -1.9284 0.9834
-0.5378 -3.7013 -1.9403 0.9833
-0.2065 -3.7466 -1.9466 0.9832
0.1287 -3.7648 -1.9543 0.9832
0.4658 -3.7554 -1.9632 0.9831
0.8027 -3.7181 -1.9733 0.9830
1.1373 -3.6526 -1.9846 0.9829
1.4674 -3.5589 -1.9970 0.9828
2.4078 -3.1102 -2.0405 0.9824
2.6967 -2.9063 -2.0568 0.9823
2.9693 -2.6764 -2.0738 0.9821
3.2232 -2.4216 -2.0915 0.9820
3.9392 0.9973 -2.1080 0.9819
3.8596 1.3531 -2.1218 0.9817
3.7456 1.7017 -2.1343 0.9816
3.2052 2.6676 -2.1633 0.9814
2.9635 2.9514 -2.1698 0.9813
2.6945 3.2107 -2.1745 0.9813
2.4008 3.4425 -2.1773 0.9813
1.7517 3.8141 -2.1774 0.9813
1.4030 3.9500 -2.1746 0.9813
0.9325 3.6208 -1.9397 0.9833
0.6761 4.1155 -2.1636 0.9814
0.3055 4.1438 -2.1556 0.9815
-0.0422 2.6988 -1.4003 0.9879
-1.7849 3.5866 -2.0784 0.9821
-2.0810 3.3865 -2.0621 0.9822
-2.8302 2.6477 -2.0106 0.9827
-3.0283 2.3642 -1.9931 0.9828
-1.0509 0.4383 -0.5907 0.9949
-1.0807 0.2379 -0.5741 0.9950
-1.0998 0.1410 -0.5752 0.9950
-1.1064 -0.0565 -0.5747 0.9950
-1.0979 -0.1549 -0.5752 0.9950
-1.0769 -0.2515 -0.5737 0.9950
-1.0481 -0.4529 -0.5923 0.9949
-3.1260 -2.0766 -1.9469 0.9832
