ply
format ascii 1.0
element vertex 1594
property float32 x
property float32 y
property float32 z
property float32 I
end_header
6.1778 3.7820 -1.7024 0.9707
4.7707 4.2508 -1.5017 0.9741
1.6442 5.1777 -1.2768 0.9779
0.1068 2.6876 -0.6322 0.9890
-0.8497 6.0838 -1.4437 0.9751
-1.4568 6.2777 -1.5146 0.9739
-1.7973 5.4737 -1.3540 0.9766
-3.8016 8.8309 -2.2596 0.9613
-5.1152 7.7229 -2.1771 0.9627
-5.6719 7.0969 -2.1352 0.9634
-7.7602 4.6469 -2.1258 0.9635
-8.1456 3.0758 -2.0463 0.9649
-8.2621 1.5253 -1.9746 0.9661
-8.1339 0.0330 -1.9117 0.9671
-7.9859 -0.6820 -1.8837 0.9676
-7.7863 -1.3722 -1.8582 0.9680
-7.5381 -2.0351 -1.8351 0.9684
-6.9078 -3.2705 -1.7963 0.9691
-6.5314 -3.8394 -1.7806 0.9693
-5.6688 -4.8718 -1.7567 0.9698
-5.1877 -5.3327 -1.7485 0.9699
-4.6763 -5.7549 -1.7428 0.9700
-4.1370 -6.1373 -1.7395 0.9700
-3.5720 -6.4787 -1.7387 0.9701
-2.9832 -6.7778 -1.7404 0.9700
-1.7431 -7.2445 -1.7512 0.9698
-6.1489 4.8127 -2.0217 0.9683
-6.4372 4.1703 -1.9859 0.9688
-7.3625 3.0812 -2.0665 0.9676
-7.4859 0.2948 -1.9397 0.9695
-7.2232 -1.0115 -1.8885 0.9703
-7.0202 -1.6318 -1.8661 0.9707
-6.1567 -3.3325 -1.8126 0.9715
-5.7925 -3.8397 -1.7994 0.9717
-4.0177 -5.5287 -1.7695 0.9722
-3.5057 -5.8593 -1.7679 0.9722
-2.9706 -6.1507 -1.7685 0.9722
-2.4147 -6.4018 -1.7715 0.9721
-0.0257 -6.9778 -1.8067 0.9716
2.5105 -6.8077 -1.8787 0.9705
3.1464 -6.6393 -1.9023 0.9701
3.7762 -6.4184 -1.9281 0.9697
5.0015 -5.8154 -1.9860 0.9688
5.5883 -5.4324 -2.0179 0.9683
6.1514 -4.9948 -2.0516 0.9678
6.6854 -4.5029 -2.0870 0.9672
7.1849 -3.9579 -2.1239 0.9667
7.6214 -3.3511 -2.1556 0.9662
7.8101 -1.8762 -2.0797 0.9674
8.3073 -0.4762 -2.1544 0.9662
8.4595 0.2707 -2.1914 0.9656
4.0549 4.4805 -1.5646 0.9753
2.5194 4.9867 -1.4466 0.9772
1.5761 5.2947 -1.4303 0.9774
1.1048 5.4477 -1.4392 0.9773
0.6236 5.6033 -1.4597 0.9770
0.0571 2.6424 -0.6843 0.9891
-0.9673 6.1137 -1.6026 0.9747
-1.5856 6.3107 -1.6847 0.9735
-1.9145 5.4923 -1.5060 0.9763
-6.0159 5.0660 -2.0363 0.9680
-7.2975 3.3658 -2.0808 0.9673
-7.4408 2.6564 -2.0456 0.9679
-7.2916 -0.7562 -1.8981 0.9702
-7.1071 -1.3859 -1.8748 0.9705
-6.8773 -1.9913 -1.8538 0.9708
-6.6050 -2.5700 -1.8350 0.9711
-5.9428 -3.6401 -1.8044 0.9716
-5.5579 -4.1280 -1.7925 0.9718
-3.1879 -6.0386 -1.7680 0.9722
-2.0726 -6.5324 -1.7744 0.9721
0.3487 -7.0018 -1.8151 0.9714
0.9799 -7.0039 -1.8311 0.9712
1.6162 -6.9572 -1.8493 0.9709
2.2546 -6.8607 -1.8698 0.9706
2.8919 -6.7131 -1.8926 0.9702
4.7606 -5.9537 -1.9737 0.9690
5.9287 -5.1768 -2.0379 0.9680
6.9891 -4.1828 -2.1089 0.9669
7.6825 -2.1391 -2.0648 0.9676
7.9841 -1.4719 -2.1021 0.9670
8.2274 -0.7678 -2.1395 0.9664
8.5113 2.3001 -2.2828 0.9642
8.3080 3.0626 -2.2926 0.9641
6.3288 3.7224 -1.9011 0.9701
4.2830 4.4049 -1.5908 0.9749
2.7128 4.9232 -1.4554 0.9770
2.2344 5.0800 -1.4369 0.9773
1.7641 5.2335 -1.4300 0.9774
0.1580 2.7504 -0.7133 0.9887
-1.3301 6.2294 -1.6493 0.9740
-1.6908 5.4734 -1.4832 0.9766
-3.2738 7.9903 -2.2357 0.9650
-3.9090 7.5433 -2.1998 0.9655
-5.0113 6.5025 -2.1256 0.9666
-6.2108 4.6868 -2.0146 0.9684
-6.4870 4.0418 -1.9789 0.9689
-2.7553 1.3925 -0.7993 0.9873
-7.3908 2.9409 -2.0595 0.9677
-7.4689 0.1622 -1.9343 0.9696
-7.3523 -0.4973 -1.9080 0.9700
-7.1867 -1.1361 -1.8839 0.9704
-6.7191 -2.3412 -1.8423 0.9710
-6.4225 -2.9031 -1.8249 0.9713
-6.0874 -3.4353 -1.8098 0.9715
-5.7163 -3.9362 -1.7970 0.9717
-5.3116 -4.4042 -1.7865 0.9719
-4.8755 -4.8379 -1.7784 0.9720
-2.8623 -6.2036 -1.7690 0.9722
-1.7242 -6.6477 -1.7782 0.9720
-1.1300 -6.8058 -1.7863 0.9719
-0.5219 -6.9195 -1.7967 0.9717
0.0976 -6.9876 -1.8094 0.9715
1.3606 -6.9819 -1.8417 0.9710
1.9985 -6.9055 -1.8613 0.9707
3.8997 -6.3684 -1.9335 0.9696
4.5170 -6.0833 -1.9618 0.9692
5.1192 -5.7440 -1.9922 0.9687
5.7017 -5.3501 -2.0244 0.9682
6.2595 -4.9018 -2.0585 0.9677
2.3499 -0.9841 -0.6596 0.9895
7.5464 -2.3953 -2.0500 0.9678
8.4813 0.4214 -2.1987 0.9655
8.5377 1.9823 -2.2693 0.9644
8.4476 2.7750 -2.3022 0.9639
5.8569 3.8804 -1.8191 0.9714
4.5191 4.3265 -1.6198 0.9745
3.9451 4.5169 -1.5528 0.9755
2.9630 4.9496 -1.4936 0.9764
2.4249 5.0176 -1.4429 0.9772
1.0287 3.6927 -0.9925 0.9843
0.5266 5.6346 -1.4652 0.9769
-0.5104 5.9677 -1.5508 0.9756
-1.7158 6.3521 -1.7036 0.9732
-4.2634 7.2505 -2.1778 0.9658
-6.3835 4.3019 -1.9931 0.9687
-2.7088 1.4930 -0.8008 0.9873
-7.3308 3.2255 -2.0737 0.9674
-7.2588 -0.8825 -1.8933 0.9702
-6.8267 -2.1079 -1.8499 0.9709
-6.5463 -2.6812 -1.8316 0.9712
-6.2263 -3.2255 -1.8156 0.9714
-5.4778 -4.2206 -1.7905 0.9718
-4.1188 -5.4568 -1.7702 0.9721
-3.6117 -5.7952 -1.7680 0.9722
-3.0812 -6.0947 -1.7682 0.9722
-2.5293 -6.3541 -1.7707 0.9721
-1.9582 -6.5722 -1.7756 0.9721
-1.3701 -6.7476 -1.7827 0.9720
0.4730 -7.0060 -1.8181 0.9714
1.1055 -6.9985 -1.8345 0.9711
3.0175 -6.6778 -1.8973 0.9702
4.2710 -6.2041 -1.9502 0.9694
6.0391 -5.0881 -2.0446 0.9679
6.5794 -4.6073 -2.0797 0.9674
7.0864 -4.0729 -2.1163 0.9668
7.5409 -3.4803 -2.1504 0.9663
8.2681 -0.6246 -2.1469 0.9663
8.4342 0.1168 -2.1840 0.9657
8.5300 0.8825 -2.2204 0.9652
8.5511 1.6653 -2.2556 0.9646
8.4935 2.4570 -2.2893 0.9641
8.0768 3.1405 -2.2438 0.9648
4.1696 4.4425 -1.5775 0.9751
2.6172 4.9546 -1.4508 0.9771
2.1410 5.1105 -1.4346 0.9774
0.7226 5.5713 -1.4546 0.9771
-0.2923 5.8978 -1.5289 0.9759
-0.8486 6.0758 -1.5884 0.9750
-4.5973 6.9408 -2.1556 0.9662
-5.9446 5.1933 -2.0438 0.9679
-6.2703 4.5602 -2.0074 0.9685
-7.5251 0.7042 -1.9569 0.9693
-7.4499 0.0302 -1.9289 0.9697
-7.3234 -0.6254 -1.9030 0.9701
-6.9275 -1.8703 -1.8579 0.9708
-6.6636 -2.4546 -1.8387 0.9711
-6.0168 -3.5369 -1.8071 0.9716
-5.6389 -4.0315 -1.7948 0.9718
-4.7858 -4.9195 -1.7770 0.9720
-4.3151 -5.3104 -1.7717 0.9721
-2.7531 -6.2550 -1.7695 0.9722
-2.1894 -6.4898 -1.7734 0.9721
-1.6079 -6.6825 -1.7796 0.9720
-5.2819 4.9538 -2.0500 0.9703
-5.6098 4.3908 -2.0167 0.9708
-6.8656 2.1774 -2.0390 0.9705
-6.9284 1.5338 -2.0089 0.9709
-6.9378 0.8972 -1.9804 0.9713
-6.8959 0.2716 -1.9537 0.9717
-6.8051 -0.3398 -1.9289 0.9721
-6.4863 -1.5077 -1.8852 0.9727
-6.2631 -2.0591 -1.8664 0.9730
-6.0005 -2.5858 -1.8497 0.9732
-5.7009 -3.0858 -1.8351 0.9734
-4.9998 -3.9989 -1.8124 0.9737
-3.7269 -5.1284 -1.7947 0.9740
-3.2521 -5.4354 -1.7931 0.9740
-2.7557 -5.7057 -1.7938 0.9740
-2.2397 -5.9379 -1.7966 0.9740
-1.7062 -6.1308 -1.8016 0.9739
-1.1576 -6.2834 -1.8087 0.9738
-0.5960 -6.3945 -1.8181 0.9737
1.1421 -6.4668 -1.8590 0.9731
2.9028 -6.1254 -1.9189 0.9722
6.4760 -2.8475 -2.0027 0.9710
7.1075 -1.7074 -2.0693 0.9701
7.6615 0.2451 -2.1700 0.9686
7.7229 0.9409 -2.2025 0.9682
7.7161 1.6485 -2.2337 0.9677
7.6384 2.3606 -2.2633 0.9673
7.4878 3.0690 -2.2909 0.9669
6.8410 3.5461 -2.1814 0.9685
5.9990 3.8238 -2.0139 0.9709
5.2750 4.0663 -1.8855 0.9727
2.5164 4.9806 -1.5797 0.9771
2.0253 5.0917 -1.5513 0.9775
0.6228 5.5964 -1.5941 0.9769
-0.4015 5.9254 -1.6813 0.9756
-0.9660 6.1055 -1.7499 0.9746
-1.9118 5.4846 -1.6443 0.9761
-3.1973 7.0711 -2.1969 0.9683
-3.7582 6.6577 -2.1643 0.9687
-4.2699 6.1993 -2.1310 0.9692
-6.0186 3.4572 -1.9649 0.9716
-6.8250 2.4366 -2.0515 0.9703
-6.9097 1.7913 -2.0208 0.9708
-6.9403 1.1514 -1.9916 0.9712
-6.7283 -0.6978 -1.9150 0.9723
-6.5643 -1.2800 -1.8933 0.9726
-6.1104 -2.3776 -1.8561 0.9731
-5.1507 -3.8255 -1.8163 0.9737
-4.7656 -4.2483 -1.8073 0.9738
-4.3515 -4.6386 -1.8005 0.9739
-3.9107 -4.9952 -1.7959 0.9740
-3.4452 -5.3166 -1.7935 0.9740
-2.4488 -5.8494 -1.7952 0.9740
-1.9221 -6.0582 -1.7993 0.9739
-1.3793 -6.2272 -1.8056 0.9738
0.9067 -6.4805 -1.8524 0.9732
1.4943 -6.4326 -1.8695 0.9729
2.0828 -6.3380 -1.8886 0.9726
3.2497 -6.0054 -1.9331 0.9720
3.8211 -5.7659 -1.9582 0.9717
4.3794 -5.4769 -1.9852 0.9713
5.4397 -4.7499 -2.0444 0.9704
5.9327 -4.3124 -2.0763 0.9700
6.8098 -3.2899 -2.1410 0.9690
2.3818 -0.8987 -0.7207 0.9895
6.9959 -1.9479 -2.0558 0.9703
7.2589 -1.3382 -2.0896 0.9698
7.7062 0.6600 -2.1896 0.9684
6.3187 3.7165 -2.0753 0.9700
4.8819 4.1976 -1.8227 0.9736
3.2632 4.8435 -1.6533 0.9760
2.7095 4.9173 -1.5894 0.9769
2.2317 5.0739 -1.5692 0.9772
0.8982 3.7370 -1.0881 0.9841
0.8173 5.5337 -1.5835 0.9770
0.1584 2.7572 -0.7818 0.9886
-1.3283 6.2208 -1.8008 0.9739
-2.9593 7.2228 -2.2097 0.9681
-3.5390 6.8293 -2.1775 0.9685
-4.9788 5.3890 -2.0770 0.9700
-5.3512 4.8441 -2.0434 0.9704
-2.7538 1.3918 -0.8735 0.9873
-6.7753 2.6960 -2.0643 0.9701
-6.7816 -0.4587 -1.9242 0.9721
-6.4454 -1.6186 -1.8813 0.9728
-4.9236 -4.0825 -1.8107 0.9738
-4.5209 -4.4860 -1.8030 0.9739
-4.0906 -4.8563 -1.7975 0.9739
-3.1556 -5.4919 -1.7931 0.9740
-0.4836 -6.4114 -1.8202 0.9736
0.0904 -6.4711 -1.8321 0.9735
1.2583 -6.4573 -1.8624 0.9730
1.8469 -6.3816 -1.8807 0.9728
2.4344 -6.2587 -1.9011 0.9725
3.0177 -6.0877 -1.9235 0.9721
4.7057 -5.2800 -2.0022 0.9710
5.2343 -4.9116 -2.0320 0.9706
5.7384 -4.4937 -2.0633 0.9702
7.1596 -1.5868 -2.0760 0.9700
7.3909 -0.9577 -2.1098 0.9695
7.4493 3.2079 -2.2961 0.9668
6.6588 3.6022 -2.1432 0.9690
5.8480 3.8745 -1.9859 0.9713
5.1422 4.1107 -1.8637 0.9730
4.5130 4.3206 -1.7687 0.9744
3.9399 4.5110 -1.6956 0.9754
3.4716 4.7747 -1.6712 0.9758
2.9594 4.9435 -1.6311 0.9763
2.4220 5.0116 -1.5757 0.9771
1.9500 5.1660 -1.5632 0.9773
1.0293 3.6951 -1.0859 0.9842
1.0094 5.4716 -1.5751 0.9771
-0.5097 5.9600 -1.6934 0.9754
-1.7133 6.3431 -1.8600 0.9731
-2.0456 5.5511 -1.6748 0.9757
-3.3120 6.9932 -2.1905 0.9683
-3.8635 6.5704 -2.1578 0.9688
-4.3650 6.1038 -2.1243 0.9693
-5.5477 4.5068 -2.0234 0.9707
-6.8461 2.3087 -2.0453 0.9704
-6.9401 1.0259 -1.9860 0.9713
-6.9085 0.3977 -1.9590 0.9716
-6.8274 -0.2168 -1.9338 0.9720
-6.5267 -1.3927 -1.8893 0.9726
-6.3117 -1.9489 -1.8700 0.9729
-6.0569 -2.4808 -1.8529 0.9732
-5.7647 -2.9864 -1.8379 0.9734
-4.6859 -4.3281 -1.8058 0.9738
-4.2664 -4.7119 -1.7995 0.9739
-2.8583 -5.6538 -1.7934 0.9740
-2.3460 -5.8938 -1.7958 0.9740
-1.8160 -6.0948 -1.8004 0.9739
0.4379 -6.4859 -1.8403 0.9733
1.0227 -6.4746 -1.8557 0.9731
1.6108 -6.4176 -1.8731 0.9729
2.1991 -6.3137 -1.8927 0.9726
2.7845 -6.1621 -1.9143 0.9723
3.3636 -5.9620 -1.9379 0.9719
6.0266 -4.2202 -2.0828 0.9699
6.8817 -3.1761 -2.1457 0.9690
7.0520 -1.8300 -2.0625 0.9702
7.5026 -0.5668 -2.1300 0.9692
7.7158 0.7983 -2.1959 0.9683
7.5244 2.9257 -2.2855 0.9670
7.0285 3.4830 -2.2206 0.9679
6.1587 3.7703 -2.0442 0.9704
5.4148 4.0196 -1.9091 0.9724
4.7576 4.2391 -1.8039 0.9739
4.1641 4.4366 -1.7225 0.9750
2.6140 4.9486 -1.5844 0.9770
2.1384 5.1044 -1.5667 0.9773
1.6695 5.2574 -1.5616 0.9773
1.1997 5.4099 -1.5687 0.9772
0.7217 5.5645 -1.5885 0.9769
-0.8475 6.0678 -1.7344 0.9749
-1.4527 6.2604 -1.8194 0.9736
-1.7932 5.4612 -1.6273 0.9764
-3.0776 7.1490 -2.2034 0.9682
-3.6481 6.7456 -2.1710 0.9686
-4.6403 5.8062 -2.1041 0.9696
-5.7241 4.1630 -2.0037 0.9710
-5.9744 3.5776 -1.9714 0.9715
-6.6389 3.2094 -2.0875 0.9698
-6.8009 2.5680 -2.0580 0.9702
-6.9272 0.6482 -1.9696 0.9715
-6.8657 0.0279 -1.9437 0.9719
-6.1638 -2.2705 -1.8595 0.9731
-5.5726 -3.2758 -1.8300 0.9735
-4.8463 -4.1649 -1.8090 0.9738
-4.4379 -4.5620 -1.8017 0.9739
-4.0024 -4.9255 -1.7967 0.9740
-3.0582 -5.5468 -1.7931 0.9740
-2.5538 -5.8021 -1.7946 0.9740
-1.4909 -6.1961 -1.8041 0.9739
-4.4870 5.0320 -2.0737 0.9722
-4.8447 4.5437 -2.0429 0.9726
-5.1523 4.0327 -2.0124 0.9730
-5.4095 3.5045 -1.9825 0.9734
-6.2131 2.6002 -2.0716 0.9722
-6.3376 2.0099 -2.0450 0.9726
-6.4184 0.8301 -1.9906 0.9733
-6.3080 -0.3149 -1.9426 0.9739
-6.1861 -0.8663 -1.9213 0.9742
-6.0224 -1.3998 -1.9017 0.9745
-5.8193 -1.9132 -1.8841 0.9747
-5.5788 -2.4041 -1.8685 0.9749
-5.3032 -2.8706 -1.8548 0.9751
-4.9946 -3.3108 -1.8431 0.9752
-4.6551 -3.7232 -1.8334 0.9754
-4.2868 -4.1061 -1.8258 0.9755
-3.8918 -4.4582 -1.8202 0.9755
-3.4723 -4.7780 -1.8167 0.9756
-3.0301 -5.0644 -1.8152 0.9756
-2.0865 -5.5318 -1.8185 0.9756
-1.0779 -5.8510 -1.8299 0.9754
-0.5548 -5.9523 -1.8387 0.9753
1.0615 -6.0103 -1.8772 0.9748
2.1517 -5.8346 -1.9127 0.9743
3.2242 -5.4803 -1.9557 0.9737
3.7455 -5.2349 -1.9798 0.9734
4.7393 -4.6070 -2.0329 0.9727
5.2035 -4.2252 -2.0617 0.9723
5.6403 -3.7990 -2.0917 0.9719
6.0450 -3.3300 -2.1228 0.9715
6.2542 -2.1074 -2.0299 0.9728
6.7266 -0.9926 -2.0914 0.9719
6.8877 -0.3948 -2.1220 0.9715
6.9933 0.2238 -2.1521 0.9711
7.0402 0.8577 -2.1814 0.9708
7.0252 1.5009 -2.2096 0.9704
6.9462 2.1467 -2.2362 0.9700
6.8017 2.7878 -2.2610 0.9697
5.2673 4.0604 -2.0456 0.9726
4.6260 4.2749 -1.9374 0.9740
4.0443 4.4688 -1.8538 0.9751
3.5715 4.7341 -1.8240 0.9755
3.0551 4.9047 -1.7773 0.9761
2.5133 4.9746 -1.7143 0.9769
2.0229 5.0855 -1.6834 0.9774
1.1046 3.7107 -1.1908 0.9839
-0.4010 5.9177 -1.8243 0.9755
-0.9647 6.0973 -1.8987 0.9745
-4.3296 5.2203 -2.0860 0.9720
-4.7072 4.7426 -2.0552 0.9724
-5.0350 4.2400 -2.0246 0.9728
-5.3124 3.7181 -1.9944 0.9732
-5.7162 2.6365 -1.9362 0.9740
-6.2971 2.2481 -2.0566 0.9724
-6.0929 -1.1881 -1.9094 0.9744
-5.6796 -2.2100 -1.8745 0.9748
-5.4179 -2.6865 -1.8600 0.9750
-5.1222 -3.1375 -1.8475 0.9752
-4.7948 -3.5612 -1.8371 0.9753
-4.0533 -4.3208 -1.8222 0.9755
-3.2100 -4.9536 -1.8156 0.9756
-2.7554 -5.2194 -1.8153 0.9756
-2.2815 -5.4496 -1.8172 0.9756
-1.7905 -5.6433 -1.8210 0.9755
-1.2846 -5.7993 -1.8270 0.9754
-0.7659 -5.9165 -1.8350 0.9753
-0.2368 -5.9937 -1.8450 0.9752
0.3003 -6.0301 -1.8570 0.9750
0.8429 -6.0245 -1.8711 0.9749
2.4759 -5.7474 -1.9248 0.9742
4.0508 -5.0660 -1.9951 0.9732
6.2570 -3.0229 -2.1374 0.9713
2.3849 -0.8999 -0.7840 0.9894
6.6473 -1.2255 -2.0790 0.9721
6.8295 -0.6374 -2.1097 0.9717
7.0287 0.6020 -2.1698 0.9709
6.8676 2.5317 -2.2513 0.9698
6.3086 3.7106 -2.2511 0.9698
5.5458 3.9670 -2.0973 0.9719
4.8750 4.1917 -1.9775 0.9735
3.2591 4.8374 -1.7940 0.9759
2.7062 4.9112 -1.7247 0.9768
0.8920 3.7113 -1.1740 0.9842
-0.0889 2.7903 -0.8587 0.9884
-1.3264 6.2122 -1.9538 0.9738
-2.6969 6.5824 -2.1879 0.9707
-3.7196 5.8370 -2.1289 0.9714
-4.5617 4.9375 -2.0676 0.9723
-4.9095 4.4442 -2.0369 0.9727
-6.4098 1.3007 -2.0117 0.9730
-4.9298 -3.3946 -1.8410 0.9753
-3.8107 -4.5240 -1.8194 0.9755
-2.4737 -5.3616 -1.8162 0.9756
-1.9894 -5.5701 -1.8192 0.9756
0.0841 -6.0205 -1.8519 0.9751
2.2589 -5.8076 -1.9167 0.9743
4.8331 -4.5350 -2.0385 0.9726
5.2923 -4.1444 -2.0675 0.9723
5.7231 -3.7096 -2.0977 0.9719
6.1199 -3.2318 -2.1287 0.9715
2.3431 -0.9813 -0.7813 0.9894
6.5600 -1.4539 -2.0667 0.9723
7.0074 0.3481 -2.1580 0.9711
7.0422 0.9844 -2.1871 0.9707
6.9229 2.2741 -2.2413 0.9700
5.8391 3.8685 -2.1544 0.9711
5.1348 4.1048 -2.0220 0.9729
4.5068 4.3147 -1.9191 0.9742
3.9348 4.5051 -1.8398 0.9753
2.9558 4.9374 -1.7700 0.9762
1.0082 5.4649 -1.7093 0.9770
0.5253 5.6207 -1.7363 0.9767
0.0103 2.6084 -0.8023 0.9891
-0.5090 5.9522 -1.8374 0.9753
-1.7108 6.3340 -2.0180 0.9729
-5.3613 3.6130 -1.9885 0.9733
-2.7156 1.4968 -0.9537 0.9871
-6.1780 2.7183 -2.0760 0.9721
-6.3937 1.5376 -2.0226 0.9729
-6.3965 0.3682 -1.9707 0.9735
-6.0590 -1.2929 -1.9056 0.9744
-5.8637 -1.8106 -1.8876 0.9746
-5.6307 -2.3062 -1.8715 0.9749
-5.3620 -2.7778 -1.8574 0.9750
-5.0599 -3.2235 -1.8453 0.9752
-4.7265 -3.6417 -1.8352 0.9753
-4.3639 -4.0307 -1.8272 0.9754
-3.5594 -4.7157 -1.8172 0.9756
-1.6915 -5.6772 -1.8221 0.9755
-0.6620 -5.9349 -1.8368 0.9753
-0.1311 -6.0042 -1.8472 0.9752
0.4073 -6.0323 -1.8596 0.9750
1.4963 -5.9613 -1.8905 0.9746
3.1168 -5.5246 -1.9510 0.9738
4.1503 -5.0066 -2.0002 0.9732
5.1112 -4.3064 -2.0557 0.9724
6.3220 -2.9178 -2.1416 0.9713
6.8593 -0.5182 -2.1158 0.9716
7.0356 0.7279 -2.1755 0.9708
7.0334 1.3697 -2.2040 0.9705
6.9675 2.0155 -2.2309 0.9701
6.8365 2.6582 -2.2561 0.9698
6.6394 3.2902 -2.2791 0.9695
5.4068 4.0137 -2.0711 0.9722
4.7510 4.2332 -1.9572 0.9737
4.1585 4.4307 -1.8690 0.9749
3.6800 4.6981 -1.8356 0.9753
3.1580 4.8707 -1.7855 0.9760
2.6108 4.9426 -1.7193 0.9769
2.1358 5.0982 -1.7002 0.9771
1.6674 5.2510 -1.6946 0.9772
0.7208 5.5577 -1.7237 0.9768
-0.2915 5.8827 -1.8116 0.9757
-1.4507 6.2516 -1.9739 0.9735
-1.7911 5.4549 -1.7660 0.9763
-3.3298 6.1571 -2.1530 0.9711
-3.8113 5.7542 -2.1229 0.9715
-4.9724 4.3439 -2.0308 0.9727
-5.2601 3.8255 -2.0005 0.9731
-5.6843 2.7479 -1.9419 0.9739
-6.3695 1.7752 -2.0338 0.9727
-6.4149 1.1842 -2.0064 0.9731
-6.4113 0.5999 -1.9806 0.9734
-6.3606 0.0258 -1.9564 0.9737
-5.7285 -2.1102 -1.8777 0.9748
-5.4739 -2.5916 -1.8628 0.9750
-5.1850 -3.0479 -1.8499 0.9751
-3.7287 -4.5886 -1.8186 0.9756
-3.2999 -4.8954 -1.8159 0.9756
-2.8494 -5.1682 -1.8152 0.9756
-2.3793 -5.4058 -1.8166 0.9756
-4.4695 4.1918 -2.0369 0.9745
-4.7588 3.7247 -2.0088 0.9748
-2.7173 1.4341 -1.0213 0.9871
-5.3501 2.2390 -1.9279 0.9758
-5.8792 1.8645 -2.0502 0.9743
-5.9656 0.7715 -1.9995 0.9750
-5.9408 0.2340 -1.9763 0.9753
-5.8730 -0.2932 -1.9546 0.9755
-5.6152 -1.3052 -1.9163 0.9760
-5.4293 -1.7849 -1.8997 0.9762
-4.6666 -3.0934 -1.8611 0.9767
-4.3509 -3.4799 -1.8520 0.9768
-3.6392 -4.1688 -1.8395 0.9769
-3.2473 -4.4685 -1.8361 0.9770
-2.4012 -4.9718 -1.8353 0.9770
-1.4859 -5.3393 -1.8423 0.9769
-0.5184 -5.5623 -1.8570 0.9767
-0.0207 -5.6171 -1.8672 0.9766
0.4831 -5.6329 -1.8793 0.9765
0.9906 -5.6088 -1.8932 0.9763
1.4989 -5.5440 -1.9090 0.9761
3.0005 -5.0999 -1.9669 0.9754
4.3983 -4.2756 -2.0390 0.9745
5.2237 -3.5184 -2.0935 0.9738
5.5923 -3.0806 -2.1223 0.9734
5.7727 -1.9451 -2.0249 0.9746
6.3353 -0.3632 -2.1093 0.9736
6.4252 0.2056 -2.1369 0.9733
6.4611 0.7872 -2.1636 0.9729
6.4405 1.3760 -2.1892 0.9726
5.7693 3.6774 -2.2742 0.9716
4.6196 4.2690 -2.0908 0.9738
3.5015 4.6413 -1.9326 0.9758
2.5102 4.9684 -1.8503 0.9768
1.0970 3.6852 -1.2781 0.9839
0.0564 2.6119 -0.8684 0.9890
-0.4005 5.9099 -1.9690 0.9753
-1.5788 6.2838 -2.1537 0.9731
-2.6760 5.9182 -2.1590 0.9730
-3.5913 5.2140 -2.1045 0.9737
-4.3406 4.3733 -2.0482 0.9744
-5.1255 2.9442 -1.9648 0.9754
-5.8339 2.0828 -2.0591 0.9742
-5.8124 -0.6028 -1.9424 0.9757
-5.5082 -1.5948 -1.9062 0.9761
-4.4810 -3.3281 -1.8554 0.9767
-3.7900 -4.0400 -1.8414 0.9769
-3.4072 -4.3520 -1.8372 0.9770
-3.0022 -4.6329 -1.8351 0.9770
-2.5770 -4.8815 -1.8349 0.9770
-2.1337 -5.0965 -1.8366 0.9770
-1.6743 -5.2769 -1.8403 0.9769
-1.2009 -5.4216 -1.8459 0.9769
-0.7158 -5.5296 -1.8534 0.9768
-0.2212 -5.5998 -1.8629 0.9767
0.7868 -5.6233 -1.8874 0.9764
1.2951 -5.5749 -1.9025 0.9762
1.8027 -5.4855 -1.9193 0.9760
2.3066 -5.3544 -1.9380 0.9757
2.8037 -5.1813 -1.9583 0.9755
4.2209 -4.4077 -2.0286 0.9746
4.6564 -4.0659 -2.0548 0.9743
5.0669 -3.6832 -2.0822 0.9739
5.4485 -3.2608 -2.1107 0.9736
2.3882 -0.9011 -0.8485 0.9893
5.9173 -1.6476 -2.0417 0.9744
6.2847 -0.5865 -2.0982 0.9737
6.4556 1.1393 -2.1791 0.9727
6.2861 2.3173 -2.2270 0.9722
6.1123 2.8957 -2.2482 0.9719
5.8792 3.4580 -2.2673 0.9717
5.5375 3.9610 -2.2631 0.9717
4.8681 4.1858 -2.1341 0.9733
2.7028 4.9051 -1.8616 0.9767
2.2263 5.0615 -1.8380 0.9770
0.8864 3.6879 -1.2608 0.9841
0.1596 2.7774 -0.9247 0.9883
-1.6873 5.4620 -1.9003 0.9762
-2.9663 5.7241 -2.1430 0.9732
-3.8339 4.9748 -2.0877 0.9739
-4.2044 4.5509 -2.0595 0.9742
-5.0447 3.1431 -1.9757 0.9753
-2.7510 1.3903 -1.0246 0.9871
-5.7776 2.2990 -2.0670 0.9741
-5.9642 0.6645 -1.9948 0.9750
-4.6064 -3.1720 -1.8591 0.9767
-4.2852 -3.5531 -1.8504 0.9768
-3.1672 -4.5241 -1.8357 0.9770
-1.8603 -5.2088 -1.8385 0.9770
-0.4206 -5.5762 -1.8588 0.9767
0.5833 -5.6313 -1.8819 0.9764
1.5994 -5.5263 -1.9124 0.9760
2.1051 -5.4120 -1.9303 0.9758
3.0969 -5.0573 -1.9712 0.9753
4.0401 -4.5332 -2.0184 0.9747
5.2992 -3.4349 -2.0992 0.9737
6.0465 -1.3401 -2.0587 0.9742
6.2261 -0.8067 -2.0869 0.9739
6.3572 -0.2519 -2.1148 0.9735
6.3391 2.0823 -2.2179 0.9723
6.1892 2.6653 -2.2400 0.9720
5.9798 3.2349 -2.2599 0.9717
5.1273 4.0988 -2.1820 0.9727
4.5005 4.3087 -2.0711 0.9741
3.9295 4.4992 -1.9857 0.9751
3.3993 4.6752 -1.9214 0.9759
1.9452 5.1534 -1.8310 0.9770
0.9948 3.5712 -1.2323 0.9845
1.0069 5.4582 -1.8449 0.9769
0.0102 2.6040 -0.8656 0.9891
-2.0373 5.5286 -1.9586 0.9755
-2.7733 5.8558 -2.1538 0.9731
-3.2430 5.5152 -2.1267 0.9734
-4.4051 4.2842 -2.0426 0.9744
-5.3231 2.3421 -1.9331 0.9758
-5.8587 1.9757 -2.0552 0.9743
-5.9652 0.8818 -2.0044 0.9749
-5.8902 -0.1870 -1.9589 0.9755
-5.2556 -2.1526 -1.8878 0.9763
-5.0074 -2.5941 -1.8746 0.9765
-4.7273 -3.0116 -1.8632 0.9767
-4.4174 -3.4035 -1.8537 0.9768
-3.7161 -4.1042 -1.8404 0.9769
-3.3288 -4.4101 -1.8367 0.9770
-2.0440 -5.1350 -1.8372 0.9770
-1.5817 -5.3084 -1.8412 0.9769
-1.1058 -5.4459 -1.8472 0.9768
-0.6187 -5.5465 -1.8551 0.9768
-0.1225 -5.6091 -1.8649 0.9766
0.8872 -5.6169 -1.8903 0.9763
1.3956 -5.5605 -1.9057 0.9761
2.4056 -5.3235 -1.9419 0.9757
3.8562 -4.6518 -2.0085 0.9749
4.7397 -3.9934 -2.0602 0.9742
5.1449 -3.6027 -2.0878 0.9739
5.5201 -3.1727 -2.1164 0.9735
5.4393 -2.5104 -1.9913 0.9751
5.7203 -2.0438 -2.0192 0.9747
6.1597 -1.0235 -2.0756 0.9740
6.4112 0.0888 -2.1313 0.9733
6.4493 1.2560 -2.1841 0.9727
6.3825 1.8463 -2.2086 0.9724
6.0709 3.0084 -2.2522 0.9718
5.3987 4.0077 -2.2350 0.9721
4.7443 4.2272 -2.1122 0.9736
3.6079 4.6060 -1.9449 0.9756
3.1248 4.8196 -1.9093 0.9761
2.1332 5.0920 -1.8351 0.9770
1.6654 5.2446 -1.8291 0.9771
1.1968 5.3968 -1.8375 0.9770
-1.4486 6.2427 -2.1302 0.9733
-2.5746 5.9806 -2.1644 0.9729
-4.2725 4.4638 -2.0539 0.9743
-4.5894 4.0094 -2.0257 0.9746
-5.0855 3.0453 -1.9703 0.9753
-5.8064 2.1925 -2.0631 0.9742
-5.9590 1.1001 -2.0143 0.9748
-5.9190 0.0240 -1.9675 0.9754
-5.8346 -0.4983 -1.9465 0.9756
-5.3458 -1.9692 -1.8937 0.9763
-5.1109 -2.4198 -1.8797 0.9764
-3.4869 -4.2911 -1.8379 0.9770
-2.2252 -5.0556 -1.8361 0.9770
-1.7689 -5.2431 -1.8393 0.9769
-1.2982 -5.3952 -1.8446 0.9769
-4.1438 3.8863 -2.0316 0.9762
-4.4164 3.4567 -2.0056 0.9765
-4.9796 2.0840 -1.9304 0.9773
-5.4711 1.7351 -2.0525 0.9759
-5.5481 0.2185 -1.9856 0.9767
-5.3903 -0.7548 -1.9464 0.9771
-5.2546 -1.2214 -1.9292 0.9773
-4.8785 -2.1023 -1.8997 0.9777
-4.0803 -3.2634 -1.8684 0.9780
-1.8307 -4.8536 -1.8551 0.9782
-1.3940 -5.0088 -1.8593 0.9782
-0.4861 -5.2155 -1.8732 0.9780
-0.0194 -5.2650 -1.8828 0.9779
0.4527 -5.2777 -1.8943 0.9777
1.4030 -5.1892 -1.9223 0.9774
3.2510 -4.5437 -1.9979 0.9765
3.6841 -4.2836 -2.0205 0.9763
4.0990 -3.9846 -2.0443 0.9760
5.1059 -2.2451 -1.9946 0.9766
5.3543 -1.8041 -2.0205 0.9763
5.7338 -0.8461 -2.0726 0.9757
5.8584 -0.3358 -2.0984 0.9754
5.9357 0.1899 -2.1237 0.9751
5.8610 1.8113 -2.1938 0.9743
5.7292 2.3482 -2.2142 0.9740
5.5432 2.8734 -2.2328 0.9738
5.0124 3.8639 -2.2632 0.9735
4.0334 4.4567 -2.1495 0.9748
3.3582 4.4513 -1.9940 0.9766
2.9516 4.7386 -1.9964 0.9766
1.5685 5.2690 -1.9659 0.9769
1.0994 5.4211 -1.9781 0.9768
0.0592 2.7432 -0.9812 0.9884
-0.9620 6.0805 -2.2015 0.9742
-1.9036 5.4609 -2.0681 0.9757
-2.9134 5.1611 -2.1194 0.9751
-3.3215 4.8224 -2.0940 0.9754
-3.6919 4.4515 -2.0681 0.9757
-4.0226 4.0529 -2.0420 0.9760
-4.9264 2.2722 -1.9401 0.9772
-5.4243 1.9365 -2.0597 0.9758
-5.5222 1.4316 -2.0401 0.9761
-5.5627 0.9229 -2.0165 0.9763
-5.5173 -0.0777 -1.9732 0.9768
-5.4344 -0.5636 -1.9538 0.9771
-5.3134 -1.0361 -1.9359 0.9773
-4.7404 -2.3506 -1.8922 0.9778
-4.2017 -3.1207 -1.8717 0.9780
-3.8911 -3.4688 -1.8641 0.9781
-3.5555 -3.7901 -1.8584 0.9782
-2.8170 -4.3472 -1.8525 0.9782
-2.0020 -4.7820 -1.8539 0.9782
-1.1264 -5.0854 -1.8627 0.9781
-0.6713 -5.1854 -1.8698 0.9780
-0.2074 -5.2495 -1.8787 0.9779
0.7370 -5.2672 -1.9019 0.9777
2.6200 -4.8417 -1.9687 0.9769
3.0729 -4.6369 -1.9893 0.9766
3.5124 -4.3926 -2.0113 0.9764
4.3372 -3.7872 -2.0591 0.9758
4.7153 -3.4275 -2.0846 0.9755
5.0655 -3.0316 -2.1111 0.9752
5.3670 -2.5929 -2.1315 0.9750
5.6711 -1.0455 -2.0622 0.9758
5.9105 -0.0225 -2.1137 0.9752
5.9582 0.5103 -2.1385 0.9749
5.9549 1.0509 -2.1624 0.9746
5.8987 1.5941 -2.1851 0.9744
5.7886 2.1339 -2.2062 0.9741
5.6243 2.6645 -2.2256 0.9739
5.4062 3.1798 -2.2429 0.9737
3.5123 4.3246 -1.9923 0.9766
3.1183 4.6285 -1.9958 0.9766
0.8142 5.5131 -1.9929 0.9766
0.1603 2.7902 -0.9995 0.9882
-0.7311 6.0073 -2.1641 0.9746
-1.2838 6.0125 -2.1986 0.9742
-1.6859 5.4578 -2.0427 0.9760
-2.7397 5.2868 -2.1294 0.9750
-3.1622 4.9623 -2.1043 0.9753
-3.5480 4.6038 -2.0785 0.9756
-3.8949 4.2158 -2.0525 0.9759
-5.0033 1.9909 -1.9257 0.9774
-5.4915 1.6355 -2.0490 0.9760
-5.5517 1.1266 -2.0258 0.9762
-5.5665 0.6202 -2.0029 0.9765
-5.5395 0.1203 -1.9815 0.9767
-5.4723 -0.3701 -1.9614 0.9770
-5.3664 -0.8483 -1.9429 0.9772
-5.2235 -1.3117 -1.9260 0.9774
-4.8341 -2.1851 -1.8971 0.9777
-4.3189 -2.9740 -1.8752 0.9780
-3.6930 -3.6645 -1.8605 0.9781
-2.9718 -4.2450 -1.8531 0.9782
-2.5803 -4.4906 -1.8521 0.9782
-2.1708 -4.7050 -1.8530 0.9782
-1.7454 -4.8870 -1.8557 0.9782
-0.3944 -5.2282 -1.8749 0.9780
0.0736 -5.2705 -1.8849 0.9779
0.5465 -5.2757 -1.8967 0.9777
1.0218 -5.2431 -1.9103 0.9776
1.4968 -5.1721 -1.9255 0.9774
2.8927 -4.7238 -1.9808 0.9767
3.3379 -4.4953 -2.0023 0.9765
3.7677 -4.2275 -2.0251 0.9762
4.1786 -3.9209 -2.0491 0.9760
4.5668 -3.5762 -2.0743 0.9757
5.2524 -2.7736 -2.1241 0.9751
5.6015 -1.2415 -2.0517 0.9759
5.7620 -0.7466 -2.0778 0.9756
5.8775 -0.2329 -2.1035 0.9753
5.9451 0.2954 -2.1286 0.9750
5.9276 1.3763 -2.1761 0.9745
5.8393 1.9181 -2.1979 0.9742
5.6967 2.4532 -2.2181 0.9740
5.2502 3.4784 -2.2522 0.9736
3.9243 4.4931 -2.1333 0.9750
2.8678 4.7904 -1.9966 0.9766
2.4130 4.9931 -1.9831 0.9767
1.9428 5.1470 -1.9674 0.9769
1.0057 5.4514 -1.9823 0.9767
0.5239 5.6066 -2.0137 0.9764
0.0102 2.6006 -0.9300 0.9890
-0.5077 5.9363 -2.1306 0.9750
-1.0718 6.0773 -2.2068 0.9741
-1.5938 5.9006 -2.1857 0.9744
-2.9970 5.0968 -2.1144 0.9752
-3.3979 4.7514 -2.0889 0.9755
-3.7606 4.3747 -2.0630 0.9758
-4.3644 3.5456 -2.0109 0.9764
-4.6034 3.1022 -1.9851 0.9767
-4.9535 2.1795 -1.9353 0.9773
-5.4483 1.8373 -2.0562 0.9759
-5.5657 0.8227 -2.0119 0.9764
-5.5553 0.3198 -1.9899 0.9766
-5.2851 -1.1278 -1.9326 0.9773
-5.1210 -1.5812 -1.9166 0.9775
-3.8267 -3.5345 -1.8629 0.9781
-2.3371 -4.6229 -1.8524 0.9782
-1.4838 -4.9800 -1.8583 0.9782
-0.5801 -5.2009 -1.8714 0.9780
1.3065 -5.2052 -1.9192 0.9775
1.7801 -5.1109 -1.9354 0.9773
2.7105 -4.8043 -1.9726 0.9768
3.1610 -4.5917 -1.9935 0.9766
4.4140 -3.7190 -2.0641 0.9758
4.7869 -3.3521 -2.0898 0.9755
5.0511 -2.3312 -1.9894 0.9766
5.5251 -1.4338 -2.0413 0.9760
5.7029 -0.9476 -2.0674 0.9757
5.8368 -0.4410 -2.0932 0.9754
5.9617 0.6168 -2.1433 0.9749
5.9480 1.1584 -2.1670 0.9746
5.8812 1.7013 -2.1894 0.9743
5.3567 3.2793 -2.2461 0.9737
5.0758 3.7679 -2.2606 0.9735
4.7375 4.2212 -2.2691 0.9734
4.1473 4.4187 -2.1671 0.9746
3.4370 4.3879 -1.9932 0.9766
2.6043 4.9302 -1.9939 0.9766
2.1306 5.0856 -1.9718 0.9768
1.6633 5.2381 -1.9654 0.9769
0.8355 3.7675 -1.3800 0.9837
0.7190 5.5438 -1.9991 0.9765
0.1096 2.7567 -0.9866 0.9883
-0.8440 6.0431 -2.1820 0.9744
-1.3871 5.9775 -2.1944 0.9743
-2.8260 5.2256 -2.1245 0.9751
-3.6198 4.5293 -2.0734 0.9757
-4.5126 3.2819 -1.9954 0.9766
-4.7261 2.8300 -1.9699 0.9769
-5.0254 1.8976 -1.9210 0.9774
-5.5086 1.5353 -2.0450 0.9760
-5.5645 0.5207 -1.9986 0.9765
-5.5294 0.0224 -1.9774 0.9768
-5.4544 -0.4658 -1.9576 0.9770
-5.3410 -0.9412 -1.9394 0.9772
-5.0062 -1.8441 -1.9079 0.9776
-4.5397 -2.6686 -1.8831 0.9779
-2.5006 -4.5356 -1.8521 0.9782
-3.5622 3.9950 -2.0512 0.9773
-3.8580 3.6183 -2.0270 0.9776
-2.7194 1.4352 -1.1783 0.9869
-4.6522 1.9470 -1.9326 0.9786
-5.2129 0.6742 -2.0143 0.9777
-4.5839 -1.9753 -1.9128 0.9788
-4.3631 -2.3617 -1.9012 0.9790
-2.5024 -4.1824 -1.8678 0.9793
-2.1202 -4.3900 -1.8683 0.9793
-1.7226 -4.5670 -1.8705 0.9793
-0.8890 -4.8252 -1.8802 0.9792
-0.4571 -4.9046 -1.8877 0.9791
-0.0183 -4.9497 -1.8968 0.9790
1.7605 -4.7738 -1.9498 0.9784
2.6273 -4.4657 -1.9855 0.9780
3.0451 -4.2560 -2.0055 0.9778
3.4484 -4.0095 -2.0266 0.9776
4.1981 -3.4087 -2.0723 0.9771
4.5377 -3.0564 -2.0966 0.9768
4.8429 -2.6677 -2.1188 0.9766
4.7598 -2.0929 -1.9926 0.9780
5.1783 -1.2440 -2.0409 0.9774
5.4421 -0.3120 -2.0889 0.9769
5.5300 0.6737 -2.1349 0.9764
5.4270 1.6772 -2.1768 0.9760
5.1260 2.6571 -2.2126 0.9756
4.9018 3.1245 -2.2276 0.9754
4.3138 3.9864 -2.2509 0.9752
3.9552 4.3704 -2.2588 0.9751
2.5039 4.9559 -2.1278 0.9765
1.0980 5.4142 -2.1171 0.9766
-0.3899 5.7532 -2.2098 0.9756
-2.2911 5.0670 -2.1310 0.9765
-2.7044 4.7909 -2.1083 0.9767
-3.4331 4.1394 -2.0609 0.9772
-4.0169 3.3827 -2.0125 0.9778
-4.4458 2.5538 -1.9648 0.9783
-4.7169 1.6840 -1.9193 0.9788
-5.2092 0.3923 -2.0019 0.9779
-5.1721 -0.0729 -1.9822 0.9781
-4.4552 -2.2091 -1.9057 0.9789
-3.3452 -3.5659 -1.8737 0.9793
-2.6509 -4.0908 -1.8680 0.9793
-1.4779 -4.6579 -1.8727 0.9793
-0.6313 -4.8769 -1.8845 0.9792
0.6924 -4.9488 -1.9149 0.9788
1.1387 -4.9015 -1.9284 0.9787
1.5832 -4.8178 -1.9434 0.9785
2.0234 -4.6971 -1.9599 0.9783
2.4564 -4.5394 -1.9779 0.9781
4.7278 -2.8295 -2.1115 0.9767
4.6594 -2.2510 -1.9830 0.9781
2.3995 -0.9054 -0.9828 0.9891
5.1060 -1.4217 -2.0312 0.9776
5.4877 -0.0209 -2.1030 0.9768
5.5197 0.9741 -2.1479 0.9763
5.4635 1.4764 -2.1688 0.9760
5.3577 1.9751 -2.1882 0.9758
4.7448 3.3940 -2.2356 0.9753
4.4460 3.8229 -2.2470 0.9752
4.1039 4.2207 -2.2560 0.9751
3.4806 4.2856 -2.1157 0.9766
2.6960 4.8927 -2.1408 0.9764
2.2207 5.0488 -2.1137 0.9766
1.7534 5.2015 -2.1035 0.9768
0.8822 3.6703 -1.4466 0.9840
0.1594 2.7754 -1.0654 0.9882
-0.6935 5.6978 -2.1996 0.9757
-2.5423 4.9060 -2.1175 0.9766
-3.2981 4.2795 -2.0705 0.9771
-4.1618 3.1406 -1.9980 0.9779
-4.3724 2.7243 -1.9742 0.9782
-2.7480 1.3888 -1.1799 0.9869
-4.6751 1.8603 -1.9282 0.9787
-5.2133 0.5808 -2.0102 0.9778
-5.1915 0.1127 -1.9900 0.9780
-4.3160 -2.4356 -1.8992 0.9790
-4.0612 -2.7965 -1.8896 0.9791
-3.7801 -3.1343 -1.8818 0.9792
-3.4743 -3.4475 -1.8757 0.9793
-2.0427 -4.4275 -1.8686 0.9793
-1.2287 -4.7373 -1.8755 0.9793
-0.3708 -4.9163 -1.8894 0.9791
0.0692 -4.9545 -1.8989 0.9790
0.5135 -4.9576 -1.9100 0.9789
0.9597 -4.9249 -1.9228 0.9787
1.4053 -4.8558 -1.9372 0.9786
1.8476 -4.7499 -1.9531 0.9784
2.2838 -4.6071 -1.9705 0.9782
3.1262 -4.2102 -2.0096 0.9778
3.5261 -3.9565 -2.0310 0.9776
4.8970 -2.5860 -2.1222 0.9766
5.0277 -1.5959 -2.0214 0.9777
5.3563 -0.6940 -2.0698 0.9771
5.4589 -0.2163 -2.0936 0.9769
5.5170 0.2741 -2.1168 0.9766
5.5285 0.7728 -2.1392 0.9764
5.4919 1.2751 -2.1606 0.9761
5.2705 2.2697 -2.1991 0.9757
5.0855 2.7511 -2.2157 0.9755
4.8518 3.2145 -2.2304 0.9754
4.2461 4.0652 -2.2527 0.9751
3.8337 4.3894 -2.2334 0.9753
3.1870 4.3832 -2.0768 0.9771
2.4099 4.9867 -2.1225 0.9766
1.9403 5.1405 -2.1056 0.9767
1.0163 3.6484 -1.4514 0.9839
1.0044 5.4444 -2.1216 0.9766
0.5233 5.5993 -2.1551 0.9762
-0.4906 5.7369 -2.2065 0.9756
-0.9920 5.6248 -2.1888 0.9758
-1.9386 5.2609 -2.1486 0.9763
-2.3753 5.0153 -2.1266 0.9765
-4.2927 2.8929 -1.9837 0.9781
-2.7264 1.5027 -1.1930 0.9868
-4.7351 1.5968 -1.9150 0.9788
-5.2110 0.7703 -2.0186 0.9777
-5.2049 0.2996 -1.9979 0.9779
-4.9608 -1.0586 -1.9439 0.9785
-4.8091 -1.4849 -1.9288 0.9787
-4.6251 -1.8943 -1.9153 0.9788
-4.1667 -2.6545 -1.8932 0.9791
-3.2802 -3.6227 -1.8728 0.9793
-1.3960 -4.6855 -1.8736 0.9793
-0.5456 -4.8912 -1.8860 0.9791
-0.1080 -4.9434 -1.8948 0.9790
0.3349 -4.9606 -1.9053 0.9789
1.6707 -4.7968 -1.9465 0.9785
2.1097 -4.6688 -1.9634 0.9783
2.9613 -4.3016 -2.0013 0.9779
3.3677 -4.0626 -2.0222 0.9776
3.7571 -3.7872 -2.0443 0.9774
4.1259 -3.4762 -2.0675 0.9772
4.4708 -3.1307 -2.0916 0.9769
4.7858 -2.7506 -2.1153 0.9766
4.9435 -1.7663 -2.0117 0.9778
5.1424 -1.3345 -2.0359 0.9775
5.4230 -0.4097 -2.0841 0.9770
5.5296 0.5721 -2.1304 0.9765
5.5125 1.0735 -2.1522 0.9762
5.4465 1.5755 -2.1728 0.9760
5.3309 2.0728 -2.1919 0.9758
5.1656 2.5598 -2.2093 0.9756
4.9513 3.0311 -2.2247 0.9754
2.6010 4.9239 -2.1340 0.9764
2.1279 5.0792 -2.1104 0.9767
1.6612 5.2315 -2.1035 0.9768
-0.7927 5.6756 -2.1961 0.9758
-1.2843 5.5347 -2.1774 0.9760
-1.7560 5.3480 -2.1571 0.9762
-2.2035 5.1185 -2.1355 0.9764
-3.6838 3.8487 -2.0416 0.9774
-3.9645 3.4634 -2.0174 0.9777
-4.2066 3.0594 -1.9933 0.9780
-4.4094 2.6404 -1.9696 0.9782
-2.8203 1.3634 -1.2005 0.9867
-5.1464 1.4343 -2.0473 0.9774
-5.2120 0.4877 -2.0061 0.9778
-5.1827 0.0210 -1.9861 0.9780
-4.7027 -1.7323 -1.9205 0.9788
-4.5001 -2.1306 -1.9080 0.9789
-4.2678 -2.5088 -1.8971 0.9790
-2.7251 -4.0426 -1.8683 0.9793
-2.3532 -4.2681 -1.8677 0.9793
-1.9647 -4.4637 -1.8689 0.9793
-1.1456 -4.7610 -1.8766 0.9792
-3.6051 3.3811 -2.0229 0.9789
-3.8487 3.0124 -2.0003 0.9791
-4.0561 2.6277 -1.9780 0.9793
-2.6809 1.4149 -1.2407 0.9870
-4.3605 1.8249 -1.9346 0.9798
-4.4576 1.4137 -1.9139 0.9800
-1.9336 0.0762 -0.7920 0.9917
-1.9408 -0.0969 -0.7953 0.9916
-1.9468 -0.2726 -0.8045 0.9915
-4.6432 -1.0793 -1.9510 0.9796
-4.4962 -1.4782 -1.9371 0.9798
-4.3185 -1.8610 -1.9246 0.9799
-4.1120 -2.2258 -1.9137 0.9800
-3.8782 -2.5708 -1.9043 0.9801
-3.0303 -3.4713 -1.8859 0.9803
-0.4310 -4.6243 -1.9008 0.9801
1.6567 -4.4924 -1.9597 0.9795
2.0675 -4.3627 -1.9759 0.9794
4.2514 -2.8635 -2.0979 0.9781
4.6615 -1.5707 -2.0132 0.9790
4.8366 -1.1619 -2.0358 0.9787
5.1338 0.1643 -2.1022 0.9780
5.1208 1.0941 -2.1431 0.9776
5.0468 1.5597 -2.1619 0.9774
4.7613 2.4681 -2.1949 0.9771
3.2606 4.3220 -2.2158 0.9769
2.8047 4.5027 -2.1711 0.9773
2.4730 4.8947 -2.2444 0.9766
2.0127 5.0601 -2.2288 0.9767
1.0832 3.6389 -1.5539 0.9837
0.5996 5.3878 -2.2187 0.9768
-0.8310 5.2522 -2.1763 0.9773
-1.7208 4.9368 -2.1397 0.9777
-2.1337 4.7189 -2.1196 0.9779
-2.5205 4.4651 -2.0985 0.9781
-2.8782 4.1788 -2.0767 0.9783
-3.7553 3.1624 -2.0093 0.9790
-3.9773 2.7837 -1.9869 0.9792
-2.6489 1.5216 -1.2503 0.9869
-1.9574 -0.2030 -0.8054 0.9915
-4.6933 -0.9152 -1.9570 0.9795
-4.1982 -2.0817 -1.9179 0.9800
-3.7258 -2.7672 -1.8995 0.9801
-2.1467 -4.0664 -1.8819 0.9803
-1.7771 -4.2449 -1.8834 0.9803
-0.5953 -4.5985 -1.8978 0.9802
1.0722 -4.6156 -1.9394 0.9797
1.4902 -4.5347 -1.9536 0.9796
3.4552 -3.6081 -2.0446 0.9786
3.8028 -3.3205 -2.0662 0.9784
5.0399 -0.4704 -2.0717 0.9784
5.1153 -0.0195 -2.0936 0.9781
5.1485 0.4409 -2.1149 0.9779
5.1377 0.9067 -2.1352 0.9777
5.0820 1.3733 -2.1545 0.9775
4.9805 1.8360 -2.1725 0.9773
4.8332 2.2897 -2.1889 0.9772
4.6406 2.7295 -2.2035 0.9770
4.4040 3.1503 -2.2161 0.9769
3.8067 3.9150 -2.2349 0.9767
3.4107 4.1994 -2.2142 0.9769
2.9918 4.4407 -2.1915 0.9771
2.6157 4.7470 -2.2183 0.9768
2.2066 5.0168 -2.2431 0.9766
1.7474 5.1836 -2.2388 0.9766
0.8669 3.6066 -1.5181 0.9841
0.7936 5.3733 -2.2230 0.9768
-0.0830 2.6026 -1.0657 0.9888
-1.5487 5.0134 -2.1475 0.9776
-1.9711 4.8108 -2.1278 0.9778
-2.3687 4.5710 -2.1071 0.9780
-3.0776 3.9933 -2.0634 0.9784
-3.3840 3.6628 -2.0410 0.9787
-3.6561 3.3096 -2.0184 0.9789
-3.8926 2.9374 -1.9959 0.9791
-4.0928 2.5500 -1.9736 0.9794
-2.7057 1.3674 -1.2407 0.9870
-4.3826 1.7439 -1.9305 0.9798
-4.4725 1.3320 -1.9099 0.9800
-4.8773 0.9897 -2.0368 0.9787
-1.9563 0.2180 -0.8056 0.9915
-1.9192 0.0417 -0.7857 0.9917
-2.0220 -0.3196 -0.8378 0.9912
-4.6166 -1.1593 -1.9481 0.9796
-4.2799 -1.9346 -1.9223 0.9799
-4.0679 -2.2956 -1.9117 0.9800
-3.2769 -3.2516 -1.8894 0.9802
-2.2907 -3.9867 -1.8818 0.9803
-1.9271 -4.1768 -1.8826 0.9803
-1.5492 -4.3376 -1.8851 0.9803
-1.1589 -4.4682 -1.8892 0.9802
-0.7584 -4.5676 -1.8950 0.9802
-0.3496 -4.6350 -1.9024 0.9801
0.0652 -4.6697 -1.9114 0.9800
0.4838 -4.6710 -1.9220 0.9799
2.1478 -4.3328 -1.9792 0.9793
2.9366 -3.9549 -2.0161 0.9789
3.6659 -3.4398 -2.0574 0.9785
4.5817 -2.4194 -2.1206 0.9779
2.3306 -0.9760 -1.0341 0.9891
4.6989 -1.4915 -2.0177 0.9789
4.8670 -1.0787 -2.0403 0.9787
4.9982 -0.6476 -2.0628 0.9785
5.1404 0.2554 -2.1064 0.9780
5.0267 1.6512 -2.1655 0.9774
4.7232 2.5551 -2.1978 0.9771
4.2420 3.3911 -2.2227 0.9768
3.9390 3.7711 -2.2319 0.9767
3.1827 4.3774 -2.2150 0.9769
1.9336 5.1223 -2.2408 0.9766
1.0095 3.6239 -1.5396 0.9839
0.5039 5.3921 -2.2165 0.9769
0.0107 2.7311 -1.1178 0.9883
-0.4558 5.3298 -2.1893 0.9771
-0.9221 5.2287 -2.1730 0.9773
-1.8044 4.8967 -2.1358 0.9777
-2.2124 4.6714 -2.1155 0.9779
-3.2652 3.7984 -2.0500 0.9786
-4.0169 2.7070 -1.9825 0.9793
-2.6745 1.4741 -1.2498 0.9869
-4.3363 1.9079 -1.9389 0.9797
-4.4408 1.4976 -1.9181 0.9799
-1.9428 0.2872 -0.8038 0.9915
-1.9454 0.1120 -0.7975 0.9916
-1.9277 -0.0612 -0.7894 0.9917
-1.9539 -0.2376 -0.8056 0.9915
-4.6693 -0.9964 -1.9540 0.9796
-3.9278 -2.5023 -1.9061 0.9801
-0.9201 -4.5315 -1.8925 0.9802
-0.5144 -4.6119 -1.8992 0.9801
-0.1017 -4.6598 -1.9076 0.9801
1.5724 -4.5146 -1.9566 0.9796
2.7824 -4.0418 -2.0083 0.9790
3.8690 -3.2598 -2.0706 0.9784
4.1894 -2.9336 -2.0932 0.9781
4.4064 -2.0337 -1.9862 0.9792
4.6217 -1.6513 -2.0087 0.9790
5.1253 0.0710 -2.0979 0.9781
5.1499 0.5328 -2.1190 0.9779
4.9550 1.9266 -2.1758 0.9773
4.7987 2.3780 -2.1919 0.9771
4.5973 2.8144 -2.2061 0.9770
4.3522 3.2308 -2.2184 0.9768
4.0653 3.6222 -2.2285 0.9767
3.3373 4.2606 -2.2150 0.9769
2.8991 4.4715 -2.1811 0.9772
1.1799 5.3206 -2.2305 0.9767
0.6980 5.3814 -2.2209 0.9768
-0.2655 5.3575 -2.1954 0.9771
-1.1943 5.1468 -2.1624 0.9774
-2.0518 4.7662 -2.1238 0.9778
-2.4441 4.5194 -2.1029 0.9780
-3.4406 3.5947 -2.0365 0.9787
-3.7058 3.2374 -2.0139 0.9790
-4.1280 2.4719 -1.9692 0.9794
-2.7240 1.3169 -1.2383 0.9870
-1.9580 0.1832 -0.8048 0.9915
-1.9021 0.0077 -0.7785 0.9918
-1.9575 -0.1672 -0.8041 0.9915
-2.1535 -0.3795 -0.8950 0.9906
-4.4294 -1.6316 -1.9319 0.9798
-4.2402 -2.0075 -1.9201 0.9799
-2.9039 -3.5736 -1.8846 0.9803
-1.4729 -4.3659 -1.8858 0.9803
-1.0804 -4.4903 -1.8902 0.9802
-3.8075 2.4666 -1.9771 0.9804
-2.6561 1.4018 -1.3089 0.9870
-1.5244 0.3375 -0.6804 0.9932
-1.5196 0.1965 -0.6678 0.9933
-1.5287 0.0602 -0.6668 0.9933
-1.5294 -0.0764 -0.6674 0.9933
-1.5164 -0.2123 -0.6673 0.9933
-4.0781 -1.7574 -1.9353 0.9808
-3.8843 -2.1025 -1.9249 0.9809
-3.6644 -2.4291 -1.9160 0.9810
-3.4201 -2.7354 -1.9086 0.9811
-2.5572 -3.5189 -1.8958 0.9812
-1.8912 -3.9157 -1.8951 0.9812
-1.5363 -4.0730 -1.8972 0.9812
-0.7924 -4.3009 -1.9060 0.9811
-0.4073 -4.3698 -1.9127 0.9810
-0.0163 -4.4076 -1.9209 0.9810
0.3786 -4.4139 -1.9307 0.9809
0.7750 -4.3879 -1.9419 0.9807
1.1705 -4.3294 -1.9546 0.9806
1.5629 -4.2380 -1.9686 0.9805
3.9947 -2.6906 -2.0990 0.9792
4.2529 -2.3427 -2.1161 0.9790
4.1781 -1.8371 -1.9891 0.9803
4.3710 -1.4728 -2.0102 0.9801
4.6588 -0.6875 -2.0524 0.9797
4.7490 -0.2722 -2.0731 0.9795
4.8007 0.1536 -2.0933 0.9793
4.8122 0.5863 -2.1128 0.9791
4.7825 1.0218 -2.1313 0.9789
4.7106 1.4558 -2.1487 0.9787
4.5962 1.8838 -2.1648 0.9786
4.2417 2.7037 -2.1922 0.9783
4.0036 3.0863 -2.2031 0.9782
3.7276 3.4447 -2.2120 0.9781
1.8849 4.7387 -2.2226 0.9780
0.5587 5.0201 -2.2014 0.9782
0.0593 2.7489 -1.1983 0.9881
-0.3377 4.9837 -2.1770 0.9784
-0.7753 4.9002 -2.1621 0.9786
-1.1998 4.7752 -2.1458 0.9787
-2.3572 4.1758 -2.0898 0.9793
-2.6936 3.9107 -2.0695 0.9795
-3.0010 3.6184 -2.0487 0.9797
-3.2775 3.3022 -2.0277 0.9799
-3.7325 2.6123 -1.9855 0.9803
-2.7256 1.2571 -1.3081 0.9870
-1.5949 0.5694 -0.7380 0.9926
-1.5291 0.1151 -0.6683 0.9933
-1.5256 -0.1582 -0.6684 0.9933
-1.5027 -0.2930 -0.6672 0.9933
-3.7556 -2.3004 -1.9194 0.9810
-3.2628 -2.9086 -1.9049 0.9811
-2.6828 -3.4268 -1.8967 0.9812
-1.6802 -4.0133 -1.8962 0.9812
-1.3179 -4.1536 -1.8991 0.9812
-0.1737 -4.3962 -1.9174 0.9810
0.2199 -4.4152 -1.9266 0.9809
0.6159 -4.4022 -1.9372 0.9808
1.0121 -4.3568 -1.9493 0.9807
1.4061 -4.2786 -1.9628 0.9805
1.7953 -4.1675 -1.9776 0.9804
2.5490 -3.8464 -2.0110 0.9801
3.2515 -3.3954 -2.0489 0.9797
4.1544 -2.4863 -2.1100 0.9791
4.0924 -1.9771 -1.9808 0.9804
4.4715 -1.2450 -2.0229 0.9800
4.7847 -0.0182 -2.0852 0.9793
4.8125 0.4122 -2.1050 0.9791
4.7994 0.8470 -2.1240 0.9790
4.7445 1.2822 -2.1419 0.9788
4.6472 1.7131 -2.1586 0.9786
4.1038 2.9355 -2.1990 0.9782
3.8427 3.3041 -2.2087 0.9781
3.5451 3.6460 -2.2163 0.9781
2.8523 4.2336 -2.2248 0.9780
2.4644 4.4725 -2.2255 0.9780
2.0545 4.6709 -2.2239 0.9780
1.6271 4.8269 -2.2199 0.9780
0.8627 3.5893 -1.6088 0.9840
0.7393 5.0059 -2.2053 0.9782
0.2888 5.0279 -2.1949 0.9783
-0.6011 4.9388 -2.1683 0.9785
-1.0313 4.8302 -2.1525 0.9787
-1.4461 4.6815 -2.1354 0.9788
-1.8417 4.4951 -2.1171 0.9790
-2.2147 4.2737 -2.0978 0.9792
-2.5620 4.0205 -2.0777 0.9794
-3.1704 3.4317 -2.0361 0.9798
-2.6728 1.3508 -1.3052 0.9870
-1.5728 0.4684 -0.7152 0.9929
-1.5095 0.3063 -0.6713 0.9933
-1.5241 0.1698 -0.6683 0.9933
-1.5266 0.0331 -0.6655 0.9934
-4.0419 -1.8270 -1.9331 0.9808
-3.8428 -2.1686 -1.9230 0.9809
-3.6180 -2.4913 -1.9144 0.9810
-3.3690 -2.7935 -1.9074 0.9811
-2.8054 -3.3306 -1.8978 0.9812
-1.8220 -3.9490 -1.8954 0.9812
-1.4646 -4.1008 -1.8978 0.9812
-0.3303 -4.3798 -1.9142 0.9810
0.4569 -4.4113 -1.9328 0.9808
0.8533 -4.3789 -1.9443 0.9807
2.0250 -4.0851 -1.9871 0.9803
2.7658 -3.7248 -2.0219 0.9800
3.1158 -3.4961 -2.0410 0.9798
3.4485 -3.2359 -2.0610 0.9796
2.3288 -0.9753 -1.1003 0.9890
4.5599 -1.0106 -2.0355 0.9798
4.6796 -0.6064 -2.0565 0.9796
4.7623 -0.1887 -2.0771 0.9794
4.8097 0.6723 -2.1165 0.9790
4.5686 1.9674 -2.1678 0.9785
4.4037 2.3823 -2.1821 0.9784
3.9520 3.1592 -2.2050 0.9782
3.6687 3.5123 -2.2135 0.9781
1.8003 4.7695 -2.2218 0.9780
0.9195 4.9844 -2.2089 0.9781
0.4696 5.0245 -2.1993 0.9782
0.0107 2.7115 -1.1817 0.9882
-0.4251 4.9706 -2.1742 0.9785
-1.2819 4.7458 -2.1424 0.9788
-2.0680 4.3665 -2.1056 0.9791
-2.4259 4.1257 -2.0858 0.9793
-2.7568 3.8549 -2.0654 0.9795
-3.7702 2.5407 -1.9814 0.9804
-2.6388 1.4544 -1.3131 0.9869
-1.5385 0.3700 -0.6896 0.9931
-1.5296 0.0881 -0.6677 0.9933
-1.5779 -0.4872 -0.7197 0.9928
-4.1142 -1.6851 -1.9376 0.9808
-3.9258 -2.0338 -1.9269 0.9809
-3.2091 -2.9640 -1.9039 0.9811
-2.9250 -3.2304 -1.8993 0.9812
-1.6095 -4.0433 -1.8966 0.9812
-0.4861 -4.3583 -1.9112 0.9810
1.8715 -4.1416 -1.9807 0.9804
2.2516 -3.9910 -1.9971 0.9802
2.6212 -3.8075 -2.0146 0.9800
2.9774 -3.5917 -2.0332 0.9798
3.3173 -3.3440 -2.0528 0.9797
3.6382 -3.0653 -2.0733 0.9795
4.2036 -2.4160 -2.1130 0.9791
4.1352 -1.9085 -1.9849 0.9803
4.3343 -1.5486 -2.0059 0.9801
4.7933 0.0664 -2.0892 0.9793
4.7919 0.9332 -2.1276 0.9789
4.7286 1.3679 -2.1453 0.9788
4.2852 2.6234 -2.1897 0.9783
3.4822 3.7101 -2.2175 0.9780
2.3849 4.5150 -2.2254 0.9780
0.1101 2.7712 -1.2087 0.9880
-0.2476 4.9955 -2.1798 0.9784
-1.1148 4.8039 -2.1492 0.9787
-1.5260 4.6475 -2.1319 0.9789
-1.9174 4.4539 -2.1133 0.9791
-2.2855 4.2260 -2.0939 0.9793
-3.8760 2.3210 -1.9689 0.9805
-2.6894 1.3001 -1.3019 0.9871
-4.1400 1.5633 -1.9286 0.9809
-1.5627 0.4355 -0.7070 0.9929
-1.4981 0.2766 -0.6639 0.9934
-1.5231 0.0062 -0.6638 0.9934
-1.5021 -0.2647 -0.6647 0.9934
-1.5975 -0.5884 -0.7419 0.9926
-4.0046 -1.8960 -1.9310 0.9809
-3.8003 -2.2340 -1.9212 0.9809
-3.3171 -2.8507 -1.9061 0.9811
-3.0414 -3.1264 -1.9009 0.9811
-2.7454 -3.3785 -1.8972 0.9812
-1.7523 -3.9813 -1.8957 0.9812
-3.1766 2.9793 -2.0159 0.9810
-1.3296 0.4217 -0.6457 0.9939
-1.2996 0.2877 -0.6161 0.9942
-1.3308 0.1721 -0.6211 0.9941
-1.3378 0.0527 -0.6197 0.9941
-1.3383 -0.0668 -0.6203 0.9941
-1.3023 -0.3027 -0.6189 0.9941
-3.4694 -2.2998 -1.9267 0.9818
-2.9863 -2.8604 -1.9141 0.9819
-2.4225 -3.3335 -1.9074 0.9820
-0.7504 -4.0731 -1.9171 0.9819
-0.3856 -4.1376 -1.9235 0.9819
-0.0154 -4.1725 -1.9314 0.9818
0.7332 -4.1514 -1.9514 0.9816
1.8422 -3.8874 -1.9912 0.9812
2.5441 -3.5557 -2.0238 0.9809
3.1916 -3.1026 -2.0603 0.9806
3.4882 -2.8323 -2.0799 0.9804
4.0019 -2.2045 -2.1149 0.9801
3.9309 -1.7284 -1.9877 0.9813
4.1098 -1.3848 -2.0075 0.9811
4.2586 -1.0230 -2.0273 0.9809
4.4568 -0.2555 -2.0664 0.9805
4.5027 0.1441 -2.0853 0.9803
4.3018 1.7631 -2.1520 0.9797
3.9667 2.5285 -2.1774 0.9795
3.1922 3.5272 -2.2021 0.9792
2.8705 3.8049 -2.2062 0.9792
2.5222 4.0492 -2.2082 0.9792
2.1511 4.2575 -2.2080 0.9792
1.7611 4.4276 -2.2056 0.9792
1.3567 4.5576 -2.2011 0.9793
0.9423 4.6464 -2.1945 0.9793
0.5224 4.6935 -2.1859 0.9794
-0.3160 4.6628 -2.1633 0.9796
-1.5060 4.3204 -2.1179 0.9800
-2.2111 3.9170 -2.0820 0.9804
-2.8184 3.3982 -2.0436 0.9807
-1.3136 0.6059 -0.6696 0.9936
-1.3131 0.3404 -0.6279 0.9940
-1.3209 0.2191 -0.6198 0.9941
-1.3354 -0.0188 -0.6182 0.9941
-1.3229 -0.3830 -0.6375 0.9939
-3.7529 -1.8609 -1.9390 0.9817
-3.0900 -2.7546 -1.9162 0.9819
-2.8253 -3.0117 -1.9115 0.9820
-1.2483 -3.9344 -1.9106 0.9820
-0.1644 -4.1621 -1.9281 0.9818
0.9574 -4.1211 -1.9584 0.9815
1.3295 -4.0456 -1.9712 0.9814
1.6968 -3.9389 -1.9853 0.9813
2.7447 -3.4325 -2.0344 0.9808
3.0672 -3.2029 -2.0527 0.9806
3.8512 -1.8606 -1.9798 0.9813
4.0416 -1.5250 -1.9995 0.9811
4.2027 -1.1702 -2.0194 0.9810
4.3323 -0.7987 -2.0391 0.9808
4.4282 -0.4133 -2.0587 0.9806
4.4887 -0.0171 -2.0778 0.9804
4.5122 0.3865 -2.0963 0.9802
4.4974 0.7937 -2.1140 0.9801
4.4436 1.2008 -2.1307 0.9799
4.3503 1.6037 -2.1462 0.9798
3.5919 3.0885 -2.1927 0.9793
3.0029 3.6973 -2.2048 0.9792
2.3024 4.1785 -2.2083 0.9792
1.9195 4.3641 -2.2068 0.9792
1.5204 4.5103 -2.2032 0.9792
0.2701 4.7016 -2.1799 0.9795
-0.5625 4.6219 -2.1552 0.9797
-0.9656 4.5224 -2.1406 0.9798
-3.2224 2.9170 -2.0120 0.9810
-2.6645 1.3466 -1.3819 0.9869
-1.3293 0.5289 -0.6622 0.9937
-1.3252 0.3947 -0.6400 0.9939
-1.3344 0.1487 -0.6215 0.9941
-1.3363 0.0290 -0.6187 0.9941
-1.3101 -0.3290 -0.6252 0.9941
-1.3336 -0.4647 -0.6537 0.9938
-1.3165 -0.5951 -0.6688 0.9937
-3.6376 -2.0528 -1.9334 0.9818
-3.4256 -2.3588 -1.9252 0.9818
-2.3629 -3.3752 -1.9071 0.9820
-1.7260 -3.7410 -1.9071 0.9820
-1.3873 -3.8845 -1.9093 0.9820
-1.0376 -4.0005 -1.9130 0.9819
-0.6788 -4.0882 -1.9183 0.9819
0.0583 -4.1758 -1.9331 0.9818
1.1807 -4.0797 -1.9659 0.9815
1.5502 -3.9855 -1.9795 0.9813
1.9135 -3.8601 -1.9943 0.9812
3.5444 -2.7756 -2.0838 0.9804
3.8134 -2.4718 -2.1036 0.9802
4.0456 -2.1364 -2.1177 0.9800
4.1417 -1.3146 -2.0114 0.9810
4.2842 -0.9495 -2.0312 0.9808
4.3939 -0.5693 -2.0509 0.9807
4.4688 -0.1771 -2.0702 0.9805
4.4699 1.0378 -2.1241 0.9800
4.3925 1.4429 -2.1401 0.9798
4.2755 1.8412 -2.1548 0.9797
4.1195 2.2285 -2.1680 0.9796
3.4288 3.2826 -2.1972 0.9793
3.1308 3.5846 -2.2030 0.9792
2.8036 3.8559 -2.2068 0.9792
2.0753 4.2943 -2.2077 0.9792
1.0436 3.7463 -1.8001 0.9830
0.0107 2.7182 -1.2582 0.9881
-1.5795 4.2863 -2.1145 0.9801
-1.9389 4.0940 -2.0968 0.9802
-2.2759 3.8704 -2.0783 0.9804
-2.5878 3.6186 -2.0592 0.9806
-2.8725 3.3416 -2.0397 0.9808
-3.3538 2.7245 -2.0001 0.9811
-3.5479 2.3910 -1.9804 0.9813
-2.6305 1.4499 -1.3903 0.9868
-1.3331 0.4496 -0.6512 0.9938
-1.3058 0.3140 -0.6217 0.9941
-1.3325 -0.1620 -0.6213 0.9941
-1.3272 -0.5436 -0.6639 0.9937
-3.7158 -1.9249 -1.9371 0.9817
-3.2874 -2.5329 -1.9210 0.9819
-3.0393 -2.8072 -1.9151 0.9819
-2.4831 -3.2897 -1.9079 0.9820
-2.1784 -3.4954 -1.9065 0.9820
-1.5246 -3.8302 -1.9082 0.9820
-1.1791 -3.9573 -1.9114 0.9820
-0.4603 -4.1269 -1.9221 0.9819
-0.0910 -4.1678 -1.9297 0.9818
0.6570 -4.1591 -1.9491 0.9816
1.4026 -4.0270 -1.9739 0.9814
1.7687 -3.9141 -1.9882 0.9812
2.1270 -3.7701 -2.0037 0.9811
2.8097 -3.3895 -2.0379 0.9808
3.8911 -1.7958 -1.9837 0.9813
4.3540 -0.7234 -2.0430 0.9807
4.4431 -0.3357 -2.0625 0.9806
4.4963 0.0622 -2.0815 0.9804
4.5123 0.4668 -2.0998 0.9802
4.4899 0.8744 -2.1174 0.9800
4.0077 2.4535 -2.1751 0.9795
2.2282 4.2182 -2.2082 0.9792
1.8417 4.3962 -2.2063 0.9792
1.0271 4.6317 -2.1960 0.9793
0.6079 4.6873 -2.1879 0.9794
-0.1289 2.6009 -1.2054 0.9886
-0.6432 4.6053 -2.1524 0.9797
-1.7973 4.1750 -2.1040 0.9802
-2.1436 3.9637 -2.0858 0.9803
-2.4658 3.7228 -2.0670 0.9805
-3.2670 2.8541 -2.0081 0.9811
-3.4739 2.5264 -1.9883 0.9812
-2.6397 1.5807 -1.4242 0.9865
-1.3320 0.5029 -0.6590 0.9937
-1.3197 0.3678 -0.6342 0.9940
-1.3371 0.1251 -0.6216 0.9941
-1.3340 0.0054 -0.6175 0.9941
-1.3169 -0.3555 -0.6314 0.9940
-1.3328 -0.4909 -0.6574 0.9938
-3.7899 -1.7943 -1.9410 0.9817
-3.3808 -2.4171 -1.9237 0.9818
-3.1414 -2.6997 -1.9173 0.9819
-2.8808 -2.9612 -1.9123 0.9820
-0.9673 -4.0201 -1.9140 0.9819
-2.7563 3.0912 -2.0316 0.9817
-3.3804 2.1900 -1.9757 0.9822
-1.1477 0.4803 -0.6103 0.9945
-1.1891 0.1538 -0.5881 0.9947
-1.1581 -0.3807 -0.5980 0.9946
-1.1454 -0.4936 -0.6118 0.9945
-1.1134 -0.6027 -0.6210 0.9944
-3.2905 -2.1812 -1.9365 0.9826
-2.0067 -3.3538 -1.9171 0.9827
-1.7001 -3.5201 -1.9175 0.9827
-0.7119 -3.8642 -1.9274 0.9826
-0.3658 -3.9247 -1.9335 0.9826
0.6949 -3.9348 -1.9600 0.9824
1.7443 -3.6807 -1.9979 0.9820
2.4067 -3.3637 -2.0288 0.9817
3.0163 -2.9321 -2.0635 0.9814
3.5517 -2.3922 -2.1005 0.9811
3.7746 -2.0793 -2.1139 0.9810
4.0114 -0.9636 -2.0237 0.9818
4.1186 -0.6078 -2.0422 0.9816
4.1935 -0.2404 -2.0604 0.9815
4.2092 0.8993 -2.1113 0.9810
3.7205 2.3715 -2.1642 0.9805
3.5096 2.7054 -2.1737 0.9805
1.0989 3.6915 -1.8893 0.9830
0.4898 4.4011 -2.1722 0.9805
-0.2965 4.3751 -2.1510 0.9807
-0.6812 4.3054 -2.1382 0.9808
-1.0551 4.1994 -2.1240 0.9809
-1.4149 4.0591 -2.1086 0.9810
-1.7573 3.8865 -2.0922 0.9812
-2.0795 3.6839 -2.0751 0.9813
-2.3790 3.4540 -2.0572 0.9815
-2.9016 2.9234 -2.0204 0.9818
-3.1215 2.6287 -2.0018 0.9820
-2.6051 1.4964 -1.4737 0.9867
-1.1560 0.4127 -0.6021 0.9945
-1.1823 0.1962 -0.5879 0.9947
-1.1925 -0.1237 -0.5881 0.9947
-1.1756 -0.2292 -0.5875 0.9947
-1.1523 -0.4484 -0.6065 0.9945
-3.3718 -2.0653 -1.9396 0.9825
-1.8247 -3.4564 -1.9172 0.9827
-1.5104 -3.6077 -1.9185 0.9827
-1.1845 -3.7332 -1.9212 0.9827
-0.8488 -3.8321 -1.9253 0.9827
-0.5054 -3.9038 -1.9309 0.9826
0.1973 -3.9625 -1.9461 0.9825
0.9072 -3.9054 -1.9667 0.9823
1.9470 -3.5980 -2.0067 0.9819
2.2774 -3.4366 -2.0223 0.9818
2.5957 -3.2463 -2.0388 0.9817
2.8993 -3.0276 -2.0562 0.9815
