ply
format ascii 1.0
element vertex 1598
property float32 x
property float32 y
property float32 z
property float32 I
end_header
-1.8106 -6.6335 -1.7804 0.9720
-1.2157 -6.7981 -1.7881 0.9719
-0.6067 -6.9181 -1.7981 0.9717
0.6442 -7.0194 -1.8251 0.9713
2.5614 -6.8052 -1.8827 0.9704
3.8301 -6.4045 -1.9322 0.9696
5.6421 -5.3987 -2.0219 0.9682
6.7351 -4.4548 -2.0908 0.9672
7.6648 -3.2894 -2.1596 0.9661
7.8376 -1.8055 -2.0824 0.9673
8.1094 -1.1173 -2.1195 0.9667
8.4627 0.3562 -2.1931 0.9656
8.5286 1.9165 -2.2633 0.9645
7.8110 3.3027 -2.1958 0.9656
6.8007 3.6232 -1.9951 0.9687
5.9472 3.8880 -1.8397 0.9711
5.2151 4.1190 -1.7206 0.9729
3.5015 4.7641 -1.5308 0.9759
2.4384 4.9861 -1.4371 0.9773
1.9464 5.0884 -1.4106 0.9777
1.4937 5.2767 -1.4199 0.9776
1.0222 5.4213 -1.4284 0.9775
-1.6657 6.2340 -1.6707 0.9737
-3.6409 7.7324 -2.2129 0.9653
-4.2468 7.2555 -2.1767 0.9659
-5.2849 6.1668 -2.1028 0.9670
5.0971 -5.0181 -2.0249 0.9707
6.0925 -4.1557 -2.0878 0.9698
6.5426 -3.6521 -2.1212 0.9693
7.0895 -1.7398 -2.0665 0.9701
7.3335 -1.1170 -2.1000 0.9696
7.5217 -0.4644 -2.1334 0.9692
7.7127 0.9090 -2.1985 0.9682
7.4825 3.0390 -2.2863 0.9670
6.9375 3.5702 -2.2088 0.9681
6.0640 3.8423 -2.0323 0.9706
5.3176 4.0784 -1.8972 0.9725
4.0641 4.4729 -1.7109 0.9752
3.5825 4.7315 -1.6801 0.9756
3.0589 4.8946 -1.6340 0.9763
2.5120 4.9565 -1.5731 0.9772
2.0360 5.1035 -1.5555 0.9774
1.0964 5.3919 -1.5576 0.9774
0.0565 2.6114 -0.7395 0.9892
-1.5610 6.1947 -1.8085 0.9738
-3.2019 7.0591 -2.1944 0.9683
-3.7638 6.6455 -2.1621 0.9687
-4.2763 6.1865 -2.1290 0.9692
-4.7366 5.6889 -2.0956 0.9697
-5.1425 5.1590 -2.0621 0.9702
-5.7878 4.0282 -1.9963 0.9711
-2.8243 1.2920 -0.8792 0.9872
-6.9462 1.1250 -1.9920 0.9712
-6.7290 -0.7290 -1.9161 0.9723
-6.5626 -1.3126 -1.8946 0.9726
-6.1034 -2.4122 -1.8579 0.9731
-5.4914 -3.4075 -1.8295 0.9735
-4.7453 -4.2839 -1.8098 0.9738
-4.3275 -4.6737 -1.8032 0.9739
-3.8829 -5.0294 -1.7987 0.9739
-3.4136 -5.3495 -1.7965 0.9740
-2.9217 -5.6329 -1.7964 0.9740
-2.4094 -5.8783 -1.7985 0.9739
-1.8789 -6.0846 -1.8027 0.9739
-1.3323 -6.2504 -1.8092 0.9738
-0.7720 -6.3747 -1.8178 0.9737
-0.2004 -6.4562 -1.8286 0.9735
0.9668 -6.4866 -1.8566 0.9731
1.5569 -6.4332 -1.8738 0.9729
2.1475 -6.3327 -1.8930 0.9726
2.7352 -6.1842 -1.9143 0.9723
3.3169 -5.9870 -1.9376 0.9719
4.4465 -5.4438 -1.9898 0.9712
6.4510 -3.7619 -2.1141 0.9694
7.7050 0.7614 -2.1918 0.9683
7.7145 1.4676 -2.2231 0.9679
7.6536 2.1800 -2.2529 0.9675
7.1396 3.5060 -2.2517 0.9675
4.1847 4.4350 -1.7262 0.9750
0.8178 3.6673 -1.0637 0.9845
0.1098 2.7148 -0.7692 0.9888
-1.7777 5.4091 -1.6118 0.9766
-2.8341 6.5743 -2.0267 0.9707
-3.6497 6.7364 -2.1689 0.9687
-4.6442 5.7964 -2.1027 0.9696
-5.0618 5.2728 -2.0692 0.9701
-5.4240 4.7221 -2.0359 0.9705
-5.9812 3.5637 -1.9710 0.9715
-2.7641 1.3279 -0.8681 0.9873
-6.8694 0.0027 -1.9447 0.9718
-6.6013 -1.1916 -1.8990 0.9725
-6.1592 -2.3013 -1.8613 0.9730
-5.8789 -2.8186 -1.8457 0.9733
-3.5142 -5.2852 -1.7968 0.9740
-2.5187 -5.8299 -1.7978 0.9739
-1.9918 -6.0445 -1.8017 0.9739
-1.4484 -6.2190 -1.8077 0.9738
-0.8908 -6.3521 -1.8158 0.9737
1.4327 -6.4483 -1.8700 0.9729
2.0234 -6.3578 -1.8888 0.9726
2.6121 -6.2195 -1.9097 0.9723
3.1953 -6.0325 -1.9325 0.9720
4.3305 -5.5103 -1.9840 0.9713
5.3969 -4.7884 -2.0425 0.9705
6.7842 -3.3381 -2.1405 0.9691
2.3634 -0.9106 -0.7170 0.9895
6.9714 -1.9916 -2.0525 0.9703
7.4497 -0.7421 -2.1194 0.9694
7.7183 1.3184 -2.2166 0.9680
7.5542 2.7418 -2.2750 0.9671
7.3497 3.4391 -2.2972 0.9668
6.4115 3.7321 -2.1002 0.9696
4.3075 4.3965 -1.7424 0.9747
3.7418 4.5738 -1.6729 0.9757
0.8856 3.6470 -1.0624 0.9845
0.8206 5.4760 -1.5675 0.9772
0.1652 2.7852 -0.7899 0.9885
-2.6685 6.5251 -1.9957 0.9711
-3.5334 6.8253 -2.1758 0.9686
-4.0670 6.3846 -2.1430 0.9690
-4.5495 5.9024 -2.1097 0.9695
-4.9785 5.3853 -2.0762 0.9700
-5.6707 4.2721 -2.0099 0.9709
-5.9331 3.6880 -1.9777 0.9714
-6.7809 2.6862 -2.0648 0.9701
-6.9404 1.3938 -2.0040 0.9710
-6.6380 -1.0697 -1.9034 0.9724
-6.2132 -2.1892 -1.8649 0.9730
-5.9409 -2.7121 -1.8488 0.9732
-5.2882 -3.6743 -1.8229 0.9736
-4.9124 -4.1102 -1.8132 0.9737
-4.5066 -4.5139 -1.8057 0.9738
-4.0730 -4.8841 -1.8003 0.9739
-3.6138 -5.2193 -1.7971 0.9740
-3.1311 -5.5183 -1.7961 0.9740
-2.6271 -5.7798 -1.7973 0.9740
-2.1040 -6.0027 -1.8007 0.9739
-1.0091 -6.3276 -1.8139 0.9737
0.1351 -6.4835 -1.8358 0.9734
0.7195 -6.4952 -1.8500 0.9732
3.0733 -6.0759 -1.9276 0.9721
3.6497 -5.8501 -1.9520 0.9717
4.2138 -5.5745 -1.9782 0.9714
5.2891 -4.8737 -2.0360 0.9705
5.7911 -4.4488 -2.0673 0.9701
6.9091 -2.1152 -2.0455 0.9704
7.1858 -1.5135 -2.0789 0.9699
7.5762 -0.2168 -2.1456 0.9690
7.6806 0.4682 -2.1784 0.9685
7.6880 1.8802 -2.2406 0.9676
7.4088 3.2983 -2.2958 0.9668
6.5942 3.6741 -2.1370 0.9691
5.0655 4.1580 -1.8552 0.9731
2.8721 4.9527 -1.6208 0.9765
1.8622 5.1570 -1.5522 0.9775
0.9210 5.4454 -1.5634 0.9773
0.4375 5.5926 -1.5881 0.9769
-0.5980 5.9057 -1.6804 0.9756
-1.1715 6.0781 -1.7523 0.9746
-2.1116 5.4540 -1.6557 0.9760
-3.4150 6.9121 -2.1825 0.9685
-3.9590 6.4809 -2.1499 0.9689
-4.4525 6.0069 -2.1167 0.9694
-5.6085 4.3930 -2.0168 0.9708
-6.1012 3.2189 -1.9528 0.9717
-6.7511 2.8224 -2.0715 0.9700
-6.9437 0.8902 -1.9818 0.9713
-6.0013 -2.6043 -1.8520 0.9732
-4.9939 -4.0212 -1.8151 0.9737
-4.5943 -4.4318 -1.8071 0.9738
-3.2344 -5.4585 -1.7962 0.9740
-2.7348 -5.7280 -1.7969 0.9740
-2.2155 -5.9591 -1.7998 0.9739
-1.6787 -6.1506 -1.8049 0.9738
-1.1268 -6.3012 -1.8121 0.9737
-0.5621 -6.4098 -1.8215 0.9736
0.5962 -6.4965 -1.8468 0.9732
1.1845 -6.4723 -1.8627 0.9730
2.3650 -6.2835 -1.9007 0.9725
4.0964 -5.6366 -1.9726 0.9714
4.6481 -5.3216 -2.0003 0.9711
6.1665 -4.0787 -2.0930 0.9697
6.9921 -3.0007 -2.1540 0.9689
6.8446 -2.2371 -2.0385 0.9705
7.3673 -1.0150 -2.1053 0.9696
7.6640 0.3226 -2.1715 0.9686
7.7165 1.0211 -2.2035 0.9682
6.7895 3.6173 -2.1778 0.9685
5.9382 3.8821 -2.0084 0.9709
3.9742 4.5010 -1.6998 0.9753
1.9441 5.0824 -1.5405 0.9776
1.0210 5.4149 -1.5599 0.9774
-1.6633 6.2253 -1.8242 0.9736
-1.9760 5.4035 -1.6288 0.9764
-4.3531 6.1098 -2.1237 0.9693
-4.8048 5.6065 -2.0903 0.9698
4.2177 -4.9699 -2.0049 0.9731
5.1744 -4.2542 -2.0604 0.9724
5.6137 -3.8291 -2.0901 0.9720
6.2363 -2.1370 -2.0276 0.9728
6.7129 -1.0225 -2.0886 0.9720
6.9835 0.1944 -2.1488 0.9712
7.0321 0.8288 -2.1779 0.9708
6.9414 2.1191 -2.2323 0.9701
6.7983 2.7611 -2.2569 0.9698
6.5891 3.3909 -2.2793 0.9695
5.3099 4.0724 -2.0582 0.9724
4.0587 4.4670 -1.8564 0.9751
3.5779 4.7255 -1.8231 0.9755
2.0335 5.0974 -1.6880 0.9773
1.0951 5.3854 -1.6903 0.9773
0.6171 5.5310 -1.7118 0.9770
0.0562 2.5977 -0.7992 0.9892
-1.5588 6.1861 -1.9622 0.9737
-2.9199 6.4373 -2.1741 0.9709
-3.4367 6.0680 -2.1449 0.9712
-3.9099 5.6564 -2.1150 0.9716
-4.3365 5.2084 -2.0846 0.9720
-4.7146 4.7297 -2.0540 0.9724
-5.0427 4.2260 -2.0237 0.9728
-5.5472 3.1652 -1.9644 0.9736
-6.3046 2.2269 -2.0566 0.9724
-6.4235 1.0403 -2.0015 0.9731
-6.3471 -0.1169 -1.9526 0.9738
-6.2405 -0.6760 -1.9307 0.9741
-6.0912 -1.2183 -1.9106 0.9743
-5.9012 -1.7410 -1.8924 0.9746
-5.6728 -2.2420 -1.8762 0.9748
-5.4082 -2.7192 -1.8619 0.9750
-5.1095 -3.1705 -1.8495 0.9751
-4.7789 -3.5943 -1.8392 0.9753
-4.4186 -3.9890 -1.8310 0.9754
-4.0306 -4.3531 -1.8247 0.9755
-3.6171 -4.6851 -1.8205 0.9755
-3.1802 -4.9837 -1.8184 0.9756
-2.7219 -5.2478 -1.8183 0.9756
-1.2406 -5.8202 -1.8304 0.9754
-0.7187 -5.9340 -1.8385 0.9753
-0.1865 -6.0075 -1.8487 0.9752
0.3535 -6.0396 -1.8608 0.9750
1.4462 -5.9758 -1.8911 0.9746
3.0735 -5.5478 -1.9508 0.9738
3.5999 -5.3142 -1.9743 0.9735
4.1122 -5.0345 -1.9994 0.9732
5.5239 -3.9221 -2.0837 0.9720
6.1756 -2.2469 -2.0213 0.9729
6.6720 -1.1451 -2.0822 0.9721
6.8462 -0.5521 -2.1126 0.9717
7.0269 1.3368 -2.2001 0.9705
6.9630 1.9833 -2.2269 0.9702
6.8339 2.6269 -2.2519 0.9698
5.4583 4.0255 -2.0860 0.9720
4.7846 4.2385 -1.9660 0.9736
4.1791 4.4292 -1.8730 0.9748
3.6237 4.6034 -1.8019 0.9758
3.1628 4.8551 -1.7822 0.9760
2.6104 4.9190 -1.7128 0.9770
1.6631 5.2114 -1.6826 0.9774
0.8142 3.6511 -1.1506 0.9845
0.1102 2.7245 -0.8387 0.9887
-0.1335 2.7196 -0.8375 0.9887
-1.4265 6.1466 -1.9408 0.9739
-2.8060 6.5090 -2.1801 0.9708
-3.3316 6.1493 -2.1511 0.9712
-4.2508 5.3053 -2.0910 0.9720
-4.6392 4.8326 -2.0605 0.9724
-5.5037 3.2792 -1.9705 0.9735
-6.2757 2.3504 -2.0612 0.9723
-6.3758 1.7568 -2.0341 0.9727
-6.4204 1.1642 -2.0070 0.9731
-6.4158 0.5782 -1.9814 0.9734
-6.3638 0.0025 -1.9574 0.9737
-5.9444 -1.6329 -1.8961 0.9745
-5.7239 -2.1386 -1.8794 0.9748
-5.4667 -2.6209 -1.8647 0.9749
-4.8510 -3.5076 -1.8412 0.9753
-4.1144 -4.2791 -1.8259 0.9755
-3.7061 -4.6180 -1.8212 0.9755
-3.2739 -4.9238 -1.8187 0.9756
-2.8199 -5.1952 -1.8182 0.9756
-1.8552 -5.6301 -1.8233 0.9755
-0.8293 -5.9134 -1.8366 0.9753
-0.2991 -5.9954 -1.8464 0.9752
0.2395 -6.0363 -1.8581 0.9750
0.7837 -6.0350 -1.8718 0.9749
2.4230 -5.7694 -1.9247 0.9742
3.4903 -5.3671 -1.9692 0.9736
4.5042 -4.7812 -2.0204 0.9729
4.9812 -4.4196 -2.0483 0.9725
5.4327 -4.0132 -2.0774 0.9721
2.3644 -0.9110 -0.7794 0.9895
6.3937 -1.8266 -2.0452 0.9726
6.6288 -1.2665 -2.0757 0.9722
6.8140 -0.6788 -2.1062 0.9717
7.0191 0.5605 -2.1658 0.9710
6.8665 2.4922 -2.2468 0.9699
4.9199 4.1958 -1.9888 0.9733
4.3017 4.3906 -1.8906 0.9746
2.7637 4.9792 -1.7516 0.9764
0.8785 3.6177 -1.1451 0.9845
0.8196 5.4694 -1.7011 0.9771
-0.7138 5.9331 -1.8381 0.9753
-1.2969 6.1079 -1.9205 0.9742
-3.7165 5.8342 -2.1276 0.9715
-4.1629 5.4008 -2.0974 0.9719
-4.5616 4.9343 -2.0669 0.9723
-4.9109 4.4405 -2.0364 0.9727
-2.7466 1.3837 -0.9460 0.9872
-6.2439 2.4734 -2.0657 0.9723
-6.3599 1.8818 -2.0400 0.9726
-6.4208 0.7007 -1.9866 0.9733
-6.3786 0.1225 -1.9623 0.9737
-6.2907 -0.4429 -1.9397 0.9740
-6.1590 -0.9925 -1.9188 0.9742
-5.2391 -2.9840 -1.8545 0.9751
-4.9217 -3.4196 -1.8433 0.9752
-3.7940 -4.5495 -1.8220 0.9755
-3.3666 -4.8623 -1.8190 0.9756
-2.4474 -5.3845 -1.8192 0.9756
-1.4564 -5.7606 -1.8276 0.9754
-0.4113 -5.9816 -1.8441 0.9752
0.6690 -6.0388 -1.8688 0.9749
2.3090 -5.8011 -1.9204 0.9742
2.8490 -5.6324 -1.9414 0.9739
5.7681 -3.6611 -2.1013 0.9718
2.3439 -0.9541 -0.7784 0.9895
6.3383 -1.9404 -2.0388 0.9726
6.7794 -0.8044 -2.0998 0.9718
6.9224 -0.1981 -2.1300 0.9714
7.0085 0.4272 -2.1597 0.9710
7.0346 1.0658 -2.1884 0.9707
6.8962 2.3571 -2.2416 0.9700
6.7287 2.9955 -2.2654 0.9696
5.7675 3.9274 -2.1462 0.9712
4.4267 4.3513 -1.9092 0.9744
3.8521 4.5318 -1.8294 0.9754
3.3815 4.7869 -1.8027 0.9758
0.9523 3.6228 -1.1521 0.9844
0.4369 5.5858 -1.7233 0.9768
-0.0292 2.5545 -0.7858 0.9894
-0.5973 5.8981 -1.8234 0.9755
-1.1700 6.0699 -1.9013 0.9745
-1.7988 6.2577 -2.0027 0.9731
-2.1078 5.4442 -1.7956 0.9759
-3.6167 5.9206 -2.1339 0.9714
-4.0730 5.4949 -2.1038 0.9718
-5.1512 4.0347 -2.0125 0.9730
-5.6182 2.9641 -1.9538 0.9738
-5.7764 2.4149 -1.9257 0.9741
-6.4077 1.4127 -2.0182 0.9729
-6.3128 -0.3252 -1.9443 0.9739
-6.1902 -0.8784 -1.9231 0.9742
-6.0256 -1.4137 -1.9037 0.9744
-5.8212 -1.9287 -1.8862 0.9747
-5.3017 -2.8890 -1.8571 0.9750
-3.4584 -4.7993 -1.8195 0.9755
-3.0133 -5.0854 -1.8181 0.9756
-2.0637 -5.5510 -1.8215 0.9755
-1.5635 -5.7282 -1.8263 0.9755
-1.0492 -5.8669 -1.8332 0.9754
-0.5232 -5.9659 -1.8420 0.9752
0.0122 -6.0242 -1.8529 0.9751
1.6485 -5.9449 -1.8975 0.9745
2.1946 -5.8308 -1.9163 0.9743
3.2693 -5.4669 -1.9592 0.9737
3.7909 -5.2162 -1.9834 0.9734
4.7835 -4.5772 -2.0364 0.9727
5.9824 -2.5674 -2.0024 0.9731
6.5358 -1.5056 -2.0629 0.9723
6.8969 -0.3273 -2.1237 0.9715
6.9953 0.2944 -2.1535 0.9711
7.0342 0.9308 -2.1824 0.9707
6.9230 2.2217 -2.2363 0.9700
6.5497 3.4895 -2.2826 0.9694
4.5542 4.3111 -1.9288 0.9741
3.9690 4.4952 -1.8444 0.9752
2.9744 4.9137 -1.7667 0.9762
2.4326 4.9741 -1.7031 0.9771
1.4902 5.2645 -1.6829 0.9774
0.0189 2.5600 -0.7874 0.9893
-1.0454 6.0326 -1.8832 0.9747
-1.9733 5.3961 -1.7672 0.9762
-3.0049 6.3816 -2.1696 0.9709
-3.9809 5.5874 -2.1101 0.9717
3.9182 -4.6170 -2.0129 0.9748
4.7976 -3.9443 -2.0645 0.9742
5.4814 -2.4454 -1.9951 0.9750
5.9917 -1.4704 -2.0508 0.9743
6.3254 -0.3905 -2.1066 0.9736
6.4356 1.3503 -2.1858 0.9727
6.2214 2.5268 -2.2321 0.9721
6.0249 3.1006 -2.2524 0.9718
4.6459 4.2742 -2.0985 0.9737
4.0533 4.4610 -2.0036 0.9749
3.5074 4.6324 -1.9314 0.9758
0.6164 5.5242 -1.8477 0.9768
0.0583 2.6978 -0.8970 0.9887
-0.9515 5.9968 -2.0183 0.9747
-2.6805 5.9095 -2.1570 0.9730
-3.1584 5.5766 -2.1303 0.9733
-3.9944 4.7975 -2.0751 0.9740
-4.3477 4.3616 -2.0471 0.9744
-2.8170 1.2887 -1.0297 0.9870
-5.8357 2.0613 -2.0573 0.9742
-5.0497 -2.5389 -1.8788 0.9765
-3.3824 -4.3810 -1.8398 0.9769
-2.5455 -4.9076 -1.8377 0.9770
-2.0988 -5.1206 -1.8396 0.9769
-1.6362 -5.2986 -1.8434 0.9769
-0.6716 -5.5453 -1.8568 0.9767
-0.1742 -5.6119 -1.8663 0.9766
0.3301 -5.6395 -1.8778 0.9765
0.8387 -5.6271 -1.8911 0.9763
1.8581 -5.4793 -1.9232 0.9759
2.3631 -5.3428 -1.9419 0.9757
2.8608 -5.1638 -1.9623 0.9754
3.8209 -4.6779 -2.0078 0.9749
4.2761 -4.3713 -2.0327 0.9746
5.8232 -2.7304 -2.1379 0.9733
5.7021 -2.0746 -2.0170 0.9747
6.1462 -1.0548 -2.0729 0.9741
6.2995 -0.5081 -2.1008 0.9737
6.4444 1.2260 -2.1806 0.9727
6.2552 2.4044 -2.2276 0.9721
6.0712 2.9813 -2.2483 0.9719
4.7779 4.2325 -2.1217 0.9735
3.6190 4.5974 -1.9449 0.9756
2.6072 4.9130 -1.8488 0.9768
1.6611 5.2051 -1.8162 0.9772
0.7178 5.4934 -1.8416 0.9769
-1.4245 6.1380 -2.0945 0.9738
-1.7752 5.4015 -1.8900 0.9763
-3.0611 5.6500 -2.1360 0.9733
-3.5084 5.2855 -2.1088 0.9736
-4.2771 4.4554 -2.0530 0.9743
-4.8663 3.5245 -1.9973 0.9750
-5.0915 3.0336 -1.9701 0.9753
-5.9641 1.0814 -2.0148 0.9748
-5.9652 0.5376 -1.9909 0.9751
-5.7093 -1.0306 -1.9285 0.9758
-5.5437 -1.5228 -1.9110 0.9761
-5.3412 -1.9956 -1.8953 0.9763
-5.1039 -2.4470 -1.8815 0.9764
-3.8466 -4.0006 -1.8448 0.9769
-3.4654 -4.3182 -1.8405 0.9769
-3.0616 -4.6045 -1.8380 0.9770
-2.6371 -4.8584 -1.8375 0.9770
-2.1941 -5.0787 -1.8390 0.9769
-1.7347 -5.2642 -1.8424 0.9769
-0.7750 -5.5264 -1.8550 0.9768
-0.2794 -5.6011 -1.8642 0.9766
0.2236 -5.6370 -1.8752 0.9765
0.7315 -5.6330 -1.8882 0.9763
1.2417 -5.5885 -1.9029 0.9762
1.7513 -5.5027 -1.9195 0.9760
2.7569 -5.2049 -1.9579 0.9755
5.0339 -3.7186 -2.0804 0.9740
5.4185 -3.2979 -2.1085 0.9736
6.2713 -0.6247 -2.0949 0.9738
6.4506 1.1019 -2.1753 0.9728
6.2862 2.2816 -2.2230 0.9722
6.1148 2.8612 -2.2441 0.9719
5.8839 3.4250 -2.2631 0.9717
5.5947 3.9658 -2.2796 0.9715
4.9129 4.1898 -2.1463 0.9732
3.2191 4.7440 -1.9057 0.9761
2.7602 4.9731 -1.8906 0.9763
2.2295 5.0300 -1.8289 0.9771
-0.0785 2.5950 -0.8630 0.9891
-3.8327 4.9724 -2.0869 0.9739
-4.2046 4.5481 -2.0589 0.9742
-2.7481 1.3844 -1.0229 0.9871
-5.3790 2.1308 -1.9232 0.9759
-5.9010 1.7460 -2.0456 0.9744
-5.9687 0.6513 -1.9958 0.9750
-5.9346 0.1140 -1.9731 0.9753
-5.8575 -0.4124 -1.9519 0.9756
-5.7392 -0.9249 -1.9323 0.9758
-5.3867 -1.8980 -1.8985 0.9762
-4.5985 -3.1951 -1.8613 0.9767
-3.9237 -3.9301 -1.8460 0.9769
-3.5475 -4.2540 -1.8412 0.9769
-2.7280 -4.8078 -1.8375 0.9770
-1.8325 -5.2281 -1.8415 0.9769
-1.3616 -5.3854 -1.8465 0.9769
-0.8781 -5.5059 -1.8533 0.9768
-0.3843 -5.5886 -1.8621 0.9767
0.1174 -5.6327 -1.8728 0.9765
0.6245 -5.6372 -1.8853 0.9764
1.1344 -5.6013 -1.8997 0.9762
1.6443 -5.5242 -1.9159 0.9760
2.1514 -5.4053 -1.9339 0.9758
2.6526 -5.2442 -1.9535 0.9755
5.3402 -3.3896 -2.1025 0.9737
5.6942 -2.9361 -2.1296 0.9734
2.3425 -0.9535 -0.8407 0.9894
5.8485 -1.7905 -2.0331 0.9745
6.0675 -1.2780 -2.0611 0.9742
6.2410 -0.7405 -2.0891 0.9739
6.4543 0.9779 -2.1699 0.9729
6.4139 1.5686 -2.1949 0.9726
5.9373 3.3081 -2.2593 0.9718
3.3148 4.6926 -1.9098 0.9761
2.8650 4.9405 -1.8984 0.9762
1.8578 5.1447 -1.8182 0.9772
0.9188 5.4322 -1.8314 0.9770
0.4364 5.5789 -1.8601 0.9767
-0.0292 2.5518 -0.8483 0.9893
-2.1040 5.4344 -1.9371 0.9757
-2.8613 5.7914 -2.1472 0.9731
-3.7490 5.0577 -2.0927 0.9738
-4.1301 4.6397 -2.0648 0.9742
-4.4668 4.1943 -2.0368 0.9745
-4.7578 3.7266 -2.0089 0.9748
-5.0025 3.2416 -1.9814 0.9752
-5.2007 2.7439 -1.9546 0.9755
-5.3529 2.2379 -1.9286 0.9758
-5.8803 1.8609 -2.0502 0.9743
-5.2078 -2.2600 -1.8871 0.9764
-3.9996 -3.8582 -1.8472 0.9768
-3.6286 -4.1884 -1.8421 0.9769
-2.3825 -4.9903 -1.8381 0.9770
-1.4617 -5.3553 -1.8453 0.9769
-0.9806 -5.4836 -1.8517 0.9768
-0.4888 -5.5744 -1.8601 0.9767
0.0114 -5.6267 -1.8704 0.9766
1.0271 -5.6122 -1.8965 0.9762
1.5373 -5.5438 -1.9123 0.9760
2.0452 -5.4338 -1.9299 0.9758
3.0421 -5.0869 -1.9702 0.9753
3.9913 -4.5696 -2.0168 0.9747
4.4389 -4.2474 -2.0422 0.9744
5.2606 -3.4795 -2.0966 0.9738
5.6264 -3.0364 -2.1252 0.9734
5.5277 -2.3723 -1.9995 0.9750
5.7969 -1.8947 -2.0272 0.9746
6.0251 -1.3879 -2.0552 0.9743
6.4554 0.8542 -2.1645 0.9729
6.4272 1.4443 -2.1897 0.9726
6.3405 2.0348 -2.2135 0.9723
5.1925 4.1012 -2.1995 0.9725
4.5479 4.3052 -2.0817 0.9739
3.9637 4.4892 -1.9907 0.9751
2.4296 4.9681 -1.8383 0.9770
1.9394 5.0702 -1.8045 0.9774
1.4884 5.2581 -1.8165 0.9772
1.0185 5.4018 -1.8272 0.9771
0.5391 5.5477 -1.8528 0.9768
0.0189 2.5663 -0.8531 0.9892
-1.6587 6.2078 -2.1359 0.9733
-1.9705 5.3886 -1.9072 0.9761
-2.7590 5.8593 -2.1528 0.9731
-3.2309 5.5198 -2.1260 0.9734
-3.6633 5.1417 -2.0985 0.9737
-4.0536 4.7300 -2.0707 0.9741
3.6548 -4.3065 -2.0199 0.9763
4.0720 -4.0089 -2.0434 0.9760
4.4673 -3.6728 -2.0681 0.9757
4.8370 -3.2993 -2.0938 0.9754
5.1773 -2.8900 -2.1204 0.9751
5.5523 -1.3625 -2.0445 0.9760
5.8498 -0.3612 -2.0959 0.9754
5.9579 0.7022 -2.1453 0.9748
5.9350 1.2452 -2.1686 0.9746
5.8587 1.7886 -2.1906 0.9743
5.5432 2.8527 -2.2294 0.9739
5.0140 3.8455 -2.2597 0.9735
4.0479 4.4550 -2.1526 0.9748
2.9542 4.7270 -1.9934 0.9766
0.6156 5.5174 -1.9853 0.9767
0.0587 2.7147 -0.9710 0.9885
-0.1905 2.8021 -1.0044 0.9881
-1.8791 5.3746 -2.0361 0.9761
-2.4745 5.4554 -2.1422 0.9749
-2.9185 5.1530 -2.1178 0.9752
-3.3273 4.8136 -2.0926 0.9754
-3.6983 4.4418 -2.0669 0.9757
-4.5666 3.1782 -1.9896 0.9766
-2.8133 1.2870 -1.1063 0.9869
-5.0525 1.7847 -1.9162 0.9775
-5.5279 1.4118 -2.0403 0.9761
-5.5674 0.9017 -2.0169 0.9763
-5.5640 0.3961 -1.9948 0.9766
-5.4345 -0.5887 -1.9548 0.9770
-5.1521 -1.5201 -1.9210 0.9774
-4.7314 -2.3789 -1.8938 0.9778
-4.4738 -2.7761 -1.8828 0.9779
-2.3883 -4.6046 -1.8549 0.9782
-1.9691 -4.8042 -1.8567 0.9782
-1.5348 -4.9705 -1.8603 0.9781
-1.0877 -5.1027 -1.8657 0.9781
-0.6297 -5.1996 -1.8730 0.9780
-0.1633 -5.2604 -1.8821 0.9779
0.3093 -5.2841 -1.8929 0.9778
0.7855 -5.2702 -1.9055 0.9776
2.2094 -4.9954 -1.9533 0.9771
3.5646 -4.3642 -2.0151 0.9763
3.9860 -4.0747 -2.0384 0.9761
4.7616 -3.3809 -2.0884 0.9755
5.1084 -2.9789 -2.1147 0.9752
5.4052 -2.5344 -2.1349 0.9750
5.2903 -1.9248 -2.0132 0.9764
5.8271 -0.4700 -2.0906 0.9755
5.9163 0.0533 -2.1158 0.9752
5.9561 0.5886 -2.1403 0.9749
5.8792 1.6746 -2.1861 0.9744
5.5865 2.7433 -2.2257 0.9739
5.3592 3.2560 -2.2425 0.9737
5.0793 3.7460 -2.2569 0.9735
4.7492 4.2071 -2.2689 0.9734
3.4421 4.3727 -1.9901 0.9766
3.0421 4.6699 -1.9931 0.9766
2.1274 5.0545 -1.9611 0.9770
0.7729 3.4660 -1.2699 0.9850
0.7169 5.4866 -1.9787 0.9768
0.1117 2.7599 -0.9878 0.9883
-0.1339 2.7269 -0.9763 0.9885
-0.8301 5.9527 -2.1493 0.9748
-1.3859 5.9716 -2.1922 0.9743
-1.7744 5.3989 -2.0323 0.9761
-2.8280 5.2198 -2.1230 0.9751
-3.2444 4.8878 -2.0979 0.9754
-3.6236 4.5225 -2.0724 0.9757
-4.7318 2.8193 -1.9697 0.9769
-2.7643 1.3280 -1.0967 0.9871
-5.5109 1.5184 -2.0442 0.9760
-5.4555 -0.4874 -1.9587 0.9770
-5.3404 -0.9640 -1.9406 0.9772
-5.1886 -1.4253 -1.9242 0.9774
-5.0017 -1.8688 -1.9094 0.9776
-4.7817 -2.2925 -1.8963 0.9777
-4.2498 -3.0729 -1.8754 0.9780
-3.6082 -3.7527 -1.8617 0.9781
-3.2512 -4.0512 -1.8576 0.9782
-2.4743 -4.5585 -1.8548 0.9782
-0.7268 -5.1822 -1.8713 0.9780
0.2095 -5.2823 -1.8905 0.9778
1.6386 -5.1488 -1.9322 0.9773
2.5763 -4.8639 -1.9683 0.9769
3.4737 -4.4200 -2.0104 0.9764
3.8990 -4.1388 -2.0334 0.9761
4.6849 -3.4608 -2.0829 0.9756
5.0381 -3.0664 -2.1091 0.9753
5.3469 -2.6309 -2.1310 0.9750
5.4679 -1.5621 -2.0336 0.9761
5.6567 -1.0808 -2.0595 0.9758
5.8023 -0.5780 -2.0852 0.9755
5.9519 0.4753 -2.1352 0.9750
5.9511 1.0165 -2.1590 0.9747
5.7896 2.1013 -2.2026 0.9742
5.6275 2.6332 -2.2218 0.9740
5.4114 3.1499 -2.2391 0.9738
5.1424 3.6452 -2.2541 0.9736
4.8227 4.1129 -2.2666 0.9734
2.7054 4.8743 -1.9936 0.9766
2.2267 5.0238 -1.9651 0.9769
1.7572 5.1686 -1.9522 0.9771
0.3324 5.6032 -2.0073 0.9764
-0.7119 5.9174 -2.1314 0.9750
-1.2758 6.0086 -2.1966 0.9742
-1.7034 5.5316 -2.0698 0.9757
-2.2781 5.5705 -2.1522 0.9748
-3.5471 4.6018 -2.0778 0.9756
-3.8951 4.2134 -2.0520 0.9759
-4.2024 3.7999 -2.0261 0.9762
-4.4677 3.3658 -2.0003 0.9765
-4.6904 2.9156 -1.9750 0.9768
-2.7496 1.3852 -1.1010 0.9870
-5.0074 1.9836 -1.9261 0.9774
-5.5561 1.1158 -2.0266 0.9762
-5.3678 -0.8650 -1.9443 0.9772
-5.2235 -1.3297 -1.9275 0.9774
-5.0438 -1.7771 -1.9124 0.9775
-4.5858 -2.6119 -1.8872 0.9778
-4.0087 -3.3541 -1.8691 0.9780
-3.6804 -3.6864 -1.8628 0.9781
-2.9538 -4.2661 -1.8556 0.9782
-2.5596 -4.5110 -1.8547 0.9782
-2.1473 -4.7242 -1.8557 0.9782
-1.7191 -4.9047 -1.8586 0.9782
-0.8234 -5.1632 -1.8697 0.9780
0.1100 -5.2787 -1.8881 0.9778
1.0621 -5.2445 -1.9135 0.9775
1.5388 -5.1695 -1.9288 0.9773
3.3820 -4.4741 -2.0057 0.9765
4.6070 -3.5391 -2.0775 0.9756
4.9663 -3.1522 -2.1035 0.9753
5.2869 -2.7261 -2.1272 0.9750
5.4230 -1.6602 -2.0281 0.9762
5.8847 -0.1684 -2.1053 0.9753
5.6661 2.5225 -2.2180 0.9740
5.4612 3.0429 -2.2357 0.9738
4.8940 4.0171 -2.2642 0.9735
4.4145 4.3393 -2.2136 0.9740
2.7967 4.8226 -1.9936 0.9766
2.3264 4.9930 -1.9698 0.9769
0.9470 3.6028 -1.3321 0.9843
-0.0291 2.5481 -0.9113 0.9892
-0.5957 5.8826 -2.1144 0.9752
-1.1648 6.0434 -2.2009 0.9742
-2.1002 5.4245 -2.0802 0.9756
-4.1413 3.8887 -2.0315 0.9762
-4.4155 3.4585 -2.0057 0.9765
-4.9821 2.0829 -1.9311 0.9773
-5.5476 1.2231 -2.0315 0.9762
-5.5711 0.7142 -2.0086 0.9764
-5.5522 0.2112 -1.9869 0.9767
-5.2568 -1.2334 -1.9309 0.9773
-5.0844 -1.6846 -1.9154 0.9775
-4.8781 -2.1169 -1.9016 0.9777
-4.6398 -2.5283 -1.8896 0.9778
-4.3712 -2.9168 -1.8792 0.9779
-4.0745 -3.2808 -1.8707 0.9780
-3.7515 -3.6188 -1.8640 0.9781
-3.4040 -3.9292 -1.8591 0.9782
-1.8104 -4.8695 -1.8578 0.9782
-0.9197 -5.1426 -1.8682 0.9781
0.4848 -5.2834 -1.8973 0.9777
0.9618 -5.2553 -1.9105 0.9776
1.4387 -5.1885 -1.9255 0.9774
2.3817 -4.9370 -1.9602 0.9770
2.8416 -4.7517 -1.9799 0.9768
4.1364 -3.9580 -2.0473 0.9760
4.5279 -3.6158 -2.0722 0.9757
5.7465 -0.7917 -2.0744 0.9757
5.8656 -0.2784 -2.1000 0.9754
5.9369 0.2499 -2.1250 0.9751
5.9578 0.7883 -2.1491 0.9748
5.9265 1.3318 -2.1722 0.9745
5.7023 2.4111 -2.2140 0.9740
5.2618 3.4400 -2.2481 0.9736
4.9631 3.9200 -2.2617 0.9735
3.2981 4.4873 -1.9915 0.9766
2.4266 4.9619 -1.9752 0.9768
1.9371 5.0640 -1.9389 0.9772
1.4866 5.2517 -1.9518 0.9771
-1.0426 6.0162 -2.1835 0.9744
-1.5767 5.9012 -2.1843 0.9744
-2.5474 5.4099 -2.1384 0.9749
-2.9860 5.1013 -2.1138 0.9752
-3.7537 4.3800 -2.0628 0.9758
4.5171 -3.0811 -2.0954 0.9768
4.8277 -2.6948 -2.1188 0.9766
4.7449 -2.1168 -1.9911 0.9780
5.1673 -1.2681 -2.0389 0.9775
5.4346 -0.3355 -2.0866 0.9769
5.5034 0.1532 -2.1098 0.9767
5.5258 0.6513 -2.1323 0.9764
5.5002 1.1540 -2.1537 0.9762
5.4255 1.6563 -2.1739 0.9760
5.3009 2.1529 -2.1925 0.9758
4.9032 3.1068 -2.2244 0.9754
4.6324 3.5529 -2.2372 0.9753
3.9581 4.3562 -2.2556 0.9751
1.5590 5.2224 -2.0886 0.9769
0.7465 3.6715 -1.4358 0.9841
0.6148 5.5104 -2.1248 0.9765
-0.8956 5.6446 -2.1902 0.9758
-1.3845 5.4942 -2.1713 0.9760
-2.2953 5.0603 -2.1294 0.9765
-2.8096 1.2852 -1.1840 0.9869
-5.1644 1.3190 -2.0426 0.9774
-5.2123 0.3711 -2.0025 0.9779
-5.1737 -0.0953 -1.9830 0.9781
-4.9849 -0.9970 -1.9481 0.9785
-4.8378 -1.4273 -1.9329 0.9786
-4.6578 -1.8409 -1.9193 0.9788
-4.2059 -2.6098 -1.8969 0.9790
-3.9377 -2.9616 -1.8882 0.9791
-3.3257 -3.5918 -1.8759 0.9792
-1.8528 -4.5202 -1.8721 0.9793
-1.4440 -4.6763 -1.8755 0.9793
-1.0231 -4.7998 -1.8807 0.9792
-0.5922 -4.8898 -1.8875 0.9791
-0.1535 -4.9455 -1.8961 0.9790
2.0725 -4.6858 -1.9635 0.9783
3.7288 -3.8119 -2.0435 0.9774
4.1001 -3.5022 -2.0664 0.9772
4.7674 -2.7801 -2.1149 0.9766
4.6924 -2.2002 -1.9861 0.9780
5.1298 -1.3617 -2.0339 0.9775
5.2927 -0.9083 -2.0579 0.9773
5.4927 0.0495 -2.1050 0.9767
5.5250 0.5460 -2.1276 0.9765
5.5097 1.0482 -2.1493 0.9763
4.9542 3.0100 -2.2215 0.9755
4.6932 3.4612 -2.2347 0.9753
4.3865 3.8857 -2.2457 0.9752
4.0368 4.2783 -2.2541 0.9751
3.3913 4.3082 -2.1011 0.9768
2.9057 4.4605 -2.0400 0.9775
2.1248 5.0482 -2.0989 0.9768
0.7160 5.4797 -2.1178 0.9766
-0.1333 2.7158 -1.0420 0.9884
-0.7907 5.6702 -2.1939 0.9758
-1.7560 5.3431 -2.1553 0.9762
-3.0139 4.5406 -2.0885 0.9769
-3.3691 4.2048 -2.0648 0.9772
-3.6881 3.8418 -2.0408 0.9774
-3.9694 3.4557 -2.0168 0.9777
-4.2118 3.0505 -1.9929 0.9780
-2.7644 1.3280 -1.1753 0.9869
-4.7017 1.7609 -1.9240 0.9787
-5.1471 1.4182 -2.0460 0.9774
-5.2155 0.4701 -2.0068 0.9778
-4.6983 -1.7554 -1.9220 0.9787
-3.9963 -2.8896 -1.8899 0.9791
-3.3945 -3.5304 -1.8768 0.9792
-3.0590 -3.8117 -1.8729 0.9793
-2.7029 -4.0650 -1.8707 0.9793
-1.5310 -4.6461 -1.8747 0.9793
-0.6835 -4.8737 -1.8860 0.9791
0.6438 -4.9572 -1.9156 0.9788
1.0917 -4.9134 -1.9288 0.9787
1.5381 -4.8329 -1.9436 0.9785
1.9803 -4.7152 -1.9599 0.9783
2.4155 -4.5603 -1.9776 0.9781
3.2525 -4.1386 -2.0172 0.9777
4.7026 -2.8622 -2.1097 0.9767
2.3674 -0.9122 -0.9723 0.9892
5.3924 -0.5372 -2.0767 0.9771
5.4800 -0.0537 -2.1001 0.9768
5.5169 0.9424 -2.1448 0.9763
5.3593 1.9452 -2.1849 0.9759
5.0030 2.9122 -2.2184 0.9755
4.4546 3.7990 -2.2436 0.9752
4.1137 4.1987 -2.2526 0.9751
3.0055 4.4292 -2.0512 0.9773
2.6964 4.8581 -2.1292 0.9765
1.7550 5.1622 -2.0894 0.9769
0.8772 3.6123 -1.4245 0.9842
0.8165 5.4492 -2.1115 0.9767
-0.0770 2.5455 -0.9759 0.9892
-1.6585 5.3860 -2.1597 0.9761
-2.1124 5.1653 -2.1386 0.9764
-2.5390 4.9044 -2.1164 0.9766
-3.6241 3.9202 -2.0459 0.9774
-3.9134 3.5385 -2.0219 0.9777
-4.3754 2.7198 -1.9743 0.9782
-2.7530 1.3869 -1.1813 0.9869
-5.1279 1.5173 -2.0493 0.9774
-5.1997 1.0442 -2.0324 0.9775
-5.1340 -0.3614 -1.9723 0.9782
-4.5390 -2.0721 -1.9121 0.9789
-4.0537 -2.8165 -1.8916 0.9791
-3.7703 -3.1546 -1.8839 0.9792
-3.1313 -3.7548 -1.8736 0.9793
-2.0205 -4.4452 -1.8712 0.9793
-0.7744 -4.8561 -1.8845 0.9792
0.5496 -4.9618 -1.9131 0.9788
0.9975 -4.9257 -1.9259 0.9787
1.8878 -4.7431 -1.9563 0.9784
3.1672 -4.1899 -2.0128 0.9778
3.5665 -3.9314 -2.0341 0.9775
3.9467 -3.6367 -2.0566 0.9773
4.6364 -2.9428 -2.1044 0.9768
2.3395 -0.9523 -0.9680 0.9892
5.3684 -0.6370 -2.0717 0.9771
5.4653 -0.1564 -2.0953 0.9769
5.5220 0.8367 -2.1403 0.9764
5.3853 1.8407 -2.1810 0.9759
5.0497 2.8136 -2.2153 0.9755
4.8087 3.2745 -2.2294 0.9754
4.1888 4.1174 -2.2509 0.9752
3.8158 4.4892 -2.2578 0.9751
3.1065 4.3976 -2.0633 0.9772
0.9545 3.6314 -1.4389 0.9840
0.9165 5.4188 -2.1061 0.9767
0.4353 5.5648 -2.1390 0.9764
-0.0292 2.5542 -0.9789 0.9891
-0.5787 5.7149 -2.2012 0.9757
-1.5600 5.4270 -2.1639 0.9761
-2.0191 5.2151 -2.1431 0.9763
-3.5585 3.9975 -2.0509 0.9773
-3.8558 3.6206 -2.0269 0.9776
-4.1147 3.2229 -2.0029 0.9779
-4.3343 2.8086 -1.9792 0.9781
-2.7846 1.4691 -1.2065 0.9866
-4.6545 1.9459 -1.9333 0.9786
-4.7553 1.5049 -1.9114 0.9789
-5.1905 1.1444 -2.0368 0.9775
-5.2025 0.1979 -1.9951 0.9779
-5.1498 -0.2653 -1.9761 0.9782
-4.9345 -1.1577 -1.9423 0.9785
-4.1100 -2.7424 -1.8935 0.9791
-3.8320 -3.0856 -1.8854 0.9791
-3.2026 -3.6967 -1.8744 0.9793
-2.8550 -3.9620 -1.8714 0.9793
-2.4879 -4.1987 -1.8703 0.9793
-2.1034 -4.4056 -1.8708 0.9793
-1.7033 -4.5816 -1.8732 0.9793
-0.8650 -4.8370 -1.8830 0.9792
-0.4310 -4.9144 -1.8905 0.9791
0.0100 -4.9573 -1.8997 0.9790
0.4556 -4.9648 -1.9106 0.9789
1.3508 -4.8712 -1.9372 0.9786
1.7951 -4.7692 -1.9528 0.9784
2.2336 -4.6300 -1.9700 0.9782
2.6633 -4.4534 -1.9885 0.9780
3.0811 -4.2396 -2.0084 0.9778
3.8685 -3.7016 -2.0518 0.9773
4.2313 -3.3790 -2.0751 0.9771
2.3556 -1.0110 -0.9823 0.9891
5.0072 -1.6366 -2.0187 0.9777
5.3426 -0.7361 -2.0667 0.9772
5.4486 -0.2586 -2.0903 0.9769
5.5250 0.7311 -2.1357 0.9764
5.4917 1.2341 -2.1570 0.9762
5.4090 1.7359 -2.1769 0.9760
4.8633 3.1794 -2.2266 0.9754
4.5851 3.6214 -2.2391 0.9753
4.2621 4.0347 -2.2491 0.9752
3.8974 4.4142 -2.2566 0.9751
2.7328 4.5145 -2.0223 0.9776
2.4235 4.9557 -2.1140 0.9766
1.9347 5.0577 -2.0752 0.9771
1.0160 5.3885 -2.1013 0.9768
0.5378 5.5338 -2.1306 0.9765
0.0198 2.6850 -1.0290 0.9886
-0.4718 5.7339 -2.2048 0.9757
-2.7723 4.7364 -2.1031 0.9768
-3.4912 4.0737 -2.0560 0.9773
3.5736 -3.5183 -2.0525 0.9786
4.5172 -2.5215 -2.1173 0.9779
4.9672 -0.7566 -2.0564 0.9785
5.0686 -0.3129 -2.0784 0.9783
5.1289 0.1428 -2.0999 0.9781
5.1461 0.6065 -2.1207 0.9779
4.5528 2.8847 -2.2059 0.9770
4.0049 3.6845 -2.2272 0.9768
3.6715 4.0408 -2.2345 0.9767
2.8032 4.4855 -2.1648 0.9774
2.4466 4.8275 -2.2150 0.9769
1.5570 5.2158 -2.2278 0.9767
1.0838 5.3301 -2.2261 0.9768
0.6004 5.3816 -2.2162 0.9769
-1.2877 5.1102 -2.1569 0.9775
-2.1377 4.7130 -2.1181 0.9779
-2.5252 4.4586 -2.0971 0.9781
-3.9837 2.7726 -1.9865 0.9792
-4.1690 2.3789 -1.9645 0.9795
-2.7597 1.2624 -1.2420 0.9870
-4.4285 1.5642 -1.9222 0.9799
-1.9523 0.1390 -0.8011 0.9916
-1.9568 -0.2120 -0.8056 0.9915
-4.6914 -0.9383 -1.9581 0.9795
-4.5550 -1.3439 -1.9437 0.9797
-4.1899 -2.1066 -1.9194 0.9799
-3.9644 -2.4600 -1.9095 0.9800
-3.4361 -3.1020 -1.8946 0.9802
-2.8164 -3.6479 -1.8862 0.9803
-2.4768 -3.8815 -1.8845 0.9803
-1.7477 -4.2639 -1.8860 0.9803
0.2739 -4.6797 -1.9185 0.9799
1.1165 -4.6133 -1.9426 0.9797
2.3559 -4.2524 -1.9896 0.9792
2.7516 -4.0618 -2.0079 0.9790
3.4992 -3.5771 -2.0480 0.9786
4.1677 -2.9592 -2.0920 0.9782
4.4619 -2.6019 -2.1140 0.9779
4.3906 -2.0587 -1.9847 0.9793
4.7924 -1.2721 -2.0293 0.9788
4.9408 -0.8480 -2.0517 0.9786
5.0506 -0.4073 -2.0738 0.9783
5.1197 0.0462 -2.0955 0.9781
5.1461 0.5086 -2.1164 0.9779
5.0650 1.4427 -2.1554 0.9775
4.9558 1.9050 -2.1730 0.9773
4.8008 2.3575 -2.1890 0.9771
4.3563 3.2128 -2.2154 0.9769
4.0701 3.6055 -2.2254 0.9768
3.7447 3.9687 -2.2332 0.9767
1.6549 5.1858 -2.2279 0.9767
0.1105 2.7311 -1.1187 0.9883
-0.1254 2.5534 -1.0463 0.9890
-0.7349 5.2701 -2.1778 0.9773
-2.8108 4.2345 -2.0801 0.9783
-3.1444 3.9244 -2.0581 0.9785
-3.4448 3.5884 -2.0358 0.9787
-3.7104 3.2302 -2.0134 0.9790
-3.9401 2.8537 -1.9911 0.9792
-2.7259 1.3095 -1.2377 0.9870
-2.1707 -0.3918 -0.9028 0.9905
-4.5863 -1.2598 -1.9466 0.9797
-4.4251 -1.6534 -1.9334 0.9798
-4.2338 -2.0298 -1.9216 0.9799
-4.0141 -2.3874 -1.9115 0.9800
-3.7676 -2.7243 -1.9029 0.9801
-3.4962 -3.0389 -1.8959 0.9802
-3.2015 -3.3297 -1.8905 0.9802
-1.4441 -4.3823 -1.8884 0.9803
-1.0491 -4.5046 -1.8930 0.9802
0.6065 -4.6699 -1.9273 0.9799
1.0280 -4.6268 -1.9398 0.9797
1.4477 -4.5489 -1.9538 0.9796
1.8631 -4.4360 -1.9692 0.9794
2.6694 -4.1048 -2.0040 0.9791
3.7740 -3.3485 -2.0650 0.9784
2.3685 -0.9126 -1.0388 0.9891
5.1087 -0.0501 -2.0910 0.9782
4.9826 1.8084 -2.1694 0.9774
4.6463 2.7046 -2.2003 0.9770
3.8162 3.8950 -2.2318 0.9767
3.0015 4.4234 -2.1878 0.9772
2.6269 4.7329 -2.2154 0.9769
0.8738 3.5984 -1.5155 0.9841
0.8041 5.3659 -2.2207 0.9768
0.3197 5.3891 -2.2095 0.9769
-1.0984 5.1730 -2.1644 0.9774
-2.3657 4.5697 -2.1060 0.9780
-3.3845 3.6610 -2.0405 0.9787
-3.6575 3.3071 -2.0181 0.9789
-3.8948 2.9342 -1.9958 0.9791
-4.0956 2.5459 -1.9737 0.9794
-2.7109 1.3657 -1.2423 0.9870
-1.9567 0.2135 -0.8056 0.9915
-1.9520 -0.1374 -0.8009 0.9916
-2.0466 -0.3298 -0.8484 0.9911
-4.6163 -1.1751 -1.9496 0.9796
-4.4615 -1.5720 -1.9360 0.9798
-4.0625 -2.3139 -1.9135 0.9800
-3.8216 -2.6552 -1.9045 0.9801
-3.5552 -2.9746 -1.8972 0.9802
-3.2653 -3.2706 -1.8915 0.9802
-2.9535 -3.5417 -1.8874 0.9803
-2.2720 -4.0042 -1.8842 0.9803
-1.5256 -4.3526 -1.8877 0.9803
-1.1330 -4.4815 -1.8919 0.9802
-0.3193 -4.6441 -1.9052 0.9801
0.9394 -4.6387 -1.9371 0.9798
1.3598 -4.5682 -1.9507 0.9796
1.7762 -4.4627 -1.9658 0.9795
2.5867 -4.1462 -2.0001 0.9791
2.9749 -3.9355 -2.0191 0.9789
3.3477 -3.6903 -2.0392 0.9787
3.7022 -3.4114 -2.0604 0.9785
4.0350 -3.0997 -2.0824 0.9782
4.3429 -2.7565 -2.1053 0.9780
4.6108 -2.3775 -2.1232 0.9778
4.8830 -1.0285 -2.0423 0.9787
5.0093 -0.5944 -2.0646 0.9784
5.0958 -0.1458 -2.0864 0.9782
5.1404 0.3133 -2.1077 0.9780
5.0972 1.2466 -2.1476 0.9776
4.6902 2.6132 -2.1974 0.9771
4.4642 3.0399 -2.2105 0.9769
4.1954 3.4437 -2.2215 0.9768
3.8861 3.8199 -2.2302 0.9767
3.5077 4.1267 -2.2167 0.9769
3.1023 4.3918 -2.2007 0.9770
2.3123 4.9630 -2.2409 0.9766
-0.5377 5.3103 -2.1845 0.9772
-1.0026 5.2015 -2.1680 0.9774
-1.4513 5.0489 -2.1501 0.9776
-1.8797 4.8551 -2.1308 0.9777
-3.3226 3.7326 -2.0452 0.9786
-3.6030 3.3832 -2.0228 0.9789
-3.8479 3.0140 -2.0005 0.9791
-4.0565 2.6286 -1.9783 0.9793
-2.8841 1.2058 -1.2794 0.9866
-4.4603 1.4115 -1.9147 0.9800
-1.9517 0.2502 -0.8053 0.9915
-1.9326 0.0735 -0.7915 0.9917
-4.6448 -1.0898 -1.9526 0.9796
-4.1098 -2.2395 -1.9156 0.9800
-3.6132 -2.9094 -1.8986 0.9801
-3.3281 -3.2104 -1.8926 0.9802
-2.6931 -3.7374 -1.8854 0.9803
-2.3469 -3.9608 -1.8843 0.9803
-1.9842 -4.1559 -1.8848 0.9803
-1.6067 -4.3216 -1.8870 0.9803
-0.8157 -4.5611 -1.8964 0.9802
0.0094 -4.6722 -1.9122 0.9800
0.8508 -4.6491 -1.9344 0.9798
2.1007 -4.3545 -1.9787 0.9793
2.5034 -4.1861 -1.9962 0.9791
4.2804 -2.8312 -2.1004 0.9781
4.8515 -1.1176 -2.0376 0.9787
5.0810 -0.2411 -2.0819 0.9783
5.1346 0.2161 -2.1033 0.9780
5.1102 1.1484 -2.1436 0.9776
5.0300 1.6142 -2.1621 0.9774
4.7321 2.5211 -2.1944 0.9771
4.5154 2.9520 -2.2079 0.9770
2.4058 4.9195 -2.2413 0.9766
1.9322 5.0513 -2.2135 0.9769
1.0326 3.6479 -1.5516 0.9837
1.0072 5.3416 -2.2247 0.9768
0.5233 5.3853 -2.2145 0.9769
-0.9060 5.2281 -2.1716 0.9773
-2.5843 4.4150 -2.0938 0.9781
3.0238 -3.5631 -2.0367 0.9798
3.3623 -3.3102 -2.0563 0.9796
3.9769 -2.7126 -2.0980 0.9792
4.5230 -1.1100 -2.0297 0.9799
4.6514 -0.7085 -2.0506 0.9797
4.7432 -0.2929 -2.0711 0.9795
4.7964 0.1335 -2.0912 0.9793
4.8094 0.5668 -2.1105 0.9791
4.7102 1.4380 -2.1463 0.9787
4.5968 1.8670 -2.1623 0.9786
4.0063 3.0727 -2.2004 0.9782
3.7306 3.4322 -2.2093 0.9781
3.0755 4.0620 -2.2205 0.9780
2.7028 4.3248 -2.2227 0.9780
1.8875 4.7313 -2.2200 0.9780
0.5595 5.0148 -2.1991 0.9782
0.0586 2.7097 -1.1812 0.9882
-0.3384 4.9790 -2.1750 0.9785
-0.7768 4.8956 -2.1603 0.9786
-1.9981 4.4050 -2.1080 0.9791
-3.5278 2.9564 -2.0060 0.9801
-3.7386 2.6020 -1.9851 0.9803
-3.9152 2.2340 -1.9645 0.9805
-1.5070 -0.3014 -0.6698 0.9933
-3.7454 -2.3240 -1.9210 0.9810
-3.5083 -2.6386 -1.9131 0.9810
-2.3417 -3.6697 -1.8972 0.9812
-2.0043 -3.8641 -1.8971 0.9812
-1.6522 -4.0310 -1.8986 0.9812
-0.9119 -4.2782 -1.9064 0.9811
-0.5276 -4.3567 -1.9126 0.9810
-0.1367 -4.4041 -1.9203 0.9810
0.6563 -4.4034 -1.9403 0.9808
2.2205 -4.0081 -1.9970 0.9802
2.9505 -3.6122 -2.0327 0.9799
3.2927 -3.3659 -2.0521 0.9797
3.6157 -3.0885 -2.0724 0.9795
3.9167 -2.7809 -2.0935 0.9793
4.1880 -2.4422 -2.1129 0.9791
4.1207 -1.9321 -1.9835 0.9803
4.3219 -1.5725 -2.0043 0.9801
4.4916 -1.1923 -2.0253 0.9799
4.7271 -0.3812 -2.0668 0.9795
4.7885 0.0432 -2.0870 0.9793
4.7904 0.9113 -2.1252 0.9789
4.4773 2.1986 -2.1739 0.9785
4.2887 2.6056 -2.1870 0.9783
4.0595 2.9939 -2.1983 0.9782
3.1503 4.0021 -2.2197 0.9780
2.7834 4.2727 -2.2224 0.9780
2.3908 4.5051 -2.2227 0.9780
1.9768 4.6965 -2.2207 0.9780
1.5461 4.8450 -2.2164 0.9781
0.6544 5.0081 -2.2012 0.9782
0.2032 5.0220 -2.1905 0.9783
-0.6856 4.9167 -2.1635 0.9786
-1.5262 4.6439 -2.1304 0.9789
-1.9185 4.4502 -2.1120 0.9791
-2.9444 3.6748 -2.0522 0.9797
-3.2279 3.3624 -2.0313 0.9799
-3.4792 3.0289 -2.0104 0.9801
-3.8809 2.3123 -1.9688 0.9805
-2.6977 1.2960 -1.3043 0.9870
-1.5609 0.4301 -0.7056 0.9930
-1.4997 0.2719 -0.6643 0.9934
-1.5277 0.1377 -0.6685 0.9933
-1.5223 0.0006 -0.6634 0.9934
-1.5278 -0.1365 -0.6685 0.9933
-1.5604 -0.4286 -0.7052 0.9930
-3.9985 -1.9170 -1.9325 0.9808
-3.5601 -2.5742 -1.9147 0.9810
-3.3043 -2.8721 -1.9080 0.9811
-3.0262 -3.1474 -1.9029 0.9811
-2.0765 -3.8255 -1.8970 0.9812
-1.7274 -3.9983 -1.8982 0.9812
-1.3651 -4.1427 -1.9009 0.9811
-0.6090 -4.3427 -1.9112 0.9810
2.5150 -3.8674 -2.0105 0.9801
2.8764 -3.6600 -2.0287 0.9799
3.2222 -3.4203 -2.0479 0.9797
3.5495 -3.1493 -2.0681 0.9795
3.8554 -2.8480 -2.0890 0.9793
4.1352 -2.5168 -2.1097 0.9791
2.3709 -0.9135 -1.1073 0.9890
4.7092 -0.4691 -2.0625 0.9796
4.7789 -0.0468 -2.0828 0.9794
4.8090 0.3840 -2.1025 0.9792
4.7451 1.2556 -2.1392 0.9788
4.6497 1.6876 -2.1557 0.9786
4.5117 2.1111 -2.1709 0.9785
4.3317 2.5215 -2.1844 0.9784
3.2238 3.9406 -2.2189 0.9780
2.8628 4.2189 -2.2220 0.9780
2.0654 4.6598 -2.2213 0.9780
0.8717 3.5894 -1.6098 0.9840
0.2979 5.0228 -2.1929 0.9783
-0.5938 4.9359 -2.1666 0.9785
-1.0252 4.8281 -2.1511 0.9787
-1.8378 4.4939 -2.1160 0.9790
-3.4291 3.1006 -2.0148 0.9800
-3.8451 2.3901 -1.9731 0.9804
-2.6809 1.3506 -1.3082 0.9870
-4.1234 1.6334 -1.9329 0.9808
-1.5246 0.1664 -0.6684 0.9933
-1.5262 0.0293 -0.6653 0.9934
-1.5086 -0.2431 -0.6660 0.9934
-1.5481 -0.3941 -0.6962 0.9931
-1.5936 -0.5615 -0.7364 0.9927
-4.0384 -1.8436 -1.9347 0.9808
-3.3600 -2.8113 -1.9093 0.9811
-3.0865 -3.0915 -1.9039 0.9811
-2.7921 -3.3481 -1.9000 0.9812
-2.4787 -3.5799 -1.8977 0.9812
-2.1480 -3.7857 -1.8969 0.9812
-1.8019 -3.9643 -1.8978 0.9812
-0.6901 -4.3274 -1.9098 0.9811
-0.3017 -4.3880 -1.9169 0.9810
0.0920 -4.4172 -1.9255 0.9809
1.2831 -4.3106 -1.9601 0.9806
1.6754 -4.2092 -1.9744 0.9804
2.0610 -4.0746 -1.9900 0.9803
2.8016 -3.7063 -2.0248 0.9799
3.4824 -3.2089 -2.0638 0.9795
4.0798 -2.5895 -2.1060 0.9791
4.3266 -2.2309 -2.1215 0.9790
4.6897 -0.5565 -2.0582 0.9796
4.8038 0.7278 -2.1175 0.9790
4.6733 1.5973 -2.1524 0.9787
4.5442 2.0230 -2.1678 0.9785
4.1607 2.8332 -2.1938 0.9783
3.9088 3.2085 -2.2039 0.9782
3.2960 3.8776 -2.2179 0.9780
2.5587 4.4122 -2.2229 0.9780
1.7289 4.7879 -2.2185 0.9780
0.8438 4.9888 -2.2051 0.9782
-2.1353 4.3220 -2.1009 0.9792
-2.4894 4.0752 -2.0812 0.9794
-2.8159 3.7989 -2.0609 0.9796
-3.1125 3.4965 -2.0401 0.9798
-3.3775 3.1715 -2.0192 0.9800
-3.6096 2.8273 -1.9983 0.9802
-3.8078 2.4675 -1.9775 0.9804
-2.6638 1.4054 -1.3126 0.9869
-2.8062 1.1732 -1.3256 0.9868
-1.5237 0.3359 -0.6800 0.9932
-1.5158 -0.2151 -0.6672 0.9933
-4.0772 -1.7694 -1.9370 0.9808
-3.4146 -2.7495 -1.9106 0.9811
-2.8556 -3.2962 -1.9007 0.9812
-1.5189 -4.0855 -1.8996 0.9812
-1.1499 -4.2130 -1.9033 0.9811
-0.3839 -4.3779 -1.9153 0.9810
0.4054 -4.4176 -1.9334 0.9808
0.8032 -4.3891 -1.9446 0.9807
1.2001 -4.3277 -1.9573 0.9806
2.3591 -3.9449 -2.0032 0.9801
3.4144 -3.2670 -2.0595 0.9796
3.7296 -2.9783 -2.0801 0.9794
4.0216 -2.6601 -2.1014 0.9792
4.3883 -1.4343 -2.0121 0.9801
4.5458 -1.0472 -2.0330 0.9799
4.8012 0.2021 -2.0943 0.9793
4.8077 0.6362 -2.1135 0.9791
4.5749 1.9344 -2.1647 0.9786
4.2086 2.7514 -2.1914 0.9783
3.6834 3.4869 -2.2105 0.9781
2.6412 4.3631 -2.2228 0.9780
1.8194 4.7564 -2.2194 0.9780
0.9383 4.9762 -2.2069 0.9781
0.4877 5.0185 -2.1975 0.9782
-0.4089 4.9686 -2.1727 0.9785
-0.8454 4.8784 -2.1578 0.9786
-2.4172 4.1297 -2.0854 0.9793
-2.7497 3.8593 -2.0652 0.9795
3.1710 -3.1218 -2.0598 0.9806
3.4695 -2.8525 -2.0791 0.9804
4.0999 -1.4049 -2.0061 0.9811
4.3683 -0.6654 -2.0453 0.9807
4.4518 -0.2749 -2.0646 0.9805
4.4990 0.1252 -2.0833 0.9804
4.4109 1.3466 -2.1348 0.9799
3.9691 2.5149 -2.1750 0.9795
3.7458 2.8728 -2.1851 0.9794
2.8738 3.7956 -2.2037 0.9792
2.1540 4.2502 -2.2056 0.9792
0.9438 4.6413 -2.1923 0.9793
-0.7271 4.5827 -2.1478 0.9798
-2.2155 3.9117 -2.0809 0.9804
-2.5331 3.6646 -2.0621 0.9806
-3.6862 2.1034 -1.9645 0.9815
-1.3148 0.6015 -0.6693 0.9936
-1.3335 0.4710 -0.6546 0.9938
-1.3117 0.3350 -0.6267 0.9941
-1.3221 0.2141 -0.6200 0.9941
-1.3360 -0.0246 -0.6185 0.9941
-1.3244 -0.3908 -0.6392 0.9939
-3.5455 -2.2001 -1.9315 0.9818
-3.3218 -2.4984 -1.9240 0.9818
-3.0756 -2.7766 -1.9180 0.9819
-2.5221 -3.2667 -1.9103 0.9820
-2.2182 -3.4762 -1.9088 0.9820
-1.5650 -3.8183 -1.9102 0.9820
-1.2194 -3.9490 -1.9131 0.9819
-0.8636 -4.0516 -1.9175 0.9819
-0.1294 -4.1693 -1.9308 0.9818
0.6209 -4.1663 -1.9498 0.9816
1.3697 -4.0391 -1.9742 0.9814
1.7375 -3.9284 -1.9883 0.9812
2.0976 -3.7863 -2.0036 0.9811
3.1057 -3.1748 -2.0558 0.9806
3.8776 -1.8181 -1.9824 0.9813
4.0643 -1.4788 -2.0020 0.9811
4.3463 -0.7459 -2.0412 0.9808
4.4372 -0.3579 -2.0606 0.9806
4.4922 0.0405 -2.0795 0.9804
4.4889 0.8540 -2.1151 0.9801
4.3287 1.6639 -2.1466 0.9798
4.1894 2.0573 -2.1604 0.9796
3.5443 3.1397 -2.1917 0.9793
3.2594 3.4544 -2.1984 0.9793
2.2338 4.2093 -2.2058 0.9792
1.4449 4.5277 -2.2000 0.9793
0.1900 4.6968 -2.1758 0.9795
-0.6417 4.6019 -2.1508 0.9797
-1.0432 4.4951 -2.1360 0.9799
-1.4299 4.3509 -2.1199 0.9800
-2.7650 3.4509 -2.0469 0.9807
-3.4784 2.5193 -1.9880 0.9812
-3.6535 2.1768 -1.9686 0.9814
-1.3323 0.4990 -0.6585 0.9937
-1.3157 0.2386 -0.6189 0.9941
-1.3334 0.0005 -0.6172 0.9941
-1.3160 -0.2375 -0.6190 0.9941
-1.3185 -0.3622 -0.6329 0.9940
-1.3323 -0.4978 -0.6584 0.9938
-3.7839 -1.8142 -1.9424 0.9817
-3.5896 -2.1349 -1.9332 0.9818
-3.1291 -2.7198 -1.9191 0.9819
-2.8663 -2.9810 -1.9142 0.9819
-2.5838 -3.2196 -1.9109 0.9820
-1.9670 -3.6238 -1.9086 0.9820
-0.9392 -4.0324 -1.9165 0.9819
-0.2076 -4.1625 -1.9292 0.9818
0.1659 -4.1827 -1.9377 0.9817
0.9178 -4.1310 -1.9588 0.9815
1.2916 -4.0584 -1.9714 0.9814
1.6607 -3.9543 -1.9852 0.9813
2.7148 -3.4544 -2.0337 0.9808
3.8348 -1.8868 -1.9783 0.9813
2.3742 -0.9148 -1.1777 0.9888
4.4837 -0.0439 -2.0755 0.9804
4.5093 0.3601 -2.0939 0.9803
4.3530 1.5799 -2.1436 0.9798
4.2220 1.9755 -2.1576 0.9797
4.0519 2.3586 -2.1702 0.9795
3.8441 2.7249 -2.1811 0.9794
3.6000 3.0702 -2.1901 0.9794
2.6749 3.9420 -2.2051 0.9792
2.3127 4.1668 -2.2059 0.9792
-0.9599 4.5207 -2.1392 0.9798
-2.0744 4.0071 -2.0886 0.9803
-2.4027 3.7718 -2.0701 0.9805
-2.7050 3.5093 -2.0509 0.9807
-2.9792 3.2226 -2.0315 0.9808
-3.2238 2.9150 -2.0118 0.9810
-1.3296 0.5267 -0.6620 0.9937
-1.3247 0.3919 -0.6394 0.9939
-1.3083 0.2627 -0.6177 0.9941
-1.3348 0.1457 -0.6215 0.9941
-1.3360 0.0257 -0.6185 0.9941
-1.3114 -0.3338 -0.6264 0.9941
-1.3151 -0.6004 -0.6692 0.9936
-3.6325 -2.0689 -1.9350 0.9817
-3.1818 -2.6622 -1.9203 0.9819
-2.9232 -2.9280 -1.9151 0.9819
-2.6447 -3.1714 -1.9114 0.9820
-2.3480 -3.3911 -1.9092 0.9820
-2.0348 -3.5861 -1.9086 0.9820
-1.7069 -3.7552 -1.9094 0.9820
-0.6535 -4.0978 -1.9208 0.9819
-0.2857 -4.1544 -1.9275 0.9818
0.0871 -4.1810 -1.9357 0.9817
0.4627 -4.1771 -1.9454 0.9816
1.2133 -4.0763 -1.9687 0.9814
1.5836 -3.9788 -1.9822 0.9813
1.9473 -3.8498 -1.9970 0.9812
3.8412 -2.4381 -2.1060 0.9801
3.7995 -1.9591 -1.9788 0.9813
2.3365 -0.9511 -1.1677 0.9889
4.1591 -1.2733 -2.0134 0.9810
4.5070 0.2747 -2.0901 0.9803
4.5024 0.6822 -2.1079 0.9801
4.4588 1.0905 -2.1247 0.9800
4.0909 2.2793 -2.1677 0.9796
3.8908 2.6495 -2.1789 0.9795
3.6542 2.9995 -2.1884 0.9794
3.3831 3.3255 -2.1959 0.9793
2.7481 3.8902 -2.2047 0.9792
2.3907 4.1226 -2.2059 0.9792
1.6156 4.4741 -2.2019 0.9793
0.3673 4.6958 -2.1803 0.9795
-0.8760 4.5447 -2.1424 0.9798
-1.2694 4.4159 -2.1268 0.9800
-1.6459 4.2512 -2.1101 0.9801
-2.0023 4.0528 -2.0925 0.9803
-2.6437 3.5666 -2.0550 0.9806
-2.9240 3.2847 -2.0356 0.9808
-3.1749 2.9812 -2.0159 0.9810
-3.5838 2.3223 -1.9767 0.9814
-1.3255 0.5541 -0.6650 0.9937
-1.3000 0.2866 -0.6162 0.9941
-1.3378 0.0509 -0.6197 0.9941
-1.3384 -0.0689 -0.6203 0.9941
-3.4656 -2.3125 -1.9285 0.9818
-2.9793 -2.8739 -1.9161 0.9819
-2.7048 -3.1221 -1.9121 0.9820
-2.1019 -3.5472 -1.9086 0.9820
-1.4387 -3.8698 -1.9111 0.9820
-1.0891 -3.9902 -1.9146 0.9819
-0.7300 -4.0822 -1.9196 0.9819
-0.3635 -4.1450 -1.9260 0.9818
0.0084 -4.1779 -1.9339 0.9818
0.3836 -4.1805 -1.9432 0.9817
0.7599 -4.1522 -1.9539 0.9816
1.1349 -4.0927 -1.9660 0.9815
1.8715 -3.8796 -1.9938 0.9812
2.2282 -3.7259 -2.0095 0.9810
2.9051 -3.3260 -2.0441 0.9807
3.7881 -2.5056 -2.1023 0.9802
4.0249 -2.1721 -2.1170 0.9800
2.3380 -1.0034 -1.1777 0.9888
4.3839 -0.6040 -2.0484 0.9807
4.4712 1.0048 -2.1213 0.9800
4.3964 1.4109 -2.1372 0.9799
3.4428 3.2591 -2.1944 0.9793
3.1462 3.5633 -2.2003 0.9793
2.8201 3.8369 -2.2042 0.9792
2.0931 4.2800 -2.2054 0.9792
1.2933 4.5688 -2.1979 0.9793
0.8771 4.6517 -2.1911 0.9794
0.0210 2.8418 -1.3155 0.9876
-0.3826 4.6493 -2.1594 0.9796
-1.1879 4.4460 -2.1302 0.9799
-1.9292 4.0972 -2.0963 0.9802
-2.5812 3.6228 -2.0590 0.9806
3.2774 -2.6945 -2.0812 0.9813
3.8643 -1.3242 -2.0037 0.9820
4.1127 -0.6264 -2.0406 0.9816
4.2312 0.1178 -2.0763 0.9813
4.2380 0.4995 -2.0932 0.9812
4.0389 1.6404 -2.1383 0.9808
3.8989 2.0065 -2.1509 0.9807
3.7230 2.3590 -2.1619 0.9806
2.9953 3.2966 -2.1848 0.9804
2.6934 3.5574 -2.1887 0.9803
2.3668 3.7871 -2.1906 0.9803
2.0187 3.9832 -2.1905 0.9803
0.4906 4.3970 -2.1702 0.9805
0.0620 2.8676 -1.4069 0.9873
-2.0837 3.6791 -2.0740 0.9813
-2.9070 2.9163 -2.0198 0.9818
-3.1270 2.6206 -2.0013 0.9820
-3.4785 1.9849 -1.9646 0.9823
-1.1578 0.2957 -0.5862 0.9947
-1.1962 -0.0220 -0.5869 0.9947
-1.1920 -0.1291 -0.5881 0.9947
-1.1514 -0.4551 -0.6073 0.9945
-3.3624 -2.0864 -1.9411 0.9825
-1.8016 -3.4734 -1.9194 0.9827
-1.4851 -3.6232 -1.9207 0.9827
-0.8193 -3.8437 -1.9278 0.9826
-0.4739 -3.9130 -1.9334 0.9826
-0.1227 -3.9540 -1.9404 0.9825
0.2321 -3.9662 -1.9488 0.9825
2.3156 -3.4183 -2.0252 0.9818
2.6331 -3.2237 -2.0418 0.9816
2.9355 -3.0008 -2.0592 0.9815
3.4842 -2.4739 -2.0961 0.9811
3.7176 -2.1679 -2.1110 0.9810
3.6572 -1.7148 -1.9814 0.9822
2.4746 -0.9004 -1.2917 0.9883
3.9770 -1.0557 -2.0184 0.9818
4.0924 -0.7024 -2.0368 0.9817
4.1757 -0.3368 -2.0549 0.9815
4.2252 0.0381 -2.0726 0.9814
4.2395 0.4190 -2.0897 0.9812
4.0636 1.5620 -2.1355 0.9808
3.3230 2.9437 -2.1776 0.9804
2.0935 3.9449 -2.1906 0.9803
1.7312 4.1130 -2.1889 0.9803
1.3544 4.2440 -2.1852 0.9803
0.5737 4.3907 -2.1720 0.9805
-0.1230 2.5052 -1.2303 0.9889
-0.6023 4.3196 -2.1394 0.9808
-0.9796 4.2211 -2.1256 0.9809
-2.0177 3.7241 -2.0776 0.9813
-2.8571 2.9762 -2.0237 0.9818
-3.4473 2.0540 -1.9684 0.9823
-1.1587 0.3193 -0.5896 0.9947
-1.1939 0.1076 -0.5880 0.9947
-1.1940 -0.1067 -0.5880 0.9947
-1.1543 -0.4313 -0.6044 0.9945
-3.4040 -2.0245 -1.9427 0.9825
-3.1972 -2.3118 -1.9353 0.9826
-2.4517 -3.0549 -1.9214 0.9827
-1.8665 -3.4387 -1.9193 0.9827
-1.5526 -3.5938 -1.9203 0.9827
-0.8910 -3.8256 -1.9268 0.9827
0.8698 -3.9148 -1.9671 0.9823
1.9147 -3.6148 -2.0065 0.9819
2.5675 -3.2670 -2.0382 0.9817
2.8733 -3.0500 -2.0554 0.9815
3.6173 -1.7798 -1.9775 0.9822
4.2177 -0.0413 -2.0690 0.9814
4.2395 0.3386 -2.0862 0.9812
4.2254 0.7218 -2.1027 0.9811
4.0868 1.4833 -2.1326 0.9808
3.9622 1.8540 -2.1458 0.9807
3.3754 2.8786 -2.1760 0.9804
2.8236 3.4513 -2.1873 0.9803
2.5069 3.6944 -2.1900 0.9803
1.8087 4.0806 -2.1895 0.9803
0.2613 4.4056 -2.1648 0.9805
-0.0806 2.6652 -1.3080 0.9882
-0.5216 4.3357 -2.1421 0.9807
-0.9013 4.2447 -2.1286 0.9809
-1.2682 4.1184 -2.1138 0.9810
-1.9506 3.7680 -2.0813 0.9813
-2.5462 3.3034 -2.0459 0.9816
-3.0380 2.7470 -2.0091 0.9819
-3.4147 2.1226 -1.9722 0.9822
-1.1283 0.5684 -0.6197 0.9944
-1.1513 0.4561 -0.6074 0.9945
-1.1590 0.3429 -0.5929 0.9946
-1.1741 0.2358 -0.5874 0.9947
-1.1919 0.1301 -0.5881 0.9947
-1.1962 0.0230 -0.5869 0.9947
-1.1954 -0.0842 -0.5878 0.9947
-1.1833 -0.1907 -0.5879 0.9947
-1.1578 -0.2947 -0.5860 0.9947
-1.1401 -0.5204 -0.6147 0.9944
-3.2425 -2.2529 -1.9368 0.9826
-2.7734 -2.7779 -1.9255 0.9827
-2.5094 -3.0092 -1.9220 0.9827
-2.2280 -3.2179 -1.9199 0.9827
-1.6197 -3.5633 -1.9200 0.9827
-0.2709 -3.9402 -1.9373 0.9826
0.7950 -3.9257 -1.9648 0.9823
1.1495 -3.8618 -1.9765 0.9822
1.4998 -3.7681 -1.9894 0.9821
2.1782 -3.4914 -2.0186 0.9818
2.5013 -3.3090 -2.0347 0.9817
2.8104 -3.0980 -2.0517 0.9815
3.1027 -2.8590 -2.0696 0.9814
2.3360 -0.9509 -1.2372 0.9888
4.1447 -0.4918 -2.0473 0.9816
4.2314 0.6411 -2.0993 0.9811
4.1883 1.0243 -2.1150 0.9810
4.1083 1.4042 -2.1297 0.9808
3.4264 2.8125 -2.1744 0.9804
2.8869 3.3963 -2.1865 0.9803
2.2405 3.8636 -2.1908 0.9803
1.8855 4.0467 -2.1899 0.9803
1.5143 4.1935 -2.1870 0.9803
0.9617 3.6586 -1.8556 0.9833
0.7396 4.3728 -2.1754 0.9804
-0.4405 4.3502 -2.1448 0.9807
-0.8224 4.2669 -2.1315 0.9808
-2.1973 3.5970 -2.0675 0.9814
-2.7536 3.0933 -2.0315 0.9817
-3.2010 2.5072 -1.9945 0.9820
-1.1195 0.5906 -0.6209 0.9944
-1.1478 0.4798 -0.6102 0.9945
-1.1892 0.1525 -0.5881 0.9947
-1.1962 -0.0616 -0.5876 0.9947
-1.1870 -0.1684 -0.5881 0.9947
-1.1644 -0.2732 -0.5866 0.9947
-1.1579 -0.3837 -0.5984 0.9946
-1.1448 -0.4968 -0.6121 0.9945
-1.1118 -0.6058 -0.6211 0.9944
-3.2869 -2.1932 -1.9383 0.9825
-1.6862 -3.5317 -1.9197 0.9827
-1.3651 -3.6719 -1.9216 0.9827
-1.0333 -3.7858 -1.9250 0.9827
-0.6925 -3.8725 -1.9297 0.9826
-0.3448 -3.9314 -1.9359 0.9826
0.0080 -3.9619 -1.9434 0.9825
0.3637 -3.9633 -1.9523 0.9824
0.7202 -3.9354 -1.9624 0.9823
1.0753 -3.8777 -1.9739 0.9822
2.4345 -3.3498 -2.0312 0.9817
3.0428 -2.9115 -2.0658 0.9814
3.3201 -2.6513 -2.0842 0.9812
3.7959 -2.0486 -2.1158 0.9810
3.8885 -1.2709 -2.0067 0.9819
4.0233 -0.9268 -2.0252 0.9818
4.1980 -0.1992 -2.0615 0.9814
4.2357 0.5605 -2.0958 0.9811
4.2004 0.9439 -2.1118 0.9810
4.0190 1.6994 -2.1404 0.9807
3.8733 2.0636 -2.1527 0.9806
3.6918 2.4135 -2.1636 0.9805
3.2276 3.0554 -2.1801 0.9804
2.9490 3.3400 -2.1856 0.9803
2.6430 3.5960 -2.1891 0.9803
0.8223 4.3613 -2.1770 0.9804
0.0209 2.8328 -1.3896 0.9875
