ply
format ascii 1.0
element vertex 1589
property float32 x
property float32 y
property float32 z
property float32 I
end_header
6.1440 -9.4401 -1.8555 0.9554
8.0864 -8.5819 -1.9425 0.9533
9.0417 -8.0227 -1.9914 0.9522
9.9771 -7.3727 -2.0437 0.9510
10.8844 -6.6290 -2.0995 0.9496
2.3612 -0.9112 -0.4169 0.9898
12.3768 -3.5451 -2.1209 0.9491
13.0157 -2.4978 -2.1833 0.9477
11.5380 -1.1605 -1.9103 0.9541
14.0376 -0.1528 -2.3127 0.9447
14.3927 1.1318 -2.3784 0.9432
8.5079 3.0724 -1.4902 0.9640
7.2414 3.3730 -1.3160 0.9681
6.2578 3.6269 -1.1915 0.9711
5.5215 3.8972 -1.1134 0.9730
4.9309 4.1870 -1.0657 0.9741
4.3476 4.4173 -1.0210 0.9752
3.7555 4.5680 -0.9742 0.9763
3.3138 4.8569 -0.9686 0.9764
2.7182 4.8666 -0.9183 0.9777
2.2691 5.0809 -0.9167 0.9777
1.7956 5.2312 -0.9111 0.9778
0.8669 5.6616 -0.9436 0.9770
-0.0775 2.8913 -0.4765 0.9883
-0.6992 5.9936 -0.9941 0.9758
-1.2681 6.0840 -1.0238 0.9751
-1.7342 5.7102 -0.9831 0.9761
-2.6107 6.4573 -1.1474 0.9722
-6.4260 12.5392 -2.3211 0.9445
-8.8627 11.6031 -2.4053 0.9425
-11.4823 2.3711 -1.9315 0.9536
-10.6476 -1.6507 -1.7750 0.9573
-10.2789 -2.5499 -1.7447 0.9580
-9.8555 -3.4035 -1.7177 0.9586
-9.3814 -4.2106 -1.6940 0.9592
-8.8604 -4.9705 -1.6736 0.9597
-8.2955 -5.6825 -1.6565 0.9601
-7.6898 -6.3461 -1.6425 0.9604
-7.0459 -6.9607 -1.6316 0.9606
-5.6528 -8.0405 -1.6192 0.9609
-4.1328 -8.9160 -1.6189 0.9609
1.0471 -10.2192 -1.6923 0.9592
2.9314 -10.1626 -1.7424 0.9580
3.8927 -10.0309 -1.7726 0.9573
4.8627 -9.8261 -1.8061 0.9565
6.8128 -9.1837 -1.8838 0.9547
7.7835 -8.7392 -1.9279 0.9537
8.7435 -8.2080 -1.9756 0.9525
9.6860 -7.5868 -2.0269 0.9513
11.4855 -6.0636 -2.1396 0.9487
12.3228 -5.1576 -2.2007 0.9473
12.8231 -2.8361 -2.1635 0.9482
13.4080 -1.7299 -2.2271 0.9467
14.2937 0.7212 -2.3577 0.9436
11.4053 1.6046 -1.8974 0.9544
8.9292 2.9440 -1.5489 0.9626
7.6050 3.2859 -1.3648 0.9670
6.5255 3.5413 -1.2231 0.9704
5.7189 3.8007 -1.1312 0.9725
3.8814 4.4599 -0.9740 0.9763
2.9615 4.9693 -0.9530 0.9768
2.4194 5.0332 -0.9200 0.9776
0.5285 5.8142 -0.9618 0.9766
0.0035 2.7493 -0.4529 0.9889
-0.5265 5.9627 -0.9861 0.9760
-1.0860 6.0566 -1.0137 0.9754
-1.6804 6.1483 -1.0500 0.9745
-2.0579 5.5317 -0.9723 0.9764
-6.0547 12.6792 -2.3147 0.9446
-8.6113 11.9551 -2.4272 0.9420
-9.3689 10.8213 -2.3580 0.9436
-10.0029 9.6579 -2.2906 0.9452
-10.5174 8.4789 -2.2255 0.9467
-2.7256 1.4882 -0.5116 0.9875
-11.4981 2.7128 -1.9462 0.9532
-11.0418 -0.4018 -1.8202 0.9562
-9.9941 -3.1404 -1.7258 0.9584
-9.0289 -4.7370 -1.6797 0.9595
-8.4775 -5.4641 -1.6615 0.9599
-7.2521 -6.7730 -1.6347 0.9606
-2.7636 -9.4894 -1.6282 0.9607
-1.9171 -9.7556 -1.6379 0.9605
-1.0469 -9.9648 -1.6506 0.9602
-0.1550 -10.1150 -1.6665 0.9598
0.7569 -10.2042 -1.6856 0.9594
1.6865 -10.2299 -1.7080 0.9588
2.6317 -10.1894 -1.7337 0.9582
3.5897 -10.0800 -1.7627 0.9576
4.5573 -9.8985 -1.7952 0.9568
6.5067 -9.3059 -1.8706 0.9550
8.4435 -8.3844 -1.9603 0.9529
9.3923 -7.7918 -2.0104 0.9517
10.3182 -7.1072 -2.0640 0.9505
11.2126 -6.3281 -2.1210 0.9491
11.9400 -4.1578 -2.0828 0.9500
12.6229 -3.1658 -2.1439 0.9486
11.0578 2.2537 -1.8591 0.9553
7.9982 3.1925 -1.4187 0.9657
6.8439 3.4690 -1.2640 0.9694
5.9588 3.7234 -1.1575 0.9719
3.6477 4.7502 -0.9867 0.9760
3.1214 4.9183 -0.9596 0.9767
0.6875 5.7642 -0.9563 0.9767
-0.9072 6.0283 -1.0043 0.9756
-1.8672 5.4855 -0.9546 0.9768
-9.8168 10.0256 -2.3115 0.9447
-10.8038 7.6674 -2.1825 0.9477
-11.4733 4.1767 -2.0114 0.9517
-11.4534 1.9709 -1.9146 0.9540
-11.3228 0.9197 -1.8715 0.9550
-11.1196 -0.0924 -1.8319 0.9559
-10.8494 -1.0630 -1.7959 0.9568
-10.5172 -1.9902 -1.7633 0.9575
-10.1276 -2.8726 -1.7342 0.9582
-9.6849 -3.7091 -1.7085 0.9588
-8.6553 -5.2409 -1.6669 0.9598
-8.0749 -5.9349 -1.6509 0.9602
-7.4547 -6.5804 -1.6381 0.9605
-6.7972 -7.1766 -1.6284 0.9607
-6.1048 -7.7230 -1.6218 0.9609
-5.3794 -8.2189 -1.6182 0.9610
-4.6230 -8.6634 -1.6177 0.9610
-3.8375 -9.0556 -1.6202 0.9609
-1.3227 -9.9053 -1.6463 0.9603
-0.4374 -10.0743 -1.6612 0.9599
0.4685 -10.1829 -1.6793 0.9595
2.3333 -10.2094 -1.7253 0.9584
7.1746 -9.0283 -1.8998 0.9543
-8.9856 -2.7726 -1.7675 0.9624
-8.5897 -3.5173 -1.7446 0.9629
-8.1475 -4.2211 -1.7247 0.9633
-7.6623 -4.8829 -1.7078 0.9637
-5.9758 -6.6061 -1.6743 0.9644
-5.3451 -7.0900 -1.6689 0.9645
-3.9940 -7.9161 -1.6666 0.9646
-3.2777 -8.2563 -1.6697 0.9645
-2.5368 -8.5461 -1.6756 0.9644
-0.1864 -9.0989 -1.7106 0.9636
0.6328 -9.1720 -1.7281 0.9633
1.4659 -9.1863 -1.7485 0.9628
2.3103 -9.1395 -1.7719 0.9624
4.8804 -8.6100 -1.8602 0.9605
5.7368 -8.2956 -1.8958 0.9598
6.5855 -7.9081 -1.9343 0.9590
7.4210 -7.4454 -1.9759 0.9581
9.7827 -5.5878 -2.1176 0.9552
10.4959 -4.8087 -2.1700 0.9541
11.8089 -0.8538 -2.2254 0.9530
12.1307 0.2085 -2.2804 0.9518
9.4371 2.7675 -1.8485 0.9608
6.0878 3.7605 -1.3450 0.9713
4.6161 4.1482 -1.1665 0.9751
4.0338 4.3354 -1.1131 0.9762
3.6746 4.7344 -1.1265 0.9759
3.1473 4.9031 -1.0951 0.9766
2.1014 5.0841 -1.0340 0.9779
1.6327 5.2301 -1.0298 0.9779
-0.8543 5.8831 -1.1174 0.9761
-4.9939 11.4186 -2.3425 0.9505
-7.2897 9.0079 -2.1781 0.9539
-8.9929 7.7565 -2.2322 0.9528
-9.4118 6.7528 -2.1773 0.9539
-10.1755 2.7606 -1.9817 0.9580
-10.1615 1.8026 -1.9398 0.9589
-10.0753 0.8707 -1.9008 0.9597
-9.4297 -1.7341 -1.8021 0.9617
-9.0998 -2.5305 -1.7753 0.9623
-8.2912 -4.0045 -1.7307 0.9632
-6.1673 -6.4446 -1.6766 0.9643
-5.5466 -6.9430 -1.6703 0.9645
-4.2136 -7.7991 -1.6662 0.9646
-3.5054 -8.1548 -1.6684 0.9645
-2.0154 -8.7150 -1.6813 0.9642
1.2029 -9.1883 -1.7418 0.9630
2.0440 -9.1609 -1.7642 0.9625
2.8946 -9.0710 -1.7897 0.9620
6.3201 -8.0378 -1.9219 0.9592
7.1603 -7.5990 -1.9625 0.9584
7.9832 -7.0835 -2.0061 0.9575
8.7821 -6.4896 -2.0525 0.9565
2.3608 -0.9111 -0.4756 0.9898
11.2529 -2.1595 -2.1537 0.9544
11.4824 1.9455 -2.1890 0.9537
9.9222 2.6097 -1.9284 0.9591
8.5037 3.0709 -1.6994 0.9639
7.3775 3.4364 -1.5297 0.9674
4.8112 4.0853 -1.1864 0.9746
4.2110 4.2784 -1.1283 0.9759
3.6862 4.4837 -1.0910 0.9767
1.7800 5.1857 -1.0305 0.9779
1.3098 5.3224 -1.0303 0.9779
0.1867 2.9803 -0.5613 0.9879
-0.1517 5.6634 -1.0649 0.9772
-0.6800 5.8287 -1.1030 0.9764
-1.2555 6.0234 -1.1565 0.9753
-1.6681 5.4926 -1.0789 0.9769
-2.6667 6.5957 -1.3372 0.9715
-6.3887 10.1240 -2.2501 0.9524
-7.0893 9.2813 -2.1952 0.9536
-8.8409 8.0691 -2.2498 0.9525
-9.6437 6.0605 -2.1409 0.9547
-2.7336 1.3945 -0.5768 0.9876
-10.0758 4.0519 -2.0413 0.9568
-10.1739 2.1009 -1.9526 0.9586
-10.1099 1.1604 -1.9127 0.9594
-9.5222 -1.4762 -1.8112 0.9615
-9.2091 -2.2845 -1.7834 0.9621
-8.8440 -3.0542 -1.7587 0.9626
-7.9720 -4.4722 -1.7181 0.9635
-6.9317 -5.7205 -1.6893 0.9641
-6.3555 -6.2786 -1.6792 0.9643
-4.4306 -7.6773 -1.6661 0.9646
-0.6927 -9.0238 -1.7011 0.9638
0.1164 -9.1328 -1.7168 0.9635
1.7787 -9.1761 -1.7569 0.9627
2.6266 -9.1061 -1.7814 0.9622
4.3407 -8.7713 -1.8395 0.9610
5.1994 -8.5015 -1.8731 0.9603
6.0535 -8.1602 -1.9098 0.9595
8.5342 -6.6847 -2.0376 0.9568
2.3703 -0.9921 -0.4830 0.9896
10.5679 -3.3506 -2.0838 0.9559
11.1000 -2.4550 -2.1368 0.9548
11.9394 -0.4653 -2.2459 0.9525
10.4514 2.4375 -2.0172 0.9573
7.7064 3.3297 -1.5779 0.9664
6.6749 3.6223 -1.4274 0.9696
5.7721 3.8361 -1.3027 0.9722
5.0152 4.0219 -1.2083 0.9742
3.8427 4.4155 -1.1002 0.9765
3.4750 4.7983 -1.1136 0.9762
2.9580 4.9635 -1.0860 0.9768
1.4579 5.2809 -1.0297 0.9779
0.9843 5.4088 -1.0333 0.9779
0.0035 2.7026 -0.5080 0.9891
-0.5100 5.7755 -1.0898 0.9767
-1.6940 6.1981 -1.2077 0.9742
-2.0724 5.5707 -1.1172 0.9761
-5.3241 11.1493 -2.3223 0.9510
-6.8796 9.5509 -2.2124 0.9532
-7.5146 8.6796 -2.1579 0.9543
-9.1600 7.3846 -2.2115 0.9532
-9.5430 6.3776 -2.1574 0.9544
-10.0311 4.3648 -2.0562 0.9565
-10.1451 3.3739 -2.0096 0.9574
-10.1377 1.4528 -1.9249 0.9592
-10.0258 0.5317 -1.8871 0.9600
-9.6093 -1.2146 -1.8205 0.9613
-9.3132 -2.0347 -1.7918 0.9619
-8.9640 -2.8167 -1.7661 0.9625
-8.5654 -3.5591 -1.7434 0.9630
-8.1207 -4.2605 -1.7237 0.9634
-7.6330 -4.9198 -1.7069 0.9637
-6.5403 -6.1081 -1.6821 0.9642
-5.9403 -6.6352 -1.6739 0.9644
-5.3077 -7.1165 -1.6687 0.9645
-4.6447 -7.5508 -1.6663 0.9646
-0.1395 -9.1047 -1.7115 0.9636
0.6805 -9.1745 -1.7292 0.9632
1.5143 -9.1853 -1.7498 0.9628
2.3594 -9.1349 -1.7734 0.9623
3.2126 -9.0212 -1.7999 0.9618
5.7861 -8.2752 -1.8979 0.9597
6.6341 -7.8835 -1.9366 0.9589
7.4687 -7.4164 -1.9784 0.9581
9.0715 -6.2485 -2.0704 0.9562
10.5355 -4.7613 -2.1731 0.9540
10.9401 -2.7438 -2.1200 0.9551
11.4243 -1.8012 -2.1739 0.9540
11.0320 2.2485 -2.1162 0.9552
9.3523 2.7951 -1.8347 0.9611
8.0570 3.2160 -1.6306 0.9653
5.2402 3.9659 -1.2352 0.9736
4.0017 4.3456 -1.1104 0.9762
3.6433 4.7445 -1.1244 0.9759
2.5441 4.9330 -1.0433 0.9777
1.6056 5.2381 -1.0298 0.9779
-1.4884 6.1157 -1.1831 0.9747
-1.8564 5.4538 -1.0828 0.9768
-5.0460 11.3775 -2.3394 0.9506
-6.6604 9.8161 -2.2297 0.9529
-7.3255 8.9572 -2.1749 0.9540
-7.8950 8.0629 -2.1211 0.9551
-10.1767 2.7047 -1.9792 0.9580
-10.1585 1.7480 -1.9375 0.9589
-9.9108 -0.0824 -1.8629 0.9605
-9.4121 -1.7811 -1.8005 0.9618
-9.0792 -2.5753 -1.7739 0.9623
-8.6957 -3.3302 -1.7502 0.9628
-8.2651 -4.0447 -1.7296 0.9632
-7.2752 -5.3472 -1.6971 0.9639
-6.7216 -5.9332 -1.6852 0.9642
-6.1323 -6.4746 -1.6762 0.9644
-4.1735 -7.8210 -1.6662 0.9646
-1.9711 -8.7281 -1.6819 0.9642
-1.1920 -8.9268 -1.6928 0.9640
-0.3938 -9.0710 -1.7066 0.9637
2.0929 -9.1575 -1.7656 0.9625
4.6602 -8.6791 -1.8516 0.9607
5.5178 -8.3830 -1.8864 0.9600
7.2083 -7.5714 -1.9649 0.9583
8.0301 -7.0514 -2.0087 0.9574
-8.1389 -2.5114 -1.8004 0.9658
-7.3967 -3.8321 -1.7609 0.9665
-6.4899 -5.0029 -1.7321 0.9671
-5.4398 -6.0135 -1.7140 0.9674
-4.8670 -6.4558 -1.7090 0.9675
-4.2655 -6.8548 -1.7066 0.9675
-3.6372 -7.2091 -1.7068 0.9675
-2.9844 -7.5175 -1.7097 0.9675
-1.6134 -7.9919 -1.7234 0.9672
2.0922 -8.2764 -1.8045 0.9657
4.3988 -7.7604 -1.8856 0.9642
5.1610 -7.4629 -1.9180 0.9636
5.9124 -7.0999 -1.9530 0.9629
7.3617 -6.1716 -2.0306 0.9615
8.0476 -5.6046 -2.0730 0.9607
8.6986 -4.9686 -2.1175 0.9599
9.3072 -4.2641 -2.1640 0.9590
10.0191 -1.6326 -2.1458 0.9593
10.3484 -0.7482 -2.1931 0.9585
10.5980 0.1821 -2.2405 0.9576
10.7598 1.1507 -2.2874 0.9567
10.8264 2.1485 -2.3331 0.9559
8.1092 3.1884 -1.8419 0.9650
6.1722 3.8126 -1.5335 0.9708
5.3908 4.0364 -1.4235 0.9728
3.1436 4.8972 -1.2301 0.9765
2.5146 4.8146 -1.1482 0.9780
0.6721 5.3981 -1.1498 0.9780
0.0933 2.7023 -0.5715 0.9890
-0.3161 5.7582 -1.2190 0.9767
-0.8674 5.9731 -1.2758 0.9756
-5.1115 9.3201 -2.2469 0.9575
-7.3764 6.3623 -2.0591 0.9610
-8.3428 5.9858 -2.1704 0.9589
-8.6532 5.1050 -2.1237 0.9598
-2.8354 1.3475 -0.6636 0.9872
-9.0347 3.3419 -2.0362 0.9614
-9.0616 0.7831 -1.9226 0.9635
-8.9404 -0.0282 -1.8898 0.9641
-8.5255 -1.5678 -1.8323 0.9652
-7.9044 -2.9805 -1.7857 0.9661
-7.5248 -3.6344 -1.7664 0.9664
-7.1031 -4.2511 -1.7498 0.9667
-6.1449 -5.3680 -1.7247 0.9672
-5.6134 -5.8658 -1.7162 0.9674
-4.4574 -6.7342 -1.7071 0.9675
-3.1920 -7.4257 -1.7085 0.9675
0.3394 -8.3127 -1.7586 0.9666
1.8518 -8.2992 -1.7974 0.9658
2.6188 -8.2066 -1.8209 0.9654
4.1580 -7.8405 -1.8760 0.9644
7.1402 -6.3355 -2.0178 0.9617
7.8356 -5.7902 -2.0594 0.9610
8.4983 -5.1758 -2.1033 0.9601
2.3605 -0.9110 -0.5348 0.9897
10.2531 -1.0312 -2.1782 0.9587
10.7189 0.8429 -2.2728 0.9570
9.9010 2.6042 -2.1641 0.9590
8.4877 3.0651 -1.9075 0.9638
7.3650 3.4306 -1.7174 0.9673
6.4326 3.7282 -1.5716 0.9701
4.8938 4.1555 -1.3571 0.9741
4.2481 4.3162 -1.2801 0.9755
3.3058 4.8453 -1.2399 0.9763
2.6628 4.7674 -1.1543 0.9779
1.7374 5.0616 -1.1312 0.9784
1.2811 5.2060 -1.1333 0.9783
0.1774 2.8318 -0.5998 0.9885
-0.6886 5.9026 -1.2562 0.9760
-1.6675 5.4906 -1.2129 0.9768
-5.5909 8.8597 -2.2145 0.9581
-7.2452 6.6127 -2.0735 0.9607
-8.2258 6.2589 -2.1849 0.9586
-9.0869 1.0430 -1.9334 0.9633
-8.9849 0.2239 -1.8998 0.9639
-8.8230 -0.5694 -1.8689 0.9645
-8.6050 -1.3340 -1.8406 0.9650
-8.3343 -2.0675 -1.8151 0.9655
-8.0145 -2.7677 -1.7923 0.9659
-7.2399 -4.0615 -1.7547 0.9666
-5.7838 -5.7139 -1.7186 0.9673
-4.6466 -6.6093 -1.7078 0.9675
-2.7358 -7.6203 -1.7114 0.9674
-2.0527 -7.8639 -1.7180 0.9673
-0.6296 -8.2026 -1.7390 0.9669
0.1057 -8.2948 -1.7535 0.9667
0.8538 -8.3332 -1.7707 0.9663
4.6831 -7.6573 -1.8973 0.9640
5.4419 -7.3357 -1.9307 0.9633
8.2941 -5.3762 -2.0893 0.9604
9.7753 -2.1620 -2.1162 0.9599
10.1503 -1.3096 -2.1634 0.9590
10.4509 -0.4073 -2.2108 0.9581
10.7961 1.5189 -2.3046 0.9564
8.8944 2.9326 -1.9797 0.9624
6.7064 3.6394 -1.6129 0.9693
5.1151 4.1020 -1.3860 0.9735
4.4423 4.2671 -1.3021 0.9751
3.8468 4.4201 -1.2386 0.9763
3.4708 4.7925 -1.2508 0.9761
2.3409 4.8699 -1.1422 0.9782
1.8808 5.0162 -1.1324 0.9783
1.4247 5.1607 -1.1317 0.9783
0.9655 5.3057 -1.1399 0.9782
0.0034 2.6803 -0.5666 0.9891
-0.5152 5.8350 -1.2382 0.9763
-4.6406 9.7180 -2.2764 0.9569
-7.1060 6.8609 -2.0879 0.9604
-7.5216 6.0637 -2.0422 0.9613
-2.7379 1.4949 -0.6594 0.9873
-9.0722 3.0171 -2.0209 0.9617
-9.1235 2.1526 -1.9815 0.9624
-9.1060 1.3050 -1.9445 0.9631
-9.0236 0.4785 -1.9101 0.9637
-8.8801 -0.3232 -1.8783 0.9643
-8.6793 -1.0971 -1.8492 0.9649
-8.4248 -1.8406 -1.8228 0.9654
-8.1200 -2.5515 -1.7992 0.9658
-7.3727 -3.8681 -1.7599 0.9665
-6.4615 -5.0344 -1.7315 0.9671
-5.9511 -5.5579 -1.7212 0.9673
-4.8331 -6.4801 -1.7088 0.9675
-4.2299 -6.8764 -1.7065 0.9675
-3.6002 -7.2281 -1.7069 0.9675
-2.2695 -7.7926 -1.7156 0.9674
-0.8576 -8.1629 -1.7350 0.9670
1.3729 -8.3277 -1.7841 0.9661
2.1364 -8.2716 -1.8058 0.9657
3.6750 -7.9821 -1.8575 0.9647
4.4430 -7.7450 -1.8874 0.9642
5.2047 -7.4437 -1.9199 0.9635
6.6897 -6.6429 -1.9928 0.9622
7.4021 -6.1408 -2.0330 0.9614
9.3405 -4.2212 -2.1667 0.9590
9.1835 -3.1980 -2.0555 0.9610
9.6435 -2.4186 -2.1016 0.9602
10.3650 -0.6957 -2.1959 0.9584
10.6098 0.2371 -2.2433 0.9575
10.7663 1.2076 -2.2901 0.9567
10.8272 2.2067 -2.3357 0.9558
9.3333 2.7894 -2.0591 0.9610
7.0013 3.5488 -1.6592 0.9684
2.0245 4.9705 -1.1345 0.9783
1.5679 5.1153 -1.1309 0.9784
1.1105 5.2599 -1.1363 0.9783
0.6449 5.4066 -1.1510 0.9780
-0.9009 5.9863 -1.2796 0.9756
-1.9595 5.7567 -1.2854 0.9754
-4.3941 9.9076 -2.2910 0.9567
-6.4375 7.8715 -2.1494 0.9593
-8.3629 5.9351 -2.1677 0.9589
-8.8936 4.1705 -2.0764 0.9606
-9.0412 3.2913 -2.0338 0.9614
-8.9315 -0.0742 -1.8880 0.9641
-8.7483 -0.8571 -1.8581 0.9647
-8.5103 -1.6105 -1.8308 0.9652
-7.8837 -3.0192 -1.7845 0.9661
-7.5015 -3.6710 -1.7654 0.9664
-7.0776 -4.2855 -1.7489 0.9667
-6.6145 -4.8616 -1.7352 0.9670
-5.5817 -5.8932 -1.7158 0.9674
-4.4223 -6.7567 -1.7069 0.9675
-2.4843 -7.7165 -1.7136 0.9674
-1.7936 -7.9420 -1.7211 0.9673
0.3825 -8.3154 -1.7596 0.9665
1.1347 -8.3335 -1.7778 0.9662
4.9664 -7.5453 -1.9094 0.9637
5.7210 -7.1993 -1.9438 0.9631
6.4611 -6.7865 -1.9807 0.9624
7.8748 -5.7566 -2.0619 0.9609
-7.4319 -2.2932 -1.8279 0.9685
-7.1205 -2.9157 -1.8083 0.9689
-6.3747 -4.0624 -1.7766 0.9694
-5.9458 -4.5834 -1.7644 0.9696
-5.4827 -5.0678 -1.7547 0.9698
-4.9881 -5.5141 -1.7475 0.9699
-4.4640 -5.9212 -1.7428 0.9700
-3.9127 -6.2878 -1.7405 0.9700
-2.7372 -6.8947 -1.7434 0.9700
-2.1172 -7.1326 -1.7486 0.9699
-0.8239 -7.4705 -1.7664 0.9696
-0.1550 -7.5678 -1.7790 0.9694
2.6084 -7.4459 -1.8542 0.9681
4.0003 -7.0573 -1.9066 0.9672
6.0153 -6.0351 -2.0026 0.9656
7.2532 -5.0514 -2.0773 0.9643
8.5919 -2.2020 -2.0846 0.9642
8.9284 -1.4549 -2.1261 0.9635
9.1997 -0.6651 -2.1678 0.9628
9.5201 1.0182 -2.2502 0.9614
9.5570 1.8966 -2.2899 0.9608
8.0943 3.1826 -2.0441 0.9649
7.0444 3.5251 -1.8513 0.9682
6.1628 3.8068 -1.7025 0.9707
4.1364 4.4456 -1.4271 0.9754
3.6655 4.7228 -1.4051 0.9757
3.1398 4.8913 -1.3660 0.9764
1.6127 5.1660 -1.2719 0.9780
1.1519 5.3202 -1.2793 0.9779
0.6829 5.4848 -1.2990 0.9775
-0.3218 5.8619 -1.3798 0.9762
-0.8786 6.0507 -1.4370 0.9752
-1.4843 6.2388 -1.5072 0.9740
-5.1528 7.6792 -2.1734 0.9627
-6.1892 6.3864 -2.0902 0.9641
-6.6024 5.6947 -2.0492 0.9648
-7.7803 4.5900 -2.1230 0.9636
-2.8261 1.3431 -0.7354 0.9872
-8.1572 3.0173 -2.0441 0.9649
-8.2434 2.2365 -2.0074 0.9655
-8.1287 -0.0256 -1.9104 0.9672
-7.5207 -2.0914 -1.8346 0.9684
-6.8825 -3.3241 -1.7963 0.9691
-5.6317 -4.9197 -1.7575 0.9697
-5.1467 -5.3781 -1.7495 0.9699
-4.6316 -5.7976 -1.7440 0.9700
-3.5200 -6.5152 -1.7404 0.9700
-2.3141 -7.0627 -1.7467 0.9699
-1.6811 -7.2695 -1.7536 0.9698
0.9974 -7.6188 -1.8059 0.9689
1.6912 -7.5794 -1.8251 0.9686
3.7830 -7.1335 -1.8977 0.9674
4.4718 -6.8709 -1.9267 0.9669
5.8114 -6.1675 -1.9916 0.9658
6.4523 -5.7252 -2.0273 0.9652
7.0667 -5.2220 -2.0651 0.9645
8.1910 -4.0345 -2.1459 0.9632
2.3601 -0.9108 -0.5946 0.9897
9.1219 -0.9175 -2.1547 0.9630
9.4908 0.7463 -2.2375 0.9616
9.5310 2.5069 -2.3162 0.9603
8.4716 3.0593 -2.1169 0.9637
5.6358 3.9780 -1.6213 0.9721
4.9474 4.2010 -1.5254 0.9737
3.7383 4.5471 -1.3835 0.9761
2.6988 4.8319 -1.3007 0.9775
2.2213 4.9739 -1.2802 0.9779
1.2971 5.2708 -1.2757 0.9779
0.8317 5.4318 -1.2915 0.9777
-0.0743 2.7736 -0.6521 0.9887
-1.6673 5.4899 -1.3485 0.9767
-4.3231 8.4359 -2.2278 0.9618
-4.9649 7.8678 -2.1865 0.9625
-5.5395 7.2524 -2.1448 0.9632
-6.0449 6.5984 -2.1032 0.9639
-7.6899 4.8326 -2.1346 0.9634
-2.7337 1.3945 -0.7213 0.9875
-8.2234 2.4808 -2.0187 0.9653
-8.2651 1.7067 -1.9835 0.9659
-7.8423 -1.2158 -1.8651 0.9679
-7.6050 -1.8866 -1.8415 0.9683
-7.3212 -2.5283 -1.8204 0.9687
-6.6256 -3.7169 -1.7855 0.9693
-5.3024 -5.2383 -1.7517 0.9698
-4.7965 -5.6701 -1.7455 0.9699
-4.2621 -6.0623 -1.7417 0.9700
-3.1162 -6.7227 -1.7415 0.9700
-1.2370 -7.3846 -1.7597 0.9697
-0.5767 -7.5124 -1.7708 0.9695
0.7808 -7.6203 -1.8003 0.9690
1.4727 -7.5975 -1.8188 0.9687
2.1695 -7.5215 -1.8398 0.9683
2.8682 -7.3908 -1.8632 0.9679
3.5651 -7.2040 -1.8891 0.9675
4.9382 -6.6566 -1.9479 0.9665
5.6055 -6.2939 -1.9808 0.9660
6.2536 -5.8706 -2.0159 0.9654
6.8769 -5.3866 -2.0530 0.9647
7.4696 -4.8417 -2.0921 0.9641
8.3503 -2.6475 -2.0588 0.9646
9.0372 -1.1659 -2.1416 0.9633
9.5439 1.3427 -2.2651 0.9612
9.5482 2.2269 -2.3043 0.9605
8.8769 2.9268 -2.1967 0.9623
7.6794 3.3181 -1.9661 0.9662
6.6956 3.6335 -1.7904 0.9692
5.8708 3.9017 -1.6567 0.9715
4.5180 4.3398 -1.4723 0.9746
3.4666 4.7866 -1.3890 0.9760
2.9510 4.9517 -1.3548 0.9766
2.3693 4.9290 -1.2853 0.9778
1.4417 5.2223 -1.2733 0.9780
0.0034 2.6585 -0.6248 0.9891
-1.0972 6.1186 -1.4610 0.9748
-1.7255 6.3136 -1.5383 0.9735
-4.1082 8.6031 -2.2406 0.9616
-5.8937 6.8074 -2.1162 0.9637
-6.7382 5.4321 -2.0342 0.9651
-2.7460 1.4993 -0.7353 0.9872
-8.2589 1.9486 -1.9943 0.9657
-8.1964 0.4347 -1.9291 0.9668
-8.0784 -0.2940 -1.8999 0.9673
-7.9068 -0.9994 -1.8731 0.9678
-7.6847 -1.6789 -1.8487 0.9682
-7.4152 -2.3300 -1.8267 0.9686
-7.1012 -2.9507 -1.8073 0.9689
-5.4550 -5.0946 -1.7542 0.9698
-4.9586 -5.5387 -1.7472 0.9699
-2.7019 -6.9097 -1.7437 0.9700
-1.4413 -7.3346 -1.7568 0.9698
-0.1160 -7.5720 -1.7798 0.9694
4.0402 -7.0427 -1.9082 0.9672
4.7254 -6.7582 -1.9381 0.9667
5.3978 -6.4143 -1.9703 0.9661
6.0525 -6.0101 -2.0047 0.9656
6.6842 -5.5452 -2.0411 0.9649
7.8550 -4.4332 -2.1198 0.9636
8.2214 -2.8629 -2.0460 0.9649
8.6130 -2.1602 -2.0869 0.9642
8.9459 -1.4104 -2.1285 0.9635
9.4082 0.2102 -2.2117 0.9621
9.5245 1.0683 -2.2525 0.9614
9.5564 1.9477 -2.2922 0.9607
8.0278 3.2043 -2.0315 0.9651
6.1164 3.8219 -1.6951 0.9708
5.3700 4.0642 -1.5828 0.9727
3.6343 4.7328 -1.4024 0.9758
2.5190 4.8845 -1.2916 0.9777
2.0477 5.0273 -1.2758 0.9779
1.5861 5.1747 -1.2720 0.9780
0.6554 5.4947 -1.3005 0.9775
-0.3529 5.8741 -1.3830 0.9761
-1.5211 6.2502 -1.5118 0.9739
-1.8521 5.4412 -1.3509 0.9767
-3.8871 8.7644 -2.2533 0.9614
-4.5694 8.2308 -2.2125 0.9621
-5.1866 7.6440 -2.1710 0.9628
-6.6241 5.6541 -2.0468 0.9648
-7.7951 4.5447 -2.1207 0.9636
-8.0144 3.7582 -2.0804 0.9643
-8.2464 2.1917 -2.0054 0.9655
-8.2647 1.4222 -1.9709 0.9661
-7.5048 -2.1287 -1.8334 0.9685
-6.8615 -3.3578 -1.7954 0.9691
-6.0591 -4.4533 -1.7673 0.9696
-5.6045 -4.9472 -1.7570 0.9697
-5.1178 -5.4034 -1.7491 0.9699
-3.4864 -6.5335 -1.7405 0.9700
-2.8929 -6.8266 -1.7425 0.9700
-2.2780 -7.0759 -1.7471 0.9699
-0.9932 -7.4377 -1.7636 0.9696
0.3500 -7.6081 -1.7900 0.9692
1.0373 -7.6179 -1.8069 0.9689
1.7314 -7.5755 -1.8263 0.9686
2.4293 -7.4794 -1.8482 0.9682
3.1277 -7.3280 -1.8725 0.9678
4.5113 -6.8539 -1.9284 0.9668
5.8490 -6.1436 -1.9936 0.9657
6.4886 -5.6978 -2.0295 0.9651
7.1012 -5.1911 -2.0673 0.9645
-6.8322 -2.1082 -1.8513 0.9709
-5.4813 -4.2254 -1.7919 0.9718
-4.6019 -5.0872 -1.7761 0.9721
-4.1192 -5.4639 -1.7717 0.9721
-3.0790 -6.1026 -1.7698 0.9722
-2.5257 -6.3620 -1.7723 0.9721
-1.9532 -6.5800 -1.7772 0.9720
-0.1428 -6.9722 -1.8056 0.9716
2.3951 -6.8370 -1.8757 0.9705
3.0327 -6.6775 -1.8989 0.9702
3.6647 -6.4653 -1.9242 0.9698
4.2874 -6.1997 -1.9517 0.9693
6.5952 -4.5931 -2.0809 0.9673
7.1012 -4.0562 -2.1174 0.9668
7.5558 -3.4617 -2.1519 0.9662
7.4131 -2.6244 -2.0361 0.9680
8.0434 -1.3107 -2.1101 0.9669
8.2717 -0.5980 -2.1473 0.9663
8.4828 2.4877 -2.2889 0.9641
7.0326 3.5192 -2.0361 0.9680
4.7406 4.2600 -1.6502 0.9740
4.1433 4.4531 -1.5749 0.9752
2.5867 4.9527 -1.4467 0.9772
2.1099 5.1046 -1.4301 0.9774
1.6401 5.2536 -1.4250 0.9775
1.1697 5.4023 -1.4312 0.9774
-0.8775 6.0428 -1.5810 0.9751
-1.4822 6.2303 -1.6582 0.9739
-1.8181 5.4331 -1.4834 0.9766
-3.4438 7.8742 -2.2252 0.9651
-4.0658 7.4134 -2.1892 0.9657
-5.9694 5.1487 -2.0411 0.9680
-6.5521 3.8655 -1.9697 0.9691
-2.8168 1.3387 -0.8075 0.9872
-7.4280 2.7476 -2.0506 0.9678
-7.5185 2.0398 -2.0171 0.9683
-7.5500 1.3393 -1.9853 0.9688
-7.5248 0.6503 -1.9556 0.9693
-6.6440 -2.5053 -1.8385 0.9711
-6.3359 -3.0601 -1.8218 0.9713
-5.9897 -3.5848 -1.8074 0.9716
-5.6081 -4.0775 -1.7953 0.9718
-5.1934 -4.5368 -1.7855 0.9719
-4.7478 -4.9613 -1.7780 0.9720
-3.2485 -6.0127 -1.7695 0.9722
-2.7017 -6.2850 -1.7713 0.9721
-0.9507 -6.8500 -1.7906 0.9718
-0.3377 -6.9502 -1.8016 0.9717
0.2860 -7.0042 -1.8150 0.9715
2.1943 -6.8765 -1.8689 0.9706
3.4671 -6.5377 -1.9160 0.9699
4.0931 -6.2889 -1.9428 0.9695
4.7069 -5.9863 -1.9717 0.9690
5.8799 -5.2172 -2.0353 0.9680
6.9463 -4.2305 -2.1058 0.9670
7.6534 -2.1921 -2.0613 0.9676
7.9591 -1.5274 -2.0984 0.9671
8.2068 -0.8254 -2.1356 0.9665
8.3909 -0.0913 -2.1727 0.9659
8.5473 1.4482 -2.2446 0.9648
5.6276 3.9721 -1.7835 0.9719
4.9406 4.1952 -1.6782 0.9736
2.2585 5.0573 -1.4341 0.9774
1.7872 5.2066 -1.4253 0.9775
0.9101 3.6983 -0.9861 0.9844
0.8429 5.5052 -1.4420 0.9773
-0.0740 2.7610 -0.7151 0.9887
-0.6985 5.9872 -1.5607 0.9754
-1.2860 6.1695 -1.6317 0.9743
-1.6677 5.4913 -1.4859 0.9766
-5.4516 5.9507 -2.0896 0.9672
-6.1970 4.7152 -2.0162 0.9683
-6.4769 4.0703 -1.9806 0.9689
-2.7338 1.3945 -0.7946 0.9874
-7.3870 2.9706 -2.0615 0.9676
-7.5463 1.5583 -1.9951 0.9687
-7.5386 0.8652 -1.9647 0.9691
-7.4761 0.1863 -1.9363 0.9696
-7.3615 -0.4751 -1.9100 0.9700
-6.1024 -3.4233 -1.8117 0.9715
-5.7316 -3.9262 -1.7988 0.9717
-4.4255 -5.2316 -1.7742 0.9721
-2.8756 -6.2038 -1.7704 0.9721
-2.3150 -6.4480 -1.7738 0.9721
-1.7359 -6.6502 -1.7795 0.9720
-1.1406 -6.8092 -1.7876 0.9719
-0.5315 -6.9236 -1.7979 0.9717
0.0891 -6.9923 -1.8106 0.9715
0.7186 -7.0139 -1.8255 0.9713
1.3544 -6.9872 -1.8428 0.9710
3.2685 -6.6048 -1.9080 0.9700
3.8976 -6.3728 -1.9342 0.9696
4.5157 -6.0872 -1.9624 0.9692
6.2597 -4.9031 -2.0588 0.9677
6.7876 -4.3997 -2.0943 0.9671
2.3533 -0.9849 -0.6605 0.9895
8.1356 -1.0496 -2.1239 0.9667
8.3402 -0.3250 -2.1611 0.9661
8.4775 0.4277 -2.1978 0.9655
8.5425 1.2018 -2.2336 0.9650
6.6847 3.6277 -1.9692 0.9691
5.8620 3.8958 -1.8224 0.9713
5.1476 4.1281 -1.7084 0.9731
4.5120 4.3340 -1.6199 0.9745
0.9932 5.4579 -1.4364 0.9773
0.5099 5.6098 -1.4585 0.9770
-0.5239 5.9328 -1.5421 0.9757
-1.7231 6.3048 -1.6923 0.9734
-2.0433 5.4926 -1.5174 0.9761
-3.6813 7.7092 -2.2119 0.9653
-4.2829 7.2289 -2.1755 0.9659
-4.8274 6.7018 -2.1385 0.9664
-5.3120 6.1355 -2.1013 0.9670
-7.5370 1.7783 -2.0050 0.9685
-6.8171 -2.1421 -1.8502 0.9709
-6.5340 -2.7150 -1.8320 0.9712
-6.2115 -3.2588 -1.8162 0.9714
-5.8519 -3.7718 -1.8026 0.9716
-5.4577 -4.2522 -1.7914 0.9718
-5.0312 -4.6987 -1.7824 0.9720
-4.0905 -5.4845 -1.7715 0.9721
-3.5808 -5.8211 -1.7695 0.9722
-3.0476 -6.1186 -1.7699 0.9722
-2.4932 -6.3758 -1.7725 0.9721
-0.1069 -6.9757 -1.8063 0.9716
0.5201 -7.0122 -1.8206 0.9714
1.7925 -6.9402 -1.8559 0.9708
2.4320 -6.8292 -1.8770 0.9705
3.0694 -6.6666 -1.9003 0.9701
4.9312 -5.8598 -1.9829 0.9689
6.6254 -4.5636 -2.0830 0.9673
7.1292 -4.0236 -2.1196 0.9667
8.2830 -0.5559 -2.1494 0.9663
8.5431 1.7412 -2.2574 0.9646
8.0130 3.1984 -2.2339 0.9650
6.9781 3.5370 -2.0256 0.9682
5.3623 4.0583 -1.7412 0.9726
4.1104 4.4637 -1.5711 0.9752
3.1065 4.8948 -1.5010 0.9763
1.6130 5.2622 -1.4251 0.9775
1.1424 5.4109 -1.4319 0.9774
0.6633 5.5616 -1.4502 0.9771
-3.4811 7.8491 -2.2232 0.9651
-4.1000 7.3852 -2.1871 0.9657
-4.6627 6.8719 -2.1502 0.9663
-5.9897 5.1126 -2.0390 0.9680
-6.3083 4.4769 -2.0028 0.9685
-6.5653 3.8277 -1.9677 0.9691
-7.2864 3.4168 -2.0837 0.9673
-7.4349 2.7066 -2.0486 0.9678
-7.5219 1.9991 -2.0152 0.9684
-7.4395 -0.0618 -1.9263 0.9697
-7.3062 -0.7159 -1.9008 0.9701
-6.8974 -1.9564 -1.8563 0.9708
-6.3169 -3.0913 -1.8209 0.9714
-5.9686 -3.6141 -1.8066 0.9716
-5.1685 -4.5622 -1.7850 0.9719
-3.7435 -5.7196 -1.7699 0.9722
-0.3019 -6.9546 -1.8024 0.9716
0.3223 -7.0059 -1.8159 0.9714
2.2312 -6.8696 -1.8701 0.9706
3.5034 -6.5248 -1.9175 0.9699
4.1289 -6.2729 -1.9444 0.9694
4.7419 -5.9671 -1.9734 0.9690
5.9123 -5.1918 -2.0372 0.9680
6.4598 -4.7222 -2.0718 0.9675
-5.7688 -2.9887 -1.8393 0.9734
-5.4408 -3.4673 -1.8264 0.9735
-5.0798 -3.9159 -1.8157 0.9737
-4.6880 -4.3332 -1.8072 0.9738
-4.2676 -4.7176 -1.8009 0.9739
-3.8207 -5.0679 -1.7967 0.9740
-3.3495 -5.3827 -1.7947 0.9740
-2.8561 -5.6608 -1.7949 0.9740
-1.2642 -6.2624 -1.8086 0.9738
-0.7038 -6.3815 -1.8175 0.9737
1.0337 -6.4782 -1.8571 0.9731
2.7983 -6.1614 -1.9157 0.9723
3.3781 -5.9596 -1.9393 0.9719
5.0401 -5.0567 -2.0212 0.9708
5.5543 -4.6564 -2.0518 0.9703
6.0408 -4.2070 -2.0840 0.9699
6.4947 -3.7097 -2.1174 0.9694
6.8949 -3.1589 -2.1470 0.9690
6.7591 -2.3928 -2.0298 0.9706
7.6414 0.1313 -2.1636 0.9687
7.7132 0.8249 -2.1960 0.9683
7.7172 1.5315 -2.2273 0.9678
7.6506 2.2436 -2.2571 0.9674
7.5113 2.9534 -2.2849 0.9670
7.0207 3.5133 -2.2225 0.9679
4.1379 4.4472 -1.7197 0.9751
2.5835 4.9468 -1.5799 0.9771
1.1683 5.3958 -1.5629 0.9773
0.6905 5.5461 -1.5822 0.9770
0.0917 2.6568 -0.7526 0.9890
-1.8163 5.4277 -1.6203 0.9765
-4.2020 6.2622 -2.1349 0.9691
-5.7442 4.1214 -2.0014 0.9710
-2.8106 1.3357 -0.8809 0.9871
-6.9421 1.2315 -1.9959 0.9711
-6.9273 0.5987 -1.9684 0.9715
-6.7490 -0.6261 -1.9188 0.9722
-6.1457 -2.3174 -1.8594 0.9731
-5.8646 -2.8325 -1.8437 0.9733
-4.8143 -4.2056 -1.8097 0.9738
-4.4026 -4.6005 -1.8026 0.9739
-3.9638 -4.9616 -1.7978 0.9739
-3.0133 -5.5774 -1.7946 0.9740
-1.9799 -6.0429 -1.8002 0.9739
-0.3128 -6.4386 -1.8249 0.9736
0.2648 -6.4851 -1.8374 0.9734
0.8492 -6.4870 -1.8521 0.9732
1.4377 -6.4433 -1.8689 0.9729
2.0272 -6.3528 -1.8878 0.9727
3.7701 -5.7926 -1.9566 0.9717
4.3304 -5.5073 -1.9833 0.9713
5.8913 -4.3534 -2.0737 0.9700
6.3559 -3.8710 -2.1068 0.9695
6.7802 -3.3396 -2.1396 0.9691
2.3614 -0.9113 -0.7165 0.9895
6.9705 -1.9966 -2.0527 0.9703
7.4506 -0.7494 -2.1199 0.9693
7.6055 -0.0828 -2.1532 0.9689
7.6978 0.6053 -2.1859 0.9684
7.7234 1.3086 -2.2176 0.9680
7.6793 2.0198 -2.2479 0.9675
5.6192 3.9662 -1.9471 0.9718
4.9337 4.1893 -1.8323 0.9735
4.3193 4.3885 -1.7432 0.9747
3.7572 4.5701 -1.6749 0.9757
3.2937 4.8275 -1.6544 0.9760
2.2558 5.0513 -1.5661 0.9773
-0.0738 2.7543 -0.7800 0.9886
-0.6976 5.9794 -1.7042 0.9753
-1.6684 5.4935 -1.6253 0.9764
-4.0443 6.4089 -2.1454 0.9690
-4.5284 5.9286 -2.1119 0.9695
-4.9591 5.4132 -2.0783 0.9699
-5.3350 4.8692 -2.0448 0.9704
-2.7338 1.3946 -0.8688 0.9873
-6.9360 1.4323 -2.0050 0.9710
-6.8879 0.1717 -1.9505 0.9718
-6.2262 -2.1502 -1.8647 0.9730
-5.9569 -2.6736 -1.8484 0.9732
-4.1044 -4.8519 -1.7991 0.9739
-3.1685 -5.4904 -1.7945 0.9740
-2.6674 -5.7545 -1.7956 0.9740
-1.6096 -6.1662 -1.8041 0.9739
-1.0573 -6.3116 -1.8117 0.9737
0.0825 -6.4752 -1.8332 0.9734
0.6651 -6.4913 -1.8472 0.9732
1.2526 -6.4620 -1.8634 0.9730
1.8421 -6.3863 -1.8816 0.9727
3.0148 -6.0921 -1.9243 0.9721
4.1560 -5.6023 -1.9747 0.9714
4.7051 -5.2829 -2.0027 0.9710
5.2342 -4.9137 -2.0324 0.9706
5.7387 -4.4950 -2.0636 0.9702
6.2136 -4.0276 -2.0963 0.9697
6.6540 -3.5129 -2.1301 0.9692
2.3488 -0.9831 -0.7208 0.9895
6.8764 -2.1802 -2.0422 0.9705
7.1591 -1.5834 -2.0757 0.9700
7.6758 0.3873 -2.1757 0.9686
7.7227 1.0865 -2.2078 0.9681
7.6074 2.5082 -2.2676 0.9672
7.4407 3.2149 -2.2946 0.9669
6.6738 3.6217 -2.1496 0.9689
5.8531 3.8899 -1.9895 0.9712
3.9291 4.5147 -1.6943 0.9754
0.9920 5.4514 -1.5686 0.9772
0.5093 5.6030 -1.5927 0.9769
0.0034 2.6158 -0.7405 0.9892
-1.0942 6.1024 -1.7551 0.9746
-1.7207 6.2959 -1.8477 0.9732
-3.3312 6.9758 -2.1884 0.9684
-4.3820 6.0835 -2.1225 0.9693
-4.8297 5.5784 -2.0888 0.9698
-5.5606 4.4828 -2.0220 0.9707
-6.0691 3.3138 -1.9575 0.9717
-6.8528 2.2790 -2.0444 0.9704
-6.9246 1.6338 -2.0141 0.9709
-6.8256 -0.2484 -1.9335 0.9720
-6.5201 -1.4245 -1.8893 0.9726
-6.3028 -1.9805 -1.8703 0.9729
-5.7508 -3.0171 -1.8385 0.9734
-5.4209 -3.4940 -1.8258 0.9735
-5.0580 -3.9409 -1.8152 0.9737
-4.6645 -4.3563 -1.8068 0.9738
-4.2425 -4.7388 -1.8006 0.9739
-3.7941 -5.0870 -1.7965 0.9740
-3.3216 -5.3997 -1.7947 0.9740
-2.3124 -5.9135 -1.7975 0.9739
-1.7801 -6.1121 -1.8022 0.9739
-1.2322 -6.2704 -1.8090 0.9738
1.0677 -6.4761 -1.8581 0.9731
2.8320 -6.1511 -1.9170 0.9722
3.4113 -5.9464 -1.9407 0.9719
3.9801 -5.6923 -1.9663 0.9715
5.5832 -4.6318 -2.0536 0.9703
6.0679 -4.1796 -2.0859 0.9698
6.7777 -2.3602 -2.0317 0.9706
7.3231 -1.1546 -2.0987 0.9697
7.5153 -0.5044 -2.1323 0.9692
7.6474 0.1709 -2.1655 0.9687
7.7153 0.8654 -2.1978 0.9682
7.7153 1.5725 -2.2291 0.9678
7.6446 2.2847 -2.2587 0.9674
7.5010 2.9941 -2.2864 0.9670
6.0976 3.8101 -2.0355 0.9706
4.1051 4.4578 -1.7156 0.9751
3.1027 4.8888 -1.6392 0.9762
2.5557 4.9556 -1.5785 0.9771
2.0802 5.1072 -1.5611 0.9773
-0.3528 5.8722 -1.6654 0.9758
-0.9097 6.0452 -1.7306 0.9749
-1.5169 6.2330 -1.8160 0.9737
-1.8479 5.4290 -1.6235 0.9764
-3.1485 7.0990 -2.1985 0.9682
-4.2304 6.2348 -2.1330 0.9692
-4.6949 5.7407 -2.0994 0.9696
-5.1053 5.2139 -2.0658 0.9701
-5.7600 4.0878 -1.9995 0.9711
-6.9249 0.5625 -1.9668 0.9715
-6.8569 -0.0570 -1.9412 0.9719
-6.7411 -0.6605 -1.9175 0.9722
-6.5798 -1.2451 -1.8958 0.9725
-6.1305 -2.3478 -1.8584 0.9731
-5.5282 -3.3474 -1.8295 0.9735
-4.7913 -4.2293 -1.8092 0.9738
-4.3780 -4.6223 -1.8023 0.9739
-3.9376 -4.9814 -1.7976 0.9739
-2.9845 -5.5930 -1.7947 0.9740
-2.4760 -5.8429 -1.7965 0.9740
-1.4058 -6.2251 -1.8067 0.9738
-0.8486 -6.3549 -1.8150 0.9737
0.2984 -6.4864 -1.8382 0.9734
0.8831 -6.4857 -1.8530 0.9732
2.0612 -6.3462 -1.8889 0.9726
3.2303 -6.0160 -1.9331 0.9720
4.9044 -5.1514 -2.0135 0.9709
5.4249 -4.7637 -2.0438 0.9704
-5.8678 -1.8106 -1.8888 0.9746
-5.6346 -2.3073 -1.8728 0.9748
-5.3656 -2.7798 -1.8587 0.9750
-5.0630 -3.2265 -1.8466 0.9752
-4.3657 -4.0352 -1.8285 0.9754
-3.9751 -4.3943 -1.8226 0.9755
-3.1206 -5.0149 -1.8167 0.9756
-2.6609 -5.2740 -1.8169 0.9756
-1.6870 -5.6834 -1.8235 0.9755
-0.1231 -6.0090 -1.8486 0.9752
0.4164 -6.0363 -1.8611 0.9750
0.9608 -6.0214 -1.8755 0.9748
1.5074 -5.9632 -1.8919 0.9746
2.0532 -5.8611 -1.9102 0.9743
3.6543 -5.2842 -1.9761 0.9735
4.1641 -5.0005 -2.0015 0.9731
5.1247 -4.2962 -2.0569 0.9724
6.2046 -2.1966 -2.0245 0.9728
6.8622 -0.4961 -2.1162 0.9716
6.9769 0.1199 -2.1463 0.9712
6.6245 3.3150 -2.2784 0.9695
5.3869 4.0334 -2.0699 0.9722
4.7275 4.2482 -1.9549 0.9738
3.1282 4.8733 -1.7812 0.9761
2.5804 4.9407 -1.7144 0.9769
1.6361 5.2411 -1.6888 0.9773
1.1669 5.3894 -1.6961 0.9772
0.0915 2.6510 -0.8159 0.9890
-0.1555 2.8329 -0.8726 0.9882
-1.4781 6.2130 -1.9643 0.9736
-1.8145 5.4222 -1.7586 0.9764
-3.3618 6.1297 -2.1503 0.9712
-5.2791 3.7876 -1.9984 0.9732
-5.5133 3.2526 -1.9689 0.9736
-6.2841 2.3244 -2.0608 0.9723
-6.3767 1.7300 -2.0322 0.9727
-6.4187 1.1386 -2.0051 0.9731
-6.3576 -0.0200 -1.9555 0.9737
-6.2584 -0.5806 -1.9332 0.9740
-6.1163 -1.1248 -1.9128 0.9743
-4.4828 -3.9161 -1.8308 0.9754
-3.2608 -4.9264 -1.8171 0.9756
-1.8443 -5.6289 -1.8219 0.9755
-0.8203 -5.9104 -1.8353 0.9753
-0.2911 -5.9918 -1.8451 0.9752
0.2463 -6.0322 -1.8569 0.9751
0.7895 -6.0307 -1.8707 0.9749
1.3357 -5.9862 -1.8865 0.9747
1.8821 -5.8979 -1.9042 0.9744
2.4256 -5.7652 -1.9238 0.9742
3.4910 -5.3638 -1.9684 0.9736
5.4311 -4.0134 -2.0771 0.9721
5.8522 -3.5642 -2.1076 0.9717
6.2301 -3.0687 -2.1361 0.9714
2.3624 -0.9117 -0.7789 0.9895
6.6285 -1.2721 -2.0760 0.9721
6.8146 -0.6854 -2.1066 0.9717
6.9470 -0.0756 -2.1369 0.9713
6.8741 2.4824 -2.2480 0.9699
6.6945 3.1183 -2.2715 0.9696
6.3919 3.7046 -2.2723 0.9696
4.3135 4.3827 -1.8914 0.9746
3.7524 4.5642 -1.8174 0.9756
3.2896 4.8215 -1.7953 0.9759
1.7831 5.1946 -1.6892 0.9773
0.8409 5.4919 -1.7089 0.9770
0.1758 2.8050 -0.8644 0.9883
-0.0736 2.7485 -0.8457 0.9886
-0.6967 5.9715 -1.8492 0.9752
-1.2825 6.1527 -1.9331 0.9740
-1.6691 5.4957 -1.7666 0.9762
-3.6953 5.8558 -2.1298 0.9714
-4.8944 4.4671 -2.0381 0.9726
-5.1951 3.9528 -2.0078 0.9731
-2.7338 1.3946 -0.9440 0.9872
-6.2368 2.5081 -2.0676 0.9723
-6.4190 0.7367 -1.9873 0.9733
-6.2943 -0.4062 -1.9400 0.9739
-5.9951 -1.4872 -1.8998 0.9745
-5.5387 -2.4859 -1.8673 0.9749
-4.5972 -3.7939 -1.8333 0.9754
-4.2235 -4.1724 -1.8261 0.9755
-3.8233 -4.5197 -1.8208 0.9755
-3.3988 -4.8345 -1.8177 0.9756
-2.9520 -5.1154 -1.8166 0.9756
-1.4991 -5.7429 -1.8256 0.9755
0.6184 -6.0357 -1.8662 0.9749
2.2554 -5.8117 -1.9174 0.9742
2.7951 -5.6481 -1.9383 0.9740
3.3264 -5.4390 -1.9610 0.9737
3.8457 -5.1841 -1.9854 0.9733
5.2925 -4.1455 -2.0678 0.9723
5.7235 -3.7099 -2.0979 0.9719
6.1213 -3.2317 -2.1291 0.9714
2.3458 -0.9818 -0.7822 0.9894
6.5597 -1.4508 -2.0664 0.9723
6.9114 -0.2693 -2.1274 0.9715
7.0048 0.3534 -2.1573 0.9711
6.9169 2.2806 -2.2401 0.9700
5.1329 4.1163 -2.0237 0.9728
3.9240 4.5088 -1.8385 0.9753
3.4536 4.7687 -1.8110 0.9757
2.4023 4.9976 -1.7055 0.9771
1.0060 3.6438 -1.1627 0.9843
0.9908 5.4448 -1.7022 0.9771
0.5086 5.5961 -1.7283 0.9768
-0.5225 5.9175 -1.8272 0.9754
-1.0928 6.0941 -1.9043 0.9744
-1.7183 6.2870 -2.0047 0.9731
-2.0361 5.4732 -1.7962 0.9759
-3.5451 5.9836 -2.1392 0.9713
-4.0075 5.5637 -2.1090 0.9717
-4.4230 5.1086 -2.0784 0.9721
-4.7895 4.6243 -2.0477 0.9725
-5.1061 4.1164 -2.0173 0.9729
-5.7530 2.5033 -1.9297 0.9741
-6.3982 1.5096 -2.0220 0.9729
-6.3969 0.3392 -1.9703 0.9735
-6.3258 -0.2302 -1.9470 0.9739
-6.0529 -1.3224 -1.9057 0.9744
-5.8554 -1.8399 -1.8878 0.9746
-5.6200 -2.3352 -1.8719 0.9749
-5.0446 -3.2514 -1.8460 0.9752
-4.7088 -3.6688 -1.8360 0.9753
-4.3438 -4.0568 -1.8281 0.9754
-3.9518 -4.4141 -1.8223 0.9755
-3.0946 -5.0308 -1.8167 0.9756
-2.6338 -5.2878 -1.8170 0.9756
-0.6246 -5.9454 -1.8388 0.9753
-0.0921 -6.0117 -1.8493 0.9752
0.9924 -6.0192 -1.8764 0.9748
1.5390 -5.9585 -1.8929 0.9746
2.6263 -5.7043 -1.9316 0.9741
3.6841 -5.2691 -1.9775 0.9735
4.6834 -4.6506 -2.0301 0.9728
5.1510 -4.2732 -2.0586 0.9724
5.5914 -3.8514 -2.0883 0.9720
6.0002 -3.3864 -2.1192 0.9716
6.4860 -1.6267 -2.0567 0.9724
6.8703 -0.4611 -2.1179 0.9716
6.9818 0.1560 -2.1480 0.9712
7.0346 0.7891 -2.1773 0.9708
7.0258 1.4320 -2.2054 0.9704
6.6109 3.3509 -2.2797 0.9695
5.3467 4.0465 -2.0624 0.9723
4.0996 4.4520 -1.8615 0.9750
2.5526 4.9496 -1.7129 0.9770
1.6091 5.2497 -1.6888 0.9773
0.6617 5.5482 -1.7186 0.9769
-0.9085 6.0371 -1.8778 0.9748
-2.8706 6.4726 -2.1778 0.9708
-5.0121 4.2781 -2.0268 0.9728
-5.5253 3.2214 -1.9672 0.9736
-2.8455 1.3343 -0.9666 0.9869
-6.2908 2.2901 -2.0591 0.9724
-6.3805 1.6958 -2.0306 0.9727
-6.4196 1.1047 -2.0035 0.9731
-6.4098 0.5206 -1.9780 0.9734
-6.3530 -0.0528 -1.9541 0.9738
-6.2513 -0.6125 -1.9320 0.9741
-6.1068 -1.1556 -1.9117 0.9743
-5.9216 -1.6796 -1.8932 0.9746
-5.4379 -2.6611 -1.8621 0.9750
-5.1437 -3.1146 -1.8495 0.9751
-4.8175 -3.5408 -1.8389 0.9753
-2.7807 -5.2109 -1.8167 0.9756
-2.3067 -5.4434 -1.8184 0.9756
0.2776 -6.0333 -1.8577 0.9750
0.8210 -6.0293 -1.8716 0.9749
1.3672 -5.9823 -1.8875 0.9746
1.9135 -5.8915 -1.9053 0.9744
2.9938 -5.5756 -1.9465 0.9739
3.5211 -5.3495 -1.9698 0.9736
4.0350 -5.0776 -1.9948 0.9732
5.4563 -3.9886 -2.0788 0.9721
-5.4736 -1.6890 -1.9041 0.9761
-5.0105 -2.5959 -1.8758 0.9765
-4.7300 -3.0143 -1.8644 0.9766
-3.7168 -4.1088 -1.8417 0.9769
-2.9185 -4.6901 -1.8362 0.9770
-1.1004 -5.4512 -1.8485 0.9768
-0.1150 -5.6133 -1.8663 0.9766
1.9138 -5.4632 -1.9242 0.9759
2.4173 -5.3225 -1.9431 0.9757
2.9132 -5.1395 -1.9638 0.9754
3.8689 -4.6459 -2.0097 0.9748
5.1566 -3.5912 -2.0888 0.9739
5.8510 -2.6806 -2.1393 0.9732
5.7282 -2.0279 -2.0199 0.9747
5.9681 -1.5296 -2.0479 0.9744
6.1643 -1.0045 -2.0761 0.9740
6.3133 -0.4564 -2.1040 0.9737
6.4115 0.1102 -2.1315 0.9733
6.2460 2.4558 -2.2309 0.9721
5.3789 4.0274 -2.2336 0.9721
4.7208 4.2423 -2.1097 0.9736
4.1269 4.4354 -2.0138 0.9748
3.5799 4.6124 -1.9408 0.9757
3.1005 4.8302 -1.9079 0.9761
2.1023 5.0862 -1.8294 0.9771
0.0947 2.7442 -0.9127 0.9885
-0.3210 5.8475 -1.9467 0.9756
-0.8740 6.0187 -2.0216 0.9747
-1.4760 6.2042 -2.1199 0.9735
-1.8126 5.4166 -1.8987 0.9762
-2.6060 5.9587 -2.1618 0.9730
-3.0889 5.6321 -2.1352 0.9733
-3.5332 5.2655 -2.1078 0.9736
-4.2956 4.4325 -2.0518 0.9743
-5.8153 2.1510 -2.0611 0.9742
-5.9181 1.6056 -2.0383 0.9745
-5.8288 -0.5408 -1.9458 0.9756
-5.7005 -1.0483 -1.9267 0.9759
-5.0921 -2.4594 -1.8797 0.9764
-4.5202 -3.2865 -1.8577 0.9767
-3.8339 -4.0063 -1.8433 0.9769
-3.4530 -4.3223 -1.8389 0.9770
-2.6256 -4.8598 -1.8361 0.9770
-1.7245 -5.2633 -1.8411 0.9769
1.2460 -5.5845 -1.9020 0.9762
1.7547 -5.4987 -1.9186 0.9760
2.7584 -5.2015 -1.9571 0.9755
3.7228 -4.7347 -2.0021 0.9749
5.4169 -3.2991 -2.1083 0.9736
2.3634 -0.9121 -0.8421 0.9894
6.2718 -0.6308 -2.0953 0.9738
6.4481 0.5071 -2.1500 0.9731
6.4544 1.0936 -2.1760 0.9728
6.4031 1.6841 -2.2008 0.9725
6.1231 2.8521 -2.2453 0.9719
3.2338 4.7397 -1.9073 0.9761
2.7290 4.8861 -1.8603 0.9767
1.7809 5.1883 -1.8234 0.9771
0.8669 3.5225 -1.2058 0.9848
0.8399 5.4852 -1.8446 0.9769
-0.0737 2.7498 -0.9144 0.9885
-1.2807 6.1441 -2.0862 0.9739
-2.4469 6.0522 -2.1700 0.9729
-4.5162 4.1219 -2.0325 0.9746
-4.7992 3.6516 -2.0046 0.9749
-5.0359 3.1648 -1.9771 0.9752
-2.7339 1.3946 -1.0202 0.9871
-5.8944 1.7782 -2.0466 0.9744
-5.8608 -0.3782 -1.9522 0.9755
-5.7451 -0.8906 -1.9325 0.9758
-5.3980 -1.8641 -1.8983 0.9762
-5.1705 -2.3207 -1.8839 0.9764
-4.9098 -2.7544 -1.8713 0.9765
-4.2969 -3.5460 -1.8519 0.9768
-2.3240 -5.0137 -1.8369 0.9770
-1.8702 -5.2092 -1.8398 0.9769
0.0717 -5.6265 -1.8704 0.9766
3.5751 -4.8193 -1.9946 0.9750
4.0395 -4.5355 -2.0189 0.9747
5.6582 -2.9872 -2.1268 0.9734
2.3427 -0.9805 -0.8442 0.9894
5.8222 -1.8459 -2.0303 0.9746
6.0463 -1.3373 -2.0584 0.9742
6.3559 -0.2477 -2.1143 0.9735
6.4345 0.3246 -2.1416 0.9732
6.4255 1.4986 -2.1932 0.9726
6.1828 2.6714 -2.2388 0.9720
5.7028 3.7900 -2.2761 0.9715
4.4935 4.3163 -2.0711 0.9741
3.9188 4.5028 -1.9842 0.9752
2.3994 4.9915 -1.8409 0.9769
0.5080 5.5892 -1.8655 0.9766
-1.7158 6.2779 -2.1633 0.9729
-2.0325 5.4636 -1.9377 0.9757
-4.0750 4.7067 -2.0694 0.9741
-4.7153 3.8013 -2.0133 0.9748
-5.9402 1.4015 -2.0288 0.9746
-5.9500 0.3155 -1.9806 0.9752
-5.7857 -0.7313 -1.9385 0.9757
-5.6429 -1.2328 -1.9200 0.9759
-5.2456 -2.1796 -1.8882 0.9763
-4.9952 -2.6207 -1.8751 0.9765
-4.4007 -3.4288 -1.8544 0.9768
-4.0608 -3.7925 -1.8470 0.9769
-3.3055 -4.4319 -1.8378 0.9770
-1.5502 -5.3228 -1.8428 0.9769
-1.0725 -5.4579 -1.8490 0.9768
0.4181 -5.6365 -1.8787 0.9765
1.9430 -5.4562 -1.9252 0.9759
2.9415 -5.1276 -1.9650 0.9754
3.8955 -4.6292 -2.0111 0.9748
4.3469 -4.3165 -2.0363 0.9745
4.7761 -3.9622 -2.0628 0.9742
5.1791 -3.5673 -2.0904 0.9738
5.5516 -3.1332 -2.1190 0.9735
5.9806 -1.4999 -2.0496 0.9743
6.3203 -0.4242 -2.1056 0.9737
6.4156 0.1434 -2.1331 0.9733
6.4421 1.3130 -2.1854 0.9727
6.3691 1.9035 -2.2096 0.9724
6.2367 2.4894 -2.2322 0.9721
6.0447 3.0639 -2.2527 0.9718
5.7936 3.6202 -2.2709 0.9716
5.3388 4.0405 -2.2256 0.9722
4.0942 4.4460 -2.0090 0.9748
2.5495 4.9435 -1.8489 0.9768
0.0804 2.7378 -0.9104 0.9885
-0.9073 6.0290 -2.0266 0.9746
-1.5126 6.2155 -2.1264 0.9734
-1.8437 5.4164 -1.9019 0.9762
-3.1156 5.6120 -2.1337 0.9733
-4.3150 4.4068 -2.0501 0.9743
-5.9603 0.4841 -1.9878 0.9751
-5.8225 -0.5705 -1.9447 0.9756
-5.5229 -1.5665 -1.9083 0.9761
-4.8049 -2.9094 -1.8671 0.9766
-3.8126 -4.0253 -1.8429 0.9769
-3.0256 -4.6227 -1.8365 0.9770
-2.6005 -4.8734 -1.8361 0.9770
-2.1572 -5.0905 -1.8378 0.9770
-1.6976 -5.2729 -1.8413 0.9769
-1.2239 -5.4195 -1.8468 0.9769
-0.7383 -5.5292 -1.8543 0.9768
-0.2431 -5.6011 -1.8636 0.9766
2.2888 -5.3626 -1.9381 0.9757
3.2751 -4.9758 -1.9801 0.9752
3.7498 -4.7187 -2.0035 0.9749
4.2073 -4.4192 -2.0283 0.9746
4.6439 -4.0779 -2.0544 0.9743
-4.9258 -2.0170 -1.9035 0.9776
-4.6951 -2.4325 -1.8910 0.9778
-4.1442 -3.1947 -1.8712 0.9780
-3.8279 -3.5382 -1.8641 0.9781
-2.7384 -4.4007 -1.8535 0.9782
-2.3350 -4.6279 -1.8537 0.9782
-1.0321 -5.1127 -1.8652 0.9781
-0.5740 -5.2052 -1.8727 0.9780
2.2600 -4.9762 -1.9545 0.9771
2.7218 -4.8018 -1.9738 0.9768
3.1726 -4.5877 -1.9947 0.9766
3.6091 -4.3340 -2.0169 0.9763
5.1412 -2.9366 -2.1173 0.9752
5.0595 -2.3180 -1.9902 0.9766
5.3140 -1.8812 -2.0159 0.9763
5.5310 -1.4175 -2.0418 0.9760
5.7071 -0.9300 -2.0678 0.9757
5.9242 0.1018 -2.1189 0.9751
5.7509 2.2612 -2.2098 0.9741
5.3418 3.2997 -2.2453 0.9737
4.7141 4.2362 -2.2665 0.9734
4.1213 4.4294 -2.1636 0.9746
3.4153 4.4004 -1.9920 0.9766
3.0133 4.6942 -1.9948 0.9766
-1.4187 5.9633 -2.1921 0.9743
-1.8107 5.4110 -2.0405 0.9761
-2.8537 5.2034 -2.1222 0.9751
-3.2674 4.8694 -2.0970 0.9754
-3.6437 4.5025 -2.0713 0.9757
-4.5297 3.2499 -1.9936 0.9766
-4.7406 2.7967 -1.9683 0.9769
-2.7996 1.3305 -1.1085 0.9869
-5.5653 0.4810 -1.9976 0.9765
-5.5272 -0.0174 -1.9766 0.9768
-5.4491 -0.5055 -1.9570 0.9770
-4.9917 -1.8822 -1.9078 0.9776
-3.9300 -3.4331 -1.8661 0.9781
-3.5965 -3.7582 -1.8602 0.9781
-2.4636 -4.5599 -1.8534 0.9782
-2.0484 -4.7653 -1.8549 0.9782
-1.6178 -4.9377 -1.8581 0.9782
-1.1739 -5.0763 -1.8632 0.9781
-0.7189 -5.1800 -1.8702 0.9780
0.2156 -5.2791 -1.8894 0.9778
1.1666 -5.2284 -1.9157 0.9775
1.6418 -5.1452 -1.9314 0.9773
2.1132 -5.0228 -1.9487 0.9771
2.5778 -4.8608 -1.9676 0.9769
3.8985 -4.1374 -2.0329 0.9761
4.3030 -3.8181 -2.0572 0.9759
4.6837 -3.4610 -2.0826 0.9756
5.3443 -2.6324 -2.1304 0.9750
2.3645 -0.9125 -0.9063 0.9893
5.4670 -1.5659 -2.0337 0.9761
5.6564 -1.0855 -2.0597 0.9758
5.9027 -0.0642 -2.1110 0.9752
5.9541 0.4682 -2.1358 0.9749
5.7955 2.0929 -2.2035 0.9742
4.3017 4.3707 -2.1930 0.9743
3.1429 4.6064 -1.9942 0.9766
2.2476 5.0328 -1.9711 0.9769
1.7787 5.1819 -1.9592 0.9770
0.8541 3.4705 -1.2781 0.9849
0.1808 2.8849 -1.0337 0.9878
-1.6705 5.5003 -2.0557 0.9759
-2.2579 5.5845 -2.1541 0.9747
-2.7165 5.3007 -2.1300 0.9750
-3.5297 4.6210 -2.0794 0.9756
-3.8790 4.2342 -2.0535 0.9759
-4.6789 2.9404 -1.9762 0.9768
-5.5520 1.1465 -2.0273 0.9762
-5.5688 0.6392 -2.0045 0.9765
-5.4778 -0.3535 -1.9630 0.9770
-5.3732 -0.8330 -1.9444 0.9772
-5.2315 -1.2978 -1.9275 0.9774
-4.8437 -2.1740 -1.8986 0.9777
-4.6015 -2.5814 -1.8868 0.9778
-4.3295 -2.9657 -1.8767 0.9780
-4.0296 -3.3255 -1.8684 0.9780
-3.7039 -3.6591 -1.8619 0.9781
-3.3541 -3.9650 -1.8572 0.9782
-2.5905 -4.4889 -1.8534 0.9782
-1.3147 -5.0365 -1.8614 0.9781
-0.8629 -5.1512 -1.8678 0.9781
0.0672 -5.2733 -1.8859 0.9778
1.0170 -5.2465 -1.9111 0.9776
2.4328 -4.9160 -1.9615 0.9770
2.8909 -4.7268 -1.9814 0.9767
3.3368 -4.4980 -2.0028 0.9765
3.7671 -4.2297 -2.0255 0.9762
4.1784 -3.9225 -2.0495 0.9759
4.5669 -3.5772 -2.0745 0.9757
2.3395 -0.9792 -0.9070 0.9893
5.3992 -1.7118 -2.0255 0.9762
5.7615 -0.7433 -2.0774 0.9756
5.8764 -0.2290 -2.1030 0.9753
5.9599 0.8385 -2.1523 0.9748
5.2423 3.4840 -2.2509 0.9736
4.4872 4.3102 -2.2250 0.9739
3.9135 4.4968 -2.1318 0.9750
3.2695 4.5145 -1.9933 0.9766
2.3964 4.9853 -1.9780 0.9768
1.9254 5.1353 -1.9613 0.9770
1.0008 3.6251 -1.3448 0.9842
0.9884 5.4314 -1.9742 0.9768
0.5074 5.5821 -2.0044 0.9765
-0.5211 5.9019 -2.1188 0.9751
-1.6101 5.8913 -2.1840 0.9744
-2.5759 5.3943 -2.1377 0.9749
-3.0117 5.0833 -2.1129 0.9752
-3.4118 4.7366 -2.0875 0.9755
-3.7736 4.3586 -2.0617 0.9758
-4.3753 3.5273 -2.0098 0.9764
-4.6131 3.0829 -1.9841 0.9767
-4.8081 2.6253 -1.9590 0.9770
-5.5027 -0.2003 -1.9691 0.9769
-5.2799 -1.1535 -1.9327 0.9773
-4.6809 -2.4558 -1.8903 0.9778
-4.4180 -2.8476 -1.8796 0.9779
-3.8089 -3.5572 -1.8637 0.9781
-3.4664 -3.8720 -1.8585 0.9782
-2.3111 -4.6401 -1.8538 0.9782
-0.0807 -5.2638 -1.8826 0.9779
1.8177 -5.1043 -1.9376 0.9772
2.2869 -4.9672 -1.9555 0.9770
3.1982 -4.5741 -1.9959 0.9766
3.6338 -4.3182 -2.0182 0.9763
4.0515 -4.0231 -2.0418 0.9760
4.4475 -3.6897 -2.0665 0.9758
4.8183 -3.3189 -2.0923 0.9755
5.1601 -2.9122 -2.1189 0.9751
5.0752 -2.2936 -1.9916 0.9766
5.3275 -1.8552 -2.0174 0.9763
5.7159 -0.9012 -2.0693 0.9757
5.8454 -0.3923 -2.0950 0.9754
5.9276 0.1325 -2.1203 0.9751
5.8686 1.7540 -2.1904 0.9743
5.5613 2.8189 -2.2296 0.9739
5.3268 3.3285 -2.2462 0.9737
4.6783 4.2479 -2.2598 0.9735
4.0886 4.4400 -2.1584 0.9747
3.3930 4.4185 -1.9922 0.9766
2.5463 4.9374 -1.9866 0.9767
2.0726 5.0885 -1.9648 0.9769
1.6052 5.2368 -1.9587 0.9770
0.7954 3.7674 -1.3770 0.9838
0.6601 5.5344 -1.9932 0.9766
0.0807 2.7487 -0.9834 0.9884
-0.9060 6.0207 -2.1773 0.9745
-3.2902 4.8491 -2.0956 0.9754
-3.6642 4.4804 -2.0698 0.9757
-4.2919 3.6634 -2.0179 0.9763
-4.7514 2.7702 -1.9668 0.9769
-2.8258 1.3251 -1.1161 0.9868
-5.5194 1.4669 -2.0423 0.9760
-5.5642 0.4520 -1.9963 0.9766
-5.5237 -0.0459 -1.9754 0.9768
-5.3248 -1.0076 -1.9380 0.9772
-4.9799 -1.9072 -1.9070 0.9776
-4.5037 -2.7270 -1.8828 0.9779
-3.2183 -4.0715 -1.8559 0.9782
-2.4401 -4.5727 -1.8535 0.9782
-2.0240 -4.7761 -1.8550 0.9782
-1.1480 -5.0833 -1.8636 0.9781
-0.6924 -5.1849 -1.8706 0.9780
-0.2279 -5.2507 -1.8794 0.9779
3.0583 -4.6463 -1.9892 0.9766
3.9224 -4.1200 -2.0343 0.9761
4.3257 -3.7985 -2.0587 0.9758
4.7048 -3.4393 -2.0841 0.9755
-4.4128 -2.2862 -1.9046 0.9789
-4.1688 -2.6566 -1.8944 0.9790
-3.8975 -3.0045 -1.8859 0.9791
-3.6008 -3.3283 -1.8791 0.9792
-3.2806 -3.6265 -1.8740 0.9793
-2.9386 -3.8979 -1.8707 0.9793
-1.8016 -4.5381 -1.8711 0.9793
0.3424 -4.9633 -1.9066 0.9789
1.2358 -4.8888 -1.9324 0.9786
2.1199 -4.6676 -1.9645 0.9783
2.9720 -4.2977 -2.0024 0.9779
3.3786 -4.0572 -2.0233 0.9776
4.1364 -3.4677 -2.0685 0.9771
4.4808 -3.1206 -2.0925 0.9769
4.7954 -2.7391 -2.1164 0.9766
4.9502 -1.7525 -2.0124 0.9778
5.1478 -1.3193 -2.0365 0.9775
5.3071 -0.8648 -2.0606 0.9772
5.4994 0.0945 -2.1078 0.9767
5.4401 1.5954 -2.1726 0.9760
5.1544 2.5793 -2.2088 0.9756
4.9376 3.0500 -2.2241 0.9754
4.6732 3.4990 -2.2372 0.9753
4.3633 3.9209 -2.2480 0.9752
4.0107 4.3105 -2.2563 0.9751
2.8748 4.4786 -2.0394 0.9775
2.0971 5.0735 -2.1038 0.9768
-0.3163 5.7608 -2.2110 0.9756
-1.3138 5.5221 -2.1752 0.9760
-1.7845 5.3327 -2.1550 0.9762
-2.6488 4.8297 -2.1109 0.9767
-3.0354 4.5236 -2.0876 0.9769
-3.3879 4.1864 -2.0638 0.9772
-4.2228 3.0297 -1.9917 0.9780
-4.4232 2.6095 -1.9680 0.9782
-2.7959 1.3287 -1.1863 0.9868
-5.2130 0.4505 -2.0052 0.9778
-5.0043 -0.9203 -1.9499 0.9784
-4.6891 -1.7681 -1.9204 0.9788
-4.2485 -2.5426 -1.8974 0.9790
-3.9855 -2.8978 -1.8884 0.9791
-3.3836 -3.5357 -1.8754 0.9793
-2.6925 -4.0678 -1.8694 0.9793
-2.3182 -4.2909 -1.8690 0.9793
-0.2397 -4.9342 -1.8931 0.9791
1.0956 -4.9102 -1.9279 0.9787
2.4169 -4.5575 -1.9769 0.9781
3.2526 -4.1367 -2.0166 0.9777
3.6476 -3.8711 -2.0383 0.9775
4.0230 -3.5696 -2.0611 0.9772
4.7013 -2.8632 -2.1094 0.9767
5.3926 -0.5424 -2.0770 0.9771
5.5198 0.9352 -2.1454 0.9763
5.2124 2.4279 -2.2036 0.9757
4.7613 3.3607 -2.2333 0.9753
4.4654 3.7917 -2.2449 0.9752
4.1258 4.1919 -2.2540 0.9751
3.0230 4.4308 -2.0555 0.9773
1.7765 5.1754 -2.0969 0.9768
-0.6651 5.7009 -2.1995 0.9757
-1.6391 5.3969 -2.1615 0.9761
-2.5207 4.9188 -2.1181 0.9766
-3.2810 4.2954 -2.0713 0.9771
-3.6089 3.9393 -2.0473 0.9774
-3.8995 3.5591 -2.0232 0.9776
-4.3645 2.7428 -1.9754 0.9782
-2.7363 1.3959 -1.1772 0.9869
-5.1233 1.5456 -2.0508 0.9773
-5.2151 0.5986 -2.0116 0.9778
-5.1950 0.1295 -1.9914 0.9780
-5.1367 -0.3315 -1.9726 0.9782
-5.0416 -0.7816 -1.9551 0.9784
-4.9112 -1.2183 -1.9391 0.9786
-4.7473 -1.6394 -1.9247 0.9787
-3.7901 -3.1278 -1.8831 0.9792
-3.4844 -3.4422 -1.8770 0.9792
-3.1558 -3.7306 -1.8726 0.9793
-2.8063 -3.9916 -1.8699 0.9793
-2.0519 -4.4266 -1.8697 0.9793
-1.2368 -4.7381 -1.8766 0.9792
-0.3775 -4.9183 -1.8903 0.9791
0.5082 -4.9604 -1.9109 0.9789
1.4015 -4.8589 -1.9379 0.9786
3.1250 -4.2125 -2.0100 0.9778
3.5255 -3.9584 -2.0314 0.9775
3.9075 -3.6682 -2.0538 0.9773
4.8984 -2.5860 -2.1227 0.9766
5.0280 -1.5941 -2.0213 0.9777
5.3559 -0.6910 -2.0695 0.9771
5.5155 0.2783 -2.1163 0.9766
5.5263 0.7775 -2.1386 0.9764
5.4021 1.7811 -2.1798 0.9759
5.0795 2.7565 -2.2147 0.9755
4.8448 3.2198 -2.2292 0.9754
4.2370 4.0698 -2.2514 0.9751
3.8694 4.4461 -2.2587 0.9751
1.9230 5.1289 -2.0991 0.9768
1.0045 3.6385 -1.4465 0.9840
0.9871 5.4245 -2.1129 0.9767
-1.0074 5.6178 -2.1872 0.9758
