ply
format ascii 1.0
element vertex 1594
property float32 x
property float32 y
property float32 z
property float32 I
end_header
3.9256 -4.1214 -2.0354 0.9761
4.7075 -3.4388 -2.0848 0.9755
5.0582 -3.0424 -2.1109 0.9752
2.3819 -0.9039 -0.9110 0.9892
5.4788 -1.5357 -2.0348 0.9761
5.6647 -1.0535 -2.0605 0.9758
5.9507 0.5030 -2.1356 0.9749
5.9468 1.0437 -2.1591 0.9747
5.7795 2.1264 -2.2022 0.9742
5.3961 3.1715 -2.2383 0.9738
4.2663 4.3890 -2.1889 0.9743
3.7034 4.5627 -2.1015 0.9753
3.1089 4.6191 -1.9911 0.9766
2.6824 4.8752 -1.9899 0.9766
2.2036 5.0206 -1.9607 0.9770
1.7347 5.1621 -1.9475 0.9771
0.7969 5.4429 -1.9672 0.9769
-0.0846 2.5290 -0.9049 0.9893
-0.7275 5.8930 -2.1234 0.9751
-1.2927 5.9993 -2.1946 0.9743
-2.2683 5.5019 -2.1281 0.9750
-2.7484 5.2733 -2.1265 0.9751
-3.5568 4.5898 -2.0765 0.9756
-4.2097 3.7880 -2.0251 0.9762
-4.4739 3.3541 -1.9996 0.9765
-4.6956 2.9042 -1.9744 0.9768
-2.7724 1.3892 -1.1089 0.9869
-5.0109 1.9730 -1.9258 0.9774
-5.4926 1.6133 -2.0472 0.9760
-5.5584 1.1053 -2.0267 0.9762
-5.5443 0.0969 -1.9830 0.9767
-5.4757 -0.3945 -1.9632 0.9769
-5.2237 -1.3379 -1.9283 0.9774
-5.0437 -1.7850 -1.9133 0.9775
-4.5852 -2.6189 -1.8883 0.9778
-4.0078 -3.3604 -1.8704 0.9780
-3.6794 -3.6924 -1.8641 0.9781
-2.9526 -4.2715 -1.8569 0.9782
-2.1460 -4.7290 -1.8571 0.9782
-1.7178 -4.9092 -1.8600 0.9781
-1.2759 -5.0556 -1.8646 0.9781
-0.8222 -5.1672 -1.8711 0.9780
-0.3591 -5.2430 -1.8793 0.9779
0.1110 -5.2822 -1.8894 0.9778
0.5859 -5.2840 -1.9012 0.9777
1.0628 -5.2476 -1.9147 0.9775
1.5392 -5.1725 -1.9299 0.9773
2.4790 -4.9041 -1.9651 0.9769
2.9365 -4.7104 -1.9850 0.9767
3.3812 -4.4769 -2.0063 0.9764
3.8099 -4.2041 -2.0289 0.9762
4.2191 -3.8923 -2.0528 0.9759
4.9639 -3.1560 -2.1035 0.9753
5.2853 -2.7309 -2.1274 0.9750
2.3421 -0.9559 -0.9046 0.9893
5.4200 -1.6653 -2.0276 0.9762
5.6173 -1.1897 -2.0534 0.9759
5.9427 0.3541 -2.1289 0.9750
5.9112 1.4361 -2.1754 0.9745
5.8156 1.9773 -2.1966 0.9742
4.8975 4.0040 -2.2622 0.9735
2.8055 4.8122 -1.9920 0.9766
0.9287 5.4037 -1.9607 0.9770
-0.0219 2.5437 -0.9097 0.9893
-0.5751 5.8483 -2.1015 0.9753
-1.1405 6.0138 -2.1889 0.9743
-1.6656 5.8622 -2.1793 0.9744
-2.0596 5.3702 -2.0568 0.9759
-3.0572 5.0424 -2.1087 0.9753
-3.8113 4.3119 -2.0580 0.9758
-4.1288 3.9050 -2.0323 0.9761
-4.4048 3.4764 -2.0067 0.9764
-4.6383 3.0305 -1.9813 0.9767
-4.8291 2.5716 -1.9565 0.9770
-4.9773 2.1039 -1.9324 0.9773
-5.0833 1.6312 -1.9091 0.9776
-5.5728 0.7382 -2.0103 0.9764
-5.4019 -0.7420 -1.9499 0.9771
-5.2674 -1.2106 -1.9328 0.9773
-4.6563 -2.5084 -1.8914 0.9778
-4.0945 -3.2635 -1.8724 0.9780
-3.7730 -3.6030 -1.8656 0.9781
-3.4271 -3.9150 -1.8607 0.9781
-3.0587 -4.1982 -1.8575 0.9782
-1.8382 -4.8626 -1.8590 0.9782
-1.3998 -5.0184 -1.8631 0.9781
0.9303 -5.2616 -1.9108 0.9776
1.4072 -5.1972 -1.9255 0.9774
1.8814 -5.0938 -1.9419 0.9772
2.3503 -4.9508 -1.9598 0.9770
2.8106 -4.7681 -1.9793 0.9768
3.6927 -4.2837 -2.0225 0.9763
4.1077 -3.9827 -2.0460 0.9760
4.5004 -3.6434 -2.0707 0.9757
4.8672 -3.2669 -2.0963 0.9754
5.2035 -2.8545 -2.1224 0.9751
5.3581 -1.7930 -2.0205 0.9763
5.7337 -0.8321 -2.0719 0.9757
5.9307 0.2058 -2.1221 0.9751
5.9554 0.7429 -2.1462 0.9748
5.9282 1.2853 -2.1692 0.9746
5.8476 1.8275 -2.1909 0.9743
5.7129 2.3638 -2.2109 0.9741
5.5241 2.8880 -2.2291 0.9739
4.6008 4.2855 -2.2484 0.9736
3.3316 4.4556 -1.9895 0.9766
2.9238 4.7407 -1.9918 0.9766
1.9943 5.0838 -1.9529 0.9771
0.7256 3.6730 -1.3389 0.9842
0.5838 5.5063 -1.9801 0.9768
0.0437 2.6977 -0.9648 0.9886
-0.2017 2.7504 -0.9862 0.9884
-0.9788 5.9665 -2.1622 0.9746
-1.9013 5.3510 -2.0307 0.9762
-2.4990 5.4373 -2.1399 0.9749
-4.7615 1.4762 -1.9104 0.9789
-5.2186 0.6389 -2.0148 0.9777
-5.2023 0.1687 -1.9946 0.9780
-5.1475 -0.2937 -1.9758 0.9782
-5.0557 -0.7454 -1.9584 0.9783
-4.9284 -1.1841 -1.9424 0.9785
-4.7673 -1.6074 -1.9279 0.9787
-4.3502 -2.3992 -1.9038 0.9789
-4.0978 -2.7640 -1.8942 0.9790
-3.8185 -3.1057 -1.8862 0.9791
-3.5143 -3.4229 -1.8800 0.9792
-2.8383 -3.9778 -1.8726 0.9793
-1.6845 -4.5926 -1.8746 0.9793
0.0301 -4.9615 -1.9014 0.9790
0.4757 -4.9672 -1.9122 0.9789
1.3704 -4.8702 -1.9388 0.9786
1.8143 -4.7665 -1.9545 0.9784
2.2522 -4.6256 -1.9716 0.9782
2.6811 -4.4474 -1.9901 0.9780
3.8831 -3.6913 -2.0531 0.9773
4.5807 -3.0094 -2.1004 0.9768
5.0133 -1.6228 -2.0193 0.9777
5.1989 -1.1825 -2.0432 0.9774
5.3452 -0.7219 -2.0670 0.9772
5.4495 -0.2445 -2.0904 0.9769
5.5225 0.7444 -2.1355 0.9764
5.4034 1.7475 -2.1763 0.9760
3.8871 4.4178 -2.2550 0.9751
2.7214 4.5116 -2.0191 0.9777
1.9233 5.0492 -2.0706 0.9771
1.4741 5.2335 -2.0836 0.9770
-0.4771 5.7295 -2.2032 0.9757
-2.7738 4.7330 -2.1023 0.9768
-3.4918 4.0714 -2.0555 0.9773
-3.7968 3.7000 -2.0316 0.9775
-4.0638 3.3069 -2.0078 0.9778
-4.2917 2.8964 -1.9842 0.9781
-2.8377 1.2498 -1.1883 0.9868
-5.2161 0.7704 -2.0206 0.9777
-5.1665 -0.1662 -1.9809 0.9781
-5.0848 -0.6212 -1.9631 0.9783
-4.9672 -1.0638 -1.9467 0.9785
-4.6307 -1.9023 -1.9185 0.9788
-4.4152 -2.2941 -1.9068 0.9789
-3.8986 -3.0133 -1.8883 0.9791
-3.2800 -3.6359 -1.8765 0.9792
-2.9371 -3.9074 -1.8732 0.9793
-2.5744 -4.1506 -1.8717 0.9793
-1.7971 -4.5474 -1.8738 0.9793
-1.3866 -4.6988 -1.8774 0.9792
-0.9643 -4.8176 -1.8828 0.9792
-0.5323 -4.9028 -1.8899 0.9791
-0.0929 -4.9536 -1.8986 0.9790
0.3517 -4.9692 -1.9091 0.9789
0.7990 -4.9490 -1.9211 0.9788
2.5631 -4.5006 -1.9848 0.9781
2.9837 -4.2955 -2.0043 0.9778
3.3900 -4.0535 -2.0250 0.9776
4.7237 -2.1508 -1.9890 0.9780
4.9552 -1.7410 -2.0127 0.9778
5.1512 -1.3069 -2.0366 0.9775
5.3087 -0.8516 -2.0604 0.9772
5.4249 -0.3785 -2.0840 0.9770
5.4972 0.1086 -2.1071 0.9767
5.5236 0.6053 -2.1294 0.9765
5.5022 1.1071 -2.1508 0.9762
5.3118 2.1054 -2.1896 0.9758
5.1421 2.5912 -2.2066 0.9756
4.3461 3.9287 -2.2451 0.9752
3.3347 4.3235 -2.0924 0.9769
2.5448 4.9099 -2.1193 0.9766
2.0702 5.0539 -2.0929 0.9769
1.6033 5.1947 -2.0834 0.9770
0.0846 2.7150 -1.0409 0.9884
-0.1568 2.6888 -1.0322 0.9885
-2.6635 4.8149 -2.1086 0.9767
-3.0490 4.5080 -2.0856 0.9770
-3.9935 3.4180 -2.0144 0.9777
-2.7730 1.3044 -1.1743 0.9870
-4.7117 1.7214 -1.9223 0.9787
-5.1541 1.3759 -2.0443 0.9774
-5.2161 0.4290 -2.0057 0.9778
-5.1826 -0.0381 -1.9861 0.9780
-5.1112 -0.4960 -1.9679 0.9782
-5.0034 -0.9423 -1.9511 0.9784
-4.8608 -1.3744 -1.9358 0.9786
-4.6852 -1.7901 -1.9220 0.9787
-4.4781 -2.1873 -1.9098 0.9789
-3.9768 -2.9189 -1.8904 0.9791
-3.6862 -3.2499 -1.8832 0.9792
-3.3715 -3.5557 -1.8777 0.9792
-3.0344 -3.8348 -1.8740 0.9793
-2.6770 -4.0860 -1.8719 0.9793
-2.3011 -4.3080 -1.8716 0.9793
-1.5019 -4.6600 -1.8762 0.9792
-1.0826 -4.7879 -1.8811 0.9792
-0.6531 -4.8825 -1.8877 0.9791
-0.2155 -4.9430 -1.8960 0.9790
0.2279 -4.9684 -1.9060 0.9789
0.6747 -4.9583 -1.9176 0.9788
1.1224 -4.9119 -1.9308 0.9786
1.5684 -4.8287 -1.9456 0.9785
2.0099 -4.7085 -1.9619 0.9783
2.4442 -4.5510 -1.9796 0.9781
3.6728 -3.8559 -2.0407 0.9774
4.3974 -3.2123 -2.0869 0.9769
4.7212 -2.8397 -2.1113 0.9767
2.3850 -0.9050 -0.9776 0.9891
5.1005 -1.4297 -2.0300 0.9776
5.2690 -0.9799 -2.0538 0.9773
5.4817 -0.0278 -2.1007 0.9768
5.4563 1.4699 -2.1655 0.9761
5.3501 1.9684 -2.1846 0.9759
4.7360 3.3866 -2.2312 0.9754
4.4370 3.8150 -2.2424 0.9752
4.0946 4.2124 -2.2512 0.9751
2.9827 4.4316 -2.0471 0.9774
2.2009 5.0143 -2.0985 0.9768
1.7326 5.1558 -2.0844 0.9770
0.3127 5.5795 -2.1415 0.9763
-2.5507 4.8940 -2.1149 0.9766
-3.6321 3.9092 -2.0449 0.9774
-4.1700 3.1263 -1.9972 0.9779
-4.3804 2.7093 -1.9738 0.9782
-2.7789 1.3924 -1.1911 0.9868
-5.2186 0.5599 -2.0113 0.9778
-5.1347 -0.3699 -1.9728 0.9782
-4.3099 -2.4617 -1.9021 0.9790
-4.0529 -2.8227 -1.8927 0.9791
-2.7781 -4.0191 -1.8723 0.9793
-2.4072 -4.2493 -1.8715 0.9793
-0.7733 -4.8596 -1.8857 0.9791
0.1043 -4.9649 -1.9031 0.9790
0.9981 -4.9284 -1.9270 0.9787
3.1663 -4.1924 -2.0133 0.9777
3.5652 -3.9341 -2.0346 0.9775
3.9452 -3.6396 -2.0570 0.9773
5.4626 -0.1633 -2.0943 0.9769
5.5147 0.3286 -2.1171 0.9766
5.5200 0.8282 -2.1391 0.9764
5.4770 1.3306 -2.1599 0.9761
4.8110 3.2628 -2.2277 0.9754
4.5245 3.6990 -2.2396 0.9753
4.1938 4.1055 -2.2490 0.9752
3.8223 4.4774 -2.2560 0.9751
3.1162 4.3907 -2.0633 0.9772
1.8544 5.0959 -2.0781 0.9770
0.9739 3.6668 -1.4539 0.9839
-0.0229 2.6562 -1.0180 0.9887
-1.0613 5.5963 -2.1828 0.9759
-1.5430 5.4308 -2.1635 0.9761
-2.0024 5.2210 -2.1429 0.9763
-2.8390 4.6825 -2.0985 0.9768
-3.2097 4.3614 -2.0752 0.9771
-3.5454 4.0110 -2.0515 0.9773
-2.8794 1.2171 -1.1980 0.9867
-5.2060 0.2204 -1.9968 0.9779
-5.1554 -0.2430 -1.9778 0.9781
-4.7867 -1.5614 -1.9295 0.9787
-4.3763 -2.3575 -1.9050 0.9789
-4.1270 -2.7248 -1.8951 0.9790
-3.5491 -3.3891 -1.8806 0.9792
-2.5120 -4.1884 -1.8716 0.9793
-2.1285 -4.3970 -1.8721 0.9793
-0.4593 -4.9137 -1.8912 0.9791
1.3211 -4.8794 -1.9372 0.9786
2.6342 -4.4690 -1.9880 0.9780
3.4563 -4.0095 -2.0286 0.9776
3.8418 -3.7249 -2.0506 0.9773
4.2058 -3.4049 -2.0737 0.9771
4.5449 -3.0506 -2.0977 0.9768
4.8517 -2.6614 -2.1206 0.9766
5.4401 -0.2979 -2.0879 0.9769
5.4152 1.6924 -2.1742 0.9760
4.8824 3.1372 -2.2240 0.9754
4.2899 3.9959 -2.2467 0.9752
3.9293 4.3779 -2.2543 0.9751
2.7728 4.4959 -2.0242 0.9776
2.4646 4.9343 -2.1137 0.9767
1.9919 5.0776 -2.0902 0.9769
0.5830 5.4994 -2.1193 0.9766
-0.2010 2.7419 -1.0536 0.9883
-0.9242 5.6339 -2.1879 0.9758
-1.8773 5.2835 -2.1488 0.9763
-2.3182 5.0439 -2.1273 0.9765
-2.7302 4.7659 -2.1048 0.9767
-1.9536 0.2392 -0.8055 0.9915
-1.9283 0.0625 -0.7896 0.9917
-1.9452 -0.1110 -0.7974 0.9916
-1.9430 -0.2865 -0.8038 0.9915
-4.6391 -1.1146 -1.9527 0.9796
-4.0995 -2.2610 -1.9161 0.9800
-3.6004 -2.9284 -1.8994 0.9801
-3.0059 -3.5030 -1.8892 0.9802
-2.6773 -3.7521 -1.8865 0.9803
-2.3303 -3.9741 -1.8855 0.9803
-1.5888 -4.3318 -1.8884 0.9803
-0.7970 -4.5681 -1.8979 0.9802
0.0284 -4.6760 -1.9138 0.9800
0.8696 -4.6496 -1.9360 0.9798
1.7071 -4.4850 -1.9641 0.9795
2.1180 -4.3502 -1.9802 0.9793
2.9102 -3.9754 -2.0164 0.9789
3.2855 -3.7361 -2.0362 0.9787
4.2913 -2.8193 -2.1014 0.9781
2.3441 -0.9978 -1.0427 0.9890
4.8556 -1.1044 -2.0380 0.9787
5.1425 0.6931 -2.1237 0.9778
5.1065 1.1601 -2.1432 0.9776
5.0250 1.6251 -2.1615 0.9774
3.6057 4.0980 -2.2340 0.9767
3.1934 4.3599 -2.2118 0.9769
1.4722 5.2269 -2.2225 0.9768
0.9999 5.3390 -2.2231 0.9768
-1.3618 5.0806 -2.1528 0.9775
-2.9387 4.1207 -2.0714 0.9784
-3.5474 3.4569 -2.0272 0.9788
-2.7779 1.2234 -1.2423 0.9870
-4.4434 1.4995 -1.9193 0.9799
-4.8513 1.1669 -2.0421 0.9787
-1.9428 0.2870 -0.8038 0.9915
-1.9453 0.1115 -0.7975 0.9916
-1.9537 -0.2387 -0.8056 0.9915
-4.5340 -1.4044 -1.9426 0.9797
-4.3620 -1.7919 -1.9300 0.9798
-3.9312 -2.5120 -1.9093 0.9800
-3.3960 -3.1472 -1.8950 0.9802
-2.7705 -3.6857 -1.8871 0.9803
-0.0875 -4.6689 -1.9112 0.9800
0.3314 -4.6822 -1.9211 0.9799
0.7526 -4.6615 -1.9325 0.9798
1.5918 -4.5162 -1.9598 0.9795
2.4095 -4.2310 -1.9927 0.9792
3.5457 -3.5421 -2.0512 0.9786
3.8882 -3.2451 -2.0728 0.9783
4.4960 -2.5545 -2.1164 0.9779
5.1237 0.1012 -2.0974 0.9781
5.1210 1.0304 -2.1379 0.9777
5.0522 1.4965 -2.1566 0.9775
4.9376 1.9571 -2.1738 0.9773
4.3232 3.2565 -2.2152 0.9769
4.0328 3.6455 -2.2249 0.9768
2.4888 4.8019 -2.2136 0.9769
1.6013 5.1882 -2.2222 0.9768
0.7592 3.5627 -1.4909 0.9844
0.6511 5.3750 -2.2159 0.9769
0.0842 2.7022 -1.1065 0.9884
-0.1477 2.5320 -1.0380 0.9891
-2.4823 4.4874 -2.0989 0.9781
-3.7333 3.1952 -2.0112 0.9790
-3.9596 2.8178 -1.9890 0.9792
-4.4178 1.6140 -1.9250 0.9799
-4.4970 1.2005 -1.9049 0.9801
-2.1413 0.3708 -0.8894 0.9907
-1.9055 -0.0140 -0.7799 0.9918
-1.9579 -0.1900 -0.8051 0.9915
-2.2023 -0.4148 -0.9172 0.9904
-4.5764 -1.2940 -1.9464 0.9797
-4.4128 -1.6860 -1.9334 0.9798
-3.9975 -2.4168 -1.9118 0.9800
-3.4760 -3.0646 -1.8966 0.9802
-3.1797 -3.3535 -1.8914 0.9802
-2.5252 -3.8543 -1.8859 0.9803
-1.4165 -4.3952 -1.8899 0.9802
0.6356 -4.6707 -1.9292 0.9798
1.0569 -4.6251 -1.9417 0.9797
2.2981 -4.2790 -1.9879 0.9792
2.6952 -4.0935 -2.0059 0.9790
3.0791 -3.8732 -2.0251 0.9788
4.1212 -3.0106 -2.0888 0.9782
4.4214 -2.6593 -2.1117 0.9779
4.6766 -2.2712 -2.1278 0.9778
4.7658 -1.3358 -2.0257 0.9788
5.0350 -0.4771 -2.0699 0.9784
5.1102 -0.0259 -2.0915 0.9782
5.1431 0.4348 -2.1125 0.9779
5.1320 0.9007 -2.1325 0.9777
5.0759 1.3674 -2.1515 0.9775
4.8264 2.2837 -2.1853 0.9772
4.3965 3.1438 -2.2121 0.9769
3.7987 3.9080 -2.2305 0.9767
2.9788 4.4258 -2.1834 0.9772
2.6075 4.7392 -2.2138 0.9769
2.1981 5.0080 -2.2384 0.9766
0.8605 3.5975 -1.5139 0.9841
0.7854 5.3642 -2.2188 0.9768
0.3018 5.3857 -2.2077 0.9770
-0.0844 2.5239 -1.0336 0.9891
-0.6525 5.2850 -2.1794 0.9772
-1.1131 5.1657 -2.1627 0.9774
-2.7465 4.2862 -2.0835 0.9782
-3.6641 3.2970 -2.0173 0.9789
-3.9004 2.9242 -1.9951 0.9792
-4.4787 1.3155 -1.9104 0.9800
-4.8786 0.9701 -2.0358 0.9787
-1.9570 0.2100 -0.8055 0.9915
-2.0596 -0.3352 -0.8540 0.9910
-4.6162 -1.1823 -1.9503 0.9796
-4.4613 -1.5788 -1.9368 0.9798
-3.2642 -3.2757 -1.8927 0.9802
-2.9523 -3.5465 -1.8886 0.9803
-2.2707 -4.0084 -1.8855 0.9803
-1.9047 -4.1971 -1.8864 0.9803
-0.7291 -4.5822 -1.8990 0.9801
-0.3183 -4.6471 -1.9064 0.9801
0.0983 -4.6790 -1.9154 0.9800
0.9400 -4.6412 -1.9381 0.9797
1.3601 -4.5706 -1.9517 0.9796
1.7763 -4.4649 -1.9667 0.9794
2.1859 -4.3242 -1.9831 0.9793
2.5861 -4.1485 -2.0008 0.9791
2.9741 -3.9378 -2.0197 0.9789
3.7007 -3.4141 -2.0607 0.9785
4.8804 -1.0336 -2.0418 0.9787
5.0068 -0.6001 -2.0638 0.9784
5.0935 -0.1523 -2.0856 0.9782
5.0960 1.2381 -2.1464 0.9776
4.8719 2.1590 -2.1810 0.9772
4.1990 3.4329 -2.2198 0.9768
3.8910 3.8091 -2.2285 0.9767
3.5190 4.1221 -2.2182 0.9768
2.6406 4.5294 -2.1458 0.9776
1.8455 5.0713 -2.2087 0.9769
0.9194 5.3496 -2.2215 0.9768
0.4360 5.3846 -2.2110 0.9769
-0.0228 2.6494 -1.0844 0.9886
-0.5221 5.3101 -2.1838 0.9772
-0.9868 5.2032 -2.1675 0.9774
-1.4355 5.0525 -2.1497 0.9776
-1.8642 4.8606 -2.1306 0.9778
-2.6468 4.3655 -2.0894 0.9782
-2.9947 4.0692 -2.0678 0.9784
-3.3103 3.7452 -2.0457 0.9786
-3.5921 3.3973 -2.0235 0.9789
-3.8384 3.0294 -2.0013 0.9791
-2.7048 1.4404 -1.2542 0.9868
-4.4575 1.4304 -1.9160 0.9800
-4.8624 1.0930 -2.0397 0.9787
-1.9357 0.0819 -0.7930 0.9917
-1.9390 -0.0914 -0.7945 0.9916
-1.9480 -0.2676 -0.8048 0.9915
-4.1240 -2.2216 -1.9172 0.9800
-3.8902 -2.5685 -1.9079 0.9801
-3.6306 -2.8938 -1.9002 0.9801
-2.0078 -4.1477 -1.8860 0.9803
-1.6313 -4.3152 -1.8881 0.9803
-0.0178 -4.6735 -1.9127 0.9800
0.4017 -4.6811 -1.9229 0.9799
0.8230 -4.6547 -1.9346 0.9798
2.4761 -4.2008 -1.9957 0.9791
3.2449 -3.7642 -2.0340 0.9787
3.6044 -3.4948 -2.0548 0.9785
3.9432 -3.1923 -2.0764 0.9783
4.2581 -2.8581 -2.0989 0.9781
4.5393 -2.4901 -2.1190 0.9779
4.4573 -1.9497 -1.9912 0.9792
4.6650 -1.5611 -2.0133 0.9790
4.8386 -1.1509 -2.0356 0.9787
5.0735 -0.2779 -2.0796 0.9783
5.0363 1.5740 -2.1595 0.9775
4.9140 2.0332 -2.1765 0.9773
4.7461 2.4813 -2.1919 0.9771
3.6450 4.0611 -2.2334 0.9767
3.2359 4.3276 -2.2116 0.9769
1.9894 5.0712 -2.2295 0.9767
1.5236 5.2115 -2.2222 0.9768
1.0531 5.3312 -2.2241 0.9768
-0.8592 5.2374 -2.1722 0.9773
-2.1592 4.6980 -2.1161 0.9779
-2.5448 4.4424 -2.0953 0.9781
-1.5189 0.3257 -0.6770 0.9932
-1.5890 -0.5358 -0.7308 0.9927
-3.1325 -3.0511 -1.9058 0.9811
-2.2031 -3.7571 -1.8981 0.9812
-1.5020 -4.0950 -1.9009 0.9811
0.0268 -4.4171 -1.9251 0.9809
0.4233 -4.4194 -1.9349 0.9808
0.8209 -4.3893 -1.9461 0.9807
1.2174 -4.3265 -1.9588 0.9806
1.6103 -4.2305 -1.9728 0.9804
2.7409 -3.7442 -2.0223 0.9800
3.4270 -3.2577 -2.0607 0.9796
4.0318 -2.6488 -2.1024 0.9792
4.2862 -2.2965 -2.1192 0.9790
4.3936 -1.4222 -2.0126 0.9801
4.5496 -1.0348 -2.0334 0.9798
4.6708 -0.6308 -2.0541 0.9796
4.7551 -0.2133 -2.0744 0.9794
4.8056 0.6477 -2.1133 0.9791
4.6904 1.5169 -2.1484 0.9787
4.4058 2.3591 -2.1781 0.9784
4.2013 2.7586 -2.1904 0.9783
3.6750 3.4917 -2.2093 0.9781
2.6326 4.3644 -2.2213 0.9780
2.2318 4.5809 -2.2208 0.9780
1.8116 4.7557 -2.2179 0.9780
1.3765 4.8871 -2.2128 0.9781
0.0169 2.6679 -1.1627 0.9884
-0.4134 4.9653 -2.1714 0.9785
-1.2715 4.7436 -2.1403 0.9788
-3.5639 2.9002 -2.0025 0.9802
-3.7693 2.5438 -1.9818 0.9804
-1.5891 0.5363 -0.7309 0.9927
-1.5138 0.2236 -0.6669 0.9933
-1.5296 0.0876 -0.6677 0.9933
-1.5280 -0.0492 -0.6663 0.9934
-1.5216 -0.1859 -0.6681 0.9933
-1.5187 -0.3253 -0.6769 0.9932
-3.9295 -2.0417 -1.9299 0.9809
-3.7140 -2.3732 -1.9208 0.9810
-1.9563 -3.8920 -1.8984 0.9812
-1.2362 -4.1890 -1.9035 0.9811
0.3130 -4.4220 -1.9320 0.9808
0.7105 -4.4010 -1.9428 0.9807
1.1076 -4.3472 -1.9551 0.9806
1.8904 -4.1406 -1.9837 0.9803
3.6561 -3.0514 -2.0754 0.9794
3.9536 -2.7402 -2.0964 0.9792
4.2197 -2.3975 -2.1151 0.9790
4.1475 -1.8885 -1.9861 0.9803
4.3444 -1.5264 -2.0068 0.9801
4.5097 -1.1441 -2.0277 0.9799
4.6408 -0.7444 -2.0484 0.9797
4.7355 -0.3304 -2.0688 0.9795
4.7919 0.0947 -2.0888 0.9793
4.6071 1.8261 -2.1598 0.9786
4.4554 2.2451 -2.1743 0.9785
4.0287 3.0347 -2.1981 0.9782
3.4494 3.7296 -2.2140 0.9781
3.1092 4.0311 -2.2187 0.9780
1.4985 4.8551 -2.2144 0.9781
0.6068 5.0087 -2.1988 0.9782
0.0859 2.7568 -1.2020 0.9880
-1.1559 4.7841 -2.1450 0.9788
-1.5657 4.6243 -2.1278 0.9789
-2.6613 3.9348 -2.0703 0.9795
-2.9724 3.6451 -2.0498 0.9797
-3.5009 2.9964 -2.0083 0.9801
-2.7073 1.2735 -1.3039 0.9870
-1.5968 0.5834 -0.7409 0.9926
-1.5035 0.2604 -0.6650 0.9934
-1.5286 0.1257 -0.6684 0.9933
-1.5267 -0.1482 -0.6685 0.9933
-1.5649 -0.4425 -0.7088 0.9929
-4.1661 -1.5918 -1.9437 0.9807
-3.9847 -1.9464 -1.9327 0.9808
-2.7057 -3.4194 -1.9003 0.9812
-1.7021 -4.0124 -1.8995 0.9812
-1.3390 -4.1546 -1.9024 0.9811
-0.9650 -4.2675 -1.9068 0.9811
-0.5819 -4.3502 -1.9128 0.9810
0.2028 -4.4221 -1.9292 0.9809
1.7831 -4.1772 -1.9794 0.9804
2.1662 -4.0334 -1.9953 0.9802
2.5392 -3.8565 -2.0123 0.9801
3.5694 -3.1325 -2.0697 0.9795
4.4671 -1.2521 -2.0219 0.9800
4.6079 -0.8570 -2.0427 0.9798
4.7802 -0.0242 -2.0833 0.9794
4.7946 0.8415 -2.1215 0.9790
4.5017 2.1301 -2.1705 0.9785
4.0974 2.9299 -2.1953 0.9783
3.2067 3.9508 -2.2176 0.9780
2.8450 4.2271 -2.2206 0.9780
2.4457 4.4450 -2.2111 0.9781
2.0470 4.6639 -2.2198 0.9780
0.8587 3.5901 -1.6088 0.9840
0.2813 5.0199 -2.1912 0.9783
-0.0850 2.5410 -1.1080 0.9890
-1.4538 4.6725 -2.1327 0.9789
-1.8494 4.4858 -2.1146 0.9791
-2.5698 4.0104 -2.0758 0.9794
-2.8890 3.7281 -2.0555 0.9796
-3.1781 3.4206 -2.0349 0.9798
-3.4353 3.0912 -2.0141 0.9800
-3.6594 2.7435 -1.9933 0.9802
-2.6855 1.3456 -1.3091 0.9870
-3.0060 1.1836 -1.4080 0.9860
-1.5707 0.4614 -0.7135 0.9929
-1.5060 0.2995 -0.6692 0.9933
-1.5259 0.0267 -0.6651 0.9934
-4.0379 -1.8496 -1.9356 0.9808
-3.3589 -2.8163 -1.9103 0.9811
-3.0853 -3.0962 -1.9050 0.9811
-2.7909 -3.3526 -1.9011 0.9811
-2.1467 -3.7895 -1.8981 0.9812
-1.8006 -3.9679 -1.8990 0.9812
-1.0698 -4.2392 -1.9054 0.9811
-0.6890 -4.3303 -1.9110 0.9810
-0.3007 -4.3907 -1.9180 0.9810
0.0929 -4.4197 -1.9266 0.9809
0.4897 -4.4166 -1.9366 0.9808
0.8873 -4.3811 -1.9481 0.9807
2.4368 -3.9089 -2.0075 0.9801
2.3376 -0.9541 -1.1003 0.9890
4.4220 -1.3587 -2.0161 0.9800
4.6875 -0.5619 -2.0575 0.9796
4.7655 -0.1425 -2.0778 0.9794
4.5448 2.0140 -2.1665 0.9785
3.6244 3.5481 -2.2105 0.9781
2.9483 4.1541 -2.2200 0.9780
2.5672 4.4034 -2.2214 0.9780
2.1628 4.6131 -2.2205 0.9780
1.7398 4.7807 -2.2172 0.9780
1.3027 4.9048 -2.2117 0.9781
0.8566 4.9841 -2.2040 0.9782
0.4064 5.0184 -2.1943 0.9783
-0.9209 4.8559 -2.1540 0.9787
-2.1213 4.3289 -2.1010 0.9792
-2.4760 4.0839 -2.0814 0.9794
-2.8033 3.8092 -2.0612 0.9796
-3.1010 3.5083 -2.0406 0.9798
-3.3672 3.1846 -2.0198 0.9800
-3.6006 2.8417 -1.9990 0.9802
-3.8002 2.4829 -1.9784 0.9804
-2.6677 1.4206 -1.3172 0.9869
-2.7460 1.1608 -1.2993 0.9871
-1.5830 0.5080 -0.7246 0.9928
-1.5187 0.2012 -0.6677 0.9933
-1.5290 0.0647 -0.6669 0.9933
-1.5293 -0.0721 -0.6672 0.9933
-1.5309 -0.3518 -0.6846 0.9932
-4.0889 -1.7516 -1.9386 0.9808
-3.8953 -2.0984 -1.9283 0.9809
-3.4310 -2.7346 -1.9121 0.9810
-2.8746 -3.2838 -1.9020 0.9811
-1.8982 -3.9212 -1.8986 0.9812
-1.1739 -4.2085 -1.9042 0.9811
0.3793 -4.4207 -1.9337 0.9808
1.1737 -4.3350 -1.9573 0.9806
1.5671 -4.2428 -1.9712 0.9805
1.9546 -4.1173 -1.9863 0.9803
3.7074 -3.0014 -2.0789 0.9794
4.2600 -2.3369 -2.1176 0.9790
4.6592 -0.6762 -2.0518 0.9797
4.7477 -0.2600 -2.0722 0.9795
4.7975 0.1665 -2.0921 0.9793
4.8071 0.5996 -2.1113 0.9791
4.5847 1.8970 -2.1624 0.9786
4.2259 2.7154 -2.1891 0.9783
3.7080 3.4539 -2.2084 0.9781
2.6755 4.3381 -2.2213 0.9780
0.9811 4.9666 -2.2064 0.9782
0.5315 5.0134 -2.1972 0.9782
-0.1867 2.5460 -1.1126 0.9889
-2.0183 4.3913 -2.1063 0.9791
-2.3802 4.1550 -2.0869 0.9793
-1.3281 0.4117 -0.6436 0.9939
-1.3323 0.1631 -0.6213 0.9941
-1.3373 0.0434 -0.6194 0.9941
-1.3385 -0.0764 -0.6206 0.9941
-1.3057 -0.3137 -0.6216 0.9941
-1.3331 -0.4495 -0.6512 0.9938
-1.3200 -0.5810 -0.6676 0.9937
-3.6651 -2.0214 -1.9374 0.9817
-3.4552 -2.3306 -1.9292 0.9818
-3.2218 -2.6204 -1.9223 0.9819
-2.9667 -2.8895 -1.9170 0.9819
-2.0869 -3.5589 -1.9097 0.9820
-1.7614 -3.7321 -1.9103 0.9820
-0.7133 -4.0881 -1.9209 0.9819
0.0254 -4.1810 -1.9353 0.9817
0.7766 -4.1523 -1.9554 0.9816
1.1512 -4.0914 -1.9674 0.9814
1.5222 -3.9991 -1.9807 0.9813
1.8869 -3.8754 -1.9952 0.9812
2.2428 -3.7205 -2.0109 0.9810
2.5874 -3.5345 -2.0276 0.9809
3.2317 -3.0720 -2.0639 0.9805
3.5258 -2.7972 -2.0833 0.9804
3.7976 -2.4949 -2.1033 0.9802
4.2748 -0.9723 -2.0293 0.9809
4.5025 0.2008 -2.0862 0.9803
4.3921 1.4204 -2.1367 0.9799
3.9292 2.5800 -2.1758 0.9795
3.6996 2.9335 -2.1855 0.9794
3.4351 3.2637 -2.1933 0.9793
3.1383 3.5669 -2.1991 0.9793
2.8121 3.8393 -2.2029 0.9792
2.0854 4.2804 -2.2040 0.9792
1.6929 4.4442 -2.2013 0.9793
1.2865 4.5677 -2.1966 0.9793
0.8708 4.6498 -2.1898 0.9794
-0.7951 4.5639 -2.1444 0.9798
-1.5707 4.2858 -2.1128 0.9801
-2.5822 3.6207 -2.0585 0.9806
-3.3518 2.7275 -2.0003 0.9811
-3.5471 2.3939 -1.9808 0.9813
-1.3199 0.5813 -0.6676 0.9937
-1.3331 0.4499 -0.6513 0.9938
-1.3058 0.3141 -0.6217 0.9941
-1.3385 0.0767 -0.6206 0.9941
-1.3373 -0.0430 -0.6193 0.9941
-1.3323 -0.1628 -0.6213 0.9941
-3.7190 -1.9323 -1.9400 0.9817
-3.0396 -2.8170 -1.9183 0.9819
-2.1747 -3.5062 -1.9098 0.9820
-1.8531 -3.6867 -1.9100 0.9820
-1.1708 -3.9674 -1.9148 0.9819
-0.8139 -4.0659 -1.9194 0.9819
-0.4490 -4.1354 -1.9255 0.9818
0.2962 -4.1848 -1.9419 0.9817
0.6722 -4.1637 -1.9523 0.9816
1.0475 -4.1114 -1.9639 0.9815
2.1451 -3.7666 -2.0064 0.9811
2.8277 -3.3812 -2.0403 0.9808
3.1464 -3.1432 -2.0587 0.9806
3.4463 -2.8763 -2.0778 0.9804
3.9708 -2.2561 -2.1140 0.9801
3.9025 -1.7769 -1.9848 0.9813
4.0853 -1.4353 -2.0043 0.9811
4.2380 -1.0752 -2.0239 0.9809
4.3586 -0.6992 -2.0433 0.9807
4.4952 0.0888 -2.0811 0.9804
4.4822 0.9019 -2.1163 0.9800
3.9865 2.4782 -2.1728 0.9795
3.7669 2.8375 -2.1830 0.9794
3.5119 3.1746 -2.1913 0.9793
3.2238 3.4856 -2.1977 0.9793
2.5601 4.0154 -2.2043 0.9792
1.8034 4.4027 -2.2023 0.9792
1.4005 4.5375 -2.1981 0.9793
0.7762 3.6423 -1.7238 0.9837
0.5673 4.6832 -2.1836 0.9794
-0.6828 4.5907 -2.1484 0.9798
-1.0825 4.4803 -2.1335 0.9799
-1.8331 4.1508 -2.1004 0.9802
-2.1776 3.9366 -2.0824 0.9804
-2.4979 3.6931 -2.0638 0.9805
-3.0567 3.1304 -2.0252 0.9809
-3.4960 2.4879 -1.9862 0.9813
-1.3330 0.4870 -0.6569 0.9938
-1.3345 -0.0098 -0.6177 0.9941
-1.3367 -0.1297 -0.6216 0.9941
-1.3131 -0.2473 -0.6185 0.9941
-1.3210 -0.3735 -0.6354 0.9940
-3.5747 -2.1612 -1.9336 0.9818
-2.5629 -3.2388 -1.9118 0.9820
-2.2613 -3.4516 -1.9100 0.9820
-1.9439 -3.6392 -1.9098 0.9820
-1.6122 -3.8007 -1.9110 0.9820
-1.2682 -3.9351 -1.9137 0.9819
-0.9138 -4.0415 -1.9180 0.9819
-0.5510 -4.1191 -1.9236 0.9818
-0.1817 -4.1672 -1.9308 0.9818
0.5678 -4.1726 -1.9493 0.9816
1.3168 -4.0542 -1.9731 0.9814
2.0464 -3.8104 -2.0020 0.9811
3.3651 -2.9532 -2.0724 0.9805
3.6496 -2.6660 -2.0921 0.9803
4.1988 -1.1769 -2.0185 0.9810
4.3285 -0.8050 -2.0379 0.9808
4.4849 -0.0227 -2.0760 0.9804
4.5082 0.3811 -2.0942 0.9803
4.4392 1.1959 -2.1281 0.9799
4.0409 2.3751 -2.1696 0.9796
3.5861 3.0835 -2.1892 0.9794
3.3070 3.4021 -2.1962 0.9793
2.9967 3.6920 -2.2011 0.9793
2.6584 3.9499 -2.2039 0.9792
-0.0881 2.6357 -1.2207 0.9884
-0.5697 4.6145 -2.1522 0.9797
-0.9729 4.5148 -2.1378 0.9798
-1.7335 4.2047 -2.1052 0.9802
-2.0843 3.9992 -2.0875 0.9803
-2.4115 3.7635 -2.0690 0.9805
-3.2297 2.9062 -2.0111 0.9810
-3.4425 2.5809 -1.9916 0.9812
-3.6236 2.2412 -1.9722 0.9814
-1.3300 0.5237 -0.6616 0.9937
-1.3358 0.0234 -0.6184 0.9941
-1.3384 -0.0964 -0.6211 0.9941
-1.3219 -0.2151 -0.6199 0.9941
-1.3335 -0.4719 -0.6548 0.9938
-1.3146 -0.6022 -0.6693 0.9936
-3.6317 -2.0743 -1.9359 0.9817
-3.4178 -2.3804 -1.9279 0.9818
-2.6435 -3.1755 -1.9125 0.9820
-2.0335 -3.5897 -1.9097 0.9820
-1.3649 -3.9005 -1.9128 0.9820
-0.6525 -4.1004 -1.9219 0.9819
0.0879 -4.1833 -1.9368 0.9817
0.4634 -4.1792 -1.9464 0.9816
1.9471 -3.8517 -1.9977 0.9812
2.3013 -3.6915 -2.0136 0.9810
2.3365 -0.9536 -1.1681 0.9889
4.1571 -1.2773 -2.0130 0.9810
4.2958 -0.9098 -2.0325 0.9808
4.4013 -0.5276 -2.0519 0.9807
4.4718 -0.1337 -2.0708 0.9805
4.5013 0.6753 -2.1069 0.9801
4.3756 1.4877 -2.1393 0.9798
3.6578 2.9904 -2.1869 0.9794
3.0858 3.6146 -2.1999 0.9793
2.3987 4.1145 -2.2046 0.9792
2.0210 4.3105 -2.2037 0.9792
1.6258 4.4676 -2.2007 0.9793
0.8008 4.6595 -2.1884 0.9794
0.3800 4.6929 -2.1794 0.9795
-0.4558 4.6353 -2.1560 0.9797
-0.8622 4.5463 -2.1419 0.9798
-1.2556 4.4192 -2.1265 0.9800
-2.3232 3.8318 -2.0742 0.9804
-2.6319 3.5762 -2.0553 0.9806
-3.5766 2.3368 -1.9776 0.9813
-2.6581 1.4155 -1.3940 0.9868
-1.3244 0.5598 -0.6656 0.9937
-1.3304 0.4269 -0.6467 0.9939
-1.3382 -0.0631 -0.6201 0.9941
-1.3012 -0.2991 -0.6180 0.9941
-1.3231 -0.5668 -0.6663 0.9937
-3.6868 -1.9861 -1.9384 0.9817
-3.2487 -2.5894 -1.9230 0.9819
-2.7227 -3.1103 -1.9134 0.9819
-1.4607 -3.8638 -1.9120 0.9820
-0.3874 -4.1441 -1.9266 0.9818
0.3590 -4.1834 -1.9436 0.9817
0.7350 -4.1571 -1.9541 0.9816
1.1100 -4.0997 -1.9660 0.9815
1.8470 -3.8906 -1.9935 0.9812
2.5500 -3.5566 -2.0257 0.9809
2.8822 -3.3435 -2.0433 0.9807
3.1979 -3.1006 -2.0618 0.9806
3.9350 -1.7212 -1.9881 0.9812
4.1130 -1.3764 -2.0076 0.9811
4.3754 -0.6350 -2.0465 0.9807
4.4741 0.9700 -2.1191 0.9800
4.4025 1.3759 -2.1350 0.9799
4.1410 2.1649 -2.1630 0.9796
3.9524 2.5396 -2.1746 0.9795
3.7267 2.8955 -2.1845 0.9794
3.1726 3.5348 -2.1986 0.9793
2.1278 4.2599 -2.2042 0.9792
1.3320 4.5560 -2.1972 0.9793
-0.1853 2.5272 -1.1729 0.9889
-1.1479 4.4582 -2.1309 0.9799
-1.8923 4.1172 -2.0974 0.9802
-1.1588 0.3593 -0.5951 0.9946
-1.1704 0.2510 -0.5871 0.9947
-1.1901 0.1457 -0.5881 0.9947
-1.1965 0.0388 -0.5872 0.9947
-1.1860 -0.1749 -0.5880 0.9947
-1.1436 -0.5033 -0.6129 0.9944
-1.1088 -0.6115 -0.6211 0.9944
-2.8145 -2.7413 -1.9272 0.9826
-2.5536 -2.9759 -1.9235 0.9827
-2.2749 -3.1882 -1.9212 0.9827
-1.6713 -3.5414 -1.9209 0.9827
-1.3498 -3.6802 -1.9228 0.9827
-1.0176 -3.7927 -1.9262 0.9827
2.4475 -3.3433 -2.0325 0.9817
2.7588 -3.1372 -2.0492 0.9816
3.3302 -2.6420 -2.0852 0.9812
3.5840 -2.3546 -2.1035 0.9811
3.8035 -2.0378 -2.1166 0.9810
2.3338 -0.9935 -1.2442 0.9888
3.8931 -1.2601 -2.0072 0.9819
4.1290 -0.5576 -2.0438 0.9816
4.1987 -0.1884 -2.0616 0.9814
4.2340 0.5707 -2.0957 0.9811
3.6855 2.4200 -2.1627 0.9805
2.6357 3.5985 -2.1880 0.9803
1.5867 4.1655 -2.1865 0.9803
0.8165 4.3597 -2.1757 0.9804
0.0179 2.8240 -1.3853 0.9875
-0.7464 4.2847 -2.1334 0.9808
-1.4759 4.0272 -2.1039 0.9811
-3.1597 2.5712 -1.9982 0.9820
-1.1435 0.5036 -0.6129 0.9944
-1.1576 0.3906 -0.5993 0.9946
-1.1624 0.2796 -0.5865 0.9947
-1.1860 0.1752 -0.5880 0.9947
-1.1965 -0.0385 -0.5872 0.9947
-1.1588 -0.3589 -0.5951 0.9946
-1.1490 -0.4720 -0.6093 0.9945
-2.8836 -2.6724 -1.9285 0.9826
-2.6279 -2.9130 -1.9244 0.9827
-2.0636 -3.3270 -1.9204 0.9827
-1.7584 -3.4983 -1.9206 0.9827
-1.1108 -3.7642 -1.9251 0.9827
-0.7721 -3.8571 -1.9295 0.9826
-0.0742 -3.9594 -1.9425 0.9825
0.2808 -3.9675 -1.9510 0.9824
1.3447 -3.8152 -1.9843 0.9821
1.6914 -3.7049 -1.9978 0.9820
2.0302 -3.5649 -2.0123 0.9819
2.3585 -3.3955 -2.0280 0.9817
3.2555 -2.7171 -2.0800 0.9813
2.4060 -1.0955 -1.2968 0.9883
3.8507 -1.3529 -2.0021 0.9820
3.9925 -1.0129 -2.0205 0.9818
4.1038 -0.6583 -2.0387 0.9817
4.2278 0.0835 -2.0742 0.9813
4.2377 0.4644 -2.0911 0.9812
4.0485 1.6047 -2.1362 0.9808
3.9120 1.9713 -2.1488 0.9807
3.7396 2.3247 -2.1599 0.9806
3.5326 2.6610 -2.1694 0.9805
3.2927 2.9764 -2.1772 0.9804
3.0220 3.2674 -2.1832 0.9804
1.6903 4.1265 -2.1874 0.9803
0.5320 4.3918 -2.1700 0.9805
0.1372 4.4026 -2.1606 0.9806
-0.1451 2.4878 -1.2224 0.9890
-1.3784 4.0710 -2.1083 0.9810
-1.7232 3.9018 -2.0923 0.9812
-2.0481 3.7023 -2.0754 0.9813
-2.3505 3.4752 -2.0579 0.9815
-2.8795 2.9489 -2.0217 0.9818
-3.2970 2.3463 -1.9850 0.9821
-1.1369 0.5348 -0.6163 0.9944
-1.1552 0.4220 -0.6033 0.9945
-1.1584 0.3093 -0.5881 0.9947
-1.1808 0.2045 -0.5878 0.9947
-1.1946 0.0983 -0.5880 0.9947
-1.1958 -0.0088 -0.5866 0.9947
-1.1932 -0.1158 -0.5881 0.9947
-1.1589 -0.3277 -0.5907 0.9946
-3.3899 -2.0494 -1.9431 0.9825
-2.9512 -2.6019 -1.9299 0.9826
-2.4318 -3.0732 -1.9223 0.9827
-2.1458 -3.2751 -1.9206 0.9827
-1.8445 -3.4532 -1.9204 0.9827
-1.2033 -3.7336 -1.9242 0.9827
-0.8669 -3.8341 -1.9282 0.9826
-0.5226 -3.9071 -1.9336 0.9826
0.5382 -3.9552 -1.9580 0.9824
0.8941 -3.9127 -1.9688 0.9823
1.5959 -3.7385 -1.9939 0.9821
1.9371 -3.6067 -2.0082 0.9819
2.8922 -3.0364 -2.0570 0.9815
3.6849 -2.2164 -2.1093 0.9810
3.6285 -1.7621 -1.9786 0.9822
2.4098 -0.9145 -1.2643 0.9886
3.9561 -1.1089 -2.0154 0.9819
4.2223 0.7411 -2.1028 0.9811
4.1696 1.1233 -2.1182 0.9809
3.9535 1.8707 -2.1454 0.9807
3.5934 2.5696 -2.1670 0.9805
3.3625 2.8911 -2.1752 0.9804
3.1001 3.1893 -2.1817 0.9804
2.8088 3.4606 -2.1863 0.9803
2.4916 3.7019 -2.1889 0.9803
1.7928 4.0847 -2.1881 0.9803
1.4188 4.2220 -2.1848 0.9804
0.8674 3.6264 -1.8290 0.9835
0.6416 4.3819 -2.1723 0.9805
0.2467 4.4035 -2.1634 0.9805
-0.0884 2.6442 -1.2978 0.9883
-0.5347 4.3313 -2.1407 0.9807
-2.5537 3.2954 -2.0450 0.9816
-3.4188 2.1145 -1.9718 0.9822
-1.1290 0.5657 -0.6194 0.9944
-1.1921 0.1279 -0.5881 0.9947
-1.1962 0.0209 -0.5869 0.9947
-1.1953 -0.0861 -0.5878 0.9947
-1.1579 -0.2966 -0.5863 0.9947
-1.1563 -0.4092 -0.6017 0.9946
-1.1397 -0.5221 -0.6149 0.9944
-3.4437 -1.9669 -1.9453 0.9825
-3.0172 -2.5298 -1.9314 0.9826
-2.5082 -3.0130 -1.9230 0.9827
-2.2268 -3.2214 -1.9210 0.9827
-1.9296 -3.4062 -1.9203 0.9827
-1.6184 -3.5664 -1.9211 0.9827
-0.9612 -3.8089 -1.9269 0.9827
-0.6189 -3.8896 -1.9320 0.9826
-0.2700 -3.9424 -1.9384 0.9825
0.0834 -3.9666 -1.9461 0.9825
2.1776 -3.4932 -2.0192 0.9818
2.8093 -3.1000 -2.0521 0.9815
3.3743 -2.5958 -2.0883 0.9812
3.6225 -2.3032 -2.1057 0.9811
3.5745 -1.8469 -1.9736 0.9822
2.3360 -0.9534 -1.2376 0.9888
3.9174 -1.2037 -2.0103 0.9819
4.1430 -0.4966 -2.0468 0.9816
4.2070 -0.1258 -2.0646 0.9814
4.2366 0.2524 -2.0818 0.9813
4.2305 0.6347 -2.0984 0.9811
4.1879 1.0174 -2.1140 0.9810
2.8924 3.3881 -2.1852 0.9803
2.5821 3.6381 -2.1883 0.9803
1.8942 4.0400 -2.1887 0.9803
1.5239 4.1876 -2.1859 0.9803
-1.1794 4.1510 -2.1167 0.9810
-1.5340 3.9996 -2.1013 0.9811
-2.1854 3.6046 -2.0677 0.9814
-2.4772 3.3660 -2.0500 0.9816
-2.9824 2.8207 -2.0136 0.9819
-3.1928 2.5199 -1.9952 0.9820
-3.3739 2.2043 -1.9769 0.9822
-1.1173 0.5950 -0.6209 0.9944
-1.1584 0.3717 -0.5968 0.9946
-1.1674 0.2624 -0.5869 0.9947
-1.1964 0.0506 -0.5874 0.9947
-1.1963 -0.0564 -0.5875 0.9947
-1.1659 -0.2680 -0.5868 0.9947
-1.1582 -0.3778 -0.5976 0.9946
-3.2999 -2.1787 -1.9397 0.9825
-2.8422 -2.7141 -1.9277 0.9826
-2.0136 -3.3574 -1.9203 0.9827
-1.3859 -3.6662 -1.9225 0.9827
-1.0548 -3.7816 -1.9258 0.9827
-0.3674 -3.9306 -1.9365 0.9826
-0.0151 -3.9628 -1.9439 0.9825
0.6966 -3.9400 -1.9626 0.9823
1.0517 -3.8843 -1.9739 0.9822
1.4031 -3.7988 -1.9865 0.9821
2.0858 -3.5386 -2.0149 0.9819
2.7252 -3.1613 -2.0473 0.9816
3.0222 -2.9302 -2.0649 0.9814
2.3577 -1.0313 -1.2623 0.9886
4.1193 -0.5978 -2.0418 0.9816
4.1926 -0.2296 -2.0597 0.9815
4.2319 0.1469 -2.0771 0.9813
4.2034 0.9113 -2.1098 0.9810
2.6707 3.5718 -2.1877 0.9803
2.3430 3.7990 -2.1894 0.9803
1.9942 3.9925 -2.1891 0.9803
-2.1002 3.6662 -2.0725 0.9814
-1.0631 0.3296 -0.5774 0.9950
-1.0823 0.2321 -0.5742 0.9950
-1.1006 0.1347 -0.5752 0.9950
-1.1066 0.0359 -0.5744 0.9950
-1.1062 -0.0631 -0.5748 0.9950
-1.0968 -0.1617 -0.5752 0.9950
-1.0750 -0.2583 -0.5735 0.9950
-1.0465 -0.4606 -0.5932 0.9949
-1.0095 -0.5568 -0.5981 0.9948
-2.9035 -2.3615 -1.9416 0.9833
-2.6743 -2.6048 -1.9367 0.9833
-2.1619 -3.0298 -1.9309 0.9834
-1.2827 -3.4973 -1.9325 0.9834
0.0229 -3.7654 -1.9534 0.9832
1.0351 -3.6786 -1.9825 0.9829
1.6941 -3.4795 -2.0077 0.9827
2.0121 -3.3377 -2.0218 0.9826
2.3192 -3.1682 -2.0369 0.9825
2.6131 -2.9715 -2.0528 0.9823
3.1514 -2.5001 -2.0869 0.9820
3.6767 -1.1901 -2.0048 0.9827
3.8008 -0.8645 -2.0222 0.9826
3.8956 -0.5261 -2.0393 0.9824
3.9909 0.1780 -2.0724 0.9822
3.9889 0.5377 -2.0881 0.9820
3.7773 1.6068 -2.1295 0.9817
3.6381 1.9480 -2.1409 0.9816
3.4658 2.2757 -2.1509 0.9815
3.2615 2.5862 -2.1594 0.9814
1.8367 3.7698 -2.1755 0.9813
-0.7025 4.0325 -2.1235 0.9817
-1.0531 3.9289 -2.1102 0.9818
-2.0122 3.4335 -2.0646 0.9822
-2.5487 2.9718 -2.0310 0.9825
-2.7800 2.7091 -2.0138 0.9827
-3.1621 2.1341 -1.9791 0.9830
-1.0094 0.5570 -0.5981 0.9948
-1.0749 0.2585 -0.5735 0.9950
-1.1062 0.0634 -0.5748 0.9950
-1.1066 -0.0356 -0.5744 0.9950
-1.0520 -0.4322 -0.5900 0.9949
-1.0224 -0.5312 -0.5977 0.9948
-2.9637 -2.2906 -1.9432 0.9833
-2.2370 -2.9760 -1.9314 0.9834
-1.6711 -3.3246 -1.9303 0.9834
-1.0556 -3.5768 -1.9347 0.9833
-0.4046 -3.7262 -1.9444 0.9833
-0.0705 -3.7607 -1.9513 0.9832
0.2667 -3.7676 -1.9594 0.9831
1.6042 -3.5139 -2.0039 0.9827
1.9248 -3.3799 -2.0178 0.9826
2.2352 -3.2180 -2.0326 0.9825
2.5330 -3.0288 -2.0483 0.9824
3.0811 -2.5716 -2.0820 0.9821
3.3264 -2.3055 -2.0996 0.9819
3.8723 -0.6212 -2.0346 0.9825
3.9449 -0.2752 -2.0515 0.9823
3.9929 0.4376 -2.0838 0.9821
3.9663 0.7981 -2.0989 0.9819
3.9054 1.1568 -2.1131 0.9818
3.8099 1.5101 -2.1261 0.9817
3.6801 1.8545 -2.1379 0.9816
3.5169 2.1863 -2.1483 0.9815
2.8402 3.0709 -2.1700 0.9813
2.2546 3.5363 -2.1757 0.9813
1.5885 3.8779 -2.1740 0.9813
1.2338 3.9975 -2.1703 0.9813
0.1290 4.1404 -2.1490 0.9815
-0.1550 2.6573 -1.3809 0.9881
-0.6032 4.0553 -2.1270 0.9817
-1.2981 3.8340 -2.0999 0.9819
-1.9306 3.4900 -2.0691 0.9822
-2.7184 2.7839 -2.0186 0.9826
-2.9307 2.5083 -2.0012 0.9828
-3.1157 2.2173 -1.9839 0.9829
-1.0399 0.4892 -0.5962 0.9948
-1.1035 -0.1071 -0.5752 0.9950
-1.0888 -0.2051 -0.5748 0.9950
-1.0343 -0.5052 -0.5972 0.9948
-0.9868 -0.5966 -0.5982 0.9948
-3.0222 -2.2183 -1.9449 0.9832
-2.8040 -2.4721 -1.9393 0.9833
-2.5663 -2.7066 -1.9350 0.9833
-2.3109 -2.9204 -1.9320 0.9834
-2.0392 -3.1125 -1.9304 0.9834
-1.7530 -3.2818 -1.9302 0.9834
-1.4538 -3.4272 -1.9313 0.9834
-1.1435 -3.5478 -1.9338 0.9833
-0.4965 -3.7118 -1.9428 0.9833
0.1729 -3.7684 -1.9570 0.9831
0.8486 -3.7138 -1.9763 0.9830
1.1836 -3.6442 -1.9877 0.9829
1.8367 -3.4199 -2.0138 0.9827
2.4517 -3.0840 -2.0439 0.9824
2.7389 -2.8755 -2.0602 0.9823
3.0094 -2.6411 -2.0772 0.9821
3.2606 -2.3819 -2.0948 0.9820
3.4295 -1.6655 -1.9779 0.9830
2.3111 -0.8770 -1.2824 0.9889
3.7354 -1.0470 -2.0125 0.9827
3.8467 -0.7154 -2.0298 0.9825
3.9279 -0.3722 -2.0468 0.9824
3.9774 -0.0202 -2.0634 0.9822
3.9942 0.3377 -2.0795 0.9821
3.9258 1.0576 -2.1092 0.9818
3.7196 1.7600 -2.1348 0.9816
3.5655 2.0956 -2.1456 0.9815
3.3788 2.4161 -2.1549 0.9815
3.1609 2.7178 -2.1626 0.9814
2.6396 3.2521 -2.1729 0.9813
2.0219 3.6749 -2.1760 0.9813
0.2320 4.1409 -2.1516 0.9815
-0.0887 2.6536 -1.3774 0.9881
-0.5032 4.0755 -2.1303 0.9817
-0.8599 3.9905 -2.1177 0.9818
-1.2049 3.8724 -2.1039 0.9819
-1.5350 3.7231 -2.0892 0.9820
-1.8474 3.5445 -2.0735 0.9821
-2.1395 3.3389 -2.0573 0.9823
-2.4093 3.1090 -2.0405 0.9824
-2.8745 2.5865 -2.0060 0.9827
-0.9805 0.6064 -0.5981 0.9948
-1.0636 0.3124 -0.5751 0.9950
-1.0863 0.2160 -0.5746 0.9950
-1.0701 -0.2741 -0.5731 0.9950
-1.0427 -0.4776 -0.5950 0.9948
-1.0013 -0.5719 -0.5982 0.9948
-2.8666 -2.4035 -1.9407 0.9833
-2.6342 -2.6435 -1.9360 0.9833
-2.1162 -3.0614 -1.9307 0.9834
-1.8338 -3.2371 -1.9301 0.9834
-1.5380 -3.3892 -1.9308 0.9834
-1.2306 -3.5169 -1.9329 0.9834
-0.9133 -3.6192 -1.9364 0.9833
-0.5880 -3.6954 -1.9412 0.9833
0.0792 -3.7672 -1.9548 0.9832
1.4227 -3.5762 -1.9967 0.9828
2.0642 -3.3113 -2.0243 0.9826
2.6608 -2.9360 -2.0556 0.9823
3.1929 -2.4562 -2.0898 0.9820
2.2999 -0.9387 -1.2887 0.9889
3.6994 -1.1367 -2.0077 0.9827
3.8188 -0.8088 -2.0250 0.9826
3.9853 0.5979 -2.0906 0.9820
3.6116 2.0038 -2.1427 0.9816
3.4338 2.3288 -2.1525 0.9815
3.2244 2.6361 -2.1606 0.9814
2.9851 2.9223 -2.1672 0.9814
2.7183 3.1841 -2.1719 0.9813
2.4264 3.4188 -2.1749 0.9813
2.1125 3.6236 -2.1760 0.9813
1.4321 3.9354 -2.1726 0.9813
0.7059 4.1071 -2.1619 0.9814
-1.7625 3.5968 -2.0780 0.9821
-2.0605 3.3986 -2.0618 0.9822
-2.3367 3.1751 -2.0452 0.9824
-2.5891 2.9292 -2.0281 0.9825
-1.0173 0.5417 -0.5979 0.9948
-1.0499 0.4438 -0.5913 0.9949
-1.0625 0.3409 -0.5789 0.9950
-1.0794 0.2426 -0.5740 0.9950
-1.1065 0.0468 -0.5746 0.9950
-1.0985 -0.1509 -0.5752 0.9950
-1.0148 -0.5467 -0.5980 0.9948
-3.1345 -2.0695 -1.9486 0.9832
-2.9276 -2.3335 -1.9422 0.9833
-2.4548 -2.8043 -1.9335 0.9833
-1.9136 -3.1907 -1.9301 0.9834
-1.6214 -3.3494 -1.9305 0.9834
-1.3170 -3.4839 -1.9322 0.9834
-0.6790 -3.6769 -1.9397 0.9833
-0.3491 -3.7339 -1.9455 0.9832
-0.0143 -3.7637 -1.9526 0.9832
0.6613 -3.7403 -1.9705 0.9830
0.9981 -3.6863 -1.9812 0.9829
1.3312 -3.6041 -1.9932 0.9828
1.6584 -3.4935 -2.0062 0.9827
1.9774 -3.3547 -2.0202 0.9826
2.5814 -2.9945 -2.0510 0.9823
2.8614 -2.7744 -2.0677 0.9822
3.1236 -2.5288 -2.0849 0.9821
3.3638 -2.2578 -2.1017 0.9819
3.5728 -1.9599 -2.1141 0.9818
3.7885 -0.9011 -2.0202 0.9826
3.9539 -0.2165 -2.0543 0.9823
3.9890 0.1384 -2.0707 0.9822
3.9908 0.4978 -2.0864 0.9820
3.7906 1.5684 -2.1282 0.9817
3.6552 1.9109 -2.1397 0.9816
3.4864 2.2402 -2.1499 0.9815
2.7950 3.1140 -2.1708 0.9813
2.2017 3.5698 -2.1759 0.9813
0.8083 4.0919 -2.1638 0.9814
-0.6631 4.0419 -2.1249 0.9817
-1.3537 3.8097 -2.0975 0.9819
-1.0047 0.2154 -0.5628 0.9953
-1.0219 0.1251 -0.5639 0.9953
-1.0276 0.0333 -0.5631 0.9953
-1.0272 -0.0586 -0.5635 0.9953
-1.0184 -0.1502 -0.5638 0.9953
-0.9781 -0.3298 -0.5653 0.9953
-0.9629 -0.4238 -0.5762 0.9952
-0.9248 -0.5100 -0.5784 0.9952
-2.5445 -2.4784 -1.9455 0.9839
-2.0573 -2.8832 -1.9400 0.9840
-1.7909 -3.0541 -1.9392 0.9840
-1.2206 -3.3279 -1.9414 0.9840
-0.9201 -3.4291 -1.9445 0.9839
-0.6116 -3.5054 -1.9489 0.9839
0.0217 -3.5811 -1.9614 0.9838
0.6642 -3.5513 -1.9788 0.9837
1.9104 -3.1690 -2.0266 0.9833
2.2012 -3.0069 -2.0410 0.9831
2.4791 -2.8191 -2.0561 0.9830
3.2086 -2.1080 -2.1027 0.9826
3.1704 -1.6986 -1.9700 0.9837
2.2695 -0.9661 -1.3510 0.9888
3.5946 -0.8176 -2.0190 0.9833
3.6825 -0.4973 -2.0352 0.9832
3.7658 0.5076 -2.0812 0.9828
3.6624 1.1844 -2.1082 0.9826
3.5620 1.5152 -2.1201 0.9825
3.4298 1.8365 -2.1308 0.9824
3.0732 2.4368 -2.1482 0.9823
2.8518 2.7095 -2.1545 0.9822
2.6042 2.9598 -2.1593 0.9822
2.3329 3.1850 -2.1623 0.9822
2.0404 3.3827 -2.1637 0.9821
1.7299 3.5506 -2.1632 0.9821
1.4045 3.6872 -2.1611 0.9822
1.0678 3.7911 -2.1572 0.9822
0.3743 3.8975 -2.1445 0.9823
0.0247 3.8996 -2.1358 0.9824
-0.6626 3.8033 -2.1145 0.9825
-1.3121 3.5803 -2.0885 0.9828
-1.9009 3.2435 -2.0591 0.9830
-2.6298 2.5627 -2.0111 0.9834
-2.8248 2.2987 -1.9947 0.9835
-0.8745 0.5902 -0.5778 0.9952
-0.9247 0.5103 -0.5784 0.9952
-0.9979 0.2400 -0.5622 0.9953
-1.0048 -0.2152 -0.5628 0.9953
-0.8897 -0.5685 -0.5783 0.9952
-2.8194 -2.1791 -1.9517 0.9839
-2.3761 -2.6339 -1.9429 0.9840
-0.3849 -3.5447 -1.9529 0.9839
-0.0671 -3.5769 -1.9594 0.9838
0.5750 -3.5619 -1.9761 0.9837
0.8953 -3.5142 -1.9862 0.9836
1.2123 -3.4394 -1.9974 0.9835
1.8277 -3.2093 -2.0228 0.9833
2.1216 -3.0545 -2.0369 0.9832
2.4034 -2.8738 -2.0519 0.9831
2.6706 -2.6679 -2.0675 0.9829
2.2370 -1.0186 -1.3462 0.9889
2.4858 -0.8734 -1.4431 0.9881
3.5652 -0.9045 -2.0145 0.9834
3.7700 0.4132 -2.0772 0.9829
2.4104 3.1252 -2.1617 0.9822
2.1235 3.3307 -2.1635 0.9821
1.8177 3.5071 -2.1635 0.9821
1.4962 3.6525 -2.1618 0.9822
0.7904 3.7091 -2.0771 0.9829
0.1216 3.9024 -2.1384 0.9824
-0.1552 2.6613 -1.4601 0.9879
-0.5689 3.8245 -2.1177 0.9825
-1.2251 3.6184 -2.0923 0.9827
-1.8235 3.2965 -2.0633 0.9830
-2.3445 2.8751 -2.0319 0.9832
-2.5711 2.6331 -2.0157 0.9834
-2.7732 2.3735 -1.9993 0.9835
-0.9904 0.2644 -0.5614 0.9953
-1.0138 0.1756 -0.5635 0.9953
-1.0258 0.0844 -0.5637 0.9953
-1.0247 -0.0994 -0.5638 0.9953
-0.9728 -0.3717 -0.5704 0.9953
-0.9476 -0.4628 -0.5776 0.9952
-0.8488 -0.6230 -0.5767 0.9952
-2.1990 -2.7790 -1.9410 0.9840
-1.6682 -3.1230 -1.9392 0.9840
-1.3834 -3.2613 -1.9403 0.9840
-0.7838 -3.4661 -1.9463 0.9839
-0.1557 -3.5706 -1.9575 0.9838
0.1644 -3.5837 -1.9649 0.9838
0.8067 -3.5301 -1.9833 0.9836
1.1247 -3.4629 -1.9942 0.9835
2.3265 -2.9265 -2.0476 0.9831
2.8533 -2.5041 -2.0793 0.9828
3.0901 -2.2573 -2.0960 0.9827
3.2980 -1.9837 -2.1079 0.9826
3.2473 -1.5770 -1.9772 0.9837
2.2850 -0.8671 -1.3386 0.9889
3.6372 -0.6765 -2.0263 0.9833
3.7540 0.6589 -2.0875 0.9828
3.6217 1.3325 -2.1136 0.9826
3.5071 1.6595 -2.1251 0.9825
3.3609 1.9754 -2.1352 0.9824
2.9781 2.5607 -2.1512 0.9822
2.4863 3.0632 -2.1608 0.9822
2.2052 3.2765 -2.1631 0.9821
1.5868 3.6154 -2.1625 0.9822
0.8667 3.6233 -2.0405 0.9832
0.5683 3.8816 -2.1487 0.9823
0.2187 3.9026 -2.1408 0.9823
-0.0891 2.6643 -1.4600 0.9879
-0.4745 3.8432 -2.1209 0.9825
-0.8112 3.7643 -2.1091 0.9826
-1.1370 3.6543 -2.0961 0.9827
-1.4491 3.5147 -2.0822 0.9828
-1.7447 3.3475 -2.0675 0.9829
-2.5106 2.7021 -2.0202 0.9833
-2.7196 2.4472 -2.0038 0.9835
-1.0237 0.1098 -0.5639 0.9953
-1.0265 -0.0740 -0.5637 0.9953
-1.0158 -0.1653 -0.5637 0.9953
-0.9936 -0.2545 -0.5617 0.9953
-0.8652 -0.6026 -0.5775 0.9952
-2.7272 -2.2867 -1.9493 0.9839
-2.5064 -2.5153 -1.9448 0.9839
-2.2681 -2.7245 -1.9416 0.9840
-2.0138 -2.9133 -1.9397 0.9840
-1.7451 -3.0806 -1.9391 0.9840
-1.4636 -3.2252 -1.9399 0.9840
-1.1710 -3.3465 -1.9419 0.9840
-0.8690 -3.4436 -1.9452 0.9839
-0.5594 -3.5157 -1.9498 0.9839
0.0753 -3.5827 -1.9627 0.9838
0.3966 -3.5767 -1.9710 0.9837
0.7178 -3.5440 -1.9805 0.9836
1.3517 -3.3975 -2.0027 0.9835
1.6600 -3.2839 -2.0154 0.9834
2.5241 -2.7853 -2.0587 0.9830
2.7842 -2.5685 -2.0747 0.9829
3.0263 -2.3281 -2.0913 0.9827
3.1998 -1.6533 -1.9727 0.9837
2.2806 -0.9308 -1.3491 0.9888
3.5000 -1.0754 -2.0054 0.9834
3.6112 -0.7648 -2.0218 0.9833
3.7480 -0.1121 -2.0537 0.9830
3.7708 0.2247 -2.0690 0.9829
3.7212 0.9040 -2.0974 0.9827
3.6478 1.2402 -2.1103 0.9826
3.0381 2.4838 -2.1493 0.9823
2.8122 2.7530 -2.1554 0.9822
2.2854 3.2200 -2.1627 0.9822
1.3490 3.7069 -2.1605 0.9822
1.0106 3.8052 -2.1564 0.9822
-0.0242 2.8094 -1.5388 0.9873
-1.0478 3.6879 -2.0998 0.9827
-1.6644 3.3966 -2.0717 0.9829
-1.9467 3.2107 -2.0565 0.9830
-2.4482 2.7698 -2.0247 0.9833
-2.6641 2.5197 -2.0084 0.9834
-2.8549 2.2532 -1.9920 0.9835
-0.9319 0.4963 -0.5783 0.9952
-0.9662 0.4084 -0.5745 0.9952
-0.9795 0.3143 -0.5634 0.9953
-1.0275 0.0435 -0.5633 0.9953
-1.0199 -0.1401 -0.5639 0.9953
-0.9791 -0.3194 -0.5640 0.9953
-0.9652 -0.4134 -0.5751 0.9952
-0.8807 -0.5815 -0.5780 0.9952
-2.3359 -2.6684 -1.9424 0.9840
-2.0859 -2.8630 -1.9401 0.9840
-1.8211 -3.0363 -1.9392 0.9840
-1.5429 -3.1874 -1.9395 0.9840
-0.9537 -3.4191 -1.9441 0.9839
-0.6460 -3.4982 -1.9484 0.9839
-0.3320 -3.5519 -1.9539 0.9839
-0.0136 -3.5797 -1.9606 0.9838
0.3073 -3.5811 -1.9686 0.9837
1.2648 -3.4243 -1.9994 0.9835
2.1696 -3.0261 -2.0394 0.9832
2.4491 -2.8411 -2.0544 0.9830
3.4644 -1.1593 -2.0009 0.9835
3.7361 -0.2046 -2.0494 0.9831
3.7678 0.4700 -2.0796 0.9828
3.7358 0.8100 -2.0937 0.9827
3.6715 1.1474 -2.1068 0.9826
3.5747 1.4791 -2.1189 0.9825
3.4459 1.8015 -2.1297 0.9824
3.0960 2.4055 -2.1474 0.9823
2.8776 2.6804 -2.1539 0.9822
2.6328 2.9334 -2.1588 0.9822
2.3639 3.1615 -2.1621 0.9822
2.0737 3.3623 -2.1636 0.9821
1.1055 3.7812 -2.1577 0.9822
0.7616 3.8552 -2.1523 0.9822
0.0633 3.9010 -2.1369 0.9824
-0.1975 2.6935 -1.4792 0.9878
-0.6253 3.8121 -2.1158 0.9825
-1.5827 3.4436 -2.0758 0.9829
-1.8702 3.2648 -2.0608 0.9830
-0.9101 0.2821 -0.5501 0.9956
-0.9521 0.1166 -0.5538 0.9956
-0.9571 -0.0546 -0.5535 0.9956
-0.9298 -0.2234 -0.5521 0.9956
-0.9053 -0.3053 -0.5516 0.9956
-0.8871 -0.3904 -0.5595 0.9955
-0.8066 -0.5440 -0.5617 0.9955
-2.4240 -2.3609 -1.9536 0.9845
-2.1998 -2.5637 -1.9504 0.9845
-1.7063 -2.9099 -1.9476 0.9845
-1.4401 -3.0514 -1.9480 0.9845
-1.1629 -3.1706 -1.9498 0.9845
-0.5826 -3.3390 -1.9569 0.9845
-0.2829 -3.3870 -1.9623 0.9844
0.6322 -3.3803 -1.9855 0.9842
1.2362 -3.2478 -2.0064 0.9841
1.5303 -3.1430 -2.0183 0.9840
1.8163 -3.0129 -2.0311 0.9839
2.0920 -2.8578 -2.0448 0.9838
2.3553 -2.6783 -2.0592 0.9837
3.0072 -1.6112 -1.9697 0.9844
2.0338 -0.0912 -1.1754 0.9906
2.0338 0.0907 -1.1754 0.9906
1.9803 0.4499 -1.1724 0.9907
2.9015 2.3007 -2.1379 0.9830
2.4580 2.7937 -2.1484 0.9830
1.9256 3.1924 -2.1525 0.9829
-0.3042 3.6539 -2.1169 0.9832
-0.6261 3.5940 -2.1062 0.9833
-0.9392 3.5041 -2.0945 0.9834
-1.5281 3.2400 -2.0682 0.9836
-2.0508 2.8757 -2.0393 0.9838
-0.8065 0.5443 -0.5617 0.9955
-0.8514 0.4698 -0.5614 0.9955
-0.9053 0.3055 -0.5516 0.9956
-0.9486 0.1401 -0.5536 0.9956
-0.9576 -0.0308 -0.5531 0.9956
-0.9360 -0.2005 -0.5527 0.9956
-0.8625 -0.4481 -0.5612 0.9955
-0.8192 -0.5235 -0.5613 0.9955
-2.4833 -2.3014 -1.9547 0.9845
-2.2637 -2.5093 -1.9511 0.9845
-2.0281 -2.6981 -1.9488 0.9845
-1.7781 -2.8668 -1.9477 0.9845
-1.2408 -3.1398 -1.9492 0.9845
-0.6648 -3.3214 -1.9556 0.9845
-0.3666 -3.3762 -1.9607 0.9844
-0.0639 -3.4062 -1.9669 0.9844
2.0166 -2.9033 -2.0409 0.9838
1.9625 -0.4979 -1.1690 0.9907
2.0246 -0.3248 -1.1838 0.9906
2.0275 0.0401 -1.1708 0.9907
2.0009 0.4026 -1.1784 0.9906
1.9332 0.5726 -1.1641 0.9907
1.8652 0.7393 -1.1584 0.9908
3.1305 1.9461 -2.1282 0.9831
2.9551 2.2260 -2.1360 0.9831
2.7527 2.4884 -2.1424 0.9830
2.5253 2.7304 -2.1473 0.9830
2.2749 2.9495 -2.1506 0.9829
2.0041 3.1434 -2.1523 0.9829
1.7155 3.3098 -2.1524 0.9829
1.4121 3.4472 -2.1508 0.9829
0.7735 3.6299 -2.1428 0.9830
0.4451 3.6736 -2.1365 0.9831
0.1148 3.6853 -2.1287 0.9831
-0.5375 3.6137 -2.1093 0.9833
-0.8533 3.5320 -2.0978 0.9834
-1.4499 3.2830 -2.0721 0.9836
-1.9829 2.9317 -2.0434 0.9838
-2.2202 2.7227 -2.0283 0.9839
-2.6285 2.2496 -1.9975 0.9841
-0.7957 0.5662 -0.5638 0.9955
-0.8782 0.4131 -0.5603 0.9955
-0.9228 0.2463 -0.5514 0.9956
-0.9572 -0.0070 -0.5527 0.9956
-0.9183 -0.2596 -0.5509 0.9956
-0.8726 -0.4262 -0.5607 0.9955
-0.8323 -0.5032 -0.5615 0.9955
-0.7890 -0.5791 -0.5650 0.9955
-2.5412 -2.2404 -1.9559 0.9845
-2.0951 -2.6477 -1.9493 0.9845
-1.5894 -2.9755 -1.9476 0.9845
-1.3181 -3.1072 -1.9487 0.9845
-1.0366 -3.2162 -1.9509 0.9845
-0.7466 -3.3018 -1.9544 0.9845
-0.4499 -3.3634 -1.9592 0.9844
-0.1482 -3.4004 -1.9651 0.9844
0.4625 -3.3989 -1.9804 0.9843
1.0702 -3.2949 -2.0001 0.9841
1.3679 -3.2044 -2.0115 0.9840
1.9403 -2.9469 -2.0371 0.9838
2.4678 -2.5909 -2.0658 0.9836
2.7093 -2.3777 -2.0812 0.9835
1.8675 -0.7087 -1.1532 0.9908
2.0116 -0.3741 -1.1813 0.9906
2.0220 -0.0103 -1.1674 0.9907
2.0369 0.1722 -1.1802 0.9906
2.0183 0.3542 -1.1831 0.9906
1.9524 0.5260 -1.1674 0.9907
3.3132 1.5677 -2.1162 0.9832
3.1742 1.8656 -2.1257 0.9831
3.0065 2.1499 -2.1340 0.9831
2.5909 2.6654 -2.1461 0.9830
1.7972 3.2665 -2.1525 0.9829
1.4976 3.4121 -2.1514 0.9829
1.1855 3.5277 -2.1486 0.9830
0.8640 3.6121 -2.1443 0.9830
0.2065 3.6853 -2.1310 0.9831
-0.0893 2.6708 -1.5428 0.9877
-0.4483 3.6310 -2.1123 0.9832
-1.6507 3.1671 -2.0620 0.9836
-2.1564 2.7827 -2.0326 0.9839
-2.5774 2.3192 -2.0018 0.9841
-0.8686 0.4352 -0.5609 0.9955
-0.9151 0.2688 -0.5506 0.9956
-0.8819 -0.4040 -0.5600 0.9955
-0.8445 -0.4824 -0.5615 0.9955
-2.5977 -2.1781 -1.9572 0.9845
-2.3877 -2.3961 -1.9530 0.9845
-1.9186 -2.7757 -1.9481 0.9845
-1.6627 -2.9350 -1.9476 0.9845
-1.1156 -3.1882 -1.9502 0.9845
-0.5328 -3.3488 -1.9577 0.9845
-0.2324 -3.3926 -1.9633 0.9844
0.0717 -3.4116 -1.9701 0.9844
0.3775 -3.4052 -1.9780 0.9843
0.6832 -3.3732 -1.9871 0.9842
1.2858 -3.2321 -2.0083 0.9841
1.5787 -3.1230 -2.0204 0.9840
2.1369 -2.8295 -2.0471 0.9838
2.8728 -2.2100 -2.0926 0.9834
3.0390 -1.5703 -1.9750 0.9843
1.8632 -0.7605 -1.1619 0.9907
2.0282 0.3043 -1.1841 0.9906
1.9690 0.4783 -1.1698 0.9907
1.8970 0.6450 -1.1568 0.9908
1.8548 0.8220 -1.1713 0.9907
3.0559 2.0725 -2.1318 0.9831
2.8683 2.3450 -2.1390 0.9830
2.6546 2.5987 -2.1448 0.9830
1.5822 3.3746 -2.1518 0.9829
0.9540 3.5918 -2.1456 0.9830
0.6279 3.6533 -2.1402 0.9830
-0.9905 3.4862 -2.0924 0.9834
-1.2898 3.3630 -2.0796 0.9835
-1.5745 3.2132 -2.0659 0.9836
-1.8423 3.0386 -2.0516 0.9837
-2.0910 2.8413 -2.0367 0.9838
-2.5244 2.3876 -2.0061 0.9841
-0.8918 0.3770 -0.5590 0.9955
-0.9336 0.2099 -0.5524 0.9956
-0.9575 0.0405 -0.5533 0.9956
-0.9574 -0.0451 -0.5534 0.9956
-0.9501 -0.1305 -0.5537 0.9956
-0.9324 -0.2143 -0.5523 0.9956
-0.9064 -0.2957 -0.5504 0.9956
-0.8903 -0.3814 -0.5592 0.9955
-0.8110 -0.5354 -0.5611 0.9955
-1.9873 -2.7277 -1.9485 0.9845
-1.4701 -3.0368 -1.9479 0.9845
-0.6154 -3.3322 -1.9564 0.9845
-0.3162 -3.3829 -1.9617 0.9844
0.2926 -3.4095 -1.9757 0.9843
0.5984 -3.3846 -1.9844 0.9842
