ply
format ascii 1.0
element vertex 1599
property float32 x
property float32 y
property float32 z
property float32 I
end_header
-5.0069 -4.7230 -1.7821 0.9720
-4.5495 -5.1315 -1.7756 0.9721
-4.0644 -5.5035 -1.7714 0.9721
-1.8922 -6.6004 -1.7778 0.9720
-0.6971 -6.8970 -1.7949 0.9718
-0.0802 -6.9780 -1.8068 0.9716
0.5462 -7.0124 -1.8211 0.9714
1.8170 -6.9364 -1.8566 0.9708
3.0917 -6.6593 -1.9010 0.9701
3.7221 -6.4425 -1.9265 0.9697
4.9494 -5.8482 -1.9837 0.9688
6.1024 -5.0364 -2.0486 0.9678
6.6387 -4.5491 -2.0837 0.9673
7.1407 -4.0085 -2.1203 0.9667
7.4416 -2.5744 -2.0388 0.9680
8.0624 -1.2565 -2.1127 0.9668
8.2856 -0.5424 -2.1499 0.9663
8.4432 0.2015 -2.1867 0.9657
8.5419 1.7522 -2.2577 0.9646
8.4748 2.5433 -2.2910 0.9641
6.1032 3.8200 -1.8642 0.9707
4.7019 4.2735 -1.6451 0.9741
3.6281 4.7271 -1.5429 0.9757
3.1053 4.8942 -1.5007 0.9763
2.5582 4.9602 -1.4450 0.9772
1.1438 5.4071 -1.4310 0.9774
0.6658 5.5570 -1.4491 0.9771
6.3810 -3.8413 -2.1085 0.9695
6.8006 -3.3073 -2.1408 0.9691
7.2490 -1.3562 -2.0878 0.9698
7.4591 -0.7162 -2.1213 0.9693
7.6108 -0.0494 -2.1546 0.9689
7.6999 0.6385 -2.1873 0.9684
7.7223 1.3413 -2.2189 0.9679
7.2901 3.4291 -2.2807 0.9671
6.3714 3.7236 -2.0891 0.9698
5.5928 3.9769 -1.9427 0.9719
4.9104 4.1981 -1.8289 0.9735
4.2985 4.3958 -1.7405 0.9748
3.7383 4.5760 -1.6728 0.9757
2.7196 4.9019 -1.5870 0.9770
2.2406 5.0541 -1.5651 0.9773
1.7708 5.2028 -1.5559 0.9774
0.8975 3.6861 -1.0740 0.9844
0.1679 2.7788 -0.7881 0.9885
-0.7092 5.9775 -1.7041 0.9753
-1.6764 5.4860 -1.6239 0.9764
-5.3398 4.8645 -2.0449 0.9704
-5.9227 3.7165 -1.9794 0.9714
-6.9374 1.4313 -2.0053 0.9710
-6.8892 0.1723 -1.9509 0.9718
-6.7910 -0.4368 -1.9265 0.9721
-6.6466 -1.0280 -1.9040 0.9724
-5.9600 -2.6698 -1.8488 0.9732
-5.3148 -3.6330 -1.8225 0.9736
-4.9429 -4.0699 -1.8126 0.9737
-4.5410 -4.4750 -1.8048 0.9738
-4.1114 -4.8468 -1.7993 0.9739
-3.1775 -5.4855 -1.7946 0.9740
-2.6775 -5.7498 -1.7956 0.9740
-2.1582 -5.9759 -1.7987 0.9739
0.0670 -6.4739 -1.8328 0.9734
0.6485 -6.4911 -1.8467 0.9732
1.8237 -6.3890 -1.8809 0.9728
2.4114 -6.2676 -1.9011 0.9725
3.5707 -5.8800 -1.9475 0.9718
4.1351 -5.6126 -1.9735 0.9714
5.2131 -4.9287 -2.0310 0.9706
5.7179 -4.5127 -2.0621 0.9702
6.6347 -3.5361 -2.1284 0.9692
7.7213 1.0483 -2.2059 0.9681
7.7033 1.7564 -2.2367 0.9677
7.4521 3.1739 -2.2930 0.9669
1.0525 3.7183 -1.0940 0.9841
1.0266 5.4371 -1.5664 0.9773
0.0213 2.6085 -0.7385 0.9892
-0.4799 5.9065 -1.6776 0.9757
-1.6654 6.2722 -1.8371 0.9734
-1.9821 5.4509 -1.6420 0.9762
-3.2834 7.0108 -2.1916 0.9683
-3.8373 6.5910 -2.1591 0.9688
-4.3415 6.1271 -2.1258 0.9693
-4.7933 5.6256 -2.0923 0.9697
-5.1910 5.0931 -2.0587 0.9702
-5.8200 3.9597 -1.9928 0.9712
-6.0514 3.3705 -1.9609 0.9716
-6.7075 2.9870 -2.0786 0.9699
-6.9213 1.6974 -2.0174 0.9708
-6.5416 -1.3647 -1.8918 0.9726
-6.0761 -2.4560 -1.8553 0.9731
-5.4598 -3.4427 -1.8273 0.9735
-5.1010 -3.8924 -1.8164 0.9737
-4.7113 -4.3108 -1.8078 0.9738
-4.2929 -4.6966 -1.8013 0.9739
-3.8481 -5.0484 -1.7970 0.9740
-3.3789 -5.3648 -1.7949 0.9740
-2.8874 -5.6447 -1.7949 0.9740
-2.3758 -5.8868 -1.7971 0.9740
-1.8463 -6.0899 -1.8015 0.9739
-1.3010 -6.2529 -1.8081 0.9738
-0.1722 -6.4538 -1.8277 0.9735
0.4065 -6.4894 -1.8407 0.9733
1.5793 -6.4254 -1.8731 0.9729
2.1678 -6.3238 -1.8925 0.9726
3.3329 -5.9765 -1.9372 0.9720
4.4583 -5.4331 -1.9896 0.9712
6.0000 -4.2467 -2.0809 0.9699
6.4561 -3.7542 -2.1142 0.9694
7.6305 0.0663 -2.1602 0.9688
7.7085 0.7572 -2.1927 0.9683
7.7193 1.4618 -2.2241 0.9679
7.6600 2.1727 -2.2540 0.9674
7.1233 3.4836 -2.2448 0.9676
6.2307 3.7695 -2.0615 0.9702
4.8020 4.2332 -1.8122 0.9737
3.6471 4.6053 -1.6630 0.9759
3.1884 4.8604 -1.6456 0.9761
2.6371 4.9282 -1.5823 0.9770
2.1603 5.0796 -1.5626 0.9773
0.8482 3.7292 -1.0827 0.9842
0.7471 5.5246 -1.5782 0.9771
-0.8054 6.0072 -1.7158 0.9751
-3.0398 7.1704 -2.2048 0.9681
-3.6133 6.7709 -2.1727 0.9686
-4.1385 6.3245 -2.1397 0.9691
-4.6123 5.8378 -2.1062 0.9695
-5.0326 5.3174 -2.0726 0.9700
-5.3980 4.7696 -2.0392 0.9705
-5.7078 4.2006 -2.0062 0.9710
-2.7617 1.3545 -0.8708 0.9873
-6.7959 2.6105 -2.0609 0.9702
-6.9413 1.3226 -2.0004 0.9711
-6.7696 -0.5387 -1.9225 0.9722
-6.6176 -1.1266 -1.9003 0.9725
-6.4221 -1.6938 -1.8802 0.9728
-6.1857 -2.2376 -1.8622 0.9730
-5.9106 -2.7561 -1.8462 0.9733
-5.5992 -3.2473 -1.8324 0.9735
-4.8766 -4.1411 -1.8111 0.9738
-4.4699 -4.5406 -1.8037 0.9739
-3.5764 -5.2379 -1.7955 0.9740
-2.5904 -5.7910 -1.7959 0.9740
-0.9756 -6.3292 -1.8129 0.9737
-0.4099 -6.4262 -1.8229 0.9736
0.1655 -6.4800 -1.8350 0.9734
0.7480 -6.4896 -1.8493 0.9732
1.9238 -6.3717 -1.8842 0.9727
2.5110 -6.2422 -1.9047 0.9724
4.2296 -5.5621 -1.9782 0.9714
4.7755 -5.2366 -2.0063 0.9710
5.3008 -4.8614 -2.0361 0.9705
6.2710 -3.9643 -2.1003 0.9696
2.3439 -0.9505 -0.7160 0.9895
7.1892 -1.5083 -2.0795 0.9699
7.4129 -0.8756 -2.1131 0.9694
7.5793 -0.2148 -2.1465 0.9690
7.7232 1.1682 -2.2112 0.9680
7.6933 1.8774 -2.2418 0.9676
7.5918 2.5884 -2.2707 0.9672
7.4172 3.2929 -2.2974 0.9668
5.7733 3.9183 -1.9752 0.9714
4.4429 4.3492 -1.7601 0.9745
3.8715 4.5332 -1.6876 0.9755
2.8923 4.9550 -1.6242 0.9764
1.8854 5.1666 -1.5570 0.9774
0.9793 3.6713 -1.0757 0.9843
0.9458 5.4624 -1.5694 0.9772
-0.0184 2.6187 -0.7414 0.9892
-0.5730 5.9354 -1.6881 0.9755
-3.9266 6.5150 -2.1534 0.9689
-4.4221 6.0443 -2.1201 0.9693
-4.8648 5.5370 -2.0866 0.9698
-5.8633 3.8602 -1.9873 0.9712
-6.8612 2.2323 -2.0426 0.9705
-6.9290 1.5882 -2.0124 0.9709
-6.9432 0.9507 -1.9839 0.9713
-6.5084 -1.4611 -1.8883 0.9727
-6.2886 -2.0149 -1.8694 0.9729
-5.7326 -3.0469 -1.8379 0.9734
-3.7699 -5.1047 -1.7965 0.9740
-3.2968 -5.4150 -1.7947 0.9740
-2.2870 -5.9241 -1.7977 0.9739
-1.7546 -6.1205 -1.8025 0.9739
-1.2068 -6.2766 -1.8094 0.9738
-0.6459 -6.3911 -1.8185 0.9736
-0.0743 -6.4630 -1.8297 0.9735
5.0856 -5.0231 -2.0236 0.9707
5.5968 -4.6191 -2.0543 0.9703
6.9235 -3.1109 -2.1488 0.9689
6.7843 -2.3470 -2.0323 0.9706
7.3268 -1.1418 -2.0992 0.9696
7.5175 -0.4921 -2.1327 0.9692
7.6484 0.1825 -2.1658 0.9687
7.7152 0.8763 -2.1981 0.9682
7.4986 3.0019 -2.2866 0.9670
6.0937 3.8141 -2.0351 0.9706
4.6954 4.2677 -1.7962 0.9740
4.1029 4.4588 -1.7153 0.9751
3.6236 4.7211 -1.6848 0.9756
3.1015 4.8882 -1.6389 0.9762
2.0801 5.1050 -1.5606 0.9773
1.6117 5.2530 -1.5555 0.9774
6.2486 -3.0389 -2.1372 0.9713
6.6389 -1.2421 -2.0774 0.9721
6.9515 -0.0451 -2.1382 0.9713
7.0351 1.2219 -2.1963 0.9706
5.5844 3.9710 -2.1076 0.9717
4.2927 4.3899 -1.8885 0.9746
3.2719 4.8264 -1.7935 0.9759
2.7162 4.8959 -1.7221 0.9768
1.7687 5.1966 -1.6884 0.9773
0.1689 2.7946 -0.8611 0.9884
-0.0793 2.7443 -0.8444 0.9886
-1.6771 5.4882 -1.7651 0.9763
-2.6687 6.5708 -2.1814 0.9708
-3.7030 5.8509 -2.1297 0.9714
-4.1497 5.4193 -2.0994 0.9718
-5.4480 3.4186 -1.9783 0.9734
-2.7341 1.3928 -0.9438 0.9872
-6.2383 2.5056 -2.0678 0.9723
-6.3546 1.9150 -2.0414 0.9726
-6.4121 1.3229 -2.0137 0.9730
-6.3806 0.1596 -1.9632 0.9736
-6.2955 -0.4049 -1.9404 0.9739
-5.9969 -1.4846 -1.9002 0.9745
-5.7877 -1.9948 -1.8829 0.9747
-5.2603 -2.9450 -1.8543 0.9751
-4.2292 -4.1677 -1.8263 0.9755
-3.4063 -4.8297 -1.8178 0.9756
-2.9605 -5.1107 -1.8166 0.9756
-2.4945 -5.3568 -1.8175 0.9756
-2.0104 -5.5668 -1.8205 0.9755
-0.9968 -5.8738 -1.8325 0.9754
-0.4718 -5.9686 -1.8416 0.9753
1.1477 -6.0061 -1.8808 0.9747
1.6935 -5.9331 -1.8978 0.9745
2.7767 -5.6540 -1.9374 0.9740
3.3075 -5.4467 -1.9600 0.9737
3.8266 -5.1938 -1.9843 0.9734
4.3299 -4.8952 -2.0102 0.9730
6.1040 -3.2532 -2.1275 0.9715
2.3545 -0.9967 -0.7864 0.9894
7.0008 0.3203 -2.1556 0.9711
7.0379 0.9555 -2.1846 0.9707
7.0128 1.5990 -2.2123 0.9703
6.9235 2.2438 -2.2386 0.9700
5.1763 4.1037 -2.0317 0.9727
1.9459 5.0911 -1.6764 0.9774
1.0362 3.6608 -1.1702 0.9842
1.0254 5.4305 -1.6998 0.9771
-1.6630 6.2633 -1.9932 0.9732
-1.9791 5.4428 -1.7813 0.9761
-3.5042 6.0189 -2.1422 0.9713
-4.7596 4.6698 -2.0509 0.9725
-5.0803 4.1644 -2.0205 0.9729
-5.5705 3.1027 -1.9612 0.9737
-5.7404 2.5563 -1.9328 0.9740
-6.3362 -0.1724 -1.9496 0.9738
-6.0723 -1.2668 -1.9079 0.9744
-5.6480 -2.2829 -1.8737 0.9748
-5.0806 -3.2036 -1.8474 0.9752
-3.5849 -4.7031 -1.8189 0.9756
-2.6901 -5.2590 -1.8169 0.9756
-2.2133 -5.4842 -1.8190 0.9756
-1.7197 -5.6724 -1.8231 0.9755
-1.2115 -5.8228 -1.8293 0.9754
-0.1602 -6.0054 -1.8478 0.9752
0.3781 -6.0355 -1.8600 0.9750
1.4671 -5.9687 -1.8905 0.9746
2.0122 -5.8699 -1.9086 0.9744
2.5538 -5.7266 -1.9286 0.9741
4.1232 -5.0247 -1.9992 0.9732
4.6156 -4.6994 -2.0260 0.9728
5.5298 -3.9139 -2.0838 0.9720
6.3048 -2.9487 -2.1408 0.9713
6.8479 -0.5528 -2.1131 0.9717
7.0309 1.3314 -2.2010 0.9705
6.9685 1.9765 -2.2279 0.9701
6.8410 2.6189 -2.2531 0.9698
6.2208 3.7635 -2.2363 0.9700
4.7952 4.2273 -1.9662 0.9736
3.1844 4.8544 -1.7857 0.9760
2.1577 5.0735 -1.6958 0.9772
0.8398 3.6923 -1.1647 0.9843
0.7462 5.5179 -1.7126 0.9770
0.1244 2.7504 -0.8468 0.9885
-0.1224 2.7767 -0.8549 0.9884
-2.7709 6.5360 -2.1835 0.9707
-4.2210 5.3425 -2.0942 0.9719
-4.9533 4.3767 -2.0331 0.9727
-5.2446 3.8597 -2.0029 0.9731
-5.4854 3.3271 -1.9733 0.9735
-6.3679 1.8140 -2.0366 0.9727
-6.4169 1.2227 -2.0092 0.9730
-6.4167 0.6377 -1.9834 0.9734
-6.3693 0.0626 -1.9592 0.9737
-5.9640 -1.5729 -1.8971 0.9745
-5.7484 -2.0794 -1.8802 0.9747
-4.8900 -3.4527 -1.8412 0.9753
-4.1631 -4.2290 -1.8252 0.9755
-2.4134 -5.3951 -1.8179 0.9756
-1.9265 -5.5989 -1.8212 0.9755
-1.4240 -5.7651 -1.8265 0.9755
-0.3815 -5.9808 -1.8433 0.9752
1.7863 -5.9163 -1.9009 0.9745
2.8677 -5.6219 -1.9411 0.9739
3.3968 -5.4069 -1.9640 0.9736
3.9134 -5.1462 -1.9885 0.9733
4.8937 -4.4881 -2.0424 0.9726
6.5863 -1.3818 -2.0699 0.9722
7.0114 0.4275 -2.1606 0.9710
7.0380 1.0646 -2.1894 0.9707
7.0022 1.7088 -2.2169 0.9703
6.7360 2.9904 -2.2668 0.9696
5.7645 3.9123 -2.1428 0.9713
5.0629 4.1405 -2.0117 0.9730
4.4369 4.3433 -1.9097 0.9744
3.3992 4.7856 -1.8055 0.9757
2.3539 5.0112 -1.7029 0.9771
1.8831 5.1604 -1.6896 0.9773
0.9689 3.6322 -1.1563 0.9844
0.4620 5.6066 -1.7303 0.9767
-1.7749 6.2976 -2.0125 0.9730
-4.0446 5.5283 -2.1069 0.9717
-4.4556 5.0712 -2.0763 0.9721
-4.8177 4.5854 -2.0457 0.9725
-2.7479 1.4763 -0.9595 0.9870
-6.1979 2.6481 -2.0730 0.9722
-6.3328 2.0604 -2.0483 0.9725
-6.4026 1.4675 -2.0204 0.9729
-6.4226 0.8795 -1.9939 0.9732
-6.3946 0.2998 -1.9690 0.9736
-5.6051 -2.3652 -1.8712 0.9749
-5.0263 -3.2770 -1.8455 0.9752
-4.6891 -3.6921 -1.8357 0.9753
-3.9300 -4.4328 -1.8221 0.9755
-3.0716 -5.0451 -1.8167 0.9756
-2.1305 -5.5188 -1.8196 0.9755
-1.6343 -5.7007 -1.8240 0.9755
-0.0691 -6.0135 -1.8497 0.9751
1.5599 -5.9550 -1.8934 0.9746
2.1047 -5.8487 -1.9119 0.9743
2.6453 -5.6978 -1.9322 0.9741
3.7008 -5.2600 -1.9782 0.9734
5.1634 -4.2614 -2.0592 0.9724
5.6024 -3.8390 -2.0889 0.9720
6.2271 -2.1543 -2.0267 0.9728
6.4905 -1.6147 -2.0572 0.9724
6.8723 -0.4499 -2.1183 0.9716
6.9826 0.1667 -2.1483 0.9712
7.0344 0.7990 -2.1776 0.9708
6.9514 2.0862 -2.2323 0.9701
6.8128 2.7273 -2.2571 0.9698
6.6083 3.3569 -2.2798 0.9695
5.3435 4.0493 -2.0622 0.9723
3.6190 4.7151 -1.8282 0.9754
2.5520 4.9482 -1.7125 0.9770
2.0776 5.0989 -1.6935 0.9772
1.6098 5.2467 -1.6880 0.9773
1.1411 5.3942 -1.6959 0.9772
0.6642 5.5435 -1.7173 0.9769
2.3765 -0.9038 -0.8451 0.9893
6.1168 -1.1444 -2.0685 0.9741
6.2783 -0.6028 -2.0965 0.9738
6.3901 -0.0415 -2.1242 0.9734
6.4529 1.1208 -2.1771 0.9728
6.3991 1.7105 -2.2018 0.9725
6.2865 2.2978 -2.2249 0.9722
6.1144 2.8760 -2.2461 0.9719
5.8832 3.4383 -2.2651 0.9717
5.5759 3.9649 -2.2743 0.9716
4.2869 4.3839 -2.0382 0.9745
3.2200 4.7498 -1.9075 0.9761
2.7129 4.8898 -1.8588 0.9767
2.2352 5.0419 -1.8333 0.9770
1.7665 5.1903 -1.8225 0.9772
-0.0793 2.7451 -0.9129 0.9885
-0.7074 5.9617 -1.9956 0.9750
-2.9494 5.7349 -2.1436 0.9732
-3.4051 5.3802 -2.1165 0.9735
-3.8202 4.9890 -2.0887 0.9739
-4.1925 4.5666 -2.0607 0.9742
-4.5203 4.1179 -2.0326 0.9746
-4.8024 3.6480 -2.0047 0.9749
-5.0385 3.1616 -1.9772 0.9752
-5.8957 1.7767 -2.0468 0.9744
-5.7464 -0.8888 -1.9328 0.9758
-4.9130 -2.7506 -1.8716 0.9765
-3.1855 -4.5167 -1.8372 0.9770
-1.8800 -5.2055 -1.8397 0.9769
-1.4122 -5.3660 -1.8444 0.9769
-0.9317 -5.4902 -1.8511 0.9768
0.5630 -5.6349 -1.8824 0.9764
1.0709 -5.6042 -1.8966 0.9762
1.5793 -5.5327 -1.9126 0.9760
2.5857 -5.2650 -1.9498 0.9756
3.0776 -5.0680 -1.9709 0.9753
3.5574 -4.8285 -1.9936 0.9750
4.4667 -4.2230 -2.0433 0.9744
4.8885 -3.8581 -2.0701 0.9741
5.8102 -1.8689 -2.0288 0.9746
6.0360 -1.3623 -2.0569 0.9743
6.2171 -0.8302 -2.0850 0.9739
6.3500 -0.2765 -2.1128 0.9736
6.4313 0.2942 -2.1400 0.9732
6.4582 0.8768 -2.1665 0.9729
6.4285 1.4657 -2.1917 0.9726
5.9863 3.2074 -2.2575 0.9718
5.7209 3.7571 -2.2751 0.9716
4.5327 4.3043 -2.0778 0.9740
1.9435 5.0849 -1.8095 0.9773
1.0299 3.6384 -1.2569 0.9842
0.5445 5.5737 -1.8616 0.9767
-0.4787 5.8912 -1.9647 0.9754
-1.0430 6.0650 -2.0456 0.9744
-1.6607 6.2543 -2.1510 0.9731
-1.9763 5.4349 -1.9223 0.9759
-3.6530 5.1554 -2.1003 0.9737
-4.0433 4.7454 -2.0723 0.9741
-4.3897 4.3069 -2.0442 0.9744
-4.6909 3.8452 -2.0162 0.9748
-4.9461 3.3651 -1.9886 0.9751
-5.3181 2.3683 -1.9351 0.9758
-5.9360 1.4557 -2.0316 0.9746
-5.9547 0.3699 -1.9832 0.9752
-5.7992 -0.6783 -1.9408 0.9757
-5.6606 -1.1809 -1.9221 0.9759
-5.4840 -1.6657 -1.9051 0.9761
-5.2714 -2.1307 -1.8900 0.9763
-5.0248 -2.5737 -1.8766 0.9765
-4.7463 -2.9928 -1.8651 0.9766
-4.4377 -3.3863 -1.8555 0.9767
-4.1012 -3.7527 -1.8478 0.9768
-3.7388 -4.0904 -1.8421 0.9769
-3.3524 -4.3981 -1.8382 0.9770
-2.9441 -4.6745 -1.8363 0.9770
-2.5159 -4.9183 -1.8364 0.9770
-2.0698 -5.1285 -1.8383 0.9770
-1.1325 -5.4432 -1.8481 0.9768
-0.6456 -5.5456 -1.8558 0.9767
-0.1497 -5.6102 -1.8655 0.9766
0.3530 -5.6359 -1.8771 0.9765
0.8599 -5.6219 -1.8905 0.9763
2.8747 -5.1549 -1.9620 0.9754
3.3600 -4.9330 -1.9840 0.9752
4.2846 -4.3624 -2.0325 0.9746
5.1228 -3.6259 -2.0862 0.9739
6.4040 0.0556 -2.1288 0.9734
6.2614 2.3970 -2.2286 0.9721
6.0793 2.9730 -2.2495 0.9719
5.8380 3.5319 -2.2681 0.9716
5.4544 4.0046 -2.2493 0.9719
4.7885 4.2213 -2.1219 0.9735
4.1888 4.4157 -2.0231 0.9747
3.6377 4.5934 -1.9477 0.9756
3.1481 4.7991 -1.9078 0.9761
2.6306 4.9161 -1.8534 0.9768
2.1550 5.0673 -1.8304 0.9771
0.8348 3.6700 -1.2511 0.9843
-1.3968 6.1735 -2.1040 0.9737
-2.5428 5.9980 -2.1655 0.9729
-3.8866 4.9192 -2.0840 0.9739
-4.8458 3.5663 -2.0000 0.9750
-5.0740 3.0776 -1.9726 0.9753
-5.9091 1.6833 -2.0424 0.9744
-5.9656 0.5929 -1.9928 0.9750
-5.9266 0.0582 -1.9701 0.9753
-5.8451 -0.4651 -1.9491 0.9756
-5.7228 -0.9743 -1.9297 0.9758
-5.5617 -1.4668 -1.9120 0.9760
-4.8656 -2.8219 -1.8697 0.9766
-3.8922 -3.9538 -1.8442 0.9769
-3.5155 -4.2741 -1.8396 0.9769
-3.1161 -4.5637 -1.8369 0.9770
-2.6959 -4.8212 -1.8361 0.9770
-1.3313 -5.3898 -1.8454 0.9769
-0.3564 -5.5881 -1.8613 0.9767
1.1574 -5.5950 -1.8992 0.9762
2.1708 -5.3965 -1.9335 0.9758
2.6700 -5.2345 -1.9533 0.9755
3.1601 -5.0302 -1.9747 0.9753
3.6376 -4.7836 -1.9976 0.9750
4.0989 -4.4946 -2.0220 0.9747
4.5402 -4.1639 -2.0478 0.9744
5.3470 -3.3802 -2.1027 0.9737
5.6978 -2.9266 -2.1292 0.9734
2.3410 -0.9494 -0.8397 0.9894
5.8516 -1.7847 -2.0336 0.9745
6.2432 -0.7374 -2.0897 0.9738
6.4398 0.3926 -2.1446 0.9732
6.3196 2.1546 -2.2194 0.9722
5.9452 3.3025 -2.2607 0.9717
5.0556 4.1345 -2.1709 0.9728
3.8614 4.5214 -1.9764 0.9752
3.3324 4.6916 -1.9129 0.9760
2.3510 5.0051 -1.8381 0.9770
1.8808 5.1542 -1.8238 0.9771
0.4614 5.5997 -1.8677 0.9766
-2.8321 5.8156 -2.1502 0.9731
-3.7224 5.0879 -2.0956 0.9738
-4.7376 3.7647 -2.0115 0.9748
-5.3413 2.2821 -1.9307 0.9758
-5.8722 1.9105 -2.0527 0.9743
-5.9689 0.8173 -2.0026 0.9749
-5.7783 -0.7649 -1.9375 0.9757
-5.4503 -1.7463 -1.9024 0.9762
-5.2318 -2.2077 -1.8876 0.9763
-4.0414 -3.8122 -1.8467 0.9769
-3.6747 -4.1449 -1.8413 0.9769
-2.4412 -4.9565 -1.8366 0.9770
-1.5280 -5.3301 -1.8431 0.9769
-1.0505 -5.4632 -1.8493 0.9768
0.9464 -5.6155 -1.8929 0.9763
1.9617 -5.4514 -1.9258 0.9759
3.4412 -4.8911 -1.9879 0.9751
3.9097 -4.6196 -2.0117 0.9748
4.7875 -3.9512 -2.0634 0.9742
5.5603 -3.1213 -2.1196 0.9735
6.3221 -0.4139 -2.1060 0.9736
6.4163 0.1531 -2.1334 0.9733
6.3675 1.9109 -2.2098 0.9724
6.0424 3.0695 -2.2528 0.9718
5.7912 3.6247 -2.2710 0.9716
4.6823 4.2558 -2.1033 0.9737
3.5478 4.6224 -1.9369 0.9757
2.5488 4.9421 -1.8484 0.9768
2.0751 5.0926 -1.8280 0.9771
1.1397 5.3876 -1.8305 0.9771
5.0557 -3.0435 -2.1103 0.9752
5.8084 -0.5577 -2.0867 0.9755
5.9060 -0.0383 -2.1121 0.9752
5.9549 0.4938 -2.1368 0.9749
5.9528 1.0339 -2.1606 0.9747
5.7895 2.1161 -2.2043 0.9742
5.4103 3.1619 -2.2410 0.9737
3.5220 4.3113 -1.9908 0.9766
3.1294 4.6163 -1.9944 0.9766
2.7094 4.8837 -1.9972 0.9766
2.2324 5.0356 -1.9698 0.9769
0.8440 3.4665 -1.2759 0.9850
0.8258 5.4788 -1.9814 0.9767
-2.7241 5.2967 -2.1300 0.9750
-3.1479 4.9739 -2.1050 0.9753
-3.5352 4.6169 -2.0795 0.9756
-3.8837 4.2302 -2.0536 0.9759
-4.4576 3.3860 -2.0018 0.9765
-4.6813 2.9375 -1.9764 0.9768
-5.0010 2.0087 -1.9273 0.9774
-5.4873 1.6536 -2.0495 0.9759
-5.5444 0.1387 -1.9833 0.9767
-5.4788 -0.3524 -1.9633 0.9769
-5.3744 -0.8313 -1.9448 0.9772
-5.2330 -1.2955 -1.9278 0.9774
-5.0563 -1.7427 -1.9125 0.9775
-4.8461 -2.1708 -1.8989 0.9777
-4.6044 -2.5778 -1.8871 0.9778
-2.1888 -4.7005 -1.8542 0.9782
0.0546 -5.2725 -1.8856 0.9778
0.5275 -5.2791 -1.8972 0.9777
1.0028 -5.2478 -1.9106 0.9776
3.7507 -4.2404 -2.0245 0.9762
4.1621 -3.9351 -2.0483 0.9760
4.5511 -3.5918 -2.0733 0.9757
5.2408 -2.7932 -2.1237 0.9751
2.3437 -0.9921 -0.9101 0.9892
5.7542 -0.7684 -2.0760 0.9756
5.8713 -0.2557 -2.1016 0.9753
5.9407 0.2718 -2.1267 0.9751
5.9600 0.8092 -2.1509 0.9748
5.9272 1.3515 -2.1740 0.9745
5.7008 2.4280 -2.2159 0.9740
5.2592 3.4539 -2.2500 0.9736
4.5263 4.2983 -2.2322 0.9738
3.9497 4.4851 -2.1372 0.9749
1.0520 3.7164 -1.3812 0.9837
1.0229 5.4171 -1.9714 0.9769
0.5439 5.5667 -2.0002 0.9765
0.0212 2.5975 -0.9289 0.9890
-1.0416 6.0566 -2.1977 0.9742
-1.9734 5.4270 -2.0651 0.9758
-2.9764 5.1123 -2.1155 0.9752
-3.3791 4.7689 -2.0901 0.9755
-4.0688 3.9920 -2.0384 0.9761
-4.3523 3.5676 -2.0125 0.9764
-4.7924 2.6693 -1.9617 0.9770
-5.4417 1.8622 -2.0568 0.9759
-5.5679 0.8487 -2.0141 0.9764
-5.5598 0.3453 -1.9921 0.9766
-5.5108 -0.1499 -1.9714 0.9769
-5.4223 -0.6342 -1.9523 0.9771
-5.2960 -1.1048 -1.9347 0.9773
-4.9372 -1.9956 -1.9044 0.9776
-4.7084 -2.4116 -1.8918 0.9778
-4.4491 -2.8054 -1.8809 0.9779
-3.8467 -3.5198 -1.8646 0.9781
-3.5074 -3.8373 -1.8591 0.9782
-3.1454 -4.1265 -1.8555 0.9782
-2.7624 -4.3861 -1.8537 0.9782
-1.9420 -4.8117 -1.8556 0.9782
-1.5084 -4.9755 -1.8593 0.9782
-0.6054 -5.2000 -1.8721 0.9780
0.3308 -5.2809 -1.8922 0.9778
1.2810 -5.2117 -1.9192 0.9775
2.2242 -4.9876 -1.9529 0.9771
2.6860 -4.8165 -1.9721 0.9768
3.1371 -4.6058 -1.9928 0.9766
3.9939 -4.0664 -2.0383 0.9761
4.7667 -3.3738 -2.0884 0.9755
5.1123 -2.9728 -2.1148 0.9752
5.0351 -2.3549 -1.9878 0.9767
5.2923 -1.9213 -2.0134 0.9764
5.6922 -0.9758 -2.0653 0.9758
5.8283 -0.4705 -2.0910 0.9755
5.9179 0.0514 -2.1163 0.9752
5.9582 0.5853 -2.1410 0.9749
5.5937 2.7355 -2.2267 0.9739
5.3682 3.2476 -2.2437 0.9737
4.1830 4.4096 -2.1736 0.9745
2.6273 4.9099 -1.9914 0.9766
2.1524 5.0610 -1.9667 0.9769
0.7443 5.5042 -1.9863 0.9767
0.1255 2.7766 -0.9940 0.9883
-0.1225 2.7799 -0.9951 0.9882
-0.8022 5.9831 -2.1587 0.9747
-1.7467 5.4203 -2.0365 0.9761
-2.3467 5.5354 -2.1500 0.9748
-2.7987 5.2444 -2.1258 0.9751
-3.2165 4.9155 -2.1007 0.9754
-3.5973 4.5531 -2.0751 0.9757
-3.9389 4.1618 -2.0492 0.9760
-5.5360 0.0544 -1.9798 0.9768
-5.4637 -0.4348 -1.9600 0.9770
-5.0228 -1.8170 -1.9101 0.9776
-4.8072 -2.2416 -1.8968 0.9777
-3.9803 -3.3800 -1.8674 0.9781
-3.6511 -3.7089 -1.8611 0.9781
-3.2982 -4.0100 -1.8567 0.9782
-2.1176 -4.7340 -1.8546 0.9782
-1.6900 -4.9116 -1.8575 0.9782
0.1347 -5.2763 -1.8874 0.9778
0.6082 -5.2764 -1.8994 0.9777
1.0837 -5.2387 -1.9131 0.9775
1.5586 -5.1624 -1.9284 0.9774
2.0302 -5.0470 -1.9454 0.9772
3.3947 -4.4642 -2.0056 0.9765
3.8221 -4.1912 -2.0284 0.9762
5.8865 -0.1669 -2.1059 0.9753
5.9476 0.3626 -2.1308 0.9750
5.9164 1.4438 -2.1778 0.9745
5.4682 3.0375 -2.2369 0.9738
3.8562 4.5153 -2.1234 0.9751
3.2285 4.5453 -1.9937 0.9766
2.8128 4.8188 -1.9953 0.9766
2.3481 4.9989 -1.9750 0.9768
1.8785 5.1478 -1.9596 0.9770
0.9423 5.4423 -1.9752 0.9768
0.4608 5.5926 -2.0067 0.9764
-0.0182 2.5852 -0.9245 0.9891
-0.5708 5.9119 -2.1240 0.9751
-1.6555 5.8741 -2.1824 0.9744
-2.0855 5.4750 -2.0951 0.9754
-3.0475 5.0563 -2.1112 0.9752
-3.4439 4.7072 -2.0858 0.9755
-4.3964 3.4936 -2.0081 0.9764
-2.7652 1.4856 -1.1225 0.9868
-5.4613 1.7768 -2.0538 0.9759
-5.5423 1.2703 -2.0334 0.9761
-5.5695 0.7626 -2.0103 0.9764
-5.5544 0.2604 -1.9885 0.9767
-5.2709 -1.1833 -1.9318 0.9773
-4.6664 -2.4802 -1.8898 0.9778
-2.6954 -4.4272 -1.8535 0.9782
-2.2906 -4.6506 -1.8539 0.9782
-1.4334 -5.0000 -1.8601 0.9781
-0.9852 -5.1239 -1.8659 0.9781
-0.0605 -5.2652 -1.8830 0.9779
0.4113 -5.2809 -1.8942 0.9777
1.3618 -5.1987 -1.9218 0.9774
2.7636 -4.7835 -1.9756 0.9768
3.2125 -4.5660 -1.9965 0.9766
3.6469 -4.3092 -2.0188 0.9763
5.1676 -2.9009 -2.1192 0.9751
5.3325 -1.8448 -2.0178 0.9763
5.7185 -0.8912 -2.0697 0.9757
5.8469 -0.3827 -2.0954 0.9754
5.9600 0.6769 -2.1450 0.9748
5.7402 2.2979 -2.2111 0.9741
5.3246 3.3327 -2.2463 0.9737
4.6757 4.2497 -2.2595 0.9735
4.0864 4.4409 -2.1581 0.9747
3.3921 4.4195 -1.9923 0.9766
2.0725 5.0864 -1.9641 0.9769
1.6059 5.2339 -1.9578 0.9770
0.6625 5.5298 -1.9916 0.9766
4.7189 -2.8407 -2.1107 0.9767
4.9960 -2.4297 -2.1290 0.9765
5.0995 -1.4343 -2.0301 0.9776
5.4838 -0.0356 -2.1016 0.9768
5.5182 0.9584 -2.1463 0.9763
5.4632 1.4604 -2.1671 0.9761
5.2049 2.4482 -2.2042 0.9757
4.7506 3.3781 -2.2338 0.9753
4.4534 3.8074 -2.2453 0.9752
4.1128 4.2059 -2.2543 0.9751
3.0066 4.4351 -2.0534 0.9773
2.7060 4.8775 -2.1375 0.9764
1.7621 5.1774 -2.0958 0.9768
0.8247 5.4719 -2.1206 0.9766
-0.0748 2.5918 -0.9936 0.9890
-0.6762 5.6994 -2.1994 0.9757
-1.1717 5.5700 -2.1812 0.9759
-2.9236 4.6195 -2.0950 0.9769
-3.6132 3.9356 -2.0474 0.9774
-3.9030 3.5556 -2.0233 0.9776
-4.1545 3.1557 -1.9993 0.9779
-2.7382 1.3949 -1.1776 0.9869
-4.6727 1.8768 -1.9297 0.9787
-5.1965 1.0722 -2.0333 0.9775
-5.0427 -0.7800 -1.9554 0.9784
-4.3281 -2.4231 -1.9009 0.9790
-4.0743 -2.7851 -1.8913 0.9791
-3.7940 -3.1240 -1.8834 0.9792
-3.4890 -3.4383 -1.8772 0.9792
-3.1612 -3.7266 -1.8727 0.9793
-2.8125 -3.9877 -1.8700 0.9793
-2.0596 -4.4231 -1.8698 0.9793
-1.2462 -4.7354 -1.8765 0.9792
-0.3887 -4.9169 -1.8901 0.9791
1.3876 -4.8614 -1.9374 0.9786
2.6942 -4.4366 -1.9891 0.9780
3.5103 -3.9686 -2.0304 0.9776
4.2528 -3.3564 -2.0762 0.9771
4.5880 -2.9987 -2.1004 0.9768
2.3405 -0.9908 -0.9740 0.9892
5.2033 -1.1744 -2.0442 0.9774
5.3494 -0.7143 -2.0682 0.9771
5.5133 0.2522 -2.1150 0.9766
5.4082 1.7527 -2.1786 0.9759
5.0919 2.7282 -2.2138 0.9756
4.8605 3.1921 -2.2284 0.9754
2.7330 4.5229 -2.0251 0.9776
2.4257 4.9669 -2.1183 0.9766
1.9387 5.0723 -2.0809 0.9770
1.0343 3.6537 -1.4552 0.9839
1.0216 5.4103 -2.1100 0.9767
0.5432 5.5596 -2.1407 0.9764
0.0222 2.7184 -1.0418 0.9884
-1.9166 5.2706 -2.1492 0.9763
-2.7633 4.7463 -2.1047 0.9767
-3.1399 4.4313 -2.0812 0.9770
-3.4819 4.0865 -2.0574 0.9773
-4.7325 1.6195 -1.9168 0.9788
-4.9707 -1.0369 -1.9459 0.9785
-4.8208 -1.4643 -1.9308 0.9786
-4.1829 -2.6376 -1.8950 0.9790
-3.9134 -2.9862 -1.8864 0.9791
-2.9596 -3.8828 -1.8709 0.9793
-2.5994 -4.1273 -1.8692 0.9793
-2.2213 -4.3426 -1.8692 0.9793
-1.8273 -4.5275 -1.8710 0.9793
-1.4192 -4.6811 -1.8745 0.9793
-0.5694 -4.8903 -1.8867 0.9791
0.3109 -4.9632 -1.9057 0.9789
1.2029 -4.8940 -1.9313 0.9786
2.5180 -4.5153 -1.9812 0.9781
3.3461 -4.0777 -2.0214 0.9777
4.4522 -3.1512 -2.0903 0.9769
4.6949 -2.1958 -1.9862 0.9780
4.9304 -1.7899 -2.0101 0.9778
5.4156 -0.4371 -2.0821 0.9770
5.5269 0.5429 -2.1282 0.9765
5.4490 1.5455 -2.1705 0.9760
4.9623 3.0021 -2.2226 0.9755
4.7032 3.4530 -2.2360 0.9753
4.0508 4.2703 -2.2556 0.9751
3.4095 4.3054 -2.1046 0.9767
0.1249 2.7620 -1.0595 0.9882
-0.7616 5.6808 -2.1965 0.9757
-1.2542 5.5432 -2.1780 0.9759
-1.7271 5.3596 -2.1579 0.9762
-2.1761 5.1331 -2.1366 0.9764
-3.3443 4.2329 -2.0673 0.9772
-3.6651 3.8725 -2.0433 0.9774
-4.3989 2.6681 -1.9716 0.9782
-5.1401 1.4643 -2.0482 0.9774
-5.2027 0.9913 -2.0296 0.9776
-5.2152 0.5183 -2.0084 0.9778
-5.0230 -0.8552 -1.9526 0.9784
-4.7180 -1.7067 -1.9227 0.9787
-4.5173 -2.1064 -1.9101 0.9789
-4.2869 -2.4862 -1.8991 0.9790
-3.4348 -3.4892 -1.8763 0.9792
-2.7512 -4.0293 -1.8697 0.9793
-0.3142 -4.9260 -1.8916 0.9791
0.1266 -4.9596 -1.9012 0.9790
0.5715 -4.9579 -1.9125 0.9788
1.0178 -4.9203 -1.9255 0.9787
1.4632 -4.8462 -1.9400 0.9785
1.9049 -4.7354 -1.9560 0.9784
2.3400 -4.5875 -1.9735 0.9782
2.7658 -4.4025 -1.9924 0.9780
3.5767 -3.9220 -2.0341 0.9775
3.9554 -3.6275 -2.0567 0.9773
4.6422 -2.9346 -2.1046 0.9767
5.2310 -1.0975 -2.0483 0.9774
5.4669 -0.1550 -2.0959 0.9768
5.5242 0.8356 -2.1411 0.9764
5.3890 1.8373 -2.1819 0.9759
5.2472 2.3295 -2.2001 0.9757
4.5303 3.7049 -2.2427 0.9752
3.7836 4.4304 -2.2327 0.9754
3.1235 4.3976 -2.0671 0.9772
2.6548 4.5480 -2.0181 0.9777
2.3451 4.9926 -2.1138 0.9766
0.9671 3.6258 -1.4380 0.9841
0.9411 5.4355 -2.1140 0.9766
0.4602 5.5854 -2.1477 0.9763
-1.0519 5.6061 -2.1858 0.9759
-1.5335 5.4412 -2.1664 0.9761
-1.9929 5.2321 -2.1456 0.9763
-2.4262 4.9821 -2.1236 0.9765
-3.2006 4.3746 -2.0772 0.9770
-3.5365 4.0251 -2.0533 0.9773
-2.7763 1.4916 -1.2077 0.9866
-5.1857 1.1886 -2.0388 0.9775
-5.2148 0.7141 -2.0171 0.9777
-5.2043 0.2440 -1.9966 0.9779
-5.1553 -0.2186 -1.9774 0.9781
-5.0692 -0.6710 -1.9596 0.9783
-4.7921 -1.5354 -1.9284 0.9787
-4.6043 -1.9429 -1.9151 0.9788
-3.5659 -3.3637 -1.8785 0.9792
-3.2435 -3.6585 -1.8737 0.9793
-2.8997 -3.9264 -1.8705 0.9793
-0.9267 -4.8197 -1.8808 0.9792
-0.4954 -4.9019 -1.8881 0.9791
0.3866 -4.9629 -1.9076 0.9789
1.7222 -4.7859 -1.9492 0.9784
2.1604 -4.6534 -1.9661 0.9783
3.8007 -3.7540 -2.0472 0.9774
4.1668 -3.4389 -2.0704 0.9771
4.5084 -3.0894 -2.0944 0.9769
4.8187 -2.7050 -2.1177 0.9766
4.7373 -2.1286 -1.9903 0.9780
5.3174 -0.8287 -2.0623 0.9772
5.5029 0.1313 -2.1094 0.9767
5.4333 1.6306 -2.1739 0.9760
5.1412 2.6117 -2.2099 0.9756
4.9216 3.0804 -2.2250 0.9754
3.9877 4.3336 -2.2568 0.9751
3.3254 4.3325 -2.0930 0.9769
2.8466 4.4865 -2.0362 0.9775
2.5424 4.9297 -2.1256 0.9765
2.0699 5.0800 -2.1021 0.9768
0.6617 5.5227 -2.1315 0.9765
4.4187 -2.6600 -2.1109 0.9780
4.3530 -2.1169 -1.9811 0.9793
2.3862 -0.9075 -1.0448 0.9890
4.9192 -0.9203 -2.0482 0.9786
5.1462 0.4268 -2.1135 0.9779
5.1367 0.8922 -2.1338 0.9777
5.0821 1.3585 -2.1530 0.9775
4.9819 1.8210 -2.1709 0.9773
4.6448 2.7146 -2.2019 0.9770
4.4097 3.1356 -2.2145 0.9769
3.8152 3.9015 -2.2334 0.9767
2.6280 4.7369 -2.2171 0.9769
2.2201 5.0079 -2.2420 0.9766
0.8656 3.5554 -1.4977 0.9843
-0.6284 5.2963 -2.1828 0.9772
-1.0894 5.1790 -2.1660 0.9774
-1.9567 4.8177 -2.1282 0.9778
-2.3552 4.5794 -2.1076 0.9780
-2.7260 4.3072 -2.0862 0.9782
-3.3741 3.6752 -2.0419 0.9787
-3.6476 3.3229 -2.0195 0.9789
-3.8856 2.9515 -1.9971 0.9791
-4.0873 2.5647 -1.9749 0.9794
-2.6992 1.3750 -1.2398 0.9870
-4.3802 1.7593 -1.9319 0.9798
-4.4716 1.3475 -1.9114 0.9800
-4.8759 1.0060 -2.0376 0.9787
-1.9491 -0.1254 -0.7994 0.9916
-1.9951 -0.3086 -0.8262 0.9913
-3.8410 -2.6256 -1.9042 0.9801
-3.2906 -3.2428 -1.8908 0.9802
-2.6531 -3.7618 -1.8840 0.9803
-2.3062 -3.9812 -1.8831 0.9803
-1.9430 -4.1725 -1.8838 0.9803
-1.1754 -4.4662 -1.8902 0.9802
-0.7750 -4.5669 -1.8958 0.9802
0.4670 -4.6739 -1.9224 0.9799
1.3064 -4.5766 -1.9479 0.9796
2.1317 -4.3406 -1.9792 0.9793
2.5324 -4.1702 -1.9968 0.9791
2.9213 -3.9651 -2.0157 0.9789
3.2954 -3.7256 -2.0357 0.9787
3.6517 -3.4525 -2.0568 0.9785
3.9870 -3.1466 -2.0787 0.9783
4.2980 -2.8092 -2.1015 0.9781
2.3372 -0.9894 -1.0387 0.9891
4.6902 -1.5087 -2.0165 0.9789
4.8595 -1.0968 -2.0389 0.9787
4.9921 -0.6666 -2.0613 0.9785
5.0854 -0.2214 -2.0833 0.9782
5.1373 0.2350 -2.1048 0.9780
5.1460 0.6987 -2.1255 0.9778
4.7296 2.5341 -2.1960 0.9771
4.2524 3.3712 -2.2210 0.9768
3.9514 3.7523 -2.2302 0.9767
3.6125 4.1022 -2.2371 0.9767
3.2006 4.3643 -2.2151 0.9769
2.7294 4.5170 -2.1600 0.9774
2.4050 4.9244 -2.2430 0.9766
1.9362 5.0658 -2.2196 0.9768
0.5265 5.3890 -2.2161 0.9769
0.0221 2.7131 -1.1104 0.9883
-0.4332 5.3317 -2.1893 0.9771
-1.3516 5.0902 -2.1555 0.9775
-1.7839 4.9058 -2.1364 0.9777
-2.9289 4.1336 -2.0734 0.9783
-3.2505 3.8148 -2.0512 0.9786
-3.5384 3.4716 -2.0288 0.9788
-3.7912 3.1077 -2.0063 0.9790
-2.6657 1.4847 -1.2488 0.9869
-2.8228 1.2571 -1.2647 0.9867
-1.9240 -0.0523 -0.7877 0.9917
-1.9551 -0.2287 -0.8056 0.9915
-4.6783 -0.9760 -1.9559 0.9796
-4.5394 -1.3788 -1.9417 0.9797
-4.3694 -1.7661 -1.9288 0.9798
-3.4125 -3.1224 -1.8931 0.9802
-3.1125 -3.4052 -1.8881 0.9803
-2.7918 -3.6627 -1.8849 0.9803
-2.0955 -4.0966 -1.8833 0.9803
-1.7237 -4.2709 -1.8850 0.9803
-1.3386 -4.4153 -1.8883 0.9803
-0.9423 -4.5289 -1.8933 0.9802
-0.5368 -4.6109 -1.8999 0.9801
0.2930 -4.6770 -1.9179 0.9800
0.7128 -4.6597 -1.9293 0.9798
1.5502 -4.5220 -1.9565 0.9796
1.9627 -4.4011 -1.9722 0.9794
2.3674 -4.2452 -1.9893 0.9792
2.7615 -4.0544 -2.0077 0.9790
3.5062 -3.5699 -2.0479 0.9786
4.4643 -2.5960 -2.1136 0.9779
5.1306 0.9715 -2.1371 0.9777
5.0683 1.4376 -2.1561 0.9775
4.9603 1.8989 -2.1738 0.9773
4.8066 2.3506 -2.1899 0.9771
4.6079 2.7877 -2.2042 0.9770
4.3654 3.2050 -2.2165 0.9769
4.0811 3.5977 -2.2267 0.9768
3.3577 4.2399 -2.2135 0.9769
2.9225 4.4551 -2.1806 0.9772
2.5557 4.7760 -2.2170 0.9769
2.1433 5.0398 -2.2415 0.9766
0.1246 2.7554 -1.1289 0.9881
-0.1146 2.6005 -1.0653 0.9888
-0.7078 5.2795 -2.1801 0.9772
-1.1663 5.1547 -2.1630 0.9774
-2.4203 4.5354 -2.1040 0.9780
-3.9225 2.8867 -1.9933 0.9792
-4.3983 1.6895 -1.9284 0.9798
-1.9079 0.0187 -0.7809 0.9918
-1.9556 -0.1556 -0.8029 0.9916
-4.0405 -2.3433 -1.9116 0.9800
-3.7979 -2.6816 -1.9028 0.9801
-3.5304 -2.9980 -1.8956 0.9802
-2.5953 -3.8010 -1.8837 0.9803
-1.8797 -4.2021 -1.8841 0.9803
-1.4999 -4.3591 -1.8867 0.9803
-0.7061 -4.5808 -1.8969 0.9802
0.1194 -4.6742 -1.9137 0.9800
0.9586 -4.6337 -1.9366 0.9798
1.3774 -4.5620 -1.9504 0.9796
1.7923 -4.4555 -1.9655 0.9795
2.5994 -4.1378 -1.9999 0.9791
3.7103 -3.4027 -2.0604 0.9785
4.3483 -2.7488 -2.1054 0.9780
4.6140 -2.3699 -2.1229 0.9778
5.0108 -0.5918 -2.0650 0.9784
5.0972 -0.1445 -2.0870 0.9782
5.1419 0.3135 -2.1083 0.9780
5.1431 0.7779 -2.1289 0.9778
5.0996 1.2445 -2.1484 0.9776
4.2040 3.4381 -2.2227 0.9768
3.8963 3.8142 -2.2316 0.9767
3.5218 4.1238 -2.2195 0.9768
3.1194 4.3917 -2.2047 0.9770
2.3297 4.9596 -2.2426 0.9766
1.8738 5.1348 -2.2371 0.9767
0.4443 5.3916 -2.2141 0.9769
-0.9779 5.2118 -2.1703 0.9773
-1.4266 5.0617 -2.1523 0.9775
-1.8552 4.8705 -2.1331 0.9777
-2.6379 4.3768 -2.0915 0.9782
-3.5839 3.4111 -2.0250 0.9788
-4.0413 2.6607 -1.9803 0.9793
-2.6985 1.4498 -1.2537 0.9868
-2.9715 1.2696 -1.3225 0.9861
-1.9389 0.0909 -0.7944 0.9916
-1.9358 -0.0821 -0.7930 0.9917
-4.5126 -1.4458 -1.9394 0.9797
-4.3375 -1.8303 -1.9268 0.9799
-4.1333 -2.1969 -1.9158 0.9800
-3.9017 -2.5438 -1.9063 0.9801
-3.6444 -2.8695 -1.8984 0.9802
-3.3630 -3.1723 -1.8921 0.9802
-3.0594 -3.4508 -1.8875 0.9803
-2.7354 -3.7038 -1.8845 0.9803
-2.0333 -4.1283 -1.8834 0.9803
-1.6591 -4.2976 -1.8854 0.9803
-0.0536 -4.6657 -1.9097 0.9800
0.3642 -4.6764 -1.9197 0.9799
0.7842 -4.6533 -1.9314 0.9798
1.2039 -4.5960 -1.9445 0.9797
1.6208 -4.5039 -1.9591 0.9795
2.0321 -4.3770 -1.9751 0.9794
2.4352 -4.2152 -1.9924 0.9792
3.2053 -3.7874 -2.0307 0.9788
4.4320 -1.9914 -1.9886 0.9792
4.8214 -1.1995 -2.0334 0.9788
4.9632 -0.7735 -2.0558 0.9785
5.1285 0.1224 -2.0996 0.9781
4.9374 1.9765 -2.1767 0.9773
4.0287 3.6617 -2.2282 0.9767
2.4878 4.8237 -2.2213 0.9768
2.0660 5.0704 -2.2409 0.9766
1.6018 5.2207 -2.2350 0.9767
0.6449 5.3828 -2.2188 0.9768
4.1478 -2.4969 -2.1100 0.9791
2.3896 -0.9088 -1.1142 0.9889
4.4661 -1.2562 -2.0219 0.9800
4.6076 -0.8620 -2.0429 0.9798
4.7135 -0.4526 -2.0637 0.9796
4.7449 1.2683 -2.1405 0.9788
4.6488 1.6992 -2.1571 0.9786
4.3302 2.5307 -2.1858 0.9784
3.5533 3.6337 -2.2149 0.9781
3.2232 3.9455 -2.2204 0.9780
2.4752 4.4614 -2.2235 0.9780
2.0671 4.6628 -2.2229 0.9780
1.6406 4.8202 -2.2191 0.9780
0.8698 3.5727 -1.6025 0.9841
0.3038 5.0260 -2.1944 0.9783
-1.4320 4.6863 -2.1356 0.9788
-1.8282 4.5015 -2.1174 0.9790
-2.5504 4.0297 -2.0784 0.9794
-2.8707 3.7491 -2.0579 0.9796
-3.1611 3.4431 -2.0371 0.9798
-3.4197 3.1153 -2.0160 0.9800
-3.6453 2.7690 -1.9951 0.9802
-3.8372 2.4078 -1.9743 0.9804
-2.6735 1.3619 -1.3076 0.9870
-4.1176 1.6539 -1.9339 0.9808
-1.5745 0.4745 -0.7167 0.9929
-1.5296 -0.0984 -0.6680 0.9933
-1.5434 -0.3821 -0.6930 0.9931
-1.5914 -0.5485 -0.7336 0.9927
-3.3812 -2.7840 -1.9088 0.9811
-3.1105 -3.0652 -1.9032 0.9811
-2.5083 -3.5565 -1.8967 0.9812
-2.1804 -3.7641 -1.8958 0.9812
-1.4799 -4.0977 -1.8988 0.9812
0.0457 -4.4129 -1.9233 0.9809
1.2328 -4.3189 -1.9574 0.9806
2.3864 -3.9298 -2.0037 0.9801
2.7514 -3.7345 -2.0216 0.9800
3.1020 -3.5069 -2.0405 0.9798
3.7483 -2.9582 -2.0810 0.9794
4.0381 -2.6393 -2.1024 0.9792
4.2902 -2.2865 -2.1187 0.9790
2.3339 -0.9880 -1.1045 0.9890
4.7582 -0.2072 -2.0757 0.9794
4.8036 0.2197 -2.0957 0.9792
4.7723 1.0881 -2.1332 0.9789
4.5729 1.9476 -2.1662 0.9785
4.2058 2.7621 -2.1929 0.9783
3.3640 3.8201 -2.2184 0.9780
2.6395 4.3682 -2.2243 0.9780
1.3848 4.8920 -2.2158 0.9781
0.9402 4.9793 -2.2084 0.9781
-0.4040 4.9724 -2.1742 0.9785
-1.2618 4.7521 -2.1428 0.9788
-1.6664 4.5826 -2.1251 0.9789
-2.0498 4.3769 -2.1064 0.9791
-2.4091 4.1379 -2.0867 0.9793
-3.0443 3.5729 -2.0457 0.9797
-3.5558 2.9147 -2.0038 0.9801
-3.7617 2.5593 -1.9829 0.9803
-2.7334 1.2172 -1.3040 0.9870
-1.5907 0.5443 -0.7327 0.9927
-1.5419 0.3781 -0.6919 0.9931
-1.5274 -0.0416 -0.6659 0.9934
-1.5229 -0.1781 -0.6682 0.9933
-1.5756 -0.4786 -0.7177 0.9928
-4.1256 -1.6676 -1.9393 0.9808
-3.2254 -2.9513 -1.9054 0.9811
-2.6394 -3.4627 -1.8975 0.9812
-2.3185 -3.6812 -1.8960 0.9812
-1.9813 -3.8732 -1.8960 0.9812
-1.6296 -4.0378 -1.8976 0.9812
0.2767 -4.4174 -1.9290 0.9809
1.4625 -4.2664 -1.9656 0.9805
1.8508 -4.1503 -1.9805 0.9804
2.6015 -3.8195 -2.0141 0.9800
3.2992 -3.3591 -2.0520 0.9797
4.3233 -1.5695 -2.0045 0.9801
4.7895 0.0416 -2.0874 0.9793
4.8115 0.4726 -2.1070 0.9791
4.7925 0.9075 -2.1258 0.9789
4.6282 1.7718 -2.1598 0.9786
4.0678 2.9865 -2.1993 0.9782
3.4994 3.6890 -2.2160 0.9781
3.1640 3.9953 -2.2211 0.9780
2.4080 4.5000 -2.2243 0.9780
1.9957 4.6926 -2.2224 0.9780
1.5666 4.8426 -2.2182 0.9780
0.8105 3.5635 -1.5927 0.9842
0.6775 5.0096 -2.2031 0.9782
-1.0885 4.8112 -2.1498 0.9787
-1.5008 4.6575 -2.1326 0.9789
-1.8935 4.4665 -2.1143 0.9791
-2.2631 4.2409 -2.0950 0.9792
-2.6069 3.9839 -2.0749 0.9794
-3.2073 3.3888 -2.0335 0.9798
-3.4604 3.0576 -2.0125 0.9801
-3.6804 2.7085 -1.9915 0.9803
-1.5661 0.4461 -0.7097 0.9929
-1.4988 0.2856 -0.6650 0.9934
-1.5244 0.0150 -0.6644 0.9934
-1.5288 -0.1216 -0.6684 0.9933
-1.5048 -0.2562 -0.6653 0.9934
-1.5538 -0.4098 -0.7003 0.9930
-1.5960 -0.5773 -0.7397 0.9926
-4.0196 -1.8743 -1.9329 0.9808
-3.8169 -2.2137 -1.9230 0.9809
-3.0623 -3.1108 -1.9024 0.9811
-2.7674 -3.3646 -1.8987 0.9812
-2.4537 -3.5937 -1.8964 0.9812
-2.1230 -3.7968 -1.8958 0.9812
-1.7771 -3.9729 -1.8968 0.9812
-0.6673 -4.3292 -1.9090 0.9811
0.1127 -4.4154 -1.9249 0.9809
0.5084 -4.4110 -1.9351 0.9808
0.9049 -4.3742 -1.9467 0.9807
2.0746 -4.0672 -1.9898 0.9803
3.4900 -3.2007 -2.0638 0.9795
4.0849 -2.5823 -2.1061 0.9791
4.5762 -0.9601 -2.0378 0.9798
4.6910 -0.5541 -2.0586 0.9796
4.7687 -0.1352 -2.0791 0.9794
4.8073 0.2931 -2.0990 0.9792
4.8054 0.7269 -2.1181 0.9790
4.7620 1.1621 -2.1362 0.9788
4.5481 2.0192 -2.1687 0.9785
4.3781 2.4320 -2.1827 0.9784
3.3070 3.8722 -2.2192 0.9780
2.9537 4.1585 -2.2230 0.9780
2.5730 4.4079 -2.2244 0.9780
2.1691 4.6178 -2.2235 0.9780
0.9674 3.6266 -1.6358 0.9838
0.4140 5.0244 -2.1971 0.9782
-0.9126 4.8634 -2.1565 0.9786
-2.1127 4.3385 -2.1031 0.9792
-2.4676 4.0942 -2.0833 0.9794
-2.7950 3.8203 -2.0630 0.9796
-3.7933 2.4974 -1.9793 0.9804
-1.5848 0.5156 -0.7263 0.9928
-1.5304 0.3508 -0.6843 0.9932
-1.5174 0.2078 -0.6675 0.9933
-1.5293 0.0717 -0.6672 0.9933
-1.5290 -0.0648 -0.6670 0.9933
-1.5828 -0.5071 -0.7244 0.9928
-3.4441 -2.7118 -1.9104 0.9811
-2.8922 -3.2622 -1.9000 0.9812
-1.5685 -4.0629 -1.8981 0.9812
-1.2024 -4.1941 -1.9015 0.9811
-0.8260 -4.2959 -1.9065 0.9811
-0.0507 -4.4078 -1.9211 0.9809
0.7404 -4.3934 -1.9417 0.9807
1.1362 -4.3376 -1.9542 0.9806
1.9162 -4.1273 -1.9832 0.9803
3.0176 -3.5656 -2.0358 0.9798
3.6737 -3.0319 -2.0759 0.9794
4.1590 -1.8687 -1.9871 0.9803
4.7411 -0.3104 -2.0707 0.9795
4.7961 0.1145 -2.0908 0.9793
4.8112 0.5464 -2.1103 0.9791
4.7851 0.9816 -2.1289 0.9789
4.6064 1.8441 -2.1624 0.9786
4.4537 2.2624 -2.1771 0.9784
2.7341 4.3091 -2.2241 0.9780
2.3392 4.5357 -2.2241 0.9780
1.9238 4.7212 -2.2218 0.9780
1.0497 4.9621 -2.2104 0.9781
3.8451 -1.8700 -1.9792 0.9813
2.3996 -0.9126 -1.1884 0.9887
4.3281 -0.8098 -2.0382 0.9808
4.5107 0.3741 -2.0951 0.9802
4.4969 0.7811 -2.1127 0.9801
4.3520 1.5907 -2.1448 0.9798
3.5985 3.0765 -2.1915 0.9793
2.6749 3.9457 -2.2065 0.9792
1.9314 4.3567 -2.2059 0.9792
1.5330 4.5042 -2.2024 0.9792
0.8817 3.6214 -1.7253 0.9837
0.7048 4.6764 -2.1891 0.9794
0.2841 4.7000 -2.1795 0.9795
-0.0742 2.5712 -1.1906 0.9887
-1.7135 4.2191 -2.1079 0.9801
-2.0650 4.0152 -2.0900 0.9803
-2.9698 3.2348 -2.0327 0.9808
-3.4291 2.6047 -1.9933 0.9812
-1.3287 0.5337 -0.6628 0.9937
-1.3060 0.2695 -0.6173 0.9941
-1.3338 0.1530 -0.6214 0.9941
-1.3087 -0.3240 -0.6241 0.9941
-3.4362 -2.3489 -1.9266 0.9818
-3.2019 -2.6364 -1.9199 0.9819
-2.6702 -3.1478 -1.9107 0.9820
-2.3761 -3.3691 -1.9083 0.9820
-1.4018 -3.8815 -1.9103 0.9820
-0.3278 -4.1472 -1.9257 0.9818
0.0432 -4.1772 -1.9337 0.9818
0.4173 -4.1771 -1.9431 0.9817
1.1658 -4.0844 -1.9661 0.9815
1.5356 -3.9914 -1.9796 0.9813
1.8991 -3.8671 -1.9942 0.9812
2.2539 -3.7117 -2.0100 0.9810
3.2395 -3.0627 -2.0636 0.9805
3.5326 -2.7880 -2.0831 0.9804
3.8035 -2.4860 -2.1033 0.9802
2.3306 -0.9866 -1.1715 0.9889
4.1344 -1.3299 -2.0103 0.9810
4.3889 -0.5861 -2.0496 0.9807
4.4652 -0.1944 -2.0688 0.9805
4.5073 0.6120 -2.1055 0.9802
4.4708 1.0194 -2.1226 0.9800
4.2798 1.8228 -2.1533 0.9797
4.1256 2.2104 -2.1665 0.9796
3.7039 2.9364 -2.1879 0.9794
3.4399 3.2666 -2.1958 0.9793
2.8179 3.8423 -2.2056 0.9792
2.4661 4.0813 -2.2073 0.9792
2.0922 4.2838 -2.2068 0.9792
1.7001 4.4479 -2.2041 0.9792
0.4587 4.6953 -2.1837 0.9794
0.0223 2.7399 -1.2683 0.9880
-1.1817 4.4506 -2.1315 0.9799
-1.5615 4.2941 -2.1150 0.9801
-2.2600 3.8818 -2.0792 0.9804
-2.5732 3.6316 -2.0602 0.9806
-3.1168 3.0580 -2.0212 0.9809
-3.3439 2.7411 -2.0014 0.9811
-1.3336 0.4564 -0.6525 0.9938
-1.3249 0.2020 -0.6204 0.9941
-1.3385 0.0831 -0.6208 0.9941
-1.3334 -0.1560 -0.6214 0.9941
-1.3051 -0.2723 -0.6171 0.9941
-1.3266 -0.4030 -0.6418 0.9939
-1.3282 -0.5369 -0.6631 0.9937
-3.7278 -1.9093 -1.9387 0.9817
-3.5267 -2.2238 -1.9299 0.9818
-3.0547 -2.7951 -1.9166 0.9819
-2.7870 -3.0490 -1.9121 0.9820
-2.5003 -3.2802 -1.9091 0.9820
-1.8769 -3.6691 -1.9077 0.9820
-1.1986 -3.9534 -1.9122 0.9820
0.2619 -4.1808 -1.9390 0.9817
1.7492 -3.9224 -1.9880 0.9812
2.4564 -3.6064 -2.0198 0.9810
3.1119 -3.1684 -2.0557 0.9806
3.4135 -2.9054 -2.0749 0.9804
3.6940 -2.6145 -2.0949 0.9802
3.9435 -2.2931 -2.1116 0.9801
4.2223 -1.1187 -2.0219 0.9809
4.3470 -0.7452 -2.0415 0.9807
4.4930 0.0390 -2.0798 0.9804
4.4907 0.8504 -2.1156 0.9801
4.4313 1.2569 -2.1321 0.9799
3.2703 3.4475 -2.1996 0.9793
2.9564 3.7331 -2.2043 0.9792
2.2498 4.2043 -2.2072 0.9792
1.4640 4.5253 -2.2016 0.9793
0.8351 3.6718 -1.7430 0.9835
-0.1130 2.5627 -1.1874 0.9888
-0.6180 4.6095 -2.1528 0.9797
-1.0193 4.5050 -2.1380 0.9798
-2.1226 3.9775 -2.0869 0.9803
-2.7441 3.4732 -2.0489 0.9807
-3.4624 2.5481 -1.9899 0.9812
-3.6396 2.2076 -1.9704 0.9814
-1.3216 0.3765 -0.6361 0.9940
-1.3123 0.2501 -0.6184 0.9941
-1.3363 0.1328 -0.6216 0.9941
-1.3348 0.0131 -0.6179 0.9941
-1.3381 -0.1065 -0.6214 0.9941
-1.3195 -0.2246 -0.6195 0.9941
-1.3147 -0.3467 -0.6294 0.9940
-1.3332 -0.4823 -0.6562 0.9938
-3.6131 -2.0955 -1.9334 0.9818
-3.3979 -2.3992 -1.9254 0.9818
-3.1598 -2.6833 -1.9188 0.9819
-2.9005 -2.9464 -1.9138 0.9819
-2.0112 -3.5967 -1.9075 0.9820
-1.6835 -3.7634 -1.9084 0.9820
-0.9919 -4.0157 -1.9147 0.9819
-0.2650 -4.1544 -1.9269 0.9818
0.1067 -4.1794 -1.9352 0.9817
0.4811 -4.1740 -1.9449 0.9817
0.8560 -4.1379 -1.9559 0.9815
1.2291 -4.0708 -1.9683 0.9814
1.5980 -3.9724 -1.9820 0.9813
1.9602 -3.8428 -1.9968 0.9812
2.9812 -3.2691 -2.0480 0.9807
3.5803 -2.7385 -2.0865 0.9803
3.8452 -2.4308 -2.1057 0.9801
3.7942 -1.9488 -1.9744 0.9814
2.3367 -0.9476 -1.1672 0.9889
4.1610 -1.2691 -2.0137 0.9810
4.4044 -0.5202 -2.0529 0.9806
4.4746 -0.1268 -2.0721 0.9805
4.5039 0.6813 -2.1085 0.9801
4.3782 1.4927 -2.1412 0.9798
4.2563 1.8896 -2.1556 0.9797
3.3917 3.3202 -2.1970 0.9793
3.0902 3.6184 -2.2026 0.9792
2.4040 4.1183 -2.2073 0.9792
2.0266 4.3145 -2.2065 0.9792
1.6319 4.4718 -2.2035 0.9792
-0.4481 4.6415 -2.1585 0.9797
-1.2476 4.4265 -2.1288 0.9799
-1.9810 4.0680 -2.0944 0.9803
-2.3151 3.8412 -2.0760 0.9804
-3.3795 2.6855 -1.9981 0.9812
-2.6449 1.4210 -1.3898 0.9869
-1.3233 0.5654 -0.6661 0.9937
-1.3312 0.4331 -0.6480 0.9938
-1.3382 0.0627 -0.6201 0.9941
-1.3380 -0.0567 -0.6199 0.9941
-1.3302 -0.4262 -0.6466 0.9939
-1.3246 -0.5589 -0.6655 0.9937
-3.2613 -2.5678 -1.9214 0.9819
-2.7395 -3.0900 -1.9115 0.9820
-1.8211 -3.6975 -1.9078 0.9820
-1.1388 -3.9725 -1.9129 0.9819
-0.4180 -4.1353 -1.9239 0.9818
-0.0480 -4.1727 -1.9316 0.9818
0.3256 -4.1799 -1.9407 0.9817
1.4455 -4.0170 -1.9762 0.9814
2.1680 -3.7526 -2.0061 0.9811
2.5145 -3.5739 -2.0227 0.9809
2.8476 -3.3647 -2.0404 0.9808
3.4628 -2.8579 -2.0783 0.9804
3.7394 -2.5624 -2.0983 0.9802
3.9132 -1.7583 -1.9858 0.9813
4.0945 -1.4165 -2.0055 0.9811
4.2458 -1.0563 -2.0252 0.9809
4.4498 -0.2913 -2.0642 0.9805
4.4988 0.1074 -2.0830 0.9804
4.5103 0.5123 -2.1012 0.9802
4.3117 1.7261 -2.1498 0.9797
4.1669 2.1167 -2.1634 0.9796
3.2190 3.4982 -2.2005 0.9793
2.1856 4.2377 -2.2071 0.9792
0.5618 4.6891 -2.1861 0.9794
2.4110 -0.9169 -1.2653 0.9886
4.0757 -0.7625 -2.0339 0.9817
4.1645 -0.3999 -2.0522 0.9815
4.2199 -0.0274 -2.0700 0.9814
4.2407 0.3517 -2.0873 0.9812
4.2256 0.7339 -2.1038 0.9811
3.9607 1.8630 -2.1470 0.9807
3.6034 2.5623 -2.1689 0.9805
3.3738 2.8844 -2.1773 0.9804
3.1128 3.1832 -2.1839 0.9804
2.5068 3.6978 -2.1913 0.9803
2.1680 3.9077 -2.1921 0.9803
0.6609 4.3847 -2.1751 0.9804
0.2664 4.4080 -2.1662 0.9805
-0.0739 2.5574 -1.2550 0.9887
-0.5149 4.3392 -2.1434 0.9807
-0.8938 4.2491 -2.1299 0.9808
-1.9417 3.7754 -2.0825 0.9813
-2.2514 3.5573 -2.0651 0.9814
-3.0295 2.7598 -2.0102 0.9819
-3.2332 2.4560 -1.9916 0.9821
-3.4074 2.1381 -1.9732 0.9822
-1.1726 0.2419 -0.5873 0.9947
-1.1912 0.1367 -0.5881 0.9947
-1.1964 0.0299 -0.5870 0.9947
-1.1957 -0.0769 -0.5877 0.9947
-1.1601 -0.2872 -0.5862 0.9947
-1.1571 -0.3988 -0.6003 0.9946
-1.1419 -0.5115 -0.6138 0.9944
-1.1050 -0.6186 -0.6212 0.9944
-3.2591 -2.2278 -1.9365 0.9826
-2.7951 -2.7544 -1.9249 0.9827
-2.2548 -3.1970 -1.9190 0.9827
-1.9601 -3.3838 -1.9182 0.9827
-1.6513 -3.5461 -1.9188 0.9827
-0.6581 -3.8776 -1.9292 0.9826
0.0410 -3.9612 -1.9432 0.9825
0.3957 -3.9601 -1.9522 0.9824
0.7509 -3.9297 -1.9625 0.9823
1.1046 -3.8698 -1.9741 0.9822
1.4544 -3.7803 -1.9868 0.9821
2.1330 -3.5125 -2.0158 0.9819
2.4569 -3.3348 -2.0318 0.9817
3.0613 -2.8943 -2.0665 0.9814
3.3366 -2.6333 -2.0850 0.9812
3.5886 -2.3455 -2.1029 0.9811
2.3271 -0.9851 -1.2396 0.9888
3.8964 -1.2533 -2.0077 0.9819
4.0294 -0.9094 -2.0262 0.9818
4.1316 -0.5517 -2.0446 0.9816
4.2364 0.1938 -2.0802 0.9813
4.1999 0.9576 -2.1130 0.9810
4.1268 1.3375 -2.1280 0.9809
4.0170 1.7108 -2.1417 0.9807
3.6889 2.4227 -2.1649 0.9805
3.2248 3.0623 -2.1814 0.9804
2.9464 3.3459 -2.1869 0.9803
2.6409 3.6010 -2.1905 0.9803
1.9607 4.0146 -2.1916 0.9803
1.5933 4.1687 -2.1891 0.9803
1.0388 3.6698 -1.8709 0.9832
0.4302 4.4031 -2.1701 0.9805
-1.4672 4.0348 -2.1059 0.9811
-2.4216 3.4176 -2.0546 0.9815
-2.9364 2.8810 -2.0179 0.9818
-3.1522 2.5839 -1.9993 0.9820
-3.3387 2.2715 -1.9808 0.9822
-1.1425 0.5088 -0.6135 0.9944
-1.1609 0.2847 -0.5863 0.9947
-1.1851 0.1806 -0.5880 0.9947
-1.1964 -0.0325 -0.5871 0.9947
-1.1909 -0.1393 -0.5881 0.9947
-1.1720 -0.2445 -0.5873 0.9947
-1.1589 -0.3520 -0.5941 0.9946
-3.3446 -2.1090 -1.9396 0.9825
-2.6444 -2.8930 -1.9226 0.9827
-2.0842 -3.3092 -1.9183 0.9827
-1.4648 -3.6294 -1.9198 0.9827
-0.8002 -3.8461 -1.9270 0.9826
-0.4557 -3.9137 -1.9327 0.9826
-0.1055 -3.9532 -1.9398 0.9825
0.9582 -3.8982 -1.9691 0.9823
1.3099 -3.8211 -1.9814 0.9822
1.6563 -3.7142 -1.9949 0.9820
3.4879 -2.4687 -2.0961 0.9811
4.2407 0.4166 -2.0902 0.9812
4.1616 1.1804 -2.1219 0.9809
4.0670 1.5569 -2.1361 0.9808
3.9358 1.9247 -2.1491 0.9807
3.5667 2.6186 -2.1704 0.9805
2.1084 3.9400 -2.1920 0.9803
1.7476 4.1092 -2.1904 0.9803
1.3721 4.2415 -2.1867 0.9803
0.9862 4.3359 -2.1812 0.9804
0.1993 4.4081 -2.1645 0.9805
-0.1119 2.5391 -1.2467 0.9887
-0.9571 4.2302 -2.1274 0.9809
-1.3209 4.0990 -2.1125 0.9810
-1.9960 3.7403 -2.0796 0.9813
-2.3018 3.5176 -2.0620 0.9814
-2.5832 3.2696 -2.0440 0.9816
-2.8385 2.9992 -2.0256 0.9818
-3.0662 2.7092 -2.0070 0.9819
-3.2649 2.4028 -1.9885 0.9821
-1.1530 0.4429 -0.6058 0.9945
-1.1589 0.3301 -0.5911 0.9946
-1.1767 0.2242 -0.5876 0.9947
-1.1930 0.1186 -0.5881 0.9947
-1.1583 -0.3055 -0.5876 0.9947
-1.1378 -0.5306 -0.6158 0.9944
-3.2229 -2.2756 -1.9353 0.9826
-2.4874 -3.0242 -1.9208 0.9827
-1.9085 -3.4131 -1.9182 0.9827
-1.5975 -3.5712 -1.9190 0.9827
-0.9411 -3.8100 -1.9251 0.9827
-0.2513 -3.9403 -1.9367 0.9826
0.1012 -3.9631 -1.9446 0.9825
0.4561 -3.9570 -1.9538 0.9824
1.5133 -3.7621 -1.9891 0.9821
1.8557 -3.6380 -2.0032 0.9820
3.6276 -2.2932 -2.1052 0.9811
3.5794 -1.8385 -1.9738 0.9822
3.9211 -1.1959 -2.0109 0.9819
4.0490 -0.8495 -2.0294 0.9817
4.1458 -0.4897 -2.0477 0.9816
4.2389 0.2584 -2.0831 0.9813
4.2327 0.6402 -2.0998 0.9811
4.1107 1.4015 -2.1304 0.9808
3.9946 1.7734 -2.1439 0.9807
3.6546 2.4803 -2.1665 0.9805
2.5864 3.6413 -2.1909 0.9803
0.9782 3.6671 -1.8617 0.9832
-0.0190 2.7094 -1.3291 0.9880
-0.8020 4.2745 -2.1333 0.9808
-1.8625 3.8246 -2.0867 0.9812
-2.1777 3.6132 -2.0694 0.9814
-2.4695 3.3754 -2.0515 0.9815
-2.7359 3.1139 -2.0332 0.9817
-3.3675 2.2171 -1.9777 0.9822
-1.1461 0.4897 -0.6113 0.9945
-1.1878 0.1627 -0.5881 0.9947
-1.1963 0.0561 -0.5875 0.9947
-1.1964 -0.0507 -0.5874 0.9947
-1.1886 -0.1573 -0.5881 0.9947
-1.1675 -0.2621 -0.5869 0.9947
-3.3101 -2.1581 -1.9383 0.9825
-3.0937 -2.4359 -1.9314 0.9826
-2.5994 -2.9319 -1.9220 0.9827
-2.3246 -3.1477 -1.9194 0.9827
-2.0336 -3.3402 -1.9182 0.9827
-1.7281 -3.5087 -1.9185 0.9827
-1.4098 -3.6520 -1.9202 0.9827
-0.3964 -3.9224 -1.9338 0.9826
-0.0455 -3.9571 -1.9412 0.9825
0.6640 -3.9398 -1.9598 0.9824
1.0183 -3.8872 -1.9711 0.9823
1.3692 -3.8050 -1.9836 0.9821
1.7146 -3.6931 -1.9973 0.9820
2.3788 -3.3810 -2.0278 0.9818
2.6926 -3.1816 -2.0445 0.9816
3.7561 -2.1086 -2.1129 0.9810
3.8593 -1.3351 -2.0031 0.9820
3.9996 -0.9950 -2.0217 0.9818
4.1095 -0.6404 -2.0402 0.9816
4.2122 0.8641 -2.1092 0.9810
4.1481 1.2449 -2.1244 0.9809
4.0473 1.6202 -2.1384 0.9808
3.7367 2.3388 -2.1624 0.9806
3.2884 2.9888 -2.1798 0.9804
2.7180 3.5413 -2.1898 0.9803
2.3939 3.7730 -2.1918 0.9803
1.6846 4.1343 -2.1899 0.9803
1.3071 4.2603 -2.1859 0.9803
0.9198 4.3481 -2.1800 0.9804
0.5268 4.3970 -2.1723 0.9805
3.4281 -1.6672 -1.9776 0.9830
3.7345 -1.0504 -2.0126 0.9827
3.9281 -0.3772 -2.0472 0.9824
3.9961 0.3314 -2.0802 0.9821
3.3879 2.4091 -2.1567 0.9814
3.1714 2.7113 -2.1645 0.9814
2.3554 3.4745 -2.1777 0.9813
2.0371 3.6717 -2.1783 0.9813
1.7008 3.8365 -2.1771 0.9813
0.8907 3.6582 -1.9533 0.9832
-0.0781 2.7042 -1.4034 0.9879
-1.1865 3.8829 -2.1063 0.9819
-1.5170 3.7352 -2.0915 0.9820
-1.8300 3.5582 -2.0757 0.9821
-0.9764 0.6127 -0.5980 0.9948
-1.0535 0.4231 -0.5890 0.9949
-1.0634 0.3205 -0.5762 0.9950
-1.0844 0.2237 -0.5744 0.9950
-1.1066 0.0277 -0.5742 0.9950
-1.1059 -0.0711 -0.5749 0.9950
-1.0956 -0.1695 -0.5751 0.9950
-1.0728 -0.2656 -0.5733 0.9950
-1.0607 -0.3656 -0.5820 0.9950
-2.8859 -2.3762 -1.9393 0.9833
-2.6560 -2.6173 -1.9345 0.9833
-2.1429 -3.0384 -1.9288 0.9834
-1.8629 -3.2159 -1.9280 0.9834
-1.5694 -3.3702 -1.9286 0.9834
-0.9488 -3.6051 -1.9339 0.9833
-0.2954 -3.7368 -1.9446 0.9833
0.0390 -3.7623 -1.9519 0.9832
2.0221 -3.3299 -2.0211 0.9826
2.6211 -2.9633 -2.0524 0.9823
2.8983 -2.7402 -2.0692 0.9822
3.1575 -2.4920 -2.0867 0.9820
3.3518 -1.7864 -1.9704 0.9830
2.2875 -0.9683 -1.2887 0.9889
3.6797 -1.1836 -2.0053 0.9827
3.8035 -0.8584 -2.0228 0.9826
3.8979 -0.5205 -2.0401 0.9824
3.9615 -0.1725 -2.0571 0.9823
3.9909 0.5418 -2.0894 0.9820
3.7796 1.6098 -2.1312 0.9817
3.0309 2.8782 -2.1684 0.9813
2.7689 3.1443 -2.1735 0.9813
2.1715 3.5937 -2.1783 0.9813
1.8423 3.7722 -2.1779 0.9813
0.7745 4.1017 -2.1655 0.9814
-0.3337 4.1072 -2.1377 0.9816
-0.6944 4.0380 -2.1256 0.9817
-1.3819 3.8002 -2.0977 0.9819
-2.0039 3.4420 -2.0662 0.9822
-2.2840 3.2234 -2.0495 0.9824
-2.5408 2.9819 -2.0323 0.9825
-2.7724 2.7201 -2.0149 0.9827
