ply
format ascii 1.0
element vertex 1586
property float32 x
property float32 y
property float32 z
property float32 I
end_header
14.8538 1.1309 0.2516 0.9421
10.4190 2.7096 0.1819 0.9578
8.6483 3.0947 0.1552 0.9639
7.4983 3.4649 0.1395 0.9675
5.9236 4.1516 0.1222 0.9715
5.0415 4.2509 0.1114 0.9740
3.8161 4.6064 0.1010 0.9764
2.7817 4.9335 0.0957 0.9776
2.3163 5.1292 0.0951 0.9777
0.9103 5.7678 0.0986 0.9769
-0.6803 6.0965 0.1036 0.9758
-1.3174 6.4872 0.1118 0.9739
-2.7371 1.4189 0.0521 0.9877
15.0873 0.7396 -0.0850 0.9414
10.8505 2.5111 -0.0627 0.9564
9.0327 2.9597 -0.0535 0.9627
7.8847 3.3882 -0.0483 0.9663
5.4026 4.3112 -0.0389 0.9727
4.5918 4.3882 -0.0358 0.9749
2.4596 5.0764 -0.0318 0.9777
1.0603 5.7125 -0.0327 0.9770
0.5558 5.8753 -0.0332 0.9767
-1.1236 6.4169 -0.0367 0.9743
-2.4438 6.6579 -0.0399 0.9720
-6.0528 12.8237 -0.0798 0.9449
2.4093 -0.8679 -0.0144 0.9898
15.9797 0.1778 -0.0900 0.9381
14.3091 1.4406 -0.0810 0.9441
7.2112 3.5478 -0.0452 0.9684
4.8575 4.3024 -0.0365 0.9744
2.6481 4.9762 -0.0317 0.9777
2.1829 5.1656 -0.0316 0.9778
0.7718 5.8056 -0.0330 0.9768
0.2488 5.7896 -0.0326 0.9771
11.4744 1.7542 -0.0654 0.9546
10.6598 2.6191 -0.0618 0.9570
8.8289 3.0255 -0.0525 0.9634
7.7197 3.4415 -0.0476 0.9668
6.6686 3.7177 -0.0430 0.9699
6.0327 4.1078 -0.0411 0.9712
4.4996 4.4180 -0.0355 0.9751
3.4466 4.8675 -0.0336 0.9764
2.3865 5.0999 -0.0317 0.9777
1.9088 5.2541 -0.0315 0.9779
0.9849 5.7368 -0.0328 0.9770
0.4670 5.7663 -0.0326 0.9771
-0.0495 5.8858 -0.0331 0.9767
-0.5936 6.0613 -0.0343 0.9759
-1.2190 6.4476 -0.0369 0.9741
-2.5608 6.6957 -0.0404 0.9717
-2.7065 1.4498 -0.0173 0.9878
15.4520 0.3806 -0.0870 0.9400
12.6585 1.4474 -0.0717 0.9503
9.4202 2.8346 -0.0554 0.9614
8.1957 3.2878 -0.0497 0.9653
4.1606 4.5274 -0.0346 0.9757
2.5445 4.9413 -0.0313 0.9780
1.6356 5.3422 -0.0315 0.9779
-1.5951 6.5689 -0.0381 0.9733
2.3637 -0.9171 -0.0143 0.9899
11.5467 -1.1871 -0.0654 0.9546
14.8618 1.1315 -0.0839 0.9421
10.3971 2.7039 -0.0605 0.9579
8.6323 3.0890 -0.0516 0.9640
5.9152 4.1457 -0.0407 0.9715
3.8114 4.6008 -0.0336 0.9764
2.3137 5.1234 -0.0317 0.9778
1.8369 5.2773 -0.0315 0.9779
-0.6795 6.0890 -0.0345 0.9758
-1.3157 6.4788 -0.0372 0.9739
-1.9348 6.4938 -0.0382 0.9733
-2.6803 6.7342 -0.0408 0.9714
15.0835 0.7394 -0.4252 0.9414
9.0154 2.9540 -0.2671 0.9627
8.0396 3.4547 -0.2464 0.9656
4.5859 4.3826 -0.1786 0.9749
3.9272 4.4881 -0.1679 0.9764
3.0023 5.0040 -0.1643 0.9769
2.4568 5.0706 -0.1587 0.9777
1.9784 5.2250 -0.1573 0.9779
0.5551 5.8685 -0.1660 0.9767
0.0298 5.8533 -0.1648 0.9768
-0.5082 6.0266 -0.1703 0.9761
-1.1222 6.4087 -0.1832 0.9743
-6.0559 12.8301 -0.3995 0.9448
-2.6952 1.4909 -0.0867 0.9878
14.2689 1.4366 -0.4038 0.9442
11.3889 2.1851 -0.3265 0.9547
9.6276 2.7557 -0.2820 0.9607
8.4745 3.2675 -0.2558 0.9643
5.6659 4.1803 -0.1983 0.9722
4.8511 4.2968 -0.1825 0.9744
4.2427 4.4935 -0.1740 0.9756
3.2201 4.9336 -0.1659 0.9767
2.1804 5.1598 -0.1577 0.9778
0.2485 5.7828 -0.1630 0.9771
-0.8360 6.1321 -0.1743 0.9755
-1.4920 6.5277 -0.1885 0.9736
-2.1256 6.5472 -0.1938 0.9728
7.8715 3.5092 -0.2427 0.9661
6.6584 3.7120 -0.2147 0.9700
6.0241 4.1019 -0.2052 0.9713
5.1285 4.2071 -0.1868 0.9738
4.4939 4.4123 -0.1773 0.9751
3.4425 4.8618 -0.1677 0.9764
2.9256 5.0288 -0.1638 0.9770
1.9066 5.2482 -0.1572 0.9779
1.4324 5.4011 -0.1573 0.9779
0.9838 5.7303 -0.1637 0.9770
0.4675 5.7722 -0.1631 0.9771
-0.0494 5.8788 -0.1655 0.9767
-0.5929 6.0539 -0.1713 0.9760
-1.2174 6.4394 -0.1845 0.9741
-1.8707 6.6033 -0.1933 0.9729
-2.7066 1.4498 -0.0865 0.9878
15.4481 0.3805 -0.4351 0.9400
9.4016 2.8290 -0.2765 0.9615
7.0535 3.5893 -0.2229 0.9688
6.1724 3.8693 -0.2051 0.9713
3.6702 4.7882 -0.1699 0.9761
2.5416 4.9357 -0.1563 0.9780
1.6338 5.3362 -0.1571 0.9779
1.1944 5.6624 -0.1630 0.9771
0.6943 5.8236 -0.1651 0.9768
-0.9247 6.1607 -0.1754 0.9754
-2.2358 6.5826 -0.1958 0.9726
2.3624 -0.9166 -0.0714 0.9899
11.5423 -1.1867 -0.3267 0.9546
18.9033 -0.2501 -0.5323 0.9271
14.8580 1.1312 -0.4196 0.9421
7.4734 3.4534 -0.2318 0.9676
5.9068 4.1398 -0.2031 0.9715
3.3626 4.8876 -0.1670 0.9765
2.7751 4.9219 -0.1591 0.9776
2.3111 5.1176 -0.1581 0.9778
1.3605 5.4243 -0.1575 0.9779
-0.1294 5.9046 -0.1663 0.9766
-0.6786 6.0815 -0.1723 0.9758
-1.3140 6.4704 -0.1859 0.9739
15.0539 0.7379 -0.7644 0.9414
11.4942 1.5987 -0.5885 0.9546
10.8423 2.5092 -0.5644 0.9564
8.9982 2.9484 -0.4802 0.9628
6.7832 3.6625 -0.3909 0.9696
6.0880 4.0261 -0.3702 0.9712
4.5800 4.3770 -0.3213 0.9749
3.9223 4.4825 -0.3021 0.9764
1.9762 5.2191 -0.2830 0.9779
1.0579 5.6995 -0.2940 0.9771
-1.1208 6.4006 -0.3295 0.9743
-2.4368 6.6389 -0.3587 0.9721
-2.6965 1.4916 -0.1563 0.9877
11.3623 2.1800 -0.5867 0.9547
9.6081 2.7502 -0.5068 0.9608
8.4595 3.2617 -0.4598 0.9643
6.2866 3.8236 -0.3732 0.9710
4.2375 4.4879 -0.3130 0.9756
3.7114 4.7089 -0.3041 0.9763
2.6421 4.9648 -0.2852 0.9777
2.1780 5.1539 -0.2838 0.9778
1.2676 5.6319 -0.2928 0.9771
0.7700 5.7923 -0.2963 0.9769
-0.2752 5.9445 -0.3018 0.9764
-0.8349 6.1244 -0.3135 0.9755
-1.4901 6.5192 -0.3391 0.9736
-2.1227 6.5381 -0.3486 0.9728
-8.4776 -10.3470 -0.6784 0.9478
2.3644 -0.9543 -0.1293 0.9898
14.7878 0.9252 -0.7514 0.9424
11.4683 1.7532 -0.5884 0.9546
6.6481 3.7063 -0.3860 0.9700
6.0155 4.0960 -0.3691 0.9713
5.1216 4.2015 -0.3360 0.9738
3.8850 4.5628 -0.3039 0.9763
2.9222 5.0230 -0.2947 0.9770
1.4308 5.3950 -0.2831 0.9779
0.9827 5.7238 -0.2945 0.9770
-0.0494 5.8718 -0.2978 0.9768
-0.5922 6.0464 -0.3081 0.9760
-1.2158 6.4311 -0.3319 0.9741
-2.5534 6.6763 -0.3625 0.9718
-2.7066 1.4498 -0.1557 0.9878
15.4442 0.3804 -0.7835 0.9400
12.1414 1.3882 -0.6197 0.9522
11.0619 2.2777 -0.5728 0.9558
9.3830 2.8233 -0.4969 0.9615
7.0423 3.5836 -0.4007 0.9688
6.1633 3.8636 -0.3689 0.9713
4.7490 4.3222 -0.3257 0.9746
4.1502 4.5162 -0.3111 0.9757
3.6658 4.7825 -0.3056 0.9762
3.1383 4.9531 -0.2974 0.9768
1.6319 5.3302 -0.2827 0.9779
0.1709 5.8010 -0.2943 0.9770
-0.3573 5.9709 -0.3034 0.9763
2.3611 -0.9161 -0.1284 0.9899
11.5378 -1.1862 -0.5882 0.9546
11.5225 1.9211 -0.5924 0.9543
10.3535 2.6925 -0.5425 0.9581
5.0214 4.2339 -0.3331 0.9740
4.3977 4.4360 -0.3168 0.9753
3.3586 4.8819 -0.3005 0.9765
2.7718 4.9160 -0.2862 0.9777
1.3590 5.4182 -0.2833 0.9779
0.9071 5.7481 -0.2951 0.9770
0.3864 5.7316 -0.2913 0.9773
-0.1293 5.8975 -0.2992 0.9767
-1.3123 6.4621 -0.3344 0.9739
-2.6724 6.7145 -0.3665 0.9715
8.9810 2.9427 -0.6930 0.9628
6.7727 3.6567 -0.5643 0.9696
6.0792 4.0203 -0.5344 0.9712
5.3807 4.2937 -0.5047 0.9728
4.5741 4.3714 -0.4639 0.9749
3.9175 4.4770 -0.4362 0.9764
2.4512 5.0590 -0.4122 0.9777
0.5538 5.8549 -0.4312 0.9767
0.0297 5.8394 -0.4282 0.9769
-0.5070 6.0118 -0.4424 0.9761
-19.2900 -4.0811 -1.4457 0.9240
-17.2551 -7.0309 -1.3662 0.9280
-10.3041 -13.5951 -1.2508 0.9339
-7.7046 -15.1630 -1.2471 0.9341
-6.3446 -15.8434 -1.2514 0.9338
-1.9873 -17.4740 -1.2895 0.9319
2.8724 -18.4534 -1.3693 0.9278
4.6278 -18.6175 -1.4066 0.9259
2.4264 -0.8740 -0.1891 0.9897
15.8110 0.1759 -1.1594 0.9386
9.5887 2.7446 -0.7313 0.9608
8.4569 3.2607 -0.6646 0.9643
7.1762 3.5306 -0.5864 0.9684
4.8384 4.2856 -0.4739 0.9744
4.2322 4.4823 -0.4520 0.9756
3.2126 4.9221 -0.4310 0.9767
2.1755 5.1481 -0.4098 0.9778
0.7692 5.7856 -0.4279 0.9769
-0.2749 5.9373 -0.4358 0.9764
-0.8339 6.1168 -0.4526 0.9755
-1.4767 6.4607 -0.4859 0.9738
-2.1197 6.5290 -0.5033 0.9728
-18.7205 -4.9770 -1.4203 0.9253
-17.6997 -6.4422 -1.3811 0.9272
-14.4209 -10.2241 -1.2962 0.9316
-8.4579 -10.3230 -0.9785 0.9479
-9.5715 -14.0753 -1.2480 0.9340
-5.5420 -16.2042 -1.2557 0.9336
-2.6312 -17.2813 -1.2817 0.9323
-1.0976 -17.7148 -1.3014 0.9313
0.4943 -18.0749 -1.3258 0.9300
2.1495 -18.3579 -1.3552 0.9285
5.6733 -18.6709 -1.4308 0.9247
2.3616 -0.9531 -0.1867 0.9898
14.7840 0.9250 -1.0861 0.9423
11.4653 1.7528 -0.8504 0.9545
8.7792 3.0085 -0.6805 0.9635
6.6379 3.7006 -0.5572 0.9700
5.1148 4.1958 -0.4851 0.9738
4.4825 4.4011 -0.4606 0.9751
3.8803 4.5572 -0.4389 0.9763
2.9188 5.0172 -0.4256 0.9770
2.3784 5.0825 -0.4114 0.9777
1.9023 5.2363 -0.4085 0.9779
1.4292 5.3889 -0.4088 0.9779
0.9816 5.7172 -0.4253 0.9770
0.4684 5.7842 -0.4255 0.9770
-0.0493 5.8648 -0.4300 0.9768
-0.5915 6.0390 -0.4449 0.9760
-1.2143 6.4228 -0.4793 0.9741
-2.5497 6.6666 -0.5233 0.9718
-2.7066 1.4498 -0.2251 0.9878
-16.0164 -8.5358 -1.3307 0.9298
-14.9034 -9.7401 -1.3054 0.9311
-11.3622 -12.8437 -1.2573 0.9335
-10.1127 -13.7236 -1.2499 0.9339
-8.8265 -14.5319 -1.2467 0.9341
-7.5014 -15.2704 -1.2475 0.9340
-6.1350 -15.9404 -1.2524 0.9338
-3.2656 -17.0759 -1.2747 0.9326
-1.7552 -17.5396 -1.2925 0.9317
-0.1887 -17.9312 -1.3148 0.9306
1.4390 -18.2475 -1.3421 0.9292
3.1333 -18.4839 -1.3746 0.9276
4.9001 -18.6346 -1.4128 0.9256
6.7461 -18.6922 -1.4571 0.9234
15.4404 0.3803 -1.1325 0.9399
11.0366 2.2725 -0.8262 0.9558
9.3644 2.8178 -0.7170 0.9615
6.1543 3.8579 -0.5326 0.9713
5.5748 4.2306 -0.5131 0.9723
4.7429 4.3166 -0.4702 0.9746
4.1451 4.5106 -0.4492 0.9757
3.6614 4.7768 -0.4413 0.9762
2.5358 4.9244 -0.4061 0.9780
2.0737 5.0979 -0.4035 0.9782
1.6301 5.3242 -0.4083 0.9779
-0.3569 5.9637 -0.4380 0.9763
-0.9224 6.1452 -0.4556 0.9754
-1.5887 6.5429 -0.4937 0.9734
-17.5419 -6.6544 -1.3756 0.9275
-15.3798 -9.2402 -1.3156 0.9306
-8.5222 -10.6928 -1.0026 0.9466
-9.3769 -14.1975 -1.2475 0.9340
-8.0686 -14.9655 -1.2466 0.9341
-0.8605 -17.7741 -1.3048 0.9311
0.7406 -18.1228 -1.3299 0.9298
4.1411 -18.5815 -1.3959 0.9265
5.9527 -18.6796 -1.4375 0.9244
2.3598 -0.9156 -0.1856 0.9899
11.5334 -1.1858 -0.8501 0.9546
18.1955 -0.2408 -1.3343 0.9296
11.5194 1.9206 -0.8563 0.9542
10.3318 2.6869 -0.7828 0.9581
8.5845 3.0719 -0.6685 0.9641
7.4486 3.4419 -0.6016 0.9676
6.5064 3.7433 -0.5504 0.9703
5.8902 4.1282 -0.5274 0.9716
5.0147 4.2283 -0.4810 0.9740
4.3921 4.4304 -0.4574 0.9753
3.7976 4.5840 -0.4365 0.9764
2.7685 4.9102 -0.4133 0.9776
2.3058 5.1060 -0.4108 0.9778
1.8307 5.2594 -0.4083 0.9779
0.8991 5.6975 -0.4229 0.9771
0.3859 5.7249 -0.4207 0.9772
-1.3106 6.4537 -0.4829 0.9739
11.4373 1.5908 -1.1086 0.9547
10.8363 2.5078 -1.0678 0.9563
8.9637 2.9371 -0.9056 0.9628
7.9983 3.4370 -0.8358 0.9656
6.7621 3.6510 -0.7378 0.9696
6.0704 4.0145 -0.6987 0.9712
5.3427 4.2635 -0.6562 0.9729
3.9127 4.4715 -0.5704 0.9764
2.9919 4.9866 -0.5583 0.9769
2.4484 5.0532 -0.5391 0.9777
1.9717 5.2073 -0.5346 0.9779
1.0555 5.6865 -0.5553 0.9770
0.0147 2.8824 -0.2767 0.9885
-1.1093 6.3352 -0.6175 0.9745
-1.7721 6.5935 -0.6555 0.9729
-2.4298 6.6199 -0.6770 0.9721
-2.6993 1.4931 -0.2962 0.9877
-18.6678 4.5209 -1.8440 0.9257
-18.2788 2.7324 -1.7743 0.9284
-17.8001 1.0544 -1.7119 0.9309
-15.1800 -4.6576 -1.5244 0.9382
-13.5404 -6.9831 -1.4626 0.9406
-11.7259 -8.9992 -1.4191 0.9423
-10.7589 -9.8991 -1.4036 0.9429
-6.0713 -11.9487 -1.2867 0.9476
-4.9969 -12.4782 -1.2905 0.9474
-3.8872 -12.9470 -1.2978 0.9471
-2.7412 -13.3540 -1.3088 0.9467
-1.5578 -13.6979 -1.3235 0.9461
-0.3358 -13.9764 -1.3422 0.9454
2.2298 -14.3250 -1.3918 0.9434
3.5762 -14.3871 -1.4233 0.9422
8.4655 -15.0886 -1.6610 0.9328
10.1081 -14.7587 -1.7174 0.9306
11.8011 -14.3064 -1.7805 0.9282
15.7553 0.1753 -1.5126 0.9386
14.1493 1.4246 -1.3653 0.9445
8.4543 3.2597 -0.8699 0.9642
7.1646 3.5249 -0.7666 0.9684
6.2679 3.8122 -0.7043 0.9710
3.2088 4.9163 -0.5636 0.9767
1.6997 5.2951 -0.5339 0.9779
1.2648 5.6192 -0.5530 0.9771
0.2476 5.7625 -0.5537 0.9771
-2.1168 6.5199 -0.6581 0.9728
-18.8027 5.3146 -1.8759 0.9245
-18.0134 1.7532 -1.7375 0.9299
-17.4881 0.1365 -1.6790 0.9321
-16.2253 -2.7957 -1.5807 0.9360
-12.1245 -8.5960 -1.4269 0.9420
-11.1739 -9.5258 -1.4097 0.9427
-8.4188 -10.2753 -1.2753 0.9480
-7.5416 -11.0901 -1.2876 0.9475
-6.5166 -11.7057 -1.2862 0.9476
-5.4571 -12.2609 -1.2884 0.9475
-0.8591 -13.8664 -1.3338 0.9457
0.3857 -14.1060 -1.3548 0.9449
4.3714 -14.3862 -1.4435 0.9414
5.7884 -14.3167 -1.4826 0.9398
7.7839 -15.1941 -1.6390 0.9337
19.5273 -0.5222 -1.8754 0.9245
10.5687 2.5967 -1.0448 0.9572
7.8317 3.4914 -0.8232 0.9661
5.1079 4.1902 -0.6343 0.9738
4.4768 4.3955 -0.6023 0.9751
3.4303 4.8446 -0.5699 0.9764
2.9154 5.0114 -0.5566 0.9770
2.3757 5.0768 -0.5381 0.9777
1.4276 5.3828 -0.5346 0.9779
0.9804 5.7107 -0.5563 0.9770
0.4689 5.7902 -0.5577 0.9769
-1.2034 6.3654 -0.6219 0.9743
-1.8653 6.5842 -0.6570 0.9729
-18.2118 2.4715 -1.7644 0.9288
-17.7205 0.8098 -1.7030 0.9312
-17.1518 -0.7475 -1.6482 0.9333
-14.2589 -6.0358 -1.4865 0.9397
-12.5159 -8.1798 -1.4354 0.9417
-11.5820 -9.1399 -1.4165 0.9424
-10.6092 -10.0293 -1.4016 0.9430
-7.9661 -10.8106 -1.2892 0.9475
-6.9557 -11.4519 -1.2864 0.9476
-4.8313 -12.5531 -1.2913 0.9474
-1.3754 -13.7443 -1.3261 0.9460
-0.1474 -14.0127 -1.3454 0.9452
1.1208 -14.2123 -1.3687 0.9443
2.4307 -14.3395 -1.3963 0.9432
3.7839 -14.3895 -1.4284 0.9420
8.7108 -15.0461 -1.6691 0.9325
10.3610 -14.6984 -1.7265 0.9303
15.5828 -2.4159 -1.5139 0.9386
15.4365 0.3802 -1.4824 0.9398
12.0755 1.3807 -1.1668 0.9523
11.0114 2.2673 -1.0793 0.9558
8.3122 3.3345 -0.8598 0.9647
7.0198 3.5722 -0.7562 0.9688
4.7367 4.3110 -0.6149 0.9746
4.1399 4.5049 -0.5874 0.9757
3.6570 4.7710 -0.5771 0.9761
2.5329 4.9187 -0.5312 0.9780
1.1903 5.6431 -0.5537 0.9771
0.6919 5.8035 -0.5611 0.9768
-0.3564 5.9564 -0.5729 0.9763
-18.3944 3.2094 -1.7926 0.9277
-17.4020 -0.0991 -1.6707 0.9325
-16.7929 -1.5987 -1.6195 0.9345
-16.1196 -3.0022 -1.5742 0.9362
-15.3888 -4.3146 -1.5344 0.9378
-13.7750 -6.6846 -1.4700 0.9403
-11.0267 -9.6604 -1.4074 0.9428
-9.3459 -9.7913 -1.2995 0.9471
-8.3845 -10.5200 -1.2915 0.9474
-5.2937 -12.3397 -1.2891 0.9475
-3.0577 -13.2491 -1.3054 0.9468
-1.8846 -13.6104 -1.3191 0.9463
3.2043 -14.3780 -1.4142 0.9425
4.5829 -14.3813 -1.4491 0.9411
6.0068 -14.2984 -1.4889 0.9396
8.0259 -15.1588 -1.6467 0.9334
9.6546 -14.8605 -1.7013 0.9313
13.0632 -13.8939 -1.8309 0.9262
14.8404 -13.2005 -1.9068 0.9233
11.5395 -1.1864 -1.1137 0.9545
18.6885 -0.2473 -1.7943 0.9276
14.8466 1.1303 -1.4295 0.9419
10.3101 2.6813 -1.0227 0.9581
6.4965 3.7376 -0.7196 0.9703
5.8367 4.0907 -0.6843 0.9718
5.0081 4.2227 -0.6289 0.9740
3.7929 4.5785 -0.5708 0.9764
3.3507 4.8703 -0.5675 0.9765
2.7652 4.9044 -0.5406 0.9776
0.3854 5.7182 -0.5502 0.9772
-1.3089 6.4453 -0.6314 0.9739
-2.6646 6.6949 -0.6918 0.9715
14.9109 0.7309 -1.7733 0.9416
10.1699 2.3536 -1.2400 0.9588
5.3661 4.2821 -0.8155 0.9727
4.5624 4.3601 -0.7496 0.9749
1.9695 5.2014 -0.6607 0.9778
0.5525 5.8413 -0.6970 0.9766
0.0145 2.8397 -0.3373 0.9886
-0.5057 5.9971 -0.7149 0.9760
-6.0388 12.7938 -1.6805 0.9446
-14.8682 12.1146 -2.2782 0.9257
-15.6110 6.8975 -2.0273 0.9336
-15.5955 5.2866 -1.9561 0.9358
-15.4702 3.7466 -1.8908 0.9379
-14.9344 0.8847 -1.7771 0.9415
-14.5429 -0.4372 -1.7283 0.9431
-14.0797 -1.6873 -1.6844 0.9445
-10.8965 -6.9133 -1.5329 0.9493
-10.1167 -7.7642 -1.5148 0.9499
-8.3543 -9.1905 -1.4753 0.9512
-6.1577 -9.8362 -1.3785 0.9543
-4.3254 -10.8012 -1.3821 0.9542
-2.3683 -11.5373 -1.3990 0.9537
4.5353 -13.1186 -1.6488 0.9456
7.1368 -12.7203 -1.7326 0.9429
9.8378 -11.9263 -1.8365 0.9396
12.6075 -10.6759 -1.9624 0.9356
15.3935 -8.8996 -2.1121 0.9309
11.0228 2.1149 -1.3332 0.9558
9.3322 2.6712 -1.1531 0.9617
8.4139 3.2441 -1.0712 0.9643
7.1529 3.5191 -0.9469 0.9684
4.8257 4.2743 -0.7658 0.9744
4.2215 4.4711 -0.7304 0.9755
2.6330 4.9477 -0.6658 0.9777
1.6978 5.2891 -0.6598 0.9779
0.7674 5.7723 -0.6917 0.9768
-0.8318 6.1014 -0.7315 0.9755
-15.4187 9.3079 -2.1394 0.9300
-15.5814 7.6018 -2.0594 0.9325
-15.6162 5.9616 -1.9856 0.9349
-15.3528 2.8929 -1.8558 0.9390
-15.0770 1.4674 -1.7994 0.9408
-14.7182 0.1149 -1.7484 0.9424
-14.2845 -1.1655 -1.7024 0.9439
-13.2207 -3.5149 -1.6250 0.9464
-11.9321 -5.5925 -1.5653 0.9483
-11.2145 -6.5333 -1.5417 0.9491
-10.4527 -7.4107 -1.5220 0.9497
-9.6493 -8.2260 -1.5062 0.9502
-8.8064 -8.9801 -1.4940 0.9506
-6.5813 -9.6780 -1.3902 0.9540
-5.6473 -10.1441 -1.3791 0.9543
-4.7247 -10.6153 -1.3802 0.9543
-1.7822 -11.7053 -1.4065 0.9534
1.4345 -12.2516 -1.4653 0.9515
2.6348 -12.6231 -1.5318 0.9494
3.9617 -13.0378 -1.6186 0.9466
5.2727 -13.0414 -1.6710 0.9449
6.5758 -12.8360 -1.7132 0.9436
7.9051 -12.5348 -1.7603 0.9421
13.4107 -10.2218 -2.0030 0.9343
14.8046 -9.3241 -2.0783 0.9319
16.1875 -8.2804 -2.1598 0.9294
2.3559 -0.9508 -0.3018 0.9898
17.5073 -5.3082 -2.1731 0.9290
18.6763 -3.8865 -2.2660 0.9260
14.7764 0.9245 -1.7587 0.9421
11.4592 1.7518 -1.3770 0.9544
9.9171 2.4366 -1.2130 0.9597
8.7297 2.9915 -1.0962 0.9635
5.1010 4.1845 -0.7837 0.9738
4.4710 4.3899 -0.7443 0.9751
3.4262 4.8388 -0.7043 0.9764
1.4260 5.3767 -0.6608 0.9778
0.9793 5.7042 -0.6875 0.9770
-0.0239 2.8393 -0.3373 0.9886
-0.5900 6.0241 -0.7190 0.9759
-1.2111 6.4063 -0.7745 0.9741
-1.8661 6.5871 -0.8132 0.9728
-2.5423 6.6473 -0.8454 0.9717
-15.3076 10.0504 -2.1752 0.9289
-15.6162 6.6492 -2.0161 0.9339
-14.8800 0.6800 -1.7694 0.9418
-13.4665 -3.0396 -1.6399 0.9459
-10.7812 -7.0461 -1.5299 0.9494
-7.0247 -9.5330 -1.4066 0.9534
-6.0235 -9.9171 -1.3783 0.9543
-4.1816 -10.8650 -1.3829 0.9542
-1.1861 -11.8531 -1.4150 0.9531
-0.1269 -12.0605 -1.4327 0.9526
2.1120 -12.4592 -1.5011 0.9504
3.3807 -12.8564 -1.5791 0.9479
4.7282 -13.1011 -1.6545 0.9454
15.6029 -8.7417 -2.1245 0.9305
16.9737 -7.6099 -2.2096 0.9278
16.9935 -5.8634 -2.1354 0.9301
9.1686 2.7589 -1.1373 0.9622
8.2686 3.3170 -1.0583 0.9647
4.7305 4.3053 -0.7598 0.9746
4.1348 4.4993 -0.7259 0.9757
3.6526 4.7653 -0.7132 0.9761
3.1273 4.9358 -0.6941 0.9767
2.5300 4.9131 -0.6564 0.9780
2.0689 5.0864 -0.6523 0.9781
-0.3560 5.9492 -0.7079 0.9763
-2.2232 6.5456 -0.8212 0.9725
-15.1697 10.8032 -2.2122 0.9277
-15.4521 9.0457 -2.1269 0.9304
-15.3167 2.6725 -1.8469 0.9393
-14.6572 -0.0835 -1.7411 0.9427
-14.2129 -1.3531 -1.6959 0.9441
-13.7019 -2.5519 -1.6556 0.9454
-13.1305 -3.6814 -1.6199 0.9466
-11.1020 -6.6701 -1.5385 0.9492
-8.6756 -9.0890 -1.4925 0.9506
-6.4255 -9.7288 -1.3849 0.9541
-5.5063 -10.2130 -1.3782 0.9543
-4.5829 -10.6828 -1.3808 0.9543
-2.6427 -11.4506 -1.3959 0.9538
-1.6265 -11.7462 -1.4086 0.9534
4.1761 -13.1046 -1.6338 0.9461
5.4682 -13.0162 -1.6770 0.9447
6.7754 -12.7968 -1.7200 0.9433
8.1084 -12.4804 -1.7679 0.9418
13.6220 -10.0949 -2.0140 0.9340
16.3951 -8.1092 -2.1727 0.9290
2.3587 -0.9151 -0.3005 0.9899
17.6882 -5.1033 -2.1868 0.9285
18.8472 -3.6573 -2.2805 0.9256
9.6749 2.5161 -1.1875 0.9605
6.4866 3.7319 -0.8889 0.9703
5.8734 4.1164 -0.8520 0.9715
4.3810 4.4192 -0.7392 0.9752
3.7883 4.5729 -0.7054 0.9764
2.3006 5.0944 -0.6640 0.9777
1.3543 5.3998 -0.6613 0.9778
0.8971 5.6844 -0.6836 0.9771
-0.0625 2.8537 -0.3391 0.9886
-0.6753 6.0514 -0.7233 0.9758
-14.4965 13.3946 -2.3445 0.9236
-15.3502 9.7844 -2.1623 0.9293
-2.7293 1.4148 -0.3652 0.9877
10.4583 2.4203 -1.5210 0.9576
7.4954 3.2209 -1.1559 0.9676
6.0683 4.0131 -1.0308 0.9710
4.5565 4.3545 -0.8930 0.9749
3.9030 4.4605 -0.8398 0.9763
2.9849 4.9750 -0.8220 0.9768
1.4958 5.3475 -0.7868 0.9778
-0.5051 5.9897 -0.8517 0.9760
-2.4032 6.5473 -0.9882 0.9722
-6.0102 12.7333 -1.9950 0.9447
-9.2161 15.7213 -2.5821 0.9290
-12.3133 10.0328 -2.2505 0.9378
-12.7253 8.6031 -2.1764 0.9398
-2.7057 1.4967 -0.4381 0.9876
-13.1778 5.8224 -2.0413 0.9435
-13.2372 4.4872 -1.9804 0.9451
-13.1975 3.1962 -1.9240 0.9466
-12.2070 -1.4629 -1.7420 0.9515
-11.7855 -2.4934 -1.7068 0.9525
-11.3060 -3.4690 -1.6756 0.9533
-8.1786 -7.5250 -1.5747 0.9561
-7.4291 -8.1727 -1.5649 0.9564
-6.6440 -8.7659 -1.5585 0.9565
-5.8247 -9.3043 -1.5553 0.9566
-4.0902 -10.2140 -1.5589 0.9565
-3.1776 -10.5834 -1.5657 0.9563
-1.2674 -11.1445 -1.5892 0.9557
-0.2723 -11.3324 -1.6061 0.9552
1.7917 -11.5110 -1.6506 0.9540
2.8575 -11.4956 -1.6784 0.9533
3.9432 -11.4058 -1.7099 0.9524
6.1641 -10.9866 -1.7850 0.9504
10.6958 -9.0571 -1.9858 0.9450
11.8140 -8.3172 -2.0471 0.9433
12.9100 -7.4638 -2.1129 0.9415
13.9729 -6.4925 -2.1831 0.9397
13.9108 -5.0110 -2.0950 0.9420
15.6151 -2.6373 -2.2438 0.9380
15.7291 0.1750 -2.2288 0.9384
11.2561 2.1597 -1.6240 0.9548
9.3870 2.6869 -1.3834 0.9613
7.0305 3.4589 -1.1102 0.9688
6.2491 3.8008 -1.0363 0.9709
4.2162 4.4654 -0.8702 0.9755
2.1681 5.1305 -0.7892 0.9777
1.6958 5.2830 -0.7862 0.9778
0.7665 5.7656 -0.8241 0.9768
-8.7395 16.2920 -2.6196 0.9280
-10.7301 13.5216 -2.4458 0.9326
-11.4884 12.0869 -2.3628 0.9349
-12.0977 10.6439 -2.2831 0.9370
-12.9043 7.7901 -2.1357 0.9409
-13.2246 5.0486 -2.0057 0.9444
-13.2259 3.7383 -1.9474 0.9460
-13.1330 2.4746 -1.8936 0.9474
-12.9540 1.2608 -1.8441 0.9488
-12.6964 0.0991 -1.7990 0.9500
-11.9718 -2.0628 -1.7213 0.9521
-11.0053 -4.0056 -1.6594 0.9538
-10.4432 -4.8947 -1.6342 0.9545
-9.8337 -5.7289 -1.6125 0.9551
-8.4853 -7.2337 -1.5799 0.9560
-6.1764 -9.0826 -1.5563 0.9566
-4.4685 -10.0398 -1.5571 0.9566
-1.6818 -11.0458 -1.5831 0.9559
-0.6977 -11.2604 -1.5985 0.9554
0.3121 -11.4114 -1.6175 0.9549
1.3460 -11.4959 -1.6400 0.9543
2.4027 -11.5110 -1.6661 0.9536
3.4802 -11.4532 -1.6961 0.9528
4.5763 -11.3188 -1.7299 0.9519
5.6882 -11.1035 -1.7677 0.9508
6.8128 -10.8028 -1.8096 0.9497
7.9459 -10.4118 -1.8558 0.9485
9.0826 -9.9253 -1.9063 0.9471
10.2169 -9.3381 -1.9612 0.9456
11.3417 -8.6447 -2.0206 0.9440
12.4483 -7.8401 -2.0845 0.9423
14.4297 -4.3751 -2.1365 0.9409
16.0462 -1.8690 -2.2889 0.9368
14.7726 0.9242 -2.0972 0.9420
11.4561 1.7514 -1.6421 0.9543
10.1560 2.4953 -1.4818 0.9586
8.4948 2.9110 -1.2723 0.9644
5.0941 4.1789 -0.9336 0.9737
2.9087 4.9997 -0.8196 0.9769
0.4699 5.8023 -0.8248 0.9768
-0.0238 2.8348 -0.4017 0.9886
-0.5893 6.0166 -0.8566 0.9759
-9.3789 15.5151 -2.5688 0.9294
-11.8568 11.2562 -2.3165 0.9361
-2.7070 1.4500 -0.4351 0.9877
-13.1935 5.6177 -2.0318 0.9437
-13.2373 4.2888 -1.9716 0.9453
-13.1834 3.0049 -1.9159 0.9468
-13.0400 1.7696 -1.8646 0.9482
-12.8149 0.5856 -1.8176 0.9495
-12.5152 -0.5454 -1.7749 0.9507
-11.2286 -3.6118 -1.6713 0.9535
-10.6877 -4.5241 -1.6444 0.9542
-10.0979 -5.3816 -1.6213 0.9548
-8.0675 -7.6265 -1.5730 0.9561
-7.3126 -8.2660 -1.5637 0.9564
-6.5221 -8.8510 -1.5578 0.9566
-3.9540 -10.2736 -1.5597 0.9565
-3.0369 -10.6342 -1.5670 0.9563
-0.1195 -11.3553 -1.6090 0.9552
0.9044 -11.4683 -1.6300 0.9546
1.9517 -11.5133 -1.6546 0.9539
4.1091 -11.3855 -1.7150 0.9523
6.3343 -10.9411 -1.7913 0.9502
9.7363 -9.5999 -1.9373 0.9463
10.8661 -8.9522 -1.9948 0.9447
11.9816 -8.1954 -2.0568 0.9430
13.0733 -7.3245 -2.1233 0.9413
14.1301 -6.3350 -2.1941 0.9394
14.0492 -4.8475 -2.1058 0.9417
14.9272 -3.7009 -2.1791 0.9398
14.2930 -2.2159 -2.0494 0.9432
16.4444 -1.0637 -2.3349 0.9356
15.4044 0.3794 -2.1833 0.9396
12.0097 1.3732 -1.7127 0.9523
9.1372 2.7494 -1.3520 0.9622
7.7888 3.1245 -1.1891 0.9667
6.9161 3.5194 -1.0995 0.9691
6.1270 3.8408 -1.0246 0.9712
2.5271 4.9074 -0.7821 0.9779
2.0666 5.0806 -0.7771 0.9781
1.6245 5.3060 -0.7863 0.9778
1.1876 5.6302 -0.8153 0.9770
-0.3556 5.9419 -0.8434 0.9762
-0.9189 6.1219 -0.8771 0.9753
-1.5824 6.5168 -0.9502 0.9733
-9.9643 14.7195 -2.5185 0.9307
-10.8548 13.3056 -2.4330 0.9330
-11.5900 11.8686 -2.3505 0.9352
-12.9446 7.5778 -2.1253 0.9412
-13.1432 6.1940 -2.0587 0.9430
-13.2312 4.8475 -1.9966 0.9447
-13.2177 3.5440 -1.9390 0.9462
-12.9199 1.0816 -1.8370 0.9490
-11.9066 -2.2175 -1.7160 0.9522
-11.4424 -3.2081 -1.6838 0.9531
-10.9234 -4.1437 -1.6554 0.9539
-10.3539 -5.0244 -1.6307 0.9546
-8.3767 -7.3387 -1.5779 0.9560
-6.8617 -8.6094 -1.5599 0.9565
-6.0517 -9.1628 -1.5559 0.9566
-5.2087 -9.6609 -1.5551 0.9566
-0.5465 -11.2874 -1.6012 0.9554
0.4670 -11.4285 -1.6206 0.9548
1.5045 -11.5027 -1.6437 0.9542
2.5645 -11.5070 -1.6704 0.9535
3.6449 -11.4379 -1.7009 0.9527
5.8577 -11.0636 -1.7738 0.9507
6.9838 -10.7496 -1.8163 0.9495
8.1178 -10.3444 -1.8631 0.9483
9.2546 -9.8431 -1.9143 0.9469
10.3879 -9.2401 -1.9699 0.9454
2.3583 -0.9150 -0.3584 0.9898
14.5627 -4.2016 -2.1475 0.9406
15.4003 -2.9885 -2.2228 0.9386
16.8062 -0.2224 -2.3815 0.9344
14.8389 1.1297 -2.1086 0.9416
11.5101 1.9190 -1.6534 0.9540
9.8692 2.5666 -1.4449 0.9596
7.2415 3.3462 -1.1303 0.9683
6.4766 3.7262 -1.0587 0.9703
4.3754 4.4135 -0.8806 0.9752
3.7837 4.5673 -0.8404 0.9763
2.7587 4.8927 -0.7959 0.9776
2.2980 5.0885 -0.7911 0.9777
1.8245 5.2415 -0.7864 0.9778
1.3528 5.3936 -0.7879 0.9778
0.8961 5.6778 -0.8144 0.9770
-0.6744 6.0438 -0.8617 0.9757
-1.3055 6.4286 -0.9294 0.9738
-1.9351 6.4947 -0.9602 0.9730
-8.4172 16.6525 -2.6438 0.9274
-10.4963 13.9095 -2.4690 0.9320
-11.2965 12.4800 -2.3851 0.9343
-11.9457 11.0377 -2.3045 0.9364
-12.4520 9.5982 -2.2276 0.9385
14.3021 0.7011 -2.3589 0.9436
11.4019 1.5859 -1.8964 0.9544
10.4390 2.4158 -1.7652 0.9575
8.9120 2.9201 -1.5450 0.9627
7.5968 3.2645 -1.3622 0.9670
4.5505 4.3488 -1.0369 0.9748
3.4979 4.8012 -0.9786 0.9762
2.9814 4.9691 -0.9546 0.9768
1.4941 5.3414 -0.9137 0.9778
1.0519 5.6670 -0.9495 0.9769
0.5512 5.8277 -0.9643 0.9765
-0.5045 5.9823 -0.9890 0.9760
-1.0646 6.0799 -1.0168 0.9753
-7.1366 12.1740 -2.3247 0.9444
-8.5785 12.0304 -2.4341 0.9419
-9.3406 10.8967 -2.3644 0.9435
-10.4978 8.5536 -2.2308 0.9466
-10.9020 7.3705 -2.1679 0.9480
-2.7089 1.4984 -0.5100 0.9875
-11.4976 2.7845 -1.9489 0.9532
-11.0523 -0.3322 -1.8216 0.9562
-10.7659 -1.2902 -1.7862 0.9570
-10.4190 -2.2043 -1.7544 0.9577
-8.5121 -5.4005 -1.6607 0.9600
-7.2958 -6.7127 -1.6332 0.9606
-6.6317 -7.2954 -1.6242 0.9608
-5.9334 -7.8284 -1.6182 0.9610
-5.2029 -8.3110 -1.6153 0.9610
-4.4421 -8.7423 -1.6154 0.9610
-2.8363 -9.4468 -1.6249 0.9608
-1.9947 -9.7174 -1.6342 0.9606
-0.2424 -10.0874 -1.6623 0.9599
1.5901 -10.2152 -1.7031 0.9590
2.5310 -10.1823 -1.7285 0.9584
3.4852 -10.0811 -1.7572 0.9577
5.4206 -9.6614 -1.8250 0.9561
7.3659 -8.9296 -1.9070 0.9542
9.2797 -7.8580 -2.0032 0.9519
11.9656 -5.5598 -2.1736 0.9479
11.8544 -4.2702 -2.0757 0.9502
12.5466 -3.2911 -2.1368 0.9488
13.1684 -2.2241 -2.2001 0.9473
14.0302 1.4126 -2.3230 0.9444
11.2295 2.1546 -1.8837 0.9547
9.5110 2.7224 -1.6298 0.9607
8.1304 3.1348 -1.4355 0.9653
6.9559 3.4222 -1.2771 0.9691
6.0518 3.6808 -1.1669 0.9717
4.7975 4.2493 -1.0558 0.9744
4.2109 4.4598 -1.0104 0.9754
3.6986 4.6927 -0.9843 0.9761
3.1975 4.8989 -0.9637 0.9766
2.1656 5.1246 -0.9165 0.9777
1.6939 5.2770 -0.9130 0.9778
0.7656 5.7589 -0.9571 0.9767
0.2468 5.7421 -0.9468 0.9770
-0.2736 5.9085 -0.9744 0.9763
-0.8234 6.0401 -1.0042 0.9756
-1.8054 5.5607 -0.9631 0.9766
-7.6255 11.5989 -2.2867 0.9453
-9.0325 11.3823 -2.3938 0.9428
-9.7231 10.2295 -2.3250 0.9444
-10.2920 9.0552 -2.2583 0.9459
-10.7441 7.8722 -2.1942 0.9474
-11.3210 5.5232 -2.0751 0.9502
-11.5043 3.2517 -1.9695 0.9527
-11.4648 2.1603 -1.9219 0.9538
-11.3462 1.1043 -1.8780 0.9548
-10.8951 -0.8890 -1.8008 0.9567
-10.5732 -1.8219 -1.7675 0.9574
-9.2781 -4.3486 -1.6880 0.9593
-8.7495 -5.0972 -1.6682 0.9598
-7.5666 -6.4506 -1.6380 0.9605
-6.9177 -7.0542 -1.6276 0.9607
-6.2337 -7.6084 -1.6204 0.9609
-5.5167 -8.1124 -1.6162 0.9610
-4.7685 -8.5656 -1.6150 0.9610
-2.3548 -9.6094 -1.6299 0.9607
-1.4994 -9.8478 -1.6410 0.9604
-0.6214 -10.0285 -1.6553 0.9601
0.2775 -10.1498 -1.6727 0.9597
2.1300 -10.2045 -1.7173 0.9586
3.0789 -10.1326 -1.7446 0.9580
4.0393 -9.9907 -1.7753 0.9573
5.0080 -9.7756 -1.8095 0.9564
7.9221 -8.6572 -1.9332 0.9535
8.8788 -8.1151 -1.9816 0.9524
9.8173 -7.4829 -2.0335 0.9512
11.6066 -5.9372 -2.1477 0.9485
2.3501 -0.9485 -0.4175 0.9898
12.2607 -3.7175 -2.1106 0.9494
11.4530 1.7509 -1.9087 0.9541
8.7130 2.9858 -1.5173 0.9634
6.3981 3.5669 -1.2068 0.9707
5.6326 3.8353 -1.1226 0.9728
5.0387 4.1334 -1.0736 0.9739
3.8612 4.5348 -0.9812 0.9761
2.9053 4.9938 -0.9518 0.9769
2.3675 5.0593 -0.9202 0.9776
1.8937 5.2125 -0.9136 0.9778
0.4703 5.8076 -0.9599 0.9767
-0.0240 2.8556 -0.4704 0.9885
-2.4618 6.4370 -1.1353 0.9724
-8.7019 11.8614 -2.4235 0.9421
-9.4451 10.7222 -2.3540 0.9437
-10.5662 8.3745 -2.2211 0.9468
-11.4957 3.7245 -1.9907 0.9522
-11.4916 2.6193 -1.9417 0.9533
-11.0130 -0.4800 -1.8160 0.9563
-10.7171 -1.4314 -1.7812 0.9571
-9.9507 -3.2008 -1.7220 0.9585
-9.4887 -4.0166 -1.6974 0.9591
-8.4256 -5.5066 -1.6582 0.9600
-7.8308 -6.1796 -1.6433 0.9604
-7.1975 -6.8041 -1.6317 0.9606
-6.5281 -7.3793 -1.6231 0.9608
-5.8248 -7.9047 -1.6176 0.9610
-5.0896 -8.3796 -1.6151 0.9610
-4.3244 -8.8030 -1.6157 0.9610
-3.5308 -9.1740 -1.6194 0.9609
-1.8653 -9.7535 -1.6359 0.9605
-0.1063 -10.1058 -1.6649 0.9599
0.8037 -10.1917 -1.6842 0.9594
2.6747 -10.1715 -1.7326 0.9583
9.4218 -7.7623 -2.0111 0.9517
12.0914 -5.4210 -2.1830 0.9477
12.6455 -3.1352 -2.1463 0.9486
14.2052 0.3499 -2.3409 0.9440
9.2899 2.7954 -1.5982 0.9614
6.8008 3.4607 -1.2571 0.9695
5.9336 3.7196 -1.1537 0.9720
5.2860 4.0114 -1.0932 0.9735
4.1244 4.4880 -1.0041 0.9756
3.6438 4.7537 -0.9867 0.9760
3.1199 4.9241 -0.9603 0.9766
2.5242 4.9017 -0.9083 0.9779
1.6227 5.3000 -0.9131 0.9778
0.0810 2.7511 -0.4534 0.9889
-0.3551 5.9346 -0.9794 0.9762
-0.9088 6.0545 -1.0086 0.9755
-5.9178 13.3718 -2.4090 0.9424
-6.8911 12.4402 -2.3428 0.9440
-8.3486 12.3327 -2.4534 0.9414
-11.5037 3.0844 -1.9620 0.9529
-11.4518 1.9981 -1.9151 0.9540
-11.3217 0.9478 -1.8717 0.9550
-10.8503 -1.0330 -1.7955 0.9568
-7.4708 -6.5451 -1.6362 0.9605
-6.8164 -7.1413 -1.6263 0.9608
-6.1273 -7.6879 -1.6195 0.9609
-5.4054 -8.1843 -1.6158 0.9610
-4.6527 -8.6297 -1.6151 0.9610
-3.8709 -9.0231 -1.6175 0.9610
-3.0617 -9.3633 -1.6229 0.9609
-2.2269 -9.6491 -1.6314 0.9607
-1.3679 -9.8789 -1.6430 0.9604
-0.4866 -10.0508 -1.6577 0.9600
0.4153 -10.1628 -1.6756 0.9596
2.2727 -10.1980 -1.7212 0.9585
4.1855 -9.9629 -1.7802 0.9571
5.1551 -9.7365 -1.8149 0.9563
6.1285 -9.4330 -1.8531 0.9554
7.1012 -9.0489 -1.8949 0.9544
9.0222 -8.0253 -1.9892 0.9522
9.9573 -7.3791 -2.0417 0.9510
11.7356 -5.8046 -2.1569 0.9483
12.3641 -3.5672 -2.1199 0.9492
14.0379 -0.1858 -2.3128 0.9447
14.3992 1.0962 -2.3790 0.9431
11.5070 1.9185 -1.9218 0.9538
7.2491 3.3498 -1.3156 0.9681
4.9520 4.1754 -1.0671 0.9741
4.3698 4.4079 -1.0225 0.9752
3.7790 4.5616 -0.9759 0.9763
3.3388 4.8530 -0.9704 0.9764
1.3512 5.3874 -0.9150 0.9777
0.3841 5.6981 -0.9408 0.9771
-0.0636 2.9031 -0.4784 0.9883
-2.5814 6.4858 -1.1500 0.9721
-6.3648 12.5920 -2.3243 0.9444
-9.5468 10.5470 -2.3436 0.9440
-10.1485 9.3771 -2.2763 0.9455
-11.0026 7.0132 -2.1495 0.9485
10.4158 2.4105 -2.0095 0.9574
8.8946 2.9144 -1.7593 0.9626
7.7010 3.3092 -1.5755 0.9665
4.4077 4.2123 -1.1460 0.9755
3.8601 4.4114 -1.1018 0.9764
3.4936 4.7954 -1.1152 0.9761
2.9779 4.9632 -1.0879 0.9767
1.4795 5.2891 -1.0323 0.9779
0.5239 5.5383 -1.0456 0.9776
-1.0457 5.9721 -1.1396 0.9756
-5.2879 11.2030 -2.3285 0.9508
-6.1164 10.4337 -2.2733 0.9520
-6.8506 9.6073 -2.2179 0.9531
-2.7121 1.5002 -0.5826 0.9875
-10.1396 3.4371 -2.0124 0.9574
-10.1770 2.4647 -1.9682 0.9583
-10.1391 1.5156 -1.9269 0.9591
-10.0308 0.5942 -1.8887 0.9599
-8.9838 -2.7565 -1.7663 0.9625
-8.1482 -4.2022 -1.7232 0.9634
-7.6646 -4.8628 -1.7061 0.9637
-7.1410 -5.4805 -1.6920 0.9640
-6.5802 -6.0543 -1.6807 0.9643
-5.3562 -7.0670 -1.6667 0.9646
-4.6976 -7.5039 -1.6640 0.9646
-3.2973 -8.2338 -1.6671 0.9645
-2.5594 -8.5245 -1.6729 0.9644
-1.0179 -8.9503 -1.6931 0.9640
1.4281 -9.1748 -1.7453 0.9629
2.2698 -9.1314 -1.7686 0.9624
3.1201 -9.0252 -1.7949 0.9619
3.9758 -8.8537 -1.8242 0.9613
4.8333 -8.6146 -1.8566 0.9606
5.6882 -8.3053 -1.8921 0.9599
7.3711 -7.4668 -1.9721 0.9582
8.1876 -6.9332 -2.0166 0.9573
9.7365 -5.6291 -2.1139 0.9553
10.4527 -4.8569 -2.1664 0.9542
10.3177 -3.7167 -2.0613 0.9563
10.8786 -2.8536 -2.1139 0.9553
11.3731 -1.9208 -2.1680 0.9541
11.7907 -0.9227 -2.2230 0.9530
12.1208 0.1348 -2.2784 0.9519
11.2029 2.1494 -2.1441 0.9546
9.4915 2.7168 -1.8557 0.9606
8.1758 3.1523 -1.6470 0.9650
7.1177 3.5018 -1.4910 0.9682
6.1385 3.7335 -1.3504 0.9712
2.6164 4.9166 -1.0468 0.9776
1.6788 5.2299 -1.0324 0.9779
1.2077 5.3657 -1.0338 0.9779
0.7298 5.4893 -1.0409 0.9777
0.1178 2.7408 -0.5156 0.9889
-0.8036 5.8952 -1.1183 0.9761
-1.3972 6.1129 -1.1786 0.9748
-1.7765 5.4719 -1.0813 0.9769
-5.7762 10.7679 -2.2968 0.9515
-7.8135 8.2205 -2.1317 0.9549
-8.9467 7.8716 -2.2398 0.9527
-9.3745 6.8687 -2.1844 0.9538
-2.8266 1.3790 -0.5912 0.9873
-9.9384 0.0776 -1.8681 0.9604
-9.4599 -1.6300 -1.8043 0.9617
-7.8748 -4.5877 -1.7130 0.9636
-7.3679 -5.2237 -1.6976 0.9639
-6.2413 -6.3644 -1.6755 0.9644
-5.6266 -6.8674 -1.6687 0.9645
-4.3055 -7.7339 -1.6638 0.9646
-3.6031 -8.0953 -1.6655 0.9646
-2.1243 -8.6686 -1.6776 0.9643
-0.5597 -9.0330 -1.7011 0.9638
0.2497 -9.1327 -1.7172 0.9635
1.0743 -9.1748 -1.7363 0.9631
1.9114 -9.1573 -1.7583 0.9626
3.6123 -8.9346 -1.8114 0.9615
5.3260 -8.4453 -1.8767 0.9602
7.0187 -7.6699 -1.9542 0.9586
7.8439 -7.1692 -1.9974 0.9577
8.6466 -6.5905 -2.0435 0.9567
9.4195 -5.9325 -2.0924 0.9557
11.1721 -2.3249 -2.1449 0.9546
11.6236 -1.3539 -2.1995 0.9535
12.2670 0.7675 -2.3102 0.9512
10.1583 2.4958 -1.9661 0.9583
8.6963 2.9801 -1.7279 0.9633
6.5280 3.6393 -1.4048 0.9700
5.6570 3.8519 -1.2864 0.9725
4.3196 4.2412 -1.1379 0.9757
3.7847 4.4450 -1.0973 0.9765
2.9018 4.9880 -1.0847 0.9768
0.9337 5.4383 -1.0371 0.9778
-0.5701 5.8208 -1.0993 0.9765
-1.5924 5.6207 -1.0980 0.9765
-5.4192 11.0908 -2.3202 0.9510
-6.2336 10.3119 -2.2649 0.9521
-6.9534 9.4781 -2.2095 0.9533
-7.5775 8.6020 -2.1547 0.9544
-8.7354 8.2928 -2.2639 0.9522
-9.5770 6.2880 -2.1534 0.9544
-10.1760 2.3194 -1.9617 0.9584
-9.8250 -0.4282 -1.8485 0.9608
-9.5808 -1.2796 -1.8168 0.9614
-8.9271 -2.8715 -1.7626 0.9626
-8.5252 -3.6087 -1.7400 0.9630
-5.8914 -6.6596 -1.6713 0.9645
-4.5954 -7.5659 -1.6639 0.9646
-3.9044 -7.9479 -1.6644 0.9646
-3.1872 -8.2811 -1.6678 0.9645
-2.4457 -8.5640 -1.6741 0.9644
-1.6821 -8.7955 -1.6832 0.9642
-0.8980 -8.9738 -1.6951 0.9640
0.7227 -9.1641 -1.7278 0.9633
1.5548 -9.1722 -1.7486 0.9628
2.3980 -9.1194 -1.7724 0.9623
3.2494 -9.0035 -1.7991 0.9618
4.1056 -8.8219 -1.8290 0.9612
6.6633 -7.8593 -1.9367 0.9589
7.4961 -7.3911 -1.9787 0.9581
8.3092 -6.8456 -2.0236 0.9571
10.5569 -4.7331 -2.1746 0.9540
10.4065 -3.5907 -2.0692 0.9562
11.8465 -0.7663 -2.2313 0.9528
12.1624 0.2996 -2.2868 0.9517
11.9438 1.3657 -2.2596 0.9522
9.2712 2.7897 -1.8198 0.9614
4.5699 4.1592 -1.1615 0.9752
3.9971 4.3496 -1.1103 0.9762
3.1162 4.9183 -1.0944 0.9766
2.0736 5.0978 -1.0344 0.9779
1.6078 5.2512 -1.0323 0.9779
0.0798 2.7096 -0.5095 0.9890
-1.8630 5.4851 -1.0888 0.9767
-7.3244 8.9781 -2.1779 0.9539
-7.8936 8.0833 -2.1236 0.9551
-9.0177 7.7206 -2.2313 0.9528
-9.7485 5.7068 -2.1232 0.9551
-10.1745 2.7280 -1.9799 0.9580
-9.4144 -1.7534 -1.8000 0.9618
-9.0831 -2.5467 -1.7731 0.9623
-8.7015 -3.3008 -1.7493 0.9628
-7.8007 -4.6867 -1.7105 0.9636
-6.7368 -5.9021 -1.6835 0.9642
-4.8803 -7.3893 -1.6645 0.9646
-1.2330 -8.9047 -1.6897 0.9641
-0.4382 -9.0517 -1.7034 0.9638
0.3736 -9.1428 -1.7199 0.9634
2.8873 -9.0605 -1.7874 0.9620
3.7419 -8.9071 -1.8159 0.9614
4.5993 -8.6867 -1.8475 0.9608
5.4553 -8.3969 -1.8821 0.9601
7.9670 -7.0866 -2.0042 0.9575
8.7657 -6.4960 -2.0507 0.9566
10.2619 -5.0756 -2.1519 0.9545
2.3577 -0.9148 -0.4753 0.9898
10.7317 -3.0963 -2.0994 0.9556
12.0399 -0.1593 -2.2632 0.9522
12.2998 0.9364 -2.3186 0.9510
11.5039 1.9180 -2.1921 0.9536
9.9115 2.5776 -1.9250 0.9592
6.3853 3.6737 -1.3847 0.9705
5.5381 3.8815 -1.2712 0.9729
4.2327 4.2696 -1.1300 0.9758
3.3348 4.8471 -1.1059 0.9763
2.7453 4.8690 -1.0506 0.9775
0.8611 5.4568 -1.0383 0.9778
-0.1245 5.6787 -1.0676 0.9771
-1.2275 6.0446 -1.1593 0.9752
-1.6414 5.5090 -1.0805 0.9769
-2.6367 6.6246 -1.3402 0.9714
-6.3487 10.1890 -2.2565 0.9523
-9.2674 7.1435 -2.1993 0.9535
-2.7269 1.4136 -0.5773 0.9876
10.6736 0.5232 -2.2589 0.9573
10.8042 1.5027 -2.3058 0.9564
10.3925 2.4051 -2.2548 0.9573
8.8772 2.9087 -1.9746 0.9625
6.7087 3.6222 -1.6116 0.9693
5.8874 3.8935 -1.4920 0.9716
2.9743 4.9573 -1.2220 0.9766
1.4458 5.1686 -1.1345 0.9783
0.5174 5.4697 -1.1614 0.9778
-1.0653 6.0838 -1.3056 0.9751
-1.7064 6.3488 -1.3896 0.9735
-5.3457 9.1190 -2.2344 0.9577
-6.0058 8.4226 -2.1866 0.9586
-7.5035 6.1139 -2.0459 0.9612
-8.4516 5.7139 -2.1565 0.9591
-9.1205 2.2088 -1.9836 0.9624
-9.1064 1.3613 -1.9463 0.9631
-9.0274 0.5347 -1.9115 0.9637
-8.8873 -0.2672 -1.8794 0.9643
-8.6900 -1.0414 -1.8500 0.9649
-8.4390 -1.7854 -1.8233 0.9653
-7.7898 -3.1741 -1.7780 0.9662
-6.4943 -4.9841 -1.7304 0.9671
-5.4482 -5.9936 -1.7121 0.9674
-4.8778 -6.4357 -1.7070 0.9675
-4.2786 -6.8345 -1.7044 0.9676
-3.6529 -7.1891 -1.7046 0.9676
-3.0027 -7.4981 -1.7073 0.9675
-2.3300 -7.7604 -1.7127 0.9674
-1.6370 -7.9746 -1.7208 0.9673
-0.9257 -8.1392 -1.7316 0.9671
-0.1983 -8.2528 -1.7450 0.9668
6.6045 -6.6903 -1.9872 0.9623
7.3190 -6.1976 -2.0272 0.9615
8.0061 -5.6364 -2.0697 0.9608
9.2707 -4.3076 -2.1609 0.9591
9.1248 -3.2870 -2.0501 0.9611
9.5926 -2.5163 -2.0963 0.9603
10.3338 -0.8087 -2.1910 0.9585
7.1059 3.4960 -1.6740 0.9681
6.2206 3.7835 -1.5390 0.9707
5.4403 4.0139 -1.4291 0.9727
4.7297 4.1893 -1.3355 0.9745
4.1071 4.3498 -1.2646 0.9758
3.6935 4.6862 -1.2612 0.9759
3.1898 4.8872 -1.2336 0.9764
2.5589 4.8085 -1.1514 0.9780
2.0955 4.9588 -1.1379 0.9782
1.6391 5.1062 -1.1336 0.9783
1.1824 5.2534 -1.1382 0.9782
0.7182 5.4024 -1.1520 0.9780
0.1172 2.7269 -0.5769 0.9889
-0.2670 5.7660 -1.2201 0.9767
-0.8156 5.9828 -1.2763 0.9756
-1.8799 5.7903 -1.2868 0.9754
-4.2715 10.0150 -2.3015 0.9565
-5.7354 8.7240 -2.2069 0.9582
-6.3496 8.0014 -2.1592 0.9591
-6.8830 7.2415 -2.1118 0.9600
-7.3356 6.4541 -2.0653 0.9608
-8.3066 6.0862 -2.1767 0.9588
-8.6247 5.2065 -2.1295 0.9596
-2.8175 1.3746 -0.6627 0.9873
-9.1059 2.5738 -2.0002 0.9621
-9.1205 1.7186 -1.9618 0.9628
-9.0686 0.8826 -1.9260 0.9634
-8.9539 0.0699 -1.8927 0.9641
-8.7804 -0.7164 -1.8622 0.9646
-7.9430 -2.8910 -1.7867 0.9660
-7.1536 -4.1675 -1.7500 0.9667
-5.6811 -5.7932 -1.7151 0.9674
-5.1235 -6.2533 -1.7088 0.9675
-4.5362 -6.6706 -1.7052 0.9676
-3.9215 -7.0441 -1.7042 0.9676
-3.2814 -7.3726 -1.7058 0.9675
-2.6181 -7.6549 -1.7101 0.9675
-1.9334 -7.8897 -1.7171 0.9673
-0.5087 -8.2109 -1.7390 0.9669
0.9747 -8.3242 -1.7716 0.9663
2.4965 -8.2157 -1.8150 0.9655
4.7963 -7.6053 -1.9006 0.9639
5.5521 -7.2751 -1.9345 0.9633
6.2947 -6.8788 -1.9709 0.9626
8.3867 -5.2820 -2.0951 0.9603
9.4012 -2.8505 -2.0766 0.9606
10.4917 -0.2806 -2.2185 0.9580
8.6795 2.9743 -1.9394 0.9632
5.0187 4.1170 -1.3721 0.9738
2.8984 4.9820 -1.2183 0.9767
1.3767 5.1908 -1.1352 0.9783
0.9166 5.3388 -1.1450 0.9781
0.4451 5.4963 -1.1656 0.9777
-0.0230 2.7344 -0.5780 0.9889
-0.5766 5.8875 -1.2504 0.9761
-1.5930 5.6229 -1.2353 0.9764
-2.5273 6.6082 -1.4955 0.9715
-6.0988 8.3131 -2.1794 0.9587
-7.1534 6.7910 -2.0849 0.9605
-7.5600 5.9918 -2.0391 0.9613
-8.4998 5.5807 -2.1493 0.9593
-8.9626 3.8162 -2.0591 0.9610
-9.0787 2.9414 -2.0173 0.9617
-9.1227 2.0794 -1.9778 0.9625
-9.0985 1.2347 -1.9409 0.9632
-8.8610 -0.3862 -1.8748 0.9644
-8.3965 -1.8952 -1.8195 0.9654
-8.0881 -2.6016 -1.7959 0.9659
-7.3350 -3.9091 -1.7569 0.9666
-5.9083 -5.5853 -1.7186 0.9673
-5.3638 -6.0632 -1.7112 0.9674
-4.7889 -6.4988 -1.7064 0.9675
-3.5560 -7.2388 -1.7048 0.9676
-2.9023 -7.5409 -1.7080 0.9675
-2.2264 -7.7959 -1.7138 0.9674
0.6560 -8.3182 -1.7638 0.9665
1.4097 -8.3163 -1.7830 0.9661
2.9382 -8.1414 -1.8296 0.9652
4.4728 -7.7258 -1.8870 0.9642
5.2327 -7.4232 -1.9198 0.9635
5.9815 -7.0551 -1.9552 0.9629
6.7142 -6.6201 -1.9931 0.9622
8.7546 -4.9049 -2.1212 0.9598
9.3533 -4.1934 -2.1667 0.9590
9.1993 -3.1741 -2.0570 0.9610
9.6582 -2.3946 -2.1034 0.9601
10.0539 -1.5587 -2.1506 0.9593
10.3779 -0.6713 -2.1983 0.9584
10.8382 2.2316 -2.3390 0.9558
9.2524 2.7841 -2.0424 0.9613
7.9871 3.2041 -1.8191 0.9654
6.0994 3.8235 -1.5217 0.9710
4.0189 4.3732 -1.2555 0.9760
3.1125 4.9124 -1.2293 0.9765
2.4880 4.8316 -1.1488 0.9780
0.6468 5.4253 -1.1549 0.9779
0.0792 2.6905 -0.5690 0.9891
-0.3469 5.7971 -1.2276 0.9765
-0.9034 6.0181 -1.2864 0.9754
-1.5230 6.2722 -1.3643 0.9740
-1.9580 5.7646 -1.2869 0.9754
-4.3928 9.9260 -2.2944 0.9566
-5.1518 9.3002 -2.2473 0.9575
-5.8335 8.6174 -2.1997 0.9583
-6.9567 7.1239 -2.1047 0.9601
-8.6657 5.0729 -2.1225 0.9598
-9.1169 1.5907 -1.9562 0.9629
-8.9314 -0.0509 -1.8879 0.9641
-8.7493 -0.8329 -1.8578 0.9647
-8.2248 -2.3060 -1.8056 0.9657
-7.8892 -2.9927 -1.7836 0.9661
-7.5091 -3.6439 -1.7643 0.9665
-7.0872 -4.2580 -1.7477 0.9668
-6.6265 -4.8338 -1.7338 0.9670
-4.4449 -6.7300 -1.7049 0.9676
-3.8262 -7.0968 -1.7043 0.9676
-3.1825 -7.4184 -1.7063 0.9675
-2.5157 -7.6935 -1.7110 0.9674
-1.8281 -7.9210 -1.7183 0.9673
-1.1215 -8.0993 -1.7284 0.9671
-0.3983 -8.2269 -1.7410 0.9669
1.0887 -8.3239 -1.7745 0.9663
2.6125 -8.1981 -1.8188 0.9654
4.1482 -7.8348 -1.8739 0.9644
4.9113 -7.5595 -1.9055 0.9638
5.6654 -7.2194 -1.9398 0.9632
7.1264 -6.3389 -2.0161 0.9618
7.8216 -5.7964 -2.0579 0.9610
2.3574 -0.9146 -0.5345 0.9897
9.4707 -2.7325 -2.0836 0.9605
10.2497 -1.0538 -2.1780 0.9587
10.5287 -0.1393 -2.2258 0.9579
10.7230 0.8164 -2.2732 0.9570
10.8248 1.8048 -2.3197 0.9561
6.4465 3.7089 -1.5721 0.9701
5.6539 3.9626 -1.4594 0.9722
4.2699 4.3071 -1.2820 0.9755
3.6951 4.4604 -1.2243 0.9766
2.6876 4.7667 -1.1567 0.9779
2.2210 4.9181 -1.1407 0.9782
0.8461 5.3614 -1.1473 0.9781
-0.0620 2.8293 -0.5982 0.9885
-1.2509 6.1597 -1.3286 0.9746
-4.8390 9.5733 -2.2674 0.9571
-5.5539 8.9134 -2.2199 0.9580
-6.1899 8.2028 -2.1722 0.9589
-8.2039 6.3237 -2.1895 0.9585
-8.5460 5.4473 -2.1422 0.9594
-2.7269 1.4136 -0.6493 0.9875
9.5504 1.3283 -2.2662 0.9612
9.5577 2.2119 -2.3057 0.9605
8.8596 2.9030 -2.1911 0.9624
6.6979 3.6164 -1.7890 0.9692
5.8786 3.8877 -1.6564 0.9715
5.1665 4.1228 -1.5535 0.9732
4.5325 4.3316 -1.4735 0.9746
3.9337 4.4955 -1.4039 0.9758
2.9707 4.9514 -1.3571 0.9766
2.3896 4.9318 -1.2880 0.9777
0.0136 2.6697 -0.6274 0.9891
-1.7040 6.3401 -1.5430 0.9734
-2.0321 5.5363 -1.3860 0.9761
-5.3409 7.4901 -2.1620 0.9629
-6.3308 6.1748 -2.0784 0.9643
-6.7207 5.4760 -2.0374 0.9650
-7.0410 4.7602 -1.9975 0.9657
-2.7187 1.5039 -0.7302 0.9873
-8.1902 2.7763 -2.0325 0.9651
-8.2573 1.2343 -1.9622 0.9663
-8.1993 0.4857 -1.9304 0.9668
-8.0845 -0.2430 -1.9009 0.9673
-7.9162 -0.9487 -1.8738 0.9678
-6.7687 -3.4908 -1.7899 0.9692
-6.3777 -4.0463 -1.7751 0.9694
-5.9503 -4.5666 -1.7628 0.9696
-4.9963 -5.4964 -1.7457 0.9699
-3.3511 -6.5951 -1.7386 0.9701
-2.7542 -6.8777 -1.7412 0.9700
-2.1367 -7.1164 -1.7463 0.9699
0.4966 -7.6059 -1.7914 0.9692
1.8772 -7.5518 -1.8288 0.9685
2.5738 -7.4447 -1.8513 0.9682
4.6480 -6.7866 -1.9332 0.9668
5.9770 -6.0546 -1.9995 0.9656
7.2169 -5.0808 -2.0743 0.9644
8.5698 -2.2480 -2.0822 0.9643
8.9110 -1.5050 -2.1239 0.9635
9.1877 -0.7190 -2.1659 0.9628
9.3932 0.1045 -2.2078 0.9621
9.5211 0.9586 -2.2490 0.9614
6.2110 3.7777 -1.7085 0.9706
5.4577 4.0268 -1.5940 0.9725
4.7935 4.2458 -1.5050 0.9740
3.1859 4.8813 -1.3699 0.9763
2.5919 4.8705 -1.2967 0.9776
2.1196 5.0158 -1.2798 0.9779
1.6580 5.1651 -1.2749 0.9780
1.1978 5.3216 -1.2820 0.9778
0.1167 2.7159 -0.6389 0.9889
-0.8265 6.0625 -1.4380 0.9752
-1.4293 6.2533 -1.5076 0.9740
-1.7730 5.4610 -1.3494 0.9767
-4.4682 8.3297 -2.2215 0.9619
-6.9135 5.0655 -2.0143 0.9654
-2.8083 1.3701 -0.7344 0.9872
-8.2356 2.3278 -2.0114 0.9654
-8.2640 1.5572 -1.9764 0.9660
-8.1399 0.0635 -1.9131 0.9671
-7.5499 -2.0072 -1.8360 0.9684
-7.2578 -2.6417 -1.8152 0.9688
-6.5482 -3.8148 -1.7811 0.9693
-6.1359 -4.3502 -1.7677 0.9696
-5.2091 -5.3118 -1.7485 0.9699
-4.6992 -5.7354 -1.7426 0.9700
-3.5976 -6.4623 -1.7383 0.9701
-2.4011 -7.0206 -1.7438 0.9700
-1.7726 -7.2334 -1.7503 0.9699
-0.4659 -7.5200 -1.7708 0.9695
1.5823 -7.5808 -1.8201 0.9687
5.0372 -6.6005 -1.9514 0.9665
5.7010 -6.2300 -1.9847 0.9659
6.3450 -5.7992 -2.0202 0.9653
6.9636 -5.3077 -2.0578 0.9647
7.5508 -4.7556 -2.0973 0.9640
8.4072 -2.5491 -2.0647 0.9645
8.7737 -1.8258 -2.1062 0.9638
9.5572 1.4611 -2.2723 0.9611
9.5510 2.3466 -2.3115 0.9604
8.6627 2.9686 -2.1522 0.9631
5.0662 4.1559 -1.5400 0.9734
4.4420 4.3614 -1.4631 0.9747
3.8470 4.5182 -1.3947 0.9759
3.4055 4.8096 -1.3850 0.9761
2.3181 4.9538 -1.2854 0.9778
1.8532 5.1011 -1.2755 0.9779
1.3935 5.2541 -1.2775 0.9779
-0.0227 2.7027 -0.6352 0.9890
-4.1825 8.5597 -2.2390 0.9616
-4.8373 8.0021 -2.1976 0.9623
-5.4256 7.3955 -2.1557 0.9630
-5.9449 6.7487 -2.1137 0.9637
-2.7124 1.4529 -0.7232 0.9874
-8.0833 3.4418 -2.0648 0.9645
-8.2043 2.6581 -2.0269 0.9652
-8.2596 1.8826 -1.9910 0.9658
-8.2523 1.1199 -1.9572 0.9664
-7.6601 -1.7290 -1.8456 0.9682
-7.3871 -2.3762 -1.8238 0.9686
-7.0701 -2.9928 -1.8044 0.9689
-6.7119 -3.5770 -1.7875 0.9692
-6.3152 -4.1273 -1.7731 0.9695
-5.8826 -4.6422 -1.7612 0.9697
-5.4164 -5.1204 -1.7518 0.9698
-2.0415 -7.1486 -1.7473 0.9699
-0.7480 -7.4751 -1.7656 0.9696
0.6001 -7.6091 -1.7939 0.9691
1.2883 -7.6003 -1.8117 0.9688
1.9824 -7.5390 -1.8321 0.9685
2.6793 -7.4238 -1.8549 0.9681
4.7508 -6.7396 -1.9379 0.9667
5.4215 -6.3945 -1.9703 0.9661
6.0745 -5.9894 -2.0049 0.9656
6.7045 -5.5237 -2.0416 0.9649
7.3059 -4.9972 -2.0803 0.9643
7.8723 -4.4105 -2.1208 0.9636
8.3841 -3.7589 -2.1594 0.9629
8.9572 -1.3887 -2.1303 0.9634
9.5645 1.9694 -2.2950 0.9607
9.2335 2.7784 -2.2662 0.9612
6.0901 3.8177 -1.6893 0.9709
5.3521 4.0616 -1.5791 0.9728
4.6992 4.2768 -1.4933 0.9742
3.6303 4.7362 -1.4025 0.9758
2.0493 5.0380 -1.2783 0.9779
1.1277 5.3461 -1.2841 0.9778
0.6575 5.5147 -1.3053 0.9774
-1.8577 5.4692 -1.3575 0.9765
-5.1843 7.6583 -2.1735 0.9627
-6.2122 6.3616 -2.0897 0.9641
-6.6212 5.6688 -2.0485 0.9648
-8.0113 3.7755 -2.0815 0.9643
-8.1611 2.9899 -2.0427 0.9649
-8.2439 2.2104 -2.0060 0.9655
-7.7620 -1.4456 -1.8556 0.9681
-6.8688 -3.3332 -1.7944 0.9691
-6.4881 -3.8981 -1.7789 0.9694
-6.0704 -4.4282 -1.7659 0.9696
-4.6195 -5.7961 -1.7419 0.9700
-3.5101 -6.5106 -1.7383 0.9701
-2.9193 -6.8049 -1.7403 0.9700
-2.3072 -7.0557 -1.7447 0.9700
-1.0277 -7.4215 -1.7609 0.9697
-0.3648 -7.5339 -1.7727 0.9695
0.3105 -7.5973 -1.7870 0.9692
1.6874 -7.5716 -1.8231 0.9686
2.3835 -7.4794 -1.8449 0.9683
4.4621 -6.8680 -1.9249 0.9669
5.7999 -6.1687 -1.9900 0.9658
7.0546 -5.2280 -2.0637 0.9646
8.1800 -4.0459 -2.1448 0.9632
2.3570 -0.9145 -0.5942 0.9897
8.4664 -2.4427 -2.0710 0.9644
9.3446 -0.1236 -2.1964 0.9623
9.5423 2.4816 -2.3173 0.9603
8.4726 3.0319 -2.1149 0.9637
7.3611 3.4015 -1.9058 0.9672
5.6533 3.9621 -1.6225 0.9720
4.9675 4.1885 -1.5271 0.9737
4.3506 4.3885 -1.4523 0.9749
3.7617 4.5408 -1.3858 0.9761
3.3267 4.8354 -1.3794 0.9762
2.7240 4.8312 -1.3035 0.9775
2.2471 4.9758 -1.2831 0.9778
1.7835 5.1238 -1.2751 0.9780
1.3238 5.2780 -1.2789 0.9779
0.8588 5.4416 -1.2947 0.9776
0.1881 2.7898 -0.6571 0.9886
-0.6710 6.0132 -1.4220 0.9754
-1.6398 5.5038 -1.3497 0.9767
-2.6409 6.6352 -1.6784 0.9711
-4.2857 8.4788 -2.2328 0.9617
-4.9307 7.9133 -2.1913 0.9624
-5.5087 7.3000 -2.1493 0.9631
-6.0175 6.6479 -2.1074 0.9638
-6.4562 5.9655 -2.0659 0.9645
-7.6723 4.8904 -2.1383 0.9633
-2.7269 1.4136 -0.7219 0.9875
8.4806 0.4157 -2.1984 0.9655
8.5479 1.1889 -2.2345 0.9650
8.5389 1.9761 -2.2693 0.9644
8.4499 2.7687 -2.3023 0.9639
6.6870 3.6105 -1.9676 0.9691
5.1592 4.1170 -1.7090 0.9731
4.5265 4.3258 -1.6211 0.9745
3.9508 4.5151 -1.5534 0.9755
2.9671 4.9454 -1.4932 0.9765
2.4285 5.0121 -1.4420 0.9773
1.0335 3.6949 -0.9934 0.9843
0.5319 5.6230 -1.4624 0.9769
0.0135 2.6475 -0.6855 0.9891
-1.7017 6.3312 -1.6974 0.9733
-2.0281 5.5254 -1.5240 0.9760
-3.6533 7.7399 -2.2160 0.9653
-4.2569 7.2617 -2.1794 0.9658
-5.7160 5.5751 -2.0674 0.9675
-6.0796 4.9537 -2.0305 0.9681
-6.3813 4.3142 -1.9944 0.9687
-7.3301 3.2387 -2.0749 0.9674
-7.4082 -0.2227 -1.9190 0.9698
-7.2626 -0.8703 -1.8939 0.9702
-7.0696 -1.4957 -1.8710 0.9706
-6.8319 -2.0962 -1.8503 0.9709
-6.2329 -3.2144 -1.8158 0.9714
-5.8767 -3.7284 -1.8020 0.9717
-5.4859 -4.2102 -1.7905 0.9718
-4.1290 -5.4478 -1.7699 0.9722
-3.6227 -5.7868 -1.7677 0.9722
-3.0928 -6.0869 -1.7678 0.9722
-2.5417 -6.3470 -1.7702 0.9721
-0.7819 -6.8746 -1.7914 0.9718
-0.1673 -6.9622 -1.8032 0.9716
1.0891 -6.9971 -1.8335 0.9712
2.3636 -6.8369 -1.8730 0.9706
3.0000 -6.6805 -1.8961 0.9702
3.6311 -6.4719 -1.9214 0.9698
4.2532 -6.2100 -1.9488 0.9694
5.4533 -5.5241 -2.0098 0.9684
6.5631 -4.6205 -2.0782 0.9674
7.0710 -4.0880 -2.1148 0.9668
7.5288 -3.4983 -2.1495 0.9663
7.3904 -2.6622 -2.0339 0.9681
8.0285 -1.3560 -2.1082 0.9669
8.2617 -0.6465 -2.1456 0.9663
8.4300 0.0938 -2.1828 0.9658
8.5285 0.8586 -2.2193 0.9652
8.4976 2.4323 -2.2885 0.9641
8.1305 3.1348 -2.2562 0.9646
6.2014 3.7718 -1.8793 0.9705
3.6882 4.6795 -1.5427 0.9757
3.1820 4.8753 -1.5074 0.9762
2.6321 4.9460 -1.4506 0.9771
2.1555 5.1006 -1.4337 0.9774
1.6860 5.2524 -1.4283 0.9775
1.2162 5.4037 -1.4341 0.9774
-0.1339 2.8926 -0.7498 0.9881
-0.8254 6.0546 -1.5821 0.9751
-1.4273 6.2448 -1.6586 0.9739
-1.7712 5.4555 -1.4851 0.9766
-3.3808 7.9267 -2.2312 0.9650
-4.0075 7.4708 -2.1950 0.9656
-5.0912 6.4156 -2.1206 0.9667
-5.9329 5.2199 -2.0461 0.9679
-6.2608 4.5873 -2.0096 0.9684
-6.5272 3.9403 -1.9741 0.9690
-7.5283 0.7327 -1.9584 0.9692
-7.4550 0.0582 -1.9303 0.9697
-7.3303 -0.5981 -1.9043 0.9701
-6.9381 -1.8446 -1.8588 0.9708
-6.6758 -2.4298 -1.8394 0.9711
-6.3730 -2.9870 -1.8223 0.9713
-6.0322 -3.5142 -1.8076 0.9716
-5.2461 -4.4723 -1.7849 0.9719
-4.8055 -4.9003 -1.7771 0.9720
-4.3363 -5.2925 -1.7715 0.9721
-3.3204 -5.9644 -1.7675 0.9722
-2.7780 -6.2416 -1.7689 0.9722
