ply
format ascii 1.0
element vertex 1595
property float32 x
property float32 y
property float32 z
property float32 I
end_header
1.5480 5.2774 -1.4240 0.9775
1.0763 5.4252 -1.4321 0.9774
0.5952 5.5754 -1.4518 0.9771
0.0443 2.6260 -0.6800 0.9892
-0.4287 5.8932 -1.5299 0.9759
-1.6082 6.2566 -1.6726 0.9737
-1.9299 5.4371 -1.4938 0.9764
-4.7445 6.7949 -2.1457 0.9663
-5.2400 6.2334 -2.1085 0.9669
-0.1707 2.8662 -0.8128 0.9881
-1.8437 5.4191 -1.6205 0.9765
-3.1498 7.1023 -2.1995 0.9682
-3.7164 6.6924 -2.1671 0.9687
-4.2338 6.2366 -2.1339 0.9691
-4.6990 5.7414 -2.1003 0.9696
-6.0091 3.4963 -1.9681 0.9715
-6.8236 2.4752 -2.0549 0.9703
-6.1263 -2.3615 -1.8587 0.9731
-5.8415 -2.8753 -1.8431 0.9733
-5.5207 -3.3612 -1.8297 0.9735
-4.3655 -4.6351 -1.8025 0.9739
-2.9671 -5.6034 -1.7949 0.9740
-0.8252 -6.3596 -1.8154 0.9737
-0.2550 -6.4452 -1.8260 0.9735
0.3242 -6.4871 -1.8387 0.9734
0.9100 -6.4842 -1.8536 0.9731
1.4994 -6.4354 -1.8706 0.9729
2.0896 -6.3397 -1.8897 0.9726
2.6775 -6.1961 -1.9108 0.9723
3.2595 -6.0039 -1.9340 0.9720
3.8321 -5.7624 -1.9591 0.9716
4.3913 -5.4711 -1.9860 0.9713
5.4527 -4.7389 -2.0451 0.9704
6.4068 -3.8100 -2.1102 0.9695
6.8231 -3.2708 -2.1420 0.9690
2.3947 -0.8946 -0.7237 0.9894
7.0039 -1.9236 -2.0562 0.9703
7.4713 -0.6672 -2.1235 0.9693
7.6188 0.0032 -2.1568 0.9688
7.7030 0.6944 -2.1895 0.9684
7.2040 3.4609 -2.2626 0.9673
2.6646 4.9180 -1.5835 0.9770
1.7151 5.2180 -1.5549 0.9774
0.8598 3.7042 -1.0765 0.9843
0.7691 5.5143 -1.5762 0.9771
-0.1118 2.7653 -0.7835 0.9886
-0.7830 5.9951 -1.7116 0.9752
-1.3774 6.1778 -1.7918 0.9740
-1.7346 5.4365 -1.6155 0.9766
-3.5996 6.7839 -2.1741 0.9686
-4.1277 6.3373 -2.1410 0.9690
-5.0270 5.3285 -2.0738 0.9700
-5.3945 4.7794 -2.0403 0.9705
-5.9617 3.6228 -1.9749 0.9714
-6.8980 1.9655 -2.0305 0.9706
-6.9356 0.6861 -1.9730 0.9714
-6.4201 -1.7034 -1.8804 0.9728
-6.1821 -2.2484 -1.8623 0.9730
-5.2446 -3.7227 -1.8207 0.9736
-4.8653 -4.1547 -1.8112 0.9738
-4.4563 -4.5542 -1.8038 0.9739
-2.5674 -5.8023 -1.7962 0.9740
-1.5012 -6.1987 -1.8055 0.9738
-0.3775 -6.4306 -1.8236 0.9736
0.7846 -6.4886 -1.8503 0.9732
1.9638 -6.3641 -1.8855 0.9727
2.5525 -6.2308 -1.9062 0.9724
3.1360 -6.0490 -1.9289 0.9721
5.3439 -4.8265 -2.0385 0.9705
5.8429 -4.3966 -2.0701 0.9701
2.3497 -0.9293 -0.7153 0.9896
6.9418 -2.0498 -2.0491 0.9704
7.4320 -0.8069 -2.1163 0.9694
7.5925 -0.1417 -2.1498 0.9689
7.6905 0.5456 -2.1826 0.9685
7.7221 1.2486 -2.2145 0.9680
5.6798 3.9507 -1.9586 0.9716
4.9850 4.1752 -1.8408 0.9733
2.8205 4.9766 -1.6194 0.9765
1.8151 5.1865 -1.5556 0.9774
0.9259 3.6694 -1.0713 0.9844
-0.6628 5.9581 -1.6971 0.9754
-3.4805 6.8733 -2.1810 0.9685
-4.0193 6.4362 -2.1481 0.9689
-4.9415 5.4423 -2.0810 0.9699
-6.7687 2.7520 -2.0685 0.9701
-6.9416 0.8208 -1.9788 0.9714
-6.8937 0.1945 -1.9523 0.9717
-6.7968 -0.4170 -1.9277 0.9721
-6.2362 -2.1343 -1.8660 0.9730
-5.6618 -3.1574 -1.8352 0.9734
-4.9488 -4.0652 -1.8130 0.9737
-4.5459 -4.4718 -1.8052 0.9738
-4.1152 -4.8450 -1.7996 0.9739
-3.1786 -5.4857 -1.7948 0.9740
-2.1561 -5.9773 -1.7988 0.9739
-1.6180 -6.1641 -1.8041 0.9739
-0.4995 -6.4139 -1.8212 0.9736
0.0762 -6.4746 -1.8331 0.9734
1.2477 -6.4619 -1.8631 0.9730
2.4272 -6.2633 -1.9016 0.9725
3.5892 -5.8715 -1.9481 0.9718
4.1547 -5.6015 -1.9743 0.9714
5.2340 -4.9118 -2.0320 0.9706
6.2142 -4.0243 -2.0959 0.9697
2.3489 -0.9812 -0.7206 0.9895
6.8774 -2.1743 -2.0419 0.9705
7.1599 -1.5765 -2.0755 0.9700
7.3902 -0.9454 -2.1091 0.9695
7.5634 -0.2857 -2.1427 0.9690
7.7211 1.0977 -2.2078 0.9681
6.6617 3.6321 -2.1480 0.9689
5.1262 4.1297 -1.8635 0.9730
3.9138 4.5197 -1.6925 0.9755
3.4419 4.7788 -1.6672 0.9758
2.3885 5.0055 -1.5701 0.9772
1.0032 3.6786 -1.0794 0.9843
0.9736 5.4505 -1.5674 0.9772
0.4900 5.6012 -1.5917 0.9769
-0.5446 5.9217 -1.6835 0.9756
-1.7456 6.2906 -1.8481 0.9732
-3.9086 6.5332 -2.1552 0.9688
-4.8534 5.5547 -2.0882 0.9698
-5.2446 5.0167 -2.0546 0.9703
-5.5800 4.4545 -2.0213 0.9708
-5.8595 3.8744 -1.9886 0.9712
-2.7601 1.4890 -0.8878 0.9870
-6.8620 2.2417 -2.0436 0.9704
-6.9306 1.5955 -2.0133 0.9709
-6.9452 0.9559 -1.9847 0.9713
-6.0280 -2.5496 -1.8528 0.9732
-5.7300 -3.0536 -1.8381 0.9734
-5.3968 -3.5290 -1.8254 0.9735
-4.2093 -4.7682 -1.8006 0.9739
-3.7581 -5.1142 -1.7966 0.9740
-2.7857 -5.6974 -1.7954 0.9740
-2.2687 -5.9322 -1.7980 0.9739
-0.6211 -6.3954 -1.8190 0.9736
-0.0473 -6.4654 -1.8304 0.9735
1.1220 -6.4720 -1.8595 0.9731
2.3018 -6.2936 -1.8971 0.9725
3.4670 -5.9227 -1.9428 0.9719
4.0352 -5.6633 -1.9686 0.9715
6.5641 -3.6225 -2.1224 0.9693
7.3457 -1.0826 -2.1020 0.9696
7.5315 -0.4285 -2.1355 0.9691
7.6566 0.2501 -2.1687 0.9687
7.7170 0.9472 -2.2010 0.9682
7.7090 1.6562 -2.2322 0.9678
7.4773 3.0788 -2.2892 0.9669
6.8609 3.5726 -2.1898 0.9684
6.0049 3.8453 -2.0186 0.9708
5.2710 4.0829 -1.8875 0.9727
4.6211 4.2925 -1.7855 0.9741
4.0329 4.4815 -1.7068 0.9752
3.0350 4.9085 -1.6337 0.9763
1.0750 5.4188 -1.5639 0.9773
0.0440 2.6070 -0.7381 0.9892
-0.4282 5.8857 -1.6706 0.9758
-1.6060 6.2479 -1.8262 0.9735
-1.9273 5.4297 -1.6311 0.9763
-3.2360 7.0453 -2.1948 0.9683
-3.7956 6.6282 -2.1623 0.9687
-4.7628 5.6658 -2.0954 0.9697
-0.1686 2.8307 -0.8722 0.9882
-1.5096 6.2103 -1.9658 0.9736
-2.8718 6.4754 -2.1788 0.9708
-3.3928 6.1096 -2.1495 0.9712
-3.8703 5.7010 -2.1194 0.9716
-4.3014 5.2555 -2.0889 0.9720
-5.5300 3.2176 -1.9679 0.9736
-2.8248 1.3211 -0.9592 0.9870
-6.2952 2.2836 -2.0597 0.9724
-6.3843 1.6881 -2.0312 0.9727
-6.4120 0.5110 -1.9784 0.9734
-6.2514 -0.6238 -1.9323 0.9741
-5.4325 -2.6739 -1.8623 0.9750
-5.1368 -3.1274 -1.8497 0.9751
-4.8091 -3.5535 -1.8392 0.9753
-4.4515 -3.9506 -1.8306 0.9754
-4.0661 -4.3172 -1.8241 0.9755
-3.6551 -4.6520 -1.8197 0.9755
-3.2205 -4.9535 -1.8173 0.9756
-2.7644 -5.2206 -1.8170 0.9756
0.3016 -6.0339 -1.8582 0.9750
0.8459 -6.0278 -1.8722 0.9748
1.3930 -5.9786 -1.8881 0.9746
2.4836 -5.7475 -1.9258 0.9741
5.4806 -3.9624 -2.0801 0.9721
5.8983 -3.5076 -2.1108 0.9717
6.4226 -1.7640 -2.0486 0.9725
6.8326 -0.6102 -2.1099 0.9717
6.9582 0.0029 -2.1402 0.9713
7.0258 0.6334 -2.1698 0.9709
6.8530 2.5668 -2.2508 0.9698
6.2855 3.7451 -2.2504 0.9698
5.5160 3.9951 -2.0948 0.9719
4.2331 4.4095 -1.8801 0.9747
2.6614 4.9120 -1.7183 0.9769
2.1830 5.0636 -1.6960 0.9772
0.1354 2.7556 -0.8486 0.9885
-0.1114 2.7561 -0.8484 0.9885
-0.7820 5.9872 -1.8572 0.9750
-1.3755 6.1693 -1.9441 0.9739
-3.2852 6.1914 -2.1558 0.9711
-4.6065 4.8828 -2.0647 0.9723
-5.4849 3.3331 -1.9741 0.9735
-2.7562 1.3537 -0.9445 0.9872
-6.4187 1.2218 -2.0097 0.9730
-6.3704 0.0581 -1.9595 0.9737
-6.1402 -1.0531 -1.9162 0.9743
-5.9621 -1.5818 -1.8973 0.9745
-5.7451 -2.0895 -1.8803 0.9747
-5.2026 -3.0329 -1.8523 0.9751
-4.5301 -3.8684 -1.8323 0.9754
-4.1505 -4.2417 -1.8253 0.9755
-2.3919 -5.4057 -1.8182 0.9756
-1.3981 -5.7729 -1.8269 0.9754
-0.8802 -5.8988 -1.8344 0.9753
-0.3513 -5.9847 -1.8439 0.9752
0.7295 -6.0327 -1.8690 0.9749
1.2762 -5.9927 -1.8846 0.9747
1.8234 -5.9090 -1.9020 0.9745
2.3681 -5.7807 -1.9214 0.9742
2.9070 -5.6072 -1.9427 0.9739
3.4367 -5.3881 -1.9657 0.9736
3.9536 -5.1230 -1.9904 0.9733
4.4537 -4.8121 -2.0167 0.9729
2.3494 -0.9292 -0.7771 0.9895
6.6078 -1.3232 -2.0728 0.9722
6.7987 -0.7382 -2.1034 0.9718
6.9361 -0.1295 -2.1338 0.9714
7.0362 1.1377 -2.1923 0.9706
6.9930 1.7841 -2.2198 0.9702
6.8847 2.4298 -2.2456 0.9699
6.7103 3.0675 -2.2694 0.9696
6.4649 3.6866 -2.2891 0.9693
5.6712 3.9447 -2.1248 0.9715
4.9779 4.1693 -1.9972 0.9732
4.3579 4.3694 -1.8981 0.9745
3.3258 4.8085 -1.7983 0.9758
2.8171 4.9705 -1.7573 0.9764
2.2841 5.0316 -1.6996 0.9771
0.2065 3.0237 -0.9322 0.9874
-0.0561 2.6307 -0.8093 0.9890
-1.6577 5.5598 -1.7845 0.9760
-3.1756 6.2712 -2.1621 0.9710
-3.6721 5.8802 -2.1323 0.9714
-4.1233 5.4497 -2.1019 0.9718
-2.7337 1.4081 -0.9458 0.9872
-6.2321 2.5338 -2.0692 0.9722
-6.3526 1.9419 -2.0432 0.9726
-6.4224 0.7594 -1.9892 0.9733
-6.3845 0.1801 -1.9645 0.9736
-6.1729 -0.9378 -1.9204 0.9742
-5.5483 -2.4726 -1.8683 0.9749
-5.2669 -2.9372 -1.8549 0.9751
-4.9526 -3.3752 -1.8434 0.9752
-4.2337 -4.1647 -1.8266 0.9755
-2.9615 -5.1109 -1.8168 0.9756
-2.4940 -5.3577 -1.8177 0.9756
-2.0085 -5.5681 -1.8206 0.9755
-1.5069 -5.7410 -1.8256 0.9755
-0.9917 -5.8752 -1.8327 0.9754
0.0709 -6.0236 -1.8529 0.9751
1.1595 -6.0049 -1.8811 0.9747
1.7068 -5.9305 -1.8981 0.9745
3.3247 -5.4387 -1.9606 0.9737
3.8446 -5.1834 -1.9850 0.9734
4.8328 -4.5353 -2.0385 0.9726
5.7242 -3.7069 -2.0976 0.9719
2.3458 -0.9799 -0.7820 0.9894
6.3102 -1.9950 -2.0356 0.9727
6.7623 -0.8651 -2.0969 0.9719
6.9115 -0.2610 -2.1273 0.9715
7.0076 1.6460 -2.2140 0.9703
6.9133 2.2925 -2.2402 0.9700
6.7531 2.9326 -2.2645 0.9697
5.1188 4.1237 -2.0218 0.9729
4.4850 4.3284 -1.9171 0.9743
3.4376 4.7728 -1.8091 0.9757
2.3856 4.9995 -1.7038 0.9771
1.9130 5.1488 -1.6894 0.9773
0.9915 3.6355 -1.1590 0.9844
0.9724 5.4439 -1.7009 0.9771
0.4894 5.5943 -1.7273 0.9768
-0.0057 2.5863 -0.7955 0.9892
-0.5439 5.9140 -1.8267 0.9755
-3.5699 5.9671 -2.1387 0.9713
-4.0310 5.5446 -2.1084 0.9717
-4.4448 5.0871 -2.0778 0.9721
-5.1241 4.0906 -2.0167 0.9729
-5.3879 3.5625 -1.9867 0.9733
-5.6009 3.0216 -1.9574 0.9737
-6.3223 -0.2669 -1.9463 0.9739
-5.8423 -1.8757 -1.8873 0.9746
-5.6038 -2.3702 -1.8715 0.9749
-5.3298 -2.8403 -1.8576 0.9750
-5.0223 -3.2841 -1.8457 0.9752
-4.6836 -3.7000 -1.8359 0.9753
-4.3158 -4.0862 -1.8280 0.9754
-3.9209 -4.4415 -1.8223 0.9755
-3.5011 -4.7645 -1.8186 0.9756
-2.5953 -5.3081 -1.8174 0.9756
-2.1134 -5.5263 -1.8198 0.9755
-1.1026 -5.8499 -1.8310 0.9754
0.4971 -6.0366 -1.8630 0.9750
4.7315 -4.6131 -2.0325 0.9727
5.1970 -4.2306 -2.0611 0.9723
5.6348 -3.8036 -2.0910 0.9720
6.0404 -3.3335 -2.1220 0.9715
5.9477 -2.6190 -1.9989 0.9732
6.2510 -2.1083 -2.0291 0.9728
6.5110 -1.5645 -2.0597 0.9724
6.7236 -0.9909 -2.0904 0.9720
6.8843 -0.3917 -2.1209 0.9716
7.0354 0.8636 -2.1802 0.9708
7.0193 1.5080 -2.2082 0.9704
6.9389 2.1549 -2.2348 0.9701
6.7928 2.7970 -2.2595 0.9697
6.5805 3.4266 -2.2820 0.9694
5.9956 3.8394 -2.1898 0.9706
5.2633 4.0770 -2.0477 0.9725
4.6148 4.2866 -1.9373 0.9740
3.5508 4.7366 -1.8208 0.9755
3.0313 4.9024 -1.7728 0.9762
1.5443 5.2648 -1.6876 0.9773
1.0737 5.4122 -1.6971 0.9772
-0.4276 5.8781 -1.8128 0.9756
-0.9896 6.0510 -1.8859 0.9747
-1.6037 6.2391 -1.9814 0.9734
-2.9509 6.4246 -2.1745 0.9708
-3.9365 5.6378 -2.1149 0.9716
0.0819 2.7294 -0.9077 0.9886
-0.3481 5.8462 -1.9467 0.9756
-1.8398 5.4075 -1.8987 0.9762
-3.5603 5.2444 -2.1070 0.9736
-3.9614 4.8402 -2.0791 0.9740
-4.3188 4.4063 -2.0509 0.9743
-4.6309 3.9478 -2.0228 0.9747
-5.1164 2.9769 -1.9676 0.9754
-2.8186 1.3182 -1.0343 0.9870
-5.8268 2.1136 -2.0603 0.9742
-5.9668 1.0182 -2.0121 0.9748
-5.9623 0.4751 -1.9882 0.9751
-5.9136 -0.0589 -1.9658 0.9754
-5.6908 -1.0882 -1.9259 0.9759
-5.5205 -1.5780 -1.9086 0.9761
-5.0723 -2.4967 -1.8792 0.9765
-4.1610 -3.6929 -1.8493 0.9768
-1.6797 -5.2797 -1.8417 0.9769
-0.2217 -5.6034 -1.8641 0.9766
0.2816 -5.6347 -1.8753 0.9765
0.7895 -5.6262 -1.8885 0.9763
1.8085 -5.4867 -1.9203 0.9759
2.3137 -5.3544 -1.9389 0.9757
3.3002 -4.9626 -1.9810 0.9752
3.7746 -4.7027 -2.0045 0.9749
5.0779 -3.6713 -2.0829 0.9739
5.9241 -1.6270 -2.0421 0.9744
6.2876 -0.5615 -2.0984 0.9737
6.4508 0.5816 -2.1530 0.9731
6.3911 1.7611 -2.2036 0.9724
6.2730 2.3495 -2.2266 0.9722
5.8578 3.4902 -2.2666 0.9717
3.1741 4.7817 -1.9078 0.9761
2.6581 4.9060 -1.8547 0.9768
1.7109 5.2054 -1.8214 0.9772
0.7672 5.5008 -1.8462 0.9769
0.1360 2.7689 -0.9215 0.9884
-1.3735 6.1606 -2.0981 0.9737
-2.5284 6.0081 -2.1668 0.9729
-3.4692 5.3263 -2.1129 0.9736
-4.2463 4.5010 -2.0569 0.9743
-4.8441 3.5731 -2.0008 0.9749
-5.3934 2.0738 -1.9208 0.9759
-5.9106 1.6842 -2.0429 0.9744
-5.8454 -0.4708 -1.9493 0.9756
-5.7222 -0.9814 -1.9299 0.9758
-5.1266 -2.4030 -1.8820 0.9764
-4.8594 -2.8329 -1.8697 0.9766
-4.5613 -3.2377 -1.8594 0.9767
-4.2343 -3.6159 -1.8509 0.9768
-3.8805 -3.9657 -1.8443 0.9769
-3.5017 -4.2859 -1.8397 0.9769
-3.1002 -4.5750 -1.8370 0.9770
-2.6779 -4.8319 -1.8363 0.9770
-1.7792 -5.2440 -1.8407 0.9769
-1.3071 -5.3970 -1.8459 0.9769
0.1738 -5.6313 -1.8728 0.9765
1.1907 -5.5910 -1.9002 0.9762
2.7065 -5.2206 -1.9547 0.9755
3.1971 -5.0125 -1.9762 0.9753
4.1358 -4.4685 -2.0239 0.9747
4.5764 -4.1333 -2.0498 0.9743
4.9927 -3.7568 -2.0769 0.9740
5.3804 -3.3403 -2.1051 0.9737
5.8746 -1.7347 -2.0361 0.9745
6.4437 0.4571 -2.1473 0.9731
6.4549 1.0437 -2.1735 0.9728
6.4086 1.6350 -2.1985 0.9725
6.3032 2.2246 -2.2219 0.9722
5.6301 3.9162 -2.2797 0.9715
4.9707 4.1633 -2.1553 0.9730
4.3519 4.3634 -2.0485 0.9744
3.7867 4.5454 -1.9665 0.9754
0.8695 5.4689 -1.8407 0.9769
0.2082 3.0490 -1.0159 0.9872
-0.6611 5.9424 -1.9875 0.9751
-1.2425 6.1206 -2.0760 0.9740
-1.6584 5.5622 -1.9293 0.9758
-2.9166 5.7596 -2.1460 0.9732
-3.3763 5.4066 -2.1188 0.9735
-4.1718 4.5946 -2.0629 0.9742
-4.7891 3.6757 -2.0068 0.9749
-5.0285 3.1886 -1.9792 0.9752
-2.7351 1.4088 -1.0227 0.9871
-5.9549 1.2517 -2.0227 0.9747
-5.9697 0.7059 -1.9982 0.9750
-5.9396 0.1676 -1.9752 0.9753
-5.8664 -0.3599 -1.9537 0.9755
-4.9191 -2.7432 -1.8722 0.9765
-3.5845 -4.2202 -1.8405 0.9769
-0.4344 -5.5781 -1.8598 0.9767
0.5725 -5.6348 -1.8827 0.9764
1.5916 -5.5303 -1.9129 0.9760
2.0988 -5.4160 -1.9308 0.9758
3.0934 -5.0604 -1.9715 0.9753
4.0390 -4.5346 -2.0186 0.9747
5.3003 -3.4324 -2.0990 0.9737
5.6594 -2.9837 -2.1267 0.9734
2.3428 -0.9786 -0.8440 0.9894
5.8233 -1.8411 -2.0301 0.9746
6.3560 -0.2401 -2.1143 0.9735
6.4573 0.9180 -2.1680 0.9729
6.4234 1.5088 -2.1933 0.9726
5.6954 3.8023 -2.2763 0.9715
5.1114 4.1177 -2.1818 0.9727
3.3700 4.6789 -1.9167 0.9760
2.9201 4.9305 -1.9048 0.9761
2.3827 4.9934 -1.8391 0.9769
1.9106 5.1426 -1.8236 0.9771
0.9856 3.6138 -1.2451 0.9843
0.4888 5.5874 -1.8644 0.9766
-0.5432 5.9062 -1.9715 0.9753
-1.7406 6.2726 -2.1638 0.9729
-2.0561 5.4597 -1.9393 0.9757
-2.8136 5.8296 -2.1517 0.9731
-3.7097 5.1026 -2.0970 0.9738
-4.0953 4.6870 -2.0689 0.9741
-4.7321 3.7776 -2.0127 0.9748
-4.9813 3.2937 -1.9850 0.9751
-5.1841 2.7967 -1.9580 0.9755
-5.8718 1.9183 -2.0533 0.9743
-5.9704 0.8218 -2.0033 0.9749
-5.9497 0.2816 -1.9799 0.9752
-5.7796 -0.7655 -1.9379 0.9757
-5.6338 -1.2667 -1.9195 0.9760
-4.3772 -3.4579 -1.8543 0.9768
-4.0346 -3.8200 -1.8469 0.9769
-3.6662 -4.1530 -1.8414 0.9769
-2.4271 -4.9641 -1.8368 0.9770
-1.9763 -5.1678 -1.8391 0.9769
-1.0307 -5.4682 -1.8497 0.9768
-0.5402 -5.5629 -1.8578 0.9767
-0.0411 -5.6192 -1.8679 0.9766
0.4641 -5.6363 -1.8799 0.9764
0.9731 -5.6132 -1.8937 0.9763
1.4830 -5.5493 -1.9094 0.9761
1.9910 -5.4439 -1.9268 0.9759
2.4942 -5.2964 -1.9460 0.9756
3.9414 -4.5988 -2.0133 0.9748
4.3912 -4.2814 -2.0386 0.9745
5.2188 -3.5228 -2.0930 0.9738
5.5883 -3.0840 -2.1217 0.9735
6.3325 -0.3603 -2.1084 0.9736
6.4570 0.7926 -2.1625 0.9730
6.4355 1.3826 -2.1880 0.9726
6.3554 1.9737 -2.2121 0.9723
6.0165 3.1329 -2.2548 0.9718
4.0223 4.4696 -1.9988 0.9750
3.0193 4.8830 -1.9084 0.9761
1.9934 5.0670 -1.8100 0.9773
0.0438 2.5963 -0.8632 0.9891
-0.4271 5.8705 -1.9565 0.9755
-1.6014 6.2302 -2.1383 0.9732
-1.9221 5.4151 -1.9101 0.9761
-2.7089 5.8977 -2.1573 0.9730
-3.6219 5.1871 -2.1029 0.9737
-4.0167 4.7782 -2.0749 0.9740
0.0823 2.7431 -0.9814 0.9884
-0.1698 2.8520 -1.0217 0.9879
-0.9017 6.0084 -2.1727 0.9745
-2.8803 5.1867 -2.1216 0.9751
-3.2926 4.8501 -2.0963 0.9754
-4.7553 2.7668 -1.9674 0.9769
-2.8148 1.3165 -1.1113 0.9869
-5.0440 1.8297 -1.9188 0.9775
-5.5658 0.9497 -2.0191 0.9763
-5.5660 0.4436 -1.9968 0.9766
-5.5247 -0.0550 -1.9758 0.9768
-5.4433 -0.5431 -1.9562 0.9770
-5.3237 -1.0180 -1.9383 0.9772
-4.9764 -1.9182 -1.9072 0.9776
-4.7525 -2.3393 -1.8943 0.9777
-3.9026 -3.4635 -1.8660 0.9781
-3.5663 -3.7866 -1.8601 0.9781
-3.2068 -4.0814 -1.8562 0.9782
-2.8260 -4.3467 -1.8540 0.9782
-2.0084 -4.7836 -1.8553 0.9782
-1.5757 -4.9530 -1.8587 0.9782
-0.2079 -5.2528 -1.8799 0.9779
0.2639 -5.2801 -1.8906 0.9778
1.2165 -5.2212 -1.9172 0.9775
2.6277 -4.8402 -1.9695 0.9769
3.0816 -4.6338 -1.9901 0.9766
3.5218 -4.3878 -2.0120 0.9764
3.9449 -4.1024 -2.0353 0.9761
4.7254 -3.4165 -2.0853 0.9755
2.4171 -0.9030 -0.9227 0.9891
5.8167 -0.5194 -2.0884 0.9755
5.9110 0.0025 -2.1138 0.9752
5.9560 0.5369 -2.1386 0.9749
5.8902 1.6231 -2.1849 0.9744
5.6087 2.6945 -2.2252 0.9739
5.3867 3.2095 -2.2423 0.9737
5.1120 3.7025 -2.2572 0.9735
4.2216 4.3975 -2.1799 0.9744
3.0848 4.6472 -1.9947 0.9766
2.1777 5.0511 -1.9670 0.9769
0.8067 3.4754 -1.2759 0.9850
0.7663 5.4939 -1.9837 0.9767
0.1370 2.7883 -0.9983 0.9882
-0.7799 5.9711 -2.1535 0.9747
-1.7315 5.4266 -2.0370 0.9761
-2.3334 5.5445 -2.1512 0.9748
-3.5906 4.5620 -2.0761 0.9756
-3.9341 4.1701 -2.0501 0.9759
-4.2366 3.7535 -2.0241 0.9762
-4.4969 3.3170 -1.9983 0.9765
-4.7145 2.8649 -1.9728 0.9768
-2.7553 1.3533 -1.0977 0.9870
-5.0213 1.9307 -1.9238 0.9774
-5.5602 1.0584 -2.0241 0.9762
-5.5695 0.5510 -2.0014 0.9765
-5.3523 -0.9179 -1.9420 0.9772
-5.2037 -1.3806 -1.9253 0.9774
-5.0199 -1.8258 -1.9102 0.9776
-4.5545 -2.6551 -1.8853 0.9779
-3.6401 -3.7200 -1.8612 0.9781
-3.2853 -4.0210 -1.8569 0.9782
-2.9089 -4.2927 -1.8543 0.9782
-2.5127 -4.5338 -1.8537 0.9782
-2.0988 -4.7432 -1.8548 0.9782
-0.3077 -5.2421 -1.8779 0.9779
0.1628 -5.2774 -1.8881 0.9778
1.1148 -5.2348 -1.9140 0.9775
1.5909 -5.1556 -1.9295 0.9773
2.5295 -4.8791 -1.9653 0.9769
2.9858 -4.6812 -1.9856 0.9767
3.8563 -4.1665 -2.0302 0.9762
4.6470 -3.4967 -2.0797 0.9756
5.3169 -2.6748 -2.1284 0.9750
5.4467 -1.6083 -2.0309 0.9762
5.6400 -1.1294 -2.0570 0.9759
5.7904 -0.6287 -2.0829 0.9756
5.8949 -0.1100 -2.1084 0.9753
5.9507 0.4221 -2.1333 0.9750
5.1749 3.5995 -2.2542 0.9736
4.8602 4.0708 -2.2671 0.9734
4.3459 4.3574 -2.2008 0.9742
3.7816 4.5393 -2.1128 0.9752
2.2785 5.0192 -1.9712 0.9769
0.8753 3.4691 -1.2795 0.9849
0.8684 5.4621 -1.9778 0.9768
0.3833 5.6129 -2.0119 0.9764
-0.6602 5.9345 -2.1353 0.9750
-1.2242 6.0306 -2.2006 0.9742
-2.2323 5.6011 -2.1562 0.9747
-2.6936 5.3192 -2.1322 0.9750
-3.8642 4.2559 -2.0557 0.9759
-4.4449 3.4116 -2.0038 0.9765
-4.9966 2.0315 -1.9289 0.9773
-5.4839 1.6764 -2.0507 0.9759
-5.5527 1.1672 -2.0291 0.9762
-5.5711 0.6587 -2.0061 0.9765
-5.4828 -0.3364 -1.9644 0.9769
-5.3793 -0.8172 -1.9457 0.9772
-5.2384 -1.2833 -1.9287 0.9773
-5.0620 -1.7324 -1.9133 0.9775
-4.8519 -2.1622 -1.8996 0.9777
-4.6100 -2.5709 -1.8876 0.9778
-4.3382 -2.9565 -1.8774 0.9779
-4.0385 -3.3175 -1.8690 0.9780
-3.3629 -3.9592 -1.8576 0.9782
-2.5987 -4.4850 -1.8536 0.9782
-2.1884 -4.7012 -1.8544 0.9782
-1.7620 -4.8849 -1.8570 0.9782
-1.3216 -5.0349 -1.8615 0.9781
-0.4073 -5.2298 -1.8759 0.9780
0.5363 -5.2789 -1.8975 0.9777
1.9631 -5.0658 -1.9428 0.9772
3.3359 -4.4976 -2.0025 0.9765
3.7668 -4.2289 -2.0252 0.9762
4.1785 -3.9212 -2.0492 0.9760
4.5674 -3.5753 -2.0743 0.9757
5.2552 -2.7706 -2.1245 0.9751
2.3396 -0.9773 -0.9067 0.9893
5.6023 -1.2335 -2.0514 0.9759
5.7621 -0.7371 -2.0774 0.9756
5.8766 -0.2220 -2.1030 0.9753
5.9430 0.3077 -2.1281 0.9750
5.9588 0.8472 -2.1523 0.9748
5.4880 2.9922 -2.2353 0.9738
5.2355 3.4953 -2.2512 0.9736
4.9315 3.9728 -2.2646 0.9735
3.8983 4.5018 -2.1296 0.9750
2.8434 4.8010 -1.9954 0.9766
2.3797 4.9872 -1.9761 0.9768
1.9083 5.1362 -1.9594 0.9770
0.9700 5.4305 -1.9727 0.9768
0.4882 5.5803 -2.0032 0.9765
-0.0057 2.5792 -0.9223 0.9891
-2.0524 5.4498 -2.0825 0.9756
-2.5979 5.3827 -2.1374 0.9749
-4.3911 3.5054 -2.0093 0.9764
-4.6269 3.0594 -1.9836 0.9767
-5.4609 1.7840 -2.0544 0.9759
-5.5432 1.2761 -2.0341 0.9761
-5.5708 0.7668 -2.0109 0.9764
-5.4046 -0.7158 -1.9496 0.9771
-5.2715 -1.1853 -1.9322 0.9773
-4.6642 -2.4856 -1.8900 0.9778
-4.3986 -2.8763 -1.8794 0.9779
-3.0720 -4.1804 -1.8552 0.9782
-2.6840 -4.4347 -1.8537 0.9782
-2.2774 -4.6578 -1.8541 0.9782
-1.8542 -4.8485 -1.8563 0.9782
-0.9666 -5.1285 -1.8663 0.9781
-0.0386 -5.2669 -1.8835 0.9779
1.3881 -5.1942 -1.9227 0.9774
1.8625 -5.0925 -1.9391 0.9772
2.3317 -4.9514 -1.9572 0.9770
3.6764 -4.2895 -2.0203 0.9763
4.4865 -3.6523 -2.0688 0.9757
4.8549 -3.2771 -2.0947 0.9754
5.1918 -2.8651 -2.1206 0.9751
5.3520 -1.8051 -2.0198 0.9763
5.7317 -0.8447 -2.0718 0.9757
5.7225 2.3563 -2.2131 0.9741
5.5349 2.8822 -2.2316 0.9738
5.2938 3.3899 -2.2480 0.9736
5.0006 3.8734 -2.2620 0.9735
4.6018 4.2746 -2.2461 0.9737
3.3426 4.4589 -1.9928 0.9766
2.4815 4.9549 -1.9817 0.9767
1.5405 5.2519 -1.9573 0.9770
1.0711 5.3989 -1.9683 0.9769
0.5923 5.5480 -1.9953 0.9766
-0.4265 5.8627 -2.1021 0.9753
-0.9869 6.0345 -2.1866 0.9744
-1.5235 5.9271 -2.1885 0.9743
-1.9196 5.4080 -2.0522 0.9759
-2.5007 5.4445 -2.1425 0.9749
-2.9431 5.1395 -2.1179 0.9752
-3.3500 4.7978 -2.0926 0.9754
-3.7190 4.4240 -2.0668 0.9757
0.0820 2.7303 -1.0468 0.9884
-0.8496 5.6610 -2.1937 0.9758
-3.0589 4.5058 -2.0870 0.9769
-3.7245 3.7999 -2.0391 0.9775
-4.0013 3.4110 -2.0149 0.9777
-4.4372 2.5817 -1.9673 0.9782
-5.1594 1.3642 -2.0451 0.9774
-5.2100 0.8890 -2.0254 0.9776
-5.1055 -0.5094 -1.9662 0.9783
-4.6748 -1.8020 -1.9200 0.9788
-3.9626 -2.9280 -1.8881 0.9791
-3.6709 -3.2579 -1.8809 0.9792
-2.6592 -4.0902 -1.8696 0.9793
-1.4825 -4.6600 -1.8740 0.9793
-1.0629 -4.7866 -1.8790 0.9792
0.2480 -4.9628 -1.9042 0.9789
3.2974 -4.1082 -2.0187 0.9777
4.7370 -2.8170 -2.1120 0.9767
4.6673 -2.2374 -1.9835 0.9781
4.9070 -1.8332 -2.0074 0.9778
5.2790 -0.9527 -2.0557 0.9773
5.5150 1.0001 -2.1479 0.9763
5.4558 1.5034 -2.1687 0.9760
4.0753 4.2451 -2.2551 0.9751
2.9546 4.4510 -2.0473 0.9774
2.6514 4.8936 -2.1329 0.9764
1.7067 5.1925 -2.0946 0.9769
0.7653 5.4870 -2.1231 0.9765
0.1362 2.7713 -1.0633 0.9882
-0.1061 2.6243 -1.0065 0.9888
-1.2374 5.5498 -2.1790 0.9759
-1.7125 5.3672 -2.1590 0.9762
-2.1637 5.1414 -2.1376 0.9764
-2.9795 4.5744 -2.0920 0.9769
-2.7553 1.3533 -1.1764 0.9869
-5.2039 0.9906 -2.0300 0.9776
-5.1242 -0.4127 -1.9700 0.9782
-4.8855 -1.2962 -1.9370 0.9786
-4.7153 -1.7149 -1.9228 0.9787
-4.2815 -2.4960 -1.8992 0.9790
-4.0215 -2.8545 -1.8899 0.9791
-3.4245 -3.4997 -1.8764 0.9792
-2.3644 -4.2663 -1.8692 0.9793
-1.9749 -4.4631 -1.8703 0.9793
-1.1534 -4.7623 -1.8778 0.9792
-0.7256 -4.8627 -1.8841 0.9792
-0.2894 -4.9291 -1.8922 0.9791
0.5994 -4.9566 -1.9133 0.9788
1.0470 -4.9165 -1.9264 0.9787
1.4935 -4.8398 -1.9410 0.9785
1.9360 -4.7260 -1.9572 0.9784
2.3718 -4.5749 -1.9748 0.9782
2.7979 -4.3866 -1.9939 0.9780
3.9864 -3.6004 -2.0585 0.9773
4.6706 -2.8996 -2.1067 0.9767
4.9565 -2.4935 -2.1262 0.9765
5.4742 -0.1022 -2.0982 0.9768
5.5213 0.3917 -2.1212 0.9766
5.4726 1.3962 -2.1644 0.9761
5.2260 2.3890 -2.2020 0.9757
4.7820 3.3262 -2.2323 0.9754
4.4892 3.7600 -2.2441 0.9752
3.0561 4.4185 -2.0588 0.9772
2.2756 5.0129 -2.1097 0.9767
0.8673 5.4552 -2.1168 0.9766
-0.6351 5.7088 -2.2012 0.9757
-1.1333 5.5828 -2.1831 0.9759
-1.6130 5.4099 -2.1634 0.9761
-2.4993 4.9356 -2.1201 0.9766
-2.8985 4.6415 -2.0970 0.9768
-4.1424 3.1794 -2.0011 0.9779
-4.3575 2.7632 -1.9773 0.9781
-4.6684 1.8980 -1.9312 0.9786
-5.1207 1.5654 -2.0520 0.9773
-5.1983 0.1467 -1.9929 0.9780
-5.0471 -0.7667 -1.9563 0.9784
-4.9176 -1.2047 -1.9402 0.9785
-4.7543 -1.6271 -1.9257 0.9787
-4.3333 -2.4166 -1.9014 0.9790
-4.0792 -2.7800 -1.8917 0.9791
-3.7984 -3.1202 -1.8838 0.9792
-3.4927 -3.4357 -1.8775 0.9792
-3.1641 -3.7251 -1.8730 0.9793
-2.8143 -3.9871 -1.8702 0.9793
-2.4454 -4.2203 -1.8692 0.9793
-2.0593 -4.4237 -1.8699 0.9793
-1.6579 -4.5962 -1.8724 0.9793
-0.3830 -4.9178 -1.8903 0.9791
0.5040 -4.9605 -1.9107 0.9789
0.9515 -4.9281 -1.9234 0.9787
2.7080 -4.4299 -1.9897 0.9780
3.1243 -4.2123 -2.0098 0.9778
3.5253 -3.9578 -2.0311 0.9776
4.6028 -2.9807 -2.1014 0.9768
4.8996 -2.5832 -2.1226 0.9766
5.0290 -1.5899 -2.0212 0.9777
5.3565 -0.6853 -2.0694 0.9771
5.5152 0.2856 -2.1164 0.9766
5.3994 1.7905 -2.1799 0.9759
5.0745 2.7668 -2.2149 0.9755
4.5555 3.6699 -2.2418 0.9753
3.8588 4.4562 -2.2590 0.9751
3.1587 4.3856 -2.0712 0.9771
0.9904 3.6316 -1.4425 0.9840
0.4876 5.5732 -2.1439 0.9763
-1.0285 5.6137 -2.1871 0.9758
-1.9744 5.2428 -2.1469 0.9763
-4.0914 3.2662 -2.0062 0.9778
-4.6428 1.9917 -1.9360 0.9786
-4.7474 1.5509 -1.9139 0.9788
-5.2056 0.2464 -1.9971 0.9779
-5.0702 -0.6715 -1.9600 0.9783
-4.7919 -1.5384 -1.9287 0.9787
-4.6032 -1.9470 -1.9153 0.9788
-4.3839 -2.3362 -1.9037 0.9789
-4.1357 -2.7044 -1.8936 0.9791
-3.5599 -3.3706 -1.8787 0.9792
-3.2360 -3.6657 -1.8738 0.9793
-2.8906 -3.9336 -1.8707 0.9793
-2.5256 -4.1731 -1.8693 0.9793
-1.7447 -4.5620 -1.8717 0.9793
-0.9092 -4.8240 -1.8812 0.9792
-0.0363 -4.9515 -1.8975 0.9790
3.0367 -4.2618 -2.0054 0.9778
3.4412 -4.0151 -2.0265 0.9776
3.8278 -3.7321 -2.0487 0.9774
4.5337 -3.0603 -2.0962 0.9768
4.8410 -2.6716 -2.1189 0.9766
4.7575 -2.0949 -1.9921 0.9780
5.1766 -1.2438 -2.0402 0.9775
5.5069 0.1799 -2.1115 0.9767
5.5272 0.6784 -2.1340 0.9764
5.4994 1.1815 -2.1555 0.9762
5.4223 1.6839 -2.1758 0.9760
5.2953 2.1804 -2.1946 0.9758
5.1186 2.6654 -2.2115 0.9756
4.8929 3.1332 -2.2265 0.9754
4.3013 3.9954 -2.2497 0.9752
3.9408 4.3791 -2.2576 0.9751
2.7856 4.5050 -2.0298 0.9776
2.4783 4.9486 -2.1209 0.9766
-1.8780 5.2907 -2.1514 0.9762
-2.3196 5.0501 -2.1297 0.9765
-3.4584 4.1141 -2.0596 0.9772
0.0817 2.7229 -1.1149 0.9883
-0.3186 5.3495 -2.1933 0.9771
-0.7896 5.2616 -2.1775 0.9773
-1.2467 5.1287 -2.1602 0.9774
-2.1014 4.7382 -2.1214 0.9778
-2.4916 4.4867 -2.1005 0.9781
-3.1827 3.8887 -2.0566 0.9785
-3.4791 3.5495 -2.0342 0.9787
-3.9658 2.8100 -1.9892 0.9792
-4.1543 2.4172 -1.9671 0.9794
-4.8353 1.2785 -2.0470 0.9786
-2.1312 0.3637 -0.8848 0.9907
-1.9081 -0.0190 -0.7810 0.9918
-1.9577 -0.1953 -0.8052 0.9915
-2.2141 -0.4234 -0.9226 0.9903
-3.7360 -2.7606 -1.9012 0.9801
-3.4618 -3.0723 -1.8943 0.9802
-3.1646 -3.3601 -1.8891 0.9802
-2.5086 -3.8585 -1.8836 0.9803
-1.3984 -4.3955 -1.8878 0.9803
-1.0025 -4.5142 -1.8925 0.9802
-0.1842 -4.6555 -1.9069 0.9801
0.2337 -4.6768 -1.9165 0.9800
1.0758 -4.6172 -1.9403 0.9797
1.4949 -4.5354 -1.9545 0.9796
3.0966 -3.8581 -2.0247 0.9788
4.5883 -1.7141 -2.0046 0.9791
4.9284 -0.8894 -2.0496 0.9786
5.1467 0.4640 -2.1150 0.9779
4.8200 2.3156 -2.1886 0.9772
4.3843 3.1754 -2.2156 0.9769
4.1021 3.5712 -2.2260 0.9768
2.5806 4.7630 -2.2171 0.9769
2.1685 5.0299 -2.2418 0.9766
0.8255 3.5567 -1.4943 0.9843
0.7497 5.3754 -2.2213 0.9768
0.1359 2.7653 -1.1331 0.9881
-0.6902 5.2842 -2.1810 0.9772
-1.1506 5.1607 -2.1640 0.9774
-2.0147 4.7873 -2.1257 0.9778
-2.4107 4.5433 -2.1050 0.9780
-2.7783 4.2656 -2.0835 0.9782
-3.1151 3.9578 -2.0614 0.9785
-4.4845 1.2778 -1.9085 0.9800
-2.2105 0.4208 -0.9209 0.9903
-1.9072 0.0174 -0.7806 0.9918
-2.1346 -0.3661 -0.8864 0.9907
-4.2525 -1.9932 -1.9221 0.9799
-3.7914 -2.6912 -1.9029 0.9801
-3.5223 -3.0078 -1.8957 0.9802
-2.9158 -3.5688 -1.8862 0.9803
-2.5821 -3.8105 -1.8839 0.9803
-1.8630 -4.2103 -1.8843 0.9803
-1.4814 -4.3662 -1.8870 0.9803
-0.2728 -4.6467 -1.9051 0.9801
0.1443 -4.6751 -1.9143 0.9800
0.5647 -4.6697 -1.9251 0.9799
0.9860 -4.6301 -1.9375 0.9797
2.2304 -4.3021 -1.9833 0.9793
2.6295 -4.1226 -2.0013 0.9791
4.3746 -2.7158 -2.1074 0.9780
4.6367 -2.3326 -2.1243 0.9778
2.3479 -0.9286 -1.0334 0.9891
4.7390 -1.3994 -2.0223 0.9789
4.8990 -0.9810 -2.0449 0.9786
5.0214 -0.5452 -2.0672 0.9784
5.1438 0.3649 -2.1105 0.9780
5.1400 0.8311 -2.1310 0.9777
4.9966 1.7635 -2.1686 0.9774
4.8560 2.2198 -2.1852 0.9772
4.6698 2.6629 -2.2001 0.9770
4.4391 3.0877 -2.2131 0.9769
4.1657 3.4891 -2.2240 0.9768
2.2647 4.9890 -2.2424 0.9766
0.9100 3.6067 -1.5224 0.9841
0.8530 5.3653 -2.2235 0.9768
0.3683 5.3934 -2.2125 0.9769
-0.0548 2.5714 -1.0526 0.9889
-1.5007 5.0331 -2.1495 0.9776
-1.9268 4.8346 -2.1300 0.9778
-2.7024 4.3274 -2.0881 0.9782
-3.6333 3.3450 -2.0212 0.9789
-4.8743 1.0246 -2.0385 0.9787
-1.9475 -0.1195 -0.7986 0.9916
-4.4774 -1.5323 -1.9368 0.9798
-4.0840 -2.2775 -1.9138 0.9800
-3.5817 -2.9422 -1.8971 0.9802
-3.2941 -3.2404 -1.8911 0.9802
-2.3069 -3.9814 -1.8832 0.9803
-1.1726 -4.4674 -1.8903 0.9802
-0.7710 -4.5679 -1.8960 0.9802
-0.3611 -4.6363 -1.9033 0.9801
0.0550 -4.6718 -1.9122 0.9800
1.7333 -4.4728 -1.9632 0.9795
2.1439 -4.3358 -1.9796 0.9793
3.3094 -3.7154 -2.0364 0.9787
4.0011 -3.1320 -2.0796 0.9783
4.3118 -2.7923 -2.1024 0.9780
4.5840 -2.4168 -2.1209 0.9779
2.3332 -0.9746 -1.0349 0.9891
4.8680 -1.0718 -2.0401 0.9787
4.9986 -0.6395 -2.0625 0.9785
5.0896 -0.1922 -2.0845 0.9782
5.1388 0.2661 -2.1060 0.9780
5.1446 0.7314 -2.1267 0.9778
5.1055 1.1992 -2.1464 0.9776
4.8898 2.1234 -2.1818 0.9772
4.7133 2.5698 -2.1971 0.9771
4.4920 2.9989 -2.2105 0.9769
3.5601 4.1112 -2.2258 0.9768
2.3600 4.9459 -2.2429 0.9766
0.4717 5.3915 -2.2150 0.9769
-0.0060 2.7069 -1.1079 0.9884
-0.9561 5.2188 -2.1715 0.9773
-1.4070 5.0703 -2.1535 0.9775
-2.2450 4.6517 -2.1139 0.9779
-2.6251 4.3879 -2.0927 0.9781
-3.5773 3.4218 -2.0261 0.9788
-4.0379 2.6699 -1.9812 0.9793
-2.6978 1.4554 -1.2546 0.9868
-2.9155 1.2507 -1.2984 0.9864
-1.9479 0.2681 -0.8047 0.9915
-3.6400 -2.8756 -1.8986 0.9802
-3.0523 -3.4576 -1.8876 0.9803
-2.7268 -3.7107 -1.8846 0.9803
-2.0216 -4.1347 -1.8837 0.9803
-1.6457 -4.3034 -1.8857 0.9803
0.3851 -4.6762 -1.9203 0.9799
1.2271 -4.5918 -1.9452 0.9797
1.6449 -4.4974 -1.9599 0.9795
2.0570 -4.3680 -1.9760 0.9793
3.5915 -3.5017 -2.0529 0.9786
3.9315 -3.2004 -2.0748 0.9783
4.4507 -1.9598 -1.9903 0.9792
4.6599 -1.5717 -2.0127 0.9790
4.8352 -1.1618 -2.0353 0.9787
4.9740 -0.7330 -2.0577 0.9785
5.0736 -0.2887 -2.0799 0.9783
5.1319 0.1676 -2.1015 0.9781
5.1471 0.6318 -2.1224 0.9778
5.1176 1.0995 -2.1423 0.9776
5.0426 1.5660 -2.1610 0.9774
4.2874 3.3210 -2.2196 0.9768
2.7819 4.4991 -2.1650 0.9774
1.9860 5.0480 -2.2202 0.9768
0.5751 5.3874 -2.2175 0.9769
-1.3123 5.1055 -2.1575 0.9775
-2.1604 4.7035 -2.1184 0.9779
-2.9033 4.1580 -2.0756 0.9783
-3.2283 3.8403 -2.0533 0.9785
0.0826 2.7507 -1.1993 0.9881
-0.2971 4.9884 -2.1779 0.9784
-0.7367 4.9088 -2.1633 0.9786
-1.1637 4.7874 -2.1472 0.9787
-2.3300 4.1959 -2.0917 0.9793
-2.6697 3.9325 -2.0715 0.9795
-3.5076 2.9901 -2.0087 0.9801
-3.9011 2.2698 -1.9670 0.9805
-1.5962 0.5790 -0.7400 0.9926
-1.5542 0.4110 -0.7006 0.9930
-1.5263 -0.1523 -0.6685 0.9933
-1.4994 -0.2867 -0.6653 0.9934
-4.1574 -1.6025 -1.9418 0.9807
-3.9748 -1.9564 -1.9308 0.9809
-3.5304 -2.6087 -1.9131 0.9810
-3.2720 -2.9038 -1.9066 0.9811
-2.9915 -3.1763 -1.9016 0.9811
-2.6909 -3.4248 -1.8982 0.9812
-2.3717 -3.6480 -1.8963 0.9812
-0.1741 -4.3986 -1.9185 0.9810
0.2208 -4.4175 -1.9276 0.9809
1.0154 -4.3582 -1.9502 0.9807
1.4105 -4.2793 -1.9637 0.9805
1.8007 -4.1672 -1.9784 0.9804
2.5561 -3.8437 -2.0118 0.9801
3.2596 -3.3898 -2.0495 0.9797
3.5847 -3.1155 -2.0698 0.9795
3.8880 -2.8110 -2.0909 0.9793
4.0993 -1.9651 -1.9812 0.9804
4.3036 -1.6077 -2.0022 0.9802
4.4766 -1.2295 -2.0232 0.9799
4.6161 -0.8331 -2.0443 0.9797
4.7851 0.0020 -2.0854 0.9793
4.7380 1.3056 -2.1419 0.9788
4.6379 1.7371 -2.1584 0.9786
4.4953 2.1596 -2.1735 0.9785
4.0856 2.9591 -2.1985 0.9782
3.8214 3.3268 -2.2081 0.9781
3.5207 3.6674 -2.2156 0.9781
1.5896 4.8362 -2.2186 0.9780
0.8244 3.5519 -1.5891 0.9842
-1.8826 4.4734 -2.1152 0.9790
-2.2541 4.2481 -2.0959 0.9792
-2.5996 3.9911 -2.0758 0.9794
-2.9166 3.7057 -2.0552 0.9796
-3.8656 2.3491 -1.9714 0.9805
-4.1357 1.5902 -1.9310 0.9809
-1.5264 0.1510 -0.6685 0.9933
-1.5242 0.0139 -0.6643 0.9934
-1.5287 -0.1231 -0.6684 0.9933
-1.5042 -0.2580 -0.6651 0.9934
-3.8121 -2.2223 -1.9231 0.9809
-3.0531 -3.1202 -1.9025 0.9811
-2.7566 -3.3739 -1.8988 0.9812
-2.4413 -3.6026 -1.8966 0.9812
-2.1089 -3.8052 -1.8960 0.9812
-1.7613 -3.9805 -1.8970 0.9812
-1.4004 -4.1276 -1.8996 0.9812
-0.6466 -4.3334 -1.9095 0.9811
-0.2577 -4.3905 -1.9168 0.9810
0.5332 -4.4097 -1.9358 0.9808
1.3265 -4.2989 -1.9607 0.9806
2.1026 -4.0557 -1.9910 0.9803
2.8403 -3.6805 -2.0261 0.9799
3.8253 -2.8784 -2.0864 0.9793
4.1085 -2.5507 -2.1076 0.9791
4.0520 -2.0384 -1.9768 0.9804
2.3482 -0.9287 -1.1005 0.9890
4.4425 -1.3118 -2.0187 0.9800
4.8023 0.7765 -2.1201 0.9790
4.1369 2.8775 -2.1962 0.9783
2.9020 4.1958 -2.2234 0.9780
2.5161 4.4395 -2.2239 0.9780
2.1086 4.6452 -2.2233 0.9780
1.6824 4.8073 -2.2197 0.9780
0.9078 3.5977 -1.6171 0.9839
0.7947 4.9985 -2.2058 0.9782
0.3432 5.0263 -2.1957 0.9783
-0.9834 4.8441 -2.1542 0.9787
-2.8515 3.7688 -2.0597 0.9796
-3.1447 3.4634 -2.0388 0.9798
-3.4061 3.1358 -2.0177 0.9800
-1.5155 0.3186 -0.6749 0.9933
-1.5225 0.1800 -0.6682 0.9933
-1.5275 0.0431 -0.6660 0.9934
-1.5296 -0.0938 -0.6679 0.9933
-1.5122 -0.2297 -0.6666 0.9933
-1.5417 -0.3777 -0.6918 0.9931
-1.5906 -0.5444 -0.7327 0.9927
-3.8578 -2.1514 -1.9251 0.9809
-2.1811 -3.7642 -1.8960 0.9812
-1.8366 -3.9455 -1.8967 0.9812
-1.1084 -4.2229 -1.9027 0.9811
-0.7287 -4.3172 -1.9081 0.9811
0.0519 -4.4133 -1.9235 0.9809
0.8461 -4.3818 -1.9449 0.9807
1.2424 -4.3170 -1.9578 0.9806
1.6350 -4.2191 -1.9720 0.9805
3.4485 -3.2362 -2.0611 0.9796
4.5609 -1.0042 -2.0353 0.9798
4.6800 -0.5987 -2.0562 0.9796
4.6858 1.5539 -2.1515 0.9787
4.5613 1.9808 -2.1673 0.9785
4.3946 2.3960 -2.1814 0.9784
3.9387 3.1730 -2.2043 0.9782
2.9809 4.1386 -2.2228 0.9780
0.9906 3.6324 -1.6409 0.9837
0.4396 5.0242 -2.1980 0.9782
-0.0060 2.6959 -1.1749 0.9883
-0.4566 4.9646 -2.1728 0.9785
-0.8922 4.8698 -2.1576 0.9786
-1.7169 4.5591 -2.1231 0.9790
-2.4555 4.1044 -2.0845 0.9793
-2.7850 3.8307 -2.0641 0.9795
-3.0848 3.5305 -2.0433 0.9798
-3.3531 3.2074 -2.0222 0.9800
-3.5885 2.8647 -2.0011 0.9802
-2.6522 1.4308 -1.3133 0.9869
-1.5311 0.3525 -0.6847 0.9932
-1.5171 0.2088 -0.6674 0.9933
-1.5293 0.0724 -0.6672 0.9933
-1.5290 -0.0646 -0.6669 0.9933
-1.5187 -0.2011 -0.6677 0.9933
-1.5271 -0.3434 -0.6821 0.9932
-1.5831 -0.5083 -0.7246 0.9928
-3.9023 -2.0796 -1.9271 0.9809
-3.6835 -2.4087 -1.9181 0.9810
-2.2526 -3.7220 -1.8961 0.9812
-1.1883 -4.1989 -1.9018 0.9811
-0.8104 -4.2997 -1.9069 0.9811
-0.4244 -4.3700 -1.9135 0.9810
0.7613 -4.3913 -1.9424 0.9807
1.5517 -4.2427 -1.9688 0.9805
2.6873 -3.7715 -2.0183 0.9800
3.0416 -3.5489 -2.0370 0.9798
3.3790 -3.2945 -2.0567 0.9796
4.1763 -1.8390 -1.9887 0.9803
4.7477 -0.2701 -2.0725 0.9795
4.7991 0.1567 -2.0926 0.9793
4.8101 0.5904 -2.1121 0.9791
4.7797 1.0269 -2.1306 0.9789
4.7069 1.4617 -2.1480 0.9787
4.5914 1.8906 -2.1640 0.9786
4.2343 2.7115 -2.1913 0.9783
3.4040 3.7826 -2.2178 0.9780
3.0584 4.0798 -2.2222 0.9780
2.6841 4.3409 -2.2243 0.9780
1.4316 4.8805 -2.2166 0.9781
0.0460 2.7301 -1.1900 0.9882
-0.8003 4.8935 -2.1610 0.9786
-1.6326 4.5995 -2.1271 0.9789
-3.0234 3.5966 -2.0477 0.9797
-1.0897 4.4831 -2.1356 0.9799
-1.8410 4.1512 -2.1020 0.9802
-2.7989 3.4198 -2.0456 0.9807
-3.0636 3.1256 -2.0259 0.9809
-3.2982 2.8116 -2.0061 0.9811
-1.3331 0.4836 -0.6564 0.9938
-1.3193 0.2251 -0.6195 0.9941
-1.3363 -0.1333 -0.6216 0.9941
-1.3311 -0.5131 -0.6603 0.9937
-3.3429 -2.4701 -1.9240 0.9818
-3.0987 -2.7500 -1.9177 0.9819
-1.5965 -3.8026 -1.9090 0.9820
-1.2521 -3.9358 -1.9118 0.9820
0.2090 -4.1810 -1.9378 0.9817
0.5848 -4.1672 -1.9478 0.9816
0.9605 -4.1223 -1.9593 0.9815
1.7020 -3.9386 -1.9861 0.9813
2.4137 -3.6295 -2.0176 0.9810
2.7519 -3.4286 -2.0350 0.9808
3.0748 -3.1975 -2.0534 0.9806
3.8577 -1.8493 -1.9803 0.9813
4.4304 -0.3956 -2.0589 0.9806
4.4892 0.0019 -2.0780 0.9804
4.5107 0.4066 -2.0964 0.9802
4.4938 0.8149 -2.1140 0.9801
4.4376 1.2228 -2.1306 0.9799
4.3417 1.6262 -2.1461 0.9798
4.2063 2.0208 -2.1601 0.9796
3.8201 2.7668 -2.1833 0.9794
3.5721 3.1098 -2.1922 0.9793
2.9774 3.7159 -2.2041 0.9792
2.2717 4.1929 -2.2074 0.9792
1.4854 4.5193 -2.2020 0.9793
0.6530 4.6821 -2.1883 0.9794
-1.3941 4.3692 -2.1229 0.9800
-2.1140 3.9842 -2.0877 0.9803
-2.4395 3.7454 -2.0690 0.9805
-2.7387 3.4796 -2.0497 0.9807
-3.0096 3.1901 -2.0301 0.9809
-3.2507 2.8801 -2.0103 0.9810
-3.4608 2.5527 -1.9906 0.9812
-3.6389 2.2113 -1.9710 0.9814
-2.6790 1.3158 -1.3815 0.9869
-1.3364 0.1322 -0.6216 0.9941
-1.3381 -0.1078 -0.6214 0.9941
-1.3331 -0.4848 -0.6566 0.9938
-3.8005 -1.7814 -1.9429 0.9817
-3.3921 -2.4078 -1.9255 0.9818
-3.1526 -2.6921 -1.9189 0.9819
-1.9978 -3.6047 -1.9077 0.9820
-0.9738 -4.0210 -1.9151 0.9819
-0.6123 -4.1036 -1.9205 0.9819
-0.2440 -4.1568 -1.9274 0.9818
0.5046 -4.1727 -1.9456 0.9816
0.8805 -4.1345 -1.9567 0.9815
1.2544 -4.0651 -1.9692 0.9814
1.6239 -3.9642 -1.9830 0.9813
2.6810 -3.4740 -2.0312 0.9808
3.0073 -3.2493 -2.0494 0.9807
3.3162 -2.9951 -2.0684 0.9805
3.6047 -2.7124 -2.0882 0.9803
4.1760 -1.2331 -2.0155 0.9810
4.4797 -0.0836 -2.0740 0.9804
4.5007 0.7277 -2.1104 0.9801
4.4529 1.1360 -2.1272 0.9799
4.2385 1.9376 -2.1572 0.9797
4.0725 2.3223 -2.1700 0.9795
3.6279 3.0386 -2.1905 0.9794
3.3531 3.3619 -2.1979 0.9793
3.0465 3.6570 -2.2032 0.9792
2.7115 3.9203 -2.2064 0.9792
2.3514 4.1489 -2.2074 0.9792
1.9702 4.3402 -2.2063 0.9792
0.9120 3.6147 -1.7256 0.9837
0.7429 4.6727 -2.1901 0.9794
0.3210 4.7001 -2.1807 0.9794
-0.0573 2.6897 -1.2453 0.9882
-0.9207 4.5353 -2.1421 0.9798
-2.0414 4.0313 -2.0917 0.9803
-2.6772 3.5384 -2.0539 0.9806
-2.9543 3.2537 -2.0343 0.9808
-3.2019 2.9478 -2.0146 0.9810
-3.4186 2.6238 -1.9948 0.9812
-3.6036 2.2851 -1.9752 0.9814
-2.6615 1.3709 -1.3858 0.9869
-1.3278 0.5398 -0.6635 0.9937
-1.3271 0.4057 -0.6424 0.9939
-1.3385 -0.0821 -0.6208 0.9941
-1.3251 -0.2013 -0.6204 0.9941
-1.3076 -0.3204 -0.6232 0.9941
-1.3336 -0.4564 -0.6525 0.9938
-1.3184 -0.5876 -0.6681 0.9937
-3.6516 -2.0364 -1.9354 0.9817
-3.2055 -2.6332 -1.9202 0.9819
-2.9491 -2.9010 -1.9148 0.9819
-2.0662 -3.5659 -1.9077 0.9820
-1.4004 -3.8824 -1.9104 0.9820
-0.3230 -4.1479 -1.9258 0.9818
0.0492 -4.1776 -1.9339 0.9818
1.1749 -4.0825 -1.9664 0.9814
1.9100 -3.8628 -1.9946 0.9812
2.2654 -3.7059 -2.0105 0.9810
2.9391 -3.2997 -2.0454 0.9807
3.2519 -3.0517 -2.0643 0.9805
3.5450 -2.7750 -2.0839 0.9804
3.8151 -2.4706 -2.1039 0.9802
4.1430 -1.3098 -2.0113 0.9810
4.5062 0.2333 -2.0886 0.9803
4.5058 0.6406 -2.1066 0.9801
4.2689 1.8538 -2.1543 0.9797
3.6821 2.9663 -2.1887 0.9794
2.7852 3.8669 -2.2059 0.9792
2.0531 4.3026 -2.2067 0.9792
1.0211 3.7442 -1.7964 0.9830
0.4110 4.6978 -2.1829 0.9794
-0.4272 4.6456 -2.1594 0.9796
-1.2303 4.4337 -2.1299 0.9799
-1.6089 4.2724 -2.1132 0.9801
-2.3037 3.8507 -2.0771 0.9804
-2.6144 3.5961 -2.0580 0.9806
-2.8976 3.3163 -2.0385 0.9808
-3.1516 3.0147 -2.0188 0.9810
-3.3750 2.6943 -1.9990 0.9811
-3.5669 2.3584 -1.9793 0.9813
-1.3014 0.2996 -0.6181 0.9941
-1.3288 0.1829 -0.6209 0.9941
-1.3382 0.0633 -0.6201 0.9941
-1.3301 -0.1762 -0.6211 0.9941
-1.2989 -0.2921 -0.6163 0.9941
-1.3244 -0.5602 -0.6656 0.9937
-3.6935 -1.9683 -1.9373 0.9817
-2.1339 -3.5259 -1.9077 0.9820
-1.8106 -3.7031 -1.9080 0.9820
-1.4738 -3.8538 -1.9099 0.9820
-0.0306 -4.1738 -1.9320 0.9818
1.4670 -4.0111 -1.9769 0.9814
2.1905 -3.7420 -2.0070 0.9811
2.5371 -3.5607 -2.0238 0.9809
2.8701 -3.3488 -2.0415 0.9807
3.7599 -2.5380 -2.0998 0.9802
4.3740 -0.6446 -2.0465 0.9807
4.5013 0.1470 -2.0847 0.9803
4.5091 0.5535 -2.1029 0.9802
4.2975 1.7695 -2.1513 0.9797
0.5011 4.6936 -2.1849 0.9794
0.0484 2.8695 -1.3285 0.9874
-1.5298 4.3097 -2.1168 0.9800
-1.8930 4.1215 -2.0994 0.9802
-2.8396 3.3780 -2.0427 0.9807
0.0868 2.8924 -1.4194 0.9872
-0.6472 4.3127 -2.1392 0.9808
-1.3855 4.0722 -2.1100 0.9810
-1.7305 3.9019 -2.0938 0.9812
-2.0554 3.7013 -2.0767 0.9813
-2.6351 3.2197 -2.0408 0.9816
-2.8859 2.9444 -2.0224 0.9818
-3.3021 2.3397 -1.9852 0.9821
-3.4656 2.0164 -1.9668 0.9823
-1.1813 0.2016 -0.5878 0.9947
-1.1948 0.0952 -0.5879 0.9947
-1.1930 -0.1190 -0.5881 0.9947
-1.1589 -0.3313 -0.5913 0.9946
-1.1314 -0.5569 -0.6186 0.9944
-3.3803 -2.0580 -1.9412 0.9825
-3.1708 -2.3430 -1.9339 0.9826
-1.8302 -3.4564 -1.9185 0.9827
-0.5068 -3.9057 -1.9319 0.9826
-0.1563 -3.9494 -1.9388 0.9825
0.5544 -3.9502 -1.9567 0.9824
0.9102 -3.9065 -1.9675 0.9823
1.6117 -3.7297 -1.9930 0.9821
2.6026 -3.2425 -2.0395 0.9816
2.9065 -3.0225 -2.0569 0.9815
3.1929 -2.7749 -2.0750 0.9813
3.4592 -2.5010 -2.0938 0.9812
3.6957 -2.1978 -2.1091 0.9810
2.4542 -0.9168 -1.2851 0.9884
3.9642 -1.0888 -2.0166 0.9819
4.0829 -0.7369 -2.0351 0.9817
4.1696 -0.3723 -2.0534 0.9815
4.2225 0.7657 -2.1050 0.9811
4.1677 1.1484 -2.1206 0.9809
4.0759 1.5266 -2.1350 0.9808
3.0841 3.2127 -2.1845 0.9804
2.1289 3.9293 -2.1921 0.9803
1.7680 4.1010 -2.1906 0.9803
1.3922 4.2359 -2.1871 0.9803
0.6123 4.3902 -2.1743 0.9804
0.2166 4.4087 -2.1652 0.9805
-0.1023 2.5321 -1.2431 0.9888
-0.5656 4.3300 -2.1420 0.9807
-2.5781 3.2756 -2.0447 0.9816
-2.8348 3.0048 -2.0263 0.9818
-3.0636 2.7143 -2.0077 0.9819
-3.2634 2.4071 -1.9891 0.9821
-3.4333 2.0863 -1.9707 0.9823
-1.1529 0.4433 -0.6059 0.9945
-1.1589 0.3302 -0.5911 0.9946
-1.1930 0.1180 -0.5881 0.9947
-1.1947 -0.0962 -0.5879 0.9947
-1.1811 -0.2026 -0.5878 0.9947
-3.4220 -1.9949 -1.9430 0.9825
-3.2173 -2.2837 -1.9354 0.9826
-2.9907 -2.5539 -1.9291 0.9826
-2.7436 -2.8039 -1.9243 0.9827
-2.1945 -3.2385 -1.9189 0.9827
-1.8958 -3.4207 -1.9184 0.9827
-1.5833 -3.5781 -1.9193 0.9827
-0.5809 -3.8927 -1.9306 0.9826
0.1223 -3.9637 -1.9452 0.9825
0.4783 -3.9557 -1.9545 0.9824
0.8344 -3.9183 -1.9651 0.9823
1.5379 -3.7543 -1.9901 0.9821
2.2141 -3.4713 -2.0196 0.9818
2.8430 -3.0718 -2.0531 0.9815
3.6481 -2.2648 -2.1063 0.9811
2.3505 -0.9296 -1.2399 0.9888
4.2397 0.3008 -2.0849 0.9812
4.2294 0.6839 -2.1016 0.9811
4.1825 1.0671 -2.1173 0.9810
3.9778 1.8184 -2.1454 0.9807
3.6279 2.5235 -2.1677 0.9805
3.4015 2.8490 -2.1764 0.9804
2.8554 3.4275 -2.1882 0.9803
1.4734 4.2103 -2.1881 0.9803
0.9167 3.6332 -1.8380 0.9834
0.6965 4.3811 -2.1760 0.9804
-0.0574 2.6939 -1.3217 0.9881
-0.4835 4.3456 -2.1448 0.9807
-1.5856 3.9784 -2.1008 0.9811
-2.5199 3.3306 -2.0486 0.9816
-3.0172 2.7777 -2.0117 0.9819
-3.3996 2.1557 -1.9746 0.9822
-1.1589 0.3543 -0.5944 0.9946
-1.1715 0.2463 -0.5872 0.9947
-1.1907 0.1408 -0.5881 0.9947
-1.1964 0.0338 -0.5871 0.9947
-1.1610 -0.2844 -0.5863 0.9947
-1.1424 -0.5091 -0.6135 0.9944
-3.0408 -2.4979 -1.9303 0.9826
-1.6510 -3.5467 -1.9190 0.9827
-0.9961 -3.7948 -1.9245 0.9827
-0.6546 -3.8785 -1.9294 0.9826
0.4023 -3.9599 -1.9524 0.9824
0.7586 -3.9288 -1.9627 0.9823
1.4639 -3.7774 -1.9872 0.9821
1.8082 -3.6571 -2.0012 0.9820
2.4682 -3.3278 -2.0323 0.9817
2.7788 -3.1198 -2.0494 0.9816
3.5554 -1.8745 -1.9715 0.9823
2.3285 -0.9727 -1.2379 0.9888
3.9044 -1.2344 -2.0086 0.9819
4.0361 -0.8887 -2.0272 0.9818
4.1366 -0.5292 -2.0456 0.9816
4.2372 0.2194 -2.0813 0.9813
4.2347 0.6020 -2.0981 0.9811
4.1956 0.9855 -2.1141 0.9810
4.1196 1.3661 -2.1290 0.9808
4.0066 1.7399 -2.1426 0.9807
3.2008 3.0890 -2.1820 0.9804
2.2773 3.8452 -2.1922 0.9803
1.9240 4.0322 -2.1915 0.9803
0.9990 3.6632 -1.8625 0.9832
-0.4009 4.3595 -2.1475 0.9807
-1.5119 4.0146 -2.1042 0.9811
-2.4606 3.3844 -2.0525 0.9815
-2.7286 3.1229 -2.0342 0.9817
-2.9694 2.8404 -2.0157 0.9819
-3.1818 2.5400 -1.9970 0.9820
-1.1142 0.6011 -0.6210 0.9944
-1.1582 0.3784 -0.5977 0.9946
-1.1963 0.0566 -0.5875 0.9947
-1.1673 -0.2625 -0.5869 0.9947
-1.1584 -0.3719 -0.5968 0.9946
-1.1469 -0.4851 -0.6108 0.9945
-1.1171 -0.5953 -0.6209 0.9944
-3.3074 -2.1627 -1.9384 0.9825
-3.0900 -2.4410 -1.9316 0.9826
-1.7181 -3.5140 -1.9187 0.9827
-1.3985 -3.6568 -1.9205 0.9827
-1.0679 -3.7734 -1.9236 0.9827
-0.3811 -3.9247 -1.9342 0.9826
0.6827 -3.9379 -1.9604 0.9824
1.3895 -3.7993 -1.9844 0.9821
1.7354 -3.6852 -1.9981 0.9820
2.4001 -3.3684 -2.0288 0.9817
3.0118 -2.9364 -2.0633 0.9814
3.2912 -2.6792 -2.0817 0.9813
3.5495 -2.3960 -2.1006 0.9811
2.3674 -1.0424 -1.2689 0.9885
3.8724 -1.3061 -2.0046 0.9820
4.0105 -0.9637 -2.0233 0.9818
4.1179 -0.6069 -2.0417 0.9816
4.2331 0.1383 -2.0776 0.9813
4.2383 0.5202 -2.0946 0.9812
4.2070 0.9038 -2.1107 0.9810
4.1389 1.2854 -2.1259 0.9809
3.8920 2.0266 -2.1524 0.9806
3.5021 2.7127 -2.1729 0.9805
3.2571 3.0255 -2.1806 0.9804
2.3502 3.8008 -2.1920 0.9803
2.0009 3.9953 -2.1918 0.9803
1.6342 4.1539 -2.1896 0.9803
1.0868 3.7049 -1.8939 0.9829
0.0482 2.8590 -1.4026 0.9873
-0.3180 4.3717 -2.1501 0.9807
-1.0775 4.1918 -2.1230 0.9809
-1.4373 4.0492 -2.1077 0.9810
-2.1013 3.6694 -2.0742 0.9813
0.0867 2.8896 -1.4997 0.9871
-0.2453 4.1192 -2.1408 0.9816
-0.6091 4.0582 -2.1289 0.9817
-0.9633 3.9630 -2.1158 0.9818
-2.4864 3.0379 -2.0366 0.9825
-3.1205 2.2111 -1.9840 0.9829
-0.9967 0.5799 -0.5982 0.9948
-1.0405 0.4866 -0.5959 0.9948
-1.0589 0.3841 -0.5843 0.9949
-1.1050 0.0881 -0.5750 0.9950
-1.1032 -0.1101 -0.5752 0.9950
-1.0881 -0.2081 -0.5747 0.9950
-1.0560 -0.4070 -0.5871 0.9949
-0.9848 -0.5996 -0.5982 0.9948
-3.0123 -2.2259 -1.9431 0.9833
-1.1290 -3.5489 -1.9320 0.9834
-0.1485 -3.7515 -1.9477 0.9832
0.1882 -3.7650 -1.9556 0.9832
0.5263 -3.7506 -1.9648 0.9831
0.8639 -3.7080 -1.9752 0.9830
1.1988 -3.6371 -1.9867 0.9829
2.4657 -3.0721 -2.0436 0.9824
2.7525 -2.8623 -2.0601 0.9823
3.4932 -2.0774 -2.1084 0.9819
2.3140 -0.8645 -1.2815 0.9889
3.7430 -1.0280 -2.0137 0.9827
3.9771 0.7212 -2.0969 0.9820
3.9238 1.0812 -2.1115 0.9818
3.3682 2.4395 -2.1575 0.9814
3.1480 2.7405 -2.1653 0.9814
2.3218 3.4977 -2.1779 0.9813
1.6613 3.8536 -2.1770 0.9813
1.3083 3.9806 -2.1737 0.9813
0.8652 3.7276 -1.9852 0.9829
0.5756 4.1271 -2.1618 0.9814
0.2037 4.1456 -2.1532 0.9815
-0.5322 4.0742 -2.1315 0.9817
-1.5624 3.7126 -2.0896 0.9820
-1.8736 3.5311 -2.0738 0.9821
-2.1643 3.3229 -2.0573 0.9823
-2.8933 2.5634 -2.0053 0.9827
-1.0561 0.4061 -0.5870 0.9949
-1.0638 0.3031 -0.5738 0.9950
-1.0883 0.2072 -0.5747 0.9950
-1.1049 -0.0890 -0.5751 0.9950
-1.0924 -0.1873 -0.5750 0.9950
-1.0588 -0.3851 -0.5845 0.9949
-1.0403 -0.4876 -0.5960 0.9948
-3.0564 -2.1695 -1.9445 0.9833
-2.3546 -2.8819 -1.9306 0.9834
-2.0856 -3.0778 -1.9288 0.9834
-1.8017 -3.2510 -1.9282 0.9834
-1.5047 -3.4005 -1.9291 0.9834
1.1277 -3.6546 -1.9842 0.9829
1.7834 -3.4400 -2.0101 0.9827
2.0987 -3.2905 -2.0247 0.9826
2.9663 -2.6790 -2.0736 0.9821
3.4485 -2.1409 -2.1058 0.9819
3.7157 -1.0972 -2.0099 0.9827
3.8320 -0.7674 -2.0274 0.9825
3.9184 -0.4254 -2.0447 0.9824
3.9733 -0.0742 -2.0616 0.9823
3.9840 0.6442 -2.0937 0.9820
3.7424 1.7108 -2.1347 0.9816
3.5933 2.0491 -2.1459 0.9815
2.3877 3.4522 -2.1776 0.9813
1.7350 3.8219 -2.1775 0.9813
1.3846 3.9565 -2.1746 0.9813
0.6548 4.1184 -2.1634 0.9814
-0.0575 2.6991 -1.4006 0.9879
-0.4548 4.0885 -2.1341 0.9816
-0.8136 4.0077 -2.1215 0.9817
-1.8089 3.5722 -2.0772 0.9821
-2.1042 3.3694 -2.0608 0.9823
-2.6260 2.8922 -2.0266 0.9826
-2.8491 2.6230 -2.0091 0.9827
-3.0453 2.3373 -1.9915 0.9829
-0.9734 0.6173 -0.5980 0.9948
-1.0242 0.5275 -0.5977 0.9948
-1.1011 0.1302 -0.5752 0.9950
-1.1060 -0.0679 -0.5749 0.9950
-1.0961 -0.1665 -0.5751 0.9950
-1.0735 -0.2630 -0.5734 0.9950
-1.0609 -0.3631 -0.5817 0.9950
-1.0070 -0.5616 -0.5981 0.9948
-2.8891 -2.3733 -1.9397 0.9833
-2.4099 -2.8373 -1.9312 0.9834
-1.8635 -3.2160 -1.9282 0.9834
-1.5691 -3.3707 -1.9288 0.9834
-1.2628 -3.5009 -1.9308 0.9834
1.3888 -3.5837 -1.9939 0.9828
1.7149 -3.4682 -2.0072 0.9827
2.0324 -3.3247 -2.0215 0.9826
2.3389 -3.1534 -2.0368 0.9825
2.9094 -2.7303 -2.0699 0.9822
3.4027 -2.2036 -2.1031 0.9819
3.3611 -1.7721 -1.9712 0.9830
2.2913 -0.9571 -1.2882 0.9889
3.6872 -1.1657 -2.0062 0.9827
3.9643 -0.1497 -2.0581 0.9823
3.9936 0.2068 -2.0746 0.9821
3.9508 0.9280 -2.1054 0.9819
3.6279 1.9780 -2.1436 0.9816
3.4527 2.3051 -2.1537 0.9815
3.2456 2.6146 -2.1621 0.9814
2.4527 3.4053 -2.1771 0.9813
2.1398 3.6130 -2.1784 0.9813
1.4604 3.9307 -2.1754 0.9813
1.0000 3.6668 -1.9718 0.9830
0.7338 4.1081 -2.1649 0.9814
-0.7379 4.0278 -2.1243 0.9817
-1.0879 3.9206 -2.1108 0.9818
-1.4240 3.7813 -2.0961 0.9820
-2.3209 3.1923 -2.0475 0.9824
-2.5750 2.9471 -2.0303 0.9825
-1.1065 0.0524 -0.5746 0.9950
-1.0992 -0.1456 -0.5752 0.9950
-1.0625 -0.3411 -0.5789 0.9950
-1.0498 -0.4440 -0.5913 0.9949
-2.9357 -2.3192 -1.9409 0.9833
-2.4644 -2.7917 -1.9319 0.9834
-2.2023 -2.9969 -1.9294 0.9834
-1.9246 -3.1799 -1.9283 0.9834
-1.6329 -3.3397 -1.9286 0.9834
-1.3290 -3.4753 -1.9302 0.9834
-0.6918 -3.6704 -1.9377 0.9833
-0.3621 -3.7285 -1.9434 0.9833
-0.0275 -3.7596 -1.9504 0.9832
1.6460 -3.4952 -2.0042 0.9827
2.5708 -2.9996 -2.0494 0.9824
3.1148 -2.5356 -2.0836 0.9821
2.2705 -0.9998 -1.2870 0.9889
3.8853 -0.5726 -2.0374 0.9825
3.9538 -0.2250 -2.0545 0.9823
3.8961 1.2100 -2.1164 0.9818
3.0614 2.8437 -2.1676 0.9813
2.5166 3.3571 -2.1766 0.9813
2.2083 3.5713 -2.1783 0.9813
1.5356 3.9034 -2.1761 0.9813
0.4417 4.1380 -2.1589 0.9814
-0.2992 4.1125 -2.1391 0.9816
-0.6617 4.0464 -2.1271 0.9817
-1.6767 3.6505 -2.0840 0.9821
-1.9808 3.4591 -2.0679 0.9822
-2.2636 3.2418 -2.0512 0.9823
-2.5229 3.0012 -2.0340 0.9825
0.1173 3.9063 -2.1405 0.9823
-0.5744 3.8271 -2.1196 0.9825
-0.9088 3.7385 -2.1072 0.9826
-1.2313 3.6192 -2.0938 0.9827
-1.5393 3.4708 -2.0795 0.9828
-2.1010 3.0949 -2.0488 0.9831
-2.3505 2.8719 -2.0326 0.9832
-0.9130 0.5312 -0.5785 0.9952
-0.9754 0.3538 -0.5683 0.9953
-1.0143 0.1731 -0.5636 0.9953
-1.0260 0.0818 -0.5637 0.9953
-1.0244 -0.1022 -0.5639 0.9953
-1.0101 -0.1931 -0.5632 0.9953
-0.9845 -0.2814 -0.5608 0.9953
-0.9723 -0.3748 -0.5708 0.9953
-0.9463 -0.4658 -0.5777 0.9952
-0.9022 -0.5493 -0.5785 0.9952
-2.6576 -2.3586 -1.9461 0.9839
-2.4310 -2.5812 -1.9420 0.9840
-2.1874 -2.7840 -1.9392 0.9840
-1.3702 -3.2635 -1.9386 0.9840
-1.0744 -3.3771 -1.9410 0.9840
-0.7698 -3.4662 -1.9447 0.9839
-0.4581 -3.5302 -1.9497 0.9839
0.5004 -3.5661 -1.9723 0.9837
1.1392 -3.4563 -1.9932 0.9835
1.7583 -3.2387 -2.0184 0.9833
