ply
format ascii 1.0
element vertex 1596
property float32 x
property float32 y
property float32 z
property float32 I
end_header
5.1388 3.9707 -1.2206 0.9739
4.5061 4.1744 -1.1546 0.9753
3.9454 4.3712 -1.1068 0.9763
3.0680 4.9423 -1.0934 0.9766
2.4997 4.9676 -1.0453 0.9776
1.0878 5.4166 -1.0384 0.9778
-0.4063 5.8081 -1.0944 0.9766
-1.9830 5.6439 -1.1244 0.9759
-5.1480 11.3078 -2.3353 0.9507
-5.9918 10.5488 -2.2803 0.9518
-6.7417 9.7304 -2.2250 0.9530
-7.3959 8.8658 -2.1701 0.9541
-9.0722 7.5928 -2.2236 0.9530
-2.6920 1.5348 -0.5825 0.9875
-9.9975 4.5709 -2.0662 0.9562
-10.0517 0.7195 -1.8942 0.9598
-9.3747 -1.8669 -1.7967 0.9618
-9.0360 -2.6563 -1.7703 0.9624
-8.6471 -3.4064 -1.7469 0.9629
-8.2117 -4.1157 -1.7265 0.9633
-4.0969 -7.8543 -1.6651 0.9646
-3.3851 -8.2015 -1.6677 0.9645
-1.8891 -8.7446 -1.6815 0.9642
0.5067 -9.1578 -1.7239 0.9634
1.3371 -9.1814 -1.7439 0.9629
3.0305 -9.0446 -1.7929 0.9619
4.7462 -8.6469 -1.8540 0.9606
5.6030 -8.3442 -1.8892 0.9599
8.1104 -6.9914 -2.0127 0.9574
10.3880 -4.9337 -2.1616 0.9543
2.3989 -0.8867 -0.4807 0.9896
11.3298 -2.0076 -2.1627 0.9542
11.7543 -1.0137 -2.2175 0.9531
12.0918 0.0401 -2.2728 0.9520
9.5317 2.6518 -1.8596 0.9605
7.1591 3.4585 -1.4944 0.9682
5.3753 3.9086 -1.2492 0.9733
4.1193 4.3047 -1.1199 0.9760
3.7440 4.6866 -1.1275 0.9759
3.2345 4.8866 -1.1015 0.9764
2.6533 4.9108 -1.0492 0.9775
2.1837 5.0794 -1.0392 0.9777
1.7149 5.2331 -1.0351 0.9778
-0.7754 5.9290 -1.1239 0.9760
-4.8529 11.5403 -2.3531 0.9503
-5.7267 10.8037 -2.2983 0.9515
-7.1929 9.1522 -2.1880 0.9537
-8.9198 7.9186 -2.2419 0.9526
-9.3536 6.9158 -2.1865 0.9538
-9.9366 4.8981 -2.0823 0.9559
-10.0945 3.8995 -2.0340 0.9569
-10.1696 2.9166 -1.9885 0.9579
-10.1669 1.9548 -1.9460 0.9587
-10.0913 1.0187 -1.9064 0.9596
-9.9476 0.1121 -1.8699 0.9603
-9.1522 -2.4030 -1.7786 0.9622
-8.7793 -3.1660 -1.7542 0.9627
-8.3587 -3.8888 -1.7328 0.9632
-7.8936 -4.5700 -1.7144 0.9636
-6.8419 -5.8037 -1.6864 0.9641
-4.9993 -7.3187 -1.6659 0.9646
-3.6202 -8.0936 -1.6665 0.9646
-2.1393 -8.6701 -1.6785 0.9643
-1.3655 -8.8804 -1.6888 0.9641
0.2387 -9.1374 -1.7181 0.9635
1.0647 -9.1802 -1.7371 0.9631
1.9034 -9.1632 -1.7591 0.9626
2.7519 -9.0842 -1.7841 0.9621
4.4660 -8.7304 -1.8432 0.9609
5.3239 -8.4508 -1.8774 0.9602
9.4225 -5.9324 -2.0928 0.9557
2.3463 -0.9459 -0.4755 0.9898
11.5030 1.7720 -2.1876 0.9537
10.0372 2.4796 -1.9433 0.9588
8.6123 2.9647 -1.7120 0.9636
7.4817 3.3490 -1.5407 0.9672
6.4808 3.6269 -1.3959 0.9702
2.8074 4.8523 -1.0537 0.9774
1.3976 5.3291 -1.0355 0.9778
0.9214 5.4611 -1.0410 0.9777
0.2308 2.9606 -0.5582 0.9880
-0.0657 5.6963 -1.0707 0.9771
-1.1695 6.0736 -1.1626 0.9751
-1.5906 5.5404 -1.0834 0.9768
-2.5772 6.6661 -1.3433 0.9713
-5.4516 11.0518 -2.3163 0.9511
-6.2631 10.2706 -2.2611 0.9522
-7.6007 8.5569 -2.1512 0.9545
-2.7230 1.4424 -0.5792 0.9875
-10.0523 4.2239 -2.0495 0.9566
-10.1539 3.2352 -2.0031 0.9576
-10.1237 1.3211 -1.9190 0.9593
-10.0017 0.4045 -1.8815 0.9601
-9.8146 -0.4806 -1.8470 0.9608
-9.5670 -1.3313 -1.8155 0.9614
-9.2629 -2.1455 -1.7872 0.9620
-8.9064 -2.9214 -1.7618 0.9626
-8.5010 -3.6574 -1.7395 0.9630
-8.0501 -4.3523 -1.7201 0.9634
-7.5568 -5.0050 -1.7037 0.9638
-5.2135 -7.1740 -1.6669 0.9645
-4.5471 -7.6013 -1.6649 0.9646
-3.1320 -8.3105 -1.6693 0.9645
-2.3872 -8.5900 -1.6758 0.9644
-1.6202 -8.8177 -1.6851 0.9642
2.4742 -9.1170 -1.7756 0.9623
4.1856 -8.8066 -1.8327 0.9611
5.0443 -8.5498 -1.8659 0.9604
5.8993 -8.2221 -1.9021 0.9596
8.3897 -6.7899 -2.0287 0.9570
10.6179 -4.6448 -2.1783 0.9539
11.0111 -2.6210 -2.1275 0.9550
11.4865 -1.6695 -2.1817 0.9539
11.8819 -0.6541 -2.2367 0.9527
11.5253 1.4329 -2.1830 0.9538
10.5907 2.2909 -2.0367 0.9569
7.8251 3.2323 -1.5914 0.9661
6.7979 3.5482 -1.4413 0.9693
3.9348 4.3760 -1.1061 0.9763
3.5756 4.7723 -1.1209 0.9760
3.0574 4.9458 -1.0929 0.9766
2.4898 4.9712 -1.0450 0.9776
2.0210 5.1344 -1.0371 0.9778
1.5516 5.2833 -1.0350 0.9778
0.5952 5.5435 -1.0479 0.9776
0.0476 2.7005 -0.5077 0.9891
-8.5832 8.5646 -2.2791 0.9518
-9.0816 7.5717 -2.2224 0.9530
-9.4816 6.5654 -2.1677 0.9541
-2.6898 1.5269 -0.5814 0.9875
-10.0011 4.5498 -2.0652 0.9563
-10.1297 3.5559 -2.0179 0.9572
-10.1487 1.6265 -1.9319 0.9590
-10.0489 0.7002 -1.8934 0.9598
-9.8825 -0.1954 -1.8579 0.9606
-9.6542 -1.0576 -1.8255 0.9612
-8.6384 -3.4217 -1.7464 0.9629
-7.7222 -4.7967 -1.7087 0.9637
-7.2020 -5.4204 -1.6942 0.9640
-6.6440 -6.0001 -1.6827 0.9642
-6.0508 -6.5351 -1.6740 0.9644
-4.7677 -7.4671 -1.6652 0.9646
-4.0821 -7.8621 -1.6651 0.9646
-0.2923 -9.0782 -1.7072 0.9637
3.9054 -8.8754 -1.8226 0.9613
4.7643 -8.6413 -1.8547 0.9606
5.6210 -8.3370 -1.8899 0.9599
6.4708 -7.9601 -1.9282 0.9591
7.3083 -7.5082 -1.9694 0.9583
9.6827 -5.6845 -2.1104 0.9553
12.3359 1.1697 -2.3291 0.9508
11.2003 2.0831 -2.1413 0.9547
8.1921 3.1076 -1.6469 0.9650
7.1389 3.4653 -1.4916 0.9682
5.3597 3.9127 -1.2473 0.9734
4.1075 4.3086 -1.1189 0.9761
3.2237 4.8902 -1.1009 0.9764
2.6434 4.9146 -1.0489 0.9775
0.7538 5.5042 -1.0442 0.9776
0.1272 2.7175 -0.5113 0.9890
-0.7872 5.9329 -1.1249 0.9759
-1.3863 6.1629 -1.1873 0.9746
-1.7684 5.5091 -1.0875 0.9767
9.3902 -4.1288 -2.1683 0.9589
9.2392 -3.1122 -2.0608 0.9609
9.6931 -2.3265 -2.1071 0.9601
10.0829 -1.4849 -2.1543 0.9592
10.7832 1.3200 -2.2964 0.9566
9.0495 2.8043 -2.0026 0.9620
7.8342 3.2188 -1.7903 0.9660
6.8440 3.5559 -1.6303 0.9690
5.2414 4.0500 -1.4001 0.9733
3.0644 4.9364 -1.2282 0.9765
1.0676 5.3161 -1.1462 0.9781
0.5983 5.4750 -1.1642 0.9777
0.0522 2.6771 -0.5660 0.9891
-1.6164 6.3692 -1.3890 0.9735
-4.4839 9.8491 -2.2875 0.9567
-5.9080 8.5271 -2.1928 0.9585
-6.5011 7.7932 -2.1453 0.9594
-7.0133 7.0245 -2.0982 0.9602
-7.4448 6.2308 -2.0521 0.9611
-2.6953 1.5367 -0.6558 0.9874
-8.9136 4.0753 -2.0717 0.9607
-9.0523 3.1969 -2.0293 0.9615
-8.9118 -0.1594 -1.8841 0.9642
-8.4782 -1.6884 -1.8273 0.9653
-7.4542 -3.7360 -1.7625 0.9665
-7.0260 -4.3460 -1.7463 0.9668
-6.5592 -4.9173 -1.7328 0.9670
-6.0563 -5.4487 -1.7220 0.9672
-5.5197 -5.9391 -1.7139 0.9674
-3.0825 -7.4684 -1.7079 0.9675
-1.7189 -7.9571 -1.7208 0.9673
-1.0082 -8.1277 -1.7312 0.9671
1.9741 -8.2830 -1.7999 0.9658
4.2793 -7.7962 -1.8799 0.9643
5.7956 -7.1570 -1.9467 0.9630
6.5338 -6.7379 -1.9839 0.9624
7.2514 -6.2509 -2.0237 0.9616
7.9423 -5.6952 -2.0658 0.9608
9.2156 -4.3769 -2.1565 0.9591
2.4024 -0.8880 -0.5414 0.9896
10.3050 -0.8887 -2.1864 0.9586
10.7455 0.9985 -2.2812 0.9568
10.8283 1.9928 -2.3273 0.9560
8.2017 3.0936 -1.8529 0.9648
7.1473 3.4528 -1.6778 0.9681
6.2621 3.7484 -1.5427 0.9706
4.1500 4.3367 -1.2688 0.9758
3.2306 4.8807 -1.2372 0.9764
2.5977 4.8078 -1.1551 0.9779
2.1335 4.9626 -1.1418 0.9782
-0.2361 5.7976 -1.2265 0.9766
-1.8556 5.8185 -1.2909 0.9753
-4.9982 9.4293 -2.2559 0.9573
-6.3165 8.0370 -2.1607 0.9591
-7.3128 6.4920 -2.0670 0.9608
-8.2872 6.1273 -2.1786 0.9587
-8.6102 5.2473 -2.1314 0.9596
-8.8518 4.3634 -2.0861 0.9605
-9.1041 2.6110 -2.0020 0.9620
-9.0733 0.9159 -1.9277 0.9634
-8.9614 0.1009 -1.8944 0.9640
-8.2849 -2.1753 -1.8106 0.9656
-7.9577 -2.8698 -1.7881 0.9660
-7.1701 -4.1511 -1.7513 0.9667
-3.2968 -7.3707 -1.7068 0.9675
-2.6326 -7.6545 -1.7110 0.9674
-1.9469 -7.8906 -1.7179 0.9673
-0.5200 -8.2140 -1.7398 0.9669
0.2168 -8.2983 -1.7547 0.9666
0.9660 -8.3287 -1.7723 0.9663
1.7248 -8.3036 -1.7927 0.9659
2.4904 -8.2210 -1.8157 0.9655
3.2597 -8.0791 -1.8415 0.9650
4.0289 -7.8760 -1.8700 0.9645
4.7942 -7.6100 -1.9012 0.9639
6.2949 -6.8821 -1.9715 0.9626
7.0199 -6.4174 -2.0105 0.9619
7.7202 -5.8841 -2.0518 0.9611
10.2017 -1.1803 -2.1708 0.9589
10.4916 -0.2712 -2.2185 0.9580
10.6977 0.6802 -2.2658 0.9571
10.0156 2.4742 -2.1807 0.9587
7.4689 3.3433 -1.7297 0.9671
6.5333 3.6563 -1.5826 0.9699
4.9947 4.1131 -1.3677 0.9739
4.3455 4.2838 -1.2898 0.9754
3.3995 4.8241 -1.2475 0.9762
2.7519 4.7563 -1.1615 0.9778
2.2838 4.9125 -1.1451 0.9781
1.8250 5.0652 -1.1381 0.9782
1.3682 5.2167 -1.1400 0.9782
0.9059 5.3695 -1.1511 0.9780
-0.0326 2.8233 -0.5968 0.9885
-0.6018 5.9449 -1.2631 0.9759
-1.5898 5.5377 -1.2179 0.9767
-2.5850 6.6863 -1.5153 0.9711
-6.1232 8.2767 -2.1763 0.9588
-8.1635 6.4122 -2.1943 0.9584
-8.5139 5.5353 -2.1466 0.9593
-8.9703 3.7693 -2.0567 0.9610
-9.1238 2.0317 -1.9758 0.9625
-9.0046 0.3641 -1.9049 0.9638
-7.3100 -3.9522 -1.7566 0.9666
-6.3884 -5.1064 -1.7288 0.9671
-5.8736 -5.6238 -1.7189 0.9673
-4.1413 -6.9229 -1.7052 0.9676
-2.8518 -7.5670 -1.7093 0.9675
-2.1729 -7.8189 -1.7154 0.9674
-0.7573 -8.1752 -1.7355 0.9670
0.7203 -8.3248 -1.7663 0.9664
1.4763 -8.3180 -1.7857 0.9661
2.2401 -8.2544 -1.8079 0.9656
3.7781 -7.9491 -1.8604 0.9647
6.0540 -7.0190 -1.9593 0.9628
6.7857 -6.5765 -1.9975 0.9621
7.4948 -6.0657 -2.0381 0.9613
8.1748 -5.4859 -2.0810 0.9605
9.7020 -2.3094 -2.1081 0.9600
10.0903 -1.4666 -2.1553 0.9592
10.4058 -0.5728 -2.2029 0.9583
10.7853 1.3409 -2.2973 0.9565
10.5667 2.2858 -2.2853 0.9568
9.0209 2.8140 -1.9975 0.9621
7.8113 3.2266 -1.7865 0.9660
5.9878 3.8415 -1.5038 0.9713
5.2261 4.0539 -1.3981 0.9733
4.5484 4.2296 -1.3129 0.9749
3.9491 4.3919 -1.2485 0.9761
3.5713 4.7665 -1.2590 0.9759
3.0537 4.9399 -1.2276 0.9765
1.9742 5.0156 -1.1394 0.9782
1.5175 5.1672 -1.1384 0.9782
1.0578 5.3194 -1.1464 0.9781
0.5882 5.4787 -1.1648 0.9777
-0.9921 6.1056 -1.3075 0.9750
-1.6307 6.3753 -1.3910 0.9735
-6.5127 7.7773 -2.1443 0.9594
-7.0232 7.0081 -2.0972 0.9602
-2.6931 1.5287 -0.6546 0.9874
-8.9173 4.0567 -2.0708 0.9607
-9.1126 1.4604 -1.9508 0.9630
-9.0414 0.6300 -1.9158 0.9636
-8.7176 -0.9550 -1.8537 0.9648
-8.1766 -2.4205 -1.8025 0.9657
-7.8333 -3.1028 -1.7810 0.9661
-7.0166 -4.3584 -1.7460 0.9668
-6.0453 -5.4595 -1.7218 0.9672
-5.5081 -5.9490 -1.7137 0.9674
-4.9396 -6.3964 -1.7083 0.9675
-3.7178 -7.1604 -1.7054 0.9676
-3.0686 -7.4746 -1.7079 0.9675
-2.3967 -7.7420 -1.7131 0.9674
-0.2656 -8.2493 -1.7446 0.9668
0.4758 -8.3151 -1.7605 0.9665
1.2286 -8.3264 -1.7791 0.9662
3.5271 -8.0156 -1.8511 0.9648
4.2954 -7.7908 -1.8805 0.9643
5.0584 -7.5025 -1.9127 0.9637
6.5492 -6.7284 -1.9847 0.9623
8.6129 -5.0564 -2.1111 0.9600
2.4234 -0.8906 -0.5457 0.9895
9.5610 -2.5725 -2.0929 0.9603
10.7482 1.0192 -2.2821 0.9568
10.8290 2.0140 -2.3283 0.9560
9.4810 2.6569 -2.0813 0.9605
7.1271 3.4596 -1.6746 0.9681
6.2451 3.7542 -1.5402 0.9706
4.7596 4.1740 -1.3382 0.9745
4.1376 4.3401 -1.2675 0.9758
1.6665 5.1178 -1.1377 0.9782
1.2086 5.2695 -1.1428 0.9781
0.1264 2.7014 -0.5716 0.9890
-0.2472 5.8021 -1.2276 0.9765
-0.7996 6.0259 -1.2849 0.9755
-1.4133 6.2826 -1.3612 0.9740
-1.8666 5.8151 -1.2910 0.9753
-4.2398 10.0295 -2.3017 0.9565
7.9165 -4.3618 -2.1243 0.9635
8.2690 -2.7854 -2.0507 0.9648
8.9813 -1.3227 -2.1336 0.9634
9.0315 2.7987 -2.2222 0.9619
7.8203 3.2131 -1.9870 0.9659
6.8268 3.5470 -1.8081 0.9689
5.9951 3.8302 -1.6720 0.9712
3.5781 4.7569 -1.3989 0.9758
2.4763 4.9209 -1.2947 0.9776
2.0074 5.0719 -1.2820 0.9778
1.0829 5.3923 -1.2926 0.9777
-1.6148 6.3628 -1.5428 0.9734
-3.9672 8.7142 -2.2503 0.9614
-4.6426 8.1735 -2.2092 0.9621
-5.2523 7.5807 -2.1675 0.9628
-5.7935 6.9450 -2.1256 0.9635
-2.6986 1.5386 -0.7301 0.9873
-8.1757 2.8873 -2.0378 0.9650
-8.2505 2.1079 -2.0013 0.9656
-8.1050 -0.1450 -1.9052 0.9672
-7.9439 -0.8551 -1.8778 0.9677
-7.7317 -1.5398 -1.8528 0.9681
-7.1665 -2.8231 -1.8103 0.9688
-6.4325 -3.9789 -1.7776 0.9694
-6.0090 -4.5048 -1.7651 0.9696
-5.0614 -5.4460 -1.7474 0.9699
-4.5420 -5.8586 -1.7422 0.9700
-3.4228 -6.5620 -1.7394 0.9700
-2.8274 -6.8503 -1.7417 0.9700
-2.2110 -7.0947 -1.7465 0.9699
-0.2574 -7.5514 -1.7758 0.9694
0.4209 -7.6068 -1.7905 0.9692
1.1085 -7.6114 -1.8077 0.9689
1.8026 -7.5637 -1.8274 0.9686
3.1982 -7.3054 -1.8743 0.9678
3.8926 -7.0918 -1.9013 0.9673
4.5797 -6.8203 -1.9308 0.9668
5.9139 -6.0987 -1.9966 0.9657
7.1607 -5.1347 -2.0709 0.9644
8.5351 -2.3137 -2.0783 0.9643
8.8817 -1.5738 -2.1199 0.9636
9.5614 1.7596 -2.2849 0.9608
9.4923 2.6408 -2.3156 0.9603
8.1866 3.0878 -2.0563 0.9647
6.2525 3.7426 -1.7126 0.9705
5.4992 3.9987 -1.5980 0.9724
4.8348 4.2239 -1.5089 0.9740
3.2267 4.8748 -1.3739 0.9763
0.1312 2.6952 -0.6342 0.9890
-0.2403 5.9019 -1.3882 0.9760
-0.7973 6.0966 -1.4450 0.9751
-6.1188 6.4968 -2.0975 0.9640
-7.7387 4.7162 -2.1299 0.9634
-8.1370 3.1433 -2.0501 0.9648
-8.1460 0.0918 -1.9146 0.9671
-8.0022 -0.6261 -1.8865 0.9676
-7.8064 -1.3193 -1.8607 0.9680
-7.5616 -1.9854 -1.8374 0.9684
-7.2708 -2.6220 -1.8165 0.9687
-6.9370 -3.2273 -1.7982 0.9691
-6.1511 -4.3372 -1.7689 0.9695
-5.7042 -4.8387 -1.7580 0.9697
-5.2246 -5.3028 -1.7496 0.9699
2.2724 -7.5013 -1.8421 0.9683
3.6666 -7.1678 -1.8922 0.9675
5.0363 -6.6040 -1.9519 0.9664
5.7011 -6.2328 -1.9852 0.9659
6.3458 -5.8012 -2.0207 0.9653
8.1029 -4.1421 -2.1388 0.9633
2.3436 -0.9448 -0.5939 0.9897
8.4093 -2.5449 -2.0649 0.9645
8.7753 -1.8202 -2.1063 0.9638
7.4561 3.3375 -1.9199 0.9670
5.7338 3.9190 -1.6323 0.9719
2.3119 4.9730 -1.2889 0.9777
0.9199 5.4519 -1.2994 0.9775
0.2164 2.7751 -0.6542 0.9886
-1.1992 6.2276 -1.4905 0.9743
-1.5890 5.5349 -1.3534 0.9766
-4.2091 8.5328 -2.2361 0.9617
-5.4481 7.3643 -2.1529 0.9631
-5.9652 6.7157 -2.1111 0.9638
-6.4122 6.0357 -2.0696 0.9645
-8.0911 3.3998 -2.0626 0.9646
-8.2614 1.8396 -1.9892 0.9658
-8.2510 1.0767 -1.9556 0.9664
-8.0550 -0.3944 -1.8954 0.9674
-7.6466 -1.7712 -1.8447 0.9683
-7.0505 -3.0334 -1.8039 0.9690
-6.2894 -4.1656 -1.7730 0.9695
-5.8538 -4.6791 -1.7613 0.9697
-1.9923 -7.1691 -1.7488 0.9699
-1.3510 -7.3523 -1.7569 0.9698
-0.0230 -7.5763 -1.7806 0.9693
0.6588 -7.6143 -1.7962 0.9691
1.3490 -7.6009 -1.8143 0.9688
2.0447 -7.5346 -1.8349 0.9684
2.7429 -7.4141 -1.8579 0.9680
5.4861 -6.3606 -1.9741 0.9661
6.1380 -5.9487 -2.0089 0.9655
7.3650 -4.9425 -2.0846 0.9642
8.6624 -2.0619 -2.0927 0.9641
9.2462 -0.5090 -2.1764 0.9627
9.4317 0.3241 -2.2180 0.9620
9.5378 1.1858 -2.2589 0.9613
9.5587 2.0677 -2.2985 0.9606
9.0030 2.8084 -2.2165 0.9620
7.7974 3.2209 -1.9828 0.9659
6.8078 3.5535 -1.8048 0.9689
5.9789 3.8357 -1.6695 0.9712
4.6203 4.2965 -1.4828 0.9744
3.5669 4.7606 -1.3981 0.9759
3.0501 4.9340 -1.3633 0.9764
2.4662 4.9241 -1.2943 0.9776
0.5983 5.5722 -1.3171 0.9772
0.0468 2.6567 -0.6245 0.9891
-0.4294 5.9765 -1.4082 0.9757
-1.0014 6.1632 -1.4675 0.9747
-1.6287 6.3673 -1.5446 0.9734
-3.9821 8.7034 -2.2494 0.9614
-5.2644 7.5677 -2.1666 0.9628
-5.8042 6.9312 -2.1247 0.9635
-6.2741 6.2605 -2.0831 0.9642
-6.6737 5.5641 -2.0421 0.9649
-7.0035 4.8495 -2.0021 0.9656
-8.0378 3.6566 -2.0754 0.9644
-8.2514 2.0916 -2.0006 0.9656
-8.2103 0.5721 -1.9343 0.9667
-7.7267 -1.5539 -1.8523 0.9681
-7.4656 -2.2100 -1.8299 0.9685
-7.1596 -2.8360 -1.8099 0.9689
-6.4240 -3.9903 -1.7773 0.9694
-5.9997 -4.5155 -1.7648 0.9696
-5.0508 -5.4551 -1.7472 0.9699
-4.5307 -5.8669 -1.7421 0.9700
-3.9832 -6.2384 -1.7396 0.9700
-3.4105 -6.5685 -1.7394 0.9700
-1.5621 -7.2976 -1.7540 0.9698
-0.9098 -7.4493 -1.7638 0.9696
0.4353 -7.6074 -1.7908 0.9692
1.1230 -7.6110 -1.8081 0.9689
1.8173 -7.5622 -1.8279 0.9685
3.9072 -7.0867 -1.9019 0.9673
5.2692 -6.4819 -1.9632 0.9663
5.9276 -6.0898 -1.9973 0.9657
8.2790 -3.9130 -2.1521 0.9631
8.1405 -2.9916 -2.0383 0.9650
8.8884 -1.5577 -2.1208 0.9636
9.1695 -0.7734 -2.1627 0.9629
9.3796 0.0487 -2.2045 0.9622
9.5616 1.7783 -2.2857 0.9608
7.1152 3.4538 -1.8588 0.9680
6.2355 3.7484 -1.7099 0.9705
5.4844 4.0037 -1.5959 0.9725
4.8216 4.2284 -1.5072 0.9740
4.2145 4.4208 -1.4355 0.9752
3.7417 4.7019 -1.4122 0.9756
2.6224 4.8754 -1.3011 0.9775
1.2250 5.3410 -1.2879 0.9777
0.1257 2.6863 -0.6320 0.9890
-1.4168 6.2984 -1.5173 0.9738
7.6183 -3.3497 -2.1548 0.9662
8.0882 -1.1912 -2.1168 0.9668
8.3063 -0.4729 -2.1541 0.9662
6.8156 3.5412 -1.9887 0.9688
5.9860 3.8244 -1.8392 0.9711
1.5706 5.3113 -1.4341 0.9774
0.0514 2.6348 -0.6823 0.9892
-0.4173 5.9651 -1.5482 0.9756
-0.9875 6.1509 -1.6130 0.9746
-1.6125 6.3539 -1.6973 0.9733
-4.1663 7.3349 -2.1841 0.9657
-4.7225 6.8161 -2.1470 0.9663
-5.2194 6.2567 -2.1096 0.9669
-6.3401 4.4078 -1.9993 0.9686
-7.3057 3.3402 -2.0799 0.9674
-6.5933 -2.5973 -1.8348 0.9711
-5.5395 -4.1528 -1.7926 0.9718
-5.1197 -4.6061 -1.7831 0.9719
-2.6092 -6.3215 -1.7707 0.9721
-0.8516 -6.8652 -1.7911 0.9718
-0.2371 -6.9580 -1.8026 0.9716
2.2963 -6.8534 -1.8714 0.9706
4.1911 -6.2415 -1.9466 0.9694
5.3965 -5.5651 -2.0071 0.9685
5.9684 -5.1449 -2.0402 0.9680
6.5129 -4.6702 -2.0751 0.9674
7.0247 -4.1419 -2.1114 0.9669
7.3558 -2.7190 -2.0305 0.9681
8.0036 -1.4182 -2.1046 0.9670
8.4162 0.0279 -2.1791 0.9658
8.5205 0.7917 -2.2156 0.9653
8.5504 1.5736 -2.2510 0.9647
8.5019 2.3653 -2.2849 0.9642
8.1713 3.0821 -2.2612 0.9646
7.1233 3.4412 -2.0483 0.9678
6.2428 3.7368 -1.8838 0.9704
4.8282 4.2181 -1.6600 0.9739
4.2302 4.4206 -1.5842 0.9750
3.7363 4.6770 -1.5499 0.9756
2.6716 4.9447 -1.4552 0.9770
2.1943 5.1041 -1.4385 0.9773
1.7239 5.2605 -1.4333 0.9774
0.7742 5.5744 -1.4572 0.9770
0.1308 2.6854 -0.6961 0.9890
-1.4015 6.2854 -1.6674 0.9737
-1.7507 5.4895 -1.4918 0.9765
-3.9724 7.4940 -2.1961 0.9656
-4.5475 6.9903 -2.1592 0.9661
-5.5197 5.8607 -2.0845 0.9673
-6.5152 3.9705 -1.9755 0.9690
-7.5478 1.4512 -1.9900 0.9687
-7.5311 0.7602 -1.9598 0.9692
-7.3375 -0.5741 -1.9056 0.9700
-6.9484 -1.8244 -1.8601 0.9708
-6.6874 -2.4116 -1.8406 0.9711
-6.3855 -2.9708 -1.8235 0.9713
-5.6695 -3.9976 -1.7961 0.9717
-5.2601 -4.4620 -1.7859 0.9719
-4.3503 -5.2857 -1.7725 0.9721
-2.7908 -6.2394 -1.7697 0.9722
0.1827 -6.9945 -1.8116 0.9715
0.8129 -7.0091 -1.8269 0.9713
1.4489 -6.9752 -1.8446 0.9710
5.2048 -5.6903 -1.9967 0.9686
6.3386 -4.8311 -2.0635 0.9676
6.8617 -4.3201 -2.0994 0.9671
7.3481 -3.7563 -2.1367 0.9665
2.3423 -0.9443 -0.6539 0.9896
7.9128 -1.6413 -2.0924 0.9672
8.1712 -0.9454 -2.1298 0.9666
8.5265 2.1064 -2.2740 0.9644
8.4234 2.8997 -2.3066 0.9639
7.4431 3.3317 -2.1114 0.9669
6.5126 3.6447 -1.9323 0.9696
5.7253 3.9132 -1.7956 0.9718
5.0364 4.1475 -1.6893 0.9734
3.8551 4.5473 -1.5435 0.9757
3.3911 4.8123 -1.5243 0.9760
2.8302 4.8917 -1.4633 0.9769
2.3489 5.0525 -1.4426 0.9772
1.8771 5.2096 -1.4337 0.9774
0.9318 5.5225 -1.4501 0.9771
0.2156 2.7653 -0.7181 0.9886
-0.0319 2.7680 -0.7167 0.9886
-1.1975 6.2192 -1.6398 0.9742
-3.7725 7.6478 -2.2080 0.9654
-4.3661 7.1598 -2.1713 0.9659
-6.4338 4.1829 -1.9870 0.9688
-7.5410 1.6792 -2.0003 0.9686
-7.4890 0.3029 -1.9406 0.9695
-7.3830 -0.3615 -1.9139 0.9699
-7.0243 -1.6270 -1.8669 0.9706
-6.7772 -2.2230 -1.8467 0.9710
-6.4884 -2.7915 -1.8288 0.9712
-5.7959 -3.8388 -1.8000 0.9717
-4.9667 -4.7554 -1.7804 0.9720
-4.5065 -5.1612 -1.7740 0.9721
-4.0189 -5.5302 -1.7700 0.9721
-3.5061 -5.8612 -1.7684 0.9722
-2.9703 -6.1529 -1.7690 0.9722
-1.8380 -6.6137 -1.7773 0.9720
-1.2458 -6.7802 -1.7849 0.9719
-0.6395 -6.9026 -1.7949 0.9718
-0.0212 -6.9795 -1.8071 0.9716
1.2409 -6.9917 -1.8386 0.9711
2.5182 -6.8067 -1.8791 0.9705
4.4052 -6.1396 -1.9565 0.9693
5.5979 -5.4253 -2.0184 0.9683
6.1609 -4.9861 -2.0521 0.9678
7.1938 -3.9460 -2.1244 0.9667
7.6266 -3.3362 -2.1553 0.9662
7.4832 -2.5050 -2.0432 0.9679
7.8159 -1.8604 -2.0802 0.9673
8.4661 2.6410 -2.2962 0.9640
7.7834 3.2151 -2.1804 0.9658
5.9698 3.8299 -1.8364 0.9711
4.6141 4.2907 -1.6314 0.9743
4.0344 4.4868 -1.5623 0.9754
3.5624 4.7547 -1.5383 0.9758
1.0879 5.4709 -1.4443 0.9772
0.6045 5.6303 -1.4662 0.9769
0.0464 2.6354 -0.6825 0.9892
-0.4289 5.9689 -1.5494 0.9756
-1.0001 6.1550 -1.6145 0.9746
-1.9630 5.5537 -1.5251 0.9760
-4.1786 7.3244 -2.1833 0.9658
-6.3460 4.3942 -1.9985 0.9686
-2.6996 1.5324 -0.8038 0.9873
-7.4492 2.6150 -2.0441 0.9679
-7.5281 1.9083 -2.0108 0.9684
-7.4232 -0.1468 -1.9224 0.9698
-7.2833 -0.7979 -1.8971 0.9702
-7.0955 -1.4269 -1.8739 0.9705
-6.8625 -2.0315 -1.8530 0.9709
-5.9188 -3.6765 -1.8041 0.9716
-5.1105 -4.6153 -1.7829 0.9719
-4.1809 -5.4139 -1.7711 0.9721
-3.1475 -6.0621 -1.7685 0.9722
-2.5974 -6.3267 -1.7708 0.9721
-2.0277 -6.5499 -1.7753 0.9721
-1.4407 -6.7307 -1.7822 0.9720
-0.2241 -6.9595 -1.8029 0.9716
0.4008 -7.0050 -1.8167 0.9714
1.0333 -7.0029 -1.8328 0.9712
3.5802 -6.4936 -1.9199 0.9698
4.8152 -5.9234 -1.9765 0.9690
7.4966 -3.5432 -2.1469 0.9663
7.3637 -2.7061 -2.0313 0.9681
8.0093 -1.4036 -2.1054 0.9670
8.2465 -0.6956 -2.1428 0.9664
8.5219 0.8081 -2.2164 0.9652
7.1033 3.4480 -2.0444 0.9679
4.2182 4.4247 -1.5828 0.9751
3.7370 4.6960 -1.5539 0.9755
3.2120 4.8725 -1.5110 0.9762
2.1843 5.1074 -1.4383 0.9773
1.2430 5.4197 -1.4397 0.9773
0.7639 5.5778 -1.4577 0.9770
-0.2518 5.9110 -1.5319 0.9759
-0.8084 6.0926 -1.5913 0.9749
-1.7624 5.4904 -1.4930 0.9765
6.4754 -2.8472 -2.0025 0.9710
6.8142 -2.2953 -2.0355 0.9706
7.1071 -1.7058 -2.0691 0.9701
7.3489 -1.0823 -2.1029 0.9696
7.5349 -0.4290 -2.1365 0.9691
7.7213 0.9452 -2.2022 0.9682
7.7140 1.6535 -2.2334 0.9677
7.4841 3.0750 -2.2905 0.9669
6.8043 3.5353 -2.1707 0.9686
5.2589 4.0635 -1.8814 0.9727
4.6206 4.2806 -1.7831 0.9742
3.0532 4.9184 -1.6388 0.9762
2.5116 4.9912 -1.5818 0.9770
2.0380 5.1491 -1.5677 0.9772
1.1017 3.7255 -1.0998 0.9840
0.6141 5.6200 -1.6004 0.9768
-0.4168 5.9574 -1.6906 0.9755
-0.9862 6.1427 -1.7612 0.9745
-1.6102 6.3449 -1.8531 0.9732
-3.2142 7.0602 -2.1961 0.9683
-3.7745 6.6451 -2.1635 0.9687
-4.7438 5.6866 -2.0964 0.9697
-5.1480 5.1563 -2.0627 0.9702
-6.6917 3.0595 -2.0830 0.9699
-6.9422 1.1260 -1.9910 0.9712
-6.9186 0.4952 -1.9636 0.9716
-5.8125 -2.9132 -1.8406 0.9733
-5.1336 -3.8485 -1.8163 0.9737
-4.7464 -4.2702 -1.8074 0.9738
-4.3304 -4.6594 -1.8007 0.9739
-3.8876 -5.0145 -1.7962 0.9740
-3.4202 -5.3345 -1.7939 0.9740
-2.9304 -5.6179 -1.7937 0.9740
-2.4202 -5.8636 -1.7958 0.9740
-1.3474 -6.2371 -1.8064 0.9738
-0.7892 -6.3625 -1.8150 0.9737
-0.2197 -6.4455 -1.8257 0.9735
0.3588 -6.4850 -1.8387 0.9734
1.5321 -6.4287 -1.8709 0.9729
2.1212 -6.3309 -1.8902 0.9726
2.7078 -6.1853 -1.9115 0.9723
3.2886 -5.9913 -1.9348 0.9720
3.8597 -5.7480 -1.9600 0.9716
4.9576 -5.1125 -2.0160 0.9708
5.4756 -4.7201 -2.0466 0.9704
6.4263 -3.7890 -2.1119 0.9695
6.7084 -2.4797 -2.0247 0.9707
7.2759 -1.2893 -2.0918 0.9697
7.7240 1.4215 -2.2233 0.9679
7.6691 2.1336 -2.2535 0.9674
7.1111 3.4353 -2.2357 0.9677
6.2331 3.7310 -2.0565 0.9703
5.4832 3.9871 -1.9192 0.9722
4.2247 4.4148 -1.7298 0.9749
2.6684 4.9387 -1.5891 0.9769
1.7218 5.2542 -1.5653 0.9773
1.2515 5.4099 -1.5720 0.9772
-0.7952 6.0806 -1.7360 0.9748
-1.3995 6.2767 -1.8205 0.9736
-1.7487 5.4832 -1.6293 0.9764
-4.1242 6.3397 -2.1411 0.9690
-4.6000 5.8530 -2.1074 0.9695
-5.0221 5.3324 -2.0737 0.9700
-5.7004 4.2148 -2.0069 0.9710
-6.6247 3.2656 -2.0909 0.9698
-6.8927 1.9768 -2.0299 0.9706
-6.9387 1.3341 -2.0003 0.9711
-6.4216 -1.6861 -1.8795 0.9728
-6.1853 -2.2306 -1.8614 0.9730
-5.9102 -2.7497 -1.8454 0.9733
-5.2533 -3.7041 -1.8197 0.9736
-4.4692 -4.5361 -1.8027 0.9739
-3.0925 -5.5295 -1.7935 0.9740
-2.0661 -6.0073 -1.7984 0.9739
-0.9727 -6.3262 -1.8120 0.9737
0.1692 -6.4770 -1.8342 0.9734
0.7523 -6.4864 -1.8486 0.9732
2.5169 -6.2381 -1.9043 0.9724
3.0999 -6.0600 -1.9270 0.9721
3.6746 -5.8328 -1.9516 0.9717
6.7131 -3.4317 -2.1343 0.9691
2.3410 -0.9437 -0.7145 0.9896
7.4201 -0.8585 -2.1146 0.9694
7.6891 0.4889 -2.1811 0.9685
7.7267 1.1903 -2.2132 0.9680
7.5913 2.6132 -2.2728 0.9672
7.4143 3.3187 -2.2996 0.9668
6.5021 3.6389 -2.1093 0.9695
5.7168 3.9074 -1.9603 0.9716
5.0294 4.1417 -1.8444 0.9733
3.8502 4.5414 -1.6855 0.9756
3.3869 4.8063 -1.6645 0.9759
-0.6094 6.0201 -1.7130 0.9752
-1.1959 6.2107 -1.7905 0.9740
-2.5732 6.6557 -2.0201 0.9708
-4.4506 6.0159 -2.1184 0.9694
-4.8904 5.5056 -2.0847 0.9699
-5.2755 4.9658 -2.0510 0.9703
-5.8787 3.8220 -1.9850 0.9713
-6.8083 -0.3334 -1.9297 0.9721
-5.3697 -3.5564 -1.8233 0.9736
-5.0025 -3.9986 -1.8130 0.9737
-4.6051 -4.4092 -1.8049 0.9738
-3.7279 -5.1297 -1.7952 0.9740
-0.0196 -6.4642 -1.8300 0.9735
0.5614 -6.4883 -1.8436 0.9733
1.7368 -6.4001 -1.8773 0.9728
2.3254 -6.2858 -1.8973 0.9725
2.9104 -6.1235 -1.9193 0.9722
3.4882 -5.9124 -1.9433 0.9719
4.6073 -5.3418 -1.9970 0.9711
5.6496 -4.5723 -2.0575 0.9702
6.1303 -4.1140 -2.0900 0.9698
6.5775 -3.6079 -2.1238 0.9693
6.4829 -2.8360 -2.0032 0.9710
6.8209 -2.2833 -2.0363 0.9705
7.1127 -1.6930 -2.0698 0.9701
7.5382 -0.4150 -2.1372 0.9691
7.6624 0.2633 -2.1704 0.9686
7.6331 2.3811 -2.2636 0.9673
7.4801 3.0898 -2.2911 0.9669
5.9607 3.8241 -2.0048 0.9710
4.6079 4.2849 -1.7813 0.9742
4.0291 4.4809 -1.7059 0.9753
3.0426 4.9220 -1.6381 0.9762
1.0866 5.4644 -1.5772 0.9771
0.6038 5.6234 -1.6011 0.9768
-0.9987 6.1467 -1.7629 0.9744
-1.9596 5.5438 -1.6646 0.9759
-3.2265 7.0519 -2.1954 0.9683
-3.7858 6.6358 -2.1628 0.9687
-4.2955 6.1749 -2.1294 0.9692
-4.7528 5.6757 -2.0957 0.9697
-5.1559 5.1448 -2.0620 0.9702
-5.5036 4.5885 -2.0285 0.9707
-5.7955 4.0130 -1.9956 0.9711
-2.7030 1.5343 -0.8799 0.9872
-6.8332 2.3987 -2.0501 0.9703
-6.9148 1.7528 -2.0195 0.9708
-6.9175 0.4820 -1.9631 0.9716
-6.7210 -0.7363 -1.9140 0.9723
-6.3440 -1.8780 -1.8730 0.9729
-5.8060 -2.9237 -1.8403 0.9733
-5.4825 -3.4055 -1.8271 0.9735
-4.3213 -4.6672 -1.8006 0.9739
-3.8780 -5.0217 -1.7962 0.9740
-2.9198 -5.6235 -1.7938 0.9740
-2.4092 -5.8684 -1.7958 0.9740
-1.8805 -6.0743 -1.8001 0.9739
-1.3357 -6.2402 -1.8066 0.9738
0.3711 -6.4853 -1.8390 0.9734
1.5445 -6.4271 -1.8713 0.9729
2.1336 -6.3283 -1.8906 0.9726
2.7201 -6.1818 -1.9119 0.9723
3.3007 -5.9867 -1.9353 0.9720
3.8716 -5.7424 -1.9606 0.9716
4.9688 -5.1047 -2.0167 0.9708
6.4356 -3.7782 -2.1126 0.9695
6.7154 -2.4679 -2.0254 0.9707
7.7098 0.7311 -2.1924 0.9683
7.5381 2.8595 -2.2824 0.9670
6.2161 3.7367 -2.0532 0.9703
5.4684 3.9921 -1.9167 0.9722
4.8084 4.2168 -1.8105 0.9738
4.2126 4.4189 -1.7283 0.9749
3.7323 4.6900 -1.6968 0.9754
3.2080 4.8665 -1.6501 0.9761
2.6582 4.9421 -1.5886 0.9769
2.1817 5.1013 -1.5707 0.9772
0.1246 2.6621 -0.7544 0.9890
-1.4129 6.2810 -1.8226 0.9736
6.7262 -0.9906 -2.0911 0.9719
6.8871 -0.3921 -2.1217 0.9715
6.9925 0.2271 -2.1519 0.9711
5.2513 4.0576 -2.0412 0.9726
3.5646 4.7390 -1.8239 0.9755
2.0355 5.1429 -1.7012 0.9771
1.0902 3.6867 -1.1825 0.9840
1.0953 5.4544 -1.7112 0.9770
-0.9849 6.1343 -1.9109 0.9743
-1.6079 6.3359 -2.0106 0.9730
-1.9418 5.5268 -1.8018 0.9758
-2.9309 6.4377 -2.1757 0.9708
-3.4462 6.0672 -2.1462 0.9712
-3.9179 5.6547 -2.1159 0.9716
-4.3429 5.2061 -2.0853 0.9720
-4.7194 4.7270 -2.0545 0.9724
-5.7230 2.6166 -1.9355 0.9740
-6.3866 1.6317 -2.0275 0.9728
-6.3428 -0.1135 -1.9512 0.9738
-6.2362 -0.6713 -1.9292 0.9741
-6.0870 -1.2122 -1.9090 0.9744
-5.6697 -2.2335 -1.8743 0.9748
-5.1083 -3.1598 -1.8475 0.9752
-4.7790 -3.5827 -1.8371 0.9753
-4.4200 -3.9766 -1.8287 0.9754
-3.1866 -4.9702 -1.8160 0.9756
-2.7303 -5.2343 -1.8158 0.9756
-2.2547 -5.4628 -1.8177 0.9756
-1.7622 -5.6546 -1.8217 0.9755
-0.2044 -5.9981 -1.8460 0.9752
0.3337 -6.0319 -1.8581 0.9750
0.8772 -6.0235 -1.8723 0.9748
4.0858 -5.0455 -1.9969 0.9732
4.5803 -4.7234 -2.0237 0.9728
5.0531 -4.3559 -2.0520 0.9725
5.9158 -3.4881 -2.1123 0.9717
6.1594 -2.2767 -2.0198 0.9729
6.4339 -1.7441 -2.0503 0.9725
6.6623 -1.1805 -2.0811 0.9721
6.8405 -0.5899 -2.1118 0.9717
6.9644 0.0231 -2.1421 0.9713
7.0354 1.2948 -2.2003 0.9705
6.8531 2.5849 -2.2528 0.9698
4.8148 4.2064 -1.9665 0.9736
4.2190 4.4089 -1.8769 0.9748
3.2148 4.8568 -1.7914 0.9759
2.6651 4.9327 -1.7245 0.9768
2.1890 5.0918 -1.7047 0.9771
1.7198 5.2478 -1.6986 0.9772
-1.3976 6.2679 -1.9752 0.9735
-3.2827 6.1930 -2.1559 0.9711
-5.2376 3.8726 -2.0035 0.9731
-6.2642 2.4198 -2.0655 0.9723
-6.3648 1.8254 -2.0366 0.9727
-6.4150 0.6476 -1.9831 0.9734
-6.1403 -1.0377 -1.9154 0.9743
-5.7481 -2.0729 -1.8795 0.9748
-5.4958 -2.5569 -1.8644 0.9750
-4.8898 -3.4478 -1.8403 0.9753
-4.5403 -3.8513 -1.8312 0.9754
-4.1626 -4.2249 -1.8243 0.9755
-3.7588 -4.5671 -1.8193 0.9756
-1.9246 -5.5961 -1.8202 0.9755
-1.4218 -5.7624 -1.8256 0.9755
0.1574 -6.0254 -1.8539 0.9751
0.6995 -6.0309 -1.8674 0.9749
1.2450 -5.9937 -1.8829 0.9747
2.8737 -5.6177 -1.9408 0.9739
3.4033 -5.4021 -1.9638 0.9736
3.9204 -5.1407 -1.9885 0.9733
4.4211 -4.8335 -2.0148 0.9730
5.3572 -4.0831 -2.0718 0.9722
5.7837 -3.6414 -2.1022 0.9718
6.5931 -1.3676 -2.0711 0.9722
6.9302 -0.1791 -2.1323 0.9714
7.0154 0.4461 -2.1622 0.9710
7.0406 1.0846 -2.1911 0.9706
6.7326 3.0137 -2.2688 0.9696
5.7081 3.9015 -2.1266 0.9715
4.4075 4.3449 -1.9036 0.9744
3.8451 4.5355 -1.8289 0.9754
3.3827 4.8003 -1.8062 0.9757
2.8233 4.8797 -1.7340 0.9767
2.3432 5.0403 -1.7096 0.9770
0.9295 5.5091 -1.7184 0.9769
-0.0318 2.7561 -0.8478 0.9885
-1.1943 6.2021 -1.9427 0.9739
-1.5888 5.5340 -1.7709 0.9762
-3.1146 6.3141 -2.1655 0.9710
-3.6152 5.9284 -2.1357 0.9714
-4.0709 5.5027 -2.1053 0.9718
-4.4793 5.0428 -2.0746 0.9722
-5.4062 3.5148 -1.9834 0.9734
-2.7181 1.4398 -0.9461 0.9872
-6.2140 2.6111 -2.0732 0.9722
-6.4038 1.4260 -2.0179 0.9729
-6.4201 0.8378 -1.9914 0.9733
-6.0257 -1.3957 -1.9024 0.9744
-5.5821 -2.4016 -1.8691 0.9749
-5.3063 -2.8689 -1.8554 0.9751
-4.9974 -3.3099 -1.8437 0.9752
-3.4732 -4.7792 -1.8172 0.9756
-3.0304 -5.0659 -1.8157 0.9756
-2.5671 -5.3178 -1.8162 0.9756
-2.0855 -5.5336 -1.8189 0.9756
-1.0754 -5.8528 -1.8303 0.9754
-0.5516 -5.9539 -1.8391 0.9753
-0.0182 -6.0146 -1.8500 0.9751
0.5221 -6.0338 -1.8628 0.9750
1.0668 -6.0106 -1.8776 0.9748
2.1581 -5.8336 -1.9131 0.9743
3.2317 -5.4775 -1.9561 0.9737
4.2598 -4.9388 -2.0060 0.9731
4.7473 -4.6009 -2.0334 0.9727
5.6480 -3.7903 -2.0921 0.9719
6.0523 -3.3199 -2.1232 0.9715
5.9575 -2.6061 -2.0001 0.9732
6.5187 -1.5516 -2.0610 0.9723
6.8899 -0.3793 -2.1224 0.9715
7.0224 1.5191 -2.2099 0.9704
6.5820 3.4356 -2.2837 0.9694
5.9515 3.8182 -2.1749 0.9708
3.0389 4.9159 -1.7776 0.9761
2.0256 5.1462 -1.7011 0.9771
1.0813 3.6821 -1.1804 0.9841
0.6030 5.6164 -1.7374 0.9766
0.0457 2.5966 -0.7988 0.9892
-0.4278 5.9534 -1.8359 0.9753
-0.9974 6.1384 -1.9128 0.9743
-1.9561 5.5339 -1.8053 0.9757
-3.4566 6.0589 -2.1455 0.9712
-5.3274 3.6889 -1.9931 0.9732
-2.7064 1.5363 -0.9572 0.9871
-5.7262 2.6050 -1.9349 0.9740
-6.3878 1.6192 -2.0269 0.9728
-6.4039 0.4462 -1.9745 0.9735
-6.3410 -0.1254 -1.9507 0.9738
-6.2335 -0.6829 -1.9288 0.9741
-6.0835 -1.2234 -1.9086 0.9744
-5.8931 -1.7445 -1.8903 0.9746
-5.4000 -2.7192 -1.8596 0.9750
-4.7717 -3.5913 -1.8369 0.9753
-4.4122 -3.9846 -1.8286 0.9754
-4.0252 -4.3474 -1.8223 0.9755
-3.6128 -4.6783 -1.8181 0.9756
-2.7204 -5.2395 -1.8158 0.9756
-1.2439 -5.8113 -1.8279 0.9754
0.8887 -6.0229 -1.8726 0.9748
1.4348 -5.9706 -1.8887 0.9746
1.9806 -5.8745 -1.9068 0.9744
2.5230 -5.7339 -1.9268 0.9741
3.5845 -5.3165 -1.9722 0.9735
4.5905 -4.7161 -2.0243 0.9728
5.5089 -3.9346 -2.0822 0.9721
6.2868 -2.9714 -2.1388 0.9713
6.4392 -1.7325 -2.0510 0.9725
6.6666 -1.1683 -2.0818 0.9721
6.8437 -0.5772 -2.1124 0.9717
7.0312 0.6667 -2.1723 0.9709
7.0348 1.3084 -2.2009 0.9705
6.9750 1.9546 -2.2280 0.9701
6.6587 3.2322 -2.2766 0.9695
4.8017 4.2109 -1.9644 0.9736
4.2070 4.4130 -1.8753 0.9748
3.2040 4.8604 -1.7905 0.9759
2.6550 4.9361 -1.7239 0.9768
2.1791 5.0951 -1.7044 0.9771
1.7099 5.2511 -1.6986 0.9772
1.2400 5.4067 -1.7062 0.9771
0.1279 2.7315 -0.8411 0.9886
-0.2512 5.8959 -1.8151 0.9756
-1.4109 6.2722 -1.9774 0.9735
-1.7584 5.4778 -1.7695 0.9762
5.2227 -3.5191 -2.0934 0.9738
5.7724 -1.9444 -2.0247 0.9747
6.0053 -1.4414 -2.0529 0.9743
6.1940 -0.9122 -2.0811 0.9740
6.4245 0.2086 -2.1367 0.9733
6.4600 0.7908 -2.1634 0.9729
6.3595 1.9707 -2.2131 0.9723
6.2207 2.5559 -2.2355 0.9720
5.7647 3.6830 -2.2739 0.9716
5.2436 4.0517 -2.2027 0.9725
4.6079 4.2687 -2.0879 0.9739
3.4949 4.6463 -1.9326 0.9758
2.0330 5.1366 -1.8363 0.9770
1.0830 3.6621 -1.2694 0.9840
0.0506 2.5959 -0.8630 0.9891
-0.4157 5.9418 -1.9799 0.9752
-0.9835 6.1259 -2.0624 0.9742
-3.1670 5.5756 -2.1315 0.9733
-4.0002 4.7952 -2.0758 0.9740
-4.6586 3.8990 -2.0194 0.9747
-5.9283 1.5146 -2.0339 0.9745
-5.6740 -1.1300 -1.9231 0.9759
-5.5009 -1.6171 -1.9059 0.9761
-5.0480 -2.5300 -1.8769 0.9765
-4.1319 -3.7174 -1.8475 0.9768
-2.9803 -4.6483 -1.8354 0.9770
-2.5535 -4.8954 -1.8353 0.9770
-2.1086 -5.1087 -1.8371 0.9770
-1.6477 -5.2873 -1.8409 0.9769
-1.1730 -5.4300 -1.8466 0.9769
-0.6867 -5.5358 -1.8542 0.9768
-0.1910 -5.6037 -1.8638 0.9766
0.3117 -5.6328 -1.8752 0.9765
1.3277 -5.5711 -1.9037 0.9761
1.8357 -5.4788 -1.9207 0.9759
3.3237 -4.9497 -1.9818 0.9752
3.7967 -4.6885 -2.0054 0.9749
4.2522 -4.3851 -2.0304 0.9746
4.6865 -4.0398 -2.0567 0.9743
5.0954 -3.6537 -2.0842 0.9739
5.8022 -2.7557 -2.1352 0.9733
5.9340 -1.6086 -2.0437 0.9744
6.1376 -1.0875 -2.0719 0.9741
6.2944 -0.5428 -2.1000 0.9737
6.2726 2.3659 -2.2284 0.9721
6.0935 2.9437 -2.2495 0.9719
5.8552 3.5048 -2.2683 0.9716
4.8080 4.2005 -2.1222 0.9734
4.2133 4.4029 -2.0257 0.9746
3.6657 4.5886 -1.9522 0.9755
0.7713 5.5539 -1.8639 0.9766
0.1334 2.7393 -0.9116 0.9885
-0.2396 5.8845 -1.9577 0.9755
-0.7930 6.0642 -2.0329 0.9745
-1.3956 6.2590 -2.1316 0.9733
-3.0156 5.6891 -2.1403 0.9732
-4.8393 3.5780 -2.0005 0.9750
-5.0686 3.0890 -1.9731 0.9753
-5.7975 2.2395 -2.0659 0.9741
-5.9581 1.1456 -2.0168 0.9747
-5.7223 -0.9671 -1.9291 0.9758
-5.5615 -1.4602 -1.9113 0.9761
-5.1311 -2.3872 -1.8812 0.9764
-4.8656 -2.8169 -1.8688 0.9766
-3.8919 -3.9501 -1.8433 0.9769
-3.5150 -4.2708 -1.8386 0.9770
-2.6948 -4.8184 -1.8351 0.9770
-1.7997 -5.2329 -1.8395 0.9769
-1.3293 -5.3875 -1.8445 0.9769
-0.8465 -5.5054 -1.8515 0.9768
-0.3536 -5.5858 -1.8605 0.9767
1.1616 -5.5923 -1.8986 0.9762
2.1760 -5.3931 -1.9331 0.9758
3.1662 -5.0258 -1.9745 0.9753
3.6441 -4.7784 -1.9976 0.9750
4.1057 -4.4887 -2.0221 0.9747
4.5473 -4.1570 -2.0480 0.9744
5.3545 -3.3712 -2.1033 0.9737
5.7020 -2.9148 -2.1287 0.9734
5.8581 -1.7728 -2.0345 0.9745
6.0761 -1.2603 -2.0627 0.9742
6.2486 -0.7229 -2.0909 0.9738
6.3719 -0.1647 -2.1188 0.9735
6.3181 2.1749 -2.2211 0.9722
6.1585 2.7567 -2.2428 0.9720
5.9394 3.3240 -2.2624 0.9717
5.6617 3.8698 -2.2796 0.9715
4.4015 4.3390 -2.0545 0.9743
2.3404 5.0341 -1.8454 0.9769
0.9281 3.5388 -1.2161 0.9847
0.9283 5.5023 -1.8548 0.9768
0.2196 2.8161 -0.9389 0.9882
-0.0318 2.7584 -0.9170 0.9884
-0.6078 6.0041 -2.0060 0.9749
-1.5894 5.5361 -1.9146 0.9760
-3.3236 5.4501 -2.1219 0.9735
-3.7468 5.0646 -2.0941 0.9738
-5.3491 2.2477 -1.9287 0.9758
-5.8791 1.8732 -2.0510 0.9743
-5.9463 1.3241 -2.0250 0.9746
-5.9670 0.7787 -2.0003 0.9750
-5.9428 0.2403 -1.9770 0.9752
-5.2107 -2.2419 -1.8856 0.9764
-4.9557 -2.6793 -1.8727 0.9765
-4.6692 -3.0925 -1.8616 0.9767
-4.3531 -3.4796 -1.8525 0.9768
-4.0096 -3.8390 -1.8452 0.9769
-3.6406 -4.1695 -1.8399 0.9769
-2.8342 -4.7379 -1.8352 0.9770
-1.9502 -5.1748 -1.8382 0.9770
-1.0053 -5.4710 -1.8490 0.9768
1.5044 -5.5437 -1.9094 0.9761
2.5135 -5.2883 -1.9463 0.9756
3.0073 -5.0973 -1.9673 0.9754
3.4898 -4.8638 -1.9899 0.9751
4.4057 -4.2698 -2.0394 0.9745
4.8316 -3.9103 -2.0661 0.9741
6.1975 -0.9008 -2.0817 0.9739
6.3373 -0.3489 -2.1097 0.9736
6.4601 0.8032 -2.1639 0.9729
6.4378 1.3926 -2.1895 0.9726
4.5951 4.2731 -2.0858 0.9739
3.4840 4.6500 -1.9314 0.9758
2.0231 5.1399 -1.8361 0.9770
1.0742 3.6578 -1.2672 0.9841
1.0840 5.4510 -1.8474 0.9768
0.6023 5.6094 -1.8753 0.9765
0.0457 2.5952 -0.8628 0.9891
-0.4272 5.9455 -1.9814 0.9752
-1.6194 6.3312 -2.1723 0.9728
-2.7008 5.9029 -2.1578 0.9730
-3.1766 5.5681 -2.1309 0.9733
-4.3590 4.3496 -2.0469 0.9744
-4.6646 3.8891 -2.0188 0.9747
-4.9242 3.4097 -1.9909 0.9751
-2.7104 1.5386 -1.0360 0.9869
-5.3045 2.4132 -1.9371 0.9757
-5.9653 0.9560 -2.0082 0.9749
-5.9556 0.4150 -1.9845 0.9751
-5.8065 -0.6361 -1.9417 0.9757
-5.6708 -1.1404 -1.9227 0.9759
-5.4969 -1.6272 -1.9056 0.9761
-5.0425 -2.5392 -1.8767 0.9765
-4.7660 -2.9604 -1.8650 0.9766
-4.4594 -3.3562 -1.8552 0.9767
-2.9715 -4.6539 -1.8354 0.9770
-2.5443 -4.9002 -1.8353 0.9770
-0.6763 -5.5376 -1.8544 0.9768
0.8295 -5.6215 -1.8889 0.9763
2.3504 -5.3414 -1.9398 0.9757
2.8473 -5.1643 -1.9603 0.9754
3.3338 -4.9447 -1.9823 0.9752
3.8065 -4.6826 -2.0059 0.9749
4.2616 -4.3782 -2.0309 0.9746
4.6954 -4.0321 -2.0573 0.9742
5.1037 -3.6452 -2.0848 0.9739
5.6931 -2.0922 -2.0161 0.9748
6.2971 -0.5311 -2.1006 0.9737
6.4027 0.0333 -2.1283 0.9734
6.4550 0.6121 -2.1553 0.9730
6.4515 1.1999 -2.1813 0.9727
6.0891 2.9557 -2.2499 0.9719
5.8495 3.5164 -2.2687 0.9716
5.4522 3.9803 -2.2439 0.9719
4.2013 4.4070 -2.0239 0.9747
3.6546 4.5924 -1.9509 0.9756
2.6517 4.9300 -1.8608 0.9767
2.1764 5.0888 -1.8398 0.9769
1.2385 5.4000 -1.8416 0.9769
-2.5376 6.0028 -2.1663 0.9729
4.8584 -3.2737 -2.0950 0.9754
5.1923 -2.8608 -2.1200 0.9751
5.3541 -1.8035 -2.0203 0.9763
5.5645 -1.3356 -2.0464 0.9760
5.8580 -0.3335 -2.0983 0.9754
5.9374 1.2727 -2.1715 0.9745
5.2997 3.3859 -2.2490 0.9736
4.6013 4.2627 -2.2431 0.9737
4.0247 4.4591 -2.1481 0.9748
3.3514 4.4555 -1.9937 0.9766
2.0296 5.1279 -1.9722 0.9768
1.0976 3.7116 -1.3841 0.9837
1.0926 5.4409 -1.9846 0.9767
0.6118 5.5989 -2.0141 0.9764
-0.9797 6.1025 -2.2102 0.9741
-1.5060 5.9344 -2.1895 0.9743
-1.9354 5.5085 -2.0879 0.9755
-2.4835 5.4551 -2.1434 0.9749
-3.3338 4.8118 -2.0934 0.9754
-3.7035 4.4396 -2.0675 0.9757
-4.0334 4.0398 -2.0414 0.9760
-4.3219 3.6171 -2.0154 0.9763
-5.5647 0.9026 -2.0160 0.9763
-5.1495 -1.5138 -1.9194 0.9775
-4.9560 -1.9523 -1.9049 0.9776
-4.7300 -2.3707 -1.8921 0.9778
-4.4733 -2.7670 -1.8810 0.9779
-4.1879 -3.1395 -1.8717 0.9780
-3.1779 -4.0991 -1.8548 0.9782
-2.7965 -4.3616 -1.8528 0.9782
-2.3960 -4.5934 -1.8527 0.9782
-1.5458 -4.9603 -1.8580 0.9782
-0.1790 -5.2531 -1.8796 0.9779
1.2430 -5.2155 -1.9173 0.9775
1.7176 -5.1262 -1.9333 0.9773
2.1879 -4.9976 -1.9509 0.9771
2.6509 -4.8295 -1.9701 0.9769
3.9640 -4.0878 -2.0363 0.9761
4.7415 -3.4000 -2.0865 0.9755
5.0898 -3.0010 -2.1130 0.9752
5.0169 -2.3827 -1.9861 0.9767
5.2770 -1.9506 -2.0119 0.9764
5.8225 -0.5022 -2.0899 0.9755
5.6068 2.7086 -2.2267 0.9739
5.1084 3.7146 -2.2587 0.9735
4.7824 4.1781 -2.2710 0.9734
4.2076 4.3969 -2.1763 0.9745
3.4775 4.3530 -1.9924 0.9766
3.0802 4.6535 -1.9957 0.9766
2.6585 4.9204 -2.0000 0.9765
2.1836 5.0792 -1.9771 0.9768
1.7155 5.2349 -1.9700 0.9769
0.8685 3.7543 -1.3780 0.9838
-0.7920 6.0559 -2.1841 0.9744
-1.3367 5.9948 -2.1964 0.9742
-2.3319 5.5454 -2.1513 0.9748
-2.7855 5.2550 -2.1269 0.9751
-3.2049 4.9265 -2.1017 0.9753
-3.5872 4.5643 -2.0760 0.9756
-4.2323 3.7573 -2.0239 0.9762
-4.7100 2.8704 -1.9725 0.9768
-5.0171 1.9381 -1.9234 0.9774
-5.5350 0.0623 -1.9795 0.9768
-5.4631 -0.4274 -1.9596 0.9770
-5.3526 -0.9046 -1.9413 0.9772
-5.2052 -1.3667 -1.9245 0.9774
-4.8072 -2.2365 -1.8960 0.9777
-4.5603 -2.6402 -1.8844 0.9779
-3.6509 -3.7055 -1.8602 0.9781
-2.9231 -4.2793 -1.8533 0.9782
-2.5286 -4.5213 -1.8525 0.9782
-2.1164 -4.7317 -1.8536 0.9782
-1.2469 -5.0536 -1.8614 0.9781
-0.7939 -5.1630 -1.8680 0.9781
0.6117 -5.2742 -1.8987 0.9777
1.5630 -5.1596 -1.9279 0.9774
2.0351 -5.0439 -1.9450 0.9772
2.5008 -4.8887 -1.9637 0.9769
2.9571 -4.6939 -1.9839 0.9767
3.8285 -4.1856 -2.0285 0.9762
2.3380 -0.9425 -0.9015 0.9893
5.4316 -1.6438 -2.0294 0.9762
5.6281 -1.1674 -2.0555 0.9759
5.7820 -0.6690 -2.0815 0.9756
5.8903 -0.1522 -2.1071 0.9753
5.9596 0.9180 -2.1563 0.9747
5.9163 1.4615 -2.1793 0.9744
5.2040 3.5569 -2.2541 0.9736
4.8942 4.0303 -2.2673 0.9734
3.8350 4.5235 -2.1207 0.9751
2.3374 5.0278 -1.9828 0.9767
0.9203 3.5089 -1.2973 0.9847
-0.0301 2.6107 -0.9337 0.9890
-0.6070 5.9960 -2.1552 0.9747
-2.1771 5.6312 -2.1590 0.9747
-3.0720 5.0376 -2.1100 0.9752
-3.4667 4.6859 -2.0844 0.9755
-3.8227 4.3036 -2.0585 0.9758
-4.1383 3.8954 -2.0324 0.9761
-4.4122 3.4657 -2.0064 0.9764
-4.9785 2.0919 -1.9312 0.9773
-5.5442 1.2346 -2.0312 0.9762
-5.5681 0.7266 -2.0081 0.9764
-5.3928 -0.7504 -1.9471 0.9771
-5.2572 -1.2177 -1.9298 0.9773
-5.0861 -1.6683 -1.9142 0.9775
-4.8811 -2.1000 -1.9002 0.9777
-4.0823 -3.2631 -1.8689 0.9780
-3.7610 -3.6011 -1.8621 0.9781
-2.6594 -4.4457 -1.8526 0.9782
-2.2528 -4.6666 -1.8531 0.9782
-1.8298 -4.8551 -1.8554 0.9782
-0.0160 -5.2661 -1.8832 0.9779
2.8094 -4.7618 -1.9771 0.9768
3.6909 -4.2793 -2.0209 0.9763
4.1058 -3.9792 -2.0447 0.9760
4.4987 -3.6409 -2.0696 0.9757
5.3589 -1.7939 -2.0209 0.9763
5.8602 -0.3226 -2.0988 0.9754
5.9362 0.2040 -2.1241 0.9751
5.8569 1.8270 -2.1940 0.9743
5.7233 2.3641 -2.2144 0.9740
4.5887 4.2670 -2.2408 0.9737
4.0131 4.4631 -2.1463 0.9748
3.3431 4.4620 -1.9938 0.9766
2.4923 4.9761 -1.9902 0.9766
1.0819 3.6841 -1.3731 0.9838
0.6015 5.6023 -2.0149 0.9763
-0.4266 5.9376 -2.1288 0.9750
-0.9910 6.0995 -2.2098 0.9741
-1.5169 5.9303 -2.1890 0.9743
-2.4932 5.4491 -2.1429 0.9749
-3.3420 4.8042 -2.0928 0.9754
-3.7109 4.4314 -2.0670 0.9757
-4.0399 4.0311 -2.0409 0.9760
-5.4347 1.9078 -2.0597 0.9758
-5.5270 1.4010 -2.0390 0.9761
-5.5650 0.8919 -2.0155 0.9763
-5.4290 -0.5947 -1.9531 0.9771
-5.3055 -1.0670 -1.9353 0.9773
-4.4676 -2.7751 -1.8808 0.9779
-4.1815 -3.1471 -1.8715 0.9780
-3.8686 -3.4937 -1.8641 0.9781
-3.5308 -3.8135 -1.8585 0.9782
-1.9695 -4.7972 -1.8545 0.9782
-0.6342 -5.1928 -1.8708 0.9780
0.3020 -5.2784 -1.8907 0.9778
0.7769 -5.2653 -1.9033 0.9776
1.2530 -5.2140 -1.9177 0.9775
2.1977 -4.9945 -1.9513 0.9771
2.6605 -4.8255 -1.9705 0.9769
3.5514 -4.3687 -2.0134 0.9764
3.9727 -4.0814 -2.0368 0.9761
4.3731 -3.7554 -2.0614 0.9758
4.7491 -3.3919 -2.0870 0.9755
5.0968 -2.9922 -2.1135 0.9752
5.5045 -1.4810 -2.0384 0.9761
5.6865 -0.9966 -2.0645 0.9758
5.9168 0.0307 -2.1159 0.9752
5.9505 1.1067 -2.1644 0.9746
5.8887 1.6502 -2.1870 0.9744
5.3786 3.2333 -2.2442 0.9737
5.1020 3.7246 -2.2590 0.9735
4.7751 4.1876 -2.2712 0.9734
4.1956 4.4010 -2.1744 0.9745
3.4694 4.3597 -1.9925 0.9766
3.0715 4.6594 -1.9957 0.9766
2.1737 5.0825 -1.9768 0.9768
-1.3477 5.9911 -2.1960 0.9743
4.5369 -3.0570 -2.0965 0.9768
5.1782 -1.2429 -2.0407 0.9774
5.5087 0.1789 -2.1121 0.9767
5.5292 0.6769 -2.1347 0.9764
5.5018 1.1793 -2.1563 0.9762
5.4253 1.6812 -2.1766 0.9760
4.8981 3.1294 -2.2274 0.9754
4.6258 3.5744 -2.2402 0.9753
4.3085 3.9914 -2.2507 0.9752
3.2771 4.3568 -2.0892 0.9769
2.8038 4.5166 -2.0372 0.9775
2.0208 5.1058 -2.1043 0.9768
-0.9067 5.6475 -2.1919 0.9758
-2.7164 4.7824 -2.1077 0.9767
-3.0975 4.4706 -2.0843 0.9770
-3.4439 4.1284 -2.0603 0.9772
-4.0261 3.3695 -2.0119 0.9778
-2.7465 1.5659 -1.2116 0.9865
-4.6069 2.1063 -1.9412 0.9785
-5.2096 0.3729 -2.0015 0.9779
-5.1708 -0.0925 -1.9819 0.9781
-5.0945 -0.5484 -1.9636 0.9783
-4.2057 -2.6015 -1.8951 0.9790
-3.9385 -2.9526 -1.8863 0.9791
-3.6456 -3.2798 -1.8792 0.9792
-3.3289 -3.5818 -1.8739 0.9793
-2.6315 -4.1044 -1.8684 0.9793
-2.2547 -4.3225 -1.8683 0.9793
-1.8616 -4.5104 -1.8699 0.9793
-1.4544 -4.6669 -1.8733 0.9793
-1.0350 -4.7912 -1.8784 0.9792
-0.6056 -4.8821 -1.8853 0.9791
0.2745 -4.9610 -1.9041 0.9789
0.7205 -4.9475 -1.9160 0.9788
2.0524 -4.6882 -1.9612 0.9783
2.4852 -4.5277 -1.9793 0.9781
3.7085 -3.8244 -2.0415 0.9774
4.0805 -3.5175 -2.0645 0.9772
4.4289 -3.1758 -2.0885 0.9769
4.7493 -2.8002 -2.1128 0.9767
4.9164 -1.8173 -2.0086 0.9778
5.2855 -0.9366 -2.0570 0.9773
5.4103 -0.4666 -2.0810 0.9770
5.5161 1.0152 -2.1494 0.9763
5.4557 1.5178 -2.1701 0.9760
4.4168 3.8587 -2.2476 0.9752
4.0707 4.2539 -2.2563 0.9751
-0.2351 5.7741 -2.2146 0.9755
-0.7437 5.6867 -2.1978 0.9757
-1.2376 5.5504 -2.1792 0.9759
-1.7119 5.3678 -2.1591 0.9762
-2.1624 5.1422 -2.1377 0.9764
-2.5851 4.8769 -2.1152 0.9766
-2.9768 4.5759 -2.0920 0.9769
-3.3348 4.2432 -2.0682 0.9771
-2.8132 1.3867 -1.2019 0.9867
-4.6883 1.8111 -1.9261 0.9787
-5.2007 0.9999 -2.0295 0.9776
-5.0227 -0.8489 -1.9521 0.9784
-4.8870 -1.2831 -1.9363 0.9786
-4.5175 -2.1017 -1.9094 0.9789
-4.2871 -2.4820 -1.8983 0.9790
-2.7507 -4.0268 -1.8688 0.9793
-2.3795 -4.2546 -1.8681 0.9793
-1.9915 -4.4525 -1.8692 0.9793
-1.1731 -4.7542 -1.8766 0.9792
-0.7467 -4.8562 -1.8828 0.9792
-0.3117 -4.9243 -1.8908 0.9791
0.1295 -4.9577 -1.9005 0.9790
0.5748 -4.9559 -1.9119 0.9789
1.0216 -4.9180 -1.9249 0.9787
1.4673 -4.8437 -1.9395 0.9786
2.3450 -4.5842 -1.9732 0.9782
3.5826 -3.9168 -2.0342 0.9775
4.9359 -2.5232 -2.1244 0.9765
5.4702 -0.1414 -2.0970 0.9768
5.5252 0.8511 -2.1423 0.9763
5.4809 1.3540 -2.1635 0.9761
5.3871 1.8544 -2.1833 0.9759
5.0504 2.8264 -2.2179 0.9755
4.8088 3.2868 -2.2321 0.9754
4.5206 3.7227 -2.2442 0.9752
3.7697 4.4466 -2.2340 0.9753
2.8126 4.8612 -2.1522 0.9762
2.3345 5.0215 -2.1221 0.9766
-0.5791 5.7207 -2.2035 0.9757
-1.5596 5.4323 -2.1658 0.9761
-2.8526 4.6778 -2.0996 0.9768
-3.2218 4.3550 -2.0760 0.9771
-3.8529 3.6267 -2.0277 0.9776
-4.1115 3.2295 -2.0035 0.9779
-2.7180 1.4398 -1.1787 0.9869
-5.1096 1.6280 -2.0551 0.9773
-5.1877 1.1552 -2.0367 0.9775
-5.2140 0.6804 -2.0150 0.9777
-5.2004 0.2103 -1.9945 0.9780
-5.1485 -0.2521 -1.9754 0.9782
-4.7767 -1.5668 -1.9265 0.9787
-3.5382 -3.3877 -1.8772 0.9792
-2.8678 -3.9462 -1.8694 0.9793
-2.5026 -4.1835 -1.8682 0.9793
-2.1199 -4.3913 -1.8686 0.9793
-1.3100 -4.7138 -1.8749 0.9793
-0.8869 -4.8266 -1.8806 0.9792
-0.0150 -4.9507 -1.8972 0.9790
0.4292 -4.9604 -1.9080 0.9789
2.6333 -4.4633 -1.9859 0.9780
3.0513 -4.2528 -2.0058 0.9778
3.4547 -4.0054 -2.0270 0.9776
3.8402 -3.7218 -2.0494 0.9774
4.2043 -3.4027 -2.0727 0.9771
4.5437 -3.0492 -2.0970 0.9768
4.8475 -2.6590 -2.1188 0.9766
4.7647 -2.0843 -1.9930 0.9780
5.3336 -0.7752 -2.0654 0.9772
5.5096 0.1893 -2.1126 0.9767
4.8929 3.1390 -2.2277 0.9754
4.6196 3.5835 -2.2405 0.9753
4.3013 3.9998 -2.2509 0.9752
3.9409 4.3829 -2.2587 0.9751
3.2669 4.3602 -2.0879 0.9769
2.4891 4.9697 -2.1300 0.9765
2.0181 5.1271 -2.1115 0.9767
1.0767 3.6662 -1.4643 0.9838
0.6007 5.5951 -2.1565 0.9762
-0.4131 5.7494 -2.2090 0.9756
-0.9172 5.6448 -2.1915 0.9758
-1.8713 5.2941 -2.1518 0.9762
-2.3125 5.0543 -2.1300 0.9765
-2.7248 4.7762 -2.1072 0.9767
-3.1051 4.4637 -2.0838 0.9770
-3.4509 4.1209 -2.0598 0.9772
-3.7601 3.7520 -2.0356 0.9775
-4.0314 3.3611 -2.0114 0.9778
-4.6097 2.0971 -1.9407 0.9785
-4.7234 1.6581 -1.9184 0.9788
-5.2091 0.3630 -2.0011 0.9779
-5.1696 -0.1022 -1.9815 0.9781
-4.9795 -1.0014 -1.9464 0.9785
-4.8320 -1.4304 -1.9311 0.9786
-4.4407 -2.2362 -1.9053 0.9789
-4.2004 -2.6091 -1.8949 0.9790
-3.9325 -2.9597 -1.8862 0.9791
-3.3220 -3.5879 -1.8738 0.9793
-2.9829 -3.8626 -1.8702 0.9793
-2.2465 -4.3268 -1.8683 0.9793
-1.8532 -4.5140 -1.8700 0.9793
-1.0261 -4.7934 -1.8785 0.9792
-0.1591 -4.9398 -1.8940 0.9791
0.2839 -4.9611 -1.9043 0.9789
0.7300 -4.9468 -1.9162 0.9788
2.4942 -4.5239 -1.9797 0.9781
3.7166 -3.8183 -2.0419 0.9774
4.4359 -3.1682 -2.0890 0.9769
4.9211 -1.8085 -2.0092 0.9778
5.1238 -1.3786 -2.0333 0.9775
5.2885 -0.9268 -2.0575 0.9773
5.4931 0.0285 -2.1051 0.9767
5.5154 1.0258 -2.1498 0.9763
5.4539 1.5284 -2.1706 0.9760
5.3428 2.0267 -2.1898 0.9758
4.9719 2.9888 -2.2231 0.9755
4.7138 3.4412 -2.2366 0.9753
4.4100 3.8674 -2.2478 0.9752
4.0629 4.2618 -2.2565 0.9751
2.9458 4.4687 -2.0511 0.9773
2.1710 5.0761 -2.1157 0.9766
0.8601 3.7499 -1.4743 0.9837
0.7592 5.5432 -2.1441 0.9763
-0.7543 5.6843 -2.1974 0.9757
-1.2478 5.5470 -2.1788 0.9759
4.2507 -2.8642 -2.0978 0.9781
4.5304 -2.4962 -2.1170 0.9779
4.8366 -1.1609 -2.0357 0.9787
5.0749 -0.2890 -2.0804 0.9783
5.1334 0.1667 -2.1021 0.9780
5.1198 1.0974 -2.1430 0.9776
4.7586 2.4724 -2.1948 0.9771
4.5475 2.9054 -2.2086 0.9769
4.2930 3.3172 -2.2204 0.9768
2.0120 5.0835 -2.2376 0.9766
1.0720 5.3381 -2.2284 0.9767
-0.3738 5.3426 -2.1919 0.9771
-2.1453 4.7123 -2.1191 0.9779
-2.5318 4.4573 -2.0980 0.9781
-2.8890 4.1698 -2.0762 0.9783
-3.5068 3.5125 -2.0314 0.9788
-3.9850 2.7705 -1.9864 0.9792
-2.9526 1.3500 -1.3287 0.9861
-4.4274 1.5636 -1.9217 0.9799
-4.8445 1.2377 -2.0464 0.9786
-2.0551 0.3333 -0.8521 0.9910
-1.9525 0.1397 -0.8011 0.9916
-1.9157 -0.0343 -0.7842 0.9918
-1.9569 -0.2107 -0.8055 0.9915
-4.6890 -0.9338 -1.9568 0.9795
-3.4381 -3.0931 -1.8928 0.9802
-2.8208 -3.6385 -1.8842 0.9803
-2.4825 -3.8720 -1.8825 0.9803
-1.7562 -4.2549 -1.8839 0.9803
-0.9761 -4.5185 -1.8920 0.9802
0.2587 -4.6751 -1.9163 0.9800
1.5174 -4.5286 -1.9547 0.9796
2.7322 -4.0689 -2.0059 0.9790
3.4803 -3.5890 -2.0461 0.9786
3.8267 -3.2987 -2.0678 0.9784
4.4447 -2.6207 -2.1118 0.9779
4.3775 -2.0791 -1.9834 0.9793
4.5968 -1.6992 -2.0058 0.9790
4.7833 -1.2967 -2.0283 0.9788
4.9342 -0.8743 -2.0509 0.9786
5.1190 0.0170 -2.0951 0.9781
4.3807 3.1854 -2.2168 0.9769
4.0980 3.5802 -2.2271 0.9768
2.5760 4.7678 -2.2180 0.9769
2.1641 5.0339 -2.2426 0.9766
1.7029 5.1965 -2.2381 0.9766
0.1330 2.7311 -1.1191 0.9883
-0.2184 5.3630 -2.1968 0.9771
-1.1508 5.1611 -2.1642 0.9774
-1.5929 4.9946 -2.1456 0.9776
-2.0134 4.7879 -2.1258 0.9778
-2.4088 4.5442 -2.1050 0.9780
-2.7758 4.2670 -2.0834 0.9782
-3.4153 3.6263 -2.0388 0.9787
-3.6840 3.2705 -2.0162 0.9789
-3.9169 2.8961 -1.9937 0.9792
-4.1133 2.5068 -1.9715 0.9794
-4.3953 1.6979 -1.9285 0.9798
-4.8825 0.9387 -2.0349 0.9787
-1.9576 0.1976 -0.8053 0.9915
-1.9551 -0.1530 -0.8026 0.9916
-3.5305 -2.9948 -1.8948 0.9802
-3.2396 -3.2881 -1.8892 0.9802
-2.5949 -3.7988 -1.8829 0.9803
-2.2448 -4.0138 -1.8822 0.9803
-1.4986 -4.3574 -1.8859 0.9803
-0.7041 -4.5792 -1.8962 0.9802
-0.2939 -4.6423 -1.9038 0.9801
0.1221 -4.6725 -1.9130 0.9800
0.5415 -4.6691 -1.9238 0.9799
1.3813 -4.5597 -1.9499 0.9796
1.7966 -4.4528 -1.9652 0.9795
2.2052 -4.3110 -1.9818 0.9793
2.6045 -4.1341 -1.9998 0.9791
3.3629 -3.6766 -2.0393 0.9787
4.3542 -2.7414 -2.1058 0.9780
4.6178 -2.3606 -2.1226 0.9778
4.7263 -1.4303 -2.0210 0.9789
4.8890 -1.0141 -2.0435 0.9787
5.0144 -0.5801 -2.0660 0.9784
